-0.80839223,1.4348341,1.3434733,-0.45024097,0.49284434,0.7445721,0
-0.47430858,0.73448384,1.7831253,0.57524818,-0.47766286,0.664024,0
0.70849913,-1.3367047,-1.1297452,-0.2476331,-0.87008524,0.42618039,0
-0.43800688,0.74784309,1.6236439,0.74767524,-0.24776044,0.61611408,0
-0.85646999,0.62977159,1.7254248,-0.45024097,0.49284434,0.7445721,0
0.12438982,0.19181429,0.72796685,0.74950224,-0.24462768,0.61514521,0
0.83983207,-0.31649619,-0.49157771,0.88053358,0.38340923,0.27867174,0
-0.77445877,0.60707164,0.23656853,-0.61681706,0.43126041,-0.65844607,0
0.98479843,-0.95667732,-0.91842717,0.57084692,-0.48232749,0.66445017,0
0.54755664,-0.89819294,-1.8263118,0.45024097,-0.49284434,-0.7445721,0
1.1212646,-0.9869417,-1.314563,0.45024097,-0.49284434,-0.7445721,0
-0.96871585,0.45012933,1.2527657,-0.49648133,-0.83126581,0.25000721,0
-0.55216801,0.46631172,-0.029389948,-0.74069554,0.25953466,-0.61968696,0
-0.83771342,1.0691633,1.4275945,-0.45024097,0.49284434,0.7445721,0
0.32442647,0.31851059,0.35921744,0.88361394,0.36592057,0.2921105,0
-0.91560882,0.30636489,0.75801682,-0.86468613,-0.44864696,-0.22590686,0
-0.79591191,0.10424906,0.7283501,-0.76727664,-0.64004797,-0.040312216,0
-0.52635896,0.88268417,1.7665561,-0.45024097,0.49284434,0.7445721,0
-1.0978696,0.96417475,1.4898452,-0.45024097,0.49284434,0.7445721,0
0.49479711,-0.12483346,0.29469043,0.81466705,-0.11461194,0.56849074,0
0.74273419,-0.71823663,-1.7689077,0.45024097,-0.49284434,-0.7445721,0
-1.073818,0.84272569,0.75705755,-0.71670616,0.29787394,-0.63055807,0
-1.1984043,0.82239771,1.5298522,-0.45024097,0.49284434,0.7445721,0
1.0075583,-0.95667911,-1.4511186,0.45024097,-0.49284434,-0.7445721,0
-0.65796268,0.68651587,0.43343335,-0.59450245,0.45671353,-0.66180027,0
0.016896022,0.52797234,0.64593226,0.87817562,0.39525947,0.26940206,0
-0.97966737,0.58728361,0.75062662,-0.86376476,-0.02910091,-0.50305414,0
1.3105913,-0.80529964,-1.3038964,0.45024097,-0.49284434,-0.7445721,0
1.0379291,-0.90240169,-1.5796944,0.45024097,-0.49284434,-0.7445721,0
-0.93613809,1.186872,1.3832319,-0.45024097,0.49284434,0.7445721,0
-0.57193708,-0.090088293,0.41482571,-0.71488583,-0.69859225,0.030119747,0
0.05468433,-0.86156523,-0.5542267,-0.53149283,-0.81798297,0.22004378,0
-1.2215146,0.90382135,1.3265479,-0.45024097,0.49284434,0.7445721,0
0.17685154,-0.64871472,-1.3575672,-0.82610399,0.086549461,-0.55683154,0
-0.54222298,0.80851549,1.6992848,-0.45024097,0.49284434,0.7445721,0
-0.70231026,0.88546723,1.6669254,-0.45024097,0.49284434,0.7445721,0
-0.81642038,1.1153867,1.371711,-0.45024097,0.49284434,0.7445721,0
-0.74875635,0.8682003,1.670559,-0.45024097,0.49284434,0.7445721,0
-0.9327265,0.87631637,0.55576783,-0.63573778,0.40860304,-0.65489006,0
-0.4301191,-0.081746802,0.61254501,-0.40719527,-0.85544688,0.32000417,0
0.2610141,-0.073641509,-1.0102369,-0.2196264,0.74712974,-0.62734485,0
-0.65482795,0.7704674,1.8859717,-0.45024097,0.49284434,0.7445721,0
-0.21570411,-0.078775316,0.84177274,0.31753287,-0.69098997,0.64938885,0
-0.58784962,0.21905643,0.06953039,-0.8586359,-0.010167204,-0.51248521,0
0.38995188,-1.1795572,-1.5807486,0.45024097,-0.49284434,-0.7445721,0
-0.86845374,0.83064878,1.4819524,-0.45024097,0.49284434,0.7445721,0
1.2668413,-1.1562222,-1.1849278,0.45024097,-0.49284434,-0.7445721,0
-1.322077,0.95606875,1.1259418,-0.45024097,0.49284434,0.7445721,0
-0.86845952,1.3270258,1.2559284,-0.45024097,0.49284434,0.7445721,0
-0.72078633,0.95065373,1.6244388,-0.45024097,0.49284434,0.7445721,0
0.23368378,0.24092083,0.61336231,0.81724864,-0.10846839,0.56598532,0
0.26714996,0.3181788,-0.29975945,0.21295783,0.86908078,-0.44648361,0
1.276135,-0.86782396,-1.3816814,0.45024097,-0.49284434,-0.7445721,0
-0.89905977,0.82468688,1.486282,-0.45024097,0.49284434,0.7445721,0
-0.98757005,0.69218814,1.7398751,-0.45024097,0.49284434,0.7445721,0
-1.0616033,0.67634034,1.468387,-0.45024097,0.49284434,0.7445721,0
0.74173057,-1.060971,-1.6143082,0.45024097,-0.49284434,-0.7445721,0
-1.3207173,1.0302197,1.3120576,-0.45024097,0.49284434,0.7445721,0
-0.59428751,0.99557793,0.51130843,-0.018977404,0.82840401,-0.55980957,0
0.37919226,-0.83001566,-0.26908562,-0.000349015,-0.83397126,0.55180794,0
1.1464777,-1.0829321,-1.3038663,0.45024097,-0.49284434,-0.7445721,0
1.0859704,-1.2276125,-1.3075908,0.45024097,-0.49284434,-0.7445721,0
-1.0908278,1.2463312,1.3054175,-0.45024097,0.49284434,0.7445721,0
-1.094707,1.3724618,1.2194699,-0.45024097,0.49284434,0.7445721,0
0.49556005,-0.81119233,-0.17269233,0.32275602,-0.68766278,0.65034485,0
-0.69857144,1.2189595,1.5295877,-0.45024097,0.49284434,0.7445721,0
-0.96508276,0.71587664,1.5556508,-0.45024097,0.49284434,0.7445721,0
-0.66696692,1.010116,0.6948086,-0.24096411,0.73587114,-0.63279545,0
1.1900674,-0.6851145,-1.4028322,0.45024097,-0.49284434,-0.7445721,0
-0.54312664,1.374578,1.5424612,-0.45024097,0.49284434,0.7445721,0
0.81078029,-1.3014323,-1.3172555,0.45024097,-0.49284434,-0.7445721,0
-0.19364808,0.83828717,0.89009565,0.83436263,0.52919185,0.15425645,0
0.23459752,-0.1621148,-1.1810433,-0.29101416,0.70734841,-0.64418089,0
0.88996238,-0.6074571,-1.6178535,0.45024097,-0.49284434,-0.7445721,0
-0.058479123,-0.79689276,-0.52900594,-0.62553227,-0.76914686,0.13085288,0
-0.4379673,-0.02139942,-0.20739797,-0.88434833,-0.13095099,-0.44808474,0
-1.2457883,0.82276285,1.4279063,-0.45024097,0.49284434,0.7445721,0
-0.21736157,-0.32553858,0.13822913,-0.53149116,-0.81798375,0.22004527,0
0.78172225,-1.1389151,-1.3400909,0.45024097,-0.49284434,-0.7445721,0
-0.65202475,0.18961802,0.14466183,-0.84839374,0.02387809,-0.52882695,0
0.33614314,-0.70848429,-0.27613422,-0.10917777,-0.85800338,0.50190687,0
-0.41886759,-0.25207001,0.27190024,-0.67418945,-0.73438352,0.078419596,0
1.2530998,-1.2784783,-1.1233921,0.45024097,-0.49284434,-0.7445721,0
0.90789163,-0.60240602,-1.8469317,0.45024097,-0.49284434,-0.7445721,0
1.0978421,-0.8142885,-1.4165617,0.45024097,-0.49284434,-0.7445721,0
-0.64730763,1.4426738,1.423597,-0.45024097,0.49284434,0.7445721,0
-1.2638324,0.69460618,1.5168368,-0.45024097,0.49284434,0.7445721,0
-1.0385866,0.573084,1.7127618,-0.45024097,0.49284434,0.7445721,0
-1.1179677,0.58956456,1.5190127,-0.66758764,-0.73956597,0.085842073,0
0.87586021,-0.82680458,-1.5506999,0.45024097,-0.49284434,-0.7445721,0
-0.058939967,-0.25404227,-0.63181388,-0.84892952,0.022199102,-0.52803963,0
-1.1655048,0.87526602,0.94988662,-0.74888307,0.24569187,-0.61547518,0
-0.49822366,-0.30437261,0.074126408,-0.67740417,-0.73180157,0.074766636,0
0.18425372,-0.19706482,0.45375913,0.35719457,-0.6648314,0.65605736,0
0.88945544,-1.1948606,-1.4088351,0.45024097,-0.49284434,-0.7445721,0
0.7927351,-1.0453566,-1.4056995,0.45024097,-0.49284434,-0.7445721,0
-0.95327353,0.25681466,1.0180122,-0.6046735,-0.78185838,0.15188009,0
-0.57163531,0.67895788,1.5938631,0.50000906,-0.5517087,0.66753912,0
0.20880719,-0.7521075,-1.0846298,-0.88624299,-0.34834629,-0.30533296,0
-1.005753,0.82759482,1.4421402,-0.45024097,0.49284434,0.7445721,0
1.2755929,-0.59862161,-1.4691046,0.79514086,0.60068834,0.083214387,0
-0.76054949,0.9182145,1.5376483,-0.45024097,0.49284434,0.7445721,0
-1.1947553,0.8360858,1.4816084,-0.45024097,0.49284434,0.7445721,0
-1.0368543,1.0713683,1.3463788,-0.45024097,0.49284434,0.7445721,0
0.46781686,0.26117462,-0.0032443777,0.73319006,0.67999047,-0.0067384243,0
-0.12025264,-0.26478779,0.51550984,0.13993207,-0.78462493,0.60397255,0
-0.80584592,1.1192549,1.5898265,-0.45024097,0.49284434,0.7445721,0
0.61436999,-0.32185319,0.040126108,0.76616704,-0.21499819,0.60561019,0
-1.1181432,0.82194006,1.5136664,-0.45024097,0.49284434,0.7445721,0
0.88470703,-1.1790568,-1.2759345,0.45024097,-0.49284434,-0.7445721,0
-0.23372467,0.25557882,1.1114695,0.52713001,-0.52634764,0.66715229,0
-0.73348218,1.0462463,0.73781264,-0.33179539,0.68182135,-0.65194446,0
-0.99797893,0.63232875,1.6765437,-0.45024097,0.49284434,0.7445721,0
-0.61636382,-0.099018261,0.30387309,-0.82098615,-0.55637503,-0.12817463,0
-0.72866535,0.93133652,1.5369737,-0.45024097,0.49284434,0.7445721,0
-0.19681823,-0.37537631,0.010958642,-0.57879603,-0.79604906,0.17692125,0
0.042065367,0.26860479,-0.52946627,-0.093033895,0.80344242,-0.58806896,0
1.2569193,-0.85463595,-1.4012899,0.45024097,-0.49284434,-0.7445721,0
-0.095524296,-0.54650378,0.047420055,-0.43336961,-0.84968907,0.30036539,0
-0.30300537,1.0708646,0.81213874,0.47477198,0.83836538,-0.26783416,0
-0.99867135,0.79497612,1.5021858,-0.45024097,0.49284434,0.7445721,0
0.055995122,-0.69089496,-0.96568191,-0.88700449,-0.15114698,-0.43632284,0
0.49096072,-1.3038511,-1.6587347,0.45024097,-0.49284434,-0.7445721,0
0.21397446,0.29196095,0.49523389,0.88356388,0.1255967,0.45115447,0
-0.051918179,0.68335885,1.1711771,0.89211833,0.21325082,0.39830765,0
0.89330816,-0.76908326,-1.7660003,0.45024097,-0.49284434,-0.7445721,0
-0.74953222,0.63998801,1.7673105,-0.45024097,0.49284434,0.7445721,0
1.1997801,-0.63021827,-1.6556349,0.45024097,-0.49284434,-0.7445721,0
1.2932588,-1.0111033,-1.3177856,0.45024097,-0.49284434,-0.7445721,0
-0.92320812,1.0040097,0.70183766,-0.58279294,0.46956077,-0.66322333,0
-0.50476241,1.0283649,0.84695089,0.24682102,0.87007767,-0.42666647,0
0.86164665,-1.2682703,-1.3677191,0.45024097,-0.49284434,-0.7445721,0
0.92159927,-0.71059656,-1.711898,0.45024097,-0.49284434,-0.7445721,0
-0.57107341,0.25522876,-0.0027989149,-0.70110768,0.32124221,-0.63659358,0
-0.59047574,0.41210812,0.10229914,-0.59336942,0.45797151,-0.66194773,0
0.85867077,-1.3082714,-1.1680009,0.45024097,-0.49284434,-0.7445721,0
1.2011522,-0.9422828,-1.3132925,0.45024097,-0.49284434,-0.7445721,0
0.50284117,0.11994638,-0.58616745,0.39055291,0.85857582,-0.33213878,0
-1.1280682,0.65009803,1.4466621,-0.45024097,0.49284434,0.7445721,0
0.8753804,-1.2938824,-1.2756959,0.45024097,-0.49284434,-0.7445721,0
0.26349044,-0.28960955,0.42201623,0.62229043,-0.42481175,0.65748739,0
0.068414301,-0.53130597,-1.2076721,-0.79011393,0.16853407,-0.58933544,0
-0.11622589,-0.056024715,-0.71086162,-0.78094167,0.18694071,-0.5959726,0
1.0408875,-0.54063487,-1.3364879,0.57499409,0.7979964,-0.18050909,0
-0.18002135,0.47977126,-0.17733523,-0.16800635,0.77222103,-0.61273873,0
0.78049564,-0.64388525,-1.8413339,0.45024097,-0.49284434,-0.7445721,0
1.0073361,-1.0682478,-1.4068913,0.45024097,-0.49284434,-0.7445721,0
0.51532888,-1.259046,-1.6167471,0.45024097,-0.49284434,-0.7445721,0
-1.300614,1.1091568,1.2211322,-0.45024097,0.49284434,0.7445721,0
-1.0539213,0.96492302,1.5190482,-0.45024097,0.49284434,0.7445721,0
-0.38391763,1.1222907,1.2426568,0.79561716,0.59994906,0.083991721,0
-1.0322521,1.0919393,1.4249477,-0.45024097,0.49284434,0.7445721,0
1.1589965,-0.60746384,-1.6062766,0.45024097,-0.49284434,-0.7445721,0
1.1091202,-1.1611389,-1.2456496,0.45024097,-0.49284434,-0.7445721,0
-0.42949793,1.1994007,1.0368565,0.48444623,0.83530456,-0.25995809,0
-0.68727326,1.2582935,1.5654547,-0.45024097,0.49284434,0.7445721,0
-0.75607586,0.12854823,0.55995399,-0.76862818,-0.63829654,-0.042288765,0
-0.96941608,0.64605498,1.7329108,-0.45024097,0.49284434,0.7445721,0
0.070525266,0.42351115,0.82288766,0.82107615,-0.099161714,0.56213951,0
-0.45881823,0.4318186,1.5481138,0.35846257,-0.66396052,0.65624774,0
-0.58736581,1.0213199,1.6015284,-0.45024097,0.49284434,0.7445721,0
1.0481626,-0.62935531,-1.615889,0.45024097,-0.49284434,-0.7445721,0
-0.75197113,0.9408825,1.5669917,-0.45024097,0.49284434,0.7445721,0
-0.10063225,0.23152915,-0.57739806,-0.49312565,0.557926,-0.66749209,0
-0.16934945,-0.57767117,-0.084438652,-0.50800669,-0.82715076,0.24031401,0
1.1045347,-1.2950734,-1.2009434,0.29279253,-0.70627898,0.64454842,0
-0.47739038,-0.059559442,0.11138969,-0.87054312,-0.42774844,-0.24328172,0
1.233005,-1.0650319,-1.1856201,0.45024097,-0.49284434,-0.7445721,0
0.69406348,-0.12109098,-0.53100669,0.76883233,0.63803065,0.042588219,0
1.04582,-1.1098362,-1.2366498,0.45024097,-0.49284434,-0.7445721,0
-1.136237,0.92584449,1.2536662,-0.45024097,0.49284434,0.7445721,0
-0.80385208,1.2376155,0.96250319,-0.084211066,0.80671984,-0.58490312,0
0.96552825,-0.79899073,-1.5309694,0.45024097,-0.49284434,-0.7445721,0
0.099387139,-0.13612919,0.59461176,0.33498484,-0.67973483,0.65249199,0
1.0953844,-1.1916046,-1.1324928,0.63725281,-0.40674341,0.65457523,0
1.0131993,-0.94836402,-1.5512822,0.45024097,-0.49284434,-0.7445721,0
0.33426797,0.32273448,0.44216967,0.87944931,0.38899738,0.2743172,0
-0.86394989,1.2979345,1.1539835,0.087447941,0.85420376,-0.51253182,0
0.62783051,-0.087434158,0.08861272,0.85701776,0.004485786,0.51526737,0
-0.55570287,0.05181174,0.12501389,-0.89116418,-0.19595066,-0.40918192,0
0.23544446,-0.18591565,-1.2021755,-0.37809029,0.65019816,-0.65900695,0
0.20170161,0.38938802,0.61957836,0.8927238,0.26535907,0.36418244,0
-0.35788906,1.0276256,1.2090703,0.82031816,0.55764383,0.12693094,0
-0.26071861,-0.50155294,-0.42816114,-0.8244198,-0.54972839,-0.13465059,0
0.74480534,-1.3436046,-1.417358,0.45024097,-0.49284434,-0.7445721,0
-0.92144191,0.97598505,1.4473196,-0.45024097,0.49284434,0.7445721,0
0.71582538,-0.34962589,-1.2877688,0.18001154,0.86685324,-0.46493161,0
-0.93620944,0.71367562,1.6358547,-0.45024097,0.49284434,0.7445721,0
-0.92028373,0.78217757,1.5283228,-0.45024097,0.49284434,0.7445721,0
-1.0852723,1.2192925,1.1784872,-0.45024097,0.49284434,0.7445721,0
-0.95718431,0.78456545,1.6914252,-0.45024097,0.49284434,0.7445721,0
-0.94975096,1.0253971,1.5338023,-0.45024097,0.49284434,0.7445721,0
0.82190317,-1.2185555,-0.98831469,0.23561904,-0.73874104,0.63146293,0
0.010610044,-0.15669233,-0.9505347,-0.52363878,0.52969193,-0.66725481,0
0.35501158,-1.0152633,-1.4941173,-0.89290714,-0.24830166,-0.37558389,0
0.68095851,-1.0041653,-1.6584492,0.45024097,-0.49284434,-0.7445721,0
-0.66713989,0.82049435,1.6185114,-0.45024097,0.49284434,0.7445721,0
0.79130721,-1.2558116,-1.0990348,-0.13534489,-0.86190802,0.48866811,0
0.17259571,0.030875608,0.69404787,0.69241804,-0.33378759,0.63964295,0
-0.39611077,0.9994669,0.59297931,0.37532547,0.86108923,-0.34301046,0
-0.24713615,0.76385796,0.16775766,-0.04900679,0.81897771,-0.57172889,0
-0.9133777,1.4130683,1.1052544,-0.45024097,0.49284434,0.7445721,0
0.59178293,-0.87601936,-1.6787932,0.45024097,-0.49284434,-0.7445721,0
-0.81215882,0.63958341,1.6425905,-0.45024097,0.49284434,0.7445721,0
-1.1407503,0.51840383,1.1262428,-0.87840164,-0.39417028,-0.27025968,0
0.62685317,0.0031254739,-0.13412319,0.89280057,0.26136339,0.36687368,0
0.78503412,-1.0406227,-1.5632007,0.45024097,-0.49284434,-0.7445721,0
0.22474311,-0.75893545,-0.22167483,-0.19437999,-0.867975,0.45698562,0
1.1651888,-0.8028239,-1.4518452,0.45024097,-0.49284434,-0.7445721,0
-0.22524646,0.81765425,0.22309235,0.23534682,0.86988908,-0.43347999,0
-0.39646918,0.7150774,1.694881,0.70897299,-0.30960068,0.63364404,0
1.229378,-1.2288613,-1.2500483,0.45024097,-0.49284434,-0.7445721,0
-0.85865247,0.864869,1.5923122,-0.45024097,0.49284434,0.7445721,0
-1.1724761,1.0518107,1.2401252,-0.45024097,0.49284434,0.7445721,0
-0.23167422,-0.073215619,-0.71448094,-0.70858985,0.31017423,-0.63379192,0
0.98250425,-1.2146893,-1.0189083,0.40097001,-0.63346994,0.66176963,0
-0.71104646,1.1413629,0.80612206,-0.13464935,0.78686291,-0.60225952,0
0.20831707,-0.51254576,-0.013970941,0.038973063,-0.82223254,0.5678159,0
0.35938346,-1.0077642,-1.0166577,-0.59696376,-0.78626192,0.15945691,0
-0.99034232,0.70119226,1.5051079,-0.45024097,0.49284434,0.7445721,0
-0.77549601,0.56916684,1.836868,-0.45024097,0.49284434,0.7445721,0
-1.4108458,0.94262052,1.3309522,-0.45024097,0.49284434,0.7445721,0
1.2331601,-1.0437728,-1.2091969,0.45024097,-0.49284434,-0.7445721,0
-1.2328511,0.63614202,1.5062275,-0.45024097,0.49284434,0.7445721,0
-0.56424785,1.1034788,1.5690991,-0.45024097,0.49284434,0.7445721,0
0.088661574,-0.71024257,-1.0675688,-0.87398553,-0.41400346,-0.25446132,0
-0.65343881,0.77402359,0.45164418,-0.35284269,0.6678037,-0.65539324,0
-0.9070273,0.74605405,1.5611608,-0.45024097,0.49284434,0.7445721,0
-0.46411231,0.78552341,1.6499479,0.70769954,-0.31150472,0.63413423,0
-0.74732375,1.0599772,1.4696026,-0.45024097,0.49284434,0.7445721,0
0.99955857,-0.70867586,-1.6982841,0.45024097,-0.49284434,-0.7445721,0
-1.1888714,0.73572016,1.6060231,-0.45024097,0.49284434,0.7445721,0
1.2379215,-1.0144484,-1.1564133,0.86087352,0.018244341,0.50849193,0
-1.1269584,0.69063497,1.480582,-0.45024097,0.49284434,0.7445721,0
-0.43303385,0.26529059,-0.097635873,-0.76356828,0.21975084,-0.60718453,0
0.79022735,-0.23043007,-0.70064348,0.83030748,0.53781527,0.14609632,0
0.72476172,-1.2414126,-0.85216445,0.11332901,-0.79558885,0.5951429,0
0.82602108,-1.4148232,-1.3477496,0.45024097,-0.49284434,-0.7445721,0
0.72483623,-1.1380177,-1.5318522,0.45024097,-0.49284434,-0.7445721,0
-0.64264703,0.85779679,0.49581993,-0.35317391,0.6675784,-0.65544432,0
-0.70219433,1.2950962,1.2972624,-0.45024097,0.49284434,0.7445721,0
-1.204717,0.97304618,1.4112854,-0.45024097,0.49284434,0.7445721,0
0.83994991,-1.4663101,-1.2604489,-0.31357306,-0.8680355,0.38494986,0
1.1119258,-0.54664415,-1.2518309,0.74814224,0.66340554,0.013280958,0
0.30113545,-0.81020629,-1.2794352,-0.89140522,-0.1997498,-0.40681297,0
0.89031547,-1.225768,-1.3842453,0.45024097,-0.49284434,-0.7445721,0
-0.14165035,-0.42210883,-0.65450591,-0.89101213,-0.30228263,-0.33870715,0
-0.63579744,0.28857562,-0.043451846,-0.83286303,0.068820678,-0.54918379,0
1.2924457,-0.85621661,-1.1100544,0.86733025,0.04323997,0.49585131,0
0.7035653,-1.0013728,-1.4673052,0.45024097,-0.49284434,-0.7445721,0
-1.0573205,0.62045026,1.7685018,-0.45024097,0.49284434,0.7445721,0
-0.97062898,0.63474846,1.7687778,-0.45024097,0.49284434,0.7445721,0
0.21844795,-0.98269761,-0.76182437,-0.52968335,-0.81872791,0.22163102,0
-0.92462605,0.98581141,1.400825,-0.45024097,0.49284434,0.7445721,0
0.95899367,-0.62913603,-1.5622967,0.45024097,-0.49284434,-0.7445721,0
-0.7839964,0.17042908,0.32006475,-0.88493139,-0.35749811,-0.29848212,0
-0.61890554,-0.039046019,0.80930829,-0.26404336,-0.87006909,0.41624638,0
0.070195086,0.058980823,0.75345767,0.65047693,-0.39020801,0.65162683,0
-0.19414347,1.0547001,0.83922386,0.59144646,0.78932017,-0.16481751,0
-0.65825623,1.2084558,1.6216232,-0.45024097,0.49284434,0.7445721,0
-0.58792937,1.2622346,1.6222608,-0.45024097,0.49284434,0.7445721,0
-0.061093487,-0.41220841,-0.94445604,-0.77782798,0.19300881,-0.59810632,0
-0.1501646,-0.46936047,-0.7381255,-0.88981318,-0.17829421,-0.42005205,0
1.0416496,-1.4155949,-1.1839052,0.45024097,-0.49284434,-0.7445721,0
0.54144681,-1.0407254,-1.6514345,0.45024097,-0.49284434,-0.7445721,0
0.98424292,-0.72721982,-1.4957294,0.45024097,-0.49284434,-0.7445721,0
0.39428115,-0.9009974,-1.6845943,-0.83458668,0.064142652,-0.54712963,0
-0.21331033,-0.24426629,-0.57806695,-0.81013536,0.12515327,-0.57272792,0
0.90490508,-0.8857367,-1.6134857,0.45024097,-0.49284434,-0.7445721,0
1.0726639,-1.0344547,-1.370469,0.45024097,-0.49284434,-0.7445721,0
0.18098728,0.4326905,0.46061194,0.81200159,0.5728389,0.11184407,0
-0.0066647828,-0.74785376,-0.38988486,-0.42121246,-0.85249329,0.30957294,0
-0.34732342,0.81998175,0.25851065,-0.17047116,0.77109069,-0.61348093,0
-0.83694172,0.23019832,1.2654088,-0.32275519,-0.86732078,0.3789244,0
-1.2015114,0.74214721,1.4057728,-0.45024097,0.49284434,0.7445721,0
0.38042504,-0.0095025897,-0.85940158,-0.15386704,0.77857602,-0.60839498,0
-0.85481757,1.3029789,1.3419653,-0.45024097,0.49284434,0.7445721,0
-1.312826,0.71517909,1.300187,-0.45024097,0.49284434,0.7445721,0
0.054584675,0.71630216,1.0031023,0.88757432,0.33802843,0.31296757,0
1.1172374,-1.2031138,-1.1257505,0.45024097,-0.49284434,-0.7445721,0
0.46426982,-0.71811801,-1.5736647,-0.56947088,0.48377672,-0.66457731,0
-0.66388816,1.0562811,1.493825,-0.45024097,0.49284434,0.7445721,0
-1.1249834,1.3088317,1.1830599,-0.45024097,0.49284434,0.7445721,0
-0.80718791,1.0144331,0.65873241,-0.36294511,0.66086441,-0.65690887,0
-0.75935596,0.63356966,1.7156103,-0.45024097,0.49284434,0.7445721,0
-1.1650286,0.71079934,1.3971131,-0.45024097,0.49284434,0.7445721,0
0.80328733,-1.0630186,-1.3712823,0.45024097,-0.49284434,-0.7445721,0
0.41426894,-1.0780157,-1.4358369,-0.84316421,-0.50910586,-0.17287388,0
0.70546585,-0.028378159,-0.38280442,0.8516916,0.48746347,0.19235589,0
-0.81734097,1.0466635,1.3704413,-0.45024097,0.49284434,0.7445721,0
0.61036462,-0.99801219,-0.65540004,-0.023261815,-0.8400653,0.54198647,0
0.90915227,-1.3641953,-1.136941,0.45024097,-0.49284434,-0.7445721,0
-1.0342965,0.65668249,1.533127,-0.45024097,0.49284434,0.7445721,0
0.97209835,-0.53245568,-1.6160994,0.057283491,0.84809935,-0.52673161,0
-0.2947818,0.69819862,0.25712639,-0.13101161,0.78838634,-0.60106814,0
-0.5933342,0.44448638,1.4820585,0.20030291,-0.75687391,0.62210989,0
-0.34664044,0.58161765,-0.038939118,-0.1480529,0.78112555,-0.60656685,0
0.62046528,-1.3655121,-1.5393075,0.45024097,-0.49284434,-0.7445721,0
-0.69941014,0.14478543,0.46226245,-0.85083115,-0.48976195,-0.1903142,0
-1.2567459,0.56373405,1.4809202,-0.45024097,0.49284434,0.7445721,0
-0.87933177,1.1274765,1.4065989,-0.45024097,0.49284434,0.7445721,0
0.030951299,-0.45212007,-1.0523005,-0.85442811,0.0043521598,-0.5195514,0
-1.095109,0.90202475,1.441182,-0.45024097,0.49284434,0.7445721,0
-0.56214106,1.038638,1.6632646,-0.45024097,0.49284434,0.7445721,0
0.60986418,-0.0024655759,-0.068982556,0.87430865,0.41264418,0.25555649,0
0.21211363,-0.8581056,-0.7443704,-0.75482547,-0.65553868,-0.022529453,0
0.0056981072,-0.071777627,-0.66098958,-0.67151296,0.36271459,-0.64614892,0
0.91742635,-1.3271084,-1.3412755,0.45024097,-0.49284434,-0.7445721,0
0.0082967281,0.16550612,0.90794176,0.57716411,-0.47561818,0.66382909,0
0.71589148,-1.0768946,-1.5700619,0.45024097,-0.49284434,-0.7445721,0
-0.57049477,0.037879884,0.65636849,-0.57892257,-0.79598361,0.17680132,0
0.27080536,0.14665119,-0.63464129,-0.14161481,0.78390574,-0.604514,0
0.66032338,-1.0013013,-1.6360501,0.45024097,-0.49284434,-0.7445721,0
-0.27847224,0.98436522,1.1616108,0.87523907,0.40865752,0.25875792,0
-0.79721284,0.8785634,1.7564301,-0.45024097,0.49284434,0.7445721,0
-0.65778846,0.75301898,1.9173498,-0.45024097,0.49284434,0.7445721,0
-0.92045134,1.4347442,1.2409489,-0.45024097,0.49284434,0.7445721,0
0.19299205,-0.43687016,-1.1892698,-0.60178953,0.44854522,-0.66079998,0
-0.31809703,0.98765367,1.3321418,0.8372196,0.52288961,0.16015559,0
-0.30659503,0.79292941,0.31998199,-0.008164525,0.83156693,-0.55536461,0
1.1362736,-1.1243625,-0.90921032,0.64995778,-0.39086765,0.65174955,0
1.2243239,-0.72614503,-1.4105399,0.45024097,-0.49284434,-0.7445721,0
-0.091645561,0.34061307,-0.38346624,-0.34452289,0.67341512,-0.65407658,0
-0.83247757,0.9502666,1.555559,-0.45024097,0.49284434,0.7445721,0
-0.27334237,1.0318673,0.6633175,0.44625649,0.84646386,-0.29043785,0
-0.18480232,0.93149716,0.79961574,0.73107278,0.68223333,-0.0095033646,0
1.1992576,-0.73004735,-1.4817442,0.45024097,-0.49284434,-0.7445721,0
-1.3875735,0.71182537,1.4232247,-0.45024097,0.49284434,0.7445721,0
0.52052665,0.16277145,0.17962706,0.87894535,0.39151207,0.27234793,0
0.89073861,-1.4188089,-1.3159808,0.45024097,-0.49284434,-0.7445721,0
1.0082639,-0.82516885,-1.5166769,0.45024097,-0.49284434,-0.7445721,0
-0.12650791,-0.62829638,-0.20250297,-0.41995481,-0.85277039,0.31051689,0
0.78454924,-0.9329735,-1.5794015,0.45024097,-0.49284434,-0.7445721,0
1.2253104,-0.76307249,-1.4309381,0.45024097,-0.49284434,-0.7445721,0
0.070926592,-0.24263102,-0.95824212,-0.55119658,0.5026201,-0.66599965,0
0.78891718,-0.46323544,-1.7877436,0.45024097,-0.49284434,-0.7445721,0
0.87206584,-0.73739988,-1.5865549,0.45024097,-0.49284434,-0.7445721,0
0.70625693,-0.20430428,-0.44524699,0.88060737,0.38301998,0.27897397,0
-0.86158508,1.081715,1.4828374,-0.45024097,0.49284434,0.7445721,0
0.74927539,-1.2418871,-1.3754067,0.45024097,-0.49284434,-0.7445721,0
-0.71745455,1.4497738,1.2970784,-0.45024097,0.49284434,0.7445721,0
0.84396851,-1.196913,-1.2914469,0.45024097,-0.49284434,-0.7445721,0
0.69021606,-1.1404532,-1.5063796,0.45024097,-0.49284434,-0.7445721,0
-0.0054170042,0.59731627,0.3636542,0.57986581,0.79549497,-0.17590749,0
0.68220186,-0.31875551,-1.3412775,0.15888423,0.86478704,-0.47633949,0
0.77351981,-1.292784,-1.2431717,0.45024097,-0.49284434,-0.7445721,0
0.18216155,-0.95287162,-0.90156215,-0.65643418,-0.74797118,0.098150045,0
-0.62322628,1.1418886,1.4719501,-0.45024097,0.49284434,0.7445721,0
-0.41572252,1.13899,1.2340952,0.69058883,0.72079521,-0.059508562,0
0.52140808,-0.16410565,-1.216501,0.16202888,0.86512572,-0.47466218,0
-0.50826383,0.0092955828,0.58127362,-0.48984903,-0.83352351,0.25551224,0
-1.0613184,1.1090288,1.0615277,-0.50080335,0.55098569,-0.66754091,0
0.3527571,0.03330056,0.4735375,0.78991127,-0.16894969,0.58948803,0
-0.95581484,0.95512241,0.78851295,-0.54274666,0.51108778,-0.66649485,0
0.44951275,-0.4928737,0.062317461,0.60780197,-0.44170207,0.65990615,0
0.80383855,-1.1319783,-1.3883221,0.45024097,-0.49284434,-0.7445721,0
-0.614501,0.71133614,1.7581146,-0.45024097,0.49284434,0.7445721,0
0.60122442,-0.25729239,-1.3045148,-0.10012671,0.80074769,-0.59057426,0
-0.27383506,1.0420005,1.3790814,0.84981775,0.49243394,0.18793274,0
0.74491888,-0.99547541,-1.5177647,0.45024097,-0.49284434,-0.7445721,0
0.2284373,0.54428977,-0.069489762,0.55673623,0.80688584,-0.19743365,0
-0.25786826,-0.17480654,-0.52534616,-0.83198416,0.07118044,-0.55021423,0
-0.86528897,0.94872081,1.5075823,-0.45024097,0.49284434,0.7445721,0
-0.99246144,0.49121958,1.6599104,-0.45024097,0.49284434,0.7445721,0
-0.74677998,1.0864524,1.4580113,-0.45024097,0.49284434,0.7445721,0
-0.76749051,1.2233289,1.098102,0.14973837,0.86374021,-0.48117709,0
-0.53526157,1.0877087,1.5520264,-0.45024097,0.49284434,0.7445721,0
0.74772465,-0.20217192,-0.66567701,0.69271457,0.71895546,-0.057005435,0
0.60571599,-1.284658,-1.3416085,-0.48424879,-0.83536869,0.26012,0
-0.72574222,0.91471934,1.6986119,-0.45024097,0.49284434,0.7445721,0
-0.17679268,1.0015451,0.95761812,0.70359814,0.70923519,-0.043990135,0
-0.90798062,1.1564627,1.3149936,-0.45024097,0.49284434,0.7445721,0
1.2432368,-0.94128823,-1.2393051,0.45024097,-0.49284434,-0.7445721,0
-1.0610601,0.8737818,1.4958291,-0.45024097,0.49284434,0.7445721,0
-1.2054191,0.85638893,1.375313,-0.45024097,0.49284434,0.7445721,0
-0.0035750014,-0.62879401,-0.74018973,-0.88290453,-0.37019375,-0.28885305,0
-0.90419686,0.54022616,1.4451716,-0.28169891,-0.86969066,0.40531966,0
-0.30945224,0.23792695,-0.38092142,-0.52665663,0.52680248,-0.66716707,0
0.52700168,-0.78285879,-0.39452818,0.18335164,-0.76507425,0.6172874,0
0.78814298,-0.76882029,-1.6380416,0.45024097,-0.49284434,-0.7445721,0
-0.4360956,1.0919878,1.4879901,0.85952377,0.4651024,0.21189314,0
0.84050369,-0.80858976,-1.5228838,0.45024097,-0.49284434,-0.7445721,0
-0.83823991,0.32699287,0.78083962,-0.79606849,-0.59924603,-0.084730029,0
0.78663915,-1.315362,-1.2753618,0.45024097,-0.49284434,-0.7445721,0
-0.67646998,1.0817015,1.4274631,-0.45024097,0.49284434,0.7445721,0
-0.98598343,1.3119065,1.3055472,-0.45024097,0.49284434,0.7445721,0
-0.51672977,0.52851516,-0.030846357,-0.5799644,0.47261417,-0.66353393,0
0.87188971,-0.9860177,-1.4385765,0.45024097,-0.49284434,-0.7445721,0
0.57890272,-1.3383377,-1.5407757,0.45024097,-0.49284434,-0.7445721,0
-0.71053547,0.21869746,0.25716487,-0.87849951,-0.095309384,-0.46813968,0
0.13472241,-0.11069795,0.4397701,0.53750688,-0.51626337,0.66675222,0
0.97660708,-0.49214411,-1.6091558,0.15489814,0.86434209,-0.47845542,0
-0.82751334,0.85149515,1.5538243,-0.45024097,0.49284434,0.7445721,0
0.75508022,-0.54818559,-1.8181977,-0.36832649,0.65711087,-0.65767848,0
1.1745853,-0.97830069,-1.4553033,0.45024097,-0.49284434,-0.7445721,0
0.17179121,-0.19855458,-1.0414312,-0.41439411,0.62329978,-0.66315532,0
-0.2413357,1.0051937,0.95947093,0.61354339,0.77659869,-0.14303502,0
-0.96149081,1.1999799,1.2842345,-0.45024097,0.49284434,0.7445721,0
0.86648691,-0.87710464,-1.6070458,0.45024097,-0.49284434,-0.7445721,0
0.0060558133,0.4934943,0.85431296,0.88698143,0.34277219,0.3094691,0
-1.0313815,1.2308878,1.2993264,-0.45024097,0.49284434,0.7445721,0
1.1526668,-0.67514932,-1.5810381,0.45024097,-0.49284434,-0.7445721,0
1.2440932,-0.81220174,-1.3672229,0.45024097,-0.49284434,-0.7445721,0
1.0507578,-0.7757023,-1.4307405,0.45024097,-0.49284434,-0.7445721,0
1.2284416,-1.0839707,-1.1768217,0.45024097,-0.49284434,-0.7445721,0
-0.78252071,1.0530837,1.4422151,-0.45024097,0.49284434,0.7445721,0
-0.22785226,0.98551828,1.2487233,0.8870554,0.34219489,0.3098959,0
-0.33377835,0.76698399,0.3174555,0.18378523,0.86717027,-0.46285948,0
0.81661868,-0.79364872,-1.7011809,0.45024097,-0.49284434,-0.7445721,0
-0.3600558,0.97815555,1.6891711,-0.45024097,0.49284434,0.7445721,0
0.91959327,-1.0676225,-0.7253111,0.39583266,-0.63729173,0.66119277,0
0.74952388,-0.85353875,-1.7351352,0.45024097,-0.49284434,-0.7445721,0
-1.0113146,0.90015817,1.4979067,-0.45024097,0.49284434,0.7445721,0
0.45381117,-0.3983697,0.14722294,0.68054008,-0.35043156,0.6434772,0
0.49436975,-1.3018205,-1.4636477,0.45024097,-0.49284434,-0.7445721,0
1.0539877,-0.54770887,-1.7007124,0.45024097,-0.49284434,-0.7445721,0
1.1433516,-0.552347,-1.2970562,0.65278935,0.75062603,-0.10211137,0
-0.81734562,0.99143422,1.567147,-0.45024097,0.49284434,0.7445721,0
-0.59739286,-0.045857459,0.66984296,-0.65606904,-0.74823916,0.098548144,0
-0.24674301,0.40408057,1.2182306,0.71434402,-0.30148643,0.63152087,0
0.25823918,-0.98629594,-0.84597993,-0.6508348,-0.75203156,0.1042237,0
1.0652106,-0.63864619,-1.499032,0.45024097,-0.49284434,-0.7445721,0
0.92786503,-1.0019014,-1.5723104,0.45024097,-0.49284434,-0.7445721,0
-0.92332911,1.160786,1.3251746,-0.45024097,0.49284434,0.7445721,0
0.78677833,-0.69216442,-1.8495222,0.45024097,-0.49284434,-0.7445721,0
-0.16139916,1.0316072,1.2195882,0.81187898,0.57305503,0.11162688,0
-0.7568835,1.1314468,1.4238076,-0.45024097,0.49284434,0.7445721,0
0.5474962,-0.9897725,-1.6696261,0.45024097,-0.49284434,-0.7445721,0
0.19440617,-0.91300136,-0.83850127,-0.66207188,-0.74377644,0.091964424,0
0.13382673,-0.075383477,0.66746962,0.45361245,-0.59200597,0.66615665,0
0.26911902,-0.21306616,-1.197055,-0.55725348,0.49645633,-0.6655823,0
-0.55338031,0.52063441,1.5361649,0.33364439,-0.68061334,0.65226293,0
-0.43761525,1.231132,1.7017212,-0.45024097,0.49284434,0.7445721,0
-0.59110212,0.58806223,0.08805842,-0.55258793,0.50121111,-0.66590834,0
0.91396242,-1.2237667,-1.4222584,0.45024097,-0.49284434,-0.7445721,0
-0.66103387,1.1772352,1.6321937,-0.45024097,0.49284434,0.7445721,0
-0.51027602,1.3448462,1.2014604,0.60850143,0.77961427,-0.14807996,0
-0.72913063,0.20024782,0.20177992,-0.87740088,-0.089468218,-0.47134179,0
-0.83664429,0.64839041,1.8346214,-0.45024097,0.49284434,0.7445721,0
1.0233479,-1.2113668,-1.3371279,0.45024097,-0.49284434,-0.7445721,0
0.30733079,-0.97727394,-0.49732867,-0.36165413,-0.86306906,0.352588,0
0.53032559,-1.2115058,-1.6801386,0.45024097,-0.49284434,-0.7445721,0
-0.65960801,0.48114958,0.20768605,-0.76480418,0.21749714,-0.60644007,0
-0.66110802,1.1923342,1.4535389,-0.45024097,0.49284434,0.7445721,0
0.62919849,-0.76625353,-1.7610022,0.45024097,-0.49284434,-0.7445721,0
-0.5542956,-0.11846608,0.6837554,-0.29970774,-0.8689115,0.39391398,0
-0.51707625,0.7068848,0.25672132,-0.43647671,0.60597634,-0.66504192,0
-1.0456595,0.53602564,0.63025689,-0.87298971,-0.06782645,-0.48299938,0
-0.53273314,1.2772815,1.5920169,-0.45024097,0.49284434,0.7445721,0
-0.71833789,1.2789639,1.4742304,-0.45024097,0.49284434,0.7445721,0
0.30776981,-0.35254854,0.18838993,0.58948147,-0.46226364,0.6624378,0
0.067397438,0.57990879,0.81012934,0.8842985,0.13060413,0.44828421,0
-1.1285503,0.98100281,1.3741357,-0.45024097,0.49284434,0.7445721,0
-1.2936627,1.1804615,1.2221148,-0.45024097,0.49284434,0.7445721,0
-1.044991,0.90238249,1.341123,-0.45024097,0.49284434,0.7445721,0
-0.12461661,0.81070858,1.2261152,0.88586313,0.35108715,0.30328906,0
1.2154773,-0.79774857,-1.5521375,0.45024097,-0.49284434,-0.7445721,0
0.34068549,-1.0500784,-0.68678486,-0.31137341,-0.86819077,0.38638273,0
1.1634864,-0.56108105,-1.5151615,0.45024097,-0.49284434,-0.7445721,0
-0.8682788,0.16715151,0.64151806,-0.80578476,-0.58353102,-0.10100754,0
-0.058580145,0.21891451,-0.45929521,-0.41925514,0.61955053,-0.66361314,0
-1.0722001,0.84663391,1.4776573,-0.45024097,0.49284434,0.7445721,0
-0.55277234,0.45019808,0.047149204,-0.65983033,0.37817115,-0.64931536,0
0.90029794,-0.89370739,-1.5842348,0.45024097,-0.49284434,-0.7445721,0
-1.0269746,0.52063137,1.0598642,-0.78462881,-0.61639309,-0.066462591,0
0.28204876,-0.83723688,-0.2483311,0.048207819,-0.81924075,0.57141989,0
0.86868876,-1.2474878,-0.99737704,0.32678413,-0.68507278,0.65106636,0
-1.1828673,0.80189538,1.3167285,-0.45024097,0.49284434,0.7445721,0
1.0926025,-0.60398084,-1.5285298,0.45024097,-0.49284434,-0.7445721,0
0.4584229,-0.32917106,0.19923474,0.59295076,-0.45843557,0.66200173,0
1.0712889,-0.91433692,-1.3429006,0.45024097,-0.49284434,-0.7445721,0
-0.46263948,0.95128143,1.6773351,-0.45024097,0.49284434,0.7445721,0
-1.3483051,0.80604827,1.4401261,-0.45024097,0.49284434,0.7445721,0
-0.75593412,0.76896918,1.6774293,-0.45024097,0.49284434,0.7445721,0
0.87766087,-0.34817982,-1.4425011,0.21512547,0.86918426,-0.44524127,0
0.011072136,0.6034447,0.55149877,0.72186631,0.6917035,-0.02133891,0
-1.0618043,0.75193566,0.80021101,-0.83032858,0.075579688,-0.55212516,0
-0.9222315,1.1452622,1.2558949,-0.45024097,0.49284434,0.7445721,0
0.62045354,0.075671673,-0.61983436,0.48886809,0.83385074,-0.25632194,0
1.1012772,-1.1602241,-1.2607529,0.45024097,-0.49284434,-0.7445721,0
-1.3438853,0.98506093,1.3114319,-0.45024097,0.49284434,0.7445721,0
1.0855788,-0.59301406,-1.1332214,0.85451943,0.47970271,0.19920288,0
0.71248835,-0.16068318,-0.69019485,0.72913295,0.68426651,-0.012022108,0
-0.37972504,0.80545139,1.7452599,0.80316728,-0.14080566,0.57887489,0
-0.50630045,0.40688738,-0.079652727,-0.75586021,0.23355386,-0.61165994,0
1.1645107,-1.222062,-1.225778,0.45024097,-0.49284434,-0.7445721,0
0.97989649,-0.45704573,-0.83781493,0.85171998,0.4873873,0.19242349,0
-0.80468845,0.2514143,1.4566017,-0.11802259,-0.85940564,0.4974865,0
0.42226845,-0.29228371,0.23687653,0.68628675,-0.34244949,0.6416688,0
1.1665239,-0.40644091,-1.1792614,0.78716195,0.61271173,0.070431128,0
0.59501576,-1.2200654,-1.4536871,0.45024097,-0.49284434,-0.7445721,0
0.83100331,-0.60352314,-1.8891301,0.45024097,-0.49284434,-0.7445721,0
-0.026096977,0.42451626,-0.23568322,0.092611641,0.85515225,-0.51003706,0
0.5463267,-1.2930591,-1.3191574,-0.5527966,-0.80870664,0.20102119,0
-0.69756675,-0.045552015,0.40375713,-0.69074351,-0.72066212,0.059326977,0
-0.50244105,-0.15286341,0.69075656,-0.28189763,-0.86968422,0.40519524,0
0.15860409,-0.42414427,-1.0936859,-0.65174901,0.38858798,-0.65132374,0
-1.0556028,0.5488956,1.5685701,-0.37441078,-0.86122978,0.34365666,0
-0.39239442,-0.17099622,0.1063614,-0.76333123,-0.64508033,-0.034595504,0
0.43211949,-1.1112864,-1.0334758,-0.57828557,-0.79631251,0.17740431,0
1.0324435,-0.38565695,-1.0643106,0.72731221,0.68615621,-0.014373988,0
-0.90145445,1.393773,1.1274561,-0.45024097,0.49284434,0.7445721,0
-1.1860911,1.0909818,1.1190389,-0.45024097,0.49284434,0.7445721,0
0.90814286,-1.0646775,-1.3425921,0.45024097,-0.49284434,-0.7445721,0
-0.77211702,0.78130126,1.7279934,-0.45024097,0.49284434,0.7445721,0
0.49426144,0.053214051,-0.046635181,0.83822405,0.52062649,0.16226093,0
0.91170037,-0.72337967,-1.5917284,0.45024097,-0.49284434,-0.7445721,0
-0.060381047,-0.60279179,-0.18320912,-0.58278227,-0.79397053,0.17313489,0
1.1105139,-0.98535764,-1.2685149,0.45024097,-0.49284434,-0.7445721,0
1.0635177,-0.69361007,-1.6929055,0.45024097,-0.49284434,-0.7445721,0
0.29765266,0.1403742,-0.8698253,-0.14709257,0.78154308,-0.60626256,0
1.0366112,-0.52597451,-1.8192433,0.45024097,-0.49284434,-0.7445721,0
-1.1672378,0.66961336,1.5843047,-0.45024097,0.49284434,0.7445721,0
-0.69052804,1.0636511,1.6047922,-0.45024097,0.49284434,0.7445721,0
0.93765634,-1.3690474,-1.23834,0.45024097,-0.49284434,-0.7445721,0
-0.78171825,0.93348497,1.5021999,-0.45024097,0.49284434,0.7445721,0
-1.1687919,0.67171872,0.85953748,-0.8840304,-0.12875342,-0.44934711,0
0.79282367,-1.1958327,-1.0449381,-0.094231218,-0.85544389,0.50925082,0
-0.32158595,-0.15966775,-0.3094835,-0.88664246,-0.34537393,-0.30754197,0
-0.79145384,0.45014274,1.6426568,0.017593116,-0.8288157,0.55924505,0
-0.92699438,0.71291548,0.50628966,-0.76659364,0.21421334,-0.60534859,0
1.0584337,-1.034999,-1.3988706,0.45024097,-0.49284434,-0.7445721,0
-0.86614871,1.2512821,0.92386019,-0.25826073,0.72635376,-0.63695502,0
-0.80151415,0.69367063,1.8532406,-0.45024097,0.49284434,0.7445721,0
0.87100762,-0.66318953,-0.34359428,0.67699587,-0.35529062,0.64455038,0
-0.87434518,0.85679555,1.7055932,-0.45024097,0.49284434,0.7445721,0
-1.0387788,0.58668464,0.91960138,-0.88875878,-0.32764485,-0.32055688,0
-0.85145766,0.82905161,1.5112318,-0.45024097,0.49284434,0.7445721,0
-1.0051273,1.25617,1.1787599,-0.45024097,0.49284434,0.7445721,0
0.042040408,-0.090061575,-0.82307476,-0.48373151,0.56627339,-0.66733682,0
0.58248776,-0.33888331,0.012431271,0.82678574,-0.084803216,0.55608791,0
-0.74923235,0.7756719,1.7326255,-0.45024097,0.49284434,0.7445721,0
0.5397929,-0.0539698,-1.1087472,0.12668294,0.86069715,-0.49310443,0
-0.37111726,0.67518735,0.057108596,-0.34949529,0.67007256,-0.65487087,0
-0.47720611,0.65707147,1.5868267,0.63624364,-0.40798289,0.65478545,0
0.94235891,-1.0625737,-1.4326162,0.45024097,-0.49284434,-0.7445721,0
1.0352427,-1.0914626,-1.2537544,0.45024097,-0.49284434,-0.7445721,0
0.74838513,-0.63909346,-1.7387671,0.45024097,-0.49284434,-0.7445721,0
-0.44924361,1.2928939,1.4251037,-0.45024097,0.49284434,0.7445721,0
-0.97657585,0.771052,1.5270244,-0.45024097,0.49284434,0.7445721,0
-1.214332,0.94556928,1.4074177,-0.45024097,0.49284434,0.7445721,0
0.38596672,-0.51109391,-1.5649216,-0.591811,0.45969644,-0.66214722,0
0.68748772,-0.40486449,-1.6250813,-0.21949555,0.74719715,-0.62731034,0
0.83773971,-0.8504706,-1.5262424,0.45024097,-0.49284434,-0.7445721,0
0.31665337,0.23684177,-0.47781464,0.19601935,0.8680883,-0.45606929,0
0.36289078,-0.26798725,0.34031639,0.71412712,-0.30181673,0.63160837,0
-0.44201738,0.76349175,0.39193064,-0.015238494,0.82951152,-0.55828178,0
-1.0914704,1.0450042,1.279161,-0.45024097,0.49284434,0.7445721,0
-0.59520894,0.072696805,0.13316311,-0.86730194,-0.43964857,-0.23344488,0
0.22623053,-0.30637458,0.4590492,0.44533834,-0.59881049,0.6656574,0
-0.21772572,0.91926146,0.79021102,0.73862064,0.6741212,0.00043043494,0
0.020594116,-0.56752789,-0.87577897,-0.88743043,-0.3392036,-0.31210274,0
1.0706952,-0.47412026,-0.90054405,0.83268905,0.53279495,0.15085946,0
0.90663511,-1.0774603,-1.3370939,0.45024097,-0.49284434,-0.7445721,0
0.090800121,0.098783329,-0.73563707,-0.11904149,0.79329878,-0.59708142,0
0.55362725,-1.3530722,-1.4168991,0.45024097,-0.49284434,-0.7445721,0
-1.0287749,0.76262152,1.5073158,-0.45024097,0.49284434,0.7445721,0
-0.28266501,1.0334396,1.3935971,0.89140958,0.19982228,0.40676764,0
0.99118924,-0.57173288,-1.6681961,0.45024097,-0.49284434,-0.7445721,0
0.98731482,-0.73035467,-1.5504498,0.45024097,-0.49284434,-0.7445721,0
-0.72180289,0.65355539,1.7499957,-0.45024097,0.49284434,0.7445721,0
0.34955078,-0.16212362,-1.0623319,-0.3665632,0.65834516,-0.65742922,0
1.1306317,-1.0272356,-1.1921372,0.45024097,-0.49284434,-0.7445721,0
0.89366913,-0.86796725,-1.5953425,0.45024097,-0.49284434,-0.7445721,0
-1.2262831,1.2517828,1.2384641,-0.45024097,0.49284434,0.7445721,0
0.70870847,-1.1234708,-1.5248508,0.45024097,-0.49284434,-0.7445721,0
0.69994104,-1.3237041,-1.5004765,0.45024097,-0.49284434,-0.7445721,0
-0.75417501,1.2641035,1.3753927,-0.45024097,0.49284434,0.7445721,0
-0.37270623,1.0773427,0.95903528,0.52960145,0.81876147,-0.22170269,0
0.35100242,-0.56389505,-0.0038647056,0.45424172,-0.59148389,0.6661917,0
-1.0066798,0.74394822,1.6631405,-0.45024097,0.49284434,0.7445721,0
0.22226073,0.56289524,0.090728387,0.67747414,0.731745,-0.074686855,0
-0.36812305,-0.3365815,0.02862972,-0.74264944,-0.66965508,-0.0058227777,0
-1.2186542,0.76974905,1.5141077,-0.45024097,0.49284434,0.7445721,0
1.0347947,-0.63450646,-0.64943939,0.86576855,0.036935747,0.49907976,0
-1.4166217,0.6940124,1.4733385,-0.45024097,0.49284434,0.7445721,0
-0.69255167,0.38106632,1.3756789,0.15859149,-0.77647692,0.60986257,0
-0.67346716,0.84774536,1.6084254,-0.45024097,0.49284434,0.7445721,0
-0.94793284,0.8752315,1.5586783,-0.45024097,0.49284434,0.7445721,0
-0.25541082,1.0724399,0.95879877,0.7118994,0.70146626,-0.03382802,0
0.75425529,-1.1492102,-1.3520947,0.45024097,-0.49284434,-0.7445721,0
-0.97055924,0.59590364,1.6270295,-0.45024097,0.49284434,0.7445721,0
-1.2389641,0.64004517,1.6383382,-0.45024097,0.49284434,0.7445721,0
0.085814357,-0.76648813,-1.1140866,-0.89036238,-0.18489395,-0.41601568,0
1.038179,-0.59314668,-1.7668883,0.45024097,-0.49284434,-0.7445721,0
0.10157612,-0.4052411,-1.0979017,-0.66825843,0.36706915,-0.64706331,0
0.73646683,-1.0544592,-0.80842358,0.10907984,-0.79726952,0.59368593,0
-0.39270586,-0.28267586,0.013149388,-0.78755438,-0.61213571,-0.07104972,0
1.22252,-1.1635064,-1.2467189,0.45024097,-0.49284434,-0.7445721,0
-0.91197085,0.29862714,1.2649889,-0.33213836,-0.86647815,0.37269264,0
0.50378537,-1.0010031,-0.73275948,-0.25670424,-0.87011588,0.4207153,0
-0.94669497,0.9868952,0.84071755,-0.62379068,0.42302951,-0.65721476,0
-0.83423609,0.34243798,0.6142934,-0.89263195,-0.22773719,-0.38902947,0
-1.0434748,0.57821441,1.0321535,-0.87500674,-0.40966386,-0.25795132,0
0.5260548,-0.16629635,0.040056542,0.87433779,0.074167758,0.47961709,0
0.406169,-0.084693015,-0.99436611,0.0076079667,0.83596128,-0.54873574,0
-0.056616388,0.82004231,0.68950635,0.75977629,0.64951456,0.029510751,0
-0.16081612,0.77859068,0.50831926,0.61338782,0.77669287,-0.14319143,0
1.0696763,-0.70003402,-1.6379437,0.45024097,-0.49284434,-0.7445721,0
0.54348516,-1.0151216,-1.7936032,0.45024097,-0.49284434,-0.7445721,0
0.97819412,-0.82569611,-1.4211786,0.45024097,-0.49284434,-0.7445721,0
1.1050191,-0.89253116,-1.5345786,0.45024097,-0.49284434,-0.7445721,0
-1.0856246,0.60227406,1.6717778,-0.45024097,0.49284434,0.7445721,0
1.0736222,-0.71022993,-0.8418296,0.88729334,0.1535915,0.43487948,0
0.40323189,0.20702061,-0.6540426,0.28168941,0.86969095,-0.40532559,0
-0.66763276,1.1275475,1.4418521,-0.45024097,0.49284434,0.7445721,0
-0.27182347,0.2799558,1.2125802,0.60647678,-0.44321856,0.66010857,0
-0.48950511,1.3399477,1.4830337,-0.45024097,0.49284434,0.7445721,0
-1.0472997,1.0954133,1.3334197,-0.45024097,0.49284434,0.7445721,0
0.06555225,-0.41549873,-1.1658322,-0.68592656,0.34295359,-0.64178467,0
-0.70702934,0.82534301,1.7182481,-0.45024097,0.49284434,0.7445721,0
0.75581902,-0.51472127,-1.6201549,-0.0776456,0.80910522,-0.5825119,0
-0.97956884,0.91150004,1.4020122,-0.45024097,0.49284434,0.7445721,0
-1.1813232,0.71691203,1.5133878,-0.45024097,0.49284434,0.7445721,0
0.95373946,-0.87539101,-0.68381089,0.59713572,-0.45377746,0.66144919,0
-0.48478347,-0.27974421,0.31171206,-0.56934172,-0.80082929,0.18580228,0
-0.016671237,-0.67975467,-0.52353972,-0.76648676,-0.64106506,-0.039161325,0
1.0808201,-0.57110244,-1.5339704,0.45024097,-0.49284434,-0.7445721,0
1.1982483,-1.0209544,-1.3785105,0.45024097,-0.49284434,-0.7445721,0
-0.81982017,0.25883025,1.1279564,-0.58442736,-0.79310161,0.171565,0
1.0362254,-0.76288438,-1.6578161,0.45024097,-0.49284434,-0.7445721,0
0.040628765,-0.71786058,-0.59693444,-0.72824234,-0.68519306,0.013173938,0
-1.020825,0.51382077,1.1702201,-0.82144219,-0.5555042,-0.12902689,0
-0.9934876,1.0306913,1.4595951,-0.45024097,0.49284434,0.7445721,0
1.261272,-1.105183,-1.3113497,0.45024097,-0.49284434,-0.7445721,0
0.25742316,-0.29266876,-1.3201978,-0.45428354,0.5914492,-0.66619396,0
0.42677033,0.27662355,-0.40659052,0.53245997,0.81758219,-0.21919364,0
-0.92264354,1.2934775,1.3732746,-0.45024097,0.49284434,0.7445721,0
0.99065149,-1.3127674,-1.2295479,0.45024097,-0.49284434,-0.7445721,0
-0.4986797,0.66623378,0.17707515,-0.20814541,0.75297058,-0.62426841,0
-0.13576578,0.78689915,1.0220497,0.82932466,0.53985208,0.14415383,0
0.70809418,-1.0868363,-1.497071,0.45024097,-0.49284434,-0.7445721,0
-1.0154624,0.97827959,1.4553715,-0.45024097,0.49284434,0.7445721,0
-0.3443397,0.58194494,0.026729092,-0.10481687,0.79893631,-0.59221137,0
0.64276326,-0.91205573,-1.5713091,0.45024097,-0.49284434,-0.7445721,0
0.80217814,-0.44224215,-1.6604576,0.021056682,0.83950269,-0.54294753,0
1.0458935,-1.2946868,-1.1811186,0.45024097,-0.49284434,-0.7445721,0
-0.31256372,0.65484011,0.22246026,-0.0346542,0.82360089,-0.56611013,0
-0.7395469,1.405602,1.2740421,-0.45024097,0.49284434,0.7445721,0
-0.64424676,0.82186174,1.745044,-0.45024097,0.49284434,0.7445721,0
-1.0867797,1.1976527,1.2470514,-0.45024097,0.49284434,0.7445721,0
0.64515221,-0.49041313,-1.6685436,-0.40038869,0.6339044,-0.66170561,0
-1.1291223,1.2093674,1.3065574,-0.45024097,0.49284434,0.7445721,0
0.20297119,0.25032929,0.57002252,0.83794254,-0.054833211,0.54299688,0
-0.75801301,1.0064912,1.452073,-0.45024097,0.49284434,0.7445721,0
-0.23367256,1.079098,0.87945664,0.61340451,0.77668267,-0.14317462,0
-1.2256554,1.0844765,1.2741851,-0.45024097,0.49284434,0.7445721,0
-1.0642778,1.1111393,1.1907338,-0.45024097,0.49284434,0.7445721,0
1.0100187,-0.74924219,-1.6738819,0.45024097,-0.49284434,-0.7445721,0
-0.55038732,1.2622774,1.2874813,0.47391164,0.83862966,-0.26852939,0
0.43915927,-1.180344,-1.5694814,0.45024097,-0.49284434,-0.7445721,0
-0.11663087,-0.60894406,-0.31255949,-0.7418679,-0.67052913,-0.004771769,0
0.18059835,0.11265647,0.520518,0.79776537,-0.15251686,0.5833602,0
1.1839943,-1.1116099,-1.2612084,0.45024097,-0.49284434,-0.7445721,0
-1.0524272,1.0261941,1.3903418,-0.45024097,0.49284434,0.7445721,0
-1.3134308,0.94183946,1.2535967,-0.45024097,0.49284434,0.7445721,0
0.32066023,-0.97077811,-0.75120592,-0.33430836,-0.86626691,0.37124065,0
-1.1845837,0.70260036,1.3062634,-0.83985722,-0.51689124,-0.16572091,0
-0.95830369,0.60821402,0.44117111,-0.81459934,0.11477168,-0.56855553,0
-0.33111116,-0.27114218,0.099402577,-0.70146906,-0.71117723,0.046563059,0
1.1350499,-1.2298087,-1.3035611,0.45024097,-0.49284434,-0.7445721,0
-0.54380959,0.88777161,1.7657847,-0.45024097,0.49284434,0.7445721,0
-0.75938934,1.1805179,0.92078352,0.054228127,0.84742755,-0.52813441,0
-0.58555996,0.77132887,1.8884192,-0.45024097,0.49284434,0.7445721,0
-1.1214122,0.71949863,1.5727623,-0.45024097,0.49284434,0.7445721,0
1.2302889,-0.94052351,-1.403792,0.45024097,-0.49284434,-0.7445721,0
-0.65792036,0.95714509,1.6172725,-0.45024097,0.49284434,0.7445721,0
-0.29652736,0.071582019,0.85224724,0.19502202,-0.75946325,0.62063038,0
0.16464144,-0.46112871,-1.1072825,-0.73170245,0.27427608,-0.62400651,0
0.92174631,-0.34022462,-1.4263602,0.1993688,0.86831033,-0.45419082,0
-0.54327184,0.84550744,1.7458795,-0.45024097,0.49284434,0.7445721,0
0.22681987,-0.62446159,0.014198184,-0.12979814,-0.86114192,0.4915151,0
-0.41844249,0.6037612,0.14452508,-0.38024819,0.64865232,-0.65928864,0
-0.9380399,0.8118642,1.5214274,-0.45024097,0.49284434,0.7445721,0
-0.48284513,1.1080952,0.62107486,0.12412918,0.86032468,-0.49440223,0
0.83700186,-1.1308528,-1.4104496,0.45024097,-0.49284434,-0.7445721,0
1.1548464,-1.1593307,-1.0917102,0.51737726,-0.53563005,0.66739893,0
0.45353577,0.27708477,0.14397989,0.88519341,0.355737,0.29980624,0
0.41891575,-0.83110082,-1.5269121,-0.87318057,-0.068711042,-0.48252928,0
1.3123877,-1.0196681,-1.2394023,0.45024097,-0.49284434,-0.7445721,0
0.94399923,-1.3920263,-1.2877679,0.45024097,-0.49284434,-0.7445721,0
0.37284961,0.19124904,-0.12831554,0.82210815,0.55422586,0.13027582,0
-0.62167335,0.92305589,1.6934587,-0.45024097,0.49284434,0.7445721,0
-1.2194163,0.96527636,1.3224487,-0.45024097,0.49284434,0.7445721,0
-0.60754848,0.067536443,0.065491229,-0.88157672,-0.37777853,-0.28302962,0
-1.0835141,0.32962948,1.1731782,-0.64812243,-0.75396156,0.10714126,0
0.71368408,-1.1720994,-1.374948,0.45024097,-0.49284434,-0.7445721,0
-1.3262125,0.97156453,1.2265089,-0.45024097,0.49284434,0.7445721,0
0.6847558,-0.77241707,-1.6348529,0.45024097,-0.49284434,-0.7445721,0
-0.12599821,0.4838708,1.2607664,0.8066088,-0.13315566,0.57589227,0
-0.96784413,1.2562423,1.2201012,-0.45024097,0.49284434,0.7445721,0
-0.46176818,-0.061306089,0.97169423,-0.059349447,-0.84854811,0.52577925,0
-0.91871679,1.3604369,1.1943805,-0.45024097,0.49284434,0.7445721,0
0.44532931,-1.1699296,-1.5833292,0.45024097,-0.49284434,-0.7445721,0
