0.09592092,-1.0190992,-3.2919836,0.057213485,-0.42355233,-0.90406299,0
-0.16957414,-1.6682062,-3.111558,0.057213485,-0.42355233,-0.90406299,0
-0.35120964,1.2572513,3.2781,-0.057213485,0.42355233,0.90406299,0
0.58422178,-0.38727981,-0.54561257,0.99593914,-0.038832724,0.081220746,0
0.60881197,-0.55336177,-1.8503547,0.8509922,0.49420783,-0.17768079,0
-0.53868425,0.12043644,0.21439558,-0.99737954,0.015908241,-0.07057178,0
0.45272806,-0.37025753,-0.48669562,0.90236509,-0.36550695,0.22834527,0
-0.081306577,-0.49743974,-2.292479,-0.42195889,0.81043082,-0.40638924,0
-0.39721191,1.1923525,3.3471465,-0.057213485,0.42355233,0.90406299,0
0.05155468,1.7985785,3.1240127,-0.057213485,0.42355233,0.90406299,0
-0.19881046,1.1847885,3.2650249,-0.057213485,0.42355233,0.90406299,0
0.46820903,-1.5888592,-3.1014693,0.057213485,-0.42355233,-0.90406299,0
-0.11178762,1.8256874,2.9594331,-0.057213485,0.42355233,0.90406299,0
0.18784642,-1.1128976,-3.2740269,0.057213485,-0.42355233,-0.90406299,0
-0.49634105,-0.2420776,-0.11306655,-0.97879112,-0.20221709,0.032795906,0
0.23588142,0.13960218,1.1053395,0.67704731,-0.64903963,0.34692091,0
0.17585564,-0.40185699,0.11254805,0.27104193,-0.86494631,0.4223789,0
-0.023116946,1.1293864,3.3150628,-0.057213485,0.42355233,0.90406299,0
-0.64238548,1.5720129,3.1817446,-0.057213485,0.42355233,0.90406299,0
0.11523438,-1.2328517,-3.3313174,0.057213485,-0.42355233,-0.90406299,0
-0.23501045,-1.5060446,-3.2655263,0.057213485,-0.42355233,-0.90406299,0
0.096234679,-1.2175884,-3.205626,0.057213485,-0.42355233,-0.90406299,0
0.39623737,-1.1668818,-1.3260067,0.5413633,-0.74769276,0.38455302,0
0.52290404,-1.4776121,-3.0735774,0.057213485,-0.42355233,-0.90406299,0
-0.37720531,1.8728552,3.0757225,-0.057213485,0.42355233,0.90406299,0
-0.022330403,1.0068717,3.3113434,-0.057213485,0.42355233,0.90406299,0
0.027648091,1.2175033,3.3304274,-0.057213485,0.42355233,0.90406299,0
0.0044479966,1.7161456,3.1747346,-0.057213485,0.42355233,0.90406299,0
-0.032490611,1.4321866,3.1278729,-0.057213485,0.42355233,0.90406299,0
0.22603512,-1.1891718,-3.1905529,0.057213485,-0.42355233,-0.90406299,0
-0.12616354,0.071477413,1.2065823,-0.38424826,-0.84513152,0.37162575,0
-0.19054705,1.7022883,3.0612617,-0.057213485,0.42355233,0.90406299,0
-0.4593716,0.23019734,0.21455032,-0.97046387,0.18898043,-0.14995253,0
0.30472147,-0.76935995,-2.7901161,0.23442972,0.88592702,-0.40021968,0
0.69395936,-1.2172308,-2.4252701,0.97931689,-0.15222159,0.13329148,0
0.34625942,1.5026113,2.6972713,0.95551974,0.2856569,-0.073360026,0
-0.65514195,1.68975,2.9301014,-0.057213485,0.42355233,0.90406299,0
-0.30317926,1.4652768,3.1249714,-0.057213485,0.42355233,0.90406299,0
0.32775438,-1.0039744,-3.2709432,0.057213485,-0.42355233,-0.90406299,0
0.65457785,-1.4423677,-3.0451684,0.057213485,-0.42355233,-0.90406299,0
-0.38298202,0.84000969,2.6356425,-0.57427466,-0.75469959,0.31723279,0
0.64668041,-0.48631746,-0.91600472,0.98378509,-0.13025931,0.12328482,0
0.026911736,-1.2992954,-3.3179064,0.057213485,-0.42355233,-0.90406299,0
-0.30701494,1.0716701,3.39924,-0.057213485,0.42355233,0.90406299,0
-0.43673366,1.2204275,1.5201011,-0.58147049,0.72196776,-0.37503904,0
-0.12994564,-0.22699022,0.63340509,-0.10992527,-0.90271306,0.41596305,0
-0.3656967,-1.0021596,-1.2141263,-0.68236643,-0.67760563,0.27427384,0
0.63199633,-0.93035543,-1.4384966,0.85194087,-0.45139992,0.26539516,0
0.13716328,1.5140326,3.2351742,-0.057213485,0.42355233,0.90406299,0
0.030073881,0.5995003,2.4593041,0.41810998,-0.8121435,0.40694809,0
0.0058086514,-1.8013802,-3.0266752,0.057213485,-0.42355233,-0.90406299,0
0.48600712,0.75917184,1.1685439,0.91151112,0.39157337,-0.12576681,0
-0.18978794,0.83228076,0.83124018,-0.36231178,0.8350026,-0.41412616,0
-0.027198434,0.14342391,1.6152246,0.062615275,-0.90224129,0.42666128,0
0.39087424,0.39774352,-0.0032175183,0.8577438,0.48424149,-0.1725843,0
-0.62012815,1.4780101,3.2061276,-0.057213485,0.42355233,0.90406299,0
-0.64341938,0.43529546,0.76525337,-0.99697578,0.023460686,-0.07408464,0
0.45166174,-1.1462629,-1.7841916,0.63312972,-0.6847707,0.36088145,0
-0.58610499,1.1250252,2.4154522,-0.99833292,-0.031159669,-0.048581004,0
0.027447462,1.5377281,3.1879964,-0.057213485,0.42355233,0.90406299,0
-0.010390222,1.7709763,3.0211623,-0.057213485,0.42355233,0.90406299,0
0.70311069,-1.2390994,-2.4775405,0.98254585,-0.13665891,0.12620461,0
-0.64033616,1.5195278,3.1101458,-0.057213485,0.42355233,0.90406299,0
0.52715892,-1.753386,-2.9457922,0.057213485,-0.42355233,-0.90406299,0
0.066035628,-1.4354694,-3.1678386,0.057213485,-0.42355233,-0.90406299,0
0.04912138,1.3831587,3.1682725,-0.057213485,0.42355233,0.90406299,0
-0.29625964,1.4311502,3.2514348,-0.057213485,0.42355233,0.90406299,0
0.49483186,-1.6889089,-2.9977262,0.057213485,-0.42355233,-0.90406299,0
0.47090483,-1.5947464,-3.0693793,0.057213485,-0.42355233,-0.90406299,0
-0.21209711,0.097711027,-0.78439569,-0.55611676,0.73852921,-0.38119358,0
0.1131506,-0.093617201,-1.4246786,-0.068424344,0.90175343,-0.42680037,0
0.24902549,0.77812225,0.95245361,0.81766015,0.53947353,-0.20099711,0
0.078632116,-1.5302122,-3.166887,0.057213485,-0.42355233,-0.90406299,0
-0.16655612,-0.025236607,1.2536936,-0.053872228,-0.90553677,0.42083329,0
-0.078053921,-1.6196029,-2.4048743,-0.51932251,-0.78601682,0.33538246,0
-0.46404207,1.2134871,1.6580511,-0.69884223,0.62970859,-0.33924359,0
-0.23646408,0.025573671,1.1791236,-0.35815418,-0.8539778,0.37742162,0
0.030909181,0.56552243,-0.18099681,0.092851639,0.90387887,-0.41758978,0
0.0088398457,-1.1133227,-3.3689227,0.057213485,-0.42355233,-0.90406299,0
-0.22617137,1.3553584,3.290797,-0.057213485,0.42355233,0.90406299,0
-0.59205443,0.169007,0.17285091,-0.98832315,0.10406399,-0.11129951,0
0.1405074,1.4233747,3.1291771,-0.057213485,0.42355233,0.90406299,0
0.073992908,-1.8239872,-2.9589772,0.057213485,-0.42355233,-0.90406299,0
0.087766737,1.2236972,1.5642644,0.33717358,0.86053771,-0.38182271,0
-0.51795495,0.98758566,2.8108978,-0.81677198,-0.54059982,0.201581,0
-0.25821257,-1.3219228,-3.2150428,0.057213485,-0.42355233,-0.90406299,0
0.32311732,1.4967792,3.1905763,-0.057213485,0.42355233,0.90406299,0
0.15016913,0.44508338,-0.16504286,0.35354722,0.85545993,-0.37840754,0
-0.39005387,1.1538022,3.3426349,-0.057213485,0.42355233,0.90406299,0
-0.70972562,1.2074053,2.7474399,-0.99513084,-0.096988454,-0.017537713,0
0.43638158,-1.3645773,-3.2030151,0.057213485,-0.42355233,-0.90406299,0
-0.35406604,-0.5699358,-1.85724,-0.75540823,0.5737009,-0.31658375,0
-0.037618965,1.0369149,0.86439747,0.10294771,0.90322202,-0.41664314,0
0.17481863,0.81574285,2.5877972,0.69595164,-0.6323384,0.34029275,0
0.1558919,0.010194898,0.90045553,0.4585382,-0.79323596,0.40064836,0
-0.18180394,1.4061167,3.2525282,-0.057213485,0.42355233,0.90406299,0
0.28110784,0.068232775,-1.1017123,0.26749623,0.87894017,-0.39485374,0
0.52921927,-0.85007691,-2.8135147,0.564376,0.76069194,-0.32066661,0
0.081911266,-1.4481248,-2.0433664,-0.11808825,-0.90206039,0.41514072,0
0.29251358,0.53285515,0.39021626,0.58772624,0.74629503,-0.31244397,0
-0.23882186,1.2696679,3.1649258,-0.057213485,0.42355233,0.90406299,0
-0.0050131083,1.9304783,3.0528324,-0.057213485,0.42355233,0.90406299,0
0.11463976,0.66854668,2.6090987,0.34454,-0.84153652,0.41606277,0
-0.2328434,1.3390572,3.2368348,-0.057213485,0.42355233,0.90406299,0
-0.30208051,1.8025887,2.60321,-0.10083127,0.89846462,-0.42731041,0
-0.43853724,0.82174563,2.6395912,-0.56549644,-0.76002169,0.32028168,0
-0.54923332,0.95162857,2.5273206,-0.75452709,-0.6113348,0.23865938,0
0.63041031,-1.6061167,-2.988328,0.057213485,-0.42355233,-0.90406299,0
0.32306051,-1.3862185,-3.1605909,0.057213485,-0.42355233,-0.90406299,0
0.16592956,-1.3142595,-3.1623976,0.057213485,-0.42355233,-0.90406299,0
0.17993474,-1.6631279,-3.1646862,0.057213485,-0.42355233,-0.90406299,0
-0.1932981,0.64824581,2.7600162,-0.077243447,-0.90470982,0.41896689,0
-0.30266571,1.4496191,3.2118611,-0.057213485,0.42355233,0.90406299,0
-0.43070957,-0.25420743,-1.0935109,-0.92835176,0.31055772,-0.2042464,0
0.30537558,0.84160924,0.81410903,0.75073135,0.61519271,-0.24070701,0
0.32266033,1.4422433,3.1928346,-0.057213485,0.42355233,0.90406299,0
0.22328708,-0.37853986,-0.0087475181,0.4673954,-0.78881562,0.39913803,0
0.47055757,-1.6763719,-3.1337376,0.057213485,-0.42355233,-0.90406299,0
-0.59496427,0.999497,1.4409468,-0.81986851,0.49679029,-0.28463066,0
-0.27795941,-0.82347798,-2.4892094,-0.68483859,0.64225888,-0.34423703,0
0.13813281,0.66804826,2.6094642,0.40553907,-0.81761241,0.40871465,0
0.012127519,1.7779341,2.7588665,0.58865011,0.74570644,-0.31210977,0
0.39828557,0.56426322,1.9157186,0.84658122,-0.4593966,0.2688024,0
-0.52208614,0.0029935241,-0.43284935,-0.9500258,0.2552554,-0.17970884,0
0.60387301,-1.3666751,-3.2409801,0.057213485,-0.42355233,-0.90406299,0
0.24426734,1.0248592,1.0578715,0.4509902,0.81885183,-0.35509005,0
-0.29417825,1.4805436,3.2438948,-0.057213485,0.42355233,0.90406299,0
0.191405,-1.4120878,-1.9166145,0.135966,-0.89380354,0.42735016,0
0.17423558,-1.6334794,-2.4504552,-0.044167161,-0.90573353,0.42153969,0
0.20546925,-0.33601105,-1.9023211,0.0034564734,0.90562493,-0.42406514,0
-0.02654922,1.2562709,3.3754947,-0.057213485,0.42355233,0.90406299,0
0.42429233,-1.4410841,-3.2134104,0.057213485,-0.42355233,-0.90406299,0
0.33699244,-1.3868673,-1.7999641,0.33941257,-0.84335679,0.41659099,0
0.22753003,-1.2834164,-1.3701391,0.14856243,-0.89185238,0.42723319,0
-0.078820825,1.9536703,3.0427761,-0.057213485,0.42355233,0.90406299,0
-0.1278466,-0.52799451,-2.0585568,-0.51054662,0.76577055,-0.39107209,0
0.21084665,1.4884132,2.0908887,0.64490902,0.70694172,-0.29038823,0
0.28732336,-0.13904476,-1.4060798,0.37068665,0.84982562,-0.3746832,0
0.05554992,-1.7071891,-3.073391,0.057213485,-0.42355233,-0.90406299,0
-0.028649092,1.1652274,3.2401192,-0.057213485,0.42355233,0.90406299,0
0.19449496,-1.5172691,-3.2199371,0.057213485,-0.42355233,-0.90406299,0
-0.017801672,-0.70176303,-0.26911712,-0.01343596,-0.90579098,0.42351145,0
0.3637898,-1.0088384,-3.0239711,0.45902157,0.81531721,-0.35292584,0
-0.066416144,1.0226521,3.4284029,-0.057213485,0.42355233,0.90406299,0
0.14896083,0.21467566,-0.78295434,0.35240757,0.85582286,-0.37864968,0
0.58419907,-0.87729466,-1.51594,0.99564528,-0.042549342,0.082943439,0
-0.15918261,-1.7526252,-3.0274415,0.057213485,-0.42355233,-0.90406299,0
-0.27402636,-1.3185296,-2.2657311,-0.91786271,-0.37855425,0.11926538,0
-0.75285685,1.5442425,3.1680875,-0.057213485,0.42355233,0.90406299,0
0.68325758,-1.0610679,-2.8991451,0.9251467,0.36287719,-0.11145979,0
-0.14183867,-1.7189907,-3.0083566,0.057213485,-0.42355233,-0.90406299,0
-0.030389786,1.4915266,3.1615767,-0.057213485,0.42355233,0.90406299,0
0.2796765,-0.96920902,-0.93152815,0.25646895,-0.86892152,0.42331898,0
0.48326898,-1.180892,-3.3865268,0.057213485,-0.42355233,-0.90406299,0
-0.6714865,1.1874177,3.2235835,-0.057213485,0.42355233,0.90406299,0
-0.05942902,0.61398029,0.29495019,-0.0077412128,0.9053309,-0.42463607,0
-0.44621289,1.5226305,3.0783136,-0.057213485,0.42355233,0.90406299,0
0.071874142,0.10101467,-0.96078843,0.010869741,0.90575689,-0.42365786,0
-0.4087269,-0.35235256,-0.42231607,-0.95976871,-0.27267784,0.067010462,0
0.11296821,0.74080193,2.6532707,0.62408835,-0.69163728,0.36352634,0
0.037320733,1.7942499,3.1426947,-0.057213485,0.42355233,0.90406299,0
0.36082432,0.91219825,1.2060612,0.92338377,0.36675006,-0.11338574,0
-0.33585924,1.8247458,2.9664497,-0.057213485,0.42355233,0.90406299,0
0.25317377,1.464678,3.1854219,-0.057213485,0.42355233,0.90406299,0
-0.45458275,1.6915957,3.1030889,-0.057213485,0.42355233,0.90406299,0
0.57585055,-1.7876599,-2.9947414,0.057213485,-0.42355233,-0.90406299,0
0.61267626,-0.69388318,-0.91243309,0.86395139,-0.43279633,0.25743949,0
-0.51641583,0.12427011,0.72327232,-0.89937204,-0.41499525,0.13750809,0
-0.1144526,-0.54781687,-2.1895542,-0.65286028,0.66922182,-0.35484552,0
-0.15714169,1.0332706,3.2697661,-0.057213485,0.42355233,0.90406299,0
0.49994323,-1.6479837,-2.347873,0.63077104,-0.68657744,0.3615787,0
-0.10552299,1.2649524,1.6761855,0.05230546,0.90557438,-0.42095008,0
-0.19108868,1.5604584,3.0687034,-0.057213485,0.42355233,0.90406299,0
0.25715363,-1.2149458,-3.3618217,0.057213485,-0.42355233,-0.90406299,0
-0.026142478,1.6121907,3.0417752,-0.057213485,0.42355233,0.90406299,0
-0.43908536,1.2426455,3.3498406,-0.057213485,0.42355233,0.90406299,0
0.60640323,-1.7643694,-3.1070194,0.057213485,-0.42355233,-0.90406299,0
-0.055437088,1.2002056,3.2181726,-0.057213485,0.42355233,0.90406299,0
-0.080707073,1.3346202,3.2054038,-0.057213485,0.42355233,0.90406299,0
0.44782925,-1.6872909,-3.0733216,0.057213485,-0.42355233,-0.90406299,0
-0.1142239,-1.5604262,-3.0695603,0.057213485,-0.42355233,-0.90406299,0
0.72104025,-1.664863,-3.0132186,0.057213485,-0.42355233,-0.90406299,0
-0.69536519,1.5118371,3.0408409,-0.057213485,0.42355233,0.90406299,0
0.28176349,-0.21691233,0.387932,0.7620241,-0.56652343,0.31363988,0
0.40318474,1.0250479,1.7271225,0.90847278,0.3976067,-0.12878567,0
0.44951075,-0.26032555,-0.83855546,0.97395366,0.22269051,-0.042693734,0
-0.028503895,1.2277446,3.3344369,-0.057213485,0.42355233,0.90406299,0
0.08492744,1.4032617,3.1210301,-0.057213485,0.42355233,0.90406299,0
-0.019201934,-0.19233155,-1.4790214,-0.42699394,0.80816317,-0.40564549,0
0.088511944,1.2505081,3.2456076,-0.057213485,0.42355233,0.90406299,0
0.45203722,-1.3727756,-3.2232633,0.057213485,-0.42355233,-0.90406299,0
-0.53544343,1.4768751,3.0398369,-0.057213485,0.42355233,0.90406299,0
-0.65491897,1.2964444,2.2831664,-0.88542867,0.39683259,-0.24194956,0
-0.005046159,-1.7136226,-2.3163385,-0.30526066,-0.86959958,0.38808775,0
0.027456939,1.6152215,3.2042847,-0.057213485,0.42355233,0.90406299,0
0.044291735,1.3764853,3.218327,-0.057213485,0.42355233,0.90406299,0
0.42279577,-1.3911946,-3.2093744,0.057213485,-0.42355233,-0.90406299,0
0.2862159,0.030324638,-1.2029307,0.35098755,0.85627317,-0.3789506,0
-0.46729749,1.0084057,1.3123548,-0.74136764,0.58846772,-0.32261348,0
-0.63171005,1.0798109,2.7651761,-0.98222518,-0.18603356,0.024996638,0
0.083697051,0.92325354,1.0596159,0.39477777,0.84134042,-0.3691833,0
-0.17304146,-0.21951643,0.50400698,-0.36405444,-0.85204506,0.37614271,0
-0.34951276,-1.4130666,-3.1483753,0.057213485,-0.42355233,-0.90406299,0
0.62491381,-1.2799046,-2.7772865,0.99192876,-0.078517646,0.099559307,0
0.31792474,-0.15874952,-1.3385764,0.31840503,0.86599904,-0.38556907,0
-0.22789943,-1.385766,-3.3393598,0.057213485,-0.42355233,-0.90406299,0
-0.21473587,1.5597039,3.1621675,-0.057213485,0.42355233,0.90406299,0
-0.11087728,1.1277926,3.3413,-0.057213485,0.42355233,0.90406299,0
-0.68979037,1.3347663,3.0301433,-0.98385358,-0.17773667,0.021006465,0
-0.0046304464,-1.1769292,-3.3887696,0.057213485,-0.42355233,-0.90406299,0
-0.14464386,0.97221339,0.61993039,-0.17352831,0.88754374,-0.42679462,0
0.38304204,-1.8784068,-2.9268148,0.057213485,-0.42355233,-0.90406299,0
-0.12918127,1.5537152,3.2057114,-0.057213485,0.42355233,0.90406299,0
0.10611761,0.25251234,-0.53335243,0.33848166,0.86014277,-0.38155487,0
0.37909603,-0.50272727,-0.028113544,0.65903676,-0.66418892,0.35287851,0
0.05164969,-1.7878675,-3.0538924,0.057213485,-0.42355233,-0.90406299,0
-0.14666218,1.616394,3.1362114,-0.057213485,0.42355233,0.90406299,0
0.43095824,0.68224353,1.1474227,0.97214055,0.22981103,-0.046144426,0
0.31735018,1.2012968,2.5630455,0.97689688,0.21051709,-0.036804199,0
0.46437085,0.033252221,-0.23120004,0.98831511,0.15217252,-0.0087473392,0
-0.15786135,1.0595024,3.4479301,-0.057213485,0.42355233,0.90406299,0
-0.29643524,1.3636627,3.3031042,-0.057213485,0.42355233,0.90406299,0
-0.27481502,-1.5274751,-3.1588259,0.057213485,-0.42355233,-0.90406299,0
0.49397048,0.68801856,1.0407786,0.96069121,0.26975992,-0.065585017,0
-0.42739272,1.2705348,3.3518286,-0.057213485,0.42355233,0.90406299,0
-0.53716326,0.46170083,0.86320519,-0.99100244,-0.13384254,-1.0251999e-05,0
-0.37645191,-0.80344951,-2.3766432,-0.83673668,0.473634,-0.27484941,0
0.31633568,0.81039059,0.7443924,0.60917628,0.73224413,-0.30450368,0
0.2014856,-1.563719,-2.0917969,0.21121895,-0.87991291,0.42560479,0
0.097550392,0.29809356,1.7468553,0.55136126,-0.74151999,0.38229376,0
0.13918602,-1.7971828,-3.0140204,0.057213485,-0.42355233,-0.90406299,0
-0.5381099,0.80740094,2.663321,-0.58895195,-0.7455138,0.31200039,0
0.46358007,0.3795929,0.88348413,0.99221957,-0.076170802,0.098478198,0
0.38006997,-1.1528537,-3.3378737,0.057213485,-0.42355233,-0.90406299,0
-0.086014509,1.0169904,3.3347344,-0.057213485,0.42355233,0.90406299,0
-0.35537475,-0.63030815,-0.54430085,-0.70187992,-0.66105139,0.26528329,0
-0.049470663,-1.6979921,-3.1713765,0.057213485,-0.42355233,-0.90406299,0
0.2059468,-1.3325708,-3.2304373,0.057213485,-0.42355233,-0.90406299,0
-0.28535175,1.3363476,3.2175486,-0.057213485,0.42355233,0.90406299,0
0.20405793,1.4707448,3.2295926,-0.057213485,0.42355233,0.90406299,0
0.36244392,-0.86420572,-0.77857852,0.54286808,-0.74677366,0.38421768,0
-0.33650571,1.7286619,2.9650705,-0.057213485,0.42355233,0.90406299,0
-0.28375781,1.7052801,3.101943,-0.057213485,0.42355233,0.90406299,0
-0.039241046,-0.64201611,-0.25745857,-0.073571324,-0.90487283,0.41927561,0
-0.60930991,1.6474438,3.0323765,-0.057213485,0.42355233,0.90406299,0
0.4731921,-0.074019283,0.11461061,0.99817342,0.0066779852,0.060040593,0
-0.3504678,1.2425325,1.6270418,-0.29431903,0.85814679,-0.4206664,0
-0.22556221,-1.3009555,-3.2220731,0.057213485,-0.42355233,-0.90406299,0
0.23091531,-0.41172397,-2.0055866,0.013522744,0.905792,-0.42350638,0
-0.6404109,1.2485831,3.2881396,-0.057213485,0.42355233,0.90406299,0
0.1984179,-0.66684306,-2.6617253,-0.12314242,0.89563757,-0.42739797,0
0.011123121,-1.8473632,-3.016139,0.057213485,-0.42355233,-0.90406299,0
0.51377982,-0.0032943487,0.21243668,0.99129295,-0.083467722,0.10183823,0
0.52161884,-1.6367992,-2.9977217,0.057213485,-0.42355233,-0.90406299,0
0.065672368,1.2773578,1.3979062,0.36709261,0.85103452,-0.37547705,0
0.4847855,-1.7590991,-2.9729948,0.057213485,-0.42355233,-0.90406299,0
-0.071703315,-1.0622556,-3.3908722,0.057213485,-0.42355233,-0.90406299,0
0.16717064,1.7155225,3.0998933,-0.057213485,0.42355233,0.90406299,0
0.17347261,1.8916426,3.034514,-0.057213485,0.42355233,0.90406299,0
0.40843105,-0.37082079,-0.010011315,0.8428849,-0.46480894,0.2711041,0
-0.42618132,1.1983631,3.3042026,-0.057213485,0.42355233,0.90406299,0
0.40581989,-0.38869834,-2.0766644,0.52553451,0.78270775,-0.33343908,0
-0.18619502,1.7738444,3.054213,-0.057213485,0.42355233,0.90406299,0
0.3839277,-1.3814923,-3.1020782,0.057213485,-0.42355233,-0.90406299,0
-0.32561266,-0.71419227,-1.1742473,-0.96163183,-0.26674563,0.064113319,0
-0.3083902,1.5582994,3.0143657,-0.057213485,0.42355233,0.90406299,0
0.52702594,-0.84114432,-2.9368207,0.63120127,0.71694064,-0.29594019,0
-0.49887398,0.41914308,0.49317211,-0.98415846,0.1282768,-0.12237978,0
-0.39779401,1.1870933,3.231777,-0.057213485,0.42355233,0.90406299,0
0.32563943,-1.6536669,-3.0930347,0.057213485,-0.42355233,-0.90406299,0
0.2051785,-1.4903033,-3.1376684,0.057213485,-0.42355233,-0.90406299,0
0.29737759,-1.3486257,-3.2025852,0.057213485,-0.42355233,-0.90406299,0
0.51386458,-1.1399188,-1.8744545,0.92573518,-0.3165589,0.20689225,0
-0.31580329,0.82311326,0.72841495,-0.65635669,0.66638273,-0.35373676,0
-0.46101451,1.0455499,1.3626846,-0.6655497,0.65879333,-0.3507629,0
0.0091691017,0.41792178,2.1322057,0.21508199,-0.87905329,0.42544657,0
-0.2400502,-0.70663011,-2.3004711,-0.84137702,0.46699357,-0.27203214,0
0.54273707,-0.23489423,-0.53385091,0.99265742,0.12079757,0.0062265396,0
0.24046379,-1.7189268,-3.0981007,0.057213485,-0.42355233,-0.90406299,0
0.36204457,-1.1200786,-3.36707,0.057213485,-0.42355233,-0.90406299,0
0.23488462,1.269484,3.3620844,-0.057213485,0.42355233,0.90406299,0
0.52486253,-0.31522024,-1.0865999,0.94375449,0.31832796,-0.089410841,0
-0.1436764,-0.94245672,-2.8075647,-0.66721177,0.65740168,-0.35021609,0
-0.010857821,-1.2078347,-3.4087558,0.057213485,-0.42355233,-0.90406299,0
-0.25450474,-1.3113537,-1.8154597,-0.65967423,-0.69574142,0.28420648,0
-0.4369961,1.210247,3.3653009,-0.057213485,0.42355233,0.90406299,0
-0.46297714,-0.66010302,-0.98931599,-0.97527337,-0.21733199,0.04009974,0
0.047187507,-0.037987113,1.112474,0.34569734,-0.84112161,0.41594154,0
0.33713841,-0.84506392,-2.968116,0.21526146,0.88948005,-0.4030973,0
0.23499846,1.5362713,3.133919,-0.057213485,0.42355233,0.90406299,0
-0.1889427,-0.66777116,-0.36361918,-0.43978179,-0.82364714,0.358046,0
-0.31234616,0.060837269,0.99442863,-0.68995643,-0.67127621,0.27082819,0
-0.068870783,-1.345911,-3.171406,0.057213485,-0.42355233,-0.90406299,0
0.53232563,-0.79122514,-1.2520128,0.83781165,-0.47210658,0.27420187,0
-0.67028666,0.82858181,2.2238626,-0.97096753,-0.23428091,0.048312783,0
0.027171135,-1.2642829,-3.3167133,0.057213485,-0.42355233,-0.90406299,0
0.55864924,-0.90649676,-2.0710502,0.99814135,0.0052387416,0.060712695,0
0.25690788,-1.5881678,-3.0911396,0.057213485,-0.42355233,-0.90406299,0
0.084354401,-1.4183996,-3.2212334,0.057213485,-0.42355233,-0.90406299,0
-0.1180374,1.7727151,3.1107144,-0.057213485,0.42355233,0.90406299,0
-0.10220152,-0.027910948,-1.3651025,-0.26026088,0.86790782,-0.42308408,0
0.3709299,-1.811064,-3.036767,0.057213485,-0.42355233,-0.90406299,0
-0.0431692,-1.8240297,-2.9122679,0.057213485,-0.42355233,-0.90406299,0
-0.21204162,1.4637246,3.1541903,-0.057213485,0.42355233,0.90406299,0
0.6667003,-1.7379652,-2.954452,0.90043497,-0.36923069,0.22996783,0
0.061027408,0.71364903,2.390202,0.61971593,-0.69490159,0.36477894,0
-0.39432621,1.9843049,3.012146,-0.057213485,0.42355233,0.90406299,0
0.0076426268,-1.0505126,-3.4568932,0.057213485,-0.42355233,-0.90406299,0
0.35762233,-1.826105,-3.055578,0.057213485,-0.42355233,-0.90406299,0
0.45431316,-1.3344533,-3.2329779,0.057213485,-0.42355233,-0.90406299,0
-0.22173297,-1.3061244,-3.2265551,0.057213485,-0.42355233,-0.90406299,0
-0.32196951,0.68796879,0.51604819,-0.70549726,0.6235745,-0.33679098,0
0.15664023,-0.17974341,0.45035702,0.42450312,-0.80928886,0.40601516,0
0.35577488,-0.95947218,-0.85237157,0.44899985,-0.79788256,0.40222168,0
0.13500822,-1.1613595,-3.2724698,0.057213485,-0.42355233,-0.90406299,0
0.42048818,0.12019819,0.62949932,0.86740947,-0.4272522,0.25506079,0
-0.066823125,1.6684873,3.1540353,-0.057213485,0.42355233,0.90406299,0
-0.45952594,0.17327452,1.281283,-0.64319623,-0.70821178,0.29109159,0
-0.50265849,1.3551421,3.221499,-0.057213485,0.42355233,0.90406299,0
0.11266947,-1.1482425,-3.2925122,0.057213485,-0.42355233,-0.90406299,0
-0.18464285,-0.49870515,-2.1550934,-0.66420603,0.65991414,-0.35120285,0
0.1649648,-1.5439899,-3.1181812,0.057213485,-0.42355233,-0.90406299,0
0.22227681,-1.731548,-3.1202755,0.057213485,-0.42355233,-0.90406299,0
0.46824121,-1.107022,-3.3352242,0.057213485,-0.42355233,-0.90406299,0
-0.22883081,0.67766178,2.6350396,-0.10119617,-0.90334272,0.41681054,0
0.22107956,-0.37714806,0.49450815,0.40081418,-0.81961912,0.40935576,0
0.11887938,1.7664713,3.0670674,-0.057213485,0.42355233,0.90406299,0
0.4673692,-1.2084279,-3.2228637,0.057213485,-0.42355233,-0.90406299,0
-0.62342036,1.3098633,3.1276553,-0.057213485,0.42355233,0.90406299,0
0.51037776,-1.6981212,-3.0268786,0.057213485,-0.42355233,-0.90406299,0
-0.010415077,-1.2366714,-3.3325582,0.057213485,-0.42355233,-0.90406299,0
-0.038523257,-1.5349572,-2.3977208,-0.59360874,-0.74252236,0.31030425,0
0.058500886,-1.6261234,-3.0644946,0.057213485,-0.42355233,-0.90406299,0
-0.11769581,-0.4686662,-2.2168899,-0.30137146,0.85597587,-0.42009568,0
0.1762519,-0.74753582,-0.27683604,0.2267282,-0.87637329,0.42492804,0
-0.28137201,-0.29941201,-1.3641149,-0.85978889,0.43935543,-0.2602489,0
-0.32716766,-0.93419862,-1.7557602,-0.95047802,-0.30018812,0.080486894,0
0.41852245,0.87227428,1.9817786,0.97033674,-0.18946046,0.15016949,0
0.10373423,0.83255011,0.80721807,0.30340517,0.87009311,-0.38843641,0
0.19605893,-1.8390601,-2.9274909,0.057213485,-0.42355233,-0.90406299,0
0.45736337,-0.79984152,-2.4888678,0.76130378,0.6043303,-0.23494899,0
-0.20699328,1.8063149,3.03859,-0.057213485,0.42355233,0.90406299,0
-0.5939455,0.4438659,1.7491457,-0.83470732,-0.51708734,0.18943036,0
-0.26465535,1.8150569,2.9208565,-0.057213485,0.42355233,0.90406299,0
-0.056953311,-1.6716006,-3.1372039,0.057213485,-0.42355233,-0.90406299,0
0.38963711,-1.4366586,-3.2785172,0.057213485,-0.42355233,-0.90406299,0
-0.032678068,-1.8155169,-2.9431021,-0.42495501,-0.82974851,0.36184275,0
0.53341591,-1.6120552,-3.1392946,0.057213485,-0.42355233,-0.90406299,0
0.26313436,1.3283849,3.3246832,-0.057213485,0.42355233,0.90406299,0
-0.25121951,1.0226004,3.3225753,-0.086298943,-0.90425503,0.4181807,0
0.016844124,-1.3539181,-1.6183368,-0.23465121,-0.88588381,0.40018541,0
0.2409572,1.200145,2.5958624,0.99817598,0.04174307,0.043612719,0
-0.4710983,1.3663242,3.2866676,-0.057213485,0.42355233,0.90406299,0
0.21168196,-1.8124174,-3.0471964,0.057213485,-0.42355233,-0.90406299,0
-0.15743184,1.5030544,3.1703339,-0.057213485,0.42355233,0.90406299,0
0.157094,1.4466081,3.1284852,-0.057213485,0.42355233,0.90406299,0
-0.23725998,-1.0630429,-2.582654,-0.97975034,0.15021545,-0.13237894,0
0.57180989,-1.5865772,-2.9831493,0.057213485,-0.42355233,-0.90406299,0
0.18318987,-1.7651641,-2.9990034,0.057213485,-0.42355233,-0.90406299,0
-0.10723984,1.4224539,3.0913289,-0.057213485,0.42355233,0.90406299,0
0.50284541,-0.43534756,-1.7979486,0.70280665,0.66024172,-0.26484528,0
-0.23176575,-1.6461663,-3.1077716,0.057213485,-0.42355233,-0.90406299,0
-0.15453219,1.4787853,3.1801481,-0.057213485,0.42355233,0.90406299,0
0.300008,-1.8179891,-3.0055683,0.057213485,-0.42355233,-0.90406299,0
-0.09804368,-1.146111,-3.2781732,0.057213485,-0.42355233,-0.90406299,0
0.49849713,-1.3471744,-3.1832359,0.057213485,-0.42355233,-0.90406299,0
-0.021289945,1.2165709,3.2163956,-0.057213485,0.42355233,0.90406299,0
0.37046397,-1.6793975,-3.0478387,0.057213485,-0.42355233,-0.90406299,0
0.28174242,1.3730079,2.5659907,0.92488015,0.36346602,-0.11175251,0
-0.091685295,0.08133328,1.3931258,-0.069770217,-0.90502864,0.41958916,0
-0.44746774,1.7389085,3.0181825,-0.057213485,0.42355233,0.90406299,0
-0.053952269,-1.1621922,-1.3146181,-0.36311841,-0.85235417,0.37634677,0
-0.29381728,1.0983162,3.4469917,-0.057213485,0.42355233,0.90406299,0
0.24163032,-1.290132,-3.297471,0.057213485,-0.42355233,-0.90406299,0
-0.56792909,1.7584033,3.0125785,-0.057213485,0.42355233,0.90406299,0
0.15802205,-0.05896765,0.90487432,0.52413702,-0.75797105,0.38827813,0
0.63337958,-1.4011614,-2.7546802,0.91016829,-0.34999803,0.22157323,0
0.14749235,-1.6763844,-2.9710503,0.057213485,-0.42355233,-0.90406299,0
0.074218392,1.1853476,3.2276542,-0.057213485,0.42355233,0.90406299,0
0.49883574,-0.1353935,-1.0170736,0.85900909,0.48233986,-0.17161334,0
-0.21115176,0.36012396,-0.13479057,-0.37325156,0.83080465,-0.41285181,0
0.43804121,-1.2074165,-3.2282898,0.057213485,-0.42355233,-0.90406299,0
0.40717316,-0.56036413,-2.4891415,0.5175333,0.78695929,-0.33593726,0
0.25375199,0.086508662,-0.61418307,0.68663746,0.67406082,-0.27234283,0
0.56019372,-1.6426499,-2.9639311,0.057213485,-0.42355233,-0.90406299,0
0.13257325,-1.5913835,-3.2145858,0.057213485,-0.42355233,-0.90406299,0
0.60253513,-1.1616814,-1.7320044,0.73352921,-0.59644938,0.32585692,0
-0.23003048,-1.5671861,-3.0604055,0.057213485,-0.42355233,-0.90406299,0
-0.099217057,-1.1971524,-3.2864115,0.057213485,-0.42355233,-0.90406299,0
0.23025715,1.2074285,3.3858247,-0.057213485,0.42355233,0.90406299,0
-0.012517452,1.1146562,3.3009138,-0.057213485,0.42355233,0.90406299,0
-0.13720119,0.16637766,1.6425141,-0.017516732,-0.90583277,0.42327267,0
-0.29477274,-1.654775,-3.0706038,0.057213485,-0.42355233,-0.90406299,0
-0.57772672,1.5562159,3.0634975,-0.057213485,0.42355233,0.90406299,0
0.09436065,-0.52459335,0.054111063,-0.067482471,-0.90511596,0.41977483,0
-0.3029027,1.6383948,3.1354923,-0.057213485,0.42355233,0.90406299,0
-0.23249787,-0.2493816,0.45626909,-0.59108341,-0.74414933,0.31122631,0
-0.028705001,-1.2099407,-3.325062,0.057213485,-0.42355233,-0.90406299,0
-0.094913125,1.182601,3.2842691,-0.057213485,0.42355233,0.90406299,0
-0.59719574,1.2953012,2.9898891,-0.993891,-0.10976645,-0.011472702,0
0.1571101,-1.349144,-3.2258596,0.057213485,-0.42355233,-0.90406299,0
0.15720224,-1.8399203,-2.988224,0.057213485,-0.42355233,-0.90406299,0
0.41120619,-1.2042515,-1.4767032,0.45914242,-0.79293764,0.40054673,0
0.047190368,-1.7795016,-3.1112299,0.057213485,-0.42355233,-0.90406299,0
0.11084116,0.60231376,0.34865493,0.511567,0.79006904,-0.33777174,0
-0.63844788,1.0168041,2.5377057,-0.97387487,-0.22300546,0.042846322,0
-0.30483192,1.729089,2.7215152,-0.39841896,0.82062632,-0.40967596,0
-0.63229048,1.6811622,3.1367214,-0.057213485,0.42355233,0.90406299,0
-0.57055283,1.2579219,3.2670057,-0.057213485,0.42355233,0.90406299,0
0.48908091,-1.9641875,-3.0240543,0.057213485,-0.42355233,-0.90406299,0
-0.34967613,1.139437,1.4928284,-0.4396821,0.80230969,-0.40370607,0
0.40887159,0.10947579,0.70509148,0.92821097,-0.31088373,0.20439005,0
-0.50605536,1.6754916,2.9619896,-0.057213485,0.42355233,0.90406299,0
0.22870594,0.86696625,1.0232689,0.57327056,0.75531483,-0.3175846,0
-0.52426064,1.3112216,3.1810009,-0.057213485,0.42355233,0.90406299,0
0.35981792,0.48966253,0.48039597,0.90531921,0.40374425,-0.13186067,0
0.41473651,-0.82922435,-0.88231719,0.65753996,-0.665416,0.35335875,0
-0.50827074,1.3081843,3.1190546,-0.057213485,0.42355233,0.90406299,0
0.32468453,0.84364092,1.5631423,0.98210317,0.18663763,-0.025287271,0
-0.16566586,1.6582508,2.4114161,-0.14053577,0.8931129,-0.42731583,0
-0.031430483,1.732186,3.114295,-0.057213485,0.42355233,0.90406299,0
-0.0084534883,-1.0920839,-3.3446586,0.057213485,-0.42355233,-0.90406299,0
-0.16724384,1.4295914,3.2120578,-0.057213485,0.42355233,0.90406299,0
-0.18243706,-0.37136471,0.36603287,-0.23948681,-0.88492918,0.39943209,0
-0.47538924,0.80473185,2.8052602,-0.67770296,-0.68142772,0.27635959,0
-0.52101099,1.6686884,3.1502836,-0.057213485,0.42355233,0.90406299,0
0.018674433,-0.43707144,-1.7832291,-0.19368917,0.883632,-0.42623788,0
-0.074428856,-1.5478845,-3.0665774,0.057213485,-0.42355233,-0.90406299,0
0.28329694,-1.8773671,-3.0193262,0.057213485,-0.42355233,-0.90406299,0
0.6300211,-1.4541076,-3.1808829,0.057213485,-0.42355233,-0.90406299,0
-0.4599933,1.6827366,3.0965357,-0.057213485,0.42355233,0.90406299,0
0.12696469,0.37114751,1.6535828,0.61151093,-0.70093024,0.36708415,0
-0.079939567,-1.3927021,-1.6751994,-0.44654524,-0.82077265,0.35627124,0
0.41302031,-0.012650378,-0.21484104,0.98731375,0.1583479,-0.011703968,0
-0.25963724,1.1131775,3.4189076,-0.057213485,0.42355233,0.90406299,0
0.23043671,-0.77137923,-0.41302201,0.46379489,-0.79062492,0.39975762,0
-0.52961326,0.67083395,1.0680411,-0.88381511,0.39966944,-0.2431767,0
-0.10352957,-1.6171646,-3.0269911,0.057213485,-0.42355233,-0.90406299,0
0.1930095,1.1960497,3.3120167,-0.057213485,0.42355233,0.90406299,0
0.014875472,-1.8145192,-3.1084654,0.057213485,-0.42355233,-0.90406299,0
0.065350115,-1.6779809,-3.0323877,0.057213485,-0.42355233,-0.90406299,0
0.56894422,-0.38532227,-1.366142,0.81482852,0.5430513,-0.20285249,0
0.041975856,1.7315247,3.1678133,-0.057213485,0.42355233,0.90406299,0
0.42547011,-0.76482511,-2.5679107,0.66374117,0.6925751,-0.2824657,0
-0.47675842,0.11400136,-0.17770749,-0.86262816,0.43489465,-0.25833881,0
-0.44997269,-0.32678768,-0.32387164,-0.92195863,-0.36984316,0.11492503,0
-0.45821655,1.832801,2.9163301,-0.057213485,0.42355233,0.90406299,0
0.25633526,-1.3390493,-3.2677059,0.057213485,-0.42355233,-0.90406299,0
0.17872202,-1.6189522,-3.0358601,0.057213485,-0.42355233,-0.90406299,0
-0.17899823,0.24958563,1.6005138,-0.032907367,-0.90585434,0.42230883,0
0.16870023,1.1856267,1.7022476,0.74352306,0.62239432,-0.24453712,0
0.11932087,1.1663346,3.366123,-0.057213485,0.42355233,0.90406299,0
-0.3056207,-1.3918079,-2.0985427,-0.80766338,-0.55193818,0.20746946,0
-0.0595451,-0.4202348,-1.8856816,-0.25757468,0.86862731,-0.42325115,0
-0.74438179,1.08251,2.4034095,-0.99831611,-0.032924235,-0.047753215,0
-0.011713102,-0.7504065,-0.65526646,-0.19259799,-0.89321876,0.40628317,0
0.32871306,1.4902012,2.6610463,0.96527481,0.2546649,-0.058223009,0
-0.031838417,1.5615338,3.0959883,-0.057213485,0.42355233,0.90406299,0
-0.25188565,1.8537844,2.9253349,-0.057213485,0.42355233,0.90406299,0
0.30466884,0.93274927,2.7857542,0.77450359,-0.55257893,0.30789673,0
-0.14985466,-1.3168087,-3.3453045,0.057213485,-0.42355233,-0.90406299,0
-0.36004713,-0.91003072,-2.0283899,-0.97490245,0.17144975,-0.14202034,0
0.24069762,1.0859296,2.4582365,0.99340016,-0.066015899,0.093795419,0
-0.61449337,1.1126026,2.1490645,-0.98028862,0.14769021,-0.13123,0
0.098076582,1.2492816,3.2908869,-0.057213485,0.42355233,0.90406299,0
0.54140794,-1.6935455,-3.0241103,0.057213485,-0.42355233,-0.90406299,0
0.26187253,-1.4319015,-3.0769498,0.057213485,-0.42355233,-0.90406299,0
-0.40856424,-0.76606995,-1.333566,-0.94352704,-0.31891957,0.089702487,0
-0.23503423,1.6213607,3.066659,-0.057213485,0.42355233,0.90406299,0
-0.47828352,-0.35928342,-0.014208943,-0.75171328,-0.6141991,0.24017939,0
-0.18612325,1.3400455,3.195858,-0.057213485,0.42355233,0.90406299,0
-0.26884133,-1.1549642,-2.6775084,-0.99502492,0.049784452,-0.086293817,0
-0.096699625,1.4754717,1.8643025,0.0068600178,0.90569168,-0.42388099,0
-0.37231022,0.62897706,0.62992287,-0.83492571,0.47619265,-0.27593362,0
0.20050085,-0.42111385,-2.2485471,0.082894087,0.90443486,-0.41848049,0
0.29963535,0.39025295,1.4023571,0.83744097,-0.47263402,0.27442551,0
-0.22833538,-0.34583682,0.045958906,-0.55739689,-0.76482123,0.32304287,0
0.49629915,-1.2907903,-3.3201356,0.057213485,-0.42355233,-0.90406299,0
0.26184708,1.2097901,2.1483593,0.94694644,0.30987805,-0.085250139,0
0.20088518,-1.9504803,-2.9533503,0.079755068,-0.90071315,0.42703,0
-0.26466262,1.4881124,3.2470722,-0.057213485,0.42355233,0.90406299,0
0.021333516,-0.61255902,-0.29106185,-0.16116226,-0.89758795,0.41031951,0
0.43888259,-1.0720031,-3.4445207,0.057213485,-0.42355233,-0.90406299,0
-0.38157463,1.0265329,3.4736261,-0.057213485,0.42355233,0.90406299,0
-0.52013385,0.90576005,1.0297023,-0.70301467,0.62587595,-0.33771205,0
-0.016997874,-1.6883802,-3.0994437,0.057213485,-0.42355233,-0.90406299,0
-0.37879145,-0.84001744,-1.1872219,-0.79174781,-0.57087219,0.2173472,0
-0.065394163,0.68829727,2.7142379,0.26035035,-0.86788362,0.42307842,0
-0.35930884,-0.45378566,-1.3897672,-0.94224721,0.2764073,-0.18912637,0
-0.60622621,1.1770613,1.8164175,-0.7601229,0.56860089,-0.31449282,0
-0.054033279,-1.3775527,-3.3128939,0.057213485,-0.42355233,-0.90406299,0
0.42029864,-0.6638816,-0.52757597,0.81182975,-0.50732434,0.28905714,0
0.0041536093,1.3444803,3.2412214,-0.057213485,0.42355233,0.90406299,0
-0.55452275,0.194809,0.5632962,-0.99836016,-0.022620052,-0.052583575,0
0.23223361,-1.7585404,-2.4521194,0.068740726,-0.90172601,0.42680746,0
0.51136154,0.22030467,0.48478943,0.98163605,-0.14119625,0.12827289,0
0.25231147,-1.1700501,-3.2377768,0.057213485,-0.42355233,-0.90406299,0
-0.18798088,-1.1594069,-1.3637379,-0.44160616,-0.82287753,0.3575699,0
0.40547192,-1.5404208,-3.0367634,0.057213485,-0.42355233,-0.90406299,0
0.29274094,-1.2606528,-3.2890768,0.057213485,-0.42355233,-0.90406299,0
-0.13149261,-0.56995589,0.037516415,-0.24921787,-0.88293773,0.39788333,0
0.27530277,-0.25470531,-1.8715824,0.25639987,0.88140714,-0.39671171,0
-0.4062537,1.6157621,3.1231656,-0.057213485,0.42355233,0.90406299,0
-0.16819251,1.8769782,2.9759195,-0.057213485,0.42355233,0.90406299,0
-0.19047141,-1.1323769,-3.4059355,0.057213485,-0.42355233,-0.90406299,0
0.60531282,-1.4591782,-3.2584941,0.057213485,-0.42355233,-0.90406299,0
-0.31740427,-1.4484217,-3.2702208,0.057213485,-0.42355233,-0.90406299,0
0.43740809,-1.0173044,-3.2652845,0.057213485,-0.42355233,-0.90406299,0
0.026296973,0.30971634,1.6741569,0.3662852,-0.83349341,0.41367072,0
-0.48030716,0.13781726,0.7961334,-0.79682791,-0.56494451,0.21424854,0
0.35292602,1.6817493,3.084981,0.94409335,0.31744394,-0.08897531,0
0.095930845,-1.4325019,-1.8925359,0.14548713,-0.89234239,0.42726821,0
0.20187865,1.4290951,1.8801405,0.59725583,0.74015319,-0.30896348,0
-0.3440789,1.2227769,3.3140697,-0.057213485,0.42355233,0.90406299,0
-0.031584144,1.4899313,3.2648199,-0.057213485,0.42355233,0.90406299,0
0.49246407,-1.2872696,-3.2134931,0.057213485,-0.42355233,-0.90406299,0
-0.021338165,0.67455184,0.26756391,0.18845034,0.89384925,-0.40684098,0
-0.54276472,0.52813303,1.7078085,-0.95505518,-0.28703332,0.074034214,0
-0.46016276,0.93547463,1.5965225,-0.94003665,0.28212595,-0.19166553,0
0.37807459,-0.44199705,-0.31616643,0.7546196,-0.57454687,0.31693023,0
0.046895176,0.82362348,0.60766745,0.19633043,0.89263713,-0.40577444,0
-0.17587039,1.7384233,2.5729103,0.22712839,0.8873229,-0.40133572,0
-0.28929204,-0.51725566,-1.8192109,-0.66542596,0.65889668,-0.35080349,0
-0.024928808,-0.20842397,-1.8508642,-0.19847679,0.88264579,-0.42607874,0
-0.2681334,1.526993,3.2195036,-0.057213485,0.42355233,0.90406299,0
0.19348946,0.40859193,-0.098856159,0.47775459,0.80674529,-0.34772441,0
-0.60938358,1.4087586,3.2233186,-0.057213485,0.42355233,0.90406299,0
0.27996337,-1.8144752,-2.9027073,0.057213485,-0.42355233,-0.90406299,0
0.045184731,-1.0329406,-3.3915522,0.057213485,-0.42355233,-0.90406299,0
0.50647473,-1.3426616,-3.3122389,0.057213485,-0.42355233,-0.90406299,0
-0.019559264,1.2080209,3.2148771,-0.057213485,0.42355233,0.90406299,0
-0.23503399,1.6781794,2.977412,-0.057213485,0.42355233,0.90406299,0
-0.58963144,1.3524363,3.1059823,-0.057213485,0.42355233,0.90406299,0
0.61148345,-1.7928997,-3.0549216,0.057213485,-0.42355233,-0.90406299,0
0.22170782,0.99221897,1.2765462,0.63117683,0.71695805,-0.29594991,0
0.10650131,1.8510484,2.804945,0.59387422,0.7423507,-0.31020698,0
0.20523453,-1.7665124,-2.3447905,0.10276741,-0.89823753,0.42732656,0
-0.52537662,0.43722993,1.3134958,-0.90476429,-0.40481174,0.13239592,0
-0.13321073,-1.6086422,-2.3660691,-0.54447281,-0.77226448,0.32734793,0
0.30504477,-0.79277444,-2.8999212,0.18978894,0.89364761,-0.40666187,0
0.2477895,-1.4155979,-3.1682763,0.057213485,-0.42355233,-0.90406299,0
0.20994949,1.4345758,3.0127368,0.99422598,0.10651146,0.013018966,0
0.033165693,1.6595839,3.0594895,-0.057213485,0.42355233,0.90406299,0
-0.057298064,-1.684629,-3.1492653,0.057213485,-0.42355233,-0.90406299,0
0.42732424,-0.062532187,-0.94909286,0.64751434,0.70499849,-0.28931296,0
0.11799181,-1.4778014,-3.0634491,0.057213485,-0.42355233,-0.90406299,0
-0.3041867,-1.3524067,-3.3467176,0.057213485,-0.42355233,-0.90406299,0
0.34483033,0.086058497,0.92785668,0.76023585,-0.56847793,0.3144424,0
-0.60804915,0.91298079,1.7015111,-0.99316943,0.068089455,-0.094752312,0
0.66545475,-1.0622542,-2.0916939,0.99796903,-0.0011329353,0.063686967,0
0.40393335,0.43028492,0.34311694,0.78033042,0.58382106,-0.22413626,0
-0.62293375,1.3286304,3.2410209,-0.057213485,0.42355233,0.90406299,0
-0.70148158,1.505013,3.1338308,-0.057213485,0.42355233,0.90406299,0
-0.17514902,-0.35563731,-1.9483523,-0.42736867,0.80799311,-0.40558958,0
-0.25178775,1.4866579,1.8983855,-0.32427233,0.8485648,-0.41807282,0
0.13882542,-0.2662288,-1.7664065,0.14232779,0.89975739,-0.41252777,0
-0.44361159,0.11788616,0.50290924,-0.99304718,-0.11745526,-0.0078171492,0
-0.28047705,0.10113609,1.3269668,-0.34363496,-0.85856915,0.38049144,0
0.23099554,-1.5658045,-3.0354247,0.057213485,-0.42355233,-0.90406299,0
-0.085321784,-1.3254457,-3.2827332,0.057213485,-0.42355233,-0.90406299,0
-0.52631867,0.038633764,0.49975008,-0.88183028,-0.44600549,0.15314651,0
0.42989486,-1.7494869,-2.9165461,0.057213485,-0.42355233,-0.90406299,0
0.25886369,1.2619007,3.2836864,-0.057213485,0.42355233,0.90406299,0
0.61657536,-1.660992,-2.7019587,0.75014687,-0.57930708,0.3188774,0
0.22769618,1.4835577,3.2745693,-0.057213485,0.42355233,0.90406299,0
-0.12332392,1.7294929,3.1219831,-0.057213485,0.42355233,0.90406299,0
-0.5340941,1.3505311,3.2248716,-0.057213485,0.42355233,0.90406299,0
-0.26250243,0.91148162,3.0530403,-0.065825343,-0.90517628,0.41990802,0
0.24258527,1.005226,1.1678563,0.71445531,0.64987797,-0.25925273,0
-0.092873335,1.7953116,3.0200427,-0.057213485,0.42355233,0.90406299,0
0.66200435,-1.2493882,-2.4610698,0.98834831,-0.10390341,0.11122584,0
-0.40802205,1.2551286,3.3644085,-0.057213485,0.42355233,0.90406299,0
-0.44837898,-0.14878494,-0.52212179,-0.99762225,0.010592729,-0.068096995,0
0.50273871,-1.782234,-2.9625609,0.057213485,-0.42355233,-0.90406299,0
-0.5310533,0.83118808,2.6513748,-0.69496018,-0.66702795,0.26852125,0
0.33184671,-1.192555,-3.3585935,0.057213485,-0.42355233,-0.90406299,0
-0.24016427,1.0383532,1.0574529,-0.3394447,0.84334552,-0.41658783,0
-0.44607174,1.2038152,3.3137908,-0.057213485,0.42355233,0.90406299,0
0.22287369,-1.0927222,-3.3445408,0.057213485,-0.42355233,-0.90406299,0
0.085605621,1.0694368,3.2670708,-0.057213485,0.42355233,0.90406299,0
-0.4980638,-0.5890379,-1.2697098,-0.99811977,-0.0043305159,-0.061136961,0
-0.53079164,1.6013298,3.0846233,-0.057213485,0.42355233,0.90406299,0
-0.31226701,-0.82128298,-2.565938,-0.90374565,0.36281678,-0.22717237,0
0.074076891,1.4671268,3.0865211,-0.057213485,0.42355233,0.90406299,0
-0.21563482,-1.427913,-3.2960012,0.057213485,-0.42355233,-0.90406299,0
-0.48174348,0.39002937,0.3369965,-0.95403355,0.24364245,-0.17452192,0
0.34637851,1.2033305,2.8641269,0.9940623,-0.059781462,0.090916395,0
0.24351919,-0.985111,-3.3506351,0.13817418,0.90019095,-0.41299379,0
-0.29817414,-0.22107789,0.27295065,-0.73697138,-0.62880176,0.24795362,0
-0.54342842,0.94511819,2.7635038,-0.67436659,-0.68413132,0.27783737,0
-0.33200923,-0.438813,-0.073114768,-0.73516041,-0.63055038,0.24888745,0
0.32752001,-0.86219215,-0.58231086,0.56695312,-0.7315793,0.37862337,0
-0.2931447,1.5309522,3.0986526,-0.057213485,0.42355233,0.90406299,0
-0.50137579,1.3258579,3.2094002,-0.057213485,0.42355233,0.90406299,0
0.0033811331,1.4158554,3.2887263,-0.057213485,0.42355233,0.90406299,0
-0.27264404,1.1537764,3.2154219,-0.057213485,0.42355233,0.90406299,0
0.025444329,-1.5595809,-3.0462396,0.057213485,-0.42355233,-0.90406299,0
0.34637338,-1.7063278,-2.5026608,0.23653728,-0.87401265,0.42444277,0
0.12588543,-0.14770293,0.93335551,0.32778478,-0.84737873,0.41773939,0
-0.0035318136,-1.3972216,-3.3273044,0.057213485,-0.42355233,-0.90406299,0
-0.35087085,1.7377338,3.0248113,-0.057213485,0.42355233,0.90406299,0
0.24288136,1.0668826,2.992928,0.8104037,-0.50916147,0.28982759,0
-0.36084622,-0.709463,-1.7877361,-0.93924296,0.28415021,-0.19256365,0
-0.27011991,1.2311692,1.5281656,-0.40679309,0.81707537,-0.40854239,0
0.66458774,-1.3939929,-3.2639587,0.057213485,-0.42355233,-0.90406299,0
0.62255561,-1.5085046,-3.1523514,0.057213485,-0.42355233,-0.90406299,0
-0.50858271,0.37161466,0.74217391,-0.99823582,-0.038654268,-0.045063615,0
-0.45431042,1.2883837,3.2544641,-0.057213485,0.42355233,0.90406299,0
0.613114,-1.1848437,-2.7917974,0.96647757,0.25052276,-0.056206226,0
-0.024448276,1.4883261,3.0987496,-0.057213485,0.42355233,0.90406299,0
-0.43185768,0.82426977,1.171324,-0.6883586,0.63914871,-0.3430028,0
-0.024831176,-0.12191951,-1.1245217,-0.1980952,0.88272518,-0.42609179,0
0.010499239,-1.1092806,-3.2422597,0.057213485,-0.42355233,-0.90406299,0
0.40401173,-1.5986012,-3.008966,0.057213485,-0.42355233,-0.90406299,0
0.089195132,-1.7943211,-2.9429717,0.057213485,-0.42355233,-0.90406299,0
-0.33804482,-1.3333175,-3.1811824,0.057213485,-0.42355233,-0.90406299,0
-0.18905777,-1.3561084,-3.2374308,0.057213485,-0.42355233,-0.90406299,0
0.053376973,1.6270145,3.0383983,-0.057213485,0.42355233,0.90406299,0
0.50983483,-0.41046804,-1.4520204,0.74216139,0.62373662,-0.24525219,0
-0.41003144,0.26058185,1.7622364,-0.53252864,-0.77891386,0.33121902,0
-0.56928682,1.1381586,1.7376328,-0.90940607,0.3515465,-0.22225046,0
-0.17737812,-1.8183364,-3.1261044,0.057213485,-0.42355233,-0.90406299,0
0.54227579,-1.2840942,-3.0792727,0.9451685,0.31461892,-0.08758378,0
-0.48503369,1.8668295,2.8645763,-0.057213485,0.42355233,0.90406299,0
0.38319716,0.65898806,1.3447862,0.95634937,0.28317928,-0.072146773,0
0.36747569,-0.17355892,0.41188055,0.861691,-0.43637329,0.25897205,0
0.4264549,0.13277084,0.6203109,0.98812824,-0.10530007,0.11186635,0
0.059484839,0.63006723,2.6112618,0.4349409,-0.80452031,0.40444165,0
-0.25918335,-1.1775672,-1.4072834,-0.57838666,-0.75216281,0.3157841,0
0.61519158,-0.5687415,-0.93491417,0.957856,-0.23203501,0.16932571,0
0.067406893,-1.5843976,-3.0178695,0.057213485,-0.42355233,-0.90406299,0
0.017769814,-0.38707376,-2.0564647,-0.081426322,0.90054971,-0.42705923,0
0.45503756,0.29284096,0.98940527,0.99246854,-0.074117452,0.097532153,0
-0.54094243,1.5418341,2.6017449,-0.8450737,0.46161383,-0.26974571,0
0.24955273,0.98743796,2.9544256,0.77779758,-0.54880583,0.30633736,0
0.0083205998,-0.55254805,-0.25243858,-0.013394117,-0.90579039,0.42351383,0
0.41028732,-1.6486166,-3.0665603,0.057213485,-0.42355233,-0.90406299,0
-0.34239244,0.28253567,1.751622,-0.43798971,-0.82439923,0.35851169,0
0.55633914,-1.1649175,-1.6487255,0.80539387,-0.51554257,0.29250002,0
-0.36588186,1.0365741,1.1751676,-0.68438089,0.64266121,-0.34439671,0
0.61013657,-0.39360699,-0.61532354,0.97552389,-0.16886291,0.1408478,0
0.50551873,0.26238152,-0.10175776,0.89981478,0.41417158,-0.1370942,0
0.30762309,1.2941129,3.2409093,-0.057213485,0.42355233,0.90406299,0
0.22824603,-1.6393676,-3.1086676,0.057213485,-0.42355233,-0.90406299,0
-0.26041138,1.0857911,3.4479465,-0.057213485,0.42355233,0.90406299,0
0.62900269,-1.4828992,-3.2467663,0.057213485,-0.42355233,-0.90406299,0
-0.44300771,-0.027399629,0.37647384,-0.93282342,-0.34536704,0.10277045,0
-0.57974792,1.507308,2.8120778,-0.87445891,0.41566944,-0.25008047,0
-0.17318261,1.3832653,3.2516632,-0.057213485,0.42355233,0.90406299,0
0.44209409,-1.3860078,-3.1134851,0.057213485,-0.42355233,-0.90406299,0
0.31922561,-1.6884893,-3.0593743,0.057213485,-0.42355233,-0.90406299,0
-0.11593622,0.66202688,0.038543314,-0.23874313,0.87346876,-0.42432761,0
0.38776207,-1.440733,-3.2667136,0.057213485,-0.42355233,-0.90406299,0
-0.11857277,-0.96336949,-1.02958,-0.54206681,-0.77362144,0.32813594,0
-0.093001187,-0.17219055,-1.2335931,-0.44806623,0.79833114,-0.4023726,0
-0.30220777,1.6431385,2.4064806,-0.49952978,0.77189845,-0.39324576,0
-0.27778435,1.0430326,3.4230146,-0.057213485,0.42355233,0.90406299,0
-0.096871495,1.1614711,3.4250429,-0.057213485,0.42355233,0.90406299,0
-0.19539857,1.1647375,3.2810445,-0.057213485,0.42355233,0.90406299,0
0.22015136,-1.8827821,-3.0746503,0.057213485,-0.42355233,-0.90406299,0
0.44883466,-1.4510963,-3.0780759,0.057213485,-0.42355233,-0.90406299,0
-0.0070408583,-1.3974228,-3.1379173,0.057213485,-0.42355233,-0.90406299,0
-0.25543886,1.7029299,3.0110867,-0.057213485,0.42355233,0.90406299,0
-0.06117788,-1.2298017,-1.5012215,-0.355479,-0.85484135,0.37799549,0
-0.27237558,1.089324,3.3037627,-0.057213485,0.42355233,0.90406299,0
0.14663196,0.0019958019,1.0046186,0.50830626,-0.76703066,0.3915208,0
-0.11023849,1.6539195,3.186111,-0.057213485,0.42355233,0.90406299,0
-0.32090703,0.29860443,-0.48288774,-0.50448143,0.76916546,-0.39227879,0
0.27092838,-0.61775506,-2.2988102,0.275267,0.87713826,-0.39351773,0
-0.16815132,0.20155236,-0.41875774,-0.41531634,0.81337535,-0.40734833,0
0.40548569,0.024130523,0.25182721,0.97179681,-0.18387771,0.14764631,0
0.22590059,0.54346609,2.0088675,0.58096838,-0.72230613,0.37516576,0
-0.32385671,-0.38794819,0.24464922,-0.64980268,-0.70327997,0.28836301,0
-0.44729137,1.0531223,3.2908626,-0.057213485,0.42355233,0.90406299,0
0.17162231,-0.28488904,0.33343577,0.49800843,-0.7727313,0.39353985,0
-0.12668329,0.10393727,-0.91743058,-0.39524102,0.82195222,-0.41009617,0
0.063384056,1.3185513,3.1474595,-0.057213485,0.42355233,0.90406299,0
0.12448657,-1.3596883,-3.3100953,0.057213485,-0.42355233,-0.90406299,0
0.17729783,0.13807556,-0.66768366,0.28814614,0.87401545,-0.39123964,0
0.39136398,-0.19792807,-1.4531784,0.40704262,0.83676064,-0.36626151,0
0.11903328,1.6255763,2.5209761,0.45851505,0.81554258,-0.35306346,0
0.030489087,-1.2542851,-3.3594074,0.057213485,-0.42355233,-0.90406299,0
-0.29631668,1.8849568,2.9335203,-0.057213485,0.42355233,0.90406299,0
0.30157959,-1.8607094,-3.0660083,0.057213485,-0.42355233,-0.90406299,0
-0.46086019,0.56574923,0.38146004,-0.80245942,0.51922858,-0.29404128,0
-0.32893145,-0.94022989,-2.4754367,-0.91676652,0.33626485,-0.21555698,0
