1.0920537,1.3779988,0.3063333,-0.42128482,0.87222016,-0.24849743,0
-0.90411425,-0.8240484,-1.0269129,0.40746552,-0.17262985,-0.89675558,0
1.8839633,1.432447,0.57992345,0.82917196,0.48142719,0.28408003,0
-0.18864816,0.30177313,0.67610741,-0.39918989,0.15421648,0.90380555,0
-2.1899309,-1.0957439,-0.70384663,-0.82917196,-0.48142719,-0.28408003,0
-0.7251327,0.52241737,0.012137949,-0.53261268,0.83469206,0.14004481,0
-2.130815,-0.77386665,-0.092518479,-0.49772495,0.40451899,0.76722467,0
1.8401346,0.20062637,0.55525917,0.51313627,-0.85711634,-0.045194745,0
0.88216799,-0.15376776,0.70865494,0.23820934,-0.76405907,0.59955817,0
1.5705935,1.2004153,1.2762482,-0.41732901,0.19503199,0.88758028,0
-2.1952801,-1.2679648,-0.16488945,-0.82917196,-0.48142719,-0.28408003,0
-2.1390786,-0.83961082,-1.2544401,-0.82917196,-0.48142719,-0.28408003,0
1.5860019,1.2901652,1.3248649,-0.45528501,0.28677016,0.84289861,0
-0.53839862,0.16644675,0.52847123,-0.51792461,0.47045606,0.71444023,0
-1.9628804,-1.0214374,-1.3610126,-0.82917196,-0.48142719,-0.28408003,0
-1.7871257,-1.55531,-1.1565672,-0.82917196,-0.48142719,-0.28408003,0
-2.3454895,-0.89314675,-0.71243632,-0.82917196,-0.48142719,-0.28408003,0
-1.8411142,-1.7412622,-0.42636728,-0.82917196,-0.48142719,-0.28408003,0
-0.51584876,0.55943942,-0.38874853,-0.3793599,0.85788697,-0.34657747,0
0.46815729,0.52812552,0.95066893,-0.42256004,0.20712784,0.88234961,0
2.0403166,0.8079288,1.3954914,0.82917196,0.48142719,0.28408003,0
1.9179963,1.7684789,0.34755945,0.82917196,0.48142719,0.28408003,0
2.1341348,1.4468851,0.13385606,0.82917196,0.48142719,0.28408003,0
2.3434751,0.70533347,0.87890208,0.82917196,0.48142719,0.28408003,0
2.3022807,1.0489712,0.5700193,0.82917196,0.48142719,0.28408003,0
1.994426,0.97995734,1.1507485,0.82917196,0.48142719,0.28408003,0
1.8875911,1.7001481,0.71920574,0.82917196,0.48142719,0.28408003,0
-0.94495493,0.27145344,0.3157565,-0.55654341,0.66345817,0.50008225,0
-1.5479622,-1.848959,-0.49743962,0.4347735,-0.87484658,0.21357775,0
2.1369619,1.4419014,-0.050514042,0.11779559,0.34630311,-0.93069768,0
-1.9400799,-1.2590151,-0.95971632,-0.82917196,-0.48142719,-0.28408003,0
-0.30786407,-0.98611283,-0.27197868,0.48686662,-0.87166995,0.056144893,0
2.0986514,1.258743,0.72177142,0.82917196,0.48142719,0.28408003,0
0.19169086,-0.2709727,0.78875756,-0.068812847,-0.41642511,0.90656209,0
0.33551767,-0.54132593,0.34869859,0.3275879,-0.83028209,0.45090765,0
-2.4034665,-0.78321838,-0.78981781,-0.82917196,-0.48142719,-0.28408003,0
1.893074,1.2383411,1.0272775,0.82917196,0.48142719,0.28408003,0
1.9999574,1.6759145,0.33798206,0.82917196,0.48142719,0.28408003,0
0.058528662,-0.016214736,0.71636641,-0.15128338,-0.29596913,0.94314128,0
0.81846046,0.30113578,-0.52040076,0.35738015,-0.065782577,-0.93163925,0
-2.124625,-1.1407583,0.093628168,-0.30931664,-0.028152347,0.95054221,0
-1.7545868,-1.7362444,-0.87332153,-0.82917196,-0.48142719,-0.28408003,0
0.82515872,-0.27483726,0.34177887,0.45507005,-0.87648547,0.15711337,0
-0.09518677,-0.46185118,-0.85402918,0.41908044,-0.19906498,-0.88585782,0
2.0823152,0.51588225,0.092760071,0.5356425,-0.53893507,-0.65010446,0
-2.5373847,-0.69051003,-0.36082476,-0.82917196,-0.48142719,-0.28408003,0
-2.0486195,-1.5872626,-0.12288904,-0.82917196,-0.48142719,-0.28408003,0
-1.0447434,-0.6893785,0.36992297,-0.20173848,-0.21622813,0.95527315,0
2.1634061,0.71962619,0.97480386,0.82917196,0.48142719,0.28408003,0
1.8278158,1.5942039,0.79112136,0.82917196,0.48142719,0.28408003,0
-1.7851348,-0.20698249,-0.66764843,-0.4148089,0.87058014,-0.26461983,0
1.8727005,0.20482814,0.18933511,0.55796021,-0.7436806,-0.36826515,0
1.9123864,1.3115129,1.1495092,0.82917196,0.48142719,0.28408003,0
1.476609,0.59043086,-0.32657516,0.42534637,-0.21363549,-0.87945431,0
-0.95851481,0.34361517,-0.1901651,-0.47551137,0.87463856,-0.094319403,0
1.0973278,-0.25228149,0.15000671,0.50063837,-0.86563748,0.0057246685,0
-2.2294035,-1.1462514,-0.51273257,-0.82917196,-0.48142719,-0.28408003,0
-1.6977103,-1.8561525,-0.6515069,-0.82917196,-0.48142719,-0.28408003,0
0.29635614,-0.69884497,-0.096001983,0.52371377,-0.84672844,-0.093672633,0
-1.7403648,-1.576267,-0.94109154,-0.82917196,-0.48142719,-0.28408003,0
-1.1540531,-1.0268283,-1.1611413,0.39753115,-0.15056546,-0.90515113,0
-1.7400835,-0.47142637,-1.0268027,-0.19142705,0.72201997,-0.66486293,0
-1.9077501,-1.2949543,-1.088461,-0.82917196,-0.48142719,-0.28408003,0
2.5047762,0.67165232,0.29611754,0.82917196,0.48142719,0.28408003,0
-2.3842144,-0.71486902,-0.94403154,-0.82917196,-0.48142719,-0.28408003,0
2.2601428,1.0913906,0.49476749,0.82917196,0.48142719,0.28408003,0
-1.8610938,-0.46958566,-0.9856329,-0.20513269,0.73480141,-0.64651942,0
-2.1275296,-0.90543056,-1.2607663,-0.82917196,-0.48142719,-0.28408003,0
1.7782224,1.5082388,1.3045485,0.82917196,0.48142719,0.28408003,0
2.4889927,0.64361453,0.69571722,0.82917196,0.48142719,0.28408003,0
0.77468753,1.0686038,0.89640218,-0.51321942,0.45423099,0.72820294,0
2.2497222,0.72540808,1.0310217,0.82917196,0.48142719,0.28408003,0
-1.8206127,-1.6253121,-0.42936826,-0.82917196,-0.48142719,-0.28408003,0
-0.79523027,-1.0222796,0.28881645,0.055113137,-0.57613009,0.81549776,0
-1.8350737,-1.7046261,-0.56320322,-0.82917196,-0.48142719,-0.28408003,0
-2.2215686,-1.1420732,-0.35055739,-0.82917196,-0.48142719,-0.28408003,0
-1.7479399,-1.3613851,-1.1397645,-0.82917196,-0.48142719,-0.28408003,0
0.23986262,0.50255358,-0.66045547,-0.0029366612,0.51194358,-0.85901386,0
1.9939022,1.8206813,0.24574566,0.82917196,0.48142719,0.28408003,0
1.7654496,1.5166085,1.1559029,0.82917196,0.48142719,0.28408003,0
2.1443417,1.4227972,0.36437625,0.82917196,0.48142719,0.28408003,0
-0.24843806,0.50724,0.53067946,-0.53895283,0.55365682,0.63481778,0
2.087244,1.2941165,0.67916662,0.82917196,0.48142719,0.28408003,0
2.1987619,0.6974287,1.2138883,0.82917196,0.48142719,0.28408003,0
-1.7603204,-1.5519421,-0.82554317,-0.82917196,-0.48142719,-0.28408003,0
1.9167963,1.3272531,1.0141115,0.82917196,0.48142719,0.28408003,0
-2.2747879,-0.66941023,-1.0360212,-0.28607845,0.80206996,-0.52425462,0
-2.0805047,-1.0469656,-0.99200666,-0.82917196,-0.48142719,-0.28408003,0
-0.072899885,-0.81865013,0.13010794,0.37292665,-0.85498893,0.36044341,0
1.1006683,0.68706107,1.1792476,-0.23757398,-0.15651631,0.95867676,0
-1.8695989,-1.7393372,-0.45129263,-0.82917196,-0.48142719,-0.28408003,0
-1.1112757,-0.91420484,0.25731602,-0.12352258,-0.33783573,0.93306422,0
2.4901638,0.64641953,0.74857426,0.82917196,0.48142719,0.28408003,0
-1.7408888,-1.2411559,-1.4574695,0.3366549,-0.024379313,-0.94131219,0
-1.590801,0.033193111,-0.58549809,-0.44578481,0.87611246,-0.18358302,0
0.063877404,0.12911087,0.87406898,-0.24114561,-0.15041485,0.95876169,0
-2.1214957,-1.0177639,-1.0627519,-0.82917196,-0.48142719,-0.28408003,0
2.2255754,0.83752751,0.54062808,0.82917196,0.48142719,0.28408003,0
-1.7666864,-1.1909325,-1.3318644,-0.82917196,-0.48142719,-0.28408003,0
1.839043,1.4704816,0.71226311,0.82917196,0.48142719,0.28408003,0
0.83158332,0.56988955,-0.53387785,0.19528413,0.22670266,-0.95418543,0
1.9581983,1.5150964,0.73240197,0.82917196,0.48142719,0.28408003,0
2.1395576,1.0366216,1.0096985,0.82917196,0.48142719,0.28408003,0
1.1843138,0.26546621,-0.27265507,0.44884181,-0.270484,-0.85169184,0
2.1365638,0.86039495,1.1098487,0.82917196,0.48142719,0.28408003,0
2.5546248,0.75878167,0.39032352,0.82917196,0.48142719,0.28408003,0
-2.1461506,-0.88992047,-1.2485071,-0.82917196,-0.48142719,-0.28408003,0
-0.9459821,-0.4253149,-1.0491471,0.23006845,0.16924706,-0.95834428,0
0.443266,0.96111929,0.67732805,-0.54971212,0.61003506,0.57067817,0
-1.60602,-1.2935953,-1.2847311,0.46609616,-0.3148894,-0.82680023,0
1.3328974,1.5296568,0.44365191,-0.46072182,0.87636673,-0.14041597,0
-0.65634525,-0.19679409,-0.90549785,0.080168784,0.40052962,-0.91276979,0
-0.025636107,-0.54539275,0.40791523,0.19049785,-0.72114003,0.66608369,0
2.0528247,1.6217117,0.025576353,0.82917196,0.48142719,0.28408003,0
-2.0970616,-1.3151095,0.13399386,-0.21617293,-0.19249848,0.95719033,0
2.0492246,0.55806231,0.26799905,0.55399793,-0.63994408,-0.53250122,0
1.8131363,1.5795245,1.1758951,0.82917196,0.48142719,0.28408003,0
1.0727476,1.4203986,0.32032883,-0.4644874,0.87613016,-0.12902409,0
1.1161711,-0.29494661,0.020230412,0.552953,-0.78090709,-0.29056263,0
-0.081022084,0.44697329,0.61052316,-0.52311349,0.48914081,0.6979205,0
-2.4734364,-0.8363266,-0.3889333,-0.82917196,-0.48142719,-0.28408003,0
-0.17048037,0.76804495,0.41532266,-0.55446172,0.77290714,0.30852354,0
-2.4082932,-0.92008471,-0.12641943,-0.82917196,-0.48142719,-0.28408003,0
1.8579998,1.0490139,1.3133152,0.82917196,0.48142719,0.28408003,0
-0.91973603,0.26561236,-0.20090756,-0.52526093,0.8448894,0.10130501,0
1.0156109,-0.12087893,0.72398889,0.25810298,-0.78051072,0.56937313,0
-2.0748682,-1.2537577,-0.37391716,-0.82917196,-0.48142719,-0.28408003,0
-1.7858227,-1.7047012,-0.77397537,-0.82917196,-0.48142719,-0.28408003,0
-1.9173584,-1.0127804,-1.1586936,-0.82917196,-0.48142719,-0.28408003,0
-0.39726663,-0.44404662,0.58866513,-0.17414737,-0.26043421,0.94965601,0
-2.1302106,-0.85918975,-0.79557121,-0.82917196,-0.48142719,-0.28408003,0
2.2629333,0.72106218,1.0536776,0.82917196,0.48142719,0.28408003,0
2.1732874,0.79898357,1.2340864,0.82917196,0.48142719,0.28408003,0
-1.8159038,-0.36889482,-1.0657746,-0.26034737,0.78230995,-0.56587124,0
0.04202044,-0.44894856,-0.66677582,0.51995629,-0.47766486,-0.70815349,0
-2.0161567,-0.77130079,-0.0086268634,-0.46869791,0.32181925,0.82265079,0
1.9757335,0.93222141,1.2998019,0.82917196,0.48142719,0.28408003,0
1.8831333,1.4613512,0.47972488,0.82917196,0.48142719,0.28408003,0
2.244925,1.2081277,0.26002836,0.82917196,0.48142719,0.28408003,0
-1.9561945,-1.4695041,-0.426965,-0.82917196,-0.48142719,-0.28408003,0
-0.85399985,-0.63758624,-0.98809671,0.34755802,-0.045979798,-0.93653023,0
-0.56449032,-1.1976922,-0.47735763,0.51690614,-0.85380799,-0.061804891,0
-1.9342575,-1.2690818,-0.65600532,-0.82917196,-0.48142719,-0.28408003,0
-1.9386795,-1.1553657,0.10296404,-0.19745839,-0.22318316,0.95456749,0
-0.70568359,-0.19539696,-0.89118594,0.060991526,0.427248,-0.90207481,0
-2.4290915,-0.67452216,-0.39888129,-0.82917196,-0.48142719,-0.28408003,0
-1.9764912,-1.6675222,-0.18118966,0.038973272,-0.55675083,0.82976478,0
-2.110146,-1.2751353,-0.33894497,-0.82917196,-0.48142719,-0.28408003,0
1.9348243,1.6094184,0.47901797,0.82917196,0.48142719,0.28408003,0
-2.2383025,-0.84195971,-1.1317742,-0.82917196,-0.48142719,-0.28408003,0
-0.83279675,-1.3439444,-0.64870536,0.55442595,-0.77311331,-0.3080703,0
-2.2496343,-0.8959806,-0.82552707,-0.82917196,-0.48142719,-0.28408003,0
-2.2344737,-0.73713684,-0.83804822,-0.82917196,-0.48142719,-0.28408003,0
-0.88602436,-0.1497528,-0.86608028,-0.005629003,0.51536435,-0.85695255,0
-0.45049638,-0.1564959,-0.97798347,0.22626197,0.17565703,-0.95809704,0
-1.9463974,-1.2066572,-1.1862832,-0.82917196,-0.48142719,-0.28408003,0
1.9583035,1.2110338,-0.18374527,0.15765697,0.28616056,-0.9451223,0
-1.3294232,0.058416486,-0.088632464,-0.55633152,0.76025164,0.33542871,0
0.20149663,1.0482996,-0.15942359,-0.37806487,0.85731697,-0.34939128,0
1.3629469,0.040738583,0.66371918,0.34740964,-0.8419506,0.41282642,0
-0.77981073,-0.36165059,-1.0369126,0.224962,0.17783928,-0.9580006,0
-2.1948457,-0.62998247,-1.2822644,-0.20436171,0.73409235,-0.64756817,0
-1.2460918,-1.0564257,-1.269769,0.42358893,-0.20952557,-0.88128948,0
1.1518919,0.75575554,-0.2653884,0.12683886,0.33290651,-0.93439019,0
0.35979691,-0.56316507,0.39165813,0.35469085,-0.84591013,0.39828432,0
1.2588953,1.0280141,1.2275882,-0.36115789,0.073489964,0.92960411,0
-1.6625676,-1.72963,-0.87759542,-0.82917196,-0.48142719,-0.28408003,0
-1.0171099,-0.46702898,0.44307417,-0.28297293,-0.076774716,0.95605004,0
0.054069936,-0.76891035,-0.3118782,0.54058051,-0.81995362,-0.18827802,0
-1.9132035,-1.2492995,-1.2459543,-0.82917196,-0.48142719,-0.28408003,0
-0.97916573,-0.13202441,-0.92695189,-0.06436038,0.58703983,-0.80699551,0
-0.59473264,0.17574167,0.5631305,-0.4642722,0.31007108,0.82964259,0
-0.61699593,0.49291041,0.26555157,-0.55433518,0.77363628,0.3069188,0
-2.0668197,-0.52636886,-0.09991473,-0.54362953,0.57615936,0.61033344,0
0.07902427,0.90323955,-0.018700659,-0.38896114,0.86189365,-0.32534343,0
-1.9019105,-0.33664823,-0.90879858,-0.26310316,0.78450286,-0.56154406,0
2.0731573,1.4520621,-0.076721311,0.14590657,0.30418578,-0.94137239,0
1.3811431,0.48506892,-0.25756481,0.43158746,-0.22838071,-0.87268221,0
-1.677977,-0.11652315,-0.62210679,-0.41277885,0.87001878,-0.26959383,0
1.7715068,1.8347616,0.54917395,-0.46603549,0.8759945,-0.12427562,0
-1.4832902,-0.14999306,0.085250527,-0.53351307,0.52987987,0.65923488,0
-1.4737576,-1.1054435,-1.3344636,0.42035639,-0.20201345,-0.88458508,0
1.9550042,1.3915493,1.009656,0.82917196,0.48142719,0.28408003,0
-0.08250618,-0.18480515,-0.78988445,0.33045971,-0.012276411,-0.94374013,0
-0.94444454,-0.96319127,0.40477613,-0.063028216,-0.42443952,0.90325987,0
2.1877465,1.1095891,0.85075355,0.82917196,0.48142719,0.28408003,0
1.8986688,1.8181601,0.50134885,0.82917196,0.48142719,0.28408003,0
1.1128758,0.31580544,1.0206958,-0.027340531,-0.47266319,0.88081884,0
-1.5050131,-1.6082203,-1.0167674,0.55875462,-0.69895637,-0.44637769,0
0.070967972,0.2054987,0.88128763,-0.27949226,-0.083063483,0.95654804,0
2.4475892,0.57731462,0.6087327,0.82917196,0.48142719,0.28408003,0
1.0337765,0.94861495,1.134869,-0.42897254,0.22217329,0.87556922,0
-1.7752266,-1.3070123,-1.3599596,-0.82917196,-0.48142719,-0.28408003,0
-1.8601613,-1.4248097,-0.96301049,-0.82917196,-0.48142719,-0.28408003,0
2.0406132,1.2594354,-0.15341991,0.23339331,0.16362253,-0.95851707,0
1.9329207,0.69889784,1.1981677,0.099431574,-0.62711883,0.77255112,0
-0.79508758,-1.2635281,-0.21228671,0.44824243,-0.87627631,0.17668736,0
-1.9288235,-0.35652971,-0.47026175,-0.53784472,0.82556355,0.1707859,0
2.335834,0.54487562,1.1539409,0.82917196,0.48142719,0.28408003,0
-1.5786666,-1.3641524,-1.263997,0.46379793,-0.30882317,-0.83037299,0
0.53110576,-0.47094488,0.20428422,0.49332118,-0.86921543,0.033145726,0
-0.60101843,-1.0758469,0.014849067,0.36787018,-0.85259646,0.37114781,0
-2.2098644,-0.69819379,-0.82339144,-0.82917196,-0.48142719,-0.28408003,0
2.2136846,1.1141636,0.64099431,0.82917196,0.48142719,0.28408003,0
1.6016295,0.51462722,1.1053113,0.04443419,-0.5633558,0.82501864,0
1.9000865,1.5972679,0.40106428,0.82917196,0.48142719,0.28408003,0
0.68003893,-0.18187648,-0.42226401,0.52342373,-0.49028769,-0.69688249,0
1.8310623,1.6257124,0.38904405,0.82917196,0.48142719,0.28408003,0
-2.0987678,-1.4865901,-0.49749982,-0.82917196,-0.48142719,-0.28408003,0
2.1208408,0.64715767,0.06180843,0.48322606,-0.36184785,-0.79721916,0
-1.7195555,-1.4093008,-1.1288314,-0.82917196,-0.48142719,-0.28408003,0
-1.9051871,-1.1599727,-1.0739591,-0.82917196,-0.48142719,-0.28408003,0
-0.77188182,-1.1514291,-0.72838283,0.5567227,-0.66545475,-0.49722165,0
2.3848054,0.76052356,0.90055734,0.82917196,0.48142719,0.28408003,0
-1.4208612,-0.45166171,0.21359909,-0.41488409,0.18943052,0.88993645,0
1.7449038,1.7781899,0.72432387,0.82917196,0.48142719,0.28408003,0
-0.40742218,0.47329345,-0.63477856,-0.1721254,0.70339739,-0.68964112,0
1.294003,1.2268624,-0.12807763,-0.065181732,0.58800203,-0.80622882,0
0.97593075,0.49404871,-0.53623366,0.24696398,0.14041489,-0.95879728,0
-1.8590186,-1.612695,-0.79434729,-0.82917196,-0.48142719,-0.28408003,0
-1.6388409,-1.1880469,0.2607097,-0.14560556,-0.30464438,0.94127077,0
-1.8416171,-1.7710268,-0.4242506,-0.82917196,-0.48142719,-0.28408003,0
-2.1042562,-1.1025937,-0.45035601,-0.82917196,-0.48142719,-0.28408003,0
2.1330619,1.094326,0.9818331,0.82917196,0.48142719,0.28408003,0
-1.2888349,-0.92806935,-1.1754513,0.37233144,-0.09659639,-0.92305911,0
0.80723053,-0.16422808,0.76864529,0.14713752,-0.67824656,0.71995288,0
-1.238057,-0.72585177,0.26573831,-0.24462676,-0.14444104,0.95879841,0
-2.0669973,-1.3069353,-0.69532681,-0.82917196,-0.48142719,-0.28408003,0
-2.4223704,-0.6022594,-0.59148145,-0.82917196,-0.48142719,-0.28408003,0
-2.2601254,-1.1416476,0.032992959,-0.82917196,-0.48142719,-0.28408003,0
1.6258979,0.099366426,0.33692545,0.51977843,-0.85100842,-0.074932933,0
2.2772028,1.1224082,0.59931982,0.82917196,0.48142719,0.28408003,0
-1.8876134,-0.26576734,-0.30294651,-0.54452097,0.81051844,0.21576935,0
-2.1954145,-0.91037202,-0.88841939,-0.82917196,-0.48142719,-0.28408003,0
-2.3407905,-0.76498294,-0.75960517,-0.82917196,-0.48142719,-0.28408003,0
-1.1918609,0.20022637,-0.49646491,-0.43799087,0.87530297,-0.20496011,0
-0.069487989,-0.18514462,0.70348835,-0.21242833,-0.19869548,0.95676231,0
-1.7995365,-1.6030648,-0.77731967,-0.82917196,-0.48142719,-0.28408003,0
0.47922167,-0.40500775,-0.25448495,0.55579066,-0.65569961,-0.51103288,0
-2.2485006,-0.7076757,-0.70407844,-0.82917196,-0.48142719,-0.28408003,0
1.7189931,1.7846055,0.85593295,0.82917196,0.48142719,0.28408003,0
-0.29734623,-0.19187433,-0.92697144,0.29862881,0.048102558,-0.95315617,0
-1.8887452,-1.809576,-0.42528975,-0.82917196,-0.48142719,-0.28408003,0
1.8014537,0.47052932,1.0254914,0.19387922,-0.72433412,0.66162735,0
2.0640574,0.90790129,1.1969309,0.82917196,0.48142719,0.28408003,0
-1.3072656,-1.2320268,-1.1625633,0.44454211,-0.25979507,-0.85725629,0
2.4811897,0.60791755,0.85764956,0.82917196,0.48142719,0.28408003,0
-0.32633129,-0.6826973,0.31259391,0.18287808,-0.71386027,0.67598748,0
-2.0063293,-1.5576692,-0.61358833,-0.82917196,-0.48142719,-0.28408003,0
0.16047081,-0.73795623,0.19582593,0.40090102,-0.86630803,0.29797435,0
-1.6263609,-0.048365831,-0.095288277,-0.55898589,0.71144748,0.42588401,0
-2.1336057,-1.1810668,-0.85935956,-0.82917196,-0.48142719,-0.28408003,0
2.3380127,1.0434818,0.19461766,0.82917196,0.48142719,0.28408003,0
2.0177951,1.3697085,0.3261556,0.82917196,0.48142719,0.28408003,0
2.0410967,1.1512344,1.0011952,0.82917196,0.48142719,0.28408003,0
1.7677065,0.97987175,-0.21234041,0.25567186,0.12530571,-0.95860851,0
-1.3273993,-0.081218123,-0.00029087067,-0.55738193,0.67349589,0.48551863,0
1.8703288,1.7192388,0.2942661,0.82917196,0.48142719,0.28408003,0
1.462431,1.4892833,0.030842423,-0.24513024,0.76988369,-0.58922845,0
1.9058231,0.38602376,1.0041387,0.27942356,-0.7971161,0.53528345,0
0.71881938,1.1937577,0.04220295,-0.31763795,0.8239643,-0.46924287,0
-2.106205,-0.86852264,-0.96090662,-0.82917196,-0.48142719,-0.28408003,0
-2.1253111,-0.98497248,-0.63151562,-0.82917196,-0.48142719,-0.28408003,0
1.9909294,1.3104074,1.08934,0.82917196,0.48142719,0.28408003,0
-2.409529,-1.006593,-0.24176115,-0.82917196,-0.48142719,-0.28408003,0
2.0618856,1.264822,0.69324368,0.82917196,0.48142719,0.28408003,0
2.1128616,0.70101094,1.2303795,0.043011367,-0.56163961,0.82626319,0
-2.0803599,-0.83072495,-1.0015529,-0.82917196,-0.48142719,-0.28408003,0
-0.39697665,-0.17789018,0.57667238,-0.27766895,-0.086345643,0.95678848,0
-2.1716726,-1.0494153,-0.96113634,-0.82917196,-0.48142719,-0.28408003,0
2.0063777,1.0245214,1.2067862,0.82917196,0.48142719,0.28408003,0
1.6284281,1.8293009,0.9280256,0.82917196,0.48142719,0.28408003,0
-2.0230114,-1.0391643,-1.2758472,-0.82917196,-0.48142719,-0.28408003,0
-1.4962609,-1.7834558,-0.75543106,0.50849807,-0.86068189,-0.025614262,0
2.0980716,1.5083029,0.38372809,0.82917196,0.48142719,0.28408003,0
2.1934941,1.2755487,0.16623133,0.82917196,0.48142719,0.28408003,0
-2.2209201,-0.49839377,-0.50051498,-0.55437535,0.77340555,0.30742729,0
-1.9388433,-1.1129162,-1.1707439,-0.82917196,-0.48142719,-0.28408003,0
0.42861661,0.76208067,0.77735913,-0.48160499,0.35725921,0.8002637,0
0.42438045,0.60251689,0.85222441,-0.47020465,0.32586333,0.82019526,0
1.9604406,0.98491669,1.2544336,0.82917196,0.48142719,0.28408003,0
1.2636758,0.32983375,1.0341264,0.0058749318,-0.5156762,0.85676336,0
-1.9675857,-1.3831429,-0.4518106,-0.82917196,-0.48142719,-0.28408003,0
-2.4227939,-1.0879207,-0.19354209,-0.82917196,-0.48142719,-0.28408003,0
1.8002412,1.6094453,0.73314667,0.82917196,0.48142719,0.28408003,0
-0.6362173,-0.15794474,0.53306824,-0.38797075,0.12976867,0.91249025,0
1.8420329,1.3854713,1.1193786,0.82917196,0.48142719,0.28408003,0
-2.026628,-1.2661352,-0.82225388,-0.82917196,-0.48142719,-0.28408003,0
1.6740749,1.5889077,0.93006706,0.82917196,0.48142719,0.28408003,0
-1.9333305,-1.6199639,-0.72830248,-0.82917196,-0.48142719,-0.28408003,0
2.019001,1.6162169,0.20706797,0.82917196,0.48142719,0.28408003,0
2.3787012,0.71907783,0.29762125,0.53986275,-0.55786186,-0.63034737,0
-1.3971553,0.079584956,-0.39343002,-0.47540224,0.8746596,-0.094673753,0
-1.8083787,-1.8028545,-0.69272828,-0.82917196,-0.48142719,-0.28408003,0
-2.3443472,-0.92636132,-0.17600107,-0.82917196,-0.48142719,-0.28408003,0
-1.881424,-0.17992377,-0.36230552,-0.54860854,0.7983526,0.24831742,0
-2.2726283,-1.1091275,-0.35126138,-0.82917196,-0.48142719,-0.28408003,0
1.7722377,1.397361,1.042328,0.82917196,0.48142719,0.28408003,0
-0.088291898,-0.84488106,0.24081165,0.27866864,-0.79654706,0.53652263,0
2.3676949,0.92355633,0.53385293,0.82917196,0.48142719,0.28408003,0
-2.4305086,-0.9123137,-0.48217723,-0.82917196,-0.48142719,-0.28408003,0
2.5342166,0.63027215,0.67214209,0.82917196,0.48142719,0.28408003,0
2.3365812,0.89614153,0.12805268,0.82917196,0.48142719,0.28408003,0
-0.0091531873,-0.35811764,0.67775893,-0.048635721,-0.44413954,0.89463651,0
1.2802875,0.039448977,-0.11618668,0.55087411,-0.61744046,-0.56151992,0
1.6586598,1.5452864,1.2363356,0.82917196,0.48142719,0.28408003,0
-2.1021607,-0.96994472,-0.67685473,-0.82917196,-0.48142719,-0.28408003,0
2.105181,1.5793996,0.15424967,-0.0054320693,0.51511443,-0.85710406,0
-1.9807601,-0.36042261,-0.32860717,-0.54973829,0.79438657,0.25833619,0
-2.1718469,-1.1451855,-0.37377334,-0.82917196,-0.48142719,-0.28408003,0
-0.88777459,-1.4009906,-0.17623985,0.41357893,-0.87024266,0.26763791,0
-1.0632356,-0.91155624,0.39335045,-0.07205385,-0.41191038,0.90837109,0
1.180431,-0.25052273,0.27554849,0.46814224,-0.8757726,0.11775023,0
-0.46983135,-1.177243,-0.32116187,0.52654648,-0.84328747,-0.10777223,0
-1.8289783,-1.5039487,-1.0340751,-0.82917196,-0.48142719,-0.28408003,0
1.9496368,1.1878505,-0.017275453,0.17990625,0.25132903,-0.95103478,0
-1.9845536,-1.1106622,0.065898418,-0.19828749,-0.22183904,0.95470905,0
1.0497198,1.2925347,-0.028247237,-0.32215303,0.82686776,-0.4609848,0
-2.0751753,-0.80889702,-1.1399713,-0.82917196,-0.48142719,-0.28408003,0
1.763661,1.3188229,1.3029265,0.82917196,0.48142719,0.28408003,0
1.889438,1.5977674,0.62782514,0.82917196,0.48142719,0.28408003,0
-1.8905247,-1.7197015,-0.51948416,-0.82917196,-0.48142719,-0.28408003,0
0.027267456,-0.79719245,-0.59051311,0.55022573,-0.61325932,-0.56671345,0
1.6494017,1.3563941,-0.099594593,-0.050104797,0.57016236,-0.82000256,0
-1.6733545,-0.22099829,-0.51744449,-0.4589175,0.87643468,-0.14579737,0
0.68204796,0.24156165,0.94470996,-0.15038252,-0.29734948,0.94285113,0
1.2427657,1.0022955,-0.37580517,0.13439071,0.32160899,-0.93728685,0
0.6825161,-0.00502038,0.85888314,-0.042549074,-0.45236802,0.89081573,0
0.15304315,0.0071647912,-0.72145987,0.24539316,0.1431219,-0.95880026,0
-1.8038585,-1.8245664,-0.37657905,-0.82917196,-0.48142719,-0.28408003,0
-1.6313518,-0.28230977,-0.81412387,-0.28219819,0.79919511,-0.53070831,0
-2.1163397,-1.359755,-0.36911982,-0.82917196,-0.48142719,-0.28408003,0
1.402161,1.5569423,0.24206245,-0.33941513,0.83739686,-0.42844355,0
-1.8518243,-1.2267802,-1.1373515,-0.82917196,-0.48142719,-0.28408003,0
0.26860338,-0.35807997,0.67671961,0.040459991,-0.55855376,0.82848084,0
1.6535387,1.374783,1.3115617,-0.46991038,0.32507128,0.82067823,0
2.0646844,0.9139123,1.3832018,0.82917196,0.48142719,0.28408003,0
-2.032485,-1.5531251,-0.33511305,-0.82917196,-0.48142719,-0.28408003,0
-0.59454948,-0.079966843,-0.96872061,0.065462887,0.42107308,-0.90466118,0
0.43900162,-0.65553659,-0.022051275,0.50888538,-0.8604039,-0.027216077,0
-1.9874333,-1.7164319,-0.34993434,-0.82917196,-0.48142719,-0.28408003,0
-2.1063738,-1.1559031,-0.98383868,-0.82917196,-0.48142719,-0.28408003,0
2.1837726,0.90462327,0.91442454,0.82917196,0.48142719,0.28408003,0
2.3798504,0.64483023,0.99761891,0.82917196,0.48142719,0.28408003,0
-0.90883887,-0.78845167,-1.0353875,0.33183944,-0.014961392,-0.9432171,0
-2.3190677,-0.85873747,-0.50294894,-0.82917196,-0.48142719,-0.28408003,0
2.1095533,0.95521379,0.69752187,0.82917196,0.48142719,0.28408003,0
0.63106608,1.1487491,0.17730641,-0.45608386,0.87648416,-0.15415215,0
-2.103827,-1.0360851,-0.65050018,-0.82917196,-0.48142719,-0.28408003,0
0.92306572,0.06191206,0.96817601,0.00095176697,-0.50941414,0.86052096,0
-0.14634652,-0.90976179,-0.13081723,0.51867485,-0.85211444,-0.069837213,0
-2.2858136,-0.76507998,-0.92183423,-0.82917196,-0.48142719,-0.28408003,0
-2.2558422,-1.0771918,-0.39224717,-0.82917196,-0.48142719,-0.28408003,0
1.4188964,1.7843359,0.81900883,-0.53617746,0.82867849,0.16064078,0
-0.25888821,0.63230366,0.26163429,-0.54932678,0.79586875,0.254623,0
0.50859362,0.097548425,-0.66892809,0.40591127,-0.16914575,-0.89812326,0
1.9878409,0.88389587,1.3813206,0.82917196,0.48142719,0.28408003,0
-2.2512999,-0.93408084,-0.48609009,-0.82917196,-0.48142719,-0.28408003,0
2.4019966,1.1910503,0.03701359,0.82917196,0.48142719,0.28408003,0
2.0220134,1.5804214,0.21953893,0.82917196,0.48142719,0.28408003,0
-1.4707277,-1.3933809,-0.10376167,0.1945127,-0.72492999,0.6607883,0
-0.85118496,-0.63673055,-1.0029932,0.32452047,-0.00078552961,-0.94587821,0
-2.0470467,-1.7174911,-0.24747038,-0.82917196,-0.48142719,-0.28408003,0
-1.1052256,-0.511989,0.36316246,-0.28271985,-0.077233076,0.95608807,0
1.9133569,1.4234862,0.76014674,0.82917196,0.48142719,0.28408003,0
-1.7113709,-1.7788928,-0.52956438,-0.82917196,-0.48142719,-0.28408003,0
1.9699193,1.822578,0.17142558,0.82917196,0.48142719,0.28408003,0
-2.0338283,-1.0446594,-1.3564639,-0.82917196,-0.48142719,-0.28408003,0
-2.2368186,-1.0998147,-0.096614897,-0.82917196,-0.48142719,-0.28408003,0
1.1429623,-0.081918001,0.41210559,0.44384652,-0.87595159,0.18896782,0
1.9845644,1.3478792,0.79801625,0.82917196,0.48142719,0.28408003,0
1.9608492,0.84447932,-0.16675037,0.36056721,-0.072281152,-0.9299283,0
1.2209687,0.041607857,-0.35181683,0.51777655,-0.46993586,-0.71488965,0
-0.76887333,-1.2932566,-0.70149374,0.54983175,-0.79404378,-0.25918978,0
-1.3694096,-0.46110463,-1.0825977,0.051812172,0.43982112,-0.89658952,0
-1.8774023,-0.9119122,-1.4247869,0.15910697,0.28391886,-0.94555527,0
1.9168547,1.6630507,0.091406107,0.82917196,0.48142719,0.28408003,0
1.6595967,1.8050888,0.94536889,0.82917196,0.48142719,0.28408003,0
1.9848096,1.3758166,0.90437007,0.82917196,0.48142719,0.28408003,0
-1.9677827,-1.622256,-0.44900775,-0.82917196,-0.48142719,-0.28408003,0
1.6800894,0.22313094,0.62277198,0.40583119,-0.86793447,0.2863403,0
1.6948656,1.5431108,1.1902732,0.82917196,0.48142719,0.28408003,0
-1.8200961,-1.270344,-1.4084359,-0.82917196,-0.48142719,-0.28408003,0
-1.7415216,-0.21788299,-0.072608054,-0.55163211,0.62250865,0.55514371,0
1.4055777,0.90897834,-0.19088772,0.16460711,0.27537969,-0.94713807,0
2.310935,1.0280592,0.53772581,0.82917196,0.48142719,0.28408003,0
-1.6750765,-1.3924122,-1.2243588,-0.82917196,-0.48142719,-0.28408003,0
2.0088875,1.7218239,0.28542948,0.82917196,0.48142719,0.28408003,0
2.1878343,1.4180067,0.15123647,0.82917196,0.48142719,0.28408003,0
-0.14718831,0.25683755,0.67047703,-0.39004737,0.13425116,0.91095519,0
0.79681051,0.76166773,-0.40960091,0.07969439,0.40119797,-0.91251785,0
0.48536065,-0.5054245,0.35873944,0.33248916,-0.83328378,0.44168881,0
-2.2549822,-0.57221055,-0.82860732,-0.39497638,0.86419934,-0.31169355,0
0.35370666,0.48269862,0.88249683,-0.36655146,0.084584743,0.92654479,0
1.8553364,1.5931416,0.82360077,0.82917196,0.48142719,0.28408003,0
-0.54387581,0.13702765,-0.75963598,-0.0024273396,0.5112952,-0.8594017,0
1.1646183,-0.19600153,0.31686714,0.50921261,-0.86016613,-0.02857399,0
-2.4766421,-0.7552979,-0.52665746,-0.82917196,-0.48142719,-0.28408003,0
-2.0282183,-1.5222683,-0.16484439,-0.82917196,-0.48142719,-0.28408003,0
2.1893673,0.8525331,0.93282354,0.82917196,0.48142719,0.28408003,0
2.1803541,1.2375388,0.60812825,0.82917196,0.48142719,0.28408003,0
-1.7827432,-1.6037409,-1.159585,-0.82917196,-0.48142719,-0.28408003,0
1.7863224,1.7635462,0.9266758,0.82917196,0.48142719,0.28408003,0
1.6935751,1.6573591,1.019815,0.82917196,0.48142719,0.28408003,0
-1.0187819,0.11727142,0.28324354,-0.55381358,0.63847518,0.53445256,0
2.4219522,0.9315083,0.37822619,0.82917196,0.48142719,0.28408003,0
0.98680866,1.4737328,0.24855232,-0.38179713,0.8589409,-0.3412497,0
-0.91816467,-0.12451124,-1.041913,0.0052896738,0.50141865,-0.86518854,0
2.1196809,0.96549869,-0.12958348,0.35041749,-0.051710218,-0.93516493,0
1.1177946,1.3281585,0.96300888,-0.52428347,0.49348482,0.69397366,0
1.2919154,0.66606939,-0.31058848,0.2293694,0.17042643,-0.95830286,0
-1.8649738,-1.3699315,-1.1944776,-0.82917196,-0.48142719,-0.28408003,0
2.1714749,1.2381794,0.62942934,0.82917196,0.48142719,0.28408003,0
-0.99932569,0.31506252,-0.031490684,-0.55109119,0.78916979,0.27112573,0
-1.813894,-1.577601,-0.6212709,-0.82917196,-0.48142719,-0.28408003,0
-0.99445987,-1.2911892,-0.84333169,0.54774177,-0.59829104,-0.58483016,0
2.2295823,0.79311895,0.98481494,0.82917196,0.48142719,0.28408003,0
1.6756815,1.3891387,1.2386136,0.82917196,0.48142719,0.28408003,0
-0.74603212,0.52448136,-0.16160494,-0.51153815,0.85840434,0.038347363,0
-2.4302447,-0.42493582,-0.73794949,-0.49872056,0.86666429,-0.013062477,0
-0.48665977,-0.38946468,-1.0246197,0.27403295,0.092866153,-0.95722598,0
-2.3598878,-1.0666773,-0.37874472,-0.82917196,-0.48142719,-0.28408003,0
0.76975518,0.77046371,-0.46459103,0.023928344,0.47716469,-0.878488,0
2.2431531,0.96884394,0.79643774,0.82917196,0.48142719,0.28408003,0
-1.9445434,-1.3504953,-0.85722905,-0.82917196,-0.48142719,-0.28408003,0
-1.7765636,-0.72157836,0.26688781,-0.37453204,0.1012038,0.92167413,0
1.1000979,-0.23160756,0.48149887,0.38656902,-0.86093229,0.33069628,0
-2.1164112,-1.335604,-0.31392258,-0.82917196,-0.48142719,-0.28408003,0
-2.1268306,-0.99595833,-0.7889092,-0.82917196,-0.48142719,-0.28408003,0
1.9813678,1.0577817,0.885961,0.82917196,0.48142719,0.28408003,0
-1.9197085,-1.1644611,-1.0894167,-0.82917196,-0.48142719,-0.28408003,0
-0.48094237,-1.0329645,0.12460697,0.35188812,-0.84440768,0.40391862,0
1.4379683,0.15455103,-0.20478781,0.52291858,-0.48842236,-0.69856942,0
2.2534885,1.1041946,0.27603567,0.82917196,0.48142719,0.28408003,0
1.5123522,1.069315,-0.18010607,0.13986653,0.31335381,-0.93927979,0
-2.4448917,-0.7750597,-0.64943033,-0.82917196,-0.48142719,-0.28408003,0
1.9755549,1.7081769,0.39019942,0.82917196,0.48142719,0.28408003,0
-1.1550921,-1.3089916,-0.95554841,0.53335363,-0.52921307,-0.65989935,0
-2.4557595,-0.88884211,-0.075462654,-0.82917196,-0.48142719,-0.28408003,0
-1.2990109,-1.5940981,-0.57019186,0.52470022,-0.84556675,-0.098520637,0
-0.37701356,-1.0902207,-0.39903593,0.5295192,-0.83930373,-0.1232003,0
0.44846421,1.1460142,0.25222325,-0.47846586,0.87401712,-0.084642828,0
2.1470134,0.28196454,0.76634371,0.43891221,-0.87542075,0.2024706,0
1.9211072,1.0145299,1.1578624,0.82917196,0.48142719,0.28408003,0
1.640631,0.45783782,1.1823025,0.076355755,-0.60098028,0.79560816,0
-1.9421271,-1.2085655,0.20366892,-0.15530133,-0.28979442,0.94440484,0
1.1149381,0.70694029,1.0581512,-0.29889071,-0.047617704,0.95309854,0
1.9540856,1.2038589,-0.18736863,0.21431816,0.19557145,-0.9569844,0
-1.8194973,-1.7340415,-0.5913049,-0.82917196,-0.48142719,-0.28408003,0
0.11081803,0.21671431,-0.74385595,0.21034586,0.20212916,-0.95650315,0
-1.8429371,-1.727576,-0.28089893,-0.82917196,-0.48142719,-0.28408003,0
1.7326957,1.8488429,0.42607093,0.82917196,0.48142719,0.28408003,0
2.1863492,0.99411559,0.97478068,0.82917196,0.48142719,0.28408003,0
-2.2747891,-1.218081,-0.26686835,-0.82917196,-0.48142719,-0.28408003,0
2.1851635,1.4386995,0.050321519,0.82917196,0.48142719,0.28408003,0
-2.0635931,-1.5073912,-0.13068217,-0.82917196,-0.48142719,-0.28408003,0
-1.9377066,-1.3440561,-0.9591651,-0.82917196,-0.48142719,-0.28408003,0
1.8878639,1.3410139,1.3489714,0.82917196,0.48142719,0.28408003,0
0.38927925,0.04164198,-0.59222579,0.33347523,-0.018152654,-0.94258392,0
-2.304028,-0.87564969,-0.65784168,-0.82917196,-0.48142719,-0.28408003,0
-2.2968202,-0.87502623,-0.56663704,-0.82917196,-0.48142719,-0.28408003,0
1.8477936,1.6819136,0.59465289,0.82917196,0.48142719,0.28408003,0
2.1076293,1.3485591,0.2873112,0.82917196,0.48142719,0.28408003,0
1.7025071,1.5409799,1.1273594,0.82917196,0.48142719,0.28408003,0
0.75881308,0.036677063,0.83340716,0.08660531,-0.61270118,0.78555495,0
-0.92452705,-1.4583732,-0.71339691,0.54846835,-0.798823,-0.24711102,0
0.2031703,-0.43738756,-0.64069694,0.52774125,-0.50664687,-0.68176085,0
-2.1723759,-1.0324559,-0.72461057,-0.82917196,-0.48142719,-0.28408003,0
-2.1338232,-1.2811878,-0.48332644,-0.82917196,-0.48142719,-0.28408003,0
-1.3625556,0.05061233,-0.062955022,-0.55896693,0.70913023,0.42975575,0
0.61732614,0.002697587,-0.43078256,0.46090651,-0.30126056,-0.83474952,0
1.3342807,0.78524923,-0.38198197,0.22587156,0.17631257,-0.95806867,0
0.58916426,1.1967597,0.68279958,-0.55885637,0.70268339,0.44035828,0
-0.25479937,0.52887368,-0.61937076,-0.15020418,0.68139499,-0.71633744,0
2.0022492,1.3187556,1.0195001,0.82917196,0.48142719,0.28408003,0
2.094547,1.3679762,0.22733307,0.82917196,0.48142719,0.28408003,0
1.762108,1.4455593,1.1150072,0.82917196,0.48142719,0.28408003,0
1.927592,1.1807358,1.3231575,0.82917196,0.48142719,0.28408003,0
1.2604582,1.3668126,0.049305558,-0.21698323,0.74554718,-0.6301409,0
2.1601295,0.67749166,0.11348496,0.50175524,-0.41697934,-0.75787163,0
1.8246921,1.4359357,0.78733432,0.82917196,0.48142719,0.28408003,0
0.37039989,-0.44634002,-0.48460007,0.54291296,-0.57255495,-0.6143502,0
-2.3168342,-1.3049371,-0.14401174,-0.82917196,-0.48142719,-0.28408003,0
2.2762926,1.0154963,0.77432883,0.82917196,0.48142719,0.28408003,0
-0.45147836,0.5919475,-0.52425265,-0.29063758,0.8053984,-0.51658797,0
-1.1398015,-1.5484343,-0.51162398,0.5268181,-0.84294009,-0.10915363,0
-1.7308265,-1.6137509,-1.1992195,-0.82917196,-0.48142719,-0.28408003,0
2.161768,1.1547775,0.7835499,0.82917196,0.48142719,0.28408003,0
1.722428,1.7090502,0.54308093,0.82917196,0.48142719,0.28408003,0
-1.3104949,-0.048913956,-0.025975227,-0.55757201,0.67608094,0.48169249,0
-0.097586691,-0.5993855,-0.8592577,0.47658628,-0.34325662,-0.80934542,0
0.9236396,0.78073514,1.1381727,-0.43597651,0.2388975,0.86767048,0
-1.8517056,-1.6800442,-0.39722705,-0.82917196,-0.48142719,-0.28408003,0
-0.056765564,0.76620066,-0.17711365,-0.39256239,0.86329365,-0.31720459,0
-2.2341166,-0.49738455,-0.59621233,-0.52760452,0.84191585,0.11318493,0
1.7080747,1.7891598,1.0142092,0.82917196,0.48142719,0.28408003,0
-1.9330913,-1.4525676,-0.37829679,-0.82917196,-0.48142719,-0.28408003,0
-2.1744449,-1.2118354,-0.53442794,-0.82917196,-0.48142719,-0.28408003,0
-2.2310269,-1.1801805,-0.32114393,-0.82917196,-0.48142719,-0.28408003,0
-2.4501503,-0.99718189,-0.29852167,-0.82917196,-0.48142719,-0.28408003,0
1.7918358,1.8167713,0.40158236,0.82917196,0.48142719,0.28408003,0
-1.6832925,-0.90864635,-1.4036775,0.27246332,0.095670819,-0.95739776,0
-1.9015976,-0.25448298,-0.19392906,-0.55894488,0.70735252,0.43270397,0
2.1411614,1.1501875,0.80773991,0.82917196,0.48142719,0.28408003,0
-1.7742519,-1.3751783,-0.99909872,-0.82917196,-0.48142719,-0.28408003,0
-1.8218639,-1.3622651,-1.2816708,-0.82917196,-0.48142719,-0.28408003,0
1.8564616,1.5789304,0.7100929,0.82917196,0.48142719,0.28408003,0
-2.310853,-0.98249006,-0.52904928,-0.82917196,-0.48142719,-0.28408003,0
2.0746884,1.1703768,1.1095328,0.82917196,0.48142719,0.28408003,0
0.97327793,1.4858387,0.1996249,-0.41192713,0.86977679,-0.27166975,0
-1.5209465,-0.66590393,-1.3325422,0.051989555,0.43957946,-0.89669776,0
2.1749876,0.69527268,1.2187557,0.82917196,0.48142719,0.28408003,0
-0.88765389,-1.0531955,0.091057479,0.18766975,-0.7184512,0.66978186,0
-0.87371099,-0.92368948,0.36920735,-0.052110553,-0.43941462,0.89677149,0
-2.0100305,-1.482022,-0.6436162,-0.82917196,-0.48142719,-0.28408003,0
-1.663772,-0.36385894,-1.0037453,-0.13537884,0.66601706,-0.73354882,0
-0.22411004,-0.88904268,0.20384145,0.25708684,-0.77969229,0.570952,0
2.2702525,0.93179774,0.17392483,0.47763699,-0.34616396,-0.80748558,0
-2.0663154,-1.5636239,-0.30792499,-0.82917196,-0.48142719,-0.28408003,0
1.3334202,0.036501646,0.53602266,0.39208937,-0.86311305,0.31827927,0
0.87188673,0.13921732,0.8559891,-0.019312263,-0.48322415,0.87528348,0
1.9661614,1.0951586,1.3163564,0.82917196,0.48142719,0.28408003,0
-1.7332225,-1.3320246,-1.2427034,-0.82917196,-0.48142719,-0.28408003,0
2.0307119,1.5387039,0.29479873,0.82917196,0.48142719,0.28408003,0
-0.30766439,-0.40514776,0.56632698,-0.028059661,-0.47171193,0.88130605,0
2.0746632,0.46816349,0.18902309,0.55816287,-0.68536121,-0.46768981,0
2.1776237,0.91131544,0.80121374,0.82917196,0.48142719,0.28408003,0
-1.7850373,-1.6754293,-0.9537946,-0.82917196,-0.48142719,-0.28408003,0
1.8496928,0.27999282,0.62332559,0.45218456,-0.87644237,0.16546249,0
1.9120574,1.6856568,0.48736632,0.82917196,0.48142719,0.28408003,0
-0.52644694,0.44076234,-0.29597008,-0.40463933,0.86755216,-0.2891714,0
2.0310304,1.4084203,0.420856,0.82917196,0.48142719,0.28408003,0
2.333791,0.94928551,0.12664413,0.82917196,0.48142719,0.28408003,0
0.7264567,1.0402093,0.89810354,-0.53882009,0.55304968,0.6354593,0
-0.80788434,-1.2516822,-0.330302,0.45805538,-0.87645698,0.14835155,0
1.5814133,0.14405942,0.16920713,0.55788887,-0.74463797,-0.36643445,0
-2.0840223,-1.4104743,-0.35482419,-0.82917196,-0.48142719,-0.28408003,0
0.1512062,-0.31806225,0.60138965,0.079291582,-0.60435563,0.79275906,0
-0.68847507,-0.90392947,-0.94521743,0.44448113,-0.25964463,-0.85733354,0
1.8876868,1.5983193,0.37967026,0.82917196,0.48142719,0.28408003,0
-2.0345447,-1.0966597,-1.1010151,-0.82917196,-0.48142719,-0.28408003,0
-2.0278025,-1.1256146,-0.70458251,-0.82917196,-0.48142719,-0.28408003,0
1.7053868,1.5502553,1.0684777,0.82917196,0.48142719,0.28408003,0
1.201178,0.44114554,-0.28124601,0.39781654,-0.15119271,-0.90492129,0
2.0204256,1.2468088,0.78474981,0.82917196,0.48142719,0.28408003,0
2.0957098,1.0447943,0.75032008,0.82917196,0.48142719,0.28408003,0
1.4270411,0.39817083,-0.17083479,0.47343564,-0.33461443,-0.81479537,0
-2.1468284,-1.1852272,-0.76528883,-0.82917196,-0.48142719,-0.28408003,0
1.6550585,1.2659564,1.3129674,-0.38176048,0.11647511,0.91689265,0
2.328083,0.71541142,0.65146118,0.82917196,0.48142719,0.28408003,0
-1.7180544,-1.4418576,-1.3819107,0.48827589,-0.37636229,-0.7873612,0
1.9856927,1.0910232,1.347229,0.82917196,0.48142719,0.28408003,0
0.82567739,0.19027054,-0.46862623,0.38069594,-0.11421269,-0.91761965,0
-0.89257979,-1.4119701,-0.088531256,0.37827712,-0.85741097,0.34893107,0
-1.1568944,-0.13167775,-0.90396863,-0.20395535,0.73371822,-0.64812016,0
-2.3547962,-0.82389569,-0.32717964,-0.82917196,-0.48142719,-0.28408003,0
-2.4723577,-0.65629363,-0.30245382,-0.82917196,-0.48142719,-0.28408003,0
-2.0877488,-1.2991767,-0.25466645,-0.82917196,-0.48142719,-0.28408003,0
2.0661912,0.96435642,1.4687827,0.82917196,0.48142719,0.28408003,0
1.5351439,0.09039712,0.69614685,0.36162692,-0.84950835,0.38413721,0
-2.3659098,-0.89744616,-0.51685667,-0.82917196,-0.48142719,-0.28408003,0
1.7435932,1.1349325,-0.050098896,0.092639089,0.38282478,-0.91916424,0
-2.3150895,-1.0414572,-0.44164869,-0.82917196,-0.48142719,-0.28408003,0
-2.0363641,-1.4109144,-0.8087436,-0.82917196,-0.48142719,-0.28408003,0
-1.9504769,-1.0017881,-1.226346,-0.82917196,-0.48142719,-0.28408003,0
-1.5755924,-1.4845736,-1.1648372,0.51542383,-0.46175525,-0.72188634,0
1.6752567,0.20127249,0.35418445,0.519288,-0.85150474,-0.072660208,0
-1.9727459,-1.2685227,-0.73104429,-0.82917196,-0.48142719,-0.28408003,0
1.3221328,0.26056874,1.0346334,0.023066819,-0.53723413,0.84311771,0
2.4330187,0.90150476,0.15791917,0.82917196,0.48142719,0.28408003,0
-1.1821703,-1.1704732,0.1177572,0.01238358,-0.52389431,0.85169315,0
-2.3373637,-0.79005122,-0.16286168,-0.49108458,0.38458836,0.78161842,0
-0.88476402,-1.4168164,-0.18079901,0.41273648,-0.87000686,0.26969743,0
1.5285498,0.1256392,0.30858421,0.54392433,-0.81206906,-0.21140009,0
2.3107963,1.0907354,0.04288426,0.82917196,0.48142719,0.28408003,0
1.8403746,0.26369989,0.36699602,0.55241334,-0.78345668,-0.28466672,0
-2.1390963,-1.2338932,-0.56266576,-0.82917196,-0.48142719,-0.28408003,0
-2.3467686,-0.85495377,-0.19023278,-0.52625102,0.50091273,0.68712884,0
-1.9085319,-1.4984679,-0.78044045,-0.82917196,-0.48142719,-0.28408003,0
-2.2386742,-0.75633717,-0.73778492,-0.82917196,-0.48142719,-0.28408003,0
1.9296689,1.4757459,0.81458473,0.82917196,0.48142719,0.28408003,0
-1.9211955,-1.2949278,-1.1405721,-0.82917196,-0.48142719,-0.28408003,0
0.9982928,0.42823553,-0.52385914,0.35883439,-0.068743289,-0.93086618,0
1.1893414,1.3159817,1.0101552,-0.55498832,0.64827359,0.5212763,0
-0.054620206,-0.87050527,-0.45720053,0.55478084,-0.77100718,-0.31267518,0
-1.4912431,-0.64461029,0.26839387,-0.3620311,0.075278938,0.92912126,0
2.1257868,1.3267286,0.34133357,0.82917196,0.48142719,0.28408003,0
-0.49400169,-0.053476453,0.50212139,-0.39467233,0.14430322,0.90741944,0
2.0102649,1.1967866,0.84361225,0.82917196,0.48142719,0.28408003,0
0.23943722,0.17573819,-0.75751156,0.29699218,0.051130086,-0.95350981,0
0.81612372,0.25261575,-0.38479039,0.40555334,-0.16834494,-0.89843547,0
-2.0831275,-1.2726016,-0.67337257,-0.82917196,-0.48142719,-0.28408003,0
0.78545654,1.1618543,0.81618637,-0.55879271,0.70024145,0.4443112,0
-1.5599231,-0.060343146,-0.37395415,-0.53100067,0.83715928,0.13115823,0
-2.1356497,-1.2188318,-0.44270676,-0.82917196,-0.48142719,-0.28408003,0
-1.5350189,-1.6474633,-0.45567131,0.43043989,-0.87412512,0.2250039,0
1.9129283,1.2749979,0.92740393,0.82917196,0.48142719,0.28408003,0
-0.24507725,-1.1055326,0.036378622,0.42144498,-0.87225771,0.24809355,0
-0.98323298,0.26191574,-0.42615759,-0.45470098,0.87648362,-0.15818763,0
-2.4078906,-0.86863017,-0.30959392,-0.82917196,-0.48142719,-0.28408003,0
2.0688071,1.041209,0.76677996,0.82917196,0.48142719,0.28408003,0
-2.3184111,-0.48229456,-0.96433312,-0.82917196,-0.48142719,-0.28408003,0
2.1283667,1.2228363,0.17321414,0.82917196,0.48142719,0.28408003,0
-1.9152662,-1.7631872,-0.43469644,-0.82917196,-0.48142719,-0.28408003,0
0.77529812,0.71256161,1.064316,-0.39304811,0.14076215,0.90867978,0
2.0743308,1.5718513,0.43132067,0.82917196,0.48142719,0.28408003,0
-2.1570797,-0.90226841,-1.2365367,-0.82917196,-0.48142719,-0.28408003,0
1.3499004,1.5267248,0.1520201,-0.35385665,0.84546578,-0.39996618,0
-0.31641203,-1.0107558,-0.51939917,0.55888426,-0.70392895,-0.43832886,0
2.1059439,0.32401204,0.44260663,0.52626175,-0.8436482,-0.10632992,0
-1.2547112,-1.2865233,-1.2157451,0.48878354,-0.37784094,-0.78633738,0
1.4981358,1.6260009,0.38630438,-0.34624952,0.84130293,-0.41511512,0
-1.7675985,-1.4671926,-1.2697151,-0.82917196,-0.48142719,-0.28408003,0
-2.2373862,-1.1872094,-0.13278776,-0.82917196,-0.48142719,-0.28408003,0
0.15401977,0.39598769,0.77751297,-0.35261953,0.05614233,0.93408102,0
2.1952689,0.80860186,0.78972769,0.82917196,0.48142719,0.28408003,0
-1.3048238,-1.6369858,-0.16190493,0.32680166,-0.82979369,0.45237491,0
0.40638965,-0.38462898,0.53718483,0.13488877,-0.66550195,0.7341063,0
1.3969032,1.0912406,1.1785274,-0.36853498,0.088692486,0.9253729,0
2.1938226,0.89913392,0.67747396,0.82917196,0.48142719,0.28408003,0
-0.96701205,0.29641533,-0.16857865,-0.52127171,0.8494482,0.081935406,0
1.2126697,1.5325211,0.30582833,-0.34742367,0.8419584,-0.41279876,0
1.4676056,1.5749681,1.2044781,-0.54090589,0.56277728,0.62506187,0
1.9041216,1.5374212,0.7524035,0.82917196,0.48142719,0.28408003,0
1.915501,1.1893551,1.0409145,0.82917196,0.48142719,0.28408003,0
-1.9226155,-0.2725637,-0.74703002,-0.37496826,0.85592663,-0.35607344,0
0.17153399,-0.53748882,0.41263047,0.24226889,-0.76748848,0.593521,0
-0.56585884,-0.15721273,0.70488834,-0.30849338,-0.029700369,0.95076251,0
2.1186864,1.3004391,0.45015556,0.82917196,0.48142719,0.28408003,0
-2.2989364,-0.59354663,-0.28414676,-0.55849642,0.73490649,0.38469976,0
1.7584702,0.81782889,1.3012564,-0.1427815,-0.30893761,0.94030356,0
-2.2362072,-1.0732803,-0.44465542,-0.82917196,-0.48142719,-0.28408003,0
-2.1182075,-0.9560709,-0.90891796,-0.82917196,-0.48142719,-0.28408003,0
1.6851094,1.4592972,1.1500742,0.82917196,0.48142719,0.28408003,0
1.8515491,1.3336949,0.85369498,0.82917196,0.48142719,0.28408003,0
-0.18590152,-0.27278474,0.67812836,-0.14315087,-0.30837688,0.94043148,0
2.3101864,0.95205331,0.79057425,0.82917196,0.48142719,0.28408003,0
2.422354,0.75064445,0.52398038,0.82917196,0.48142719,0.28408003,0
-2.1191792,-1.0001037,-1.1871785,-0.82917196,-0.48142719,-0.28408003,0
-0.46282947,0.0011964738,0.68808722,-0.38401842,0.12128963,0.91532409,0
-1.7311682,-1.7448394,-0.76762593,-0.82917196,-0.48142719,-0.28408003,0
-1.7971938,-1.2123351,-1.3846085,0.31565356,0.016172528,-0.94873655,0
1.9286997,1.4471726,0.37209821,0.82917196,0.48142719,0.28408003,0
1.2422864,1.3591523,1.008307,-0.55418891,0.64149076,0.53043747,0
-2.1165628,-0.93731785,-1.1615915,-0.82917196,-0.48142719,-0.28408003,0
-2.0321558,-1.6677203,-0.25545824,-0.82917196,-0.48142719,-0.28408003,0
1.9211168,1.4368191,0.59319383,0.82917196,0.48142719,0.28408003,0
-2.2486022,-0.50991821,-1.0741923,-0.28455222,0.80094379,-0.52680081,0
0.14933378,0.12745003,-0.79374582,0.23261166,0.16494688,-0.95848018,0
0.25788307,-0.66472596,0.25036213,0.43440419,-0.87478983,0.21455932,0
-2.2601433,-1.4093735,0.028176248,-0.231861,-0.1662176,0.95844245,0
-2.0231671,-1.4772277,-0.62244427,-0.82917196,-0.48142719,-0.28408003,0
2.274837,1.1089559,-0.044662625,0.82917196,0.48142719,0.28408003,0
1.6849031,1.4439671,1.1201935,0.82917196,0.48142719,0.28408003,0
1.8967388,1.4537289,0.70799702,0.82917196,0.48142719,0.28408003,0
0.40097821,0.65769029,-0.52541834,0.0068612695,0.4993954,-0.86634696,0
-0.07784453,0.7782467,0.39452583,-0.55409265,0.775002,0.30389649,0
-1.8537072,-1.803967,-0.35676634,-0.82917196,-0.48142719,-0.28408003,0
-0.13787928,0.72392738,-0.17958701,-0.41855142,0.87155646,-0.25535077,0
1.5802807,0.90228224,-0.30908751,0.2817297,0.079024464,-0.95623392,0
-0.48743024,-0.93385154,0.4309954,0.12374938,-0.65367973,0.74658483,0
-1.6916659,-0.97600913,0.28201848,-0.29859328,-0.0481686,0.95316398,0
-0.55312669,-1.2264128,-0.41303611,0.53520608,-0.83039957,-0.15488899,0
-1.9397166,-1.1022015,-0.92056018,-0.82917196,-0.48142719,-0.28408003,0
-0.64409924,-0.11211538,0.61044186,-0.41850477,0.19773738,0.88642728,0
0.39527711,0.60324675,-0.45784014,-0.033479393,0.55005682,-0.83445579,0
-1.8275708,-1.2982318,-1.2938712,-0.82917196,-0.48142719,-0.28408003,0
2.1681755,1.2723744,0.16127235,0.82917196,0.48142719,0.28408003,0
-1.9868934,-1.04461,-1.1695437,-0.82917196,-0.48142719,-0.28408003,0
-1.580394,-1.6412318,-1.0852339,-0.82917196,-0.48142719,-0.28408003,0
1.9823072,1.4866741,0.09971714,0.074398696,0.40863332,-0.90966123,0
-2.0438383,-0.74165773,-1.2811861,-0.82917196,-0.48142719,-0.28408003,0
1.9967551,1.4667819,0.62009174,0.82917196,0.48142719,0.28408003,0
-2.1721129,-1.233881,-0.40386581,-0.82917196,-0.48142719,-0.28408003,0
-0.34993398,-0.80169892,0.4825587,0.075604856,-0.60011476,0.7963329,0
-1.8407557,-1.7673459,-0.70106995,-0.82917196,-0.48142719,-0.28408003,0
-1.8408813,-1.3191571,-1.1613274,-0.82917196,-0.48142719,-0.28408003,0
-0.39799836,-0.30470178,-0.83899122,0.25057662,0.1341674,-0.95875448,0
0.42918593,1.0875328,0.27893186,-0.50894946,0.8603574,0.027481794,0
1.0186373,0.94664598,1.2090733,-0.40223271,0.16094786,0.90127921,0
-1.3851216,-1.0398109,0.23694387,-0.089828372,-0.38683844,0.9177618,0
-0.884175,-0.67087078,0.38299996,-0.094105422,-0.38072574,0.91988683,0
0.29504305,0.88036144,-0.33348465,-0.19340152,0.72388422,-0.66225928,0
1.8443339,1.2300527,1.2428664,0.82917196,0.48142719,0.28408003,0
-0.4621549,0.5818857,-0.20083755,-0.43673766,0.8751334,-0.20833069,0
0.99140424,0.43883073,1.0231385,-0.1504128,-0.29730296,0.9428609,0
-0.93998945,0.13580859,0.40148744,-0.52424914,0.49335659,0.6940906,0
1.8447294,1.4907703,0.54791522,0.82917196,0.48142719,0.28408003,0
-0.99329603,0.16254878,0.24872038,-0.52887028,0.51105863,0.67758,0
2.0803943,1.0627861,0.59745306,0.82917196,0.48142719,0.28408003,0
0.55640244,0.2891717,-0.55786592,0.20747232,0.20685264,-0.95612079,0
