-0.77095091,-0.25652131,-0.10190845,-0.93032897,0.21877582,-0.29432172,0
1.2915114,3.3377783,0.030242682,0.27524963,0.94689894,-0.16619259,0
1.6430449,2.8216276,-0.33648565,0.93213463,-0.22055107,0.28719747,0
1.329465,3.2541089,-0.06505692,0.27524963,0.94689894,-0.16619259,0
0.52187759,2.4619153,-1.0936967,-0.39110386,-0.047627706,-0.9191134,0
-0.72566384,-0.072944313,-0.42952412,-0.86471081,0.16830029,-0.47323376,0
1.2848272,3.3414834,0.011949599,0.27524963,0.94689894,-0.16619259,0
-0.15662768,0.027922466,0.68081301,-0.11917341,0.20514344,0.97144943,0
-0.76712126,-3.4420304,0.46142834,-0.27524963,-0.94689894,0.16619259,0
1.6156287,3.0884364,-0.66692472,0.27524963,0.94689894,-0.16619259,0
-0.99695075,-2.373214,1.218127,-0.39108294,0.26820484,0.88040918,0
0.4700582,-0.36704856,0.63445109,0.60463899,-0.036107749,0.79568088,0
1.0995851,3.1395566,-1.1792692,0.27524963,0.94689894,-0.16619259,0
-0.73989511,-3.5020802,0.40750745,-0.27524963,-0.94689894,0.16619259,0
0.54132873,3.4145675,-0.74249411,0.27524963,0.94689894,-0.16619259,0
0.9781974,1.2452146,0.2513172,0.73317087,-0.094934464,0.67338538,0
-0.85617423,-2.4858844,-0.2863394,-0.31331742,-0.075076699,-0.94667602,0
0.91824543,2.1606317,-1.2054113,0.2734648,-0.24284548,-0.93072182,0
0.51988804,0.83318448,-0.88057983,0.36692649,-0.26325634,-0.89222246,0
-1.0676155,-3.323756,0.91183245,-0.27524963,-0.94689894,0.16619259,0
0.67892027,3.5029399,-0.5639897,0.27524963,0.94689894,-0.16619259,0
1.2631947,3.0830605,-1.0816283,0.27524963,0.94689894,-0.16619259,0
1.0821887,0.83142424,-0.39039153,0.90100467,-0.31437474,-0.29892981,0
1.2545418,3.032881,-1.3255305,0.27524963,0.94689894,-0.16619259,0
-1.4579136,-3.2804222,0.34512326,-0.27524963,-0.94689894,0.16619259,0
-0.298756,-3.1057215,0.11965685,0.78323102,-0.32111412,-0.53238606,0
-1.5195119,-2.643333,0.53611028,-0.9594934,0.25977176,-0.1090458,0
-0.61945218,-1.3930775,0.91573662,-0.22574234,0.23169574,0.94623327,0
1.1550281,2.9464211,-1.133245,0.3275544,-0.25489649,-0.90979993,0
0.29740551,-1.1381083,-0.20364356,0.77821147,-0.32095477,-0.53979164,0
0.83449626,3.4119256,-0.015668735,0.27524963,0.94689894,-0.16619259,0
0.95747709,3.376261,-0.09110494,0.27524963,0.94689894,-0.16619259,0
0.45166072,0.26464367,0.54848731,0.53751594,-0.0082535325,0.84321332,0
0.95545107,3.1032195,-1.3093654,0.27524963,0.94689894,-0.16619259,0
-1.0029128,-3.1563501,0.81533259,-0.27524963,-0.94689894,0.16619259,0
-0.4422048,-2.7740552,1.061877,0.60896754,-0.037961822,0.79228622,0
-0.0244928,0.042044118,0.7710408,-0.070024133,0.1921576,0.97886264,0
-1.047155,-3.2425597,1.3577218,-0.27524963,-0.94689894,0.16619259,0
0.64541107,3.4012561,-0.016103022,0.27524963,0.94689894,-0.16619259,0
-1.1016207,-3.1953912,0.95994192,-0.27524963,-0.94689894,0.16619259,0
-0.85581976,-3.4315507,0.043436527,-0.27524963,-0.94689894,0.16619259,0
-1.1687607,-1.0787377,0.18801516,-0.96137238,0.27095518,-0.048438907,0
-0.96177423,-3.1762555,1.0558318,-0.27524963,-0.94689894,0.16619259,0
-1.2949486,-3.4434938,-0.17238039,-0.40157717,-0.043822087,-0.91477627,0
-0.75880498,-1.3023257,0.80227673,-0.52692401,0.29318303,0.79774356,0
0.33556789,3.334269,0.019488528,-0.66526663,0.31239921,0.67810559,0
-0.76909983,-3.2837315,1.0653489,-0.27524963,-0.94689894,0.16619259,0
0.41640234,-1.4502552,-0.11240172,0.8524074,-0.32031769,-0.41327742,0
-0.29265189,-1.4226875,-0.37987381,0.058506131,-0.18904829,-0.98022336,0
-0.35115594,-1.9103925,1.1334685,0.32900721,0.069652222,0.94175524,0
1.2039981,3.1870918,-0.63204443,0.27524963,0.94689894,-0.16619259,0
0.22510025,3.3495722,-0.49127728,-0.95340204,0.29107243,0.079381645,0
1.1240325,1.3987877,-0.38062149,0.95835161,-0.2839478,-0.030590832,0
1.4604766,3.0426483,-1.0602852,0.27524963,0.94689894,-0.16619259,0
-1.0682648,-3.3789353,0.35164347,-0.27524963,-0.94689894,0.16619259,0
-1.4854882,-3.1330521,0.64374346,-0.27524963,-0.94689894,0.16619259,0
0.2355389,-1.2956331,-0.3622998,0.74248219,-0.31919286,-0.58892798,0
0.15047687,1.5354409,0.50223982,-0.37279797,0.26447201,0.88942456,0
0.93695605,2.1767566,-1.1120613,0.35785866,-0.26136279,-0.89645225,0
-0.99123776,-3.241477,0.64973408,-0.27524963,-0.94689894,0.16619259,0
-0.91499686,-3.2038805,0.71976978,-0.27524963,-0.94689894,0.16619259,0
0.8152262,0.27254206,-0.080255806,0.95037985,-0.29407325,-0.10148448,0
0.61662549,0.37905878,-0.69376457,0.51686919,-0.2915163,-0.80490029,0
0.38875282,3.3003469,-1.0328708,0.27524963,0.94689894,-0.16619259,0
-0.81014824,-3.4851134,0.32671091,-0.27524963,-0.94689894,0.16619259,0
0.64815414,1.7771246,0.39462227,0.28764242,0.083836272,0.95406151,0
0.098017573,-2.0266533,-0.12518255,0.80335587,-0.3215003,-0.50125521,0
0.75086915,3.3800385,-0.37966594,0.27524963,0.94689894,-0.16619259,0
-0.56043482,-3.4479289,0.06240318,-0.27524963,-0.94689894,0.16619259,0
-0.41351587,-3.4500465,0.80271268,-0.27524963,-0.94689894,0.16619259,0
0.64329606,3.3186936,-0.9095428,0.27524963,0.94689894,-0.16619259,0
0.62096,3.3435998,-0.38324904,0.27524963,0.94689894,-0.16619259,0
-1.175388,-3.1686642,1.0414772,-0.27524963,-0.94689894,0.16619259,0
0.91979593,3.3123178,-0.72708768,0.27524963,0.94689894,-0.16619259,0
-1.5503175,-3.017489,0.83914447,-0.27524963,-0.94689894,0.16619259,0
1.3369684,2.1311514,-0.3426992,0.94709277,-0.23739392,0.21600783,0
-1.045552,-3.2623427,0.77450162,-0.27524963,-0.94689894,0.16619259,0
-0.92466319,-3.4227104,0.24138901,-0.27524963,-0.94689894,0.16619259,0
-1.211501,-3.2562039,0.91352272,-0.27524963,-0.94689894,0.16619259,0
-0.57994026,-3.4172468,0.87165588,-0.27524963,-0.94689894,0.16619259,0
-0.8471123,-3.3121736,1.2850629,-0.27524963,-0.94689894,0.16619259,0
-0.98660743,-3.2823002,1.0197672,-0.27524963,-0.94689894,0.16619259,0
-0.92861283,-3.4982145,0.029546246,-0.27524963,-0.94689894,0.16619259,0
0.13640225,-1.9494344,0.72645748,0.84985864,-0.15884605,0.50250208,0
-0.78471804,-3.3585131,0.25329232,-0.27524963,-0.94689894,0.16619259,0
-0.06740164,-2.4176092,0.86998105,0.7909745,-0.12479498,0.59898698,0
0.92217934,0.47022247,-0.16720137,0.9602176,-0.27925164,-0.00074332952,0
-0.37661517,-3.3908236,0.94723642,-0.27524963,-0.94689894,0.16619259,0
0.25750953,-0.1444411,-0.78125215,0.27995801,-0.24432567,-0.92840105,0
1.1614596,3.1926589,-1.2280968,0.27524963,0.94689894,-0.16619259,0
0.82326579,0.45787746,-0.36852798,0.91176295,-0.31193039,-0.26718491,0
0.91970301,3.3410757,-0.050461039,0.27524963,0.94689894,-0.16619259,0
0.18119253,2.0465429,-1.0389872,-0.41348433,-0.039462119,-0.90965569,0
-1.3456358,-3.0613058,0.86171186,-0.27524963,-0.94689894,0.16619259,0
-0.2095753,-2.8386855,0.083552837,0.74085957,-0.31908906,-0.59102386,0
-0.0046927631,-2.7131803,0.43504286,0.96133924,-0.26965174,0.055810452,0
-1.4792154,-2.4515896,0.68033844,-0.92051148,0.30944604,0.23854077,0
-0.13185465,-2.2821517,0.99053866,0.58899754,-0.029469494,0.80759752,0
-0.82820982,-3.2413437,1.0481968,-0.27524963,-0.94689894,0.16619259,0
-0.60720748,-3.5404043,0.093430102,-0.27524963,-0.94689894,0.16619259,0
0.23018408,3.1915581,-0.084980696,-0.85658222,0.32003877,0.40477407,0
-0.67865586,0.37028772,0.3668578,-0.83970201,0.32097042,0.43803951,0
-0.9517929,-2.8898714,-0.14098787,-0.18466401,-0.117576,-0.97574323,0
0.78588617,0.225604,-0.32890603,0.90940309,-0.31251809,-0.27444196,0
0.72569227,0.49876994,0.23845917,0.79126054,-0.12495012,0.59857684,0
0.12818137,-1.5092752,0.6948846,0.77049446,-0.1138918,0.6271897,0
-1.3026377,-3.2133906,0.26218385,-0.27524963,-0.94689894,0.16619259,0
-0.044435143,2.0440662,-0.4888826,-0.95265585,0.24542086,-0.17948687,0
-0.23125917,0.29838067,0.72499526,-0.37144792,0.26419324,0.89007223,0
1.4203242,3.2740459,-0.36110806,0.27524963,0.94689894,-0.16619259,0
-0.37771755,-3.4965537,0.32166398,-0.27524963,-0.94689894,0.16619259,0
-0.68873775,-3.3046639,0.49103737,-0.27524963,-0.94689894,0.16619259,0
-0.86269814,-3.1793137,0.92791843,-0.27524963,-0.94689894,0.16619259,0
-0.66451597,-3.0387459,1.1218106,0.36116362,0.058360018,0.93067443,0
0.37080142,0.31584072,0.63801724,0.51887286,-0.00079168007,0.85485107,0
-0.60160625,-3.4588103,0.6946944,-0.27524963,-0.94689894,0.16619259,0
1.3369114,3.184371,-1.0865835,0.27524963,0.94689894,-0.16619259,0
-0.061998531,-2.1774318,1.0080271,0.70736849,-0.082407534,0.70202476,0
-1.034052,-3.2558289,0.31495756,-0.27524963,-0.94689894,0.16619259,0
0.9375754,3.4317136,-0.38817132,0.27524963,0.94689894,-0.16619259,0
-0.70773232,-1.877198,-0.40192652,-0.36810082,-0.055892423,-0.9281044,0
-0.57546461,-0.81319517,-0.49824083,-0.53156745,0.0058605131,-0.84699571,0
0.0089719296,2.3066168,-0.08787927,-0.82706201,0.32135943,0.46119034,0
0.85733068,3.3871512,-0.39935055,0.27524963,0.94689894,-0.16619259,0
-1.2767442,-3.2606018,0.79565835,-0.27524963,-0.94689894,0.16619259,0
-0.24336708,0.62174249,0.54940057,-0.39706767,0.26940891,0.87735748,0
-0.50962681,-0.817981,0.86658514,-0.24699801,0.23672025,0.93965721,0
0.90259415,3.3375881,0.0067862272,0.27524963,0.94689894,-0.16619259,0
0.7502057,3.4816287,0.092425585,0.27524963,0.94689894,-0.16619259,0
-0.077635854,-1.4979489,0.90641564,0.57450616,-0.023402248,0.81816566,0
1.3234875,3.2651012,-0.27769905,0.27524963,0.94689894,-0.16619259,0
-1.3622912,-2.3666129,0.82556081,-0.82256049,0.32144186,0.46911553,0
0.72368479,3.495822,-0.18610065,0.27524963,0.94689894,-0.16619259,0
1.2849126,1.4188586,-0.5561685,0.89321685,-0.31581566,-0.32003775,0
-1.1731186,-2.0815668,0.8016271,-0.67901015,0.31385806,0.66365528,0
-0.77165008,-3.5529912,0.027667478,-0.27524963,-0.94689894,0.16619259,0
-0.31156498,-1.8439581,1.0083094,0.26341391,0.091972068,0.9602887,0
-0.12029704,2.3067725,-0.2649051,-0.94632566,0.29732803,0.1267435,0
0.71923149,3.4921701,-0.26714367,0.27524963,0.94689894,-0.16619259,0
-0.41584483,-0.96353233,0.94556004,-0.1563223,0.21465209,0.96409947,0
-1.0906558,-1.4473928,-0.049187601,-0.83575243,0.15024364,-0.52815235,0
0.73226321,2.5977213,0.33186609,-0.1036371,0.20108815,0.97407538,0
-0.54329026,-3.3158507,0.9269473,-0.27524963,-0.94689894,0.16619259,0
-0.66262013,-3.450505,-0.025311492,-0.27524963,-0.94689894,0.16619259,0
-0.39025205,-2.9504931,1.190026,0.58897895,-0.029461715,0.80761105,0
-0.25874895,0.96085477,-0.65588486,-0.79376882,0.12631428,-0.59495866,0
-0.57796568,-1.5020888,-0.37090391,-0.24060035,-0.099519834,-0.96550876,0
0.77766836,2.318985,-1.1011945,0.10432136,-0.20126772,-0.97396517,0
-0.19690578,1.7408465,-0.38538247,-0.95254678,0.24524596,-0.1803028,0
1.2117839,3.2825909,-0.28352559,0.27524963,0.94689894,-0.16619259,0
0.60922563,3.3064599,-0.84870774,0.27524963,0.94689894,-0.16619259,0
-0.36325395,-1.1605058,-0.56624353,-0.0021434426,-0.1722652,-0.98504823,0
0.17133409,-0.90551168,-0.41457343,0.4527998,-0.28018388,-0.84644508,0
1.4947004,3.1567042,-0.33078438,0.27524963,0.94689894,-0.16619259,0
-1.5508823,-3.2123535,0.26179126,-0.27524963,-0.94689894,0.16619259,0
-0.13767149,1.9097686,-0.81453758,-0.7160157,0.086558267,-0.69269711,0
-1.510428,-3.136564,1.1200306,-0.27524963,-0.94689894,0.16619259,0
0.28234941,3.4497643,-0.96897018,0.27524963,0.94689894,-0.16619259,0
-1.4294168,-3.1813815,0.36751175,-0.27524963,-0.94689894,0.16619259,0
-1.1127156,-3.1566782,0.75271207,-0.27524963,-0.94689894,0.16619259,0
0.51531547,3.4662957,-0.51560271,0.27524963,0.94689894,-0.16619259,0
0.53753626,0.20815583,0.53486276,0.64571834,-0.054019578,0.76166248,0
0.95810479,0.63470954,-0.33878207,0.87239438,-0.31864825,-0.37066326,0
1.1587644,3.2811263,-0.58496308,0.27524963,0.94689894,-0.16619259,0
-0.88586843,-2.1756215,1.0045472,-0.30549061,0.25005803,0.91877443,0
-0.20540056,1.5244142,-0.61831927,-0.83556259,0.15013009,-0.5284847,0
1.3516175,2.4699767,-0.054055095,0.79811072,-0.12869123,0.58860683,0
1.0385227,3.2867925,-0.48673987,0.27524963,0.94689894,-0.16619259,0
-1.0709349,-3.3609793,0.52481055,-0.27524963,-0.94689894,0.16619259,0
1.5366427,3.2061639,-0.74928403,0.27524963,0.94689894,-0.16619259,0
0.9573288,3.4367146,-0.44146523,0.27524963,0.94689894,-0.16619259,0
-1.134341,-3.2310627,0.50282395,-0.27524963,-0.94689894,0.16619259,0
-0.30705813,-0.75296062,0.92881775,-0.0018875003,0.17340203,0.98484927,0
-0.27599427,-0.34402335,0.79405099,-0.19511229,0.22429377,0.95478976,0
-1.1552858,-3.1123424,1.2271913,-0.27524963,-0.94689894,0.16619259,0
0.64863849,3.4026768,-0.35403398,0.27524963,0.94689894,-0.16619259,0
-0.70332521,-3.5820959,-0.0051258132,-0.27524963,-0.94689894,0.16619259,0
-0.46101293,0.58044261,-0.59383076,-0.81630039,0.13887958,-0.56068349,0
-1.0128906,-3.1866708,1.0989789,-0.27524963,-0.94689894,0.16619259,0
-1.2351491,-3.1089001,1.1325376,-0.27524963,-0.94689894,0.16619259,0
0.04449743,-1.7489636,0.89176601,0.58670759,-0.028505534,0.80929714,0
1.2120802,3.0961506,-1.2355,0.27524963,0.94689894,-0.16619259,0
0.075391173,2.6147792,-0.12492552,-0.81105596,0.32153109,0.48867777,0
-1.0271597,-3.1651056,0.8562234,-0.27524963,-0.94689894,0.16619259,0
-0.53684026,-3.0246823,-0.12937832,0.50688481,-0.28983006,-0.81182903,0
-0.0020173192,1.9016176,0.11543837,-0.71186793,0.31692973,0.62673724,0
-1.1149452,-2.116502,-0.2933808,-0.61688292,0.041371815,-0.78596687,0
1.4950385,3.1350815,-0.5076009,0.27524963,0.94689894,-0.16619259,0
1.0642277,3.2377706,-0.67157513,0.27524963,0.94689894,-0.16619259,0
-0.49515051,-0.0061838552,-0.62822968,-0.65808845,0.059560217,-0.75058138,0
0.22190583,3.5635989,-0.44173372,0.27524963,0.94689894,-0.16619259,0
1.1461495,1.3271524,-0.39894187,0.94098055,-0.30077162,-0.15521646,0
-0.44362795,-3.3769493,0.76393926,-0.27524963,-0.94689894,0.16619259,0
0.49232656,2.2829432,0.28730208,-0.29115838,0.24685763,0.92427701,0
-0.67498392,-3.3043072,0.55562973,-0.27524963,-0.94689894,0.16619259,0
-1.5504719,-3.0701077,0.67858928,-0.27524963,-0.94689894,0.16619259,0
0.86417949,2.5851254,0.1882109,0.21522981,0.10778768,0.97059667,0
-0.54085159,-3.5637741,0.43417719,-0.27524963,-0.94689894,0.16619259,0
1.6267864,3.2121477,-0.32845965,0.27524963,0.94689894,-0.16619259,0
1.2877066,3.322922,-0.057641804,0.27524963,0.94689894,-0.16619259,0
-0.43325135,-2.7319496,1.2248054,0.396725,0.04558849,0.91680461,0
0.059606969,2.2511659,0.16510305,-0.59883046,0.30410704,0.74089205,0
-1.4533941,-3.2186551,0.13945663,-0.27524963,-0.94689894,0.16619259,0
0.72234052,3.3832767,-0.41677052,0.27524963,0.94689894,-0.16619259,0
-0.28965786,1.3043753,-0.61398,-0.81700271,0.13928092,-0.55956,0
0.55686033,0.64509225,-0.87034422,0.38844907,-0.26767215,-0.88173634,0
0.36748174,0.38559091,-0.77587485,0.28726804,-0.2459812,-0.92572689,0
0.50615704,3.4869261,-0.3879244,0.27524963,0.94689894,-0.16619259,0
0.89998794,1.0310614,-0.60967994,0.72604525,-0.31805557,-0.60967112,0
1.2160177,3.2552724,-0.36971104,0.27524963,0.94689894,-0.16619259,0
0.14119601,1.7028371,0.49855688,-0.30251139,0.24939641,0.91993928,0
-1.2402191,-3.2515614,0.92038453,-0.27524963,-0.94689894,0.16619259,0
0.72605658,0.83238506,-0.61143887,0.73137069,-0.31844452,-0.60306716,0
0.35320306,3.4456854,-0.8004958,0.27524963,0.94689894,-0.16619259,0
-0.66270941,-3.3144445,0.94898057,-0.27524963,-0.94689894,0.16619259,0
-1.1566057,-3.1678374,1.3285813,-0.27524963,-0.94689894,0.16619259,0
-1.4804922,-3.1914589,0.12834239,-0.27524963,-0.94689894,0.16619259,0
-0.52633679,0.49967068,-0.023040056,-0.95368046,0.29076108,0.07714653,0
-0.64252806,-3.5549905,0.27448446,-0.27524963,-0.94689894,0.16619259,0
-0.060110629,1.2375722,-0.80309993,-0.50827026,-0.0034030681,-0.86119097,0
0.86748183,3.2364364,-0.75072694,0.27524963,0.94689894,-0.16619259,0
-0.24541366,-0.0068265349,0.71293175,-0.19921601,0.22529639,0.95370561,0
0.54689556,1.7373952,0.420277,-0.017634034,0.17781377,0.98390615,0
0.75697184,3.5333843,0.032709166,0.27524963,0.94689894,-0.16619259,0
1.0945852,1.4835235,-0.1161105,0.94265383,-0.23187955,0.24007452,0
-0.27949345,1.4478176,-0.33788604,-0.93631637,0.22482951,-0.26974678,0
-0.81996202,-3.2169545,1.1515343,-0.27524963,-0.94689894,0.16619259,0
-0.19315168,1.5221529,0.13382572,-0.77606094,0.32087931,0.54292345,0
-0.86783361,-3.4210238,0.59623027,-0.27524963,-0.94689894,0.16619259,0
1.453966,3.135988,-0.77632332,0.27524963,0.94689894,-0.16619259,0
0.55783707,3.3331532,0.0039154855,-0.56801915,0.29964995,0.76652735,0
-0.63587999,-3.4598808,0.85640204,-0.27524963,-0.94689894,0.16619259,0
0.61201984,3.417836,-0.051077511,0.27524963,0.94689894,-0.16619259,0
-1.1543,-3.1534901,0.78942335,-0.27524963,-0.94689894,0.16619259,0
-0.28496438,-0.58635372,0.91279852,-0.15668744,0.21474424,0.96401972,0
1.1103432,3.3615968,-0.082534552,0.27524963,0.94689894,-0.16619259,0
1.361884,3.2841578,0.022699475,0.54353833,-0.0106881,0.83931643,0
0.63006973,3.2203765,-1.1083963,0.27524963,0.94689894,-0.16619259,0
0.20552754,-1.6291684,-0.24706513,0.69221199,-0.31516567,-0.64924049,0
-0.46924344,-3.4740148,0.61459875,-0.27524963,-0.94689894,0.16619259,0
-0.037435174,-0.23220053,0.86276549,0.087117374,0.1475919,0.98520416,0
0.1085276,-1.2333314,-0.52091134,0.55182374,-0.2971696,-0.77921802,0
-0.82416773,-1.4447068,-0.41030854,-0.40025467,-0.044304103,-0.91533232,0
-0.96913719,-3.4902716,0.10291195,-0.27524963,-0.94689894,0.16619259,0
-0.10497773,2.1428344,-0.067311347,-0.89851439,0.31486234,0.30583251,0
-0.56165195,-0.61501384,-0.47606534,-0.53079003,0.0055486513,-0.84748524,0
0.61413455,3.3855143,-1.0329216,0.27524963,0.94689894,-0.16619259,0
-0.26450682,-0.1167017,-0.64451659,-0.40388495,-0.04297981,-0.91379964,0
0.57905352,3.2503033,-1.1302845,0.27524963,0.94689894,-0.16619259,0
-0.41138375,-3.3209822,0.96005398,-0.27524963,-0.94689894,0.16619259,0
0.91356218,3.4986799,0.054554969,0.27524963,0.94689894,-0.16619259,0
-0.82623827,-2.0672555,1.1321393,-0.31595212,0.25236565,0.91459596,0
0.46360612,-1.2057467,0.44889218,0.91703171,-0.20670651,0.34106487,0
-1.0403129,-3.3126137,-0.043740094,-0.27524963,-0.94689894,0.16619259,0
0.91029084,3.2184563,-0.99107116,0.27524963,0.94689894,-0.16619259,0
1.2167645,2.7589953,0.22434807,0.49751735,0.0076221498,0.86742067,0
-0.52104831,-3.4994862,0.63524044,-0.27524963,-0.94689894,0.16619259,0
0.12152731,-2.1466422,-0.071560591,0.80129158,-0.32148051,-0.50456125,0
-0.24852431,1.4588563,-0.012874693,-0.92205793,0.30894959,0.2331509,0
0.12896508,2.8365915,-0.13064465,-0.76940525,0.32061949,0.55246615,0
0.26415741,3.5176721,-0.72140676,0.27524963,0.94689894,-0.16619259,0
-0.83233815,-3.262078,0.6031031,-0.27524963,-0.94689894,0.16619259,0
0.57889485,3.2941868,-1.0395685,0.27524963,0.94689894,-0.16619259,0
0.72064126,3.4193656,0.14605665,0.27524963,0.94689894,-0.16619259,0
0.33468443,3.5936489,-0.39589921,0.27524963,0.94689894,-0.16619259,0
0.55822444,3.3381398,-1.0671849,0.27524963,0.94689894,-0.16619259,0
1.1657536,3.1548741,-1.248062,0.35683602,-0.26114804,-0.89692247,0
-0.2725212,-1.9044536,-0.49009144,0.33091497,-0.25562388,-0.9083786,0
-0.20983469,-2.4674563,-0.078923196,0.62543547,-0.30765814,-0.7170614,0
0.73731256,0.17037815,0.34938484,0.88807464,-0.18422997,0.42116833,0
1.0729473,3.4381011,0.17598248,0.12646055,0.13570626,0.98264521,0
-1.6068884,-3.1697485,0.39419991,-0.27524963,-0.94689894,0.16619259,0
0.27479953,3.4114876,-0.60626382,0.27524963,0.94689894,-0.16619259,0
-0.7976591,-3.2858655,1.1893971,-0.27524963,-0.94689894,0.16619259,0
1.2986022,3.3938751,-0.10221925,0.27524963,0.94689894,-0.16619259,0
-0.14543918,0.83779955,-0.72687459,-0.4620434,-0.021300394,-0.88660157,0
1.3707138,1.9683061,-0.49580318,0.95600259,-0.28783756,-0.056643546,0
1.1652787,3.4666281,0.053129137,0.27524963,0.94689894,-0.16619259,0
1.4676811,2.8355601,-1.084267,0.75709987,-0.320039,-0.56953901,0
0.25193787,0.38215557,0.66641366,0.063626409,0.15454853,0.98593438,0
-0.63557476,-1.4789954,0.91227221,-0.1578145,0.21502845,0.96377254,0
-0.59546751,-3.3494704,0.89878416,-0.27524963,-0.94689894,0.16619259,0
0.52712613,3.3186996,-0.9682079,0.27524963,0.94689894,-0.16619259,0
0.55772799,2.4664123,0.31004906,-0.24191636,0.23552749,0.94127756,0
1.1283202,3.1259971,-1.3053885,0.2909081,-0.24680133,-0.92437083,0
-0.52484453,-3.4204476,0.76359791,-0.27524963,-0.94689894,0.16619259,0
-0.19818681,-3.2056417,0.70818853,0.94797885,-0.23857282,0.21075833,0
0.77654845,0.21603215,0.31317282,0.82945764,-0.14650752,0.53901362,0
-1.0772552,-3.4429097,0.074105591,-0.27524963,-0.94689894,0.16619259,0
-1.3936594,-3.1426549,0.91590065,-0.27524963,-0.94689894,0.16619259,0
0.047936134,-1.9891825,0.85345513,0.70994186,-0.083637953,0.69927627,0
0.58649701,0.75292277,-0.77070355,0.5064348,-0.28975338,-0.81213725,0
0.63198054,0.61729246,0.39036542,0.62064058,-0.0429997,0.78291529,0
0.46289784,-0.052884996,-0.67670226,0.41978729,-0.27389842,-0.86530828,0
0.22317314,0.34912342,0.71935141,0.098496199,0.14418465,0.98463666,0
-0.94903195,-0.81548977,0.358006,-0.90459722,0.31362265,0.28869474,0
1.1856928,3.2573931,-1.0601082,0.27524963,0.94689894,-0.16619259,0
0.57702976,3.4435678,-0.78496611,0.27524963,0.94689894,-0.16619259,0
-0.022422254,-2.9645114,0.56633711,0.95826077,-0.25632998,0.12661421,0
1.1228526,3.1474931,-1.100823,0.27524963,0.94689894,-0.16619259,0
0.90686983,3.4704514,-0.37443289,0.27524963,0.94689894,-0.16619259,0
0.94025761,3.2853792,-0.73628658,0.27524963,0.94689894,-0.16619259,0
-0.014488697,1.2323643,0.3903583,-0.41391855,0.27275118,0.86849183,0
0.032829821,2.5522196,-0.4984405,-0.96094275,0.27615491,-0.018101275,0
-0.20888676,1.8644569,-0.35180682,-0.95622325,0.25178492,-0.14913547,0
-0.60727882,-1.2780294,-0.47204828,-0.41297913,-0.039647799,-0.909877,0
-0.60971421,-3.4102206,0.66721034,-0.27524963,-0.94689894,0.16619259,0
0.54964697,3.301868,-0.84710938,0.27524963,0.94689894,-0.16619259,0
1.4806464,2.4966669,-0.73440224,0.84951878,-0.32049119,-0.41905048,0
1.2076387,2.4611413,0.24884093,0.6367842,-0.050061837,0.7694152,0
-0.55876118,-3.4721589,-0.043093551,0.48700082,-0.28638205,-0.82511544,0
-0.26403874,-3.6278834,0.32104835,-0.27524963,-0.94689894,0.16619259,0
0.94208139,3.1870639,-1.0697118,0.27524963,0.94689894,-0.16619259,0
0.24474186,-0.50757325,-0.53853464,0.44832969,-0.2793498,-0.84909612,0
-0.65869659,-3.4232495,-0.13479401,-0.27524963,-0.94689894,0.16619259,0
1.1933126,2.2779016,0.050761402,0.70351577,-0.080572769,0.70609748,0
-0.76012665,-3.4699419,0.01271154,-0.27524963,-0.94689894,0.16619259,0
-0.29058027,1.8304353,-0.19622767,-0.94927508,0.29503235,0.10877877,0
-0.065421462,-2.1192398,-0.25065556,0.59348845,-0.30335987,-0.74548256,0
-1.2710598,-3.3912082,0.038724482,-0.27524963,-0.94689894,0.16619259,0
-1.1953928,-3.2053223,0.87436926,-0.27524963,-0.94689894,0.16619259,0
1.1964806,3.2843945,-0.82153034,0.27524963,0.94689894,-0.16619259,0
1.3832766,3.2993021,-0.028020322,0.27524963,0.94689894,-0.16619259,0
-0.34525377,-2.5924156,-0.29505181,0.43236369,-0.27632684,-0.85831523,0
0.1184442,2.2590878,0.17295171,-0.70567185,0.31639829,0.6339711,0
0.4270291,3.4207721,-0.62685752,0.27524963,0.94689894,-0.16619259,0
-0.85502124,-3.2855515,1.2485059,-0.27524963,-0.94689894,0.16619259,0
0.22735888,1.1962317,0.46306062,-0.042512238,0.18468934,0.98187697,0
-1.3602803,-3.1971405,0.48013398,-0.27524963,-0.94689894,0.16619259,0
-0.42269608,0.68210202,-0.37387311,-0.92529297,0.21401662,-0.31309712,0
-1.7578341,-3.1911128,0.47675774,-0.27524963,-0.94689894,0.16619259,0
-0.82652932,-0.32718709,-0.37684536,-0.82021868,0.14112695,-0.5543685,0
-1.5526817,-2.8386307,0.83233374,-0.86808914,0.3190833,0.38027233,0
-0.47181237,-0.14822203,0.56817245,-0.50413072,0.28935957,0.81370956,0
1.2188438,3.2349653,-0.50464016,0.27524963,0.94689894,-0.16619259,0
-0.54140204,-3.5680919,0.1060819,-0.27524963,-0.94689894,0.16619259,0
-1.2912638,-3.2926791,0.2306067,-0.27524963,-0.94689894,0.16619259,0
1.5263845,3.2071514,-0.23079634,0.27524963,0.94689894,-0.16619259,0
-0.58461285,0.50831693,-0.47388363,-0.89188278,0.18698029,-0.41180515,0
0.89546412,3.240206,-0.51489896,0.27524963,0.94689894,-0.16619259,0
0.087522462,2.4448988,-0.8714695,-0.80109704,0.13033785,-0.58417094,0
1.1894873,1.996804,-0.91304702,0.76503682,-0.32042789,-0.55860943,0
-0.35928282,-3.4814954,0.56297171,-0.27524963,-0.94689894,0.16619259,0
1.0711349,2.817224,-1.3185689,0.29446316,-0.24759957,-0.92303085,0
0.7936722,0.77926546,0.27136791,0.76151454,-0.1092301,0.63887757,0
0.37471241,0.057345424,0.57685357,0.56304532,-0.018657919,0.82621533,0
-1.6303563,-2.6337481,0.58074206,-0.95340168,0.29107282,0.079384506,0
1.2120097,3.3790398,-0.19604538,0.27524963,0.94689894,-0.16619259,0
1.1496172,3.3760657,0.023633182,0.27524963,0.94689894,-0.16619259,0
-0.15274495,-0.61457944,0.81593859,0.044652462,0.16009156,0.98609167,0
-0.35071623,-3.616267,0.31098714,-0.27524963,-0.94689894,0.16619259,0
-0.67958397,0.55578756,0.042582989,-0.92866594,0.30659011,0.20876333,0
1.009812,3.4243495,-0.3765195,0.27524963,0.94689894,-0.16619259,0
-1.008343,-3.3664505,0.061044753,-0.27524963,-0.94689894,0.16619259,0
1.671928,3.1784592,-0.45471051,0.27524963,0.94689894,-0.16619259,0
-0.84359473,-1.4864455,-0.32155132,-0.61751807,0.041646577,-0.78545338,0
-0.80305827,-0.019355267,0.08706367,-0.94867682,0.29552704,0.11258835,0
0.76471853,2.3896625,-1.0996302,0.084116757,-0.19592789,-0.97700393,0
-1.137225,-3.412179,0.19454801,-0.27524963,-0.94689894,0.16619259,0
0.97054172,0.71738631,0.094942987,0.92463142,-0.21341027,0.31545633,0
0.24265,1.0487051,-0.90182793,-0.19749689,-0.11348919,-0.97371215,0
-0.11282992,-1.3253967,-0.4231708,0.42905772,-0.27569243,-0.86017621,0
0.30981904,1.9047208,-1.0206581,-0.2107842,-0.10922296,-0.97141147,0
-0.081204265,1.3069379,-0.87624031,-0.50374329,-0.005183551,-0.8638379,0
0.42036784,0.62572259,-0.75712156,0.38566941,-0.26710814,-0.88312638,0
-0.54247737,-3.4601991,0.99566233,-0.27524963,-0.94689894,0.16619259,0
-0.11260533,-1.2653291,-0.47174177,0.28383052,-0.24520412,-0.92699254,0
1.2023311,3.3263628,-0.29503286,0.27524963,0.94689894,-0.16619259,0
-0.79688787,-0.81083566,-0.37560916,-0.70954716,0.083448946,-0.69969934,0
-1.1342773,-3.1892383,0.63426495,-0.27524963,-0.94689894,0.16619259,0
0.43856233,1.9788344,0.37330437,-0.17093325,0.21831855,0.96079075,0
0.14777347,-1.685267,0.5518291,0.91491842,-0.20491819,0.34775388,0
-1.5095187,-3.2281506,0.32150665,-0.27524963,-0.94689894,0.16619259,0
1.0559964,1.3033148,-0.46954036,0.87763965,-0.31805474,-0.35859418,0
0.81383502,0.8606776,0.38905054,0.62956583,-0.046890177,0.77553087,0
-1.1063062,-3.3921611,0.42092291,-0.27524963,-0.94689894,0.16619259,0
-0.36218104,-0.26273972,0.84569305,-0.29280633,0.24722788,0.9236573,0
0.3980881,-0.74338174,-0.327889,0.67805791,-0.31376013,-0.6646744,0
1.4809327,2.0753009,-0.42746621,0.96130621,-0.27312097,0.035989761,0
0.59002376,3.3646939,-0.56623745,0.27524963,0.94689894,-0.16619259,0
-1.0960308,-1.1530677,0.067636788,-0.95763946,0.25483289,-0.13411486,0
0.16053331,-1.7789272,0.46642727,0.93105006,-0.21948013,0.29150331,0
-0.91905582,-3.2379909,1.1609863,-0.27524963,-0.94689894,0.16619259,0
0.6286124,0.19036955,-0.56652737,0.66273725,-0.31212032,-0.68070567,0
0.45674908,3.339613,-0.9813242,0.27524963,0.94689894,-0.16619259,0
0.70011371,0.27089584,-0.57370836,0.79457283,-0.32138366,-0.51513743,0
1.0425103,2.9702442,0.20576704,0.40099537,0.044034146,0.915021,0
0.59617972,3.3131859,-0.75002795,0.27524963,0.94689894,-0.16619259,0
-1.0941344,-3.2725747,0.55116224,-0.27524963,-0.94689894,0.16619259,0
0.2543909,-0.96787786,0.7626707,0.62380666,-0.044375893,0.78031802,0
0.81649727,3.307874,-0.75190157,0.27524963,0.94689894,-0.16619259,0
1.214258,3.1813188,-1.1240923,0.27524963,0.94689894,-0.16619259,0
1.162593,3.2288086,-0.96492249,0.27524963,0.94689894,-0.16619259,0
-0.94519418,-3.2005308,1.077724,-0.27524963,-0.94689894,0.16619259,0
0.3521733,0.22416675,0.63105398,0.36861968,0.055707417,0.92790973,0
0.71998674,2.1708579,-1.1140572,0.15693104,-0.21480568,-0.96396637,0
1.5065457,3.2748692,-0.33193585,0.27524963,0.94689894,-0.16619259,0
0.77984416,3.1610494,-1.2300282,0.27524963,0.94689894,-0.16619259,0
1.2764783,2.4871337,0.12146544,0.71754634,-0.087297797,0.6910184,0
-0.76295006,-3.2050929,1.1922168,-0.27524963,-0.94689894,0.16619259,0
-0.05080092,1.824054,0.30181056,-0.56226283,0.29877883,0.77109772,0
0.6921078,3.2484007,-0.83175886,0.27524963,0.94689894,-0.16619259,0
-0.65846342,-0.34706554,-0.51649123,-0.6292941,0.046771247,-0.77575856,0
-0.82102382,-0.55830359,0.24756593,-0.93682492,0.30299872,0.17478824,0
1.3087056,3.209101,-1.1613442,0.27524963,0.94689894,-0.16619259,0
-0.39369667,-3.4515681,0.70860904,-0.27524963,-0.94689894,0.16619259,0
-0.028785661,-1.7826209,0.87055898,0.72373456,-0.090303101,0.6841445,0
-0.34936088,-3.510776,0.9644022,-0.27524963,-0.94689894,0.16619259,0
-1.4513921,-2.6374898,0.23836011,-0.94243568,0.2316228,-0.24117595,0
-1.2587883,-1.6314806,0.24936309,-0.9454931,0.23533745,-0.22507524,0
-0.56495357,-3.442081,0.044947017,-0.27524963,-0.94689894,0.16619259,0
1.2278974,3.339443,0.090640426,0.27524963,0.94689894,-0.16619259,0
0.20497245,-0.46286741,-0.65665442,0.36553913,-0.26296788,-0.8928768,0
-0.93992585,-3.2679119,0.72081369,-0.27524963,-0.94689894,0.16619259,0
0.9072957,3.1846581,-1.0444046,0.27524963,0.94689894,-0.16619259,0
0.2973913,0.97632647,0.59934282,-0.0094489455,0.17552632,0.98442942,0
0.15958232,-1.6182878,0.48254019,0.92014933,-0.2094018,0.33087158,0
-0.45321226,-3.5104251,0.75885475,-0.27524963,-0.94689894,0.16619259,0
0.56925839,3.3157399,-0.84569991,0.27524963,0.94689894,-0.16619259,0
-1.2278993,-3.2578132,0.6897316,-0.27524963,-0.94689894,0.16619259,0
-0.52048349,-3.3829539,0.5582549,-0.27524963,-0.94689894,0.16619259,0
-0.1162807,-3.2216356,0.6871981,0.96053743,-0.26366493,0.088592887,0
0.20151487,-1.8351424,0.18994385,0.93842494,-0.3021794,-0.16746998,0
0.97611839,2.4319637,-1.2220781,0.19615275,-0.2245483,-0.95451677,0
-0.02780813,0.48199141,-0.79448652,-0.25739646,-0.093973458,-0.96172559,0
-0.055656195,1.5897816,0.35255897,-0.59910679,0.30414537,0.74065292,0
1.1178913,3.2926917,-0.77464342,0.27524963,0.94689894,-0.16619259,0
-0.15686536,-0.99968088,-0.53997004,0.24263531,-0.23569657,-0.94105011,0
0.28887755,3.42472,-0.98449677,0.27524963,0.94689894,-0.16619259,0
-0.8496778,-1.669456,0.90733612,-0.55882597,0.29825318,0.77379501,0
-0.48534721,-1.5098788,0.91977084,0.048544049,0.15896021,0.9860909,0
-0.41577652,1.0822835,-0.088652134,-0.96076274,0.27709147,-0.012467146,0
0.32615563,3.3287346,-1.0511574,0.27524963,0.94689894,-0.16619259,0
0.23820341,0.95489204,0.52648294,0.042365551,0.16075513,0.9860847,0
-1.211493,-3.2815378,0.74104273,-0.27524963,-0.94689894,0.16619259,0
1.4663552,2.6718187,-0.7706368,0.89646876,-0.3152436,-0.3113924,0
1.4998479,3.179822,-1.0062884,0.27524963,0.94689894,-0.16619259,0
0.57771385,3.3340766,-0.55097187,0.27524963,0.94689894,-0.16619259,0
-1.3189104,-3.2679882,0.72618318,-0.27524963,-0.94689894,0.16619259,0
-0.3922379,-0.15577674,-0.55572152,-0.55944204,0.017175885,-0.82869136,0
-0.020064145,-2.5311806,0.63076389,0.91885811,-0.20827687,0.33514249,0
0.58960193,-0.59014046,0.47745895,0.84671444,-0.15689921,0.50838691,0
1.038514,0.90839779,-0.19535288,0.95563972,-0.25063786,0.15470451,0
1.5386518,3.0099308,-0.84765756,0.27524963,0.94689894,-0.16619259,0
-1.3017626,-3.2490287,0.57625419,-0.27524963,-0.94689894,0.16619259,0
-1.4025173,-3.1015515,0.5923115,-0.27524963,-0.94689894,0.16619259,0
0.81681514,3.3788877,-0.41222194,0.27524963,0.94689894,-0.16619259,0
0.72804356,1.1312244,0.47027075,0.47272354,0.017220156,0.88104248,0
-0.57512772,-3.5393715,0.0052402215,-0.27524963,-0.94689894,0.16619259,0
-0.079078317,-2.9277625,0.23309281,0.93790513,-0.30245048,-0.16987526,0
-1.2378216,-3.0886545,1.1458375,-0.27524963,-0.94689894,0.16619259,0
0.094503522,-2.0794666,-0.14641944,0.76647013,-0.32049257,-0.55660403,0
-0.58754033,0.16291606,-0.4722628,-0.83129007,0.14758901,-0.53588665,0
0.071067095,-1.6460674,-0.15986916,0.77030861,-0.32065704,-0.55118394,0
1.4512606,3.3108091,-0.24612305,0.27524963,0.94689894,-0.16619259,0
0.86258101,3.1870148,-1.0083187,0.27524963,0.94689894,-0.16619259,0
0.39896503,-1.0453762,-0.29082379,0.75759327,-0.32006469,-0.56886822,0
-1.311623,-3.0894463,0.89206177,-0.27524963,-0.94689894,0.16619259,0
-0.70912158,-3.3398407,0.34024084,-0.27524963,-0.94689894,0.16619259,0
-1.0504861,-2.5295293,1.1377695,-0.43715107,0.27724034,0.85559142,0
-0.20927498,0.090753339,0.64987385,-0.37925279,0.26579896,0.8862946,0
1.5436702,3.080112,-0.68055511,0.27524963,0.94689894,-0.16619259,0
0.38503644,3.4065564,-0.64335859,0.27524963,0.94689894,-0.16619259,0
-0.27515832,-1.1756506,0.89902467,0.049280822,0.15874569,0.98608881,0
-0.59209496,-3.3384035,0.58510983,-0.27524963,-0.94689894,0.16619259,0
1.1420486,1.6146618,-0.52930409,0.91507995,-0.31104842,-0.25666618,0
1.0946212,3.2920034,-0.054661095,0.27524963,0.94689894,-0.16619259,0
0.39745191,-0.20960082,-0.50375271,0.47431433,-0.28412145,-0.83324718,0
0.90023118,3.3998365,-0.61551106,0.27524963,0.94689894,-0.16619259,0
-0.71389043,-1.3728745,-0.40827638,-0.48955101,-0.010725601,-0.87190884,0
0.63753134,-0.021616802,0.47286367,0.75127339,-0.1039945,0.65174651,0
-1.0861068,-1.8740494,-0.098654032,-0.70319229,0.080419146,-0.70643711,0
0.22107196,1.5405648,0.42082897,-0.25315911,0.23815922,0.93765163,0
0.14613625,1.615858,-1.0921692,-0.38592118,-0.049500972,-0.92120278,0
1.0729393,3.3633263,-0.022248417,0.27524963,0.94689894,-0.16619259,0
1.2755088,2.9216168,-0.022329628,0.56960618,-0.021368071,0.82164007,0
1.4594964,3.182138,-0.84275007,0.27524963,0.94689894,-0.16619259,0
0.72667378,-0.041685253,-0.44259265,0.84248292,-0.32085133,-0.43275502,0
0.65117127,3.4931731,-0.18937537,0.27524963,0.94689894,-0.16619259,0
0.63491875,-0.4747932,0.35830921,0.93891275,-0.22762337,0.25812864,0
0.062075734,-0.123026,0.81425369,0.24505913,0.09805318,0.96453696,0
-1.0038586,-3.3123455,1.0810052,-0.27524963,-0.94689894,0.16619259,0
1.4387233,2.6638615,-0.26638135,0.93433279,-0.22276884,0.27820212,0
1.4904479,2.4751604,-0.70714158,0.93041933,-0.30588987,-0.20186967,0
0.027232319,-1.0786479,0.92306662,0.51120716,0.0022445926,0.85945463,0
1.2748522,3.0064132,-1.2770694,0.27524963,0.94689894,-0.16619259,0
1.1217943,3.3708127,-0.23389937,0.27524963,0.94689894,-0.16619259,0
-1.2400151,-3.1965203,0.38181522,-0.27524963,-0.94689894,0.16619259,0
1.59041,3.0802524,-0.66329253,0.27524963,0.94689894,-0.16619259,0
-1.0995432,-3.3212516,0.84384769,-0.27524963,-0.94689894,0.16619259,0
-0.7572397,-3.3688767,1.187447,-0.27524963,-0.94689894,0.16619259,0
0.54992557,3.5685294,-0.068165161,0.27524963,0.94689894,-0.16619259,0
1.10455,3.3051851,-0.91346216,0.27524963,0.94689894,-0.16619259,0
-0.47422385,-3.4553859,0.2862629,-0.27524963,-0.94689894,0.16619259,0
-0.95214087,-1.0151777,-0.33836412,-0.81197423,0.13642085,-0.56752729,0
-0.27502692,-1.7680428,-0.37701386,0.21581811,-0.22931819,-0.94912368,0
-1.0690312,-3.4835792,-0.13588309,-0.27524963,-0.94689894,0.16619259,0
0.14323568,-1.5512832,-0.14931597,0.75367773,-0.31985569,-0.57416219,0
0.58808219,3.4907811,-0.36442444,0.27524963,0.94689894,-0.16619259,0
0.43592209,3.4413638,-0.96867311,0.27524963,0.94689894,-0.16619259,0
-1.3031025,-2.433063,-0.096411049,-0.63778865,0.050505016,-0.76855385,0
-0.54188812,-3.427737,0.16340193,-0.27524963,-0.94689894,0.16619259,0
0.44867778,-0.084251404,0.56856233,0.69099081,-0.074667968,0.71899682,0
1.4451911,2.5438817,-0.69016027,0.86543798,-0.31932926,-0.38606462,0
0.68975878,3.3878117,-1.1886294,0.27524963,0.94689894,-0.16619259,0
0.56881022,3.5776289,-0.26234525,0.27524963,0.94689894,-0.16619259,0
-0.45519733,-0.026366591,-0.48319268,-0.64694071,0.054563902,-0.76058567,0
-0.97181463,-3.3657544,0.60574836,-0.27524963,-0.94689894,0.16619259,0
-1.5006547,-2.7639375,0.082630515,-0.76847166,0.11283571,-0.62985665,0
-1.3201962,-3.0961323,0.77692878,-0.27524963,-0.94689894,0.16619259,0
-0.72360897,-3.3200796,0.39020157,-0.27524963,-0.94689894,0.16619259,0
0.9637655,3.3265238,-0.95175731,0.27524963,0.94689894,-0.16619259,0
-1.0402628,-1.3859856,-0.28672755,-0.67406046,0.06682419,-0.73564732,0
0.95138705,3.5290794,0.027498633,0.27524963,0.94689894,-0.16619259,0
1.0421575,1.0685941,-0.10362643,0.93836164,-0.22702029,0.26065171,0
-0.44799024,-0.60000074,0.77077407,-0.28825182,0.24620317,0.92536193,0
-0.3010177,-1.5242984,1.0400662,0.28206837,0.085719109,0.95555729,0
0.62921011,3.3811107,0.17058557,-0.24908537,0.23720863,0.93898267,0
-0.53641444,-3.4667203,0.7394892,-0.27524963,-0.94689894,0.16619259,0
0.64232194,2.9626992,-1.2582134,-0.345384,-0.063931003,-0.93628132,0
-1.3593452,-1.8434498,0.26667467,-0.95881236,0.28299198,0.024381697,0
-0.97967589,-3.4533932,0.11339359,-0.27524963,-0.94689894,0.16619259,0
0.53351289,1.8578529,-1.1023666,-0.15220261,-0.12776899,-0.98005581,0
1.6016717,2.7804501,-0.82614136,0.84848493,-0.32054961,-0.42109546,0
0.22262827,-1.1705607,-0.2015294,0.73243326,-0.31851983,-0.60173637,0
0.15646932,-2.1581635,0.26156014,0.9613176,-0.27294266,0.037024438,0
-0.94346887,-3.5440223,-0.16559532,-0.27524963,-0.94689894,0.16619259,0
-0.78213805,-3.3442938,1.1268237,-0.27524963,-0.94689894,0.16619259,0
0.39013609,-0.93846947,0.13513553,0.95736885,-0.28573743,-0.042414844,0
1.5095339,3.1439531,-0.14941978,0.27524963,0.94689894,-0.16619259,0
0.39354047,1.9362168,-1.0396147,-0.13724267,-0.13239729,-0.9816494,0
-1.532275,-3.1378314,0.22445133,-0.27524963,-0.94689894,0.16619259,0
0.71827209,-0.29118007,0.051302969,0.96132815,-0.26942715,0.057071865,0
0.82503796,3.3060548,-0.28224713,0.27524963,0.94689894,-0.16619259,0
-1.4504759,-3.2783933,0.45756739,-0.27524963,-0.94689894,0.16619259,0
0.56718343,2.1911948,0.38634959,0.068418205,0.15313792,0.98583359,0
-0.96724272,-0.92136753,0.61439288,-0.82666045,0.32136795,0.46190381,0
0.6852175,3.3050478,-1.2448032,0.27524963,0.94689894,-0.16619259,0
-1.123263,-1.3200785,0.67863077,-0.8591162,0.31985265,0.39951682,0
0.78627509,3.1764846,-1.3114467,0.27524963,0.94689894,-0.16619259,0
-0.68357009,-3.4490588,0.40967429,-0.27524963,-0.94689894,0.16619259,0
1.0052335,2.6955817,0.21687299,0.31689554,0.07384447,0.9455815,0
-0.88448417,-3.4221439,0.69095689,-0.27524963,-0.94689894,0.16619259,0
1.3916676,2.1723845,-0.24589595,0.92627954,-0.21492867,0.30953461,0
-1.6796653,-3.1189036,0.55177349,-0.27524963,-0.94689894,0.16619259,0
0.7123844,3.2721324,-0.73401606,0.27524963,0.94689894,-0.16619259,0
-0.80207539,-3.0413117,1.281189,0.25154567,0.095912151,0.96308136,0
1.1970434,3.2916913,-0.16505128,0.27524963,0.94689894,-0.16619259,0
-0.5348196,-3.304728,1.2339544,-0.27524963,-0.94689894,0.16619259,0
1.2985406,3.0615814,-0.96900153,0.27524963,0.94689894,-0.16619259,0
0.93496108,3.3896518,-0.32745835,0.27524963,0.94689894,-0.16619259,0
1.4608227,3.0815432,-0.54534143,0.27524963,0.94689894,-0.16619259,0
-0.35868847,-0.11459324,-0.68533742,-0.32623088,-0.070616111,-0.94264895,0
-0.7165556,-3.5161726,0.053899616,-0.27524963,-0.94689894,0.16619259,0
-1.090294,-2.3952422,1.1340609,-0.45174825,0.2799882,0.84707153,0
-1.0142055,-0.53949821,0.13223493,-0.95598137,0.28786761,0.056849957,0
-0.51906908,-3.3338213,0.69178939,-0.27524963,-0.94689894,0.16619259,0
0.029002845,-1.3555375,-0.48647392,0.38828355,-0.26763865,-0.88181943,0
1.3094324,3.3649936,0.10949957,0.27524963,0.94689894,-0.16619259,0
-1.5687987,-2.7256303,0.59894872,-0.9604708,0.27833796,-0.0048816204,0
1.0971755,2.0052023,0.16790253,0.64730358,-0.054725565,0.76026535,0
1.1196921,3.3643034,-0.19078256,0.27524963,0.94689894,-0.16619259,0
-0.97476661,-0.97670007,0.68703246,-0.73357683,0.31859997,0.600299,0
-0.4747504,-1.3326155,-0.51248926,-0.22412068,-0.10490523,-0.96889871,0
0.19024038,3.1974609,-0.36964777,-0.89971972,0.31462964,0.30251032,0
-0.67405975,-3.4493647,0.49651212,-0.27524963,-0.94689894,0.16619259,0
-1.2736651,-3.1066163,1.1846268,-0.27524963,-0.94689894,0.16619259,0
0.39892894,3.4370024,-1.0452684,0.27524963,0.94689894,-0.16619259,0
-0.0041728318,2.5822377,-0.39191884,-0.96126109,0.26843897,-0.062591136,0
0.5274598,3.4163263,-0.85420406,0.27524963,0.94689894,-0.16619259,0
0.80865461,3.4438257,-0.29322255,0.27524963,0.94689894,-0.16619259,0
0.24505892,-0.69517273,0.74009675,0.66922659,-0.064612292,0.74024397,0
1.3704529,2.4366889,-0.75075853,0.83190393,-0.32123879,-0.45248368,0
-0.49708843,0.91909653,-0.0094771385,-0.90856773,0.31271878,0.27696893,0
-0.57967848,-3.3735805,1.2015729,-0.27524963,-0.94689894,0.16619259,0
-0.056361318,-0.14290734,-0.81697065,-0.054590642,-0.15719666,-0.9860574,0
1.0582912,3.2660329,-0.65813267,0.27524963,0.94689894,-0.16619259,0
-0.3602232,1.0145037,-0.31328112,-0.95183319,0.24412292,-0.18551946,0
-0.24435012,0.61411649,-0.65005749,-0.6739825,0.066788383,-0.73572218,0
1.6312685,3.1236951,-0.90740359,0.27524963,0.94689894,-0.16619259,0
1.5629141,3.0375633,-0.88624513,0.27524963,0.94689894,-0.16619259,0
0.301043,-1.2184942,-0.19149782,0.83856571,-0.32101545,-0.44017795,0
-0.57936484,0.73612368,-0.084908247,-0.96083581,0.27673146,-0.014639258,0
-0.35606265,1.7335752,-0.1056847,-0.92356879,0.30844545,0.22777626,0
-1.1180046,-0.86712348,0.12286651,-0.96025282,0.2624478,-0.095056415,0
0.45904207,3.3579972,-0.092406899,-0.69681525,0.31559896,0.64408517,0
1.347621,3.1884398,-0.71435535,0.27524963,0.94689894,-0.16619259,0
-0.37370485,-3.3292301,1.0866656,0.80263698,-0.13119084,0.58186144,0
-1.3547479,-2.5157833,0.16885334,-0.89851058,0.19189407,-0.39478534,0
1.1187836,3.1516767,-0.69999951,0.27524963,0.94689894,-0.16619259,0
0.84608847,1.1387798,-0.8579452,0.54651475,-0.2963368,-0.78326631,0
1.5718471,3.1600568,-0.49226087,0.27524963,0.94689894,-0.16619259,0
-0.24311583,1.5193611,-0.66238284,-0.85114026,0.1596448,-0.50007373,0
0.67716479,0.17449182,0.33519083,0.80429327,-0.13211124,0.57936072,0
-0.61525714,-1.9359891,-0.47456628,-0.20663613,-0.11055862,-0.9721514,0
0.49540001,3.0118308,0.041995846,-0.56887943,0.29977915,0.76583856,0
0.69647288,3.2363241,-1.3187172,0.27524963,0.94689894,-0.16619259,0
-0.021757394,-1.435764,0.85988593,0.62505263,-0.044918686,0.77928895,0
1.1624477,3.3080671,0.1229924,0.42712563,0.034422856,0.90353692,0
0.77590346,0.33910936,-0.12028188,0.95374906,-0.29068321,-0.076589346,0
1.2680956,3.2219517,-0.93078279,0.27524963,0.94689894,-0.16619259,0
0.65459067,3.4428728,0.022722647,0.27524963,0.94689894,-0.16619259,0
0.75777906,-0.30916125,-0.30239895,0.86381245,-0.31947219,-0.38957113,0
-1.1478227,-3.3058419,0.018127114,-0.27524963,-0.94689894,0.16619259,0
0.68450004,0.97526813,-0.76049,0.60636735,-0.30514216,-0.73430705,0
0.4036738,0.2328344,0.58127844,0.50876248,0.0032090982,0.860901,0
-0.25233451,-3.5050542,0.61051923,0.96136063,-0.27023152,0.052542925,0
0.22289634,-1.4566927,-0.35096428,0.71033192,-0.31680021,-0.62854302,0
-0.79400265,-3.4139628,0.57607901,-0.27524963,-0.94689894,0.16619259,0
0.21977991,3.0771668,-0.51902288,-0.96116161,0.27466884,-0.026930928,0
-0.42272735,-3.1078525,1.1176159,0.64942199,-0.055670932,0.75838768,0
-0.2784878,0.086870044,0.6661737,-0.2462762,0.23655117,0.93988919,0
0.70839661,-0.29167074,-0.027571261,0.93302029,-0.30478367,-0.19125921,0
1.4857094,3.1022191,-0.53399855,0.27524963,0.94689894,-0.16619259,0
-0.72149962,-3.0363722,1.2797906,0.18555462,0.11729347,0.97560847,0
-0.56812406,-3.4151146,0.41250533,-0.27524963,-0.94689894,0.16619259,0
-0.78271508,-0.058894455,0.28877422,-0.91749197,0.31036267,0.24876425,0
-0.97672808,-3.3755333,-0.15973556,-0.27524963,-0.94689894,0.16619259,0
-0.89631724,-3.4701977,0.038372293,-0.27524963,-0.94689894,0.16619259,0
1.0680133,3.3109033,-0.82752156,0.27524963,0.94689894,-0.16619259,0
1.1052094,3.2963428,-0.85674965,0.27524963,0.94689894,-0.16619259,0
-0.8243596,-3.3442883,0.7117213,-0.27524963,-0.94689894,0.16619259,0
0.91179389,2.3414412,-1.2110118,0.26303953,-0.24045029,-0.93434143,0
-0.078231379,1.8189014,-0.75871092,-0.74631387,0.10148839,-0.65781128,0
-0.51405096,-3.2822647,1.1715457,-0.27524963,-0.94689894,0.16619259,0
1.2975976,2.1886587,-0.10567796,0.87288272,-0.17370716,0.455962,0
-0.55453712,-2.2673168,-0.29084405,0.029690206,-0.18116021,-0.98300529,0
-0.79714715,-3.2900674,1.3303373,-0.27524963,-0.94689894,0.16619259,0
-1.1229514,-3.3947244,0.17725763,-0.27524963,-0.94689894,0.16619259,0
-0.37346739,-3.44118,0.33721709,-0.27524963,-0.94689894,0.16619259,0
0.58771747,3.5103559,0.038333021,-0.58918202,0.30274954,0.7491377,0
-0.9330852,-0.28225136,0.2162571,-0.94865906,0.29554144,0.11269939,0
0.87748265,3.4353263,-0.21903339,0.27524963,0.94689894,-0.16619259,0
0.71349871,3.2771544,-1.1098982,0.27524963,0.94689894,-0.16619259,0
0.40754747,0.51050514,-0.73650026,0.25860482,-0.23942448,-0.93584156,0
-0.011161685,1.9590346,0.017962217,-0.80820346,0.32152781,0.49338335,0
0.99515092,3.3380306,-0.30788648,0.27524963,0.94689894,-0.16619259,0
-0.42406112,-3.468291,0.35452333,-0.27524963,-0.94689894,0.16619259,0
1.1190492,3.2760556,-0.75650316,0.27524963,0.94689894,-0.16619259,0
1.0588628,3.3525612,0.19318491,0.27524963,0.94689894,-0.16619259,0
-1.0484604,-3.4617932,-0.07718268,-0.27524963,-0.94689894,0.16619259,0
-0.11864161,-1.8188629,-0.26309663,0.59722209,-0.30388325,-0.74228078,0
-1.1748357,-3.417532,0.12090418,-0.27524963,-0.94689894,0.16619259,0
0.72640729,3.2805936,-1.1713793,0.27524963,0.94689894,-0.16619259,0
0.49965146,3.4024861,-0.4529461,0.27524963,0.94689894,-0.16619259,0
0.81003964,3.3818274,-0.6203258,0.27524963,0.94689894,-0.16619259,0
-1.5739167,-3.1737876,0.7695452,-0.27524963,-0.94689894,0.16619259,0
-0.8045612,-3.3611498,0.92903471,-0.27524963,-0.94689894,0.16619259,0
-0.38703018,0.71748132,-0.63920385,-0.72913992,0.092948727,-0.67802316,0
1.3740284,3.3031673,-0.50845361,0.27524963,0.94689894,-0.16619259,0
0.85470229,3.3960617,-0.53761303,0.27524963,0.94689894,-0.16619259,0
-1.2068813,-3.2156315,1.2377641,-0.27524963,-0.94689894,0.16619259,0
-0.78203511,-3.2145696,1.1577903,-0.27524963,-0.94689894,0.16619259,0
1.5357802,3.1731727,-0.48987263,0.27524963,0.94689894,-0.16619259,0
1.0300933,3.4193859,-0.33689559,0.27524963,0.94689894,-0.16619259,0
-0.057958007,1.4880861,0.37788036,-0.45920438,0.28136951,0.84259278,0
0.44818139,3.4547486,-0.20226902,0.27524963,0.94689894,-0.16619259,0
0.77497822,1.2619522,-0.83505511,0.47403288,-0.28407082,-0.83342463,0
0.20405298,3.572866,-0.67032099,0.27524963,0.94689894,-0.16619259,0
-1.4360634,-3.1609898,0.58559287,-0.27524963,-0.94689894,0.16619259,0
-0.31122613,1.687332,0.073679954,-0.83526874,0.32113454,0.44631693,0
-0.52735972,-1.8243999,1.0157759,-0.017214656,0.17769685,0.98393482,0
0.52553183,3.4763613,-0.15053162,0.27524963,0.94689894,-0.16619259,0
-0.034004301,2.7850389,-0.36689895,-0.93921697,0.30175683,0.16375053,0
0.9205575,3.5095811,0.076100796,0.27524963,0.94689894,-0.16619259,0
-0.65540594,-3.3540528,0.51533258,-0.27524963,-0.94689894,0.16619259,0
-0.21428356,-3.3836181,0.74252146,0.94447953,-0.23407699,0.23057818,0
0.54992139,1.1358449,-1.0259107,0.15290362,-0.2137882,-0.96483952,0
-0.081946403,0.69848496,-0.77550423,-0.39485949,-0.046266183,-0.91757584,0
-0.64842761,-1.0028923,-0.52055377,-0.5609796,0.017807703,-0.82763821,0
1.4841721,3.1606281,-0.75102174,0.27524963,0.94689894,-0.16619259,0
-0.6442908,-3.5603306,0.046850037,-0.27524963,-0.94689894,0.16619259,0
1.5068498,3.2620959,-0.40195873,0.27524963,0.94689894,-0.16619259,0
-0.8059448,-3.431958,-0.14172366,-0.27524963,-0.94689894,0.16619259,0
0.91593081,3.2333536,-0.73046112,0.27524963,0.94689894,-0.16619259,0
0.50724465,2.532181,-1.2075462,-0.40379,-0.043014489,-0.91383994,0
-0.94242239,-1.0230559,-0.18771291,-0.80776858,0.13405253,-0.57405561,0
-1.5201708,-3.2630825,0.0084735751,-0.27524963,-0.94689894,0.16619259,0
-0.031130224,-2.7448716,0.55439758,0.94335836,-0.23271707,0.23646945,0
-0.62625694,0.21361431,-0.331276,-0.9194963,0.20883133,-0.33304048,0
-0.3443802,-0.056802481,-0.59727091,-0.55895805,0.016977161,-0.82902205,0
-1.1980997,-3.2445605,0.16495979,-0.27524963,-0.94689894,0.16619259,0
0.69044513,2.1796467,0.31403548,0.038619161,0.16183998,0.98606098,0
-1.060164,-1.1426831,0.20267937,-0.96112806,0.27493685,-0.025348306,0
0.91227627,3.3392146,-0.83665836,0.27524963,0.94689894,-0.16619259,0
0.21457732,1.589036,-0.9812125,-0.32621634,-0.070621163,-0.94265354,0
-1.0101922,-1.5956166,0.74684924,-0.69175398,0.31512186,0.64974976,0
-0.29479614,0.44768786,-0.67748266,-0.57273716,0.022666853,-0.81942558,0
0.15457606,-1.6204951,0.80188268,0.74729866,-0.10198451,0.65661556,0
