3.0115249,-1.630837,-3.7063799,0.5597344,-0.23624182,-0.79428399,0
2.3433931,-1.8287678,-3.4399741,-0.22111958,-0.96632832,0.13158882,0
1.1128438,-0.55487347,-0.36221692,0.63936436,-0.48664764,0.59530437,0
2.1732941,-0.17756367,-3.1722367,-0.040819585,0.94947833,-0.31116647,0
-2.6887577,1.045711,2.4622698,-0.79278761,0.12634617,-0.59625876,0
-2.9897437,1.8024626,3.6417811,-0.5597344,0.23624182,0.79428399,0
0.86865222,-0.56794882,-2.356128,-0.81945789,-0.015258336,-0.57293636,0
-0.80972803,-0.31629407,1.4790967,-0.00048363209,-0.95859516,0.28477168,0
-2.5916021,0.81802273,4.2299547,-0.5597344,0.23624182,0.79428399,0
1.6041957,-0.20625448,-1.0178701,0.81531322,0.32841277,0.4768748,0
2.5048759,-0.32489324,-2.5124254,0.76270318,0.52163982,0.3823294,0
-0.41412544,-0.10436547,-0.8369773,-0.81249791,0.031993348,-0.58208555,0
-1.3290746,0.2779808,2.8957253,0.58133346,-0.5711289,0.57953691,0
2.8101521,-1.2265608,-2.6762729,0.68479574,-0.40788212,0.60389304,0
-3.0737793,1.0734949,3.9025676,-0.5597344,0.23624182,0.79428399,0
-3.0549617,1.4382043,3.6631706,-0.5597344,0.23624182,0.79428399,0
-2.9462025,1.58529,3.6928916,-0.5597344,0.23624182,0.79428399,0
-1.2238736,0.57277822,3.1534944,0.75995678,-0.23582287,0.60568404,0
1.9265075,-1.6434898,-2.6178725,-0.13030326,-0.97166997,0.19717604,0
-2.937674,0.68032169,3.9932768,-0.5597344,0.23624182,0.79428399,0
2.3861027,-1.6680131,-3.1471329,-0.043101132,-0.96550459,0.2567941,0
2.9793594,-0.99862862,-3.8687713,0.5597344,-0.23624182,-0.79428399,0
-0.018452466,0.87047887,0.81170553,0.61058116,0.76560962,0.20256525,0
2.3675606,-0.87298489,-4.4473543,0.5597344,-0.23624182,-0.79428399,0
-1.5729766,1.4730954,2.2136312,0.17018819,0.97084224,-0.16882282,0
1.671997,-0.016402245,-2.5123446,0.014709949,0.96118385,-0.27551621,0
-3.2396035,1.7264047,3.5776997,-0.5597344,0.23624182,0.79428399,0
2.4270871,-1.6523299,-3.9770813,0.5597344,-0.23624182,-0.79428399,0
-1.3408537,0.89847326,1.0058479,-0.4476065,0.72045362,-0.52971232,0
3.239567,-1.6315179,-3.6399343,0.5597344,-0.23624182,-0.79428399,0
0.47601491,-0.8825748,-0.39491481,0.1681484,-0.90618312,0.38801837,0
2.4404569,-0.8881073,-4.2306519,0.5597344,-0.23624182,-0.79428399,0
1.725578,-1.4067359,-2.3547482,-0.1125837,-0.97129446,0.20955145,0
-2.85783,1.2298141,3.8041878,-0.5597344,0.23624182,0.79428399,0
0.95169067,-0.58755273,-0.18556854,0.56015158,-0.59848994,0.57274789,0
2.8848124,-1.7136254,-3.8777034,0.5597344,-0.23624182,-0.79428399,0
-2.3992085,1.6646838,4.0232873,-0.5597344,0.23624182,0.79428399,0
-0.21252792,-0.6534164,0.025221169,-0.39011455,-0.92076564,-0.0010540485,0
2.5408177,-0.71006918,-4.2788987,0.5597344,-0.23624182,-0.79428399,0
-2.4441862,0.17342663,3.5588021,-0.097890854,-0.97064114,0.2197113,0
3.0031409,-1.2005067,-3.8920813,0.5597344,-0.23624182,-0.79428399,0
-3.164768,1.3898973,3.7377217,-0.5597344,0.23624182,0.79428399,0
2.8832898,-0.86244059,-3.9596705,0.5597344,-0.23624182,-0.79428399,0
-2.2796021,0.79476357,4.3742771,0.61008835,-0.53117412,0.58791685,0
0.49085695,-0.69404411,-1.7925317,-0.78998518,-0.44156915,-0.42537031,0
0.26015392,0.5669142,0.57390642,0.71706897,0.61849648,0.32136297,0
1.7810938,0.070255041,-2.404233,0.20495605,0.96818972,-0.14353299,0
-2.6437461,1.8818035,3.802722,0.055136025,0.96699548,-0.24875647,0
-1.1904479,1.2553034,1.7682147,0.31766373,0.94644976,-0.057641387,0
1.1518452,-0.48648524,-0.36622152,0.76268536,-0.22795445,0.60526669,0
-2.3120749,0.90239429,4.4799185,0.70479953,-0.36840358,0.60624778,0
2.8030005,-0.60824299,-4.2527027,0.5597344,-0.23624182,-0.79428399,0
0.66175687,-0.53150499,0.15562436,0.61200631,-0.52838296,0.58843833,0
-3.1298871,1.4082808,3.5882943,-0.5597344,0.23624182,0.79428399,0
2.8707714,-1.5124869,-3.7233114,0.5597344,-0.23624182,-0.79428399,0
-2.0167928,0.2117238,2.031337,-0.66486222,-0.70014924,-0.26028693,0
-3.3432014,1.20158,3.4988441,-0.5597344,0.23624182,0.79428399,0
2.8199825,-1.7030449,-3.751364,0.5597344,-0.23624182,-0.79428399,0
2.9804311,-1.0077333,-3.9985273,0.5597344,-0.23624182,-0.79428399,0
-2.4830985,0.94385672,4.2305145,-0.5597344,0.23624182,0.79428399,0
-3.1645961,1.3076854,3.718189,-0.5597344,0.23624182,0.79428399,0
-2.74511,1.8872843,3.6170712,-0.12984151,0.92166054,-0.36562681,0
-2.6385856,0.28871632,3.2442422,-0.46729493,-0.88155097,-0.067106843,0
1.459812,-0.42881012,-0.68004215,0.79046059,-0.13549194,0.59733903,0
1.5099822,-0.54211462,-0.91132176,0.78760022,-0.14635314,0.59855378,0
3.0454659,-1.6379628,-3.6011791,0.5597344,-0.23624182,-0.79428399,0
-1.6895518,-0.089726686,2.1604407,-0.25246567,-0.96155095,0.10807824,0
-0.34989142,0.75018489,1.8223888,0.79789305,0.41245025,0.43960381,0
-2.9716058,0.46980572,3.9469204,-0.5597344,0.23624182,0.79428399,0
1.6290636,-0.74348104,-1.0115867,0.73966479,-0.28972605,0.60741651,0
-0.97193396,-0.35225546,0.43419036,-0.71688825,-0.61882234,-0.32113868,0
3.0713274,-1.4284911,-3.6181414,0.5597344,-0.23624182,-0.79428399,0
2.6291356,-0.80770111,-4.1748185,0.5597344,-0.23624182,-0.79428399,0
2.5740447,-1.7908649,-3.8503175,0.5597344,-0.23624182,-0.79428399,0
-2.1124029,1.3536403,2.3529096,-0.32916784,0.81625295,-0.47474158,0
2.850538,-1.2620931,-3.9233649,0.5597344,-0.23624182,-0.79428399,0
-3.3881025,1.2370234,3.5507212,-0.5597344,0.23624182,0.79428399,0
3.0008976,-1.0721459,-3.7644417,0.5597344,-0.23624182,-0.79428399,0
2.6343713,-0.43834448,-4.2291217,0.5597344,-0.23624182,-0.79428399,0
-2.3472469,0.16512585,3.1555541,-0.19980434,-0.96869832,0.14731461,0
2.0642653,-1.4843636,-2.5567381,0.11093444,-0.92851275,0.35434091,0
-2.8661504,0.85695267,4.0639057,-0.5597344,0.23624182,0.79428399,0
-2.8695261,1.079195,3.9044361,-0.5597344,0.23624182,0.79428399,0
2.1728396,-0.67632294,-3.9905908,-0.51821935,0.64816326,-0.55797231,0
2.4151292,-1.0547485,-4.3538799,0.5597344,-0.23624182,-0.79428399,0
2.574614,-1.5223675,-4.1050539,0.5597344,-0.23624182,-0.79428399,0
0.43846482,0.44389725,-0.97474325,-0.11553687,0.9268921,-0.35710222,0
2.7603667,-1.0143661,-3.9919224,0.5597344,-0.23624182,-0.79428399,0
0.031430274,0.59593332,-0.54105663,-0.069333792,0.94179022,-0.32897395,0
3.2370365,-1.0678029,-3.8002956,0.5597344,-0.23624182,-0.79428399,0
-1.5468119,1.1956936,1.5264521,-0.33873284,0.80953938,-0.47948527,0
0.66695464,-1.1611031,-1.711791,-0.46865341,-0.8807373,-0.068306208,0
0.49346119,-0.18572187,-1.8276663,-0.71621597,0.34419781,-0.60709345,0
3.2912092,-1.1326718,-3.6425519,0.5597344,-0.23624182,-0.79428399,0
-1.6384099,1.0234437,1.1895918,-0.58003175,0.57285851,-0.57913405,0
-2.8097374,0.66099024,4.0182796,-0.5597344,0.23624182,0.79428399,0
3.4668727,-1.2514286,-3.503865,0.5597344,-0.23624182,-0.79428399,0
3.2464411,-1.4167771,-3.6109338,0.5597344,-0.23624182,-0.79428399,0
-1.2644453,1.0218836,1.0393908,-0.26176167,0.85902011,-0.43996033,0
1.3008347,-0.21216846,-0.44707382,0.82347071,0.051346384,0.56503057,0
-2.2423244,1.5828228,4.3433008,-0.5597344,0.23624182,0.79428399,0
0.53762966,-0.040075466,0.39176407,0.7983548,-0.10315935,0.59328556,0
1.1990734,-1.1602228,-1.4665909,0.083941221,-0.93740803,0.33796442,0
-2.9043756,1.6413746,3.8244922,-0.5597344,0.23624182,0.79428399,0
-2.9659147,1.3781576,3.7787099,-0.5597344,0.23624182,0.79428399,0
0.59946644,0.11996305,-1.5984023,-0.48098022,0.68790382,-0.54354972,0
-3.1893909,0.69293594,3.7826495,-0.5597344,0.23624182,0.79428399,0
-2.6857584,1.1037297,4.0689969,-0.5597344,0.23624182,0.79428399,0
2.5798225,-1.7327304,-3.919064,0.5597344,-0.23624182,-0.79428399,0
2.5996079,-1.5746689,-4.0318174,0.5597344,-0.23624182,-0.79428399,0
2.0391254,-0.98071527,-4.1320829,-0.80471921,0.073829137,-0.5890469,0
3.1712816,-0.94723797,-3.6532068,0.5597344,-0.23624182,-0.79428399,0
-2.5061107,1.63831,2.8800285,-0.35148883,0.80032402,-0.48573354,0
-2.3662224,0.97794724,4.3085985,-0.5597344,0.23624182,0.79428399,0
1.5554212,-1.130548,-3.4328742,-0.79674184,-0.41693041,-0.43746004,0
-1.0295155,-0.29145443,0.23547471,-0.73876154,-0.57647854,-0.34914708,0
-3.2582438,1.2346234,3.5524533,-0.5597344,0.23624182,0.79428399,0
2.745971,-0.95899677,-3.9599671,0.5597344,-0.23624182,-0.79428399,0
-2.8645916,0.50202417,4.0460792,-0.5597344,0.23624182,0.79428399,0
-1.3966212,-0.284266,1.7789116,-0.24988279,-0.96200371,0.11003292,0
1.8877959,-1.6075025,-3.0325425,-0.37760636,-0.92591959,0.009293437,0
0.38052124,-0.84709263,-0.4198004,-0.046605587,-0.96595967,0.2544598,0
-1.9270742,1.0326519,3.8950613,0.82310528,0.047585785,0.56589162,0
3.2429545,-1.0197306,-3.7446184,0.5597344,-0.23624182,-0.79428399,0
0.78557122,-0.88075686,-0.29323816,0.30975127,-0.82937598,0.46496177,0
2.5087545,-0.24810839,-2.9848719,0.50660443,0.85607785,0.10238475,0
0.08609432,-0.23572397,-1.2885708,-0.81666249,0.0053334348,-0.57709092,0
-1.1501813,1.2232192,2.0430427,0.47153288,0.87899745,0.070852757,0
-2.276814,1.2528429,4.4326982,-0.5597344,0.23624182,0.79428399,0
-1.3885207,-0.0015385151,0.66136777,-0.79730761,-0.41474035,-0.43851,0
2.3968997,-1.4979324,-4.1073718,0.5597344,-0.23624182,-0.79428399,0
2.0361919,-1.5969472,-3.6025589,-0.63203669,-0.74160904,-0.22482342,0
-3.1316466,1.7461467,3.5842555,-0.5597344,0.23624182,0.79428399,0
2.9156535,-1.403584,-3.7537775,0.5597344,-0.23624182,-0.79428399,0
-3.3394327,1.291142,3.4013438,-0.7881906,0.14414389,-0.59831274,0
3.2539449,-0.66004896,-3.7613816,0.5597344,-0.23624182,-0.79428399,0
2.1811509,-1.5936346,-4.2248716,0.5597344,-0.23624182,-0.79428399,0
0.3306379,-0.52024186,0.35239363,0.53058678,-0.63408941,0.56250173,0
2.6317825,-1.6808801,-3.033469,0.23926485,-0.87160569,0.42785013,0
-3.006325,0.57580471,4.0788503,-0.5597344,0.23624182,0.79428399,0
3.3214099,-1.3359704,-3.539979,0.5597344,-0.23624182,-0.79428399,0
-2.4193327,1.3491974,4.2960896,-0.5597344,0.23624182,0.79428399,0
3.1203356,-0.65551996,-3.857866,0.5597344,-0.23624182,-0.79428399,0
-1.255465,1.0578735,2.7276962,0.78515661,0.45771357,0.41716579,0
3.0131824,-1.1253982,-3.9091079,0.5597344,-0.23624182,-0.79428399,0
-2.3154695,1.5719066,4.1329098,-0.5597344,0.23624182,0.79428399,0
0.91638207,-0.2718215,-2.4171162,-0.7021631,0.37380961,-0.6059978,0
-3.3065889,1.1827064,3.605828,-0.5597344,0.23624182,0.79428399,0
1.8800746,-1.262295,-1.8266897,0.29323089,-0.84002143,0.45648614,0
2.4270501,-1.3851042,-4.2465758,0.5597344,-0.23624182,-0.79428399,0
1.1461396,0.19933081,-1.9199266,-0.10643554,0.93006754,-0.35163295,0
-2.4201016,1.2475119,4.1178923,-0.5597344,0.23624182,0.79428399,0
-1.4073753,1.4523621,2.462198,0.35675782,0.93382555,-0.026336908,0
-2.2440295,1.5803571,4.2174959,-0.5597344,0.23624182,0.79428399,0
-0.74579608,0.41905737,2.2616885,0.72632301,-0.32157847,0.60748833,0
-3.0453622,1.449861,3.8234053,-0.5597344,0.23624182,0.79428399,0
2.3201213,-0.20775557,-2.7045577,0.4784179,0.87475264,0.076967239,0
-3.0435271,0.41902113,3.9363427,-0.5597344,0.23624182,0.79428399,0
-2.5900176,1.0455694,4.1969829,-0.5597344,0.23624182,0.79428399,0
-2.949909,1.0049119,4.025331,-0.5597344,0.23624182,0.79428399,0
-3.2983377,1.4377308,3.5249977,-0.5597344,0.23624182,0.79428399,0
-3.1259525,0.98085785,3.8720176,-0.5597344,0.23624182,0.79428399,0
3.1374428,-1.0799656,-3.8556221,0.5597344,-0.23624182,-0.79428399,0
0.85061586,-1.1920656,-1.2949109,-0.18625593,-0.96984327,0.1572029,0
-2.4268703,0.57374191,2.1668501,-0.82245457,-0.27556917,-0.49762449,0
-3.0617583,0.99137878,3.7223449,-0.5597344,0.23624182,0.79428399,0
-3.1214311,1.4643598,3.5917947,-0.5597344,0.23624182,0.79428399,0
3.112473,-1.4863405,-3.6217949,0.5597344,-0.23624182,-0.79428399,0
2.702533,-1.5472498,-3.828707,0.5597344,-0.23624182,-0.79428399,0
-0.14863241,-0.27986133,-1.103283,-0.82310462,-0.047578726,-0.56589317,0
0.34267268,0.14584589,-1.5550613,-0.4670642,0.70180982,-0.53787905,0
-1.3584284,0.50140357,3.0597894,0.73394901,-0.3036736,0.60753703,0
-0.93983042,-0.4211098,1.4363241,-0.13950843,-0.97168565,0.19069391,0
-1.9680167,1.2252469,1.8493054,-0.43203837,0.73472923,-0.52298743,0
-0.712475,0.96732873,0.93150532,0.08217603,0.96960175,-0.23047632,0
-0.0016354024,-0.76979852,-0.7895261,-0.57724214,-0.79885465,-0.16918302,0
-0.48850864,0.76640868,-0.122253,-0.40008229,0.76234907,-0.50868261,0
3.1339288,-1.3826547,-3.5870731,0.5597344,-0.23624182,-0.79428399,0
2.7105474,-1.5840206,-3.9240794,0.5597344,-0.23624182,-0.79428399,0
-2.340832,0.7498951,4.3208489,-0.5597344,0.23624182,0.79428399,0
1.8894304,-1.2212417,-1.9269589,0.45186532,-0.71645045,0.53152287,0
-3.0901923,1.2485948,3.6288631,-0.5597344,0.23624182,0.79428399,0
1.211869,-0.51773983,-0.38029122,0.76828623,-0.21124688,0.60424429,0
-3.3188212,1.1906829,3.4782827,-0.5597344,0.23624182,0.79428399,0
-2.1357923,0.22104645,1.9134698,-0.77749568,-0.48133692,-0.40474096,0
-0.080982238,-0.37236905,1.1069136,0.41840899,-0.7467792,0.5169667,0
2.6499634,-0.47606564,-4.1717682,0.5597344,-0.23624182,-0.79428399,0
2.9901936,-1.7734981,-3.7677815,0.5597344,-0.23624182,-0.79428399,0
1.1890721,-1.2228435,-1.415431,0.083809018,-0.9374491,0.33788359,0
-1.7702368,-0.13111663,2.2503333,-0.25251415,-0.96154225,0.10804141,0
1.8568175,-0.87640047,-3.8785317,-0.78585738,0.1527819,-0.59923768,0
-2.782305,1.2065716,3.9743695,-0.5597344,0.23624182,0.79428399,0
-1.7741815,1.6494954,3.12831,0.4059656,0.9137764,0.014303088,0
0.065167636,-0.49437615,0.58994097,0.45738435,-0.71119863,0.53385019,0
2.6218562,-1.898489,-3.9186826,0.5597344,-0.23624182,-0.79428399,0
2.8743699,-1.1152754,-3.866847,0.5597344,-0.23624182,-0.79428399,0
-2.3577487,1.0967698,4.2820063,-0.5597344,0.23624182,0.79428399,0
-2.8811471,1.3010678,3.042758,-0.64486241,0.47779307,-0.59654528,0
-0.62849432,0.045507669,2.0170212,0.67170221,-0.4319849,0.60183477,0
-2.8457882,0.84379196,3.946569,-0.5597344,0.23624182,0.79428399,0
0.80183965,-0.71121275,-0.17286772,0.55841297,-0.60066408,0.57216924,0
2.9126248,-0.39184999,-3.7351902,0.3238157,0.94464731,-0.052769959,0
-2.7838769,1.6760702,3.792582,-0.5597344,0.23624182,0.79428399,0
3.0422318,-0.69583893,-4.0692644,0.5597344,-0.23624182,-0.79428399,0
-0.78470308,-0.34859276,0.039576441,-0.70919561,-0.63237,-0.31168824,0
-2.0403438,1.656239,3.8575671,0.64772522,0.72257155,0.2415415,0
-2.6804719,0.52639818,4.3452296,-0.5597344,0.23624182,0.79428399,0
-2.3082395,0.62260199,4.3605156,-0.5597344,0.23624182,0.79428399,0
1.7317667,-0.017606258,-1.8151078,0.58509731,0.79142755,0.1769278,0
-2.7171786,0.40586901,4.1425209,-0.019208014,-0.96194345,0.2725724,0
2.0144675,-0.0023260117,-2.4121437,0.40986431,0.91197687,0.017585874,0
-0.71917689,-0.030558348,2.1378241,0.52289623,-0.6428951,0.55970126,0
2.2761273,-1.0189109,-4.4353752,0.5597344,-0.23624182,-0.79428399,0
1.7173301,-0.047708273,-1.4170022,0.72909969,0.59594333,0.33654898,0
-2.6718967,0.61429405,4.2751708,-0.5597344,0.23624182,0.79428399,0
-2.619046,1.4393506,4.1304579,-0.5597344,0.23624182,0.79428399,0
-3.3155832,0.75495529,3.466656,-0.75809246,-0.53306556,-0.37568188,0
2.4936395,-0.82951117,-4.204957,0.5597344,-0.23624182,-0.79428399,0
2.029274,-1.2809396,-2.1373012,0.42963088,-0.73688769,0.52193272,0
1.3401458,-0.89977503,-2.946785,-0.82784581,-0.20220403,-0.52324456,0
-1.5686657,0.89350808,1.1667361,-0.66218269,0.44875172,-0.60011327,0
1.7813741,-0.33762026,-3.370883,-0.51146525,0.65565813,-0.5554418,0
-2.4615006,1.1349711,4.2648935,-0.5597344,0.23624182,0.79428399,0
2.982563,-1.4264135,-3.8112781,0.5597344,-0.23624182,-0.79428399,0
-2.783462,0.71341991,4.125124,-0.5597344,0.23624182,0.79428399,0
2.7443666,-0.55751371,-4.106885,0.5597344,-0.23624182,-0.79428399,0
-2.6136813,1.5043921,4.1236677,-0.5597344,0.23624182,0.79428399,0
3.2412481,-0.91303825,-3.8037367,0.5597344,-0.23624182,-0.79428399,0
1.0080624,-0.76083195,-0.46611512,0.47143912,-0.69749069,0.53967744,0
2.3418074,-0.26172566,-2.6079292,0.51397419,0.85083449,0.10913777,0
-2.6465931,1.885427,3.7684212,-0.5597344,0.23624182,0.79428399,0
3.1508429,-0.75304079,-3.7943304,0.5597344,-0.23624182,-0.79428399,0
1.1563237,-1.1158465,-1.1131778,0.16370672,-0.90808839,0.38545501,0
-1.9528,0.92749381,1.5802381,-0.61463261,0.52453375,-0.58914429,0
2.7009149,-0.5995245,-4.3014851,0.5597344,-0.23624182,-0.79428399,0
3.1007593,-1.1741128,-3.8401058,0.5597344,-0.23624182,-0.79428399,0
-0.37332061,0.76987779,-0.118613,-0.17324597,0.90396029,-0.39094943,0
0.65039182,-1.0149605,-1.1077957,-0.33022994,-0.94269598,0.04766947,0
-1.1755821,0.089960217,0.40559319,-0.82786298,-0.11706996,-0.54857779,0
2.5383215,-1.4051261,-4.1517177,0.5597344,-0.23624182,-0.79428399,0
-2.3085608,1.806098,4.2247829,-0.5597344,0.23624182,0.79428399,0
-2.7345972,0.7892828,4.0594378,-0.5597344,0.23624182,0.79428399,0
-1.6534057,0.89028049,1.3965399,-0.58102977,0.5715332,-0.57944304,0
-2.8548627,1.3355393,3.7660315,-0.5597344,0.23624182,0.79428399,0
-0.32202134,0.78678989,1.4722964,0.7187103,0.6155197,0.32340503,0
2.9123631,-1.7732744,-3.7713146,0.5597344,-0.23624182,-0.79428399,0
-2.4018276,1.788866,4.0929189,-0.5597344,0.23624182,0.79428399,0
1.6480526,-1.3970904,-2.983377,-0.49091166,-0.86673772,-0.088155389,0
-1.022362,0.32071877,2.4707053,0.69166243,-0.39471599,0.60481602,0
2.3440237,-1.0727463,-4.4307685,0.5597344,-0.23624182,-0.79428399,0
-0.74302685,1.062627,1.0484599,0.077970624,0.96926421,-0.23333961,0
-2.007669,1.5812514,3.5779107,0.64811814,0.72207719,0.24196541,0
1.1625874,0.1932807,-1.6278062,0.16722459,0.97098446,-0.17095363,0
-3.4362755,0.712955,3.7780824,-0.74662888,-0.55960077,-0.35971117,0
2.4093926,-0.86226368,-4.2644753,0.5597344,-0.23624182,-0.79428399,0
-1.5939747,-0.006383419,2.2609565,-0.079326928,-0.96937579,0.23241687,0
-0.61102569,0.95039278,0.55106729,-0.0028705001,0.95794374,-0.28694153,0
-2.693733,0.77923346,4.2580705,-0.5597344,0.23624182,0.79428399,0
-3.0622122,0.85115099,3.2182333,-0.8242622,-0.25747511,-0.50428009,0
2.6723154,-1.3859053,-4.1064749,0.5597344,-0.23624182,-0.79428399,0
2.3799801,-1.5420184,-4.152267,0.5597344,-0.23624182,-0.79428399,0
1.3334507,-0.21741605,-0.67098236,0.82645863,0.089136407,0.5558964,0
3.028765,-1.0923476,-3.9417038,0.5597344,-0.23624182,-0.79428399,0
-3.3517509,1.3679404,3.566124,-0.5597344,0.23624182,0.79428399,0
-3.3069799,0.67537498,3.8673913,-0.5597344,0.23624182,0.79428399,0
-3.3067892,1.3203087,3.5436709,-0.5597344,0.23624182,0.79428399,0
3.0181947,-1.6916761,-3.7572145,0.5597344,-0.23624182,-0.79428399,0
-2.2548161,0.26857924,2.2274475,-0.65164268,-0.71760303,-0.24577981,0
2.1926336,-0.1461997,-3.2713695,0.015337586,0.96129155,-0.27510595,0
3.2221415,-0.48401928,-3.9529901,0.5597344,-0.23624182,-0.79428399,0
-0.26700893,-0.35733461,-0.88706255,-0.81865299,-0.30624038,-0.48582304,0
3.1308773,-0.78590202,-3.8815148,0.5597344,-0.23624182,-0.79428399,0
-2.4718566,0.79407215,4.4039369,-0.5597344,0.23624182,0.79428399,0
1.1319481,-0.66070819,-0.39884636,0.66606915,-0.44197941,0.60083783,0
0.38936841,0.57181263,-0.75823885,-0.054578066,0.94591147,-0.31980133,0
-2.6974394,1.2663522,4.0844665,-0.5597344,0.23624182,0.79428399,0
2.5624764,-1.5627484,-4.0706449,0.5597344,-0.23624182,-0.79428399,0
-1.2056444,0.077558517,0.70647275,-0.81535321,-0.32816505,-0.47697672,0
1.207854,-0.21735096,-2.6990123,-0.58916128,0.56058908,-0.5819183,0
2.1980734,-1.6557183,-3.6208539,-0.38953429,-0.92101163,-0.00057202578,0
-0.78975087,0.13362336,2.2735159,0.58933783,-0.56034845,0.58197123,0
-3.0814281,1.3372684,3.7956293,-0.5597344,0.23624182,0.79428399,0
-2.5449429,0.6320262,4.235631,-0.5597344,0.23624182,0.79428399,0
-2.4263098,0.86156797,4.4463768,-0.5597344,0.23624182,0.79428399,0
-1.4497436,1.1943102,3.307478,0.80667818,0.37470105,0.45702231,0
-0.08941406,0.6245777,-0.45865992,-0.3292588,0.81618989,-0.474787,0
-2.4509423,0.89446259,2.2242613,-0.81295645,0.02924066,-0.58158994,0
-2.4064593,1.5598035,2.7926931,-0.23742449,0.87259936,-0.42684883,0
-0.050215967,0.10290682,1.2513385,0.79187691,-0.12996018,0.59669191,0
1.8728783,0.013230324,-2.6102307,0.040621698,0.96517211,-0.25844246,0
2.5773385,-0.53926873,-2.5443177,0.7944631,0.42554158,0.4332929,0
-2.6219547,0.80669785,4.2304168,-0.5597344,0.23624182,0.79428399,0
2.8113575,-1.398356,-3.8673706,0.5597344,-0.23624182,-0.79428399,0
2.9627783,-0.61908674,-4.0412936,0.5597344,-0.23624182,-0.79428399,0
-3.2569637,0.58963537,3.572763,-0.68228692,-0.67536616,-0.27993745,0
3.0388227,-1.0783415,-3.7827513,0.5597344,-0.23624182,-0.79428399,0
-0.92048031,0.9734211,2.4794092,0.78891176,0.44525355,0.42351809,0
-0.67494965,0.88011599,1.940755,0.70621955,0.63744813,0.30808061,0
1.4328727,-0.97203612,-1.0216373,0.44664747,-0.72134912,0.52930284,0
2.0243747,-0.91405964,-3.9908726,-0.77452475,0.19164932,-0.60281181,0
-2.4119098,1.1400867,4.2198658,-0.5597344,0.23624182,0.79428399,0
-2.3893285,1.4653449,4.1303358,-0.5597344,0.23624182,0.79428399,0
0.15460354,0.2937125,0.98061204,0.82583898,0.079836115,0.55822587,0
3.0591764,-1.6267209,-3.7740688,0.5597344,-0.23624182,-0.79428399,0
-1.3696479,0.75258386,0.80159527,-0.68113285,0.41475326,-0.60335547,0
2.9798903,-0.55464029,-3.987371,0.5597344,-0.23624182,-0.79428399,0
0.26292428,-0.53029633,-1.4767332,-0.82570511,-0.24003688,-0.5104835,0
2.6639347,-1.6568255,-4.0429468,0.5597344,-0.23624182,-0.79428399,0
2.6610029,-1.205709,-4.1045961,0.5597344,-0.23624182,-0.79428399,0
1.0375434,0.26728404,-1.1106225,0.32607096,0.94396967,-0.050979197,0
-1.6773221,-0.11834383,2.1173832,-0.30458793,-0.95005882,0.067929506,0
2.5149782,-0.70969915,-4.2615461,0.5597344,-0.23624182,-0.79428399,0
2.012212,-1.1658981,-1.8182712,0.4801797,-0.68871713,0.54322743,0
-3.0465555,1.566082,3.7841167,-0.5597344,0.23624182,0.79428399,0
2.4308679,-1.8040137,-4.0730176,0.5597344,-0.23624182,-0.79428399,0
1.8996146,-0.1002686,-1.5831447,0.77313304,0.49387297,0.39793801,0
-3.2993643,1.1755633,3.5284002,-0.5597344,0.23624182,0.79428399,0
0.37069917,-0.97215241,-0.37390929,-0.10431135,-0.97096461,0.21528292,0
-0.29725483,0.71215248,1.6629928,0.80863583,0.36521316,0.46122384,0
0.29069394,-0.33089876,0.82107025,0.65040088,-0.46870103,0.59774411,0
2.9906609,-1.4239516,-3.7973619,0.5597344,-0.23624182,-0.79428399,0
-0.66259855,-0.3609724,1.2584572,-0.033897936,-0.96422744,0.2628997,0
3.1536589,-1.1469531,-3.7685795,0.5597344,-0.23624182,-0.79428399,0
-1.1960754,0.054927826,2.4211926,0.4700855,-0.69883221,0.53912252,0
2.6864035,-0.5621419,-4.3426666,0.5597344,-0.23624182,-0.79428399,0
1.8924689,-0.61674786,-3.825681,-0.67250741,0.43053862,-0.60197204,0
-2.8930295,1.1544495,3.9208379,-0.5597344,0.23624182,0.79428399,0
-0.33010003,0.037737548,-0.78256112,-0.77535725,0.18894674,-0.60259461,0
2.5789249,-1.1306086,-4.2500548,0.5597344,-0.23624182,-0.79428399,0
-2.6607552,0.32204628,3.6864471,-0.12358946,-0.97158104,0.20188099,0
2.2488885,-1.3180699,-4.2091403,0.5597344,-0.23624182,-0.79428399,0
3.0634546,-1.6264534,-3.574223,0.5597344,-0.23624182,-0.79428399,0
2.4102509,-1.1894684,-4.1463456,0.5597344,-0.23624182,-0.79428399,0
-0.4172799,0.32797766,1.9202018,0.80517346,-0.071593307,0.58870208,0
2.331892,-0.87555075,-4.3053098,0.5597344,-0.23624182,-0.79428399,0
-2.3685801,0.12444973,3.2522261,-0.13889885,-0.97168845,0.19112432,0
-0.25235274,-0.79858303,0.051637113,-0.35219383,-0.93544507,0.03003484,0
2.7117405,-0.93614769,-4.1199841,0.5597344,-0.23624182,-0.79428399,0
2.7968011,-0.61263323,-4.0781779,0.5597344,-0.23624182,-0.79428399,0
3.306623,-1.1364398,-3.6644306,0.5597344,-0.23624182,-0.79428399,0
3.2432559,-1.0799594,-3.6007431,0.5597344,-0.23624182,-0.79428399,0
-1.9261075,1.6160727,3.4907908,0.59400827,0.78270829,0.18580055,0
3.184233,-0.7095089,-3.8674276,0.5597344,-0.23624182,-0.79428399,0
-2.6108818,1.1411419,4.1299028,-0.5597344,0.23624182,0.79428399,0
2.4616113,-0.46015596,-2.5124965,0.72064507,0.6119718,0.32582372,0
-2.4245512,0.81087875,4.3748908,-0.5597344,0.23624182,0.79428399,0
2.4780471,-1.6454272,-4.0854378,0.5597344,-0.23624182,-0.79428399,0
1.9781716,-1.6319196,-2.72457,-0.16108447,-0.97123736,0.17535585,0
2.3586509,-0.66732931,-4.2161593,-0.451738,0.71657062,-0.53146899,0
-2.8793676,0.39960003,4.1955323,-0.5597344,0.23624182,0.79428399,0
2.1191266,-0.73588085,-4.0608363,-0.61015785,0.53107333,-0.58793586,0
2.5238688,-0.22081041,-3.1101482,0.40935051,0.91221577,0.017152667,0
0.16386831,0.78933364,-0.15857363,0.11183363,0.97126859,-0.21007228,0
-3.1224144,0.94079447,3.7118969,-0.5597344,0.23624182,0.79428399,0
0.16941395,0.50171375,0.96903765,0.80622715,0.37682161,0.45607373,0
-1.9319457,0.63760042,3.7262516,0.62581992,-0.50777376,0.5920431,0
0.027811795,0.60134262,-0.62880707,-0.29536259,0.83867419,-0.45758757,0
-2.8114147,1.2527742,4.0662003,-0.5597344,0.23624182,0.79428399,0
-2.4353347,1.59307,4.2277193,-0.5597344,0.23624182,0.79428399,0
1.1790007,0.28687525,-0.68225616,0.66377622,0.70162463,0.25908291,0
-0.8874253,-0.14532864,0.074117348,-0.82511389,-0.24761523,-0.5078128,0
2.3025017,-0.93491459,-4.3684301,0.5597344,-0.23624182,-0.79428399,0
2.3544381,-1.0482235,-4.3087249,0.5597344,-0.23624182,-0.79428399,0
-2.1640413,0.67227125,4.1751108,0.63633502,-0.49145597,0.59459972,0
-2.9313781,1.5077062,3.8066907,-0.5597344,0.23624182,0.79428399,0
-2.7993431,0.47600174,4.0609136,-0.5597344,0.23624182,0.79428399,0
-3.2790415,1.3693209,3.6055565,-0.5597344,0.23624182,0.79428399,0
3.1494536,-0.98550606,-3.6954827,0.5597344,-0.23624182,-0.79428399,0
2.4380212,-1.0806911,-2.3387411,0.68887091,-0.40011454,0.60445452,0
-0.69803864,0.9719913,0.68555439,0.035821855,0.96450424,-0.26162624,0
0.34535092,-0.84435368,-0.24760926,0.081733584,-0.93808973,0.33661157,0
-2.4392354,0.95616579,4.3199363,-0.5597344,0.23624182,0.79428399,0
-2.367728,1.7770009,4.0220275,-0.5597344,0.23624182,0.79428399,0
-1.6932213,1.5870779,3.1516154,0.59413123,0.78258562,0.18592381,0
3.0125513,-1.7483706,-3.6760774,0.5597344,-0.23624182,-0.79428399,0
2.436403,-1.3178711,-4.1738133,0.5597344,-0.23624182,-0.79428399,0
-1.1763892,0.73392028,0.54469401,-0.53659207,0.62708706,-0.56465095,0
-1.6459768,0.96709466,1.4870725,-0.47377366,0.69516635,-0.54063123,0
-1.2134783,1.1348574,1.4657035,-0.11317092,0.92772907,-0.35568398,0
-2.4280965,1.5083714,4.1089602,-0.5597344,0.23624182,0.79428399,0
2.440304,-0.82861376,-4.4235792,0.5597344,-0.23624182,-0.79428399,0
-3.1793897,1.1503048,3.7282019,-0.5597344,0.23624182,0.79428399,0
-2.9346826,0.69806004,3.9861233,-0.5597344,0.23624182,0.79428399,0
-2.033062,1.333648,2.2514033,-0.32543522,0.81882793,-0.47287703,0
2.5795364,-1.347589,-4.0805736,0.5597344,-0.23624182,-0.79428399,0
2.2149196,-0.99405479,-4.4778633,0.5597344,-0.23624182,-0.79428399,0
3.1326449,-1.5233316,-3.5208113,0.5597344,-0.23624182,-0.79428399,0
3.1502244,-1.6317048,-3.4699304,0.49795765,-0.67025822,0.55026543,0
-0.42684251,-0.52597427,-0.20458096,-0.6105693,-0.7656222,-0.20255315,0
2.6991246,-0.58521748,-4.1095667,0.5597344,-0.23624182,-0.79428399,0
-3.3436971,1.2156529,3.4164171,-0.82495946,-0.068227597,-0.56105876,0
2.3378544,-0.8801446,-4.4612794,0.5597344,-0.23624182,-0.79428399,0
0.41438305,-0.87053365,-0.42374265,-0.15098029,-0.97153229,0.18256396,0
-3.4636891,1.333756,3.5467165,-0.5597344,0.23624182,0.79428399,0
-2.4431427,1.6903644,3.4744298,0.12407857,0.97158968,-0.20153868,0
-3.0179629,1.271944,3.9138389,-0.5597344,0.23624182,0.79428399,0
0.46046469,-0.97195637,-1.3837104,-0.5157389,-0.84955591,-0.11076164,0
0.75072086,-1.191584,-1.9573814,-0.53644711,-0.83385742,-0.13002396,0
1.1067402,-1.0622499,-0.8965016,0.21650666,-0.88351834,0.4153555,0
-2.2513831,1.5657296,4.2272339,-0.5597344,0.23624182,0.79428399,0
-2.5218792,1.4425712,4.1134253,-0.5597344,0.23624182,0.79428399,0
0.085301936,-0.76291573,0.20442826,0.072562516,-0.94084758,0.33096892,0
-3.2335577,1.0965853,3.5948296,-0.5597344,0.23624182,0.79428399,0
2.4862776,-0.35618496,-3.507509,0.18527535,0.96991527,-0.15791523,0
3.4246385,-1.211647,-3.4487031,0.5597344,-0.23624182,-0.79428399,0
-0.14355446,0.21436763,1.3551807,0.79182333,-0.13017161,0.59671694,0
-2.1984832,0.28283048,1.7922289,-0.79759121,-0.41363376,-0.43903908,0
-3.0527327,1.6825399,3.6383538,-0.5597344,0.23624182,0.79428399,0
-2.3913648,1.1685529,4.3584247,-0.5597344,0.23624182,0.79428399,0
2.6422613,-1.5018423,-2.811511,0.422768,-0.74296993,0.51890552,0
-2.453892,0.9731946,4.3314033,-0.5597344,0.23624182,0.79428399,0
3.3336415,-1.2045245,-3.6743574,0.5597344,-0.23624182,-0.79428399,0
1.0963633,-1.3334665,-2.0864284,-0.49820474,-0.86186749,-0.09474349,0
2.5789955,-1.4623847,-4.1492176,0.5597344,-0.23624182,-0.79428399,0
-2.8467596,1.6374927,3.7123506,-0.5597344,0.23624182,0.79428399,0
2.2981019,-1.059773,-4.3169756,0.5597344,-0.23624182,-0.79428399,0
-2.0828013,0.54766846,3.7836571,0.51261044,-0.65439665,0.55587375,0
-2.9965756,0.63080978,3.0333669,-0.77115977,-0.49935231,-0.39491767,0
-2.5379326,0.9651227,4.1118402,-0.5597344,0.23624182,0.79428399,0
2.8342173,-0.64151573,-4.0379963,0.5597344,-0.23624182,-0.79428399,0
1.2824304,0.27698994,-1.2083902,0.41154242,0.91119242,0.019001663,0
3.1356626,-1.5710154,-3.5738583,0.5597344,-0.23624182,-0.79428399,0
2.4589484,-0.3453126,-2.8779039,0.50812143,0.85501111,0.10377115,0
-2.7919152,1.500834,3.8262653,-0.5597344,0.23624182,0.79428399,0
-2.5525832,0.81295395,4.2864032,-0.5597344,0.23624182,0.79428399,0
-1.6269023,-0.0049815178,1.2357414,-0.69847548,-0.65026438,-0.29881144,0
1.814213,-0.055150986,-1.8896468,0.52097124,0.84571093,0.1155926,0
-1.626392,0.24521911,1.0590106,-0.82832015,-0.18743286,-0.5279721,0
2.5374265,-0.90776396,-4.174304,0.5597344,-0.23624182,-0.79428399,0
-0.52120882,0.40233278,2.0516171,0.81537783,-0.013989458,0.57876021,0
3.069279,-1.2496395,-3.6951156,0.5597344,-0.23624182,-0.79428399,0
-1.8521739,0.37533808,3.4716632,0.42275268,-0.74298334,0.51889879,0
-3.147608,1.3464684,3.7574036,-0.5597344,0.23624182,0.79428399,0
-1.9820101,0.9858489,1.7339616,-0.7046746,0.36866146,-0.6062364,0
1.9340079,-0.60722876,-1.2392406,0.78886688,-0.14159292,0.59803057,0
-0.046948284,0.72426498,0.44846034,0.35287005,0.93520743,-0.029487669,0
-2.8652434,1.2815781,3.9497175,-0.5597344,0.23624182,0.79428399,0
-0.6185022,0.42747393,-0.14047483,-0.67256427,0.43043622,-0.60198164,0
2.6854451,-0.85147572,-4.178884,0.5597344,-0.23624182,-0.79428399,0
1.9216361,-1.0107388,-4.1092706,-0.80620015,0.066458903,-0.58789843,0
-1.699966,1.5606215,2.6497974,0.2116847,0.96746391,-0.13857543,0
2.7566228,-1.2816892,-3.9940152,0.5597344,-0.23624182,-0.79428399,0
3.1016591,-1.217133,-3.8602953,0.5597344,-0.23624182,-0.79428399,0
-3.4107912,1.2333097,3.586967,-0.7760092,0.18681513,-0.60242009,0
3.3865979,-1.2118869,-3.4490671,0.5597344,-0.23624182,-0.79428399,0
-2.348563,1.7036762,3.7891126,0.4822703,0.87232482,0.080404103,0
0.14563239,-0.67553222,0.32322896,0.31187576,-0.82797265,0.46604156,0
-0.10833198,0.38741392,-0.74278355,-0.48310623,0.68573588,-0.54440308,0
2.698873,-1.2220755,-4.047617,0.5597344,-0.23624182,-0.79428399,0
2.8727784,-1.5940375,-3.7676182,0.5597344,-0.23624182,-0.79428399,0
2.8481081,-0.89620733,-4.1363945,0.5597344,-0.23624182,-0.79428399,0
-0.76216507,0.97802281,0.6222015,-0.06449008,0.94317681,-0.32597291,0
3.2950428,-0.74197102,-3.7914689,0.5597344,-0.23624182,-0.79428399,0
-2.3550453,1.6414585,4.2531767,-0.5597344,0.23624182,0.79428399,0
3.0823364,-0.74178171,-3.9921503,0.5597344,-0.23624182,-0.79428399,0
1.4116025,-1.5227938,-2.4435885,-0.44292927,-0.89538485,-0.045821667,0
3.1183517,-1.4601274,-3.6037054,0.5597344,-0.23624182,-0.79428399,0
-2.1804483,0.73048449,4.0534072,0.60350323,-0.54063207,0.58608943,0
-1.1229994,1.2767866,1.3264947,-0.014062822,0.95565617,-0.29414845,0
-0.4620662,0.937837,1.5084283,0.68345404,0.67362714,0.28127712,0
2.7169328,-0.4675293,-4.1668248,0.5597344,-0.23624182,-0.79428399,0
-2.802814,1.9397035,3.8352787,-0.5597344,0.23624182,0.79428399,0
-2.6981275,1.0139112,4.1244636,-0.5597344,0.23624182,0.79428399,0
-3.2698994,1.4229813,3.5236521,-0.5597344,0.23624182,0.79428399,0
-1.1745572,0.48165333,0.54519951,-0.76814067,0.21169095,-0.6042738,0
-0.33789414,0.52762604,-0.38443276,-0.46966779,0.69924527,-0.53895104,0
1.9958956,-1.61375,-3.2318449,-0.33494323,-0.94121462,0.043907404,0
-1.7567042,0.062264442,1.7686806,-0.57912582,-0.79709512,-0.17103386,0
-3.0019941,0.57735157,4.0851693,-0.5597344,0.23624182,0.79428399,0
0.67791194,-1.1660634,-1.3817096,-0.37610757,-0.92651618,0.010527134,0
-3.0081077,0.51443672,4.1376619,-0.5597344,0.23624182,0.79428399,0
3.1121929,-1.5213828,-3.4282095,0.65029436,-0.46887773,0.59772152,0
-3.2393377,1.1593575,3.6895676,-0.5597344,0.23624182,0.79428399,0
0.49564803,0.27439091,0.6007843,0.81997126,0.29642913,0.48967025,0
1.3417736,-0.44797254,-0.71710491,0.73173326,-0.30895555,0.60754657,0
-2.6744339,1.2108316,4.1056957,-0.5597344,0.23624182,0.79428399,0
0.76883131,-0.034046888,-1.9518859,-0.51572627,0.65094519,-0.55704284,0
3.2700253,-1.0644751,-3.6533849,0.5597344,-0.23624182,-0.79428399,0
2.9176135,-0.59686852,-4.0779657,0.5597344,-0.23624182,-0.79428399,0
3.4769418,-1.1741238,-3.6143219,0.5597344,-0.23624182,-0.79428399,0
0.44010302,0.18434703,-1.6336862,-0.51883197,0.64747691,-0.55819982,0
-3.3913746,1.1168203,3.6551661,-0.5597344,0.23624182,0.79428399,0
-2.3167162,1.5556803,2.4512153,-0.36302894,0.79172367,-0.49130785,0
3.3608902,-0.92800474,-3.6093297,0.5597344,-0.23624182,-0.79428399,0
-0.93385953,1.2537756,2.1449342,0.63365477,0.73970664,0.22652948,0
0.65044576,-0.86380315,-0.63493299,0.10183007,-0.93162912,0.34885198,0
-1.3276538,-0.29970932,1.476694,-0.4340694,-0.90006977,-0.038184702,0
-1.6085877,1.4805241,2.767566,0.37007827,0.92887163,-0.015476525,0
-0.063657224,-0.56265342,-0.82608265,-0.75913274,-0.5305286,-0.37716949,0
-0.83779216,0.65095764,0.10304248,-0.58210313,0.57010323,-0.5797742,0
3.3829305,-1.3908191,-3.5581903,0.5597344,-0.23624182,-0.79428399,0
2.9866226,-1.3550448,-3.6639988,0.5597344,-0.23624182,-0.79428399,0
-1.3853951,1.0754988,3.2180729,0.82458675,0.25384352,0.50558883,0
-3.1674514,1.1279693,3.7743192,-0.5597344,0.23624182,0.79428399,0
2.494452,-0.95593452,-4.2631421,0.5597344,-0.23624182,-0.79428399,0
2.8536625,-1.7501998,-3.8493373,0.5597344,-0.23624182,-0.79428399,0
-2.6150188,0.73821115,4.3243966,-0.5597344,0.23624182,0.79428399,0
-2.5861204,0.98355436,4.1824708,-0.5597344,0.23624182,0.79428399,0
2.3176553,-0.62208605,-4.3702283,0.5597344,-0.23624182,-0.79428399,0
-2.8373117,1.2535019,3.9589076,-0.5597344,0.23624182,0.79428399,0
1.7061535,-1.4250693,-3.0290213,-0.57865822,-0.79753309,-0.17057407,0
-2.930218,0.43161964,4.0434585,-0.5597344,0.23624182,0.79428399,0
-1.901553,1.2031951,3.9813166,0.82652116,0.090142272,0.55564129,0
-0.93849528,1.1640997,2.5285375,0.71905351,0.6148935,0.32383317,0
-2.4169326,0.93574333,4.4209847,-0.5597344,0.23624182,0.79428399,0
0.020605534,0.0058977604,1.3055207,0.7372362,-0.29571036,0.60748506,0
-3.129468,1.4331765,3.7525444,-0.5597344,0.23624182,0.79428399,0
0.080756128,-0.43331397,0.61983144,0.35775971,-0.79568201,0.48877198,0
-1.7183671,0.5761466,3.4330399,0.61646914,-0.52182323,0.58963227,0
-2.4966316,1.6306186,3.9765642,-0.5597344,0.23624182,0.79428399,0
-3.1530449,1.3839006,3.5565653,-0.5597344,0.23624182,0.79428399,0
-1.6158137,1.3518806,3.3086605,0.70526046,0.6390661,0.30692351,0
0.95443916,0.0063009262,-2.2672677,-0.36493152,0.79028136,-0.49221978,0
-3.0249741,0.73108482,3.9861748,-0.5597344,0.23624182,0.79428399,0
-0.39520782,-0.47458971,0.92251527,0.20894897,-0.88729554,0.41115296,0
-2.2069821,0.65740919,1.6919444,-0.82292992,-0.045824274,-0.56629193,0
-2.5330691,0.4888773,4.2529802,-0.5597344,0.23624182,0.79428399,0
-2.5776691,0.49018216,2.6004894,-0.76760077,-0.50895751,-0.38955283,0
2.8031893,-1.7290092,-3.7965884,0.5597344,-0.23624182,-0.79428399,0
-3.1067605,1.5647302,3.7592573,-0.5597344,0.23624182,0.79428399,0
-0.63199174,-0.50218922,0.36831063,-0.51200902,-0.85224777,-0.10733265,0
0.93613899,-1.2228663,-1.9067079,-0.5339886,-0.8357898,-0.1277166,0
-0.58747572,-0.1959945,1.5211108,0.28026074,-0.84805226,0.44973457,0
-0.79723257,1.2012134,1.1221979,0.10927099,0.97117418,-0.21185011,0
-2.5595744,0.62629294,2.5003135,-0.81451517,-0.33326113,-0.47487044,0
-0.76939529,-0.19003457,-0.17531386,-0.82795131,-0.19939971,-0.52415305,0
2.6272233,-1.6770124,-3.9624166,0.5597344,-0.23624182,-0.79428399,0
2.2148814,-0.19402409,-3.0480297,0.17845976,0.97037631,-0.16285521,0
2.9577129,-1.3826876,-3.7375925,0.5597344,-0.23624182,-0.79428399,0
1.933023,-1.3544159,-4.1026654,-0.82459939,-0.25369915,-0.50564075,0
3.0438154,-1.2759013,-3.6505008,0.5597344,-0.23624182,-0.79428399,0
-3.0748119,1.3989921,3.6884141,-0.5597344,0.23624182,0.79428399,0
0.22643378,-0.89515436,-0.60774904,-0.27588722,-0.95694798,0.090203881,0
2.8455825,-1.6297736,-3.7086954,0.5597344,-0.23624182,-0.79428399,0
-3.0144563,1.0799046,3.9212432,-0.5597344,0.23624182,0.79428399,0
-3.1694291,0.82853508,3.7219491,-0.5597344,0.23624182,0.79428399,0
-2.2646968,1.1325469,4.3194184,-0.5597344,0.23624182,0.79428399,0
2.7347193,-0.44227219,-4.2022524,0.5597344,-0.23624182,-0.79428399,0
-1.0187198,1.2245601,1.324221,0.14671594,0.97161186,-0.18559277,0
2.9150357,-1.2796221,-3.9540091,0.5597344,-0.23624182,-0.79428399,0
-2.34148,1.5798702,4.1126776,-0.5597344,0.23624182,0.79428399,0
2.597168,-1.8388453,-3.8292561,0.5597344,-0.23624182,-0.79428399,0
2.5671067,-1.0112157,-4.152112,0.5597344,-0.23624182,-0.79428399,0
0.20782533,-0.2139883,-1.644726,-0.75548273,0.24837388,-0.60626423,0
2.7002146,-1.5730276,-3.9436903,0.5597344,-0.23624182,-0.79428399,0
3.2185011,-1.2817225,-3.552711,0.5597344,-0.23624182,-0.79428399,0
3.3126669,-1.0869069,-3.534483,0.5597344,-0.23624182,-0.79428399,0
2.1364353,-0.55148149,-1.9047536,0.82559443,0.24150982,0.50996745,0
1.247297,-0.95425439,-3.1905987,-0.8286683,-0.15670441,-0.53735697,0
-1.9544008,0.64757061,1.3772465,-0.79941511,0.098505229,-0.59264851,0
-2.5757656,1.1794906,4.115098,-0.5597344,0.23624182,0.79428399,0
-3.100399,1.5310392,3.5434275,-0.5597344,0.23624182,0.79428399,0
0.3577525,-0.94367778,-0.85255122,-0.30004168,-0.9512437,0.071485579,0
-0.2244561,-0.80198181,-0.040460765,-0.38803798,-0.92164308,0.00067025423,0
-2.7008207,1.6121116,3.7915926,-0.5597344,0.23624182,0.79428399,0
-2.1742656,0.89353132,4.4107571,0.73864853,-0.29224098,0.60744846,0
2.8060062,-1.6837192,-3.7169852,0.5597344,-0.23624182,-0.79428399,0
-2.8901713,1.3219981,3.8209431,-0.5597344,0.23624182,0.79428399,0
2.8360422,-1.2034717,-3.9927495,0.5597344,-0.23624182,-0.79428399,0
0.37507808,-0.36143842,0.40109143,0.55332494,-0.60696679,0.57045835,0
3.2442381,-1.0926113,-3.7596378,0.5597344,-0.23624182,-0.79428399,0
-1.2120185,-0.3159163,0.88453853,-0.5890277,-0.7876212,-0.18082952,0
3.0649471,-0.85317659,-3.830426,0.5597344,-0.23624182,-0.79428399,0
-2.7741616,1.4882269,3.9783976,-0.5597344,0.23624182,0.79428399,0
2.6729641,-0.69797373,-4.180562,0.5597344,-0.23624182,-0.79428399,0
-2.1081369,0.13973045,2.781045,-0.37377581,-0.92743552,0.012443662,0
-2.8261349,0.68922377,4.0729542,-0.5597344,0.23624182,0.79428399,0
-2.5207944,0.90193987,4.1996722,-0.5597344,0.23624182,0.79428399,0
-2.3072631,1.3376222,4.3643284,-0.5597344,0.23624182,0.79428399,0
-3.1589208,1.1677628,3.8150485,-0.5597344,0.23624182,0.79428399,0
0.97944438,-0.17548561,-2.4484749,-0.57131082,0.58428043,-0.5763855,0
-0.87312311,0.43220279,0.15868574,-0.70935464,0.3589049,-0.60663259,0
-2.6477733,1.6944108,3.9524193,-0.5597344,0.23624182,0.79428399,0
-2.4000132,1.5598979,4.1023769,-0.5597344,0.23624182,0.79428399,0
-1.2588611,0.16203225,0.45499051,-0.82662743,-0.091887876,-0.555197,0
-0.7435171,0.60992289,2.3024461,0.82837766,0.18505897,0.52871877,0
-3.3275099,0.81659269,3.7348652,-0.5597344,0.23624182,0.79428399,0
-2.2144933,0.46983576,3.7294359,0.34654492,-0.80393147,0.48332253,0
-0.16550097,0.0082945824,1.3127953,0.65230489,-0.46553439,0.59814394,0
2.6651378,-0.92812586,-4.0461502,0.5597344,-0.23624182,-0.79428399,0
2.9184146,-1.819252,-3.7774589,0.5597344,-0.23624182,-0.79428399,0
3.2389221,-1.1222692,-3.5606189,0.5597344,-0.23624182,-0.79428399,0
0.62684792,0.35893416,-0.99024224,0.05388099,0.96684945,-0.24959737,0
-1.5227917,1.3482316,1.7985004,-0.13364398,0.92022008,-0.36787796,0
3.2846091,-1.6394925,-3.6058993,0.5597344,-0.23624182,-0.79428399,0
1.6269611,-1.605159,-2.7650566,-0.42180431,-0.90626365,-0.027699232,0
-2.5652707,0.68654156,4.4027343,-0.5597344,0.23624182,0.79428399,0
2.6462691,-1.2525167,-2.5015314,0.63015062,-0.50112182,0.59311646,0
-0.5082593,0.95696878,1.716118,0.73939586,0.57515395,0.3499881,0
-0.28051102,0.47804797,1.8791193,0.82463896,0.064344235,0.56198794,0
-2.9273069,0.5627532,4.1627045,-0.5597344,0.23624182,0.79428399,0
-0.045670152,-0.40872812,0.85430217,0.43366969,-0.73325926,0.52369964,0
2.7743731,-0.28919554,-3.5390441,0.34350711,0.93841928,-0.037041008,0
1.8029419,-1.4952407,-3.2219434,-0.60776913,-0.76859498,-0.19969559,0
-2.8789153,0.38568401,4.2617283,-0.5597344,0.23624182,0.79428399,0
-1.3619683,0.93137014,1.1778691,-0.46162951,0.70710939,-0.53562546,0
-2.6214349,0.85963726,4.3055716,-0.5597344,0.23624182,0.79428399,0
-2.4827561,0.58595991,4.3147683,-0.5597344,0.23624182,0.79428399,0
-0.12909687,0.59432596,1.3275855,0.81328332,0.34047049,0.47185805,0
-3.1262097,1.7049751,3.4813697,-0.5597344,0.23624182,0.79428399,0
-1.3831348,1.1034214,1.2238941,-0.39039189,0.77029753,-0.50421798,0
3.2189615,-1.5916057,-3.4248257,0.64609718,-0.47578117,0.59681708,0
-2.6684418,1.423667,4.0492916,-0.5597344,0.23624182,0.79428399,0
-0.3317301,0.67553461,-0.31024319,-0.40860689,0.75519544,-0.51256239,0
2.9667819,-1.0278258,-3.9065535,0.5597344,-0.23624182,-0.79428399,0
-0.37904608,0.17039955,-0.53607035,-0.72401273,0.32685569,-0.60742986,0
-2.743634,1.4143476,3.9800878,-0.5597344,0.23624182,0.79428399,0
1.4483054,-1.0160222,-3.3231046,-0.82866031,-0.15447941,-0.5380131,0
2.8929639,-1.2056298,-3.8732734,0.5597344,-0.23624182,-0.79428399,0
-0.69157386,0.20493582,-0.43618667,-0.77295119,0.19669889,-0.60320479,0
1.5994011,-1.5191162,-3.0437255,-0.50058705,-0.86024535,-0.096904755,0
2.6637545,-1.2014942,-4.0483756,0.5597344,-0.23624182,-0.79428399,0
3.0540032,-0.72225475,-3.9843163,0.5597344,-0.23624182,-0.79428399,0
2.9885216,-1.8927593,-3.7440157,0.5597344,-0.23624182,-0.79428399,0
2.1995966,-1.0122952,-1.7666597,0.67320496,-0.42928189,0.60208982,0
2.5475817,-1.4828176,-3.9456935,0.5597344,-0.23624182,-0.79428399,0
-1.1069388,0.15336692,0.2591781,-0.82810479,-0.12400474,-0.5466857,0
1.1258156,0.22213078,-0.59354949,0.75300086,0.54516047,0.36849654,0
-0.64382517,0.59714532,-0.1138711,-0.45253426,0.71581769,-0.53180611,0
0.29583228,0.69780397,0.53838569,0.60675955,0.76965821,0.198668,0
-3.1820712,1.5771718,3.523242,-0.5597344,0.23624182,0.79428399,0
0.71585107,0.54583037,-0.13005197,0.67339456,0.68828177,0.26982951,0
-3.3402619,1.1653142,3.5089355,-0.5597344,0.23624182,0.79428399,0
-0.26075798,-0.39404058,0.90157372,0.27341831,-0.85217518,0.44613895,0
-2.7853692,1.5168157,3.8971944,-0.5597344,0.23624182,0.79428399,0
3.1528504,-0.90222836,-3.722964,0.5597344,-0.23624182,-0.79428399,0
2.6911843,-0.28517962,-3.0127125,0.6328963,0.74060011,0.22572935,0
-1.6865034,0.87076592,1.3656369,-0.60602587,0.53703141,-0.58679622,0
-1.75217,1.4099028,2.0541344,-0.19683689,0.89316583,-0.40436351,0
0.12134063,-0.79207689,-1.0540233,-0.67327398,-0.6884529,-0.26969361,0
2.3934999,-0.25145531,-3.2283397,0.28883317,0.95401359,-0.080208123,0
2.7353075,-0.38744164,-4.2141528,0.5597344,-0.23624182,-0.79428399,0
-0.30262291,-0.51291704,-0.60607839,-0.7669124,-0.51077616,-0.3885268,0
2.9272211,-1.5343499,-3.6591809,0.5597344,-0.23624182,-0.79428399,0
-0.50496089,-0.6386894,-0.2046957,-0.59962755,-0.77704269,-0.19144559,0
2.1277297,-0.24847364,-2.1321628,0.68222988,0.67545104,0.27987194,0
-1.813935,0.11712074,3.2440548,0.25793797,-0.86121702,0.43791917,0
2.5591273,-1.8267479,-4.0377817,0.5597344,-0.23624182,-0.79428399,0
-2.5955648,0.72041273,4.2592726,-0.5597344,0.23624182,0.79428399,0
-2.4038367,0.21152401,3.5908506,-0.044994712,-0.96575254,0.25553328,0
2.1361728,-0.57499123,-4.0615063,-0.47236043,0.69657505,-0.54005432,0
-3.0210657,0.98289108,3.8490498,-0.5597344,0.23624182,0.79428399,0
1.6373824,0.13810349,-1.3912592,0.70037341,0.64717489,0.30106783,0
2.2343924,-1.2279997,-4.3892784,0.5597344,-0.23624182,-0.79428399,0
1.6296861,-0.86734104,-3.617661,-0.81894529,-0.011271434,-0.57376087,0
1.6079328,-0.49062467,-0.89065564,0.78391433,-0.15979314,0.59995377,0
-2.0698392,1.6686518,3.6541886,0.58388513,0.79258931,0.1757279,0
2.2595725,-1.4597154,-2.5433142,0.24860245,-0.86648083,0.43290615,0
0.016204774,-0.55753613,0.58758861,0.35587168,-0.79708743,0.48785949,0
-1.1868696,0.46992469,3.0344052,0.7461977,-0.27317178,0.60709655,0
-0.44880927,-0.58701402,0.20486811,-0.36743155,-0.92988312,0.017642558,0
0.55222994,-0.7490164,-1.9182435,-0.76975811,-0.50317627,-0.39279258,0
3.0617957,-1.6071706,-3.7167854,0.5597344,-0.23624182,-0.79428399,0
2.3967783,-1.7309809,-3.3942833,-0.17355132,-0.9706651,0.16640025,0
-0.36062738,0.42314923,2.0046613,0.80397594,-0.077441521,0.58959764,0
-0.023610663,-0.27227879,-1.3976625,-0.82344913,-0.05112078,-0.56508249,0
3.0265012,-1.1962743,-2.9701624,0.79336983,-0.12401104,0.5959745,0
1.9995604,-0.56213856,-3.9893219,-0.63667059,0.49092576,-0.59467852,0
2.2986877,-0.77378893,-1.8791199,0.79365504,-0.12285988,0.59583312,0
2.5380294,-1.6148438,-3.9129286,0.5597344,-0.23624182,-0.79428399,0
-3.1759737,0.76044273,3.8337061,-0.5597344,0.23624182,0.79428399,0
2.8917351,-0.95744801,-4.0724998,0.5597344,-0.23624182,-0.79428399,0
-2.4619343,0.16340828,2.8489664,-0.55871141,-0.81546617,-0.15118378,0
3.1282804,-1.5650082,-3.43448,0.51912451,-0.64714873,0.55830842,0
3.1659062,-1.0705318,-3.7198677,0.5597344,-0.23624182,-0.79428399,0
-2.4189227,0.79852486,4.3049946,-0.5597344,0.23624182,0.79428399,0
-2.5017853,1.1949682,4.1292033,-0.5597344,0.23624182,0.79428399,0
0.4609952,0.58498615,0.044985294,0.57800031,0.79814804,0.16992754,0
2.4976323,-1.9521523,-4.028357,0.5597344,-0.23624182,-0.79428399,0
-2.2135882,0.74919844,4.1293354,0.62554848,-0.50818771,0.59197491,0
1.8081588,-1.4637372,-3.6748984,-0.73559892,-0.58299464,-0.3449803,0
-0.87273467,0.63275349,0.17500526,-0.63534987,0.49300909,-0.59436744,0
3.0054879,-0.79715109,-3.9573481,0.5597344,-0.23624182,-0.79428399,0
-2.3063328,0.95426464,4.3624234,-0.5597344,0.23624182,0.79428399,0
0.96838462,0.43154657,-0.64673913,0.5003081,0.86043608,0.096651435,0
0.71933544,-1.029511,-2.1019552,-0.77380455,-0.49198246,-0.39897341,0
-3.4291124,1.302382,3.5991766,-0.5597344,0.23624182,0.79428399,0
2.9543333,-1.6836739,-3.6569448,0.5597344,-0.23624182,-0.79428399,0
-2.5924854,0.94100046,4.0749135,-0.5597344,0.23624182,0.79428399,0
-2.8167527,1.4330475,2.776042,-0.59711117,0.54963273,-0.58426189,0
2.8556108,-1.4940901,-3.7447805,0.5597344,-0.23624182,-0.79428399,0
-2.9803898,1.3324108,3.7985373,-0.5597344,0.23624182,0.79428399,0
-2.6738288,1.4382091,3.9616401,-0.5597344,0.23624182,0.79428399,0
-2.7493358,0.49529791,4.1681986,-0.5597344,0.23624182,0.79428399,0
-2.6514351,1.0158472,4.0481219,-0.5597344,0.23624182,0.79428399,0
2.7399359,-1.0120153,-4.1706715,0.5597344,-0.23624182,-0.79428399,0
-2.6959856,0.71951866,4.2735324,-0.5597344,0.23624182,0.79428399,0
-3.0383794,0.58418608,4.0473127,-0.5597344,0.23624182,0.79428399,0
3.0756562,-0.63751793,-4.0370536,0.5597344,-0.23624182,-0.79428399,0
1.3904572,0.074645996,-2.3579078,-0.03908819,0.94990838,-0.31007433,0
2.7571161,-0.90208721,-4.040462,0.5597344,-0.23624182,-0.79428399,0
3.3079846,-1.1920409,-3.6343534,0.5597344,-0.23624182,-0.79428399,0
-2.6899383,0.53584957,4.2668104,-0.5597344,0.23624182,0.79428399,0
2.9205663,-0.34734297,-4.1339006,0.5597344,-0.23624182,-0.79428399,0
-2.5696127,0.48523521,3.9855571,0.10867727,-0.92929643,0.35298342,0
-2.2000406,1.3787301,2.2443209,-0.46196556,0.70678365,-0.53576541,0
0.4827432,-1.0008907,-0.77390969,-0.10391694,-0.97094655,0.21555543,0
-2.677979,1.4062471,3.926415,-0.5597344,0.23624182,0.79428399,0
2.9273124,-1.2734823,-3.8598249,0.5597344,-0.23624182,-0.79428399,0
-1.1498125,0.27616358,0.42059574,-0.78260988,0.16441253,-0.60040843,0
-2.5132284,0.92354059,4.2936401,-0.5597344,0.23624182,0.79428399,0
-2.7250414,0.59132767,4.1114378,-0.5597344,0.23624182,0.79428399,0
-2.4215357,1.4374652,4.2678957,-0.5597344,0.23624182,0.79428399,0
3.1328406,-1.210124,-3.6650774,0.5597344,-0.23624182,-0.79428399,0
