-2.7743983,-0.070245028,-1.3748281,-0.77575672,-0.16588712,-0.60883754,0
2.4938765,0.36066103,1.5291798,0.77575672,0.16588712,0.60883754,0
0.013084531,-0.018701911,-0.93505043,0.5756532,0.20921099,-0.79047734,0
2.551882,0.13001585,1.775305,0.77575672,0.16588712,0.60883754,0
-0.50054032,0.15701097,0.54048455,-0.62949783,0.27067909,0.72833073,0
2.4272358,0.057629108,1.6943986,0.77575672,0.16588712,0.60883754,0
-2.0627251,-0.53899598,-2.0911698,-0.77575672,-0.16588712,-0.60883754,0
2.0148773,0.1072557,2.3209398,0.77575672,0.16588712,0.60883754,0
-0.90980095,-0.97220337,-0.55101305,0.023204863,-0.97167468,0.23518072,0
0.83340299,0.17143628,-0.38929015,0.60267955,0.091188297,-0.79275614,0
-1.2378972,0.0042791367,-1.8240443,0.43473279,0.55884671,-0.70618552,0
2.2476325,0.98460627,1.945099,0.77575672,0.16588712,0.60883754,0
-2.066834,-0.15831745,-0.6873064,-0.63079172,0.17721942,0.75544381,0
-2.3458385,-0.28281593,-1.7263684,-0.77575672,-0.16588712,-0.60883754,0
0.11131793,0.50446177,-0.49703616,0.36711305,0.66610795,-0.64925218,0
2.4345503,0.3904984,1.831193,0.77575672,0.16588712,0.60883754,0
2.7246227,0.15020418,1.5662913,0.77575672,0.16588712,0.60883754,0
-1.4383372,-1.1563144,-1.247162,0.24052584,-0.96972269,-0.042252988,0
-0.11167812,-0.72437561,-0.069213733,0.032142341,-0.97396314,0.22441652,0
-2.2955704,-0.18336248,-1.8713502,-0.77575672,-0.16588712,-0.60883754,0
-0.0040898919,-0.69982433,-0.53491765,0.39469463,-0.88035631,-0.26303804,0
1.4056726,1.0011003,1.3656092,-0.26349252,0.96184492,0.073662639,0
-2.4002621,-0.69220662,-1.5534064,-0.77575672,-0.16588712,-0.60883754,0
2.1218152,1.1695609,1.9839365,0.77575672,0.16588712,0.60883754,0
-2.4592834,0.27072501,-1.9595723,-0.77575672,-0.16588712,-0.60883754,0
2.4177725,-0.063283205,1.0780475,0.53389794,-0.68686259,-0.49312574,0
-0.47342825,-0.69127953,-1.1473547,0.57960606,-0.56881565,-0.58352882,0
1.2762682,1.0568079,0.76229054,-0.018371165,0.97035629,-0.2409803,0
2.5590444,1.0619116,1.3585346,0.77575672,0.16588712,0.60883754,0
-1.1921158,0.46840084,-1.2738303,0.08747685,0.92724246,-0.36410075,0
2.6669121,0.31960034,1.4315178,0.77575672,0.16588712,0.60883754,0
1.472636,-0.30725813,0.49069986,0.55461764,-0.63945651,-0.53244233,0
2.6183295,0.26635027,1.3946044,0.77575672,0.16588712,0.60883754,0
-2.7273395,-0.85300756,-1.3378837,-0.77575672,-0.16588712,-0.60883754,0
0.088994861,0.89495409,0.24930587,-0.21039343,0.97761536,0.0017089546,0
-2.3401089,-0.070059061,-2.0178428,-0.77575672,-0.16588712,-0.60883754,0
2.1375709,0.42980123,2.2286305,0.77575672,0.16588712,0.60883754,0
-0.51516652,-0.60171175,0.12433216,-0.2634452,-0.79158634,0.55135119,0
-2.6266124,-0.065764904,-1.6564343,-0.77575672,-0.16588712,-0.60883754,0
2.0114336,1.000355,2.1240983,-0.4987151,0.75232029,0.43046212,0
2.2885942,0.58264089,1.8505812,0.77575672,0.16588712,0.60883754,0
-1.5214961,0.53544497,-0.97656393,-0.27612746,0.95679015,0.091138899,0
1.0677825,0.029440463,0.014551938,0.63102889,-0.20082678,-0.74931395,0
-2.7546813,0.061561584,-1.397374,-0.77575672,-0.16588712,-0.60883754,0
-2.3060884,0.011108637,-0.9226979,-0.61493313,0.41527671,0.67037523,0
-2.7885127,-0.12123251,-1.4136043,-0.77575672,-0.16588712,-0.60883754,0
-2.2679327,-0.38368702,-1.911427,-0.77575672,-0.16588712,-0.60883754,0
-2.3549271,-0.32465339,-1.8708965,-0.77575672,-0.16588712,-0.60883754,0
-2.4351943,-1.0506151,-1.4208089,-0.77575672,-0.16588712,-0.60883754,0
0.93822157,-0.43274891,1.2633913,-0.18409544,-0.86336207,0.46980315,0
-2.479372,-0.97927022,-1.5019264,-0.77575672,-0.16588712,-0.60883754,0
1.0116464,0.44495875,-0.10054642,0.51594853,0.38875878,-0.76332438,0
2.2105417,0.87033057,1.7663505,0.77575672,0.16588712,0.60883754,0
-0.81481832,-0.28782535,0.26844102,-0.51477903,-0.39166731,0.76262683,0
2.1348667,0.87180662,2.0057843,0.77575672,0.16588712,0.60883754,0
0.0022955835,0.61295033,0.54866433,-0.51898742,0.71656388,0.46603471,0
2.4659493,0.57781315,1.7362643,0.77575672,0.16588712,0.60883754,0
2.0703032,0.09318161,2.1523588,0.77575672,0.16588712,0.60883754,0
2.4718428,0.67304063,1.6684992,0.77575672,0.16588712,0.60883754,0
2.5995977,0.1046865,1.4880158,0.77575672,0.16588712,0.60883754,0
2.6704998,-0.13360405,1.4543507,0.77575672,0.16588712,0.60883754,0
-2.1331422,-0.0058546066,-2.2111909,-0.77575672,-0.16588712,-0.60883754,0
-2.0168264,0.088994384,-0.95048803,-0.5133329,0.72703063,0.45597821,0
-1.5846043,-1.0962119,-0.85447633,-0.12520313,-0.90518433,0.40615982,0
2.7128077,0.70101833,1.4281607,0.77575672,0.16588712,0.60883754,0
0.014275014,0.7019214,-0.42119277,0.079730153,0.93132925,-0.35534379,0
-2.653538,0.12628984,-1.6935976,-0.77575672,-0.16588712,-0.60883754,0
1.1560833,-0.54209709,0.60329741,0.28348494,-0.95360267,-0.1013819,0
-2.5259099,0.14062524,-1.7443666,-0.77575672,-0.16588712,-0.60883754,0
2.5640967,-0.01757288,1.5690651,0.77575672,0.16588712,0.60883754,0
1.1796978,0.48968697,1.8293242,-0.63076973,0.23167367,0.74057889,0
0.030783623,-0.66650921,-0.4527933,0.47868305,-0.78336936,-0.3964783,0
1.984539,0.64053226,2.2681904,0.77575672,0.16588712,0.60883754,0
-2.5758331,-0.65038395,-1.5938839,-0.77575672,-0.16588712,-0.60883754,0
-0.76935995,-0.26269519,-1.612843,0.61071277,0.045502134,-0.79054385,0
-1.7033257,0.28514183,-1.5438211,0.090977192,0.92534679,-0.36804426,0
-2.2386851,0.022492647,-2.062325,-0.77575672,-0.16588712,-0.60883754,0
2.2841249,0.5722599,1.713837,0.77575672,0.16588712,0.60883754,0
-2.3211265,-0.97920275,-1.1377895,-0.39099294,-0.63094598,0.67009854,0
2.25755,0.32383943,2.1217165,0.77575672,0.16588712,0.60883754,0
-1.1737427,0.049116015,0.062393308,-0.62966573,0.14002921,0.7641421,0
-2.4283996,0.18865585,-1.9987113,-0.77575672,-0.16588712,-0.60883754,0
-2.7978601,0.01312232,-1.4677448,-0.77575672,-0.16588712,-0.60883754,0
2.3855646,1.144105,1.7355908,0.77575672,0.16588712,0.60883754,0
-2.3283143,-0.33095741,-1.9968779,-0.77575672,-0.16588712,-0.60883754,0
-2.5769112,0.066824198,-1.2396892,-0.54148209,0.67043167,0.50726581,0
-2.1888864,-0.95781016,-1.0207553,-0.37731493,-0.65141642,0.65824801,0
2.4338052,-0.053954124,1.8250378,0.77575672,0.16588712,0.60883754,0
-1.5509759,-0.45688653,-2.1696196,0.6253649,-0.073082186,-0.77690285,0
2.3376937,0.99379253,1.5312026,0.77575672,0.16588712,0.60883754,0
2.461318,0.70005512,1.5724003,0.77575672,0.16588712,0.60883754,0
-0.1992718,0.62811011,-0.39666954,0.030741453,0.95374769,-0.29903245,0
0.66095138,-0.19917393,1.2200664,-0.36870283,-0.66384995,0.65066254,0
2.2784824,-0.023481131,2.0484734,0.77575672,0.16588712,0.60883754,0
-1.9659063,-0.76326346,-2.1248271,-0.77575672,-0.16588712,-0.60883754,0
-0.59781051,-0.64830303,0.24483621,-0.316975,-0.7318362,0.60327685,0
-2.2155128,-0.054091692,-2.0538204,-0.77575672,-0.16588712,-0.60883754,0
1.4884837,-0.20186567,1.6996942,-0.30327964,-0.7480799,0.59025264,0
-1.3447417,-0.19765377,-2.008605,0.55174774,0.28990418,-0.782004,0
-2.4698892,-0.05456233,-1.1051787,-0.58292049,0.55789274,0.5907281,0
2.2206497,0.57593632,1.9532087,0.77575672,0.16588712,0.60883754,0
-2.0378394,-1.1496172,-1.8691504,-0.77575672,-0.16588712,-0.60883754,0
1.2239347,-0.45600653,1.2250938,0.020507395,-0.97094589,0.23841906,0
0.48549858,-0.20194787,1.0293106,-0.43890083,-0.55138689,0.70946378,0
1.9605699,0.7195344,2.2801383,0.77575672,0.16588712,0.60883754,0
1.0890949,0.15733647,1.8380935,-0.54161721,-0.32005799,0.77731192,0
2.0799832,0.96431375,2.1456866,0.77575672,0.16588712,0.60883754,0
2.6429896,0.94821286,1.4481561,0.77575672,0.16588712,0.60883754,0
2.4042735,0.48256612,1.7214382,0.77575672,0.16588712,0.60883754,0
2.4775589,-0.15879798,1.9734768,0.77575672,0.16588712,0.60883754,0
2.6510849,0.63075042,1.2557844,0.58682978,0.16510153,-0.79269969,0
-2.1199234,0.21450138,-1.9962755,0.12936234,0.90253031,-0.4107365,0
2.1471434,0.057450533,0.92244285,0.61894715,-0.38794771,-0.68293583,0
-2.0281379,-1.1508048,-1.9704398,-0.77575672,-0.16588712,-0.60883754,0
-2.7705946,-0.079463005,-1.3722589,-0.77575672,-0.16588712,-0.60883754,0
2.6965866,0.50579715,1.3229598,0.77575672,0.16588712,0.60883754,0
-2.1193652,-0.81273508,-2.0662022,-0.77575672,-0.16588712,-0.60883754,0
1.269256,0.97217274,1.4325,-0.48268852,0.77746296,0.40319109,0
-2.5354531,-0.25031519,-1.7443689,-0.77575672,-0.16588712,-0.60883754,0
2.0119808,1.1208088,1.4356878,-0.017868698,0.97021586,-0.24158244,0
1.7204397,1.0582056,0.89574552,0.23546612,0.81904548,-0.52318299,0
2.2338083,0.32392383,2.0285029,0.77575672,0.16588712,0.60883754,0
-2.0251837,-1.1593668,-1.8187606,0.35775405,-0.91040576,-0.20778233,0
-2.6045871,-0.50140858,-1.3418028,-0.77575672,-0.16588712,-0.60883754,0
-0.51156855,-0.76315856,0.16644922,-0.22955287,-0.82454002,0.51714551,0
-2.6985939,-0.32899141,-1.3070216,-0.77575672,-0.16588712,-0.60883754,0
-1.497927,0.47070444,-0.84678084,-0.34031942,0.92247319,0.18227988,0
-1.0324616,0.39777118,-0.010803163,-0.52059585,0.71351123,0.46891576,0
-0.20986629,0.63971144,0.11771509,-0.2916972,0.94982761,0.11287433,0
2.0726452,0.68104053,2.185215,0.77575672,0.16588712,0.60883754,0
-2.4352884,-0.85331917,-1.6990796,-0.77575672,-0.16588712,-0.60883754,0
-2.4389811,-0.75183964,-1.5644224,-0.77575672,-0.16588712,-0.60883754,0
-1.0983856,0.53923875,-0.36315703,-0.44621912,0.82642406,0.34338307,0
1.0680368,0.57051539,1.7947133,-0.61510056,0.41421607,0.67087746,0
-2.5690825,-0.029891014,-1.3084097,-0.56651902,0.60806453,0.55615997,0
-1.9836361,-1.060096,-1.2139684,-0.02889657,-0.95447737,0.29688066,0
-1.9103813,-0.52925134,-2.3756931,-0.77575672,-0.16588712,-0.60883754,0
1.9203959,0.58208179,2.2487073,0.77575672,0.16588712,0.60883754,0
2.2232513,0.2280066,2.0035577,0.77575672,0.16588712,0.60883754,0
-0.27547586,-0.32645273,0.544433,-0.46614653,-0.49967641,0.73008984,0
-0.64103746,0.078017689,0.33413059,-0.63092947,0.2213155,0.74360466,0
-1.9502045,-0.60268354,-2.1476316,-0.77575672,-0.16588712,-0.60883754,0
-0.41365808,-0.40004453,0.49352843,-0.4557445,-0.5200513,0.72238761,0
2.1918998,0.45399165,1.8970746,0.77575672,0.16588712,0.60883754,0
-2.2278299,-0.30109906,-1.8805408,-0.77575672,-0.16588712,-0.60883754,0
2.0439701,0.53213143,2.286113,0.77575672,0.16588712,0.60883754,0
2.0166748,0.5889535,2.1929531,0.77575672,0.16588712,0.60883754,0
0.70556629,0.8978194,0.83283627,-0.3224698,0.93354982,0.15651858,0
2.1053185,0.43854475,2.163806,0.77575672,0.16588712,0.60883754,0
1.9703135,0.58334088,2.3818541,0.77575672,0.16588712,0.60883754,0
1.397548,-0.44387281,1.1348121,0.16523951,-0.98456317,0.057717502,0
-2.1694031,-0.081997633,-0.74301183,-0.61526144,0.41319162,0.67136151,0
0.32320023,0.69110274,-0.019745622,0.13645506,0.89790165,-0.41851246,0
-0.81531698,-0.36793515,0.20714051,-0.45731235,-0.5170328,0.72356266,0
2.0116661,0.49860692,2.1728947,0.77575672,0.16588712,0.60883754,0
2.6705613,0.58033347,1.2346259,0.77575672,0.16588712,0.60883754,0
-2.1707087,-0.82167768,-1.9100248,-0.77575672,-0.16588712,-0.60883754,0
2.6166568,0.64403796,1.3203132,0.77575672,0.16588712,0.60883754,0
-1.9511811,-0.76599646,-2.3569946,-0.77575672,-0.16588712,-0.60883754,0
-0.56971908,-0.69130623,-1.2864027,0.58135134,-0.56312042,-0.58730429,0
1.9017384,-0.30924928,0.84616452,0.47977808,-0.78176886,-0.39830959,0
-2.0016937,0.011424303,-2.2695611,-0.77575672,-0.16588712,-0.60883754,0
-2.1555974,0.19806576,-2.1284573,0.1263063,0.90448475,-0.4073748,0
-1.083976,-1.0614098,-0.80127525,0.088390946,-0.98388153,0.15544915,0
-2.2745664,-1.2107937,-1.5574663,-0.77575672,-0.16588712,-0.60883754,0
2.2206299,0.77604556,1.7542675,0.77575672,0.16588712,0.60883754,0
-2.6449065,-0.11086679,-1.3885688,-0.77575672,-0.16588712,-0.60883754,0
-2.1446061,-0.32644653,-2.063652,-0.77575672,-0.16588712,-0.60883754,0
-2.2072742,-0.5967834,-1.7950505,-0.77575672,-0.16588712,-0.60883754,0
0.0028753281,0.71183151,-0.29088044,0.065553069,0.93842298,-0.33921275,0
-0.2939581,-0.15752028,0.74981427,-0.52856129,-0.35623312,0.77053297,0
-1.9830812,0.074280977,-2.1870854,0.33474946,0.70970094,-0.61989319,0
2.3064837,0.31649995,2.0463822,0.77575672,0.16588712,0.60883754,0
-1.9663982,-0.96690989,-2.1552069,-0.77575672,-0.16588712,-0.60883754,0
-2.3535216,-0.16869402,-1.8642403,-0.77575672,-0.16588712,-0.60883754,0
-2.0679827,-1.0756989,-2.0987096,-0.77575672,-0.16588712,-0.60883754,0
0.11723119,0.73844242,-0.019271955,-0.0012984872,0.96524572,-0.26134118,0
-0.43779913,0.74619693,-0.0959436,-0.25776684,0.96396488,0.06578964,0
-2.4488955,-0.41998029,-1.7865913,-0.77575672,-0.16588712,-0.60883754,0
-0.55966502,0.10201049,-1.3324704,0.54619807,0.30666965,-0.7795009,0
-2.0016692,-0.92736173,-2.2785556,-0.77575672,-0.16588712,-0.60883754,0
1.8611023,0.25824165,2.3759017,0.77575672,0.16588712,0.60883754,0
1.7523459,-0.13310003,0.70264989,0.57372719,-0.58715266,-0.571042,0
-2.317111,-0.40294456,-1.8855822,-0.77575672,-0.16588712,-0.60883754,0
-1.1580333,-0.82137799,-1.7589166,0.53655177,-0.68122303,-0.49804366,0
2.1302953,-0.18076086,1.0232791,0.48977247,-0.76665777,-0.41516125,0
2.4225492,0.22348475,1.7332666,0.77575672,0.16588712,0.60883754,0
-0.03272897,0.5315643,0.82671207,-0.55436808,0.64007825,0.531955,0
2.3089914,-0.2792542,1.3795652,0.35627371,-0.91148037,-0.20560336,0
-1.986818,-0.72403026,-2.3133209,-0.77575672,-0.16588712,-0.60883754,0
-2.0524271,-0.78345442,-2.1814101,-0.77575672,-0.16588712,-0.60883754,0
2.1055737,-0.14878082,1.1291806,0.44862446,-0.82350361,-0.34724355,0
1.1106938,0.6072979,1.8865733,-0.63098782,0.21535927,0.74530196,0
2.8242891,0.17832017,1.4315723,0.77575672,0.16588712,0.60883754,0
-2.389498,-0.75871539,-1.6922638,-0.77575672,-0.16588712,-0.60883754,0
0.30575791,0.26412427,1.1249237,-0.62665123,0.08902324,0.77419859,0
-2.3422899,-0.4877038,-1.6524961,-0.77575672,-0.16588712,-0.60883754,0
0.79058236,0.66232109,1.3030996,-0.55836141,0.62995905,0.53980023,0
2.6136236,0.098411798,1.6612096,0.77575672,0.16588712,0.60883754,0
-1.8012419,0.16316855,-0.7539686,-0.51296198,0.72770321,0.45532233,0
-1.9539527,-0.79928184,-2.1330206,-0.77575672,-0.16588712,-0.60883754,0
-2.7425814,-0.36949921,-1.2649426,-0.77575672,-0.16588712,-0.60883754,0
-2.7471704,-0.3749094,-1.249547,-0.77575672,-0.16588712,-0.60883754,0
-0.40024099,-0.1970491,0.60378247,-0.57961738,-0.19414592,0.79142368,0
-0.65864664,-0.28548396,-1.4893391,0.63032717,-0.15810683,-0.76005942,0
-1.2460518,0.52937716,-1.0002588,-0.11537689,0.98585057,-0.12160118,0
-0.84121954,0.47079462,-1.132211,0.14494753,0.89218718,-0.42777619,0
1.9682093,0.67276096,0.74648345,0.49831116,0.43090457,-0.75233483,0
1.2625084,0.25453067,1.9594562,-0.58023071,-0.19176176,0.7915554,0
-2.0867712,-0.015869379,-0.77284843,-0.60623044,0.46375421,0.64607799,0
-2.6085334,-0.51769066,-1.4546139,-0.77575672,-0.16588712,-0.60883754,0
2.5518465,1.0296106,1.3809571,0.77575672,0.16588712,0.60883754,0
0.14490171,0.21838367,1.1124523,-0.6272521,0.097262263,0.77271938,0
-2.6290054,-0.84054756,-1.454301,-0.77575672,-0.16588712,-0.60883754,0
0.18381679,-0.68366909,-0.087829053,0.32703951,-0.93083274,-0.16308153,0
-1.1676362,-0.43733668,-1.9896011,0.6301986,-0.15408655,-0.76099104,0
2.2205031,0.00078296661,2.2251961,0.77575672,0.16588712,0.60883754,0
1.2170899,-0.45656085,1.1192014,0.046556532,-0.97724444,0.20694445,0
1.1470354,0.069720984,1.8020066,-0.52691287,-0.36061031,0.76962531,0
-2.2300658,0.00098538399,-1.9480593,-0.77575672,-0.16588712,-0.60883754,0
-2.6521134,-0.21532965,-1.0518813,-0.62251663,0.35915101,0.69533002,0
0.55793065,0.8828907,1.028293,-0.45963836,0.80960554,0.36506391,0
1.7855884,0.66552877,2.3834255,0.77575672,0.16588712,0.60883754,0
-2.7381074,-0.7967484,-1.2450587,-0.77575672,-0.16588712,-0.60883754,0
2.5993853,0.05465436,1.7579392,0.77575672,0.16588712,0.60883754,0
2.4443395,0.89618111,1.1558051,0.38531888,0.63954812,-0.66521263,0
0.27503273,0.083173633,1.0943829,-0.6017639,-0.09595719,0.79288888,0
2.615237,0.35669446,1.6539452,0.77575672,0.16588712,0.60883754,0
-0.57178104,-0.77905655,-0.68128717,0.30240101,-0.94455433,-0.12794942,0
0.21101028,0.80934751,-0.19972372,0.14978987,0.88884389,-0.43303537,0
2.0565386,0.38389349,2.257534,0.77575672,0.16588712,0.60883754,0
-2.1879632,-0.30017138,-2.1574175,-0.77575672,-0.16588712,-0.60883754,0
2.4996963,-0.057819605,1.680896,0.77575672,0.16588712,0.60883754,0
-1.4094644,0.45126748,-1.3103266,-0.077303648,0.98254353,-0.16921146,0
-1.9026015,0.010921001,-2.2218928,0.4474743,0.53568214,-0.71610874,0
1.5731335,-0.34990597,1.28721,0.095062494,-0.98453885,0.14712757,0
-2.3730474,-0.12494397,-1.0613542,-0.62311924,0.35369068,0.69758558,0
-0.63020116,-0.71934992,-0.15198764,-0.12713194,-0.90395904,0.40828383,0
2.4660289,0.73052263,1.7094157,0.77575672,0.16588712,0.60883754,0
-0.79421866,0.29482567,0.29617435,-0.62551552,0.32944846,0.70724404,0
2.1621354,0.66727662,1.8319978,0.77575672,0.16588712,0.60883754,0
-0.3884016,-0.35085022,-1.2927818,0.62605184,-0.081343539,-0.77552742,0
0.79950869,-0.001791954,1.3583858,-0.5113833,-0.40001652,0.760575,0
1.9063692,0.71932697,2.2613008,0.77575672,0.16588712,0.60883754,0
-2.3544819,-0.16600633,-1.8223646,-0.77575672,-0.16588712,-0.60883754,0
-2.0097017,-0.16686225,-2.2128296,-0.77575672,-0.16588712,-0.60883754,0
-1.1702297,-1.0647759,-1.4316353,0.42236808,-0.85333258,-0.3056615,0
1.7406694,0.44928777,0.52064186,0.58874941,0.15696535,-0.79292893,0
-2.7259495,-0.11185932,-1.3955495,-0.77575672,-0.16588712,-0.60883754,0
1.0502574,-0.45254177,0.92526901,0.081885099,-0.98313349,0.16353482,0
-1.1627812,-0.93707907,-1.0117253,0.25093067,-0.9663592,-0.056426853,0
-2.3206501,-0.8632822,-1.8185773,-0.77575672,-0.16588712,-0.60883754,0
0.98823941,-0.4837358,1.0144738,-0.010310292,-0.96136719,0.27507603,0
2.7290473,0.86584663,1.2606049,0.77575672,0.16588712,0.60883754,0
1.6622884,-0.30800343,1.0863485,0.32567403,-0.93165308,-0.16111809,0
-1.8313379,0.16689467,-2.0406699,0.25354928,0.80157912,-0.54146475,0
-2.1370203,-0.96979618,-1.8658706,-0.77575672,-0.16588712,-0.60883754,0
2.1957607,0.85181069,0.81862837,0.41618359,0.59074259,-0.6912415,0
-1.1851315,-0.53783488,-1.943097,0.6275937,-0.30340579,-0.71698761,0
2.8331273,0.13497615,1.38501,0.77575672,0.16588712,0.60883754,0
1.4598937,1.0441804,1.6024791,-0.45520556,0.81530511,0.35786289,0
-2.0847011,0.22896886,-1.812031,0.025742531,0.95570564,-0.2931965,0
-1.9562814,-1.1054931,-2.0587099,-0.77575672,-0.16588712,-0.60883754,0
1.554549,0.80601799,0.6604206,0.29676825,0.75556481,-0.5839954,0
-2.2288799,-1.1470962,-1.8385763,-0.77575672,-0.16588712,-0.60883754,0
-2.2926834,-0.84313536,-1.6858275,-0.77575672,-0.16588712,-0.60883754,0
1.0110846,0.037847877,1.6164491,-0.53379852,-0.34205338,0.77334267,0
-2.2963188,-0.15594029,-1.8521534,-0.77575672,-0.16588712,-0.60883754,0
-2.198473,-0.38762975,-1.9358646,-0.77575672,-0.16588712,-0.60883754,0
-2.2635555,-0.73284554,-1.8775158,-0.77575672,-0.16588712,-0.60883754,0
-1.0689387,0.4713445,-0.38999024,-0.45769623,0.81212056,0.36190408,0
-2.6912022,-0.63291574,-1.2651927,-0.77575672,-0.16588712,-0.60883754,0
-2.1832414,0.24287534,-1.454989,-0.30068469,0.94542712,0.12552476,0
1.7849132,0.89758062,0.67057037,0.37042677,0.6613884,-0.65218836,0
-0.059433073,-0.4782728,-0.70359027,0.54472506,-0.66309839,-0.51339608,0
-1.1049446,-0.66346741,-1.6724448,0.59018528,-0.53221893,-0.60697967,0
-1.8498591,-0.89169097,-2.3659883,-0.77575672,-0.16588712,-0.60883754,0
-2.3140228,-1.0109169,-1.5432947,-0.77575672,-0.16588712,-0.60883754,0
-2.2129779,0.0058424473,-1.9945059,-0.77575672,-0.16588712,-0.60883754,0
-2.345773,-0.40543437,-1.9520192,-0.77575672,-0.16588712,-0.60883754,0
1.9672328,0.14394164,0.57867604,0.62952924,-0.26999816,-0.72855628,0
-2.2738562,-1.0361516,-1.7309179,-0.77575672,-0.16588712,-0.60883754,0
2.358047,0.69302773,1.0055021,0.56325406,0.25297987,-0.78660434,0
-2.1989675,0.12369013,-2.1306732,-0.77575672,-0.16588712,-0.60883754,0
2.0131736,0.84086394,1.9709582,0.77575672,0.16588712,0.60883754,0
2.2754059,1.0671234,1.8211752,0.77575672,0.16588712,0.60883754,0
-1.9549696,0.053324461,-0.73636806,-0.5701645,0.59768885,0.56363171,0
0.60774082,-0.49032474,1.0740678,-0.31353581,-0.73598021,0.60002387,0
-1.8689189,-0.46072936,-2.3795307,-0.77575672,-0.16588712,-0.60883754,0
1.5964304,-0.048745632,0.27455378,0.62498146,-0.33526793,-0.70497787,0
-0.00031334162,0.87269068,-0.025412783,-0.093296647,0.9843756,-0.14933306,0
0.38773102,0.79144305,0.066865318,0.082216144,0.93003392,-0.35815838,0
2.2714286,0.7689364,1.7089093,0.77575672,0.16588712,0.60883754,0
2.2360055,0.92769909,1.73675,0.77575672,0.16588712,0.60883754,0
-2.2092302,0.11557055,-2.2517087,-0.77575672,-0.16588712,-0.60883754,0
-1.369897,-0.59131253,-0.31704941,-0.48332107,-0.46412483,0.74228632,0
-2.5816967,-0.30251908,-1.5765853,-0.77575672,-0.16588712,-0.60883754,0
2.1132984,0.52280831,2.0615735,0.77575672,0.16588712,0.60883754,0
-0.8138237,-0.94226611,-1.1317697,0.36965823,-0.90141428,-0.22540003,0
-2.5225072,0.08545661,-1.8108253,-0.77575672,-0.16588712,-0.60883754,0
2.3506699,0.036858082,1.9979427,0.77575672,0.16588712,0.60883754,0
2.1334867,0.8813715,2.0223253,0.77575672,0.16588712,0.60883754,0
-0.37324592,0.20275837,0.61745006,-0.6310184,0.21033025,0.74671113,0
0.51077306,0.86025339,0.15809256,0.0043506622,0.96339917,-0.26803607,0
2.3152547,0.57373953,1.9465684,0.77575672,0.16588712,0.60883754,0
-1.8644675,-1.0630965,-2.1002817,-0.77575672,-0.16588712,-0.60883754,0
-2.1513171,-0.70901895,-2.1456044,-0.77575672,-0.16588712,-0.60883754,0
-1.7099981,-0.1480943,-0.25269979,-0.63101989,0.19789842,0.75010026,0
2.2380958,0.42153215,1.9298316,0.77575672,0.16588712,0.60883754,0
-0.82613021,0.4940668,-0.21686763,-0.47706068,0.78572148,0.39377028,0
-2.0281508,-0.40258098,-2.1652954,-0.77575672,-0.16588712,-0.60883754,0
2.0116391,0.43168759,2.115448,0.77575672,0.16588712,0.60883754,0
0.24623874,-0.67240274,0.03881821,0.17437786,-0.98361236,0.045814663,0
-2.4214964,-0.059015989,-1.6940125,-0.77575672,-0.16588712,-0.60883754,0
-2.2915897,-0.95088077,-1.6952275,-0.77575672,-0.16588712,-0.60883754,0
1.0054961,-0.29606432,0.14018393,0.54394889,-0.66487104,-0.51192415,0
2.2478669,0.28396082,0.90057594,0.63103217,-0.2043733,-0.74835169,0
0.27334481,0.031395376,-0.73863006,0.61864632,-0.0097079575,-0.78560966,0
-0.28682691,0.68537462,-0.091710746,-0.18075311,0.98281443,-0.037474126,0
2.2451448,-0.083705902,2.0861938,0.77575672,0.16588712,0.60883754,0
-2.5015225,-0.16938972,-1.725286,-0.77575672,-0.16588712,-0.60883754,0
-0.25214642,-0.12928689,-1.162514,0.5946883,0.13052121,-0.79329073,0
-0.77697456,0.53965807,-0.49505526,-0.21731448,0.97604024,0.010956764,0
-2.5015986,-0.8000555,-1.6001949,-0.77575672,-0.16588712,-0.60883754,0
2.1190562,0.508775,2.2399194,0.77575672,0.16588712,0.60883754,0
2.0631626,0.53450251,2.0153792,0.77575672,0.16588712,0.60883754,0
2.3535545,0.75515819,1.5923543,0.77575672,0.16588712,0.60883754,0
-2.0897889,-0.96025419,-1.9937538,-0.77575672,-0.16588712,-0.60883754,0
2.5002806,-0.2266314,1.649139,0.77575672,0.16588712,0.60883754,0
-0.098710746,0.25175783,-0.94718492,0.52048117,0.37731931,-0.76598299,0
-1.3554351,0.076555371,-0.30494657,-0.60844088,0.45248342,0.65196544,0
-0.3245616,0.48737031,-0.62797135,0.13146913,0.90116906,-0.41304994,0
2.4141319,-0.20490623,1.8021361,0.77575672,0.16588712,0.60883754,0
0.2277147,0.27338254,0.99458236,-0.63067293,0.2363704,0.73917592,0
-2.4106703,-0.5459969,-1.5968738,-0.77575672,-0.16588712,-0.60883754,0
-1.2847679,0.30503082,-0.52876073,-0.4694981,0.79639018,0.38122749,0
-2.1016517,-0.11915898,-2.1195288,-0.77575672,-0.16588712,-0.60883754,0
2.5780888,0.55913091,1.3535299,0.77575672,0.16588712,0.60883754,0
0.95383263,0.75868523,0.082726717,0.3589623,0.67750806,-0.64197284,0
-1.1685562,-0.71498919,-0.36200231,-0.30887628,-0.74152499,0.59559757,0
-2.4990308,-0.60525513,-1.6161048,-0.77575672,-0.16588712,-0.60883754,0
0.36975557,0.50285548,-0.35957611,0.27078646,0.78396928,-0.55862975,0
-2.0923796,-0.86307192,-2.1158426,-0.77575672,-0.16588712,-0.60883754,0
-2.1999481,-0.0075843334,-1.0614911,-0.57526982,0.58246082,0.57428586,0
0.045412302,0.62492323,-0.52156901,0.30031681,0.75150454,-0.58741051,0
1.9973354,0.7091558,0.76189327,0.50818777,0.40774652,-0.75860941,0
2.5876403,0.44419885,1.4904455,0.77575672,0.16588712,0.60883754,0
0.31844363,-0.24515101,-0.75881594,0.63044208,-0.24545625,-0.73640621,0
2.2485714,-0.31399226,1.9019563,-0.023949981,-0.95639294,0.2910997,0
2.687345,0.76134086,1.3595365,0.77575672,0.16588712,0.60883754,0
-2.6832416,0.046771049,-1.5304847,-0.77575672,-0.16588712,-0.60883754,0
0.79754877,0.67104328,1.2994931,-0.54666424,0.65861917,0.51708722,0
2.6890759,0.59396338,1.3413444,0.77575672,0.16588712,0.60883754,0
2.2658472,0.0031924248,2.093152,0.77575672,0.16588712,0.60883754,0
0.56968242,0.8556698,0.65598172,-0.25177306,0.96607202,0.057578474,0
2.4567807,0.32888532,0.84523225,0.62928188,-0.13155487,-0.76596206,0
0.28116363,-0.3048417,0.94802523,-0.4321357,-0.56343895,0.70412755,0
2.5641627,0.93775153,1.520119,0.77575672,0.16588712,0.60883754,0
-1.9208834,-0.4982307,-2.1973433,-0.77575672,-0.16588712,-0.60883754,0
-0.30934751,0.69913733,0.082632512,-0.31142128,0.9397921,0.1407401,0
-2.3321133,-0.73224282,-1.8346939,-0.77575672,-0.16588712,-0.60883754,0
2.5836353,0.70517516,1.3542165,0.77575672,0.16588712,0.60883754,0
-1.6387904,-0.96842206,-0.63588679,-0.22900963,-0.82503951,0.5165894,0
0.21895948,0.6578173,0.64209247,-0.46393639,0.80393809,0.37208438,0
-0.043031752,-0.70957983,0.3231408,-0.18103284,-0.86576706,0.46655619,0
-2.1875756,-1.1405985,-1.7509825,-0.77575672,-0.16588712,-0.60883754,0
2.7525439,0.66802955,1.2925887,0.53476155,0.33939919,-0.77384657,0
2.5473411,0.37487721,1.7252499,0.77575672,0.16588712,0.60883754,0
-0.47929245,0.72268182,0.056161523,-0.38315311,0.89043921,0.24558496,0
2.1273477,0.9784236,2.0218942,0.77575672,0.16588712,0.60883754,0
-2.2911913,-0.99707866,-1.6292721,-0.77575672,-0.16588712,-0.60883754,0
1.1860275,0.25897789,1.920705,-0.61242986,-0.034620494,0.78976673,0
2.2543933,0.32094383,1.9911681,0.77575672,0.16588712,0.60883754,0
-2.1816638,-0.53022146,-1.8983344,-0.77575672,-0.16588712,-0.60883754,0
2.5854766,0.16026783,1.4683928,0.77575672,0.16588712,0.60883754,0
2.6714966,0.30646515,1.5414798,0.77575672,0.16588712,0.60883754,0
2.6006498,0.44933939,1.6150498,0.77575672,0.16588712,0.60883754,0
-1.3588812,-0.89770865,-1.5944977,0.47919327,-0.78262496,-0.3973313,0
-0.75689048,-0.99963641,-0.49444464,0.067580044,-0.98111928,0.18121293,0
2.7718928,0.67403531,1.2834268,0.77575672,0.16588712,0.60883754,0
2.82687,0.51638365,1.1472191,0.77575672,0.16588712,0.60883754,0
0.84930575,-0.13155802,-0.32219458,0.62986827,-0.1449827,-0.76305062,0
2.0191069,0.65404701,2.2763181,0.77575672,0.16588712,0.60883754,0
1.0732851,-0.52905107,0.37034285,0.43592182,-0.83848608,-0.32697624,0
2.0729473,0.43573236,2.0252607,0.77575672,0.16588712,0.60883754,0
-0.086235285,-0.5496698,-0.75637448,0.5326634,-0.68944752,-0.4908483,0
-2.7003455,-0.27183127,-1.3627877,-0.77575672,-0.16588712,-0.60883754,0
-2.2969885,-0.79530978,-0.97654253,-0.39865929,-0.6190663,0.67662984,0
0.49246672,0.22425412,-0.59033233,0.56409734,0.25014523,-0.78690648,0
-2.2905924,-0.61457968,-1.8506153,-0.77575672,-0.16588712,-0.60883754,0
-2.1836834,-0.89886022,-1.9336941,-0.77575672,-0.16588712,-0.60883754,0
-1.1712594,-0.6187284,-0.17482907,-0.37690598,-0.65201461,0.65788984,0
-2.3576598,-0.65729856,-1.6610427,-0.77575672,-0.16588712,-0.60883754,0
-1.1838548,-0.99269533,-1.0832002,0.27991468,-0.95517218,-0.096405208,0
2.3300853,0.99462891,1.5574814,0.77575672,0.16588712,0.60883754,0
1.6198986,-0.41731906,1.2870729,0.08792448,-0.98383141,0.15602979,0
-0.5881182,-0.31080651,-1.4262486,0.62667394,-0.089323685,-0.7741456,0
-1.8699293,-0.29003263,-2.3155711,-0.77575672,-0.16588712,-0.60883754,0
2.3874826,0.74524713,1.6132468,0.77575672,0.16588712,0.60883754,0
-1.4636086,0.32762504,-0.8357842,-0.32907552,0.9295963,0.16601253,0
-2.0491464,-0.81991386,-1.9920094,-0.77575672,-0.16588712,-0.60883754,0
-2.3282533,-0.27241087,-1.937865,-0.77575672,-0.16588712,-0.60883754,0
-1.1658905,-0.62418437,-1.8276339,0.63081086,-0.22940865,-0.74124849,0
0.20377678,-0.55351704,0.52065808,-0.14872372,-0.88958538,0.43187886,0
0.48313838,0.22429848,1.2976357,-0.63006699,0.1502741,0.76186204,0
-2.6458485,0.084209681,-1.5721656,-0.77575672,-0.16588712,-0.60883754,0
-2.4138341,-1.0092976,-1.6850835,-0.77575672,-0.16588712,-0.60883754,0
-2.3016658,-0.78212404,-1.8949713,-0.77575672,-0.16588712,-0.60883754,0
-2.0732656,-0.019991875,-2.4003539,-0.77575672,-0.16588712,-0.60883754,0
-0.6664474,-0.11681294,-1.4495507,0.56185091,0.2576547,-0.78609025,0
-0.55945104,0.34299493,-1.2419504,0.33919597,0.7039699,-0.62399733,0
-2.1275918,-0.82090998,-0.76079029,-0.41882545,-0.58632481,0.69340378,0
-0.8569423,-0.34534383,0.26128727,-0.55506063,-0.27958888,0.78341448,0
-2.4715247,0.18332696,-1.3321648,-0.46677178,0.80012077,0.37673718,0
2.6098988,0.69374275,1.2528697,0.77575672,0.16588712,0.60883754,0
1.6410719,-0.30016446,0.61078101,0.48924619,-0.76747686,-0.41426754,0
2.1270654,-0.032368183,2.2931914,0.77575672,0.16588712,0.60883754,0
-2.193347,-0.35506821,-1.9543339,-0.77575672,-0.16588712,-0.60883754,0
2.7227077,0.27222085,1.3792272,0.77575672,0.16588712,0.60883754,0
-2.2079682,-0.51256728,-1.9018736,-0.77575672,-0.16588712,-0.60883754,0
2.0982282,0.34067059,2.3063703,0.77575672,0.16588712,0.60883754,0
0.24266735,-0.71787518,0.23844837,0.15169924,-0.98555887,0.075241148,0
1.7535373,0.61861229,2.2058449,-0.62450725,0.34021297,0.70302641,0
-2.1408784,-0.66318703,-2.1802263,-0.77575672,-0.16588712,-0.60883754,0
2.7736747,0.44514775,1.2033105,0.77575672,0.16588712,0.60883754,0
2.2780504,0.37994242,2.0222306,0.77575672,0.16588712,0.60883754,0
-2.2108948,0.10804439,-1.219636,-0.49974632,0.75061423,0.43224096,0
2.0959864,0.67611599,2.0498757,0.77575672,0.16588712,0.60883754,0
0.7371949,0.86591125,0.61902654,-0.19148636,0.98121727,-0.023363024,0
0.67106241,-0.47872126,1.0974588,-0.28049219,-0.77362639,0.5681783,0
0.84531587,0.92565477,0.34901696,0.049313426,0.94594067,-0.32056907,0
-1.0142872,0.62829399,-0.46807432,-0.33781317,0.92410457,0.17864197,0
-0.40382618,-0.73884255,0.29243466,-0.23028231,-0.82386792,0.51789176,0
2.6351199,-0.058218956,1.297516,0.55283016,-0.64387935,-0.52895975,0
-1.0663677,-0.32461333,-1.8012974,0.59037685,0.14991865,-0.79308248,0
2.7460787,0.19219613,1.3540796,0.77575672,0.16588712,0.60883754,0
2.5840442,0.14675355,1.6621578,0.77575672,0.16588712,0.60883754,0
-2.0022626,-0.27572155,-2.3860631,-0.77575672,-0.16588712,-0.60883754,0
2.3837924,-0.22885227,1.9201852,0.77575672,0.16588712,0.60883754,0
-0.55355,-0.75557041,-0.98299348,0.51282054,-0.7279591,-0.45507246,0
-2.3197365,-1.0996585,-1.6627538,-0.77575672,-0.16588712,-0.60883754,0
2.5356884,0.12786293,1.6864493,0.77575672,0.16588712,0.60883754,0
0.5461812,-0.758201,0.35296011,0.14106399,-0.98599976,0.088912293,0
-2.5708115,-0.076161861,-1.6853883,-0.77575672,-0.16588712,-0.60883754,0
0.98892695,-0.56567997,0.87242746,0.053885162,-0.97871816,0.19800815,0
-2.3724504,-0.85508394,-1.7893198,-0.77575672,-0.16588712,-0.60883754,0
-0.65094411,0.58329278,-0.57288611,-0.0078084469,0.96727771,-0.25360018,0
-2.1016402,-0.65484834,-2.215024,-0.77575672,-0.16588712,-0.60883754,0
-2.7452364,-0.73820281,-1.3797607,-0.77575672,-0.16588712,-0.60883754,0
-2.5326538,-0.80285621,-1.4943138,-0.77575672,-0.16588712,-0.60883754,0
2.2624755,0.96796155,1.7511971,0.77575672,0.16588712,0.60883754,0
-2.076226,-0.43937683,-2.2278066,-0.77575672,-0.16588712,-0.60883754,0
2.3346961,0.18777418,1.9385462,0.77575672,0.16588712,0.60883754,0
-2.5451691,-0.47834587,-1.4841895,-0.77575672,-0.16588712,-0.60883754,0
1.5114774,-0.13744628,0.48378929,0.60489106,-0.47030956,-0.6425854,0
0.30549383,0.71397847,0.66635704,-0.46498337,0.80253583,0.37380046,0
-2.7996929,-0.51732278,-1.2413752,-0.77575672,-0.16588712,-0.60883754,0
-0.26026037,0.50448751,0.59754717,-0.52874279,0.69749922,0.48365903,0
2.7523437,0.71502113,1.3773057,0.77575672,0.16588712,0.60883754,0
1.3793578,-0.27908885,0.37891269,0.51233786,-0.72883093,-0.45421976,0
1.8478945,0.51914334,2.3137474,0.77575672,0.16588712,0.60883754,0
0.93007648,0.78770614,1.600493,-0.59705943,0.5052588,0.62308419,0
-2.2242935,-0.76035523,-0.9806602,-0.41895467,-0.58610767,0.69350934,0
-0.86651391,-0.62644506,0.13657451,-0.37426865,-0.65585351,0.65557557,0
-1.8681223,-0.96523356,-2.1829135,-0.77575672,-0.16588712,-0.60883754,0
1.535521,-0.35194397,1.6631699,-0.10870516,-0.9152739,0.38788798,0
-2.401361,-0.60379934,-1.6900138,-0.77575672,-0.16588712,-0.60883754,0
-1.4250232,-0.9531219,-1.5792416,0.41864976,-0.85721195,-0.29986674,0
-2.3000212,0.1157124,-1.9798124,-0.77575672,-0.16588712,-0.60883754,0
1.0963342,-0.40795267,0.20694697,0.53397888,-0.6866923,-0.49327511,0
-2.3797102,-0.69700074,-1.7812837,-0.77575672,-0.16588712,-0.60883754,0
1.2572906,1.1027396,0.88878208,-0.072414815,0.98185658,-0.17525351,0
-1.9363735,-0.11272836,-0.56689632,-0.63022149,0.15477818,0.76083165,0
2.4656868,1.1775219,1.5572968,0.77575672,0.16588712,0.60883754,0
-2.5898952,-0.00046515465,-1.2558905,-0.5843122,0.553168,0.59378856,0
2.352073,0.46455669,1.904874,0.77575672,0.16588712,0.60883754,0
2.478709,0.092960596,1.808508,0.77575672,0.16588712,0.60883754,0
-1.5276271,0.01150918,-2.0084608,0.50841254,0.40720677,-0.75874883,0
-1.7745683,-0.80800307,-0.76402175,-0.3109265,-0.73909503,0.59754789,0
-2.139255,-0.14064813,-2.2941229,-0.77575672,-0.16588712,-0.60883754,0
-1.6115944,-1.0511956,-0.99183351,-0.0075443983,-0.96232092,0.27181157,0
-0.074317038,0.21645951,0.86470366,-0.62647599,0.08672642,0.77460104,0
0.15440261,0.44803762,-0.50242949,0.35864109,0.67795146,-0.64168429,0
-2.1864886,-0.22562647,-2.175869,-0.77575672,-0.16588712,-0.60883754,0
-2.2817602,-1.2733822,-1.7666357,-0.77575672,-0.16588712,-0.60883754,0
-0.54761672,-0.89849699,-0.50313091,0.19494671,-0.9806338,0.018795013,0
1.7840663,-0.14866364,0.5528959,0.60795724,-0.45500055,-0.65066332,0
2.2156093,0.094320536,2.1149051,0.77575672,0.16588712,0.60883754,0
1.4895672,0.22223639,2.1481845,-0.56666034,-0.24141133,0.78779244,0
-2.3919234,-0.22573376,-1.7381368,-0.77575672,-0.16588712,-0.60883754,0
-1.5183983,0.3703742,-1.4137229,-0.036868989,0.97509491,-0.21870233,0
-2.1058743,-0.93183661,-1.8507352,-0.77575672,-0.16588712,-0.60883754,0
2.2171013,1.053755,1.7885935,0.77575672,0.16588712,0.60883754,0
-0.32925332,-0.57621121,-0.93433785,0.56641805,-0.60834664,-0.55595428,0
-1.3378655,-0.037592888,-2.0015564,0.4958865,0.4364289,-0.75075072,0
-2.5741968,-0.52889347,-1.5284631,-0.77575672,-0.16588712,-0.60883754,0
-1.8434992,-1.0124099,-0.94369948,-0.15249294,-0.88695091,0.43596357,0
-2.0897796,-0.12237406,-2.1538706,-0.77575672,-0.16588712,-0.60883754,0
-2.3279366,-0.52049661,-0.88170135,-0.54894269,-0.2984561,0.78075999,0
1.6240213,-0.44416034,1.5024867,-0.05240798,-0.94455808,0.32413533,0
-2.1802247,-0.28727674,-2.2077823,-0.77575672,-0.16588712,-0.60883754,0
-1.9083205,-0.044909239,-0.70107609,-0.61703622,0.40148759,0.67681193,0
-0.88667101,-0.48699504,0.11066264,-0.49397194,-0.44074863,0.74948823,0
0.99475217,0.98173451,0.92776018,-0.13427186,0.98612636,-0.097601071,0
-2.0769038,-0.75535965,-2.1805394,-0.77575672,-0.16588712,-0.60883754,0
-1.9124559,-0.83459997,-2.1493578,-0.77575672,-0.16588712,-0.60883754,0
-2.1075144,-1.0342011,-1.8626602,-0.77575672,-0.16588712,-0.60883754,0
1.9947642,0.64245796,2.2866387,0.77575672,0.16588712,0.60883754,0
2.6480327,0.75259709,1.500638,0.77575672,0.16588712,0.60883754,0
-2.5258632,-0.73464727,-1.4613752,-0.77575672,-0.16588712,-0.60883754,0
0.87745833,-0.39661425,-0.041144669,0.51416308,-0.72551918,-0.45744777,0
-1.5964239,0.28041029,-0.50625902,-0.56712484,0.60636723,0.55739433,0
2.5705209,-0.082904816,1.8126383,0.77575672,0.16588712,0.60883754,0
2.0520697,0.47854304,2.2660687,0.77575672,0.16588712,0.60883754,0
2.3158462,0.71869588,0.90999967,0.54481995,0.31073856,-0.77885365,0
0.84714788,-0.15883628,-0.32722014,0.63086426,-0.22613671,-0.742208,0
2.7984469,0.42090726,1.2743436,0.77575672,0.16588712,0.60883754,0
2.7823093,0.36805224,1.4060113,0.77575672,0.16588712,0.60883754,0
2.4084995,0.31703591,1.8197639,0.77575672,0.16588712,0.60883754,0
-0.53999972,-0.72121155,-0.9952504,0.46147954,-0.80719489,-0.36806661,0
0.41347593,0.9090839,0.69320893,-0.37463284,0.89746761,0.23281378,0
-0.078150988,-0.77457857,-0.44531438,0.29155695,-0.94989395,-0.1126774,0
-1.8402462,-1.0468793,-1.8371732,0.43450868,-0.84008729,-0.3247394,0
-2.7415469,0.023816109,-1.5698686,-0.77575672,-0.16588712,-0.60883754,0
-0.52347529,0.45497131,-1.0444229,0.29171807,0.76126695,-0.57911432,0
-0.4784587,-0.86904174,-0.28659597,0.060530066,-0.97994071,0.18987463,0
-1.8800056,0.30899715,-1.3366237,-0.13881147,0.98605514,-0.091797516,0
-1.7308786,-0.71988344,-2.3786023,-0.77575672,-0.16588712,-0.60883754,0
2.4663789,0.17617202,1.5919409,0.77575672,0.16588712,0.60883754,0
-2.1538172,-0.6628089,-1.9349151,-0.77575672,-0.16588712,-0.60883754,0
-2.4457245,-1.1099694,-1.5510314,-0.77575672,-0.16588712,-0.60883754,0
1.5102698,-0.034371257,0.36719635,0.61627841,-0.40657824,-0.6744594,0
0.15910023,0.44159317,0.85475063,-0.59504986,0.51345062,0.61829174,0
0.87266457,0.080507517,1.5924656,-0.52550292,-0.36432317,0.76884049,0
1.0243459,1.0193275,1.0971115,-0.32365611,0.93285221,0.15822023,0
-2.6618977,-0.10026455,-1.5550534,-0.77575672,-0.16588712,-0.60883754,0
-0.46471852,-0.81713736,-0.13923794,-0.099304199,-0.92071396,0.37739193,0
-1.409757,0.1248306,-0.26650053,-0.61549222,0.41171166,0.67205882,0
-2.0473797,-1.0788486,-2.1014912,-0.77575672,-0.16588712,-0.60883754,0
2.4639339,1.2493684,1.5355872,0.77575672,0.16588712,0.60883754,0
2.0518162,-0.20576298,0.81896847,0.56649077,-0.60814357,-0.5561024,0
-2.5999968,0.085406303,-1.7404763,-0.77575672,-0.16588712,-0.60883754,0
2.4398723,0.60390139,1.6527373,0.77575672,0.16588712,0.60883754,0
0.29406929,0.70641804,0.21657969,-0.14974397,0.98566234,-0.077760637,0
2.720397,0.1563828,1.4340786,0.77575672,0.16588712,0.60883754,0
-2.1978073,-1.0689695,-1.1005754,-0.34513348,-0.69619238,0.62944359,0
0.66680139,0.86105382,0.70147228,-0.29173619,0.94980901,0.11292899,0
-2.3553481,-0.11175156,-1.0620292,-0.59306443,0.52128237,0.61362815,0
-1.484961,-0.0098176003,-1.8603846,0.43707734,0.55466437,-0.70803332,0
2.428287,0.93685889,1.6138823,0.77575672,0.16588712,0.60883754,0
-2.6028848,-0.43907905,-1.6108611,-0.77575672,-0.16588712,-0.60883754,0
1.3135792,-0.18026036,0.3114332,0.59989929,-0.49318415,-0.6299926,0
-0.76798368,-0.7737211,-1.3120296,0.54168016,-0.66998935,-0.50763875,0
-0.6327731,-0.80447513,-0.21024205,-0.014845371,-0.95976353,0.28041741,0
-2.0899534,-0.75722337,-2.0913131,-0.77575672,-0.16588712,-0.60883754,0
-1.0539323,0.18214637,-0.076981783,-0.62122428,0.37020963,0.69067037,0
-2.3108056,-0.71731329,-1.6294657,-0.77575672,-0.16588712,-0.60883754,0
2.3612742,-0.31902599,1.6067363,0.23591048,-0.97110796,-0.035994768,0
0.6377154,0.13951826,1.3795272,-0.60058957,-0.10196492,0.79302943,0
1.9199102,0.29952192,2.3375449,0.77575672,0.16588712,0.60883754,0
2.31141,0.82547164,1.7585821,0.77575672,0.16588712,0.60883754,0
0.97993219,0.98887527,1.2423159,-0.36567315,0.90449452,0.21948314,0
0.69425243,0.23694736,-0.33388704,0.5439136,0.31339526,-0.77842247,0
1.9429827,0.50478756,0.62914538,0.60613483,0.072456382,-0.79205501,0
0.030703902,0.80742359,0.49961603,-0.41172656,0.8642236,0.28913504,0
-2.37691,-0.13446164,-1.7688701,-0.77575672,-0.16588712,-0.60883754,0
2.4255834,0.40105438,1.6800525,0.77575672,0.16588712,0.60883754,0
2.5239961,0.61026883,1.6959441,0.77575672,0.16588712,0.60883754,0
2.0055885,-0.1068511,2.2435644,-0.29470402,-0.75790626,0.58200318,0
-0.78224981,0.27510828,0.11808383,-0.56708491,0.60647953,0.55731273,0
2.4600513,-0.22674394,1.7687641,0.77575672,0.16588712,0.60883754,0
-2.3552759,-0.53154612,-1.8869598,-0.77575672,-0.16588712,-0.60883754,0
-2.8248186,-0.10710478,-1.4580045,-0.77575672,-0.16588712,-0.60883754,0
-0.84587449,0.43486142,0.15020883,-0.53372055,0.68723559,0.49279803,0
2.509691,0.75592995,1.5728692,0.77575672,0.16588712,0.60883754,0
2.0646973,0.11745858,2.3861449,0.77575672,0.16588712,0.60883754,0
-1.4669589,-0.02368772,-0.14984107,-0.62927431,0.27533135,0.72677839,0
0.50053841,0.60510147,-0.29568741,0.33527374,0.70902932,-0.62037826,0
-1.2022439,0.20091718,-0.034932911,-0.62392116,0.34607178,0.70068324,0
-2.3532462,-0.77605796,-1.7190787,-0.77575672,-0.16588712,-0.60883754,0
-2.1331599,-0.0020525455,-2.1357439,-0.77575672,-0.16588712,-0.60883754,0
1.2744632,-0.53092194,0.9896338,0.17425936,-0.98362625,0.045969456,0
2.5408931,1.1933444,1.395174,0.2489388,0.80612874,-0.53682983,0
-2.5690687,-0.0431602,-1.4863651,-0.77575672,-0.16588712,-0.60883754,0
-2.3239038,-0.40444517,-1.7282844,-0.77575672,-0.16588712,-0.60883754,0
2.3836277,-0.23801851,1.6628249,0.29908764,-0.94622988,-0.12327105,0
0.27147892,0.26823878,1.0933375,-0.63020021,0.25319272,0.73399007,0
2.1959445,1.2142527,1.9248773,-0.27398902,0.95768273,0.088170946,0
1.8316741,0.87862968,2.292583,0.77575672,0.16588712,0.60883754,0
-0.67028308,0.67708093,-0.384772,-0.240794,0.9696402,0.042617142,0
-1.7515866,-0.62022185,-2.2540073,0.63102418,-0.20879263,-0.74713755,0
2.4715714,0.84403014,1.6728717,0.77575672,0.16588712,0.60883754,0
-1.9662282,-1.1323662,-1.4552166,0.071030021,-0.98165137,0.17696205,0
0.63040733,0.63928759,1.2406307,-0.60512549,0.46917608,0.64319289,0
-0.25708979,-0.68228132,-0.88389862,0.5572648,-0.63277483,-0.53763574,0
2.004523,-0.027651429,0.82203573,0.58429199,-0.55323696,-0.5937441,0
-2.2764616,-0.56735682,-1.8550491,-0.77575672,-0.16588712,-0.60883754,0
1.8638468,1.0619905,1.8269036,-0.36310148,0.90644449,0.21567512,0
1.2668073,0.90620375,1.5101314,-0.51912868,0.71629733,0.46628737,0
-2.3731182,-0.64896679,-1.6806685,-0.77575672,-0.16588712,-0.60883754,0
-0.94893998,-0.91206145,-0.58350348,0.087386847,-0.98377293,0.15669888,0
-2.3741646,-0.78899479,-1.7259635,-0.77575672,-0.16588712,-0.60883754,0
-2.0415258,-0.54726362,-0.70146233,-0.55618751,-0.27602404,0.7838791,0
2.0157962,1.0963719,2.0855968,0.77575672,0.16588712,0.60883754,0
-1.4637334,-0.31436825,-2.1202557,0.58699024,0.16442791,-0.79272079,0
-2.5425682,0.28370714,-1.8061609,-0.25133771,0.96622074,0.056983262,0
1.9288938,0.93058014,0.8988719,0.31554854,0.73356026,-0.60192901,0
0.93870974,0.5965488,1.6179498,-0.62674659,0.31480274,0.71280301,0
-0.24510103,0.15256378,0.72265267,-0.62621838,0.083430625,0.77517086,0
-0.017310381,-0.77189296,-0.34518987,0.34744099,-0.91769767,-0.19265509,0
1.099334,-0.26156974,1.4851357,-0.3108446,-0.73919249,0.59747005,0
-2.4297073,-0.3032918,-1.6951709,-0.77575672,-0.16588712,-0.60883754,0
0.12245032,-0.16840768,0.96381664,-0.53127021,-0.34895167,0.77200067,0
2.3668506,0.34729958,1.7448992,0.77575672,0.16588712,0.60883754,0
1.2693582,0.59741449,1.8371161,-0.60818613,0.45381272,0.65127861,0
-2.2746716,-0.62010074,-1.8021054,-0.77575672,-0.16588712,-0.60883754,0
2.4315555,0.36323738,1.5848019,0.77575672,0.16588712,0.60883754,0
-1.8641269,-0.22429943,-2.3441,-0.77575672,-0.16588712,-0.60883754,0
-0.59803891,-0.3326261,-1.3909719,0.62780708,-0.10546788,-0.7711907,0
0.3542985,0.09576986,-0.63486505,0.58143365,0.187042,-0.79180223,0
-1.1714641,-0.71439183,-0.20112085,-0.31934285,-0.72895736,0.6055094,0
0.18277547,0.1602245,-0.76390535,0.57869291,0.19771257,-0.79121739,0
2.4884622,0.5809412,1.5214739,0.77575672,0.16588712,0.60883754,0
-1.3011047,0.073445797,-1.8041096,0.43511462,0.55816799,-0.70648718,0
-2.5963519,-0.029174805,-1.1872054,-0.6112119,0.43744209,0.65959436,0
2.4575803,0.60797572,1.6978228,0.77575672,0.16588712,0.60883754,0
-1.1490929,-0.83944595,-1.4858997,0.4749954,-0.78868276,-0.39033192,0
2.103909,0.39954901,2.2387598,0.77575672,0.16588712,0.60883754,0
2.2814081,0.5583632,1.7301704,0.77575672,0.16588712,0.60883754,0
2.2112989,0.93689466,2.0165987,0.77575672,0.16588712,0.60883754,0
-0.51606983,-0.14859927,-1.2433782,0.61620343,0.0087940097,-0.78753811,0
-2.1436713,-0.10843658,-2.2140009,-0.77575672,-0.16588712,-0.60883754,0
1.8470173,-0.35705948,1.6859214,-0.025466084,-0.95581222,0.29287317,0
2.218945,0.77623057,2.034977,0.77575672,0.16588712,0.60883754,0
-0.77714121,-0.77977467,-0.16004816,-0.13640243,-0.89793658,0.41845492,0
-2.6467018,-0.55489016,-1.0593587,-0.60966986,-0.051889293,0.79095542,0
-1.0023218,-0.71332991,-0.22593534,-0.33500177,-0.70937777,0.62012672,0
2.5534236,0.030032158,1.7449107,0.77575672,0.16588712,0.60883754,0
-2.313035,0.040802002,-2.0966756,-0.77575672,-0.16588712,-0.60883754,0
2.5704279,0.70580649,1.3089386,0.77575672,0.16588712,0.60883754,0
2.4800999,-0.11358356,1.6850061,0.77575672,0.16588712,0.60883754,0
2.4268069,1.1093597,1.589347,0.77575672,0.16588712,0.60883754,0
1.3736193,-0.54928166,0.69413525,0.36199993,-0.90727079,-0.21404648,0
2.0968368,0.37941003,2.1199389,0.77575672,0.16588712,0.60883754,0
-2.2612293,-0.23547077,-1.8330617,-0.77575672,-0.16588712,-0.60883754,0
-1.2681532,-0.79919529,-1.8948905,0.58361793,-0.55553555,-0.59225893,0
-2.7325699,-0.031648159,-1.5985715,-0.77575672,-0.16588712,-0.60883754,0
-2.0200469,-0.98759341,-1.923804,-0.77575672,-0.16588712,-0.60883754,0
0.51710588,-0.15616632,1.3414533,-0.52502882,-0.36556506,0.76857471,0
2.1574116,0.42790103,1.9838716,0.77575672,0.16588712,0.60883754,0
2.3643162,0.27202344,1.8161904,0.77575672,0.16588712,0.60883754,0
-2.1002824,-1.009954,-2.0661659,-0.77575672,-0.16588712,-0.60883754,0
2.4490285,0.88452196,1.6912439,0.77575672,0.16588712,0.60883754,0
-1.3414918,-0.54826307,-1.884357,0.63102585,-0.19958806,-0.74964738,0
-2.3245115,-0.49293375,-1.8781344,-0.77575672,-0.16588712,-0.60883754,0
-1.2629914,-0.95659232,-0.48359191,-0.13873172,-0.89638823,0.42100099,0
2.4506583,0.088680029,1.8789316,0.77575672,0.16588712,0.60883754,0
2.3497379,1.1266811,1.5813763,0.77575672,0.16588712,0.60883754,0
-2.8474343,-0.41756272,-1.2822009,-0.77575672,-0.16588712,-0.60883754,0
-2.3689632,-0.87582088,-1.7197673,-0.77575672,-0.16588712,-0.60883754,0
-0.4638831,-0.92062497,-0.57356113,0.26714069,-0.96043903,-0.078693986,0
-2.169549,-0.18265605,-1.949752,-0.77575672,-0.16588712,-0.60883754,0
0.72839844,0.80092978,1.0774767,-0.43972287,0.83411521,0.33301026,0
0.54522169,0.74471176,1.1398013,-0.54437757,0.6638934,0.51273674,0
2.4775515,0.32531548,1.7137052,0.77575672,0.16588712,0.60883754,0
2.4905367,0.13823128,0.97290003,0.61984497,-0.38118726,-0.68592179,0
-1.9706159,0.090901732,-0.89260775,-0.57993692,0.56774527,0.58424193,0
2.1442649,-0.23041439,1.3697164,0.30866361,-0.94127935,-0.13682127,0
2.7622659,0.53565049,1.325176,0.77575672,0.16588712,0.60883754,0
-2.2295337,-0.41816163,-0.85527724,-0.60995007,-0.050188892,0.79084903,0
-1.6010402,-0.83722222,-0.62301469,-0.23993021,-0.81482738,0.52772158,0
2.1567018,-0.19041324,1.2330588,0.44844741,-0.82371986,-0.34695911,0
-1.8725808,-0.59626436,-2.3669536,-0.77575672,-0.16588712,-0.60883754,0
0.7939977,0.42739677,-0.34958512,0.48159754,0.46780777,-0.74109381,0
-2.227375,0.0031318665,-2.2333393,-0.77575672,-0.16588712,-0.60883754,0
2.6294124,0.36898303,1.4245355,0.77575672,0.16588712,0.60883754,0
-0.92078555,0.47704542,-0.78374779,-0.0048911572,0.96637982,-0.25707257,0
0.43610132,0.65445673,-0.098178446,0.15741128,0.88345659,-0.44127822,0
-1.393371,-1.1256034,-1.5691588,0.37533027,-0.89690512,-0.23385566,0
2.3966694,0.49807358,1.8079113,0.77575672,0.16588712,0.60883754,0
2.8057818,0.17355323,1.4332027,0.77575672,0.16588712,0.60883754,0
1.9826593,1.159441,1.7658216,-0.19433653,0.98073918,-0.019601136,0
-1.1623108,-0.70772564,-0.31371462,-0.30153692,-0.75009799,0.58858192,0
-2.1671507,-0.48396754,-1.8827003,-0.77575672,-0.16588712,-0.60883754,0
-2.502291,-0.074029684,-1.8192509,-0.77575672,-0.16588712,-0.60883754,0
-2.1446564,-0.52541256,-1.9254738,-0.77575672,-0.16588712,-0.60883754,0
-0.28093258,0.36879373,-0.97154737,0.32173121,0.72603196,-0.60775554,0
-0.79922712,0.50977147,-0.24146673,-0.42712206,0.84825331,0.31310266,0
2.1422272,1.1847067,1.8331482,0.77575672,0.16588712,0.60883754,0
-2.231169,-0.38810825,-1.895123,-0.77575672,-0.16588712,-0.60883754,0
2.838356,0.19056988,1.3045099,0.77575672,0.16588712,0.60883754,0
-2.7036147,-0.06145668,-1.5525964,-0.77575672,-0.16588712,-0.60883754,0
