-0.391325,-0.38953677,0.6892243,-0.71662122,-0.40773153,0.56586951,0
-0.48559368,0.0010275031,0.45443165,-0.68312919,-0.013659205,0.73016953,0
0.35491565,-0.32842439,0.11193782,0.6931951,-0.32675898,0.64242411,0
-0.50288916,-0.60704464,-0.26204574,-0.27424777,-0.94386095,-0.18415886,0
-0.67957932,0.24596414,0.1452271,-0.6931951,0.32675898,-0.64242411,0
-0.54508811,0.068029583,-0.27564117,-0.6931951,0.32675898,-0.64242411,0
-0.18933898,0.47459772,0.61257148,-0.31925106,0.659917,0.68013823,0
-0.027217083,0.41853091,-0.40586996,-0.6931951,0.32675898,-0.64242411,0
-0.57106823,0.47956464,0.38805926,-0.45665497,0.49048293,0.74222124,0
0.75363874,-0.20038921,-0.044043988,0.6931951,-0.32675898,0.64242411,0
0.33548784,-0.74298018,0.015656427,0.6931951,-0.32675898,0.64242411,0
-0.77052128,0.21146837,0.22163767,-0.6931951,0.32675898,-0.64242411,0
0.17764792,0.66238338,-0.20276594,0.52037197,0.84361207,-0.13240671,0
-0.29725832,0.22495723,0.70723283,-0.4868325,0.44499505,0.75164694,0
0.71583128,0.10563993,0.13042945,0.6931951,-0.32675898,0.64242411,0
0.1554544,0.49982476,0.72075891,-0.20509458,0.76505202,0.61043525,0
-0.39243305,0.57105076,0.452169,-0.30149853,0.67813385,0.67024845,0
-0.62220067,-0.39614007,0.1452089,-0.67409778,-0.60939032,0.41741496,0
-0.092766397,0.47383779,-0.54180616,-0.6931951,0.32675898,-0.64242411,0
0.35847589,0.085748494,-0.69289154,0.69495165,0.06668058,-0.71595776,0
-0.023188651,0.88951123,-0.20411271,0.41604146,0.90924454,0.01355201,0
0.18721801,-0.0056930184,0.61520404,0.6931951,-0.32675898,0.64242411,0
-0.30575109,0.78374326,-0.0055849701,0.010094643,0.89564151,0.44466195,0
0.49254379,0.42971736,0.50943446,0.6931951,-0.32675898,0.64242411,0
-0.24205267,-0.48123783,-0.51621026,0.014282107,-0.88492495,-0.46551439,0
-0.19803172,-0.57032657,-0.69874334,0.1763407,-0.78734881,-0.59074998,0
-0.87677908,-0.31080461,0.12635958,-0.66992962,-0.6208719,0.40707731,0
0.74837416,0.06000492,0.066675484,0.6931951,-0.32675898,0.64242411,0
0.024460852,-0.80310571,0.18084356,-0.27270639,-0.94397062,-0.18587789,0
0.13035753,-0.16504651,0.62659764,0.6931951,-0.32675898,0.64242411,0
-0.60822177,-0.3595894,-0.31464976,-0.6931951,0.32675898,-0.64242411,0
-0.64065182,-0.53684652,0.17421335,-0.63044882,-0.70686817,0.32073557,0
-0.25235242,0.3866463,0.71881855,-0.4657793,0.47710747,0.74526352,0
-0.44999871,0.25959605,-0.077356264,-0.6931951,0.32675898,-0.64242411,0
0.045251489,-0.089342624,-0.82893991,-0.6931951,0.32675898,-0.64242411,0
-0.037919961,0.2914831,-0.66603935,-0.6931951,0.32675898,-0.64242411,0
-0.67332375,-0.037220687,-0.020424932,-0.6931951,0.32675898,-0.64242411,0
-0.8710314,0.22359884,0.17719281,-0.6931951,0.32675898,-0.64242411,0
0.17587648,-0.12898618,0.51720762,0.6931951,-0.32675898,0.64242411,0
-0.84615248,-0.36695361,-0.14546204,-0.6931951,0.32675898,-0.64242411,0
-0.34076667,-0.18497318,-0.59666252,-0.6931951,0.32675898,-0.64242411,0
-0.28275245,0.37579918,-0.43640298,-0.6931951,0.32675898,-0.64242411,0
-0.094251812,0.14626437,-0.60299146,-0.6931951,0.32675898,-0.64242411,0
0.48464638,-0.57181871,-0.3246659,0.29402697,-0.68558329,-0.66597557,0
-0.073849782,-0.49946627,0.46310073,0.6931951,-0.32675898,0.64242411,0
0.22412594,-0.45456624,0.43262297,0.6931951,-0.32675898,0.64242411,0
0.59495193,0.64760458,0.097316682,0.47289521,0.87884498,-0.063257098,0
-0.35062933,-0.18628871,0.6857385,-0.71758378,-0.22943541,0.65759587,0
-0.54201305,0.067959473,0.4540807,-0.66051197,0.068716235,0.74766392,0
0.22432727,-0.54115105,-0.39659271,0.16119266,-0.79846597,-0.58005929,0
-0.72454381,-0.21644494,0.15787578,-0.71445101,-0.42910135,0.55265838,0
0.35732514,-0.51889229,-0.40550458,0.38347536,-0.58749211,-0.71260041,0
-0.23121947,-0.29667959,-0.79377282,-0.6931951,0.32675898,-0.64242411,0
0.31158882,-0.61545706,0.1235255,0.6931951,-0.32675898,0.64242411,0
-0.01459378,-0.44750071,0.49014467,0.6931951,-0.32675898,0.64242411,0
-0.55644238,-0.34551185,-0.2634868,-0.6931951,0.32675898,-0.64242411,0
-0.89161593,-0.11488202,0.030085921,-0.6931951,0.32675898,-0.64242411,0
-0.0080648661,0.094306022,0.8948667,0.6931951,-0.32675898,0.64242411,0
-0.032900214,0.63742656,-0.41441894,-0.6931951,0.32675898,-0.64242411,0
-0.10185668,-0.67658901,0.47624344,0.6931951,-0.32675898,0.64242411,0
-0.28265667,0.55348718,0.33388367,-0.25436771,0.72306174,0.64224482,0
-0.38867727,-0.25140977,0.65771437,-0.7167722,-0.21902128,0.66201717,0
0.31880468,-0.33350661,0.11514995,0.6931951,-0.32675898,0.64242411,0
0.83701015,0.28069186,0.0033379793,0.6396423,0.68968755,-0.33939439,0
0.042424843,0.59105706,-0.60383976,-0.6931951,0.32675898,-0.64242411,0
-0.63151628,0.34616011,0.032174319,-0.6931951,0.32675898,-0.64242411,0
-0.039757818,-0.86556506,0.46555918,0.6931951,-0.32675898,0.64242411,0
-0.77127057,-0.41023034,0.015263617,-0.64806837,-0.6726411,0.35715681,0
0.76783872,-0.23183191,-0.11717036,0.6931951,-0.32675898,0.64242411,0
-0.27427143,0.92033648,-0.13609135,-0.6931951,0.32675898,-0.64242411,0
-0.50740039,0.74260974,0.19915001,-0.29606956,0.68355924,0.66715002,0
-0.15435773,-0.40690523,-0.74285245,-0.6931951,0.32675898,-0.64242411,0
-0.74458826,0.43467841,0.25988781,-0.6931951,0.32675898,-0.64242411,0
0.11522992,0.80365944,-0.49129432,0.52847958,0.83651161,-0.14476657,0
0.59395999,0.31084156,-0.19936419,0.70943624,0.46664065,-0.52815366,0
0.072288901,-0.65750045,0.45519912,0.6931951,-0.32675898,0.64242411,0
-0.66922075,0.22558722,0.34053808,-0.57633001,0.28394493,0.76630187,0
0.51941603,-0.017348468,0.32490012,0.6931951,-0.32675898,0.64242411,0
-0.14531761,0.60339081,0.43850353,-0.19963312,0.76940918,0.60675842,0
0.59004062,-0.4521246,-0.46425265,0.44410068,-0.50838447,-0.73778009,0
-0.30177695,-0.43707743,0.64776045,-0.70092708,-0.51322716,0.49527645,0
0.066481978,0.20696968,-0.83428717,-0.6931951,0.32675898,-0.64242411,0
0.60842794,-0.010534227,0.25903341,0.6931951,-0.32675898,0.64242411,0
-0.76272213,-0.014116466,-0.11641467,-0.6931951,0.32675898,-0.64242411,0
-0.43745849,-0.72115266,0.063201368,-0.53293824,-0.8324551,0.15164101,0
0.12891394,-0.83235848,-0.08799468,-0.041681051,-0.90800971,-0.41687024,0
-0.66966724,-0.12499236,0.5078398,-0.71503592,-0.19976398,0.66993856,0
-0.25209302,0.84214652,-0.22631103,-0.6931951,0.32675898,-0.64242411,0
0.73703194,-0.045288146,-0.10810733,0.6931951,-0.32675898,0.64242411,0
-0.4932709,-0.34175143,0.32016701,-0.69592804,-0.53534597,0.47863185,0
-0.41677111,0.41847718,0.36280975,-0.39708114,0.57072127,0.71875119,0
-0.1672585,-0.63173646,-0.46631277,-0.077207863,-0.91986334,-0.38456485,0
-0.036925793,-0.77292645,0.07367295,-0.20793796,-0.94409412,-0.25582775,0
-0.51392466,-0.14596313,-0.28719765,-0.6931951,0.32675898,-0.64242411,0
0.61666232,0.44173849,-0.34875488,0.67220026,0.61469597,-0.4126687,0
0.87723148,0.1722298,-0.10042387,0.6931951,-0.32675898,0.64242411,0
-0.77644891,0.060952216,0.060060501,-0.6931951,0.32675898,-0.64242411,0
-0.29842609,-0.16440007,-0.54032528,-0.6931951,0.32675898,-0.64242411,0
0.52889633,0.13293305,0.27060267,0.6931951,-0.32675898,0.64242411,0
0.40509987,0.25156927,0.42995277,0.6931951,-0.32675898,0.64242411,0
-0.059945017,0.61738181,-0.25883213,-0.6931951,0.32675898,-0.64242411,0
-0.38651732,-0.52790987,-0.46895778,-0.17194325,-0.94056439,-0.29287183,0
0.47478467,0.65278029,-0.069376767,0.51492023,0.84819382,-0.12419367,0
0.72061765,0.035374433,0.05879885,0.6931951,-0.32675898,0.64242411,0
0.14441711,0.10510287,0.76739728,0.6931951,-0.32675898,0.64242411,0
-0.080834448,-0.25693956,-0.74669975,0.37200791,-0.60121971,-0.70720899,0
0.35479468,-0.0016012788,0.51936597,0.6931951,-0.32675898,0.64242411,0
-0.45730066,0.01562649,-0.24755022,-0.6931951,0.32675898,-0.64242411,0
-0.22628352,0.47258842,-0.18974487,-0.6931951,0.32675898,-0.64242411,0
0.55926371,-0.52422786,-0.21162817,0.42265248,-0.5377019,-0.72954869,0
-0.50461441,0.13914293,-0.31267262,-0.6931951,0.32675898,-0.64242411,0
0.44032663,-0.42587671,-0.51051593,0.5333544,-0.366956,-0.76215225,0
0.33547431,-0.63355494,-0.24275257,0.24866408,-0.72817534,-0.63869137,0
0.1704489,0.62729132,0.6066525,-0.011606336,0.88615113,0.46325085,0
0.30817959,0.45160225,-0.52018762,0.6900112,0.5583902,-0.46052635,0
0.9198947,-0.044166923,-0.15061963,0.6931951,-0.32675898,0.64242411,0
0.17291078,-0.64604926,0.40304118,0.6931951,-0.32675898,0.64242411,0
-0.15665932,0.35185415,-0.55801737,-0.6931951,0.32675898,-0.64242411,0
0.011570454,-0.5334816,-0.43686414,0.15851504,-0.80038655,-0.57814699,0
-0.27478302,0.30015594,-0.33994114,-0.6931951,0.32675898,-0.64242411,0
0.4349274,-0.83833206,-0.09472923,0.16599512,-0.79498774,-0.58347213,0
0.16833135,0.56950647,-0.66246849,-0.6931951,0.32675898,-0.64242411,0
-0.54832381,-0.58272856,-0.22926795,-0.45949084,-0.88706106,0.044614494,0
0.17804521,-0.72552812,0.103733,0.6931951,-0.32675898,0.64242411,0
-0.42695326,-0.54927391,-0.11226571,-0.45169374,-0.89152753,0.033929348,0
-0.24167073,0.73066133,-0.23941851,-0.6931951,0.32675898,-0.64242411,0
-0.82348436,-0.25099701,0.026829362,-0.6721096,-0.61494607,0.4124437,0
-0.032769144,0.73489261,0.011309743,0.20190889,0.94367647,0.26212093,0
-0.65296072,0.3435204,0.15688625,-0.6931951,0.32675898,-0.64242411,0
0.060082912,-0.47676915,-0.54280674,0.29357886,-0.68602592,-0.66571718,0
-0.83410418,-0.12771058,-0.01900363,-0.6931951,0.32675898,-0.64242411,0
0.2094996,-0.84420764,-0.077306822,-0.067416072,-0.91681492,-0.3935799,0
0.8791666,0.24122024,-0.12386596,0.71920955,0.37183514,-0.58692062,0
-0.59970462,-0.50920415,0.26367915,-0.67223412,-0.61460239,0.41275281,0
0.0080156922,0.83136868,0.083436757,0.23704386,0.94510055,0.22493351,0
-0.067272067,-0.48630875,0.60315692,0.6931951,-0.32675898,0.64242411,0
-0.41001004,-0.34634206,0.6452145,-0.72061485,-0.33145463,0.60897583,0
0.43200585,0.10985185,-0.60889375,0.67643404,-0.012777701,-0.73639214,0
-0.59721184,0.13838404,0.36289585,-0.66437149,0.05589857,0.745309,0
0.13831872,-0.34191608,-0.55373126,0.39585882,-0.57224989,-0.71820974,0
-0.45257944,0.64553094,0.17155954,-0.6931951,0.32675898,-0.64242411,0
0.47677395,0.59675825,-0.17632449,0.58797783,0.77187693,-0.24184239,0
0.36953351,0.62980849,0.57643485,0.13167989,0.93374151,0.33284682,0
0.48407769,-0.65369618,-0.30031714,0.30344391,-0.67617327,-0.6713503,0
0.17268696,0.74660766,-0.52588063,0.55791938,0.80755466,-0.19126141,0
0.6846056,0.44193661,-0.012643754,0.59256172,0.7657851,-0.24988711,0
0.15254676,0.60395706,0.48960164,-0.020047247,0.88224131,0.47037023,0
0.40730727,0.64678466,0.23148772,0.26229554,0.94457734,0.19742006,0
-0.97619569,-0.13369253,0.16145176,-0.6931951,0.32675898,-0.64242411,0
-0.3290211,-0.09069255,0.89362055,-0.67760229,0.0083118603,0.73538125,0
0.065134779,-0.19693106,0.74270654,0.6931951,-0.32675898,0.64242411,0
-0.51103771,-0.038240261,0.5097611,-0.70564049,-0.12613024,0.69725323,0
-0.32323822,-0.59258145,-0.36348513,-0.078770459,-0.9203344,-0.38311836,0
0.21436408,0.82153356,-0.44024926,0.59439456,0.76329505,-0.25313133,0
-0.1837514,0.21529961,-0.6065625,-0.6931951,0.32675898,-0.64242411,0
0.031503189,0.40969837,-0.643291,-0.6931951,0.32675898,-0.64242411,0
-0.57649231,0.10865073,0.54493791,-0.65036142,0.10060817,0.75293255,0
-0.43045682,-0.62205648,-0.29240009,-0.4085235,-0.91245037,-0.023294806,0
-0.024864316,-0.10641414,0.65046811,0.6931951,-0.32675898,0.64242411,0
0.66202748,-0.26759088,-0.088627964,0.6931951,-0.32675898,0.64242411,0
-0.15216029,0.3875376,-0.29669705,-0.6931951,0.32675898,-0.64242411,0
0.087502196,0.51389295,-0.58714193,-0.6931951,0.32675898,-0.64242411,0
-0.4624767,-0.60455304,0.26415449,-0.56512159,-0.79962593,0.20306581,0
0.26523107,-0.2822254,-0.55962223,0.46186793,-0.48287973,-0.74397898,0
-0.39804071,0.52895546,-0.092251718,-0.6931951,0.32675898,-0.64242411,0
-0.12643898,-0.54554075,-0.72629225,0.20470357,-0.76536584,-0.61017311,0
0.3577649,0.65965325,0.41024432,0.18756825,0.94240057,0.27694589,0
0.56997341,-0.4820343,-0.37388504,0.47565901,-0.4622618,-0.74837303,0
-0.38643301,-0.71514475,-0.37244233,-0.24003327,-0.9451074,-0.22171131,0
0.67454153,0.39331159,-0.11882615,0.61729968,0.72926199,-0.29515713,0
0.58099025,-0.1319041,-0.48675728,0.66753328,-0.045072373,-0.74321401,0
-0.85682452,0.030922264,0.19639003,-0.71833891,-0.24037497,0.6528464,0
0.26619807,0.00081831217,0.59336513,0.6931951,-0.32675898,0.64242411,0
-0.41127235,0.46898013,0.40013516,-0.44192713,0.51142669,0.73698223,0
-0.059325099,0.83451366,0.098033011,0.11653918,0.93041295,0.34749106,0
0.42632276,-0.58691031,0.047952607,0.6931951,-0.32675898,0.64242411,0
0.043524727,-0.0870215,0.62396032,0.6931951,-0.32675898,0.64242411,0
0.43736643,-0.56618983,-0.37481847,0.26711529,-0.71138567,-0.65006113,0
-0.51113158,-0.45460051,-0.46037471,-0.6931951,0.32675898,-0.64242411,0
0.36347842,-0.33670735,-0.61172271,0.5661754,-0.30469847,-0.76590061,0
-0.47402313,-0.5006246,0.51966071,-0.7054252,-0.49040905,0.51173604,0
-0.20249134,-0.24278536,-0.77718395,-0.6931951,0.32675898,-0.64242411,0
-0.0089216381,-0.23110014,0.69233656,0.6931951,-0.32675898,0.64242411,0
0.52480519,0.49455726,-0.078213692,0.55229181,0.81350493,-0.1821627,0
-0.025042921,0.73164451,-0.16336337,0.31482485,0.93907285,0.13793951,0
-0.51364321,-0.4752146,-0.4228327,-0.6931951,0.32675898,-0.64242411,0
0.58102047,5.1856041e-05,0.29230884,0.6931951,-0.32675898,0.64242411,0
-0.13496876,-0.7898289,0.11651617,-0.31624696,-0.93883657,-0.13628489,0
0.36183482,-0.51394939,-0.50050068,0.40151858,-0.56513453,-0.72069776,0
-0.091068491,-0.26875651,0.70333731,0.6931951,-0.32675898,0.64242411,0
0.70896554,0.069713712,-0.26740271,0.71161413,0.16881883,-0.68198597,0
0.0025718063,-0.17611176,0.65943056,0.6931951,-0.32675898,0.64242411,0
-0.1141597,0.50839919,0.56260401,-0.22750282,0.74656194,0.62520987,0
-0.19553733,0.13150907,0.89688373,-0.53750169,0.35945594,0.7628125,0
0.13988888,0.17825228,0.80915213,0.6931951,-0.32675898,0.64242411,0
-0.061308146,-0.044940174,0.80657482,0.6931951,-0.32675898,0.64242411,0
-0.12723532,0.33437136,-0.33508384,-0.6931951,0.32675898,-0.64242411,0
-0.35756403,0.64455789,0.30804229,-0.27389568,0.70503402,0.65414661,0
0.363675,0.58189809,-0.49014407,0.69229704,0.5498271,-0.46734834,0
-0.2308656,0.86112982,0.022555023,0.0022742748,0.89231455,0.45140821,0
-0.40224302,0.74867684,-0.11137229,-0.6931951,0.32675898,-0.64242411,0
-0.20994031,-0.62845236,-0.5752579,-0.0048390627,-0.89341718,-0.44920155,0
0.058164418,-0.32946172,-0.78609073,0.31525379,-0.66408324,-0.67794406,0
-0.22410339,-0.52303338,-0.76156127,0.043473303,-0.87074888,-0.48980218,0
-0.35238385,0.17976716,0.57955503,-0.60144442,0.22892165,0.76541418,0
0.6622203,0.10526389,-0.22405678,0.72074628,0.31148949,-0.61927271,0
-0.028122723,0.72531468,0.18941133,0.17772961,0.94129807,0.28700137,0
0.38593537,-0.65012389,0.019557223,0.6931951,-0.32675898,0.64242411,0
-0.25636634,-0.64376712,-0.10469654,-0.26224601,-0.94457966,-0.19747469,0
0.22562236,-0.63601685,-0.46253043,0.23429906,-0.74075627,-0.62959021,0
0.5366587,-0.29173332,0.026748061,0.6931951,-0.32675898,0.64242411,0
0.39163101,-0.82068813,-0.11442108,0.10134429,-0.83828318,-0.53573352,0
0.28191692,0.55545914,0.65901208,-0.05316484,0.86571777,0.4977006,0
0.2373748,-0.48543084,0.41155627,0.6931951,-0.32675898,0.64242411,0
-0.43729377,-0.55738634,0.28010625,-0.58631837,-0.77403599,0.23895377,0
-0.67370236,-0.50665247,-0.1997802,-0.6931951,0.32675898,-0.64242411,0
0.30601823,-0.69573987,0.23921829,0.6931951,-0.32675898,0.64242411,0
0.23404849,-0.1089206,0.43164104,0.6931951,-0.32675898,0.64242411,0
0.40834284,-0.85111672,-0.03565044,0.6931951,-0.32675898,0.64242411,0
-0.32227701,-0.096001744,-0.61422038,-0.6931951,0.32675898,-0.64242411,0
0.055093229,0.46703708,0.73656315,-0.31039804,0.66909325,0.67525303,0
-0.35157377,0.59179431,0.49679261,-0.25956434,0.7183435,0.64545232,0
-0.061748639,-0.33721864,0.69166678,0.6931951,-0.32675898,0.64242411,0
-0.50972414,0.43055362,-0.061046377,-0.6931951,0.32675898,-0.64242411,0
0.038968265,0.76312137,-0.087442875,0.24594873,0.94506693,0.21530786,0
-0.71054304,-0.18039578,0.22913891,-0.7206955,-0.30330476,0.6233809,0
0.011464119,0.37726796,0.74169528,-0.31758058,0.6616627,0.67922378,0
0.080159634,-0.81377602,0.30925483,0.6931951,-0.32675898,0.64242411,0
-0.3676163,-0.53898108,-0.37731892,-0.23689204,-0.94509965,-0.22509691,0
0.36954594,0.53181762,-0.29248595,0.66799086,0.62600547,-0.40237409,0
-0.29658729,0.229909,0.64462781,-0.56811088,0.30080223,0.76600748,0
0.31231862,-0.053355694,0.34603524,0.6931951,-0.32675898,0.64242411,0
-0.090260506,-0.73842824,0.024320811,-0.27806973,-0.94356686,-0.17988518,0
-0.051811337,0.80153966,-0.097950161,0.25763339,0.94477403,0.20255077,0
0.11437327,-0.31895947,-0.64732021,0.42871732,-0.52956772,-0.73195559,0
0.21615899,0.3747341,0.82050765,-0.22525203,0.74846423,0.62374884,0
0.51833749,0.13909158,0.16906752,0.6931951,-0.32675898,0.64242411,0
-0.10535612,0.34607691,-0.49543738,-0.6931951,0.32675898,-0.64242411,0
-0.64599615,-0.51311857,-0.38997033,-0.6931951,0.32675898,-0.64242411,0
0.23342827,-0.046332002,0.45117301,0.6931951,-0.32675898,0.64242411,0
0.09506917,-0.06732583,0.75277185,0.6931951,-0.32675898,0.64242411,0
0.29716477,0.60373455,-0.55863744,0.66134053,0.64272553,-0.38669389,0
0.24229407,-0.64095056,-0.28865477,0.2059257,-0.76438385,-0.61099225,0
-0.51717871,-0.10101414,-0.18085937,-0.6931951,0.32675898,-0.64242411,0
0.1223065,0.27552205,-0.86039251,-0.6931951,0.32675898,-0.64242411,0
-0.93612844,0.14645392,0.19474965,-0.6931951,0.32675898,-0.64242411,0
0.5101977,0.39973521,-0.4120093,0.68146342,0.58739287,-0.43655121,0
0.45890835,0.61057621,-0.032999933,0.48635003,0.86987585,-0.08233732,0
0.12498675,0.40246743,-0.72405016,-0.6931951,0.32675898,-0.64242411,0
0.3482765,-0.778355,0.12225246,0.6931951,-0.32675898,0.64242411,0
0.038572609,-0.35203379,-0.64983737,0.32713181,-0.6515913,-0.68440711,0
-0.070114002,-0.30548543,0.80612189,0.6931951,-0.32675898,0.64242411,0
0.22685021,-0.58833742,-0.23121819,0.0673967,-0.85803515,-0.50914955,0
0.050343722,-0.7911312,0.36402416,0.6931951,-0.32675898,0.64242411,0
0.08467567,0.75185299,0.3181015,0.039469421,0.90719968,0.41884458,0
-0.16361839,-0.72765756,-0.044930011,-0.32613477,-0.93706071,-0.12471235,0
0.62958699,0.49865553,0.46075946,0.6931951,-0.32675898,0.64242411,0
0.24570079,-0.027396262,0.38933676,0.6931951,-0.32675898,0.64242411,0
0.39682621,-0.11825031,0.3892377,0.6931951,-0.32675898,0.64242411,0
-0.23112005,0.87966514,0.042583942,0.006311357,0.89404505,0.44793227,0
-0.68651104,0.50378889,0.097402692,-0.6931951,0.32675898,-0.64242411,0
0.76355773,0.27355495,0.12022752,0.6931951,-0.32675898,0.64242411,0
0.26684764,0.5812248,0.25137243,0.2557326,0.94484115,0.20463589,0
-0.82360888,-0.24821845,0.16309023,-0.70496583,-0.49289888,0.509974,0
-0.080931485,-0.79706645,0.10615742,-0.44569978,-0.89481068,0.025791705,0
-0.31689757,0.082906544,0.76946592,-0.63730097,0.1384325,0.75807863,0
-0.50246865,0.11027184,-0.17661008,-0.6931951,0.32675898,-0.64242411,0
0.39497375,0.70124626,0.12401071,0.43723738,0.89923054,-0.014412463,0
0.74995565,0.27298856,-0.02184236,0.6931951,-0.32675898,0.64242411,0
-0.052246213,0.10639638,-0.8088299,-0.6931951,0.32675898,-0.64242411,0
0.012730524,0.66046244,-0.44705588,-0.6931951,0.32675898,-0.64242411,0
0.32510433,-0.49576336,0.13227707,0.6931951,-0.32675898,0.64242411,0
-0.31852537,0.19371599,-0.42253959,-0.6931951,0.32675898,-0.64242411,0
0.52406108,-0.7793743,-0.055458073,0.6931951,-0.32675898,0.64242411,0
0.32550824,0.75303137,-0.037600994,0.43011254,0.90276176,-0.0049284101,0
-0.51740575,-0.22189629,0.36261123,-0.72015202,-0.27771083,0.6358124,0
0.12978679,-0.31645858,-0.79429644,0.51918328,-0.39186701,-0.75953174,0
0.21888271,-0.62393177,0.20275068,0.6931951,-0.32675898,0.64242411,0
-0.40422642,0.80499935,-0.082757071,-0.6931951,0.32675898,-0.64242411,0
-0.074865282,-0.73781878,0.49765027,-0.55577517,-0.80984652,0.18778223,0
-0.33743542,-0.16132182,-0.55465913,-0.6931951,0.32675898,-0.64242411,0
0.56027013,0.4843812,0.5455929,0.6931951,-0.32675898,0.64242411,0
-0.75910884,0.10962233,0.39861876,-0.6904676,-0.045414325,0.72193611,0
-0.66438115,-0.074830323,-0.033015221,-0.6931951,0.32675898,-0.64242411,0
0.87918824,0.10526541,-0.074401557,0.71912843,0.3733117,-0.58608204,0
0.29170516,0.037032664,0.54810554,0.6931951,-0.32675898,0.64242411,0
-0.20969552,-0.60792863,0.52414626,-0.63914156,-0.69065946,0.33835965,0
-0.8539505,-0.10676312,-0.0024854541,-0.6931951,0.32675898,-0.64242411,0
0.26401824,0.75402522,0.29605585,0.18972111,0.9426173,0.2747331,0
0.18003553,-0.37849432,0.49132997,0.6931951,-0.32675898,0.64242411,0
0.74632978,-0.58879298,-0.20610854,0.43184811,-0.52532154,-0.73317403,0
0.21340722,0.69613963,-0.66354668,0.69329351,0.54596674,-0.47038698,0
-0.87470883,-0.076532304,0.056031406,-0.71915507,-0.37283099,0.58635533,0
0.1680782,0.56838888,-0.70732749,0.6863454,0.57136112,-0.44997346,0
-0.24558461,0.25227606,0.79028964,-0.54412818,0.34726444,0.76376146,0
0.60418153,0.41481781,0.24554491,0.6931951,-0.32675898,0.64242411,0
0.63224852,-0.50841331,-0.32910851,0.46171767,-0.48310032,-0.74392903,0
-0.44261163,-0.28170109,0.6448788,-0.71850967,-0.24307011,0.65165979,0
0.63812107,0.42298293,0.25194547,0.6931951,-0.32675898,0.64242411,0
-0.50261992,0.56297565,0.2743935,-0.39778161,0.56984329,0.71906054,0
-0.71224213,-0.26749197,0.20177472,-0.69070274,-0.55584091,0.46256912,0
0.48717347,-0.00015884638,0.37715077,0.6931951,-0.32675898,0.64242411,0
0.50755847,0.3438099,-0.49670184,0.71059048,0.45896381,-0.5333038,0
0.42635083,-0.22283709,-0.5640043,0.53991574,-0.35504466,-0.76317352,0
0.60021311,0.28985006,0.34300259,0.6931951,-0.32675898,0.64242411,0
-0.19444764,-0.27956504,-0.66809988,-0.6931951,0.32675898,-0.64242411,0
-0.024713486,-0.29910225,0.79195869,0.6931951,-0.32675898,0.64242411,0
0.2505396,-0.70069003,0.11300598,0.6931951,-0.32675898,0.64242411,0
-0.75408161,-0.37054032,0.18915951,-0.69964343,-0.51918709,0.49085987,0
-0.05875051,-0.30253398,-0.89736772,0.31849802,-0.66070479,-0.67972636,0
-0.1664359,-0.68496263,-0.51813215,0.026709855,-0.87906891,-0.47594571,0
0.28316715,0.76449323,-0.36350048,0.60221839,0.75229973,-0.26716602,0
0.30386594,0.68162763,0.22880885,0.33190262,0.93591577,0.11790639,0
-0.41374826,-0.083735198,-0.24535979,-0.6931951,0.32675898,-0.64242411,0
0.072709009,-0.27239776,0.69568044,0.6931951,-0.32675898,0.64242411,0
-0.27543908,0.88338274,-0.10597748,0.11011082,0.92887574,0.35364559,0
0.42343768,-0.17733508,0.13363765,0.6931951,-0.32675898,0.64242411,0
0.63971561,0.027228624,0.0040642917,0.6931951,-0.32675898,0.64242411,0
0.67280483,-0.18178952,-0.098171085,0.6931951,-0.32675898,0.64242411,0
0.54591405,0.42708141,-0.43784374,0.69316947,0.54645199,-0.47000635,0
0.19860804,-0.23368782,0.38118523,0.6931951,-0.32675898,0.64242411,0
0.30825722,0.25657678,-0.75354719,0.70103896,0.098647915,-0.70626658,0
-0.4509882,0.075850248,-0.27343184,-0.6931951,0.32675898,-0.64242411,0
-0.5383023,-0.62005329,0.012575924,-0.50313669,-0.85759491,0.1066972,0
-0.50830442,-0.61690855,0.28584093,-0.65850043,-0.64948601,0.38019079,0
-0.16821337,0.37023628,-0.40344393,-0.6931951,0.32675898,-0.64242411,0
-0.15862918,0.045149714,0.83324456,-0.57015878,0.29665029,0.76610523,0
-0.57906044,-0.51351905,-0.20542759,-0.5059126,-0.85544038,0.11078835,0
-0.12552397,-0.52263868,0.60321504,0.6931951,-0.32675898,0.64242411,0
-0.23250327,0.69662756,-0.24644241,-0.6931951,0.32675898,-0.64242411,0
-0.2346262,-0.20188615,-0.77945727,-0.6931951,0.32675898,-0.64242411,0
0.55526394,-0.12756872,0.26246822,0.6931951,-0.32675898,0.64242411,0
0.39514518,0.51347816,-0.47712535,0.67697525,0.60107607,-0.42474866,0
-0.69316995,0.22558048,0.18238521,-0.6931951,0.32675898,-0.64242411,0
-0.79674029,-0.11061928,0.29625994,-0.72062963,-0.33048627,0.60948443,0
-0.21505105,-0.69759321,0.63570845,-0.6668517,-0.62896419,0.3996402,0
0.59623313,-0.1968374,-0.08787021,0.6931951,-0.32675898,0.64242411,0
-0.39375243,0.12564284,-0.39647704,-0.6931951,0.32675898,-0.64242411,0
0.085223705,-0.54587036,0.45724365,0.6931951,-0.32675898,0.64242411,0
-0.68363482,-0.20098019,-0.21700329,-0.6931951,0.32675898,-0.64242411,0
-0.24575508,0.86824262,-0.0089254379,0.16393018,0.93944484,0.30094871,0
0.414547,0.62243092,0.37230161,0.30995223,0.93984634,0.14359069,0
-0.50750923,-0.050746918,-0.350721,-0.6931951,0.32675898,-0.64242411,0
-0.056470126,-0.12896106,0.66349661,0.6931951,-0.32675898,0.64242411,0
-0.11051936,0.19197127,-0.49981797,-0.6931951,0.32675898,-0.64242411,0
-0.13320407,0.60890603,-0.1753034,-0.6931951,0.32675898,-0.64242411,0
-0.4633792,0.57460785,0.23375517,-0.30341876,0.67619848,0.67133611,0
-0.36549836,0.61813015,0.21483561,-0.15330297,0.80408734,0.57440531,0
0.050032228,0.82517761,-0.22139889,0.4485769,0.89325082,-0.02968967,0
-0.074975669,0.62767518,0.24172398,-0.057823777,0.86324149,0.50146818,0
-0.02174896,0.10052142,0.91875017,0.6931951,-0.32675898,0.64242411,0
0.044787645,-0.72115922,-0.45009416,0.13485181,-0.8167882,-0.56095606,0
-0.85327673,0.18132278,0.21347362,-0.6931951,0.32675898,-0.64242411,0
-0.70386326,-0.38827056,-0.34498182,-0.6931951,0.32675898,-0.64242411,0
0.20743826,-0.51919252,0.28571111,0.6931951,-0.32675898,0.64242411,0
0.62394661,0.47288355,0.44308698,0.6931951,-0.32675898,0.64242411,0
-0.34543842,0.59680986,0.34195763,-0.29740942,0.68222642,0.66791785,0
-0.42751896,0.19876948,0.54543489,-0.62390208,0.17423591,0.7618317,0
-0.49659336,0.057186693,-0.13602246,-0.6931951,0.32675898,-0.64242411,0
-0.48608881,-0.3508406,0.4491362,-0.7203002,-0.34555089,0.60146654,0
-0.77108967,0.31056398,0.32088298,-0.6931951,0.32675898,-0.64242411,0
0.16743046,0.23290631,-0.75304258,-0.6931951,0.32675898,-0.64242411,0
0.19560274,0.42943907,-0.62536079,0.69123697,0.55384696,-0.46415997,0
0.2925843,-0.22461769,0.24084952,0.6931951,-0.32675898,0.64242411,0
0.083499134,-0.62047201,-0.45829144,0.13021779,-0.8198809,-0.55752885,0
-0.2552616,0.79005408,0.24674088,-0.13651705,0.81566745,0.56218278,0
-0.040112257,-0.73280323,-0.082674921,-0.17272305,-0.94066697,-0.29208255,0
-0.096325457,-0.70521915,-0.3929477,-0.10838038,-0.92844945,-0.35529596,0
0.15511832,0.54201996,-0.6048274,-0.6931951,0.32675898,-0.64242411,0
-0.32029709,-0.54644018,0.62653363,-0.71400851,-0.43294957,0.55022365,0
-0.13041031,-0.20697594,0.86104649,0.6931951,-0.32675898,0.64242411,0
0.90405649,-0.16893321,-0.25942415,0.6730665,-0.025338642,-0.73914742,0
0.014502704,-0.11342797,-0.9244138,-0.6931951,0.32675898,-0.64242411,0
-0.049231589,-0.69377857,-0.090814888,-0.23062342,-0.94502437,-0.23182249,0
0.53917015,-0.11933249,0.27212292,0.6931951,-0.32675898,0.64242411,0
-0.48037237,-0.37888423,0.40648997,-0.7018227,-0.50893706,0.49842495,0
-0.58467919,0.51120371,0.24326101,-0.6931951,0.32675898,-0.64242411,0
0.192725,0.049264908,-0.88592786,0.64240545,-0.12403061,-0.75626123,0
-0.26537156,0.06303212,0.88455242,-0.61304891,0.20140693,0.76394099,0
0.21450388,-0.86436594,-0.081365749,-0.068552554,-0.91717732,-0.39253795,0
0.78197348,0.14946246,-0.03785181,0.6931951,-0.32675898,0.64242411,0
0.038456589,0.74154788,-0.30825168,-0.6931951,0.32675898,-0.64242411,0
0.6271559,-0.45976716,-0.025908485,0.6931951,-0.32675898,0.64242411,0
0.44832468,-0.37669295,0.037747137,0.6931951,-0.32675898,0.64242411,0
0.075216472,-0.10476965,-0.80951416,0.53338188,-0.36690661,-0.76215672,0
-0.13896525,0.079634577,0.82204789,0.6931951,-0.32675898,0.64242411,0
0.86776853,-0.048406243,-0.22010076,0.6931951,-0.32675898,0.64242411,0
-0.59322494,-0.15787539,-0.30233622,-0.6931951,0.32675898,-0.64242411,0
-0.1414388,0.42929268,-0.40043518,-0.6931951,0.32675898,-0.64242411,0
-0.0055446923,-0.74650836,0.50276685,0.6931951,-0.32675898,0.64242411,0
0.18857712,-0.75000942,0.15798309,-0.23016429,-0.94501561,-0.23231357,0
0.78948039,0.28160807,-0.23307276,0.71921819,0.37167585,-0.58701092,0
-0.2093657,-0.67848551,-0.08955285,-0.21892816,-0.94467229,-0.24426308,0
0.81716639,-0.10411572,-0.10492021,0.69435209,0.063739814,-0.71680671,0
0.14164305,0.35336977,0.66750181,-0.30615294,0.67342848,0.67287743,0
-0.74362344,0.17080209,0.13265026,-0.6931951,0.32675898,-0.64242411,0
-0.5207839,0.52438039,0.4404487,-0.40051621,0.56640178,0.72026074,0
0.057499021,-0.50643998,0.50156879,0.6931951,-0.32675898,0.64242411,0
0.36428744,-0.17267072,-0.54521644,0.59762067,-0.23767585,-0.76574093,0
0.12675774,0.39946699,0.727669,-0.14721662,0.80834562,0.57000387,0
-0.62765241,0.060244039,0.39490634,-0.675861,0.014946911,0.73687714,0
-0.76287973,-0.069061264,0.25855279,-0.71834552,-0.2404791,0.65280062,0
0.88912565,0.20296851,0.045624852,0.6931951,-0.32675898,0.64242411,0
-0.57257032,-0.52581066,-0.17405242,-0.4790118,-0.87486005,0.071884096,0
0.68307608,0.26572147,-0.11659312,0.66365433,0.63705617,-0.39207423,0
-0.80116808,-0.36499757,-0.14578807,-0.6931951,0.32675898,-0.64242411,0
0.6155448,-0.31443533,-0.19590476,0.6931951,-0.32675898,0.64242411,0
-0.78623867,-0.11761239,0.3375451,-0.71141255,-0.16718829,0.68259788,0
-0.21792994,-0.1546014,-0.58237737,-0.6931951,0.32675898,-0.64242411,0
0.54202139,-0.015940726,0.048450589,0.6931951,-0.32675898,0.64242411,0
0.32104671,0.52832758,-0.70907629,0.69409496,0.54280186,-0.47286141,0
0.19964293,0.36799791,0.7248311,0.6931951,-0.32675898,0.64242411,0
0.073338449,0.54898602,0.32503891,0.060182512,0.91445589,0.40018535,0
-0.91445845,0.059284568,0.17887759,-0.71865225,-0.24540271,0.65062726,0
0.058294713,-0.11603257,-0.84702086,-0.6931951,0.32675898,-0.64242411,0
-0.57778627,-0.48444054,-0.53849852,-0.6931951,0.32675898,-0.64242411,0
-0.076757759,0.8205092,-0.34469426,-0.6931951,0.32675898,-0.64242411,0
0.75787091,0.063258827,-0.14814717,0.6931951,-0.32675898,0.64242411,0
0.06699346,0.30374181,-0.61611295,-0.6931951,0.32675898,-0.64242411,0
-0.39574417,-0.10946271,0.60836214,-0.71802938,-0.2357132,0.65488356,0
0.66099727,-0.06177935,-0.29682767,0.6969797,0.076882392,-0.7129572,0
0.21113098,0.22749349,0.65192407,0.6931951,-0.32675898,0.64242411,0
0.081642114,0.39626241,-0.6132952,-0.6931951,0.32675898,-0.64242411,0
-0.21683677,0.023208559,-0.66696393,-0.6931951,0.32675898,-0.64242411,0
0.38201404,0.65356123,0.11399096,0.29476419,0.94190472,0.161026,0
0.2434734,0.061830431,0.50618118,0.6931951,-0.32675898,0.64242411,0
-0.16806529,0.37241018,-0.54681265,-0.6931951,0.32675898,-0.64242411,0
-0.7353766,0.1761986,0.21033818,-0.6931951,0.32675898,-0.64242411,0
-0.29373509,0.28972644,0.66911048,-0.53172624,0.36987352,0.76187932,0
0.17154002,0.55342221,0.53363299,-0.052120626,0.86626768,0.49685359,0
-0.45299768,0.094405532,-0.26268885,-0.6931951,0.32675898,-0.64242411,0
0.74418706,0.48531866,0.038489342,0.5249759,0.83962291,-0.1394034,0
-0.015486624,-0.39115065,0.44217274,0.6931951,-0.32675898,0.64242411,0
-0.052332431,-0.8468892,0.43374431,0.6931951,-0.32675898,0.64242411,0
-0.56820738,-0.01857538,0.48945075,-0.65544689,0.084937811,0.75044948,0
0.26441962,0.79190326,-0.053666949,0.3952111,0.91770446,0.040331662,0
-0.088651717,-0.4006848,-0.75999808,-0.6931951,0.32675898,-0.64242411,0
0.57674664,0.47693312,0.44926038,0.6931951,-0.32675898,0.64242411,0
-0.12794277,0.63450116,-0.37827215,-0.6931951,0.32675898,-0.64242411,0
-0.19449309,-0.79959929,0.46429116,-0.58243847,-0.77899063,0.23224711,0
-0.42437574,0.48139489,-0.19594646,-0.6931951,0.32675898,-0.64242411,0
0.13770172,0.046019852,0.71544349,0.6931951,-0.32675898,0.64242411,0
-0.0088231564,0.5808779,0.40786126,0.010109186,0.89564747,0.44464931,0
0.36507985,0.20449528,-0.75170755,0.69926959,0.088918,-0.70930624,0
-0.5161401,0.24333727,-0.19664529,-0.6931951,0.32675898,-0.64242411,0
0.0080218315,-0.59285456,-0.47814828,0.055655479,-0.86439878,-0.49971712,0
0.32845458,0.65767026,-0.30663025,0.52891874,0.83611703,-0.14544117,0
0.82550907,-0.095714808,-0.11200309,0.6931951,-0.32675898,0.64242411,0
0.77447081,0.14733797,0.064113915,0.6931951,-0.32675898,0.64242411,0
0.25232118,-0.026753306,0.52723181,0.6931951,-0.32675898,0.64242411,0
0.42700469,-0.23581129,0.26229593,0.6931951,-0.32675898,0.64242411,0
-0.60694456,-0.036514007,0.4019447,-0.70507443,-0.12255006,0.69846338,0
0.62001365,0.24908198,-0.23697937,0.70099252,0.51291734,-0.49550462,0
-0.43641812,-0.59240109,0.40857798,-0.64543706,-0.67811,0.35153586,0
-0.50050795,-0.036345225,0.48407918,-0.67581791,0.015110023,0.73691344,0
0.071162283,0.21034338,0.67611563,0.6931951,-0.32675898,0.64242411,0
-0.21881634,-0.4546501,0.77661502,0.6931951,-0.32675898,0.64242411,0
0.33227417,0.58354938,-0.16573411,0.54424071,0.82166326,-0.16932571,0
0.54160774,-0.24135786,-0.044876486,0.6931951,-0.32675898,0.64242411,0
0.29112244,-0.59213805,0.30220032,0.6931951,-0.32675898,0.64242411,0
-0.16896248,-0.65494967,0.41286761,-0.5582068,-0.80724514,0.19172901,0
0.26391512,-0.40763697,0.18390591,0.6931951,-0.32675898,0.64242411,0
0.42024904,-0.1673823,0.32411996,0.6931951,-0.32675898,0.64242411,0
-0.082787752,-0.41566268,-0.81542796,-0.6931951,0.32675898,-0.64242411,0
-0.59907693,0.5810504,0.2676014,-0.6931951,0.32675898,-0.64242411,0
-0.74919838,0.32742235,0.30493498,-0.61773229,0.18986464,0.76312357,0
0.38333276,-0.25816023,0.34399197,0.6931951,-0.32675898,0.64242411,0
-0.24390769,0.64028466,0.43273771,-0.22424698,0.74931031,0.62309456,0
0.26011759,0.057346374,0.56627131,0.6931951,-0.32675898,0.64242411,0
-0.16432759,0.13004905,-0.62460184,-0.6931951,0.32675898,-0.64242411,0
0.25792247,-0.6983695,0.15047833,0.6931951,-0.32675898,0.64242411,0
0.42869046,-0.39577195,-0.013540551,0.6931951,-0.32675898,0.64242411,0
0.11825538,0.23837525,0.73632628,0.6931951,-0.32675898,0.64242411,0
0.13639702,0.64336002,-0.59948623,0.65325844,0.66143107,-0.36845893,0
0.20003062,-0.92358601,0.24194208,0.6931951,-0.32675898,0.64242411,0
0.34775305,-0.15356793,-0.6963377,0.56532615,-0.30639923,-0.76584947,0
-0.44559383,-0.088229388,-0.3206588,-0.6931951,0.32675898,-0.64242411,0
-0.14427656,-0.72081339,-0.23926364,-0.23443133,-0.94507951,-0.22774181,0
-0.11538112,-0.79438007,0.0086860061,-0.39081174,-0.91932523,-0.045903087,0
-0.028587997,-0.16346419,-0.76173019,-0.6931951,0.32675898,-0.64242411,0
-0.41361433,-0.31794968,0.68583685,-0.71768802,-0.23086293,0.65698212,0
0.28224182,-0.1557759,0.42883119,0.6931951,-0.32675898,0.64242411,0
-0.69285834,-0.14655682,-0.18396536,-0.6931951,0.32675898,-0.64242411,0
0.2728036,-0.71915936,0.19461161,0.6931951,-0.32675898,0.64242411,0
0.19276401,0.15479267,0.67814547,0.6931951,-0.32675898,0.64242411,0
0.5398888,0.28111997,0.45152652,0.6931951,-0.32675898,0.64242411,0
0.78603673,-0.18525782,-0.22629434,0.65807402,-0.076605141,-0.74904591,0
-0.75456834,-0.36529076,-0.2637299,-0.6931951,0.32675898,-0.64242411,0
0.31671584,-0.23282975,0.36626539,0.6931951,-0.32675898,0.64242411,0
-0.054721832,0.79019749,0.037011832,0.17088509,0.94042349,0.29394192,0
-0.35904443,-0.58172071,0.24558687,-0.6283012,-0.71069086,0.31647408,0
-0.7333467,0.0044984519,0.37792659,-0.70041227,-0.095155925,0.70736659,0
-0.46825236,0.53846139,0.10177363,-0.6931951,0.32675898,-0.64242411,0
0.24891478,-0.76258779,0.20008779,0.6931951,-0.32675898,0.64242411,0
0.56824929,0.51957417,0.42611167,0.19478071,0.94309169,0.26951492,0
0.55394012,-0.5664078,-0.037156202,0.6931951,-0.32675898,0.64242411,0
-0.30051473,-0.30801836,-0.584728,-0.6931951,0.32675898,-0.64242411,0
0.18835425,0.80507022,0.18282121,0.22272736,0.94481665,0.24023709,0
-0.7234959,0.24377131,0.36639255,-0.64084375,0.1284862,0.75684232,0
0.28187615,0.51176798,-0.45082355,0.70041776,0.51561791,-0.49351072,0
-0.6949448,-0.52640349,-0.034695506,-0.59039474,-0.76868874,0.24607193,0
0.028703451,0.71882069,0.44801563,-0.062557995,0.86068654,0.50527698,0
0.28998572,0.072047293,-0.66758662,0.68254191,0.011253543,-0.73075956,0
-0.11942649,-0.0053126216,-0.54150516,-0.6931951,0.32675898,-0.64242411,0
-0.44828504,-0.12937617,-0.5012418,-0.6931951,0.32675898,-0.64242411,0
-0.03227368,-0.56565154,0.37396154,0.6931951,-0.32675898,0.64242411,0
0.1851548,0.67814255,0.48667479,0.052709281,0.91192335,0.40696105,0
0.15065321,-0.035070717,0.59551942,0.6931951,-0.32675898,0.64242411,0
-0.23379134,-0.096927941,-0.45330626,-0.6931951,0.32675898,-0.64242411,0
0.25749707,-0.90270853,-0.093623906,-0.028937876,-0.90322638,-0.42818749,0
-0.93536329,0.11703479,0.26383114,-0.6931951,0.32675898,-0.64242411,0
-0.56158316,-0.64981151,-0.031116188,-0.52236617,-0.84189779,0.13543046,0
-0.1576649,-0.0030596554,0.81675678,0.6931951,-0.32675898,0.64242411,0
0.26715589,0.42860532,-0.73080891,0.7182678,0.23927929,-0.65332699,0
0.37229568,0.48180667,0.52862644,0.6931951,-0.32675898,0.64242411,0
-0.038047664,0.23777264,-0.59493631,-0.6931951,0.32675898,-0.64242411,0
0.82229829,0.18517621,-0.32316244,0.72064924,0.32910717,-0.61020702,0
0.27550071,0.049575657,0.39925799,0.6931951,-0.32675898,0.64242411,0
0.1595118,-0.4836427,0.44674516,0.6931951,-0.32675898,0.64242411,0
0.012506098,-0.77966213,0.38175339,0.6931951,-0.32675898,0.64242411,0
0.016936749,0.0072113872,-0.77121794,-0.6931951,0.32675898,-0.64242411,0
0.19839743,0.79745263,-0.069972336,0.37489745,0.92472649,0.065822303,0
0.090856761,-0.61785179,0.44726035,0.6931951,-0.32675898,0.64242411,0
0.75326455,0.17999461,-0.080396056,0.6931951,-0.32675898,0.64242411,0
0.1066312,0.82489389,-0.56104457,-0.6931951,0.32675898,-0.64242411,0
-0.20988768,-0.60016632,-0.40285772,-0.17386919,-0.94081569,-0.29092145,0
-0.0073577762,-0.80608863,0.19050443,-0.3995856,-0.91603637,-0.034762979,0
0.11563599,-0.32566476,0.42297614,0.6931951,-0.32675898,0.64242411,0
0.15530503,0.30888256,0.78226519,-0.30464911,0.67495424,0.67203075,0
0.43071061,0.31773719,0.46499309,0.6931951,-0.32675898,0.64242411,0
0.065772951,-0.51556134,-0.61026329,0.16232103,-0.7976526,-0.58086312,0
-0.020925701,-0.57552153,0.58849669,0.6931951,-0.32675898,0.64242411,0
0.29663578,0.32500273,0.73842132,0.6931951,-0.32675898,0.64242411,0
0.26782292,0.43433759,0.6741972,-0.14957744,0.80670202,0.57171524,0
-0.42249081,0.3527723,-0.016775474,-0.6931951,0.32675898,-0.64242411,0
-0.41166663,-0.56509089,0.40481943,-0.65820771,-0.65017045,0.37952673,0
-0.5241642,-0.18429558,0.4297148,-0.72051901,-0.33672041,0.60619408,0
0.55696952,-0.01825856,-0.66809094,0.68037868,0.0025425814,-0.73285598,0
-0.060614228,-0.16519916,0.64997268,0.6931951,-0.32675898,0.64242411,0
-0.52752501,-0.22236544,-0.41069299,-0.6931951,0.32675898,-0.64242411,0
0.31377059,0.72892857,0.47157645,0.096131027,0.92527956,0.36690101,0
-0.64260083,-0.63290143,-0.040322542,-0.54709363,-0.81881869,0.17385095,0
-0.67103004,-0.1807926,-0.12399319,-0.6931951,0.32675898,-0.64242411,0
-0.44895446,-0.23589668,0.45767462,-0.71088684,-0.4569177,0.53466415,0
-0.4958671,-0.32448035,-0.35965556,-0.6931951,0.32675898,-0.64242411,0
-0.62500292,0.27689308,0.49297339,-0.55997145,0.31700581,0.76546639,0
0.50748968,0.51064956,0.073800504,0.47473377,0.87766302,-0.065842211,0
0.29719889,-0.18611079,-0.62499666,0.60467368,-0.22141193,-0.76507908,0
0.73284155,-0.10636741,-0.15280843,0.6931951,-0.32675898,0.64242411,0
-0.77062863,0.50066161,0.16625801,-0.6931951,0.32675898,-0.64242411,0
-0.45317286,-0.64353579,-0.18115965,-0.31034672,-0.93978584,-0.14313424,0
-0.26531953,-0.24078077,-0.64096248,-0.6931951,0.32675898,-0.64242411,0
0.71442449,-0.049307346,-0.12815291,0.6931951,-0.32675898,0.64242411,0
-0.32479373,-0.7140978,-0.32291919,-0.22008777,-0.94471937,-0.24303579,0
0.74726874,-0.090907097,0.064370245,0.6931951,-0.32675898,0.64242411,0
-0.26523501,-0.60246986,-0.32251868,-0.22297066,-0.94482487,-0.23997867,0
-0.086910903,0.60153633,0.31247869,-0.1571877,0.80133379,0.57719648,0
-0.22775203,0.56883901,-0.23712569,-0.6931951,0.32675898,-0.64242411,0
0.7201826,0.24351946,0.23246294,0.6931951,-0.32675898,0.64242411,0
0.87953293,0.26890737,-0.14571303,0.70888346,0.47016582,-0.52576417,0
0.22054851,-0.17072439,0.57358146,0.6931951,-0.32675898,0.64242411,0
-0.18710804,-0.53419912,0.65577656,0.6931951,-0.32675898,0.64242411,0
-0.28860736,0.74585438,-0.026234716,-0.6931951,0.32675898,-0.64242411,0
-0.54554808,0.6326741,0.057204157,-0.6931951,0.32675898,-0.64242411,0
0.54577345,0.26193583,-0.3788951,0.70759916,0.47802222,-0.52038223,0
-0.25877234,0.23889095,-0.29667613,-0.6931951,0.32675898,-0.64242411,0
0.61226535,0.23369092,-0.20453727,0.71929729,0.37019211,-0.58785099,0
0.71460772,-0.50655198,-0.22481665,0.40291762,-0.56336081,-0.72130537,0
-0.38667524,0.0072796941,0.76366317,-0.66380626,0.05780182,0.74566716,0
0.56664109,0.3602069,-0.1423403,0.65425557,0.65920943,-0.37066483,0
0.35426134,0.40806109,0.54558247,0.6931951,-0.32675898,0.64242411,0
-0.24722314,0.9275043,0.017685443,0.11262494,0.92948568,0.35124311,0
0.53225219,-0.57832497,-0.37757388,0.43629676,-0.5192315,-0.73487657,0
0.37268227,-0.70273805,-0.16434357,0.078569949,-0.85175675,-0.51801252,0
-0.40230554,0.68339789,0.063932762,-0.6931951,0.32675898,-0.64242411,0
-0.26331681,-0.012631893,-0.54183751,-0.6931951,0.32675898,-0.64242411,0
0.071707249,-0.7279166,0.10628524,-0.24999195,-0.94499779,-0.21090987,0
0.47546041,0.056461066,-0.7432034,0.68910474,0.039257344,-0.72359735,0
0.077090189,0.62946892,-0.45714313,-0.6931951,0.32675898,-0.64242411,0
0.82036275,-0.070401192,-0.23344028,0.67255282,-0.027216621,-0.73954827,0
0.47413224,-0.54654527,-0.23027202,0.40628487,-0.55906796,-0.72275519,0
-0.44733131,0.17503613,0.50717962,-0.5687815,0.29944596,0.7660411,0
0.25780934,0.49833676,-0.51948661,0.70628852,0.48561478,-0.51510614,0
0.27914548,-0.45368162,-0.57656199,0.32825339,-0.65039426,-0.68500853,0
-0.021697309,0.43999571,-0.66438657,-0.6931951,0.32675898,-0.64242411,0
-0.34827974,0.51621073,-0.15687793,-0.6931951,0.32675898,-0.64242411,0
-0.0086913109,0.56045425,0.49344346,-0.17726326,0.78665781,0.59139401,0
0.65447104,-0.042200059,0.01126343,0.6931951,-0.32675898,0.64242411,0
0.1831919,0.28463084,0.77377212,-0.28940791,0.6901257,0.66330177,0
-0.22323173,0.24733727,0.80030084,-0.53682756,0.36068177,0.76270854,0
0.11308053,0.4410311,-0.67459345,-0.6931951,0.32675898,-0.64242411,0
-0.26011521,0.48807833,0.45943287,-0.22582436,0.74798155,0.62412077,0
-0.51473284,-0.46103266,0.13443071,-0.61340022,-0.73546982,0.28779197,0
-0.72602803,-0.28182852,0.060023785,-0.65293413,-0.66214877,0.36774391,0
0.50052911,-0.21435276,0.11668083,0.6931951,-0.32675898,0.64242411,0
0.18725979,-0.31513858,0.50681019,0.6931951,-0.32675898,0.64242411,0
0.4066819,-0.60275197,-0.31343827,0.23882586,-0.73683727,-0.63248134,0
-0.43987575,-0.029985785,-0.30295449,-0.6931951,0.32675898,-0.64242411,0
0.4134942,0.10782927,-0.56401265,0.71904194,0.25219846,-0.64759111,0
0.7572087,-0.201197,-0.23488688,0.6931951,-0.32675898,0.64242411,0
0.31486183,-0.70557016,-0.30032092,0.19642782,-0.77193952,-0.60458684,0
0.80197626,0.1908965,-0.12003022,0.7117011,0.45111609,-0.53849357,0
0.62974447,-0.43415612,-0.16989309,0.6931951,-0.32675898,0.64242411,0
-0.40714276,0.22327229,-0.096875489,-0.6931951,0.32675898,-0.64242411,0
-0.28267425,0.34427309,0.65166348,-0.4053278,0.56029189,0.72234488,0
0.54071379,0.38504365,-0.14221066,0.65694284,0.65310484,-0.37666935,0
-0.06143032,-0.78334868,0.51619822,0.6931951,-0.32675898,0.64242411,0
0.64615732,-0.18583748,-0.46065694,0.65535814,-0.085216604,-0.75049549,0
-0.67964888,-0.48759127,-0.25374073,-0.41644984,-0.90906531,-0.013020277,0
0.72706324,-0.24278885,-0.099500835,0.6931951,-0.32675898,0.64242411,0
0.10377631,-0.4025304,0.32089716,0.6931951,-0.32675898,0.64242411,0
0.080937438,0.53344142,-0.4989748,-0.6931951,0.32675898,-0.64242411,0
0.28543705,0.58993983,0.30545998,0.2708469,0.94409609,0.18794802,0
-0.38849217,0.36485031,0.56784207,-0.47111118,0.46914354,0.746966,0
-0.65567631,-0.43154603,-0.4352667,-0.6931951,0.32675898,-0.64242411,0
0.36374137,-0.37352002,0.1850961,0.6931951,-0.32675898,0.64242411,0
-0.4733592,-0.21574277,-0.47613746,-0.6931951,0.32675898,-0.64242411,0
0.375875,0.59706235,0.59758168,0.03041327,0.90379441,0.42688447,0
-0.11793953,0.52574575,0.59217447,-0.20176744,0.76771325,0.60819888,0
0.4209519,-0.75654054,-0.070744239,0.6931951,-0.32675898,0.64242411,0
-0.40209693,0.08911708,0.71700901,-0.64273381,0.1230884,0.75613618,0
-0.6393888,0.22277609,-0.00045934319,-0.6931951,0.32675898,-0.64242411,0
-0.54764938,0.66016877,0.21286345,-0.25194913,0.72523826,0.64074224,0
0.18369323,0.012232304,-0.88081968,0.6638428,-0.057679161,-0.74564421,0
-0.2486459,0.47899979,0.59167498,-0.31389487,0.66549087,0.67719388,0
-0.2200591,-0.36325914,0.81546777,0.6931951,-0.32675898,0.64242411,0
0.22472367,-0.59944892,0.08788839,0.6931951,-0.32675898,0.64242411,0
-0.63483459,-0.15151367,-0.12772867,-0.6931951,0.32675898,-0.64242411,0
0.42286766,-0.44890016,-0.43259174,0.37999547,-0.5916965,-0.71098405,0
0.15178376,-0.82427257,-0.19108748,-0.098281503,-0.92585516,-0.36487344,0
-0.26147169,0.43213046,-0.40894982,-0.6931951,0.32675898,-0.64242411,0
0.4893381,-0.22799903,-0.41156405,0.57209074,-0.29270393,-0.76618266,0
0.11884457,0.25251186,0.80924588,0.6931951,-0.32675898,0.64242411,0
-0.014429804,-0.41384363,0.54271162,0.6931951,-0.32675898,0.64242411,0
0.42075282,0.58881915,0.50894231,0.6931951,-0.32675898,0.64242411,0
0.50022745,0.36692816,0.56855369,0.6931951,-0.32675898,0.64242411,0
-0.24181217,0.30076957,0.64275372,-0.49948198,0.42480052,0.75502443,0
0.11428541,-0.35878536,0.3723543,0.6931951,-0.32675898,0.64242411,0
-0.60198891,-0.58490014,0.015904784,-0.49750209,-0.86185801,0.098448813,0
-0.2980839,-0.61966157,0.084013343,-0.48535159,-0.87056732,0.080908239,0
0.45587301,-0.315117,0.2052772,0.6931951,-0.32675898,0.64242411,0
-0.40150172,-0.7206226,-0.16873056,-0.37185284,-0.92567933,-0.069592178,0
0.38576794,0.36649829,0.48549247,0.6931951,-0.32675898,0.64242411,0
-0.75241476,-0.26095662,0.16428363,-0.68048602,-0.59045243,0.43394029,0
-0.52857947,0.49193895,0.4083623,-0.41593862,0.54656774,0.72681379,0
-0.41035849,-0.52374494,-0.55847651,-0.046186388,-0.90963393,-0.41283497,0
-0.086303055,0.37146604,0.79081774,-0.3302505,0.64825511,0.68607545,0
0.27227899,0.67457247,0.067326993,0.26756519,0.94429922,0.19159251,0
-0.027006626,0.93277955,-0.19426852,0.32052699,0.93809658,0.13129014,0
0.1690191,-0.78719842,0.24909282,0.6931951,-0.32675898,0.64242411,0
-0.35818279,-0.60496861,-0.3091979,-0.16930825,-0.94020951,-0.29553446,0
0.21476078,-0.32958332,-0.6839571,0.37043661,-0.60307229,-0.70645595,0
0.068684161,0.28195757,0.87394994,0.6931951,-0.32675898,0.64242411,0
0.65379792,0.29437801,0.37590241,0.6931951,-0.32675898,0.64242411,0
0.17449701,-0.91079235,0.090747118,-0.26262736,-0.94456148,-0.19705391,0
-0.52059358,-0.19144008,-0.33427289,-0.6931951,0.32675898,-0.64242411,0
0.15204725,0.1477899,-0.71910149,0.67856061,-0.0046049021,-0.73452955,0
-0.10867199,-0.28929561,-0.6832056,-0.6931951,0.32675898,-0.64242411,0
-0.38749224,-0.56796992,0.47544128,-0.65926522,-0.647686,0.38193154,0
-0.083362043,-0.70723236,-0.42662558,-0.091934085,-0.92413247,-0.37084627,0
-0.083633453,-0.2083813,0.75812811,0.6931951,-0.32675898,0.64242411,0
0.36367753,0.032000005,-0.63906598,0.69768137,0.08050929,-0.7118696,0
-0.40926474,-0.37851903,-0.67573673,-0.6931951,0.32675898,-0.64242411,0
-0.49839109,0.19042501,0.59632862,-0.60775083,0.21415275,0.76470709,0
0.75997847,0.40683818,-0.15903449,0.6788553,0.5954566,-0.42963558,0
0.3091307,0.086959183,0.61406374,0.6931951,-0.32675898,0.64242411,0
-0.081708521,-0.78876495,0.23531872,-0.47397846,-0.87815022,0.064779341,0
-0.11055769,0.52868199,-0.42214659,-0.6931951,0.32675898,-0.64242411,0
0.63494503,-0.56567109,-0.11780268,0.6931951,-0.32675898,0.64242411,0
-0.64840734,0.083372146,0.1064404,-0.6931951,0.32675898,-0.64242411,0
0.0014888644,0.77385098,-0.3847304,-0.6931951,0.32675898,-0.64242411,0
-0.35085678,-0.28903589,-0.55266303,-0.6931951,0.32675898,-0.64242411,0
0.45263946,0.41535532,-0.19502378,0.61022806,0.74038601,-0.28186852,0
-0.45521754,0.37865788,-0.049755152,-0.6931951,0.32675898,-0.64242411,0
-0.10029185,-0.10118592,0.70302588,0.6931951,-0.32675898,0.64242411,0
-0.48850083,-0.46845496,-0.54696202,-0.6931951,0.32675898,-0.64242411,0
-0.5847944,-0.1549246,-0.37481904,-0.6931951,0.32675898,-0.64242411,0
0.15571189,0.028413236,-0.94057757,-0.6931951,0.32675898,-0.64242411,0
-0.47896996,-0.33028948,-0.36683053,-0.6931951,0.32675898,-0.64242411,0
0.12520847,0.59845454,-0.64274359,-0.6931951,0.32675898,-0.64242411,0
