4.4544754,-0.64387131,-0.23801994,0.98443109,0.0025991201,-0.17575204,0
4.4973307,-0.12654495,-0.87692845,0.98443109,0.0025991201,-0.17575204,0
4.3378115,-0.04775238,-1.8115022,0.98443109,0.0025991201,-0.17575204,0
-3.887073,0.83465791,0.24358141,-0.066385448,0.93133265,-0.35806775,0
-4.4630499,-0.81791711,1.0459157,-0.98443109,-0.0025991201,0.17575204,0
4.5055666,0.1961031,0.052672744,0.98443109,0.0025991201,-0.17575204,0
-4.569849,0.67008162,0.32264864,-0.98443109,-0.0025991201,0.17575204,0
-4.3613048,0.26120615,0.88619363,-0.98443109,-0.0025991201,0.17575204,0
-4.4217229,-0.54803085,0.39966014,-0.98443109,-0.0025991201,0.17575204,0
0.74818492,-0.89426398,0.26074362,0.064930439,-0.93454534,0.34987026,0
3.9021318,-0.091073275,0.30703306,0.17288518,-0.194769,0.96549261,0
-1.027523,-0.14555562,-0.85143626,-0.17537923,-0.052221134,-0.9831152,0
-1.6256952,-0.97277188,0.63930809,0.055918455,-0.95257407,0.29912525,0
-4.3433123,-0.84576321,0.75687003,-0.98443109,-0.0025991201,0.17575204,0
4.248662,0.39793825,-1.2828063,0.98443109,0.0025991201,-0.17575204,0
-0.65338731,0.77258635,0.77555633,0.097050965,0.82562011,0.55581707,0
-2.239754,-0.96009433,0.19491321,-0.023727596,-0.98877341,-0.14752716,0
4.3288321,0.76683211,-1.1471411,0.98443109,0.0025991201,-0.17575204,0
2.796561,0.57937407,-1.1900758,-0.13637418,0.64212871,-0.75436926,0
3.2817655,-0.62919497,0.16049552,0.14462122,-0.58027422,0.80147791,0
3.2795763,1.0151882,-0.27850443,0.066362381,0.92039216,0.38532376,0
0.95263922,-1.0078346,-0.46978995,-0.057405233,-0.94030827,-0.3354474,0
-1.7833292,0.050519705,1.4276234,0.17547874,0.043131545,0.98353803,0
3.2152367,0.97572303,-0.98869109,-0.07132858,0.91976815,-0.38592619,0
-0.83736813,-0.92223316,-0.12399259,-0.040100276,-0.97020119,-0.23895977,0
4.4704838,0.066874027,-0.57345176,0.98443109,0.0025991201,-0.17575204,0
1.3568116,0.76463932,0.55335093,0.12846339,0.67181826,0.72949135,0
-4.3776426,0.8228569,1.2549796,-0.98443109,-0.0025991201,0.17575204,0
-4.4203248,0.015114307,1.3449204,-0.98443109,-0.0025991201,0.17575204,0
4.1062021,0.18205237,0.2656014,0.16975006,0.2454094,0.95444191,0
-4.4446473,-0.52436018,0.90607816,-0.98443109,-0.0025991201,0.17575204,0
-4.620935,-0.2918849,-0.19095767,-0.98443109,-0.0025991201,0.17575204,0
4.2774701,0.46447372,-1.5138711,0.98443109,0.0025991201,-0.17575204,0
1.1286253,-0.95886314,-0.7234078,-0.081797361,-0.87824905,-0.47115588,0
-3.8671019,-0.8070097,1.2394462,0.087531447,-0.87434012,0.47735482,0
4.5462556,-0.89370584,-0.45231938,0.98443109,0.0025991201,-0.17575204,0
4.4345875,-0.17486668,-0.75515741,0.98443109,0.0025991201,-0.17575204,0
2.1109447,0.29521346,-1.372637,-0.17230363,0.21190266,-0.96198189,0
-0.50613165,-0.076751292,1.0438417,0.17367563,-0.16832468,0.97031116,0
-4.3548832,0.15199471,1.1799668,-0.98443109,-0.0025991201,0.17575204,0
4.53897,-0.24895954,-0.25270307,0.98443109,0.0025991201,-0.17575204,0
3.8739758,0.2297523,0.26809156,0.17431457,0.11402643,0.97806567,0
-0.069751263,-0.85493273,-0.50059414,-0.095542073,-0.83136612,-0.54745054,0
-4.3100066,0.72383738,1.2033813,-0.98443109,-0.0025991201,0.17575204,0
-4.4441419,0.30741262,1.0861362,-0.98443109,-0.0025991201,0.17575204,0
-0.33525008,0.96465075,-0.086796075,-0.018577337,0.99582887,-0.089329213,0
-4.4500322,-0.73233509,0.71102631,-0.98443109,-0.0025991201,0.17575204,0
0.84387404,0.79056966,0.39659783,0.10538864,0.79150027,0.60201383,0
4.6680193,-0.45417356,0.081696272,0.98443109,0.0025991201,-0.17575204,0
-2.4356847,-0.79714644,1.0107052,0.089507043,-0.86795276,0.48851478,0
-4.2019205,-0.15667152,1.7250004,-0.98443109,-0.0025991201,0.17575204,0
-4.08286,0.99658394,0.43628079,-0.060023129,0.94475579,-0.3222326,0
-4.419517,-0.96647334,0.41640413,-0.052147031,-0.95055532,-0.30614612,0
-0.81005359,-0.4172861,0.96965343,0.15618484,-0.47162902,0.86785507,0
-2.7847066,0.70676637,-0.39599836,-0.14092246,0.60928214,-0.7803309,0
4.4943552,-0.79015636,-0.70217299,0.98443109,0.0025991201,-0.17575204,0
-2.5314531,0.46016622,1.2937242,0.15232664,0.48630112,0.86041158,0
4.2639561,0.67901516,-1.3686211,0.98443109,0.0025991201,-0.17575204,0
4.0129261,-0.96345949,-0.38308752,0.062466204,-0.93979186,0.33599007,0
4.4193754,0.77365756,-0.99388611,0.98443109,0.0025991201,-0.17575204,0
4.4443283,0.71576858,-0.91955483,0.98443109,0.0025991201,-0.17575204,0
1.2644774,0.60329241,-1.0002172,-0.14733395,0.55748379,-0.81700957,0
-4.4119902,-0.042823315,1.2086275,-0.98443109,-0.0025991201,0.17575204,0
4.3820829,-0.037459373,-0.93797517,0.98443109,0.0025991201,-0.17575204,0
4.5570793,0.594769,-0.28600657,0.98443109,0.0025991201,-0.17575204,0
-4.3853455,-0.97490048,0.54074657,-0.029707253,-0.98304617,-0.18093568,0
-4.4143629,-0.77646542,0.95322812,-0.98443109,-0.0025991201,0.17575204,0
4.3259544,-0.15620756,-1.519677,0.98443109,0.0025991201,-0.17575204,0
-4.329771,0.28873253,1.390434,-0.98443109,-0.0025991201,0.17575204,0
-2.1270759,0.92897844,0.55905813,0.042355239,0.966919,0.25154236,0
2.3151536,0.41760528,0.47814298,0.14938164,0.51457298,0.84433401,0
2.9180632,-0.96057701,-0.55809069,-0.014179707,-0.99545747,-0.0941462,0
4.6714549,-0.18589306,0.1813041,0.98443109,0.0025991201,-0.17575204,0
4.2771072,-0.25587845,-1.744386,0.98443109,0.0025991201,-0.17575204,0
4.0440612,-0.88910437,-0.78465152,0.0066817999,-0.99972135,0.022641569,0
1.0174437,0.74560452,-0.98035389,-0.13285154,0.66571009,-0.73428917,0
-4.3499999,-0.70864344,0.88099766,-0.98443109,-0.0025991201,0.17575204,0
4.4971228,0.28322792,-0.23458326,0.98443109,0.0025991201,-0.17575204,0
4.52882,-0.28630638,-0.5373255,0.98443109,0.0025991201,-0.17575204,0
-3.2025313,-0.79272723,1.0955291,0.096142471,-0.84502017,0.52602065,0
-4.3367782,-0.48650789,1.3120154,-0.98443109,-0.0025991201,0.17575204,0
4.3857222,0.98151398,-1.0951877,-0.039168179,0.97799337,-0.20492685,0
0.41055155,1.0466567,0.042459227,0.0206002,0.99129379,0.13004757,0
4.565146,0.61827159,-0.13363194,0.98443109,0.0025991201,-0.17575204,0
-2.8372884,0.71599817,1.2369576,0.11403763,0.75144488,0.64986622,0
-4.4675131,0.48362303,1.1337615,-0.98443109,-0.0025991201,0.17575204,0
-4.2484927,-0.68430734,1.2653449,-0.98443109,-0.0025991201,0.17575204,0
4.2996745,0.63656092,-0.019014001,0.13550878,0.62561768,0.76827091,0
-4.5153069,-0.68333268,0.67106813,-0.98443109,-0.0025991201,0.17575204,0
4.3308177,-0.029007912,-1.0959074,0.98443109,0.0025991201,-0.17575204,0
4.4967432,1.001596,-0.91059887,0.98443109,0.0025991201,-0.17575204,0
-3.9234505,-0.40783072,-0.34643769,-0.16580486,-0.31817567,-0.93342006,0
4.4305201,-0.38799095,-1.1214449,0.98443109,0.0025991201,-0.17575204,0
-4.497859,-0.69904923,0.66677022,-0.98443109,-0.0025991201,0.17575204,0
-4.5012813,0.48930359,0.56506747,-0.98443109,-0.0025991201,0.17575204,0
-4.4799252,-0.62808394,0.16227943,-0.98443109,-0.0025991201,0.17575204,0
-1.2381804,-0.80724305,-0.41222882,-0.11018831,-0.76990098,-0.62857854,0
-0.5816617,1.0364898,0.16487518,0.0028728247,0.99951917,0.030873373,0
2.3772161,0.90654957,-0.71052581,-0.069026589,0.92528009,-0.37295079,0
-4.4954777,-0.19486809,0.87882781,-0.98443109,-0.0025991201,0.17575204,0
-1.4669315,0.50738668,-0.67625523,-0.1468704,0.5614773,-0.814354,0
4.2549968,-0.30455303,-1.5834208,0.98443109,0.0025991201,-0.17575204,0
-1.3363495,-0.84385359,-0.35262549,-0.10531431,-0.79182291,-0.60160255,0
-4.3052015,-0.036597252,1.5426205,-0.98443109,-0.0025991201,0.17575204,0
-4.6288705,0.32272911,0.17070472,-0.98443109,-0.0025991201,0.17575204,0
-4.3545909,-0.45364475,1.6199367,-0.98443109,-0.0025991201,0.17575204,0
4.3988967,-0.24544382,-0.53264904,0.98443109,0.0025991201,-0.17575204,0
-1.8629078,0.89232016,0.3580994,-0.0019108057,0.99998987,0.0040864348,0
2.475704,0.62586999,-1.1811551,-0.13120767,0.67621487,-0.72492635,0
-0.43020988,0.45289087,-0.83362556,-0.15484303,0.48601004,-0.86012673,0
4.5061231,0.29583216,-0.60226631,0.98443109,0.0025991201,-0.17575204,0
3.4735453,-0.43560958,-1.5585976,-0.16276217,-0.36403054,-0.91705531,0
-4.3056226,0.013154507,0.96281409,-0.98443109,-0.0025991201,0.17575204,0
-3.9084754,-1.0632398,0.52152675,-0.020660043,-0.99124867,-0.13038127,0
-4.5406179,0.37512589,0.13949192,-0.98443109,-0.0025991201,0.17575204,0
0.33686113,-1.0513676,0.21995783,0.049459994,-0.9635855,0.26278698,0
-4.4271526,0.27591705,1.3038459,-0.98443109,-0.0025991201,0.17575204,0
0.88522226,0.82852381,-0.49830896,-0.070186436,0.92253041,-0.37948859,0
4.2541924,0.001906395,-1.2431904,0.98443109,0.0025991201,-0.17575204,0
-4.4408989,0.60191917,0.41600889,-0.98443109,-0.0025991201,0.17575204,0
1.6046942,0.64663613,0.63496101,0.14385831,0.5626139,0.81410718,0
4.139349,-0.3135457,-1.6977642,-0.15859064,-0.41801974,-0.89448792,0
4.3545828,1.1022267,-1.0465816,-0.034011364,0.98381042,-0.17595619,0
-2.9601619,0.81623721,0.94344747,0.079471469,0.88527268,0.45823234,0
3.7249651,-0.42621303,0.20408869,0.15569501,-0.47694564,0.86503303,0
-4.3764954,-0.84180474,1.0818714,-0.98443109,-0.0025991201,0.17575204,0
4.5506454,0.58422756,-0.36540431,0.98443109,0.0025991201,-0.17575204,0
-4.3395905,0.93597794,0.89253259,-0.98443109,-0.0025991201,0.17575204,0
-4.530426,-0.50399542,0.11443889,-0.98443109,-0.0025991201,0.17575204,0
-2.6577611,0.97110939,0.65316254,0.034710586,0.97732592,0.20887639,0
3.3094645,-0.85361433,-1.2112061,-0.10566264,-0.79030746,-0.60353088,0
-4.3895235,-0.71647263,0.44228157,-0.98443109,-0.0025991201,0.17575204,0
-4.3538527,-0.33527517,0.87040496,-0.98443109,-0.0025991201,0.17575204,0
-4.3988795,-0.27022934,0.46276784,-0.98443109,-0.0025991201,0.17575204,0
4.4377623,-0.52377462,-0.55599254,0.98443109,0.0025991201,-0.17575204,0
-4.5352535,-0.39402461,-0.18200457,-0.98443109,-0.0025991201,0.17575204,0
-1.483947,-0.74292362,0.97539037,0.13465604,-0.65381908,0.74457288,0
-3.7424736,-0.96134186,0.22546273,-0.065619409,-0.92216557,-0.38118872,0
3.4533207,0.63582563,0.12976933,0.13516194,0.62802726,0.7663635,0
-4.4325576,0.19136477,0.62252927,-0.98443109,-0.0025991201,0.17575204,0
4.4183273,-0.16461515,0.14452553,0.17113356,-0.24234502,0.95497775,0
4.4097743,0.1077323,-1.0972261,0.98443109,0.0025991201,-0.17575204,0
-4.3704777,0.047007084,0.83301514,-0.98443109,-0.0025991201,0.17575204,0
-4.4850178,0.76364422,1.0554405,-0.98443109,-0.0025991201,0.17575204,0
-4.4734511,0.80107498,0.80342638,-0.98443109,-0.0025991201,0.17575204,0
-2.4622054,0.7539854,-0.16649055,-0.10503358,0.81043667,-0.57633376,0
-2.5724812,-0.87480104,0.8297208,0.082404613,-0.89002329,0.44840634,0
-4.522306,-0.055420399,0.56594563,-0.98443109,-0.0025991201,0.17575204,0
4.5823841,-0.2920866,-0.20535243,0.98443109,0.0025991201,-0.17575204,0
4.3764958,-0.72712374,-0.81812918,0.98443109,0.0025991201,-0.17575204,0
-4.3364496,-0.90614963,0.77584225,-0.98443109,-0.0025991201,0.17575204,0
-0.76854753,-0.69724613,-0.54131174,-0.1048525,-0.79382062,-0.59904492,0
4.4482546,0.92939854,-0.82743627,0.98443109,0.0025991201,-0.17575204,0
0.52937865,-0.088949829,0.81947267,0.17562591,-0.055200063,0.98290831,0
-4.3953705,0.52215481,0.49483126,-0.98443109,-0.0025991201,0.17575204,0
4.4959412,-0.8585701,-0.89860362,0.98443109,0.0025991201,-0.17575204,0
1.5484452,-0.97659361,-0.33319798,-0.018566251,-0.99275947,-0.11867645,0
-4.3413496,-0.74776602,1.0505986,-0.98443109,-0.0025991201,0.17575204,0
2.4579599,0.86306739,0.056613445,0.086096346,0.86459768,0.49503371,0
-4.4315443,-0.81316733,0.45549271,-0.98443109,-0.0025991201,0.17575204,0
-2.9089265,-1.0297906,0.74252331,0.057418466,-0.94979197,0.30756861,0
-1.3595768,1.0331577,-0.12470376,-0.060536265,0.94373262,-0.32512182,0
-3.4676127,1.0405381,0.26148897,-0.057529032,0.94958341,-0.30819112,0
-4.349988,-0.99104261,0.8894127,-0.98443109,-0.0025991201,0.17575204,0
1.9691961,0.86960828,-0.037608892,0.070160091,0.91097236,0.40645671,0
-4.3899083,-0.45602894,1.2436028,-0.98443109,-0.0025991201,0.17575204,0
-4.4387703,0.017723083,0.70893121,-0.98443109,-0.0025991201,0.17575204,0
0.3317517,0.99829286,-0.18724364,-0.026861966,0.99037027,-0.13581362,0
1.5863411,0.82128084,0.30347532,0.091597795,0.84580439,0.52557087,0
-4.5542173,-0.64792776,0.2803154,-0.98443109,-0.0025991201,0.17575204,0
-4.4301786,-0.83026743,0.38134089,-0.98443109,-0.0025991201,0.17575204,0
2.0660453,-0.93852377,-0.44813895,-0.014752507,-0.99514091,-0.09735018,0
4.269814,-0.043187141,-1.7356524,0.98443109,0.0025991201,-0.17575204,0
0.06669265,-0.94011998,0.063416064,0.0011060238,-0.99996251,-0.0085935593,0
-4.1300659,-0.029534578,-0.38054001,-0.17567986,0.046789989,-0.98333478,0
1.7516166,-0.66363895,-0.9228211,-0.12179452,-0.7108537,-0.69271439,0
4.2556009,-0.022963047,-1.4655279,0.98443109,0.0025991201,-0.17575204,0
4.4638691,-0.49098301,-0.51627797,0.98443109,0.0025991201,-0.17575204,0
4.531415,0.17903471,-0.31018811,0.98443109,0.0025991201,-0.17575204,0
-4.437676,-0.81211782,1.1800361,-0.98443109,-0.0025991201,0.17575204,0
4.3510857,0.97397351,-1.1300488,0.98443109,0.0025991201,-0.17575204,0
-4.4003606,0.32982111,1.1082306,-0.98443109,-0.0025991201,0.17575204,0
4.6171684,-0.16819525,-0.28986925,0.98443109,0.0025991201,-0.17575204,0
-4.4640903,0.23100185,0.14689958,-0.98443109,-0.0025991201,0.17575204,0
-3.5288062,-0.60857272,-0.21707261,-0.13603908,-0.62190455,-0.77118629,0
-4.4165483,0.90907001,0.53475755,-0.98443109,-0.0025991201,0.17575204,0
-1.8617001,-0.55479145,-0.47952157,-0.14311993,-0.56861222,-0.81006002,0
0.73959136,-0.67041504,0.55577576,0.12928692,-0.68811393,0.7139917,0
1.1723605,0.44472656,0.69376284,0.14984185,0.51028907,0.84684867,0
4.4289827,-0.71794415,-0.47267658,0.98443109,0.0025991201,-0.17575204,0
-2.3859508,-0.92985797,0.87667793,0.097008288,-0.8418529,0.53091735,0
-4.4046793,0.98897648,0.88971299,-0.98443109,-0.0025991201,0.17575204,0
1.7612015,-0.92306423,-0.29237321,0.016166747,-0.9969914,0.075808793,0
1.4238646,-0.79155147,-0.76189983,-0.10093099,-0.81025398,-0.57732272,0
-2.3540697,0.92015386,0.72492737,0.05635494,0.9424386,0.32959622,0
2.1293395,0.88700271,0.16564125,0.076688766,0.89335215,0.442765,0
4.2734709,0.53494215,-1.438023,0.98443109,0.0025991201,-0.17575204,0
-2.9779034,0.28114748,-0.53844154,-0.16911237,0.28661618,-0.94300187,0
3.1132982,0.60133958,0.19938278,0.13883847,0.60169387,0.78656757,0
-4.2911525,-0.060577393,-0.16267288,-0.1757551,0.028118081,-0.98403251,0
4.5476799,-0.68782806,-0.26931989,0.98443109,0.0025991201,-0.17575204,0
-4.3749685,0.8915,0.85289484,-0.98443109,-0.0025991201,0.17575204,0
4.3372192,-0.2378087,-1.5651747,0.98443109,0.0025991201,-0.17575204,0
-1.0891747,-1.087984,0.30120683,0.0068081021,-0.99970424,0.023348987,0
4.4356742,0.093864441,-0.22140044,0.98443109,0.0025991201,-0.17575204,0
-4.1134863,0.99529314,0.68656683,-0.019960225,0.99507588,-0.097086042,0
-2.3285313,0.9947803,0.51346123,0.014281154,0.99540222,0.094713248,0
-2.245157,-0.31276941,1.4314367,0.1671471,-0.32319915,0.93145275,0
-2.3791194,0.92302322,-0.02945888,-0.07779628,0.90306449,-0.42240077,0
-0.85158491,0.99041349,0.29298267,0.0061501861,0.9987691,0.049219981,0
4.5425687,-0.59086227,-0.1278255,0.98443109,0.0025991201,-0.17575204,0
-1.1320904,-0.99696344,-0.039911881,-0.026119411,-0.98662627,-0.16089252,0
4.427834,-0.36441135,-0.77865422,0.98443109,0.0025991201,-0.17575204,0
-1.9477757,0.94748175,0.43200621,0.0073200464,0.99841702,0.055767268,0
4.4920468,0.38909745,-0.14764011,0.98443109,0.0025991201,-0.17575204,0
-1.2477312,0.92682981,0.51791835,0.045067191,0.96273363,0.26667055,0
4.4840236,-0.026384354,-0.18299139,0.98443109,0.0025991201,-0.17575204,0
4.5839224,0.0631423,-0.044411063,0.98443109,0.0025991201,-0.17575204,0
4.377605,-0.18461418,-1.2421983,0.98443109,0.0025991201,-0.17575204,0
-4.3064175,0.71302176,1.0258636,-0.98443109,-0.0025991201,0.17575204,0
-2.096777,-0.9940846,0.72858441,0.069116354,-0.92506909,0.37345707,0
1.6544976,-0.85943747,-0.75380647,-0.093026757,-0.84066933,-0.53349912,0
4.5423632,-0.55249643,-0.4719519,0.98443109,0.0025991201,-0.17575204,0
4.2996192,0.092286587,-1.2442662,0.98443109,0.0025991201,-0.17575204,0
2.1581967,0.99259484,-0.32641065,0.012089789,0.99652147,0.082455672,0
-1.2167542,0.99224913,-0.12508637,-0.046011329,0.96883601,-0.24339241,0
3.5532827,0.51368952,-1.5405692,-0.16094621,0.41524613,-0.89535868,0
4.5474048,-0.92045069,-0.35698271,0.98443109,0.0025991201,-0.17575204,0
4.4898033,0.1782198,-0.683846,0.98443109,0.0025991201,-0.17575204,0
4.375711,-0.49828243,-0.64036548,0.98443109,0.0025991201,-0.17575204,0
-4.4564838,0.15899658,0.10068011,-0.98443109,-0.0025991201,0.17575204,0
-2.8975463,-0.35763931,-0.42615616,-0.16756895,-0.2880021,-0.942855,0
-4.2498403,-0.16078043,1.6019101,-0.98443109,-0.0025991201,0.17575204,0
4.2943373,0.63189316,-1.5577313,0.98443109,0.0025991201,-0.17575204,0
3.9228373,-0.42558742,0.34418178,0.16671097,-0.33068681,0.92889917,0
4.2878165,-0.43757343,-1.6223319,0.98443109,0.0025991201,-0.17575204,0
-4.3538861,-0.83049941,1.2948006,-0.98443109,-0.0025991201,0.17575204,0
4.460999,0.062296391,-0.80414367,0.98443109,0.0025991201,-0.17575204,0
4.4208498,0.54072762,-1.2833598,0.98443109,0.0025991201,-0.17575204,0
4.3528171,0.37434149,-1.2756253,0.98443109,0.0025991201,-0.17575204,0
-3.7897282,-0.23306012,1.7545685,0.17423031,-0.14653899,0.97374034,0
4.5169692,0.36752987,-0.79839975,0.98443109,0.0025991201,-0.17575204,0
-4.5733976,0.93377495,0.3896901,-0.98443109,-0.0025991201,0.17575204,0
-4.5274611,0.71070671,0.60644704,-0.98443109,-0.0025991201,0.17575204,0
-2.0449533,-0.32789636,1.2688978,0.16724569,-0.32147804,0.93203056,0
-4.5194521,-0.76933956,0.6250872,-0.98443109,-0.0025991201,0.17575204,0
2.9697504,0.077094793,0.52412069,0.17576218,-0.024720058,0.98412234,0
4.4266219,-0.61366367,-1.3480269,0.98443109,0.0025991201,-0.17575204,0
4.4015779,-0.6478653,-1.2439479,0.98443109,0.0025991201,-0.17575204,0
4.4167962,-0.73468685,-1.2109122,0.98443109,0.0025991201,-0.17575204,0
4.3490906,0.50894451,-1.3343402,0.98443109,0.0025991201,-0.17575204,0
-4.4539084,-0.62161112,0.97990584,-0.98443109,-0.0025991201,0.17575204,0
-1.246529,-0.032650948,1.1549746,0.17570677,-0.041633904,0.98356169,0
-4.3632841,0.55252743,1.1654458,-0.98443109,-0.0025991201,0.17575204,0
1.0673674,-0.37581527,-1.1443688,-0.15355742,-0.4738369,-0.86712104,0
-0.71567601,0.73194748,-0.427221,-0.11332542,0.77371061,-0.62332118,0
-0.23024797,-1.0200918,0.32676083,0.041928232,-0.97449929,0.22043872,0
3.3753786,-0.9178822,-0.60798854,0.0007057786,-0.99994111,-0.010835111,0
-0.68334115,-0.6045872,-0.77131641,-0.14247113,-0.57380801,-0.80650276,0
4.3760338,-0.5929265,-0.85842264,0.98443109,0.0025991201,-0.17575204,0
0.79489505,0.1600281,-1.201412,-0.17517698,0.096660823,-0.97978038,0
-4.4658685,-0.15363884,0.044714689,-0.98443109,-0.0025991201,0.17575204,0
-4.3122377,0.10858583,1.1704229,-0.98443109,-0.0025991201,0.17575204,0
4.3209577,0.083939552,-0.9566015,0.98443109,0.0025991201,-0.17575204,0
-1.9543277,0.85211992,0.83419138,0.094470799,0.83537018,0.54150903,0
4.4391742,-0.87938643,-0.76771903,0.98443109,0.0025991201,-0.17575204,0
1.5434002,-0.97435796,0.15570694,0.064970553,-0.93445772,0.35009658,0
1.4902297,0.84001958,0.092003554,0.067112863,0.91857761,0.38950098,0
-4.516592,0.65848827,0.52381295,-0.98443109,-0.0025991201,0.17575204,0
-3.6336396,0.95275283,0.37146807,-0.057215273,0.9501738,-0.30642486,0
-3.2891738,0.88117599,0.72079182,0.026023984,0.98671561,0.16035961,0
-4.3884854,0.23300743,1.2519917,-0.98443109,-0.0025991201,0.17575204,0
-4.4127331,0.85532665,0.23502302,-0.087052763,0.87585866,-0.47465098,0
-4.382349,-0.58516741,0.55451578,-0.98443109,-0.0025991201,0.17575204,0
3.6829112,-1.005888,-0.77829385,-0.003459096,-0.99941057,-0.034156084,0
-4.34583,-0.63627934,0.96127015,-0.98443109,-0.0025991201,0.17575204,0
-4.4998922,-0.37972164,-0.13429105,-0.98443109,-0.0025991201,0.17575204,0
4.5178556,-0.034667969,0.083781362,0.98443109,0.0025991201,-0.17575204,0
-3.1168606,0.678334,1.2938532,0.13150525,0.65255308,0.74624467,0
-4.0105724,0.82968903,1.3806174,0.10001028,0.81397897,0.57222056,0
-4.4820499,-0.65011501,0.72909373,-0.98443109,-0.0025991201,0.17575204,0
4.6010327,-0.42299032,-0.3409639,0.98443109,0.0025991201,-0.17575204,0
-2.1125357,0.3067857,-0.49963331,-0.16140698,0.40925968,-0.89802819,0
-4.4360499,0.38333321,0.60525858,-0.98443109,-0.0025991201,0.17575204,0
0.78927374,-0.90710497,0.025100589,0.016039968,-0.99704719,0.075098336,0
0.059581101,0.89616281,0.3384583,0.07416743,0.90037555,0.42874599,0
4.3219757,0.58055234,-0.8645075,0.98443109,0.0025991201,-0.17575204,0
1.1417696,-0.38751614,-1.0643107,-0.1523506,-0.48606229,-0.8605423,0
4.2605,-0.64764547,-1.5140601,0.98443109,0.0025991201,-0.17575204,0
-4.2868104,-0.76518536,0.26111698,-0.094587386,-0.83493757,-0.54215539,0
-3.58883,0.019766092,-0.38700616,-0.17552523,0.067422062,-0.98216355,0
4.4119334,0.060368061,-1.4264019,0.98443109,0.0025991201,-0.17575204,0
2.4649673,0.95917606,-0.75965941,-0.043364167,0.97257531,-0.22850996,0
-4.4160867,-0.33498573,0.87580574,-0.98443109,-0.0025991201,0.17575204,0
-4.3925486,0.23723459,0.94784832,-0.98443109,-0.0025991201,0.17575204,0
-4.5514746,-0.41945887,0.48683339,-0.98443109,-0.0025991201,0.17575204,0
0.90199906,-0.3926599,0.73426783,0.15600714,-0.47356668,0.8668313,0
-4.5707197,-0.43984485,-0.041610122,-0.98443109,-0.0025991201,0.17575204,0
4.3725553,-0.5241003,-0.70559084,0.98443109,0.0025991201,-0.17575204,0
-4.0597496,0.777812,1.2485379,0.08371371,0.87227255,0.48180157,0
-4.5558267,0.33689117,0.19194758,-0.98443109,-0.0025991201,0.17575204,0
2.933825,0.45596862,0.43074656,0.15294331,0.48010668,0.86377436,0
-4.2663693,0.12991428,-0.30113196,-0.17396052,0.15756063,-0.97206604,0
1.5761747,-0.82028461,-0.99505079,-0.10580534,-0.78968424,-0.60432124,0
3.9341109,0.93408847,-0.96371204,-0.064071,0.9364028,-0.34502882,0
-4.436347,-0.40010571,0.40618426,-0.98443109,-0.0025991201,0.17575204,0
-0.51383924,-0.13913281,-0.9734199,-0.17483382,-0.088651597,-0.98059899,0
-4.3502507,-0.48662949,1.4426169,-0.98443109,-0.0025991201,0.17575204,0
-4.4143448,-0.79818368,1.2967556,-0.98443109,-0.0025991201,0.17575204,0
-4.4889069,0.058716774,-0.050143957,-0.98443109,-0.0025991201,0.17575204,0
0.45728007,-0.072358608,-1.0152049,-0.17520285,-0.065838546,-0.98232859,0
3.0174894,-0.91180873,-0.74384606,-0.022207975,-0.99003851,-0.13903417,0
3.0055013,-0.72914171,-0.010669351,0.097458363,-0.84018975,0.53346318,0
-0.23913783,0.0028467774,1.0071108,0.17488028,0.086065128,0.98082107,0
-3.2491281,0.060124397,1.5078497,0.17456022,0.10271482,0.97927445,0
-4.2883587,-0.20953703,1.7186128,-0.98443109,-0.0025991201,0.17575204,0
-4.514493,0.18453598,0.037933111,-0.98443109,-0.0025991201,0.17575204,0
1.5136998,0.25426871,0.79886961,0.171592,0.20253259,0.96412498,0
-4.2602801,0.62814283,1.4662706,-0.98443109,-0.0025991201,0.17575204,0
0.33086443,-0.87539619,0.47740626,0.11040902,-0.78715909,0.60678709,0
4.4859409,0.27683115,-0.46625873,0.98443109,0.0025991201,-0.17575204,0
-1.3582658,0.5186547,-0.49777627,-0.1402466,0.61434907,-0.77647036,0
0.25428715,0.29478931,0.82667845,0.16664991,0.30411595,0.93794525,0
-4.5975251,0.18238401,0.26919812,-0.98443109,-0.0025991201,0.17575204,0
-4.5185733,0.45531654,0.45030171,-0.98443109,-0.0025991201,0.17575204,0
-4.0588188,0.87618732,1.0520527,0.044016838,0.96438569,0.26081207,0
4.2786427,-0.29055214,-1.507911,0.98443109,0.0025991201,-0.17575204,0
-4.3044162,-0.79285192,1.1429166,-0.98443109,-0.0025991201,0.17575204,0
-0.5589332,-0.86866099,0.51517338,0.069616437,-0.92388874,0.37627554,0
4.3398023,0.13127851,-0.80640084,0.98443109,0.0025991201,-0.17575204,0
-4.5528831,0.52774668,0.17992795,-0.98443109,-0.0025991201,0.17575204,0
4.4897976,-0.66233683,-0.73694324,0.98443109,0.0025991201,-0.17575204,0
-3.387713,0.27193689,1.6730382,0.16937786,0.25319546,0.95247239,0
-4.4161954,0.60447741,0.62311554,-0.98443109,-0.0025991201,0.17575204,0
-4.3590865,-0.67437553,0.78116131,-0.98443109,-0.0025991201,0.17575204,0
4.3923907,0.14148283,-0.45693669,0.98443109,0.0025991201,-0.17575204,0
2.191571,0.056468844,0.65909863,0.17430137,0.11460482,0.9780004,0
4.6288929,0.2742095,-0.096300602,0.98443109,0.0025991201,-0.17575204,0
0.94135946,-0.46745753,-1.0056965,-0.15832794,-0.42115435,-0.89306289,0
-1.5521407,0.34230947,1.2176658,0.16556001,0.32212847,0.93210703,0
4.6423321,0.49553823,-0.15280008,0.98443109,0.0025991201,-0.17575204,0
4.2767668,-0.28588963,-1.6930597,0.98443109,0.0025991201,-0.17575204,0
-1.5593828,0.63047361,0.99408758,0.12207937,0.70926964,0.69428623,0
4.4249706,0.7261405,-0.35417461,0.98443109,0.0025991201,-0.17575204,0
-4.3017302,-0.19387293,1.218641,-0.98443109,-0.0025991201,0.17575204,0
-4.1710401,-0.84178877,1.4983137,0.11752647,-0.75324476,0.64715534,0
-2.732403,0.74530673,1.1712891,0.12608093,0.68624532,0.71635962,0
-4.6178536,-0.10860777,0.28060514,-0.98443109,-0.0025991201,0.17575204,0
-2.5002325,-0.68878865,-0.45575023,-0.1362021,-0.62075567,-0.77208269,0
4.55475,-0.00010442734,-0.41940069,0.98443109,0.0025991201,-0.17575204,0
-4.3915553,-0.57018018,0.76338327,-0.98443109,-0.0025991201,0.17575204,0
4.5134463,0.64939952,-0.01128602,0.98443109,0.0025991201,-0.17575204,0
-1.4703894,0.42942262,1.1299722,0.16316766,0.35828948,0.91924149,0
-3.9742184,-0.46961451,1.6242068,0.15775909,-0.45398116,0.87693399,0
-4.5475526,-0.54089189,-0.028946161,-0.98443109,-0.0025991201,0.17575204,0
2.4989624,0.67865252,0.13612139,0.11775517,0.73258716,0.67041034,0
4.0674706,0.91344261,-0.75774026,-0.012111902,0.99851704,-0.053074807,0
-0.3913441,-0.9032917,0.40317753,0.068860948,-0.92566788,0.37201762,0
0.45339465,-0.80932218,-0.8361243,-0.11951035,-0.72330868,-0.68010437,0
4.4700327,0.18130779,-1.0324947,0.98443109,0.0025991201,-0.17575204,0
4.4948716,0.97942233,-0.49019563,0.98443109,0.0025991201,-0.17575204,0
0.78981209,0.12411243,0.91745627,0.17544739,0.046140715,0.98340708,0
-4.4981961,-0.50377131,0.093503594,-0.98443109,-0.0025991201,0.17575204,0
-4.4863605,-0.52492929,0.27882177,-0.98443109,-0.0025991201,0.17575204,0
-4.2974467,-0.90484929,1.0760731,-0.98443109,-0.0025991201,0.17575204,0
4.1720982,0.97887182,-0.5570122,0.04521817,0.96249282,0.26751271,0
4.4069285,0.73860002,-0.92420167,0.98443109,0.0025991201,-0.17575204,0
-3.8947163,-0.70793319,-0.17788017,-0.1371249,-0.61418879,-0.77715445,0
2.7209654,-1.0027747,-0.65156484,-0.022502959,-0.9897989,-0.140683,0
-4.3227034,-0.56253815,1.5669451,-0.98443109,-0.0025991201,0.17575204,0
4.2878666,0.25137424,-1.2867833,0.98443109,0.0025991201,-0.17575204,0
3.6676683,0.96675229,-0.63407069,-0.0051885843,0.99988467,-0.014275014,0
-4.5311146,-1.0423794,0.63079321,-0.98443109,-0.0025991201,0.17575204,0
3.8361239,-0.70455432,-0.043347716,0.12453115,-0.71596318,0.68694162,0
0.56438047,-0.054275542,0.84450781,0.17558153,-0.060986675,0.98257405,0
-4.3503957,0.46331024,0.80702823,-0.98443109,-0.0025991201,0.17575204,0
0.79062063,-0.70890987,-0.91419333,-0.13769722,-0.6100601,-0.78029883,0
-0.48325562,0.91391647,-0.5486297,-0.099871099,0.83108032,-0.54711187,0
-1.1155953,-0.14911544,1.0996101,0.17150755,-0.23310024,0.95720923,0
1.1191512,-0.73678172,0.34343445,0.097896516,-0.83856052,0.53594089,0
-0.044553995,0.92581832,0.560229,0.097912371,0.82228291,0.56059265,0
-1.5734169,-0.96740073,0.58380723,0.062369049,-0.93999386,0.3354426,0
-2.703218,0.77275681,-0.21147382,-0.12214643,0.72912741,-0.67338973,0
-4.5630107,0.36200523,0.36477786,-0.98443109,-0.0025991201,0.17575204,0
4.1164713,-0.98018503,-0.42126787,0.043869853,-0.97188038,0.23135257,0
-4.3795166,-0.92804098,0.61361402,-0.037212133,-0.97414434,-0.22284093,0
-1.6187065,0.9129281,0.6470561,0.064816177,0.92405778,0.37671787,0
-0.39464572,-0.63724762,-0.63018417,-0.13202477,-0.64916271,-0.74910432,0
4.3264961,0.43372154,-0.95420831,0.98443109,0.0025991201,-0.17575204,0
4.267518,0.43468475,-1.2290044,0.98443109,0.0025991201,-0.17575204,0
4.6139188,-0.17291927,-0.18126976,0.98443109,0.0025991201,-0.17575204,0
-0.9218365,-0.48063046,1.119061,0.16136079,-0.4098646,0.89776063,0
-4.6130567,-0.42302275,0.028693795,-0.98443109,-0.0025991201,0.17575204,0
-4.2598772,0.67615032,1.371127,-0.98443109,-0.0025991201,0.17575204,0
2.1956804,0.20468187,-1.4647288,-0.16986722,0.27104327,-0.94746017,0
0.2044203,0.84064472,-0.50175095,-0.088485181,0.87128097,-0.48274219,0
-0.6893574,0.59311867,1.0128908,0.14406824,0.5608924,0.81525719,0
4.5588064,0.098923206,-0.04179585,0.98443109,0.0025991201,-0.17575204,0
4.5328331,-0.55234957,-0.44611222,0.98443109,0.0025991201,-0.17575204,0
-4.4960847,0.30028296,0.58551669,-0.98443109,-0.0025991201,0.17575204,0
-1.431259,0.48250973,1.0484505,0.14451468,0.55720437,0.81770343,0
-2.8481543,0.31599092,1.5446651,0.16973817,0.2456627,0.95437884,0
1.8798674,-0.2954669,0.64537537,0.16421184,-0.37021661,0.91431642,0
-2.3686893,-0.1459105,1.4466664,0.17375232,-0.16550379,0.97078252,0
-4.5058637,-0.40284681,0.84176004,-0.98443109,-0.0025991201,0.17575204,0
4.3471994,-0.39383841,-1.7456474,0.98443109,0.0025991201,-0.17575204,0
-4.4746041,-0.16175413,0.34777403,-0.98443109,-0.0025991201,0.17575204,0
1.0902729,-0.73528802,0.64042854,0.1324234,-0.66847521,0.73185039,0
4.625308,-0.46651363,-0.051634789,0.98443109,0.0025991201,-0.17575204,0
-4.6128626,-0.32472181,0.063193083,-0.98443109,-0.0025991201,0.17575204,0
3.0964098,0.82828212,-0.024642706,0.078812838,0.88721645,0.45457181,0
4.6101027,0.33881569,-0.25334096,0.98443109,0.0025991201,-0.17575204,0
-3.5763664,0.49078631,1.6279424,0.15280807,0.48147389,0.86303693,0
4.3085289,0.42516327,-1.5818077,0.98443109,0.0025991201,-0.17575204,0
-0.21451527,0.65326452,0.77252769,0.1387161,0.60259956,0.78589553,0
-4.3184948,0.07100296,1.1944654,-0.98443109,-0.0025991201,0.17575204,0
-4.5122557,-0.048285484,0.33514315,-0.98443109,-0.0025991201,0.17575204,0
4.4348407,0.71292543,-1.2508615,0.98443109,0.0025991201,-0.17575204,0
-2.0480881,-0.84356368,1.1302857,0.12187248,-0.73060727,0.67183346,0
-3.2962348,-0.35084438,1.6035844,0.17109701,-0.24322712,0.95475996,0
4.1023479,0.81181073,-0.30221874,0.074581683,0.89924055,0.43105006,0
-4.3143258,0.52575731,1.3496615,-0.98443109,-0.0025991201,0.17575204,0
4.3086352,0.063936234,-0.94233084,0.98443109,0.0025991201,-0.17575204,0
1.9798166,-1.0263929,-0.63712311,-0.036512434,-0.97505599,-0.21893574,0
-3.8620081,1.0926864,0.57292426,-0.007463932,0.99960697,-0.02702412,0
-0.11633098,0.49983013,-0.81498235,-0.15226132,0.51217186,-0.84527904,0
2.6999073,-0.88487244,-0.63393778,-0.025072515,-0.98758954,-0.15504318,0
1.7300968,0.012506008,-1.2947879,-0.17572145,-0.0092528015,-0.98439652,0
-4.4113617,-0.0021324158,0.74321359,-0.98443109,-0.0025991201,0.17575204,0
-3.6155701,-0.91120362,0.56277323,-0.013338387,-0.9959029,-0.089440249,0
3.9985528,-0.095548153,-1.6393881,-0.17454804,-0.10330224,-0.97921491,0
-4.4615874,-0.10179806,0.54248595,-0.98443109,-0.0025991201,0.17575204,0
4.4644747,0.54619408,-0.93382442,0.98443109,0.0025991201,-0.17575204,0
-2.6248288,-0.35070205,-0.50415254,-0.15948895,-0.40708596,-0.89935768,0
-4.4045491,-0.35833883,0.6632669,-0.98443109,-0.0025991201,0.17575204,0
-4.4400868,0.43761253,0.77665579,-0.98443109,-0.0025991201,0.17575204,0
3.5755205,-0.51144171,0.18893957,0.15122214,-0.52219784,0.83931005,0
4.4711723,-0.014117241,-0.93762779,0.98443109,0.0025991201,-0.17575204,0
-0.84009308,0.91183329,-0.20663899,-0.061423898,0.94193846,-0.33011997,0
4.4394655,0.27451372,-1.0121667,0.98443109,0.0025991201,-0.17575204,0
3.5054357,0.12402844,-1.7217546,-0.17282444,0.19663662,-0.96512485,0
4.3319564,-0.29303932,-1.0713605,0.98443109,0.0025991201,-0.17575204,0
-0.87319708,0.69787693,-0.51072222,-0.1181758,0.74996042,-0.65084094,0
-4.3702345,-0.49639034,1.429732,-0.98443109,-0.0025991201,0.17575204,0
-4.3907828,0.5101757,0.51916659,-0.98443109,-0.0025991201,0.17575204,0
-4.414022,-0.88396144,0.90140665,-0.98443109,-0.0025991201,0.17575204,0
-3.1103475,0.92082286,1.171818,0.094042599,0.83695328,0.53913391,0
-4.3291492,-0.082258701,1.4799553,-0.98443109,-0.0025991201,0.17575204,0
1.6365387,-0.97588599,-0.58097267,-0.062315524,-0.92978299,-0.36279538,0
1.2522823,0.57659554,0.63222343,0.15367103,0.47266498,0.86774015,0
2.6995635,-0.029647589,0.49843264,0.17467977,-0.12572417,0.9765656,0
1.0320767,-0.76635188,0.49564523,0.12906149,-0.68948501,0.71270883,0
4.3074355,-0.5982008,-1.5582721,0.98443109,0.0025991201,-0.17575204,0
1.2261108,-1.0068645,-0.42535084,-0.043559134,-0.96509343,-0.25825807,0
-4.1148562,0.17536521,-0.32224154,-0.17140126,0.23576897,-0.95657444,0
-3.2251353,-0.62967539,-0.2697525,-0.13934898,-0.59789252,-0.78937095,0
-4.2761674,0.77376556,1.2667422,-0.98443109,-0.0025991201,0.17575204,0
3.2649441,-0.95618701,-0.87806404,-0.043274641,-0.96552944,-0.25667185,0
0.90325701,0.5143764,0.72533709,0.14669681,0.53866291,0.82965201,0
-3.9644921,0.75979567,0.2966364,-0.08872515,0.87050426,-0.48409742,0
-4.4908776,-0.53212357,0.40934223,-0.98443109,-0.0025991201,0.17575204,0
-3.9545567,-0.21995068,-0.26001751,-0.1690425,-0.26000929,-0.95069456,0
4.3989248,0.54043841,0.056899786,0.15440404,0.46501768,0.87173277,0
-4.2711411,0.56860924,1.5411838,-0.98443109,-0.0025991201,0.17575204,0
3.3252659,0.65103936,0.11716503,0.13139176,0.65328985,0.74561983,0
0.61009741,-0.66976678,-0.89343977,-0.12857687,-0.67111713,-0.73011643,0
0.1137948,0.80980027,0.76789516,0.1166352,0.73837942,0.66422296,0
-4.2468657,0.5391469,1.4771225,-0.98443109,-0.0025991201,0.17575204,0
3.3138816,0.957201,-1.0495988,-0.084356487,0.88420171,-0.45942503,0
-2.2384286,0.78748488,1.1360683,0.11475348,0.74789464,0.65382367,0
-2.4164679,0.64349437,-0.19378197,-0.12400085,0.71893495,-0.6839273,0
-4.280941,0.46938705,1.7306641,-0.98443109,-0.0025991201,0.17575204,0
-4.5016289,-0.38942146,0.60505736,-0.98443109,-0.0025991201,0.17575204,0
-3.3451371,-0.902318,0.69185269,0.034467578,-0.98333269,0.17851871,0
4.2457662,0.39314747,-1.5729909,0.98443109,0.0025991201,-0.17575204,0
4.5528975,0.64708233,-0.39342868,0.98443109,0.0025991201,-0.17575204,0
-4.4939437,-0.69207144,0.47976986,-0.98443109,-0.0025991201,0.17575204,0
2.2551298,-0.66549921,0.33000529,0.12878588,-0.691154,0.71114028,0
2.9125154,0.6529882,-1.3791307,-0.13580626,0.64603376,-0.75113046,0
0.76019126,0.93405074,0.27137995,0.082302034,0.87669182,0.47395974,0
-0.52068812,-0.48292229,1.0626705,0.16232678,-0.39697263,0.90336204,0
-2.4477394,0.56873918,1.2999854,0.14423686,0.5595032,0.81618142,0
-4.3409538,0.091170311,0.94079584,-0.98443109,-0.0025991201,0.17575204,0
3.147243,0.88251734,-1.2250556,-0.10527492,0.80943191,-0.57770008,0
-3.3273416,-0.38129473,1.508034,0.16323367,-0.38438308,0.90862799,0
-1.7272943,0.18922865,-0.66603136,-0.17133045,0.23752834,-0.95615184,0
-4.4284153,-0.57269049,1.2027546,-0.98443109,-0.0025991201,0.17575204,0
1.1492203,0.033598661,0.78124404,0.17497195,0.080756024,0.98125607,0
-3.2823021,-0.051822662,1.6877855,0.17563313,0.02508837,0.9841361,0
-3.203126,-0.98159146,0.89560455,0.04864037,-0.96487248,0.25817704,0
4.5846806,-0.34814548,-0.20420706,0.98443109,0.0025991201,-0.17575204,0
4.5919766,-0.26633978,-0.25143695,0.98443109,0.0025991201,-0.17575204,0
4.3266706,0.42086315,-1.5074452,0.98443109,0.0025991201,-0.17575204,0
4.3938446,-0.41615438,-0.44487596,0.98443109,0.0025991201,-0.17575204,0
-4.3874512,0.10324049,1.3055215,-0.98443109,-0.0025991201,0.17575204,0
3.8926048,-0.86393213,-1.312145,-0.10502702,-0.79306734,-0.60001135,0
4.4113426,0.55629349,-1.4424279,0.98443109,0.0025991201,-0.17575204,0
-1.336756,0.99700785,-0.021077633,-0.065322101,0.93368882,-0.35207719,0
4.3378568,0.58910966,-0.90489638,0.98443109,0.0025991201,-0.17575204,0
4.4927535,0.16253567,-0.25703704,0.98443109,0.0025991201,-0.17575204,0
-4.4846463,0.29984093,0.50226504,-0.98443109,-0.0025991201,0.17575204,0
-4.404542,0.79570961,0.9034999,-0.98443109,-0.0025991201,0.17575204,0
4.425488,-0.53900194,-0.27461362,0.98443109,0.0025991201,-0.17575204,0
-4.2757273,-0.44837332,1.3060337,-0.98443109,-0.0025991201,0.17575204,0
-4.2335758,0.64240599,1.4546814,-0.98443109,-0.0025991201,0.17575204,0
1.490001,-0.95916402,0.12593579,0.080480278,-0.89558756,0.43754518,0
4.0345812,-0.61183929,-1.4600303,-0.14034951,-0.59033477,-0.79486281,0
-2.8006706,-1.0100325,0.83266866,0.047867239,-0.96606386,0.25382936,0
4.6220465,0.25493813,0.057122827,0.98443109,0.0025991201,-0.17575204,0
-4.3789158,0.53858376,1.1573139,-0.98443109,-0.0025991201,0.17575204,0
-4.418519,-0.56011128,0.64555991,-0.98443109,-0.0025991201,0.17575204,0
2.0209293,0.31623554,-1.2456899,-0.1676098,0.31502771,-0.93416524,0
4.3935027,0.84187222,-0.17056322,0.10157961,0.8075999,0.5809167,0
3.4418883,1.0080781,-0.65764463,0.00347507,0.99940747,0.034245357,0
2.6150012,0.5298183,-1.3877659,-0.15845293,0.44591278,-0.88093966,0
0.56755924,1.0762691,-0.2548652,-0.027473152,0.98987699,-0.13924423,0
-2.3741822,0.65590739,1.2882643,0.14231014,0.57508695,0.80561966,0
-3.3091073,-0.21596885,1.6334342,0.17427459,-0.14463922,0.97401643,0
-4.5757399,0.10512352,-0.023226142,-0.98443109,-0.0025991201,0.17575204,0
-4.4367294,-0.75748539,0.58932734,-0.98443109,-0.0025991201,0.17575204,0
-4.5207834,0.16518307,0.74403673,-0.98443109,-0.0025991201,0.17575204,0
4.5894194,0.069085598,-0.12846649,0.98443109,0.0025991201,-0.17575204,0
4.4514303,-0.023941994,-1.1052125,0.98443109,0.0025991201,-0.17575204,0
-4.3635163,-0.1744771,1.4172244,-0.98443109,-0.0025991201,0.17575204,0
0.024834752,0.84441257,-0.47241294,-0.077689528,0.90335512,-0.42179853,0
-4.3227353,1.0337648,0.80026591,0.0077368617,0.99828082,0.058099791,0
-4.4448357,-0.0215168,1.0033082,-0.98443109,-0.0025991201,0.17575204,0
3.6925974,1.0256233,-0.43454182,0.048888922,0.95638663,0.28798351,0
-4.5112138,0.93821859,0.51115799,-0.98443109,-0.0025991201,0.17575204,0
2.3313012,0.65436292,-1.3146155,-0.14425057,0.58328408,-0.79935706,0
4.6495094,0.094347,0.023998976,0.98443109,0.0025991201,-0.17575204,0
4.5210238,0.52552891,-0.11376858,0.98443109,0.0025991201,-0.17575204,0
-0.91239834,-0.63605374,-0.53581518,-0.12750381,-0.67769641,-0.72420329,0
-4.5273747,-0.10881472,-0.005875349,-0.98443109,-0.0025991201,0.17575204,0
-1.8423706,-0.60764158,1.1948866,0.14185014,-0.60221374,0.78563172,0
4.4947772,-0.84285259,-0.43770409,0.98443109,0.0025991201,-0.17575204,0
3.1651349,1.1002274,-0.55101359,-0.0022163987,0.99999475,0.0023745,0
2.9173632,0.38937235,-1.477823,-0.15625146,0.47089919,-0.86823934,0
3.9432731,0.0095028877,-1.7186346,-0.1755923,-0.030567631,-0.98398829,0
4.5752683,-0.67220831,-0.54018933,0.98443109,0.0025991201,-0.17575204,0
2.9358566,-0.12037134,0.40582514,0.17430627,-0.14326277,0.97421408,0
4.5149331,0.42284298,-0.46684238,0.98443109,0.0025991201,-0.17575204,0
-4.4060011,-0.22543097,0.66628623,-0.98443109,-0.0025991201,0.17575204,0
-1.1743641,-0.79744726,0.78143787,0.10350144,-0.81673211,0.56765866,0
4.4658966,-0.77893019,-0.43735969,0.98443109,0.0025991201,-0.17575204,0
4.3199205,-0.64523506,-1.1468925,0.98443109,0.0025991201,-0.17575204,0
4.4019961,-0.074656963,-0.76851106,0.98443109,0.0025991201,-0.17575204,0
-4.5943122,0.0035467148,0.070103645,-0.98443109,-0.0025991201,0.17575204,0
-4.4964314,0.78916216,0.8573944,-0.98443109,-0.0025991201,0.17575204,0
-4.4448709,-0.94345307,0.74875009,-0.98443109,-0.0025991201,0.17575204,0
4.5050492,-0.32020712,-0.019156814,0.98443109,0.0025991201,-0.17575204,0
-0.84462345,-0.30925328,-0.89565408,-0.16377434,-0.34950548,-0.92250967,0
4.6371193,0.597929,0.048109174,0.98443109,0.0025991201,-0.17575204,0
-4.2567863,0.37497997,1.201642,-0.98443109,-0.0025991201,0.17575204,0
-0.69040155,-0.76628441,-0.49180761,-0.10736132,-0.78280586,-0.61293447,0
4.2598844,0.28330135,-1.7320433,0.98443109,0.0025991201,-0.17575204,0
2.6131732,0.14516354,-1.4191869,-0.17129478,0.23840955,-0.95593894,0
-4.636662,0.19923353,-0.13322806,-0.98443109,-0.0025991201,0.17575204,0
1.5413358,-0.94210398,-0.36087337,-0.0082313418,-0.99811196,-0.060866877,0
4.5061088,-0.10445023,-0.73172474,0.98443109,0.0025991201,-0.17575204,0
-4.2197742,-1.0609915,1.1039572,0.047541261,-0.96655989,0.25199586,0
4.3926001,-0.13770008,-0.5460043,0.98443109,0.0025991201,-0.17575204,0
-4.5677333,-0.7223208,0.50598812,-0.98443109,-0.0025991201,0.17575204,0
1.9533041,0.015609264,0.7355572,0.1757502,0.00093021989,0.98443455,0
4.3079066,-0.11556673,-1.1619558,0.98443109,0.0025991201,-0.17575204,0
-4.249208,0.48220301,1.636771,-0.98443109,-0.0025991201,0.17575204,0
-0.23996073,0.81552589,0.39206395,0.072724044,0.9042716,0.42071861,0
-3.1820793,0.91950893,0.85830092,0.051576436,0.95160466,0.30296618,0
-4.2935696,0.1213727,1.8342568,-0.98443109,-0.0025991201,0.17575204,0
4.1649089,0.2202425,0.23047471,0.1710434,0.21618339,0.96125388,0
4.3307104,-0.93547773,-0.9444145,0.98443109,0.0025991201,-0.17575204,0
-4.1952987,0.076165676,-0.3255657,-0.17519988,0.09506686,-0.97993243,0
4.159749,0.20666647,-1.7127292,-0.17272723,0.19958629,-0.96453667,0
-1.7158301,-1.0672617,0.35557982,0.0062203407,-0.99977952,0.020055681,0
4.5173101,-0.42772484,-0.58124548,0.98443109,0.0025991201,-0.17575204,0
3.5307989,-0.17642331,0.41080141,0.17433338,-0.14207202,0.97438371,0
2.799068,-0.15592599,0.51605654,0.17499223,-0.1085273,0.97857016,0
2.5926049,0.91407847,-0.63699985,-0.048579454,0.96496719,-0.25783432,0
0.29990709,-1.0316288,-0.2823261,-0.026867211,-0.98591572,-0.1650705,0
4.1551447,0.89559031,-1.0569681,-0.058175266,0.94835567,-0.31182897,0
-0.81747305,-0.90747857,0.052752558,-0.017334878,-0.99358052,-0.11179087,0
4.4089961,-0.12983084,-0.47042114,0.98443109,0.0025991201,-0.17575204,0
4.366818,0.79737973,-0.75265664,0.98443109,0.0025991201,-0.17575204,0
-4.3680305,-0.21025562,1.3057935,-0.98443109,-0.0025991201,0.17575204,0
-3.6118574,-0.57457185,-0.2837925,-0.15012389,-0.50764096,-0.84838897,0
4.5678997,0.42236209,0.16673112,0.98443109,0.0025991201,-0.17575204,0
-4.3763566,-0.34577942,1.1407183,-0.98443109,-0.0025991201,0.17575204,0
-0.50714296,0.20727336,1.0051613,0.16853324,0.27002114,0.94799024,0
4.4997358,0.75823689,-0.49029174,0.98443109,0.0025991201,-0.17575204,0
-4.1896958,-0.4592185,1.5978647,-0.98443109,-0.0025991201,0.17575204,0
4.4066048,0.50738811,-0.61831206,0.98443109,0.0025991201,-0.17575204,0
-4.5317988,0.32424593,-0.021221519,-0.98443109,-0.0025991201,0.17575204,0
4.5587869,-0.61381149,-0.3184886,0.98443109,0.0025991201,-0.17575204,0
1.4042833,-0.34402776,-1.126892,-0.15688109,-0.43794611,-0.88520724,0
-0.93807024,-0.48025402,-0.68171299,-0.1468541,-0.53729236,-0.83051252,0
-4.5508375,0.5312314,-0.078219175,-0.15851864,0.44513839,-0.8813194,0
-4.6115599,-0.26860714,-0.056897998,-0.98443109,-0.0025991201,0.17575204,0
-4.5557175,0.3197608,0.096493721,-0.98443109,-0.0025991201,0.17575204,0
4.288496,-0.030921936,-1.4850825,0.98443109,0.0025991201,-0.17575204,0
4.3483562,0.57922268,-1.3139962,0.98443109,0.0025991201,-0.17575204,0
-2.1859608,0.9001739,-0.096037388,-0.074946523,0.91064918,-0.40632653,0
1.1022642,0.18964404,0.86087394,0.17044735,0.23011139,0.95812148,0
-4.552422,0.64020872,0.44025725,-0.98443109,-0.0025991201,0.17575204,0
-4.2895465,0.21494913,1.340149,-0.98443109,-0.0025991201,0.17575204,0
3.9118373,-0.35485411,-1.6019578,-0.15770358,-0.42849687,-0.88967425,0
-4.2773976,0.18398046,1.1801565,-0.98443109,-0.0025991201,0.17575204,0
-4.5588112,0.10083485,-0.073233128,-0.98443109,-0.0025991201,0.17575204,0
2.6936109,-0.36176896,-1.3848424,-0.16006404,-0.39990258,-0.90247303,0
4.4432063,-0.012840271,-1.042053,0.98443109,0.0025991201,-0.17575204,0
-0.25272822,0.64426249,0.7576952,0.13304144,0.64243996,0.75469929,0
0.93752563,-1.0629501,-0.25964949,-0.021237791,-0.99080622,-0.13361168,0
4.2681255,0.72221565,-1.2522644,0.98443109,0.0025991201,-0.17575204,0
-1.1420441,-0.8019591,0.72095323,0.10911453,-0.79293919,0.59945089,0
-4.0598407,-0.92537951,1.0834842,0.056981921,-0.9506104,0.30511171,0
-4.4992805,0.11575031,0.42377788,-0.98443109,-0.0025991201,0.17575204,0
-4.5041647,-0.74662709,0.77409935,-0.98443109,-0.0025991201,0.17575204,0
-4.5129671,0.39917469,0.58979249,-0.98443109,-0.0025991201,0.17575204,0
-2.4635324,-0.93541884,0.5474081,0.034514785,-0.9832828,0.17878419,0
-1.5000994,0.98687077,-0.0017821193,-0.042661428,0.973526,-0.22455975,0
-4.4502401,0.26262379,0.77676582,-0.98443109,-0.0025991201,0.17575204,0
-4.3759656,-0.97388363,0.86640704,-0.98443109,-0.0025991201,0.17575204,0
-4.6333251,-0.13947725,-0.045960546,-0.98443109,-0.0025991201,0.17575204,0
-0.39450064,0.14677882,1.1959448,0.17517424,0.067835823,0.98219782,0
0.51172584,0.55574274,-0.8752315,-0.13789746,0.63144636,-0.76305962,0
4.4039679,-0.86867523,-0.84186596,0.98443109,0.0025991201,-0.17575204,0
1.053236,0.25358981,0.7272507,0.17068142,0.22474451,0.95935285,0
-1.4813236,-0.99222261,0.55161071,0.048669636,-0.96482682,0.25834197,0
-4.283042,0.84290981,0.18370807,-0.1139636,0.77068663,-0.62694067,0
-2.1581481,1.0006888,0.35583752,-0.023654401,0.99275422,-0.11781216,0
3.2271407,-0.77421141,0.1642884,0.12432164,-0.71714026,0.68575078,0
-4.4003482,-0.70462394,1.4042239,-0.98443109,-0.0025991201,0.17575204,0
-4.4471102,-1.0984273,0.75410408,-0.017235816,-0.99364442,-0.11123726,0
4.5465741,-0.40561008,0.15883183,0.98443109,0.0025991201,-0.17575204,0
3.6121132,0.33829594,-1.5363786,-0.16042812,0.42185101,-0.89235908,0
1.05031,0.91453141,-0.010154098,0.031601667,0.98098052,0.19151641,0
-1.0658818,-0.69883209,0.87359172,0.12049675,-0.73794276,0.66401905,0
4.4680896,0.87648225,-0.32650298,0.98443109,0.0025991201,-0.17575204,0
3.521805,-0.97365665,-0.59603083,0.0024516582,-0.99999654,-0.0010567307,0
-4.4344931,0.11500502,0.52205867,-0.98443109,-0.0025991201,0.17575204,0
-4.3743253,0.20532751,-0.19299221,-0.16881731,0.29244679,-0.94126284,0
0.97078645,0.84427583,-0.68659604,-0.091090143,0.86269128,-0.49746013,0
4.4846697,0.42496204,-0.51240993,0.98443109,0.0025991201,-0.17575204,0
1.3756522,-1.0493077,-0.32156929,-0.010568559,-0.99720639,-0.073945142,0
4.3561072,0.40053988,-0.74706542,0.98443109,0.0025991201,-0.17575204,0
4.5154715,-0.55719662,-0.50942385,0.98443109,0.0025991201,-0.17575204,0
4.3501015,-0.48057032,-1.5119691,0.98443109,0.0025991201,-0.17575204,0
4.0083055,1.0043197,-0.56511736,0.039616585,0.97088176,0.23626107,0
2.0481958,-0.91215765,0.13627756,0.07543993,-0.9093616,0.40910918,0
1.812752,-0.41413665,-1.2505819,-0.15308309,-0.47868925,-0.86453593,0
-0.46372753,0.60426462,0.86151457,0.12115854,0.7143656,0.68920434,0
-2.6412082,-0.6145426,-0.2658757,-0.12238157,-0.70758069,-0.69595444,0
4.4346385,-0.072283268,-0.47233522,0.98443109,0.0025991201,-0.17575204,0
4.2434931,-0.44592667,-1.3593415,0.98443109,0.0025991201,-0.17575204,0
-3.4063306,0.89014935,1.0525692,0.083312273,0.87353879,0.47957182,0
-0.28182206,-0.62666094,-0.57931232,-0.12538284,-0.69036794,-0.71251065,0
-4.4932456,0.24320889,0.42606634,-0.98443109,-0.0025991201,0.17575204,0
-4.547214,0.33969831,0.25468576,-0.98443109,-0.0025991201,0.17575204,0
0.98966694,0.87483734,0.17899379,0.070175767,0.91093236,0.40654352,0
-1.1679646,0.88271534,0.62321812,0.078354359,0.88855809,0.45202333,0
-4.4230499,-0.89998746,0.52420312,-0.98443109,-0.0025991201,0.17575204,0
-2.5098324,-1.0785526,0.31605494,-0.033473134,-0.97882009,-0.20196754,0
0.5370661,1.0698617,0.10751179,0.029589951,0.98316997,0.18028128,0
0.5594424,-0.44431093,0.73397547,0.1559328,-0.47437453,0.86640292,0
-4.3021436,-0.86674166,1.0284272,-0.98443109,-0.0025991201,0.17575204,0
1.6669328,-0.96257961,-0.47880283,-0.041066945,-0.96881604,-0.24435417,0
4.4541974,0.36156988,-1.0963372,0.98443109,0.0025991201,-0.17575204,0
-4.4145751,-1.0430942,0.91819632,-0.98443109,-0.0025991201,0.17575204,0
-3.6929777,-0.33530211,1.5243556,0.16750871,-0.31683391,0.93357241,0
4.5298014,0.23098898,-0.58876634,0.98443109,0.0025991201,-0.17575204,0
-4.4742379,-0.086046696,1.0067776,-0.98443109,-0.0025991201,0.17575204,0
4.3710976,-0.42366123,-1.5046291,0.98443109,0.0025991201,-0.17575204,0
-1.2973354,0.51622009,1.150363,0.15452141,0.46377861,0.87237179,0
4.4412947,0.42257452,-0.90217251,0.98443109,0.0025991201,-0.17575204,0
-3.9375339,0.84262848,1.2512242,0.091016412,0.8478632,0.52234471,0
0.71299046,-0.062958479,-1.2143465,-0.17577104,0.012967825,-0.98434567,0
-4.3848457,-0.73917007,1.1091859,-0.98443109,-0.0025991201,0.17575204,0
-1.4080727,-0.031517386,1.3654777,0.17573898,-0.033721223,0.98385912,0
4.399138,-0.68105841,-1.5279332,0.98443109,0.0025991201,-0.17575204,0
