-1.2519722,-1.459271,-2.1942303,-0.50677615,-0.51701283,-0.6898374,0
1.5789243,0.15941215,1.2179223,0.73019314,-0.68279457,-0.024688363,0
1.1938215,1.9255435,2.0966475,0.50677615,0.51701283,0.6898374,0
-0.4295969,-0.043442607,1.1523904,-0.65937579,-0.28301537,0.69650984,0
0.96342713,-0.27394021,0.64504009,0.62696207,-0.77025944,0.11670077,0
-1.1755081,-2.205575,-1.8277726,-0.50677615,-0.51701283,-0.6898374,0
1.0939391,0.48365077,-0.24671003,0.71563447,0.19387276,-0.67102945,0
-1.7059653,-1.0881956,-2.2291696,-0.50677615,-0.51701283,-0.6898374,0
-1.0342411,-2.1504872,-1.9512479,-0.50677615,-0.51701283,-0.6898374,0
2.0734832,0.93307018,2.0510378,0.50677615,0.51701283,0.6898374,0
-0.67107391,-1.5069206,-0.31878543,0.044152319,-0.81471914,0.57817245,0
-2.2842262,-1.2230313,-1.7675416,-0.50677615,-0.51701283,-0.6898374,0
1.2084212,0.90446019,2.7060678,0.50677615,0.51701283,0.6898374,0
-0.71364212,-1.8882642,-2.37431,0.85415494,-0.40937275,-0.32067621,0
0.16768634,0.99592483,1.9103892,-0.81020248,0.012245879,0.5860222,0
-1.067991,-2.1134758,-2.0331507,-0.50677615,-0.51701283,-0.6898374,0
0.91604775,0.48065352,2.2439809,-0.30935675,-0.63784117,0.70530635,0
-1.5448251,-1.5028535,-2.0029581,-0.50677615,-0.51701283,-0.6898374,0
-1.5886457,-1.8745782,-1.728897,-0.50677615,-0.51701283,-0.6898374,0
-0.18909061,-1.1652125,-1.8004549,0.85470867,-0.19692595,-0.48030546,0
1.31749,0.047672391,1.4565305,0.43482101,-0.84425515,0.31331122,0
2.0648658,1.2919899,2.0085535,0.50677615,0.51701283,0.6898374,0
0.26437449,-0.14137533,-1.1119697,0.68603909,0.24270836,-0.68588853,0
1.4033282,2.0530467,1.835481,0.50677615,0.51701283,0.6898374,0
-1.0491822,-1.9536918,-2.1470048,-0.50677615,-0.51701283,-0.6898374,0
-1.067237,-1.1301593,-2.8150258,-0.50677615,-0.51701283,-0.6898374,0
1.3042493,2.0419157,1.0725036,0.046633899,0.78259075,-0.62078756,0
2.0653574,1.8371148,1.539211,0.50677615,0.51701283,0.6898374,0
-1.260883,-1.5877136,-2.2806585,-0.50677615,-0.51701283,-0.6898374,0
0.34433553,-0.78657788,0.46493387,0.24419236,-0.85352027,0.46029699,0
-1.6668365,-1.2337312,-2.2470918,-0.50677615,-0.51701283,-0.6898374,0
-0.75616521,-1.6574637,-2.4143569,-0.50677615,-0.51701283,-0.6898374,0
-2.1867318,-1.5950238,-1.5121398,-0.50677615,-0.51701283,-0.6898374,0
-0.30952665,0.6938051,-0.57637197,-0.27590209,0.85538518,-0.43839967,0
-1.0696305,0.28539956,-0.20663267,-0.8094877,0.56059933,0.17452228,0
0.75020188,2.0452235,2.3094134,0.50677615,0.51701283,0.6898374,0
0.86055982,1.3322939,2.6164043,0.50677615,0.51701283,0.6898374,0
-1.7745101,-1.8401693,-1.7407658,-0.50677615,-0.51701283,-0.6898374,0
0.89693886,1.9462702,1.0016481,-0.19364786,0.84802473,-0.49330986,0
2.0394304,1.812959,1.3782153,0.50677615,0.51701283,0.6898374,0
0.25769389,-0.59271348,-1.4366494,0.81352305,-0.022048861,-0.58111453,0
1.2395456,-0.21278071,0.89323914,0.58395201,-0.79453224,0.16648924,0
1.165902,1.6721888,2.231091,0.50677615,0.51701283,0.6898374,0
1.8003283,1.5087157,0.91078573,0.62195826,0.33482879,-0.70785427,0
1.0962646,2.3999662,1.7185192,0.50677615,0.51701283,0.6898374,0
0.19709492,-0.28343904,-1.3368918,0.71537101,0.19432972,-0.67117828,0
-1.7132421,-2.1771705,-1.4142491,-0.50677615,-0.51701283,-0.6898374,0
-2.0217922,-0.97786641,-2.0978403,-0.50677615,-0.51701283,-0.6898374,0
-0.92587131,0.32177842,-0.056728482,-0.81623232,0.54524177,0.19098717,0
-1.4160874,-1.3715118,-2.1842256,-0.50677615,-0.51701283,-0.6898374,0
-1.3341421,-0.3001281,-0.30436647,-0.85848254,0.22965625,0.4585475,0
0.35643172,1.7427305,2.1662476,-0.86145449,0.33413079,0.38243023,0
-1.4294548,-0.58928084,-0.19633231,-0.78696334,-0.049239799,0.61503172,0
0.89792138,1.3491969,2.5717096,0.50677615,0.51701283,0.6898374,0
-1.0146713,-2.1909459,-1.8660429,-0.50677615,-0.51701283,-0.6898374,0
-2.1968265,-0.86453795,-1.9518212,-0.50677615,-0.51701283,-0.6898374,0
0.61754221,-0.81383121,0.05162859,0.66174972,-0.74615479,0.073079228,0
1.515394,1.3616443,2.2383301,0.50677615,0.51701283,0.6898374,0
-2.2729812,-1.2145693,-1.6769409,-0.50677615,-0.51701283,-0.6898374,0
-0.79586202,0.63508916,0.3335433,-0.80889857,0.56188011,0.17312956,0
2.1966965,1.6009856,1.4747963,0.50677615,0.51701283,0.6898374,0
0.63875115,1.2930864,2.3976686,-0.78836787,-0.045813665,0.61349571,0
0.31288236,-1.1277304,-0.91846013,0.80636525,-0.56728613,-0.1672169,0
2.2334123,1.4871527,1.5002474,0.50677615,0.51701283,0.6898374,0
1.1860404,2.1422062,1.9642909,0.50677615,0.51701283,0.6898374,0
-0.23369253,1.0066466,1.2590245,-0.86134362,0.27065295,0.4299235,0
1.5792091,1.0067863,2.2926874,0.50677615,0.51701283,0.6898374,0
-0.19883108,0.76471412,1.535846,-0.8392024,0.1127484,0.53200281,0
-1.0754442,-1.2609932,-2.6336918,-0.50677615,-0.51701283,-0.6898374,0
1.0488605,0.33781695,2.0926316,-0.040884912,-0.78488874,0.61828637,0
-0.2886622,0.40067041,-1.2830184,0.11318451,0.75337291,-0.64777976,0
0.82550001,1.9543521,1.1337759,-0.26881257,0.85507703,-0.44337702,0
1.9807041,0.8897543,2.1372714,0.50677615,0.51701283,0.6898374,0
-0.25796133,-1.6717204,-0.75497127,0.46988869,-0.83654606,0.28177178,0
0.9603681,-0.12175182,-0.18256664,0.86186862,-0.32147735,-0.39221781,0
1.0625046,1.4224658,2.3654585,0.50677615,0.51701283,0.6898374,0
0.67662811,1.4500333,0.26226372,0.12000662,0.75010329,-0.65034103,0
-1.9406544,-1.7876893,-1.5648378,-0.50677615,-0.51701283,-0.6898374,0
-1.2651809,-0.90896571,-2.6033463,-0.50677615,-0.51701283,-0.6898374,0
-0.84814036,-1.6927255,-2.3956864,-0.50677615,-0.51701283,-0.6898374,0
1.3255754,0.068726063,0.40246737,0.8323406,-0.50180382,-0.23537636,0
1.7708806,1.6791685,1.7251204,0.50677615,0.51701283,0.6898374,0
0.12609303,0.7432667,-0.82543641,0.13773698,0.74136406,-0.65681648,0
-1.2642543,-1.3875525,-0.50049186,-0.40031415,-0.56756532,0.71945691,0
1.5707982,0.47586894,2.3452139,0.21629912,-0.85086322,0.47879684,0
0.66879672,2.0041668,1.6937609,-0.6461128,0.75754243,-0.093101144,0
1.2064031,1.0749159,2.613518,0.50677615,0.51701283,0.6898374,0
1.4242473,0.58965534,0.15604755,0.80383515,0.0057400316,-0.59482443,0
-1.1850498,-1.3834003,-0.450901,-0.35318017,-0.6054523,0.71322596,0
1.5925379,1.8862584,1.9017458,0.50677615,0.51701283,0.6898374,0
-1.4353305,-1.7671341,-1.9897619,-0.50677615,-0.51701283,-0.6898374,0
0.74133182,-0.65458137,0.71602166,0.39011696,-0.85111713,0.35129523,0
1.0773382,0.10980487,1.6388472,0.27166286,-0.85520846,0.44138157,0
0.72253847,1.7736957,2.5979238,0.50677615,0.51701283,0.6898374,0
0.82645971,0.50488079,2.376488,-0.32083625,-0.6296097,0.70757025,0
-1.4135485,-1.1968644,-2.5194821,-0.50677615,-0.51701283,-0.6898374,0
1.5629227,1.3508413,2.248044,0.50677615,0.51701283,0.6898374,0
-0.60274744,-1.4479271,-0.10981512,0.020480126,-0.80719781,0.58992571,0
0.54595667,0.17800474,1.8390946,-0.36383927,-0.59716988,0.714849,0
-1.7648963,-1.6513252,-1.7252557,-0.50677615,-0.51701283,-0.6898374,0
0.039638292,1.1363539,0.075459182,-0.23349404,0.85261196,-0.46747565,0
0.91262966,0.96852946,2.556967,-0.49615461,-0.4794679,0.72383785,0
1.2372656,0.98038638,2.5783415,0.50677615,0.51701283,0.6898374,0
-0.30384257,0.47547963,-0.97265214,0.020776391,0.79264611,-0.60932785,0
1.671814,0.34533334,2.0343642,0.4173049,-0.84732407,0.32847917,0
1.4238167,0.98501354,0.4151119,0.68404448,0.24583513,-0.68676662,0
-0.70889598,0.45438606,-1.0655833,-0.31944078,0.85585946,-0.40677023,0
-1.6295109,-1.8970435,-1.7009733,-0.50677615,-0.51701283,-0.6898374,0
-1.7268476,-2.099122,-1.5448648,-0.50677615,-0.51701283,-0.6898374,0
1.3758838,1.3756173,2.3800609,0.50677615,0.51701283,0.6898374,0
1.1635792,1.6248139,2.2095573,0.50677615,0.51701283,0.6898374,0
1.4406258,2.2613511,1.4669499,0.50677615,0.51701283,0.6898374,0
0.55948079,1.5646584,2.3804216,-0.85000628,0.16622938,0.49985719,0
-2.2274885,-1.3349861,-1.6032957,-0.50677615,-0.51701283,-0.6898374,0
-0.19875818,1.2078029,0.66558778,-0.71402472,0.70012039,-0.00017464161,0
-2.0027628,-1.4270262,-1.6916625,-0.50677615,-0.51701283,-0.6898374,0
1.1613244,0.32998061,1.9478179,0.15624502,-0.84203541,0.51629829,0
-0.12552702,-0.098731577,-1.5167148,0.45952243,0.51503766,-0.72358525,0
0.88208413,-0.56099302,0.796749,0.46542221,-0.83764863,0.28587925,0
0.48103482,1.7286322,2.1918523,-0.8619017,0.28769612,0.41756013,0
-0.75639063,-2.0712318,-1.3273634,0.40257877,-0.8495217,0.34094453,0
-2.1367824,-0.70977867,-1.3391238,-0.84645265,0.45008135,0.2845079,0
1.2973531,0.86161125,2.7594132,0.50677615,0.51701283,0.6898374,0
-1.1328335,-1.8680979,-0.77733737,-0.069417894,-0.77313125,0.63043571,0
-0.61872649,-1.9286869,-1.9711726,0.79369557,-0.59215862,-0.1392681,0
-1.2783616,-1.9283141,-1.8816131,-0.50677615,-0.51701283,-0.6898374,0
-1.0717688,0.010031044,0.182183,-0.86060107,0.25659248,0.43991596,0
0.98954582,1.3869249,2.5183806,0.50677615,0.51701283,0.6898374,0
-1.0409994,-2.2079332,-1.9742042,-0.50677615,-0.51701283,-0.6898374,0
-1.5034071,-1.2603531,-0.49463877,-0.67325032,-0.26243275,0.69127643,0
1.988474,0.88960481,1.3406007,0.84847754,-0.4407109,-0.29301831,0
1.3777505,1.3037199,2.4772592,0.50677615,0.51701283,0.6898374,0
-0.85141784,-1.3391695,-0.21344957,-0.2141543,-0.69961882,0.68166822,0
0.75380039,-0.59990376,-0.1772331,0.778606,-0.61800766,-0.10880971,0
-0.063845754,-0.57584918,0.76731467,-0.22201246,-0.69494104,0.68393511,0
1.1480119,-0.24349165,0.90682805,0.56832856,-0.80205482,0.1836046,0
-1.810375,-1.5415897,-1.7911327,-0.50677615,-0.51701283,-0.6898374,0
-2.2175131,-1.3697814,-1.6239336,-0.50677615,-0.51701283,-0.6898374,0
-1.0843744,-2.4226444,-1.8114039,-0.50677615,-0.51701283,-0.6898374,0
1.8187474,1.2161384,2.1325421,0.50677615,0.51701283,0.6898374,0
1.3713974,-0.089228988,0.51534522,0.79767495,-0.58470142,-0.14778042,0
-0.46920419,-0.63864303,0.70101935,-0.44324732,-0.53006071,0.72288835,0
-1.7851653,-1.3201407,-1.9470633,-0.50677615,-0.51701283,-0.6898374,0
-0.86650509,-0.17569804,-1.8486884,0.040880859,0.78489041,-0.61828464,0
-1.1003802,-1.4960551,-2.3972952,-0.50677615,-0.51701283,-0.6898374,0
-0.6272372,-0.68077564,-2.3020096,0.51613706,0.45896792,-0.72315335,0
-0.36329782,0.86882389,0.62495059,-0.79847908,0.5831573,0.14952844,0
0.52677178,-0.95876455,-0.37779969,0.73855335,-0.67311865,-0.038081765,0
1.5476112,2.0739813,1.8013785,0.50677615,0.51701283,0.6898374,0
0.6267423,0.73619664,2.188242,-0.56272721,-0.40781671,0.71904361,0
1.8494637,1.4993277,1.7838249,0.50677615,0.51701283,0.6898374,0
-1.0113952,0.24972385,-0.73736447,-0.63130009,0.76749051,-0.11143875,0
-1.9260291,-1.466922,-1.8077127,-0.50677615,-0.51701283,-0.6898374,0
-0.66587651,-1.8611439,-0.83650768,0.3527959,-0.85450655,0.38125277,0
-0.075055718,-0.5244475,-1.8347089,0.67350721,0.26204389,-0.69117367,0
0.61119223,-0.79110128,0.27028394,0.6237486,-0.7722699,0.12056839,0
0.61249596,1.8875858,2.4555602,-0.85970223,0.36245418,0.35991538,0
-1.3236374,-0.82323813,-2.8492069,0.218274,0.69717562,-0.68286365,0
-1.6584089,-1.3766764,-2.0893838,-0.50677615,-0.51701283,-0.6898374,0
-1.3049505,-1.3968246,-2.4790335,-0.50677615,-0.51701283,-0.6898374,0
0.30176732,1.6452587,0.84225583,-0.45604125,0.83984756,-0.29441881,0
1.7157514,0.62242365,2.3799992,0.25856146,-0.85451996,0.45049024,0
1.9332877,1.7394414,1.160754,0.66512513,0.27458459,-0.69441479,0
-1.9511437,-1.5296683,-0.87923014,-0.67432976,-0.26079696,0.69084334,0
-1.5736456,-0.17209458,-1.2554122,-0.71170735,0.70246667,-0.0036355853,0
0.85432529,1.9744546,2.1605868,0.50677615,0.51701283,0.6898374,0
2.2745183,1.0729551,1.9315697,0.50677615,0.51701283,0.6898374,0
-0.7428422,-0.96872163,-2.5364707,0.62569511,0.32987466,-0.70688647,0
0.76578546,-0.64894265,0.060249746,0.75134802,-0.65722823,-0.059390485,0
0.52821755,1.8991079,0.85858339,-0.34001234,0.85520685,-0.39116871,0
1.1275556,1.7415643,2.3087749,0.50677615,0.51701283,0.6898374,0
1.5320463,0.74561667,2.5412388,0.50677615,0.51701283,0.6898374,0
-1.5993104,-2.2415841,-1.545506,-0.50677615,-0.51701283,-0.6898374,0
1.044208,1.4605327,0.32059696,0.26672447,0.66690505,-0.69576991,0
1.8260275,2.1457367,1.211332,0.32330781,0.62781429,-0.70804042,0
-0.054494813,1.2821645,0.24271446,-0.49338529,0.83013493,-0.25970542,0
0.38408971,-0.73976481,-0.89377165,0.85952836,-0.3645232,-0.35823706,0
-1.5345138,-2.0373764,-1.637311,-0.50677615,-0.51701283,-0.6898374,0
2.1909811,1.5303738,1.6769322,0.50677615,0.51701283,0.6898374,0
-2.2907724,-1.3301966,-1.6109583,-0.50677615,-0.51701283,-0.6898374,0
1.6900129,1.2059475,2.2856388,0.50677615,0.51701283,0.6898374,0
-0.80976605,-0.92483616,0.20199007,-0.38931721,-0.5767014,0.71822548,0
-1.4246593,-1.5009534,-2.2894173,-0.50677615,-0.51701283,-0.6898374,0
-1.6289108,-1.4950711,-2.0805533,-0.50677615,-0.51701283,-0.6898374,0
-0.98442811,0.57668483,-0.52215981,-0.61117566,0.7798171,-0.13546121,0
0.6422168,2.0891304,1.5523856,-0.65938717,0.74793684,-0.076150179,0
0.41840845,1.531265,2.0466211,-0.86078703,0.25970167,0.4377223,0
0.56208837,-0.84965831,0.23635757,0.47542071,-0.83512992,0.27664638,0
-1.0575114,-0.94850993,-2.6455159,0.35625815,0.60307735,-0.71370715,0
0.293993,-0.070332706,1.3955243,-0.23053145,-0.68978673,0.68633044,0
-2.3253903,-1.5083753,-1.6226015,-0.50677615,-0.51701283,-0.6898374,0
-2.1813445,-0.89367414,-2.0200062,-0.50677615,-0.51701283,-0.6898374,0
-1.3883461,-2.284251,-1.7597429,-0.50677615,-0.51701283,-0.6898374,0
0.8617577,2.0912623,2.2086842,0.50677615,0.51701283,0.6898374,0
1.1748095,1.6022187,2.2662117,0.50677615,0.51701283,0.6898374,0
-1.1429163,-1.2845725,-2.5638328,-0.50677615,-0.51701283,-0.6898374,0
-1.8405623,-1.6909735,-1.8573829,-0.50677615,-0.51701283,-0.6898374,0
0.060447097,-0.307868,-1.4182165,0.67387569,0.26148561,-0.69102585,0
-2.0115817,-1.8229328,-1.5309794,-0.50677615,-0.51701283,-0.6898374,0
-1.5271752,-1.606259,-1.940421,-0.50677615,-0.51701283,-0.6898374,0
-1.2793245,-2.1710243,-1.6516175,-0.50677615,-0.51701283,-0.6898374,0
0.76561689,1.9663218,1.4368083,-0.53518724,0.81600964,-0.21841002,0
0.024374247,0.29157788,1.6369615,-0.5664081,-0.40355808,0.71855605,0
-0.88543016,-0.41668761,-2.302953,0.19187504,0.71248484,-0.67494392,0
-0.50676161,-0.69588268,0.4942134,-0.44720626,-0.52644861,0.7230894,0
0.068472624,-0.65249336,-1.6773113,0.79183483,0.037217811,-0.60960025,0
1.3368936,1.8174418,1.9201792,0.50677615,0.51701283,0.6898374,0
1.8363423,1.9007618,1.1278276,0.42008793,0.55066311,-0.7213155,0
-1.3850034,-0.98714608,-0.3316606,-0.67810261,-0.25503772,0.68929869,0
-1.7472804,-2.10746,-1.4725394,-0.50677615,-0.51701283,-0.6898374,0
-0.89186472,-2.0601153,-2.0883725,-0.50677615,-0.51701283,-0.6898374,0
1.5286134,1.8592746,1.7665466,0.50677615,0.51701283,0.6898374,0
-0.75909215,-2.310065,-1.9423156,0.6622538,-0.74577135,0.072421372,0
1.3005407,1.310048,2.480741,0.50677615,0.51701283,0.6898374,0
-1.4099715,-1.7538363,-2.0896423,-0.50677615,-0.51701283,-0.6898374,0
-1.6328981,-1.7107847,-1.7898449,-0.50677615,-0.51701283,-0.6898374,0
-1.4511849,-1.8115202,-1.9287876,-0.50677615,-0.51701283,-0.6898374,0
-2.294868,-1.5325203,-1.6222492,-0.50677615,-0.51701283,-0.6898374,0
1.7734486,0.89537776,0.74946845,0.81918561,-0.039542079,-0.57216382,0
2.273046,1.1979951,1.3797659,0.85569781,-0.20450665,-0.47535068,0
-0.33310139,-0.73438346,0.57138574,-0.28385663,-0.6555059,0.69981241,0
1.6142439,0.51790881,2.2058971,0.35348776,-0.85446215,0.3807112,0
1.5110919,0.88347936,0.53805983,0.75100064,0.12814265,-0.64774781,0
-1.7536407,-0.99018097,-0.70202464,-0.82651401,0.06392248,0.55927503,0
-1.004045,-1.7533481,-2.3838081,-0.50677615,-0.51701283,-0.6898374,0
-0.52124834,0.33180174,0.84314072,-0.81913161,0.039370269,0.57225287,0
-1.7741625,-0.51380777,-2.3646145,-0.36262476,0.85381091,-0.37351072,0
1.9435588,1.8863595,1.3823801,0.50677615,0.51701283,0.6898374,0
-0.60419589,-1.3093699,-0.26502666,-0.050018072,-0.78122121,0.62224722,0
1.0075494,2.1292326,2.074815,0.50677615,0.51701283,0.6898374,0
0.98108542,1.4411479,2.6588752,0.50677615,0.51701283,0.6898374,0
-0.45038503,-0.59872735,-2.1590846,0.58546209,0.3809576,-0.71561539,0
0.86029494,-0.11848545,1.5100179,0.1425065,-0.83943546,0.52444249,0
0.62866557,-0.031030536,1.7250122,-0.13646621,-0.74200201,0.65636104,0
0.80295789,1.7663962,2.3959606,0.50677615,0.51701283,0.6898374,0
-1.7285163,-0.9324677,-2.4654408,-0.50677615,-0.51701283,-0.6898374,0
-0.63927597,-2.0422964,-1.5030994,0.61292398,-0.77879733,0.1334126,0
0.0046002865,-0.10577804,-1.4682642,0.53258216,0.44147134,-0.72212136,0
-1.9116998,-1.9982077,-1.5840082,-0.50677615,-0.51701283,-0.6898374,0
-1.5063267,-1.905314,-0.91301441,-0.32882065,-0.62377989,0.70906663,0
0.35461521,1.7467856,1.3155276,-0.72537386,0.68814176,0.017140269,0
-0.10868266,1.2231371,0.33095407,-0.51674247,0.82269257,-0.23696876,0
-1.4291153,-2.1556282,-1.6799017,-0.50677615,-0.51701283,-0.6898374,0
1.6036,1.3259064,2.0500569,0.50677615,0.51701283,0.6898374,0
0.27226245,0.6522969,2.033735,-0.59135926,-0.37376636,0.71455795,0
0.80042326,-0.52362758,0.18503857,0.6802516,-0.7313782,0.048412263,0
-2.066896,-1.0381967,-1.914453,-0.50677615,-0.51701283,-0.6898374,0
0.88589031,2.0822897,1.2316068,-0.28719592,0.8557443,-0.43037212,0
-1.0064114,-1.2872751,-2.5533595,-0.50677615,-0.51701283,-0.6898374,0
-1.5152349,-2.0516155,-1.0975842,-0.22282982,-0.69445026,0.68416786,0
-0.097037673,0.57890594,1.4549595,-0.77728724,-0.072035886,0.62500834,0
0.93234295,1.0182267,-0.215101,0.42883813,0.54298347,-0.72198802,0
-1.5686312,-1.284736,-2.3193626,-0.50677615,-0.51701283,-0.6898374,0
-1.4602463,-1.0566806,-2.5120223,-0.50677615,-0.51701283,-0.6898374,0
1.5309105,1.4084129,2.1609979,0.50677615,0.51701283,0.6898374,0
1.6364329,0.77999115,2.4239571,0.50677615,0.51701283,0.6898374,0
-0.39945415,-1.8584664,-1.5335484,0.76348454,-0.64077187,-0.080639958,0
-0.76927584,-1.9399084,-2.3735538,-0.50677615,-0.51701283,-0.6898374,0
-1.5728593,-1.1341054,-2.2708077,-0.50677615,-0.51701283,-0.6898374,0
-0.6523239,-1.0988024,-2.4640365,0.6418997,0.30784416,-0.70227975,0
0.19109184,0.020849466,1.5183814,-0.46902466,-0.50604993,0.72382975,0
-0.70443356,-1.853228,-1.036805,0.40967581,-0.84850538,0.33496916,0
-0.63785416,-0.80419773,0.43606222,-0.46394545,-0.51087427,0.72371411,0
-0.32998613,0.4193877,-1.1199117,-0.023948193,0.80833751,-0.5882321,0
-1.0823017,-1.7182711,-2.1925509,-0.50677615,-0.51701283,-0.6898374,0
0.045149207,1.3386834,1.5919778,-0.8425954,0.46621856,0.26957989,0
1.9342444,2.0761323,1.4319302,0.50677615,0.51701283,0.6898374,0
-1.4810727,-0.63017076,-0.29210296,-0.81972837,0.041275501,0.57126331,0
2.1060402,0.96971393,2.182399,0.50677615,0.51701283,0.6898374,0
0.017600179,-0.030291915,-1.4026227,0.49904454,0.47655287,-0.7237761,0
1.1313034,-0.28857821,0.040821254,0.83096933,-0.50598431,-0.23123568,0
0.91721463,-0.38681528,-0.046605349,0.82402444,-0.52563363,-0.21140724,0
-1.4967951,-0.93215179,-0.23534705,-0.7482239,-0.13365993,0.64984298,0
-0.68451458,-0.13430846,-1.6970217,0.17411906,0.72232527,-0.66927481,0
-1.9702251,-1.0874834,-1.9532217,-0.50677615,-0.51701283,-0.6898374,0
0.57507139,0.025331695,-0.71644551,0.73754585,0.15426432,-0.65744084,0
1.4018226,1.2254224,2.3053169,0.50677615,0.51701283,0.6898374,0
0.9769935,2.2393365,2.0871167,0.50677615,0.51701283,0.6898374,0
-1.4817789,-1.0764102,-2.4907484,-0.50677615,-0.51701283,-0.6898374,0
-0.69652319,-2.0922587,-2.1455305,-0.50677615,-0.51701283,-0.6898374,0
-0.90435088,-1.9718862,-2.0629482,-0.50677615,-0.51701283,-0.6898374,0
-1.8851177,-0.41330826,-1.6775643,-0.64510763,0.75824249,-0.094364285,0
-2.2097371,-0.95132947,-2.1499782,-0.50677615,-0.51701283,-0.6898374,0
1.8873116,1.0236862,2.0727258,0.50677615,0.51701283,0.6898374,0
-0.20358133,0.043779612,1.271987,-0.52992058,-0.44434282,0.72231823,0
1.1367749,2.1817262,1.9220299,0.50677615,0.51701283,0.6898374,0
-2.1435778,-0.91604424,-1.9470718,-0.50677615,-0.51701283,-0.6898374,0
0.25999165,0.87164301,2.0402122,-0.72663796,-0.17439771,0.66451693,0
0.94373679,0.10461965,-0.45117128,0.78956509,0.042868301,-0.61216772,0
1.0414314,0.4922491,-0.36177397,0.70387495,0.2138554,-0.67736691,0
-1.4851263,-1.4084766,-0.57746196,-0.45020276,-0.52369672,0.72322839,0
-0.014971733,-1.2839156,-1.5117238,0.849231,-0.43702894,-0.29633135,0
-2.0663102,-1.2241424,-1.9189277,-0.50677615,-0.51701283,-0.6898374,0
1.2827107,1.7517872,0.69920772,0.21196449,0.70090926,-0.68102664,0
1.5968403,1.1082312,0.57621247,0.66714466,0.27159053,-0.69365448,0
1.9869606,1.7756922,1.5634642,0.50677615,0.51701283,0.6898374,0
-0.27950072,-0.8204987,0.60499609,-0.16531515,-0.72707003,0.66636324,0
-1.1027284,-1.9285325,-2.0516925,-0.50677615,-0.51701283,-0.6898374,0
1.8582337,1.7391341,1.0703692,0.57676959,0.39138603,-0.71704537,0
-1.0579562,-1.6502446,-2.3597758,-0.50677615,-0.51701283,-0.6898374,0
1.6464094,1.6449405,1.7652991,0.50677615,0.51701283,0.6898374,0
1.6967168,0.82958817,2.4267364,0.50677615,0.51701283,0.6898374,0
1.4796865,1.7188416,0.72153294,0.36841303,0.59356576,-0.71550786,0
0.84109604,1.517669,2.5659602,0.50677615,0.51701283,0.6898374,0
-0.2894415,1.1618364,0.094820023,-0.46103621,0.8386963,-0.28988659,0
0.92723894,1.1880947,2.6955619,0.50677615,0.51701283,0.6898374,0
-1.8835371,-0.84574211,-0.82097685,-0.8594566,0.24065237,0.45102188,0
-1.6860588,-1.8378356,-1.8475415,-0.50677615,-0.51701283,-0.6898374,0
-0.93239301,-1.082253,-2.7516465,0.51084894,0.46447229,-0.72339392,0
-2.0650821,-0.77812874,-1.5700753,-0.8392424,0.47883505,0.25766093,0
0.9792251,1.2039937,2.64063,0.50677615,0.51701283,0.6898374,0
-0.91076607,-1.1061782,0.13193768,-0.38573885,-0.57963443,0.71779478,0
1.0525802,0.63891935,2.3236122,-0.26238835,-0.66973162,0.69470286,0
-0.13240397,-0.39933664,-1.6711411,0.62602353,0.32943678,-0.70679969,0
1.8135316,2.166625,1.34227,0.50677615,0.51701283,0.6898374,0
-2.053818,-1.4097283,-1.7306552,-0.50677615,-0.51701283,-0.6898374,0
1.5876608,2.0459995,1.6129467,0.50677615,0.51701283,0.6898374,0
0.8503806,-0.46537721,0.60504985,0.48371115,-0.83290106,0.26888549,0
0.50427008,0.051483564,-0.8145721,0.72230852,0.18215542,-0.66715056,0
-0.22410107,-0.14291823,-1.721918,0.39719421,0.57017618,-0.71912158,0
-1.3379319,-1.3913291,-2.3566716,-0.50677615,-0.51701283,-0.6898374,0
-1.2106413,-1.915044,-2.1101332,-0.50677615,-0.51701283,-0.6898374,0
2.095212,0.96192265,1.3438704,0.85894066,-0.37102616,-0.35293147,0
1.9412477,1.8589644,1.516663,0.50677615,0.51701283,0.6898374,0
2.2018294,1.0565336,2.0066214,0.50677615,0.51701283,0.6898374,0
-0.26056659,-1.4232165,-0.61199093,0.47307378,-0.83573759,0.27882588,0
0.82319528,1.6636484,2.5265222,0.50677615,0.51701283,0.6898374,0
0.70717233,-0.28012744,-0.49769163,0.86097777,-0.26312977,-0.4352932,0
1.9619744,0.73919225,2.3794637,0.50677615,0.51701283,0.6898374,0
-1.4735913,-0.26354063,-0.58704573,-0.84582138,0.45286375,0.28195873,0
1.03008,2.2989311,1.6107745,-0.36426452,0.85368133,-0.37220895,0
-0.9851557,-1.1052719,-2.6605535,-0.50677615,-0.51701283,-0.6898374,0
-1.3272927,-0.26331222,-1.8734806,-0.27867305,0.85548824,-0.4364413,0
1.4521714,2.3701954,1.63254,0.50677615,0.51701283,0.6898374,0
0.7672447,1.7027061,0.69630897,-0.15274589,0.84139341,-0.51838768,0
-0.33806455,-1.2990092,-0.12981999,0.17580299,-0.84536743,0.50442767,0
-1.7629175,-2.1379499,-1.4047434,-0.50677615,-0.51701283,-0.6898374,0
0.8855257,1.3796972,2.5960102,0.50677615,0.51701283,0.6898374,0
1.9946458,1.0878494,1.0831392,0.85498959,-0.19902641,-0.47893769,0
-1.0296054,-2.1834612,-2.0318577,-0.50677615,-0.51701283,-0.6898374,0
0.93260276,1.445971,2.4890232,0.50677615,0.51701283,0.6898374,0
1.2753093,0.0086346865,1.5232891,0.47949475,-0.83405071,0.27284467,0
0.19489706,1.2691299,1.7468702,-0.85768038,0.22165741,0.46395311,0
1.14011,1.8278372,2.1434646,0.50677615,0.51701283,0.6898374,0
-0.6835357,-1.7577834,-2.6306629,-0.50677615,-0.51701283,-0.6898374,0
-1.9525305,-1.4389943,-1.7035317,-0.50677615,-0.51701283,-0.6898374,0
-1.7421721,-1.2560302,-2.1246743,-0.50677615,-0.51701283,-0.6898374,0
1.7924874,1.0296369,2.1262264,0.50677615,0.51701283,0.6898374,0
-0.88036495,-1.8095921,-0.74394697,0.1485893,-0.84061283,0.52085626,0
-0.71473974,-1.6953241,-2.4737115,-0.50677615,-0.51701283,-0.6898374,0
-0.90977383,0.045469999,0.50155854,-0.83610392,0.099825278,0.53941196,0
1.61999,1.0052934,2.3893509,0.50677615,0.51701283,0.6898374,0
-1.3288898,-0.48314142,-2.4326231,0.058601439,0.77769214,-0.6259079,0
-1.01976,-1.8645972,-2.3133323,-0.50677615,-0.51701283,-0.6898374,0
1.2091863,0.9562341,2.7741213,0.50677615,0.51701283,0.6898374,0
-1.1033688,-1.1795789,-2.5182474,-0.50677615,-0.51701283,-0.6898374,0
-1.8062714,-1.4513594,-2.0330331,-0.50677615,-0.51701283,-0.6898374,0
-1.4768765,-1.5618577,-2.0655799,-0.50677615,-0.51701283,-0.6898374,0
-0.81589228,-1.8913718,-2.4389277,-0.50677615,-0.51701283,-0.6898374,0
1.3559023,1.1789479,2.5752802,0.50677615,0.51701283,0.6898374,0
1.7410415,1.8943735,0.98431504,0.47470814,0.50059569,-0.72391725,0
0.89743865,1.4581301,2.6185722,0.50677615,0.51701283,0.6898374,0
1.376641,2.0055261,1.8160613,0.50677615,0.51701283,0.6898374,0
-0.47311193,0.80238706,-0.18489349,-0.54677844,0.81142378,-0.20645773,0
-0.37733829,-0.50539047,0.7811659,-0.49381208,-0.48181856,0.72387868,0
-0.55260766,-1.7353517,-0.82767606,0.36882859,-0.85330021,0.36857033,0
1.8720608,1.0727885,1.0070503,0.84810424,-0.15550998,-0.50649375,0
1.5499089,0.70913792,2.5536149,0.50677615,0.51701283,0.6898374,0
1.8323979,0.47749269,1.2162266,0.81236786,-0.55420297,-0.18143201,0
-0.60879779,-0.58476818,-2.1944754,0.45112962,0.52284235,-0.72326893,0
1.7110147,1.076447,2.2506127,0.50677615,0.51701283,0.6898374,0
-0.93532586,-1.08418,-2.7298362,-0.50677615,-0.51701283,-0.6898374,0
2.3915045,1.2385142,1.7205994,0.50677615,0.51701283,0.6898374,0
1.1187576,2.1050889,1.0283133,-0.12526184,0.83587241,-0.53444064,0
1.6507251,1.8662758,1.7816505,0.50677615,0.51701283,0.6898374,0
0.3571595,-0.66875774,-1.2059979,0.8455348,-0.14208589,-0.51466721,0
-2.1101165,-1.7014277,-1.4296521,-0.50677615,-0.51701283,-0.6898374,0
0.090789467,-0.74481708,0.61684144,-0.019363463,-0.79317474,0.60868609,0
0.91332483,-0.48723441,0.87890792,0.43649033,-0.8439362,0.3118459,0
-0.93991458,-2.1307695,-2.15674,-0.50677615,-0.51701283,-0.6898374,0
-0.73891032,-2.2162108,-2.1301041,-0.50677615,-0.51701283,-0.6898374,0
0.12284839,-0.31912023,-1.3317156,0.68060184,0.25118703,-0.68824869,0
-1.5216658,-1.637215,-2.0618954,-0.50677615,-0.51701283,-0.6898374,0
0.79484683,0.10700893,1.8564798,-0.14500511,-0.73768008,0.65939498,0
2.1123919,0.84629679,1.6406355,0.84356344,-0.46235073,-0.27318981,0
0.44526371,-0.77565479,0.22443426,0.49532533,-0.82955843,0.25784826,0
1.2561669,1.4085822,2.4663169,0.50677615,0.51701283,0.6898374,0
-1.1016613,-2.1610513,-1.9519559,-0.50677615,-0.51701283,-0.6898374,0
-2.2132812,-0.82908678,-2.1518903,-0.50677615,-0.51701283,-0.6898374,0
1.0979978,-0.26574111,0.71793199,0.63438237,-0.76548415,0.10767066,0
-1.4908878,-1.2076694,-2.416707,-0.50677615,-0.51701283,-0.6898374,0
-0.68237776,-2.0357976,-2.338057,-0.50677615,-0.51701283,-0.6898374,0
-0.89699638,-1.2770292,-2.5955243,-0.50677615,-0.51701283,-0.6898374,0
-1.7418894,-1.7840391,-1.6904553,-0.50677615,-0.51701283,-0.6898374,0
1.0213068,0.10619628,1.6377733,0.13271703,-0.8374536,0.5301488,0
1.7632893,0.80623746,2.4289136,0.50677615,0.51701283,0.6898374,0
-1.4397867,-2.221343,-1.7601526,-0.50677615,-0.51701283,-0.6898374,0
0.33658195,-0.17859554,1.4906465,-0.20455372,-0.70523447,0.67882407,0
2.277622,1.6544062,1.5559784,0.50677615,0.51701283,0.6898374,0
-1.5582162,-2.3833895,-1.3955522,-0.020339012,-0.7928099,0.60912943,0
0.39435792,1.0439411,-0.3141259,0.065803647,0.77466935,-0.62893337,0
-1.3171313,-2.4222507,-1.4736488,0.11203524,-0.83291537,0.54194093,0
1.7208691,0.76770735,2.3665829,0.50677615,0.51701283,0.6898374,0
1.9923323,1.9062629,1.3714427,0.50677615,0.51701283,0.6898374,0
-1.0414118,-1.2943574,-2.5298765,-0.50677615,-0.51701283,-0.6898374,0
-1.8914123,-1.8535818,-1.7121755,-0.50677615,-0.51701283,-0.6898374,0
1.8107109,1.4700567,0.95605367,0.63899374,0.31186226,-0.70315647,0
-1.8245617,-1.3055973,-2.0191898,-0.50677615,-0.51701283,-0.6898374,0
0.59074938,1.1541395,-0.258708,0.17417288,0.722296,-0.66929239,0
0.60746688,-0.68597883,0.48669362,0.40468839,-0.84922785,0.33917451,0
0.95730066,1.7101642,0.717641,0.0047607422,0.79851264,-0.60195923,0
-1.1366677,-1.5735464,-2.4098632,-0.50677615,-0.51701283,-0.6898374,0
-0.72173238,-1.8837444,-2.3679242,-0.50677615,-0.51701283,-0.6898374,0
1.0508608,1.2807604,2.5377939,0.50677615,0.51701283,0.6898374,0
0.45440763,1.8277931,2.0649636,-0.84991682,0.43357354,0.29942492,0
-1.3356214,-1.3411362,-2.3643475,-0.50677615,-0.51701283,-0.6898374,0
-1.3022903,-2.2324748,-1.7962129,-0.50677615,-0.51701283,-0.6898374,0
-1.8556426,-1.9182651,-1.6845781,-0.50677615,-0.51701283,-0.6898374,0
-1.4353834,-1.0819806,-2.5936403,-0.50677615,-0.51701283,-0.6898374,0
-0.51852906,0.12801647,-1.4109595,-0.020364612,0.8071596,-0.58998191,0
-1.6827707,-1.7177964,-1.8909084,-0.50677615,-0.51701283,-0.6898374,0
-1.5625497,-1.4682045,-2.2328093,-0.50677615,-0.51701283,-0.6898374,0
-2.0755672,-1.543582,-1.6988467,-0.50677615,-0.51701283,-0.6898374,0
0.89416575,1.3438987,0.14548439,0.2779789,0.65945864,-0.69845682,0
0.57735145,0.23294128,-0.76106274,0.67125678,0.26544076,-0.69206625,0
1.4346125,1.452693,2.3105388,0.50677615,0.51701283,0.6898374,0
1.051646,-0.038116813,1.5013775,0.30819207,-0.85597467,0.41512036,0
0.97266948,2.0613949,1.9939404,0.50677615,0.51701283,0.6898374,0
1.3554317,0.26480389,0.22922844,0.85902762,-0.23559985,-0.45449343,0
-1.9087486,-0.96555614,-2.2443388,-0.50677615,-0.51701283,-0.6898374,0
0.24088562,0.2032578,1.7599969,-0.47161257,-0.50357378,0.72387511,0
0.19108665,-0.52187419,-1.4899476,0.75509059,0.11988826,-0.64456582,0
-1.1248198,-1.7039572,-2.1389105,-0.50677615,-0.51701283,-0.6898374,0
-1.537273,-1.0657346,-2.5370653,-0.50677615,-0.51701283,-0.6898374,0
0.25094151,-0.36701864,-1.367909,0.75520957,0.1196456,-0.64447141,0
1.5235283,0.82974982,2.5114732,0.50677615,0.51701283,0.6898374,0
-2.1946037,-1.2669759,-1.826395,-0.50677615,-0.51701283,-0.6898374,0
-1.1074619,-1.5222183,-2.4699652,-0.50677615,-0.51701283,-0.6898374,0
-1.367939,-1.6905677,-1.9777842,-0.50677615,-0.51701283,-0.6898374,0
-2.2957132,-1.5287099,-1.573541,-0.50677615,-0.51701283,-0.6898374,0
-1.4532082,-0.35745251,-1.9374169,-0.24981168,0.85394144,-0.45648456,0
1.6719282,1.1344354,2.2568846,0.50677615,0.51701283,0.6898374,0
-2.0847383,-1.8920031,-1.4656445,-0.50677615,-0.51701283,-0.6898374,0
-1.536383,-1.3946295,-2.2227051,-0.50677615,-0.51701283,-0.6898374,0
-1.3026731,-2.1266682,-1.8762116,-0.50677615,-0.51701283,-0.6898374,0
1.2760013,-0.21103799,0.66497827,0.74603903,-0.6639905,-0.050422251,0
-0.75237876,-2.1204023,-1.1895093,0.38050771,-0.85218608,0.35915565,0
1.6140438,1.340723,2.1023431,0.50677615,0.51701283,0.6898374,0
-2.1339488,-0.90307903,-2.1890225,-0.50677615,-0.51701283,-0.6898374,0
0.24102294,-0.43867034,1.1384199,-0.094442546,-0.76209086,0.64054519,0
2.0471542,1.4811188,1.7786638,0.50677615,0.51701283,0.6898374,0
-2.116442,-1.2323892,-1.8069432,-0.50677615,-0.51701283,-0.6898374,0
-1.0060949,-1.8395684,-2.2622895,-0.50677615,-0.51701283,-0.6898374,0
-1.8101208,-1.5518918,-1.8523359,-0.50677615,-0.51701283,-0.6898374,0
1.1933138,-0.31363308,0.26462573,0.81206679,-0.55488235,-0.18070167,0
1.2911975,1.7937745,2.0184419,0.50677615,0.51701283,0.6898374,0
0.86990327,1.3611541,2.5782821,0.50677615,0.51701283,0.6898374,0
0.9552139,1.5601518,2.5579123,0.50677615,0.51701283,0.6898374,0
-1.5217122,-0.24075425,-0.78029704,-0.84007865,0.47579294,0.26055518,0
-1.0854276,-1.7711295,-2.1510024,-0.50677615,-0.51701283,-0.6898374,0
0.57598603,-0.49160594,1.0584726,0.23739707,-0.85295939,0.46486866,0
0.59099269,1.1467031,-0.13271153,0.11195809,0.75395519,-0.64731514,0
1.3404047,1.4534119,2.3344104,0.50677615,0.51701283,0.6898374,0
0.066885114,0.0041432381,-1.4183569,0.48349082,0.49204946,-0.72396404,0
0.0074951649,0.84276772,-0.66100949,0.095462382,0.76162648,-0.64094633,0
0.07673192,-1.2620249,-1.221396,0.84157163,-0.47019303,-0.26584899,0
-1.7087696,-1.1997622,-2.2445123,-0.50677615,-0.51701283,-0.6898374,0
0.95921308,1.0433253,0.0084359646,0.49797088,0.47763783,-0.72380054,0
-1.6940467,-1.3040704,-1.9967781,-0.50677615,-0.51701283,-0.6898374,0
0.37716115,0.75411367,-0.53143591,0.21605325,0.69849515,-0.68222106,0
-0.55581033,0.29995576,0.88604581,-0.82642674,0.063618451,0.55943877,0
-2.3096335,-1.2028077,-1.806473,-0.50677615,-0.51701283,-0.6898374,0
2.3771927,1.165072,1.8219512,0.50677615,0.51701283,0.6898374,0
1.9095623,0.63255501,0.89808953,0.8619585,-0.29058072,-0.41543996,0
2.2487574,1.2192644,1.6551279,0.50677615,0.51701283,0.6898374,0
1.5039898,0.16333771,1.5704474,0.59348226,-0.78962189,0.15580785,0
1.4040488,2.1843784,1.6982727,0.50677615,0.51701283,0.6898374,0
-0.8528527,-1.4675609,-2.7586524,-0.50677615,-0.51701283,-0.6898374,0
-1.7559699,-1.9684982,-1.4853066,-0.50677615,-0.51701283,-0.6898374,0
1.8666769,1.2227468,1.9750841,0.50677615,0.51701283,0.6898374,0
-1.8129988,-0.5302217,-1.0023689,-0.84202111,0.46846205,0.26747653,0
1.3453381,1.5876019,2.2533562,0.50677615,0.51701283,0.6898374,0
1.7981684,1.664471,1.8997297,0.50677615,0.51701283,0.6898374,0
-1.4747945,-0.23345363,-1.077443,-0.72663808,0.68675452,0.019108832,0
0.21253383,1.3682089,2.0868287,-0.85185105,0.17743331,0.49281543,0
2.2674971,1.3866057,1.7805802,0.50677615,0.51701283,0.6898374,0
-1.2054151,-1.8018936,-2.1827381,-0.50677615,-0.51701283,-0.6898374,0
-0.35533237,-1.3665762,-2.2188849,0.8263123,-0.06322071,-0.55965281,0
-0.95913559,-0.37564972,0.22781828,-0.77752316,-0.071495742,0.62477684,0
-1.8919713,-1.7938898,-1.7230585,-0.50677615,-0.51701283,-0.6898374,0
-2.0144937,-1.8566016,-1.4451321,-0.50677615,-0.51701283,-0.6898374,0
-1.5262859,-0.81631064,-2.5241861,-0.50677615,-0.51701283,-0.6898374,0
-0.96301466,-2.0821807,-2.2119658,-0.50677615,-0.51701283,-0.6898374,0
1.4840549,1.1028261,2.5532446,0.50677615,0.51701283,0.6898374,0
-0.842924,-1.7122989,-2.4524059,-0.50677615,-0.51701283,-0.6898374,0
-0.55333877,-1.1266888,-2.4661691,0.6514163,0.29446828,-0.69924617,0
-1.5881881,-1.742709,-1.8940367,-0.50677615,-0.51701283,-0.6898374,0
0.8335399,-0.41652644,-0.36738023,0.85784376,-0.38164631,-0.3441661,0
1.5745183,1.6541047,0.88714707,0.48261756,0.49290574,-0.72396433,0
-0.65497023,-1.2320399,-0.0729177,-0.053494334,-0.77980155,0.62373692,0
0.27898347,1.2466567,2.0330088,-0.85472405,0.19704019,0.4802312,0
1.2252903,1.4022735,2.5044818,0.50677615,0.51701283,0.6898374,0
1.1674523,-0.1231581,1.0169365,0.60012382,-0.78604895,0.14825082,0
-1.1036235,-1.6649898,-2.1494112,-0.50677615,-0.51701283,-0.6898374,0
-0.37585783,-0.4856793,0.8588776,-0.42904329,-0.54280192,0.7220028,0
2.2784286,1.7859672,1.4513583,0.50677615,0.51701283,0.6898374,0
-0.16637838,-1.611635,-1.3865697,0.78484559,-0.60774684,-0.12108374,0
-0.083077848,0.21478003,-1.2261424,0.27146447,0.66378832,-0.6969161,0
1.6913717,1.0074413,0.53724223,0.72637498,0.17487231,-0.66467959,0
0.21441531,-0.34855449,-1.4741433,0.71568489,0.19378549,-0.67100102,0
1.3228235,2.2862911,1.6838121,0.50677615,0.51701283,0.6898374,0
-2.250519,-1.7224325,-1.2905838,-0.73577511,-0.15759267,0.6586346,0
-1.7829957,-0.54884231,-1.8598927,-0.60329223,0.78429955,-0.14461219,0
1.5424709,2.0844193,1.2625993,0.23285538,0.68836546,-0.68697256,0
-0.058124751,1.1876488,0.26278204,-0.41302639,0.84799796,-0.33212745,0
-0.34124804,-1.7935545,-1.3638897,0.72665596,-0.68673497,-0.019136548,0
1.4765997,2.2370377,1.4668984,0.50677615,0.51701283,0.6898374,0
-2.1354022,-1.0983838,-1.3906333,-0.86117619,0.26702616,0.43251875,0
-1.3784444,-1.8238596,-0.85666347,-0.25414765,-0.67503887,0.69262648,0
0.320656,1.1263521,-0.16419476,0.056911469,0.77839339,-0.62519187,0
0.59190607,1.5329204,0.23575294,-0.065559566,0.82099926,-0.5671528,0
-1.2606862,-1.1237137,-2.6667116,-0.50677615,-0.51701283,-0.6898374,0
0.8232646,-0.41119665,0.38647437,0.66141176,-0.74641103,0.073519289,0
0.11472416,0.74414372,1.7015096,-0.7438587,-0.14219745,0.65303463,0
1.7930896,2.1922381,1.3898171,0.50677615,0.51701283,0.6898374,0
0.30824053,0.33977935,-0.85591257,0.43842083,0.53442812,-0.7226159,0
0.77177459,2.0364361,2.2940745,0.50677615,0.51701283,0.6898374,0
0.13060106,-1.0355179,0.39315557,0.22540125,-0.85183299,0.47283709,0
2.0092573,0.64190483,2.0508435,0.63224858,-0.76687658,0.11028194,0
-2.041362,-1.7702849,-1.4193318,-0.50677615,-0.51701283,-0.6898374,0
-2.0274715,-1.7128327,-1.4353706,-0.50677615,-0.51701283,-0.6898374,0
-1.2776564,-1.6049783,-2.3428707,-0.50677615,-0.51701283,-0.6898374,0
0.3408075,1.7829552,1.5909514,-0.74910861,0.66011107,0.055584848,0
0.31743646,1.7237844,2.0491753,-0.85574418,0.39851564,0.3299807,0
-1.9941837,-0.77046132,-2.3721471,-0.50677615,-0.51701283,-0.6898374,0
0.29139507,0.60970151,2.0744979,-0.59797382,-0.36558428,0.71328497,0
1.2310724,0.42872739,2.295701,-0.0041875243,-0.79871756,0.60169166,0
-0.70501864,-1.838888,-0.73843712,0.25337258,-0.85418826,0.45405352,0
1.6117915,1.2763191,2.1046398,0.50677615,0.51701283,0.6898374,0
0.72179723,1.6706903,2.5638311,0.50677615,0.51701283,0.6898374,0
-2.0371027,-0.65610695,-2.3173556,-0.50677615,-0.51701283,-0.6898374,0
-0.79866588,-0.31664762,0.60057926,-0.69222653,-0.23288496,0.68307173,0
1.8851622,1.7628818,1.5650587,0.50677615,0.51701283,0.6898374,0
-0.40279388,-0.1157304,-1.7295864,0.40236276,0.56584287,-0.71967083,0
-1.5289191,-1.8168699,-1.8642548,-0.50677615,-0.51701283,-0.6898374,0
-0.70769078,-1.4869064,-0.38873747,0.0035134554,-0.80143535,0.5980711,0
-0.41979912,0.45557505,-1.1668832,0.0066245198,0.79784417,-0.60282737,0
-0.15886915,0.22650969,1.5309825,-0.64758384,-0.29989558,0.70049822,0
0.22488487,1.0243516,-0.19694471,0.0064254999,0.79791582,-0.6027348,0
-1.6248614,-1.5198032,-1.9746208,-0.50677615,-0.51701283,-0.6898374,0
0.73507714,1.8360336,2.3301692,0.50677615,0.51701283,0.6898374,0
-0.43049967,0.7664448,0.68935931,-0.84367335,0.46190393,0.27360544,0
-0.87914753,-0.49936977,0.46012366,-0.68096876,-0.25061917,0.68809271,0
0.27137807,-0.78174943,0.44217938,0.2898466,-0.85580492,0.42847037,0
-0.94965529,0.24498796,-0.95857835,-0.48800522,0.83169544,-0.26482737,0
2.1183774,1.2577428,1.7219688,0.50677615,0.51701283,0.6898374,0
1.544961,1.0616232,2.3295817,0.50677615,0.51701283,0.6898374,0
0.59607661,-0.52841043,-0.61304486,0.86207688,-0.30284438,-0.40633571,0
2.1243165,1.2689686,1.9505677,0.50677615,0.51701283,0.6898374,0
-0.68039978,-2.0155935,-1.9259176,0.73708135,-0.67486054,-0.035694897,0
-1.3842063,-0.6489383,-2.3819003,-0.047072977,0.81560522,-0.57669091,0
-1.8644736,-0.99179947,-2.159791,-0.50677615,-0.51701283,-0.6898374,0
-1.9007769,-1.7390507,-1.652619,-0.50677615,-0.51701283,-0.6898374,0
-0.46298119,0.87365669,-0.27575791,-0.41958579,0.84695274,-0.32652533,0
-0.34352097,0.86220425,-0.49536335,-0.2702038,0.85514247,-0.44240391,0
-1.4383978,-0.073012352,-1.4643443,-0.46239802,0.83837467,-0.28864515,0
0.91781807,2.0696151,2.0986373,0.50677615,0.51701283,0.6898374,0
0.43516016,-0.53431886,-0.97097301,0.85953373,-0.24160266,-0.45036632,0
0.9753567,-0.38062006,0.25276285,0.71551716,-0.69859213,-0.0020670295,0
-1.9307142,-1.7582455,-1.6118177,-0.50677615,-0.51701283,-0.6898374,0
-2.0868876,-1.6733415,-1.6464913,-0.50677615,-0.51701283,-0.6898374,0
-2.0566778,-1.3487245,-1.7900341,-0.50677615,-0.51701283,-0.6898374,0
0.90523607,0.093446612,1.860787,0.013917893,-0.80500585,0.59310371,0
0.71095854,1.5799594,2.5512693,0.50677615,0.51701283,0.6898374,0
0.38440359,1.597085,2.263958,-0.86191165,0.28816539,0.41721576,0
0.93362981,1.9064474,2.1711907,0.50677615,0.51701283,0.6898374,0
1.3598604,1.956997,1.9360039,0.50677615,0.51701283,0.6898374,0
-0.86370468,-2.088583,-1.283244,0.32289559,-0.85579008,0.40418029,0
2.0278516,1.4641476,1.7248137,0.50677615,0.51701283,0.6898374,0
0.74813211,1.5380793,0.32968274,0.094113708,0.76224035,-0.64041561,0
0.058483601,-0.87923825,-1.6668601,0.82830584,-0.070241272,-0.55585569,0
-1.0455881,-1.2038939,0.023797989,-0.40844184,-0.56069285,0.72027707,0
0.93561316,1.9486293,2.2174029,0.50677615,0.51701283,0.6898374,0
-1.0295861,-1.2367666,-2.7873838,-0.50677615,-0.51701283,-0.6898374,0
0.19191241,-1.0278591,-1.0621314,0.85653079,-0.39260143,-0.33499116,0
2.1230671,0.85050535,1.2154994,0.85962546,-0.36337647,-0.35916781,0
1.7032051,1.3066982,2.0243196,0.50677615,0.51701283,0.6898374,0
2.1253927,1.3624122,1.8223174,0.50677615,0.51701283,0.6898374,0
-0.32420981,0.74461681,1.3942785,-0.84599918,0.14443387,0.51324856,0
-0.83726573,-1.2586182,-2.6494758,-0.50677615,-0.51701283,-0.6898374,0
1.780443,0.77847099,2.3282642,0.50677615,0.51701283,0.6898374,0
0.22033387,-0.16411382,1.3289427,-0.29272228,-0.64946014,0.70179427,0
1.4752465,0.57771325,2.4437766,0.13086906,-0.83706743,0.53121692,0
-0.077736974,0.62820894,1.6849577,-0.71686351,-0.19173642,0.67033118,0
0.41614118,1.1568534,-0.077279329,0.0043705702,0.79865217,-0.60177702,0
0.51005226,1.8227473,1.0187424,-0.38133848,0.85209912,-0.35847998,0
1.0669028,1.6634626,2.3885853,0.50677615,0.51701283,0.6898374,0
1.1113594,-0.18572295,-0.18976644,0.86109269,-0.34182292,-0.3763994,0
0.28597528,-0.23815382,1.296633,-0.093700945,-0.76242787,0.64025295,0
1.8092152,1.1891068,2.1723938,0.50677615,0.51701283,0.6898374,0
0.38652515,-0.45788649,-1.0239736,0.80648887,-0.001634419,-0.59124708,0
1.5171874,1.3343384,0.65688032,0.57734644,0.3907001,-0.71695501,0
-0.05177021,0.48445344,-1.0171151,0.13327563,0.74359602,-0.65521187,0
0.0049354434,1.5335821,0.79185069,-0.61276853,0.77888834,-0.13359499,0
-2.3223748,-0.97478724,-1.9907506,-0.50677615,-0.51701283,-0.6898374,0
1.4406992,1.2817098,2.2706757,0.50677615,0.51701283,0.6898374,0
-0.60200459,-0.36379743,-2.1084177,0.37610626,0.58743465,-0.71656448,0
-0.37613487,-1.3882623,-2.140811,0.84374905,-0.13333715,-0.51991218,0
0.3647269,1.2371093,2.3092182,-0.82331228,0.053000405,0.56510872,0
-1.7896903,-2.2331791,-1.3914351,-0.33162594,-0.62171113,0.70957702,0
1.140689,-0.21428049,0.93609881,0.62804246,-0.76957572,0.11539471,0
-0.77683431,0.47531539,-0.70442641,-0.49534547,0.82955235,-0.25782895,0
-0.80410606,-1.3485789,-2.7456484,-0.50677615,-0.51701283,-0.6898374,0
-1.1360731,-0.90928221,-0.0060137361,-0.61829078,-0.33964694,0.70877117,0
-0.45633861,0.88876879,-0.1367023,-0.46823496,0.83695859,-0.28329575,0
-1.1857033,-1.8547108,-2.101568,-0.50677615,-0.51701283,-0.6898374,0
-1.9094923,-1.8872609,-1.4475726,-0.50677615,-0.51701283,-0.6898374,0
2.2880723,1.7076217,1.4931381,0.50677615,0.51701283,0.6898374,0
-1.0820708,-0.97787929,-2.699656,-0.50677615,-0.51701283,-0.6898374,0
-0.38272315,0.91943449,0.059782803,-0.62509596,0.77143109,-0.11894989,0
2.2301528,1.2926309,1.8252685,0.50677615,0.51701283,0.6898374,0
-1.7842996,-2.0310578,-1.5203861,-0.50677615,-0.51701283,-0.6898374,0
-0.033469707,0.96523511,-0.35695106,-0.19677891,0.84845293,-0.49133062,0
-0.80320454,-2.0408914,-2.1960065,-0.50677615,-0.51701283,-0.6898374,0
1.2899148,0.13354611,0.1541521,0.86147964,-0.33351833,-0.38290769,0
0.92412329,2.2951353,1.8594539,0.50677615,0.51701283,0.6898374,0
-2.3013945,-1.170455,-1.7286252,-0.86114454,0.34082201,0.37718767,0
-1.7177861,-0.97596848,-2.2864962,-0.50677615,-0.51701283,-0.6898374,0
-1.2684655,-1.9037942,-1.9460369,-0.50677615,-0.51701283,-0.6898374,0
-2.1082819,-1.3882462,-1.872328,-0.50677615,-0.51701283,-0.6898374,0
-0.076059878,1.4551361,0.78352177,-0.64115834,0.76095694,-0.099299788,0
2.1176665,1.1939615,1.8350286,0.50677615,0.51701283,0.6898374,0
-0.67084557,-1.8690919,-2.3339221,-0.50677615,-0.51701283,-0.6898374,0
-0.76512861,-1.9001594,-2.2626836,-0.50677615,-0.51701283,-0.6898374,0
0.40904975,0.21752071,1.789408,-0.45014638,-0.52374864,0.72322583,0
-2.231401,-1.5469954,-1.5833379,-0.50677615,-0.51701283,-0.6898374,0
0.53580666,1.4232996,0.32541981,-0.17718367,0.84558612,-0.50357735,0
-1.889228,-1.8727949,-1.51096,-0.50677615,-0.51701283,-0.6898374,0
1.5056275,1.8653929,1.7360259,0.50677615,0.51701283,0.6898374,0
-1.7018409,-1.1041319,-2.3462324,-0.50677615,-0.51701283,-0.6898374,0
0.78551805,-0.40599698,-0.58919698,0.85925031,-0.23817554,-0.4527266,0
0.17545819,-1.0470834,-1.0821842,0.84600824,-0.45204598,-0.28270903,0
-1.7861731,-1.1629918,-2.3007276,-0.50677615,-0.51701283,-0.6898374,0
-0.016158998,-1.4458754,-0.86646891,0.67716426,-0.73394901,0.052607059,0
1.3921704,0.42757678,2.3810408,0.12087449,-0.83491302,0.53694469,0
-1.8500271,-1.7394948,-1.6870245,-0.50677615,-0.51701283,-0.6898374,0
0.29967499,1.6663533,1.5970067,-0.80954784,0.5604682,0.17466468,0
2.2887681,1.256354,1.8662055,0.50677615,0.51701283,0.6898374,0
1.3833205,2.3477829,1.5513232,0.50677615,0.51701283,0.6898374,0
-0.0073714256,-1.4265286,-1.4878125,0.82249981,-0.52965164,-0.20727575,0
-1.0149059,-0.57384348,-2.4220035,0.23224515,0.6887393,-0.68680441,0
1.4093108,2.0442767,1.8899535,0.50677615,0.51701283,0.6898374,0
-1.5625923,-1.5880975,-2.0085642,-0.50677615,-0.51701283,-0.6898374,0
1.6886346,0.88537169,2.478755,0.50677615,0.51701283,0.6898374,0
2.1564565,1.476186,1.3336829,0.76287019,0.10373595,-0.63817543,0
-0.045004606,1.2082462,1.4429311,-0.85934198,0.36666185,0.35649729,0
-0.73165482,-1.9894419,-2.3786306,0.83920395,-0.47897342,-0.25752902,0
-2.0408967,-1.8116839,-1.6146051,-0.50677615,-0.51701283,-0.6898374,0
0.29064608,0.27116859,1.8536677,-0.47490549,-0.50040519,0.72391951,0
-0.888304,-1.6355541,-2.5254023,-0.50677615,-0.51701283,-0.6898374,0
1.9524835,1.5331757,1.9049002,0.50677615,0.51701283,0.6898374,0
-0.30147755,-1.1896424,-0.040163517,0.16437793,-0.84347385,0.51140177,0
1.9683218,0.55060613,1.0698583,0.85393256,-0.41079631,-0.31944585,0
0.40135098,-0.9910689,-1.0841725,0.85300308,-0.41652939,-0.31446621,0
-1.3768911,-1.5102912,-2.2655284,-0.50677615,-0.51701283,-0.6898374,0
-1.2728047,-1.4927617,-0.45963988,-0.35067075,-0.60737866,0.71282625,0
-0.30593204,-1.7137866,-1.8588071,0.83739936,-0.4853223,-0.25144506,0
0.72545868,0.71889848,-0.31614211,0.53960901,0.43381459,-0.72154498,0
0.0010142326,0.43484735,1.5662782,-0.74113274,-0.14744756,0.65496683,0
-1.8018563,-2.1240973,-1.3610768,-0.50677615,-0.51701283,-0.6898374,0
-0.94219798,0.1617099,-1.1338012,-0.38212976,0.85201544,-0.35783613,0
-1.2877946,-1.429323,-2.3000753,-0.50677615,-0.51701283,-0.6898374,0
1.8122687,1.8917404,1.4680753,0.50677615,0.51701283,0.6898374,0
-1.9407225,-1.1544379,-2.1548526,-0.50677615,-0.51701283,-0.6898374,0
1.1624463,1.864765,2.2130959,0.50677615,0.51701283,0.6898374,0
-1.9302049,-2.0333891,-1.3588724,-0.50677615,-0.51701283,-0.6898374,0
-1.6726437,-0.36723077,-1.6589241,-0.61886382,0.77526182,-0.12639916,0
-1.1391647,0.27021354,-0.4033317,-0.80314541,0.57393289,0.15986997,0
0.21621525,-0.3209666,1.1377413,-0.10869461,-0.75549662,0.64607292,0
-1.0162956,-0.33002472,-2.0783021,0.14007342,0.74018621,-0.65765023,0
1.1956437,1.0074478,2.7844863,0.50677615,0.51701283,0.6898374,0
2.2412043,1.2769885,1.8625283,0.50677615,0.51701283,0.6898374,0
0.96924496,1.1559441,2.8474226,0.50677615,0.51701283,0.6898374,0
1.1403495,-0.13881236,0.07179296,0.85906482,-0.36970785,-0.3540107,0
-0.49578112,1.0404415,0.67813742,-0.80777758,0.56429213,0.17049843,0
-0.22067356,-1.2290838,-2.1404412,0.83729494,-0.10470065,-0.53663301,0
2.3298979,0.99294686,1.98859,0.50677615,0.51701283,0.6898374,0
-1.9440696,-2.1744227,-1.3226335,-0.50677615,-0.51701283,-0.6898374,0
1.5904357,0.76545417,0.6490891,0.83805025,-0.10785012,-0.53482735,0
1.1188878,2.1469963,1.182157,-0.081294358,0.82529801,-0.55881524,0
1.7588288,0.39865124,1.6741185,0.58365345,-0.79468203,0.16682065,0
-1.639585,-0.87555194,-2.5013704,-0.50677615,-0.51701283,-0.6898374,0
-1.2515318,-2.2640147,-1.868614,-0.50677615,-0.51701283,-0.6898374,0
0.71180379,0.13147891,-0.7913323,0.69892478,0.22203077,-0.67985761,0
1.0530443,2.2710881,2.012042,0.50677615,0.51701283,0.6898374,0
-0.72603738,-1.7251686,-2.5452592,-0.50677615,-0.51701283,-0.6898374,0
-1.5955203,-2.3234897,-1.4460628,-0.50677615,-0.51701283,-0.6898374,0
0.59309268,0.70529842,2.2933326,-0.5359273,-0.43784016,0.72185731,0
1.985218,1.9810256,1.3473563,0.50677615,0.51701283,0.6898374,0
-0.23017448,-1.5576011,-1.4226664,0.75722712,-0.64943844,-0.069547713,0
1.3956634,1.9316866,1.7874486,0.50677615,0.51701283,0.6898374,0
