-1.5554714,1.6156386,-2.6612213,-0.48324725,0.61412549,-0.62395668,0
-1.4703138,2.1407809,-2.2815413,-0.48324725,0.61412549,-0.62395668,0
-2.5040717,1.8022969,-1.7533033,-0.48324725,0.61412549,-0.62395668,0
1.2312695,0.011880547,0.73071355,0.75233757,0.65578043,0.062771037,0
0.47789747,-1.5948896,2.2680511,-0.81374377,-0.052180536,0.57887679,0
1.2780547,-2.5174019,2.128669,0.48324725,-0.61412549,0.62395668,0
0.404277,0.70972764,0.41494977,0.43138671,0.78720468,0.44069728,0
2.0211041,-1.8378578,2.2869968,0.48324725,-0.61412549,0.62395668,0
1.6014004,-1.5362203,2.8913348,0.48324725,-0.61412549,0.62395668,0
-2.0244188,1.6196164,-2.5940704,-0.48324725,0.61412549,-0.62395668,0
-1.8012513,0.88081324,-1.9285715,-0.56588459,-0.76291591,-0.31262407,0
0.3598623,0.49030817,0.95504487,0.18426535,0.76808131,0.61326778,0
1.1122376,-2.83322,1.952486,0.48324725,-0.61412549,0.62395668,0
1.6790023,-2.5628042,1.6431999,0.48324725,-0.61412549,0.62395668,0
-2.4742014,1.8065352,-1.7399926,-0.86904854,-0.25023639,0.42677447,0
-1.5372545,2.351584,-2.1570003,-0.48324725,0.61412549,-0.62395668,0
2.2041647,-1.9412633,2.0758402,0.48324725,-0.61412549,0.62395668,0
-2.2112908,2.0297379,-1.9915069,-0.48324725,0.61412549,-0.62395668,0
-0.98897094,2.7464347,-2.2279668,-0.48324725,0.61412549,-0.62395668,0
-0.1319488,-0.15702868,-1.2354072,0.19341895,-0.62019747,-0.76022625,0
-0.5220108,0.016264766,-1.5897253,0.087897182,-0.67506474,-0.73250353,0
1.0489278,-2.5594759,2.1712348,0.48324725,-0.61412549,0.62395668,0
-0.24404439,-0.41339043,-0.90525115,-0.024555683,-0.72192669,-0.69153368,0
-0.1666591,-1.0184604,1.1321332,-0.86953378,-0.25372827,0.42371336,0
2.5613065,-1.933803,1.7266273,0.87404281,0.29754966,-0.38407463,0
-1.2898949,2.3357034,-2.3775609,-0.48324725,0.61412549,-0.62395668,0
0.20098308,-1.6983113,1.738077,-0.87431407,-0.3753615,0.30769894,0
0.63448894,-1.9166828,0.47652659,-0.19593731,-0.77048689,-0.6065957,0
1.1841704,-2.8160377,1.9450924,0.48324725,-0.61412549,0.62395668,0
-1.5265889,1.8964421,-2.6274948,-0.48324725,0.61412549,-0.62395668,0
-0.67147118,-0.5526737,-0.81049883,-0.36586258,-0.78914338,-0.49335307,0
1.9380362,-1.9317402,2.0480471,0.48324725,-0.61412549,0.62395668,0
-0.44933301,-1.0829006,0.1671057,-0.68301642,-0.71031231,-0.17013206,0
1.6512295,-2.0860415,2.3643639,0.48324725,-0.61412549,0.62395668,0
0.8601473,-2.3263636,2.5929356,0.48324725,-0.61412549,0.62395668,0
-0.75217146,1.5676877,-0.098814785,-0.11690034,0.66105384,0.74117613,0
-1.3801899,2.2100224,-2.2729232,-0.48324725,0.61412549,-0.62395668,0
-1.7931589,2.8025818,-1.4116607,-0.12143773,0.65878958,0.74246156,0
-1.4107516,2.1038046,-2.5051434,-0.48324725,0.61412549,-0.62395668,0
-0.52382314,0.88532382,-2.1189384,0.46150625,-0.42694151,-0.77764571,0
1.8868797,-0.75646496,1.3712837,0.82142222,0.5646162,-0.080462031,0
-1.5286289,2.4540048,-2.0961254,-0.48324725,0.61412549,-0.62395668,0
-2.233918,1.5775841,-2.2363226,-0.48324725,0.61412549,-0.62395668,0
-1.2448112,2.8328292,-1.9614654,-0.48324725,0.61412549,-0.62395668,0
-1.8315301,1.6027029,-2.4779046,-0.48324725,0.61412549,-0.62395668,0
-2.0452628,1.5907863,-2.4432032,-0.48324725,0.61412549,-0.62395668,0
-2.3358893,2.0670428,-1.8222241,-0.48324725,0.61412549,-0.62395668,0
-1.4919534,1.9261967,-2.5274477,-0.48324725,0.61412549,-0.62395668,0
-1.2011267,0.75868577,-2.2337861,-0.094892919,-0.74524248,-0.66000676,0
1.5811133,-1.969498,2.5966496,0.48324725,-0.61412549,0.62395668,0
-0.52301419,1.357078,-2.2107818,0.68911105,-0.17277196,-0.70375836,0
-0.88311934,2.5638919,-2.4279838,-0.48324725,0.61412549,-0.62395668,0
-2.1638591,2.0017812,-1.0687304,-0.70900023,0.14358583,0.69043589,0
0.07563746,1.1164014,0.039330781,0.45767444,0.78476799,0.41793939,0
-1.2665045,2.0845723,-2.5356905,-0.48324725,0.61412549,-0.62395668,0
-0.82593262,-0.27226752,0.27368,-0.87378591,-0.29395944,0.38740939,0
2.1833062,-1.6509551,2.2024088,0.48324725,-0.61412549,0.62395668,0
-0.4654507,-0.32069254,1.0988748,-0.73380852,0.10458018,0.67125857,0
0.95630455,-2.4640918,2.3569047,0.48324725,-0.61412549,0.62395668,0
2.1933753,-2.6564395,1.4187884,0.48324725,-0.61412549,0.62395668,0
0.25573391,-1.3791282,-0.030707479,-0.20256013,-0.77179116,-0.60275006,0
1.6047847,-1.3149917,0.34910873,0.65354401,-0.22117475,-0.72385216,0
2.0849683,-1.5200813,2.4572849,0.48324725,-0.61412549,0.62395668,0
-1.8207195,1.434864,-2.6954098,-0.48324725,0.61412549,-0.62395668,0
-1.3377001,1.8084306,-2.9187293,-0.48324725,0.61412549,-0.62395668,0
1.5235877,-1.0845242,0.21980473,0.73681051,-0.099636115,-0.66871744,0
-0.80238831,-0.71612251,0.00613603,-0.79347926,-0.60839379,0.01573275,0
1.3391621,-2.1394715,2.3951371,0.48324725,-0.61412549,0.62395668,0
1.1224896,0.30179936,0.60424459,0.72850478,0.67733711,0.10244636,0
1.9479723,-2.4005368,1.7384382,0.48324725,-0.61412549,0.62395668,0
2.009321,-1.2299622,2.5280128,0.35331738,0.78888667,0.50281656,0
1.0742263,-0.74346781,-0.21282209,0.69375896,-0.16610065,-0.70079178,0
1.4775475,-1.3170778,2.7065499,-0.049577758,0.69235927,0.71984768,0
1.2706126,-2.4625154,2.288975,0.48324725,-0.61412549,0.62395668,0
2.0653422,-1.477914,2.568655,0.48324725,-0.61412549,0.62395668,0
-0.28646874,0.16662923,-1.5997723,0.28575313,-0.56302494,-0.7754662,0
0.96200103,-2.6063704,2.4058945,0.48324725,-0.61412549,0.62395668,0
-1.9181935,1.7356035,-2.5739284,-0.48324725,0.61412549,-0.62395668,0
-1.0383666,0.90796924,0.18390432,-0.54772019,0.3439219,0.76270592,0
-1.4099787,2.2209907,-2.3067505,-0.48324725,0.61412549,-0.62395668,0
0.77604419,-0.15731311,-0.48959374,0.74330777,-0.088751152,-0.66303599,0
-1.6133597,2.8578997,-1.5664325,-0.48324725,0.61412549,-0.62395668,0
-2.0427022,2.0104027,-2.0051074,-0.48324725,0.61412549,-0.62395668,0
-1.3279842,2.3886847,-2.3646295,-0.48324725,0.61412549,-0.62395668,0
-1.0875,1.962168,-0.61482787,-0.13630909,0.65122968,0.74653852,0
-0.89755708,2.6724555,-2.1257048,-0.48324725,0.61412549,-0.62395668,0
2.5570052,-1.8569657,1.9423536,0.48324725,-0.61412549,0.62395668,0
-2.454474,1.7760036,-1.5939343,-0.86080831,-0.20335352,0.46653664,0
-1.4255005,0.29225457,-0.26026919,-0.87323868,-0.28710485,0.3937321,0
-1.474099,2.6128807,-2.0509944,-0.48324725,0.61412549,-0.62395668,0
-0.24101087,-0.79680443,-0.48051542,-0.29267517,-0.78501749,-0.54597497,0
0.98272544,-0.096956,-0.36334777,0.84315771,0.13458748,-0.520549,0
-2.1735082,1.5372119,-1.4333825,-0.87269795,-0.28109238,0.39923108,0
-2.0785334,2.1074281,-1.7675956,-0.48324725,0.61412549,-0.62395668,0
2.2666407,-2.3662047,1.6362512,0.48324725,-0.61412549,0.62395668,0
-0.013152346,-1.4580171,0.6471653,-0.72415113,-0.68091792,-0.1093425,0
-1.337621,1.1007203,-2.5134819,-0.0018272102,-0.71340513,-0.7007494,0
1.9413024,-1.3412217,1.0455359,0.83694696,0.11493829,-0.53507847,0
0.50669688,-1.6865768,0.26267064,-0.13708624,-0.75698704,-0.63888806,0
-1.2043474,0.86996168,-2.4190216,0.056362376,-0.68939745,-0.72218716,0
-0.49445498,-0.99225402,-0.22877035,-0.57205439,-0.76100999,-0.30596974,0
-0.32738274,1.7510812,-1.8413225,0.87547535,0.33582437,-0.34751245,0
0.013515085,-0.55006123,1.3945737,-0.68797451,0.17439017,0.70447075,0
1.2700565,-0.86473012,2.4347067,-0.017288059,0.7058664,0.70813394,0
-1.2166129,2.6119947,-2.0471137,-0.48324725,0.61412549,-0.62395668,0
-1.1559312,2.6003222,-2.1094961,-0.48324725,0.61412549,-0.62395668,0
1.9339062,-1.0004282,1.3090944,0.86683196,0.43558261,-0.24263182,0
0.34378374,-1.8994021,1.0814513,-0.64591753,-0.73119491,-0.21941841,0
1.7601014,-2.5439553,1.652505,0.48324725,-0.61412549,0.62395668,0
2.1029913,-2.2518408,1.6514661,0.48324725,-0.61412549,0.62395668,0
1.4967291,-0.63020265,1.7921009,0.49926084,0.77876419,0.37982202,0
-2.0594366,2.0661502,-1.9977031,-0.48324725,0.61412549,-0.62395668,0
-0.80268514,0.039004445,-1.5216727,-0.15624979,-0.761756,-0.62873989,0
-0.7626698,1.5680759,-2.5595467,0.63061762,-0.25019512,-0.73465902,0
-0.48338372,0.042592674,-1.407109,0.07661745,-0.68029886,-0.72891921,0
-1.5481497,0.63211709,-0.25543955,-0.85270691,-0.16865298,0.494416,0
-2.2675335,2.2314229,-1.5903382,-0.48324725,0.61412549,-0.62395668,0
-1.7331994,1.6984894,-2.5143278,-0.48324725,0.61412549,-0.62395668,0
-1.7935913,1.6362305,-2.7445085,-0.48324725,0.61412549,-0.62395668,0
-1.2153121,2.0515463,-0.66782111,-0.13377982,0.65253037,0.74585992,0
-1.8292718,2.6152272,-1.7015651,-0.48324725,0.61412549,-0.62395668,0
1.3044604,-2.1311555,2.6543171,0.48324725,-0.61412549,0.62395668,0
1.0380442,0.25611994,-0.045800537,0.8750369,0.36158198,-0.32182115,0
-1.2544224,2.4985065,-2.0829866,-0.48324725,0.61412549,-0.62395668,0
1.8170284,-1.825756,2.4117138,0.48324725,-0.61412549,0.62395668,0
-1.2958124,1.7338123,-3.0203481,-0.48324725,0.61412549,-0.62395668,0
-2.1171422,2.4978614,-1.4690077,-0.48324725,0.61412549,-0.62395668,0
-0.14097343,-0.64833498,1.5362923,-0.72516823,0.11852681,0.6782937,0
-0.46482971,-0.74301678,-0.19136979,-0.55318391,-0.76659048,-0.32607734,0
2.1521006,-2.2588091,1.2665105,0.57908148,-0.31030434,-0.75390702,0
1.3800398,-1.6049098,2.8994544,0.48324725,-0.61412549,0.62395668,0
-1.3164369,2.2902212,-2.4902291,-0.48324725,0.61412549,-0.62395668,0
0.95384568,-2.4037025,2.6083598,0.48324725,-0.61412549,0.62395668,0
-1.7929922,1.0789583,-2.5485468,-0.25627607,-0.78070951,-0.56992555,0
-0.43948263,-0.82646298,-0.46822223,-0.46985719,-0.78329074,-0.40705007,0
-0.92557627,2.2721586,-2.6992791,-0.48324725,0.61412549,-0.62395668,0
-1.1016374,2.8385704,-1.8728707,0.58232999,0.75765353,0.29470792,0
-2.0053296,1.4784433,-2.5282316,-0.48324725,0.61412549,-0.62395668,0
-1.7596724,1.6145027,-2.78018,-0.48324725,0.61412549,-0.62395668,0
1.5813775,-1.6986314,2.8722937,0.48324725,-0.61412549,0.62395668,0
-1.073095,2.2203827,-0.81916207,0.10453817,0.74807686,0.65532637,0
2.2429965,-2.6104553,1.3895833,0.55855405,-0.33253795,-0.75989199,0
1.2820204,-0.34424677,0.032290131,0.84278023,0.13334548,-0.52147913,0
-2.4073584,1.9818658,-1.9361212,-0.48324725,0.61412549,-0.62395668,0
-2.0222054,2.3542647,-1.7141123,-0.48324725,0.61412549,-0.62395668,0
-1.1621158,1.9740703,-2.7767947,-0.48324725,0.61412549,-0.62395668,0
-1.9946935,2.1113696,-2.0711994,-0.48324725,0.61412549,-0.62395668,0
-1.1566989,1.2307668,-0.18282677,-0.45697933,0.43096483,0.77809966,0
-0.88127398,2.3812311,-2.4657967,-0.48324725,0.61412549,-0.62395668,0
-0.44773632,2.1132116,-1.1418753,0.60150939,0.75074977,0.27305871,0
-2.0046792,0.85847652,-1.2518224,-0.83750105,-0.53192496,0.12509105,0
-1.5270699,1.9689227,-2.3553696,-0.48324725,0.61412549,-0.62395668,0
0.42793536,-1.8782952,2.2366307,-0.86648571,-0.23357975,0.44118375,0
2.2483978,-1.495002,1.1064075,0.84929711,0.155836,-0.50439018,0
2.2429457,-1.8079417,2.0720198,0.48324725,-0.61412549,0.62395668,0
1.372122,-1.707396,0.34262729,0.45621991,-0.43163681,-0.77817291,0
-2.1174023,2.3052702,-1.8587666,-0.48324725,0.61412549,-0.62395668,0
1.3610108,-0.20567113,0.96277428,0.70855105,0.69295949,0.13327648,0
0.025817126,1.2581918,0.041334927,0.28173292,0.78387415,0.55332434,0
-1.3270549,1.5096731,-0.43856958,-0.45289075,0.43457228,0.77848375,0
-0.8163501,0.80194044,0.37763709,-0.46735162,0.4217003,0.77701426,0
1.5434972,-1.0220075,0.31441742,0.74226791,-0.090510681,-0.66396242,0
0.67945963,-2.1414089,2.4655182,-0.85122466,-0.16297813,0.49885345,0
-2.1432714,2.3778715,-1.7688472,-0.48324725,0.61412549,-0.62395668,0
-1.5579904,1.9474266,-0.60887134,-0.3312763,0.53143811,0.7796343,0
0.029685408,-0.0094899237,1.1771858,-0.36172968,0.50896007,0.78109616,0
-2.135076,2.2703586,-1.6883659,-0.48324725,0.61412549,-0.62395668,0
1.1244004,-2.5513868,2.3381617,0.48324725,-0.61412549,0.62395668,0
0.84844977,-0.5245961,-0.36672068,0.63516891,-0.24455637,-0.73263401,0
-1.5724946,0.3297466,-1.1558738,-0.75914627,-0.64893758,-0.050762668,0
-0.9561643,-0.36051247,-0.70559943,-0.56084776,-0.76441264,-0.31799829,0
1.3105485,-1.7586434,2.712611,0.48324725,-0.61412549,0.62395668,0
-2.1396332,2.5941365,-1.5262594,-0.47517043,0.41460741,0.77608877,0
-1.8996054,2.1296344,-1.8998103,-0.48324725,0.61412549,-0.62395668,0
1.596215,-2.2828937,2.0522523,0.48324725,-0.61412549,0.62395668,0
-0.99857122,2.7134075,-2.1288881,-0.48324725,0.61412549,-0.62395668,0
1.9600344,-1.248758,0.90625829,0.82874686,0.091138288,-0.55215257,0
1.109833,-2.0793657,2.5924938,0.48324725,-0.61412549,0.62395668,0
-1.7619277,0.61271203,-1.7147528,-0.61832088,-0.74396688,-0.25336236,0
-1.2532253,2.6119049,-2.1775801,-0.48324725,0.61412549,-0.62395668,0
-1.0053456,2.2923632,-0.95031309,0.15388104,0.76118582,0.63001323,0
-1.6916729,1.015712,-2.1819148,-0.37519592,-0.78920794,-0.48618796,0
1.8467031,-1.7691511,2.3783669,0.48324725,-0.61412549,0.62395668,0
-1.1296195,2.6946876,-1.4202406,0.24455169,0.77901894,0.57734209,0
0.96229076,0.27158704,0.26023883,0.75834578,0.64975959,0.052191719,0
-1.8498012,2.3084531,-2.0578547,-0.48324725,0.61412549,-0.62395668,0
0.70158416,-0.057706617,-0.81939608,0.71453184,-0.13515627,-0.68642336,0
1.6434872,-1.6258153,2.8808827,0.48324725,-0.61412549,0.62395668,0
0.74529839,0.60647196,-0.027329326,0.79944551,0.60005957,-0.028556466,0
-1.548282,1.7121594,-2.6443927,-0.48324725,0.61412549,-0.62395668,0
-0.44749925,0.4627701,-1.8200259,0.37145677,-0.50154251,-0.78132898,0
0.17087132,-0.34302408,-1.0273186,0.27684096,-0.56893742,-0.77438307,0
-0.3659077,-1.0673442,-0.0035579205,-0.51691496,-0.77535689,-0.36279544,0
-1.2338516,2.2444317,-2.540225,-0.48324725,0.61412549,-0.62395668,0
-1.0559959,1.9718132,-2.9925964,-0.48324725,0.61412549,-0.62395668,0
0.32839528,0.19597363,-1.1374447,0.68390316,-0.1801457,-0.70698231,0
-1.7542586,1.4947085,-2.8343055,-0.48324725,0.61412549,-0.62395668,0
-1.1975186,1.9042422,-2.860193,-0.48324725,0.61412549,-0.62395668,0
1.5632372,-1.8914212,2.619664,0.48324725,-0.61412549,0.62395668,0
0.75375068,0.31721336,1.1062361,0.3131822,0.78680056,0.53184748,0
-2.1199942,1.1881139,-1.8284796,-0.74081242,-0.66664046,-0.082385957,0
-1.0850699,2.0413966,-2.6272333,-0.48324725,0.61412549,-0.62395668,0
0.20551224,1.3195947,-1.0601091,0.8699339,0.41695741,-0.26336601,0
-1.9477937,2.4027703,-1.8234273,-0.48324725,0.61412549,-0.62395668,0
1.4287839,-1.9537967,2.6588449,0.48324725,-0.61412549,0.62395668,0
1.5635246,-2.8558226,1.6549063,0.48324725,-0.61412549,0.62395668,0
2.4879274,-1.6581361,2.1270626,0.48324725,-0.61412549,0.62395668,0
2.4777036,-2.1216855,1.6751032,0.48324725,-0.61412549,0.62395668,0
-1.7430012,2.4761128,-1.6902773,-0.48324725,0.61412549,-0.62395668,0
1.3848403,-2.4284806,1.083248,-0.062622726,-0.73512089,-0.6750375,0
-0.21076372,-0.6073693,1.4538803,-0.75723565,0.064495474,0.64994949,0
0.96619785,0.20391089,0.9270525,0.57948744,0.75860524,0.29784608,0
1.6717347,-1.6778414,0.61483151,0.53758681,-0.35436156,-0.76513284,0
-0.39695057,2.1200066,-1.7229176,0.83339727,0.54100382,-0.11297689,0
-1.3626375,2.6130686,-2.042531,-0.48324725,0.61412549,-0.62395668,0
-0.79633933,2.5658476,-2.5540304,-0.48324725,0.61412549,-0.62395668,0
-0.17221692,0.42209694,0.89926386,-0.33782181,0.52670026,0.78004062,0
-0.030008793,1.3595769,-0.37806922,0.52512139,0.77358705,0.35469776,0
1.7553546,-1.4539926,2.7026203,0.48324725,-0.61412549,0.62395668,0
-2.4299326,1.8195238,-1.9541692,-0.48324725,0.61412549,-0.62395668,0
-0.1988091,1.2164372,0.10409319,0.12723321,0.75439686,0.64396971,0
1.9342461,-1.7339556,0.75949776,0.64427,-0.23310208,-0.72840893,0
0.8540976,-2.2563877,2.5875587,0.48324725,-0.61412549,0.62395668,0
0.46085945,1.0023476,-0.084139764,0.65251386,0.72781348,0.2109814,0
0.1227766,-0.13342184,1.3343878,-0.37211525,0.50103605,0.78134048,0
0.31068832,-0.24013272,1.6761955,-0.29875937,0.55423927,0.77689224,0
0.60348672,-0.25506508,-0.65520161,0.58886963,-0.29938006,-0.7507357,0
-2.0324864,1.6170164,-2.298805,-0.48324725,0.61412549,-0.62395668,0
-1.0263406,2.5298226,-2.338027,-0.48324725,0.61412549,-0.62395668,0
1.7006445,-2.7912483,1.47015,0.48324725,-0.61412549,0.62395668,0
1.4573278,-1.7953855,2.7331691,0.48324725,-0.61412549,0.62395668,0
0.60478234,0.7061758,-0.21511698,0.78041387,0.62516826,0.010896325,0
-0.59791225,-0.78909999,-0.33811027,-0.50340086,-0.77801317,-0.37587646,0
1.6804657,-2.3673708,2.0742488,0.48324725,-0.61412549,0.62395668,0
-1.9317034,2.4485741,-1.1263556,-0.4147917,0.46702608,0.7809189,0
-1.9607929,1.4796104,-2.7091639,-0.48324725,0.61412549,-0.62395668,0
2.2246988,-1.9088105,1.915204,0.48324725,-0.61412549,0.62395668,0
-1.7053472,0.8312999,-0.60392028,-0.87000024,-0.25721663,0.42064133,0
-0.98644346,2.4200683,-2.4495807,-0.48324725,0.61412549,-0.62395668,0
2.3557458,-2.292273,1.4797517,0.68424076,-0.17967083,-0.70677644,0
-0.51079637,-0.64120007,-0.6790663,-0.36702731,-0.78915739,-0.49246472,0
0.0061447769,-0.53002596,1.5282615,-0.67507601,0.19240874,0.71221566,0
0.79081678,-0.66058987,2.119272,-0.23654552,0.59460282,0.76843596,0
-1.1656861,2.1756616,-2.4471593,-0.48324725,0.61412549,-0.62395668,0
-1.464241,1.4477198,-2.8941658,0.07999821,-0.67874265,-0.73000586,0
2.3933244,-2.4523733,1.4441895,0.48324725,-0.61412549,0.62395668,0
-1.2326459,0.71331161,0.064326718,-0.72474259,0.11920352,0.67863005,0
-0.51775545,2.3548484,-1.3527809,0.67845041,0.71314061,0.17645222,0
2.3416982,-2.1477757,1.5579594,0.48324725,-0.61412549,0.62395668,0
0.40245739,-0.65362281,1.9812082,-0.37775522,0.49667633,0.78141773,0
-1.129554,2.5380218,-2.3291373,-0.48324725,0.61412549,-0.62395668,0
1.0794144,-2.8179765,2.1369176,0.48324725,-0.61412549,0.62395668,0
0.37921369,1.1437272,-0.50110948,0.80219412,0.59605861,-0.034623101,0
-1.974026,2.3524077,-1.6437485,-0.48324725,0.61412549,-0.62395668,0
0.7087338,-2.4649134,2.0050614,-0.83094609,-0.54616112,0.10600248,0
-0.33870703,-0.48317048,-0.99458003,-0.17588136,-0.76626945,-0.61797786,0
-1.2405574,2.0406318,-2.5969734,-0.48324725,0.61412549,-0.62395668,0
1.2760799,-1.2628667,2.5382385,-0.17529404,0.63039398,0.75622439,0
-1.8125529,1.5287907,-2.7910435,-0.48324725,0.61412549,-0.62395668,0
-1.7930582,1.9330142,-2.3472421,-0.48324725,0.61412549,-0.62395668,0
0.93013465,-1.5111586,0.10675105,0.28204817,-0.56549346,-0.77502644,0
-1.5218259,0.73539412,-0.25485435,-0.83926028,-0.12207089,0.52984983,0
-0.077664077,1.6870103,-1.3443196,0.84596354,0.51106578,-0.15217564,0
-0.52510661,-0.64563197,-0.75660688,-0.37180713,-0.78919709,-0.48880199,0
1.5425287,-2.4251313,2.1555614,0.48324725,-0.61412549,0.62395668,0
-0.22168994,-0.46910778,-0.96139997,-0.094400764,-0.74509549,-0.66024327,0
-0.79909551,1.7310537,-2.7052262,0.69611514,-0.16268498,-0.69925481,0
-1.6198736,2.0593085,-0.72122931,-0.32817358,0.53366625,0.77942437,0
2.2800634,-1.6409597,1.2693373,0.82004696,0.067937814,-0.56824946,0
-0.93578404,1.3749787,-2.506254,0.40658498,-0.47375238,-0.78118318,0
1.9511027,-2.1562872,2.1307731,0.48324725,-0.61412549,0.62395668,0
1.6486816,-1.8398968,2.3916776,0.48324725,-0.61412549,0.62395668,0
1.1918851,-2.2923493,2.4981718,0.48324725,-0.61412549,0.62395668,0
1.0359758,-2.432636,2.5410368,0.48324725,-0.61412549,0.62395668,0
2.1046655,-0.93836737,1.5253967,0.84252799,0.51992649,-0.14079387,0
2.3472085,-1.6391231,2.1280882,0.48324725,-0.61412549,0.62395668,0
2.073889,-2.045011,2.0312397,0.48324725,-0.61412549,0.62395668,0
-2.3961473,1.4894979,-2.2500281,-0.48324725,0.61412549,-0.62395668,0
-2.0739753,1.6853462,-2.4946814,-0.48324725,0.61412549,-0.62395668,0
0.84427476,-0.39657962,1.8723875,-0.085913286,0.67599404,0.73188174,0
2.3466403,-2.0102592,1.8992031,0.48324725,-0.61412549,0.62395668,0
-0.53500783,0.71916091,-1.8882731,0.4632723,-0.42536348,-0.77746034,0
-0.83795661,2.4892356,-2.4644938,-0.48324725,0.61412549,-0.62395668,0
-1.7595277,1.4157859,-2.7573035,-0.48324725,0.61412549,-0.62395668,0
-2.1034346,1.4302599,-1.1420548,-0.84536487,-0.14198944,0.51497304,0
1.1372341,-2.4040034,2.2632937,0.48324725,-0.61412549,0.62395668,0
-2.1981137,2.4205449,-1.5702498,-0.48324725,0.61412549,-0.62395668,0
-0.40754673,1.6697628,-0.22385494,0.19519806,0.77033859,0.60702229,0
-1.510066,2.6041293,-1.983403,-0.48324725,0.61412549,-0.62395668,0
1.1531641,-2.001101,2.6561763,0.48324725,-0.61412549,0.62395668,0
0.27388421,1.1371804,0.1449289,0.51058459,0.77664053,0.36896169,0
-0.6560052,0.075028181,-1.483052,-0.080972582,-0.7409966,-0.66660893,0
-1.1781541,2.0474083,-2.8147404,-0.48324725,0.61412549,-0.62395668,0
-2.0898569,2.627254,-1.5010438,-0.48324725,0.61412549,-0.62395668,0
-0.82663554,-0.34760609,-0.8506121,-0.40911642,-0.78850329,-0.45922345,0
2.3961797,-1.5379989,1.5585299,0.87506783,0.31685203,-0.36587027,0
-1.4650707,1.7825305,-2.8495998,-0.48324725,0.61412549,-0.62395668,0
-1.5262589,2.955287,-1.6786683,-0.48324725,0.61412549,-0.62395668,0
0.95923364,0.051229984,1.0651473,0.49395764,0.77968436,0.38483503,0
-0.56941974,0.56086981,0.57904196,-0.51378101,0.37813383,0.77009338,0
0.98536265,-2.6775808,2.1431048,0.48324725,-0.61412549,0.62395668,0
-2.5079265,1.6656334,-1.5951812,-0.87497526,-0.31449515,0.36811829,0
-0.99687946,2.4302139,-2.3748972,-0.48324725,0.61412549,-0.62395668,0
-1.7154902,1.9051446,-2.4870379,-0.48324725,0.61412549,-0.62395668,0
1.6259829,-1.2873201,2.8078163,-0.033758193,0.69909811,0.71422827,0
1.7026308,-0.81772375,2.1346231,0.31147256,0.78667003,0.53304315,0
1.6002862,-2.6847749,1.7156842,0.48324725,-0.61412549,0.62395668,0
0.74315834,0.29109812,1.0007658,0.25554284,0.78060806,0.57039356,0
-1.4417455,1.7752565,-2.8272226,-0.48324725,0.61412549,-0.62395668,0
0.32714286,-1.8009421,1.8763717,-0.87263089,-0.39536932,0.28670272,0
-1.9123012,1.7872164,-2.4251897,-0.48324725,0.61412549,-0.62395668,0
-0.2977795,0.17687199,1.0860746,-0.42941824,0.45480973,0.78022307,0
-0.889063,2.5339208,-2.2901757,-0.48324725,0.61412549,-0.62395668,0
-1.4386349,1.7142346,-2.7586305,-0.48324725,0.61412549,-0.62395668,0
1.0838878,-2.6047201,2.3329744,0.48324725,-0.61412549,0.62395668,0
0.086504884,-1.5831411,0.7003063,-0.67528844,-0.71505415,-0.18078446,0
2.1781917,-1.63606,2.2692873,0.48324725,-0.61412549,0.62395668,0
1.3968031,-1.7471285,2.868171,0.48324725,-0.61412549,0.62395668,0
1.3947178,-2.1133344,2.574208,0.48324725,-0.61412549,0.62395668,0
1.715621,-2.5791073,1.7297606,0.48324725,-0.61412549,0.62395668,0
-1.0420022,0.14855856,-1.6277629,-0.25346884,-0.78031802,-0.5717144,0
-2.0759659,1.2478417,-2.2655253,-0.59256792,-0.75407493,-0.2832565,0
-0.805444,0.79313469,0.38587293,-0.4742496,0.41544768,0.77620256,0
-1.2972428,1.7653271,-3.0070236,-0.48324725,0.61412549,-0.62395668,0
1.4359965,-1.2537818,0.40778995,0.69004989,-0.17143147,-0.70316601,0
-1.7492324,1.3430501,-2.6860533,-0.18709028,-0.76867598,-0.61166531,0
-0.77590919,2.6304364,-2.4189801,0.87217516,0.39960617,-0.28217968,0
-1.203024,2.8800955,-1.9636027,-0.48324725,0.61412549,-0.62395668,0
-1.4286976,2.0043724,-0.61227089,-0.22988191,0.59868211,0.76729,0
1.0854017,-0.49414104,1.9901726,0.023064733,0.72138238,0.69215274,0
-1.9568757,1.3473538,-2.6636822,-0.48324725,0.61412549,-0.62395668,0
-0.61458951,1.192309,0.16597295,-0.11246477,0.66324842,0.73990071,0
-1.5608644,1.6397427,-2.9268024,-0.48324725,0.61412549,-0.62395668,0
-0.89803642,0.82282108,-2.2219026,0.29052812,-0.55982125,-0.77601129,0
-0.92754644,2.7789237,-2.2944212,-0.48324725,0.61412549,-0.62395668,0
-1.1839461,2.5125446,-2.3235037,-0.48324725,0.61412549,-0.62395668,0
-0.34173867,2.1919522,-1.7076938,0.80553758,0.59104365,-0.042148508,0
0.29655769,0.61117792,-1.2383876,0.79922187,0.018529624,-0.60075045,0
-1.4593155,0.29100418,-1.258013,-0.6550802,-0.72646129,-0.20766295,0
-1.6799102,2.1505754,-2.1292996,-0.48324725,0.61412549,-0.62395668,0
-2.3844876,1.5733471,-1.5927677,-0.87218648,-0.27590802,0.40393758,0
1.0785078,-2.5342479,1.4022743,-0.3464607,-0.78866547,-0.50790918,0
0.43441477,-2.018446,2.1094613,-0.87516844,-0.35799217,0.32545629,0
1.7684014,-1.9687955,2.4593108,0.48324725,-0.61412549,0.62395668,0
1.1601381,-2.2165141,2.4974709,0.48324725,-0.61412549,0.62395668,0
0.19022343,-1.6127875,0.77847612,-0.59382772,-0.75361788,-0.28183091,0
-2.0495508,2.3863735,-1.7541246,-0.48324725,0.61412549,-0.62395668,0
-0.50650758,-1.0325718,0.40890694,-0.76797318,-0.63954246,-0.034679249,0
-0.09826076,0.44668406,-1.5042177,0.53734851,-0.35460469,-0.76518762,0
0.40062267,-0.20665869,-0.990951,0.4689028,-0.42030072,-0.77683812,0
-0.23082373,1.2168893,-1.8290733,0.81269437,0.049631782,-0.58057261,0
0.51782364,-0.44767112,1.6911039,-0.3036904,0.55085909,0.77738434,0
-0.27617604,-0.36806443,1.2551575,-0.64126807,0.23690701,0.72982895,0
1.8598135,-2.8293874,1.4759986,0.48324725,-0.61412549,0.62395668,0
1.0308931,-2.6142898,1.5946406,-0.48222566,-0.78155601,-0.39576337,0
2.2905426,-2.1436944,1.8380729,0.48324725,-0.61412549,0.62395668,0
1.9325968,-1.3331995,0.76965147,0.78584766,-0.0098669305,-0.61834139,0
1.6407654,-1.1844145,2.506808,0.14361379,0.75865144,0.63547069,0
2.018292,-2.1415105,1.9582485,0.48324725,-0.61412549,0.62395668,0
-0.026383832,1.4623852,-0.57722867,0.60943365,0.74764121,0.26386189,0
-1.6238315,2.4816585,-1.0599967,-0.1820454,0.626634,0.75775272,0
-1.7862548,2.2724099,-1.9680886,-0.48324725,0.61412549,-0.62395668,0
1.7062184,-2.5722897,1.7782478,0.48324725,-0.61412549,0.62395668,0
-2.1500559,1.5477692,-2.3356454,-0.48324725,0.61412549,-0.62395668,0
-1.8269919,2.1184013,-2.1854277,-0.48324725,0.61412549,-0.62395668,0
1.7991462,-1.9656692,2.1358385,0.48324725,-0.61412549,0.62395668,0
-1.4741459,1.875788,-2.7503705,-0.48324725,0.61412549,-0.62395668,0
-0.86673588,2.7616038,-2.1285193,0.76351798,0.64436179,0.042873144,0
-1.5756106,0.58657485,-0.39493811,-0.8625679,-0.21201186,0.45937747,0
2.3723941,-1.9996427,1.7656069,0.48324725,-0.61412549,0.62395668,0
1.3489063,-2.401186,1.0937885,0.0048500597,-0.7108103,-0.70336694,0
1.5938091,-2.1242661,2.2794025,0.48324725,-0.61412549,0.62395668,0
1.5701451,-0.66724837,2.0764711,0.29931855,0.78564692,0.54144925,0
-1.1223955,2.4632607,-2.456054,-0.48324725,0.61412549,-0.62395668,0
0.6550746,0.32929736,1.039902,0.30175093,0.78586495,0.53978008,0
0.72223651,0.50481391,0.42404661,0.57681942,0.7594822,0.30077562,0
-1.7505705,1.7289495,-2.6413031,-0.48324725,0.61412549,-0.62395668,0
-0.64955413,0.31818807,-1.6121808,0.088598311,-0.67473549,-0.73272252,0
0.81236422,-2.3208349,2.5500519,0.48324725,-0.61412549,0.62395668,0
0.71685487,-0.3600719,-0.46782565,0.6752454,-0.1921761,-0.71211791,0
-1.4802034,0.44515669,-0.31152713,-0.86614007,-0.23151717,0.44294608,0
-0.72810382,1.6023763,-2.565676,0.65338069,-0.22138715,-0.72393465,0
1.248322,-1.7011914,2.8460698,0.48324725,-0.61412549,0.62395668,0
-2.2972434,1.8783785,-1.9676996,-0.48324725,0.61412549,-0.62395668,0
-2.1989374,2.32025,-1.7693847,-0.48324725,0.61412549,-0.62395668,0
-0.62566483,-0.50477135,-0.79846257,-0.32605579,-0.78767538,-0.5227381,0
-0.99726868,2.0088716,-0.80979562,0.10680676,0.74873078,0.65421295,0
1.0940934,-2.6452444,2.1423106,0.48324725,-0.61412549,0.62395668,0
0.69748127,0.41283131,0.68977147,0.54234266,0.76947165,0.33730957,0
1.623319,-2.677527,1.569948,0.48324725,-0.61412549,0.62395668,0
-1.4153558,2.9092994,-1.62554,0.17413163,0.76588261,0.61895227,0
-0.78089899,2.7034488,-2.0702057,0.79202926,0.61035132,-0.012683064,0
1.4666239,-2.908268,1.5319333,0.48324725,-0.61412549,0.62395668,0
-2.3466034,2.1704979,-1.7262309,-0.48324725,0.61412549,-0.62395668,0
-1.5429211,1.5504391,-2.7553105,-0.48324725,0.61412549,-0.62395668,0
0.26231724,0.8473478,0.59339893,0.20231712,0.77174407,0.60289192,0
-0.8768636,2.3746226,-2.6564977,-0.48324725,0.61412549,-0.62395668,0
-1.6107534,2.2478924,-2.2376559,-0.48324725,0.61412549,-0.62395668,0
-1.785534,1.4628791,-2.7410982,-0.48324725,0.61412549,-0.62395668,0
-2.2848804,2.0960593,-1.6710697,-0.48324725,0.61412549,-0.62395668,0
0.91541535,-1.5081545,0.062301785,0.17821154,-0.62877464,-0.75689042,0
1.7871113,-0.61993152,0.9905389,0.8638196,0.45041814,-0.22569706,0
-1.795609,1.6392131,-0.88226897,-0.70262897,0.15312062,0.69488603,0
1.8515174,-1.6617764,2.6390922,0.48324725,-0.61412549,0.62395668,0
-0.59423292,2.3276916,-2.2866979,0.87237334,0.39780405,-0.28410688,0
-0.9439978,2.5182898,-2.3174131,-0.48324725,0.61412549,-0.62395668,0
-0.37001577,0.95616144,0.43336201,-0.17380729,0.63121581,0.75588197,0
-0.48776594,1.1823977,0.093387842,-0.069050044,0.68374312,0.7264483,0
-0.86438078,-0.13962267,0.40032777,-0.83928984,-0.12216347,0.5297817,0
-1.6862507,1.5017432,-2.9415607,-0.48324725,0.61412549,-0.62395668,0
-0.71230561,-0.62505573,0.42631546,-0.85651201,-0.47920382,0.19170526,0
2.4076858,-2.2913651,1.5991714,0.48324725,-0.61412549,0.62395668,0
-1.2204846,2.6007614,-2.1337886,-0.48324725,0.61412549,-0.62395668,0
2.4517975,-1.8726012,1.7592326,0.48324725,-0.61412549,0.62395668,0
-0.8463195,1.4029233,-2.453886,0.47762495,-0.41236109,-0.77577877,0
1.7705737,-2.1783669,2.0880272,0.48324725,-0.61412549,0.62395668,0
-1.3362321,1.6097591,-2.8375721,-0.48324725,0.61412549,-0.62395668,0
-1.2860347,0.85518354,0.09013772,-0.67193091,0.19670941,0.7140128,0
-2.0649374,2.2940888,-1.6310295,-0.48324725,0.61412549,-0.62395668,0
-0.9193663,1.7761543,-2.7278092,0.64897054,-0.22708979,-0.72613192,0
1.8208307,-1.5618501,2.7796984,0.48324725,-0.61412549,0.62395668,0
-0.78134298,2.1100943,-2.491246,0.84726888,0.14858115,-0.50995982,0
0.75239629,0.19134526,-0.83973068,0.78624153,-0.0090605393,-0.61785281,0
0.60633302,0.57882977,0.52480674,0.44294327,0.78625715,0.43081427,0
-2.2928081,1.6296432,-2.1372261,-0.48324725,0.61412549,-0.62395668,0
-0.3698687,-0.81817955,-0.15886742,-0.50803924,-0.77713698,-0.37142175,0
1.8759229,-1.4300067,2.7122893,0.48324725,-0.61412549,0.62395668,0
-0.37633461,0.10284498,-1.631932,0.25635573,-0.58220094,-0.77157223,0
-1.8806701,2.2211957,-1.8528916,-0.48324725,0.61412549,-0.62395668,0
2.0784197,-2.1089821,1.8327048,0.48324725,-0.61412549,0.62395668,0
1.999445,-2.1322761,2.1176205,0.48324725,-0.61412549,0.62395668,0
-2.0055227,2.4950469,-1.4592566,-0.48324725,0.61412549,-0.62395668,0
-2.5537438,1.6504456,-1.8654743,-0.86847198,-0.42628938,0.2530489,0
-1.2282708,2.0510123,-2.6412001,-0.48324725,0.61412549,-0.62395668,0
1.1649274,-2.8083618,2.0881491,0.48324725,-0.61412549,0.62395668,0
2.2641444,-2.1978498,1.5917571,0.48324725,-0.61412549,0.62395668,0
-2.3984358,1.7685591,-1.8812151,-0.48324725,0.61412549,-0.62395668,0
-1.3634048,0.99923384,-2.3728144,-0.011666447,-0.71715307,-0.69681793,0
-2.1219203,1.6345958,-2.4256146,-0.48324725,0.61412549,-0.62395668,0
1.5354445,-0.31602627,1.4643813,0.61269045,0.74631822,0.26003739,0
-1.1262598,2.5080144,-2.1786132,-0.48324725,0.61412549,-0.62395668,0
1.212181,0.065305561,0.15640742,0.87222177,0.3991878,-0.28262752,0
-0.63490427,0.67560315,0.58577418,-0.46584183,0.42305902,0.77718234,0
-1.9210129,1.6415974,-2.6225414,-0.48324725,0.61412549,-0.62395668,0
0.92455506,-2.364136,2.4368546,0.48324725,-0.61412549,0.62395668,0
0.34671265,-0.63408494,-0.58710223,0.25480413,-0.58318728,-0.77134132,0
-1.7409321,2.5608461,-1.2879393,-0.1850805,0.62492907,0.75842524,0
1.5303527,-2.6648195,1.9338377,0.48324725,-0.61412549,0.62395668,0
-2.2594876,1.6119188,-2.2135139,-0.48324725,0.61412549,-0.62395668,0
0.64644444,-0.40651703,-0.7597394,0.6016621,-0.28476983,-0.74626327,0
-1.183262,0.0045577288,-0.12531216,-0.87166101,-0.40403396,0.27742347,0
1.6348536,-1.8686519,0.63820887,0.43144274,-0.45309535,-0.78010362,0
0.59637856,-1.2452996,-0.12307638,0.21798488,-0.60585111,-0.76513195,0
0.41604441,-1.6414666,0.34366789,-0.30544227,-0.78618324,-0.53723443,0
1.6989509,-2.2145514,0.89373171,0.28019595,-0.56672192,-0.77480102,0
1.3652776,-0.10039145,0.72680014,0.81827921,0.57023019,-0.072502345,0
-2.6384189,1.8400185,-1.9121952,-0.48324725,0.61412549,-0.62395668,0
-2.2100811,1.490754,-2.4613516,-0.48324725,0.61412549,-0.62395668,0
-1.8989973,1.4046671,-2.6769285,-0.48324725,0.61412549,-0.62395668,0
1.2459707,-2.1280479,2.7012739,0.48324725,-0.61412549,0.62395668,0
1.7425852,-1.961683,2.2715843,0.48324725,-0.61412549,0.62395668,0
0.99001265,-2.3559098,2.6173553,0.48324725,-0.61412549,0.62395668,0
1.397635,-2.4566569,1.9736862,0.48324725,-0.61412549,0.62395668,0
-1.0869603,2.0709291,-2.672436,-0.48324725,0.61412549,-0.62395668,0
-1.5494714,0.49420857,-1.810883,-0.48911244,-0.7804845,-0.38937503,0
-0.22580186,-0.23378389,-1.1972762,0.037814185,-0.69739264,-0.71569097,0
-2.0560222,1.856989,-2.0920935,-0.48324725,0.61412549,-0.62395668,0
0.67609626,-2.2968483,2.1100636,-0.868837,-0.42406511,0.25552079,0
1.1404608,-2.5444381,2.2506292,0.48324725,-0.61412549,0.62395668,0
-1.0038953,1.9190241,-2.8727531,-0.48324725,0.61412549,-0.62395668,0
-2.4416461,2.0864151,-1.5136242,-0.48324725,0.61412549,-0.62395668,0
1.4986116,-2.3340254,2.1851399,0.48324725,-0.61412549,0.62395668,0
-2.2261295,2.3148274,-1.6972938,-0.48324725,0.61412549,-0.62395668,0
-1.7237306,2.1665244,-2.0817151,-0.48324725,0.61412549,-0.62395668,0
2.2255864,-2.2648373,1.7201542,0.48324725,-0.61412549,0.62395668,0
1.7080623,-0.68773395,1.9806515,0.42139125,0.78787214,0.44909558,0
1.0900621,0.089145035,1.3302599,0.43561098,0.78688049,0.43710649,0
0.70243835,0.5081706,-0.83435082,0.86380088,0.21841623,-0.45402899,0
1.5543797,-1.1521218,2.5559208,0.12333047,0.75334507,0.64595717,0
-0.98146045,2.3375082,-2.526243,-0.48324725,0.61412549,-0.62395668,0
1.9437472,-0.81903172,1.624064,0.72599113,0.67941684,0.10643998,0
-0.51000708,0.14611967,0.92911291,-0.57577229,0.3139495,0.75493175,0
-2.5354435,1.6315067,-2.0460715,-0.82301271,-0.56169158,0.084572352,0
-1.1323097,-0.17769188,-0.27062663,-0.84587896,-0.51129109,0.15188839,0
2.2272041,-1.5950204,1.3570205,0.83863372,0.12011866,-0.53128612,0
0.91892076,-1.0003836,2.2888837,-0.34563273,0.52098,0.78045994,0
-1.5095687,2.1055498,-2.4700394,-0.48324725,0.61412549,-0.62395668,0
1.9626484,-0.91664779,2.1501846,0.57564855,0.75986224,0.30205652,0
-1.8952763,2.1246092,-0.96631432,-0.53361154,0.35840353,0.7660324,0
0.98232836,-1.0095299,-0.16665637,0.49166417,-0.39932775,-0.77382404,0
-1.8971722,2.0508633,-2.2097375,-0.48324725,0.61412549,-0.62395668,0
2.1191893,-1.181831,2.3235645,0.47956598,0.78194934,0.39821044,0
-0.62654382,2.4424682,-1.5229645,0.63556635,0.73623788,0.23239876,0
-1.7102342,2.0228672,-2.4295371,-0.48324725,0.61412549,-0.62395668,0
0.63116938,0.2080276,1.0837194,0.18851718,0.76897341,0.61085284,0
-1.4179182,2.2789333,-2.16991,-0.48324725,0.61412549,-0.62395668,0
-0.091492444,1.7334843,-0.69192719,0.59009737,0.75496042,0.28604147,0
-2.0617387,1.4521525,-2.7092988,-0.48324725,0.61412549,-0.62395668,0
-1.2743448,2.7814054,-1.7072359,0.40298906,0.78874218,0.46420419,0
0.89229125,-0.066371143,-0.66780442,0.76880991,-0.04325971,-0.63801253,0
1.3817997,-2.3628402,2.2800388,0.48324725,-0.61412549,0.62395668,0
-1.5531716,1.7346516,-2.8417449,-0.48324725,0.61412549,-0.62395668,0
1.3895952,-2.4406188,2.0331998,0.48324725,-0.61412549,0.62395668,0
0.39128861,-2.2018094,1.8325021,-0.83340335,-0.54099095,0.1129943,0
2.3696947,-1.5938967,2.1706116,0.48324725,-0.61412549,0.62395668,0
0.068297356,-1.0238136,-0.32044584,-0.18822509,-0.76891261,-0.61101937,0
1.8802292,-0.71763867,1.376658,0.76054794,0.64748651,0.048249021,0
1.9650511,-1.7530769,2.3733318,0.48324725,-0.61412549,0.62395668,0
-1.0983667,1.9493554,-2.7633348,-0.48324725,0.61412549,-0.62395668,0
1.0759774,-2.7614455,2.1144145,0.48324725,-0.61412549,0.62395668,0
1.5199275,-1.5716429,2.7842157,0.48324725,-0.61412549,0.62395668,0
1.2730273,-2.0585146,2.7053633,0.48324725,-0.61412549,0.62395668,0
2.3122122,-2.2065325,1.7707728,0.48324725,-0.61412549,0.62395668,0
-1.8776895,2.7559667,-1.5501636,-0.48324725,0.61412549,-0.62395668,0
-0.15691912,0.12217803,1.0504439,-0.35488963,0.51410615,0.78086376,0
0.45331481,-1.4062973,2.1576612,-0.73459661,0.10328723,0.67059636,0
-2.1881502,2.2088943,-1.6629839,-0.48324725,0.61412549,-0.62395668,0
-1.4913232,0.93817544,-2.4671285,-0.15425429,-0.76127595,-0.62981296,0
1.0137239,-2.8473589,2.0659814,0.48324725,-0.61412549,0.62395668,0
1.3318737,-1.7720193,2.9643199,0.48324725,-0.61412549,0.62395668,0
-0.79755121,-0.33123055,0.57938963,-0.87263978,-0.2804811,0.39978766,0
1.1717334,0.13502592,0.40946582,0.78491235,0.61960387,0.0019357353,0
-2.4520707,2.0157619,-1.7856998,-0.48324725,0.61412549,-0.62395668,0
-1.9252737,1.6328636,-2.5894749,-0.48324725,0.61412549,-0.62395668,0
1.9602308,-1.9749495,2.0768411,0.48324725,-0.61412549,0.62395668,0
1.7649181,-0.49474388,1.1940877,0.81393504,0.57765639,-0.061828628,0
0.33161825,0.42912149,-1.1657408,0.74070889,-0.093136013,-0.66533899,0
0.28034902,1.3246768,-0.69436753,0.80864072,0.58623469,-0.049285114,0
0.9100123,-2.5065598,1.2151608,-0.39616227,-0.78894961,-0.46969554,0
-2.3155658,1.754998,-1.9780837,-0.48324725,0.61412549,-0.62395668,0
-1.4490579,2.8423512,-1.6061739,-0.48324725,0.61412549,-0.62395668,0
1.5920579,-2.0071094,2.3598931,0.48324725,-0.61412549,0.62395668,0
0.95903599,-2.0392334,2.7646387,0.48324725,-0.61412549,0.62395668,0
1.8018206,-2.2115722,2.0340705,0.48324725,-0.61412549,0.62395668,0
-0.37568626,0.65831208,0.77867872,-0.29174146,0.55900323,0.77614582,0
0.84701341,-2.5522823,1.5776246,-0.61844856,-0.74391258,-0.25321007,0
0.90043449,0.47712022,-0.27460161,0.8656376,0.44175887,-0.23562795,0
1.4522502,-1.7343949,2.9198594,0.48324725,-0.61412549,0.62395668,0
2.3602104,-2.2025549,1.6513948,0.48324725,-0.61412549,0.62395668,0
2.1638727,-2.3416224,1.5664293,0.48324725,-0.61412549,0.62395668,0
1.9475163,-2.5195875,1.5739055,0.48324725,-0.61412549,0.62395668,0
1.7896767,-2.4066806,1.8125752,0.48324725,-0.61412549,0.62395668,0
1.3394248,-2.7230358,1.7611077,0.48324725,-0.61412549,0.62395668,0
1.5833972,-0.52984214,1.7928239,0.4853338,0.78108186,0.39288944,0
1.4479263,-0.37349468,0.3344056,0.8754248,0.33067781,-0.35253882,0
0.84163225,-1.6374446,2.5445194,-0.69366157,0.16624136,0.70085484,0
-1.5750394,2.5069928,-1.9138136,-0.48324725,0.61412549,-0.62395668,0
-0.62594873,1.6767765,-0.21107802,0.081454366,0.74114656,0.66638339,0
-1.6050346,0.37921512,-1.1547972,-0.75453269,-0.65361077,-0.058935419,0
1.574922,-2.2466371,2.1974146,0.48324725,-0.61412549,0.62395668,0
-0.50738513,1.4508445,-0.095634758,0.026682377,0.7226994,0.69064713,0
-1.095444,2.7484851,-1.5376651,0.43368924,0.78703111,0.43874323,0
1.6095561,-2.0808342,2.4436002,0.48324725,-0.61412549,0.62395668,0
-0.58761996,-0.21894211,0.90178627,-0.778736,0.024145409,0.62688696,0
0.66753119,0.26195142,-0.75484586,0.78268152,-0.016288064,-0.62220919,0
0.40071458,0.12087959,-1.0514522,0.61558175,-0.26842022,-0.7409519,0
2.3861904,-2.0808377,1.5135355,0.80382574,0.028842933,-0.59416521,0
-0.20458686,1.3981487,-0.014800131,0.16804895,0.76451409,0.6223163,0
-0.72612929,2.0602384,-0.65138704,0.28090447,0.78378218,0.55387545,0
1.5720495,-2.0757618,0.7295329,0.33686179,-0.52739835,-0.779984,0
1.1418889,0.0044715405,1.3435138,0.42877445,0.78739268,0.44290549,0
-2.153646,1.3025209,-2.5179226,-0.51535243,-0.77568024,-0.36432391,0
-0.5980444,1.8845264,-2.4750776,0.80352682,0.028164119,-0.59460187,0
-0.83356225,2.4155939,-2.5320435,-0.48324725,0.61412549,-0.62395668,0
1.6580527,-1.4361498,2.8360653,0.48324725,-0.61412549,0.62395668,0
1.2335403,-2.2994831,2.2415438,0.48324725,-0.61412549,0.62395668,0
-0.94639814,2.376122,-2.5601509,-0.48324725,0.61412549,-0.62395668,0
1.0802394,-2.2915156,2.6133206,0.48324725,-0.61412549,0.62395668,0
-1.3412948,2.9712439,-1.7386289,-0.48324725,0.61412549,-0.62395668,0
-1.5874275,1.7380081,-2.5929923,-0.48324725,0.61412549,-0.62395668,0
0.37374532,-1.5769732,1.859689,-0.85368884,-0.17250824,0.49138197,0
0.083003998,0.022204801,-1.158527,0.38193852,-0.4934167,-0.7814492,0
-0.2433784,-0.14622033,-1.1418003,0.15633118,-0.64071399,-0.75169551,0
-0.7915957,2.3906631,-1.3044724,0.52513504,0.77358401,0.35468423,0
0.50018418,0.14500421,-0.92579663,0.76015359,-0.059240498,-0.64703721,0
0.57485712,-1.4554889,2.2621951,-0.7033267,0.15208523,0.6944074,0
1.1161506,-2.5923538,1.3816417,-0.3070184,-0.78631437,-0.53614289,0
2.29671,-1.2532814,2.0820091,0.76330847,0.64458442,0.043254524,0
0.85358024,0.29969984,0.81590974,0.53860605,0.77041191,0.34112892,0
1.9091378,-2.6596582,1.4546152,0.24472173,-0.58953422,-0.76977956,0
1.9185014,-0.88539147,0.94566733,0.87507236,0.3169747,-0.36575308,0
1.5112786,-0.1955176,1.1593075,0.69982517,0.69919789,0.14617459,0
-1.4341106,0.36994708,-0.36536318,-0.87446737,-0.37292343,0.31021738,0
2.2626824,-1.9856416,2.046195,0.48324725,-0.61412549,0.62395668,0
0.83186305,0.11232402,-0.62457937,0.81052917,0.044435374,-0.58401024,0
-0.23902343,-0.93129551,1.3180434,-0.8657741,-0.22937238,0.44477367,0
-1.4687228,1.6137081,-3.0220683,-0.48324725,0.61412549,-0.62395668,0
1.0739082,0.22483349,0.36182454,0.79400265,0.60768092,-0.016839713,0
-0.63493937,0.45329714,-1.7632632,0.26375809,-0.57746023,-0.77263927,0
-0.25524408,-0.64673024,-0.88548791,-0.11274549,-0.75041914,-0.65127528,0
0.46815231,0.72011268,-0.97232574,0.85816211,0.19120611,-0.4764432,0
-1.659588,2.7806025,-1.7228167,-0.48324725,0.61412549,-0.62395668,0
-2.0316973,2.5848639,-1.6020688,-0.48324725,0.61412549,-0.62395668,0
1.1704519,-0.20027503,-0.034764245,0.87410772,0.29850447,-0.38318512,0
-0.85156482,2.5645823,-2.0867579,0.81561196,0.57483357,-0.065905668,0
-0.54551429,0.41583073,-1.8255507,0.23133524,-0.59779638,-0.76754373,0
1.4722359,-1.6357341,0.47972882,0.47723198,-0.41272128,-0.77582902,0
-2.081861,1.5366894,-2.5659194,-0.48324725,0.61412549,-0.62395668,0
-2.3660815,2.3182611,-1.557898,-0.48324725,0.61412549,-0.62395668,0
-0.95749491,2.5337617,-2.503288,-0.48324725,0.61412549,-0.62395668,0
-2.292032,2.3492541,-1.3826717,-0.48324725,0.61412549,-0.62395668,0
0.99047536,0.32214713,-0.14299355,0.87488902,0.365022,-0.31832081,0
1.8598447,-2.4553485,1.5934018,0.48324725,-0.61412549,0.62395668,0
-1.8190351,2.743556,-1.6069447,-0.48324725,0.61412549,-0.62395668,0
-2.2224896,1.8525633,-2.1200533,-0.48324725,0.61412549,-0.62395668,0
-1.6758242,1.549655,-2.6773672,-0.48324725,0.61412549,-0.62395668,0
-2.3225827,1.5171473,-2.182812,-0.48324725,0.61412549,-0.62395668,0
2.4561262,-2.1498122,1.698511,0.48324725,-0.61412549,0.62395668,0
-2.0409431,2.0980999,-1.915489,-0.48324725,0.61412549,-0.62395668,0
-1.6396645,1.6182859,-2.6128888,-0.48324725,0.61412549,-0.62395668,0
0.83792728,-2.415946,2.6465392,0.48324725,-0.61412549,0.62395668,0
0.82934856,-1.5324751,2.5043046,-0.62297958,0.25952902,0.7379303,0
-1.1170737,2.4251575,-1.0994349,0.2118696,0.7735495,0.59727079,0
2.1275566,-1.3014297,1.1871151,0.85427612,0.17485292,-0.48952907,0
-1.9280803,1.4297013,-2.7006938,-0.48324725,0.61412549,-0.62395668,0
-0.85285485,-0.49933392,0.52913988,-0.87546086,-0.33380401,0.34948984,0
1.754494,-2.2641687,2.1514823,0.48324725,-0.61412549,0.62395668,0
1.642301,-2.3633282,2.1654797,0.48324725,-0.61412549,0.62395668,0
-2.0499082,2.3330305,-1.8108184,-0.48324725,0.61412549,-0.62395668,0
1.6241305,-2.3225617,1.9448743,0.48324725,-0.61412549,0.62395668,0
-1.0994153,2.1297073,-2.5441592,-0.48324725,0.61412549,-0.62395668,0
-2.1980798,1.4778734,-2.5098667,-0.48324725,0.61412549,-0.62395668,0
1.6015393,-1.9864622,0.83539236,0.44989434,-0.43720031,-0.77874959,0
0.4321169,-0.8256076,1.9103231,-0.55977631,0.33123878,0.75955993,0
-1.5767858,2.4542441,-1.8488668,-0.48324725,0.61412549,-0.62395668,0
-2.2348654,1.7984838,-2.235122,-0.48324725,0.61412549,-0.62395668,0
-0.79513681,2.3983455,-2.4954226,-0.48324725,0.61412549,-0.62395668,0
-1.5132856,1.7836139,-2.5795085,-0.48324725,0.61412549,-0.62395668,0
-1.4127064,2.2751226,-2.3045945,-0.48324725,0.61412549,-0.62395668,0
0.7908988,0.51594245,-0.72941023,0.87039393,0.26027262,-0.41793841,0
-0.010110127,1.5978448,-1.3825005,0.87013036,0.41560662,-0.26484773,0
-0.48256087,-0.86161315,0.66700435,-0.87071872,-0.41139647,0.26944721,0
1.4721732,-0.23897189,1.0110712,0.71725982,0.68638456,0.12006031,0
1.5832486,-1.5819466,2.7496786,0.48324725,-0.61412549,0.62395668,0
0.39624512,-0.1265495,-1.019848,0.60754871,-0.27791467,-0.74407524,0
2.5372038,-2.210484,1.5004936,0.48324725,-0.61412549,0.62395668,0
1.1413807,0.17477617,0.56064075,0.74311316,0.66454089,0.078537658,0
-1.747092,2.7227859,-1.5257028,-0.48324725,0.61412549,-0.62395668,0
-0.98188132,0.096094593,0.46407178,-0.80347353,-0.0280433,0.59467953,0
-1.1157773,-0.12111053,-0.78593642,-0.64209902,-0.73309195,-0.22424285,0
-0.47831756,1.5941212,-0.31538832,0.21189097,0.77355343,0.59725809,0
2.0385015,-1.8752462,2.1918037,0.48324725,-0.61412549,0.62395668,0
-0.37465173,-0.8586185,-0.52273625,-0.39708132,-0.78892523,-0.46895984,0
1.0309399,-2.2994394,1.0499038,-0.21994969,-0.77500415,-0.59244454,0
-1.167259,2.9447045,-1.7970247,-0.48324725,0.61412549,-0.62395668,0
1.3612485,-2.9509878,1.6783667,0.48324725,-0.61412549,0.62395668,0
-2.5542722,2.1181149,-1.5853318,-0.48324725,0.61412549,-0.62395668,0
1.8780829,-2.7376063,1.4993646,0.48324725,-0.61412549,0.62395668,0
0.72877681,0.46024004,0.50073183,0.62867343,0.73942494,0.24087405,0
-1.3602046,2.53721,-2.1982932,-0.48324725,0.61412549,-0.62395668,0
1.5029973,-2.6964893,1.8324775,0.48324725,-0.61412549,0.62395668,0
0.56186914,-0.31208348,-0.76546311,0.61287051,-0.27164304,-0.74202406,0
-1.6551447,2.713264,-1.5358486,-0.48324725,0.61412549,-0.62395668,0
-1.5353656,2.6302214,-1.8145409,-0.48324725,0.61412549,-0.62395668,0
-1.876106,2.8489137,-1.395758,-0.48324725,0.61412549,-0.62395668,0
1.2527385,-2.0953696,2.6664059,0.48324725,-0.61412549,0.62395668,0
-1.9406343,1.926254,-2.1640491,-0.48324725,0.61412549,-0.62395668,0
-2.0354624,1.3319123,-2.6633525,-0.48324725,0.61412549,-0.62395668,0
-2.2348254,1.7974483,-2.0567362,-0.48324725,0.61412549,-0.62395668,0
0.084642239,-1.595058,0.66315258,-0.67671788,-0.71419364,-0.17883042,0
-2.3353229,2.1274786,-1.335781,-0.75639164,0.066003904,0.65078044,0
-2.1663821,2.2242255,-1.7202175,-0.48324725,0.61412549,-0.62395668,0
2.4226611,-1.4551575,2.1422098,0.77533418,0.63120925,0.020776346,0
-2.2799745,1.4165941,-2.2248592,-0.71059817,-0.69144613,-0.13020144,0
1.1426843,-2.0550056,2.763762,0.48324725,-0.61412549,0.62395668,0
-2.4001474,1.4932302,-2.3344676,-0.48324725,0.61412549,-0.62395668,0
0.64499354,0.15648627,1.266053,0.10308838,0.74765646,0.65603542,0
-1.5415688,2.0187774,-2.3936374,-0.48324725,0.61412549,-0.62395668,0
-0.016472608,1.4481673,-0.35738128,0.55703199,0.76551187,0.32203543,0
1.1624199,0.034848511,1.0735682,0.51496994,0.77575874,0.36469743,0
1.1867528,-1.7988688,2.8010521,0.48324725,-0.61412549,0.62395668,0
1.9261348,-2.3821433,1.6286824,0.48324725,-0.61412549,0.62395668,0
-2.0930176,1.7715644,-2.3580437,-0.48324725,0.61412549,-0.62395668,0
-0.27123377,0.68193567,0.57517475,-0.23084933,0.59809273,0.76745915,0
1.2816824,-2.7148874,2.0223634,0.48324725,-0.61412549,0.62395668,0
-0.13611054,-1.097845,-0.26085392,-0.39689955,-0.78893012,-0.46910542,0
-2.2138782,2.4155111,-1.4854747,-0.48324725,0.61412549,-0.62395668,0
-1.5651019,1.6143055,-0.6017136,-0.56232333,0.32852164,0.75885832,0
-1.6710804,1.4849045,-2.8062468,-0.48324725,0.61412549,-0.62395668,0
1.5504949,-1.0248661,0.21401288,0.74682498,-0.082748793,-0.65985233,0
-0.39147171,2.049557,-1.6524494,0.83646303,0.53427762,-0.12197156,0
-0.80596328,0.160313,0.57519752,-0.69589895,0.1629993,0.69939679,0
0.74831736,-2.1931448,1.1911983,-0.4633576,-0.78410697,-0.41288728,0
-0.022432163,1.3488526,-0.26382154,0.4858588,0.7810002,0.39240256,0
-2.4661567,1.6438791,-2.1999526,-0.48324725,0.61412549,-0.62395668,0
0.60879779,0.39494115,-0.77339762,0.84836262,0.15246189,-0.50698745,0
0.54629397,-2.429564,1.8662438,-0.81499988,-0.5758701,0.064411484,0
0.16368303,-0.81604022,-0.58936977,0.086233571,-0.67584431,-0.73198235,0
-0.089534417,-1.6327822,1.3222222,-0.84698051,-0.50832409,0.15566182,0
-2.5256565,1.882152,-1.9578567,-0.48324725,0.61412549,-0.62395668,0
-0.58763695,0.27950412,0.77513039,-0.53192478,0.36010966,0.76640522,0
0.7705667,0.60587996,0.28650886,0.73116291,0.67510027,0.098186031,0
-0.56468862,1.6892275,-2.3966665,0.82036781,0.068761915,-0.56768692,0
-0.97785723,2.674077,-2.2508626,-0.48324725,0.61412549,-0.62395668,0
-1.269075,0.35724387,-0.0062985867,-0.84589058,-0.14378963,0.51360846,0
-2.1380639,1.8041561,-2.2142622,-0.48324725,0.61412549,-0.62395668,0
0.81259084,0.30583066,0.89844131,0.47095332,0.78314668,0.40605929,0
-2.2876766,2.1354456,-1.6793755,-0.48324725,0.61412549,-0.62395668,0
2.1078551,-1.695163,2.2420256,0.48324725,-0.61412549,0.62395668,0
