0.97011083,-0.27394897,-0.37446353,0.99162304,-0.092262954,0.090395451,0
-0.59364802,0.47095454,1.9720237,-0.063278973,0.26309645,0.96269202,0
-0.091137171,1.13652,1.7911696,-0.063278973,0.26309645,0.96269202,0
0.91321868,0.67051142,0.026502892,0.81002927,0.57701212,-0.10444875,0
0.41706324,-0.28690946,-1.9230559,0.063278973,-0.26309645,-0.96269202,0
-0.89830071,-0.48568225,-2.0840816,0.063278973,-0.26309645,-0.96269202,0
-0.28130233,-0.1973896,2.0413547,-0.063278973,0.26309645,0.96269202,0
1.0383725,-0.56160116,-0.92518151,0.9771691,-0.17970484,0.11334258,0
1.002166,0.18748514,0.960024,0.9979049,0.029701173,0.057476521,0
-0.37387481,0.95441002,-0.060885847,-0.34827095,0.89816141,-0.26835304,0
0.37319335,1.3370534,1.1419928,0.35163414,0.90864342,-0.22521204,0
0.11479282,-0.2110815,2.1557646,-0.063278973,0.26309645,0.96269202,0
-0.84428704,0.71896231,0.20079559,-0.80038959,0.56281906,-0.20642483,0
-0.75014144,0.68154335,0.16664624,-0.80744231,0.5534336,-0.20432347,0
-1.0063446,0.51588118,0.77683103,-0.9432795,0.29924819,-0.1437853,0
1.0146742,0.035741992,0.77154762,0.97284287,-0.19894248,0.1183157,0
0.81039834,0.8697443,1.7883065,0.94314319,0.33116162,-0.028509885,0
1.0188576,-0.22551656,-0.3723805,0.9754712,-0.18748027,0.11535597,0
-0.78059852,0.12261331,-0.98883909,-0.89777184,0.40630955,-0.17005306,0
-0.5496605,0.24401915,-2.2596869,0.063278973,-0.26309645,-0.96269202,0
-0.76628333,0.88818896,1.8331268,-0.063278973,0.26309645,0.96269202,0
0.58019352,0.88847262,0.20704979,0.57121581,0.80054128,-0.18123509,0
-1.0729949,0.22655237,1.8637493,-0.063278973,0.26309645,0.96269202,0
0.052302495,1.3070579,1.7396369,-0.063278973,0.26309645,0.96269202,0
0.75755286,0.84494942,0.28191325,0.69878304,0.70038444,-0.14547783,0
1.043862,0.32406181,0.72041255,0.9947201,0.094718903,0.03949827,0
0.24171859,-0.31894624,-1.9135745,0.063278973,-0.26309645,-0.96269202,0
-1.0668652,-0.11245668,1.3531544,-0.89944154,-0.4330104,0.059216991,0
0.14338449,-1.3351022,-0.67569298,0.031834841,-0.96360224,0.26543772,0
-0.82485259,0.00014650822,2.058126,-0.80720055,-0.58074456,0.10565476,0
0.69269645,0.92008471,0.63676822,0.78040135,0.61431301,-0.11659028,0
-0.36198366,-0.25587821,-1.99823,0.063278973,-0.26309645,-0.96269202,0
0.98298633,0.58926296,1.5481564,0.98515594,0.17070454,0.018103361,0
-0.38450596,1.4123795,1.2046187,-0.2238763,0.93629879,-0.27059907,0
0.90046388,0.4196814,1.0311432,0.9837749,0.17870754,0.015825391,0
-0.043122053,1.2091508,1.7422631,-0.063278973,0.26309645,0.96269202,0
-0.27991354,0.726197,-0.81455189,-0.36277869,0.89257264,-0.26777923,0
-0.58996809,-0.27448308,-1.943715,0.063278973,-0.26309645,-0.96269202,0
-0.85599822,-0.66275662,-0.58699656,-0.88736176,-0.45627216,0.066368252,0
-0.72603476,-0.74464524,0.022547163,-0.73390579,-0.66595101,0.13375878,0
0.82085675,0.86276889,1.0839565,0.87508655,0.47839525,-0.073221207,0
0.52031696,-0.56469369,-1.9468861,0.063278973,-0.26309645,-0.96269202,0
-0.035760939,-0.47455072,-1.9259084,0.063278973,-0.26309645,-0.96269202,0
0.31725013,0.39541984,-2.0663974,0.30979449,0.92215174,-0.23165387,0
-0.48777631,1.321512,1.6173217,-0.063278973,0.26309645,0.96269202,0
0.69747293,-0.74668312,-1.8417282,0.063278973,-0.26309645,-0.96269202,0
-0.24666297,-1.3187416,-1.5213039,-0.33656442,-0.91374195,0.22759596,0
-0.0087202787,-0.56092179,1.5763543,0.10987741,-0.95692432,0.26874256,0
-0.24154329,0.9460336,0.078447819,-0.25399169,0.92861682,-0.27047908,0
0.060152292,0.76960909,1.7738037,-0.063278973,0.26309645,0.96269202,0
0.8401525,-0.88514614,-0.27976727,0.7550658,-0.61814594,0.218566,0
-0.83297455,-0.37583864,1.2059149,-0.80876225,-0.57868868,0.10499021,0
0.9099018,0.18600434,-0.96088409,0.91235977,0.40619519,-0.051039428,0
-0.28107798,0.58890569,-1.1963353,-0.32587582,0.90630382,-0.26910621,0
-0.57011783,-1.0235504,-0.30379796,-0.49886709,-0.84380174,0.19781347,0
0.42644292,0.75361753,-0.37874728,0.37715262,0.89939517,-0.22100717,0
0.46043441,1.3158519,1.5476279,0.54225999,0.81887376,-0.18814854,0
0.38615504,-1.0668794,-0.44695169,0.35470885,-0.89571214,0.26810688,0
-0.44269764,-0.44409227,1.7272042,-0.33352232,-0.91473901,0.22806838,0
-0.25079823,-0.031282425,2.1350245,-0.063278973,0.26309645,0.96269202,0
0.69687676,0.67904007,0.099023573,0.78840595,0.60461038,-0.11341248,0
-0.19828263,-1.3236469,-1.7733541,0.063278973,-0.26309645,-0.96269202,0
0.72878659,0.20265603,2.0924978,-0.063278973,0.26309645,0.96269202,0
-0.47331703,-0.69710481,0.83491349,-0.43441951,-0.87570339,0.21076813,0
-0.16174838,1.063792,-0.049919188,-0.11979067,0.95564878,-0.26904559,0
0.39624965,-0.10422313,2.1845181,-0.063278973,0.26309645,0.96269202,0
0.48784256,-0.44494092,-1.8951948,0.063278973,-0.26309645,-0.96269202,0
0.011801183,0.82893777,1.8287194,-0.063278973,0.26309645,0.96269202,0
-0.32912922,-0.067726612,-2.1690347,0.063278973,-0.26309645,-0.96269202,0
-0.79348236,0.59481984,0.18673778,-0.82328999,0.53145939,-0.19935971,0
0.14124751,0.84658992,1.9221551,-0.063278973,0.26309645,0.96269202,0
-0.2646988,1.3038452,1.1007679,-0.1309424,0.95409751,-0.26935464,0
0.37040257,-0.078434587,2.2107067,-0.063278973,0.26309645,0.96269202,0
-0.68747801,1.0814656,1.7418573,-0.063278973,0.26309645,0.96269202,0
0.79100943,-0.37291417,0.6638726,0.82538348,-0.52845919,0.19867754,0
-1.0077813,0.57796943,0.75054097,-0.95047081,0.27824146,-0.13851696,0
0.55710459,0.21054518,-2.1723065,0.063278973,-0.26309645,-0.96269202,0
-0.71080446,-0.30942607,1.9348106,-0.5941208,-0.7850008,0.17548245,0
0.25902286,1.2126687,0.68243355,0.27963638,0.93065882,-0.23596111,0
0.54942703,0.34149802,-1.7159933,0.51594079,0.83434272,-0.19410609,0
0.74706793,-0.43711042,-1.8293366,0.063278973,-0.26309645,-0.96269202,0
0.017729104,-1.3434558,-1.7507883,0.063278973,-0.26309645,-0.96269202,0
0.19371492,-1.2909232,-1.7711306,0.063278973,-0.26309645,-0.96269202,0
0.74076426,-0.67526019,-1.7478075,0.063278973,-0.26309645,-0.96269202,0
0.64605713,0.033098578,-2.0664637,0.063278973,-0.26309645,-0.96269202,0
0.57749605,0.79509223,1.9418676,-0.063278973,0.26309645,0.96269202,0
0.82307363,0.85724592,1.6072888,0.88560319,0.45953003,-0.0673742,0
0.21495879,-0.44531459,1.8320907,0.29067147,-0.91794574,0.26997381,0
0.2720778,-1.1986505,-0.89758033,0.22060958,-0.93707466,0.27059627,0
0.12805808,-0.34852326,2.0881391,0.22136644,-0.93689585,0.27059734,0
0.08764714,-0.72306001,-1.8756858,0.063278973,-0.26309645,-0.96269202,0
0.32223761,-1.2681203,-0.83588332,0.24532622,-0.93092573,0.27054054,0
-0.55659318,-0.67201209,-1.8590251,0.063278973,-0.26309645,-0.96269202,0
-0.5590682,-0.39760411,2.0906537,-0.063278973,0.26309645,0.96269202,0
0.87336922,-0.32523143,-1.8988208,0.063278973,-0.26309645,-0.96269202,0
-0.0060852766,1.3726153,0.93644923,0.061803043,0.96380687,-0.25933874,0
0.086443067,1.3668237,1.7121032,-0.063278973,0.26309645,0.96269202,0
-0.25816989,0.16630006,1.9632663,-0.063278973,0.26309645,0.96269202,0
0.63148832,0.60762918,-1.0559341,0.54757249,0.81561589,-0.18690899,0
-0.36323082,0.59393275,1.900048,-0.063278973,0.26309645,0.96269202,0
-0.75483143,-0.036490321,1.9627135,-0.063278973,0.26309645,0.96269202,0
-0.59458786,0.36398995,1.9103141,-0.063278973,0.26309645,0.96269202,0
0.11789358,0.20381546,2.1111298,-0.063278973,0.26309645,0.96269202,0
0.87143928,0.86009705,1.0020468,0.8687855,0.48922879,-0.076596156,0
-0.9097181,1.0575129,1.2980472,-0.80687773,0.55419332,-0.20449406,0
1.0202371,-0.13882208,-0.38917387,0.99761242,-0.01006332,0.068324566,0
0.75591654,0.87205696,0.38985023,0.71209252,0.68775052,-0.14115022,0
0.82982814,-1.0381765,-1.7422929,0.063278973,-0.26309645,-0.96269202,0
0.24490529,-0.63307858,1.2008433,0.32577965,-0.9063375,0.26910913,0
0.5854528,-0.83283317,-1.7254708,0.063278973,-0.26309645,-0.96269202,0
-0.40176392,0.12573004,2.1018484,-0.063278973,0.26309645,0.96269202,0
-0.45021832,-0.66848385,-2.025707,0.063278973,-0.26309645,-0.96269202,0
0.83953214,0.27517712,2.0987675,-0.063278973,0.26309645,0.96269202,0
-0.33442345,1.2915236,1.7083063,-0.063278973,0.26309645,0.96269202,0
0.42776668,0.94149077,1.9104027,-0.063278973,0.26309645,0.96269202,0
-0.51439732,-0.96689165,-0.88312185,-0.62149435,-0.76513726,0.16825458,0
-0.87308341,0.94861639,0.98761845,-0.79036379,0.57577401,-0.2093063,0
-0.81456792,-0.65953958,-1.8542856,0.063278973,-0.26309645,-0.96269202,0
-0.81508654,0.15724385,-1.1433804,-0.87597716,0.44755211,-0.17989177,0
-0.11140877,1.3232219,0.7931602,0.0016821027,0.96465206,-0.26352155,0
-0.79478872,-0.36504757,1.4585099,-0.75176454,-0.64700645,0.12740749,0
0.33286536,-0.19821143,-1.9597583,0.063278973,-0.26309645,-0.96269202,0
-0.4736253,0.24195051,1.9241532,-0.063278973,0.26309645,0.96269202,0
0.027691841,-0.352584,-2.0785758,0.063278973,-0.26309645,-0.96269202,0
-0.35698879,0.84835362,1.8467526,-0.063278973,0.26309645,0.96269202,0
-0.8507871,-0.62160599,-0.82287765,-0.94137609,-0.33602649,0.029955596,0
-0.62947667,0.17939389,2.0004625,-0.063278973,0.26309645,0.96269202,0
0.66350216,0.38155657,-1.3474559,0.54249644,0.81872976,-0.1880936,0
-0.9219749,-0.2650941,-0.86052185,-0.99774134,0.0051061809,-0.066978335,0
0.2797935,-0.21285963,2.111146,-0.063278973,0.26309645,0.96269202,0
-0.20454407,-0.53867424,-1.9305432,0.063278973,-0.26309645,-0.96269202,0
0.99394286,0.24406439,-0.64422023,0.93738377,0.34671801,-0.033139974,0
1.0871747,-0.14845014,-1.0410928,0.98823875,0.15107539,0.023670435,0
-0.9804011,-0.34291548,0.36462051,-0.92924458,-0.36736715,0.039318174,0
0.949256,0.1508193,-1.4564461,0.85575366,0.51063335,-0.083302408,0
0.1052717,-0.63229632,-1.9380565,0.063278973,-0.26309645,-0.96269202,0
1.0056123,-0.13334298,0.10646677,0.97184134,-0.20314601,0.11939871,0
0.72903776,-0.50289714,0.40893382,0.7840699,-0.58368671,0.2110551,0
-1.0452576,0.030207396,0.13996071,-0.99606788,0.043281734,-0.077301383,0
-0.88644201,-0.54221851,-1.835646,-0.9967801,-0.064261794,-0.04795742,0
-0.29391932,-0.42273426,2.2005863,-0.063278973,0.26309645,0.96269202,0
0.57430065,-1.2166876,-1.7084415,0.063278973,-0.26309645,-0.96269202,0
-0.19876659,-0.70379174,-1.860213,0.063278973,-0.26309645,-0.96269202,0
-0.81561369,-0.5050416,0.87864137,-0.6853134,-0.71269035,0.14972633,0
-0.37367034,-0.80362183,0.9322648,-0.25551444,-0.93674481,0.23921001,0
0.41732308,-0.65355682,0.66741145,0.4951444,-0.82925284,0.25917506,0
-0.17002022,0.1358856,2.0558274,-0.063278973,0.26309645,0.96269202,0
0.5558275,1.0517294,0.99428403,0.7001797,0.69908124,-0.14502989,0
1.0314987,0.032166317,0.65601343,0.98389375,-0.14514253,0.10433894,0
0.2965216,1.2981677,1.2511245,0.31031787,0.92199504,-0.23157668,0
-0.19905782,-0.63506758,1.7983048,-0.094209254,-0.96189249,0.25668538,0
0.84825176,-0.50648475,-1.8714428,0.063278973,-0.26309645,-0.96269202,0
-0.47358656,0.34208643,1.9207548,-0.063278973,0.26309645,0.96269202,0
0.19616404,0.98565227,0.13135743,0.27474755,0.93194324,-0.23663351,0
0.14675283,-0.84282553,0.4174028,0.186885,-0.94443744,0.27039182,0
0.2816869,0.67081964,1.9449921,-0.063278973,0.26309645,0.96269202,0
-0.653705,0.33745852,-1.3874154,-0.77757567,0.59168112,-0.21281302,0
-0.73825949,0.34360075,-0.96580559,-0.83784151,0.51009768,-0.19447827,0
0.47312701,-1.1055613,-1.6478198,0.063278973,-0.26309645,-0.96269202,0
0.59520835,0.2051121,2.0650785,-0.063278973,0.26309645,0.96269202,0
-0.11080429,-1.1041014,-0.19902992,-0.22775167,-0.94297785,0.24273828,0
-0.49194676,-1.2100183,-1.4159725,-0.62037718,-0.76597685,0.16855747,0
0.55008948,-0.91334212,-0.4169817,0.49120194,-0.83148479,0.25952578,0
-0.39686203,0.034481525,1.9622302,-0.063278973,0.26309645,0.96269202,0
-0.90959656,-0.43606389,-0.85781896,-0.99412739,-0.10146773,-0.037614942,0
0.54997313,-0.65632784,0.41839701,0.5706619,-0.78182769,0.25117791,0
0.72156227,1.0235164,1.7204418,0.86323607,0.49850166,-0.079495102,0
-0.48346257,-0.76334029,0.8595733,-0.46656281,-0.86052096,0.2045061,0
-0.77150381,-0.75758326,-1.3495059,-0.88433969,-0.46185154,0.068091691,0
-0.48745608,-0.73882151,0.7227881,-0.39451241,-0.89265096,0.21802291,0
-0.74101597,1.0953089,1.8060899,-0.063278973,0.26309645,0.96269202,0
0.39027232,0.89910901,1.8128155,-0.063278973,0.26309645,0.96269202,0
-0.91727769,0.39688444,1.9568937,-0.063278973,0.26309645,0.96269202,0
-0.070779204,-0.23058295,-2.0992496,0.063278973,-0.26309645,-0.96269202,0
0.55582988,1.0604634,1.8398817,-0.063278973,0.26309645,0.96269202,0
-0.21092716,1.0777475,1.6913267,-0.063278973,0.26309645,0.96269202,0
0.041919902,-1.50316,-1.6749926,0.063278973,-0.26309645,-0.96269202,0
0.36947691,0.0010896921,-2.0625887,0.063278973,-0.26309645,-0.96269202,0
-0.85667634,-0.52009809,0.16831219,-0.88427663,-0.46196693,0.068127424,0
1.0549228,-0.39059192,-0.4088003,0.97434527,-0.19247085,0.11664581,0
-0.60953975,-0.99191439,-1.240905,-0.6507985,-0.7421881,0.16005655,0
0.87132168,0.56762278,0.26779428,0.88207662,0.46597099,-0.069366306,0
0.57938969,1.2596668,1.4350054,0.65953851,0.73498213,-0.15751269,0
0.80741549,-0.81151319,-1.7754518,0.063278973,-0.26309645,-0.96269202,0
0.42484307,-1.3784096,-1.6944009,0.063278973,-0.26309645,-0.96269202,0
0.00020582974,-1.3042986,-1.6570776,0.063278973,-0.26309645,-0.96269202,0
-0.58967096,-0.27038515,-2.1364632,0.063278973,-0.26309645,-0.96269202,0
-0.57061917,1.2095909,1.4821738,-0.46956664,0.84333134,-0.26134127,0
0.29139727,-0.66852987,-1.9502472,0.063278973,-0.26309645,-0.96269202,0
-0.66474044,0.23571527,-1.2658634,-0.77295959,0.59726238,-0.21403497,0
-0.87995219,0.95320463,1.6961527,-0.063278973,0.26309645,0.96269202,0
0.33114219,-0.096798182,-2.09782,0.063278973,-0.26309645,-0.96269202,0
-0.40431836,-1.2454082,-1.7460423,0.063278973,-0.26309645,-0.96269202,0
-0.89006281,-0.90847617,-1.5770686,-0.89901161,-0.43386674,0.059479252,0
-0.93936586,-0.2926544,0.26011193,-0.90173149,-0.42841354,0.057810172,0
0.081525505,-0.47451389,-1.9290581,0.063278973,-0.26309645,-0.96269202,0
-0.81789041,0.24884824,-0.44566041,-0.89546525,0.41090953,-0.17115861,0
-0.034219861,-0.55231965,2.0709734,0.11971539,-0.95565885,0.26904339,0
-1.0711637,0.33717871,1.8434891,-0.063278973,0.26309645,0.96269202,0
0.12154675,-0.76246595,-1.9009998,0.063278973,-0.26309645,-0.96269202,0
1.0338786,-0.64296007,-1.8059225,0.063278973,-0.26309645,-0.96269202,0
-0.922149,0.21765435,0.12554961,-0.97452801,0.19166926,-0.11643875,0
0.59689909,0.86075819,1.8222239,-0.063278973,0.26309645,0.96269202,0
1.003135,0.32076555,0.01799053,0.97019118,0.2423286,-0.0024546385,0
-0.44242525,0.50831604,1.8742155,-0.063278973,0.26309645,0.96269202,0
0.41903949,0.8124218,-0.20493048,0.4335615,0.87608957,-0.21093005,0
0.29049045,1.0315679,0.15630135,0.35003656,0.90919656,-0.22546819,0
0.13485679,-0.99977112,-1.7011898,0.063278973,-0.26309645,-0.96269202,0
-0.31524503,0.20078981,-2.0859182,0.063278973,-0.26309645,-0.96269202,0
0.72374952,0.65343821,1.8687757,-0.063278973,0.26309645,0.96269202,0
-0.14310279,1.3425715,1.2821229,-0.051528931,0.96247733,-0.26642483,0
-0.67266923,0.60017836,-0.19932592,-0.7508592,0.62289035,-0.21958613,0
0.36450177,-0.61998105,-1.8616261,0.063278973,-0.26309645,-0.96269202,0
-0.58631861,-0.40061474,1.6661056,-0.55393261,-0.81165409,0.18540822,0
-0.030487537,-0.84247839,-1.7680737,0.063278973,-0.26309645,-0.96269202,0
-0.58890975,0.28904021,1.8857455,-0.063278973,0.26309645,0.96269202,0
-1.0257193,-0.32789996,-0.71455914,-0.99160731,-0.12554726,-0.03086859,0
0.62352771,-0.94952589,-0.47898358,0.66091609,-0.71173549,0.23795485,0
-0.1015414,-0.82932311,0.95055544,-0.1108374,-0.96051049,0.25521475,0
0.38661754,-0.33291852,-1.9108572,0.063278973,-0.26309645,-0.96269202,0
-0.93574739,-0.052177638,-0.13782179,-0.99743342,-0.049052685,-0.052156866,0
-0.75999248,0.7612133,0.099383593,-0.73970294,0.63518566,-0.22221303,0
0.24568282,-1.362321,-1.4865,0.10605526,-0.95739025,0.2686187,0
-1.0503843,0.77066875,1.793698,-0.063278973,0.26309645,0.96269202,0
-0.036996603,0.011370897,2.0283892,-0.063278973,0.26309645,0.96269202,0
-0.46733296,-1.1701494,-1.7248808,0.063278973,-0.26309645,-0.96269202,0
-0.73427528,-1.0458871,-1.0712711,-0.71329695,-0.6865831,0.14075202,0
0.8602972,0.48263633,1.8047414,0.99634707,-0.038770914,0.076086998,0
-0.36710981,1.2019926,1.7886701,-0.063278973,0.26309645,0.96269202,0
0.52231991,-0.90622914,0.35276109,0.48313522,-0.83598059,0.26022422,0
-0.26864493,-0.90569842,-1.7867471,0.063278973,-0.26309645,-0.96269202,0
-0.24732184,-0.390782,2.1177032,-0.063278973,0.26309645,0.96269202,0
-0.75218445,-0.31343693,1.1813626,-0.75316417,-0.64547718,0.12689756,0
-0.064652562,0.077809572,-2.1881373,0.063278973,-0.26309645,-0.96269202,0
0.82269335,0.6543057,-0.086560629,0.81686962,0.56782395,-0.10148807,0
-0.039892435,0.89802539,1.7316537,-0.063278973,0.26309645,0.96269202,0
-0.44674221,-0.55393064,-1.90569,0.063278973,-0.26309645,-0.96269202,0
0.1414299,0.014352918,-2.0214837,0.063278973,-0.26309645,-0.96269202,0
0.5285337,0.21451998,1.9753553,-0.063278973,0.26309645,0.96269202,0
-0.88491446,-0.35490143,1.425172,-0.72138369,-0.67863691,0.13804881,0
-0.21890089,-1.3772203,-1.4487953,-0.29424298,-0.92666471,0.23390946,0
-0.9974857,0.10488179,-0.34643376,-0.96535027,0.22856766,-0.12591952,0
0.096817255,-0.42550492,-1.8521725,0.063278973,-0.26309645,-0.96269202,0
-0.27253342,-0.091476202,-2.113765,0.063278973,-0.26309645,-0.96269202,0
-0.25608647,-0.042688131,2.1025724,-0.063278973,0.26309645,0.96269202,0
0.74562579,0.79987961,1.8304464,-0.063278973,0.26309645,0.96269202,0
-0.59788013,-0.013921976,-2.2051809,0.063278973,-0.26309645,-0.96269202,0
-0.62374294,-0.20266235,-2.0346365,0.063278973,-0.26309645,-0.96269202,0
0.17808759,-0.40418625,2.1850207,-0.063278973,0.26309645,0.96269202,0
0.23668629,0.58616877,1.9988502,-0.063278973,0.26309645,0.96269202,0
0.20371497,-0.5006575,1.9920096,0.33549094,-0.90287942,0.26880234,0
0.18447495,-1.0050031,0.038106024,0.062396765,-0.96169502,0.26692539,0
0.76401269,0.71043575,1.9399074,-0.063278973,0.26309645,0.96269202,0
0.8063302,0.15345776,-1.9996841,0.063278973,-0.26309645,-0.96269202,0
0.13724649,-0.38764024,2.114594,-0.063278973,0.26309645,0.96269202,0
-0.014353514,0.061098337,-2.1843605,0.063278973,-0.26309645,-0.96269202,0
-0.51436418,-0.61846977,0.82624936,-0.45209056,-0.8675313,0.20737326,0
-0.73108137,0.5595665,1.8093418,-0.063278973,0.26309645,0.96269202,0
-0.55860513,-0.94874299,-0.50234228,-0.53361279,-0.82407796,0.19013922,0
-0.28312194,0.064121485,-2.1483088,0.063278973,-0.26309645,-0.96269202,0
-0.48507559,-0.34859478,-1.9735038,0.063278973,-0.26309645,-0.96269202,0
-0.93515712,-0.17535293,1.4573796,-0.88813674,-0.45482662,0.065922245,0
0.22637117,-0.052409291,-2.0399141,0.063278973,-0.26309645,-0.96269202,0
0.65019059,-1.3011918,-1.6183624,0.063278973,-0.26309645,-0.96269202,0
-0.057321429,-1.0565484,0.23282838,-0.073999941,-0.96320677,0.25837302,0
0.89887494,0.2803421,-1.4464839,0.75257683,0.64611971,-0.12711173,0
-0.46757948,-0.77681386,0.96897781,-0.43525094,-0.8753283,0.21061093,0
0.91544199,0.46001774,-0.68035388,0.82535982,0.55608582,-0.097722039,0
0.11364222,-0.34760368,2.0982707,-0.063278973,0.26309645,0.96269202,0
0.95666099,-0.14376277,-0.56416422,0.99733245,-0.018496007,0.070610821,0
0.55217719,1.1411947,0.8491686,0.62583792,0.76184928,-0.16707048,0
-0.038488258,-1.4394625,-1.5334723,-0.21400714,-0.94576323,0.24440297,0
0.15901107,0.54864526,1.9490352,-0.063278973,0.26309645,0.96269202,0
-0.6337989,0.79294771,-0.14404118,-0.53641599,0.80447125,-0.25511527,0
-0.77222329,0.12874037,-1.4816684,-0.82078612,0.53501683,-0.20016742,0
-0.75898123,-0.99669695,-1.3332236,-0.79691535,-0.5940001,0.10995343,0
0.67658472,-0.16715729,-1.9485672,0.063278973,-0.26309645,-0.96269202,0
-0.15272418,1.1011409,1.8392982,-0.063278973,0.26309645,0.96269202,0
-0.75502151,1.066709,1.2880689,-0.70013595,0.6757161,-0.23068893,0
0.91359454,0.31457996,-0.86708331,0.86129016,0.50169659,-0.080496132,0
0.75333601,0.71283287,0.51241076,0.84351337,0.52963269,-0.089299358,0
0.17461205,-0.86181355,0.44384098,0.089479566,-0.95924449,0.26803583,0
0.028068781,0.33332825,1.9998155,-0.063278973,0.26309645,0.96269202,0
0.11603349,0.31227875,2.0487957,-0.063278973,0.26309645,0.96269202,0
0.85663188,-0.41325343,0.2725594,0.85821652,-0.4779945,0.18704402,0
0.45092598,0.72473264,1.9932523,-0.063278973,0.26309645,0.96269202,0
0.9613241,-0.82287085,-1.3981687,0.89188659,-0.41792825,0.17284155,0
0.58816677,0.16717589,2.0482137,-0.063278973,0.26309645,0.96269202,0
0.82301384,-0.22470424,0.59772205,0.910209,-0.38038617,0.16378587,0
1.0726767,-0.27029914,0.045885324,0.95680976,-0.25826314,0.13347369,0
-0.25784606,-1.0511922,-1.7368895,0.063278973,-0.26309645,-0.96269202,0
-0.71831441,0.37173969,-0.62245524,-0.79071414,0.57532883,-0.20920765,0
-0.70755279,-0.38599789,-1.9604365,0.063278973,-0.26309645,-0.96269202,0
-0.4189243,-0.52846408,-1.9381469,0.063278973,-0.26309645,-0.96269202,0
-0.21247168,-1.2138751,-1.7244061,0.063278973,-0.26309645,-0.96269202,0
0.2768681,-1.3532922,-1.0944357,0.27113697,-0.92381084,0.2702927,0
-0.56459063,0.56116474,-1.0996741,-0.6007691,0.76022512,-0.24725312,0
0.27632117,0.058015585,-2.1165431,0.063278973,-0.26309645,-0.96269202,0
-0.075463891,-0.28958154,-1.9641935,0.063278973,-0.26309645,-0.96269202,0
-1.1520149,0.54034889,1.594232,-0.99685085,0.029531389,-0.073595047,0
-0.83802623,0.013122946,-0.77742898,-0.98243958,0.15323174,-0.10645413,0
0.67739362,-0.052168012,1.9480137,0.80662704,-0.55453038,0.2045697,0
0.95326054,0.48325244,0.67353576,0.97237998,0.23340315,0.00012850761,0
-0.64491063,0.48319614,1.9233236,-0.063278973,0.26309645,0.96269202,0
-0.55880076,0.13966846,-2.0765276,0.063278973,-0.26309645,-0.96269202,0
-0.2892293,-0.82902348,-1.8998029,0.063278973,-0.26309645,-0.96269202,0
-0.59126496,-0.72114474,0.83743799,-0.44345623,-0.87157679,0.20904636,0
-0.20105277,1.4126438,1.7737195,-0.063278973,0.26309645,0.96269202,0
-0.40834796,-0.60631543,1.455718,-0.2454474,-0.93909955,0.24051526,0
-0.015238881,0.42238998,-2.2015798,0.063278973,-0.26309645,-0.96269202,0
0.92488611,0.36634207,0.72866708,0.96053576,0.2778621,-0.012800276,0
-0.60227758,0.45842171,1.9478958,-0.063278973,0.26309645,0.96269202,0
-0.84761131,0.89817262,1.7607135,-0.063278973,0.26309645,0.96269202,0
-0.92413044,-0.32300627,0.088366926,-0.95068562,-0.30937046,0.022058785,0
0.22085065,0.75507545,1.9634211,-0.063278973,0.26309645,0.96269202,0
-0.28072488,-0.051793218,1.982101,-0.063278973,0.26309645,0.96269202,0
0.072222516,-1.3241005,-0.80717254,0.033639371,-0.96351486,0.26553243,0
0.11947128,1.2131486,0.64900208,0.10427195,0.96108866,-0.25580436,0
-0.44153047,-0.8942703,-1.9065388,0.063278973,-0.26309645,-0.96269202,0
0.6858359,0.15164268,2.0226421,-0.063278973,0.26309645,0.96269202,0
-0.99601126,-0.046280794,-0.60084349,-0.97865283,0.17263904,-0.11150914,0
0.31620359,-1.0624182,-1.8593024,0.063278973,-0.26309645,-0.96269202,0
-0.63783216,-0.25268435,2.0527723,-0.063278973,0.26309645,0.96269202,0
0.073136419,1.0166819,1.8619993,-0.063278973,0.26309645,0.96269202,0
0.84183884,0.057292461,1.5219655,0.92684126,-0.34221527,0.15444738,0
0.84198391,0.93803024,1.5568057,0.86524135,0.49517885,-0.07845521,0
-0.90629822,0.89103985,1.4170856,-0.83051664,0.5210011,-0.1969766,0
0.10262609,0.38120878,-2.1999552,0.063278973,-0.26309645,-0.96269202,0
-0.91660374,-0.33345222,-1.5601388,-0.99573302,0.048278064,-0.078644872,0
0.26384014,1.2268264,1.8525118,-0.063278973,0.26309645,0.96269202,0
-0.87814653,0.15518895,-0.24163496,-0.95306444,0.2702499,-0.13650346,0
0.76863045,-0.37232399,-1.9388394,0.063278973,-0.26309645,-0.96269202,0
-0.83526063,-0.44353533,-1.5239874,-0.9946546,0.062242031,-0.082390189,0
-0.10883427,0.094988823,-2.1377032,0.063278973,-0.26309645,-0.96269202,0
-0.94226635,-0.13294238,0.27863148,-0.99209708,-0.1213077,-0.032059371,0
-0.73253286,-0.21585262,1.9344016,-0.58180267,-0.79347634,0.17860843,0
-0.66832769,0.83357948,0.3306058,-0.64379895,0.72631371,-0.24081379,0
0.8071481,-0.96365273,-1.7379127,0.063278973,-0.26309645,-0.96269202,0
0.84787333,-0.72218609,-1.8529377,0.063278973,-0.26309645,-0.96269202,0
0.56369996,0.8936882,0.66345501,0.68896812,0.70939767,-0.14858623,0
0.6294753,0.16660953,2.0673873,-0.063278973,0.26309645,0.96269202,0
-0.55752826,-1.190805,-1.7145026,0.063278973,-0.26309645,-0.96269202,0
-0.59089637,1.1750066,1.7637205,-0.063278973,0.26309645,0.96269202,0
-0.25240695,-0.56951272,-1.8646832,0.063278973,-0.26309645,-0.96269202,0
-0.64249027,-0.1824435,2.0234663,-0.063278973,0.26309645,0.96269202,0
-0.18859351,0.29349709,2.0113409,-0.063278973,0.26309645,0.96269202,0
1.0652375,0.35874516,0.52251154,0.98254907,0.18548399,0.013892889,0
-0.53316671,1.3390421,1.6785097,-0.063278973,0.26309645,0.96269202,0
-0.78875834,0.12958151,-1.443826,-0.90544736,0.39054593,-0.16624951,0
-0.27425343,-0.79508764,0.61035407,-0.27536386,-0.93178272,0.23654914,0
-0.99290156,0.38105714,1.1798472,-0.99405056,0.069072396,-0.084217191,0
0.0254246,0.83208871,1.892719,-0.063278973,0.26309645,0.96269202,0
-0.48963201,-0.29126203,2.023098,-0.063278973,0.26309645,0.96269202,0
0.52769649,0.98816049,1.8439381,-0.063278973,0.26309645,0.96269202,0
0.0050513744,0.1257267,2.0997505,-0.063278973,0.26309645,0.96269202,0
-0.2708196,0.80278045,-0.63980019,-0.30585822,0.91309452,-0.26964635,0
-0.11499423,-0.83592498,0.86880594,-0.090275466,-0.96217966,0.2570225,0
-1.1363304,0.31074858,1.3818324,-0.99795258,-0.0077043772,-0.063491225,0
0.97101843,-0.026671052,-2.0167055,0.063278973,-0.26309645,-0.96269202,0
0.59862602,0.71659917,-0.53406429,0.6062699,0.77636421,-0.17232352,0
-0.23248184,-0.30857062,-2.0199146,0.063278973,-0.26309645,-0.96269202,0
0.19155908,0.65477407,-1.81595,0.12710863,0.95889401,-0.25370347,0
-0.86310834,0.48828715,0.16197765,-0.86477464,0.46704477,-0.18448251,0
1.0653136,-0.80592835,-1.7544503,0.063278973,-0.26309645,-0.96269202,0
0.80761099,0.62905264,1.9197259,-0.063278973,0.26309645,0.96269202,0
-0.8602553,-0.4523226,-1.9469738,0.063278973,-0.26309645,-0.96269202,0
-0.66877317,0.27698874,2.0088432,-0.063278973,0.26309645,0.96269202,0
0.44538182,-1.3698168,-1.4453232,0.42840987,-0.86406547,0.26430249,0
0.39701962,0.073619127,2.0332568,-0.063278973,0.26309645,0.96269202,0
0.98793983,0.66991639,0.97449541,0.9367516,0.34837496,-0.033634335,0
-0.80117416,-0.83950448,-1.0150478,-0.8544032,-0.51277953,0.083977707,0
-1.120909,0.11199641,1.2199694,-0.97989208,-0.19927993,-0.0099479556,0
-0.83306861,1.0121861,1.7753206,-0.063278973,0.26309645,0.96269202,0
1.0601977,-0.50811672,-1.9006033,0.063278973,-0.26309645,-0.96269202,0
-0.23088199,-0.51000488,-1.9599209,0.063278973,-0.26309645,-0.96269202,0
0.56840152,-0.0045188665,2.1790051,-0.063278973,0.26309645,0.96269202,0
-0.29079652,0.57898712,1.9411507,-0.063278973,0.26309645,0.96269202,0
-0.1207369,-0.90024984,0.50899458,-0.16763747,-0.9537214,0.2496258,0
-0.20832208,-1.2243814,-1.8299916,0.063278973,-0.26309645,-0.96269202,0
-0.96089792,-0.062999763,-0.75923222,-0.99741471,0.01624155,-0.070000112,0
0.68168145,0.57378781,1.9904512,-0.063278973,0.26309645,0.96269202,0
0.59413218,-0.11719084,1.8691027,0.7482757,-0.6257742,0.22020453,0
0.2025556,0.45070505,1.8942347,-0.063278973,0.26309645,0.96269202,0
0.17739242,0.54336452,1.8645233,-0.063278973,0.26309645,0.96269202,0
-0.81923693,1.1239686,1.464201,-0.70223266,0.67367989,-0.23027039,0
0.21081161,0.37460268,-2.1421201,0.059934378,0.96388602,-0.25948322,0
-0.32381678,0.44928831,-1.8546746,-0.51965541,0.81485313,-0.2568509,0
-1.1245065,0.35636389,1.6375384,-0.98441505,-0.17505002,-0.016867101,0
-0.8458606,0.87060082,1.0831981,-0.78460693,0.58301789,-0.21090758,0
-0.3733936,1.0337145,0.62006259,-0.37953338,0.88580412,-0.26703084,0
0.61928248,0.38078249,1.9976828,-0.063278973,0.26309645,0.96269202,0
-0.30782694,-1.3339798,-1.4628112,-0.50703496,-0.83933181,0.19605497,0
0.37626952,-0.083711386,2.066505,-0.063278973,0.26309645,0.96269202,0
-0.99988979,0.86843705,0.90693182,-0.87741697,0.44496953,-0.17928058,0
-1.0762875,0.04414928,0.86735111,-0.99215597,-0.12078649,-0.032205701,0
-0.95807123,0.022367239,1.9112276,-0.063278973,0.26309645,0.96269202,0
-0.81262392,0.73130333,1.8359814,-0.063278973,0.26309645,0.96269202,0
0.92555004,-0.93554795,-1.4520005,0.8839519,-0.43300965,0.17644161,0
-0.086058974,0.31900406,2.0145321,-0.063278973,0.26309645,0.96269202,0
0.48691365,-0.56398094,0.83893883,0.62737155,-0.73970556,0.24339384,0
0.89628065,-0.73353994,-1.8056265,0.063278973,-0.26309645,-0.96269202,0
0.59427464,0.34318721,2.0687466,-0.063278973,0.26309645,0.96269202,0
-0.54196221,1.3363242,1.0877503,-0.40493885,0.87488252,-0.26571602,0
0.79385555,-0.59674704,-0.047663212,0.76943123,-0.60147345,0.2149539,0
-0.14730984,0.96040022,-0.25214493,-0.035235167,0.96343488,-0.26561552,0
-0.26480317,0.35415661,-2.1777415,-0.26112807,0.92665493,-0.27041215,0
-0.5691151,0.91184223,1.8810604,-0.063278973,0.26309645,0.96269202,0
-0.28414303,-0.8086412,-1.8898246,0.063278973,-0.26309645,-0.96269202,0
-0.51772201,1.175921,0.6341098,-0.38489252,0.88356686,-0.26677167,0
0.73118788,0.88197064,1.3183594,0.84636211,0.52529967,-0.087927885,0
-0.067731738,1.3320727,1.710673,-0.063278973,0.26309645,0.96269202,0
-0.20184845,-1.2028414,-0.64305055,-0.21215004,-0.94612443,0.24462378,0
0.38058597,-1.4048289,-1.6461273,0.32353595,-0.90712112,0.26917583,0
-0.31729499,1.051097,0.12971973,-0.24499518,0.93101239,-0.2705425,0
-0.4466396,0.072919965,-2.1062768,0.063278973,-0.26309645,-0.96269202,0
0.93779254,-0.63066226,-0.68022954,0.92628181,-0.34357572,0.15478235,0
-0.18973553,0.33971381,-2.0883591,0.063278973,-0.26309645,-0.96269202,0
0.042800903,-0.29224038,2.2456937,-0.063278973,0.26309645,0.96269202,0
0.6961152,-0.1763314,-1.9305273,0.063278973,-0.26309645,-0.96269202,0
0.5506385,1.1046867,0.7489109,0.63856858,0.75198758,-0.16353855,0
-0.38734519,-1.2642739,-1.3328111,-0.53588736,-0.82272077,0.18961877,0
0.26097199,-1.4519418,-1.4334142,0.1566546,-0.95004869,0.26993829,0
0.25963932,-1.0810639,-1.7524176,0.063278973,-0.26309645,-0.96269202,0
-0.1902734,0.16900361,-2.1408052,0.063278973,-0.26309645,-0.96269202,0
-0.17242388,-1.2075377,-1.7134242,0.063278973,-0.26309645,-0.96269202,0
-0.18895662,-0.48172867,2.0840333,-0.11361194,-0.96025336,0.25496209,0
-0.20633435,0.48797801,-1.3184391,-0.32904276,0.90518767,-0.26900935,0
-0.10238965,-1.5675384,-1.7275608,0.063278973,-0.26309645,-0.96269202,0
0.95242244,0.10313749,-1.643892,0.85283518,0.51525545,-0.084757403,0
0.93453795,0.29140639,0.14173383,0.93302745,0.35794932,-0.036495715,0
-0.68364942,0.73375189,1.7576042,-0.063278973,0.26309645,0.96269202,0
-0.17146182,-0.89703023,0.54657447,-0.24304044,-0.93964648,0.24082294,0
-0.12216109,0.57146239,1.8132602,-0.063278973,0.26309645,0.96269202,0
0.036669731,-0.33363307,2.1321478,-0.063278973,0.26309645,0.96269202,0
0.69440854,0.44095266,-1.6898052,0.50775009,0.83893573,-0.19589971,0
0.072161078,0.006226182,2.1244376,-0.063278973,0.26309645,0.96269202,0
0.52821541,-0.24350119,2.164624,0.60670781,-0.75576484,0.24642456,0
0.57017201,0.13637292,2.0794928,-0.063278973,0.26309645,0.96269202,0
0.82689703,0.56829584,1.9214814,0.9979918,0.013943017,0.061788797,0
0.22920051,0.89406896,1.7476928,-0.063278973,0.26309645,0.96269202,0
-0.61222482,-1.076503,-1.3527756,-0.69779474,-0.70130354,0.14579399,0
0.91967857,0.24050081,-0.3822225,0.95668292,0.29066098,-0.016551435,0
-0.6277436,-0.18291581,-2.0166526,0.063278973,-0.26309645,-0.96269202,0
-0.86818534,0.26230621,1.9615934,-0.063278973,0.26309645,0.96269202,0
0.55436337,0.94400489,1.8497373,-0.063278973,0.26309645,0.96269202,0
0.47329181,0.2083652,2.0846019,-0.063278973,0.26309645,0.96269202,0
-0.81066376,0.90946794,1.7341268,-0.063278973,0.26309645,0.96269202,0
-1.0144067,0.50554144,0.80869901,-0.94694209,0.28874823,-0.14115644,0
0.65813416,0.9802084,0.98759592,0.77329016,0.6227172,-0.11935452,0
-0.10707074,0.9192099,-0.8311438,-0.083205998,0.959876,-0.26779604,0
-0.65794587,-0.37876999,2.2042875,-0.063278973,0.26309645,0.96269202,0
0.52997774,-0.49802572,1.1474786,0.62680244,-0.74015927,0.2434805,0
-0.35791481,0.27232659,1.8985121,-0.063278973,0.26309645,0.96269202,0
0.48411012,-0.76937413,-1.8900191,0.063278973,-0.26309645,-0.96269202,0
-0.21794099,-0.098539591,-2.1035612,0.063278973,-0.26309645,-0.96269202,0
0.012348711,0.36347413,1.9240221,-0.063278973,0.26309645,0.96269202,0
-0.90592551,-0.31210887,0.60516101,-0.82037592,-0.56302249,0.099945389,0
-0.53730482,0.7378732,1.8849378,-0.063278973,0.26309645,0.96269202,0
0.67621928,-1.2936766,-1.3931531,0.59986401,-0.76089901,0.24737781,0
-0.28882831,1.2175608,1.7687476,-0.063278973,0.26309645,0.96269202,0
0.36908871,0.092843533,2.062928,-0.063278973,0.26309645,0.96269202,0
-0.0099857822,-1.529767,-1.636975,0.063278973,-0.26309645,-0.96269202,0
-0.61498207,1.0491362,1.6800689,-0.063278973,0.26309645,0.96269202,0
-0.20376587,-0.78947186,-1.7976661,0.063278973,-0.26309645,-0.96269202,0
0.94070029,-0.23684919,-0.091555297,0.9648515,-0.23040664,0.12638932,0
0.33122909,-0.48690721,1.3998744,0.41157758,-0.8718949,0.26533574,0
-0.76528871,-0.46413481,-2.009059,0.063278973,-0.26309645,-0.96269202,0
0.9005909,0.0011599064,-1.794112,0.88077253,0.46832305,-0.070094794,0
0.19613749,1.1177402,0.54242963,0.24808311,0.93849349,-0.24017629,0
-0.25523359,0.92631018,1.7625003,-0.063278973,0.26309645,0.96269202,0
-0.32014459,0.8395108,1.8195662,-0.063278973,0.26309645,0.96269202,0
-0.88464963,0.5027554,1.8768314,-0.063278973,0.26309645,0.96269202,0
-0.73332143,-0.54829419,0.55614471,-0.78271616,-0.61153394,0.11567862,0
-0.48786366,-0.89115322,-1.9409961,0.063278973,-0.26309645,-0.96269202,0
-0.44513369,-0.38749325,2.1501703,-0.063278973,0.26309645,0.96269202,0
-0.833224,0.92738914,1.8299916,-0.063278973,0.26309645,0.96269202,0
-0.62661481,0.55498892,-1.0769573,-0.6224165,0.74363458,-0.24414188,0
0.47655046,-0.051528811,-2.0775812,0.063278973,-0.26309645,-0.96269202,0
-0.24260804,1.3922229,1.7442738,-0.063278973,0.26309645,0.96269202,0
-0.8475095,-0.43256754,-0.61124092,-0.96993059,-0.24336611,0.0027552843,0
1.0491803,-0.64382851,-1.6086853,0.98419851,-0.14339414,0.10388118,0
-0.91959965,0.22877109,1.9774168,-0.063278973,0.26309645,0.96269202,0
-0.95645064,-0.40645701,-0.48164278,-0.93785822,-0.34546781,0.032767087,0
-0.46527159,0.44649851,1.8677539,-0.063278973,0.26309645,0.96269202,0
0.86194921,-1.0301635,-1.7467575,0.063278973,-0.26309645,-0.96269202,0
-0.33945391,-1.1723752,-1.7153704,0.063278973,-0.26309645,-0.96269202,0
-0.49121734,-1.2259047,-1.0445093,-0.46954185,-0.85904175,0.20390597,0
0.40796626,-1.2317736,-0.94676685,0.35756907,-0.89460832,0.26799315,0
-0.19355917,-0.9324671,-1.9164288,0.063278973,-0.26309645,-0.96269202,0
0.70616931,-0.35691142,1.4235132,0.77546012,-0.59424931,0.21337587,0
-0.98524904,-0.038785726,-0.80646485,-0.99600202,0.044295996,-0.077574253,0
-1.0528543,0.65369689,1.9034197,-0.063278973,0.26309645,0.96269202,0
0.90507513,0.2834377,1.1750271,0.99799562,0.016061336,0.061210155,0
-0.60582507,0.051742196,-2.1135235,0.063278973,-0.26309645,-0.96269202,0
0.54207009,-0.64583087,-1.9025936,0.063278973,-0.26309645,-0.96269202,0
0.8693279,0.3843478,-1.0989151,0.83254755,0.54584217,-0.094450064,0
1.1192592,-0.27901232,-1.4501367,0.99664289,0.06687066,0.047235429,0
0.48800594,-1.1159024,-1.0523682,0.42295533,-0.86664295,0.26464838,0
-0.33981586,-0.88502371,0.11146009,-0.30404794,-0.92385089,0.23249599,0
0.83313102,0.9211424,1.8936383,0.90575087,0.42018732,-0.055297792,0
-0.65163904,-0.76236784,-1.9847044,0.063278973,-0.26309645,-0.96269202,0
0.58988082,-0.8809936,-1.703907,0.063278973,-0.26309645,-0.96269202,0
0.95623344,0.073301017,1.291581,0.94022363,-0.30772144,0.14590013,0
-0.1805703,1.0132585,-0.34136039,-0.18345159,0.94512147,-0.27035308,0
0.82675016,0.11105716,1.9718527,0.92553365,-0.34538609,0.15522796,0
0.071300805,0.60131729,1.8349304,-0.063278973,0.26309645,0.96269202,0
-0.84618443,0.85189998,1.8887788,-0.063278973,0.26309645,0.96269202,0
0.74350381,0.36855558,-0.55298913,0.83744329,0.5386951,-0.092175007,0
-0.094932437,-0.77669227,-1.8395405,0.063278973,-0.26309645,-0.96269202,0
-1.0375099,-0.10313416,0.34891391,-0.96186733,-0.27327615,0.01145947,0
-0.96475375,-0.44331044,-1.5196999,-0.99408185,-0.10196456,-0.037476182,0
-0.74797738,0.56582558,-0.062326968,-0.84150815,0.50451928,-0.19319475,0
-0.35603225,-0.57186615,1.8774877,-0.29962629,-0.92513299,0.23313701,0
-0.94845432,-0.34588206,-0.96405256,-0.97958934,-0.20078352,-0.0095170736,0
-0.72557056,0.98872316,1.8615601,-0.063278973,0.26309645,0.96269202,0
-0.63075387,-1.1844504,-1.7375541,-0.71904951,-0.68094987,0.13883439,0
-0.055656374,-1.0636464,0.096242368,0.02173084,-0.96403337,0.26489139,0
0.070727468,0.15626955,2.007508,-0.063278973,0.26309645,0.96269202,0
0.34198302,0.92044038,-0.19499138,0.26305735,0.9349094,-0.23821256,0
0.95230383,-0.51323366,-0.74939418,0.92937076,-0.33598793,0.15291178,0
0.73340631,-0.41092601,1.0566111,0.77242988,-0.59789759,0.21417385,0
-0.75857532,0.90351522,1.8780315,-0.063278973,0.26309645,0.96269202,0
-0.70051521,-0.94172168,-1.891642,0.063278973,-0.26309645,-0.96269202,0
0.27878904,-0.34376371,1.955548,0.44898131,-0.8539899,0.26290107,0
-0.084453866,-1.3786628,-1.4892697,-0.28278071,-0.92981875,0.23552489,0
0.60333776,-0.3119334,-1.9913763,0.063278973,-0.26309645,-0.96269202,0
0.20964062,-0.037749529,2.1902995,-0.063278973,0.26309645,0.96269202,0
-0.10811704,-0.12889504,-1.9760886,0.063278973,-0.26309645,-0.96269202,0
-0.33201903,0.96647859,-0.25483531,-0.35806948,0.89441413,-0.26797295,0
-0.20638549,0.12482369,-2.0734258,0.063278973,-0.26309645,-0.96269202,0
0.50410855,1.359571,1.6593666,0.64615905,0.74594402,-0.16138795,0
-0.1404407,0.44208872,-1.9011924,-0.22172627,0.93681073,-0.27059764,0
0.63434947,-0.90958017,-0.1394608,0.62211293,-0.74387354,0.24418741,0
-0.80848122,-0.05429697,-1.2908216,-0.95983958,0.24813643,-0.13090527,0
-0.80419934,0.45171088,-0.41787517,-0.77894342,0.59001148,-0.21244669,0
1.1000416,-0.54543912,-0.92679071,0.9745208,-0.19170097,0.11644697,0
-0.82526827,-0.041075468,-2.0737312,0.063278973,-0.26309645,-0.96269202,0
-0.043611258,1.347049,1.7221351,-0.063278973,0.26309645,0.96269202,0
0.27925193,0.090537548,2.063256,-0.063278973,0.26309645,0.96269202,0
-0.94892257,0.30190682,1.9641081,-0.063278973,0.26309645,0.96269202,0
0.89138734,0.57228434,0.80246902,0.88752717,0.45596415,-0.066273198,0
0.55143249,1.2061439,1.4837906,0.57517087,0.79792523,-0.18026021,0
-0.49419931,-0.65811634,-1.9872377,0.063278973,-0.26309645,-0.96269202,0
0.771402,-0.60945296,-1.9323713,0.063278973,-0.26309645,-0.96269202,0
0.33011454,0.74007314,-0.61672294,0.29906368,0.92529452,-0.23321816,0
-0.016777039,0.93979162,-0.51372641,0.016025007,0.96476877,-0.26261061,0
0.41231108,0.65516901,-0.884942,0.45905209,0.86419535,-0.20600396,0
-0.59098768,1.372862,1.6895403,-0.063278973,0.26309645,0.96269202,0
0.094492532,-1.4757836,-1.4459016,0.094932079,-0.95866436,0.26823574,0
0.7671755,-1.0816867,-1.658177,0.063278973,-0.26309645,-0.96269202,0
0.75184584,-0.45853543,-1.8751435,0.063278973,-0.26309645,-0.96269202,0
-0.35056531,-1.0792098,-0.12398013,-0.39298105,-0.89326096,0.21829033,0
-0.7157132,0.43460602,-1.1480316,-0.75866556,0.61403733,-0.21767992,0
0.21878576,0.44605041,-2.2765749,0.063278973,-0.26309645,-0.96269202,0
0.51587015,0.35186863,2.0332258,-0.063278973,0.26309645,0.96269202,0
0.34071684,1.0193678,0.51972282,0.39606905,0.89202797,-0.21775037,0
0.10938072,0.15063429,-2.0810635,0.063278973,-0.26309645,-0.96269202,0
0.60588384,-0.45984185,-1.887073,0.063278973,-0.26309645,-0.96269202,0
-0.47722971,-0.95894551,-0.63372517,-0.59298801,-0.78579193,0.1757731,0
0.36826015,0.99783099,1.8224287,-0.063278973,0.26309645,0.96269202,0
0.83612025,-0.32166183,0.6835503,0.84259546,-0.50284916,0.19280976,0
0.7048859,0.92936921,1.9615767,-0.063278973,0.26309645,0.96269202,0
-0.42639437,-1.0689198,-0.74720305,-0.57105774,-0.80064517,0.18127391,0
-0.063963592,-0.7933948,0.72029436,-0.041404784,-0.96448684,0.26086539,0
0.24383044,-0.075282812,-2.1254795,0.063278973,-0.26309645,-0.96269202,0
-0.72987282,-1.0112023,-1.7536337,0.063278973,-0.26309645,-0.96269202,0
-0.37066364,0.5247736,1.8145854,-0.063278973,0.26309645,0.96269202,0
0.31690282,1.2887561,1.7051907,-0.063278973,0.26309645,0.96269202,0
-0.97256517,0.087406039,0.87631685,-0.98316342,-0.18212336,-0.014851689,0
0.0025621653,0.40782905,-2.260108,0.063278973,-0.26309645,-0.96269202,0
0.33169797,0.86201739,1.9348478,-0.063278973,0.26309645,0.96269202,0
-0.6154595,-0.66750085,0.26009741,-0.62253648,-0.76435196,0.16797149,0
0.38591474,0.45513594,1.9600401,-0.063278973,0.26309645,0.96269202,0
-0.86432445,-0.49725986,-1.4852918,-0.98734421,-0.15706158,-0.021975696,0
0.16479993,1.1676332,0.40033284,0.12271154,0.95935678,-0.25411892,0
-0.92259455,-0.33929226,0.28571466,-0.95175076,-0.30614534,0.021107376,0
-0.58984196,-0.045941353,1.9477705,-0.063278973,0.26309645,0.96269202,0
-0.81106472,-0.31995714,-1.95079,0.063278973,-0.26309645,-0.96269202,0
-0.2869806,1.3226274,1.7956386,-0.063278973,0.26309645,0.96269202,0
0.47068715,-0.49089384,-1.8302956,0.063278973,-0.26309645,-0.96269202,0
0.9547047,-0.39471424,-2.0015495,0.063278973,-0.26309645,-0.96269202,0
0.50211102,0.89284658,1.870576,-0.063278973,0.26309645,0.96269202,0
-0.49830878,-1.1278074,-1.214658,-0.67394245,-0.7227217,0.15321523,0
-0.071315639,1.4058254,1.0551999,0.029173493,0.9647007,-0.26172775,0
-0.7870065,0.80314982,1.7724683,-0.063278973,0.26309645,0.96269202,0
-0.17899311,-1.4543848,-1.6919774,-0.21303767,-0.9459523,0.2445184,0
-0.56277847,-0.97665143,-0.95362937,-0.71066117,-0.68913269,0.14162207,0
-0.39421976,-0.55993903,-1.9636549,0.063278973,-0.26309645,-0.96269202,0
-0.31416723,-1.1777861,-0.38287282,-0.37422359,-0.9004966,0.22150072,0
-0.51074588,-1.0166569,-1.8091543,0.063278973,-0.26309645,-0.96269202,0
0.38232505,-0.95497906,-1.8071679,0.063278973,-0.26309645,-0.96269202,0
-0.41887811,1.2700779,1.2389646,-0.33213335,0.90408725,-0.26891178,0
-0.5437032,-0.93305337,-1.9112848,0.063278973,-0.26309645,-0.96269202,0
0.67972183,-0.12397039,-2.0193682,0.063278973,-0.26309645,-0.96269202,0
-0.14473975,0.37171686,-2.1874249,-0.25379601,0.92866975,-0.27048081,0
-0.72867924,-0.72342789,-2.0164485,0.063278973,-0.26309645,-0.96269202,0
-0.99370921,0.92177045,1.8297584,-0.063278973,0.26309645,0.96269202,0
-0.71103072,-0.06916821,2.0943787,-0.063278973,0.26309645,0.96269202,0
0.7780714,-0.95828724,-0.97762847,0.72766626,-0.64800483,0.22492522,0
-0.88857406,0.74883962,0.65546727,-0.86930263,0.45929053,-0.18266094,0
-0.20432562,0.599666,-1.312747,-0.37996119,0.88562679,-0.26701051,0
0.21807882,-1.1057273,0.048011184,0.17249131,-0.94722468,0.27020746,0
0.23593177,1.3184102,0.99656135,0.38016564,0.8982513,-0.22049651,0
-0.78561097,-0.99038875,-1.909688,0.063278973,-0.26309645,-0.96269202,0
0.30485523,0.91450512,-0.20345649,0.38185889,0.89760345,-0.22020817,0
0.14673626,0.95589495,-0.40038455,0.079814136,0.96286964,-0.25789869,0
0.3518759,0.26582706,-2.1323342,0.063278973,-0.26309645,-0.96269202,0
0.20324653,-0.82179075,0.68436897,0.17489392,-0.94677413,0.27024215,0
-0.55989319,-0.94489461,-0.72925085,-0.686885,-0.71127868,0.14923723,0
0.88115239,0.20463693,-2.1061745,0.063278973,-0.26309645,-0.96269202,0
-0.56191492,1.0521774,1.8380507,-0.063278973,0.26309645,0.96269202,0
-0.53259766,-1.0680872,-0.77970982,-0.58840054,-0.7889713,0.17694356,0
0.56559873,1.0018072,0.47563303,0.59680152,0.7831192,-0.17479201,0
0.97821391,0.040478587,-1.2997463,0.92561436,0.37613559,-0.041953117,0
0.15341261,1.1995854,0.41478908,0.14804643,0.95642716,-0.25165302,0
-0.085062444,-0.74857378,-1.8443966,0.063278973,-0.26309645,-0.96269202,0
-0.20260727,1.3530236,1.4089583,-0.1180675,0.95587742,-0.26899475,0
0.13033706,-0.81634545,0.90245157,0.20470032,-0.94069439,0.27053982,0
0.56679225,-0.060940266,2.134973,-0.063278973,0.26309645,0.96269202,0
0.88414037,0.15259433,-2.0747581,0.68635279,0.71175736,-0.14940301,0
0.68209243,0.71001041,1.9366516,-0.063278973,0.26309645,0.96269202,0
0.48993558,0.84508562,1.9642152,-0.063278973,0.26309645,0.96269202,0
-1.0932906,0.17059183,0.6738798,-0.99754196,0.012414902,-0.068962693,0
-0.36346799,0.55216587,1.9379493,-0.063278973,0.26309645,0.96269202,0
-0.91265506,0.16008401,0.27686042,-0.99450541,0.063982219,-0.082855999,0
-0.64493412,1.0813973,0.51234335,-0.50616598,0.82289058,-0.25816071,0
0.28534564,-1.0555836,-0.18309963,0.37636667,-0.8871094,0.26717943,0
-0.35599136,0.54517984,1.8455316,-0.063278973,0.26309645,0.96269202,0
1.0166725,-0.62195468,-0.84512627,0.93433857,-0.32337844,0.14979213,0
0.40503496,-1.2269168,-0.79701328,0.2307227,-0.93463647,0.27059484,0
-0.56181669,-1.1393781,-1.6023673,-0.61657917,-0.76881206,0.16958198,0
-0.24360849,1.2813271,1.669162,-0.063278973,0.26309645,0.96269202,0
0.97206688,-0.63032258,-0.84599876,0.94878042,-0.28332502,0.13979512,0
-0.19093877,0.83013403,-0.70005053,-0.17599428,0.94656575,-0.27025765,0
0.57432127,-0.11321509,-2.0118015,0.063278973,-0.26309645,-0.96269202,0
-0.86518353,1.0082595,1.2854562,-0.77756137,0.59169859,-0.21281683,0
-0.56583661,0.16807592,1.8942447,-0.063278973,0.26309645,0.96269202,0
1.1082965,-0.033054948,-0.46074069,0.9971537,0.056287646,0.050161242,0
0.74377131,1.0024488,1.7843815,-0.063278973,0.26309645,0.96269202,0
-0.70970464,0.28767419,1.9875004,-0.063278973,0.26309645,0.96269202,0
-0.37883765,0.31536663,1.8646773,-0.063278973,0.26309645,0.96269202,0
0.59051955,1.0725005,1.6852378,0.72808254,0.67190933,-0.13576989,0
-0.73635453,-0.9140411,-1.8667523,0.063278973,-0.26309645,-0.96269202,0
0.98840171,-0.58507836,-1.7665178,0.063278973,-0.26309645,-0.96269202,0
0.72758448,0.65060091,-0.16440369,0.76563239,0.63155097,-0.12227207,0
-1.1191194,0.39560854,1.2661994,-0.99799198,-0.019371599,-0.060305238,0
0.19347149,-0.70724094,-1.8235277,0.063278973,-0.26309645,-0.96269202,0
0.637299,0.9100281,0.019241184,0.61035615,0.77339566,-0.17124367,0
-0.98804808,0.062909693,-0.53789413,-0.99138767,0.094251275,-0.090923369,0
0.27405649,0.089236617,2.1566758,-0.063278973,0.26309645,0.96269202,0
0.11274061,1.1223543,1.7539885,-0.063278973,0.26309645,0.96269202,0
0.82530892,0.044861734,1.3272767,0.96093595,-0.24436784,0.12994748,0
0.81420678,0.6686933,1.894876,-0.063278973,0.26309645,0.96269202,0
0.87419128,-1.0379926,-1.3578283,0.75054085,-0.62324685,0.21966261,0
-0.68735927,0.63809001,-0.048499465,-0.68259519,0.69229764,-0.23406756,0
0.56845307,0.65000886,-0.52841908,0.56569505,0.80414701,-0.18258339,0
0.32300133,-1.1050669,-0.45440733,0.3326259,-0.90391082,0.26889592,0
-0.67540246,1.3215641,1.700685,-0.48015442,0.83761799,-0.26047581,0
-0.44427949,0.47240484,-1.7141556,-0.45024621,0.85335183,-0.26280987,0
0.97173154,-0.10675678,0.2372275,0.98044389,-0.16372836,0.1091916,0
-1.0187066,0.38229215,1.0288931,-0.99250162,0.084489614,-0.088328779,0
-0.57967091,-0.23768926,-2.0969796,0.063278973,-0.26309645,-0.96269202,0
-0.60299015,-0.18743837,-2.0066056,0.063278973,-0.26309645,-0.96269202,0
0.080153644,1.297974,0.67417872,0.11620533,0.96000612,-0.25472414,0
0.22906819,1.1198407,1.7320297,-0.063278973,0.26309645,0.96269202,0
-0.56666058,-1.1227605,-0.84345025,-0.60040605,-0.78056777,0.17385776,0
0.84451604,0.50869524,-0.30130756,0.82547909,0.55591828,-0.097668439,0
0.72718918,0.55210012,0.095006414,0.83235824,0.5461157,-0.094537266,0
0.072884977,-0.49347901,-1.8986557,0.063278973,-0.26309645,-0.96269202,0
-0.4974941,0.7211808,1.9162121,-0.063278973,0.26309645,0.96269202,0
0.070241392,-0.55406702,-1.8979632,0.063278973,-0.26309645,-0.96269202,0
0.16525912,0.57892859,-1.8254538,0.013279438,0.96476185,-0.26278919,0
-0.57948303,-0.51941848,-1.9653456,0.063278973,-0.26309645,-0.96269202,0
-0.38888645,-0.7170012,1.1001015,-0.40183264,-0.88969481,0.21673387,0
-0.059154317,1.3730749,1.2902796,-0.017366052,0.96418893,-0.26464701,0
-1.0328739,0.69824791,1.8098021,-0.063278973,0.26309645,0.96269202,0
0.8796984,-0.95079094,-0.7338779,0.7771132,-0.59224403,0.21293652,0
0.48355699,0.47016549,-2.1543772,0.28138781,0.93019223,-0.23571852,0
-0.76432157,-1.0060079,-1.9095527,0.063278973,-0.26309645,-0.96269202,0
0.4759016,0.10454834,-2.1245503,0.063278973,-0.26309645,-0.96269202,0
0.53771347,0.59338892,1.9652249,-0.063278973,0.26309645,0.96269202,0
