-0.036400199,-3.6535032,-1.6936214,-0.17893291,-0.94612432,-0.26987335,0
1.1212999,3.9022527,0.35056001,0.17893291,0.94612432,0.26987335,0
-1.1349325,-0.937729,-0.081839323,-0.96461493,0.114714,0.23739892,0
0.24168098,0.73680532,1.209,-0.051120222,-0.26498911,0.96289533,0
-0.30141884,-0.63170612,-1.2827647,-0.050959468,0.28284439,-0.95781106,0
0.45625091,-0.55597121,-1.0315727,0.51379263,0.14406765,-0.84573132,0
0.38020188,4.1221189,0.12475604,-0.38194567,0.31958634,-0.86716902,0
1.00833,3.8991332,0.44625705,0.17893291,0.94612432,0.26987335,0
1.0898464,0.4995802,-0.045667946,0.98059636,-0.14917159,-0.12719333,0
1.4258854,3.5704513,1.468834,0.17893291,0.94612432,0.26987335,0
0.49558705,4.1226315,0.14040571,0.17893291,0.94612432,0.26987335,0
-0.55406177,-3.8156135,-0.73680198,-0.17893291,-0.94612432,-0.26987335,0
-0.58480811,-3.6109595,-1.9284706,-0.17893291,-0.94612432,-0.26987335,0
-1.1245205,-3.5805497,-1.8693955,-0.17893291,-0.94612432,-0.26987335,0
0.025044203,3.8260987,1.3684261,0.17893291,0.94612432,0.26987335,0
1.6048133,3.6775136,0.759323,0.17893291,0.94612432,0.26987335,0
-0.98041153,0.063569896,0.40955091,-0.89935201,0.04606694,0.43479145,0
-0.13952617,-3.9414213,-0.81808859,-0.17893291,-0.94612432,-0.26987335,0
0.046206355,-3.8910146,-1.4230934,-0.17893291,-0.94612432,-0.26987335,0
-0.11862279,-4.0231714,-0.67026365,-0.17893291,-0.94612432,-0.26987335,0
0.40904871,3.8831677,1.0317767,0.17893291,0.94612432,0.26987335,0
0.13961905,0.68037021,1.250145,-0.07763654,-0.2598668,0.96251839,0
0.0093604252,-3.9887006,-0.56853747,-0.17893291,-0.94612432,-0.26987335,0
0.94255269,0.11056301,0.28871107,0.93499267,-0.24889743,0.25266296,0
0.30637681,-2.8029509,-1.477978,0.81578392,0.010660253,-0.57825834,0
-1.1238269,-3.7342434,-1.21022,-0.17893291,-0.94612432,-0.26987335,0
-0.45658755,-3.6334741,-1.7189049,-0.17893291,-0.94612432,-0.26987335,0
-0.22069633,-3.9408531,-0.12345946,0.42396578,-0.32167411,0.84662795,0
-1.527123,-3.7439384,-0.87263912,-0.17893291,-0.94612432,-0.26987335,0
-0.42461181,2.2088964,1.1740197,-0.82640886,-0.0043138526,0.56305373,0
-0.50614953,-3.5992191,-1.8862267,-0.17893291,-0.94612432,-0.26987335,0
0.76010591,3.776917,1.0095481,0.17893291,0.94612432,0.26987335,0
0.060010925,-3.9618068,-0.68160552,-0.17893291,-0.94612432,-0.26987335,0
0.71775728,3.8496516,0.60832602,0.17893291,0.94612432,0.26987335,0
0.39564484,-2.436904,-0.21647698,0.84106964,-0.28941688,0.45698965,0
0.13723025,-4.0593729,-0.78333282,0.91931272,-0.25849873,0.29671949,0
0.56721103,3.9832716,0.52550709,0.17893291,0.94612432,0.26987335,0
1.1785617,3.7879682,0.9918983,0.17893291,0.94612432,0.26987335,0
0.34777343,-0.33032644,-0.9553386,0.52666575,0.13958028,-0.83853465,0
-0.61675501,-3.9615443,-0.42820293,-0.17893291,-0.94612432,-0.26987335,0
-0.73526788,-1.0187905,0.52600843,-0.62857479,-0.10108667,0.77115172,0
-1.0114341,-3.6114328,-1.2806653,-0.17893291,-0.94612432,-0.26987335,0
0.44350934,-1.1870143,0.43378794,0.6078856,-0.32199413,0.7258063,0
-0.17817391,-4.1169047,-0.49145865,-0.17893291,-0.94612432,-0.26987335,0
1.2814003,1.0547165,0.50321519,0.95925349,-0.2287305,0.16587591,0
0.99359334,3.842546,0.67126042,0.17893291,0.94612432,0.26987335,0
-0.55096108,-1.7479943,0.50828332,-0.27925169,-0.21418034,0.93602633,0
0.74960941,3.7857077,0.77646005,0.17893291,0.94612432,0.26987335,0
-0.71515101,0.86211061,-0.28526455,-0.86169791,0.28308564,-0.42111647,0
-0.45642895,-0.98589069,0.63883805,-0.32681435,-0.20156746,0.9233433,0
-0.61653948,1.8032514,0.73690397,-0.94170141,0.08525981,0.32546747,0
-0.86568379,-3.4855373,-1.7863505,-0.17893291,-0.94612432,-0.26987335,0
0.94823647,3.5305147,1.9087523,0.17893291,0.94612432,0.26987335,0
-1.2796576,-2.8595352,-0.080306731,-0.73105299,-0.055717491,0.68004167,0
-0.032363713,4.0257335,1.012907,0.17893291,0.94612432,0.26987335,0
-0.21570218,3.096354,1.3486847,-0.84010035,0.0041625388,0.5424149,0
-0.6799531,2.1842864,0.44665396,-0.97835451,0.20008756,-0.052794755,0
0.59747362,1.3944083,-0.61640567,0.33994895,0.19795141,-0.9193747,0
0.56225079,-2.8751655,-0.77537447,0.98333275,-0.18096521,-0.017545223,0
1.6300449,3.5610092,0.9925707,0.17893291,0.94612432,0.26987335,0
0.73472756,2.6266701,-0.21357299,0.23370898,0.22557501,-0.94577801,0
-0.78344309,-3.2381618,0.040568173,-0.21361601,-0.23039693,0.94936055,0
-0.48762298,1.5015246,1.1166933,-0.80308187,-0.018007979,0.59559625,0
0.96693867,3.1429162,-0.091471687,0.45079917,0.16497099,-0.87724823,0
0.18929216,-0.82356501,0.80551583,0.18853968,-0.30219066,0.93441617,0
1.1256896,2.4730756,1.5464028,0.50706959,-0.32374617,0.79879212,0
0.35358831,3.700536,1.5727068,0.17893291,0.94612432,0.26987335,0
0.66284341,2.3134832,1.5679803,0.19646734,-0.30313617,0.93247473,0
-0.96519047,-2.0565393,0.28495964,-0.64081281,-0.096065536,0.76166266,0
1.104516,3.8386931,0.80717355,0.17893291,0.94612432,0.26987335,0
-1.4446949,-3.8555684,-0.70940596,-0.17893291,-0.94612432,-0.26987335,0
0.31333968,-2.3982189,-0.09148252,0.82824385,-0.29290503,0.47772241,0
-0.33974782,3.631722,0.74332273,-0.96101356,0.22684437,-0.15809655,0
-0.38681436,-3.6162705,-1.7887384,-0.17893291,-0.94612432,-0.26987335,0
-0.114797,-3.3617265,-0.057959378,0.52336395,-0.32380328,0.78818882,0
-1.1318384,-2.576169,-0.075028136,-0.71378112,-0.063947603,0.69744325,0
0.9471525,3.6038585,1.7838721,0.17893291,0.94612432,0.26987335,0
-1.0437765,-3.4046605,-1.9196998,-0.17893291,-0.94612432,-0.26987335,0
0.98666638,4.0082846,0.22441557,0.17893291,0.94612432,0.26987335,0
-1.5691444,-3.6169567,-1.048476,-0.17893291,-0.94612432,-0.26987335,0
1.368041,3.7580614,0.49700767,0.17893291,0.94612432,0.26987335,0
0.60900182,-1.3904812,-0.10678232,0.94861543,-0.23866725,0.20776558,0
-0.55103964,-3.514219,-1.8335552,-0.17893291,-0.94612432,-0.26987335,0
1.4674988,3.7637951,0.49513981,0.17893291,0.94612432,0.26987335,0
0.5823971,3.8233819,1.1828908,0.17893291,0.94612432,0.26987335,0
-0.55837834,-1.8309824,0.57537359,-0.27268219,-0.21586451,0.93757498,0
-0.12560308,-2.8742714,-1.727613,0.4991892,0.14906657,-0.85357422,0
0.28296256,-1.1954162,-1.2721158,0.47859436,0.15595663,-0.86407447,0
-0.56308103,-3.8656549,-1.2092882,-0.17893291,-0.94612432,-0.26987335,0
0.83638847,0.28725332,-0.67611575,0.68115425,0.078801781,-0.72788662,0
0.70604628,3.9429717,0.86947316,0.17893291,0.94612432,0.26987335,0
-0.065861136,3.3559525,0.26287061,-0.64462787,0.31996155,-0.69431937,0
-1.2468204,-3.8828621,-0.47367939,-0.17893291,-0.94612432,-0.26987335,0
1.2739954,1.45794,0.12482485,0.97046143,-0.12460946,-0.20658374,0
0.56201112,3.6270289,2.0550263,0.17893291,0.94612432,0.26987335,0
-1.0643852,-0.58996063,0.28967538,-0.91475576,0.058996432,0.39967608,0
-0.12717432,-0.86684585,-1.2202536,0.14138752,0.24672544,-0.9587158,0
-0.94606757,-3.7783451,-1.2845113,-0.17893291,-0.94612432,-0.26987335,0
-0.56008893,-2.1474576,0.34403819,-0.24781835,-0.22211455,0.94300115,0
-0.83219624,-0.23264048,0.6753419,-0.68425548,-0.07742618,0.72512025,0
0.022989094,0.3490853,-0.99329162,0.017999828,0.27110624,-0.96238112,0
1.5095015,3.267839,0.36502182,0.8236838,0.0059600137,-0.56701791,0
-1.5646646,-3.7648315,-0.68456733,-0.17893291,-0.94612432,-0.26987335,0
0.18147045,1.1977503,1.4953029,-0.085105598,-0.25838771,0.96228516,0
-0.84682029,-4.0042162,-0.067584515,-0.17893291,-0.94612432,-0.26987335,0
-0.69459653,-3.7034802,-1.342634,-0.17893291,-0.94612432,-0.26987335,0
-0.73857212,0.060538113,-0.80080175,-0.62114352,0.32135642,-0.71478021,0
0.083293796,-2.9501579,-0.047233224,0.56015795,-0.32346886,0.7626211,0
-0.34462997,0.23305126,-0.85124207,-0.39342198,0.32022166,-0.8617872,0
1.0599079,1.1498963,-0.31551754,0.81967396,0.0083588213,-0.57276911,0
-0.86203361,-3.5331626,-1.7582617,-0.17893291,-0.94612432,-0.26987335,0
-0.029496074,-1.102651,-1.223663,0.24539602,0.22271307,-0.94349331,0
0.96454155,3.2336445,1.8317406,0.32814363,-0.31598377,0.89021116,0
0.66639274,-1.8612195,-0.46429759,0.97305691,-0.21071941,0.093580365,0
-0.93144029,-2.1461167,0.26549962,-0.59505904,-0.11437102,0.79550225,0
1.2076893,3.7938714,0.44223735,0.17893291,0.94612432,0.26987335,0
0.61205578,-0.7936483,0.46627277,0.77585983,-0.30436561,0.55263293,0
0.15098517,-3.0737796,-0.13420737,0.63907099,-0.32032329,0.69927204,0
1.4290326,3.6446867,1.2505331,0.17893291,0.94612432,0.26987335,0
-0.59944785,-2.0508208,0.47625035,-0.2325716,-0.2258513,0.94599235,0
-1.049172,-3.3982847,-1.8509657,-0.17893291,-0.94612432,-0.26987335,0
0.94467241,0.53783798,-0.45689026,0.84238756,-0.0056140833,-0.53884268,0
-1.3080683,-3.7575483,-0.50990027,-0.17893291,-0.94612432,-0.26987335,0
-0.40875751,2.295702,1.1601641,-0.80934232,-0.014417578,0.58715993,0
1.456531,2.9484091,0.81155562,0.98372537,-0.16748798,-0.065054119,0
-0.018824995,-3.9020884,-0.97728354,-0.17893291,-0.94612432,-0.26987335,0
0.8048932,-0.83473617,-0.39554125,0.97611833,-0.13637027,-0.16910315,0
-0.058409125,-4.0249271,-0.45832157,-0.17893291,-0.94612432,-0.26987335,0
0.45262486,-2.3006341,-0.15293741,0.81677204,-0.29577234,0.49538064,0
0.36726952,3.8799057,1.2732743,0.17893291,0.94612432,0.26987335,0
-0.82500911,-1.2927873,-1.2876616,-0.41940036,0.32147947,-0.84897244,0
0.070119873,4.0634933,0.81594622,0.17893291,0.94612432,0.26987335,0
1.0367868,0.36922002,0.026001453,0.98341507,-0.18025059,-0.020105183,0
0.63816452,2.5460584,-0.281692,0.13407207,0.24829321,-0.95936179,0
-0.3381041,2.3520353,-0.13867283,-0.64415175,0.31999335,-0.69474649,0
-1.2350509,-3.2846007,-1.7959391,-0.62625498,0.32108223,-0.71043003,0
-1.0591495,-3.4380071,-1.9785471,-0.17893291,-0.94612432,-0.26987335,0
0.87708586,-0.14440458,-0.31706572,0.95870274,-0.10603563,-0.26390362,0
0.64780354,-1.3072697,-0.039904475,0.91209519,-0.26235926,0.31503904,0
0.85553926,3.5469429,1.6113739,0.17893291,0.94612432,0.26987335,0
-0.95329159,-4.0049644,-0.47958982,-0.17893291,-0.94612432,-0.26987335,0
-0.062796474,-1.4215856,0.59582555,0.23114422,-0.30704811,0.92319757,0
1.3968455,2.498014,1.3834295,0.74038017,-0.31013095,0.59636903,0
0.97015512,-0.18002562,-0.1592387,0.9813351,-0.15198466,-0.11782104,0
-0.15724272,-3.9575927,-0.51342189,-0.17893291,-0.94612432,-0.26987335,0
-0.83370805,-3.4880264,-1.986908,-0.17893291,-0.94612432,-0.26987335,0
-0.70956969,-3.6437545,-1.9066933,-0.17893291,-0.94612432,-0.26987335,0
0.1002295,3.7564826,1.6489471,0.17893291,0.94612432,0.26987335,0
-0.059429586,0.39590579,-0.84510189,-0.12497842,0.29393587,-0.9476192,0
0.79674679,3.9041755,0.24159032,0.17893291,0.94612432,0.26987335,0
-1.130643,-3.7740121,-0.48184234,-0.17893291,-0.94612432,-0.26987335,0
-0.48660639,-3.9502997,-0.86452144,-0.17893291,-0.94612432,-0.26987335,0
0.55463809,3.7605333,0.91335768,0.17893291,0.94612432,0.26987335,0
-1.280066,-3.5220771,-1.649569,-0.17893291,-0.94612432,-0.26987335,0
0.56530517,-1.8142029,0.072227359,0.79778504,-0.3000536,0.52297872,0
0.32239527,0.29455078,-0.94384587,0.30522019,0.20738626,-0.92942536,0
0.44917804,-1.9519486,-1.0862806,0.80054092,0.019448575,-0.59896207,0
-0.21827197,-3.6853855,-1.6236515,-0.17893291,-0.94612432,-0.26987335,0
0.28935549,3.86269,1.360998,0.17893291,0.94612432,0.26987335,0
-0.62317312,0.57395214,0.77192676,-0.82373661,-0.0059280731,0.56694114,0
0.25434455,4.038866,0.71322972,0.17893291,0.94612432,0.26987335,0
0.54611427,3.60726,1.4488574,0.17893291,0.94612432,0.26987335,0
-0.97488177,-1.8810182,-1.4417069,-0.60378247,0.32217056,-0.72914535,0
-0.97848761,-2.3175333,-1.4900973,-0.479835,0.32338572,-0.81558573,0
0.75481933,3.8895097,1.0350678,0.17893291,0.94612432,0.26987335,0
-0.27669716,2.8860247,1.4706407,-0.76604497,-0.038149957,0.64165378,0
-1.2067341,-3.5169411,-1.9114628,-0.17893291,-0.94612432,-0.26987335,0
-0.0042894781,3.9080276,0.89852315,0.17893291,0.94612432,0.26987335,0
1.5413301,3.5654173,0.57367581,0.91326791,-0.05769489,-0.4032526,0
0.34540647,2.9240339,-0.14401853,-0.24527231,0.30853605,-0.91904676,0
-1.3299116,-2.1872225,-1.2397374,-0.80914372,0.29755852,-0.5067004,0
-0.031126738,3.7065699,1.8396505,-0.63973242,-0.096512645,0.76251388,0
1.0820298,1.1199389,-0.3207882,0.82119125,0.007454291,-0.57060409,0
0.63280904,3.6495316,1.3128315,0.17893291,0.94612432,0.26987335,0
-0.93621379,-3.7333078,-0.94177496,-0.17893291,-0.94612432,-0.26987335,0
0.139036,-4.0452404,-0.85923755,0.92795229,-0.25344142,0.27326125,0
-1.3660536,-1.3731558,-0.65524036,-0.95921069,0.22877541,-0.16606176,0
-0.77418292,0.64349711,0.78554857,-0.82177049,-0.0071079247,0.56977391,0
0.93246216,-0.72562587,0.086436927,0.9607693,-0.22711119,0.15919387,0
-1.3239371,-3.5590992,-1.8181713,-0.17893291,-0.94612432,-0.26987335,0
1.3269111,3.7543602,1.0961936,0.17893291,0.94612432,0.26987335,0
-0.11476737,1.5662479,-0.50473714,-0.28547058,0.31242648,-0.90603328,0
-1.7258596,-3.6419606,-1.1126565,-0.17893291,-0.94612432,-0.26987335,0
0.21008262,3.8378415,1.3469104,0.17893291,0.94612432,0.26987335,0
1.1588284,1.2161616,0.63507146,0.90919131,-0.26383114,0.32212466,0
-1.3500876,-2.4887722,-0.028936148,-0.76596928,-0.038189337,0.64174169,0
1.6319716,3.4481108,0.80034971,0.98161823,-0.15316597,-0.11386728,0
-0.83467048,-2.7672353,-1.7696339,-0.158526,0.29844111,-0.94117075,0
0.45330861,3.6548119,1.8553547,0.17893291,0.94612432,0.26987335,0
-0.5824824,-3.6675613,-0.021125734,-0.065882564,-0.26216212,0.96277225,0
-0.15133224,-3.9441352,-0.63906419,-0.17893291,-0.94612432,-0.26987335,0
-0.84328413,-4.0630555,-0.037167251,-0.17893291,-0.94612432,-0.26987335,0
0.44858778,-2.4904325,-1.1685777,0.86028206,-0.017361624,-0.50952244,0
0.077935487,3.8775957,0.87638235,0.17893291,0.94612432,0.26987335,0
-0.029822364,-3.9828107,-0.76224548,-0.17893291,-0.94612432,-0.26987335,0
0.5101124,-1.7899189,-0.97235686,0.9057945,-0.051334608,-0.42059559,0
-1.1836023,-1.8134857,0.085587233,-0.774113,-0.033909913,0.63213837,0
0.47168863,-3.0438037,-0.91856444,0.97779322,-0.14059094,-0.15541685,0
1.3363186,3.780745,0.87601495,0.17893291,0.94612432,0.26987335,0
-0.48418617,0.74915087,-0.62480676,-0.61814404,0.3215099,-0.71730697,0
-0.2751773,-4.0305014,-0.46087825,-0.17893291,-0.94612432,-0.26987335,0
1.2469178,1.958163,1.0266637,0.9057464,-0.26552173,0.3303355,0
0.59155416,3.6190257,2.0637813,0.17893291,0.94612432,0.26987335,0
1.230729,3.6963909,0.68064648,0.17893291,0.94612432,0.26987335,0
-0.29965734,3.3527317,0.70928347,-0.96500713,0.22221453,-0.13921738,0
-0.55554259,-0.51228082,0.79915833,-0.46583652,-0.16013394,0.87026048,0
1.4250536,3.7520852,0.69408119,0.17893291,0.94612432,0.26987335,0
-0.15990913,-0.36891729,-1.08427,-0.10994273,0.29181033,-0.95013648,0
1.6238681,3.5300908,1.4961386,0.17893291,0.94612432,0.26987335,0
-0.37284333,-0.78276634,-1.271093,-0.22763485,0.30666897,-0.92419505,0
0.54791546,-2.4600453,-0.24538445,0.89516938,-0.27037358,0.35435802,0
-1.3879563,-2.312763,-1.1467925,-0.88569057,0.27434105,-0.37455177,0
0.40895641,-1.6748568,-1.2812096,0.71875781,0.061603691,-0.69252568,0
1.3232195,3.7550721,0.96251076,0.17893291,0.94612432,0.26987335,0
-0.31553102,0.029923782,0.92784715,-0.34202093,-0.19737557,0.91872972,0
-0.81952286,-2.0610275,-1.4974818,-0.47147506,0.3232109,-0.82051569,0
1.0219574,3.8963966,0.55720562,0.17893291,0.94612432,0.26987335,0
-1.0030893,-2.7439234,-1.6662686,-0.44410214,0.32243586,-0.83594757,0
0.15450701,3.9525547,0.32423061,-0.60624671,0.32206577,-0.72714412,0
-0.81001449,-3.7048073,-1.604491,-0.17893291,-0.94612432,-0.26987335,0
0.34039634,3.7295511,1.3754305,0.17893291,0.94612432,0.26987335,0
0.59530163,-0.59930873,-0.80941582,0.800372,0.019544039,-0.59918475,0
1.6309083,3.6154675,0.79029685,0.17893291,0.94612432,0.26987335,0
-0.85674572,-3.6273944,-1.3312216,-0.17893291,-0.94612432,-0.26987335,0
-1.4533848,-3.5278077,-1.818383,-0.17893291,-0.94612432,-0.26987335,0
0.91885084,3.0833805,1.9579543,0.28750116,-0.31260926,0.90532786,0
0.054458469,-4.0071592,-0.95656538,-0.17893291,-0.94612432,-0.26987335,0
-0.030292988,3.3175604,1.6097105,-0.73364896,-0.054456759,0.67734301,0
-1.6615238,-3.5940404,-0.85650402,-0.17893291,-0.94612432,-0.26987335,0
-0.740242,0.27660152,0.79199767,-0.82136971,-0.0073476657,0.57034862,0
1.6276158,2.8758945,0.89441615,0.9838466,-0.17356092,-0.043843985,0
0.88256049,3.7378569,0.79717696,0.17893291,0.94612432,0.26987335,0
0.60490453,4.0346246,0.26684958,0.17893291,0.94612432,0.26987335,0
-0.13529706,-3.722712,-1.743732,-0.17893291,-0.94612432,-0.26987335,0
0.33352518,-2.471966,-1.4295608,0.72685218,0.057744253,-0.68436182,0
0.26834682,4.0633283,0.31171811,0.17893291,0.94612432,0.26987335,0
-1.343771,-3.5275559,-1.9256935,-0.17893291,-0.94612432,-0.26987335,0
-1.22349,-3.8390579,-0.54955757,-0.17893291,-0.94612432,-0.26987335,0
-1.4269079,-3.5388999,-1.2397115,-0.17893291,-0.94612432,-0.26987335,0
1.4140503,3.8843799,0.63658929,0.17893291,0.94612432,0.26987335,0
0.49826998,3.4247134,0.032356024,-0.16409916,0.29915756,-0.93998742,0
-0.038615078,-4.1544437,-0.39376688,-0.17893291,-0.94612432,-0.26987335,0
1.1972487,3.4819038,1.6247172,0.17893291,0.94612432,0.26987335,0
0.29110116,3.9290142,1.1667472,0.17893291,0.94612432,0.26987335,0
1.0322559,3.8089123,0.87301654,0.17893291,0.94612432,0.26987335,0
-0.37174308,2.8525388,1.2366655,-0.87169826,0.025262929,0.48939115,0
-0.14623755,-1.8085911,-1.4527543,0.31241673,0.2054643,-0.92745894,0
1.3453925,1.8841391,0.3183372,0.97617638,-0.13650891,-0.16865569,0
0.17466515,-0.22950789,-1.0873977,0.29082406,0.21117973,-0.93317962,0
0.9383288,3.8400083,0.60445899,0.17893291,0.94612432,0.26987335,0
0.24820271,3.8092918,1.5072439,0.17893291,0.94612432,0.26987335,0
-1.3010938,-3.3748257,-0.13098221,-0.57782251,-0.12095323,0.80715007,0
0.76191568,1.3169502,1.2221951,0.48226684,-0.32343099,0.81413203,0
0.86273557,-0.18087208,0.47850615,0.88835919,-0.2732572,0.36898279,0
-1.4242682,-2.5619037,-1.1726352,-0.92706931,0.25398278,-0.27574456,0
0.75409085,2.2580056,1.58192,0.22361135,-0.30622956,0.92532235,0
-1.7299037,-3.5491567,-1.0835648,-0.17893291,-0.94612432,-0.26987335,0
-0.10072351,3.8521852,1.696617,0.17893291,0.94612432,0.26987335,0
-0.55326039,-1.5742843,-1.4546323,-0.32230195,0.31553257,-0.89250249,0
-1.1808506,-3.4082167,-0.046112642,-0.55580568,-0.1291309,0.82122165,0
1.1266001,0.88618517,0.66571116,0.88142926,-0.27602139,0.38326812,0
-0.029947901,4.0408568,0.41756642,-0.72673088,0.31200191,-0.61197793,0
0.79743075,-1.4364874,-0.1715942,0.95863676,-0.22937222,0.16853464,0
0.8635335,3.9280763,0.7755394,0.17893291,0.94612432,0.26987335,0
1.0670009,0.16631731,-0.33351797,0.92072797,-0.064351611,-0.38486171,0
-0.56431156,-3.7750821,-0.94782472,-0.17893291,-0.94612432,-0.26987335,0
-0.85300475,-3.668159,-1.5251533,-0.17893291,-0.94612432,-0.26987335,0
-0.91899681,-3.8223515,-1.1767281,-0.17893291,-0.94612432,-0.26987335,0
1.0582236,3.6016417,1.7581263,0.17893291,0.94612432,0.26987335,0
-0.95899469,-3.8627617,-0.37566513,-0.17893291,-0.94612432,-0.26987335,0
-1.2180378,-3.7041664,-1.1479459,-0.17893291,-0.94612432,-0.26987335,0
-0.76220268,-1.7777106,0.29387659,-0.45929301,-0.16225019,0.87334108,0
-0.066125989,-3.6427381,-1.6604156,-0.17893291,-0.94612432,-0.26987335,0
-1.3575459,-2.6411958,-1.481504,-0.69082236,0.31612805,-0.65025181,0
0.70884377,3.9500179,0.49352309,0.17893291,0.94612432,0.26987335,0
-0.58790106,-3.7031417,-1.5989574,-0.17893291,-0.94612432,-0.26987335,0
0.96627092,3.6780496,1.6404794,0.17893291,0.94612432,0.26987335,0
0.066028953,3.8311238,1.3754933,0.17893291,0.94612432,0.26987335,0
1.3383412,2.1847913,1.277124,0.84763646,-0.2875042,0.4459303,0
0.21403748,3.6197221,0.12176812,-0.41756445,0.32139894,-0.84990746,0
-0.46868044,-3.8538103,-1.1919217,-0.17893291,-0.94612432,-0.26987335,0
0.11958167,-1.887486,0.3083092,0.48097432,-0.32340723,0.81490576,0
1.4639115,2.0410929,0.47695976,0.98333836,-0.1630387,-0.080395937,0
-0.49387854,-0.21017975,0.81892145,-0.51528841,-0.14355017,0.84490877,0
-1.3293316,-1.4860021,-0.56267029,-0.95954144,0.2284278,-0.16462386,0
-0.98349118,-4.0601244,-0.2185964,-0.17893291,-0.94612432,-0.26987335,0
-0.46186984,-3.8133211,-1.401212,-0.17893291,-0.94612432,-0.26987335,0
0.55547035,3.5163634,1.8086998,0.17893291,0.94612432,0.26987335,0
-0.32654634,-0.53971058,-1.1950716,-0.20901614,0.30459407,-0.92926562,0
0.87667513,0.77952158,-0.48320234,0.78289425,0.029205721,-0.6214686,0
0.020758748,3.0596323,1.7981641,-0.57646966,-0.12146305,0.80804038,0
1.2773566,3.4350042,1.6676252,0.17893291,0.94612432,0.26987335,0
1.4521908,3.6638103,1.3184985,0.17893291,0.94612432,0.26987335,0
-1.4482586,-3.3202105,-1.5210328,-0.79031008,0.30159503,-0.5333389,0
-0.05112505,-3.6909881,-1.7528031,-0.17893291,-0.94612432,-0.26987335,0
1.5351586,3.675051,0.78902727,0.17893291,0.94612432,0.26987335,0
-0.018387586,-2.465878,0.23403442,0.48789403,-0.32352605,0.81073445,0
1.3919193,3.4700198,0.30901051,0.7139315,0.063877113,-0.69729578,0
1.1395624,1.0295408,0.12618387,0.9637906,-0.11343721,-0.2413286,0
-1.1535852,-1.0454407,-0.47339338,-0.97626173,0.20476797,-0.070591033,0
0.65284914,3.5062349,1.820973,0.17893291,0.94612432,0.26987335,0
0.17609477,-1.7594411,-1.4443516,0.57953459,0.12030667,-0.80601847,0
-0.24267417,-1.643651,0.67826271,0.017267346,-0.27727786,0.96063459,0
1.2979639,1.5963078,0.15556887,0.9539637,-0.099734157,-0.28285336,0
-0.60883999,1.7225493,0.2307204,-0.91940987,0.25844467,-0.2964654,0
-0.24337748,-4.1727271,-0.38636684,-0.17893291,-0.94612432,-0.26987335,0
-0.14305478,-3.7043104,-1.8969798,-0.17893291,-0.94612432,-0.26987335,0
0.50152498,-2.6451814,-0.66197222,0.98384976,-0.17074761,-0.053708971,0
-0.37399143,-3.3579061,-1.8831718,0.3467623,0.19605239,-0.91723454,0
-0.73064852,1.1004572,0.30797237,-0.98364049,0.17784026,0.028704762,0
0.13961917,3.8596997,1.5350293,0.17893291,0.94612432,0.26987335,0
-0.39225268,-3.7427049,-1.2425314,-0.17893291,-0.94612432,-0.26987335,0
0.44135863,3.6726005,1.708788,0.17893291,0.94612432,0.26987335,0
-1.4816632,-3.7571015,-0.48236102,-0.17893291,-0.94612432,-0.26987335,0
-1.6142932,-3.6189232,-1.3841126,-0.17893291,-0.94612432,-0.26987335,0
0.29287863,-1.4927467,0.51990926,0.45264906,-0.32271063,0.83124399,0
-0.2657147,-3.9520464,-0.71561944,-0.17893291,-0.94612432,-0.26987335,0
0.42340785,-2.432519,-1.1668175,0.82807863,0.0032987073,-0.56060195,0
1.4946771,3.6838655,0.67785263,0.17893291,0.94612432,0.26987335,0
0.85086828,3.9535878,0.28994095,0.17893291,0.94612432,0.26987335,0
-0.20125848,-3.7387686,-1.2578111,-0.17893291,-0.94612432,-0.26987335,0
1.1411278,3.7542942,0.54164833,0.17893291,0.94612432,0.26987335,0
0.42758727,3.8271716,0.92797267,0.17893291,0.94612432,0.26987335,0
1.0877343,3.8197401,0.45931461,0.17893291,0.94612432,0.26987335,0
0.94182509,3.725095,1.048914,0.17893291,0.94612432,0.26987335,0
0.25020456,0.62038052,1.1155224,0.077104688,-0.28694153,0.95483994,0
1.0680602,3.3705812,1.9748451,0.17893291,0.94612432,0.26987335,0
1.32126,1.8989878,0.19260991,0.94743353,-0.091749862,-0.30651504,0
1.6368859,3.7470064,0.76654112,0.17893291,0.94612432,0.26987335,0
0.047866881,1.3183141,1.3290193,-0.25325614,-0.22076429,0.94187278,0
0.91950309,3.4124775,1.9681344,0.11812007,-0.29297447,0.94879591,0
1.3202238,2.3739803,0.30859703,0.8840605,-0.034239881,-0.46611619,0
-0.40411648,-3.9090848,-0.89961243,-0.17893291,-0.94612432,-0.26987335,0
0.63368946,3.7822227,1.1247351,0.17893291,0.94612432,0.26987335,0
-1.3043694,-3.8178351,-0.37711906,-0.17893291,-0.94612432,-0.26987335,0
0.6649394,3.761034,1.2630881,0.17893291,0.94612432,0.26987335,0
-0.93396324,0.29860693,0.24905986,-0.9811241,0.15114504,0.12062466,0
0.61209494,3.7275507,1.000072,0.17893291,0.94612432,0.26987335,0
1.1360804,3.6370502,1.4634326,0.17893291,0.94612432,0.26987335,0
1.0162179,3.6620278,1.0481489,0.17893291,0.94612432,0.26987335,0
-0.31355536,4.0143018,1.2188833,0.17893291,0.94612432,0.26987335,0
-0.86828005,-3.792052,-0.83915985,-0.17893291,-0.94612432,-0.26987335,0
-0.50935721,-3.9861329,-0.49695277,-0.17893291,-0.94612432,-0.26987335,0
0.68896997,3.7938466,0.77570724,0.17893291,0.94612432,0.26987335,0
0.19265416,3.9198565,1.1360019,0.17893291,0.94612432,0.26987335,0
0.37619317,3.6520064,0.050897658,-0.1476413,0.29701543,-0.94338953,0
0.50293034,4.0054188,0.74992549,0.17893291,0.94612432,0.26987335,0
-0.85209918,-3.5219235,-1.9509798,-0.17893291,-0.94612432,-0.26987335,0
-0.043138027,-3.6746013,-1.588999,-0.17893291,-0.94612432,-0.26987335,0
0.55672401,3.9997573,0.39211327,0.17893291,0.94612432,0.26987335,0
-0.64509982,-2.9122119,-1.8233403,-0.08251673,0.28776526,-0.95413941,0
0.094343752,-3.9845042,-0.79292721,-0.17893291,-0.94612432,-0.26987335,0
0.37271407,3.9290998,0.4649815,0.17893291,0.94612432,0.26987335,0
0.62052768,3.8223667,1.0920254,0.17893291,0.94612432,0.26987335,0
0.24231857,3.7775064,1.2687718,0.17893291,0.94612432,0.26987335,0
0.25787091,3.8891778,0.86897224,0.17893291,0.94612432,0.26987335,0
-0.75817418,-3.956789,-0.54418653,-0.17893291,-0.94612432,-0.26987335,0
-0.35024577,3.3921883,0.48314452,-0.88549447,0.27441967,-0.37495744,0
-0.94196999,-3.6993458,-0.96769476,-0.17893291,-0.94612432,-0.26987335,0
-0.64567757,-3.8871884,-0.65245068,-0.17893291,-0.94612432,-0.26987335,0
0.057612717,1.8470616,-0.57641292,-0.19854996,0.30338141,-0.93195367,0
-0.86320806,-3.5672574,-2.0121734,-0.17893291,-0.94612432,-0.26987335,0
0.37431765,2.091608,-0.42070815,0.13319182,0.24848081,-0.95943582,0
-0.82101089,-3.48663,-1.7514291,-0.17893291,-0.94612432,-0.26987335,0
-1.2073106,-0.84790218,-0.52759498,-0.95783496,0.23019204,-0.17194027,0
1.0102361,-0.16199195,0.17995942,0.97882754,-0.19890101,0.048321366,0
-0.29889306,-0.13698134,-1.0388128,-0.33257917,0.31631872,-0.88844448,0
-1.0770961,-3.5805097,-1.2169224,-0.17893291,-0.94612432,-0.26987335,0
1.5369171,3.5467229,1.2968646,0.17893291,0.94612432,0.26987335,0
1.0342648,3.9461927,0.35399675,0.17893291,0.94612432,0.26987335,0
0.42365766,-0.92222357,-1.1201546,0.52837849,0.13897742,-0.83755672,0
-0.72048223,-3.3462849,-1.9602555,-0.079972565,0.28737909,-0.95447242,0
1.5973854,3.7399447,0.48806089,0.17893291,0.94612432,0.26987335,0
0.5831387,-1.8619381,-0.13014919,0.91958976,-0.25834438,0.29599452,0
-0.86208445,-4.0242,-0.18807733,-0.17893291,-0.94612432,-0.26987335,0
0.81621069,3.6925752,1.1928396,0.17893291,0.94612432,0.26987335,0
-1.3915973,-3.8973317,-0.49772555,-0.17893291,-0.94612432,-0.26987335,0
-0.56487674,1.2155985,-0.20672923,-0.75202507,0.30838907,-0.58254135,0
0.91356671,3.893455,0.73278123,0.17893291,0.94612432,0.26987335,0
1.0907828,3.6453404,1.6540751,0.17893291,0.94612432,0.26987335,0
1.2958267,1.1717879,0.32292435,0.98375708,-0.16806203,-0.063062608,0
-1.0116584,-3.6274595,-1.5204356,-0.17893291,-0.94612432,-0.26987335,0
-0.44285116,-3.7028468,-1.5989507,-0.17893291,-0.94612432,-0.26987335,0
0.82912111,3.5906549,1.4345694,0.17893291,0.94612432,0.26987335,0
-0.15545022,-3.9826798,-0.87345004,-0.17893291,-0.94612432,-0.26987335,0
0.32106864,-2.4838691,-0.17642313,0.85194641,-0.28619844,0.43849486,0
-0.71079922,-3.813401,-0.9643538,-0.17893291,-0.94612432,-0.26987335,0
1.7463567,3.6551805,1.0090137,0.17893291,0.94612432,0.26987335,0
-0.56741887,-0.70732856,-1.2587082,-0.33085707,0.31618947,-0.88913321,0
0.84996784,3.8965087,0.95551568,0.17893291,0.94612432,0.26987335,0
1.1942617,3.6739225,1.4206536,0.17893291,0.94612432,0.26987335,0
0.29340714,-0.14264739,-0.96260214,0.46090543,0.1617303,-0.87258768,0
-0.10364127,3.3190229,1.6939719,-0.72386128,-0.059177268,0.68740273,0
0.9508329,3.7253127,0.7893849,0.17893291,0.94612432,0.26987335,0
-0.81420648,-3.9583616,-0.62025452,-0.17893291,-0.94612432,-0.26987335,0
-0.12609416,-3.2223628,-1.8206327,0.50667143,0.14651728,-0.84959775,0
-0.9396553,-3.5227418,-1.830894,-0.17893291,-0.94612432,-0.26987335,0
1.0010725,4.051455,0.20911974,0.17893291,0.94612432,0.26987335,0
0.30617052,1.229617,-0.74182719,0.16594803,0.24134712,-0.95614469,0
1.2319167,1.6863101,0.92101699,0.91894603,-0.25870234,0.29767638,0
0.61345184,-2.2030239,-0.47575623,0.9828254,-0.18447194,-0.0049149394,0
-1.190238,-3.8480844,-0.75856972,-0.17893291,-0.94612432,-0.26987335,0
-0.91164547,-3.9494245,-0.25843081,-0.17893291,-0.94612432,-0.26987335,0
0.92914474,-0.22318691,0.29756522,0.90154278,-0.26750851,0.34008789,0
-1.2574266,-2.6320224,-0.31036395,-0.88049394,0.031600978,0.47300288,0
1.1533659,3.623992,1.2487129,0.17893291,0.94612432,0.26987335,0
0.91602159,3.7149289,1.0734302,0.17893291,0.94612432,0.26987335,0
-1.0772705,-3.4787796,-1.8305312,-0.17893291,-0.94612432,-0.26987335,0
0.10137999,3.7756872,1.7877874,0.17893291,0.94612432,0.26987335,0
0.84424841,-0.53792143,0.49354446,0.82647836,-0.29336122,0.48049206,0
1.1953454,3.891377,0.46193966,0.17893291,0.94612432,0.26987335,0
0.99510634,3.6563854,1.5284801,0.17893291,0.94612432,0.26987335,0
0.1227836,3.2766385,1.724983,-0.61747497,-0.10556006,0.77947515,0
-1.3038464,-3.7500587,-0.89129591,-0.17893291,-0.94612432,-0.26987335,0
-0.71498126,-1.3150383,-1.2549241,-0.53506267,0.32376811,-0.78030902,0
0.1164875,2.390064,1.6151574,-0.47381443,-0.15752977,0.86642039,0
0.78511435,0.097321436,-0.64487457,0.77285069,0.034578376,-0.63364494,0
0.24392873,2.6712167,1.772374,-0.25253212,-0.22094458,0.94202489,0
-1.2396233,-3.6942363,-0.77815545,-0.17893291,-0.94612432,-0.26987335,0
0.35026228,-1.2326152,-1.0729729,0.57758242,0.12104376,-0.8073082,0
-1.5337198,-2.8817174,-0.3960821,-0.89875674,0.045589447,0.43607071,0
0.88228422,4.0135989,0.21117455,0.17893291,0.94612432,0.26987335,0
-0.49114549,-3.7020433,-1.2766988,-0.17893291,-0.94612432,-0.26987335,0
-0.20149446,-0.88128734,-1.2306814,0.065386474,0.26225811,-0.96277988,0
0.48539394,-0.54566544,0.67210722,0.5908013,-0.32266539,0.73948699,0
0.79024577,3.975374,0.29383761,0.17893291,0.94612432,0.26987335,0
-0.71723729,-3.8118358,-1.1247027,-0.17893291,-0.94612432,-0.26987335,0
1.0732408,3.3734035,1.9841526,0.17893291,0.94612432,0.26987335,0
0.36476898,-1.6576204,-1.2702792,0.68442559,0.077350512,-0.72496778,0
-0.3272782,3.4333372,0.85835564,-0.96917784,0.21671474,-0.11717081,0
-1.0826463,-0.92188966,-0.57557642,-0.92949271,0.25248268,-0.26887876,0
1.527845,3.0024607,1.2440884,0.88665426,-0.27395254,0.3725509,0
1.4367348,3.2933364,0.44075909,0.86902785,-0.023383366,-0.49421003,0
0.46045494,-0.23253423,-0.99456626,0.5752458,0.12192337,-0.80884278,0
-1.2347823,-3.5604453,-1.4452438,-0.17893291,-0.94612432,-0.26987335,0
-1.6140616,-3.7466016,-0.88266671,-0.17893291,-0.94612432,-0.26987335,0
-0.23968568,-3.8774381,-1.2040113,-0.17893291,-0.94612432,-0.26987335,0
0.20336133,-0.26051086,0.99756169,0.23083729,-0.30701512,0.92328537,0
-1.0696638,-1.4156353,-1.2152923,-0.72312933,0.31246629,-0.6159941,0
1.6681836,3.5154207,0.82094163,0.97805208,-0.14129014,-0.15313721,0
0.44859082,3.8076546,1.0548763,0.17893291,0.94612432,0.26987335,0
-0.49014974,-0.29050866,0.75054169,-0.50320417,-0.14770176,0.8514514,0
-0.82620203,-3.6081591,-1.6720041,-0.17893291,-0.94612432,-0.26987335,0
1.2104843,1.3694326,0.45923048,0.98330545,-0.18119058,-0.016737044,0
0.92567074,3.8408351,1.0692273,0.17893291,0.94612432,0.26987335,0
0.38914776,0.18082243,1.0059836,0.39372152,-0.32023761,0.86164445,0
-0.9516151,-3.8759096,-0.26777166,-0.17893291,-0.94612432,-0.26987335,0
-0.37610963,1.6082305,-0.22659427,-0.66245478,0.31866205,-0.67794406,0
-0.57957274,1.841827,0.87916523,-0.93930537,0.082665697,0.33297336,0
-0.72406447,0.5814091,0.5206511,-0.91230839,0.056861967,0.40553653,0
-0.3388637,-3.6594393,-1.4296,-0.17893291,-0.94612432,-0.26987335,0
1.0148914,3.7477341,1.2721616,0.17893291,0.94612432,0.26987335,0
0.0578444,-1.1723582,-1.3613452,0.23177713,0.22604398,-0.94614124,0
-0.95510536,-3.8475385,-0.420865,-0.17893291,-0.94612432,-0.26987335,0
-1.5506914,-2.702673,-0.91779399,-0.96312577,0.22446163,-0.14834267,0
-1.2295508,-1.4279306,-0.75110734,-0.9156673,0.26048636,-0.30610466,0
0.13191003,3.963613,0.77852386,0.17893291,0.94612432,0.26987335,0
0.51712537,3.6683025,1.8467628,0.17893291,0.94612432,0.26987335,0
1.5422317,3.5657048,1.4761698,0.17893291,0.94612432,0.26987335,0
0.13229346,-3.3590519,-1.6934357,0.69503492,0.07258708,-0.71530235,0
-0.45576096,1.2907064,-0.51701534,-0.62925398,0.32091391,-0.70785147,0
-0.066321097,2.9979508,0.11471933,-0.56349313,0.32340536,-0.76018715,0
-0.12885672,-3.3801346,-1.7137619,0.52759546,0.1392532,-0.83800435,0
-1.2534928,-3.6234555,-1.5191779,-0.17893291,-0.94612432,-0.26987335,0
0.30491012,-0.9718858,0.7997812,0.40463984,-0.32079583,0.8563624,0
-0.087520421,-0.46472418,1.0427505,-0.078447461,-0.25970697,0.9624958,0
-0.36124235,0.40204716,-0.93471766,-0.29612648,0.31337094,-0.90227926,0
0.14321762,3.7922275,1.4804349,0.17893291,0.94612432,0.26987335,0
0.93293959,3.540051,1.5107287,0.17893291,0.94612432,0.26987335,0
-0.72668159,0.2620703,0.552284,-0.83880305,0.0033439472,0.54442453,0
-0.036274791,-0.25437653,0.95917809,-0.11666274,-0.25196156,0.96067953,0
-0.70381558,-3.7730699,-1.311991,-0.17893291,-0.94612432,-0.26987335,0
-0.12109418,-4.0128536,-0.36319113,-0.17893291,-0.94612432,-0.26987335,0
0.60571945,3.7298517,1.6212522,0.17893291,0.94612432,0.26987335,0
-0.081131279,-3.7561374,-1.7701077,-0.17893291,-0.94612432,-0.26987335,0
-0.27516365,-2.0979707,-1.5944257,0.2506305,0.22141744,-0.94242167,0
0.73411202,3.8592153,1.1697462,0.17893291,0.94612432,0.26987335,0
0.89623499,3.6110344,1.6569746,0.17893291,0.94612432,0.26987335,0
-0.048246145,3.9726672,1.2860515,0.17893291,0.94612432,0.26987335,0
0.85461891,0.27512529,-0.38280824,0.87058717,-0.024478534,-0.4914045,0
0.98934412,3.6235747,1.1759479,0.17893291,0.94612432,0.26987335,0
-0.4305563,-3.9808123,-0.44673312,-0.17893291,-0.94612432,-0.26987335,0
0.35710949,3.8846004,0.94701862,0.17893291,0.94612432,0.26987335,0
-1.2410574,-1.7623508,0.079570621,-0.8494547,0.010167981,0.52756321,0
-1.2043952,-3.5159669,-1.8422177,-0.17893291,-0.94612432,-0.26987335,0
-1.2594295,-2.6718287,-1.3329036,-0.82856762,0.29282078,-0.47721237,0
-1.1216959,-3.7641532,-0.70427424,-0.17893291,-0.94612432,-0.26987335,0
-0.99810249,-2.6012704,0.11017385,-0.60299343,-0.11128552,0.78994578,0
0.88849401,3.9362264,0.67991263,0.17893291,0.94612432,0.26987335,0
-0.85449708,-3.6799674,-1.0921642,-0.17893291,-0.94612432,-0.26987335,0
-0.36421627,-2.9922853,-1.7636819,0.21291178,0.23056367,-0.94947821,0
-0.77169454,-3.9003091,-0.97191143,-0.17893291,-0.94612432,-0.26987335,0
0.75854194,-1.0788419,-0.51250243,0.97907376,-0.14420539,-0.14359426,0
0.36731622,-2.7346513,-0.47463518,0.94384313,-0.24250652,0.22438955,0
-0.78331786,-3.8343244,-0.92424619,-0.17893291,-0.94612432,-0.26987335,0
0.94074452,3.9532578,0.11628282,0.18109679,0.23794094,-0.9542473,0
-0.39513195,1.855233,1.208787,-0.71626741,-0.062779419,0.69499618,0
0.71695125,-1.6233478,-0.21149993,0.94130045,-0.24443123,0.23282301,0
-1.081174,-3.5061653,-1.5453645,-0.17893291,-0.94612432,-0.26987335,0
0.89502192,3.9570069,0.67685819,0.17893291,0.94612432,0.26987335,0
0.029165884,3.9891381,0.52225459,0.17893291,0.94612432,0.26987335,0
0.11056244,3.9532042,0.9082222,0.17893291,0.94612432,0.26987335,0
-0.79507685,-3.4800551,-2.0033176,-0.038544178,0.28083068,-0.95898294,0
-0.97147119,-2.3661439,-1.5478636,-0.482133,0.32342857,-0.81421232,0
-1.0673423,-3.7907341,-0.69836348,-0.17893291,-0.94612432,-0.26987335,0
-1.5067509,-3.6952691,-1.1150397,-0.17893291,-0.94612432,-0.26987335,0
-0.45783943,-3.5990357,-2.0755894,-0.17893291,-0.94612432,-0.26987335,0
-0.43013093,-3.8575394,-0.75495023,-0.17893291,-0.94612432,-0.26987335,0
1.5610902,3.7249465,1.0841322,0.17893291,0.94612432,0.26987335,0
1.1929413,2.8313084,1.5986509,0.5410071,-0.32372519,0.77621728,0
0.21921533,3.5647633,1.8715644,0.17893291,0.94612432,0.26987335,0
0.60355341,3.9060478,0.83119786,0.17893291,0.94612432,0.26987335,0
-0.30955327,-4.1200218,-0.26768738,-0.17893291,-0.94612432,-0.26987335,0
-0.16104734,-3.7094829,-1.7950606,-0.17893291,-0.94612432,-0.26987335,0
0.6747812,-0.0079546273,0.80391765,0.58036619,-0.32299525,0.74756211,0
0.56882083,0.67152286,-0.78116685,0.48866421,0.15261073,-0.85902101,0
-1.0638342,-0.80751014,-0.46958688,-0.96737647,0.21918878,-0.12703872,0
-0.54944634,-3.6809425,-1.832881,-0.17893291,-0.94612432,-0.26987335,0
0.15721875,-0.24937229,1.0121123,0.10109484,-0.29052898,0.95151073,0
-0.21365094,2.7213831,1.3344941,-0.7520467,-0.045331258,0.6575489,0
-0.50454134,-3.7886841,-0.8757447,-0.17893291,-0.94612432,-0.26987335,0
-0.90993834,-3.8706589,-0.36959484,-0.17893291,-0.94612432,-0.26987335,0
1.4529693,2.0377114,0.94140297,0.93726563,-0.2473352,0.2456789,0
-0.17096266,-3.797976,-0.12950718,0.38773867,-0.31991306,0.8644734,0
0.65833873,3.6171646,1.9183884,0.17893291,0.94612432,0.26987335,0
-0.56693953,-3.773,-1.055637,-0.17893291,-0.94612432,-0.26987335,0
1.1052148,0.92194843,0.0076803565,0.95534855,-0.10152553,-0.27749133,0
-0.40115821,2.9110696,1.1986308,-0.90314013,0.049141556,0.42652398,0
0.049189806,-2.834482,-1.6237681,0.65165275,0.091536954,-0.75297362,0
-0.81270045,-2.9315443,0.1002508,-0.26598781,-0.21756652,0.93910336,0
-0.48981667,2.4225802,1.1691593,-0.89924461,0.045980748,0.43502241,0
0.37693208,3.6300812,1.8278166,0.17893291,0.94612432,0.26987335,0
-0.078451931,3.9032037,1.1990756,0.17893291,0.94612432,0.26987335,0
1.2930781,3.5489902,1.5651482,0.17893291,0.94612432,0.26987335,0
-0.18867505,-4.0494528,-0.38452286,-0.17893291,-0.94612432,-0.26987335,0
0.63323224,-1.5761437,0.16528487,0.77566898,-0.30440044,0.55288148,0
-0.11936005,-4.073019,-0.49668956,-0.17893291,-0.94612432,-0.26987335,0
-1.3441157,-3.7902975,-0.99111396,-0.17893291,-0.94612432,-0.26987335,0
-0.15045619,1.6019831,1.4235966,-0.40757978,-0.17837343,0.89557886,0
-0.48121798,1.7909819,1.1741549,-0.80482209,-0.017015871,0.59327197,0
-1.0487503,-3.7973638,-0.80229115,-0.17893291,-0.94612432,-0.26987335,0
1.4995116,3.2125576,1.3984113,0.90595108,-0.26542285,0.32985318,0
-0.81181157,0.3530525,0.28367895,-0.9666636,0.11799961,0.22723848,0
-1.1697698,-1.9375315,-1.3941417,-0.6851117,0.31668669,-0.65599656,0
-1.3563418,-3.4195814,-0.32046413,-0.79618609,-0.021896094,0.60465521,0
1.3680383,3.0928888,1.5799497,0.76356834,-0.30652082,0.56833822,0
-1.0425072,-3.8972917,-0.74983042,-0.17893291,-0.94612432,-0.26987335,0
0.090215564,-2.4459777,-1.5412667,0.49419928,0.15075292,-0.85617775,0
0.53862298,3.8676229,1.1693245,0.17893291,0.94612432,0.26987335,0
-0.4309538,3.1931179,0.92699647,-0.98129761,0.15183282,0.11832845,0
0.39980137,2.1482956,-0.38938364,-0.011375189,0.27627128,-0.96101236,0
-0.089782834,-1.2605224,-1.3767194,0.28788853,0.211945,-0.93391621,0
0.42769644,3.8416076,1.1686984,0.17893291,0.94612432,0.26987335,0
-1.1384711,-2.8013976,-1.7124262,-0.45170942,0.32268187,-0.83176625,0
0.18240213,3.8827548,1.0089908,0.17893291,0.94612432,0.26987335,0
-0.96293521,-3.7679787,-1.2121284,-0.17893291,-0.94612432,-0.26987335,0
-0.31344104,3.1028819,1.1607652,-0.94483161,0.088751063,0.31530321,0
-0.64717913,-3.9115033,-0.4630582,-0.17893291,-0.94612432,-0.26987335,0
0.42273128,-2.3233979,-0.031408668,0.83086818,-0.29221663,0.47356886,0
1.3286567,1.1976646,0.17199779,0.9699797,-0.12372693,-0.20935827,0
-0.32529223,1.6962007,1.2448419,-0.67081559,-0.083335683,0.73692685,0
1.0178758,0.060065925,0.1104039,0.97674775,-0.2037507,0.066702425,0
0.55369467,-1.8752857,0.070313871,0.79210716,-0.30123141,0.53087258,0
1.0742173,3.6220922,1.3851786,0.17893291,0.94612432,0.26987335,0
0.97113466,3.520905,1.6438782,0.17893291,0.94612432,0.26987335,0
0.996099,3.5595024,1.3705955,0.17893291,0.94612432,0.26987335,0
-1.3977582,-2.3624697,-0.94967514,-0.90957683,0.2636382,-0.32119256,0
-1.0812645,-2.4934173,-1.7177361,-0.4955973,0.32363394,-0.80600518,0
-0.63168293,-4.0500093,-0.17223036,-0.17893291,-0.94612432,-0.26987335,0
-1.1015974,-0.6265164,0.021505535,-0.97810304,0.14142963,0.15268195,0
0.17376798,3.9686828,0.21749055,-0.43216684,0.32200351,-0.8423453,0
-0.91696703,-0.046525478,-0.60540783,-0.77566671,0.30440086,-0.55288446,0
1.0654337,3.5221403,1.6349537,0.17893291,0.94612432,0.26987335,0
0.1274963,-4.0302353,-1.0016884,-0.17893291,-0.94612432,-0.26987335,0
1.6531799,3.4762712,1.3029599,0.91889966,-0.258728,0.29779714,0
-0.90987456,-4.0750303,-0.24748379,-0.17893291,-0.94612432,-0.26987335,0
0.40127069,-3.573956,-0.9572069,0.98355007,-0.1651188,-0.073243797,0
1.536113,3.4820433,1.5638015,0.17893291,0.94612432,0.26987335,0
-1.1511464,-3.986619,-0.37697649,-0.17893291,-0.94612432,-0.26987335,0
-0.047499418,3.6902251,1.8250061,0.17893291,0.94612432,0.26987335,0
-0.76361382,-3.720686,-1.5440145,-0.17893291,-0.94612432,-0.26987335,0
-0.90989804,-2.6620913,0.17236404,-0.37013566,-0.18941498,0.90946221,0
0.26822954,4.1037083,0.51405317,0.17893291,0.94612432,0.26987335,0
-1.024677,-3.7674069,-1.1924919,-0.17893291,-0.94612432,-0.26987335,0
0.23961192,2.3098741,1.573714,-0.25180012,-0.22112672,0.94217801,0
0.97868121,1.2370127,-0.20304519,0.83433598,-0.00055054203,-0.55125594,0
0.23131141,-1.6222414,0.40792465,0.53329337,-0.32377759,0.78151536,0
-0.87185931,-1.2504851,-1.1951983,-0.58559513,0.32283741,-0.74354184,0
-0.84435928,-3.349031,-1.9664521,-0.21855858,0.30567071,-0.92671329,0
1.0835309,3.3098602,0.021582201,0.53927213,0.13511033,-0.83122224,0
-1.0754755,-2.0478613,-1.2611494,-0.75430256,0.30803192,-0.57977927,0
1.5360599,3.615829,0.55326647,0.86740029,-0.02224749,-0.49711314,0
1.6033096,3.6552608,0.78464997,0.17893291,0.94612432,0.26987335,0
-1.3423533,-3.7546873,-1.0365382,-0.17893291,-0.94612432,-0.26987335,0
1.2243809,1.8707261,1.2611947,0.74782008,-0.30903411,0.58759081,0
-0.66063029,-3.6090832,-1.6575943,-0.17893291,-0.94612432,-0.26987335,0
-0.92485183,-2.0726764,0.31902486,-0.51503116,-0.14363927,0.84505063,0
0.62300062,3.544616,1.7193235,0.17893291,0.94612432,0.26987335,0
-0.31794506,-2.6838477,-1.7125851,0.34231007,0.1972951,-0.9186393,0
1.3012877,3.6988029,0.14934638,0.61122477,0.10804626,-0.78404719,0
0.44690233,3.773922,1.4556116,0.17893291,0.94612432,0.26987335,0
0.070760429,0.81785023,1.3344064,-0.19021338,-0.2358581,0.95298994,0
-1.1200639,-3.8150306,-0.93742937,-0.17893291,-0.94612432,-0.26987335,0
-0.15256566,-3.850626,-1.3600152,-0.17893291,-0.94612432,-0.26987335,0
0.2198391,-1.7805753,-1.4313473,0.48587465,0.153542,-0.86043626,0
1.3908761,3.8911061,0.38345888,0.17893291,0.94612432,0.26987335,0
1.2195908,3.8200212,0.53425151,0.17893291,0.94612432,0.26987335,0
-0.422279,3.3121321,1.0728732,-0.97366238,0.13089311,0.1866768,0
0.9519518,3.6923182,0.98375154,0.17893291,0.94612432,0.26987335,0
-0.86038905,0.12939167,-0.68046808,-0.78725004,0.30220422,-0.53750348,0
0.90578592,1.3618217,-0.48328695,0.60067511,0.11219078,-0.79158229,0
0.25174153,-1.9465798,0.22295922,0.60114473,-0.32227883,0.73127377,0
0.39779574,-0.97625577,0.51719952,0.51076317,-0.32376972,0.79642582,0
-1.2218838,-3.2504237,-1.846103,-0.4721247,0.32322553,-0.82013631,0
1.3293302,3.7650466,1.0480115,0.17893291,0.94612432,0.26987335,0
-0.33589247,-3.7956374,-0.94827962,-0.17893291,-0.94612432,-0.26987335,0
0.19504213,-2.0630224,-1.4962465,0.61363566,0.10708998,-0.7822932,0
0.24088451,4.0672269,0.49934447,0.17893291,0.94612432,0.26987335,0
-1.044174,-2.7201238,-1.6954324,-0.41406181,0.32124174,-0.85167867,0
0.22537987,-1.1906211,0.52616489,0.40268862,-0.32069933,0.85731786,0
-0.016678631,-0.86544442,0.70829684,0.13000506,-0.29463184,0.94672632,0
-0.49328315,-3.9307513,-1.0585406,-0.17893291,-0.94612432,-0.26987335,0
-0.13732708,3.9048438,1.5571182,0.17893291,0.94612432,0.26987335,0
1.3664556,3.7410889,0.68870974,0.17893291,0.94612432,0.26987335,0
0.6229201,-1.3291734,-0.70061857,0.93518692,-0.078348175,-0.34537905,0
0.75665545,3.8429775,0.81003904,0.17893291,0.94612432,0.26987335,0
-0.23948106,3.212759,0.22061384,-0.69307894,0.31590033,-0.64795721,0
0.66424096,3.6106291,2.0645866,0.17893291,0.94612432,0.26987335,0
-0.29880887,-4.0341511,-0.6188938,-0.17893291,-0.94612432,-0.26987335,0
1.0954869,3.7097309,0.75254107,0.17893291,0.94612432,0.26987335,0
0.72159356,3.997098,0.22249579,0.17893291,0.94612432,0.26987335,0
1.412448,3.134481,0.43480337,0.88878626,-0.037802495,-0.45675966,0
0.53302747,4.0043569,0.7419014,0.17893291,0.94612432,0.26987335,0
1.2516441,3.4306059,1.7823708,0.17893291,0.94612432,0.26987335,0
0.86144602,-0.98351765,-0.044468999,0.95726991,-0.23076083,0.17430913,0
1.3713605,3.5049157,1.4311298,0.17893291,0.94612432,0.26987335,0
-0.33876097,0.28904539,-0.77212209,-0.38798693,0.31992677,-0.86435699,0
-0.46879154,-1.0948987,0.7511614,-0.29923809,-0.20897081,0.9310143,0
-0.40429693,-3.6918764,-1.9624629,-0.17893291,-0.94612432,-0.26987335,0
1.0471904,3.2433896,0.11518857,0.54673845,0.13242687,-0.82676482,0
-0.022628069,1.2670968,1.392936,-0.35820085,-0.1928281,0.91351485,0
0.28830144,4.0681267,0.6850934,0.17893291,0.94612432,0.26987335,0
0.46867129,-1.1972063,0.4700048,0.5972473,-0.32243156,0.73439336,0
-1.1309209,-0.52329934,-0.20611036,-0.9821831,0.15576194,0.10514069,0
-0.75371909,-0.88236022,-1.1215402,-0.50037169,0.32368773,-0.80302829,0
0.41522235,-3.5074835,-0.87488198,0.98108178,-0.19218703,0.023288786,0
0.22730887,3.4017215,0.094420135,-0.36723423,0.31870231,-0.8738237,0
0.037410557,3.7901955,1.2505035,0.17893291,0.94612432,0.26987335,0
-0.82026178,-2.9012804,-1.8986487,-0.2351785,0.30747935,-0.92203444,0
-1.5984635,-3.6823878,-0.56447864,-0.17893291,-0.94612432,-0.26987335,0
1.2041111,3.9151039,0.42117858,0.17893291,0.94612432,0.26987335,0
-0.39613318,-3.5081995,-1.9037905,-0.17893291,-0.94612432,-0.26987335,0
1.0512102,3.9350758,0.3098602,0.17893291,0.94612432,0.26987335,0
-1.1049728,-1.9942074,-1.2598125,-0.66200304,0.31869772,-0.67836839,0
-0.41730994,-3.9708519,-0.82427847,-0.17893291,-0.94612432,-0.26987335,0
-0.46090215,-3.9551046,-0.51348269,-0.17893291,-0.94612432,-0.26987335,0
-1.5869411,-3.4401355,-0.96212232,-0.98382813,0.17431319,0.041194379,0
0.55817252,3.7861564,1.1199169,0.17893291,0.94612432,0.26987335,0
1.3808355,3.6751573,0.81133819,0.17893291,0.94612432,0.26987335,0
0.55954349,1.2926131,-0.65369254,0.3996852,0.1807442,-0.89865625,0
0.074121237,-3.2014363,-1.7027115,0.65855873,0.088610873,-0.74729401,0
-1.1700232,-2.084832,-1.3116478,-0.70654541,0.31445584,-0.63396454,0
-0.89414346,-0.57009047,0.47583386,-0.8379817,0.0028275102,0.5456906,0
-0.85607815,-3.9301305,-0.5514133,-0.17893291,-0.94612432,-0.26987335,0
0.52258372,2.3356774,-0.26206821,0.16140258,0.24235593,-0.95666754,0
1.347977,3.8193626,0.89315152,0.17893291,0.94612432,0.26987335,0
-0.45338532,-3.8237259,-0.82452565,-0.17893291,-0.94612432,-0.26987335,0
0.26446643,-2.596283,-0.15774721,0.71783173,-0.31312808,0.62182671,0
-0.89649248,-2.7486739,-1.7480073,-0.42296392,0.32163206,-0.84714478,0
0.16156024,3.8044109,1.516884,0.17893291,0.94612432,0.26987335,0
1.0833085,1.9043419,1.3882574,0.55810219,-0.32350519,0.76411146,0
-1.2075467,-3.7370315,-0.84496051,-0.17893291,-0.94612432,-0.26987335,0
0.71456593,4.0273271,0.2681917,0.17893291,0.94612432,0.26987335,0
0.35648724,-3.3658612,-0.68476713,0.94978559,-0.23767547,0.20351273,0
-0.15712954,2.0226278,-0.26821488,-0.50434333,0.32372481,-0.80052489,0
0.55741543,0.27235168,0.93204427,0.47032532,-0.32318455,0.82118559,0
0.63326102,3.8072505,0.89804429,0.17893291,0.94612432,0.26987335,0
-0.77354187,-1.3867441,-1.3799906,-0.43044737,0.32193664,-0.84325081,0
0.0097190142,3.8581831,1.2354674,0.17893291,0.94612432,0.26987335,0
1.1333892,1.3222893,0.69275767,0.94561565,-0.24111688,0.21834248,0
-0.11559945,-0.05591771,-1.1098597,-0.049915314,0.28267676,-0.95791554,0
1.4180632,1.8047795,0.29551879,0.95711797,-0.10387272,-0.27043569,0
0.29727125,-3.5767503,-1.4619694,0.88438988,-0.034485683,-0.46547285,0
-0.30616176,-0.91756821,-1.4056795,-0.033155203,0.27994299,-0.95944387,0
0.83901608,-1.0059054,-0.58588958,0.96320283,-0.11254154,-0.24407893,0
-0.30117866,2.5540316,-0.013728857,-0.75390482,0.30809468,-0.58026302,0
-0.54529935,1.4376078,-0.1565963,-0.74498761,0.30945832,-0.59095597,0
1.1044564,1.4073503,-0.053389221,0.81279141,0.0124139,-0.58242226,0
-0.92064166,-3.7773523,-0.81270754,-0.17893291,-0.94612432,-0.26987335,0
-0.71791679,-4.0265522,-0.15156746,-0.17893291,-0.94612432,-0.26987335,0
-0.28766823,-3.6628346,-1.7702906,-0.17893291,-0.94612432,-0.26987335,0
-0.81421387,-3.5297952,-1.588726,-0.17893291,-0.94612432,-0.26987335,0
-0.9280268,-3.5858068,-1.6714532,-0.17893291,-0.94612432,-0.26987335,0
