0.67296529,-0.80193639,0.64868349,0.54769266,-0.76488048,0.33910298,0
-0.59941459,-0.91011655,0.50185883,-0.57081318,-0.72927475,0.37726754,0
-1.0834508,-0.11102818,0.59970963,-0.94878525,-0.26415992,0.17328048,0
0.31071216,1.1396065,-0.56817371,0.28220436,0.85982454,-0.42551422,0
-1.19706,-0.27728683,-0.43111098,-0.044477165,-0.43133938,-0.90109277,0
0.93471813,-0.80315852,0.080832601,0.79224169,-0.56470704,0.23121232,0
1.1603109,0.50556964,0.30709255,0.044477165,0.43133938,0.90109277,0
0.91516674,-0.94688082,0.0013299584,0.76180118,-0.5981586,0.24872753,0
-0.1666131,-1.0895821,0.4767462,-0.18090785,-0.88359541,0.43189305,0
0.47361419,0.69536602,-1.0113392,-0.044477165,-0.43133938,-0.90109277,0
0.038235508,-0.077523232,0.61792624,0.044477165,0.43133938,0.90109277,0
1.1355182,0.28343111,-0.47661334,0.89475703,0.38397902,-0.22796929,0
0.2488066,0.97977412,-0.98837942,0.180525,0.88366634,-0.43190807,0
0.47113386,0.48456591,0.24680489,0.044477165,0.43133938,0.90109277,0
0.65993053,0.39735389,0.40753233,0.044477165,0.43133938,0.90109277,0
-0.14450152,0.044595629,-0.4678396,-0.044477165,-0.43133938,-0.90109277,0
1.1459041,-0.51837015,0.43918699,0.86888659,-0.46182993,0.17818344,0
-1.3126528,0.27190065,-0.22620952,-0.96429157,0.25426146,-0.074114501,0
1.1444623,0.26111251,-0.18134844,0.97436464,0.18038568,-0.13444167,0
0.13369548,0.9446696,-0.89044535,0.20231974,0.87940538,-0.43094423,0
0.71948624,0.78662401,-0.73886454,0.54782176,0.74374521,-0.3830595,0
1.166088,-0.26255429,0.021323979,0.98377526,-0.1758353,0.035611391,0
-1.1229296,0.13904113,-0.50827742,-0.044477165,-0.43133938,-0.90109277,0
-0.060517669,0.52060592,0.30583379,0.044477165,0.43133938,0.90109277,0
0.41708854,1.0184222,-0.61574107,0.3434929,0.84038907,-0.41923591,0
0.55578387,0.0019948483,0.42602932,0.044477165,0.43133938,0.90109277,0
-1.0112209,-0.69833946,-0.072415709,-0.85262913,-0.45366722,0.25924855,0
-0.91427153,-0.27236623,-0.47721821,-0.044477165,-0.43133938,-0.90109277,0
-0.97166866,0.025522053,-0.51152426,-0.044477165,-0.43133938,-0.90109277,0
-0.68280041,0.70903742,0.24812487,0.044477165,0.43133938,0.90109277,0
-0.72078091,-0.46670189,0.85915267,0.044477165,0.43133938,0.90109277,0
0.62729031,-0.55097568,0.87885606,0.044477165,0.43133938,0.90109277,0
0.23328102,-0.15809089,0.69559491,0.044477165,0.43133938,0.90109277,0
-0.79094827,-0.78932613,0.66861939,-0.56062949,-0.73578787,0.37988257,0
0.85927033,0.83879393,0.20783597,0.044477165,0.43133938,0.90109277,0
1.112148,0.37351722,0.21493673,0.044477165,0.43133938,0.90109277,0
-0.58301318,-0.49806955,0.84443486,0.044477165,0.43133938,0.90109277,0
0.10585761,1.2248781,-0.40894625,0.075639486,0.89794225,-0.43356472,0
-1.184055,-0.36729002,-0.36421704,-0.044477165,-0.43133938,-0.90109277,0
0.73574221,0.96666414,-0.58333486,0.56963432,0.73003733,-0.37757438,0
1.0271659,-0.4311541,0.48596305,0.82977873,-0.51823807,0.2071155,0
1.1178069,-0.48767695,-0.28330332,-0.044477165,-0.43133938,-0.90109277,0
-0.73708224,1.1135212,-0.085689992,-0.58672404,0.74131441,-0.3258957,0
0.90131164,0.82678068,0.14044559,0.044477165,0.43133938,0.90109277,0
0.51622456,-0.42249832,0.67602623,0.044477165,0.43133938,0.90109277,0
0.35610172,0.86592227,-0.82852387,0.30017924,0.85453355,-0.42386878,0
0.48855463,0.32623374,0.32693452,0.044477165,0.43133938,0.90109277,0
-0.3862043,-1.0968789,0.032620847,-0.044477165,-0.43133938,-0.90109277,0
0.090264201,-0.55757791,0.72543758,0.044477165,0.43133938,0.90109277,0
-0.86804628,-0.40805089,-0.3769874,-0.044477165,-0.43133938,-0.90109277,0
0.4725866,0.70536035,0.18104225,0.044477165,0.43133938,0.90109277,0
-0.76637661,1.0461147,0.024885327,-0.60734057,0.72783422,-0.3184253,0
-0.15386362,-0.39667881,-0.41199303,-0.044477165,-0.43133938,-0.90109277,0
-0.91761565,0.24763441,-0.65116197,-0.044477165,-0.43133938,-0.90109277,0
0.2692275,-0.87446016,0.87385851,0.28784359,-0.86926687,0.40189704,0
0.22724125,-0.20092675,-0.42010018,-0.044477165,-0.43133938,-0.90109277,0
0.88025677,-0.83045405,-0.23140222,-0.044477165,-0.43133938,-0.90109277,0
-1.1584396,-0.65747821,0.00021636486,-0.90249014,-0.36945233,0.22139734,0
-0.29631793,0.79992807,0.19395286,0.044477165,0.43133938,0.90109277,0
1.1481804,-0.46407032,-0.37060469,-0.044477165,-0.43133938,-0.90109277,0
-0.59769511,-0.81732786,0.84757942,-0.43330729,-0.80439532,0.40643945,0
0.061972529,-0.44341019,0.84184551,0.044477165,0.43133938,0.90109277,0
-1.2565963,-0.021249354,-0.035356164,-0.99770802,-0.026864916,0.062105775,0
0.6707347,0.65080404,-0.80683452,-0.044477165,-0.43133938,-0.90109277,0
0.46318859,0.91411477,-0.56495219,0.38137686,0.82634121,-0.41438133,0
0.87788773,-0.17483422,-0.58682519,-0.044477165,-0.43133938,-0.90109277,0
0.1480456,0.550192,-0.93178105,-0.044477165,-0.43133938,-0.90109277,0
0.15360963,-0.61892521,-0.25944287,-0.044477165,-0.43133938,-0.90109277,0
0.84930718,-0.94969559,0.42740041,0.6858862,-0.6689893,0.28638023,0
0.259969,-1.2833432,0.060475439,-0.044477165,-0.43133938,-0.90109277,0
-0.80286753,-0.83574295,0.27020603,-0.65655208,-0.66721827,0.351794,0
-0.82084912,-0.62686408,0.70647925,-0.70824993,-0.62251717,0.33294803,0
-0.43743104,-0.87842298,0.74700797,-0.35242742,-0.83721989,0.4181599,0
-0.78951144,-0.79787523,0.60775912,-0.59088463,-0.71593672,0.3718735,0
-0.58292365,-0.84102976,1.0005127,-0.45635021,-0.79360521,0.40241179,0
-0.50320542,0.99753094,0.18178955,0.044477165,0.43133938,0.90109277,0
-0.78069711,0.90313423,-0.2041904,-0.61260343,0.72427201,-0.31646037,0
-1.2054704,0.24598294,-0.36158091,-0.97069341,0.23189202,-0.063090563,0
-0.24904481,0.20590979,-0.71951509,-0.044477165,-0.43133938,-0.90109277,0
0.6561054,-1.0386673,0.14430436,0.55035532,-0.76335025,0.33823904,0
1.1297854,0.38842109,-0.23549622,0.9391712,0.28942853,-0.18490171,0
0.009375453,-1.2692281,0.1124458,-0.022436798,-0.9013266,0.43255872,0
1.1010907,-0.61297703,-0.20619333,-0.044477165,-0.43133938,-0.90109277,0
0.44233513,-0.94002128,0.88431591,0.31665075,-0.86156356,0.39678773,0
-0.60912603,-0.6572662,0.86904919,0.044477165,0.43133938,0.90109277,0
-0.89554685,0.21009731,-0.54210067,-0.044477165,-0.43133938,-0.90109277,0
-1.0331795,0.42274314,-0.37735409,-0.87766045,0.44773799,-0.17100477,0
1.0167549,0.31003147,-0.83506674,0.82701683,0.49008918,-0.275419,0
1.1709995,-0.44742596,0.18169677,0.94918752,-0.29954028,0.096534252,0
0.92133045,-0.76186979,0.19616601,0.7723105,-0.58698803,0.24286163,0
1.2941468,-0.04290837,0.40728962,0.98430198,-0.17312984,0.034290314,0
1.0095137,-0.06870544,-0.63721001,-0.044477165,-0.43133938,-0.90109277,0
0.16459179,-1.1608287,0.22187881,0.10809183,-0.89876789,0.42489114,0
1.0785604,0.32863432,-0.60393107,0.86393875,0.4363029,-0.25149477,0
-1.0297348,0.5885548,-0.49129438,-0.7971018,0.55904043,-0.22825983,0
-0.97686756,-0.69872576,0.12260628,-0.85546768,-0.44938934,0.25734097,0
-0.04585278,-0.33324623,0.80353725,0.044477165,0.43133938,0.90109277,0
0.88348234,-0.031454682,0.5555135,0.044477165,0.43133938,0.90109277,0
0.29160246,-0.24748179,-0.4459269,-0.044477165,-0.43133938,-0.90109277,0
0.58554888,-1.1103257,0.090082526,0.48374701,-0.79848456,0.35834503,0
0.39499524,0.98026848,-0.50458705,0.355268,0.83619398,-0.41780898,0
-0.8997826,-0.67108053,0.57607174,-0.76279557,-0.56779176,0.30944413,0
0.89600778,0.41971189,0.3750658,0.044477165,0.43133938,0.90109277,0
-0.10802716,-0.72554666,0.94068986,0.044477165,0.43133938,0.90109277,0
0.83706337,-0.48578578,-0.46566156,-0.044477165,-0.43133938,-0.90109277,0
-1.1652203,0.19458979,-0.54474944,-0.90158987,0.40583926,-0.14976734,0
-1.1527581,0.11192757,-0.47669691,-0.97439951,0.21770732,-0.056117654,0
0.57873368,1.0407474,0.035654485,0.044477165,0.43133938,0.90109277,0
0.33726883,-1.163806,0.49419576,0.31021321,-0.8633604,0.39796555,0
0.96043766,-0.66323721,0.37978855,0.78785396,-0.56974179,0.23383895,0
0.49772319,0.34216762,0.43715957,0.044477165,0.43133938,0.90109277,0
-1.0495191,-0.72264963,0.097074389,-0.81597584,-0.50470936,0.28187251,0
0.028259397,-0.94031036,-0.17035183,-0.044477165,-0.43133938,-0.90109277,0
-1.1596467,-0.26684913,0.70641017,0.044477165,0.43133938,0.90109277,0
0.63019103,0.62355787,-0.90726805,-0.044477165,-0.43133938,-0.90109277,0
-0.70179045,0.8070122,0.28452232,0.044477165,0.43133938,0.90109277,0
1.1178405,-0.25698322,0.55609,0.91519374,-0.37924299,0.13636464,0
0.37745968,0.62038636,-0.93695581,-0.044477165,-0.43133938,-0.90109277,0
-1.0529282,0.37111071,-0.43772119,-0.90865332,0.39232048,-0.14294749,0
-1.0823662,-0.56525886,0.23910177,-0.86333442,-0.43725294,0.25191975,0
-0.26748818,-0.44161534,-0.3343761,-0.044477165,-0.43133938,-0.90109277,0
0.77815151,0.28657672,-0.82018125,-0.044477165,-0.43133938,-0.90109277,0
-0.43370301,-1.0337923,-0.026217759,-0.044477165,-0.43133938,-0.90109277,0
-1.1682611,0.32261515,0.35439992,-0.98933244,0.144264,-0.020224392,0
-0.70520222,-0.65713155,-0.1348148,-0.044477165,-0.43133938,-0.90109277,0
0.44285107,-0.91487038,0.70483112,0.38808644,-0.83860433,0.3822715,0
-0.95629489,-0.74110854,-0.13359809,-0.044477165,-0.43133938,-0.90109277,0
0.67924625,-0.69439512,-0.24964748,-0.044477165,-0.43133938,-0.90109277,0
0.09904281,0.19647953,-0.75125551,-0.044477165,-0.43133938,-0.90109277,0
-1.2698591,-0.009010911,-0.10235727,-0.99732655,0.071518689,0.014992237,0
-0.77365541,0.60238981,-0.90737057,-0.044477165,-0.43133938,-0.90109277,0
-0.033888638,-0.68025506,0.93403959,0.044477165,0.43133938,0.90109277,0
1.2519045,-0.17940482,-0.18982738,0.99887294,-0.034169465,-0.032947004,0
-1.2112267,-0.038095146,0.079515338,-0.99191332,-0.088256747,0.091207147,0
0.58519363,-0.31896853,-0.40704417,-0.044477165,-0.43133938,-0.90109277,0
0.2436173,0.70348603,-0.93264222,-0.044477165,-0.43133938,-0.90109277,0
0.53577185,-0.77052987,0.9518677,0.39549661,-0.83589447,0.38060856,0
0.35860264,-1.1603303,0.5242728,0.23166013,-0.88185227,0.41069469,0
0.056223392,-1.0161171,0.71389991,0.012744904,-0.90215701,0.43121967,0
-0.44480705,-0.19384015,-0.5500738,-0.044477165,-0.43133938,-0.90109277,0
-1.2569407,0.31930566,0.42293793,-0.98975831,0.14150001,-0.018880308,0
-0.38181949,1.1535164,-0.3864581,-0.24741769,0.87864125,-0.40837979,0
-0.66345477,0.79657298,0.14347708,0.044477165,0.43133938,0.90109277,0
0.76408291,1.0321602,-0.11931145,0.54271978,0.74684387,-0.38429093,0
0.1159569,1.1592124,0.026827455,0.044477165,0.43133938,0.90109277,0
-1.0539923,0.07794103,0.6803304,0.044477165,0.43133938,0.90109277,0
-0.96261483,-0.85020071,0.11690879,-0.80512077,-0.51852292,0.28794903,0
0.30794758,-0.46265352,-0.26536772,-0.044477165,-0.43133938,-0.90109277,0
0.61348921,0.63305515,-0.91619909,-0.044477165,-0.43133938,-0.90109277,0
1.1109526,-0.6583724,-0.20858192,-0.044477165,-0.43133938,-0.90109277,0
0.091759324,-0.77385032,-0.20178141,-0.044477165,-0.43133938,-0.90109277,0
-0.448156,0.81200695,0.26242217,0.044477165,0.43133938,0.90109277,0
-0.68397146,-0.9784674,-0.075012803,-0.044477165,-0.43133938,-0.90109277,0
-0.83705759,0.51448613,-0.77321196,-0.044477165,-0.43133938,-0.90109277,0
-0.073096454,-1.000446,-0.057201535,-0.044477165,-0.43133938,-0.90109277,0
0.41994739,-1.17714,0.09302564,-0.044477165,-0.43133938,-0.90109277,0
0.61905444,-0.9893496,0.34780949,0.45101738,-0.81350172,0.367149,0
-1.3264084,-0.036287487,-0.10114348,-0.99880922,0.037303209,0.031443834,0
-0.34542575,-0.90388536,0.67750835,-0.29567572,-0.85589069,0.42429608,0
0.45331371,-0.90527683,0.89003229,0.044477165,0.43133938,0.90109277,0
-0.42972302,-0.48579979,0.8859883,0.044477165,0.43133938,0.90109277,0
-0.93840718,0.8709144,0.047308028,-0.76395279,0.5959022,-0.24754122,0
0.64077282,0.73639673,-0.85125875,0.54192251,0.74732447,-0.38448161,0
-0.82135814,-1.0684295,0.16550255,-0.60436267,-0.70659268,0.36806589,0
-0.068611227,-0.20603609,-0.4318985,-0.044477165,-0.43133938,-0.90109277,0
1.2347326,0.32990378,-0.067023158,0.98190296,0.14733419,-0.11899251,0
0.90651536,0.2286796,0.48402303,0.044477165,0.43133938,0.90109277,0
-1.1936251,-0.074787378,0.3263678,-0.99423921,-0.068937868,0.082074225,0
0.89555013,0.4527792,-0.84434295,-0.044477165,-0.43133938,-0.90109277,0
0.28044188,-1.1492351,0.0022739321,-0.044477165,-0.43133938,-0.90109277,0
-0.71575558,-0.37894902,0.83019686,0.044477165,0.43133938,0.90109277,0
0.6735279,-0.44956982,0.70852953,0.044477165,0.43133938,0.90109277,0
-0.48342359,1.0434669,-0.24192527,-0.43881607,0.81874692,-0.37026203,0
0.45699805,-0.31964043,0.72747391,0.044477165,0.43133938,0.90109277,0
0.81944829,-0.24441242,-0.43629321,-0.044477165,-0.43133938,-0.90109277,0
-0.28354216,-0.61282331,0.90757561,0.044477165,0.43133938,0.90109277,0
-0.95186162,-0.76793671,-0.074356437,-0.044477165,-0.43133938,-0.90109277,0
-0.45919251,0.65495521,0.15429926,0.044477165,0.43133938,0.90109277,0
1.1095697,0.68755132,-0.062439561,0.89132112,0.3902325,-0.23079312,0
-0.62507522,-0.63065237,-0.16935241,-0.044477165,-0.43133938,-0.90109277,0
0.43218541,0.11800891,0.52560937,0.044477165,0.43133938,0.90109277,0
0.21975493,-1.2142521,0.17663293,0.14021665,-0.89575219,0.42186189,0
-0.34906805,1.0963037,-0.45301312,-0.21936524,0.88418823,-0.41241974,0
0.37149692,0.22567695,0.44028652,0.044477165,0.43133938,0.90109277,0
-1.1259549,-0.4866873,0.43668032,-0.84188658,-0.46940178,0.26625025,0
0.032560766,0.61579943,0.3584711,0.044477165,0.43133938,0.90109277,0
0.21981037,1.3611265,-0.064108431,0.11108714,0.89425617,-0.43354994,0
-0.53091419,0.86924571,0.27201906,0.044477165,0.43133938,0.90109277,0
-0.048646331,1.2189803,-0.22808075,0.0011907816,0.9019618,-0.43181413,0
-0.78014815,-0.13819319,0.65089017,0.044477165,0.43133938,0.90109277,0
-0.5544039,0.95820844,-0.52357173,-0.45062828,0.81367183,-0.36724967,0
-0.27861571,0.69030029,0.22638386,0.044477165,0.43133938,0.90109277,0
1.1091883,0.27247381,-0.55677843,0.89497656,0.38357526,-0.22778684,0
-0.15507191,0.59622604,-0.78000426,-0.044477165,-0.43133938,-0.90109277,0
-0.039168298,-0.51458681,-0.23757128,-0.044477165,-0.43133938,-0.90109277,0
0.94902837,-0.73959947,0.35714808,0.74091971,-0.61927903,0.25986826,0
0.61471295,-0.42800161,-0.43945047,-0.044477165,-0.43133938,-0.90109277,0
0.70355105,-0.75991154,0.70435148,0.60155964,-0.73168963,0.32055616,0
-0.91753942,0.45719394,-0.66509533,-0.044477165,-0.43133938,-0.90109277,0
-1.1719364,-0.36869907,-0.24597239,-0.044477165,-0.43133938,-0.90109277,0
-0.88623941,-0.67082524,-0.29631603,-0.044477165,-0.43133938,-0.90109277,0
-1.0199444,-0.061692901,0.5883311,0.044477165,0.43133938,0.90109277,0
0.66548645,-1.0782477,0.21862386,0.55427527,-0.76107728,0.33695754,0
1.1119666,-0.31862855,-0.48302501,-0.044477165,-0.43133938,-0.90109277,0
-0.09307909,1.2663654,0.0146617,0.044477165,0.43133938,0.90109277,0
-0.55433327,0.70509386,-0.76233768,-0.044477165,-0.43133938,-0.90109277,0
0.89145869,-0.22618574,-0.47093302,-0.044477165,-0.43133938,-0.90109277,0
0.064103842,0.91028047,0.13134146,0.044477165,0.43133938,0.90109277,0
0.20853496,-0.51630402,-0.38871717,-0.044477165,-0.43133938,-0.90109277,0
0.70215857,0.50274891,-0.77096057,-0.044477165,-0.43133938,-0.90109277,0
1.2980778,-0.22247833,-0.20437485,0.99662757,-0.081418991,-0.01021868,0
0.13718098,0.89603591,0.19414905,0.044477165,0.43133938,0.90109277,0
1.2164431,0.40981525,-0.20298862,0.93320286,0.30401599,-0.19158995,0
-0.91283309,-0.79206789,0.097074032,-0.8022626,-0.52207303,0.28950733,0
-0.28236693,-1.1112925,0.38566533,-0.31375793,-0.85031378,0.42251906,0
-0.66459942,0.99597192,-0.21377563,-0.51676178,0.78187078,-0.34876266,0
-1.0193826,-0.75115812,0.31487727,-0.73541814,-0.59634691,0.32176179,0
-1.16202,-0.17051968,0.4260065,-0.94769484,-0.26715001,0.17465806,0
0.45293391,-0.9931736,-0.063169546,-0.044477165,-0.43133938,-0.90109277,0
0.68465078,-0.75473011,-0.25615394,-0.044477165,-0.43133938,-0.90109277,0
0.83881676,-0.69166672,0.60182321,0.71488392,-0.64379537,0.2728889,0
-1.0600102,0.68461746,0.068673372,-0.85980821,0.4758012,-0.18531942,0
0.62352121,0.56049848,-0.89261293,-0.044477165,-0.43133938,-0.90109277,0
-0.84536886,0.73367727,0.34022227,0.044477165,0.43133938,0.90109277,0
0.69794583,0.47751462,-0.79036021,-0.044477165,-0.43133938,-0.90109277,0
0.94533539,0.88381577,0.093944073,0.77244526,0.55714512,-0.30482411,0
-0.18814021,0.87927389,0.14707476,0.044477165,0.43133938,0.90109277,0
-0.59386617,0.68012226,-0.78547978,-0.044477165,-0.43133938,-0.90109277,0
-1.0360183,-0.42456317,0.35011888,-0.89474922,-0.38399357,0.2279759,0
1.061375,-0.47136629,0.40351611,0.87585437,-0.45068893,0.17250651,0
-0.46661973,0.79939622,-0.81838322,-0.044477165,-0.43133938,-0.90109277,0
0.47007203,-0.85174984,0.94082171,0.33872175,-0.85506809,0.39258903,0
0.93696916,0.28122699,-0.64550066,-0.044477165,-0.43133938,-0.90109277,0
1.2008421,-0.33806038,0.57509625,0.92745358,-0.35305274,0.12322271,0
-0.63712585,0.93496132,0.052104801,0.044477165,0.43133938,0.90109277,0
-0.96333408,-0.21046826,0.77165437,0.044477165,0.43133938,0.90109277,0
1.087968,-0.70304137,0.34922892,0.7889632,-0.56847596,0.2331782,0
-0.15173113,1.2446684,-0.1710251,-0.21979743,0.88410866,-0.41236031,0
0.44967091,-1.2383308,0.12790237,0.32354534,-0.85959053,0.39550298,0
0.24308705,1.1194458,0.077611268,0.044477165,0.43133938,0.90109277,0
0.036441684,0.61596119,0.15916979,0.044477165,0.43133938,0.90109277,0
-0.86810595,0.098068953,-0.5561257,-0.044477165,-0.43133938,-0.90109277,0
-0.10256988,0.88637245,0.097384349,0.044477165,0.43133938,0.90109277,0
-0.9680528,0.064561933,0.63264298,0.044477165,0.43133938,0.90109277,0
0.67793894,0.28240758,0.30942512,0.044477165,0.43133938,0.90109277,0
-0.85953033,0.84457374,-0.60750377,-0.63874054,0.7058118,-0.30633366,0
1.1272813,0.33830458,0.3280232,0.044477165,0.43133938,0.90109277,0
-0.61735791,-0.3508881,0.77579719,0.044477165,0.43133938,0.90109277,0
-0.48122501,-0.40327173,-0.34381589,-0.044477165,-0.43133938,-0.90109277,0
-1.0065625,-0.32376128,-0.40752339,-0.044477165,-0.43133938,-0.90109277,0
0.82279611,-0.77613086,0.87505865,0.044477165,0.43133938,0.90109277,0
1.1843193,-0.24283466,0.096252561,0.94988948,-0.29761547,0.095578313,0
-0.24760135,-0.42355028,0.77426976,0.044477165,0.43133938,0.90109277,0
1.2334185,0.25492984,0.32880449,0.99014831,0.10084313,-0.097144961,0
1.2139795,0.32806426,-0.011849523,0.96242237,0.22337165,-0.15442896,0
-1.3394411,0.14888293,0.14169073,-0.99668372,0.080683798,0.010573328,0
-0.031239152,-1.172868,0.16525429,-0.014292359,-0.90161836,0.4322964,0
-0.16986415,-0.15958181,0.6368053,0.044477165,0.43133938,0.90109277,0
-1.0658416,0.54052633,0.41796294,0.044477165,0.43133938,0.90109277,0
-0.53120518,-1.0307055,0.18107355,-0.41722935,-0.81153387,0.40906295,0
-0.48912668,0.74307179,0.23340118,0.044477165,0.43133938,0.90109277,0
-1.0892681,0.69312567,0.1352275,-0.90942216,0.39081225,-0.1421876,0
-0.26969349,1.1428388,-0.21091256,-0.23926038,0.8803342,-0.40959287,0
1.0576708,-0.22863193,-0.51908076,-0.044477165,-0.43133938,-0.90109277,0
0.43719912,-0.67520952,0.902228,0.044477165,0.43133938,0.90109277,0
-0.83702171,-0.88311404,-0.059611917,-0.044477165,-0.43133938,-0.90109277,0
1.1533103,0.36601681,-0.57309568,0.90630138,0.3620449,-0.21803963,0
0.46264255,-1.1398325,-0.017717073,-0.044477165,-0.43133938,-0.90109277,0
-1.0317781,-0.8738445,0.2086122,-0.7203151,-0.61114401,0.32809943,0
0.78836542,-0.31635928,-0.43894246,-0.044477165,-0.43133938,-0.90109277,0
-0.13309723,-0.6500057,0.8122316,0.044477165,0.43133938,0.90109277,0
0.31797206,0.60530269,0.31156901,0.044477165,0.43133938,0.90109277,0
0.57565033,-1.0228324,0.45187789,0.50111389,-0.78993469,0.35339516,0
0.10737589,0.62613535,-0.77681524,-0.044477165,-0.43133938,-0.90109277,0
-0.24961877,0.31350136,0.49577922,0.044477165,0.43133938,0.90109277,0
-0.21800959,1.1703864,-0.27046329,-0.1607725,0.89331907,-0.41968259,0
0.95446759,0.076437414,0.3866958,0.044477165,0.43133938,0.90109277,0
1.2347105,-0.057213917,-0.63673127,0.99411666,0.07006067,-0.08260566,0
-1.0102787,0.34224921,0.46148098,0.044477165,0.43133938,0.90109277,0
1.1731567,0.276622,-0.47177023,0.94101965,0.28475109,-0.18275392,0
0.26571038,0.76369762,-0.97874951,-0.044477165,-0.43133938,-0.90109277,0
0.98208642,0.68760961,-0.53018224,0.75706959,0.57396019,-0.31211424,0
0.22894636,0.81652474,0.11139017,0.044477165,0.43133938,0.90109277,0
1.0629315,-0.50428152,0.34268904,0.88688248,-0.43223655,0.16312933,0
0.74244988,-0.76565367,0.91367912,0.044477165,0.43133938,0.90109277,0
-0.054842114,0.85820538,-0.97489583,-0.044477165,-0.43133938,-0.90109277,0
-0.46857846,0.9229455,-0.7526775,-0.30993044,0.86343831,-0.39801681,0
0.78622282,0.84788358,-0.49834144,0.57004082,0.72977448,-0.37746865,0
0.52289474,0.96547359,-0.49921083,0.3970452,0.82005548,-0.41214582,0
-0.31446177,0.6211291,-0.82622516,-0.044477165,-0.43133938,-0.90109277,0
0.16034599,0.31390762,-0.68705422,-0.044477165,-0.43133938,-0.90109277,0
-0.92372203,-0.90576011,-0.16601574,-0.044477165,-0.43133938,-0.90109277,0
-0.34677923,1.0436704,-0.75851774,-0.23304874,0.88157916,-0.41049543,0
-0.47688189,0.061650693,-0.61148107,-0.044477165,-0.43133938,-0.90109277,0
-0.62118357,-0.052419901,0.6961059,0.044477165,0.43133938,0.90109277,0
-0.47240067,0.80856812,-0.8179329,-0.044477165,-0.43133938,-0.90109277,0
0.59402502,1.1914053,-0.00034797192,0.42176372,0.80955243,-0.40833831,0
0.13381916,-0.46780685,0.84360218,0.044477165,0.43133938,0.90109277,0
-0.28462625,0.74161053,0.23516671,0.044477165,0.43133938,0.90109277,0
0.8611747,-0.3442004,-0.52126503,-0.044477165,-0.43133938,-0.90109277,0
-0.1068446,-1.0643624,0.53659248,-0.083950222,-0.89718127,0.43361071,0
0.46537548,-0.66777104,-0.23804411,-0.044477165,-0.43133938,-0.90109277,0
-0.1852777,1.0589492,0.024940923,0.044477165,0.43133938,0.90109277,0
-0.84583104,-0.54284281,0.87418616,0.044477165,0.43133938,0.90109277,0
0.70275843,-1.0526484,-0.14842188,-0.044477165,-0.43133938,-0.90109277,0
-0.94866717,-0.5605278,0.97154868,-0.68466026,-0.64368689,0.34191734,0
-0.16083959,-0.22714022,0.73137939,0.044477165,0.43133938,0.90109277,0
1.2052644,-0.28391892,0.49105227,0.96155876,-0.26313967,0.078499198,0
-0.19575492,-0.022835791,0.46978456,0.044477165,0.43133938,0.90109277,0
-0.16827802,-0.27016068,-0.40404338,-0.044477165,-0.43133938,-0.90109277,0
0.37536824,-0.56446266,0.74780512,0.044477165,0.43133938,0.90109277,0
0.82773489,0.43103629,0.21790296,0.044477165,0.43133938,0.90109277,0
-0.15744179,-0.57412875,0.94404173,0.044477165,0.43133938,0.90109277,0
0.11727864,1.0897619,-0.60902411,0.054366767,0.89960361,-0.43331003,0
-1.2002068,0.34777939,-0.48228258,-0.93269891,0.34107202,-0.11722875,0
-0.3859266,-0.16745226,0.58756053,0.044477165,0.43133938,0.90109277,0
-0.75283903,-0.28097928,-0.42562622,-0.044477165,-0.43133938,-0.90109277,0
0.074110508,1.2604907,-0.17421445,0.029946387,0.90100437,-0.43277514,0
-0.10748529,-1.2343165,0.23889288,-0.075656176,-0.89794081,0.43356481,0
0.033363283,1.00214,-0.91239643,0.10780638,0.89464575,-0.4335745,0
0.52390963,-0.47499883,0.71578151,0.044477165,0.43133938,0.90109277,0
0.39305413,-1.0187473,0.68687731,0.22524267,-0.88309002,0.41160393,0
0.1787625,-0.055492193,-0.491193,-0.044477165,-0.43133938,-0.90109277,0
1.2555404,0.32172745,0.071739674,0.98513937,0.13084957,-0.11126131,0
1.2522857,0.48118681,0.053630948,0.9320333,0.3067885,-0.19285935,0
0.80836999,-1.0419886,0.084982753,0.68963611,-0.66584754,0.28469121,0
-0.39697826,-0.031086624,-0.47187921,-0.044477165,-0.43133938,-0.90109277,0
0.26166713,0.10388654,-0.66997743,-0.044477165,-0.43133938,-0.90109277,0
-0.50077838,0.52762473,-0.82724565,-0.044477165,-0.43133938,-0.90109277,0
0.12738287,-1.034999,0.74615586,0.095458329,-0.89969319,0.42595768,0
-1.0630122,-0.44675279,-0.19230115,-0.044477165,-0.43133938,-0.90109277,0
0.029175401,-1.1336979,0.66897017,-0.018277586,-0.90148306,0.43242833,0
-0.80721772,0.98493254,-0.26274121,-0.6573385,0.69185519,-0.29873484,0
0.49019271,0.50788069,-0.7147032,-0.044477165,-0.43133938,-0.90109277,0
1.1578963,0.26949257,0.043406129,0.98142719,0.14961836,-0.12006241,0
0.010584429,-0.0056308806,-0.48360947,-0.044477165,-0.43133938,-0.90109277,0
0.94250101,0.70146161,0.069458604,0.044477165,0.43133938,0.90109277,0
0.70689762,0.93059379,-0.60214925,0.52806556,0.75552475,-0.38772297,0
0.16945767,-1.0881616,0.6570428,0.14763737,-0.8949194,0.42109698,0
0.51098233,0.90173912,0.20691663,0.044477165,0.43133938,0.90109277,0
-1.1471564,-0.32882687,0.18031669,-0.96353185,-0.21972185,0.1527366,0
0.44317162,-0.57651192,-0.32775876,-0.044477165,-0.43133938,-0.90109277,0
-1.174298,0.23787244,0.34629107,-0.99530077,0.096792132,0.0027942061,0
0.26918405,-0.3877829,0.70554608,0.044477165,0.43133938,0.90109277,0
0.70578355,-0.16381961,-0.61227942,-0.044477165,-0.43133938,-0.90109277,0
0.51228422,0.33560458,-0.66008484,-0.044477165,-0.43133938,-0.90109277,0
-0.16992712,-0.51389408,0.90035474,0.044477165,0.43133938,0.90109277,0
-0.88962334,0.3898589,-0.79138809,-0.044477165,-0.43133938,-0.90109277,0
0.74245948,0.046981096,-0.62846792,-0.044477165,-0.43133938,-0.90109277,0
0.26687858,0.65108931,-0.80985731,-0.044477165,-0.43133938,-0.90109277,0
-0.026263684,0.49535167,0.28680575,0.044477165,0.43133938,0.90109277,0
-0.40354151,0.33230931,-0.69949239,-0.044477165,-0.43133938,-0.90109277,0
0.81540233,0.078626603,-0.54838192,-0.044477165,-0.43133938,-0.90109277,0
-0.50916868,0.18910182,0.47842884,0.044477165,0.43133938,0.90109277,0
0.48261726,-0.56369585,0.86043978,0.044477165,0.43133938,0.90109277,0
1.1939021,0.066661,0.53043711,0.044477165,0.43133938,0.90109277,0
-0.75131208,-0.23659401,0.79876322,0.044477165,0.43133938,0.90109277,0
-0.43939298,-0.59197128,-0.24405301,-0.044477165,-0.43133938,-0.90109277,0
-0.32330817,-0.90197551,0.93237537,-0.25164947,-0.8680622,0.42794931,0
0.19205406,-0.24273449,-0.54393077,-0.044477165,-0.43133938,-0.90109277,0
-0.95510906,-0.33763152,0.85321522,0.044477165,0.43133938,0.90109277,0
0.55305135,-1.1215811,0.42197201,0.42063153,-0.82622099,0.37473732,0
-1.0320257,-0.59056103,-0.2873832,-0.044477165,-0.43133938,-0.90109277,0
0.010909587,-0.49005044,-0.28987515,-0.044477165,-0.43133938,-0.90109277,0
1.0677887,0.2043615,0.37800455,0.044477165,0.43133938,0.90109277,0
0.30122161,-0.35062283,0.80947238,0.044477165,0.43133938,0.90109277,0
-0.92965114,-0.92009515,0.091344357,-0.70722556,-0.62346524,0.33335137,0
0.21368387,-0.14301947,-0.5112564,-0.044477165,-0.43133938,-0.90109277,0
-0.76765025,0.93157589,-0.18908317,-0.67019618,0.68178093,-0.2932778,0
0.037257314,0.5284335,0.28225744,0.044477165,0.43133938,0.90109277,0
0.84045994,-0.74667144,0.91859961,0.61745608,-0.72094238,0.31462705,0
0.15627563,-0.8890599,1.0073438,0.044477165,0.43133938,0.90109277,0
-0.12188482,0.80472136,0.2709046,0.044477165,0.43133938,0.90109277,0
0.70986044,-0.72485048,0.62272823,0.61979592,-0.71932137,0.3137356,0
-0.91756159,-0.46521759,0.63550842,-0.84081191,-0.47093785,0.26693243,0
0.41655633,-0.20004609,0.53589356,0.044477165,0.43133938,0.90109277,0
-0.63197082,-1.0085518,0.26685447,-0.52283448,-0.75854611,0.38891107,0
0.19806069,1.2010834,0.023461401,0.044477165,0.43133938,0.90109277,0
1.1678118,0.45889872,-0.45645052,0.87379813,0.42042285,-0.24437994,0
-1.0771683,0.40837085,-0.71470875,-0.044477165,-0.43133938,-0.90109277,0
0.13551521,-0.9907999,0.97322845,0.044477165,0.43133938,0.90109277,0
-0.82222605,0.73071015,0.33494106,0.044477165,0.43133938,0.90109277,0
-0.48243037,0.01242879,0.55186284,0.044477165,0.43133938,0.90109277,0
-0.47401476,0.99457157,-0.68741345,-0.41334093,0.82910442,-0.37647751,0
0.536336,-0.47714296,-0.30032939,-0.044477165,-0.43133938,-0.90109277,0
0.70514762,-0.33803996,-0.34276226,-0.044477165,-0.43133938,-0.90109277,0
0.94349384,0.6932708,-0.35886812,0.81004775,0.51231903,-0.28522253,0
-1.2475486,-0.0056971908,-0.43617791,-0.044477165,-0.43133938,-0.90109277,0
-0.1802398,0.45103216,0.34840187,0.044477165,0.43133938,0.90109277,0
-0.056008041,0.57259107,-0.79156619,-0.044477165,-0.43133938,-0.90109277,0
0.18969005,-0.88586009,-0.054593235,-0.044477165,-0.43133938,-0.90109277,0
-0.40170389,0.68361181,0.19821015,0.044477165,0.43133938,0.90109277,0
0.4058066,1.3212502,-0.10802859,0.22242332,0.87506986,-0.42986119,0
0.78970575,0.25688392,0.31082624,0.044477165,0.43133938,0.90109277,0
1.2691174,-0.091954052,-0.17186278,0.99577713,-0.091651738,-0.0052784085,0
-0.64159155,-1.1704135,-0.028917909,-0.044477165,-0.43133938,-0.90109277,0
-0.02287443,-0.049535036,0.47208369,0.044477165,0.43133938,0.90109277,0
0.97409475,0.90260071,0.031880975,0.044477165,0.43133938,0.90109277,0
-0.55867565,-0.0056940913,-0.52207565,-0.044477165,-0.43133938,-0.90109277,0
0.92875087,-0.69130367,0.53335381,0.70154488,-0.65564561,0.27921984,0
0.45922071,-0.71642679,0.93943858,0.044477165,0.43133938,0.90109277,0
0.34443694,-0.30908048,0.61801636,0.044477165,0.43133938,0.90109277,0
-0.31085587,-1.224512,0.23775572,-0.21207076,-0.87735134,0.43044233,0
-1.0536582,0.40841964,-0.42121542,-0.88877493,0.4289608,-0.16146791,0
0.360165,-0.97241169,0.63721585,0.3553853,-0.84981441,0.38925165,0
1.009063,0.45008197,-0.62953126,0.82652909,0.49074787,-0.27571023,0
-0.38942385,1.0023724,0.07956475,0.044477165,0.43133938,0.90109277,0
-0.47597268,-0.7728672,-0.27154958,-0.044477165,-0.43133938,-0.90109277,0
-0.090243459,-1.1299291,0.72258258,-0.11064839,-0.89430881,0.43355352,0
0.49761033,0.87123394,-0.64788711,0.46882734,0.78747988,-0.40009549,0
-0.31139427,0.53211629,-0.75071657,-0.044477165,-0.43133938,-0.90109277,0
0.91461843,-0.48470071,0.65074742,0.044477165,0.43133938,0.90109277,0
0.49668995,0.53674495,0.18074161,0.044477165,0.43133938,0.90109277,0
-0.39704156,0.6192773,0.21009555,0.044477165,0.43133938,0.90109277,0
-0.94269454,-0.059929624,0.6386025,0.044477165,0.43133938,0.90109277,0
0.088742375,-1.2660917,0.053907931,-0.044477165,-0.43133938,-0.90109277,0
-0.095107913,1.2617381,-0.15674302,-0.12456322,0.89734089,-0.42339504,0
0.52701092,0.23569781,0.49212036,0.044477165,0.43133938,0.90109277,0
0.31268135,0.41528547,0.24727023,0.044477165,0.43133938,0.90109277,0
-0.21340787,-1.0682507,0.75132817,-0.14262396,-0.89000434,0.43307132,0
0.98783523,0.37264186,-0.64156723,0.84970421,0.45802113,-0.26118833,0
-1.1081196,-0.59934908,0.20339978,-0.88820165,-0.39580932,0.23330867,0
-0.77804255,1.037623,-0.016926467,-0.60299647,0.73073709,-0.32002932,0
-0.46833241,0.97115195,-0.49818027,-0.36296237,0.84732413,-0.3876856,0
-0.13485622,-0.77852142,-0.22504997,-0.044477165,-0.43133938,-0.90109277,0
-0.71978891,0.96312439,-0.46423319,-0.51671898,0.78189337,-0.3487756,0
0.17240638,0.91387111,0.088341802,0.044477165,0.43133938,0.90109277,0
0.23906749,0.71147043,-1.0098469,-0.044477165,-0.43133938,-0.90109277,0
0.31167111,0.897811,0.12277251,0.044477165,0.43133938,0.90109277,0
0.40594125,-0.96938044,-0.0076671448,-0.044477165,-0.43133938,-0.90109277,0
0.29216993,-1.3951052,0.089071393,0.28123921,-0.8709116,0.40301037,0
-0.42052567,0.87174398,-1.0296161,-0.28611898,0.86970067,-0.40218991,0
-0.69017959,0.94211179,-0.11809477,-0.56972456,0.75188243,-0.33179349,0
-0.15073884,1.0394288,-0.003239274,0.044477165,0.43133938,0.90109277,0
0.80399209,0.31000024,0.43407226,0.044477165,0.43133938,0.90109277,0
0.43410236,-0.7734437,1.0097728,0.044477165,0.43133938,0.90109277,0
-0.89276165,-0.25534537,0.67863059,0.044477165,0.43133938,0.90109277,0
0.44398907,0.34658802,-0.82503259,-0.044477165,-0.43133938,-0.90109277,0
-0.93858254,-0.69444925,0.20838279,-0.79564863,-0.53015578,0.29304999,0
-0.70406938,-1.0371578,0.044557393,-0.044477165,-0.43133938,-0.90109277,0
1.2196577,0.098900959,-0.4818272,0.9675436,0.20600072,-0.14636654,0
-0.3652432,1.0764711,-0.56767404,-0.25386429,0.87725663,-0.40739882,0
-1.1977525,0.2432431,-0.45730239,-0.93267012,0.34113947,-0.11726248,0
0.12845647,0.50591987,-0.7928251,-0.044477165,-0.43133938,-0.90109277,0
-0.24663913,1.0513095,-0.64224374,-0.10196918,0.89923453,-0.42541677,0
1.2521338,-0.0066694617,0.1101042,0.99537939,-0.095967025,-0.00319314,0
-0.48741585,-0.58982688,-0.22338009,-0.044477165,-0.43133938,-0.90109277,0
0.59150624,-0.61262578,0.92896008,0.044477165,0.43133938,0.90109277,0
-0.1558044,-0.65998042,-0.26488242,-0.044477165,-0.43133938,-0.90109277,0
0.016633749,0.74023181,-1.0024757,-0.044477165,-0.43133938,-0.90109277,0
0.48606461,0.92202711,-0.53372896,0.39529818,0.82077038,-0.41240185,0
-0.53558785,-0.56798077,0.92072278,0.044477165,0.43133938,0.90109277,0
-0.69984192,-1.0560565,0.21287268,-0.48489845,-0.77928829,0.39696753,0
0.1132229,0.82747036,-0.91235924,-0.044477165,-0.43133938,-0.90109277,0
-0.086822979,-0.12979633,0.66178131,0.044477165,0.43133938,0.90109277,0
0.96537352,-0.8575117,-0.25182948,-0.044477165,-0.43133938,-0.90109277,0
-1.2511826,0.34082729,0.10191745,-0.97637993,0.20966724,-0.052171171,0
0.19993055,-1.1357913,-0.014837295,-0.044477165,-0.43133938,-0.90109277,0
0.7488696,0.2979967,0.33555603,0.044477165,0.43133938,0.90109277,0
0.33701259,-0.82430273,0.94092584,0.044477165,0.43133938,0.90109277,0
0.72077906,1.0559456,-0.32630205,0.55145979,0.74151093,-0.38216954,0
1.1101125,-0.40676394,-0.35398024,-0.044477165,-0.43133938,-0.90109277,0
0.74502122,-1.1070771,0.16726604,0.54336345,-0.76734501,0.34049639,0
0.3554647,0.62735808,0.2088165,0.044477165,0.43133938,0.90109277,0
0.073036969,0.31382543,0.45956266,0.044477165,0.43133938,0.90109277,0
1.0470114,0.56528693,-0.534419,0.82851386,0.48806012,-0.27452159,0
0.3381443,-1.1772194,0.22534925,0.33330536,-0.85671055,0.39364257,0
0.49679396,0.55133921,0.31950796,0.044477165,0.43133938,0.90109277,0
0.16090411,-0.24815616,-0.49173462,-0.044477165,-0.43133938,-0.90109277,0
0.48134011,0.95795321,0.045078218,0.044477165,0.43133938,0.90109277,0
-1.3289571,-0.2056728,-0.12088275,-0.99009091,-0.10123029,0.097327411,0
-0.21743959,-1.0126867,-0.10181928,-0.044477165,-0.43133938,-0.90109277,0
-0.37184501,-1.092777,0.050170898,-0.044477165,-0.43133938,-0.90109277,0
-0.50916678,-0.41359237,0.68480372,0.044477165,0.43133938,0.90109277,0
0.08701767,-0.19364551,-0.39130118,-0.044477165,-0.43133938,-0.90109277,0
-0.68675172,-0.58983189,0.86743796,0.044477165,0.43133938,0.90109277,0
0.77101171,-0.98690158,0.45401877,0.55780613,-0.75900924,0.33579332,0
-0.61780679,-0.85728639,-0.042796612,-0.044477165,-0.43133938,-0.90109277,0
0.26928133,1.1888701,-0.38469499,0.2893644,0.85775691,-0.42487788,0
1.2004831,-0.12609956,-0.38291758,0.99051368,0.098350018,-0.095969558,0
-0.69397008,0.31512818,0.44784263,0.044477165,0.43133938,0.90109277,0
-0.73007011,0.1159012,0.58571911,0.044477165,0.43133938,0.90109277,0
0.81557703,-0.41178367,-0.34444395,-0.044477165,-0.43133938,-0.90109277,0
-1.1701247,0.54715383,-0.10997933,-0.9457072,0.30887204,-0.10117304,0
-0.86079299,-0.51510811,0.90720809,0.044477165,0.43133938,0.90109277,0
-0.83642745,0.70372438,0.19652736,0.044477165,0.43133938,0.90109277,0
-1.1401885,0.032839514,0.31596088,-0.99733579,-0.033032894,0.065039992,0
-0.39114469,-0.3965649,-0.43191382,-0.044477165,-0.43133938,-0.90109277,0
-1.2784858,0.26865,0.42783481,-0.99567807,0.092751294,0.0047471523,0
-0.43934727,1.1163218,-0.44198465,-0.36898518,0.84529895,-0.38641894,0
-1.0943046,0.42260662,0.4610768,0.044477165,0.43133938,0.90109277,0
-0.71103585,-1.0453366,-0.095547736,-0.044477165,-0.43133938,-0.90109277,0
0.76872683,-0.3886922,0.79500091,0.044477165,0.43133938,0.90109277,0
-1.0009348,-0.31259555,-0.44065863,-0.044477165,-0.43133938,-0.90109277,0
0.37444729,1.2009624,-0.30299729,0.31275722,0.85063142,-0.4226217,0
-0.069774032,0.68991494,0.26240745,0.044477165,0.43133938,0.90109277,0
0.29095596,1.1071863,-0.75293338,0.23414147,0.87236112,-0.42914295,0
0.89270282,-0.25347972,-0.57716084,-0.044477165,-0.43133938,-0.90109277,0
0.72813082,-0.92167938,0.46118897,0.54725492,-0.76513094,0.33924448,0
-0.75210941,0.31385839,0.42075577,0.044477165,0.43133938,0.90109277,0
0.43690559,-0.29238644,-0.40530112,-0.044477165,-0.43133938,-0.90109277,0
0.41776571,0.20983578,-0.63490444,-0.044477165,-0.43133938,-0.90109277,0
-0.86593068,0.66262364,-0.47420514,-0.67439413,0.67841327,-0.29145861,0
-0.68280011,-0.58499217,-0.29142678,-0.044477165,-0.43133938,-0.90109277,0
0.0060551465,0.035555661,-0.49511549,-0.044477165,-0.43133938,-0.90109277,0
-0.87356591,0.74115384,-0.83870423,-0.58192408,0.74434733,-0.32758445,0
0.39351141,-0.91426909,0.86537492,0.36687231,-0.84601402,0.38686556,0
0.21747684,-0.46560991,-0.23686427,-0.044477165,-0.43133938,-0.90109277,0
0.2758981,-1.2743826,0.12327023,-0.044477165,-0.43133938,-0.90109277,0
0.033799887,-1.2611109,0.41706696,0.034968555,-0.90210485,0.43009776,0
-1.0810009,-0.8368777,-0.043348551,-0.85462463,-0.4506653,0.25791007,0
0.9890461,-0.32817775,0.75485522,0.044477165,0.43133938,0.90109277,0
-0.45542061,0.97407281,-0.62037289,-0.40204763,0.83344543,-0.37911287,0
1.2653341,0.054800242,-0.19646883,0.99411386,0.070086837,-0.082618117,0
0.60293037,0.18458611,0.54287732,0.044477165,0.43133938,0.90109277,0
-0.70515156,1.0160769,0.02111429,0.044477165,0.43133938,0.90109277,0
0.96513021,0.62010378,-0.38669872,0.77636379,0.55272853,-0.30290329,0
-1.0804044,0.046831906,-0.60931438,-0.044477165,-0.43133938,-0.90109277,0
-0.67187428,1.0987163,0.028330863,0.044477165,0.43133938,0.90109277,0
-0.16836154,1.157014,-0.45420107,-0.069668233,0.90112865,-0.42791775,0
0.068995774,0.9966616,0.13341007,0.044477165,0.43133938,0.90109277,0
0.95934141,-0.398781,-0.3303642,-0.044477165,-0.43133938,-0.90109277,0
-0.68607366,0.88099658,0.22520085,0.044477165,0.43133938,0.90109277,0
-0.093654394,0.030226588,-0.61444861,-0.044477165,-0.43133938,-0.90109277,0
-0.31406641,-1.2999647,-0.024138272,-0.044477165,-0.43133938,-0.90109277,0
-0.33937502,1.2393115,-0.07615748,-0.38355637,0.84022993,-0.38327321,0
0.55629063,-0.84765446,-0.1726581,-0.044477165,-0.43133938,-0.90109277,0
0.40453005,1.0944189,-0.23185033,0.32067674,0.84808904,-0.42179558,0
1.0065547,-0.68081188,0.28900278,0.81819284,-0.53327692,0.21488619,0
1.0558791,0.43095413,-0.25795317,0.8899231,0.3927432,-0.23192602,0
1.1310782,-0.63417166,0.42925388,0.81541532,-0.53678477,0.21670249,0
1.0246816,-0.76286775,0.22671705,0.79110199,-0.5660221,0.23189804,0
-0.16812861,0.78438866,-0.90317059,-0.044477165,-0.43133938,-0.90109277,0
0.3563545,-0.30158496,-0.4962244,-0.044477165,-0.43133938,-0.90109277,0
1.0556128,-0.21811205,0.61779815,0.044477165,0.43133938,0.90109277,0
1.223699,-0.12369369,-0.147165,0.991889,-0.12657404,0.011630237,0
1.0407798,-0.5688836,-0.19448346,0.92629212,-0.355638,0.12451744,0
-0.20451763,0.39386758,0.35381553,0.044477165,0.43133938,0.90109277,0
0.50455248,0.97807068,-0.44359261,0.40608948,0.81629682,-0.41079304,0
0.68125081,-0.90918875,0.42128414,0.5044111,-0.78826427,0.35243282,0
-0.351201,-0.57709157,-0.33185974,-0.044477165,-0.43133938,-0.90109277,0
0.40665227,-0.012543827,-0.48717865,-0.044477165,-0.43133938,-0.90109277,0
0.76698589,-1.0202386,-0.049307823,-0.044477165,-0.43133938,-0.90109277,0
0.91021657,1.102751,0.084732533,0.044477165,0.43133938,0.90109277,0
-0.81522465,0.58751106,0.29900491,0.044477165,0.43133938,0.90109277,0
0.29365161,0.049524665,0.41912782,0.044477165,0.43133938,0.90109277,0
0.340812,-0.33231661,-0.45863169,-0.044477165,-0.43133938,-0.90109277,0
-1.2054814,0.23314479,0.31199628,-0.99222165,0.12404931,-0.010405302,0
-1.2499273,0.34509581,-0.66521436,-0.88815212,0.43004248,-0.16201639,0
-0.36604136,0.62239736,-0.82607085,-0.044477165,-0.43133938,-0.90109277,0
0.036271095,1.009756,-0.58447945,0.026066005,0.90117723,-0.43266636,0
0.13727854,0.26816368,0.36230832,0.044477165,0.43133938,0.90109277,0
0.96925473,0.78506869,-0.47368127,0.69184601,0.63738203,-0.3392539,0
1.006862,0.54942787,-0.50372958,0.80683404,0.51637787,-0.28700686,0
0.46686107,0.43391776,0.22191587,0.044477165,0.43133938,0.90109277,0
-0.30810648,-1.0643227,0.03358227,-0.044477165,-0.43133938,-0.90109277,0
-0.1688866,-0.60950232,-0.20882002,-0.044477165,-0.43133938,-0.90109277,0
-1.1851492,0.35736308,0.042654037,-0.96159154,0.26303527,-0.0784477,0
0.099673212,-0.12689522,-0.43233648,-0.044477165,-0.43133938,-0.90109277,0
0.090102196,0.66672659,-0.86140543,-0.044477165,-0.43133938,-0.90109277,0
1.2431039,0.3774339,0.22931814,0.99300367,0.079674482,-0.087152779,0
0.74786818,-0.88083005,-0.22187726,-0.044477165,-0.43133938,-0.90109277,0
-0.55319434,-0.65576571,0.96624237,0.044477165,0.43133938,0.90109277,0
-0.47972062,-0.98243123,0.67923033,-0.39300862,-0.82170206,0.41273475,0
0.94634938,-0.72916692,0.33142397,0.80041081,-0.55512679,0.22622311,0
-0.55371678,-0.051905572,-0.50063962,-0.044477165,-0.43133938,-0.90109277,0
1.0231357,-0.086408824,-0.5629648,-0.044477165,-0.43133938,-0.90109277,0
-0.035641372,0.66977835,0.20519778,0.044477165,0.43133938,0.90109277,0
0.29477489,-1.0492197,0.71030575,0.15994614,-0.89342439,0.41977379,0
-0.73992532,0.18962175,-0.51745224,-0.044477165,-0.43133938,-0.90109277,0
-0.48161703,-0.65219021,-0.32339907,-0.044477165,-0.43133938,-0.90109277,0
1.1611249,-0.34378356,0.040827274,0.96453983,-0.25343674,0.073707461,0
0.94291103,0.74062502,-0.25508004,0.78373212,0.54427195,-0.29921901,0
0.29655528,-1.1846985,0.24771543,0.25683171,-0.87660527,0.40694055,0
0.69408929,-0.93776894,0.74558032,0.54607248,-0.76580608,0.33962601,0
-0.95798504,-0.12811066,0.5585925,0.044477165,0.43133938,0.90109277,0
1.0498424,0.80686098,-0.11672735,0.75856727,0.57235718,-0.31142086,0
-0.53091931,1.1109052,-0.48325396,-0.44603109,0.81566793,-0.36843204,0
-1.2108996,0.11086923,0.416807,-0.98823583,-0.11311936,0.10292697,0
-0.83774143,0.56423837,0.30939162,0.044477165,0.43133938,0.90109277,0
0.36094126,0.22093767,0.51506937,0.044477165,0.43133938,0.90109277,0
0.41409504,-1.051216,0.577613,0.39719701,-0.83526361,0.38022262,0
0.057302982,0.35884312,-0.79955465,-0.044477165,-0.43133938,-0.90109277,0
-0.60216403,0.4420971,0.26907268,0.044477165,0.43133938,0.90109277,0
-0.84995943,-0.36696827,0.76495117,0.044477165,0.43133938,0.90109277,0
1.1770883,-0.18143737,0.46345097,0.96235448,-0.26059115,0.07723999,0
1.1295711,0.60791999,0.20242333,0.044477165,0.43133938,0.90109277,0
-0.20176414,0.31091622,-0.5971204,-0.044477165,-0.43133938,-0.90109277,0
1.0771168,-0.61955857,-0.36803371,-0.044477165,-0.43133938,-0.90109277,0
-0.67211425,-0.38248128,-0.270455,-0.044477165,-0.43133938,-0.90109277,0
0.05731374,0.50757146,-0.83378017,-0.044477165,-0.43133938,-0.90109277,0
0.52842081,-0.58078146,0.71755123,0.044477165,0.43133938,0.90109277,0
1.22867,0.098462164,0.040475965,0.99373955,0.073430479,-0.084200144,0
1.1146817,0.10803787,-0.46545237,0.97423041,0.18092257,-0.13469201,0
0.84210134,0.73129791,-0.32047433,0.66799009,0.65785384,-0.34787601,0
-0.17098796,1.2095877,-0.32849234,-0.14505553,0.89521492,-0.42136589,0
0.94893658,0.11759186,-0.75173998,-0.044477165,-0.43133938,-0.90109277,0
1.1921966,0.4066278,-0.26454771,0.93097389,0.30927727,-0.1939984,0
0.17455083,-0.050527573,-0.44634461,-0.044477165,-0.43133938,-0.90109277,0
0.62290633,0.74908906,0.22710401,0.044477165,0.43133938,0.90109277,0
0.25814134,1.1238488,-0.6083802,0.17832482,0.88407123,-0.43199334,0
0.76925123,-0.40661839,0.62873268,0.044477165,0.43133938,0.90109277,0
-0.10633236,-0.64351004,-0.32932687,-0.044477165,-0.43133938,-0.90109277,0
0.50693685,-0.59032822,0.71359313,0.044477165,0.43133938,0.90109277,0
-0.26799047,-1.0722513,0.53205371,-0.25230405,-0.86789554,0.42790183,0
0.32345933,0.070243895,0.40842283,0.044477165,0.43133938,0.90109277,0
-1.1099629,-0.13898277,-0.37596047,-0.044477165,-0.43133938,-0.90109277,0
0.60710859,-1.2009133,-0.048709903,-0.044477165,-0.43133938,-0.90109277,0
0.041715622,-0.68716443,-0.21425089,-0.044477165,-0.43133938,-0.90109277,0
1.0821192,-0.77808613,-0.039238751,0.86177665,-0.47282144,0.18379581,0
-0.27508724,-1.06129,-0.068421066,-0.044477165,-0.43133938,-0.90109277,0
0.79158884,-0.31976449,-0.46810791,-0.044477165,-0.43133938,-0.90109277,0
-0.91961372,-0.73509467,0.48281443,-0.69868684,-0.63126433,0.33666319,0
0.099325001,0.87317717,0.22726285,0.044477165,0.43133938,0.90109277,0
1.2583203,-0.22672701,0.52989638,0.94123971,-0.3203755,0.1069001,0
-0.32855618,-0.48543102,-0.34259969,-0.044477165,-0.43133938,-0.90109277,0
0.79227424,-0.88880777,0.49780625,0.65347564,-0.69481277,0.30034128,0
-0.27492857,-0.966748,-0.059428155,-0.044477165,-0.43133938,-0.90109277,0
0.334142,0.11086285,0.51638997,0.044477165,0.43133938,0.90109277,0
1.1676097,0.34076813,-0.74629831,-0.044477165,-0.43133938,-0.90109277,0
0.85738671,-0.63391972,-0.36315122,-0.044477165,-0.43133938,-0.90109277,0
-0.11850822,0.58968866,-0.87745333,-0.044477165,-0.43133938,-0.90109277,0
0.080642387,-0.17723051,-0.36640853,-0.044477165,-0.43133938,-0.90109277,0
-0.47284979,-0.6816318,-0.1111905,-0.044477165,-0.43133938,-0.90109277,0
0.19192255,-0.50745863,-0.33644861,-0.044477165,-0.43133938,-0.90109277,0
-0.69647586,-0.66491115,0.8905614,-0.56656766,-0.7320103,0.37836742,0
0.94980383,-0.49267948,0.79312956,0.044477165,0.43133938,0.90109277,0
0.69323117,0.30154097,0.40520769,0.044477165,0.43133938,0.90109277,0
-1.2485851,0.03268528,-0.45494509,-0.044477165,-0.43133938,-0.90109277,0
-1.277859,-0.22516793,-0.13257515,-0.99846256,-0.010673404,0.054392457,0
-0.75858331,1.1263304,0.061224982,0.044477165,0.43133938,0.90109277,0
0.31584555,0.22489852,0.38264799,0.044477165,0.43133938,0.90109277,0
0.92234737,0.59571099,-0.46773887,0.79674035,0.52883404,-0.29247117,0
-0.61372894,0.54971707,-0.8155601,-0.044477165,-0.43133938,-0.90109277,0
0.36110497,-1.0403218,-0.1064906,-0.044477165,-0.43133938,-0.90109277,0
0.60801268,-0.081989884,-0.6537562,-0.044477165,-0.43133938,-0.90109277,0
0.65461469,1.1075246,-0.12098861,0.5340122,0.75204092,-0.38634884,0
0.23406741,0.20470089,-0.58521056,-0.044477165,-0.43133938,-0.90109277,0
1.0495807,-0.52959949,-0.27551365,-0.044477165,-0.43133938,-0.90109277,0
0.02387625,-0.58626431,-0.29664677,-0.044477165,-0.43133938,-0.90109277,0
-0.42844862,0.73821247,0.28631961,0.044477165,0.43133938,0.90109277,0
-0.14648396,-0.98981524,0.83636314,-0.14098096,-0.89024866,0.43310714,0
1.0849944,0.44744107,-0.64400262,0.83005583,0.48595792,-0.27359146,0
0.66138828,0.59326619,0.28822345,0.044477165,0.43133938,0.90109277,0
0.8390969,-0.38911775,-0.38640165,-0.044477165,-0.43133938,-0.90109277,0
-0.51875639,-1.1365484,0.48635811,-0.39927393,-0.81913817,0.41181678,0
0.92700064,0.80253851,0.035902262,0.044477165,0.43133938,0.90109277,0
0.57058567,-0.55234444,-0.23120588,-0.044477165,-0.43133938,-0.90109277,0
-0.6948657,-0.084941223,0.53910029,0.044477165,0.43133938,0.90109277,0
-0.10633862,-0.82075989,0.95013058,-0.11886764,-0.89329267,0.43347278,0
-0.17425907,1.1096412,-0.054199263,0.044477165,0.43133938,0.90109277,0
1.0459775,0.058799624,-0.56054848,-0.044477165,-0.43133938,-0.90109277,0
-0.11084032,-1.1230233,0.38413039,-0.066650093,-0.89869452,0.43348116,0
0.30022764,-0.89796931,0.80618781,0.31213462,-0.86282873,0.39761621,0
-0.85369968,-0.007861197,-0.58494246,-0.044477165,-0.43133938,-0.90109277,0
0.52338487,-0.31981155,-0.47374606,-0.044477165,-0.43133938,-0.90109277,0
0.28867352,-1.3300612,0.052471593,-0.044477165,-0.43133938,-0.90109277,0
-0.94639879,-0.42197517,0.8812815,0.044477165,0.43133938,0.90109277,0
-0.86317372,-0.95235026,-0.14467728,-0.74900579,-0.58246726,0.31578851,0
0.67577481,0.51827538,0.29307824,0.044477165,0.43133938,0.90109277,0
0.10019302,-0.57973385,-0.21965963,-0.044477165,-0.43133938,-0.90109277,0
-0.96215886,-0.73227417,0.46518475,-0.74679333,-0.58476543,0.31677932,0
0.92114103,0.58643329,-0.56512886,0.71629936,0.61497229,-0.32973373,0
0.18737814,0.66075808,-0.96479678,-0.044477165,-0.43133938,-0.90109277,0
0.94725215,-0.85020161,-0.070058107,0.75088298,-0.60937345,0.2546348,0
-1.017033,-0.82960963,0.029798627,-0.82662439,-0.49061936,0.27565342,0
0.071519449,-0.1548636,-0.52942765,-0.044477165,-0.43133938,-0.90109277,0
-0.21819618,-0.58264655,-0.25093922,-0.044477165,-0.43133938,-0.90109277,0
-0.071749568,-1.2341341,0.026699781,-0.044477165,-0.43133938,-0.90109277,0
-1.0315951,-0.44432321,0.72561848,-0.86076051,-0.44127059,0.25371581,0
0.924945,-0.24824393,0.53966016,0.044477165,0.43133938,0.90109277,0
-0.14406812,0.93531895,0.13361095,0.044477165,0.43133938,0.90109277,0
-0.94041783,0.13727254,-0.50381905,-0.044477165,-0.43133938,-0.90109277,0
-0.70481575,-0.56400752,0.89281094,-0.60267353,-0.70778126,0.36855155,0
