1.3975487,-1.143163,0.79686511,0.52935612,-0.76019132,0.37668481,0
-0.11427844,1.1221149,0.86328,0.1413365,0.51680773,0.84435415,0
0.26766345,-1.5998173,1.6042182,0.52935612,-0.76019132,0.37668481,0
1.4233127,-1.6145682,-0.16601604,0.52935612,-0.76019132,0.37668481,0
-0.92383975,1.7095982,-0.37136489,-0.52935612,0.76019132,-0.37668481,0
-0.15770578,-0.43169659,-1.1905689,-0.075853109,-0.48462391,-0.87142754,0
1.8893453,-1.0598289,-0.050333247,0.74977922,0.21141703,-0.62700397,0
-0.27206188,2.1558247,-0.53907931,-0.52935612,0.76019132,-0.37668481,0
1.1771321,-2.024137,-0.42524844,0.52935612,-0.76019132,0.37668481,0
0.91794449,-1.4327149,1.0753987,0.52935612,-0.76019132,0.37668481,0
0.93109393,0.58640069,-0.72162181,0.80187809,0.30330461,-0.51477945,0
0.99192566,-1.0400481,1.9005585,0.52935612,-0.76019132,0.37668481,0
2.0410137,-0.73714185,1.0269974,0.52935612,-0.76019132,0.37668481,0
0.25792646,-2.3292704,0.48447847,0.52935612,-0.76019132,0.37668481,0
1.6112156,-0.073113561,0.46158195,0.82645434,0.56238127,-0.026471376,0
-0.10307455,-1.0104022,-0.88868642,-0.20611048,-0.54592413,-0.81208706,0
0.019102573,1.0255597,-1.6014187,0.55385375,-0.026685447,-0.83218628,0
-0.46120256,1.9372222,-0.76341707,-0.52935612,0.76019132,-0.37668481,0
-0.63766974,0.63481957,0.87635785,-0.35613185,0.20387882,0.91192293,0
1.7819744,-0.53950214,0.014420748,0.83757687,0.39757526,-0.37469852,0
0.99914896,-1.4658434,-0.60844457,0.26238096,-0.2755374,-0.92478943,0
-1.2539095,-0.12636292,-0.70818454,-0.71480501,-0.63878441,-0.28461963,0
0.56656384,0.392079,-1.1893318,0.5864324,0.0070101246,-0.80996782,0
-0.74165756,1.7441291,-0.8596614,-0.52935612,0.76019132,-0.37668481,0
-1.8783457,0.9935813,-0.63823122,-0.52935612,0.76019132,-0.37668481,0
0.8201136,-1.3989024,-0.66326082,0.10224921,-0.38359326,-0.91782421,0
1.3913934,-0.25239348,1.1942308,0.55903798,0.64651757,0.51912582,0
1.2080362,-1.2149704,0.96645522,0.52935612,-0.76019132,0.37668481,0
0.16913795,-0.13541102,1.4322459,-0.14280736,0.35781938,0.92280632,0
0.06343329,-0.77745557,-1.0852729,-0.037967384,-0.46477631,-0.88461375,0
0.8466689,-0.35629225,1.6486874,0.13836908,0.51540822,0.84569997,0
-0.10874081,2.185935,-0.53977811,-0.52935612,0.76019132,-0.37668481,0
1.1904792,-1.8646858,0.051303566,0.52935612,-0.76019132,0.37668481,0
-0.36817199,1.7840276,-1.344628,-0.52935612,0.76019132,-0.37668481,0
1.1582692,0.020685554,1.1898972,0.50410891,0.63895088,0.58104736,0
-0.44645691,0.94193548,0.93929541,-0.083515465,0.39514667,0.91481382,0
0.013998032,-1.3680869,-0.70298821,-0.32752866,-0.59268719,-0.7358309,0
-0.91418499,1.5843856,-0.9133445,-0.52935612,0.76019132,-0.37668481,0
-1.895159,1.2086122,-0.3401846,-0.52935612,0.76019132,-0.37668481,0
0.20204163,-1.7537273,1.3861945,0.52935612,-0.76019132,0.37668481,0
0.1821453,-1.2100723,1.6954434,-0.60881335,-0.031150609,0.79270166,0
-1.2206223,0.91828918,-1.7602146,-0.52935612,0.76019132,-0.37668481,0
1.7543738,-1.0913956,0.46700117,0.52935612,-0.76019132,0.37668481,0
-1.0853803,-0.18121976,0.65933585,-0.76215023,-0.2310504,0.60476667,0
1.0649223,-1.2217271,1.2965262,0.52935612,-0.76019132,0.37668481,0
1.436389,-0.43965411,-0.41951013,0.731848,0.1845632,-0.65599912,0
-1.453856,0.33525753,0.53010088,-0.75518554,-0.21987319,0.61753601,0
0.03153193,0.65470207,1.035447,0.08342135,0.48848164,0.86857748,0
-0.97473013,1.901245,0.085593343,-0.52935612,0.76019132,-0.37668481,0
1.1385155,-1.8786966,0.046782672,0.52935612,-0.76019132,0.37668481,0
0.85574192,-1.3463659,1.5866084,0.52935612,-0.76019132,0.37668481,0
-0.77836651,-0.82398832,0.45211738,-0.84835684,-0.4787603,0.22600728,0
0.68790847,-1.5137405,1.3449746,0.52935612,-0.76019132,0.37668481,0
-0.19216752,2.3196187,-0.16463375,0.60678172,0.64954948,0.45815015,0
1.5810045,-0.58930969,1.5447891,0.46112251,0.63048911,0.62437934,0
-0.87267202,1.8138558,-0.27371734,-0.52935612,0.76019132,-0.37668481,0
0.81859899,-1.8723735,0.62860668,0.52935612,-0.76019132,0.37668481,0
1.5534892,-0.37786782,-0.3267574,0.80084831,0.30117846,-0.51762301,0
-0.070908085,1.3235956,-1.6085925,0.67830509,0.1125373,-0.72611123,0
-1.0118623,1.1340768,-1.6266069,-0.52935612,0.76019132,-0.37668481,0
-1.7204702,0.98724627,-0.97048336,-0.52935612,0.76019132,-0.37668481,0
-0.76942551,-0.64202929,0.93209088,-0.78837872,-0.27673241,0.5494343,0
-0.77370483,0.85393059,0.83495152,-0.31805146,0.23380022,0.91879302,0
-1.8551832,0.40411663,-0.83879691,-0.78692293,-0.60588235,-0.11687213,0
1.8716524,-1.2126487,-0.23908123,0.66946006,0.10153976,-0.73587567,0
-1.0823034,0.91654134,-1.8593843,0.017317533,-0.43422019,-0.90064025,0
0.1008738,-0.91208184,1.5689437,-0.50453186,0.074881874,0.86013979,0
-0.56699824,1.6622682,-1.3339226,-0.52935612,0.76019132,-0.37668481,0
1.5844556,-1.5176699,-0.28851977,0.49458733,-0.08423306,-0.86503649,0
-0.46466124,-0.71652901,-0.83407038,-0.37994021,-0.60939831,-0.69590175,0
1.8356727,-1.2100732,0.064700328,0.52935612,-0.76019132,0.37668481,0
-1.958475,0.77049017,-1.147763,-0.52935612,0.76019132,-0.37668481,0
0.18987852,-2.2104795,0.70059967,0.52935612,-0.76019132,0.37668481,0
1.0866954,-1.7024467,0.55529547,0.52935612,-0.76019132,0.37668481,0
1.7711017,-1.6229154,-0.19270599,0.52935612,-0.76019132,0.37668481,0
0.87801427,-0.82655573,-0.88409424,0.38697088,-0.17877363,-0.90459585,0
-0.14968407,2.185545,-0.55155861,-0.52935612,0.76019132,-0.37668481,0
-0.12592876,2.0829592,-0.90003371,-0.52935612,0.76019132,-0.37668481,0
1.0363007,-1.2669425,1.0582473,0.52935612,-0.76019132,0.37668481,0
-0.8498925,2.0573611,-0.12133002,-0.52935612,0.76019132,-0.37668481,0
-0.12775493,0.85729206,1.0194087,0.022330761,0.45632517,0.8895328,0
0.33907908,1.6347947,-0.44267595,0.82350701,0.56716472,-0.012675941,0
0.58333272,0.12216902,1.3681279,0.19391078,0.54065245,0.81859243,0
-1.3994313,1.4861339,0.4577063,-0.45643651,0.11908158,0.88175124,0
-0.38990819,-0.94429433,-0.81281799,-0.38773853,-0.61168778,-0.68956304,0
-0.05402714,0.71731305,-1.4713714,0.47645608,-0.10099235,-0.87337863,0
1.4102407,-1.5998312,0.1775842,0.52935612,-0.76019132,0.37668481,0
0.55464655,-1.8115031,0.85348004,0.52935612,-0.76019132,0.37668481,0
-0.81798792,1.2242258,0.74034345,-0.14621156,0.3556082,0.92312783,0
0.37974167,-2.3100164,0.2331332,0.52935612,-0.76019132,0.37668481,0
-1.3095229,1.8149967,0.45377403,-0.52935612,0.76019132,-0.37668481,0
1.2319387,-1.5658108,0.50349009,0.52935612,-0.76019132,0.37668481,0
1.0487424,-1.177258,1.4873838,0.52935612,-0.76019132,0.37668481,0
1.1082984,-1.9689707,-0.32120311,0.52935612,-0.76019132,0.37668481,0
0.51899248,-1.8070838,1.0571687,0.52935612,-0.76019132,0.37668481,0
1.1085577,0.18836153,-0.47748223,0.81677574,0.33654612,-0.46863011,0
-1.307148,1.8333374,0.4598726,-0.52935612,0.76019132,-0.37668481,0
-1.618329,1.4670043,-0.0038551688,-0.52935612,0.76019132,-0.37668481,0
0.18354994,1.6462468,-1.0267621,0.84025651,0.40839714,-0.35662442,0
-1.5955005,0.36043227,0.11985999,-0.83801675,-0.39926368,0.37190932,0
-0.34355098,2.0766079,-0.48038578,-0.52935612,0.76019132,-0.37668481,0
0.73577887,-1.213207,1.7884501,0.52935612,-0.76019132,0.37668481,0
0.5162921,1.4465861,-0.64660192,0.84221971,0.52435648,-0.12536478,0
-1.5555768,0.72689605,0.46360543,-0.72522831,-0.17505635,0.66588229,0
-0.56436062,1.6954743,-1.0906883,-0.52935612,0.76019132,-0.37668481,0
-1.2436591,-0.29723656,-0.88576913,-0.6331436,-0.64951164,-0.42102742,0
1.0241514,0.57451499,-0.46153665,0.83401692,0.38486964,-0.39533693,0
1.935133,-1.1719632,0.024461433,0.52935612,-0.76019132,0.37668481,0
-1.0333252,2.041677,0.47639918,-0.52935612,0.76019132,-0.37668481,0
1.5838304,-0.88848519,1.2676803,0.52935612,-0.76019132,0.37668481,0
-0.45091105,1.4848472,0.64337599,0.13584644,0.51421416,0.84683514,0
-1.1615773,1.6220022,-0.54274452,-0.52935612,0.76019132,-0.37668481,0
-1.2420832,1.5773355,-0.34428555,-0.52935612,0.76019132,-0.37668481,0
-0.22673976,2.1080499,-0.88871932,-0.52935612,0.76019132,-0.37668481,0
-0.54901111,-1.0691638,-0.50244081,-0.51535308,-0.6408143,-0.56900638,0
0.89767861,0.23394218,-0.76339698,0.74890202,0.21006194,-0.628506,0
-0.96114457,-0.61733317,-0.18567407,-0.78601265,-0.60655069,-0.1195001,0
0.84958494,-2.0497789,0.014554381,0.52935612,-0.76019132,0.37668481,0
1.2137015,0.24634358,-0.33068109,0.84066653,0.4101845,-0.35359359,0
-0.79089612,2.0143676,-0.16212106,-0.52935612,0.76019132,-0.37668481,0
-0.57225853,1.6306245,-1.0396106,-0.52935612,0.76019132,-0.37668481,0
-0.8621701,-1.0025259,0.432055,-0.8462944,-0.50440156,0.1713621,0
-0.46640444,1.7830303,0.42994201,0.25738728,0.56696761,0.78249574,0
0.56255937,-1.5233691,-0.73105031,-0.034535408,-0.46293437,-0.88571966,0
-0.55863255,2.1621418,-0.39238739,-0.52935612,0.76019132,-0.37668481,0
0.23912543,-2.0460978,1.0408515,0.52935612,-0.76019132,0.37668481,0
-0.7417562,0.85898924,-1.8434598,0.18591642,-0.32926157,-0.92575485,0
0.31623453,1.8470217,-0.476547,0.82445651,0.565669,-0.017028868,0
0.67083579,0.90609479,-0.79355663,0.8058908,0.31177428,-0.50332582,0
0.81640363,-1.2180848,1.6222417,0.52935612,-0.76019132,0.37668481,0
-0.57262582,0.28718615,-1.6032236,0.068463922,-0.40426999,-0.91207367,0
-1.3371406,0.30672455,-1.2197281,-0.51282454,-0.64040864,-0.57174104,0
-1.0722914,-0.42441574,0.40800524,-0.83935535,-0.40460426,0.36301255,0
0.63284767,-1.1863883,1.8917544,0.52935612,-0.76019132,0.37668481,0
0.10293053,-1.8708421,1.5243506,-0.74897391,-0.2101728,0.62838322,0
0.0048991516,-1.4002672,1.5109944,-0.73128766,-0.18375069,0.65685153,0
-0.58869463,2.0638089,-0.38003528,-0.52935612,0.76019132,-0.37668481,0
1.4851483,-1.33691,-0.4263373,0.54058647,-0.03996373,-0.84033877,0
1.2857085,-0.94308949,1.5246992,0.52935612,-0.76019132,0.37668481,0
-2.1463439,0.82219434,-0.72326088,-0.52935612,0.76019132,-0.37668481,0
-0.4942776,2.1097815,-0.25681233,-0.52935612,0.76019132,-0.37668481,0
-0.18793666,1.7263238,0.35152531,0.39961529,0.61507171,0.67970181,0
0.97169048,-0.59915292,-0.78427768,0.49945703,-0.079668298,-0.86266768,0
-0.31243056,2.0523617,-0.70974898,-0.52935612,0.76019132,-0.37668481,0
-2.0586281,0.92201161,-0.75023496,-0.52935612,0.76019132,-0.37668481,0
-1.0772976,2.0254147,0.33931816,-0.52935612,0.76019132,-0.37668481,0
-1.1507733,1.0928226,-1.4199657,-0.52935612,0.76019132,-0.37668481,0
0.85502279,-1.813061,-0.38628513,-0.083974898,-0.48876247,-0.86836612,0
-1.0223471,1.5864103,-0.81682825,-0.52935612,0.76019132,-0.37668481,0
0.9087345,-1.3096457,1.3848543,0.52935612,-0.76019132,0.37668481,0
1.7715459,-1.0548043,0.82030141,0.52935612,-0.76019132,0.37668481,0
1.0218447,-1.1732647,1.4129817,0.52935612,-0.76019132,0.37668481,0
-1.1704178,1.8703369,0.090406895,-0.52935612,0.76019132,-0.37668481,0
1.1476846,-1.8241476,0.17224205,0.52935612,-0.76019132,0.37668481,0
-1.2499855,1.161176,0.6480571,-0.49099264,0.087585181,0.86674964,0
0.67169535,-1.8911088,-0.51610494,-0.13436556,-0.51351124,-0.84749752,0
-0.91301912,-0.70122004,0.54143929,-0.8321923,-0.37888697,0.40484655,0
0.47114289,-2.1940513,0.055336118,0.52935612,-0.76019132,0.37668481,0
-1.1353264,0.40646052,-1.4858599,-0.33288997,-0.59449905,-0.73195314,0
0.21817166,-0.31293291,-1.2065333,0.16882896,-0.34072667,-0.92487949,0
-0.12527364,0.10499334,-1.4814059,0.24908382,-0.28517148,-0.92554557,0
-0.22145438,2.2888055,-0.54264843,-0.52935612,0.76019132,-0.37668481,0
-0.15590286,-0.26724297,-1.1947134,0.088943303,-0.39182195,-0.91573185,0
-0.072363734,-1.3826593,-0.66758406,-0.33210236,-0.59423429,-0.73252559,0
0.28256699,-1.6051085,1.7966201,0.52935612,-0.76019132,0.37668481,0
0.22410345,-0.35620141,1.4806052,-0.23914307,0.29229215,0.92594594,0
-0.42744458,-0.37525815,-1.2332283,-0.22886974,-0.555489,-0.79940653,0
0.28053153,-1.9305847,0.787072,0.52935612,-0.76019132,0.37668481,0
-0.2369678,-1.5493637,0.0017091036,-0.65698701,-0.64822727,-0.38492799,0
-0.57862532,1.6674697,-1.192549,-0.52935612,0.76019132,-0.37668481,0
-0.80719423,1.4953249,-0.99950129,-0.52935612,0.76019132,-0.37668481,0
-0.74363154,2.0278678,-0.38068557,-0.52935612,0.76019132,-0.37668481,0
1.5576612,-0.44936514,1.1519455,0.58735698,0.64876217,0.483859,0
-1.5779635,0.8831389,-1.0837675,-0.52935612,0.76019132,-0.37668481,0
-1.2344089,0.48055792,-1.6100297,-0.32174158,-0.59070617,-0.73996544,0
2.1437154,-0.8201611,0.38941842,0.52935612,-0.76019132,0.37668481,0
-0.53462106,0.91565788,0.81922579,-0.18019176,0.33312407,0.92550486,0
-0.080580123,1.6994392,-1.5328143,0.73925602,0.19545075,-0.64443737,0
0.25415492,-1.6928294,1.4245505,0.52935612,-0.76019132,0.37668481,0
-1.1247226,-0.66874385,0.31746411,-0.8483631,-0.47842601,0.22669083,0
0.24497423,-1.6348934,1.5549728,0.52935612,-0.76019132,0.37668481,0
1.9389211,-1.368674,-0.11298217,0.65133059,0.079635337,-0.75460368,0
-0.21205997,2.3269799,-0.39413214,-0.52935612,0.76019132,-0.37668481,0
1.0818706,-1.9180087,0.12021089,0.52935612,-0.76019132,0.37668481,0
-0.89204365,2.0398605,-0.022171974,-0.52935612,0.76019132,-0.37668481,0
0.90970713,-1.3746381,1.1192238,0.52935612,-0.76019132,0.37668481,0
-1.6698864,1.1812159,0.39539593,-0.60230333,-0.024038956,0.79790521,0
0.42713416,1.5333612,-0.13927925,0.77380377,0.61466271,0.15302813,0
1.2436965,-1.2422866,-0.60382271,0.39144719,-0.17506148,-0.90339506,0
-0.28570497,-0.61016947,-1.0809356,-0.13013816,-0.5114969,-0.84937334,0
-0.44027644,2.0327961,-0.7749294,-0.52935612,0.76019132,-0.37668481,0
0.13959682,-0.24941027,1.5459518,-0.21305019,0.3106561,0.9263382,0
0.64604342,-2.0017428,0.3964715,0.52935612,-0.76019132,0.37668481,0
1.4514911,-1.0381715,1.1995277,0.52935612,-0.76019132,0.37668481,0
-0.018837094,-1.1069825,-0.75618893,-0.19779062,-0.5423398,-0.81654555,0
-0.049045801,2.1881938,-0.64772785,-0.52935612,0.76019132,-0.37668481,0
0.24647935,-1.8097502,1.2769318,0.52935612,-0.76019132,0.37668481,0
-1.4267251,1.5115328,-0.37356803,-0.52935612,0.76019132,-0.37668481,0
0.55483377,1.1821854,-0.95750046,0.81743217,0.33814284,-0.46633029,0
1.1582527,-1.1987154,1.5039555,0.52935612,-0.76019132,0.37668481,0
-0.44324338,-1.5227768,-0.13960552,-0.67013407,-0.64693964,-0.36385381,0
0.93489081,-1.7804415,0.59249634,0.52935612,-0.76019132,0.37668481,0
-0.95804358,1.8202093,-0.27675694,-0.52935612,0.76019132,-0.37668481,0
0.81372947,0.46968359,-1.0199771,0.72240269,0.17105821,-0.66998023,0
-0.28439429,1.8933789,-1.194043,-0.52935612,0.76019132,-0.37668481,0
-2.0881953,1.0492189,-0.13517833,-0.52935612,0.76019132,-0.37668481,0
0.52031386,-0.33986914,1.5399188,-0.073714197,0.40110368,0.91306198,0
1.9528847,-0.89428806,0.59645724,0.52935612,-0.76019132,0.37668481,0
-0.16728711,2.3457823,-0.56798506,-0.52935612,0.76019132,-0.37668481,0
-0.48992145,2.0823059,0.34050059,0.31776685,0.58933032,0.74277472,0
0.67278171,0.97091973,0.6119169,0.53994691,0.64433897,0.54155779,0
-0.11868083,-0.72395545,-1.0823107,-0.12004471,-0.50664139,-0.85375863,0
-1.4092363,0.15936708,-1.225922,-0.5310902,-0.64315957,-0.55162412,0
-1.5137343,0.91248274,-1.3962439,-0.52935612,0.76019132,-0.37668481,0
-0.69628382,1.9357818,-0.68717289,-0.52935612,0.76019132,-0.37668481,0
1.1324316,0.4403162,0.3133288,0.75861627,0.62290895,0.19101334,0
0.14415196,-1.2763548,1.6432564,-0.61836904,-0.041730404,0.78477919,0
-1.0577295,0.91343188,-1.7912464,-0.52935612,0.76019132,-0.37668481,0
0.73919064,0.64711928,0.69839269,0.5518887,0.64576149,0.52764702,0
-0.55035108,0.089085817,-1.3950148,-0.051531911,-0.47198492,-0.88009936,0
-0.64292657,0.26916075,-1.5565219,-0.06917423,-0.48118976,-0.87388307,0
-1.185487,1.679374,-0.35459363,-0.52935612,0.76019132,-0.37668481,0
1.7697169,-0.76765871,1.4702104,0.48698944,0.63582778,0.59880257,0
1.0322325,-1.5135535,0.68643057,0.52935612,-0.76019132,0.37668481,0
1.6716627,-0.21133018,0.58565158,0.80694562,0.58823252,0.053114831,0
-0.32131523,1.6965833,-1.2821919,-0.52935612,0.76019132,-0.37668481,0
1.6213717,-1.3220139,0.57696164,0.52935612,-0.76019132,0.37668481,0
1.5979695,-1.7252277,-0.19118181,0.52935612,-0.76019132,0.37668481,0
-0.44299328,0.75211096,1.0293671,-0.11181378,0.37760937,0.91918927,0
1.4327713,-1.6965289,0.072345018,0.52935612,-0.76019132,0.37668481,0
-0.056017995,1.7427905,-1.4595087,-0.52935612,0.76019132,-0.37668481,0
0.79647326,-0.81238192,-0.83908278,0.39493841,-0.17215401,-0.90243375,0
-0.53266788,1.3079562,-1.7554349,-0.52935612,0.76019132,-0.37668481,0
1.4291797,0.14667034,0.21513903,0.8278327,0.55998969,-0.033234954,0
1.4584333,-0.8588841,1.4190938,0.52935612,-0.76019132,0.37668481,0
1.5239431,-1.493727,0.30772963,0.52935612,-0.76019132,0.37668481,0
-0.5329389,-0.97446227,1.0072683,-0.8058852,-0.31176215,0.50334233,0
0.19513643,-1.8680215,-0.19992077,-0.41585153,-0.61949205,-0.66580564,0
0.73389685,-2.0489116,-0.023581028,0.52935612,-0.76019132,0.37668481,0
-0.6429804,-1.3252555,0.69225693,-0.84790695,-0.48917329,0.2043606,0
-1.5669318,1.0114491,-0.98495018,-0.52935612,0.76019132,-0.37668481,0
-1.4235526,0.98510647,-1.2761869,-0.52935612,0.76019132,-0.37668481,0
1.3257148,-1.8776217,-0.33237648,0.52935612,-0.76019132,0.37668481,0
-0.80401921,1.9213792,0.3679117,0.12729794,0.5101372,0.85062063,0
-0.99170601,1.5632026,-0.85759121,-0.52935612,0.76019132,-0.37668481,0
1.0274494,-1.2616956,1.3142825,0.52935612,-0.76019132,0.37668481,0
-1.4945092,0.89285684,0.29539734,-0.6918183,-0.12977503,0.71031392,0
0.64170307,-2.0547562,0.24846673,0.52935612,-0.76019132,0.37668481,0
0.25668478,0.28070682,1.195649,-0.015812635,0.43507689,0.90025449,0
0.22953963,-1.2489883,-0.78549773,-0.10239017,-0.49799302,-0.86111516,0
0.92434329,-1.1632731,1.7986522,0.52935612,-0.76019132,0.37668481,0
0.20576328,-2.130209,0.97484064,0.52935612,-0.76019132,0.37668481,0
1.662348,-1.6407968,-0.16700447,0.52935612,-0.76019132,0.37668481,0
-1.1328008,1.6749432,-0.086525917,-0.52935612,0.76019132,-0.37668481,0
0.75109935,-2.0772119,0.25851917,0.52935612,-0.76019132,0.37668481,0
-0.096266806,1.373759,-1.7020166,0.64027023,0.066657081,-0.76525211,0
0.016069949,2.1717577,-0.93605316,0.83652633,0.54170173,-0.082359135,0
-1.1041861,-0.72145826,-0.034658909,-0.8110435,-0.58373249,-0.038274646,0
1.2164497,-1.5244176,0.41087019,0.52935612,-0.76019132,0.37668481,0
0.51400042,-2.1285076,0.14610755,0.52935612,-0.76019132,0.37668481,0
-0.37963572,1.1432326,-1.6665865,0.42929003,-0.14295503,-0.89178133,0
-1.3481119,1.7191954,0.40815014,-0.29231083,0.25338522,0.92214435,0
0.98295105,-0.99727893,1.7946103,0.52935612,-0.76019132,0.37668481,0
1.9199256,-1.0479147,0.70365793,0.52935612,-0.76019132,0.37668481,0
1.0549511,-1.1916566,1.2651219,0.52935612,-0.76019132,0.37668481,0
1.3020811,-0.78251958,1.8631663,0.17714363,0.53324485,0.82720625,0
0.45024201,-1.6441478,1.1965424,0.52935612,-0.76019132,0.37668481,0
-0.38040459,-0.48394722,-1.1268148,-0.22483492,-0.55381918,-0.80170667,0
0.4863444,-1.8930159,0.72092092,0.52935612,-0.76019132,0.37668481,0
-0.7330606,2.0852985,-0.22655094,-0.52935612,0.76019132,-0.37668481,0
1.2673608,-1.3106604,0.98914111,0.52935612,-0.76019132,0.37668481,0
0.15866959,-2.1427014,0.90863216,0.52935612,-0.76019132,0.37668481,0
1.1142141,-1.4643052,0.82135093,0.52935612,-0.76019132,0.37668481,0
-1.3332716,1.8945471,0.21208847,-0.52935612,0.76019132,-0.37668481,0
-0.57417321,-0.98018056,0.86773688,-0.81187868,-0.32503453,0.48497993,0
-0.14044625,-1.9923292,1.1990192,-0.84456378,-0.43000078,0.31907898,0
0.99854916,-0.76091564,-0.79380953,0.46175247,-0.11431944,-0.87961113,0
-1.3952278,1.284745,-0.52322125,-0.52935612,0.76019132,-0.37668481,0
-0.045406103,2.0469387,-0.28536451,0.69894004,0.64242995,0.31427169,0
1.542192,-0.77859831,1.4038682,0.52935612,-0.76019132,0.37668481,0
-0.35017776,2.1192074,0.046755433,0.4544965,0.62900716,0.63070047,0
-0.081816196,-1.6179925,-0.31495905,-0.55539143,-0.64614111,-0.52349049,0
-1.3899772,-0.033109426,-0.25209481,-0.81968451,-0.5728007,-0.0040697455,0
-0.18515158,-1.3618869,1.3358216,-0.7500512,-0.2118381,0.62653637,0
-0.83426034,1.7015171,-0.77275872,-0.52935612,0.76019132,-0.37668481,0
1.5595257,-0.57699037,1.3305204,0.5384202,0.64414304,0.54330802,0
0.88629895,-0.75370508,-0.92800248,0.35043657,-0.20842807,-0.91310012,0
0.8834101,0.32393992,-0.88312346,0.727844,0.17878897,-0.66202539,0
-1.6790949,0.88658142,-1.0723325,-0.52935612,0.76019132,-0.37668481,0
-0.63600188,0.3143636,-1.5043632,0.047793329,-0.41656941,-0.90784687,0
1.6609329,-0.75521278,1.4469457,0.52935612,-0.76019132,0.37668481,0
-0.72520369,0.43124235,0.9853456,-0.41471082,0.15548091,0.89657164,0
1.1016711,-1.159847,1.6510335,0.52935612,-0.76019132,0.37668481,0
-1.2056453,1.1826794,-1.0218745,-0.52935612,0.76019132,-0.37668481,0
0.52587473,-1.4457605,1.8440499,0.52935612,-0.76019132,0.37668481,0
-0.52163804,2.3395958,-0.033715606,-0.52935612,0.76019132,-0.37668481,0
-0.4756946,1.9610022,-0.8542434,-0.52935612,0.76019132,-0.37668481,0
1.2756332,-1.4345591,0.85441196,0.52935612,-0.76019132,0.37668481,0
-0.31297755,1.9910102,-0.60272384,-0.52935612,0.76019132,-0.37668481,0
-0.46581531,1.6600732,-1.3579068,-0.52935612,0.76019132,-0.37668481,0
1.4568849,-0.04121232,0.20050043,0.83420974,0.54725051,-0.067905545,0
0.70867193,-2.1202769,0.012871385,0.52935612,-0.76019132,0.37668481,0
-0.98546684,1.5014279,-0.92710549,-0.52935612,0.76019132,-0.37668481,0
-1.694576,1.5099502,0.28368074,-0.52935612,0.76019132,-0.37668481,0
-1.3723319,1.8432858,0.13292676,-0.52935612,0.76019132,-0.37668481,0
0.82187647,-1.1694236,1.8941655,-0.25821841,0.27856681,0.92505342,0
0.46331573,-0.60608423,1.7626591,-0.20374298,0.31709385,0.92625076,0
-0.69017529,0.15769298,1.0967994,-0.50680137,0.07273142,0.85898924,0
-0.10707557,-2.0107555,0.58918512,-0.80417311,-0.59107423,-0.062746167,0
-1.5810541,1.1000495,-0.7047224,-0.52935612,0.76019132,-0.37668481,0
0.042620778,0.37026295,1.106187,-0.02957052,0.42719254,0.90367699,0
0.048610747,0.49724007,-1.3628246,0.42734423,-0.14463842,-0.89244413,0
0.31012321,0.71181053,1.0709814,0.25312936,0.56529009,0.78509408,0
-0.58982909,2.3754163,0.1097827,-0.52935612,0.76019132,-0.37668481,0
1.6713183,-1.1377807,0.58334345,0.52935612,-0.76019132,0.37668481,0
-0.85292023,-0.84633696,-0.13592124,-0.79282629,-0.60129923,-0.099326849,0
-1.8511223,0.91507077,-0.76932293,-0.52935612,0.76019132,-0.37668481,0
-1.2122321,0.45978355,-1.4575458,-0.31406546,-0.58803821,-0.74536842,0
-0.85681921,0.53168392,-1.7071036,-0.10714394,-0.50034106,-0.85917348,0
-0.7829932,1.5214899,-1.2282758,-0.52935612,0.76019132,-0.37668481,0
-1.3019612,0.37323618,-1.4691901,-0.3830995,-0.61033225,-0.69334668,0
1.8040038,-0.78926146,-0.021464288,0.81650525,0.33589217,-0.46956977,0
-1.1061397,1.5614172,-0.37180245,-0.52935612,0.76019132,-0.37668481,0
-0.16735488,1.8465667,-1.5184839,-0.52935612,0.76019132,-0.37668481,0
1.7978914,-0.85528374,1.2603123,0.52935612,-0.76019132,0.37668481,0
-0.17543197,2.3291464,-0.28983593,0.65373081,0.64847964,0.3900134,0
-0.13546956,-0.33226049,-1.3260467,-0.0081633329,-0.44853783,-0.89372659,0
0.17918772,-1.4549925,1.6486775,-0.62388074,-0.047912106,0.78004944,0
1.2338736,0.32516512,-0.49136001,0.82799864,0.36613122,-0.42469561,0
-0.3942062,-0.49207276,1.2932332,-0.54791725,0.032657027,0.83589494,0
-1.7912437,1.4954662,0.21899374,-0.52935612,0.76019132,-0.37668481,0
-0.93043923,2.1708703,0.18747675,-0.52935612,0.76019132,-0.37668481,0
-0.76450163,-0.17635655,-1.240433,-0.36941773,-0.60622615,-0.70428723,0
-0.0010590553,2.0839276,-0.91193485,0.84202725,0.52507234,-0.12364936,0
0.43237975,0.46504486,-1.174957,0.6137566,0.036602266,-0.7886464,0
1.8683717,-0.55731726,1.211818,0.65688795,0.64823532,0.3850835,0
1.0323646,-2.0410028,-0.068382025,0.52935612,-0.76019132,0.37668481,0
-1.0321023,1.7348938,-0.10666019,-0.52935612,0.76019132,-0.37668481,0
0.03618896,0.35299397,1.1435462,-0.0084021091,0.43927529,0.89831322,0
-1.5286739,-0.1225189,-0.089784384,-0.84604776,-0.50604117,0.16770661,0
-0.2032212,2.2156177,-0.40814626,0.7269901,0.63531637,0.2604968,0
-1.6385417,1.1605241,-0.6919471,-0.52935612,0.76019132,-0.37668481,0
-0.83794385,1.2941909,-1.526369,-0.52935612,0.76019132,-0.37668481,0
2.1127951,-1.0564289,0.22184369,0.52935612,-0.76019132,0.37668481,0
0.1642924,1.8385518,-0.60557544,0.83282518,0.5502947,-0.05981636,0
-1.0941268,-0.35482585,-0.89759654,-0.56357557,-0.64695919,-0.51364046,0
0.6157915,-1.7888819,0.92973459,0.52935612,-0.76019132,0.37668481,0
0.73248756,-0.033358339,-0.87601823,0.60734338,0.029538102,-0.79389012,0
1.5925081,-1.3955472,0.4536503,0.52935612,-0.76019132,0.37668481,0
1.4146984,-1.2103131,1.133106,0.52935612,-0.76019132,0.37668481,0
0.49230605,-1.2845871,1.8996372,0.52935612,-0.76019132,0.37668481,0
0.76362574,1.0613661,0.17234147,0.71314061,0.63921094,0.28781939,0
-1.4744878,1.1952806,-0.91633552,-0.52935612,0.76019132,-0.37668481,0
-0.2972796,1.7737182,-1.2673991,-0.52935612,0.76019132,-0.37668481,0
-0.29869854,-1.034368,-0.78310126,-0.3361789,-0.59559923,-0.72955161,0
-0.45944154,2.3283539,-0.17486012,-0.52935612,0.76019132,-0.37668481,0
-1.6238058,1.2624207,-0.64977586,-0.52935612,0.76019132,-0.37668481,0
0.47960925,-2.1160934,0.29432428,0.52935612,-0.76019132,0.37668481,0
1.1320505,-1.4715518,-0.53123188,0.2898007,-0.25526837,-0.92241722,0
-1.1970849,1.8680358,0.075519919,-0.52935612,0.76019132,-0.37668481,0
1.2646232,0.030056238,1.022511,0.50343901,0.63883507,0.58175522,0
0.52723676,-1.3794572,1.6063377,0.52935612,-0.76019132,0.37668481,0
0.4630056,-1.6401956,1.4270432,0.52935612,-0.76019132,0.37668481,0
0.99930799,-0.75568295,1.8042934,-0.011243045,0.43766975,0.89906549,0
-0.9021666,1.9980369,-0.2349782,-0.52935612,0.76019132,-0.37668481,0
0.29852462,-2.1716976,0.36515224,0.52935612,-0.76019132,0.37668481,0
-1.4513333,0.80693388,-1.5495318,-0.52935612,0.76019132,-0.37668481,0
0.58607274,-1.3169329,1.7469922,0.52935612,-0.76019132,0.37668481,0
-1.6335354,1.2074637,-0.3861241,-0.52935612,0.76019132,-0.37668481,0
0.94562626,0.70955878,0.48872626,0.64051813,0.64924985,0.41013545,0
0.45176423,-0.36762413,-1.1421112,0.31491929,-0.23621038,-0.91925538,0
1.5569084,-1.1281443,0.85042858,0.52935612,-0.76019132,0.37668481,0
-0.95214385,-0.6972338,-0.35414028,-0.74550366,-0.62872952,-0.22118694,0
-1.4522402,1.1890163,-0.87020314,-0.52935612,0.76019132,-0.37668481,0
-0.0040187538,-1.9290725,1.4962766,0.52935612,-0.76019132,0.37668481,0
1.3066915,-1.6569753,0.0069836974,0.52935612,-0.76019132,0.37668481,0
1.2239783,0.44978344,0.16880739,0.79636925,0.59832394,0.088343561,0
-0.10929739,-1.3177675,-0.6134727,-0.35448539,-0.60156429,-0.71586353,0
-0.25299487,1.8387973,-1.2755231,-0.52935612,0.76019132,-0.37668481,0
-0.23773646,-1.6414274,-0.023102522,-0.67157859,-0.64677072,-0.36148328,0
-0.51485908,1.4894474,-1.7404536,-0.52935612,0.76019132,-0.37668481,0
1.1509135,-1.7201331,-0.044343233,0.52935612,-0.76019132,0.37668481,0
0.40669596,-2.3078151,0.23254883,0.52935612,-0.76019132,0.37668481,0
-1.3284426,0.090559363,-1.0765077,-0.5839203,-0.64855677,-0.48827386,0
-0.27497885,1.561919,-1.5913417,-0.52935612,0.76019132,-0.37668481,0
1.4090441,-0.95458722,1.5554621,0.52935612,-0.76019132,0.37668481,0
1.7831941,-1.2643502,0.29845411,0.52935612,-0.76019132,0.37668481,0
1.2837996,-1.6679673,-0.019132972,0.52935612,-0.76019132,0.37668481,0
1.5162632,-1.4128644,0.52825665,0.52935612,-0.76019132,0.37668481,0
-1.7145851,0.85733771,-1.0914909,-0.52935612,0.76019132,-0.37668481,0
-0.70315778,0.054148726,0.86920524,-0.5998317,-0.021358617,0.79984111,0
0.64665025,-1.219252,-0.7142505,0.061361909,-0.40852579,-0.91068184,0
-0.14045918,-1.6716169,-0.081765175,-0.6216442,-0.64969456,-0.43755656,0
0.042622268,1.9690679,-0.96004617,0.84793162,0.45930961,-0.2646634,0
-1.1022905,0.86892486,-1.7519855,-0.52935612,0.76019132,-0.37668481,0
1.6123604,-0.842839,1.411696,0.52935612,-0.76019132,0.37668481,0
-0.99808758,-0.76273715,0.099648476,-0.83325297,-0.54937363,0.062276304,0
-0.045756936,2.1581407,-0.64042425,0.78706253,0.60577881,0.11646694,0
-1.4135574,1.6029059,-0.12369549,-0.52935612,0.76019132,-0.37668481,0
-1.6145145,0.52705693,0.10678986,-0.79968405,-0.29879677,0.5207935,0
0.12046522,1.7544396,-0.97541308,0.84505671,0.43307352,-0.3135705,0
0.48143643,-1.9704552,0.77952522,0.52935612,-0.76019132,0.37668481,0
0.67056143,-2.0680625,-0.33264673,-0.28089541,-0.57599449,-0.76767719,0
-0.48526907,0.25880122,-1.4350982,-0.0004978776,-0.44427273,-0.89589155,0
0.067988873,0.57351768,1.0200633,0.11176693,0.50261086,0.8572576,0
-0.85192096,1.8906051,-0.11211419,-0.52935612,0.76019132,-0.37668481,0
0.34337994,0.41199636,-1.328274,0.59302896,0.014036104,-0.80505884,0
-1.5005691,-0.06641376,-0.53140032,-0.7623775,-0.62103105,-0.18193775,0
-0.77515674,1.7707098,0.43892461,0.022625387,0.45648581,0.88944292,0
1.4873567,-0.95686555,1.5253017,0.52935612,-0.76019132,0.37668481,0
0.73890907,-0.086210929,-0.9712503,0.52403897,-0.056193739,-0.84983844,0
1.2991269,-1.8677106,-0.38492286,0.52935612,-0.76019132,0.37668481,0
0.36638033,-2.0712013,0.58806789,0.52935612,-0.76019132,0.37668481,0
-0.95920998,-0.41892749,-0.715455,-0.577142,-0.64809585,-0.49686944,0
-0.59371078,0.34222752,1.0653238,-0.41613263,0.15426812,0.89612222,0
-0.8491627,-0.66861618,-0.81993681,-0.54530752,-0.64500171,-0.53536201,0
-1.8141464,0.83440781,-1.2206428,-0.52935612,0.76019132,-0.37668481,0
-0.91221094,1.9598697,0.013420939,-0.52935612,0.76019132,-0.37668481,0
1.4216895,-1.1044198,-0.5906024,0.51513833,-0.064778619,-0.85465556,0
-0.83725077,0.47308922,-1.5148547,-0.10620582,-0.49987879,-0.85955894,0
0.12460044,1.5250155,-1.2437941,0.80948669,0.31963989,-0.49250546,0
0.90889817,-1.5686493,0.87429452,0.52935612,-0.76019132,0.37668481,0
-1.4883869,1.3009636,-0.6190064,-0.52935612,0.76019132,-0.37668481,0
-0.79764533,-1.1517893,0.11103427,-0.8168183,-0.57667542,-0.01591742,0
-1.5214282,1.1960683,-0.66825056,-0.52935612,0.76019132,-0.37668481,0
0.93954939,-1.4508315,-0.64019215,0.21961057,-0.30608302,-0.92632848,0
-1.1916982,0.94429016,-1.5551245,-0.52935612,0.76019132,-0.37668481,0
-0.70603305,-0.46665674,0.85628915,-0.75758529,-0.22368693,0.61321187,0
-1.1823719,1.1748948,-1.4242339,-0.52935612,0.76019132,-0.37668481,0
0.26061463,-2.0220819,0.87275356,0.52935612,-0.76019132,0.37668481,0
-0.72367167,1.3657572,-1.5947297,-0.52935612,0.76019132,-0.37668481,0
-0.19094348,1.7420754,0.40823102,0.32536787,0.59195054,0.7373808,0
-0.2017566,1.9751825,0.044756174,0.51801616,0.64123303,0.56610906,0
0.32198077,0.38852417,-1.3003981,0.47485846,-0.10245162,-0.87407851,0
-0.3608928,-1.4745669,0.85114747,-0.84757507,-0.45428514,0.27430218,0
0.31775782,-1.8078561,1.4695723,0.52935612,-0.76019132,0.37668481,0
0.68091327,-1.0377287,-0.84414744,0.20081908,-0.31910419,-0.92619884,0
-0.67000479,1.5999894,-1.3966701,-0.52935612,0.76019132,-0.37668481,0
1.8369112,-1.2632086,0.37574247,0.52935612,-0.76019132,0.37668481,0
-1.2605987,-0.47460341,0.18696654,-0.84667885,-0.50162184,0.17751205,0
0.051725447,-1.8764675,1.2521316,0.52935612,-0.76019132,0.37668481,0
1.5215046,-1.201395,-0.51633358,0.53547412,-0.045016244,-0.84335101,0
0.34211668,-1.5904169,1.5759689,0.52935612,-0.76019132,0.37668481,0
0.52283323,-1.9350847,0.86430061,0.52935612,-0.76019132,0.37668481,0
-0.14838637,1.7010761,-1.7009381,0.71485078,0.16053723,-0.68059987,0
-0.28884834,-0.19364613,1.223609,-0.46489087,0.11149413,0.87831974,0
-1.9363046,1.1658802,-0.27812275,-0.52935612,0.76019132,-0.37668481,0
0.60787946,-2.0989189,0.30802083,0.52935612,-0.76019132,0.37668481,0
-0.71538186,-0.19447434,-1.2495025,-0.35045421,-0.60027415,-0.71892488,0
-0.23788998,-1.6357335,1.1988051,-0.80201709,-0.30359298,0.51439273,0
0.72690374,-0.97292018,1.9266566,-0.16180629,0.34538299,0.9244076,0
-0.98790622,-0.10088731,0.65187067,-0.73677611,-0.19177541,0.64836955,0
-2.1471872,0.84733629,-0.55267632,-0.84437323,-0.51527381,0.14672077,0
0.25275457,-1.1775341,-0.85578358,-0.070427954,-0.4818365,-0.8734262,0
-0.5245226,1.8438894,-0.58736992,-0.52935612,0.76019132,-0.37668481,0
0.4124822,-2.008877,0.58824372,0.52935612,-0.76019132,0.37668481,0
0.58358192,-1.9681505,0.42292213,0.52935612,-0.76019132,0.37668481,0
1.3063116,-1.9308146,-0.35742682,0.52935612,-0.76019132,0.37668481,0
-0.84836984,1.2184842,-1.8443773,-0.52935612,0.76019132,-0.37668481,0
-0.69708723,1.8213897,-0.51634121,-0.52935612,0.76019132,-0.37668481,0
0.2665168,-2.3049388,0.48239064,0.52935612,-0.76019132,0.37668481,0
1.0697935,0.49272722,-0.43824708,0.83845162,0.40096378,-0.36908942,0
-1.7901109,1.4473188,0.14699824,-0.52935612,0.76019132,-0.37668481,0
0.076137125,2.0985904,-0.78800142,0.82262361,0.56851995,-0.0086993575,0
-0.6286971,-1.104754,0.90446019,-0.83154798,-0.37684366,0.40806478,0
0.82216763,-2.1285548,0.10558856,0.52935612,-0.76019132,0.37668481,0
-0.031126916,0.37368572,-1.4656019,0.3364889,-0.21945775,-0.91575849,0
-1.6919777,1.0568819,-0.84640688,-0.52935612,0.76019132,-0.37668481,0
0.87646008,-1.6482064,0.82008106,0.52935612,-0.76019132,0.37668481,0
1.6626775,-0.95554185,1.2223006,0.52935612,-0.76019132,0.37668481,0
0.3539198,1.6246567,-1.0602694,0.83694243,0.39519158,-0.37861741,0
-1.2491652,1.1086144,-1.1397957,-0.52935612,0.76019132,-0.37668481,0
0.81960142,-1.2575929,1.5734954,0.52935612,-0.76019132,0.37668481,0
-0.27747536,2.3511817,-0.25559163,-0.52935612,0.76019132,-0.37668481,0
1.3641984,-1.5939629,0.3838968,0.52935612,-0.76019132,0.37668481,0
0.027106836,-1.779058,1.4240589,0.52935612,-0.76019132,0.37668481,0
0.61052233,1.3445237,-0.034282327,0.75541842,0.62442875,0.19857424,0
1.0712253,0.53009117,-0.41695541,0.83594203,0.39154667,-0.38456744,0
-1.630988,0.9017477,-1.2730583,-0.52935612,0.76019132,-0.37668481,0
0.6954844,0.69809037,0.63226241,0.57365865,0.64783084,0.50122958,0
-0.70234394,1.1752503,0.80862081,-0.10492033,0.38192785,0.91821718,0
1.1518835,-1.9181262,-0.071463823,0.52935612,-0.76019132,0.37668481,0
1.0887535,-0.5827322,1.7106696,0.20676893,0.54620576,0.81173015,0
-1.5931249,1.2071956,0.36279255,-0.59259713,-0.013573892,0.80538464,0
-0.56140292,1.0272739,0.9181093,-0.11181176,0.37761059,0.91918904,0
1.2172362,-1.0163248,-0.67411166,0.48310223,-0.094891697,-0.87040669,0
-1.2764231,-0.4862048,-0.253371,-0.80179596,-0.59339321,-0.070766687,0
1.1919845,-1.5772561,0.34642798,0.52935612,-0.76019132,0.37668481,0
-0.77501059,1.5495737,-1.3045584,-0.52935612,0.76019132,-0.37668481,0
-1.1624787,-0.51126099,0.20985919,-0.84838414,-0.47699988,0.22959834,0
1.775978,-0.41686642,0.31463361,0.84456444,0.51434457,-0.14886481,0
-0.087547585,-1.3493526,1.4765847,-0.66581571,-0.097069882,0.73977488,0
0.10045078,-1.414282,1.5264114,-0.69237942,-0.13050288,0.70963353,0
-0.44540668,-0.091076374,-1.3455212,-0.071423709,-0.48234949,-0.87306225,0
-1.0231495,-0.027709484,-1.1499528,-0.47890919,-0.63423812,-0.60694981,0
-0.75623071,-0.64511001,-0.89205074,-0.45714784,-0.62960559,-0.62818211,0
0.30128029,-1.8670368,1.1343658,0.52935612,-0.76019132,0.37668481,0
1.0609057,-1.579558,0.59721935,0.52935612,-0.76019132,0.37668481,0
1.683087,-0.23571301,0.48095256,0.80633187,0.58887511,0.055274248,0
0.99380386,-1.4801719,1.0143691,0.52935612,-0.76019132,0.37668481,0
-0.28477126,-1.3740932,1.1954665,-0.76317573,-0.2327251,0.60282809,0
-1.8964771,0.7536099,-0.23672312,-0.84832591,-0.4684189,0.24683386,0
1.1230838,-1.2964392,-0.61275315,0.30486131,-0.24389896,-0.92063725,0
1.9029806,-0.66769147,0.50440335,0.83876401,0.53565788,-0.097701013,0
1.7162368,-1.018065,1.0949874,0.52935612,-0.76019132,0.37668481,0
-1.7195716,0.709517,-1.231407,-0.52935612,0.76019132,-0.37668481,0
0.012579799,-1.6477085,-0.3166455,-0.49105453,-0.63659984,-0.594648,0
-1.2723902,-0.33266795,-0.79198235,-0.67707479,-0.64607602,-0.35235727,0
-0.18389791,2.0294728,-1.2050508,-0.52935612,0.76019132,-0.37668481,0
-1.6074531,0.38665676,-1.1410973,-0.61613667,-0.64968938,-0.44528598,0
-1.0431889,1.2561564,-1.3881433,-0.52935612,0.76019132,-0.37668481,0
0.92841816,-1.3070626,1.1022516,0.52935612,-0.76019132,0.37668481,0
0.060754657,1.4493299,0.3552078,0.50222719,0.63862425,0.58303243,0
1.4666622,-1.4875088,0.44020534,0.52935612,-0.76019132,0.37668481,0
0.35186875,1.2861962,-0.93010128,0.82077867,0.34650677,-0.45415372,0
0.68904102,-1.8762468,0.76836276,0.52935612,-0.76019132,0.37668481,0
-1.0600032,1.5879962,-0.56259036,-0.52935612,0.76019132,-0.37668481,0
0.24776803,-1.8361241,1.3098748,0.52935612,-0.76019132,0.37668481,0
-1.1622231,0.12228382,0.54649603,-0.75167888,-0.21436757,0.62371898,0
-1.0804805,-0.68931532,0.25717342,-0.84839064,-0.47636807,0.23088259,0
-0.91754526,-0.33598536,0.70446754,-0.80267072,-0.30495369,0.5125652,0
0.89161003,-2.1434777,-0.091148496,0.52935612,-0.76019132,0.37668481,0
-0.054242134,2.0532329,-0.27988839,0.69025177,0.64405638,0.32976365,0
0.49300182,0.050557047,-1.1073141,0.45282689,-0.12229865,-0.88317096,0
-0.79358745,1.7313036,-0.50937647,-0.52935612,0.76019132,-0.37668481,0
0.95395905,0.72098923,0.48604894,0.6919179,0.64376342,0.3268311,0
0.96921635,-1.9923528,0.10407996,0.52935612,-0.76019132,0.37668481,0
1.5909976,-1.5580599,-0.33045346,0.52935612,-0.76019132,0.37668481,0
-0.74044847,-1.0928656,0.64173162,-0.8456648,-0.43716791,0.30616218,0
-0.87537354,0.94314694,0.78487957,-0.35747063,0.20280561,0.91163838,0
-0.070247293,1.9954609,0.10189033,0.54265881,0.64467913,0.53843349,0
-0.73422122,1.2608433,0.69707286,-0.16998726,0.33995557,0.92495114,0
0.13360953,2.0898359,-0.65395606,0.8244167,0.56573272,-0.016844273,0
1.3495531,-0.41128224,-0.47946519,0.77654153,0.25531727,-0.57601762,0
0.71436548,-1.2934158,1.5527858,0.52935612,-0.76019132,0.37668481,0
-1.4347074,0.87335801,-1.4779798,-0.52935612,0.76019132,-0.37668481,0
1.8915081,-1.0897272,0.40410101,0.52935612,-0.76019132,0.37668481,0
1.182496,-1.1907179,1.0686901,0.52935612,-0.76019132,0.37668481,0
0.1316185,1.8062345,-1.2031152,0.80915678,0.31890631,-0.49352226,0
0.94684523,-1.305445,1.5274215,0.52935612,-0.76019132,0.37668481,0
1.5372279,-1.3948371,0.42689788,0.52935612,-0.76019132,0.37668481,0
-0.18258673,1.1332713,-1.7564448,0.47918579,-0.098492548,-0.87216985,0
-0.19336569,-1.5954549,-0.31582093,-0.58395815,-0.64855909,-0.4882254,0
-0.68167615,2.1632314,0.099693418,-0.52935612,0.76019132,-0.37668481,0
0.096687078,0.11174119,-1.3467227,0.32302392,-0.22995842,-0.91802764,0
-1.7146699,0.88423133,-1.0691555,-0.52935612,0.76019132,-0.37668481,0
-0.17913938,2.2702868,-0.28140998,0.64121234,0.64921921,0.40909827,0
-1.7623805,0.80872703,0.2763086,-0.73844916,-0.19425151,0.64572376,0
-0.79126388,0.35230467,0.93594301,-0.48039746,0.097380318,0.87162799,0
1.6527421,-0.062877893,0.5892719,0.79515201,0.59936666,0.092158437,0
-1.0306393,1.0280523,0.65828264,-0.40386736,0.16466862,0.89987522,0
-0.28093547,-1.6908036,0.35663176,-0.80158246,-0.5935964,-0.071476638,0
-1.8187439,0.60189557,-1.2834865,-0.52935612,0.76019132,-0.37668481,0
0.19033001,1.348245,-1.2411106,0.79522055,0.28986698,-0.53254235,0
-0.49049458,-1.5764728,0.64841127,-0.84509242,-0.5116353,0.15507442,0
0.6376487,-2.3872247,-0.18004453,0.52935612,-0.76019132,0.37668481,0
0.28873193,0.83428431,0.82786292,0.31997246,0.59009528,0.74121892,0
0.84810644,-1.1751275,1.5036664,0.52935612,-0.76019132,0.37668481,0
0.13606574,-1.7611219,1.3878218,0.52935612,-0.76019132,0.37668481,0
-1.8980467,1.3511467,0.13152203,-0.52935612,0.76019132,-0.37668481,0
1.8829195,-0.89348602,1.0889163,0.52935612,-0.76019132,0.37668481,0
-2.0806785,0.96905732,-0.11238483,-0.8214637,-0.34826937,0.45155933,0
0.31791806,-2.3137658,0.13149309,0.52935612,-0.76019132,0.37668481,0
1.655503,-0.36401653,0.00043433905,0.839239,0.40412739,-0.36381155,0
-1.6590511,1.4377267,-0.0883338,-0.52935612,0.76019132,-0.37668481,0
-1.0234591,1.4271076,-0.91527772,-0.52935612,0.76019132,-0.37668481,0
0.79186851,-1.7666042,0.58724928,0.52935612,-0.76019132,0.37668481,0
1.9050519,-1.2122377,-0.1710712,0.67595983,0.10960028,-0.72874284,0
-1.223994,0.62813258,-1.5250231,-0.27446735,-0.57356608,-0.77180934,0
-0.52555656,0.12923622,-1.4150153,0.024582088,-0.43006486,-0.90246332,0
-0.42442364,1.997301,-0.73906678,-0.52935612,0.76019132,-0.37668481,0
0.92687911,-0.85567707,-0.82145154,0.42080122,-0.1502727,-0.89461982,0
0.84954828,-1.621225,0.67531562,0.52935612,-0.76019132,0.37668481,0
0.92185676,-1.4120164,1.317559,0.52935612,-0.76019132,0.37668481,0
-1.4415648,0.14721334,0.041398227,-0.84575331,-0.43779749,0.30501598,0
-1.259661,1.1829538,-0.9764539,-0.52935612,0.76019132,-0.37668481,0
-1.7850922,0.93269253,-0.86610472,-0.52935612,0.76019132,-0.37668481,0
0.84440601,-1.3806491,1.1668502,0.52935612,-0.76019132,0.37668481,0
-0.032469869,1.5757859,0.45528567,0.41967791,0.62049836,0.66245931,0
1.3227632,-1.1648633,1.2162514,0.52935612,-0.76019132,0.37668481,0
-0.72258824,-0.80479056,-0.55612063,-0.64255852,-0.64915663,-0.40708005,0
-0.35587651,-1.7712746,0.65853786,-0.83747143,-0.5392431,0.088649035,0
-0.60412347,-0.2951546,1.1266726,-0.66527784,-0.096413091,0.74034446,0
0.28752565,0.46457148,1.1639919,0.18774354,0.5379495,0.82180458,0
-0.72678018,-0.74344885,-0.81234694,-0.50347328,-0.63884103,-0.58171904,0
-0.44445172,1.8220608,-0.75798756,-0.52935612,0.76019132,-0.37668481,0
0.54176742,-2.0617242,0.34422362,0.52935612,-0.76019132,0.37668481,0
-1.1272191,1.2770121,-0.92024791,-0.52935612,0.76019132,-0.37668481,0
-0.010017991,-0.32084548,-1.2659131,0.10144466,-0.38409394,-0.91770411,0
0.75207424,1.0298467,-0.37443042,0.84040606,0.53065479,-0.11010534,0
-0.80965692,1.2999644,-1.4378839,-0.52935612,0.76019132,-0.37668481,0
1.0941441,-1.1282113,1.2838919,0.52935612,-0.76019132,0.37668481,0
-1.0797796,-0.55428433,0.18522465,-0.84163415,-0.52649641,0.12022328,0
-1.5313017,0.074423194,-0.10341167,-0.84679967,-0.50067967,0.17958337,0
1.5034565,-1.5244389,-0.073480457,0.52935612,-0.76019132,0.37668481,0
0.58357674,-1.7739098,1.0559503,0.52935612,-0.76019132,0.37668481,0
0.26882565,-0.52688992,1.5061129,-0.28554678,0.25844902,0.92285824,0
0.84576094,-1.8790461,-0.38462675,-0.031649947,-0.46138006,-0.88663793,0
-1.9233707,0.99535823,-0.40247631,-0.52935612,0.76019132,-0.37668481,0
1.2871351,-1.043098,1.5641664,0.52935612,-0.76019132,0.37668481,0
-1.4873797,0.31015205,-1.2607689,-0.51056331,-0.64003921,-0.57417333,0
1.510365,-1.7598839,-0.25205702,0.52935612,-0.76019132,0.37668481,0
-1.3285033,1.3481154,-0.85850841,-0.52935612,0.76019132,-0.37668481,0
0.043815732,-1.5321596,-0.59289134,-0.37886071,-0.60907727,-0.69677091,0
0.22543168,-0.82358849,-0.95522702,0.015694082,-0.43514431,-0.90022385,0
1.5330441,-1.4709442,-0.43128154,0.50407326,-0.075315624,-0.8603707,0
1.8738468,-0.76687264,0.34850806,0.84532672,0.43484512,-0.31037474,0
-0.043911099,0.62713826,-1.4845872,0.39401942,-0.17292044,-0.90268892,0
-1.0319982,1.8992642,0.23591459,-0.52935612,0.76019132,-0.37668481,0
-0.26094079,-0.18269515,1.2325034,-0.42027867,0.15072089,0.89479005,0
0.62311155,-0.35534394,1.6172072,-0.060228229,0.40920222,0.91045386,0
0.48598453,1.0982044,-0.78345144,0.82497692,0.35761565,-0.43763465,0
-1.2459524,1.6509906,-0.12089628,-0.52935612,0.76019132,-0.37668481,0
-0.61981696,-1.0775591,-0.41462338,-0.67022061,-0.64692968,-0.36371219,0
0.42236912,-2.0161483,0.62789726,0.52935612,-0.76019132,0.37668481,0
0.127285,-1.4732223,-0.47721767,-0.37956566,-0.60928708,-0.69620365,0
-1.1769277,1.6521237,-0.51950902,-0.52935612,0.76019132,-0.37668481,0
-0.62985277,1.7160826,-1.2122514,-0.52935612,0.76019132,-0.37668481,0
-0.74925119,1.7902229,-0.64133692,-0.52935612,0.76019132,-0.37668481,0
-0.97090024,-0.73092723,0.48144889,-0.84385574,-0.42588735,0.32638538,0
1.2890432,-0.51767302,1.5576272,0.34010535,0.59690142,0.72666174,0
1.4076631,-1.6972457,0.065402627,0.52935612,-0.76019132,0.37668481,0
-1.127015,1.3454082,-0.7957744,-0.52935612,0.76019132,-0.37668481,0
1.9105117,-0.92904639,0.88995862,0.52935612,-0.76019132,0.37668481,0
-0.36213744,0.059921145,-1.4842622,0.010213137,-0.43825236,-0.898794,0
1.6371816,-0.57462955,-0.23557448,0.79424232,0.28794986,-0.53503644,0
-1.105366,1.8905886,-0.090893686,-0.52935612,0.76019132,-0.37668481,0
-0.015771672,-1.7641703,1.3841789,-0.81028646,-0.32142833,0.4900201,0
-0.42218053,2.1038203,-0.49464524,-0.52935612,0.76019132,-0.37668481,0
-1.1259117,-0.28288299,0.36946696,-0.82936311,-0.37014911,0.41850483,0
-0.69497204,2.2156341,0.0019005537,-0.52935612,0.76019132,-0.37668481,0
-0.1537509,-1.8989391,0.56132805,-0.82928753,-0.55734396,0.040618777,0
0.84756839,0.50429374,-0.86390048,0.76089001,0.22900301,-0.60712761,0
-0.025023073,-1.3622066,1.4350073,-0.72391844,-0.17319867,0.66779059,0
1.0916531,-2.0737329,-0.31383288,0.0076418519,-0.43970409,-0.89811015,0
-0.14444292,1.4568429,-1.641467,0.64002991,0.066378184,-0.7654773,0
-0.57955396,0.42976934,1.0874896,-0.39219862,0.17443658,0.90319002,0
0.85101563,-2.0243385,-0.089945316,0.52935612,-0.76019132,0.37668481,0
1.4124119,0.29965776,0.0011888742,0.83586782,0.5433439,-0.078119636,0
-0.49292088,1.7764452,0.57595241,0.15616143,0.52371418,0.83745873,0
-1.6068814,1.4769695,-0.27281719,-0.52935612,0.76019132,-0.37668481,0
0.14189804,1.9994215,-0.57868564,0.82776308,0.56011331,-0.032887518,0
0.28074965,1.3674432,-1.0748582,0.79946214,0.29834527,-0.52139282,0
1.737848,-1.0945868,0.52856594,0.52935612,-0.76019132,0.37668481,0
0.41287631,-2.0203142,0.86435509,0.52935612,-0.76019132,0.37668481,0
1.6588302,-1.7192714,-0.24726942,0.52935612,-0.76019132,0.37668481,0
-0.92557186,-0.79630566,0.18179476,-0.82870191,-0.55842471,0.037614822,0
-1.3795066,1.7304716,0.3769362,-0.52935612,0.76019132,-0.37668481,0
-0.54295278,1.8183916,0.49606431,0.14697921,0.51945323,0.84176338,0
1.413431,-0.86382484,1.3856186,0.52935612,-0.76019132,0.37668481,0
0.36844647,-0.88822347,-1.0485733,0.026979387,-0.42868638,-0.90305048,0
-0.22140101,-1.6813362,0.94065726,-0.84794044,-0.45945361,0.26438504,0
-0.10755515,-2.0225587,0.26255393,-0.70477867,-0.64119452,-0.30357349,0
-0.87047744,0.31592661,0.81215477,-0.58285308,-0.0032276809,0.81257111,0
-1.5976237,0.7352283,-1.3769596,-0.52935612,0.76019132,-0.37668481,0
1.120672,0.61183047,0.60307765,0.68840307,0.64437121,0.33299708,0
-1.8631476,1.0309711,-0.70627683,-0.52935612,0.76019132,-0.37668481,0
0.92203331,-1.7420986,-0.54196107,0.063525498,-0.40723261,-0.91111255,0
-2.0878127,1.1268251,-0.28812981,-0.52935612,0.76019132,-0.37668481,0
-0.018298566,-0.093138576,1.2940876,-0.28843141,0.25629365,0.92256218,0
-0.20313799,2.2905629,-0.64178765,-0.52935612,0.76019132,-0.37668481,0
0.75065005,-2.1923687,0.001180172,0.52935612,-0.76019132,0.37668481,0
0.6627562,-0.37951285,-0.95571113,0.38733006,-0.17847632,-0.90450072,0
-0.39691943,-1.5848322,0.07385993,-0.7022481,-0.64174449,-0.30823976,0
0.93122333,-1.5437918,-0.51235908,0.1590035,-0.3472324,-0.92420107,0
-0.98499036,1.6118184,-0.45066208,-0.52935612,0.76019132,-0.37668481,0
0.20264345,-0.49349988,1.5337098,-0.23766512,0.29334489,0.92599362,0
1.4282179,-0.055640221,0.67056477,0.73527467,0.63258135,0.24333513,0
1.1197095,-1.1072769,1.5314419,0.52935612,-0.76019132,0.37668481,0
1.094591,-1.1439857,1.4263265,0.52935612,-0.76019132,0.37668481,0
-1.8645225,1.0952349,-0.45566848,-0.52935612,0.76019132,-0.37668481,0
1.3503201,-1.4911026,0.17005867,0.52935612,-0.76019132,0.37668481,0
1.9410585,-0.59156299,0.25904512,0.84402692,0.426853,-0.32467711,0
-1.7133687,0.50388288,-0.13336694,-0.84527886,-0.43452606,0.31095129,0
0.4582938,0.18295658,1.3602535,0.17605531,0.53275764,0.82775235,0
-0.91505599,1.838034,-0.38295305,-0.52935612,0.76019132,-0.37668481,0
0.68700093,1.0036893,0.27592695,0.66279835,0.64771235,0.37572235,0
0.044057965,-0.027325153,1.4337244,-0.26707935,0.2721031,0.92446125,0
0.20834875,-1.4243727,-0.72890937,-0.20600241,-0.54587781,-0.81214571,0
1.2626884,0.39195803,-0.29669058,0.84831804,0.46811298,-0.24744028,0
0.50444555,-2.1458704,0.087915301,0.52935612,-0.76019132,0.37668481,0
-0.14701903,-1.8039834,0.15861809,-0.69786525,-0.64264458,-0.3162154,0
0.22746783,-1.8901322,1.2487307,0.52935612,-0.76019132,0.37668481,0
-0.20350617,-1.9260406,0.7810365,-0.84639478,-0.50370419,0.17291063,0
-0.80030382,-0.68888211,0.66763479,-0.83810377,-0.39960149,0.37134987,0
-0.29522932,2.2618279,-0.36306202,-0.52935612,0.76019132,-0.37668481,0
-1.0043685,2.0532117,0.3352797,-0.52935612,0.76019132,-0.37668481,0
1.8786736,-0.44207621,0.33885157,0.84349936,0.51923066,-0.13750744,0
1.512877,-0.80697775,1.4126998,0.52935612,-0.76019132,0.37668481,0
-0.2949481,1.9933872,-0.88854218,-0.52935612,0.76019132,-0.37668481,0
