-0.64639235,-0.40589476,0.68473041,-0.71813679,-0.12569034,0.68445718,0
1.0768356,-0.66783714,0.4022814,0.620327,-0.56138456,0.54776102,0
-1.0241315,-0.66889143,0.24917632,-0.71813679,-0.12569034,0.68445718,0
0.24172735,0.11834329,-1.3096322,0.71813679,0.12569034,-0.68445718,0
0.52186239,1.1777656,0.18981194,0.222221,0.89064032,0.39670837,0
0.061889887,-0.089767933,-1.3675659,0.71813679,0.12569034,-0.68445718,0
-0.27686262,-1.2799059,0.8263635,0.37602735,-0.89769125,0.22968268,0
0.89407885,0.82013309,0.60740834,0.51948953,0.55761927,0.64744997,0
-1.1525451,0.30238152,0.43548542,-0.71813679,-0.12569034,0.68445718,0
0.46489131,0.50127518,1.239848,0.59650648,0.39538303,0.69846427,0
-0.72175813,-0.03538388,-1.0319434,-0.68212271,-0.067619085,-0.72810459,0
0.469181,1.2672123,-0.31616837,-0.028825879,0.98808253,0.15120208,0
0.098366857,0.60958028,-1.2547468,0.71813679,0.12569034,-0.68445718,0
-0.35106719,-1.0224748,1.0482097,-0.71813679,-0.12569034,0.68445718,0
-1.2888763,-0.029040813,0.10784835,-0.71813679,-0.12569034,0.68445718,0
-0.099490047,0.45203486,-1.6077831,0.71813679,0.12569034,-0.68445718,0
-0.45786381,-0.30978814,-1.2483407,-0.64824808,-0.23688003,-0.72364533,0
0.85582876,-1.1359259,-0.8422184,0.71813679,0.12569034,-0.68445718,0
0.056550384,-0.65812677,-1.3993987,-0.45652878,-0.6572367,-0.59968436,0
1.0905385,-0.78949112,-0.34669173,0.71813679,0.12569034,-0.68445718,0
0.097460866,0.044420749,1.4482304,-0.71813679,-0.12569034,0.68445718,0
-1.0352196,-1.1009883,0.25177646,-0.71813679,-0.12569034,0.68445718,0
0.30403078,-0.54946864,1.3745074,0.67775726,-0.34945852,0.64693433,0
-0.62149024,0.10346913,0.85984433,-0.71813679,-0.12569034,0.68445718,0
-0.41112268,0.86128098,-0.7419613,-0.54354954,0.71548152,-0.43890813,0
0.95173413,1.1898818,0.14845407,0.27674994,0.85085016,0.44661349,0
0.13918173,0.60796368,-1.2116283,0.71813679,0.12569034,-0.68445718,0
-0.21340406,1.1591377,-0.66554713,-0.45249796,0.83158016,-0.32205647,0
-1.0745671,0.24402702,0.32039142,-0.71813679,-0.12569034,0.68445718,0
-0.083551407,0.6460492,1.3330767,0.47233909,0.63426059,0.61205339,0
-0.75825369,0.12824929,0.79573864,-0.71813679,-0.12569034,0.68445718,0
-0.21992469,-1.2734393,0.4684751,0.16129839,-0.9868331,-0.011981726,0
-0.5392862,1.1179634,0.90332669,0.019429028,0.97954917,0.20026445,0
-0.16765511,0.21087855,1.1896098,-0.71813679,-0.12569034,0.68445718,0
-0.9754833,0.68395448,-0.52756435,-0.60419548,0.60063446,-0.52362823,0
-1.2288971,0.47035265,0.16743973,-0.71813679,-0.12569034,0.68445718,0
-0.58375418,0.61666518,-0.90322042,-0.65276539,0.46256581,-0.59994221,0
0.84840274,0.9999395,0.3141731,0.40012804,0.7301355,0.55389518,0
0.89722794,1.1600976,-0.39964116,0.71813679,0.12569034,-0.68445718,0
1.1009282,1.0960362,0.11852992,0.3572067,0.77751672,0.51756269,0
0.10806084,0.69528329,-1.1085614,0.71813679,0.12569034,-0.68445718,0
-1.3944955,-0.50589514,-0.46070439,-0.62566376,-0.31399289,-0.71411037,0
1.1965996,0.3071444,0.52171224,0.66631824,0.1595352,0.72840142,0
-0.61106861,-0.52232349,-0.99642009,-0.54859275,-0.50289845,-0.66793656,0
-0.66929698,0.69514257,0.8337118,-0.71813679,-0.12569034,0.68445718,0
-0.91260028,0.65976262,0.67733485,-0.71813679,-0.12569034,0.68445718,0
0.2909956,-1.1045196,-1.0584613,-0.25903612,-0.86459535,-0.43055218,0
1.3721862,0.39170444,0.36897302,0.61828697,0.33615032,0.71043944,0
-0.43596441,1.1579082,0.15694219,-0.18685746,0.98226207,-0.015674412,0
-0.17885178,-0.67598373,-1.2234173,-0.49841225,-0.59351027,-0.6319263,0
-0.86920869,-0.78859627,0.38680887,-0.71813679,-0.12569034,0.68445718,0
0.9614256,-1.128401,-0.39353919,0.25256461,-0.96356571,0.088048011,0
-0.28248814,-0.75662506,-1.0407619,-0.46468782,-0.64553332,-0.60609567,0
-1.0216932,0.73422593,0.49869275,-0.71813679,-0.12569034,0.68445718,0
0.79336476,-1.0339797,0.18277982,0.38990676,-0.88734764,0.24614462,0
-0.87534714,0.61950237,-0.72529548,-0.64913642,0.47546104,-0.59376675,0
0.10949159,0.9995535,-1.1439612,0.71813679,0.12569034,-0.68445718,0
0.20445508,-0.15880221,-1.3377621,0.71813679,0.12569034,-0.68445718,0
-0.62361896,0.4169499,-1.0112183,-0.67499799,0.36506984,-0.64117241,0
0.0012046099,-1.0703393,1.1046486,0.48623669,-0.79426301,0.36430809,0
0.82806641,0.77494115,0.54564208,0.48397982,0.61652988,0.62101102,0
-0.1568408,-1.0926082,0.95216143,-0.71813679,-0.12569034,0.68445718,0
-0.31834924,1.1911705,-0.44803646,-0.37721217,0.89683425,-0.23108333,0
-1.0272141,0.56450307,-0.67537528,-0.6392082,0.5079844,-0.57737756,0
1.2534922,0.81903684,0.071133971,0.71813679,0.12569034,-0.68445718,0
0.23639524,-0.34430322,1.4984797,0.69279712,-0.2219356,0.68613189,0
-1.2535702,-0.69643819,-0.27131116,-0.5262813,-0.54542243,-0.65233618,0
0.93290442,-0.82714731,-0.60162765,0.71813679,0.12569034,-0.68445718,0
1.329818,-0.67584753,0.1367943,0.58177805,-0.64813167,0.49138552,0
-0.70841515,0.29960251,0.90545505,-0.71813679,-0.12569034,0.68445718,0
-1.1006184,0.78756845,0.44505388,-0.71813679,-0.12569034,0.68445718,0
1.5946379,0.044440866,0.27718931,0.71813679,0.12569034,-0.68445718,0
0.1422269,-1.073674,-1.0007873,-0.2974132,-0.83377099,-0.46515733,0
0.93823075,0.50850916,-0.38176322,0.71813679,0.12569034,-0.68445718,0
-1.1913487,0.054682016,0.20172274,-0.71813679,-0.12569034,0.68445718,0
-1.5156845,-0.48440289,-0.097667813,-0.71813679,-0.12569034,0.68445718,0
0.23124397,1.133588,-1.0384843,0.71813679,0.12569034,-0.68445718,0
-0.64707178,0.055393636,0.74069393,-0.71813679,-0.12569034,0.68445718,0
-0.50576842,-1.1336179,-0.33388698,-0.26153964,-0.86270171,-0.43283111,0
-0.1087904,0.48286092,-1.3852423,0.71813679,0.12569034,-0.68445718,0
0.86909473,0.80282968,-0.46354681,0.71813679,0.12569034,-0.68445718,0
-0.027767539,0.79499698,-1.2362509,0.71813679,0.12569034,-0.68445718,0
0.48380184,0.98656523,-0.63834703,0.71813679,0.12569034,-0.68445718,0
0.77787614,1.3273333,-0.37196863,0.71813679,0.12569034,-0.68445718,0
-0.18798101,0.62095338,-1.2524925,-0.67305738,0.37538961,-0.63724136,0
0.30556762,-0.082174629,1.4669073,0.6926105,-0.033541471,0.72053176,0
-0.51703072,-0.86936343,0.81894445,-0.71813679,-0.12569034,0.68445718,0
-0.21107554,1.039184,0.76947367,0.20999877,0.89856231,0.38533944,0
-0.30941287,1.0622684,0.66225433,0.10726541,0.95180714,0.28732848,0
1.1471801,-0.42790103,-0.4762277,0.71813679,0.12569034,-0.68445718,0
-0.16731334,-1.2899265,-0.20146364,0.011542797,-0.98557019,-0.16887426,0
0.35240352,1.2769066,0.24331093,0.12303555,0.94512784,0.30264813,0
-0.3800633,-1.203716,0.81616968,-0.71813679,-0.12569034,0.68445718,0
0.65689588,1.3148303,-0.019580722,0.090274394,0.95841742,0.2707153,0
0.48008662,0.75169808,-0.8083995,0.71813679,0.12569034,-0.68445718,0
-0.03468132,1.0818629,0.5361138,0.14571398,0.93459201,0.32450777,0
-0.64143085,0.051784113,-1.0937927,-0.68770361,-0.022352368,-0.72564757,0
-1.1609027,-1.1723027,0.00095951557,-0.36183023,-0.77271205,-0.5215314,0
0.26545215,-1.1803035,0.31346494,0.32052815,-0.93275529,0.1650137,0
-0.7329483,0.6940496,0.91876405,-0.71813679,-0.12569034,0.68445718,0
0.01544553,-0.52235788,-1.5108995,-0.54499775,-0.51002294,-0.66547292,0
0.87828535,0.96064925,-0.45355141,0.71813679,0.12569034,-0.68445718,0
-0.72600424,-0.051148057,0.77898532,-0.71813679,-0.12569034,0.68445718,0
-0.20245618,0.71851856,1.4910004,-0.71813679,-0.12569034,0.68445718,0
-0.30128956,1.2409691,0.020096183,-0.25654608,0.9620961,-0.092495292,0
-1.3559784,-0.54793906,-0.28016067,-0.58407509,-0.42585436,-0.69101691,0
1.5017083,0.6403296,0.17189944,0.71813679,0.12569034,-0.68445718,0
-0.048460931,-1.0376784,-0.77153343,-0.25579438,-0.86702377,-0.42759687,0
0.33893144,-1.2706785,0.047486424,0.2328018,-0.97027671,0.066080511,0
-1.0604991,-1.1505055,0.070926666,-0.25614923,-0.86675918,-0.42792064,0
-0.53933132,0.73605579,0.9152301,-0.71813679,-0.12569034,0.68445718,0
1.4575206,0.27402103,0.018934369,0.71813679,0.12569034,-0.68445718,0
1.0040619,-0.9652251,-0.078960255,0.45704663,-0.82687747,0.32769257,0
-0.90474689,0.66063082,0.49225175,-0.71813679,-0.12569034,0.68445718,0
-0.86726975,-0.20123637,0.61252791,-0.71813679,-0.12569034,0.68445718,0
-0.5992161,0.98458254,1.034788,-0.71813679,-0.12569034,0.68445718,0
-0.68473113,0.63064092,-0.73230082,-0.63641787,0.51650214,-0.57288569,0
-0.69786793,-0.1270349,-1.0920382,-0.66634834,-0.15938866,-0.72840607,0
0.93182707,-1.0518488,-0.019999415,0.39775753,-0.88119406,0.25551167,0
-1.2803221,-0.79488325,-0.099020839,-0.71813679,-0.12569034,0.68445718,0
-0.61619937,1.165428,0.13188407,-0.24524319,0.96616441,-0.079889119,0
-0.60782623,-0.00082999468,0.90221024,-0.71813679,-0.12569034,0.68445718,0
1.3134239,0.64928865,-0.05543983,0.71813679,0.12569034,-0.68445718,0
-0.42023277,-0.27202904,1.0400041,-0.71813679,-0.12569034,0.68445718,0
0.92354423,0.80373991,0.53473103,0.49028534,0.60661876,0.62580669,0
0.17097855,0.12192571,-1.2735398,0.71813679,0.12569034,-0.68445718,0
0.90617633,-0.037809312,0.73828012,0.69254452,-0.032580256,0.72063911,0
-0.14674458,-0.64327562,-1.1065946,-0.49676636,-0.59619629,-0.63069272,0
0.56715226,0.99070507,0.35646164,0.28925353,0.84065259,0.45785981,0
0.45919347,-0.86622459,0.79666716,0.56497085,-0.67956102,0.46797973,0
0.14212704,-0.268668,1.6204041,-0.71813679,-0.12569034,0.68445718,0
-0.096797824,-0.6405952,1.1859157,-0.71813679,-0.12569034,0.68445718,0
-0.61906064,-0.26239955,0.90041161,-0.71813679,-0.12569034,0.68445718,0
-0.54167008,-0.098123237,-1.1080848,-0.66189009,-0.18036044,-0.72757953,0
0.80064321,-0.044099033,1.1029193,0.69373441,-0.051729709,0.71837103,0
1.2686894,-0.50961435,-0.31586784,0.71813679,0.12569034,-0.68445718,0
-0.31843141,-0.79857558,-0.83901429,-0.39153421,-0.74013758,-0.5467152,0
0.020243615,1.1164711,0.72724414,0.25817874,0.86524022,0.42977095,0
-0.52778172,-1.0089911,-0.49374986,-0.33277398,-0.80178785,-0.49638474,0
0.58045352,-1.1019775,-0.84640098,-0.030952513,-0.97681153,-0.21185219,0
1.0632825,-0.49428552,0.55948049,0.64522481,-0.48872197,0.58722746,0
0.021726251,-0.75209892,1.2047498,-0.71813679,-0.12569034,0.68445718,0
1.0390166,-0.19950879,-0.30382189,0.71813679,0.12569034,-0.68445718,0
-1.0264421,0.10050517,-0.63233268,-0.69499207,0.17982268,-0.69616818,0
0.96980584,-0.90718144,0.057213545,0.50338721,-0.7729404,0.38621822,0
0.79517972,-1.1620346,-0.23980007,0.33005965,-0.92740834,0.17599615,0
-0.29602998,1.0136337,1.279344,0.25700802,0.86611772,0.42870384,0
-1.2389965,0.13196421,-0.49942461,-0.69590169,0.13072562,-0.70613855,0
-0.087514341,0.64710754,1.4222803,0.5163554,0.56313944,0.64517534,0
-0.078838944,-0.088477671,1.2690573,-0.71813679,-0.12569034,0.68445718,0
-0.14636254,-0.86389345,1.2778406,-0.71813679,-0.12569034,0.68445718,0
0.55449712,1.2361054,0.12116575,0.19630465,0.90702248,0.37252498,0
0.29037178,-0.7230984,1.1721239,0.6158874,-0.57268894,0.54102719,0
-1.2638607,-0.28584516,0.039612532,-0.71813679,-0.12569034,0.68445718,0
1.3971319,-0.46150374,0.22593582,0.67121297,-0.38476497,0.63358456,0
-1.3158233,0.21406412,0.23801422,-0.71813679,-0.12569034,0.68445718,0
-1.178427,0.38819665,-0.54945439,-0.68173033,0.32454818,-0.6556772,0
0.10181642,-0.89549285,1.2838725,0.58017957,-0.6512602,0.48913392,0
0.35999131,1.1641784,0.048304796,0.058526635,0.9691608,0.23937827,0
-0.53028846,0.012251675,0.96017635,-0.71813679,-0.12569034,0.68445718,0
0.15653288,-0.90336806,1.2972105,0.59933972,-0.61154687,0.5165295,0
1.0275326,-0.70238256,0.33223999,0.61735594,-0.568995,0.54324627,0
0.79910874,0.91189975,-0.34699601,0.71813679,0.12569034,-0.68445718,0
-1.0671334,0.99208784,0.61352086,-0.71813679,-0.12569034,0.68445718,0
0.66177857,1.2054673,-0.15450943,0.10670727,0.95203376,0.28678459,0
-0.22398901,-0.044505149,-1.5887138,-0.66396362,-0.17079446,-0.7279985,0
-0.22802246,0.90320051,-1.2303593,-0.59037149,0.63075888,-0.50359201,0
-0.68956429,-1.1349521,0.50062156,-0.71813679,-0.12569034,0.68445718,0
0.58012533,-0.15859336,-0.81421852,0.71813679,0.12569034,-0.68445718,0
0.34331012,0.13385499,-0.96609735,0.71813679,0.12569034,-0.68445718,0
0.43309999,1.3628484,-0.03516674,0.084955633,0.96036279,0.26549208,0
0.54812312,0.8647936,0.70664066,0.39000174,0.74189299,0.54542965,0
-1.4274535,0.82968706,0.25989646,-0.71813679,-0.12569034,0.68445718,0
-1.130363,0.38605201,0.31646073,-0.71813679,-0.12569034,0.68445718,0
-0.64868081,0.48816347,0.99417615,-0.71813679,-0.12569034,0.68445718,0
1.2330049,-0.40392822,0.40552798,0.66968405,-0.39224941,0.630606,0
1.2456855,0.15706384,-0.10226005,0.71813679,0.12569034,-0.68445718,0
1.1953322,-0.05953908,-0.26774716,0.71813679,0.12569034,-0.68445718,0
0.52119696,0.42187661,-0.89566898,0.71813679,0.12569034,-0.68445718,0
1.1990912,-0.6931079,-0.45729274,0.71813679,0.12569034,-0.68445718,0
-0.85724986,0.78904724,0.79807806,-0.71813679,-0.12569034,0.68445718,0
-0.6984551,1.0646913,-0.17509094,-0.43269992,0.85095859,-0.29772574,0
-0.70175433,0.37014091,-0.89587319,-0.68396354,0.30888486,-0.66089666,0
0.97801018,0.34182477,-0.45385772,0.71813679,0.12569034,-0.68445718,0
0.23437652,-0.6051594,-1.4683293,0.71813679,0.12569034,-0.68445718,0
-1.395842,-0.52232194,-0.21014392,-0.71813679,-0.12569034,0.68445718,0
-0.23612395,1.0070003,1.1111348,0.31114364,0.82177645,0.47736073,0
-0.42938164,0.25798005,0.91639298,-0.71813679,-0.12569034,0.68445718,0
-0.14376375,-0.84504312,-1.2072202,-0.43575245,-0.68564636,-0.58310276,0
0.13248897,-0.81811142,1.0978161,0.57773864,-0.65597856,0.48570636,0
-0.89926106,0.0090581179,0.56915933,-0.71813679,-0.12569034,0.68445718,0
0.25008315,-0.10187119,-1.0970645,0.71813679,0.12569034,-0.68445718,0
1.0503004,-0.63051128,0.33908039,0.6131804,-0.5793848,0.53695744,0
0.9069916,-0.68683767,0.65125686,0.62160408,-0.55805445,0.54971248,0
-0.84002954,-0.51043516,0.43022221,-0.71813679,-0.12569034,0.68445718,0
0.81003523,0.98161411,-0.54320139,0.71813679,0.12569034,-0.68445718,0
-0.72772479,-0.5963161,-0.8265186,-0.58899236,-0.41405261,-0.69400901,0
0.83648396,-0.19294482,0.85354817,0.69587976,-0.12181997,0.70775092,0
-0.59175807,-1.0878053,0.61991537,-0.71813679,-0.12569034,0.68445718,0
-0.37328112,0.47273618,-1.1419241,-0.68662679,0.28802645,-0.66752136,0
0.38119727,0.47544175,1.2585423,0.58409464,0.42580807,0.69102901,0
-0.46781379,0.3673858,0.93464273,-0.71813679,-0.12569034,0.68445718,0
0.9851681,-0.92031705,0.094535902,0.44748938,-0.83664751,0.315871,0
0.20296788,0.75310278,-1.1237134,0.71813679,0.12569034,-0.68445718,0
-0.52208912,0.95587301,-0.6045692,-0.53798342,0.72415709,-0.43147504,0
-0.42334121,-0.62385774,-0.93721414,-0.51023954,-0.57372206,-0.64070189,0
0.25866532,-0.38527468,-1.3735747,0.71813679,0.12569034,-0.68445718,0
1.1049929,-0.23706496,-0.48675311,0.71813679,0.12569034,-0.68445718,0
0.49486876,0.77814853,-0.77088785,0.71813679,0.12569034,-0.68445718,0
1.2807043,0.2253952,-0.097245872,0.71813679,0.12569034,-0.68445718,0
-1.1528448,-0.84745574,0.096785426,-0.71813679,-0.12569034,0.68445718,0
-0.6842584,-0.19182879,0.68329126,-0.71813679,-0.12569034,0.68445718,0
0.55058962,-0.68161172,-1.1039064,0.71813679,0.12569034,-0.68445718,0
-1.1693523,-0.75091302,0.18797004,-0.71813679,-0.12569034,0.68445718,0
-1.5378814,-0.35178173,-0.13381898,-0.71813679,-0.12569034,0.68445718,0
-1.0997623,0.39337212,-0.64228344,-0.68045908,0.33288294,-0.65281284,0
0.41563773,0.071110293,1.3766698,0.67333275,0.1229555,0.7290439,0
0.16842508,0.46436298,-1.1032401,0.71813679,0.12569034,-0.68445718,0
-0.58256423,0.98591143,-0.12733969,-0.37527204,0.89823502,-0.2287904,0
1.1362579,-0.29446673,-0.37573719,0.71813679,0.12569034,-0.68445718,0
0.52197289,0.0052990913,-0.85507023,0.71813679,0.12569034,-0.68445718,0
0.16560352,0.15473497,-1.2536724,0.71813679,0.12569034,-0.68445718,0
0.82014513,-0.67424953,0.5209474,0.60999644,-0.5870806,0.53220367,0
1.1955816,0.41788042,-0.23968512,0.71813679,0.12569034,-0.68445718,0
-0.82716751,-1.036273,0.39747143,-0.71813679,-0.12569034,0.68445718,0
-0.26942158,-1.0214263,-0.56229788,-0.28399664,-0.84499085,-0.4531408,0
1.2214916,-0.0032770634,-0.27886349,0.71813679,0.12569034,-0.68445718,0
-0.018056989,0.32624972,-1.4296466,0.71813679,0.12569034,-0.68445718,0
-0.99865484,0.46342671,0.4659211,-0.71813679,-0.12569034,0.68445718,0
-0.094647765,1.1849601,0.3594777,0.045693934,0.9729147,0.22660345,0
-0.34364259,0.2872856,-1.2919092,-0.69271797,0.22309348,-0.68583626,0
0.33044779,1.0380026,-0.91823077,0.71813679,0.12569034,-0.68445718,0
0.5234741,1.1433517,0.11587548,0.19190156,0.90965056,0.36838794,0
-0.55368888,0.89579058,-0.81141102,-0.57174516,0.66727048,-0.47734445,0
-0.56075227,-1.1720314,0.56634831,-0.71813679,-0.12569034,0.68445718,0
1.1432335,-0.75491267,0.078625768,0.55992448,-0.68841004,0.46106011,0
1.2811508,0.038257837,0.32643735,0.69063473,-0.0079389215,0.72316039,0
0.87610734,-0.079318643,1.0117939,0.69385666,-0.053968996,0.71808803,0
-0.0046314001,-0.40392876,-1.4970001,-0.57810652,-0.43977028,-0.68730998,0
0.98659068,-0.13754976,-0.36955255,0.71813679,0.12569034,-0.68445718,0
0.79237378,0.65780544,-0.50671208,0.71813679,0.12569034,-0.68445718,0
0.69977897,-1.0773902,-0.25641921,0.23610234,-0.96922266,0.069736958,0
0.58841729,0.84079641,-0.81278521,0.71813679,0.12569034,-0.68445718,0
-0.18341076,-0.015700281,-1.5284954,0.71813679,0.12569034,-0.68445718,0
-0.20426595,-0.45611417,1.1591623,-0.71813679,-0.12569034,0.68445718,0
-0.45074558,-0.47820574,0.88420248,-0.71813679,-0.12569034,0.68445718,0
-0.68626058,0.84521967,0.82111174,-0.71813679,-0.12569034,0.68445718,0
1.038311,0.61632663,0.55739665,0.61080778,0.35744596,0.70650291,0
0.61734402,-0.92167097,0.82728535,0.59586108,-0.61913854,0.51148558,0
-0.61510557,0.53263837,0.85100704,-0.71813679,-0.12569034,0.68445718,0
-0.0066251755,1.2236128,-0.57548374,-0.33416128,0.92502463,-0.1807372,0
0.1789633,-0.38074261,1.529788,0.69442707,-0.19343621,0.6930756,0
1.4576497,0.56966162,0.039596319,0.71813679,0.12569034,-0.68445718,0
-0.12483096,-0.71168375,1.2676342,-0.71813679,-0.12569034,0.68445718,0
-1.4013767,-0.25745368,-0.27049774,-0.6742776,-0.1176073,-0.72905314,0
-0.88482523,-0.20406342,0.56872755,-0.71813679,-0.12569034,0.68445718,0
0.46931428,1.2597004,-0.40657246,-0.099482536,0.99199414,0.077787042,0
-0.96008539,-0.19065535,0.46151239,-0.71813679,-0.12569034,0.68445718,0
-1.1473364,-1.0379004,-0.078698039,-0.71813679,-0.12569034,0.68445718,0
-0.83635789,-0.83250296,0.42841178,-0.71813679,-0.12569034,0.68445718,0
0.67699867,-0.86350441,-1.0433614,0.71813679,0.12569034,-0.68445718,0
-1.4250464,-0.42947626,-0.21321881,-0.71813679,-0.12569034,0.68445718,0
-0.23931408,1.275062,0.34831786,-0.05038166,0.99036336,0.1290046,0
-0.48634219,0.99264079,-0.6811651,-0.53534186,0.72818744,-0.42796332,0
0.1925925,0.51986527,-1.1143588,0.71813679,0.12569034,-0.68445718,0
1.2101852,-0.92215121,-0.20418572,0.49423599,-0.78453147,0.37448815,0
0.56193709,-0.48782691,1.0851628,0.67978781,-0.33713722,0.65132743,0
1.075058,0.62242663,-0.25814444,0.71813679,0.12569034,-0.68445718,0
-0.50822353,-0.13665028,-1.217232,-0.66285938,-0.17592686,-0.72778249,0
1.4895976,0.31838822,0.19225061,0.71813679,0.12569034,-0.68445718,0
0.17533696,-1.0404607,0.96408951,0.51253402,-0.76083863,0.39803725,0
-0.1875006,-1.3240354,0.16636366,0.117504,-0.99133265,-0.058757305,0
-0.1271397,-0.8023904,-1.1075197,-0.38880962,-0.74325281,-0.54442853,0
1.4541444,-0.49601388,0.27293581,0.66614443,-0.40870106,0.62387115,0
0.039073825,-1.2461579,0.8486011,0.43014264,-0.85333765,0.29460558,0
1.2502947,-0.31680161,0.51479828,0.69271588,-0.22312638,0.68582785,0
-1.1311632,0.68165576,0.3101694,-0.71813679,-0.12569034,0.68445718,0
0.80070221,0.47186226,0.84982669,0.60603982,0.37047416,0.70389259,0
-0.74733615,-1.1425856,0.065694451,-0.18314892,-0.91474366,-0.36013979,0
-1.496073,0.55480635,-0.068826348,-0.65081096,0.46958616,-0.59660238,0
0.47296527,0.61439455,0.89913064,0.55062342,0.49882451,0.66931903,0
0.24557737,-0.70847356,-1.4359119,0.71813679,0.12569034,-0.68445718,0
0.75589556,-0.71236479,-0.75403225,0.71813679,0.12569034,-0.68445718,0
0.29043758,0.67157978,-1.1039236,0.71813679,0.12569034,-0.68445718,0
-0.62463486,-0.64215124,-0.80318826,-0.51022077,-0.57375395,-0.64068806,0
-0.91391295,-1.1271942,-0.23363686,-0.35376984,-0.78104365,-0.51460445,0
0.1021238,0.026742816,-1.2721186,0.71813679,0.12569034,-0.68445718,0
-1.0317018,-0.73185527,-0.53534079,-0.56877154,-0.46070358,-0.68135977,0
1.2875901,0.11154795,-0.21805531,0.71813679,0.12569034,-0.68445718,0
-0.54050124,0.45299891,-1.264756,-0.68111783,0.3286109,-0.65428865,0
-0.70669508,1.130414,0.44781995,-0.13966256,0.98957396,0.035185516,0
-0.62256342,-0.09877491,0.86150217,-0.71813679,-0.12569034,0.68445718,0
0.76059961,-0.03490293,-0.60634315,0.71813679,0.12569034,-0.68445718,0
-0.94399524,1.018149,-0.23949842,-0.49660325,0.78158092,-0.37751374,0
0.21224761,0.49803787,-1.1206073,0.71813679,0.12569034,-0.68445718,0
0.88387132,-0.99043679,0.14123246,0.48674989,-0.79364932,0.36495936,0
-0.87458748,-1.1401266,-0.14838207,-0.32942981,-0.804968,-0.49345994,0
-0.51125479,0.61510855,1.0304016,-0.71813679,-0.12569034,0.68445718,0
0.34422052,0.82431638,-0.94475591,0.71813679,0.12569034,-0.68445718,0
-0.1227572,0.08465302,1.2746093,-0.71813679,-0.12569034,0.68445718,0
0.36772156,-0.82646006,1.0002069,0.59764373,-0.61527067,0.51406634,0
-0.93490332,0.31877685,0.61008149,-0.71813679,-0.12569034,0.68445718,0
-1.4644493,-0.46729159,-0.20873284,-0.71813679,-0.12569034,0.68445718,0
0.079679489,-1.0173424,1.2402143,0.53702152,-0.72563076,0.43019524,0
0.39919329,-0.57759643,1.2663499,0.67564362,-0.36152226,0.64250124,0
-0.57354212,1.0586684,0.92975831,0.1254487,0.94405913,0.30498368,0
-0.13868475,-0.33607966,1.247977,-0.71813679,-0.12569034,0.68445718,0
0.013597012,-0.59873968,1.4520395,-0.71813679,-0.12569034,0.68445718,0
-0.03656435,-0.6337896,-1.3028426,-0.49877316,-0.59291923,-0.63219643,0
-1.5224501,-0.041119456,-0.20848095,-0.69012839,0.0021953881,-0.72368383,0
-1.2145728,0.0047314167,0.30986202,-0.71813679,-0.12569034,0.68445718,0
-1.284349,-0.35498524,0.13771588,-0.71813679,-0.12569034,0.68445718,0
-0.65888232,-1.3182986,0.16939163,-0.10244167,-0.95374519,-0.28262329,0
0.27077109,-0.99295497,-0.84071505,-0.21509404,-0.89530259,-0.39008683,0
0.01870048,0.78236485,-1.2136487,0.71813679,0.12569034,-0.68445718,0
0.53133559,0.97682601,-0.6332916,0.71813679,0.12569034,-0.68445718,0
-0.95150566,-0.76512349,0.41727501,-0.71813679,-0.12569034,0.68445718,0
-0.68935996,-1.3277085,0.43027854,-0.71813679,-0.12569034,0.68445718,0
1.2309685,0.42956102,-0.13135558,0.71813679,0.12569034,-0.68445718,0
-0.80218649,-0.30591846,0.56684917,-0.71813679,-0.12569034,0.68445718,0
-0.31470865,-1.1992623,0.078249276,-0.017370403,-0.98000997,-0.19818914,0
-0.51652205,1.0982949,0.9813109,0.087362409,0.9594897,0.26785702,0
1.2903016,0.47845149,0.4910183,0.61941445,0.33284187,0.71101493,0
-0.83592707,-1.1393991,0.27623248,-0.71813679,-0.12569034,0.68445718,0
-0.20005453,-1.190454,0.24212408,0.13443065,-0.99008411,-0.040768445,0
-0.53087914,0.96562439,1.0900893,-0.71813679,-0.12569034,0.68445718,0
-0.71087581,-0.74048775,0.45305121,-0.71813679,-0.12569034,0.68445718,0
-0.09679538,-1.1026213,-0.76887798,-0.20651962,-0.90075302,-0.38209134,0
0.13466859,1.0156331,0.95224386,0.29659027,0.83447349,0.46442276,0
0.25964916,1.2672368,-0.37703878,-0.10426939,0.9918853,0.072744668,0
0.20645487,-1.2422984,0.20855999,0.28320676,-0.95120764,0.12246734,0
0.24492133,1.1692976,-0.97081888,0.71813679,0.12569034,-0.68445718,0
0.91215456,0.62129581,-0.25067556,0.71813679,0.12569034,-0.68445718,0
-0.57386959,-1.1155746,0.52357948,-0.71813679,-0.12569034,0.68445718,0
0.91689992,-1.0385125,-0.023185,0.36886978,-0.9027667,0.22124097,0
-0.98103607,-0.28981787,-0.82658935,-0.6698665,-0.14166218,-0.7288422,0
0.13606903,-1.1605521,-0.72559571,-0.11746374,-0.94754779,-0.29724652,0
-0.8141225,0.15101445,0.50050473,-0.71813679,-0.12569034,0.68445718,0
0.97366786,-0.95929575,0.16191357,0.47340655,-0.80913651,0.34811544,0
1.1026561,0.17573726,-0.35463721,0.71813679,0.12569034,-0.68445718,0
-1.2526293,-0.69225502,0.095828772,-0.71813679,-0.12569034,0.68445718,0
-1.4890544,0.37294865,-0.085832775,-0.71813679,-0.12569034,0.68445718,0
0.79858732,-1.1881938,-0.91391599,0.71813679,0.12569034,-0.68445718,0
-0.24077958,-1.2588394,-0.38690418,-0.13119647,-0.94146377,-0.31053764,0
0.58535647,-0.20087445,1.1432641,0.69457406,-0.068723112,0.71613145,0
-0.93102372,0.53199863,0.59395504,-0.71813679,-0.12569034,0.68445718,0
0.15238142,-0.078649104,-1.3288321,0.71813679,0.12569034,-0.68445718,0
-0.93429017,0.97557616,0.56224495,-0.71813679,-0.12569034,0.68445718,0
-0.73555976,0.64228398,0.79880947,-0.71813679,-0.12569034,0.68445718,0
0.23538405,0.3950786,1.2241108,0.60321569,0.37800536,0.70231259,0
-0.23789179,-1.2811635,0.47975504,0.13437927,-0.9900887,-0.040823281,0
-0.28417373,0.71818465,1.1653466,-0.71813679,-0.12569034,0.68445718,0
-0.13060379,0.066297174,1.3639454,-0.71813679,-0.12569034,0.68445718,0
0.10243791,-0.42405951,-1.3733084,0.71813679,0.12569034,-0.68445718,0
1.2047861,-0.84297508,-0.095261499,0.46678829,-0.81647325,0.33982426,0
0.67554855,1.0450915,0.33785301,0.37058249,0.76342529,0.52900904,0
-0.90109181,-0.91260266,0.47792959,-0.71813679,-0.12569034,0.68445718,0
1.4243499,0.77579796,0.12434411,0.71813679,0.12569034,-0.68445718,0
0.21541137,-0.11033559,-1.2100048,0.71813679,0.12569034,-0.68445718,0
-0.51811409,0.81361121,1.111084,-0.71813679,-0.12569034,0.68445718,0
0.3539499,0.75500429,-1.0234817,0.71813679,0.12569034,-0.68445718,0
-1.3475618,0.48117387,0.0080663264,-0.71813679,-0.12569034,0.68445718,0
-0.59430492,1.1098115,0.029907227,-0.24902904,0.96483725,-0.084105134,0
-0.39067656,-0.30826575,1.1290891,-0.71813679,-0.12569034,0.68445718,0
1.3836247,0.029118896,0.0042695999,0.71813679,0.12569034,-0.68445718,0
-0.81995755,0.77161455,0.8856113,-0.71813679,-0.12569034,0.68445718,0
0.22788328,0.21623826,-1.1844474,0.71813679,0.12569034,-0.68445718,0
0.0044871569,1.0362141,-1.2413924,0.71813679,0.12569034,-0.68445718,0
1.2126719,0.36860645,0.42079711,0.65123278,0.22532466,0.72465491,0
-0.074229956,0.20364466,-1.4985737,0.71813679,0.12569034,-0.68445718,0
0.51163006,-0.83307439,-1.161882,0.71813679,0.12569034,-0.68445718,0
0.35526943,0.42647359,1.2440633,0.62934208,0.30246305,0.71585238,0
-1.3916231,-0.4524653,-0.15045691,-0.71813679,-0.12569034,0.68445718,0
0.29848957,-0.10367094,1.5539501,0.69114339,-0.013992935,0.72258228,0
1.0292703,1.1170683,-0.14243746,0.71813679,0.12569034,-0.68445718,0
-0.52482748,0.98363698,-0.60644239,-0.54638851,0.71095777,-0.44271755,0
-0.59095985,-0.37704223,-1.0090984,-0.63343364,-0.28922167,-0.71771365,0
0.10308254,-1.321136,-0.16496515,0.056933284,-0.99086839,-0.12222326,0
-1.2905439,-0.82617545,-0.24197257,-0.53251582,-0.53393209,-0.65676737,0
1.2359084,-0.73232377,-0.415887,0.71813679,0.12569034,-0.68445718,0
0.60568213,0.39756969,1.0375617,0.58252537,0.4295097,0.69006217,0
1.2891433,1.0989151,-0.044460416,0.71813679,0.12569034,-0.68445718,0
0.47470689,0.59168625,-0.78343493,0.71813679,0.12569034,-0.68445718,0
-1.322955,0.65353847,-0.14920548,-0.59021735,0.63107884,-0.50337172,0
-0.45499235,0.5246805,0.97181571,-0.71813679,-0.12569034,0.68445718,0
0.92134845,-0.47296092,0.85504073,0.67187119,-0.3814643,0.63488132,0
1.1893303,0.10077953,0.55452102,0.68907559,0.0089932084,0.72463387,0
0.80808198,0.35468307,0.89744759,0.61725599,0.33915219,0.70990908,0
-1.1713448,-0.81711876,0.12287557,-0.71813679,-0.12569034,0.68445718,0
-1.2286448,0.59330809,0.39933583,-0.71813679,-0.12569034,0.68445718,0
-0.19280243,-0.84054059,1.0061868,-0.71813679,-0.12569034,0.68445718,0
-0.37342617,0.20642859,1.192111,-0.71813679,-0.12569034,0.68445718,0
0.36008626,0.22093308,-1.0335338,0.71813679,0.12569034,-0.68445718,0
-1.00993,0.50551629,-0.62452626,-0.67255592,0.37797821,-0.63623989,0
0.082997799,-0.15308928,1.4930289,-0.71813679,-0.12569034,0.68445718,0
-0.061155558,-0.81088626,1.2857791,-0.71813679,-0.12569034,0.68445718,0
1.1301266,0.27466339,0.58525282,0.65201092,0.22224581,0.72490597,0
0.46181002,0.66816223,0.93379647,0.52712256,0.54388881,0.65293717,0
-1.5337764,0.47570074,-0.05581671,-0.64065647,0.50346446,-0.57972693,0
0.97350633,-0.30895734,-0.59108216,0.71813679,0.12569034,-0.68445718,0
-0.9707818,-0.20677042,-0.80684906,-0.67853141,-0.09191519,-0.72879827,0
-0.24879527,0.059444726,-1.3565892,-0.68951368,-0.0044486225,-0.72425902,0
0.40249264,0.95730674,-0.74676198,0.71813679,0.12569034,-0.68445718,0
-0.45938748,-0.091262586,-1.1677094,-0.6665895,-0.1582092,-0.72844249,0
0.85115933,-0.92060685,-0.71746027,0.71813679,0.12569034,-0.68445718,0
1.3033839,0.53344023,0.46170133,0.62310058,0.3218317,0.71286047,0
0.53118539,0.46496785,-0.74015468,0.71813679,0.12569034,-0.68445718,0
0.97186923,0.14293492,0.70684469,0.68328911,0.059055716,0.72775584,0
-1.5258996,0.071272254,-0.20910382,-0.69511878,0.08290273,-0.71409899,0
0.40299779,-1.0416492,-0.85522711,-0.16286576,-0.92588305,-0.34090406,0
0.24436188,-1.1543632,0.044231176,0.17063349,-0.98533285,-0.0019117594,0
1.0825901,-0.57272416,-0.32346454,0.71813679,0.12569034,-0.68445718,0
-1.2982209,0.45501196,0.19875768,-0.71813679,-0.12569034,0.68445718,0
0.34433904,-0.51938379,-1.276106,0.71813679,0.12569034,-0.68445718,0
0.17657208,-1.1641065,0.010630429,0.17701989,-0.98419464,0.0049978495,0
0.83153725,-1.053654,0.12587486,0.4529829,-0.83108342,0.32265657,0
-0.307724,-1.0169997,1.0231972,-0.71813679,-0.12569034,0.68445718,0
1.0554544,-0.67385221,-0.34460112,0.71813679,0.12569034,-0.68445718,0
-0.11520514,0.87633735,1.0431581,0.30610898,0.82623583,0.47289711,0
0.23387048,1.1370935,0.46755272,0.21610284,0.89465004,0.39102542,0
-0.97482622,-0.64123917,0.35446215,-0.71813679,-0.12569034,0.68445718,0
-0.044962406,-1.2627999,0.33144253,0.21481937,-0.97555852,0.046243191,0
1.1505916,-1.0117244,-0.27755174,0.36606753,-0.90470707,0.21794453,0
1.1306983,-0.58288169,0.53800374,0.62970531,-0.53604203,0.56225467,0
1.3179412,-0.071647406,-0.058477044,0.71813679,0.12569034,-0.68445718,0
0.10644531,-0.24566156,1.5054469,0.69564408,-0.10287574,0.7109825,0
1.3419651,-0.39512908,-0.1464411,0.71813679,0.12569034,-0.68445718,0
-1.259009,0.25676847,-0.38348892,-0.67903125,0.34182036,-0.64967358,0
0.86348629,1.2086746,-0.42643392,0.71813679,0.12569034,-0.68445718,0
1.0359782,-0.63575053,0.58051467,0.61786377,-0.56770718,0.54401571,0
-0.55190593,-1.027491,-0.45724064,-0.35089597,-0.78396404,-0.51212537,0
1.1072369,-0.80765545,-0.37587589,0.71813679,0.12569034,-0.68445718,0
0.036627531,-0.54847527,1.2649416,-0.71813679,-0.12569034,0.68445718,0
-0.97338617,-0.90200132,0.13777483,-0.71813679,-0.12569034,0.68445718,0
-0.47034621,-0.97287422,0.72750849,-0.71813679,-0.12569034,0.68445718,0
0.78751445,-0.93533349,0.37617502,0.4935658,-0.78536081,0.37363261,0
0.030586243,0.4434779,-1.3033347,0.71813679,0.12569034,-0.68445718,0
-0.40394118,-0.6410324,-1.0439601,-0.52409816,-0.54937875,-0.65077209,0
1.3729372,-0.50434744,0.3413085,0.67313981,-0.37496123,0.63740653,0
-0.91414702,-0.7912271,0.32919323,-0.71813679,-0.12569034,0.68445718,0
1.0568051,0.24741977,0.8077563,0.65859383,0.19496515,0.72680318,0
-0.96814132,-1.2207965,0.16691816,-0.25049308,-0.87093788,-0.42275345,0
-0.24405769,-0.99776685,-0.64415538,-0.2555398,-0.86721337,-0.42736459,0
-0.55992329,1.0572653,0.11836475,-0.25267136,0.96352684,-0.088167131,0
-0.94347751,0.31214488,-0.71389359,-0.69204867,0.23235121,-0.68343389,0
0.11560321,0.7678957,-1.1576835,0.71813679,0.12569034,-0.68445718,0
0.39582705,0.51149118,-1.0647346,0.71813679,0.12569034,-0.68445718,0
0.12797087,-0.48308626,-1.4552757,0.71813679,0.12569034,-0.68445718,0
0.32413018,0.27665007,1.3151052,0.65035349,0.22877032,0.72436506,0
0.7358017,-0.29981291,1.1210321,0.69117302,-0.24329457,0.68050557,0
-0.21866295,0.48395216,1.3627685,-0.71813679,-0.12569034,0.68445718,0
-0.72581679,1.1825947,0.99508995,-0.71813679,-0.12569034,0.68445718,0
-0.1347453,-0.80846179,-0.99821508,-0.42846984,-0.69515765,-0.57720846,0
-1.0338179,-0.8943218,0.30430067,-0.71813679,-0.12569034,0.68445718,0
0.64612877,1.0612531,-0.5144105,0.71813679,0.12569034,-0.68445718,0
0.42022097,0.083624691,1.3888404,0.66774154,0.1525057,0.72860384,0
1.2675437,-0.66065466,0.32101345,0.63126326,-0.53161961,0.56470144,0
0.81435037,-0.91290045,0.33301413,0.51426625,-0.75848591,0.40028688,0
0.86293614,0.47075784,0.70128912,0.58023477,0.43485802,0.68864101,0
-0.58767277,1.2265358,0.58010733,-0.062053382,0.99120176,0.11691248,0
-0.55409938,1.0734011,0.063096285,-0.30011666,0.94332588,-0.14165664,0
-0.88310724,0.021078289,-0.92876065,-0.6898486,-0.00086989999,-0.72395319,0
-0.6411047,0.79459381,1.069239,-0.71813679,-0.12569034,0.68445718,0
0.75703186,-0.43821871,-0.81302887,0.71813679,0.12569034,-0.68445718,0
-0.33733329,-0.69167161,-1.1241413,-0.53084564,-0.53703862,-0.65558559,0
-0.852238,1.1566309,0.33533186,-0.27878714,0.95314085,-0.11747533,0
0.011530042,-1.294201,-0.24759358,0.031575441,-0.98842621,-0.14838046,0
-0.10666895,-1.2842076,0.53956163,0.32090735,-0.93254763,0.16544959,0
-0.31115234,-0.5904417,1.1695465,-0.71813679,-0.12569034,0.68445718,0
-0.43841225,-0.75966477,-0.97566259,-0.5113681,-0.5717876,-0.64153087,0
0.083031952,-0.52923155,-1.4275959,0.71813679,0.12569034,-0.68445718,0
-0.88094419,0.98610729,0.79795158,-0.71813679,-0.12569034,0.68445718,0
0.088290393,1.122188,0.26954895,0.047974348,0.97227228,0.22887808,0
0.74643123,0.46525607,0.84445918,0.58041435,0.43444088,0.68875289,0
0.83951187,-0.037393808,-0.66281205,0.71813679,0.12569034,-0.68445718,0
0.57128274,0.020779327,1.1496562,0.68831754,0.016524613,0.72522151,0
-0.098659158,-0.044640601,-1.5661368,0.71813679,0.12569034,-0.68445718,0
1.3191757,0.53621578,0.037489891,0.71813679,0.12569034,-0.68445718,0
0.20381212,-1.010223,-1.176741,-0.24554358,-0.87452888,-0.4182198,0
0.437783,1.3685775,-0.6684342,-0.19625235,0.9802112,-0.025908172,0
-0.089000463,0.85318124,-1.2922413,0.71813679,0.12569034,-0.68445718,0
-1.3907201,0.071272373,-0.088867605,-0.71813679,-0.12569034,0.68445718,0
0.26605847,-0.96971518,-1.1230969,-0.29057384,-0.83955145,-0.45904279,0
-0.044929147,-0.49900505,1.3220007,-0.71813679,-0.12569034,0.68445718,0
-1.0514483,0.91153008,-0.049718611,-0.50290549,0.7735635,-0.38559815,0
-1.00019,1.1550006,0.72874886,-0.71813679,-0.12569034,0.68445718,0
0.63702691,0.61512482,-0.80771083,0.71813679,0.12569034,-0.68445718,0
-1.5825403,0.048965096,-0.15771198,-0.69464517,0.18856198,-0.69419938,0
-0.21021923,-1.220227,-0.48580939,-0.16447639,-0.9250319,-0.34243774,0
1.1308117,-1.0120916,-0.4324466,0.37004805,-0.90194315,0.22262844,0
-1.0869051,0.11804414,0.46966019,-0.71813679,-0.12569034,0.68445718,0
-0.37997827,0.31484681,1.1169982,-0.71813679,-0.12569034,0.68445718,0
-0.73740715,-1.1632886,0.35935581,-0.71813679,-0.12569034,0.68445718,0
0.14559382,-0.23453104,-1.4764276,0.71813679,0.12569034,-0.68445718,0
-0.63388205,-1.197794,-0.02249229,-0.15494746,-0.92998368,-0.33334923,0
-1.1850592,-0.74891114,-0.18526196,-0.51326865,-0.56851137,-0.64292312,0
1.3585765,0.54264355,0.24639499,0.63087475,0.29755652,0.71655941,0
-1.2491858,0.78204572,0.087429516,-0.55407405,0.69836062,-0.45309463,0
1.3490427,-0.090510726,0.47993565,0.69574076,-0.10849541,0.71005195,0
-0.82476747,-0.86273485,0.3178938,-0.71813679,-0.12569034,0.68445718,0
-1.2656629,0.68583697,0.033997625,-0.54931068,0.70622957,-0.44665188,0
-0.22716963,0.21932241,-1.5804896,-0.69322616,0.043036908,-0.71943414,0
-0.1031633,1.1131308,0.74064624,0.19620472,0.90708256,0.37243128,0
-0.68140817,0.95883167,-0.60642189,-0.54758036,0.70903844,-0.44432041,0
-1.4039886,-0.39215791,-0.1227057,-0.71813679,-0.12569034,0.68445718,0
1.1274962,0.23574811,0.56459683,0.65877718,0.19417107,0.72684968,0
0.19803149,-0.09784323,-1.2942679,0.71813679,0.12569034,-0.68445718,0
-0.053962946,1.1422673,-0.8535738,-0.45973778,0.82404894,-0.33103567,0
0.96170068,0.46145904,-0.49092376,0.71813679,0.12569034,-0.68445718,0
-0.90217263,0.53893948,0.63982832,-0.71813679,-0.12569034,0.68445718,0
-0.22161746,1.2286801,0.14522356,-0.10625774,0.99182576,0.070647478,0
0.024901271,1.2256227,-0.58144724,-0.30181128,0.94249278,-0.14358774,0
-0.6680308,0.86060774,0.82650387,-0.71813679,-0.12569034,0.68445718,0
-0.65713096,-0.44400096,0.63876212,-0.71813679,-0.12569034,0.68445718,0
-0.8164984,-0.99405932,0.442891,-0.71813679,-0.12569034,0.68445718,0
0.30063593,-1.1562546,-0.051216245,0.21327025,-0.97597748,0.044540882,0
0.87579536,0.33242631,-0.54560632,0.71813679,0.12569034,-0.68445718,0
0.46577561,-0.44218096,1.2464799,0.68893188,-0.26726526,0.67375237,0
-0.1846956,-0.80995965,0.99130315,-0.71813679,-0.12569034,0.68445718,0
0.035129189,0.79634523,-1.352319,0.71813679,0.12569034,-0.68445718,0
-0.84578288,-0.88511968,0.48400831,-0.71813679,-0.12569034,0.68445718,0
0.22505343,1.0054314,-1.0106581,0.71813679,0.12569034,-0.68445718,0
0.34186089,-0.95884115,0.9754678,0.57115126,-0.66836768,0.47651976,0
0.28369471,-0.4805294,-1.2177808,0.71813679,0.12569034,-0.68445718,0
-0.29435423,-1.0590891,-0.41177529,-0.16568363,-0.9243902,-0.34358656,0
1.4129777,0.52950394,0.034640431,0.71813679,0.12569034,-0.68445718,0
-0.20752525,1.0306251,-0.93714976,-0.55288088,0.70035106,-0.45147705,0
0.24060416,-0.89852995,1.1923246,0.59131801,-0.62878537,0.50494754,0
0.27802026,-0.56264329,1.1851442,0.65167594,-0.466501,0.59807658,0
-1.1940978,-0.61053014,0.17088997,-0.71813679,-0.12569034,0.68445718,0
-0.12101281,-1.2549076,0.52960092,0.20212317,-0.97882676,0.032322168,0
0.24188039,1.1284734,0.46617764,0.24489494,0.87499481,0.41762477,0
-1.4894423,0.31773818,0.085638046,-0.71813679,-0.12569034,0.68445718,0
1.2541102,-0.10915768,0.66314882,0.69589907,-0.12678432,0.70685959,0
-1.4558855,-0.48448348,-0.071455359,-0.71813679,-0.12569034,0.68445718,0
0.76943523,-1.1186419,-0.62394774,0.10087609,-0.99196744,-0.076319933,0
-0.97872126,-0.68182611,0.17862046,-0.71813679,-0.12569034,0.68445718,0
-0.60580647,-0.90162009,0.76051867,-0.71813679,-0.12569034,0.68445718,0
0.55111569,-0.084507525,-0.83939892,0.71813679,0.12569034,-0.68445718,0
-0.65208972,0.97834861,0.88503659,-0.71813679,-0.12569034,0.68445718,0
1.013629,1.010011,-0.17635763,0.71813679,0.12569034,-0.68445718,0
-0.28613758,-0.5304032,1.098168,-0.71813679,-0.12569034,0.68445718,0
0.17736971,-1.0187348,-0.79460323,-0.18794399,-0.91197515,-0.36466241,0
0.57656384,-0.43175197,1.0335577,0.67701477,-0.35377818,0.64536208,0
1.2704533,0.10222542,0.38478154,0.68966818,0.0028105378,0.7241202,0
-0.096943021,1.1938345,-0.68632907,-0.34502327,0.91846585,-0.19333816,0
-0.73404229,0.60087901,-0.77406144,-0.62885773,0.53842103,-0.56092858,0
-0.531286,-1.2805505,-0.19529295,-0.20918959,-0.89907432,-0.38458443,0
1.4906247,0.13402307,0.24816602,0.71813679,0.12569034,-0.68445718,0
-1.3890266,-0.36063981,0.030169845,-0.71813679,-0.12569034,0.68445718,0
-0.47677916,-1.2450491,-0.28366756,-0.18659911,-0.9127568,-0.36339492,0
-1.2650278,-0.97238421,-0.16545641,-0.48408198,-0.61637092,-0.62108898,0
-0.11957622,-0.93996477,1.0884066,-0.71813679,-0.12569034,0.68445718,0
-0.73052979,-1.0329533,0.46132439,-0.71813679,-0.12569034,0.68445718,0
0.60903442,-1.1291505,0.066212803,0.3665849,-0.90435088,0.21855271,0
0.15283215,-0.57426625,-1.423879,0.71813679,0.12569034,-0.68445718,0
0.86813426,0.72493231,-0.52883291,0.71813679,0.12569034,-0.68445718,0
-0.45401973,-0.83810997,-0.85313916,-0.47688314,-0.62742442,-0.61556572,0
0.40871978,-0.92154324,0.61643249,0.51523566,-0.75716066,0.40154731,0
0.71659005,-0.049428403,0.95239502,0.69529575,-0.08854419,0.71324885,0
-1.3438292,-0.037322044,-0.52589124,-0.69276834,0.035884798,-0.72026706,0
0.95101726,-1.1344008,-0.064683974,0.40683234,-0.87379819,0.26639122,0
1.0941058,-0.47180539,-0.49428841,0.71813679,0.12569034,-0.68445718,0
0.43399155,-1.1419364,0.0049204826,0.27038699,-0.95667356,0.10801306,0
0.098195672,0.2438108,1.5283117,0.64661092,0.24305627,0.72306168,0
0.69677073,0.10084891,-0.85740733,0.71813679,0.12569034,-0.68445718,0
1.4448838,-0.47438812,0.089480907,0.66475654,-0.41485444,0.62128484,0
1.3483658,-0.0027455091,-0.085324943,0.71813679,0.12569034,-0.68445718,0
1.3429788,-0.23544538,-0.15862268,0.71813679,0.12569034,-0.68445718,0
0.48661494,-1.0426108,0.11723992,0.32882535,-0.92811584,0.17457113,0
-0.28673279,-0.78459394,0.91025174,-0.71813679,-0.12569034,0.68445718,0
-0.69279814,0.30666643,-0.99757475,-0.68722868,0.28289157,-0.66909587,0
-0.33932865,-1.246797,0.90950322,0.36133242,-0.90792727,0.21238494,0
-0.64024937,0.66987455,-0.77446711,-0.63575804,0.51848102,-0.57182997,0
0.66290486,0.22281116,-0.72432858,0.71813679,0.12569034,-0.68445718,0
1.0033786,-0.41663945,-0.38159478,0.71813679,0.12569034,-0.68445718,0
1.0319695,-0.36501229,-0.42914203,0.71813679,0.12569034,-0.68445718,0
0.5229702,1.3270712,-0.75021845,0.71813679,0.12569034,-0.68445718,0
0.062916279,1.0430509,0.5265978,0.20684645,0.90054834,0.38239676,0
-0.50933641,0.38431919,1.0156929,-0.71813679,-0.12569034,0.68445718,0
0.032968283,0.57071912,-1.1808796,0.71813679,0.12569034,-0.68445718,0
-1.1489679,-0.92322856,-0.093141317,-0.46930575,-0.63876486,-0.60969794,0
0.30058986,-1.0308264,-1.1997097,0.71813679,0.12569034,-0.68445718,0
-0.8451702,1.1494445,0.27052528,-0.31496012,0.93575633,-0.15862069,0
-0.4053719,0.22090325,-1.4024451,-0.6958071,0.14594111,-0.70324522,0
0.64747667,1.4074711,-0.60557222,0.71813679,0.12569034,-0.68445718,0
-0.021356404,0.22452655,1.3678081,-0.71813679,-0.12569034,0.68445718,0
0.41993251,-0.076648891,-0.99770832,0.71813679,0.12569034,-0.68445718,0
1.1170087,0.31378019,-0.31212634,0.71813679,0.12569034,-0.68445718,0
-0.73468137,1.0420547,0.12451914,-0.29325646,0.94661701,-0.13385463,0
0.11716741,-0.21994254,-1.2721362,0.71813679,0.12569034,-0.68445718,0
-1.0965271,1.0258348,0.23987392,-0.36077046,0.90830445,-0.21172628,0
0.90623695,-0.071668029,-0.59568787,0.71813679,0.12569034,-0.68445718,0
-0.85620224,-0.44456625,0.60915989,-0.71813679,-0.12569034,0.68445718,0
-0.65180123,1.0462161,-0.4413031,-0.44690967,0.83722651,-0.31515646,0
-0.59150362,0.37215784,-1.1671462,-0.69525576,0.17197195,-0.69788653,0
-1.3701313,-0.66956306,-0.21832585,-0.6007669,-0.38442969,-0.70092297,0
-0.77113312,0.76066226,0.76213896,-0.71813679,-0.12569034,0.68445718,0
-0.48906028,0.94364715,-0.68609023,-0.55917835,0.68969733,-0.46004078,0
0.69471037,0.30228376,1.0916491,0.63926315,0.26951542,0.72021127,0
-0.010620952,-0.53295708,-1.5470126,-0.57357728,-0.45004842,-0.68444544,0
-0.81188309,0.61875552,0.75844109,-0.71813679,-0.12569034,0.68445718,0
0.014532566,-0.25071314,-1.3557987,0.71813679,0.12569034,-0.68445718,0
1.2622569,-0.18130815,-0.27351189,0.71813679,0.12569034,-0.68445718,0
0.98117268,0.92347825,-0.25406647,0.71813679,0.12569034,-0.68445718,0
0.61064762,1.2824819,-0.23913181,0.093944192,0.95704079,0.27431291,0
0.99975812,-0.8134402,0.31325394,0.58001626,-0.65157825,0.48890406,0
0.90639752,-1.0961391,-0.443497,0.2927646,-0.94684803,0.13329616,0
-0.93088281,-1.0411422,0.20561814,-0.71813679,-0.12569034,0.68445718,0
-0.56160468,-1.3659421,0.47647822,-0.71813679,-0.12569034,0.68445718,0
0.087441921,0.37772852,-1.186215,0.71813679,0.12569034,-0.68445718,0
0.040834755,0.80582261,1.2116798,0.38775504,0.7444514,0.54354227,0
-0.32423997,-0.87761247,-0.95187628,-0.40217149,-0.72771722,-0.55559504,0
-0.52971542,0.67236495,0.89711702,-0.71813679,-0.12569034,0.68445718,0
0.048347235,0.26013362,1.4974185,-0.71813679,-0.12569034,0.68445718,0
0.78793883,1.3184741,-0.27714038,0.71813679,0.12569034,-0.68445718,0
-0.058883607,1.2272916,0.53140211,0.029018223,0.97728992,0.20991069,0
-0.26211607,1.233659,0.30186659,-0.13288993,0.99022305,0.042410612,0
-0.92674005,0.96366554,0.078717992,-0.41200387,0.86944407,-0.2726168,0
-0.91649359,0.72278392,0.64017916,-0.71813679,-0.12569034,0.68445718,0
0.23829794,0.66948682,-1.0250586,0.71813679,0.12569034,-0.68445718,0
-0.06265676,-0.24383676,1.320956,-0.71813679,-0.12569034,0.68445718,0
0.2358861,-0.64053893,-1.3699576,0.71813679,0.12569034,-0.68445718,0
-0.36355692,-0.36230057,-1.1990209,-0.61807847,-0.33675933,-0.71033251,0
-0.68177611,-1.0258288,0.63315338,-0.71813679,-0.12569034,0.68445718,0
-1.1330045,-0.6223861,0.23756945,-0.71813679,-0.12569034,0.68445718,0
0.65420038,-1.0873387,-0.2732783,0.26952606,-0.95702517,0.10704517,0
0.16974807,-1.5377998e-05,-1.1979184,0.71813679,0.12569034,-0.68445718,0
0.019552588,0.62946773,-1.4606979,0.71813679,0.12569034,-0.68445718,0
1.4982545,-0.35021734,0.02247715,0.65467143,-0.45554,0.60323215,0
0.23176968,-1.0704896,-0.57853174,-0.078523517,-0.96263683,-0.259161,0
0.20870399,0.24923472,1.4740523,0.61600578,0.34276322,0.7092604,0
-0.91123813,-0.98776549,0.42476088,-0.71813679,-0.12569034,0.68445718,0
-0.080147862,0.55092406,-1.4717636,-0.67617804,0.35853851,-0.64360994,0
-1.5549004,0.23500538,-0.08824259,-0.71813679,-0.12569034,0.68445718,0
0.54224771,0.21526104,-0.84028971,0.71813679,0.12569034,-0.68445718,0
-0.043790981,0.88402951,1.2457347,0.36075857,0.77383184,0.52061266,0
-0.44878352,0.17566949,-1.2231059,-0.69590092,0.13148949,-0.70599753,0
-0.40593088,-1.2464948,0.6791048,-0.71813679,-0.12569034,0.68445718,0
-0.43509296,0.096261203,1.0101993,-0.71813679,-0.12569034,0.68445718,0
-0.095995784,-1.1683823,0.73235154,0.35093343,-0.91474414,0.20022258,0
1.1207526,-0.79402006,-0.012856752,0.53109407,-0.73455477,0.42233723,0
0.68581259,-0.36658084,1.1260247,0.69022167,-0.25406027,0.67753053,0
0.33644366,1.2404041,-0.14098489,-0.0087531209,0.98510766,0.17171633,0
-1.1835288,0.062657714,0.31110033,-0.71813679,-0.12569034,0.68445718,0
-1.1070768,0.9390502,-0.060207058,-0.47795057,0.80396926,-0.35383192,0
0.54991353,-0.7288723,0.80110389,0.62517643,-0.54854333,0.55520725,0
0.59607279,-1.0889317,-0.9660871,-0.10737205,-0.95176363,-0.28743237,0
-0.90803194,1.1569051,0.43434396,-0.24729222,0.96545058,-0.082170069,0
0.68301725,-1.1221353,0.041730314,0.34499955,-0.91848058,0.19331059,0
-0.06319195,0.6078651,1.4016495,-0.71813679,-0.12569034,0.68445718,0
-0.47310174,1.0176344,-0.5077877,-0.46641648,0.81687891,-0.33935949,0
0.43160391,1.3147831,-0.65479326,0.71813679,0.12569034,-0.68445718,0
-1.190398,-0.57846427,0.076137185,-0.71813679,-0.12569034,0.68445718,0
-0.58598912,1.1192764,0.72597504,-0.069756508,0.99160188,0.10890377,0
-1.5119102,0.17119491,-0.22818226,-0.69054991,0.25045934,-0.67853606,0
0.37550902,1.3458482,-0.13861322,-0.0038255453,0.98425215,0.17672914,0
1.1734176,-1.0774324,-0.35273695,0.36976588,-0.90214074,0.22229618,0
0.13034445,0.52289283,1.2431133,0.54991615,0.5002476,0.66883826,0
0.81313777,-0.35189635,-0.59238982,0.71813679,0.12569034,-0.68445718,0
0.48729646,-1.1832706,0.060841858,0.34764266,-0.91682994,0.19638667,0
0.25033343,1.1111453,0.23900205,0.087639689,0.95938838,0.26812929,0
0.26414013,0.20538479,-1.2772825,0.71813679,0.12569034,-0.68445718,0
0.098246127,-1.0466495,-0.70400316,-0.1964063,-0.9069612,-0.3726204,0
0.95257807,-1.068249,-0.022200868,0.38079858,-0.89421105,0.23532793,0
-0.9028334,-0.89203584,0.31203485,-0.71813679,-0.12569034,0.68445718,0
1.1021544,-0.37440121,-0.25217652,0.71813679,0.12569034,-0.68445718,0
-1.2148356,-0.49739039,0.20444506,-0.71813679,-0.12569034,0.68445718,0
-0.24338472,-0.48873675,1.235123,-0.71813679,-0.12569034,0.68445718,0
0.31419647,-0.38008231,-1.0758691,0.71813679,0.12569034,-0.68445718,0
-0.86119419,0.73507583,0.70087695,-0.71813679,-0.12569034,0.68445718,0
-0.59050977,-0.89916885,-0.68238908,-0.41411233,-0.71327019,-0.56547052,0
0.076055884,-0.76666915,1.3846848,-0.71813679,-0.12569034,0.68445718,0
0.21716492,-0.80662358,-1.3148277,-0.35756129,-0.77715081,-0.51786751,0
-0.91091186,-0.11282122,-0.82950103,-0.66633445,-0.15945685,-0.72840393,0
1.1296148,0.3754034,-0.18358374,0.71813679,0.12569034,-0.68445718,0
-0.22367716,-1.2431068,-0.21664709,-0.078427911,-0.96267003,-0.25906682,0
0.4653548,0.55227709,-0.89378929,0.71813679,0.12569034,-0.68445718,0
-0.51668674,1.1516627,0.41180062,-0.11813402,0.99129713,0.058089793,0
-1.0318766,-0.39359248,-0.68337065,-0.64035797,-0.2656942,-0.7206583,0
1.3830339,-0.69495332,-0.14758819,0.57394779,-0.66316772,0.48040885,0
-0.79040456,0.58652288,-0.73992527,-0.62927616,0.53724903,-0.5615828,0
-0.88049412,-0.51492542,0.34420419,-0.71813679,-0.12569034,0.68445718,0
-1.065907,0.64510727,0.33038038,-0.71813679,-0.12569034,0.68445718,0
