-1.0772524,-4.7410703,-0.95383894,-0.14755063,-0.98543435,-0.084545165,0
-1.2840995,-4.8821788,-0.90074849,-0.14755063,-0.98543435,-0.084545165,0
0.53003407,4.9273558,0.21053807,0.14755063,0.98543435,0.084545165,0
-2.1205223,-4.0168457,-0.050768077,-0.97602075,0.13124171,0.17366359,0
1.1674689,4.8682899,0.39872834,0.14755063,0.98543435,0.084545165,0
0.52613032,4.9527345,1.2439334,0.14755063,0.98543435,0.084545165,0
-0.63029152,5.2120099,0.49932534,0.14755063,0.98543435,0.084545165,0
-1.2775054,-4.9041824,0.32163393,-0.14755063,-0.98543435,-0.084545165,0
-1.4159288,-4.773355,-0.035962343,-0.14755063,-0.98543435,-0.084545165,0
-0.40863818,3.5437667,1.513069,-0.55618256,0.011984862,0.83097374,0
-0.36740682,5.1806517,0.14131884,0.14755063,0.98543435,0.084545165,0
2.0948317,4.7263947,0.10902619,0.96391732,-0.12412493,-0.23549134,0
0.2574279,4.5878468,1.8426962,-0.26749223,-0.042535823,0.96262068,0
-1.4212365,0.54240501,-0.091540337,-0.97862774,0.15784013,-0.13181034,0
-0.36355087,1.4891838,1.3843083,-0.38954449,-0.020670652,0.92077565,0
0.23217185,5.0425601,0.0069374442,0.14755063,0.98543435,0.084545165,0
0.42030928,4.0296526,-1.1872585,-0.031799465,0.090163171,-0.99541914,0
0.67431879,4.6591964,-1.0057585,0.020369679,0.082434967,-0.9963882,0
0.27276286,-5.2548895,0.46727395,-0.14755063,-0.98543435,-0.084545165,0
2.0221195,4.7652087,0.70197302,0.14755063,0.98543435,0.084545165,0
0.0010235161,-4.5746927,-1.6798669,0.47607964,0.0041631311,-0.87939215,0
-0.37493962,3.5594108,-0.8897804,-0.61924797,0.15869641,-0.76899111,0
-0.60985756,-4.9134507,-1.7499772,-0.14755063,-0.98543435,-0.084545165,0
0.025699049,-5.0770531,-0.23384401,-0.14755063,-0.98543435,-0.084545165,0
1.6764177,4.6897521,0.41394383,0.14755063,0.98543435,0.084545165,0
-0.15768006,-4.1597552,1.0950745,0.24730912,-0.11952479,0.96153623,0
0.66682762,-5.1855092,-0.30073783,-0.14755063,-0.98543435,-0.084545165,0
-0.85199589,1.2086271,1.1690631,-0.65178591,0.032585997,0.75770259,0
-0.23755829,5.0385451,0.81234753,0.14755063,0.98543435,0.084545165,0
-0.38917655,-4.8383656,-1.2209008,-0.14755063,-0.98543435,-0.084545165,0
-0.42231697,3.979419,1.5009426,-0.6407091,0.030113228,0.76719284,0
-0.56701189,1.0378277,-1.366997,-0.45620278,0.14365332,-0.87820423,0
-1.2108786,-4.6725059,-1.766081,-0.14755063,-0.98543435,-0.084545165,0
-0.89206958,0.70976889,-1.1069574,-0.66703266,0.16226104,-0.72714412,0
-0.89183807,-1.7532941,-1.5526586,-0.42635462,0.14050303,-0.89357734,0
-1.14946,0.41078675,0.85060501,-0.84357458,0.080760933,0.53090435,0
1.1118429,-2.7499228,0.38067409,0.90425646,-0.16903639,0.39210567,0
-1.9777445,-4.6380696,-1.3051,-0.14755063,-0.98543435,-0.084545165,0
-1.8114626,-1.5961535,0.073561847,-0.97810656,0.13269998,0.16030648,0
0.31672066,-5.0755014,0.12611784,-0.14755063,-0.98543435,-0.084545165,0
-0.037551329,-5.1047711,-0.048954904,-0.14755063,-0.98543435,-0.084545165,0
0.44155076,-3.9175899,0.6640119,0.7297529,-0.16616713,0.66321111,0
1.5134392,4.7418132,1.4983469,0.14755063,0.98543435,0.084545165,0
-1.0860558,3.0767906,0.099217653,-0.98428911,0.15468329,-0.085134909,0
-2.1070709,-4.7746553,-0.081852436,-0.14755063,-0.98543435,-0.084545165,0
-1.6329204,-0.71170384,0.38174307,-0.93735462,0.11205094,0.32986459,0
0.81634498,5.0676417,-0.793423,0.14755063,0.98543435,0.084545165,0
-0.87613916,2.9472177,-0.33859831,-0.89252418,0.16949591,-0.41793725,0
0.11755466,5.0761633,0.77823776,0.14755063,0.98543435,0.084545165,0
1.4215418,2.6615016,-0.73636001,0.73698127,-0.052534956,-0.67386842,0
-1.1443648,0.053917568,1.0807517,-0.69362825,0.042163182,0.71909809,0
-1.1292269,1.6764339,-0.53495711,-0.89336205,0.1694684,-0.41615471,0
0.44239628,5.0190783,0.18865216,0.14755063,0.98543435,0.084545165,0
1.0391855,-1.1054072,0.83811885,0.75515592,-0.16744733,0.63379872,0
-0.75582409,1.4698699,-0.93738115,-0.66356033,0.16201775,-0.73036832,0
-1.5038075,-0.11940897,0.090505868,-0.98811215,0.14313996,0.056083113,0
-1.90294,-4.7025518,-1.0454224,-0.14755063,-0.98543435,-0.084545165,0
0.45693138,-3.3137929,0.85512042,0.66403759,-0.16205133,0.72992694,0
0.54598647,4.8042192,1.2326505,0.14755063,0.98543435,0.084545165,0
1.3145217,-1.034539,0.43297499,0.93703008,-0.16663614,0.30693153,0
-0.39278692,-4.9677768,-0.99370879,-0.14755063,-0.98543435,-0.084545165,0
-0.87831342,-2.81462,-1.7726521,-0.23929843,0.11850983,-0.96368647,0
0.20257354,3.3821445,1.7823712,-0.1551553,-0.061360534,0.98598254,0
1.1051096,2.8810246,-1.0350597,0.52458,-0.0055053718,-0.85134315,0
-0.11291218,3.3321271,-0.98685271,-0.37253365,0.13455784,-0.9182117,0
0.57073796,4.9663987,-0.12085187,0.14755063,0.98543435,0.084545165,0
-1.3143133,-4.7889414,-1.1756613,-0.14755063,-0.98543435,-0.084545165,0
-1.8742079,-4.7763305,0.29543436,-0.14755063,-0.98543435,-0.084545165,0
1.2567807,3.448771,1.5615213,0.47305894,-0.14538349,0.86895275,0
0.57807547,4.7546,1.9018273,-0.097543254,-0.070565462,0.99272633,0
-0.76735854,-5.0544763,0.13964826,-0.14755063,-0.98543435,-0.084545165,0
1.4416877,4.8482323,-0.81153959,0.14755063,0.98543435,0.084545165,0
-0.2458294,-5.1560407,0.50405943,-0.14755063,-0.98543435,-0.084545165,0
-1.1229645,-0.19082351,-1.1523573,-0.66101456,0.16183771,-0.73271292,0
-1.7652023,-4.8104305,-0.39416334,-0.14755063,-0.98543435,-0.084545165,0
-1.4824882,-3.8074038,-1.5180504,-0.63155341,0.15965737,-0.75871581,0
0.56728733,-4.1389093,0.73212159,0.70314527,-0.16462949,0.69172519,0
-0.63911051,3.2212775,-0.60156131,-0.79859042,0.16913122,-0.57762259,0
0.87730438,-0.062889963,-1.3100009,0.58089483,-0.017158695,-0.81379771,0
-1.7312706,-1.9211383,0.50399309,-0.88893569,0.094653212,0.44814515,0
1.7406843,3.0021768,-0.59994948,0.83114922,-0.077205233,-0.55066335,0
-1.1391786,-4.9180532,0.71715492,-0.14755063,-0.98543435,-0.084545165,0
-0.34458822,3.0609589,-0.95142746,-0.53974688,0.15185675,-0.82801723,0
0.82217705,4.9666429,-0.28623307,0.14755063,0.98543435,0.084545165,0
1.8460305,3.6548028,-0.33076274,0.90238225,-0.099134617,-0.41937864,0
0.34512034,-5.0688968,-0.12734407,-0.14755063,-0.98543435,-0.084545165,0
1.7893565,2.8775861,-0.19848269,0.93515521,-0.11116576,-0.33634332,0
0.38591012,4.9005318,0.56217623,0.14755063,0.98543435,0.084545165,0
0.50425851,-2.0817132,1.0394328,0.54690742,-0.1525142,0.82318383,0
-2.0812964,-4.6938901,-0.94654644,-0.14755063,-0.98543435,-0.084545165,0
-1.4279381,-4.6932826,0.79762661,-0.51207322,0.0029812381,0.85893655,0
1.5115423,1.864171,0.91993511,0.83250022,-0.16989395,0.52733225,0
-0.3561708,-3.5976787,-1.9207705,0.12966242,0.065470338,-0.98939437,0
-0.47974461,-4.8971047,-0.96835351,-0.14755063,-0.98543435,-0.084545165,0
-0.51784313,4.7280512,1.2053285,-0.83261591,0.077620335,0.54838467,0
-1.8675885,-4.7512426,-0.6494199,-0.14755063,-0.98543435,-0.084545165,0
-1.6039313,-4.8954244,-0.1153577,-0.14755063,-0.98543435,-0.084545165,0
0.4897452,0.02024564,1.4772682,0.30039546,-0.12609282,0.94544321,0
1.6564112,3.4193761,1.2848425,0.74962938,-0.16718569,0.64039409,0
-0.35580587,0.55106121,1.5085009,-0.29929748,-0.036986154,0.95344275,0
-0.98710001,2.2529075,0.803406,-0.8904084,0.095134199,0.44510925,0
2.0177317,4.6883426,-0.0096774101,0.14755063,0.98543435,0.084545165,0
1.0263054,4.7881474,1.3678091,0.14755063,0.98543435,0.084545165,0
0.77404994,2.1094675,1.6886655,0.24355468,-0.11904988,0.96255291,0
-0.84909749,4.703455,0.45485178,-0.98540479,0.13913144,0.098080337,0
1.5871466,4.8859577,0.51109183,0.14755063,0.98543435,0.084545165,0
-1.6254942,-4.8797288,-0.45196235,-0.14755063,-0.98543435,-0.084545165,0
0.68020463,4.921442,-0.52408874,0.14755063,0.98543435,0.084545165,0
1.4673603,0.13535032,-0.57663989,0.90710163,-0.1007597,-0.40867341,0
0.82079214,4.9119782,-0.02304098,0.14755063,0.98543435,0.084545165,0
0.21921997,4.1625576,-1.0315933,-0.22479534,0.11665666,-0.96739763,0
-1.5735507,-4.5780377,-1.6137776,-0.57695585,0.15518712,-0.80189699,0
-1.2331438,-0.53368747,-0.867782,-0.80749333,0.16938424,-0.56503403,0
1.6464939,0.50722283,0.20114814,0.97873795,-0.15779133,0.13104942,0
0.1877411,2.1922772,1.7581003,-0.083302855,-0.072795123,0.99386185,0
1.2535927,-0.91446137,0.55390382,0.88007361,-0.16981897,0.44343174,0
-1.0609404,-5.0014377,0.76525491,-0.14755063,-0.98543435,-0.084545165,0
-0.028005511,-1.9188917,1.2996922,0.23061636,-0.11740287,0.96593618,0
0.52486837,4.9693623,1.1258428,0.14755063,0.98543435,0.084545165,0
1.5978477,0.47946686,0.32410637,0.96193993,-0.16285858,0.21942811,0
-0.18517813,5.1264739,-0.11067109,0.14755063,0.98543435,0.084545165,0
-0.32511526,5.093277,0.21830121,0.14755063,0.98543435,0.084545165,0
0.12119415,-3.8021955,1.086192,0.37182739,-0.13447766,0.91850972,0
0.74344933,2.7817273,1.6311412,0.22467694,-0.11664145,0.96742696,0
-0.50320613,-5.0420361,0.62140501,-0.14755063,-0.98543435,-0.084545165,0
-0.53017294,3.2967057,1.4942209,-0.64429969,0.030912057,0.76414812,0
1.2904823,-0.82414031,-0.43522465,0.9514088,-0.11805581,-0.28440097,0
1.1332523,-1.7589459,0.27299631,0.94397175,-0.16582324,0.28534198,0
-1.2888293,0.046862882,0.7433393,-0.86523551,0.087194011,0.4937253,0
1.5998505,4.4400725,-0.89967167,0.57010102,-0.01488686,-0.82143974,0
0.20190741,-5.125679,-0.53107548,-0.14755063,-0.98543435,-0.084545165,0
1.6662949,4.7963467,-0.23906296,0.14755063,0.98543435,0.084545165,0
-0.80982238,-0.45560071,1.1933331,-0.57339197,0.015577529,0.81913298,0
0.81683397,4.890204,0.26452476,0.14755063,0.98543435,0.084545165,0
-1.7964505,-4.7130394,-0.39559674,-0.14755063,-0.98543435,-0.084545165,0
0.10189559,4.9176068,0.84479749,0.14755063,0.98543435,0.084545165,0
-0.19315891,-5.0500269,0.93093348,-0.14755063,-0.98543435,-0.084545165,0
-1.7212018,-3.8046203,0.60795963,-0.79725623,0.067914002,0.59980828,0
0.42576048,-5.1797004,0.32921666,-0.14755063,-0.98543435,-0.084545165,0
-0.46901613,-5.0323892,-0.16001625,-0.14755063,-0.98543435,-0.084545165,0
1.798646,1.4866192,-0.045365572,0.98353601,-0.137173,-0.11764586,0
-1.2658697,1.010278,0.73313528,-0.90801579,0.10107797,0.40655929,0
1.2574325,4.5465264,1.8816569,0.37481251,-0.1348162,0.91724598,0
-0.98372543,-4.8825097,-0.26544467,-0.14755063,-0.98543435,-0.084545165,0
-0.66383815,-4.7943368,-0.96611494,-0.14755063,-0.98543435,-0.084545165,0
-0.35856608,-5.1325116,0.79225177,-0.14755063,-0.98543435,-0.084545165,0
-1.0214823,-0.77353221,1.2261795,-0.58110482,0.017203074,0.81364679,0
0.17690705,-5.1550388,-0.47110853,-0.14755063,-0.98543435,-0.084545165,0
-0.65088308,1.8069836,1.2696706,-0.60603291,0.022525072,0.79512048,0
1.4523344,4.9183474,-0.78002173,0.14755063,0.98543435,0.084545165,0
-1.7440398,-4.7474432,-1.1902401,-0.14755063,-0.98543435,-0.084545165,0
0.18250355,-1.985862,-1.7035418,0.31675228,0.033897273,-0.94790226,0
0.50572097,4.9113879,0.48275906,0.14755063,0.98543435,0.084545165,0
1.7076033,3.5143344,-0.76583564,0.77189565,-0.061287217,-0.63278818,0
-1.6530041,-4.9561844,0.42233151,-0.14755063,-0.98543435,-0.084545165,0
0.92266345,4.7254848,1.8449426,0.14755063,0.98543435,0.084545165,0
1.4771,4.9687767,-0.52334565,0.14755063,0.98543435,0.084545165,0
-0.96902263,-2.8177042,-1.6038991,-0.3883754,0.13634193,-0.91135907,0
1.1025245,4.8546009,1.1895044,0.14755063,0.98543435,0.084545165,0
-1.9164989,-4.7836308,-0.43990958,-0.14755063,-0.98543435,-0.084545165,0
-1.0399823,1.1648262,-0.74754435,-0.80532449,0.16932583,-0.56813818,0
-0.3197262,-4.8380289,-1.1342977,-0.14755063,-0.98543435,-0.084545165,0
0.11795115,-5.0251632,-1.2065797,-0.14755063,-0.98543435,-0.084545165,0
0.86253059,4.8753066,0.13165215,0.14755063,0.98543435,0.084545165,0
0.15796119,-5.0242729,-1.0021361,-0.14755063,-0.98543435,-0.084545165,0
2.2598343,4.7117119,0.40794802,0.14755063,0.98543435,0.084545165,0
0.44504404,2.1611319,-1.3309929,0.14841506,0.062452856,-0.98695111,0
0.28248134,-4.0619731,-1.4940627,0.5731926,-0.01553563,-0.81927335,0
0.07896018,-5.1123104,0.10186335,-0.14755063,-0.98543435,-0.084545165,0
0.68519968,4.8702126,0.30122253,0.14755063,0.98543435,0.084545165,0
-0.6385358,-4.9602222,-0.021407783,-0.14755063,-0.98543435,-0.084545165,0
-1.4269634,-4.9437895,-0.067401946,-0.14755063,-0.98543435,-0.084545165,0
-1.4276162,0.40032837,0.54339856,-0.95107198,0.11790353,0.28558823,0
-0.38358805,-4.8661609,-0.9785381,-0.14755063,-0.98543435,-0.084545165,0
1.1808683,4.8207998,0.24655268,0.14755063,0.98543435,0.084545165,0
-1.1391282,-1.7186736,1.1485304,-0.59047073,0.019190226,0.80683076,0
-0.96950072,-0.24754502,-1.2216641,-0.64455867,0.16064139,-0.74748808,0
0.60259664,2.8848343,1.8745059,0.10859174,-0.1011048,0.98893154,0
0.90513623,-3.3944125,0.19182895,0.91164428,-0.1686561,0.37477979,0
1.3224651,-1.7337029,-0.043215513,0.98578233,-0.15347174,0.068407327,0
1.7516514,4.6439304,1.3556197,0.14755063,0.98543435,0.084545165,0
1.2368034,0.44581956,0.89060652,0.8241334,-0.16975865,0.54035723,0
1.6704514,2.7673135,1.1737512,0.80236256,-0.16924268,0.57233834,0
-0.76570064,-3.0740876,-1.735599,-0.20000473,0.11344299,-0.97320539,0
-0.18454531,-4.9702845,-1.2768801,-0.14755063,-0.98543435,-0.084545165,0
1.2040484,-1.6485845,-0.59766054,0.9605763,-0.12241282,-0.24961635,0
0.37604725,4.9948068,0.65693802,0.14755063,0.98543435,0.084545165,0
1.3737606,-0.32770282,-0.37833545,0.95639706,-0.12037191,-0.26611096,0
0.81128627,-2.556103,-1.1610258,0.81645346,-0.073108666,-0.57276422,0
-1.736418,-4.6945314,-0.87077522,-0.14755063,-0.98543435,-0.084545165,0
-1.467659,0.61087102,0.12422845,-0.98587674,0.13969165,0.092374384,0
-0.23490798,-4.9983535,-0.38049686,-0.14755063,-0.98543435,-0.084545165,0
-0.01986748,0.11461803,-1.4454272,0.037210181,0.079889432,-0.99610889,0
-0.69152761,-4.5218215,1.1318104,-0.077089518,-0.073762357,0.99429184,0
-0.50342572,-3.0998435,-1.8208947,0.0040972829,0.084871031,-0.99638343,0
-1.5062833,-4.8739614,0.81152505,-0.14755063,-0.98543435,-0.084545165,0
1.8612628,4.67945,0.91978562,0.14755063,0.98543435,0.084545165,0
2.0199909,4.6714225,0.14760667,0.14755063,0.98543435,0.084545165,0
-0.61261547,5.1391387,0.62229347,0.14755063,0.98543435,0.084545165,0
0.44115138,4.6972361,-1.0311043,-0.14979711,0.10676016,-0.98293597,0
0.030955898,-5.0168676,-0.90896928,-0.14755063,-0.98543435,-0.084545165,0
-0.74847227,-4.8004379,-1.5783439,-0.14755063,-0.98543435,-0.084545165,0
-0.43866318,0.62902415,-1.2659986,-0.32542598,0.12909175,-0.93671393,0
0.041817456,5.0481095,0.95452201,0.14755063,0.98543435,0.084545165,0
0.66864091,3.2007787,-1.2333212,0.11244667,0.068212733,-0.99131358,0
0.85313195,4.8852172,0.79350102,0.14755063,0.98543435,0.084545165,0
0.92242855,4.9132066,0.82181215,0.14755063,0.98543435,0.084545165,0
-0.53067303,-0.39274174,1.3977095,-0.35981125,-0.02614218,0.93265885,0
0.54562032,3.2397556,1.8176638,-0.040209189,-0.079433508,0.99602878,0
-1.0387428,2.8476048,0.38927829,-0.97665727,0.13167615,0.16971064,0
-0.01040715,-3.24227,1.0685666,0.32196566,-0.128681,0.93796545,0
-1.1830685,-3.916548,1.0310099,-0.41468045,-0.015967663,0.90982687,0
-1.1249422,-1.2977647,1.0684946,-0.64420909,0.030891884,0.76422524,0
1.0407658,-2.1335011,0.65365767,0.86487424,-0.1700215,0.47231877,0
1.8633151,2.6405156,0.17995349,0.98904097,-0.14745599,-0.0073975772,0
0.41778272,-0.90632051,1.2846854,0.30748788,-0.12694906,0.94304556,0
2.1084836,4.7270622,-0.19352442,0.93108237,-0.10955849,-0.34796908,0
-1.1279221,-4.8580346,-1.1009641,-0.14755063,-0.98543435,-0.084545165,0
-1.3234656,-5.0033202,0.36163336,-0.14755063,-0.98543435,-0.084545165,0
-0.96244043,-4.7679172,-1.6404734,-0.14755063,-0.98543435,-0.084545165,0
-0.81571954,-4.7349572,-1.5002105,-0.14755063,-0.98543435,-0.084545165,0
-1.6799296,-1.3460693,-0.513053,-0.9587183,0.16351014,-0.23264508,0
-1.1078231,-4.7569485,-1.8920319,-0.14755063,-0.98543435,-0.084545165,0
-1.863382,-4.8003807,-0.91279447,-0.14755063,-0.98543435,-0.084545165,0
0.17309773,4.9945836,1.2499932,0.14755063,0.98543435,0.084545165,0
-1.9451383,-3.9291763,-0.57967293,-0.97546446,0.15911224,-0.15215836,0
0.14295208,4.9240847,1.7382847,0.14755063,0.98543435,0.084545165,0
1.4667056,4.7357244,1.3228877,0.14755063,0.98543435,0.084545165,0
1.8791333,4.7924094,0.11055213,0.14755063,0.98543435,0.084545165,0
-0.35590395,-1.8658706,-1.6759071,-0.090874523,0.098626576,-0.9909665,0
0.89343417,5.0200906,-0.064816862,0.14755063,0.98543435,0.084545165,0
1.6815697,4.8491654,-0.67614633,0.14755063,0.98543435,0.084545165,0
1.1002252,4.8890824,-0.29688036,0.14755063,0.98543435,0.084545165,0
0.11274797,-5.0402479,-1.0325971,-0.14755063,-0.98543435,-0.084545165,0
-0.15173876,0.63211191,-1.5179601,-0.15688813,0.10771796,-0.98172444,0
-1.7152038,-1.7284577,-0.17463386,-0.98822695,0.15038361,-0.028146625,0
-0.61384255,-4.879827,-0.8404004,-0.14755063,-0.98543435,-0.084545165,0
0.80268145,1.1197567,-1.1989822,0.45649534,0.0079790018,-0.88968998,0
-0.88875926,-3.8214674,1.1998618,-0.15883546,-0.060762387,0.98543352,0
0.41523236,-5.1195736,-0.98518717,-0.14755063,-0.98543435,-0.084545165,0
0.55059201,-0.10179421,1.3034786,0.38818875,-0.13632108,0.91144168,0
1.4040385,4.8403978,0.62614,0.14755063,0.98543435,0.084545165,0
-0.12994707,-0.81476969,1.3808858,-0.069135278,-0.074995592,0.99478424,0
0.28461739,-1.0889003,-1.5548683,0.2402983,0.047202181,-0.96955073,0
0.39038092,4.792685,-1.0951395,-0.11386174,0.10183658,-0.98826349,0
1.657928,4.726532,0.4400759,0.14755063,0.98543435,0.084545165,0
1.1743135,5.0350342,-0.45227414,0.14755063,0.98543435,0.084545165,0
0.61215866,1.2901037,-1.3776649,0.29476625,0.037782956,-0.95482206,0
-0.90662491,3.9801893,0.61655402,-0.96536297,0.12489172,0.22907692,0
-0.23046121,4.0279431,-0.99598604,-0.5217886,0.15017463,-0.8397525,0
-1.7710736,-4.768786,-0.58827031,-0.14755063,-0.98543435,-0.084545165,0
0.013485808,5.0085239,1.1814464,0.14755063,0.98543435,0.084545165,0
0.44089723,-1.1089666,-1.4499329,0.46176326,0.0069573782,-0.88697588,0
-1.755029,-3.9337323,-1.3142995,-0.79193401,0.16891989,-0.58677638,0
-2.0854337,-4.1965084,0.063151836,-0.96073151,0.12249065,0.24897996,0
1.7003374,4.7889171,1.3649403,0.14755063,0.98543435,0.084545165,0
1.0010329,-3.3124869,0.0091464221,0.97169614,-0.16037507,0.1734542,0
-0.2399016,4.9557977,1.0291754,0.14755063,0.98543435,0.084545165,0
-0.76331866,3.6020231,0.99084568,-0.85164696,0.083121113,0.51748276,0
2.0310719,4.2258668,0.88479626,0.94589448,-0.16557144,0.2790513,0
0.018136948,4.7521324,-0.98062503,-0.41700175,0.13949385,-0.89813745,0
1.9922547,4.7532153,-0.065074921,0.14755063,0.98543435,0.084545165,0
-0.31558713,1.0687172,-1.4078003,-0.22905153,0.11720258,-0.96633267,0
0.1692235,4.9338484,0.45672014,0.14755063,0.98543435,0.084545165,0
1.6818954,1.664758,0.1778852,0.98903215,-0.14758141,-0.0059203953,0
-0.55538315,-4.9126854,-0.99744457,-0.14755063,-0.98543435,-0.084545165,0
-0.26319617,-4.9801087,-1.1491179,-0.14755063,-0.98543435,-0.084545165,0
1.7944883,4.7366157,0.28933913,0.14755063,0.98543435,0.084545165,0
0.34956622,4.8338141,1.5278614,0.14755063,0.98543435,0.084545165,0
-1.9221346,-4.7561078,-1.0527103,-0.14755063,-0.98543435,-0.084545165,0
0.74433231,4.8514662,1.2381462,0.14755063,0.98543435,0.084545165,0
1.7983114,3.557121,1.0371555,0.85677433,-0.17005503,0.48684597,0
1.721186,4.6601963,1.2204571,0.14755063,0.98543435,0.084545165,0
0.96892822,-2.3135853,-0.94013727,0.82851416,-0.076462373,-0.55472314,0
-0.35320234,-0.52976453,-1.6325532,-0.15305459,0.10720073,-0.98238605,0
1.8052038,1.9532179,0.1977874,0.9867177,-0.15253566,0.05586417,0
-0.40399212,5.0749273,-0.35902026,0.14755063,0.98543435,0.084545165,0
-1.4625405,-3.4556794,0.79748499,-0.68487805,0.040127695,0.72755194,0
-1.1427717,2.3448517,-0.34055853,-0.91787624,0.16827202,-0.3594268,0
0.47569352,5.0042844,0.16581549,0.14755063,0.98543435,0.084545165,0
-1.0589571,2.0075538,0.76641965,-0.90616381,0.10043439,0.41082847,0
-0.095510572,2.3807504,-1.3217312,-0.23026124,0.11735743,-0.96602637,0
-1.2712233,-4.8958912,-0.72842956,-0.14755063,-0.98543435,-0.084545165,0
-0.71887088,0.083811216,1.4231586,-0.46695232,-0.005947616,0.88426238,0
-1.4232001,-1.5046239,0.65548301,-0.84953308,0.08249902,0.52104455,0
-1.2987558,-0.12157858,-0.99680632,-0.78544652,0.16869658,-0.5954957,0
-1.7383897,-2.0416493,0.0018294454,-0.97637379,0.13148157,0.17148384,0
-2.0967333,-4.6853762,-0.85391724,-0.14755063,-0.98543435,-0.084545165,0
-0.52218354,5.1974597,-0.040939793,0.14755063,0.98543435,0.084545165,0
-0.42544648,4.8988233,-0.48800766,-0.75141203,0.16727115,-0.63827908,0
1.4853343,1.3568945,0.92450953,0.82288623,-0.16973531,0.54226196,0
0.34024858,-5.1028967,0.23232479,-0.14755063,-0.98543435,-0.084545165,0
0.69573307,-5.0952792,-0.55332118,-0.14755063,-0.98543435,-0.084545165,0
-0.6132018,-4.899817,-0.57882094,-0.14755063,-0.98543435,-0.084545165,0
-1.2671763,-4.8196325,0.01988554,-0.14755063,-0.98543435,-0.084545165,0
-0.48144212,-4.4912543,-1.895144,0.1510607,0.062024601,-0.98657668,0
0.73240787,-4.3316112,-0.90096533,0.91812056,-0.10467864,-0.38222614,0
-1.6466939,-2.9214082,0.75885934,-0.71993083,0.048395794,0.69235647,0
1.5725292,4.6705427,0.98470819,0.14755063,0.98543435,0.084545165,0
-0.26115191,-5.1237278,-0.12417473,-0.14755063,-0.98543435,-0.084545165,0
-0.97373313,3.746208,0.62100542,-0.97636956,0.13147867,0.17151037,0
-0.058514342,-5.1475654,0.30274141,-0.14755063,-0.98543435,-0.084545165,0
0.49561834,-4.9959183,-1.1563543,0.82322365,-0.074982084,-0.56274372,0
-0.51163417,-4.9221029,-1.3419206,-0.14755063,-0.98543435,-0.084545165,0
1.6553504,4.9080586,-0.49920392,0.14755063,0.98543435,0.084545165,0
-1.9569477,-3.5784719,-0.13024372,-0.97770536,0.13241136,0.16297045,0
-0.79650873,-4.8996973,0.036440194,-0.14755063,-0.98543435,-0.084545165,0
-2.2090631,-4.5698738,0.17756808,-0.91418421,0.10325712,0.39192492,0
0.36162907,-5.1610894,0.10643281,-0.14755063,-0.98543435,-0.084545165,0
-0.42547667,-4.8489585,-1.0369629,-0.14755063,-0.98543435,-0.084545165,0
-0.59004349,2.8553443,1.2814875,-0.64930671,0.032030378,0.75985181,0
-0.86110789,2.3815536,1.1333952,-0.75110286,0.056027718,0.6578033,0
0.034370333,3.3403227,-1.0328294,-0.29675534,0.12565139,-0.94665098,0
-1.4903468,-4.7346959,-0.92413139,-0.14755063,-0.98543435,-0.084545165,0
0.54566312,-1.0282416,-1.5171537,0.42859316,0.013333011,-0.90339911,0
0.19735101,-5.0102797,-1.2769679,-0.14755063,-0.98543435,-0.084545165,0
-0.046457738,-4.9661541,-1.1827112,-0.14755063,-0.98543435,-0.084545165,0
-0.42557192,5.1688943,-0.20701024,0.14755063,0.98543435,0.084545165,0
1.3614342,4.9476285,-0.55632126,0.14755063,0.98543435,0.084545165,0
0.17754753,-5.0926747,-0.98409814,-0.14755063,-0.98543435,-0.084545165,0
-0.86357033,3.3669889,0.83472836,-0.91234732,0.10260223,0.39635235,0
1.0252255,1.8898028,-1.0913972,0.54236335,-0.0091331936,-0.84009433,0
2.1302724,3.9464228,0.10570121,0.98061222,-0.13461094,-0.14240584,0
0.59431928,-5.1925898,-0.09012688,-0.14755063,-0.98543435,-0.084545165,0
-0.088083625,-5.0103917,0.51868224,-0.14755063,-0.98543435,-0.084545165,0
-1.4510447,0.59037888,-0.0060558021,-0.98860538,0.14436811,0.04262884,0
-0.96957159,0.41069749,1.1075882,-0.70822126,0.045599245,0.70451635,0
-1.5787876,-4.8250532,-0.56942636,-0.14755063,-0.98543435,-0.084545165,0
1.2257373,0.7454316,-0.87304229,0.73834252,-0.052869018,-0.67235041,0
1.0364767,4.958612,-0.25128436,0.14755063,0.98543435,0.084545165,0
1.709933,4.417192,1.5206767,0.66252279,-0.16194454,0.73132581,0
-1.2772465,-3.5082002,-1.5146463,-0.47087848,0.14516172,-0.8701731,0
-1.6311706,-4.7244649,-0.16141525,-0.14755063,-0.98543435,-0.084545165,0
1.4054105,-1.3611984,0.17131802,0.97116673,-0.16053553,0.1762486,0
-0.85800636,-4.797369,-1.5432585,-0.14755063,-0.98543435,-0.084545165,0
0.76147771,2.1438751,1.6068819,0.28364092,-0.12404996,0.95087284,0
-0.33177438,4.5164466,1.3776752,-0.6948629,0.042451855,0.71788812,0
0.63823062,4.8899188,1.4212639,0.14755063,0.98543435,0.084545165,0
-2.0677361,-3.5405843,-0.58610922,-0.96977746,0.16093977,-0.18338466,0
0.36191919,1.7882217,1.7145026,0.08338964,-0.097571239,0.99172872,0
-0.67989683,3.1186216,1.2604544,-0.7313804,0.051166203,0.68004751,0
1.6705956,4.8471313,0.45325685,0.14755063,0.98543435,0.084545165,0
-1.9454113,-3.8107712,-0.92123604,-0.92038906,0.16809902,-0.3530249,0
-1.2131562,-4.9830685,0.40621978,-0.14755063,-0.98543435,-0.084545165,0
-0.40150183,3.3584929,-0.95406598,-0.55500799,0.15324864,-0.81760681,0
0.73187613,5.1155682,-0.90486294,0.14755063,0.98543435,0.084545165,0
0.33681026,-4.2709384,0.71881109,0.66480088,-0.16210496,0.72921997,0
0.79102945,1.810394,1.5504445,0.27026537,-0.12239905,0.95497376,0
-0.28767857,-4.2916703,-1.7908095,0.2104841,0.052236822,-0.97620064,0
-2.0576673,-3.0436175,-0.47917998,-0.9759407,0.15893508,-0.14926246,0
-0.33280385,1.1656564,1.5955954,-0.3283228,-0.03183249,0.94402897,0
0.019770771,3.6847901,-1.0808607,-0.36478478,0.13367508,-0.92144614,0
1.0096356,3.0648739,1.6861094,0.38324913,-0.13576768,0.91361219,0
1.6592509,4.8386827,-0.0027126074,0.14755063,0.98543435,0.084545165,0
1.3185002,3.8823447,-1.0186765,0.50066644,-0.00069815665,-0.86563993,0
1.2385312,2.6551924,-1.1565834,0.55625832,-0.012000587,-0.83092278,0
-0.21383129,-5.1479621,0.6506021,-0.14755063,-0.98543435,-0.084545165,0
0.83169293,-4.2436004,-0.074432276,0.97235286,-0.16017073,0.16992627,0
1.1245691,-0.37809199,-0.92470813,0.78387076,-0.064385325,-0.61757684,0
-1.4552127,-1.8670756,0.88292664,-0.73779339,0.052734204,0.67296338,0
-1.2903566,-4.8066506,-0.067311227,-0.14755063,-0.98543435,-0.084545165,0
0.62191868,-1.7842331,1.1533406,0.58566749,-0.15593502,0.79541045,0
0.83095253,4.9863434,-0.36585945,0.14755063,0.98543435,0.084545165,0
-1.626798,-2.0032976,-1.0137465,-0.80145782,0.16921651,-0.57361227,0
-1.3253576,-4.8333702,-0.49121669,-0.14755063,-0.98543435,-0.084545165,0
0.22253597,4.9361868,0.76373839,0.14755063,0.98543435,0.084545165,0
-1.3961024,0.49703461,-0.21607128,-0.95736879,0.1637643,-0.23796257,0
1.2839111,-0.85786301,0.068034619,0.98614722,-0.15312776,0.063761264,0
1.3530985,-0.032481931,0.52534294,0.91897309,-0.16819784,0.35664788,0
-1.2537249,0.62685043,0.73696983,-0.89469665,0.096547939,0.43611506,0
-1.4207718,-1.8740838,-1.0946277,-0.75945938,0.16764423,-0.62858307,0
-0.31682611,-4.916348,-1.0289308,-0.14755063,-0.98543435,-0.084545165,0
-1.4236674,-4.6582079,-1.6155921,-0.14755063,-0.98543435,-0.084545165,0
-1.7069507,-3.7308478,-1.3295288,-0.740251,0.16671982,-0.6513316,0
-1.3658242,-4.8829794,-0.59238541,-0.14755063,-0.98543435,-0.084545165,0
-1.511638,-4.8878808,0.24822664,-0.14755063,-0.98543435,-0.084545165,0
1.932297,3.4713233,1.0163234,0.87382698,-0.16992575,0.45557815,0
-1.8217289,-4.8811669,0.11278021,-0.14755063,-0.98543435,-0.084545165,0
-0.58289015,5.1632895,0.66484421,0.14755063,0.98543435,0.084545165,0
-0.044929326,-0.68302161,1.429078,0.00776577,-0.086632438,0.99620998,0
0.47657323,-3.7808931,0.88434923,0.64124703,-0.16039398,0.75038379,0
-0.61905205,5.1306257,-0.11436696,0.14755063,0.98543435,0.084545165,0
-1.3316088,-4.9718466,0.189399,-0.14755063,-0.98543435,-0.084545165,0
-0.62919468,1.2410823,1.4126455,-0.54546773,0.0097712874,0.83807474,0
-0.42219692,-4.9800477,0.3822073,-0.14755063,-0.98543435,-0.084545165,0
-1.654861,-1.2968456,0.54951906,-0.9040885,0.099718764,0.41554773,0
-0.28183866,5.0457454,0.72250521,0.14755063,0.98543435,0.084545165,0
-1.4205048,-3.1355231,-1.5168685,-0.61053252,0.15799886,-0.77607107,0
-0.18730155,5.0361819,0.35175455,0.14755063,0.98543435,0.084545165,0
-0.959741,-3.4629552,-1.7168545,-0.21729881,0.11569095,-0.96922481,0
-0.1929844,-5.0901942,0.58541286,-0.14755063,-0.98543435,-0.084545165,0
0.7577076,-3.6919718,-1.0381211,0.89195794,-0.095642723,-0.44188628,0
0.48867097,-1.0739309,1.2489617,0.42365476,-0.14021279,0.89490616,0
-0.64818466,2.2758818,-0.94944161,-0.59058625,0.1563517,-0.79168302,0
1.2268372,4.9330449,-0.91433358,0.14755063,0.98543435,0.084545165,0
0.39306605,5.1695037,-0.65794957,0.14755063,0.98543435,0.084545165,0
1.8946602,2.3886588,-0.032309532,0.97456896,-0.13028127,-0.18232417,0
-1.5797355,-0.8234784,-0.62086594,-0.91116965,0.16868286,-0.37592003,0
-0.70249808,-5.0911126,1.0084999,-0.14755063,-0.98543435,-0.084545165,0
-0.34616482,-4.9015441,-1.6981059,-0.14755063,-0.98543435,-0.084545165,0
2.2980552,4.6939235,0.35432753,0.14755063,0.98543435,0.084545165,0
-0.60351264,-0.45826709,1.4021716,-0.29248372,-0.038183559,0.95550781,0
1.3743533,2.9906492,1.414034,0.58615839,-0.15597679,0.79504055,0
-0.51455981,-2.208163,1.3590434,-0.15085381,-0.062058102,0.98660624,0
-1.4935446,-0.80656785,-0.66655099,-0.88016999,0.16981706,-0.4432413,0
1.4428775,4.7390933,1.4253781,0.14755063,0.98543435,0.084545165,0
1.6515806,1.4119999,0.44663703,0.9477452,-0.16531685,0.27285412,0
0.3956044,-5.1343837,-0.87455606,-0.14755063,-0.98543435,-0.084545165,0
0.81651002,4.9133205,0.21396056,0.14755063,0.98543435,0.084545165,0
-0.08342886,-3.2691462,1.2718185,0.22391054,-0.11654296,0.96761656,0
-1.0600214,-4.93997,0.89670163,-0.14755063,-0.98543435,-0.084545165,0
-0.62458837,-2.5816977,1.2871807,-0.11132056,-0.068391211,0.99142838,0
-0.31833148,-5.0894551,0.054606825,-0.14755063,-0.98543435,-0.084545165,0
0.55885732,4.949295,0.53822029,0.14755063,0.98543435,0.084545165,0
-1.9625425,-3.7414961,0.14505267,-0.9546867,0.11956432,0.27253905,0
0.71401733,-3.9494917,-0.92274839,0.89864868,-0.097869195,-0.42761204,0
-1.397262,-0.57487524,0.58940089,-0.89227176,0.09574604,0.44122976,0
-1.624207,-1.5093495,-0.078469396,-0.98848271,0.14401948,0.046478346,0
-0.55963582,-4.8438468,-0.71000659,-0.14755063,-0.98543435,-0.084545165,0
-0.19186592,-4.9267778,-1.2414989,-0.14755063,-0.98543435,-0.084545165,0
-0.21344283,5.183279,0.014332026,0.14755063,0.98543435,0.084545165,0
-1.7591043,-1.2182548,0.22361702,-0.9605549,0.12240213,0.24970359,0
-0.075103834,4.0404081,1.7196596,-0.48032135,-0.0033301748,0.87708616,0
-0.011074735,-4.9990993,-0.9281128,-0.14755063,-0.98543435,-0.084545165,0
-0.3250384,-3.8783684,-1.8302623,0.16379625,0.059954155,-0.9846707,0
1.6179296,1.8266019,1.0530879,0.79721195,-0.16908899,0.5795359,0
1.0475874,4.6557508,-1.1062226,0.22591913,0.049640853,-0.97288036,0
-1.26037,-2.9986546,0.91878599,-0.61407173,0.024264373,0.78887707,0
-0.80486572,3.5352867,-0.3937951,-0.90143919,0.16916199,-0.39848647,0
0.96586543,4.9360542,0.41913405,0.14755063,0.98543435,0.084545165,0
-0.5667271,-2.795893,1.2569228,-0.17807002,-0.057616066,0.98232955,0
0.68187231,-0.47433352,1.2670397,0.49963954,-0.14803684,0.85349005,0
0.97319484,2.1006804,1.5231854,0.45773345,-0.14381191,0.87738144,0
1.4952202,-0.14057656,-0.14739776,0.98447621,-0.13811488,-0.1083084,0
-2.2485523,-4.7638726,-0.027307749,-0.14755063,-0.98543435,-0.084545165,0
-0.83491814,-0.89241529,-1.4163738,-0.47621456,0.14570336,-0.86717361,0
1.5705321,4.7072086,1.6379603,0.14755063,0.98543435,0.084545165,0
-1.7283534,-2.3344555,-1.0028684,-0.82721114,0.16981275,-0.5356167,0
-1.8157756,-4.8673606,0.53427351,-0.14755063,-0.98543435,-0.084545165,0
1.5069261,1.7846601,-0.70295036,0.84168696,-0.080214918,-0.53397417,0
-0.80490506,-4.7614245,-1.1629046,-0.14755063,-0.98543435,-0.084545165,0
1.098248,4.9912658,-0.87391615,0.14755063,0.98543435,0.084545165,0
-1.3790212,0.60044211,-0.44370443,-0.95604491,0.16400386,-0.24306512,0
-0.93065619,1.4481095,1.2108514,-0.71897072,0.048165139,0.69336933,0
0.55160356,-0.13559487,1.4745992,0.35215488,-0.13222232,0.92655498,0
-0.69455051,-5.0111499,1.1197281,-0.14755063,-0.98543435,-0.084545165,0
-0.850124,4.5118351,0.52417642,-0.98778439,0.14249113,0.063073486,0
1.2273741,4.9002962,0.32054257,0.14755063,0.98543435,0.084545165,0
2.0914786,3.4383402,-0.061371922,0.96646082,-0.12548581,-0.22406831,0
-0.51474607,1.1642421,1.3771701,-0.49228528,-0.00096800551,0.87043333,0
-0.65385425,-4.8831534,-1.4009897,-0.14755063,-0.98543435,-0.084545165,0
-0.25154716,5.0930266,0.053255022,0.14755063,0.98543435,0.084545165,0
-0.7395556,5.144609,0.78302717,0.14755063,0.98543435,0.084545165,0
0.71958941,3.8983047,-1.1811788,0.14179149,0.063522279,-0.98785621,0
1.5280286,4.7453032,-0.015904009,0.14755063,0.98543435,0.084545165,0
0.70191014,0.61412585,1.5264482,0.34621474,-0.1315331,0.9288888,0
-0.50138724,-3.9496624,-1.8426205,0.0093005151,0.084094591,-0.9964143,0
0.24053378,4.9425383,0.49476707,0.14755063,0.98543435,0.084545165,0
-0.73906344,-4.8360653,-0.92632413,-0.14755063,-0.98543435,-0.084545165,0
-1.7535739,-4.7611461,-1.1201053,-0.14755063,-0.98543435,-0.084545165,0
-0.29791203,-0.40523115,-1.5896182,-0.13810727,0.10517124,-0.98481745,0
-0.67460179,-4.9904699,0.67042619,-0.14755063,-0.98543435,-0.084545165,0
-0.92801386,3.6291387,0.85000682,-0.91013247,0.10181941,0.40161127,0
-1.1730065,0.46960241,-0.96871376,-0.78555298,0.1687004,-0.5953542,0
0.39851874,4.2013392,-1.1435326,-0.19579536,0.11289161,-0.97412497,0
0.10303906,0.89352584,-1.4219408,-0.086569339,0.098020151,-0.99141192,0
-0.19105218,-4.998456,-1.2893231,-0.14755063,-0.98543435,-0.084545165,0
2.1037283,4.4005399,-0.30983436,0.8973642,-0.097437754,-0.43039912,0
-1.8910382,-2.5878277,-0.75528026,-0.94460571,0.16574159,-0.28328371,0
-1.589731,-1.2941118,-0.87717307,-0.87049699,0.16996895,-0.46189338,0
1.6152858,4.836884,-0.24725789,0.14755063,0.98543435,0.084545165,0
1.0331964,-1.6523874,0.68658412,0.83407718,-0.16991518,0.52482766,0
-1.9864331,-4.606916,-0.79943466,-0.14755063,-0.98543435,-0.084545165,0
-0.91789556,2.3986142,-0.61133951,-0.82040608,0.16968657,-0.54602224,0
-0.66526049,-1.2527063,1.2360173,-0.33464417,-0.030698556,0.94184428,0
-0.57820302,-4.9828553,-0.52439529,-0.14755063,-0.98543435,-0.084545165,0
-0.23412672,-5.0035858,-0.24289101,-0.14755063,-0.98543435,-0.084545165,0
1.5433064,0.65075898,-0.34874752,0.932944,-0.11028826,-0.34271219,0
-1.5782191,-4.793355,-0.17381293,-0.14755063,-0.98543435,-0.084545165,0
0.83147192,-0.21696088,1.1887294,0.58219022,-0.15563799,0.79801708,0
-0.078911617,-5.0656943,-0.3734276,-0.14755063,-0.98543435,-0.084545165,0
0.42890027,-4.7827334,-1.4481301,0.73736387,-0.052628804,-0.6734423,0
1.6002485,3.5774059,-0.81811941,0.69125664,-0.041609682,-0.72141039,0
0.41338313,-5.0901971,0.46196657,-0.14755063,-0.98543435,-0.084545165,0
1.1380116,-0.24388246,0.92058688,0.78313601,-0.16861308,0.59855461,0
0.28821677,4.8951845,1.5281262,0.14755063,0.98543435,0.084545165,0
1.3721406,1.7340082,1.2625729,0.66336977,-0.16200434,0.73054433,0
-1.9151646,-2.7978411,0.3117156,-0.92975557,0.10904326,0.35165894,0
0.60111016,4.9124146,0.21420997,0.14755063,0.98543435,0.084545165,0
-1.9652263,-3.4908404,-0.63661003,-0.97438431,0.15949817,-0.15854183,0
0.33404881,4.9053922,1.0164675,0.14755063,0.98543435,0.084545165,0
-1.5508567,-4.8769989,-0.43473354,-0.14755063,-0.98543435,-0.084545165,0
-1.8760098,-4.7396522,-0.82686305,-0.14755063,-0.98543435,-0.084545165,0
-0.51501542,-4.9908743,-0.39388359,-0.14755063,-0.98543435,-0.084545165,0
0.33759794,4.9890156,0.7347213,0.14755063,0.98543435,0.084545165,0
-1.4125671,-3.0043621,-1.3072885,-0.624529,0.15911232,-0.76462203,0
-1.0268869,-4.7261882,-1.0977755,-0.14755063,-0.98543435,-0.084545165,0
1.5220003,1.6812299,0.96213865,0.78849363,-0.16880356,0.59142464,0
-2.2060983,-4.6596637,-0.42058697,-0.14755063,-0.98543435,-0.084545165,0
1.4292567,4.7462997,0.41505331,0.14755063,0.98543435,0.084545165,0
1.2213036,4.8891702,0.954126,0.14755063,0.98543435,0.084545165,0
0.093346715,-1.4132557,1.4178216,0.16417548,-0.10869755,0.98042393,0
0.82178974,-4.4983325,0.14159334,0.91966081,-0.16815029,0.35489345,0
1.8864546,4.7358942,-0.13694215,0.14755063,0.98543435,0.084545165,0
0.23123771,2.8568399,-1.2002252,-0.117358,0.10232069,-0.98780435,0
-1.6147918,-4.8233495,0.66705298,-0.14755063,-0.98543435,-0.084545165,0
1.6007004,3.6679702,1.3657019,0.73083586,-0.16622563,0.66200286,0
0.88811618,1.6842438,-1.1797833,0.4551011,0.0082488135,-0.89040148,0
-0.66289449,1.1150848,1.3819573,-0.54933268,0.010567736,0.83553684,0
-0.2236615,-4.9556899,-0.48345476,-0.14755063,-0.98543435,-0.084545165,0
-0.39857244,5.147666,0.9330346,0.14755063,0.98543435,0.084545165,0
0.41800719,-5.017581,-0.36585316,-0.14755063,-0.98543435,-0.084545165,0
0.89688396,-3.7250986,-0.41805986,0.98666382,-0.14071548,-0.081814289,0
0.68799287,2.4243658,1.7834898,0.21862119,-0.11586168,0.96890688,0
-0.90843529,-1.3405794,-1.4688061,-0.47414479,0.1454937,-0.86834222,0
0.32996193,5.07336,-0.82020932,0.14755063,0.98543435,0.084545165,0
-0.75282383,4.0914712,-0.13099113,-0.93767858,0.16656603,-0.30498278,0
1.6594266,4.908617,0.12141889,0.14755063,0.98543435,0.084545165,0
-0.41194245,-3.4201615,-1.8667274,0.11781322,0.067360714,-0.99074835,0
-2.0903378,-4.0076103,0.10613042,-0.9592005,0.12172963,0.25517845,0
0.4862259,5.1426072,-1.0398506,0.14755063,0.98543435,0.084545165,0
-1.8141299,-1.5712621,-0.32372987,-0.97874761,0.15778697,-0.13098158,0
-0.79743648,4.4400096,1.0032412,-0.92398,0.10684405,0.36721277,0
1.3138402,4.9248791,0.36013252,0.14755063,0.98543435,0.084545165,0
1.3477412,0.37295097,0.82327223,0.80706435,-0.16937286,0.56564993,0
1.6939535,4.7280068,0.85739207,0.14755063,0.98543435,0.084545165,0
-1.1912744,-4.6962953,-1.356877,-0.14755063,-0.98543435,-0.084545165,0
-0.12307167,-5.1380353,0.87158954,-0.14755063,-0.98543435,-0.084545165,0
1.4262437,1.5066907,-0.78444219,0.7686044,-0.060444862,-0.63686228,0
1.3479127,4.6681428,1.6259626,0.14755063,0.98543435,0.084545165,0
-1.1286505,-3.4411714,0.95573175,-0.41467521,-0.015968658,0.90982938,0
0.94920379,-0.93488693,0.95834476,0.73527879,-0.16646208,0.65700483,0
-0.92591399,0.44223979,1.0820817,-0.69061154,0.041459374,0.7220366,0
0.27848569,-0.10616369,-1.4373055,0.17935108,0.057405319,-0.98210883,0
0.74904376,5.0560155,-0.22684929,0.14755063,0.98543435,0.084545165,0
-2.0010509,-4.6772623,-0.45268524,-0.14755063,-0.98543435,-0.084545165,0
0.83255827,-3.391304,0.35698751,0.86876583,-0.1699878,0.46513447,0
-0.68132401,-5.0699596,0.47395825,-0.14755063,-0.98543435,-0.084545165,0
-0.73850989,-4.837738,-1.6296285,-0.14755063,-0.98543435,-0.084545165,0
0.97420979,1.6091164,1.5831217,0.46491733,-0.14455232,0.87347376,0
0.65360975,4.7264071,1.933015,0.14755063,0.98543435,0.084545165,0
0.20643038,-0.36215064,-1.5534508,0.20265964,0.053544261,-0.97778428,0
1.7549019,2.924099,1.1540416,0.84837914,-0.17004126,0.50133705,0
1.9624276,3.9246075,-0.19654483,0.89572531,-0.096890114,-0.43392199,0
0.40385643,-4.5461726,-1.3374419,0.75368595,-0.056673292,-0.65478665,0
-0.90163815,-1.817971,-1.4425385,-0.44304162,0.14227766,-0.88513899,0
0.21615033,5.0216393,0.10718687,0.14755063,0.98543435,0.084545165,0
-1.6143092,-4.7959113,-0.20177656,-0.14755063,-0.98543435,-0.084545165,0
-1.9131265,-3.145484,-0.99656188,-0.88198733,0.16977921,-0.43962872,0
-1.5308008,-3.6677456,-1.3400463,-0.64424205,0.16061783,-0.74776602,0
-0.027667873,5.0814004,0.83961558,0.14755063,0.98543435,0.084545165,0
-1.1201671,-4.9313235,0.26397574,-0.14755063,-0.98543435,-0.084545165,0
-0.20844309,-4.4169559,1.0702208,0.26801816,-0.12211998,0.95564258,0
-1.7012951,-4.1756496,0.80092824,-0.66530025,0.035637155,0.7457248,0
0.19110137,5.0461369,-0.61045402,0.14755063,0.98543435,0.084545165,0
-0.083490804,-5.0734439,-0.27500686,-0.14755063,-0.98543435,-0.084545165,0
0.86075193,4.8773885,0.045357198,0.14755063,0.98543435,0.084545165,0
-0.75560379,-5.0136914,0.47209352,-0.14755063,-0.98543435,-0.084545165,0
2.0926259,4.6912851,-0.19132167,0.14755063,0.98543435,0.084545165,0
0.14064912,-4.9361405,-1.4288466,-0.14755063,-0.98543435,-0.084545165,0
-1.5167153,-4.6982942,-0.92464924,-0.14755063,-0.98543435,-0.084545165,0
-1.9867724,-4.7686911,-0.56067127,-0.14755063,-0.98543435,-0.084545165,0
1.3252578,-0.62228906,-0.75357234,0.87017345,-0.088708155,-0.48469475,0
-0.80972344,1.8286772,-0.99980503,-0.70315695,0.1646302,-0.69171309,0
-0.91030955,-4.8870187,-0.97709537,-0.14755063,-0.98543435,-0.084545165,0
0.44053876,5.0512958,-0.39533678,0.14755063,0.98543435,0.084545165,0
1.1303159,4.8082037,0.97076309,0.14755063,0.98543435,0.084545165,0
0.81345487,4.5170588,1.9584119,0.1070511,-0.10089041,0.98912144,0
-0.61781502,-3.2318714,1.1838479,-0.15654841,-0.061134256,0.98577636,0
-0.29659498,-4.9593863,-1.4617699,-0.14755063,-0.98543435,-0.084545165,0
0.74221599,4.8242927,1.4930637,0.14755063,0.98543435,0.084545165,0
-2.1521254,-4.6680346,-0.51595271,-0.98814887,0.15053304,-0.030024379,0
1.9568228,4.8762841,-0.1976915,0.14755063,0.98543435,0.084545165,0
-1.5074708,-4.8696837,-0.67448914,-0.14755063,-0.98543435,-0.084545165,0
0.74508762,4.8463693,1.2898314,0.14755063,0.98543435,0.084545165,0
1.1991975,4.6669292,1.5691299,0.14755063,0.98543435,0.084545165,0
1.0790039,3.8810089,-1.1709383,0.28561965,0.039385106,-0.9575333,0
0.81205845,-1.5636857,-1.2312794,0.65091741,-0.032391198,-0.75845724,0
-0.24722397,2.3016593,1.5050004,-0.43079311,-0.012914307,0.90235829,0
-0.45356762,-0.39012927,-1.5669457,-0.24954835,0.11980741,-0.96092224,0
-0.63846242,0.82653946,1.2934369,-0.58740807,0.018538807,0.80907834,0
-1.7398385,-4.6647635,-1.2115525,-0.14755063,-0.98543435,-0.084545165,0
-0.33258832,5.0947948,0.60920912,0.14755063,0.98543435,0.084545165,0
-1.4334464,-4.8345675,-0.66961026,-0.14755063,-0.98543435,-0.084545165,0
2.0480952,4.7973385,0.10998368,0.14755063,0.98543435,0.084545165,0
0.29291037,-5.140245,-0.16613877,-0.14755063,-0.98543435,-0.084545165,0
0.3164238,-0.84266883,1.4284643,0.24920207,-0.11976374,0.96101761,0
-1.740261,-1.9183168,-0.42157221,-0.9710896,0.16055857,-0.17665139,0
-2.0283098,-4.4854403,-1.1516299,-0.89304829,0.1694788,-0.41682333,0
-1.2995261,-3.2457368,-1.4660352,-0.52453601,0.150435,-0.83799231,0
-1.67664,-3.3573618,0.59417379,-0.82563555,0.075655133,0.55910826,0
-0.90136164,3.281038,1.0056534,-0.85393023,0.083796412,0.51359642,0
-0.49359095,-0.40508291,-1.5225954,-0.18760541,0.11181413,-0.97585952,0
0.55706799,2.3444989,-1.2489648,0.10234315,0.069809891,-0.99229658,0
1.5088475,4.9286556,-0.31417823,0.14755063,0.98543435,0.084545165,0
0.89680767,-3.5452759,-0.6839301,0.94481719,-0.11515646,-0.30669114,0
1.0206931,4.9215584,-0.33136469,0.14755063,0.98543435,0.084545165,0
1.871271,2.105876,-0.240803,0.94757748,-0.11635066,-0.29758933,0
0.15668139,5.1689029,-0.28015774,0.14755063,0.98543435,0.084545165,0
0.51293159,5.0260496,-1.0005502,0.14755063,0.98543435,0.084545165,0
0.31041223,-5.0416136,-0.25818819,-0.14755063,-0.98543435,-0.084545165,0
1.9816122,3.9044938,-0.11645222,0.93525809,-0.11120687,-0.33604363,0
-1.5058631,-0.60971993,0.47720504,-0.91426009,0.1032843,0.39174062,0
0.55141091,-5.0127993,-0.50939405,-0.14755063,-0.98543435,-0.084545165,0
1.2405099,-0.55808347,0.80288607,0.82606077,-0.16979311,0.53739542,0
-0.37271884,0.87212348,-1.2982179,-0.36580744,0.13379197,-0.92102361,0
-0.5869267,5.0527844,0.47062835,0.14755063,0.98543435,0.084545165,0
0.45054647,2.96367,1.7513391,0.070997,-0.095813081,0.99286413,0
-1.2414812,-0.64872253,0.89240003,-0.76779497,0.060238287,0.63785762,0
-0.64658648,4.6360345,0.92670643,-0.91123796,0.10220924,0.39899692,0
0.42988518,4.7970529,1.6005343,0.14755063,0.98543435,0.084545165,0
-1.7273207,-4.8179927,-0.29580551,-0.14755063,-0.98543435,-0.084545165,0
-1.2686074,-4.984364,0.51479644,-0.14755063,-0.98543435,-0.084545165,0
-0.018123567,-5.0527639,0.80415148,-0.14755063,-0.98543435,-0.084545165,0
0.86332822,-0.73453766,-1.3179077,0.64620304,-0.031336594,-0.76252186,0
0.021545082,1.0320921,1.5523591,-0.056394681,-0.076959349,0.99543798,0
-0.71630359,-4.1455684,-1.8119175,-0.082497001,0.097445056,-0.99181587,0
-1.6360486,-4.8222485,0.64934456,-0.14755063,-0.98543435,-0.084545165,0
0.59946871,-5.1815596,0.036674656,-0.14755063,-0.98543435,-0.084545165,0
-0.88644898,-4.8622317,0.14819297,-0.14755063,-0.98543435,-0.084545165,0
-1.1928892,-4.6900749,-1.2817056,-0.14755063,-0.98543435,-0.084545165,0
1.7369238,2.5712798,1.0034361,0.88481545,-0.16971409,0.43393385,0
-1.7467579,-4.6603026,-1.2417214,-0.14755063,-0.98543435,-0.084545165,0
0.46747532,1.8048732,1.5532717,0.13935235,-0.10534105,0.98462379,0
1.910553,3.3034821,1.0689852,0.85483181,-0.17005607,0.4902482,0
1.0783378,5.0373096,-0.42688179,0.14755063,0.98543435,0.084545165,0
-1.9553089,-4.6286645,-1.2938046,-0.14755063,-0.98543435,-0.084545165,0
1.260462,4.7737255,0.4130719,0.14755063,0.98543435,0.084545165,0
0.62804133,4.8325567,0.7264598,0.14755063,0.98543435,0.084545165,0
1.0732372,4.9413533,-0.088407338,0.14755063,0.98543435,0.084545165,0
-0.040338844,-5.1136389,0.84193587,-0.14755063,-0.98543435,-0.084545165,0
-0.31031418,2.6353552,1.6119924,-0.41856644,-0.015234079,0.90805829,0
-0.79271066,2.7038159,1.219854,-0.80266786,0.069361657,0.59237921,0
-0.21363595,5.1861639,0.051969454,0.14755063,0.98543435,0.084545165,0
-0.69243789,2.6026714,1.3395399,-0.7159217,0.047434233,0.6965673,0
-0.85970795,-4.7134995,-1.8927637,-0.14755063,-0.98543435,-0.084545165,0
1.7640866,1.7678915,0.22326668,0.98895675,-0.14579464,-0.026614875,0
0.56524283,-4.0713081,-1.2648826,0.80917519,-0.071119495,-0.5832473,0
0.98980194,-1.9979861,-0.87288225,0.87637573,-0.090638258,-0.47302246,0
0.47126392,5.1209016,-0.31284496,0.14755063,0.98543435,0.084545165,0
0.091865212,2.3028734,-1.2583182,-0.14093068,0.10555612,-0.98437607,0
0.55555314,-5.0331545,-0.83801359,-0.14755063,-0.98543435,-0.084545165,0
-0.92917436,-4.62499,-1.811359,-0.13416198,0.10463221,-0.98541999,0
1.0315804,4.7541327,1.7511324,0.14755063,0.98543435,0.084545165,0
1.1284885,4.6759129,1.8241352,0.14755063,0.98543435,0.084545165,0
1.004505,4.9642367,-0.67649645,0.14755063,0.98543435,0.084545165,0
-0.39361072,-4.9459157,-1.6513565,-0.14755063,-0.98543435,-0.084545165,0
0.44982609,-1.153962,1.3087605,0.3938303,-0.13694978,0.90892375,0
0.36806774,-0.58800638,-1.3951905,0.3171615,0.033824492,-0.94776809,0
0.32385385,0.1013879,-1.4069767,0.24733655,0.0460013,-0.96783698,0
-0.98244005,-3.0518062,1.1409824,-0.30114722,-0.036660273,0.95287263,0
0.49746883,5.029171,0.50211006,0.14755063,0.98543435,0.084545165,0
0.98399305,-0.48090738,1.1643344,0.68008685,-0.16315207,0.71474683,0
2.1320992,4.6182742,0.75667977,0.14755063,0.98543435,0.084545165,0
-0.450793,3.3009872,1.5252119,-0.54322225,0.0093095899,0.83953726,0
1.4357035,0.13208342,-0.66896057,0.88750517,-0.094188206,-0.4510687,0
1.5521129,1.232952,0.77756536,0.88252282,-0.16976745,0.43855715,0
0.3911311,-5.1087561,-0.91557753,-0.14755063,-0.98543435,-0.084545165,0
-1.0910137,-0.067426942,-0.97797352,-0.73822689,0.16661577,-0.6536513,0
1.0364386,-3.3144133,0.23538549,0.9304539,-0.16728672,0.3259916,0
0.55486274,3.3577669,-1.2914813,0.015463561,0.083171867,-0.99641514,0
-1.0510782,-1.8560648,-1.4997839,-0.46254936,0.144309,-0.87477022,0
-0.57472873,4.3485093,-0.49212503,-0.82866973,0.16983666,-0.53334963,0
-0.17604205,4.9609776,0.49289024,0.14755063,0.98543435,0.084545165,0
-0.46186638,-5.0265851,-0.030342013,-0.14755063,-0.98543435,-0.084545165,0
1.507823,4.9107838,0.3143422,0.14755063,0.98543435,0.084545165,0
-1.0119677,-4.9628391,-0.47894871,-0.14755063,-0.98543435,-0.084545165,0
-1.3238127,-0.51812744,-0.92728651,-0.78927511,0.16883039,-0.59037364,0
0.32918528,3.3721182,1.7775675,-0.091514811,-0.071511544,0.99323261,0
0.74622142,-1.3551368,-1.3824545,0.58479732,-0.017984763,-0.81097996,0
-1.1796381,2.3100429,0.3696292,-0.98172998,0.1355381,0.13354993,0
0.36669382,-4.2546329,0.8613652,0.61498022,-0.15835656,0.7724781,0
0.59427321,-1.5544277,-1.4780306,0.51953977,-0.0044854656,-0.85443443,0
-1.3106103,-5.0419655,0.7897988,-0.14755063,-0.98543435,-0.084545165,0
-0.42028224,-4.7134166,-1.9655986,0.22534607,0.049737636,-0.97300828,0
-1.2834499,-4.7590394,-1.4327632,-0.14755063,-0.98543435,-0.084545165,0
-1.5182509,-0.53887773,0.53639388,-0.94281012,0.11430445,0.31311902,0
1.2756174,0.64548576,1.0342617,0.74628812,-0.16702281,0.64432698,0
-1.4881153,-0.46083385,-0.32263041,-0.96373093,0.16246586,-0.21172488,0
-1.421417,-3.741739,-1.6770687,-0.49939486,0.14801283,-0.85363734,0
0.75308955,-5.2182822,-0.069642819,-0.14755063,-0.98543435,-0.084545165,0
-0.066483825,-1.8252087,-1.631214,0.22720736,0.049423184,-0.97259146,0
-2.0891957,-4.624042,-0.44296753,-0.14755063,-0.98543435,-0.084545165,0
1.6221865,4.8463869,0.57866162,0.14755063,0.98543435,0.084545165,0
0.20755856,4.9599566,0.083682045,0.14755063,0.98543435,0.084545165,0
-0.5650627,-5.0968194,0.12338406,-0.14755063,-0.98543435,-0.084545165,0
0.59882516,4.8815989,1.2726463,0.14755063,0.98543435,0.084545165,0
