0.24735701,-0.74738431,2.2557206,0.081766993,0.24123335,0.96701646,0
-0.15353994,-1.171731,-1.7960445,-0.081766993,-0.24123335,-0.96701646,0
0.20665008,-0.23645604,2.0449233,0.081766993,0.24123335,0.96701646,0
-0.87494123,0.17091787,2.1927471,0.081766993,0.24123335,0.96701646,0
-0.6987378,1.6787453,1.810191,0.081766993,0.24123335,0.96701646,0
-0.6090526,-0.54529214,2.1695919,0.081766993,0.24123335,0.96701646,0
-1.0263965,-0.99020481,0.83133328,-0.65303242,-0.72000247,0.2348308,0
0.41670305,1.8040628,0.8744303,0.20939675,0.9444508,-0.25331008,0
-0.37021965,-1.5496094,-1.5784899,-0.081766993,-0.24123335,-0.96701646,0
-0.60488218,1.1587354,1.8187869,0.081766993,0.24123335,0.96701646,0
0.26097924,0.87621701,-2.0972373,0.27212983,0.92799288,-0.25450891,0
-0.42428789,-0.82112777,2.1638615,-0.33061275,-0.90876049,0.2546562,0
1.5228983,0.29270908,-0.074216664,0.9813872,0.14967512,-0.12032032,0
-0.13109475,0.28141403,1.9976418,0.081766993,0.24123335,0.96701646,0
0.30445206,-1.4988022,-0.19339705,0.20320287,-0.95391983,0.22078449,0
1.5093826,-0.44539845,0.12769485,0.93012017,-0.36702853,0.012912363,0
1.1338149,-0.67264009,2.1608381,0.64953113,-0.74881095,0.1318779,0
-1.5601729,-0.25902802,-0.26140442,-0.99089575,-0.084450245,0.10485324,0
-0.23757198,-0.30302095,-1.916737,-0.081766993,-0.24123335,-0.96701646,0
0.79622,1.3349259,0.091170669,0.52458155,0.81457239,-0.24756116,0
-1.5062585,-0.36815917,-1.7580681,-0.081766993,-0.24123335,-0.96701646,0
0.10691063,0.48092389,-2.2929556,-0.081766993,-0.24123335,-0.96701646,0
-1.5377976,-0.82561862,-1.2449485,-0.93186909,-0.32559809,0.16001937,0
0.39929771,1.6529441,1.6961676,0.081766993,0.24123335,0.96701646,0
1.3189934,-0.76353043,-0.76396477,0.92202717,-0.38668337,0.018499821,0
-0.58985883,-1.1040052,-1.7146358,-0.081766993,-0.24123335,-0.96701646,0
-0.68821853,1.4193308,0.0083143711,-0.45222813,0.87361324,-0.17969447,0
-1.3966255,0.73266184,0.47620296,-0.90217638,0.43024901,-0.031046301,0
0.18392828,-1.208729,-1.8778795,-0.081766993,-0.24123335,-0.96701646,0
0.16581064,-1.6518996,-1.6835924,-0.081766993,-0.24123335,-0.96701646,0
0.0070903152,-0.89193296,-1.7962911,-0.081766993,-0.24123335,-0.96701646,0
-0.18071482,0.077567577,2.0056877,0.081766993,0.24123335,0.96701646,0
-1.5425214,-0.70803738,-1.8098745,-0.081766993,-0.24123335,-0.96701646,0
-1.0476325,0.1141814,2.0532489,0.081766993,0.24123335,0.96701646,0
0.092339247,0.30312252,-2.2395597,-0.081766993,-0.24123335,-0.96701646,0
0.33169162,-0.5328685,2.0746906,0.081766993,0.24123335,0.96701646,0
-0.47434658,-0.12806487,2.2062969,0.081766993,0.24123335,0.96701646,0
-0.78845656,0.68231344,-2.2059078,-0.081766993,-0.24123335,-0.96701646,0
1.1909574,1.3634092,1.0990734,0.65626907,0.71719319,-0.23440367,0
1.3511655,-0.060785651,-1.66379,0.9606325,0.23941223,-0.14095142,0
0.38471815,-1.3416932,0.49082446,0.29164663,-0.93358523,0.2082333,0
0.90872347,-0.1346333,-2.0391197,-0.081766993,-0.24123335,-0.96701646,0
0.39246991,1.2498853,-1.2217189,0.27190894,0.92805839,-0.25450653,0
-0.65204757,1.5687169,1.2677987,-0.50286269,0.84769464,-0.16894728,0
0.80712211,-0.66460609,-1.9464189,-0.081766993,-0.24123335,-0.96701646,0
-1.4321903,-0.37318665,0.64488274,-0.9388926,-0.30686182,0.15593919,0
0.47101718,-1.582197,-0.35557115,0.3179144,-0.92589241,0.2040931,0
-0.1355066,1.1164141,1.7415509,0.081766993,0.24123335,0.96701646,0
0.54725075,0.56521857,1.8730366,0.081766993,0.24123335,0.96701646,0
0.64158517,-0.17434931,2.0724695,0.081766993,0.24123335,0.96701646,0
-0.77317375,1.4522121,0.88200867,-0.55594134,0.81633019,-0.15663499,0
1.2164339,-0.84543359,-0.7305153,0.88090438,-0.47132888,0.043092757,0
-0.63646632,0.14788747,-2.0866604,-0.081766993,-0.24123335,-0.96701646,0
1.5686276,-0.25327349,0.70938361,0.95259613,-0.3042028,-0.0046607107,0
0.35558012,1.0824342,-1.7289346,0.3084054,0.91651905,-0.25471401,0
0.59851074,1.304981,-0.13053107,0.41985992,0.87163013,-0.25294,0
-0.086046785,1.8799403,1.6634474,0.081766993,0.24123335,0.96701646,0
-1.4784786,0.29065293,1.1713213,-0.99584478,0.058811244,0.069533452,0
0.57429874,-0.0052804947,2.1192591,0.081766993,0.24123335,0.96701646,0
0.76236558,0.4860481,1.8969806,0.081766993,0.24123335,0.96701646,0
0.78234625,-0.22519577,2.0131462,0.081766993,0.24123335,0.96701646,0
0.72620118,1.7528543,1.3248208,0.44250637,0.86060005,-0.25210339,0
-1.4411662,0.50371426,-0.281932,-0.93147588,0.36360776,-0.011944383,0
1.3490975,-0.23816478,-1.6565819,0.99452752,0.043564063,-0.094960794,0
1.434912,0.035922527,1.8897893,0.081766993,0.24123335,0.96701646,0
1.1403985,0.63999331,1.7190962,0.081766993,0.24123335,0.96701646,0
-1.2369162,0.9533968,1.5965418,-0.93712187,0.34891573,-0.0078018606,0
-0.8286283,-0.86739051,1.2016727,-0.58868945,-0.77123195,0.24217016,0
-0.25197369,0.29008365,-2.053937,-0.081766993,-0.24123335,-0.96701646,0
0.63647753,0.12762761,1.9439523,0.081766993,0.24123335,0.96701646,0
-1.0117288,0.79167724,-1.4963322,-0.6142891,0.77625346,-0.14170378,0
1.0626535,0.98910439,-0.39388764,0.69655013,0.68012995,-0.22856379,0
-0.60130763,0.40213847,-2.1501431,-0.081766993,-0.24123335,-0.96701646,0
0.71907854,-1.20364,0.83630764,0.48954952,-0.85487115,0.17186332,0
1.1754729,0.16609013,-2.1725297,-0.081766993,-0.24123335,-0.96701646,0
-1.4679155,-0.061098456,-0.19976772,-0.99632537,0.044611119,0.073116481,0
0.67377824,-1.2639433,1.0265833,0.34855792,-0.91591561,0.19901323,0
-1.5138539,0.061426282,-0.87744826,-0.97725135,0.20991452,0.030266792,0
-1.308018,0.12914371,1.6223644,-0.97617155,-0.17630053,0.12652132,0
-1.1183313,-0.14832735,2.1585081,0.081766993,0.24123335,0.96701646,0
-0.8601079,0.50425434,1.9996054,0.081766993,0.24123335,0.96701646,0
0.86795449,-0.94334388,1.3207744,0.47929692,-0.86021888,0.17406428,0
0.7212944,0.42567289,1.9395983,0.081766993,0.24123335,0.96701646,0
-0.055698842,-1.3770001,-1.752612,-0.081766993,-0.24123335,-0.96701646,0
1.4518629,0.42107511,0.66847634,0.97434032,0.18480392,-0.1284878,0
-0.76417565,-1.2976584,-1.6835295,-0.081766993,-0.24123335,-0.96701646,0
-1.385049,0.23435652,1.834789,-0.99225324,-0.071350962,0.10170026,0
-1.5702723,-0.20996058,-1.9253495,-0.97804803,0.20601611,0.031306654,0
0.30187258,1.6785452,0.37570059,0.19436243,0.94777697,-0.25286865,0
-1.4345299,0.48466274,0.27641511,-0.95781887,0.28722161,0.0093384981,0
-0.95862663,1.3717306,1.7174438,0.081766993,0.24123335,0.96701646,0
-0.84845167,0.54415226,-2.1789186,-0.081766993,-0.24123335,-0.96701646,0
-1.4869298,-0.049419284,-1.4880257,-0.95895892,0.28335467,0.010399535,0
0.6198923,-0.36808085,-2.0120957,-0.081766993,-0.24123335,-0.96701646,0
1.122228,1.1024907,-0.11247146,0.74471289,0.63003331,-0.22013909,0
-1.0925044,1.1093916,0.82145023,-0.80715394,0.58520097,-0.077735603,0
1.4738584,-0.43368387,1.3477271,0.8762542,-0.47968963,0.045571655,0
-1.4091351,-0.16215068,1.0568446,-0.94134998,-0.30001539,0.15443912,0
1.4057606,0.53174579,1.8803645,0.081766993,0.24123335,0.96701646,0
0.1268259,-1.5632265,0.16996396,0.16013339,-0.96083957,0.22615236,0
0.69614959,0.22141552,-2.2823062,-0.081766993,-0.24123335,-0.96701646,0
1.2581233,-0.96869928,-1.7923286,0.94091624,-0.33860436,0.0049087405,0
1.537209,0.52493709,0.27507237,0.95092064,0.27165285,-0.14817297,0
1.2733153,-0.59501904,0.93630767,0.86395657,-0.50088519,0.051898986,0
1.4120036,0.96294385,1.4300649,0.91005963,0.37750322,-0.17112356,0
-0.57159483,-1.6900609,-0.54556465,-0.33964059,-0.90544325,0.25459212,0
0.16309547,-0.59722936,-1.9236153,-0.081766993,-0.24123335,-0.96701646,0
-0.18713504,1.0615793,1.823163,0.081766993,0.24123335,0.96701646,0
-0.61772382,1.609745,1.2767521,-0.51943111,0.83838677,-0.16522437,0
-1.307753,0.79339039,1.8206697,-0.95985126,0.28028509,0.011240751,0
-0.76569325,1.0122592,-2.050575,-0.38689381,0.90185797,-0.19226485,0
-0.26924145,-0.89760423,-1.7682346,-0.081766993,-0.24123335,-0.96701646,0
-0.08008337,0.68743002,1.9331027,0.081766993,0.24123335,0.96701646,0
1.5126967,0.39062315,0.10557613,0.96405977,0.2269545,-0.13813347,0
-0.61293221,1.142368,-1.550693,-0.2809141,0.93650538,-0.20986933,0
-0.60270393,-1.34921,0.018494129,-0.33714947,-0.9063682,0.25461227,0
0.55682099,-0.29502988,2.1111116,0.081766993,0.24123335,0.96701646,0
0.27489403,0.65049458,1.9469911,0.081766993,0.24123335,0.96701646,0
-0.55624586,1.4751945,0.49759799,-0.37098747,0.9079082,-0.19511908,0
-1.3367523,-0.28927153,0.83801824,-0.95673144,-0.25285685,0.14397544,0
0.74188465,-1.373714,-0.34412009,0.48916245,-0.85507578,0.171947,0
1.5234587,0.043780684,1.8931007,0.081766993,0.24123335,0.96701646,0
-1.1328237,0.58704066,-2.0504959,-0.081766993,-0.24123335,-0.96701646,0
0.67897314,-0.97514975,-1.8522968,-0.081766993,-0.24123335,-0.96701646,0
0.73440361,-0.45647538,-1.9699726,-0.081766993,-0.24123335,-0.96701646,0
0.83598465,-0.042476654,-2.0349782,-0.081766993,-0.24123335,-0.96701646,0
0.65754443,0.2072041,2.0516901,0.081766993,0.24123335,0.96701646,0
1.4147668,-0.23501344,0.0096072853,0.97254193,-0.23143575,-0.024499863,0
0.7160635,1.7062814,1.5421435,0.081766993,0.24123335,0.96701646,0
-1.2496333,0.85548186,-0.84400332,-0.75117844,0.65259081,-0.099279761,0
0.54472262,-0.33863509,-2.0645974,-0.081766993,-0.24123335,-0.96701646,0
1.1585478,-1.0873995,-1.7720915,0.92340684,-0.38342091,0.017569304,0
0.81231129,1.459525,1.557253,0.081766993,0.24123335,0.96701646,0
-0.64154232,-0.25347948,-2.0464511,-0.081766993,-0.24123335,-0.96701646,0
0.86106479,-0.90741837,1.5399556,0.56503844,-0.81048757,0.15440828,0
-0.75694007,-0.030171871,-2.0848191,-0.081766993,-0.24123335,-0.96701646,0
-0.92766047,-0.62819791,-1.8606951,-0.081766993,-0.24123335,-0.96701646,0
-1.4788061,-0.11170644,1.0571778,-0.96811599,-0.21128981,0.13456869,0
-0.89273179,-1.7236086,-1.5976218,-0.081766993,-0.24123335,-0.96701646,0
1.3683568,-0.18698657,-1.4824222,0.99182451,0.075684763,-0.10274512,0
0.97626233,-0.94481957,0.57892156,0.68328488,-0.71991873,0.12181634,0
0.69148731,0.78142118,-2.4084244,-0.081766993,-0.24123335,-0.96701646,0
0.40935004,-0.59275532,-1.8763605,-0.081766993,-0.24123335,-0.96701646,0
-0.70228362,-0.82556999,-1.7920022,-0.081766993,-0.24123335,-0.96701646,0
0.72464085,0.38894999,-2.1922455,-0.081766993,-0.24123335,-0.96701646,0
-0.87911093,1.1585127,-0.79447818,-0.49068391,0.85426986,-0.17161727,0
-1.3512647,0.47054851,1.9984063,0.081766993,0.24123335,0.96701646,0
0.34737104,-1.1843113,1.305405,0.19077232,-0.9561131,0.22238266,0
-0.20614088,0.76445818,-2.2301955,-0.081766993,-0.24123335,-0.96701646,0
0.57063264,0.28912306,-2.2617979,-0.081766993,-0.24123335,-0.96701646,0
-0.96944785,1.4051673,1.5322798,-0.77303612,0.62776667,-0.091238916,0
-0.54714602,0.17517793,2.105083,0.081766993,0.24123335,0.96701646,0
0.52108049,1.7065458,0.62429738,0.33219972,0.90818435,-0.2546466,0
1.2583058,-0.85030669,-0.79331708,0.91459239,-0.40370151,0.023373842,0
-1.1937567,-1.0684333,-0.073855996,-0.720806,-0.65576124,0.22453576,0
0.38092312,-0.30646956,2.1035068,0.081766993,0.24123335,0.96701646,0
0.844383,-1.2080116,0.48413646,0.576424,-0.80297083,0.15157038,0
1.1496614,0.61061442,-1.5848011,0.79642022,0.56751215,-0.20891458,0
-0.98541212,1.2136444,1.8250527,0.081766993,0.24123335,0.96701646,0
-1.1283015,1.2336349,1.634974,-0.81663787,0.57242006,-0.07374531,0
0.65710306,0.56633639,-2.3255396,-0.081766993,-0.24123335,-0.96701646,0
-0.78004074,-0.19776726,-1.8726544,-0.081766993,-0.24123335,-0.96701646,0
1.4035317,-0.6810056,-0.96016055,0.93716544,-0.34879929,0.0077691674,0
0.84979463,-0.84365606,2.197145,0.081766993,0.24123335,0.96701646,0
-0.47941774,-1.7731615,-1.6578306,-0.081766993,-0.24123335,-0.96701646,0
-1.059139,1.3048478,1.8969485,0.081766993,0.24123335,0.96701646,0
-0.61820358,0.34371758,-2.1955693,-0.081766993,-0.24123335,-0.96701646,0
0.36213976,-0.50447047,-2.0121815,-0.081766993,-0.24123335,-0.96701646,0
-1.6337597,-0.71923029,-1.8431213,-0.081766993,-0.24123335,-0.96701646,0
0.64911872,0.59622145,-2.1725893,-0.081766993,-0.24123335,-0.96701646,0
1.0021198,1.2428727,0.35894471,0.67576563,0.69975382,-0.23170173,0
-0.036132783,-0.95301193,-1.7757218,-0.081766993,-0.24123335,-0.96701646,0
-1.1743579,0.91090345,2.0177462,-0.9410581,0.33821157,-0.00479877,0
-1.2641298,0.64638805,2.0693634,0.081766993,0.24123335,0.96701646,0
-1.3311969,0.74766058,-1.0136459,-0.80316252,0.59044796,-0.079382002,0
0.052541703,-1.81718,-1.6877936,-0.081766993,-0.24123335,-0.96701646,0
-0.66453195,-1.6726099,-1.1415966,-0.38172397,-0.88869834,0.25397325,0
0.98128617,-0.20382881,2.0564797,0.081766993,0.24123335,0.96701646,0
0.2649262,0.54874253,1.8713295,0.081766993,0.24123335,0.96701646,0
1.3667656,0.083552241,1.852859,0.081766993,0.24123335,0.96701646,0
0.73087895,1.5829254,1.5154637,0.081766993,0.24123335,0.96701646,0
-1.6043919,-0.20879737,-0.056736559,-0.99394161,-0.051765408,0.096957177,0
-0.15112409,0.86876261,1.7645897,0.081766993,0.24123335,0.96701646,0
-1.0169876,-0.48644328,2.3754644,0.081766993,0.24123335,0.96701646,0
1.15369,-0.90158868,-1.2085187,0.89745647,-0.43980452,0.033829093,0
-0.1196869,0.16049802,1.9610482,0.081766993,0.24123335,0.96701646,0
-0.24197754,-0.75896585,2.2180767,0.081766993,0.24123335,0.96701646,0
-1.3786174,0.42365682,0.36717838,-0.98430765,0.171781,0.040376283,0
1.1113415,-1.191424,-1.1386602,0.79601151,-0.59966254,0.082285285,0
-0.28811112,0.64888167,-2.271471,-0.081766993,-0.24123335,-0.96701646,0
0.1380863,1.0815256,-1.9448496,0.16755664,0.95312798,-0.25193685,0
-1.2065979,0.69435894,-1.4885367,-0.70055908,0.70403826,-0.11639416,0
-1.5911781,-0.80192196,-1.2683451,-0.94873458,-0.27839246,0.14966944,0
-1.0472271,-1.0276768,0.12114108,-0.69042504,-0.68602878,0.22951746,0
-0.27796042,0.001103282,-1.9594136,-0.081766993,-0.24123335,-0.96701646,0
0.59609711,-0.23395693,1.9755764,0.081766993,0.24123335,0.96701646,0
-0.07060346,1.6093453,1.5731153,0.081766993,0.24123335,0.96701646,0
0.93178469,0.81884819,-0.87999177,0.71613359,0.66058552,-0.22534412,0
-1.3710167,-0.64464486,0.31031394,-0.87948358,-0.43897581,0.18387324,0
0.14728975,-1.523479,-1.7143743,-0.081766993,-0.24123335,-0.96701646,0
-1.2522444,-0.36545402,0.66239774,-0.91389453,-0.36895713,0.16931587,0
-0.8870486,-0.51729476,2.1479049,-0.67124975,-0.70387405,0.23234773,0
0.68945372,1.1423016,-0.92501104,0.49663663,0.83135986,-0.24938595,0
-1.5625926,-0.28405988,-1.4339945,-0.99622339,0.04822525,0.072206259,0
1.3076936,-0.84812194,-1.7808902,0.9551819,-0.29593903,-0.0069408864,0
1.051038,-0.39659953,2.017571,0.081766993,0.24123335,0.96701646,0
-0.36213732,1.0860389,-1.488456,-0.22752663,0.94916171,-0.21754068,0
0.77067131,0.95995456,1.6629519,0.081766993,0.24123335,0.96701646,0
0.43273365,-1.8547879,-1.6856711,-0.081766993,-0.24123335,-0.96701646,0
1.2517272,-0.96318328,-1.9936812,-0.081766993,-0.24123335,-0.96701646,0
1.0595237,-0.93033123,0.37206286,0.75480098,-0.64859575,0.097976863,0
0.083905965,-1.4264896,0.8391006,0.066293746,-0.96943307,0.23623085,0
1.3279306,-0.40447986,-1.3572638,0.9965995,-0.009854042,-0.081810214,0
-1.4088091,0.35200804,-0.45901248,-0.94556046,0.32544473,-0.0012332201,0
-1.1957183,-0.23093092,-1.81407,-0.081766993,-0.24123335,-0.96701646,0
-1.4874123,0.25191259,-1.3981925,-0.92694372,0.37489522,-0.015143394,0
0.19394626,0.29042792,1.9917128,0.081766993,0.24123335,0.96701646,0
-0.986058,0.112427,2.1887779,0.081766993,0.24123335,0.96701646,0
-0.1061554,-0.80079222,-1.873471,-0.081766993,-0.24123335,-0.96701646,0
-0.91994768,-1.1680994,0.27202582,-0.58294225,-0.77541119,0.24272662,0
0.94507611,-1.2991476,-0.92185521,0.72175133,-0.683442,0.10946429,0
-0.7410273,-0.27504754,2.2742255,0.081766993,0.24123335,0.96701646,0
0.44095528,1.2143997,1.7294105,0.081766993,0.24123335,0.96701646,0
0.33937448,-0.59367168,-1.9905314,-0.081766993,-0.24123335,-0.96701646,0
0.74180049,-0.22726893,-2.0479507,-0.081766993,-0.24123335,-0.96701646,0
-0.80306768,-0.76020968,1.4509468,-0.64514953,-0.72674549,0.23584634,0
0.086922914,0.65053034,-2.2430005,-0.081766993,-0.24123335,-0.96701646,0
-0.85118997,1.3913488,0.60646719,-0.62471926,0.76840293,-0.13886338,0
-0.84507138,-0.87848556,0.80316985,-0.65550107,-0.71786189,0.23450547,0
-1.2225661,0.68803084,-1.2553549,-0.71469873,0.69043875,-0.11180598,0
-1.0312352,-1.1080737,-1.7906411,-0.081766993,-0.24123335,-0.96701646,0
0.23686302,0.54523206,-2.283664,-0.081766993,-0.24123335,-0.96701646,0
0.6199553,0.97567892,-1.3513447,0.46185285,0.85062635,-0.2512511,0
1.5183669,0.14591137,0.022786513,0.98559624,0.12454585,-0.11440745,0
-0.060976133,0.9208765,1.7897204,0.081766993,0.24123335,0.96701646,0
-0.57337487,-0.85974073,2.0054653,-0.50975919,-0.82362658,0.24856651,0
-0.91969335,1.3480505,0.4137159,-0.64221239,0.75472826,-0.13397288,0
1.1775714,-1.1969857,-1.8837755,-0.081766993,-0.24123335,-0.96701646,0
1.4429513,0.83036804,1.6617466,0.081766993,0.24123335,0.96701646,0
-0.60414517,0.72176898,-2.1580904,-0.081766993,-0.24123335,-0.96701646,0
-0.57221943,-0.12915802,2.239198,0.081766993,0.24123335,0.96701646,0
-0.71614897,1.1613903,1.816184,0.081766993,0.24123335,0.96701646,0
-1.2233721,0.86134607,1.4441602,-0.94136798,0.33735177,-0.0045580864,0
0.6440866,0.62372804,1.8465679,0.081766993,0.24123335,0.96701646,0
-0.40086758,0.57293057,2.0498536,0.081766993,0.24123335,0.96701646,0
1.1861839,-0.80262375,1.1910496,0.6662699,-0.73482168,0.12697279,0
0.00086767972,0.74430358,1.8704879,0.081766993,0.24123335,0.96701646,0
-1.5144408,-0.53365707,-1.7740321,-0.081766993,-0.24123335,-0.96701646,0
-0.93240094,1.1001785,0.41177979,-0.70959312,0.69541389,-0.11347884,0
0.81704992,1.2210779,-0.47105265,0.50647914,0.82558393,-0.24877745,0
-1.6437682,-0.087899566,-0.61969543,-0.99573463,0.06138707,0.068881556,0
1.0283813,-1.357689,-1.3904973,0.80334163,-0.59021431,0.079308569,0
-1.0712274,0.92603248,-0.79113472,-0.67340255,0.72866046,-0.12483269,0
1.6522228,0.43544447,1.7000914,0.99664271,-0.015673358,-0.080362178,0
-0.65754092,0.8449403,-2.2133679,-0.081766993,-0.24123335,-0.96701646,0
1.4810179,0.93650872,1.1453673,0.90941316,0.37892255,-0.17142299,0
1.0415868,-0.78594089,-2.0113993,-0.081766993,-0.24123335,-0.96701646,0
1.125473,1.1348995,1.6404464,0.081766993,0.24123335,0.96701646,0
-0.2730884,0.039662123,2.0383792,0.081766993,0.24123335,0.96701646,0
0.78773975,-1.3150188,0.073656201,0.49178988,-0.85368192,0.17137712,0
-1.1174277,-1.6118132,-1.5119275,-0.6192807,-0.7479291,0.23894358,0
-0.89974284,-0.92683643,0.77587914,-0.67592525,-0.69960737,0.23167878,0
-0.26585492,0.37196469,-2.0521526,-0.081766993,-0.24123335,-0.96701646,0
-1.5471503,-0.69245774,-0.49557057,-0.9474991,-0.28212863,0.15049699,0
1.557289,1.0099024,1.3779606,0.914285,0.36807445,-0.16912869,0
0.87511009,0.54020309,-2.0246856,0.69290847,0.68364906,-0.22913378,0
0.7776556,-0.96009588,-1.8987216,-0.081766993,-0.24123335,-0.96701646,0
0.4829177,1.347789,-0.45362377,0.38173425,0.88869387,-0.25397301,0
-0.64611709,-0.70085704,2.2636118,-0.57272696,-0.7826907,0.24367881,0
-0.65418041,1.1334468,1.8714032,0.081766993,0.24123335,0.96701646,0
-0.70959008,0.99047416,1.7868354,0.081766993,0.24123335,0.96701646,0
1.2632238,0.80513507,-0.33086497,0.84756666,0.4936395,-0.19481099,0
0.63548601,1.6283953,1.5796934,0.081766993,0.24123335,0.96701646,0
-0.34256989,0.036323547,1.9862328,0.081766993,0.24123335,0.96701646,0
-1.2966558,0.41629624,-1.2551411,-0.84433389,0.53228945,-0.061392426,0
0.4341172,-1.6304326,-0.53663856,0.34297746,-0.91781431,0.19995862,0
1.4495413,0.6199981,0.51544529,0.9621104,0.23412028,-0.1397562,0
-0.24900913,0.27620745,2.0423911,0.081766993,0.24123335,0.96701646,0
1.3924931,0.72531736,1.7482595,0.081766993,0.24123335,0.96701646,0
-0.87942094,0.53721762,-2.0555437,-0.081766993,-0.24123335,-0.96701646,0
0.76817328,1.165655,-0.54040539,0.56028098,0.79130912,-0.24477649,0
1.6604184,0.011560321,1.852337,0.081766993,0.24123335,0.96701646,0
0.86740786,0.37278748,-2.3183553,-0.081766993,-0.24123335,-0.96701646,0
-1.1155574,-0.12192452,2.1702535,0.081766993,0.24123335,0.96701646,0
-1.0603842,0.91809118,-0.25381267,-0.74494851,0.65935653,-0.10149437,0
-0.52185273,1.0160855,-1.6067473,-0.30037141,0.93111664,-0.20687979,0
0.02524057,-1.3960091,-1.6409352,-0.081766993,-0.24123335,-0.96701646,0
-0.8264277,0.23645926,-2.1070204,-0.081766993,-0.24123335,-0.96701646,0
-0.94896638,-0.39982545,2.1133132,-0.78843367,-0.57786411,0.21082169,0
-0.43805355,-0.39874482,2.1657455,0.081766993,0.24123335,0.96701646,0
1.3209984,-0.7230261,-0.18871436,0.88738614,-0.45932773,0.0395509,0
-0.78910911,0.51661432,1.9760973,0.081766993,0.24123335,0.96701646,0
1.6618888,0.77976239,1.5287393,0.96275294,0.23178208,-0.13922724,0
0.15836632,1.6830997,0.93595195,-0.017302722,0.97046286,-0.24063033,0
0.54491615,0.42732966,1.9483843,0.081766993,0.24123335,0.96701646,0
1.5572574,0.7364279,1.8397645,0.081766993,0.24123335,0.96701646,0
-0.37497616,1.1796252,1.8090146,0.081766993,0.24123335,0.96701646,0
-1.6193169,-0.23022163,-1.396812,-0.98943353,0.1362108,0.049683113,0
0.31365764,-0.6116693,2.1574559,0.081766993,0.24123335,0.96701646,0
-1.0286829,1.4359345,1.7857854,0.081766993,0.24123335,0.96701646,0
1.1509998,0.098233461,-2.2139127,-0.081766993,-0.24123335,-0.96701646,0
-0.046923533,-1.83259,-1.0429884,0.051296763,-0.96999806,0.23763996,0
-0.85943431,-0.64549983,2.2335668,-0.61954087,-0.74772292,0.23891401,0
0.15022047,1.6664199,1.7424524,0.081766993,0.24123335,0.96701646,0
0.26036739,1.6804497,1.6426361,0.081766993,0.24123335,0.96701646,0
1.1372839,-1.2699924,-1.8642716,-0.081766993,-0.24123335,-0.96701646,0
-0.68104106,-1.0410477,0.80243421,-0.54022926,-0.80463487,0.24640512,0
-0.73234087,0.96201789,-1.7234677,-0.37106562,0.90787923,-0.19510531,0
1.6308341,0.19780642,0.35248411,0.99654371,-0.005501498,-0.082891285,0
-0.055101778,-0.45582128,-2.0190792,-0.081766993,-0.24123335,-0.96701646,0
0.13552988,1.4757764,-0.3424263,0.06787587,0.96666485,-0.24688524,0
0.789249,-0.54766333,2.0707479,0.081766993,0.24123335,0.96701646,0
-1.5325582,-0.47629797,-1.8151698,-0.081766993,-0.24123335,-0.96701646,0
0.74623901,1.7532877,1.5967472,0.081766993,0.24123335,0.96701646,0
-1.1269984,-0.30011404,1.8782742,-0.83430147,-0.51420969,0.19882077,0
-1.040494,-0.51106334,-1.9475298,-0.081766993,-0.24123335,-0.96701646,0
-1.0751014,0.62554467,2.0678506,0.081766993,0.24123335,0.96701646,0
0.63249803,-0.068410039,2.0120254,0.081766993,0.24123335,0.96701646,0
-0.65622187,-1.4398828,-1.6975604,-0.081766993,-0.24123335,-0.96701646,0
0.9556917,-1.0081329,0.54853225,0.6318894,-0.76287651,0.13687849,0
1.5757865,0.34936726,1.8392603,0.081766993,0.24123335,0.96701646,0
1.4677155,-0.20504364,-0.72329819,0.99662912,-0.013259661,-0.080963157,0
-1.0969199,-0.59560239,0.88437605,-0.82014549,-0.53500402,0.20281112,0
-0.65148687,0.98992705,-2.2190394,-0.30590078,0.92950773,-0.20601082,0
-1.1853671,-0.17783654,-1.8452631,-0.081766993,-0.24123335,-0.96701646,0
-1.3586901,-0.26070678,-1.9593064,-0.081766993,-0.24123335,-0.96701646,0
-0.37428051,-0.99532521,2.0827065,-0.27998775,-0.9256317,0.25458425,0
-0.72328633,1.166343,-0.73565233,-0.4983713,0.85014546,-0.1699385,0
-0.0056890398,0.21615672,-2.2198157,-0.081766993,-0.24123335,-0.96701646,0
-0.11822435,-1.3531647,0.83536494,-0.071185872,-0.96637374,0.24709243,0
1.1734942,0.94333267,-0.25636506,0.80931228,0.5501895,-0.20568341,0
-0.25305828,1.5913675,0.25550771,-0.14706992,0.96256393,-0.22768718,0
-0.40721667,-1.8655589,-1.1903644,-0.15369849,-0.95560634,0.25138324,0
-0.9440006,0.82638121,1.8904443,0.081766993,0.24123335,0.96701646,0
1.2065434,0.55330944,1.8908795,0.081766993,0.24123335,0.96701646,0
-0.34309411,-0.52642882,-1.9165854,-0.081766993,-0.24123335,-0.96701646,0
-1.5801306,-0.92298478,-1.4248919,-0.93936783,-0.30554974,0.15565214,0
-0.86446697,1.2670085,-0.062573552,-0.60296267,0.78453195,-0.14472657,0
1.4125071,-0.66665977,-0.81779993,0.96888596,-0.24666715,-0.020391062,0
-1.5780796,-0.057814598,-1.2103288,-0.98399192,0.17369746,0.039871503,0
0.44544911,-0.72210622,2.2858868,0.081766993,0.24123335,0.96701646,0
0.93825561,1.162684,1.7837477,0.081766993,0.24123335,0.96701646,0
1.0168433,-1.0084672,0.24254441,0.6895901,-0.7142126,0.1198597,0
-0.1929417,1.8045485,1.1029649,-0.15259065,0.96185625,-0.22704375,0
0.45950705,0.59513497,-2.2491717,-0.081766993,-0.24123335,-0.96701646,0
-1.4134445,0.69606167,1.4992943,-0.96176916,0.27354965,0.013083145,0
0.78986514,-1.1002172,0.85384965,0.49518311,-0.85186672,0.17063743,0
1.1483694,0.022872567,-2.1102984,-0.081766993,-0.24123335,-0.96701646,0
0.29137993,-1.5031834,0.13541961,0.17193225,-0.95913321,0.22472918,0
-1.5480134,0.27650177,-1.3840413,-0.93159878,0.36329517,-0.01185599,0
0.75960177,-0.36924934,-2.0094166,-0.081766993,-0.24123335,-0.96701646,0
1.012921,0.65604436,1.7866421,0.081766993,0.24123335,0.96701646,0
0.26824671,-1.5560533,-1.7439954,-0.081766993,-0.24123335,-0.96701646,0
1.074996,-0.81417227,1.3107424,0.66847104,-0.73293346,0.12631565,0
-1.5043238,-0.34536856,-0.11017698,-0.98214465,-0.14544065,0.11932804,0
-0.66466498,-0.38581824,2.3044887,0.081766993,0.24123335,0.96701646,0
-0.13312671,1.7753272,1.1226277,-0.2350089,0.94757265,-0.21651167,0
-1.1104666,0.81337565,-0.76728535,-0.71960926,0.68558258,-0.11017942,0
0.37291762,-1.1228447,1.7039366,0.22534636,-0.94961357,0.21783781,0
0.87567246,-0.68650949,-1.8708167,-0.081766993,-0.24123335,-0.96701646,0
0.80047446,1.6595787,1.4844911,0.081766993,0.24123335,0.96701646,0
-0.69579422,-1.2189264,-1.7199848,-0.081766993,-0.24123335,-0.96701646,0
0.24497351,1.1342435,-1.3382045,0.26265937,0.9307487,-0.2543956,0
1.4600387,-0.16257751,1.4944956,0.9216423,-0.38758764,0.018757939,0
-0.42322528,-0.041153193,-1.9715424,-0.081766993,-0.24123335,-0.96701646,0
-0.659145,-0.42902052,-1.9183995,-0.081766993,-0.24123335,-0.96701646,0
-1.4626667,0.11437729,0.14964586,-0.99646229,0.038706731,0.074600965,0
1.4153712,-0.09629786,-0.49873555,0.99663621,-0.014383112,-0.080683485,0
0.82876062,0.15012896,1.928057,0.081766993,0.24123335,0.96701646,0
-0.036005765,0.37185693,1.9147685,0.081766993,0.24123335,0.96701646,0
0.066243082,-1.5668848,0.10663843,0.12309828,-0.96528065,0.23039186,0
-0.12607037,-1.4625642,0.40099835,-0.060768254,-0.96725345,0.24643099,0
1.3177236,-0.28213143,2.1015518,0.081766993,0.24123335,0.96701646,0
-1.2017205,0.12326896,2.0634174,0.081766993,0.24123335,0.96701646,0
-0.052770019,-1.7374322,-0.86477637,0.015256152,-0.97045463,0.24080122,0
-0.71290177,1.1785662,-0.99396944,-0.46304923,0.86838269,-0.17747468,0
1.3167815,1.2163229,1.59735,0.081766993,0.24123335,0.96701646,0
1.6896942,0.86365008,1.734937,0.97140795,0.19770168,-0.13145733,0
1.3156301,-0.59020853,0.51927495,0.90273303,-0.42910394,0.030713528,0
1.6619484,0.52708685,1.3777655,0.98997593,0.09245465,-0.10677224,0
-0.66888934,-1.496099,-0.25578725,-0.46742788,-0.84765548,0.25098145,0
-1.0159338,-0.52614844,1.5334263,-0.75871736,-0.61409187,0.21734649,0
0.97121477,-0.85100579,-1.8972478,-0.081766993,-0.24123335,-0.96701646,0
-0.12553695,1.6324048,0.31737137,-0.18572694,0.95695758,-0.22301996,0
0.54187596,-1.2780726,0.8184036,0.34192783,-0.91816741,0.20013553,0
0.26914388,0.28477597,-2.0902903,-0.081766993,-0.24123335,-0.96701646,0
0.26647764,-0.41890657,2.0653801,0.081766993,0.24123335,0.96701646,0
-0.47063002,-1.1767529,-1.6384214,-0.081766993,-0.24123335,-0.96701646,0
-0.18115708,1.5386229,0.026913643,-0.18057501,0.95779294,-0.22366405,0
0.38442177,-0.4622798,2.2494612,0.081766993,0.24123335,0.96701646,0
1.4458785,-0.19242871,0.69137913,0.95163864,-0.30719656,-0.0038328916,0
1.3243362,0.28524482,-1.1807739,0.92169946,0.35084775,-0.16545823,0
-0.16626726,-1.8345259,-1.0654731,0.006113559,-0.97036856,0.24155283,0
-0.98825616,-1.1582975,0.46066964,-0.6180678,-0.74888796,0.23908025,0
-0.4538883,1.5903683,1.6991225,0.081766993,0.24123335,0.96701646,0
-1.4950978,-0.57820225,-1.8773925,-0.081766993,-0.24123335,-0.96701646,0
-0.60406286,1.6428335,1.2560974,-0.51432788,0.84129912,-0.16638249,0
0.70083678,1.7193007,1.6108295,0.081766993,0.24123335,0.96701646,0
-1.1193708,1.0698065,0.81762701,-0.78955293,0.60778749,-0.084858239,0
-0.092538163,-0.47990096,2.1474113,0.081766993,0.24123335,0.96701646,0
-1.1871161,0.90933496,0.86437362,-0.91251475,0.40829808,-0.024696171,0
-0.81108296,-1.8199151,-1.4835107,-0.081766993,-0.24123335,-0.96701646,0
-0.074267149,0.49736023,2.0023069,0.081766993,0.24123335,0.96701646,0
1.5553606,0.89988267,1.6622703,0.081766993,0.24123335,0.96701646,0
-0.094181731,-0.75892961,2.2409906,0.081766993,0.24123335,0.96701646,0
1.2131379,-0.93017459,-0.37359124,0.79651129,-0.59902614,0.082084298,0
0.60999155,-0.57391846,2.0707409,0.081766993,0.24123335,0.96701646,0
-0.18567121,1.7392025,0.71967483,-0.18982351,0.95627385,-0.22250301,0
-0.4559406,-0.33498955,-1.9468747,-0.081766993,-0.24123335,-0.96701646,0
0.92732441,-1.2824492,0.11668718,0.60446101,-0.78345138,0.14433032,0
-1.4288986,0.3194859,-1.9572123,-0.88052952,0.47201025,-0.04329446,0
-1.3964431,0.34735751,-2.0999031,-0.081766993,-0.24123335,-0.96701646,0
1.6370267,-0.026832938,1.1955585,0.97645193,-0.21374521,-0.029243566,0
0.59104717,0.26281333,1.9153229,0.081766993,0.24123335,0.96701646,0
1.2075996,0.022554159,-2.0894713,-0.081766993,-0.24123335,-0.96701646,0
0.62456465,-1.2945688,0.33575833,0.35864317,-0.91239005,0.19728094,0
-0.64818108,0.76664507,1.9185309,0.081766993,0.24123335,0.96701646,0
-0.87295914,0.99932021,1.8090441,0.081766993,0.24123335,0.96701646,0
-0.56975776,1.2724622,-0.33796954,-0.42962953,0.88401848,-0.184201,0
0.69592184,1.3413109,-0.31969428,0.40954977,0.87642795,-0.25326514,0
1.5735343,-0.27775574,2.0543025,0.87344784,-0.48464036,0.047044009,0
-1.2098963,-0.23659968,2.155643,0.081766993,0.24123335,0.96701646,0
-0.50432211,1.7670703,1.6084807,-0.50336999,0.84741598,-0.16883498,0
-1.4001917,-0.67066139,-0.59446132,-0.94745517,-0.28226057,0.15052617,0
0.12801906,0.32151628,-2.1736798,-0.081766993,-0.24123335,-0.96701646,0
-1.2465918,0.37154174,-2.1118422,-0.081766993,-0.24123335,-0.96701646,0
-1.4389889,-0.74114561,-0.44192785,-0.93443871,-0.31887868,0.15856037,0
1.1338813,-0.89142448,0.17262024,0.78596354,-0.61222506,0.086268842,0
-0.26252562,-1.2865618,0.65268135,-0.25964344,-0.93160588,0.25435436,0
-0.70765936,-0.49490285,-1.9443432,-0.081766993,-0.24123335,-0.96701646,0
-0.66581482,1.1500094,1.8663768,0.081766993,0.24123335,0.96701646,0
0.75890839,0.98492396,-1.6330281,0.51244199,0.82201314,-0.24839085,0
-0.87713581,1.1428113,-0.59984863,-0.52573192,0.83473474,-0.16378051,0
-0.4205184,0.98817146,-2.1811538,-0.18742505,0.9566763,-0.22280627,0
0.82371575,-1.2684469,-0.044443965,0.53434718,-0.82963872,0.16178077,0
-0.17348146,1.4262537,1.6976464,0.081766993,0.24123335,0.96701646,0
0.55434668,1.2831234,-0.55217445,0.31927121,0.9127937,-0.25470334,0
-0.09054248,0.23439336,-2.1828735,-0.081766993,-0.24123335,-0.96701646,0
1.1401836,-1.0565505,-1.3651316,0.8766132,-0.47905132,0.045382082,0
1.1747928,-0.5187993,-2.1279159,-0.081766993,-0.24123335,-0.96701646,0
-1.1033287,-1.0926281,-0.070073724,-0.75662512,-0.61651701,0.21777457,0
1.1331333,-1.3122052,-0.98687756,0.77937752,-0.62022722,0.088821948,0
0.62190568,0.16605806,2.0145051,0.081766993,0.24123335,0.96701646,0
0.31606531,-1.5236115,-1.7196202,-0.081766993,-0.24123335,-0.96701646,0
1.6019565,0.26416361,1.1594913,0.99395555,-0.091057777,-0.061329432,0
-0.51343441,1.0812945,1.9227695,0.081766993,0.24123335,0.96701646,0
-0.97288334,1.2967297,1.0262558,-0.76171315,0.64084411,-0.095458686,0
0.65079486,1.1852727,1.6422435,0.081766993,0.24123335,0.96701646,0
-1.1816845,-0.47441745,-1.8439488,-0.081766993,-0.24123335,-0.96701646,0
-0.21949705,1.8064656,1.1237588,-0.26003957,0.94182134,-0.21296054,0
-1.4255048,0.35124385,0.27238867,-0.98488897,0.16818663,0.041322093,0
0.21197915,-1.7732671,-0.95923167,0.17458393,-0.9587301,0.22440434,0
-0.31000569,-0.55226576,-1.8029412,-0.081766993,-0.24123335,-0.96701646,0
1.1639844,0.39320445,1.867856,0.081766993,0.24123335,0.96701646,0
-1.47881,-0.76229221,-0.92770076,-0.93504936,-0.31725931,0.15820807,0
-1.3921243,0.7736699,1.0479529,-0.93979263,0.3416971,-0.0057752728,0
-0.35039365,0.32491946,2.1178403,0.081766993,0.24123335,0.96701646,0
0.48428449,1.4628719,1.7515903,0.081766993,0.24123335,0.96701646,0
0.14687805,1.7521579,0.64196473,0.0017794631,0.97022855,-0.24218535,0
0.026608855,0.20667005,-2.1745515,-0.081766993,-0.24123335,-0.96701646,0
0.38553086,0.44473219,-2.1718729,-0.081766993,-0.24123335,-0.96701646,0
0.13855961,-0.91240501,2.2875519,0.081766993,0.24123335,0.96701646,0
-0.65719253,1.1052953,-1.2706097,-0.31549585,0.92663348,-0.2044825,0
-1.4167545,0.44666857,-0.89830989,-0.91691095,0.39849234,-0.021878272,0
-0.98922336,1.3665941,0.4707725,-0.65273297,0.74618465,-0.130952,0
-0.54244959,1.085797,1.8913047,0.081766993,0.24123335,0.96701646,0
-1.4399637,0.60072827,1.0423384,-0.97856313,0.20344831,0.031990781,0
-0.26591739,1.3321916,-1.1117791,-0.15980443,0.96088517,-0.2261917,0
-0.0786044,-0.082468033,2.1408396,0.081766993,0.24123335,0.96701646,0
0.95390916,-1.2029784,-1.8335843,-0.081766993,-0.24123335,-0.96701646,0
0.59381056,0.3445785,1.8548791,0.081766993,0.24123335,0.96701646,0
-0.51921129,-1.5426278,-1.7370695,-0.081766993,-0.24123335,-0.96701646,0
0.34445632,-0.38517499,2.196281,0.081766993,0.24123335,0.96701646,0
-1.2107431,0.52773428,-2.1725397,-0.081766993,-0.24123335,-0.96701646,0
-0.08665508,0.68165064,1.8268063,0.081766993,0.24123335,0.96701646,0
0.27453172,-1.4920509,-0.0099155903,0.17863905,-0.95809978,0.22390419,0
1.3656142,0.089018822,2.0229745,0.081766993,0.24123335,0.96701646,0
1.6418661,0.26956892,0.9009403,0.99343199,0.058201749,-0.098519698,0
-0.8798337,0.71888971,-2.0847058,-0.081766993,-0.24123335,-0.96701646,0
-1.3697646,0.33271968,1.8888347,-0.99154109,-0.078443214,0.10340928,0
1.5412451,0.51387662,0.17253894,0.96498787,0.22346424,-0.13734126,0
-1.1383303,0.64236867,-1.5090744,-0.71236706,0.69272017,-0.11257225,0
-0.44029081,0.61937046,1.9112167,0.081766993,0.24123335,0.96701646,0
0.76670545,0.9952454,-1.082086,0.54717708,0.80009413,-0.24585986,0
1.2372743,-0.516379,1.6548642,0.76891619,-0.63258088,0.092788219,0
-0.33125001,-0.72201729,-1.8952757,-0.081766993,-0.24123335,-0.96701646,0
1.1175355,-0.86930573,-1.9701202,-0.081766993,-0.24123335,-0.96701646,0
1.3779081,-0.099932373,-0.8975808,0.99536228,0.029575348,-0.091541722,0
1.5398763,0.86822069,0.84131622,0.91196287,0.37328908,-0.17023319,0
0.0060598031,0.040624022,2.0756359,0.081766993,0.24123335,0.96701646,0
0.098100647,-0.13948631,-1.9758306,-0.081766993,-0.24123335,-0.96701646,0
-0.36426735,1.1155573,-1.7432067,-0.1398326,0.96344501,-0.2285189,0
-1.1935859,-1.5695592,-1.5949267,-0.081766993,-0.24123335,-0.96701646,0
-0.42782879,0.78211498,-2.2304296,-0.081766993,-0.24123335,-0.96701646,0
-0.12220456,-1.5898736,-0.39666426,-0.082324117,-0.96531498,0.24777007,0
-0.33744574,1.858037,1.6905785,0.081766993,0.24123335,0.96701646,0
0.44986889,0.40707552,1.8468091,0.081766993,0.24123335,0.96701646,0
-1.4615148,0.33949456,-0.3963066,-0.95851892,0.28485483,0.0099881142,0
-0.54474401,-0.7107079,2.2983532,0.081766993,0.24123335,0.96701646,0
1.094305,1.5166728,1.0966476,0.63988245,0.73117423,-0.23650593,0
0.6087811,0.18924999,1.9240777,0.081766993,0.24123335,0.96701646,0
1.5457944,0.11549461,1.8691207,0.081766993,0.24123335,0.96701646,0
-0.8373009,0.93690526,1.9180599,0.081766993,0.24123335,0.96701646,0
0.83853889,-0.81759238,-2.0159283,-0.081766993,-0.24123335,-0.96701646,0
-1.3778607,0.27438015,0.99705911,-0.99367738,0.094636455,0.060413163,0
-0.22106495,-0.73014545,2.2611823,0.081766993,0.24123335,0.96701646,0
0.96386176,0.77696055,-0.84242451,0.73266065,0.6432277,-0.22241151,0
1.4701632,-0.094173238,-0.12234095,0.99385601,-0.092357829,-0.060996704,0
-0.56228185,-0.56890523,2.2453425,0.081766993,0.24123335,0.96701646,0
1.0504042,1.0435555,-0.025619864,0.72768134,0.64854449,-0.22331679,0
-1.0831257,1.331247,1.7330503,0.081766993,0.24123335,0.96701646,0
-0.7942521,1.1333514,-0.79068947,-0.50550038,0.84624106,-0.16836172,0
-0.37586787,-0.57565141,2.2463541,0.081766993,0.24123335,0.96701646,0
-0.8384726,-1.6875947,-1.4853786,-0.081766993,-0.24123335,-0.96701646,0
-1.0502541,1.2827421,1.308452,-0.8089866,0.582766,-0.07697314,0
0.14751962,1.4250495,1.7278215,0.081766993,0.24123335,0.96701646,0
1.0010345,1.6003965,1.5162597,0.52587563,0.81376547,-0.24746919,0
-0.10823076,0.57025588,-2.1076841,-0.081766993,-0.24123335,-0.96701646,0
1.1678938,1.6418144,1.4696476,0.6406886,0.73050028,-0.23640591,0
-1.4337747,0.29437307,0.20011419,-0.984523,0.17045961,0.040724132,0
1.5210651,0.90569639,1.6249976,0.93438053,0.31903219,-0.15859377,0
1.199434,-1.183403,-1.846895,0.85616487,-0.5136866,0.055751264,0
-1.2457938,0.13770056,2.0765939,0.081766993,0.24123335,0.96701646,0
0.4564994,0.53533363,-2.2635448,-0.081766993,-0.24123335,-0.96701646,0
0.60876864,-1.1302786,-1.734413,-0.081766993,-0.24123335,-0.96701646,0
0.15839404,1.8435111,1.5979376,0.081766993,0.24123335,0.96701646,0
-0.17729738,1.0806899,1.8999627,0.081766993,0.24123335,0.96701646,0
-0.26007181,-1.4762217,0.43187451,-0.16867113,-0.9529202,0.25197929,0
1.1788948,0.99345958,0.30732524,0.77983785,0.58870208,-0.21279854,0
0.31618315,-1.3660417,-1.7144276,-0.081766993,-0.24123335,-0.96701646,0
0.65870881,-1.3430799,0.031017423,0.41978699,-0.88833678,0.18611056,0
-0.8010301,-1.7047889,-1.5630013,-0.081766993,-0.24123335,-0.96701646,0
1.1140008,1.5047231,1.6382067,0.081766993,0.24123335,0.96701646,0
-0.57420242,-0.35545623,-1.9499528,-0.081766993,-0.24123335,-0.96701646,0
-1.4917921,0.22004071,-0.25427854,-0.9763552,0.21420258,0.029121302,0
0.21820951,-0.37622356,-2.0124035,-0.081766993,-0.24123335,-0.96701646,0
1.104383,1.4666725,1.2897776,0.66071874,0.713292,-0.23380679,0
0.76242363,-1.61252,-1.0755087,0.52541763,-0.83491844,0.16385299,0
1.2147561,-0.66372573,-1.9516599,-0.081766993,-0.24123335,-0.96701646,0
-1.4163456,-0.1608623,0.53503841,-0.98090327,-0.15232448,0.12094033,0
1.4201744,-0.46825254,1.4176424,0.81758261,-0.57112199,0.073341608,0
-0.12239549,0.45815325,-2.0809379,-0.081766993,-0.24123335,-0.96701646,0
0.14763446,1.1273617,-1.6901853,0.10714066,0.96251518,-0.24917012,0
0.93622148,-0.76667213,2.1563148,0.081766993,0.24123335,0.96701646,0
0.18845522,0.063640594,2.0246463,0.081766993,0.24123335,0.96701646,0
0.4159646,-1.68512,-1.3961215,0.42541406,-0.88588363,0.18502271,0
1.160167,1.4492106,1.559288,0.081766993,0.24123335,0.96701646,0
-1.004091,-0.92907786,-1.7730045,-0.081766993,-0.24123335,-0.96701646,0
0.038598903,-0.26748657,2.2025738,0.081766993,0.24123335,0.96701646,0
1.2776968,-0.73418474,-0.021780908,0.8567093,-0.51280683,0.055485785,0
-0.57599658,1.5242735,1.1427822,-0.522448,0.83664614,-0.16453516,0
-0.057147071,-1.6873298,-1.6977077,-0.081766993,-0.24123335,-0.96701646,0
0.046222851,1.7099513,0.94733113,-0.096754938,0.9676038,-0.233199,0
1.4801482,-0.21368545,-0.74904215,0.99582678,-0.05924442,-0.069423862,0
-0.23937702,1.1620431,1.8888237,0.081766993,0.24123335,0.96701646,0
-0.84557706,-0.24895573,-2.0267038,-0.081766993,-0.24123335,-0.96701646,0
0.47738111,-0.16479564,-2.03685,-0.081766993,-0.24123335,-0.96701646,0
-0.25934231,-0.67022502,2.1882772,0.081766993,0.24123335,0.96701646,0
0.3445015,0.93907225,-1.9972694,0.26902139,0.92890823,-0.2544744,0
1.4994662,0.036096632,-0.73610425,0.99111563,0.082443647,-0.10437128,0
0.24669304,-1.4754254,-0.17427647,0.24457631,-0.94545382,0.21517414,0
-0.35838127,1.7699723,0.78559011,-0.24920562,0.94439334,-0.21451813,0
0.35500216,1.8575685,1.1003282,0.17067292,0.95254374,-0.25205457,0
0.51252699,-1.3987459,0.21585906,0.37148091,-0.90772504,0.1950317,0
-1.1243143,1.272927,1.0225946,-0.79821295,0.59685081,-0.081397772,0
-0.63011783,1.1657506,1.8397712,0.081766993,0.24123335,0.96701646,0
1.1046084,0.86150873,1.7647263,0.081766993,0.24123335,0.96701646,0
0.61836553,-0.13316512,1.9958375,0.081766993,0.24123335,0.96701646,0
-0.86620712,1.4583876,1.7956204,0.081766993,0.24123335,0.96701646,0
-0.88199091,1.4444319,0.96567392,-0.63101506,0.76355612,-0.13712192,0
-1.5337616,-0.66745734,-1.1082319,-0.95503229,-0.25849491,0.14523822,0
-1.1003783,-1.6289649,-1.6183747,-0.081766993,-0.24123335,-0.96701646,0
1.3405857,0.073722363,-1.7361568,0.91747081,0.36078405,-0.16757938,0
0.7392621,-0.20397806,2.1046758,0.081766993,0.24123335,0.96701646,0
-0.94685709,0.93112165,-1.0706905,-0.56968164,0.80744982,-0.15325779,0
0.14255494,1.2915659,1.6334428,0.081766993,0.24123335,0.96701646,0
-0.70156962,1.0238118,-1.9507827,-0.32563925,0.92348039,-0.20283818,0
-0.1347606,-1.68011,-1.6363299,-0.081766993,-0.24123335,-0.96701646,0
-0.44585603,-0.85091579,2.1327884,-0.41996607,-0.87158012,0.2529366,0
0.0051591806,1.1891968,-1.0083921,0.012799948,0.9699313,-0.24304307,0
-1.3577678,0.47656828,-0.8462407,-0.90896219,0.41600886,-0.02692011,0
0.52313989,0.28696561,-2.2581263,-0.081766993,-0.24123335,-0.96701646,0
-1.2224425,-0.13965464,1.5348498,-0.95213163,-0.26784503,0.14732549,0
1.4658619,0.30248857,0.13004155,0.98816204,0.10675041,-0.1101851,0
-0.34665298,1.727026,1.681457,0.081766993,0.24123335,0.96701646,0
0.30932271,-1.0049468,1.7539637,0.13402274,-0.96411425,0.22917712,0
-0.75018597,0.22929633,2.0341015,0.081766993,0.24123335,0.96701646,0
-0.73434764,0.67452717,-2.1257181,-0.081766993,-0.24123335,-0.96701646,0
-0.3349191,-0.66700411,-1.9131204,-0.081766993,-0.24123335,-0.96701646,0
-0.38915211,1.1832246,-0.94529426,-0.25709149,0.94253379,-0.21338749,0
-0.38502526,0.08076632,2.0068867,0.081766993,0.24123335,0.96701646,0
-1.4138376,-0.62073535,-0.17649662,-0.90159935,-0.39562473,0.17492878,0
1.6034092,0.5806092,1.7262022,0.99619782,0.009497595,-0.086603746,0
-0.036037311,-0.63045776,2.1529908,0.081766993,0.24123335,0.96701646,0
1.4404433,0.35492671,1.8314673,0.081766993,0.24123335,0.96701646,0
-0.92226017,-0.48269415,2.232182,-0.70427489,-0.67254782,0.22732562,0
1.3343285,0.69164068,-0.51113677,0.86141139,0.4709062,-0.19031048,0
0.077556409,1.462214,-0.45132732,-0.0040091947,0.97033715,-0.24172294,0
-0.1853292,1.1426487,1.8771181,0.081766993,0.24123335,0.96701646,0
-1.7230146,-0.48416376,-1.5884186,-0.99664825,0.022334894,0.07870084,0
-0.96547306,-0.65019727,1.7411489,-0.73175305,-0.64420265,0.22257799,0
1.157065,1.2667055,1.7291657,0.081766993,0.24123335,0.96701646,0
-1.271132,0.297122,2.0519652,0.081766993,0.24123335,0.96701646,0
0.74769163,1.5574372,1.5159577,0.081766993,0.24123335,0.96701646,0
-1.34509,0.65443373,-1.3839176,-0.79249525,0.60410863,-0.083691716,0
-0.79766393,-0.5941807,-1.8628987,-0.081766993,-0.24123335,-0.96701646,0
1.0801895,0.79372239,1.8090922,0.081766993,0.24123335,0.96701646,0
-1.1727389,-1.6179934,-1.5626767,-0.6238879,-0.744259,0.23841751,0
-0.94484925,1.4168119,1.553911,-0.773054,0.62774569,-0.091232181,0
1.3488138,0.21824709,-0.52803576,0.97169238,0.19648553,-0.13117799,0
-0.39354116,-0.90391183,2.3246732,0.081766993,0.24123335,0.96701646,0
-1.3362852,-1.0392947,-1.1470777,-0.8755694,-0.4461306,0.18532711,0
-0.16290176,0.98068047,-2.0793638,0.016928729,0.96978927,-0.2433567,0
-0.42971748,-1.8198241,-1.5740441,-0.081766993,-0.24123335,-0.96701646,0
1.0215644,-0.88715041,1.3832866,0.612279,-0.77774107,0.14224476,0
0.27907395,-0.027954102,-2.1644838,-0.081766993,-0.24123335,-0.96701646,0
-1.6326137,-0.28017056,-0.93325412,-0.99580806,-0.02013934,0.089225478,0
1.2518209,-0.12652791,-2.1856389,-0.081766993,-0.24123335,-0.96701646,0
0.64148015,-1.3106966,0.31588697,0.46783477,-0.86601716,0.17647994,0
-1.3392999,0.16030216,1.3521086,-0.98995262,-0.092650108,0.10681903,0
0.034672827,0.56366515,-2.2393942,-0.081766993,-0.24123335,-0.96701646,0
0.50710106,1.7688496,1.2815055,0.29143631,0.92206919,-0.25466359,0
0.21648103,-0.23161983,2.06218,0.081766993,0.24123335,0.96701646,0
-1.3466192,0.18212378,1.9022248,-0.97243321,-0.19328518,0.13044223,0
0.30125034,-1.0747473,1.847784,0.06213598,-0.96961188,0.2366271,0
-1.2119929,-0.5648216,-1.7223326,-0.081766993,-0.24123335,-0.96701646,0
1.1032356,-1.0587629,-0.51035202,0.81953681,-0.56842166,0.072502732,0
-1.2350086,-0.38943052,1.6794599,-0.86176062,-0.47031489,0.19019252,0
0.83235818,-0.095684886,-2.1307106,-0.081766993,-0.24123335,-0.96701646,0
-0.51805401,-1.7854218,-0.84517241,-0.2356063,-0.93808597,0.25393838,0
-0.16474095,1.2537259,-1.5250672,-0.037139118,0.97032899,-0.23891956,0
-0.57506615,0.10282457,2.069798,0.081766993,0.24123335,0.96701646,0
-1.3433057,0.5182513,0.92423391,-0.96491653,0.26205659,0.016216353,0
-0.11809902,-0.30984902,2.1171916,0.081766993,0.24123335,0.96701646,0
1.449157,0.25911713,1.9574417,0.081766993,0.24123335,0.96701646,0
-1.2123884,0.61952704,-0.72527289,-0.82074821,0.56673771,-0.071980178,0
-0.56611371,1.5975876,0.43622428,-0.35637945,0.91319203,-0.19767237,0
1.3907717,0.76703256,0.43740353,0.91915536,0.35686201,-0.16674349,0
-0.41406703,0.80362022,-2.1945219,-0.081766993,-0.24123335,-0.96701646,0
1.3860613,-0.65828991,0.42842722,0.87964678,-0.47360983,0.043768167,0
-0.097339943,-0.57268429,2.3189559,0.081766993,0.24123335,0.96701646,0
0.35963088,0.51971281,1.9708853,0.081766993,0.24123335,0.96701646,0
-0.36815929,1.1260866,1.9103668,0.081766993,0.24123335,0.96701646,0
1.0578547,0.20845079,1.9931165,0.081766993,0.24123335,0.96701646,0
0.16841146,1.0247114,1.801677,0.081766993,0.24123335,0.96701646,0
0.20554301,-0.53680062,-1.9530919,-0.081766993,-0.24123335,-0.96701646,0
1.4048492,-0.26276565,-1.9753811,0.98166358,0.14814301,-0.11996152,0
-0.25991595,0.73600316,-2.1286778,-0.081766993,-0.24123335,-0.96701646,0
-0.084273964,0.22263122,1.926955,0.081766993,0.24123335,0.96701646,0
-0.24520555,-0.50661802,2.2934527,0.081766993,0.24123335,0.96701646,0
-1.0959797,-0.42151976,1.9681683,-0.82762975,-0.52415103,0.20073658,0
-1.2009314,-1.1904839,-0.56983799,-0.7614423,-0.61091018,0.21678317,0
0.094495952,-1.2994189,0.81224036,0.09729442,-0.96756315,0.23314309,0
-0.42339057,0.89919376,1.9617877,0.081766993,0.24123335,0.96701646,0
0.93155968,0.19446921,-2.1069596,-0.081766993,-0.24123335,-0.96701646,0
-1.3613297,-0.73196638,-0.2105673,-0.88684148,-0.42513132,0.18104172,0
-1.2544454,0.64342892,-1.6678139,-0.7348395,0.67006153,-0.10501963,0
0.58457446,-1.4668486,-1.6794574,-0.081766993,-0.24123335,-0.96701646,0
-0.52655232,-1.0347713,-1.7329178,-0.081766993,-0.24123335,-0.96701646,0
1.1518289,0.27480245,-1.7837327,0.86609894,0.46288571,-0.1887061,0
-1.392197,0.46140909,-0.40438041,-0.90437835,0.42569575,-0.029724181,0
0.9161402,0.96364248,1.7824481,0.081766993,0.24123335,0.96701646,0
-0.86583614,0.43959272,2.1262307,0.081766993,0.24123335,0.96701646,0
1.2743361,0.17063558,1.9193059,0.081766993,0.24123335,0.96701646,0
-0.080109805,-0.4020617,2.1950035,0.081766993,0.24123335,0.96701646,0
1.3427767,-0.69236958,0.41179663,0.83978188,-0.53919798,0.063500673,0
0.60331011,1.4712579,0.34967482,0.36356378,0.89618659,-0.25430572,0
-0.94811761,0.64599502,-2.0870779,-0.081766993,-0.24123335,-0.96701646,0
-0.92024648,0.13661206,2.1896296,0.081766993,0.24123335,0.96701646,0
1.0801679,0.048038006,1.9400465,0.081766993,0.24123335,0.96701646,0
-1.1048189,-0.10063016,-1.8955991,-0.081766993,-0.24123335,-0.96701646,0
-1.1213876,0.59350991,2.050266,0.081766993,0.24123335,0.96701646,0
-0.078370184,1.1131921,1.7378026,0.081766993,0.24123335,0.96701646,0
0.32227767,0.9578793,-1.8929875,0.32487285,0.91082036,-0.25468475,0
0.6633544,-1.425735,0.0046753883,0.45000619,-0.87466711,0.18014526,0
0.77174252,-1.0341153,0.93848121,0.52174544,-0.83705282,0.16469598,0
1.3646152,-0.81426173,0.70940435,0.81674796,-0.57226902,0.073698342,0
0.68204427,-0.96636319,-1.960044,-0.081766993,-0.24123335,-0.96701646,0
-0.72141224,-0.25512195,2.2735679,0.081766993,0.24123335,0.96701646,0
1.484226,-0.52045846,-0.29243964,0.96274924,-0.27003169,-0.014043584,0
0.33942634,1.0941484,1.8467455,0.081766993,0.24123335,0.96701646,0
0.63541055,-0.82444477,-1.8758564,-0.081766993,-0.24123335,-0.96701646,0
-0.59272897,-1.5373056,-1.7170268,-0.081766993,-0.24123335,-0.96701646,0
1.6384457,0.18369478,0.63516307,0.99390787,0.052210033,-0.09706524,0
0.16907984,-1.7072811,-0.47073221,0.13310957,-0.96421623,0.22927988,0
-0.35271049,-0.17165351,-1.9580177,-0.081766993,-0.24123335,-0.96701646,0
1.1654639,-1.1792402,-1.3148352,0.84146529,-0.53665847,0.062724829,0
0.8930437,-0.86936402,2.178421,0.47410339,-0.86286944,0.17516464,0
