1.4283881,0.071489334,3.0133245,0.17146629,-0.29979706,0.93846738,0
1.0807644,1.0438417,-1.4576864,0.90434957,0.42579183,-0.029211879,0
-0.74959445,-0.99658799,3.0834422,0.17146629,-0.29979706,0.93846738,0
-1.0095478,1.4773401,-2.5584085,-0.17146629,0.29979706,-0.93846738,0
1.1405138,0.48141432,2.6473091,0.47972786,0.85742056,0.18625575,0
-0.76327699,-1.5164714,2.9271667,0.17146629,-0.29979706,0.93846738,0
-0.0041189194,0.23101735,3.3441,0.17146629,-0.29979706,0.93846738,0
-0.60405701,-1.6819606,2.8366308,0.17146629,-0.29979706,0.93846738,0
1.6954623,-0.24496031,2.8852925,0.17146629,-0.29979706,0.93846738,0
-0.21669087,2.0308535,-1.7983439,0.15152705,0.94926578,0.27556133,0
-0.47148705,0.68941665,-2.941884,-0.17146629,0.29979706,-0.93846738,0
-0.26515412,0.77586627,-2.9336071,-0.17146629,0.29979706,-0.93846738,0
-1.9538553,0.4962315,-1.9229685,-0.97757709,-0.16996664,0.1243155,0
-0.11143959,-1.1914291,-1.4012842,-0.020728052,-0.953462,-0.30079991,0
1.7587954,-0.63559622,1.6794482,0.98200148,-0.024567485,-0.18726861,0
-0.32293212,-0.98019058,-1.5904099,-0.11250556,-0.95230204,-0.28366083,0
0.30295014,-1.7585442,2.6739988,0.17146629,-0.29979706,0.93846738,0
-1.6637957,0.4028722,-2.8246925,-0.17146629,0.29979706,-0.93846738,0
-1.2456586,-0.68097579,1.8752102,-0.98068035,-0.1429784,0.13350403,0
0.79083395,0.5815891,2.5869396,0.31518275,0.91920459,0.2360568,0
-0.3134048,1.6090196,-2.6617346,-0.17146629,0.29979706,-0.93846738,0
0.36785245,0.12640071,3.1154938,0.17146629,-0.29979706,0.93846738,0
0.10032773,0.30912256,-3.1142161,-0.17146629,0.29979706,-0.93846738,0
-0.5118289,-0.084568501,3.3691502,0.17146629,-0.29979706,0.93846738,0
-1.4391612,0.41315126,-0.108657,-0.96023452,0.16218814,0.22725499,0
-0.02538085,0.46839404,3.3360128,-0.31109446,0.88736063,0.34031051,0
-1.9047309,0.90786922,-2.516351,-0.17146629,0.29979706,-0.93846738,0
0.14308596,-0.30542636,3.0556426,0.17146629,-0.29979706,0.93846738,0
-1.6913784,1.2226421,-1.5349147,-0.88603532,0.36955789,0.27994323,0
-0.81243831,-1.0159481,-0.6951524,-0.5432831,-0.82341909,-0.16378176,0
-0.13059759,1.6304048,-2.7145061,-0.17146629,0.29979706,-0.93846738,0
0.13189664,-1.9698197,2.5312929,0.17146629,-0.29979706,0.93846738,0
-0.41992152,-0.81773877,3.0624585,0.17146629,-0.29979706,0.93846738,0
0.11658847,-1.2918701,2.8058248,0.17146629,-0.29979706,0.93846738,0
1.7715775,-0.61099941,1.4163742,0.98422968,0.010077953,-0.17660809,0
1.4806567,0.35635078,2.9390066,0.17146629,-0.29979706,0.93846738,0
-0.22097301,1.5212116,-0.016058922,-0.03611517,0.95002198,0.31008682,0
0.88921285,1.5222801,-1.7208967,0.75912601,0.64737099,0.068106174,0
-1.098635,2.0962355,-2.0411165,-0.45633626,0.82005656,0.34534696,0
-0.69802952,2.1820149,-1.9610223,-0.15480381,0.93254322,0.32618856,0
1.7366785,-1.1714003,2.48331,0.17146629,-0.29979706,0.93846738,0
-0.092000246,-0.18920207,3.2495379,0.17146629,-0.29979706,0.93846738,0
1.4156308,-1.2718128,2.5978169,0.17146629,-0.29979706,0.93846738,0
-1.0913068,0.088684797,1.9521842,-0.85102117,0.43484515,0.29440206,0
1.0756963,0.58261132,-2.2124221,0.97783822,-0.064366639,-0.19922185,0
-0.36380339,-0.55595875,3.1413238,0.17146629,-0.29979706,0.93846738,0
-2.0386028,0.61527526,-2.4879363,-0.96989739,-0.21855503,0.10739064,0
-1.1547196,1.0776206,-2.5491614,-0.17146629,0.29979706,-0.93846738,0
0.11718583,1.68337,-0.10730118,0.17757386,0.94637859,0.26988,0
0.46661055,-0.35796666,2.9941964,0.17146629,-0.29979706,0.93846738,0
0.48211312,0.056467533,3.0233455,0.17146629,-0.29979706,0.93846738,0
-0.56877828,-0.1274178,3.2528429,0.17146629,-0.29979706,0.93846738,0
0.47878289,-0.78546023,2.9006858,0.17146629,-0.29979706,0.93846738,0
0.5157268,0.48856378,3.1868498,0.17146629,-0.29979706,0.93846738,0
-0.30087036,2.0755439,-2.4045486,-0.17146629,0.29979706,-0.93846738,0
-0.6805011,0.27381158,-2.9685271,-0.17146629,0.29979706,-0.93846738,0
-0.61960649,-1.381443,2.8553965,0.17146629,-0.29979706,0.93846738,0
-1.056319,1.762676,-2.5466981,-0.17146629,0.29979706,-0.93846738,0
1.50998,-1.6373378,2.4841621,0.17146629,-0.29979706,0.93846738,0
-0.99280286,-1.3278389,2.2721829,-0.91650772,-0.39797992,0.040317893,0
1.8966441,-0.71987581,2.6781316,0.17146629,-0.29979706,0.93846738,0
0.48412132,-2.1566765,2.0699432,0.068438649,-0.94664913,-0.31491509,0
-0.56473207,0.10311842,-3.1099076,-0.17146629,0.29979706,-0.93846738,0
1.2355331,-1.1676126,0.56004381,0.71934336,-0.61277676,-0.32718435,0
1.3941605,0.29493243,-0.56785727,0.98197329,0.12892088,-0.13823104,0
-1.0360264,1.8630278,-2.4352741,-0.17146629,0.29979706,-0.93846738,0
1.0876315,0.35757446,3.1152496,0.17146629,-0.29979706,0.93846738,0
1.9078982,-0.79203916,2.3059161,0.98496413,0.031772554,-0.16981184,0
1.0917236,-0.47615588,-1.148278,0.80514425,-0.50631404,-0.308851,0
1.3706446,0.69422221,0.011253119,0.8527903,0.52213794,0.010986567,0
-0.054193407,-1.8524106,2.5585163,0.17146629,-0.29979706,0.93846738,0
0.45009899,0.49992418,3.3186598,0.17146629,-0.29979706,0.93846738,0
0.20342875,0.1639502,-3.1129043,-0.17146629,0.29979706,-0.93846738,0
-1.4981933,0.78486657,-0.26035833,-0.90003532,0.33973697,0.27297479,0
-0.55290103,1.5293646,0.047871679,-0.28954726,0.89517069,0.33886862,0
0.90003181,-0.40937281,2.8089828,0.17146629,-0.29979706,0.93846738,0
-0.7625457,-1.5879691,2.7316718,0.17146629,-0.29979706,0.93846738,0
0.049079299,1.4266157,-2.7706034,-0.17146629,0.29979706,-0.93846738,0
-0.12952095,-1.8787931,1.3769455,-0.34625101,-0.91014314,-0.22748566,0
1.0726658,-0.063225031,-2.2993181,0.88400894,-0.37367183,-0.28088725,0
-0.83445549,-0.34973264,-3.0524278,-0.17146629,0.29979706,-0.93846738,0
0.23485398,0.92391038,-2.8847415,-0.17146629,0.29979706,-0.93846738,0
0.18223,-0.83479714,2.888875,0.17146629,-0.29979706,0.93846738,0
-0.31365162,-2.1237614,2.6354892,0.17146629,-0.29979706,0.93846738,0
1.8014988,-0.25923926,1.0861049,0.98491836,0.074531376,-0.1561439,0
0.14192665,-1.2829841,-0.66546243,0.18396366,-0.92607749,-0.32945085,0
0.35554367,-2.0675344,1.5378737,-0.054929852,-0.9540025,-0.29472363,0
1.0444002,0.09730196,-2.1154065,0.91126513,-0.31376842,-0.26673079,0
1.1480163,0.86714768,0.90537286,0.61351812,0.77781481,0.13638079,0
1.2962031,-0.88343251,2.7239077,0.17146629,-0.29979706,0.93846738,0
1.5342535,-0.043576241,2.9851711,0.17146629,-0.29979706,0.93846738,0
-0.7098155,-0.27179313,-3.1699226,-0.17146629,0.29979706,-0.93846738,0
-0.40780866,-1.5117695,2.8195405,0.17146629,-0.29979706,0.93846738,0
-0.40297151,0.032770634,3.3295588,0.17146629,-0.29979706,0.93846738,0
1.5977486,-1.1719736,1.5881023,0.87908226,-0.38348028,-0.28312039,0
-1.0405177,1.5076432,-2.6161008,-0.17146629,0.29979706,-0.93846738,0
1.3340049,-0.25000584,-1.0755457,0.914258,-0.3064853,-0.26495099,0
0.27642965,-1.1811624,2.7508972,0.17146629,-0.29979706,0.93846738,0
1.2113941,0.36505234,2.7979839,0.50625694,0.84399778,0.17712069,0
1.2718079,-0.04157567,2.9465554,0.17146629,-0.29979706,0.93846738,0
0.75683451,1.0859209,1.4571109,0.38406509,0.8975513,0.21655411,0
-0.85729885,1.1652095,0.53839755,-0.58225292,0.73757386,0.34200358,0
-0.86826873,-0.52696633,-2.9194441,-0.32779902,-0.91566139,-0.23261976,0
-0.37538218,0.69821811,-2.9830146,-0.17146629,0.29979706,-0.93846738,0
0.33334541,-0.10528064,3.208322,0.17146629,-0.29979706,0.93846738,0
-1.4992372,1.5261875,-1.4361713,-0.71496004,0.61750871,0.3278951,0
0.75251782,-1.0287467,-0.97100019,0.56492418,-0.75049084,-0.34296384,0
-0.86288822,2.2902422,-2.1000938,-0.2388624,0.9115026,0.33482531,0
-0.46529478,2.0342789,-2.4086523,-0.17146629,0.29979706,-0.93846738,0
-1.0056314,2.1507883,-2.3994088,-0.17146629,0.29979706,-0.93846738,0
0.30247211,-0.18904948,2.9933329,0.17146629,-0.29979706,0.93846738,0
1.1945878,-1.2912123,2.5810344,0.17146629,-0.29979706,0.93846738,0
-1.6617136,0.45386475,-1.3054553,-0.98343003,0.0048273802,0.18122357,0
0.18014503,1.2807692,0.97035253,-0.0019783378,0.9524684,0.30463114,0
1.3864458,-0.024829388,2.8982089,0.17146629,-0.29979706,0.93846738,0
0.54613709,0.72441638,2.5967388,0.076041698,0.95376074,0.2907891,0
0.61314774,-0.29768276,2.9972577,0.17146629,-0.29979706,0.93846738,0
-0.42993987,-0.48961973,3.1922226,0.17146629,-0.29979706,0.93846738,0
-0.84473276,-0.76258183,3.2021244,0.17146629,-0.29979706,0.93846738,0
-1.0670729,0.65416098,-2.8840251,-0.17146629,0.29979706,-0.93846738,0
-1.1292028,-0.88953424,-0.91185117,-0.6295588,-0.76605201,-0.1296922,0
-1.5483323,0.69374901,-0.71757883,-0.92616385,0.27571535,0.25729668,0
-0.85207313,1.866213,-1.3207905,-0.35722435,0.86882997,0.34281915,0
-0.7697376,0.61915159,-2.8192523,-0.17146629,0.29979706,-0.93846738,0
0.27303863,-0.12910008,3.1536376,0.17146629,-0.29979706,0.93846738,0
-0.34400618,-1.5237322,2.8558517,0.17146629,-0.29979706,0.93846738,0
-0.43419766,-1.0108364,2.8612471,0.17146629,-0.29979706,0.93846738,0
-1.7521878,1.2644233,-2.4707294,-0.17146629,0.29979706,-0.93846738,0
-0.88135362,1.7521998,-2.5456257,-0.17146629,0.29979706,-0.93846738,0
-0.36943275,2.1505437,-2.532258,-0.17146629,0.29979706,-0.93846738,0
1.1983352,0.88238162,-0.43364382,0.89900994,0.43723792,-0.024579644,0
-1.268839,1.3193969,-2.5497732,-0.17146629,0.29979706,-0.93846738,0
0.73869753,-1.7660741,2.5397348,0.17146629,-0.29979706,0.93846738,0
0.02566582,-2.0525391,1.2368052,-0.13530898,-0.95071429,-0.27898717,0
1.2377981,-1.5053681,2.5373127,0.17146629,-0.29979706,0.93846738,0
0.76695788,-1.694311,2.6030481,0.17146629,-0.29979706,0.93846738,0
-1.0848843,0.27459836,1.7326679,-0.81459928,0.49261394,0.30620202,0
-0.27588272,-1.5098106,-0.11365843,-0.17976445,-0.94610393,-0.26939201,0
1.3115213,-0.1486783,2.939393,0.17146629,-0.29979706,0.93846738,0
0.30696625,-1.4216317,2.6909971,0.17146629,-0.29979706,0.93846738,0
0.46112984,1.5197971,-2.765944,-0.17146629,0.29979706,-0.93846738,0
-0.34676725,-1.3839378,2.8268397,0.17146629,-0.29979706,0.93846738,0
0.3301042,-2.2202482,2.498044,0.17146629,-0.29979706,0.93846738,0
0.97721529,1.0469131,-2.2733936,0.96090305,0.26109898,-0.09215641,0
-0.5007962,-1.430577,2.879621,0.17146629,-0.29979706,0.93846738,0
1.4470925,0.36477211,1.1512157,0.85801941,0.51356566,0.0072927475,0
0.47494698,0.51884985,3.2084463,0.17146629,-0.29979706,0.93846738,0
0.74131215,0.75763226,-3.1067178,-0.17146629,0.29979706,-0.93846738,0
-0.73668987,1.4985036,-2.5311093,-0.17146629,0.29979706,-0.93846738,0
-0.072674394,-0.80993056,2.9692268,0.17146629,-0.29979706,0.93846738,0
1.3786602,-0.63192666,2.7931962,0.17146629,-0.29979706,0.93846738,0
-1.0032036,2.0559072,-2.3992758,-0.17146629,0.29979706,-0.93846738,0
-1.1097767,-0.63249874,1.8482602,-0.98463404,-0.0841479,0.15302002,0
0.110744,0.24414802,3.1669726,0.17146629,-0.29979706,0.93846738,0
-1.1478409,-1.055891,-0.024222374,-0.73673064,-0.67145038,-0.079890132,0
0.57269859,-1.4106797,-0.32088482,0.38566911,-0.85612637,-0.34395808,0
1.7155278,-0.040120363,2.3232479,0.87925255,0.47628012,-0.008497715,0
-1.5825905,0.88012868,-0.86040831,-0.90434182,0.3300167,0.27065635,0
-1.3709888,1.5025065,-1.3642387,-0.70764524,0.62527663,0.32904005,0
1.0356302,0.50572038,-2.3069305,0.96574032,-0.13719812,-0.22027779,0
-0.71012402,-0.022544384,2.7051001,-0.79953015,0.51422954,0.31035388,0
-0.13595152,-0.073419809,3.1377943,0.17146629,-0.29979706,0.93846738,0
-0.99000084,-0.041808128,2.356123,-0.89255762,0.35598278,0.27679831,0
0.906214,-1.9573944,2.3615277,0.17146629,-0.29979706,0.93846738,0
0.70601857,1.0905235,1.1452762,0.31908417,0.91812861,0.23500025,0
0.71262717,0.063813448,-3.1021457,0.83589327,-0.45989013,-0.29963878,0
0.65260208,-2.1167753,1.7841275,0.19019455,-0.92458224,-0.33011162,0
-1.4027457,0.5729785,-0.086888433,-0.92922509,0.26727253,0.25515896,0
-0.86349201,0.24840879,2.4105482,-0.77612889,0.54561985,0.31610599,0
1.0401028,-0.61397111,2.7521336,0.17146629,-0.29979706,0.93846738,0
-1.7963707,0.57959068,-1.5014462,-0.98209226,0.02346608,0.1869334,0
-0.6223743,2.2948391,-1.9907889,-0.052004278,0.94849271,0.31250137,0
1.0623362,-2.2738538,2.3736892,0.17146629,-0.29979706,0.93846738,0
2.0112255,-0.84045243,2.6000447,0.17146629,-0.29979706,0.93846738,0
-0.35407043,-0.19432378,3.1733375,0.17146629,-0.29979706,0.93846738,0
-0.61698651,0.32247138,2.5130768,-0.6337108,0.69579256,0.33805829,0
1.2441839,-1.8624643,2.3484132,0.17146629,-0.29979706,0.93846738,0
-0.027181566,-1.5159121,2.7326438,0.17146629,-0.29979706,0.93846738,0
-0.22780943,-0.211869,3.1603861,0.17146629,-0.29979706,0.93846738,0
0.51906967,-0.9133752,-1.3762183,0.42048496,-0.839185,-0.34490722,0
-1.1461066,-0.93782496,0.19059885,-0.85018206,-0.52633297,-0.012803316,0
0.78027946,1.4279692,-2.8011208,0.90344262,0.42776629,-0.028415322,0
-0.0054044724,-0.69273901,-2.7520392,0.30778056,-0.88859624,-0.34009975,0
-1.0128872,1.0328953,0.5207324,-0.64661479,0.6844427,0.33679014,0
0.99012625,0.3555162,-2.8124328,0.93812311,-0.24122721,-0.24846441,0
-0.70234668,1.122281,-2.6843917,-0.17146629,0.29979706,-0.93846738,0
1.1528974,-1.1466442,0.25751504,0.73770136,-0.59230238,-0.32399788,0
-1.0267425,1.0611243,-2.773982,-0.17146629,0.29979706,-0.93846738,0
0.63579881,-0.99186301,2.8518472,0.17146629,-0.29979706,0.93846738,0
-0.080481052,0.047925949,3.1733565,0.17146629,-0.29979706,0.93846738,0
-0.65559232,0.35622191,-3.0233688,-0.17146629,0.29979706,-0.93846738,0
0.70059609,0.44302988,3.2847896,0.17146629,-0.29979706,0.93846738,0
-1.431945,1.4245358,-2.4838896,-0.17146629,0.29979706,-0.93846738,0
-1.4795356,-0.53749508,-1.4368008,-0.77439296,-0.62987936,-0.05972898,0
1.1372015,-2.1646287,2.1529386,0.44883895,-0.8242029,-0.34530169,0
-0.068888426,0.85894251,-2.8789277,-0.17146629,0.29979706,-0.93846738,0
0.87556469,-2.2548399,2.1045592,0.23247159,-0.91336334,-0.33425209,0
1.658734,0.22415364,1.9981816,0.83661586,0.54734832,0.021995306,0
1.4555265,-0.58096814,0.028633833,0.91250765,-0.31076476,-0.2659983,0
1.2507553,0.49432015,2.7179341,0.49919689,0.84767425,0.1795851,0
-0.69984114,1.5942657,-2.5124478,-0.17146629,0.29979706,-0.93846738,0
-0.29028773,-0.50544763,3.0381005,0.17146629,-0.29979706,0.93846738,0
-0.51983047,2.3177531,-2.3957052,-0.17146629,0.29979706,-0.93846738,0
-0.1942997,-1.1503484,-1.0147557,-0.080378234,-0.95365644,-0.28996348,0
-0.54706359,-1.5872241,0.81809258,-0.55852228,-0.81428701,-0.15808016,0
-0.58532995,2.3745556,-2.3404469,-0.052944899,0.94839442,0.31264171,0
0.068607569,1.1848664,0.93108177,0.0023542047,0.95269704,0.30391264,0
-0.10127002,1.7169611,-2.6465495,-0.17146629,0.29979706,-0.93846738,0
1.0569081,-1.9407403,1.5122403,0.39155024,-0.85337389,-0.34415329,0
-0.82186484,2.3477333,-2.2796254,-0.24886221,0.9085027,0.33569402,0
-0.92290318,-1.0970988,3.0094554,0.17146629,-0.29979706,0.93846738,0
-0.95071054,-1.3717829,1.8203454,-0.82426929,-0.56540173,-0.030018568,0
-0.77141654,-0.040079117,-3.0702114,-0.17146629,0.29979706,-0.93846738,0
0.096037149,0.45214128,3.387491,-0.31026435,0.88767141,0.34025815,0
1.2377145,-0.71642292,-0.52635026,0.79532826,-0.52005219,-0.31144625,0
1.5637521,0.31188682,0.80063176,0.90176684,0.43138146,-0.026954293,0
0.51359224,0.7651391,2.8134794,0.10175866,0.95286947,0.28580567,0
-0.81351918,-1.4539748,1.7015667,-0.77019382,-0.63478321,-0.06206274,0
0.23510295,1.8331265,-1.0252695,0.26059896,0.93244731,0.25026011,0
0.036433697,0.76232994,2.5191236,-0.18769741,0.92518634,0.32984835,0
1.5205963,-0.7086426,2.7962255,0.17146629,-0.29979706,0.93846738,0
-0.46305966,-0.10537195,-3.2167907,-0.17146629,0.29979706,-0.93846738,0
-1.0513623,0.69702768,1.0109112,-0.77422142,0.54807222,0.3165409,0
-0.8984493,-0.61731958,3.2032688,0.17146629,-0.29979706,0.93846738,0
-0.92060184,-0.43458319,-3.1791594,-0.17146629,0.29979706,-0.93846738,0
0.84746814,-0.15594792,2.9565237,0.17146629,-0.29979706,0.93846738,0
-0.85680985,1.0579877,0.56575102,-0.53738129,0.76992756,0.34414065,0
0.67964458,-1.2762671,2.5896988,0.17146629,-0.29979706,0.93846738,0
-1.4989878,-0.24374557,-2.6349382,-0.68939459,-0.71701247,-0.10309386,0
0.30802131,1.1407733,-2.7995112,-0.17146629,0.29979706,-0.93846738,0
-1.8272361,0.38595483,-1.1981109,-0.9844147,-0.014352679,0.17527622,0
0.73878127,-2.3249278,2.2313573,0.17146629,-0.29979706,0.93846738,0
0.61543918,0.77275705,-3.0440366,-0.17146629,0.29979706,-0.93846738,0
-1.4907358,1.4390264,-1.4714259,-0.79956526,0.51418054,0.31034467,0
1.0716807,-1.2255991,2.5490403,0.17146629,-0.29979706,0.93846738,0
-0.90537715,-0.36573386,2.6099517,-0.94115508,0.23176202,0.24599475,0
0.18619692,-1.103879,2.9065902,0.17146629,-0.29979706,0.93846738,0
0.60526085,-1.9521642,2.3856544,0.17146629,-0.29979706,0.93846738,0
1.5975358,-0.55102515,2.6422372,0.17146629,-0.29979706,0.93846738,0
0.53822184,-0.55474865,-2.4151828,0.60050559,-0.72336012,-0.34079793,0
-0.39741743,1.0251508,-2.8003547,-0.17146629,0.29979706,-0.93846738,0
1.7190297,-0.23395026,1.9746706,0.95094252,0.29934192,-0.078119636,0
0.24311709,1.2828276,-2.7537358,-0.17146629,0.29979706,-0.93846738,0
1.2988373,-0.93911839,0.16141808,0.79807252,-0.51625913,-0.310736,0
-0.71392906,-1.6909561,1.1947601,-0.6314528,-0.76462704,-0.12889099,0
-0.20542184,2.2608514,-2.3170879,0.23414391,0.93768215,0.25676608,0
0.4860158,0.14872932,-3.218812,-0.17146629,0.29979706,-0.93846738,0
1.298,0.91417903,-0.64765263,0.88744658,0.46066701,-0.014982581,0
-0.75621617,1.4940683,-2.5250161,-0.17146629,0.29979706,-0.93846738,0
-0.27461916,-1.7935424,2.759253,0.17146629,-0.29979706,0.93846738,0
0.47532868,-0.095170736,3.1225915,0.17146629,-0.29979706,0.93846738,0
-0.36788321,-0.24952435,-3.2888036,-0.17146629,0.29979706,-0.93846738,0
0.89719045,-1.3114042,-0.24074678,0.56585854,-0.74980825,-0.34291652,0
-0.69338059,0.75591183,-2.7554636,-0.17146629,0.29979706,-0.93846738,0
1.076808,0.9196586,-0.50053668,0.83606821,0.54816979,0.022357941,0
-1.6507027,0.026916027,-2.8756957,-0.17146629,0.29979706,-0.93846738,0
-0.83965594,1.3830354,0.23047918,-0.46516174,0.81507397,0.3453677,0
-0.23128676,-0.57540011,-2.8871624,0.084594905,-0.9445765,-0.31720486,0
1.7415169,0.018946707,1.501303,0.95011008,0.30225137,-0.07703805,0
-0.65779829,0.32746935,-3.0356674,-0.17146629,0.29979706,-0.93846738,0
-1.2906452,-0.79142648,-0.70072222,-0.77566791,-0.62837601,-0.059015751,0
-0.4082005,0.61941159,2.5676603,-0.47689152,0.8082788,0.34534013,0
0.69367933,1.197804,-2.8986487,-0.17146629,0.29979706,-0.93846738,0
0.58684301,0.73890996,-3.0960548,-0.17146629,0.29979706,-0.93846738,0
-0.20244895,1.9988229,-2.4458566,-0.17146629,0.29979706,-0.93846738,0
0.11662698,0.11671138,3.2394643,0.17146629,-0.29979706,0.93846738,0
-1.2271867,0.34626722,-2.9048603,-0.17146629,0.29979706,-0.93846738,0
-1.6120701,0.77721441,-2.6006486,-0.17146629,0.29979706,-0.93846738,0
-0.11037874,0.5980351,2.8477106,-0.34616721,0.8735016,0.3422913,0
-0.41275024,2.2908399,-2.3475094,-0.17146629,0.29979706,-0.93846738,0
0.68759775,1.0750139,-2.8724263,-0.17146629,0.29979706,-0.93846738,0
-0.82710147,-0.4559021,3.1046815,0.17146629,-0.29979706,0.93846738,0
-0.94662189,2.0593224,-2.2597883,-0.17146629,0.29979706,-0.93846738,0
1.3509386,-0.95470428,2.7401474,0.17146629,-0.29979706,0.93846738,0
1.3513634,0.61093545,0.6761992,0.85138398,0.52440649,0.011968255,0
-1.7383399,1.0768657,-2.5213079,-0.17146629,0.29979706,-0.93846738,0
-0.69098139,-0.0070376396,-3.1362739,-0.17146629,0.29979706,-0.93846738,0
0.92749763,-1.0761604,2.7579336,0.17146629,-0.29979706,0.93846738,0
-0.15993512,1.712973,-0.14064735,-0.0043922067,0.95233297,0.30502895,0
0.41771409,-2.1756792,2.3832579,0.17146629,-0.29979706,0.93846738,0
1.5231102,0.18484163,3.0627911,0.70816034,0.69974625,0.09414947,0
-0.63405323,-0.41993284,-3.208602,-0.17146629,0.29979706,-0.93846738,0
0.57028717,-2.042387,1.6512355,0.14065629,-0.93536711,-0.32450578,0
0.2661016,-1.5662794,-0.17696494,0.09713155,-0.94278979,-0.31892461,0
-0.49828511,-1.6653843,0.51956165,-0.43473107,-0.87784266,-0.20100105,0
-0.21798486,-1.6898597,2.6811686,0.17146629,-0.29979706,0.93846738,0
0.53987265,0.073797703,3.2186825,0.17146629,-0.29979706,0.93846738,0
1.1924835,-1.8536979,2.4284487,0.17146629,-0.29979706,0.93846738,0
0.9571929,-0.45938766,-1.4465947,0.7677052,-0.55633688,-0.31799054,0
0.76183403,-2.0857563,2.4296684,0.17146629,-0.29979706,0.93846738,0
-0.79270911,-1.7764204,1.9970298,-0.73946124,-0.66860849,-0.078483343,0
0.49440631,2.0629454,-2.6536384,0.68987161,0.71658558,0.10287035,0
-1.0239923,-0.10537982,-3.0529392,-0.17146629,0.29979706,-0.93846738,0
0.36241233,-0.21070743,3.051518,0.17146629,-0.29979706,0.93846738,0
0.92265034,-0.61622286,-1.6712561,0.70307302,-0.63005251,-0.32973048,0
-0.54838395,-1.0097435,-1.583102,-0.24427682,-0.93576658,-0.25430274,0
0.18680301,-2.1812155,1.984494,-0.18928164,-0.94485343,-0.26725364,0
-1.4723793,0.10882211,-2.9447114,-0.17146629,0.29979706,-0.93846738,0
-0.90247893,-0.7536633,3.1794212,0.17146629,-0.29979706,0.93846738,0
-1.0496122,1.1162033,-2.6867573,-0.17146629,0.29979706,-0.93846738,0
-1.8891835,0.30533004,-2.6554878,-0.91853935,-0.3930645,0.042259336,0
0.60161942,-2.3604574,2.3197923,0.1178903,-0.93948674,-0.32166231,0
-0.10616559,1.4194564,-2.7023396,-0.17146629,0.29979706,-0.93846738,0
0.83088744,-0.39002669,-2.0023279,0.78058231,-0.53983438,-0.31507152,0
-0.394023,1.6301023,-2.5114164,-0.17146629,0.29979706,-0.93846738,0
0.83685285,1.4365667,-1.4383452,0.7487551,0.65874422,0.073634148,0
-1.3771292,1.2083913,-2.4997966,-0.17146629,0.29979706,-0.93846738,0
0.74465305,-2.170934,1.9461864,0.16776419,-0.9297772,-0.32767296,0
-0.024667174,2.1907763,-2.4107676,-0.17146629,0.29979706,-0.93846738,0
-0.19008958,-1.031702,-1.5101585,-0.01975441,-0.95342982,-0.30096751,0
0.16054034,0.3427403,3.2924447,0.17146629,-0.29979706,0.93846738,0
1.1621057,-2.1025243,2.3762255,0.17146629,-0.29979706,0.93846738,0
-0.46790433,-0.77895701,-2.2283289,-0.055007637,-0.95400226,-0.29470935,0
0.87957358,0.72454178,2.7792745,0.27112991,0.93015134,0.24760258,0
0.9313935,1.0509045,-3.1022961,0.98513186,0.062525481,-0.16001832,0
1.6247272,-0.71510178,0.98348892,0.94952965,-0.20368004,-0.23855388,0
-0.59283334,-1.4235027,2.9130862,0.17146629,-0.29979706,0.93846738,0
-1.5165789,-0.16049471,-0.12773633,-0.97188979,-0.20746922,0.11129606,0
-1.4517581,0.22287458,-0.10590494,-0.9752714,0.083176255,0.20476162,0
0.80604148,0.36719394,3.237906,0.17146629,-0.29979706,0.93846738,0
0.54943281,-1.3986582,2.6046867,0.17146629,-0.29979706,0.93846738,0
2.0219469,-1.1848227,2.4930744,0.17146629,-0.29979706,0.93846738,0
1.1851515,0.41943598,-2.3074384,0.96958911,-0.11749917,-0.21468806,0
1.6676606,-0.51091516,1.1684957,0.97845417,-0.05937919,-0.19774121,0
-0.70867527,0.15060925,-2.9341543,-0.17146629,0.29979706,-0.93846738,0
0.82528985,0.85981035,-3.1654224,-0.17146629,0.29979706,-0.93846738,0
-0.82780898,0.10248113,2.1689107,-0.81941748,0.48544508,0.30479214,0
-0.62529695,0.92072725,-2.8942318,-0.17146629,0.29979706,-0.93846738,0
-0.35768807,1.2296555,-2.806061,-0.17146629,0.29979706,-0.93846738,0
-0.24800658,-0.94680572,2.8970249,0.17146629,-0.29979706,0.93846738,0
0.4328835,1.2736433,-2.8861263,-0.17146629,0.29979706,-0.93846738,0
1.4603813,-0.59999108,2.6734819,0.17146629,-0.29979706,0.93846738,0
0.51504016,1.2572317,-2.9732807,-0.17146629,0.29979706,-0.93846738,0
-1.0578257,0.64308047,-2.9013705,-0.17146629,0.29979706,-0.93846738,0
1.5676013,-0.2226578,-0.22745287,0.97435659,-0.08927241,-0.20654202,0
0.015627265,-1.2610695,2.6942005,0.17146629,-0.29979706,0.93846738,0
-1.4885558,0.93608195,-0.66890132,-0.87106502,0.39889532,0.28657997,0
-0.81624788,-1.4260321,2.9504828,-0.94828737,-0.30849546,0.074710369,0
1.7947557,-0.98729181,2.4865026,0.17146629,-0.29979706,0.93846738,0
-0.238626,-0.28337765,-3.2559481,-0.17146629,0.29979706,-0.93846738,0
-0.247123,-0.23141551,-3.3021438,-0.17146629,0.29979706,-0.93846738,0
1.2234691,-1.6761358,2.4521585,0.17146629,-0.29979706,0.93846738,0
-0.71920073,0.0046651363,-2.9961414,-0.17146629,0.29979706,-0.93846738,0
-0.81415814,1.4101448,-0.013049446,-0.45980364,0.81811213,0.34535933,0
0.16532785,1.7807572,-2.6609251,-0.17146629,0.29979706,-0.93846738,0
1.2116028,0.19898558,3.0472138,0.17146629,-0.29979706,0.93846738,0
-0.69933844,-1.3932647,0.43572426,-0.51109564,-0.84143323,-0.17541742,0
-0.77752155,1.0266882,-2.6260133,-0.17146629,0.29979706,-0.93846738,0
1.6697658,-0.41606259,0.30649137,0.97088337,-0.11032841,-0.21263391,0
-1.8921463,0.96150905,-1.8041408,-0.94514835,0.21875685,0.24256974,0
-0.78871942,0.041703224,-3.0180233,-0.17146629,0.29979706,-0.93846738,0
-1.7717996,1.4510326,-2.5033674,-0.17146629,0.29979706,-0.93846738,0
-0.91297072,-0.97775149,-0.70767486,-0.60680735,-0.78257787,-0.13912839,0
1.7155787,0.05467698,1.1780121,0.93991363,0.33523798,-0.064637542,0
-0.049413919,-1.7554262,2.5585067,0.17146629,-0.29979706,0.93846738,0
-0.71969485,0.39672446,2.3292112,-0.67473465,0.65836596,0.33359763,0
1.1815166,0.91767776,-1.8159869,0.95586139,0.28132269,-0.084774733,0
0.56742704,1.082348,1.7535117,0.21228123,0.94144189,0.26196158,0
-0.77433753,-1.3665209,2.9052863,0.17146629,-0.29979706,0.93846738,0
1.5840151,-0.79191923,0.74517941,0.92106229,-0.2892774,-0.26069713,0
0.15064764,0.0041530132,3.1273155,0.17146629,-0.29979706,0.93846738,0
0.22944027,-1.6050183,2.7402725,0.17146629,-0.29979706,0.93846738,0
-1.1533531,1.4000223,-0.74619997,-0.63685632,0.69306004,0.33776003,0
1.3897958,-1.5207391,1.2366556,0.66046393,-0.67183745,-0.33529371,0
-1.2684566,1.7130368,-2.3715539,-0.17146629,0.29979706,-0.93846738,0
1.5913402,-1.1259239,2.6364179,0.17146629,-0.29979706,0.93846738,0
0.94522667,1.1257352,0.17868221,0.63875222,0.75906199,0.12577963,0
-0.31854659,-1.7731783,1.2626792,-0.40406257,-0.89017153,-0.21054298,0
-1.8057476,0.49830341,-1.6012777,-0.98280454,-0.11829966,0.14177585,0
-1.7018085,-0.033919513,-1.4462783,-0.94969153,-0.30370048,0.076498866,0
0.7176587,1.1094532,0.48270798,0.49684495,0.84888196,0.18040061,0
-0.26581502,0.073130131,3.3582706,0.17146629,-0.29979706,0.93846738,0
-0.97968835,-1.0111642,2.2975049,-0.97112358,-0.21182808,0.10976362,0
0.15662944,-0.96610826,-1.6525598,0.27353632,-0.90063548,-0.33768901,0
-0.010986805,-1.9264868,1.465384,-0.16886073,-0.94742179,-0.27180523,0
0.65701663,1.3069029,-2.9836667,-0.17146629,0.29979706,-0.93846738,0
-1.8300345,0.11899525,-1.6535214,-0.94154215,-0.33026177,0.066524744,0
-0.034039319,1.9953249,-2.51019,-0.17146629,0.29979706,-0.93846738,0
-0.9975816,0.20224023,-2.9011378,-0.17146629,0.29979706,-0.93846738,0
-0.16014206,-1.7161003,0.25959092,-0.15554875,-0.94886529,-0.2746985,0
1.8275756,-0.50347078,2.6704354,0.17146629,-0.29979706,0.93846738,0
0.17117381,-0.12216234,-3.3439488,-0.17146629,0.29979706,-0.93846738,0
-1.0688834,-0.34753323,2.5327344,-0.95559794,0.18110508,0.2324509,0
0.87522924,-0.83771169,-0.92054093,0.6715343,-0.66143113,-0.33399203,0
-1.4484091,1.2290258,-0.99526501,-0.75981903,0.56611329,0.31967282,0
0.56358886,0.47601962,3.1463733,0.0007301569,0.95261347,0.30418265,0
-0.57143813,-1.72719,2.7777817,0.17146629,-0.29979706,0.93846738,0
0.40785372,-1.0611024,2.8819995,0.17146629,-0.29979706,0.93846738,0
0.62757301,-0.63970447,2.8096962,0.17146629,-0.29979706,0.93846738,0
-1.3171375,0.75703526,-2.6606236,-0.17146629,0.29979706,-0.93846738,0
-0.059067965,2.0891385,-1.6036335,0.17367572,0.94685483,0.27074432,0
0.35601759,1.2969911,-2.8922715,-0.17146629,0.29979706,-0.93846738,0
-0.4785198,-1.2831106,-0.64819205,-0.28037935,-0.92803377,-0.24523616,0
0.34703863,-0.88041759,2.8270042,0.17146629,-0.29979706,0.93846738,0
0.18233252,-1.0467761,-1.382304,0.26175833,-0.9044739,-0.33676326,0
-1.2568492,0.10896349,1.1741655,-0.9235431,0.28275806,0.25906771,0
-1.4864841,1.0730612,-2.6411891,-0.17146629,0.29979706,-0.93846738,0
0.82885909,-0.68624687,2.8142948,0.17146629,-0.29979706,0.93846738,0
0.88169098,0.53317285,3.128062,0.17146629,-0.29979706,0.93846738,0
0.40902936,1.3396198,0.36684823,0.23678881,0.9371928,0.2561264,0
0.44093597,-0.53632617,3.0477693,0.17146629,-0.29979706,0.93846738,0
0.57132661,-1.5664806,0.052997291,0.2870363,-0.89604658,-0.33868968,0
-1.6381619,0.16826388,-1.1561193,-0.97909063,-0.15768838,0.12851441,0
-1.2754303,0.22212768,-2.8063579,-0.17146629,0.29979706,-0.93846738,0
0.39178157,0.41674519,3.1980522,0.17146629,-0.29979706,0.93846738,0
1.5904191,-0.41725755,2.6975262,0.17146629,-0.29979706,0.93846738,0
1.3467206,0.028312683,2.8960261,0.17146629,-0.29979706,0.93846738,0
-1.3194965,-0.52204514,-2.0913639,-0.70846999,-0.69945288,-0.093999147,0
0.032436609,-0.77163982,2.9002886,0.17146629,-0.29979706,0.93846738,0
-0.7790823,-0.46082067,3.1235728,0.17146629,-0.29979706,0.93846738,0
-1.4495355,1.2904383,-1.0591357,-0.79034227,0.52685225,0.31270757,0
-0.27677307,-1.9446163,2.7291586,0.17146629,-0.29979706,0.93846738,0
-0.33933592,0.52816772,-2.9805529,-0.17146629,0.29979706,-0.93846738,0
-0.1799351,1.1947095,-2.8239346,-0.17146629,0.29979706,-0.93846738,0
-1.1939074,-0.92045629,1.4470779,-0.95662725,-0.27837598,0.08585608,0
1.2538334,0.19957352,-1.2188466,0.97569549,-0.080254346,-0.20390582,0
-0.018661737,0.068264246,-3.1174765,-0.17146629,0.29979706,-0.93846738,0
-0.40093395,-1.7007407,0.95237571,-0.40298688,-0.89058149,-0.21087039,0
0.093962193,0.1970098,3.1999812,0.17146629,-0.29979706,0.93846738,0
0.34660572,-1.4255177,2.7783098,0.17146629,-0.29979706,0.93846738,0
0.40890574,0.48864412,-3.1489418,-0.17146629,0.29979706,-0.93846738,0
-0.10298365,1.4211271,-2.6367257,-0.17146629,0.29979706,-0.93846738,0
0.29884291,0.36538577,3.2423208,0.17146629,-0.29979706,0.93846738,0
-1.8590987,0.34274322,-1.6822792,-0.98167032,-0.13244015,0.13705134,0
-1.4327319,-0.35024917,-2.7014904,-0.63517404,-0.76180464,-0.12730956,0
-0.71794653,-1.5431633,2.7353885,0.17146629,-0.29979706,0.93846738,0
0.41489637,0.78137732,-2.9836144,-0.17146629,0.29979706,-0.93846738,0
0.99566138,0.68558621,-2.4532976,0.9851774,0.047371715,-0.16486764,0
-0.24385235,2.0976524,-2.0240331,0.17528909,0.94665956,0.27038717,0
0.082766414,1.8851455,-2.6608858,-0.17146629,0.29979706,-0.93846738,0
-0.70490074,-0.53970146,-3.0899577,-0.091846406,-0.95329082,-0.28775129,0
1.4719054,-0.13356018,2.9231699,0.17146629,-0.29979706,0.93846738,0
0.52137733,-2.4141216,2.3530362,0.17146629,-0.29979706,0.93846738,0
0.63814163,-0.53039527,-2.1270292,0.68444324,-0.64890754,-0.3323499,0
1.0349439,-1.4293264,0.61485779,0.61044991,-0.71534234,-0.34005353,0
-0.25473279,-1.4777446,0.034256697,-0.25309336,-0.93400955,-0.25213057,0
-1.7684972,0.25474396,-1.2187943,-0.98240542,-0.12359932,0.14001,0
1.6029024,-0.76763773,0.92514431,0.9175728,-0.29821995,-0.26291627,0
1.38355,-0.27463889,2.8207519,0.17146629,-0.29979706,0.93846738,0
-1.0515342,1.3926475,-0.38363469,-0.6505481,0.68090808,0.33637965,0
-0.27720308,1.2015176,0.95909339,-0.20589769,0.92063469,0.33171967,0
1.1773943,0.45927238,-1.6960701,0.98518574,0.04939878,-0.16422158,0
-0.091931105,0.15794063,3.1595917,0.17146629,-0.29979706,0.93846738,0
-1.8135045,1.2584172,-2.5245192,-0.17146629,0.29979706,-0.93846738,0
0.48667645,-2.0774691,1.532403,0.10468602,-0.94163758,-0.31993687,0
1.5853224,-0.93849754,0.8049826,0.88016188,-0.38135353,-0.28263831,0
-0.46657133,-1.2943072,-0.813528,-0.2466467,-0.9353025,-0.25372148,0
0.58448172,0.16623831,3.0959539,0.17146629,-0.29979706,0.93846738,0
-0.86901164,-0.49821174,-2.9062681,-0.23682344,-0.93718636,-0.25611812,0
-0.40927124,-0.011172295,-3.0640635,-0.17146629,0.29979706,-0.93846738,0
0.73177552,-0.52154016,2.9723353,0.17146629,-0.29979706,0.93846738,0
0.82615471,-2.2234864,2.3490613,0.17146629,-0.29979706,0.93846738,0
1.4394825,-1.0612805,2.53126,0.17146629,-0.29979706,0.93846738,0
-0.89693689,2.1974092,-2.4132085,-0.17146629,0.29979706,-0.93846738,0
1.4381368,-1.3489715,2.4406562,0.17146629,-0.29979706,0.93846738,0
-1.4967638,0.14705983,-0.15333009,-0.98501146,-0.034029692,0.16909951,0
-1.3689991,1.3197864,-0.71005797,-0.71790504,0.61433601,0.32741964,0
0.010209203,-1.7747639,0.39323622,-0.072675109,-0.95382875,-0.29142588,0
0.33555651,1.3698649,-2.913275,-0.17146629,0.29979706,-0.93846738,0
-1.0570782,0.79177129,-2.7516754,-0.17146629,0.29979706,-0.93846738,0
-0.65807956,1.5807265,-2.4774008,-0.17146629,0.29979706,-0.93846738,0
-0.34664476,1.6510956,-2.6745791,-0.17146629,0.29979706,-0.93846738,0
-0.93608725,1.2932271,-2.5444603,-0.17146629,0.29979706,-0.93846738,0
-1.0691794,0.49060595,-2.7408199,-0.17146629,0.29979706,-0.93846738,0
-0.83914798,0.8654331,-2.7632406,-0.17146629,0.29979706,-0.93846738,0
-0.96198118,0.9740411,-2.80813,-0.17146629,0.29979706,-0.93846738,0
1.4739971,-0.4796977,2.8140342,0.17146629,-0.29979706,0.93846738,0
-0.91771984,0.14686012,2.5007691,-0.79901212,0.51495206,0.31049001,0
0.096298397,1.7757802,-2.6307166,-0.17146629,0.29979706,-0.93846738,0
0.85409147,-1.0500652,-0.5928722,0.53324646,-0.77273428,-0.34428185,0
-0.10022044,-1.0259433,-1.6990539,0.034844041,-0.95013374,-0.30989018,0
0.47145796,0.9320147,-3.0664802,-0.17146629,0.29979706,-0.93846738,0
-0.20198941,0.18755245,-3.1519933,-0.17146629,0.29979706,-0.93846738,0
0.33147848,0.67212439,-2.9976029,-0.17146629,0.29979706,-0.93846738,0
-0.89015913,0.22108984,-2.9895265,-0.17146629,0.29979706,-0.93846738,0
-1.4286734,1.7152988,-2.3043261,-0.17146629,0.29979706,-0.93846738,0
-1.9297613,0.45423496,-2.5510087,-0.95985502,-0.26547301,0.090567589,0
-0.26035595,-1.8187968,1.4263998,-0.42094582,-0.88353854,-0.20533931,0
-0.5769372,1.4505785,0.34863591,-0.31098527,0.88740158,0.3403036,0
-1.4851327,-0.30020529,0.18149614,-0.97985315,-0.15091157,0.13081861,0
-0.43357754,-0.043778658,3.3305402,0.17146629,-0.29979706,0.93846738,0
-0.51434195,-1.57953,0.74386394,-0.50999761,-0.84201843,-0.17580503,0
1.156882,-1.6218561,2.4711268,0.17146629,-0.29979706,0.93846738,0
1.203148,-1.28496,0.67498547,0.67855763,-0.65467054,-0.33311555,0
-1.4003365,-0.48356628,-2.2863812,-0.6238066,-0.77033246,-0.1321106,0
-1.1163625,1.9663525,-1.7909794,-0.44660723,0.82542199,0.3452833,0
-0.35876012,-1.1684844,-1.37238,-0.11149693,-0.95236015,-0.28386363,0
-0.49600923,0.49205565,-2.8809001,-0.17146629,0.29979706,-0.93846738,0
-1.586452,0.282994,-0.73439133,-0.98231488,0.020696014,0.1860891,0
-0.74421287,-0.88604617,2.9600122,0.17146629,-0.29979706,0.93846738,0
-1.2629615,1.6570764,-1.3398825,-0.59082317,0.73097956,0.34146288,0
0.1659565,0.28893495,3.2555718,0.17146629,-0.29979706,0.93846738,0
-0.16955853,1.1536109,-2.8160472,-0.17146629,0.29979706,-0.93846738,0
-0.65219569,-0.45473552,3.2751734,0.17146629,-0.29979706,0.93846738,0
1.9531891,-1.326246,2.4437447,0.17146629,-0.29979706,0.93846738,0
-0.24104357,-0.53760028,-2.9446323,0.088733554,-0.94400394,-0.31777811,0
-0.43329322,1.4595143,0.36072928,-0.21543896,0.91810989,0.33265644,0
0.79832625,0.47104311,3.2026689,0.17146629,-0.29979706,0.93846738,0
0.85074806,-0.49741673,-1.7479435,0.73121011,-0.59966636,-0.32516438,0
-0.56179374,1.2792902,-2.7568512,-0.17146629,0.29979706,-0.93846738,0
1.0335999,0.41655612,-2.3525956,0.96104419,-0.15870395,-0.22628993,0
1.1699985,0.57599926,2.1721847,0.50293148,0.84573907,0.17828459,0
-1.4488927,-0.47895038,-0.42075717,-0.9122842,-0.40794012,0.036364317,0
0.66825199,-0.47563601,3.0288265,0.17146629,-0.29979706,0.93846738,0
0.01887618,2.232861,-2.5167463,-0.17146629,0.29979706,-0.93846738,0
1.85201,-0.30497003,2.2525818,0.93866277,0.33899379,-0.063209176,0
0.13376641,-0.1460309,3.2097449,0.17146629,-0.29979706,0.93846738,0
0.39037156,0.3331933,3.2118273,0.17146629,-0.29979706,0.93846738,0
1.1339484,0.85987282,1.5162137,0.57549244,0.80363727,0.15157741,0
-0.50437242,1.3529251,-2.6975293,-0.17146629,0.29979706,-0.93846738,0
-0.72962701,-0.93559384,3.006134,0.17146629,-0.29979706,0.93846738,0
1.2357557,0.24045098,-1.3478494,0.9799428,-0.046283692,-0.19382972,0
-0.34260011,-0.10879588,-3.1649573,-0.17146629,0.29979706,-0.93846738,0
-1.4476426,0.83447576,-0.52835464,-0.90499842,0.32850957,0.2702949,0
0.68497753,1.3861114,0.089641333,0.48144335,0.85658443,0.18567514,0
-1.4863225,-0.26329195,-2.4606974,-0.7564221,-0.65037471,-0.069559574,0
-0.62415189,1.5498441,-2.5126615,-0.17146629,0.29979706,-0.93846738,0
-0.57651591,-1.0763164,2.9496224,0.17146629,-0.29979706,0.93846738,0
0.69952452,1.0242147,-3.0918992,-0.17146629,0.29979706,-0.93846738,0
-0.92734361,1.4109638,0.015983999,-0.51138735,0.78710914,0.34488007,0
-0.23799431,1.6456805,-2.7199259,-0.17146629,0.29979706,-0.93846738,0
0.14046341,-1.979465,1.4244609,-0.15465337,-0.94895589,-0.27489108,0
-0.45220852,0.66310453,-2.8972628,-0.17146629,0.29979706,-0.93846738,0
0.29686975,-0.91135526,2.8801651,0.17146629,-0.29979706,0.93846738,0
0.6094557,-0.39032769,3.0130525,0.17146629,-0.29979706,0.93846738,0
0.77298957,1.3066368,-0.80044901,0.67887712,0.72626972,0.10797286,0
-1.7369641,0.40430182,-1.2076038,-0.98508167,-0.038044542,0.16782981,0
0.12961483,-0.29098511,-3.3024356,-0.17146629,0.29979706,-0.93846738,0
-1.5496769,0.044253975,-0.067308426,-0.98491538,-0.029675931,0.17047274,0
-1.1972816,-0.53170586,2.1104534,-0.98134762,0.032073736,0.189547,0
-0.44081581,-1.0033331,2.9762626,0.17146629,-0.29979706,0.93846738,0
1.0848004,-1.0453995,2.6358857,0.17146629,-0.29979706,0.93846738,0
1.0516999,-1.9782729,2.0121775,0.39969468,-0.84948951,-0.34440047,0
1.2667882,0.88521433,1.0353664,0.68298459,0.72268903,0.10607851,0
0.24270642,-1.0366244,2.8997133,0.17146629,-0.29979706,0.93846738,0
-1.0291158,1.6683172,-1.1071329,-0.51214957,0.78662068,0.3448633,0
1.3839875,-1.3975902,2.4797447,0.17146629,-0.29979706,0.93846738,0
0.57058144,0.78845072,-3.0431745,-0.17146629,0.29979706,-0.93846738,0
-0.26915428,2.0755014,-2.4877088,-0.17146629,0.29979706,-0.93846738,0
-1.2381144,-0.62610221,2.0106492,-0.98518801,-0.054062754,0.16273201,0
1.0094255,0.45528078,-2.6048872,0.96751052,-0.12841031,-0.217794,0
-0.73323053,1.3019392,0.12395993,-0.45717311,0.81958878,0.34535038,0
-1.2962325,0.27546114,0.55708009,-0.94569331,0.21693,0.24208564,0
-0.085340738,-0.72091019,-2.4077106,0.19586056,-0.92318761,-0.33070129,0
0.14205134,1.3996737,0.3653419,0.084196627,0.95354915,0.28923151,0
0.4838118,1.8535051,-2.7044175,-0.17146629,0.29979706,-0.93846738,0
1.0270615,0.69120717,2.6776583,0.39462435,0.893718,0.2134003,0
0.85583013,1.3846481,-2.372577,0.90000749,0.43513164,-0.025434852,0
-0.73767114,1.2545178,0.43489641,-0.49552989,0.79706502,0.34516323,0
-0.2481389,0.7214911,2.4938307,-0.40154237,0.84859645,0.3444528,0
-0.1010164,-1.703807,2.6418841,0.17146629,-0.29979706,0.93846738,0
0.97849119,0.010001421,3.0423942,0.17146629,-0.29979706,0.93846738,0
0.61067104,1.6025188,-2.7406504,-0.17146629,0.29979706,-0.93846738,0
0.53008348,-1.1847714,2.7029896,0.17146629,-0.29979706,0.93846738,0
-0.20483917,-1.6326663,0.34278142,-0.28054917,-0.92799401,-0.24519247,0
0.31028104,-1.2537515,2.8051829,0.17146629,-0.29979706,0.93846738,0
-1.3257003,0.36726999,-2.8739283,-0.17146629,0.29979706,-0.93846738,0
1.6135544,0.10282105,1.3955544,0.90218836,0.43047625,-0.027320504,0
0.023854733,0.58503509,2.9035797,-0.24129999,0.9107812,0.33504024,0
1.102419,0.063753366,-2.3196623,0.89973193,-0.34041142,-0.27313471,0
-0.42101347,0.69889164,-2.9634128,-0.17146629,0.29979706,-0.93846738,0
1.4617732,0.21073592,-0.69856954,0.98476464,0.02416864,-0.17220455,0
0.98404717,-0.24313927,2.8708847,0.17146629,-0.29979706,0.93846738,0
-1.4730645,0.9332267,-0.66417569,-0.89771086,0.3448697,0.27418965,0
1.1510581,-0.30587363,2.7898059,0.17146629,-0.29979706,0.93846738,0
-0.54614151,0.6726222,-2.963299,-0.17146629,0.29979706,-0.93846738,0
-0.57966208,-0.12530541,-3.0637188,-0.17146629,0.29979706,-0.93846738,0
-0.37949538,-0.68542063,-2.470228,0.017758727,-0.95147967,-0.30719855,0
0.66973305,0.41986799,3.292583,0.17146629,-0.29979706,0.93846738,0
0.35388291,-1.9991558,1.4177086,0.041321874,-0.9495483,-0.3108868,0
-1.3583881,-0.091245413,-2.9991884,-0.17146629,0.29979706,-0.93846738,0
-0.086649895,0.64848018,-2.892962,-0.17146629,0.29979706,-0.93846738,0
-1.0317644,0.32213736,-2.9862232,-0.17146629,0.29979706,-0.93846738,0
1.2175219,-0.9268533,2.7542646,0.17146629,-0.29979706,0.93846738,0
0.5667336,-0.35314012,-2.7451901,0.6435684,-0.68715578,-0.33710027,0
-0.51739335,-1.0390298,3.0516357,0.17146629,-0.29979706,0.93846738,0
-1.1848335,1.3608474,-2.4395456,-0.17146629,0.29979706,-0.93846738,0
-0.47732297,-1.5059122,0.57188404,-0.43320775,-0.87848461,-0.20148444,0
-0.074220419,-0.55659723,-2.8847213,0.30482066,-0.88968921,-0.33990806,0
-0.21301442,2.0104301,-1.5677377,0.15334392,0.9490869,0.27517223,0
0.6713084,-1.5280275,0.14421822,0.38951045,-0.85433346,-0.34408718,0
-1.6116245,0.37379107,-0.8275466,-0.98312026,0.0096455514,0.18270606,0
1.1557986,0.32845604,-1.6172118,0.9703356,-0.11340201,-0.21351564,0
-0.32649362,-1.957841,1.4436085,-0.39761728,-0.89260566,-0.21249807,0
-1.0977924,0.16175628,-3.0139391,-0.17146629,0.29979706,-0.93846738,0
-0.95594805,1.0031897,-2.6029396,-0.17146629,0.29979706,-0.93846738,0
1.4284234,-0.3852056,-0.25743783,0.95295411,-0.19121027,-0.23519611,0
0.82512289,-1.3370638,-0.1931541,0.55563956,-0.75718957,-0.34340745,0
-1.6333742,-0.13033903,-1.820163,-0.88799971,-0.45958507,0.015429139,0
-0.88736439,-1.3429992,0.23604321,-0.65255439,-0.74821305,-0.1197921,0
1.4915034,-1.2387679,2.4403627,0.17146629,-0.29979706,0.93846738,0
1.4136446,-0.058064759,-0.2716862,0.98130912,-0.032495975,-0.18967491,0
0.40869021,-1.9393239,0.97625053,0.13891888,-0.93570006,-0.32429475,0
-0.091622829,0.74819136,2.2723598,-0.25853056,0.90549928,0.33650112,0
-0.56490988,1.6328733,-2.6517355,-0.17146629,0.29979706,-0.93846738,0
1.4412076,-0.694987,0.16646063,0.88046366,-0.38075703,-0.28250283,0
-1.9006402,0.82128769,-1.8306569,-0.98026669,0.043195575,0.19290245,0
-0.76749372,-1.6914108,1.4749341,-0.69046921,-0.71604991,-0.10259008,0
-0.1041078,-1.4682541,2.6536241,0.17146629,-0.29979706,0.93846738,0
-0.92112207,-0.74618864,3.1666734,0.17146629,-0.29979706,0.93846738,0
-0.64502633,0.92364395,-2.7472181,-0.17146629,0.29979706,-0.93846738,0
-1.5360532,-0.17620146,0.31919348,-0.98512995,-0.04165557,0.16668499,0
0.84072399,-1.3449808,2.539628,0.17146629,-0.29979706,0.93846738,0
0.2257297,0.57172537,-3.1083345,-0.17146629,0.29979706,-0.93846738,0
1.0784649,0.81953752,1.5900685,0.57532084,0.80374753,0.15164405,0
0.74996191,-1.2822679,-0.12588906,0.45749903,-0.81940639,-0.3453517,0
-0.94116747,0.0015237331,-3.0744414,-0.17146629,0.29979706,-0.93846738,0
-1.7026092,0.038600206,-2.9400499,-0.17146629,0.29979706,-0.93846738,0
-0.96324193,1.8905966,-2.4080262,-0.17146629,0.29979706,-0.93846738,0
-1.4614406,0.43452048,0.14978516,-0.92088288,0.28974324,0.26081306,0
1.4087187,0.18494272,2.9167135,0.17146629,-0.29979706,0.93846738,0
1.5939662,0.29907787,2.1965456,0.79938221,0.59911019,0.045333862,0
0.64398694,-1.1709759,2.7809739,0.17146629,-0.29979706,0.93846738,0
-0.7436763,-0.4079628,3.1562595,0.17146629,-0.29979706,0.93846738,0
-0.45855665,-0.014742136,-3.0371828,-0.17146629,0.29979706,-0.93846738,0
1.1196659,-1.9605587,1.7473295,0.43599021,-0.83112746,-0.34516621,0
-0.9729836,-0.83374608,-1.1905127,-0.54704505,-0.82120192,-0.16238624,0
0.97315764,0.32535863,3.1017072,0.17146629,-0.29979706,0.93846738,0
0.34193754,-0.52127314,-2.6021233,0.42736655,-0.83564872,-0.3450349,0
-0.20261019,1.9926453,-1.3849416,0.055296659,0.95400196,0.29465646,0
1.202888,0.70501375,1.0332509,0.75543487,0.6514644,0.070088148,0
0.94727224,0.95494568,0.56367314,0.60832083,0.7815116,0.1385113,0
-0.51077533,0.85501051,-2.9289393,-0.17146629,0.29979706,-0.93846738,0
-0.98587835,-0.78092051,-2.1061223,-0.48939651,-0.85265166,-0.18296582,0
-0.9869554,-0.0053710938,2.0898423,-0.9151783,0.30421218,0.26439291,0
-0.91824281,-1.1784925,2.7952087,-0.96928406,-0.22181591,0.10623682,0
-1.0180393,-1.3880215,2.4756904,-0.92544365,-0.37569422,0.049069762,0
-0.25695032,1.8761284,-1.0008674,-0.018036604,0.95146012,0.30724305,0
0.59159732,1.1172507,1.4882576,0.19753397,0.94369292,0.26537514,0
0.88966596,-1.8193032,2.4704022,0.17146629,-0.29979706,0.93846738,0
-1.0443738,0.86298597,-2.8031385,-0.17146629,0.29979706,-0.93846738,0
0.52606833,0.88373613,2.0563469,0.088476837,0.95341182,0.2884056,0
-1.6769006,-0.1413027,-1.9339339,-0.86947393,-0.49397761,0.0010575056,0
0.99671227,-2.0290627,2.3488667,0.17146629,-0.29979706,0.93846738,0
-0.062116206,1.9880961,-2.6323171,-0.17146629,0.29979706,-0.93846738,0
1.3391247,0.50081217,-0.83905041,0.9749701,0.18848714,-0.11792278,0
-0.006549567,-1.9406269,2.4934335,0.17146629,-0.29979706,0.93846738,0
-0.27798331,-1.2783825,-1.0464574,-0.048115194,-0.95398659,-0.29596364,0
1.5705612,-0.59620881,2.6947632,0.17146629,-0.29979706,0.93846738,0
-1.8851687,1.0633576,-2.4764071,-0.17146629,0.29979706,-0.93846738,0
0.71654105,0.91414535,1.9702842,0.27603155,0.92904103,0.24635237,0
1.2321817,-0.12544179,2.8706975,0.17146629,-0.29979706,0.93846738,0
-0.16242492,0.70240569,-3.0407083,-0.17146629,0.29979706,-0.93846738,0
-0.27548909,0.40475106,3.2918358,-0.49769151,0.79573053,0.34513181,0
-1.2064654,-0.19554448,-3.0055995,-0.17146629,0.29979706,-0.93846738,0
-0.23503637,-0.12940788,-3.1533237,-0.17146629,0.29979706,-0.93846738,0
-0.5963372,-1.3086811,-0.3910054,-0.39017248,-0.89535141,-0.21473557,0
1.3213834,0.77384126,-1.2410142,0.96562421,0.24004319,-0.099745393,0
-0.58870149,0.015441179,-3.1721339,-0.17146629,0.29979706,-0.93846738,0
0.30675507,1.2120316,1.1662188,0.10294342,0.95281255,0.28557098,0
0.61861098,-0.66396022,-1.8820956,0.61287791,-0.71335435,-0.33986211,0
-0.18061465,1.7065912,-2.7094984,-0.17146629,0.29979706,-0.93846738,0
-0.73770672,1.128178,-2.6789939,-0.17146629,0.29979706,-0.93846738,0
-0.81828785,2.1708674,-2.3234611,-0.17146629,0.29979706,-0.93846738,0
1.3155282,-1.7945622,2.3010039,0.17146629,-0.29979706,0.93846738,0
0.4993054,-2.0857382,2.3864408,0.17146629,-0.29979706,0.93846738,0
-0.28784752,-0.49739337,-3.2057557,0.12004316,-0.93911946,-0.32193834,0
0.48203111,0.076186895,-3.2629161,-0.17146629,0.29979706,-0.93846738,0
-0.10630774,0.35188985,-3.0415583,-0.17146629,0.29979706,-0.93846738,0
1.0360289,-0.1523056,2.8858171,0.17146629,-0.29979706,0.93846738,0
-0.41898096,1.4841837,-0.11071378,-0.22400415,0.91576159,0.33347112,0
0.15757626,-1.5505723,2.67471,0.17146629,-0.29979706,0.93846738,0
1.1147096,-0.6698637,2.7818093,0.17146629,-0.29979706,0.93846738,0
-1.3917987,1.8170413,-2.3030066,-0.17146629,0.29979706,-0.93846738,0
-1.2116382,-0.76972955,0.69820404,-0.90571654,-0.42279077,0.030420303,0
-0.19498149,1.8596795,-2.6616902,-0.17146629,0.29979706,-0.93846738,0
-0.93474543,0.19166899,-2.9341924,-0.17146629,0.29979706,-0.93846738,0
-0.25268197,0.32595301,-2.9756064,-0.17146629,0.29979706,-0.93846738,0
0.96950638,0.40316796,-2.8931282,0.91842568,-0.29605785,-0.26238143,0
0.85202533,-1.4935598,2.469471,0.17146629,-0.29979706,0.93846738,0
-0.15508842,-0.50916743,2.9725006,0.17146629,-0.29979706,0.93846738,0
1.471285,0.0076875687,-0.063988924,0.98446572,0.015619695,-0.1748808,0
-1.0774646,1.2032063,-0.27632669,-0.67013848,0.66275978,0.33416143,0
0.98321104,1.1528449,-0.91162109,0.81659466,0.57615811,0.034856796,0
0.84313369,-0.3377111,-1.9389306,0.77053797,-0.55276525,-0.31736711,0
-1.1283805,1.7111337,-1.1242774,-0.57033974,0.74651277,0.34268254,0
1.2789352,-0.33732224,2.9465563,0.17146629,-0.29979706,0.93846738,0
-1.0450624,0.40566039,1.6973035,-0.79501194,0.52048695,0.3115274,0
-1.3512912,-0.56399381,-0.51782215,-0.8571986,-0.51492572,-0.0078771114,0
0.14622545,0.42470074,-3.1939685,-0.17146629,0.29979706,-0.93846738,0
-0.46512407,1.5034752,-2.5368111,-0.17146629,0.29979706,-0.93846738,0
-0.28159487,-0.86370075,-1.897437,0.037312984,-0.94991541,-0.31027159,0
1.0410434,-0.52635574,2.9240279,0.17146629,-0.29979706,0.93846738,0
1.2948964,-0.64566219,2.8087823,0.17146629,-0.29979706,0.93846738,0
-0.18416452,0.21148515,-3.1525712,-0.17146629,0.29979706,-0.93846738,0
-1.7029568,0.11028278,-1.0429311,-0.97375643,-0.19627649,0.11521268,0
0.85432053,0.2442112,-3.1821244,0.84544796,-0.44426286,-0.29639232,0
-0.45219111,-1.2085984,2.8984323,0.17146629,-0.29979706,0.93846738,0
-0.72754622,-0.54597211,3.222965,0.17146629,-0.29979706,0.93846738,0
-0.44395256,-0.96677732,3.0009797,0.17146629,-0.29979706,0.93846738,0
1.2600185,-1.2321589,0.39967018,0.74853927,-0.57968807,-0.32194838,0
1.1025367,-1.2413141,-0.027078062,0.61127275,-0.71466988,-0.33998907,0
-0.14963663,1.2532806,-2.775295,-0.17146629,0.29979706,-0.93846738,0
