0.74796039,-1.0071644,1.2652345,0.66143113,-0.10821558,0.742158,0
-1.4167105,0.013288431,-0.61353028,-0.82968831,0.22676018,-0.51009536,0
0.84796059,-0.024444759,1.2944587,0.5788781,-0.059301138,0.81325507,0
0.1569885,-1.5372576,1.1683415,-0.36905661,-0.90840632,0.19645655,0
-1.2464528,0.73025787,-0.72535908,-0.86911863,0.26242769,-0.41924298,0
-0.4337635,-1.3516346,1.0716985,-0.36905661,-0.90840632,0.19645655,0
0.1117115,1.3531553,-1.389472,0.36905661,0.90840632,-0.19645655,0
1.106411,-1.1628059,0.77958465,0.87999594,-0.27353632,0.38831079,0
-0.040664434,1.3385949,1.1522666,-0.27373314,0.30824262,0.91107458,0
-0.95493829,1.3166333,-0.70562112,-0.89552069,0.29100835,-0.3366853,0
-0.73519289,-1.2744837,0.60934132,-0.36905661,-0.90840632,0.19645655,0
-0.45590079,-1.098122,1.4199195,-0.36905661,-0.90840632,0.19645655,0
-1.826887,-0.48962221,0.25096357,-0.92129558,0.38543516,0.051520586,0
0.57938576,1.2437936,-0.76958251,0.36905661,0.90840632,-0.19645655,0
0.77741075,-1.6986363,0.9469738,0.83781868,-0.23367074,0.49341464,0
-1.1607325,0.51090378,-0.943838,-0.79773355,0.20115349,-0.56847036,0
0.40500724,-1.4249907,-0.86857188,0.5038057,-0.37316296,-0.77905685,0
1.6726907,1.0955476,0.45325482,0.36905661,0.90840632,-0.19645655,0
0.01446557,-1.1670134,1.6804953,0.31397253,0.077093869,0.94629699,0
1.8476517,0.71382505,-0.062849998,0.92563701,-0.34023476,0.16563988,0
1.5354216,0.47716761,0.58555961,0.83541977,-0.23161209,0.49842727,0
-0.76003188,1.0719733,-1.2087275,-0.68850446,0.12523106,-0.71433824,0
0.90822411,-0.020886421,-1.3913996,0.39229763,-0.34388238,-0.85314,0
1.0842324,-0.77549809,0.61316633,0.87759137,-0.27101436,0.395455,0
-1.4790434,-1.0503983,0.42058754,-0.36905661,-0.90840632,0.19645655,0
1.7834425,0.46085894,0.18206215,0.9082514,-0.30766317,0.28358936,0
1.0800588,-1.4428784,0.060704589,0.91852033,-0.38875082,-0.072065353,0
1.2665808,0.053596582,0.77244556,0.80648488,-0.20795104,0.55347878,0
-0.87174559,-0.12790763,1.3354492,-0.41177404,0.34931603,0.84167731,0
0.93080616,0.69950545,1.2613167,0.41748226,0.026821434,0.90828931,0
0.84253687,-1.2274885,-0.64903998,0.69968748,-0.41069165,-0.58461088,0
0.48061109,0.15313509,1.3696811,0.33637536,0.06649588,0.93937749,0
1.0874147,1.1764516,0.19410098,0.36905661,0.90840632,-0.19645655,0
0.019663036,-1.78062,-0.086376607,-0.36905661,-0.90840632,0.19645655,0
0.67173117,1.4944204,0.67302865,0.36905661,0.90840632,-0.19645655,0
-0.74417722,-1.4216121,-0.41361886,-0.36905661,-0.90840632,0.19645655,0
-0.13998365,-0.18204546,-1.4207498,-0.1465224,-0.1518674,-0.97748029,0
-0.72002715,1.3466977,0.57547545,-0.73853391,0.41496348,0.53138804,0
-1.0396733,0.39271459,-1.1671932,-0.70471394,0.13569713,-0.69639415,0
0.056390971,1.5517353,0.10913914,0.36905661,0.90840632,-0.19645655,0
-1.4052248,-0.83483201,1.2108392,-0.36905661,-0.90840632,0.19645655,0
0.14105725,1.2042056,-1.6055144,0.36905661,0.90840632,-0.19645655,0
0.81784785,1.0407033,1.2323065,0.36002797,0.055142,0.93131053,0
1.6102192,0.20782924,-0.44501376,0.90564901,-0.39898473,-0.14356625,0
-0.41481894,1.5894954,-0.6986118,0.36905661,0.90840632,-0.19645655,0
-0.092075348,-1.1416487,1.7276553,-0.36905661,-0.90840632,0.19645655,0
-0.28600225,1.6920979,-0.00063157082,0.36905661,0.90840632,-0.19645655,0
1.3377852,0.10475156,0.80409527,0.74938142,-0.16581517,0.64104062,0
1.2582514,-0.55985272,0.15626717,0.92929822,-0.35744113,0.092956185,0
1.4807098,-0.38931611,-0.062337875,0.92284685,-0.38324183,-0.038464546,0
-0.90825939,-0.094582915,1.2922868,-0.48621881,0.36885452,0.79217279,0
-1.3336735,-1.0978174,-0.13645709,-0.36905661,-0.90840632,0.19645655,0
-1.7325828,-0.68875611,0.82745731,-0.36905661,-0.90840632,0.19645655,0
-1.4033298,-0.10283625,1.091993,-0.7016477,0.41094086,0.58208078,0
1.1380715,-0.93332398,0.83663952,0.84443718,-0.23944263,0.47915888,0
-0.38432479,0.38967803,-1.5370049,-0.41468096,-0.028227612,-0.90952903,0
-0.73356164,0.4941557,-1.4191068,-0.57006395,0.054303944,-0.81980377,0
-0.6136359,1.5339706,-1.2928979,-0.69808424,0.13138962,-0.70385754,0
-0.91471595,-1.4641294,-1.0557268,-0.36905661,-0.90840632,0.19645655,0
0.40895462,1.7115768,1.0784196,0.36905661,0.90840632,-0.19645655,0
0.26823437,0.85094082,1.3837411,0.023688793,0.20211574,0.97907519,0
-0.45991707,-1.3987569,0.39507693,-0.36905661,-0.90840632,0.19645655,0
-1.3591138,-0.56796771,-1.0027277,-0.69712818,0.13077162,-0.70491934,0
-0.51388484,1.7543761,-0.19200265,0.36905661,0.90840632,-0.19645655,0
-1.5581787,-1.1677703,-0.22723961,-0.36905661,-0.90840632,0.19645655,0
-1.5151749,-1.1399449,-0.27568245,-0.36905661,-0.90840632,0.19645655,0
-0.54277819,1.7235093,-0.3885715,0.36905661,0.90840632,-0.19645655,0
-1.0623231,1.3926818,-0.15410578,-0.91821665,0.3890771,0.074144602,0
-1.2549939,-1.0597165,0.60081047,-0.36905661,-0.90840632,0.19645655,0
0.79218841,0.55443603,-1.5680747,0.2867558,-0.31236023,-0.90565026,0
1.0077591,-0.46687704,1.195416,0.71820045,-0.14458114,0.68065023,0
1.115732,1.2619234,1.0193067,0.43555635,0.017683178,0.89998782,0
1.1917119,-0.80753267,-0.31876111,0.89268339,-0.40529627,-0.19710732,0
-1.4070187,-0.92676806,1.1029625,-0.36905661,-0.90840632,0.19645655,0
-1.2765255,0.86099422,0.21689522,-0.89961946,0.40224272,0.169958,0
-0.91255355,-1.4642704,-0.96281862,-0.36905661,-0.90840632,0.19645655,0
-0.0045887679,-1.6571457,0.4213576,-0.36905661,-0.90840632,0.19645655,0
1.7188761,0.62543696,0.22266769,0.90833974,-0.30779016,0.2831682,0
1.5032818,1.2583985,0.86588931,0.36905661,0.90840632,-0.19645655,0
0.30570269,-0.033861518,-1.6099304,0.089740992,-0.24522062,-0.96530497,0
1.1771365,-0.6602217,0.64296961,0.86704576,-0.26039049,0.42476881,0
0.04804194,-1.8613133,-0.59200877,-0.36905661,-0.90840632,0.19645655,0
0.51336038,-0.16922927,1.308851,0.41888416,0.026116729,0.90766418,0
0.32276392,0.89349794,1.3230571,-0.024458289,0.22079784,0.97501296,0
-1.1839896,0.90091068,0.06096673,-0.9229275,0.38311923,0.037745953,0
-0.045246601,-1.1789515,-1.1582646,0.17873895,-0.27680403,-0.94415683,0
1.0654373,-0.50285548,1.0436796,0.7730847,-0.18271677,0.60741657,0
-0.44738662,-1.426439,-0.18772407,-0.36905661,-0.90840632,0.19645655,0
0.51281524,-1.6629527,-0.64957893,0.69460022,-0.41002956,-0.59110618,0
-0.056785405,-1.4726548,0.82580209,-0.36905661,-0.90840632,0.19645655,0
-1.2103692,0.12178335,1.1830873,-0.59004164,0.39232147,0.70564508,0
-0.54045177,0.50521654,1.2176101,-0.35589767,0.33339608,0.87303156,0
-0.78523791,-0.3028622,-1.2739055,-0.48797798,0.0094928443,-0.8728044,0
-0.89538819,-1.0705491,0.57054877,-0.36905661,-0.90840632,0.19645655,0
0.056473136,-0.94410497,1.6673985,0.3211394,0.073719695,0.94415832,0
1.5307579,0.49907738,-0.97693616,0.72624224,-0.41377163,-0.54896766,0
0.93896085,-1.1018906,0.78629494,0.83822471,-0.23402092,0.49255824,0
-0.51957685,1.7408509,-0.16930366,0.36905661,0.90840632,-0.19645655,0
0.13999099,1.6961591,0.29658455,0.36905661,0.90840632,-0.19645655,0
-0.10676444,-1.2365137,-1.3222802,0.13114154,-0.26016161,-0.95661801,0
0.27016497,1.1021218,-1.6674771,0.36905661,0.90840632,-0.19645655,0
-1.1145802,0.63261527,-0.73636317,-0.85612297,0.25000453,-0.45227361,0
-0.12006961,-1.5381355,0.36121002,-0.36905661,-0.90840632,0.19645655,0
-0.58124119,-1.325883,0.38774398,-0.36905661,-0.90840632,0.19645655,0
0.99677062,-0.5660007,1.0341289,0.77757341,-0.18600337,0.60065186,0
0.40484729,-1.7551252,0.50249189,-0.36905661,-0.90840632,0.19645655,0
0.00014615059,-1.0127925,-1.2032934,0.17413247,-0.27521881,-0.94548011,0
-0.19005752,0.94216383,-1.5557109,-0.36277401,-0.053812563,-0.93032217,0
-0.16200089,1.4933255,-0.70521677,0.36905661,0.90840632,-0.19645655,0
0.36553967,0.760405,-1.6954694,0.024988055,-0.22100021,-0.97495365,0
-0.89075017,-0.96620756,1.6413639,-0.36905661,-0.90840632,0.19645655,0
-0.30261695,-1.2220415,1.1861584,-0.36905661,-0.90840632,0.19645655,0
-1.0449569,-1.0935402,0.53185707,-0.36905661,-0.90840632,0.19645655,0
-0.62745708,1.7634435,-0.54319358,0.36905661,0.90840632,-0.19645655,0
-0.29768753,0.88671559,-1.5420871,-0.41513228,-0.028001249,-0.90933007,0
-1.8301293,-0.77252436,-0.10665607,-0.89948368,0.29589868,-0.32151723,0
-1.5730265,-1.121326,-0.51017368,-0.36905661,-0.90840632,0.19645655,0
-1.327574,-0.5522179,-1.0205485,-0.6281482,0.088001803,-0.77310151,0
1.6784141,0.90346175,-0.69929218,0.36905661,0.90840632,-0.19645655,0
-1.3560288,0.36532271,-0.14777374,-0.92933786,0.35811022,-0.089936852,0
1.5574261,-0.069654822,-0.23999178,0.92450428,-0.38049763,-0.022661805,0
-0.54281998,0.95931089,-1.3686643,-0.61843175,0.082232796,-0.7815243,0
0.86055577,1.1014637,-0.98585504,0.36905661,0.90840632,-0.19645655,0
-1.3674098,-1.0073478,0.15489817,-0.36905661,-0.90840632,0.19645655,0
1.6980816,0.28796554,-0.35399544,0.92168367,-0.38491398,-0.048381567,0
-1.2454767,-1.1079044,0.0072028637,-0.36905661,-0.90840632,0.19645655,0
0.40085769,-1.5041317,1.3434143,0.6761198,-0.1173787,0.72738183,0
-0.087244004,1.694586,-0.085870981,0.36905661,0.90840632,-0.19645655,0
1.2742732,-0.39339951,0.55913544,0.89552045,-0.29100803,0.33668613,0
-1.2956274,-1.2530886,-0.20364451,-0.36905661,-0.90840632,0.19645655,0
-0.43093801,0.71822822,-1.5442159,-0.44644022,-0.012124658,-0.8947314,0
1.2154944,-0.96735954,-0.072188616,0.91642356,-0.39088675,-0.085880876,0
1.1987511,0.9347865,-0.99226713,0.36905661,0.90840632,-0.19645655,0
0.67156661,-1.7302426,0.83675897,-0.36905661,-0.90840632,0.19645655,0
-0.18101013,1.4093258,-1.2169676,0.36905661,0.90840632,-0.19645655,0
1.6963601,0.73998863,-0.85236716,0.36905661,0.90840632,-0.19645655,0
-1.558056,-1.2407436,-0.82182908,-0.60792017,0.076054059,-0.79034746,0
1.394544,0.78634828,-1.0592136,0.36905661,0.90840632,-0.19645655,0
1.0484581,0.95604444,-1.547725,0.36905661,0.90840632,-0.19645655,0
-0.44679093,1.5590214,-1.408318,0.36905661,0.90840632,-0.19645655,0
-0.13817424,-1.6477014,-0.3609584,-0.36905661,-0.90840632,0.19645655,0
-1.5551051,-1.0500163,-0.77408254,-0.6781978,0.1186879,-0.72523183,0
-0.64814246,0.9265281,-1.3556771,-0.5859611,0.063345581,-0.80785948,0
-0.46947122,1.5347419,0.91133237,-0.59030879,0.39237523,0.70539165,0
1.5097485,0.42002153,-1.1867931,0.67329216,-0.40702823,-0.61725658,0
-0.80385363,2.002919,-0.23595464,0.36905661,0.90840632,-0.19645655,0
-1.0243689,-1.2701964,0.29383135,-0.36905661,-0.90840632,0.19645655,0
-0.15870619,-1.4029386,1.1123965,-0.36905661,-0.90840632,0.19645655,0
1.320563,1.0420668,-0.039110422,0.36905661,0.90840632,-0.19645655,0
-0.69038796,1.133761,0.77062619,-0.6755448,0.40736216,0.61456931,0
1.7240015,0.19439092,-0.47793984,0.89273256,-0.40527686,-0.1969254,0
-1.1862333,-1.2174933,-0.14831185,-0.36905661,-0.90840632,0.19645655,0
-0.61920655,-0.35734513,-1.3248067,-0.34685367,-0.061487168,-0.93590182,0
-0.85226482,-1.406521,-0.35642296,-0.36905661,-0.90840632,0.19645655,0
1.3858931,-0.61542857,0.18709099,0.92874551,-0.36843479,0.041083694,0
-1.3962916,0.26169023,-0.34978342,-0.90719926,0.30616638,-0.28853405,0
1.7268182,0.28153116,-0.49347019,0.87290585,-0.41136545,-0.26232409,0
0.76875544,0.16879892,-1.3736271,0.30649567,-0.31850955,-0.89700186,0
0.79467154,-1.9032899,0.54115546,-0.36905661,-0.90840632,0.19645655,0
-1.1717577,-0.99128127,1.1791484,-0.36905661,-0.90840632,0.19645655,0
0.61861295,1.3341377,-0.55719715,0.36905661,0.90840632,-0.19645655,0
0.69284666,1.5611799,1.1008978,0.36905661,0.90840632,-0.19645655,0
0.57224619,1.174325,-1.4969728,0.36905661,0.90840632,-0.19645655,0
0.41211247,-1.3614891,-0.89248264,0.52677709,-0.37859741,-0.76103222,0
-0.029308558,-1.7507652,-0.59168118,-0.36905661,-0.90840632,0.19645655,0
-1.1063834,-1.3480361,-0.52641183,-0.36905661,-0.90840632,0.19645655,0
-0.44577709,-1.2861863,0.47462088,-0.36905661,-0.90840632,0.19645655,0
1.315713,-0.89158165,-0.22015178,0.90339237,-0.40028256,-0.15380657,0
-0.26507938,1.9814384,0.71349329,0.36905661,0.90840632,-0.19645655,0
-1.253985,0.24174689,-0.72805583,-0.82387882,0.22193192,-0.52150756,0
0.80991763,-1.0838842,0.95975173,0.77550161,-0.18448278,0.60379082,0
-0.90578127,-1.0890452,0.83523321,-0.36905661,-0.90840632,0.19645655,0
0.44715974,-1.7437799,-0.069199681,-0.36905661,-0.90840632,0.19645655,0
0.9248395,-1.7542048,0.16971743,0.90659648,-0.39840794,-0.13911915,0
-0.20848674,1.83119,0.2963801,0.36905661,0.90840632,-0.19645655,0
0.68118632,1.3801887,0.045597643,0.36905661,0.90840632,-0.19645655,0
1.8368105,0.52321422,-0.23085535,0.92483556,-0.37988272,-0.019196272,0
-0.39009053,-1.5190535,0.26511708,-0.36905661,-0.90840632,0.19645655,0
0.19095421,-0.11646959,1.5529082,0.19004273,0.13315368,0.97270459,0
0.93593824,0.19041973,-1.2843781,0.45916843,-0.3619906,-0.81125045,0
0.84392959,-1.1863601,-0.53229535,0.76734865,-0.41708156,-0.48705167,0
-0.080254734,-1.5588777,0.57190478,-0.36905661,-0.90840632,0.19645655,0
-0.30148792,-1.5860449,-0.74639732,-0.36905661,-0.90840632,0.19645655,0
0.037435412,-1.7713253,-0.38781726,-0.36905661,-0.90840632,0.19645655,0
1.3111286,0.26238495,-1.083743,0.61470991,-0.39711943,-0.68148947,0
-0.88176584,0.86147237,0.79825997,-0.7045505,0.41130382,0.57830602,0
-0.47557735,-1.2523004,1.4246932,-0.36905661,-0.90840632,0.19645655,0
0.86341041,-1.4448094,-0.19032478,0.87376571,-0.41116202,-0.25976825,0
-0.31776452,-1.3778256,-1.2674004,0.11511672,-0.25442931,-0.96021569,0
-0.92451143,1.5781149,-0.60918593,-0.92273349,0.33284193,-0.19436955,0
1.5352763,1.0882742,0.60800767,0.36905661,0.90840632,-0.19645655,0
-1.5579624,-1.0960339,-0.061207771,-0.36905661,-0.90840632,0.19645655,0
-1.4928485,-1.1066825,0.14036047,-0.36905661,-0.90840632,0.19645655,0
0.89280242,-0.9987312,-0.62060213,0.76069432,-0.41668394,-0.49771363,0
0.33401716,-1.5193399,1.2103878,-0.36905661,-0.90840632,0.19645655,0
-0.49859285,-1.2684873,-1.2224402,-0.023672581,-0.20212212,-0.97907436,0
0.083264709,0.80816579,1.3021755,-0.042614579,0.22769547,0.9727996,0
-0.21945316,-1.3115784,0.74560618,-0.36905661,-0.90840632,0.19645655,0
0.22843099,-0.83281338,1.5679195,0.37842739,0.046189204,0.92447793,0
-1.2434715,0.27142328,0.71848214,-0.78200495,0.41773939,0.46256042,0
0.44291413,0.25394064,-1.5973418,0.077194214,-0.24060835,-0.96754789,0
-0.79690456,-0.47512347,-1.2134529,-0.47925639,0.004899174,-0.87766141,0
1.394857,-0.60488415,0.0044404268,0.92395705,-0.38145998,-0.02813971,0
0.039443851,1.7660562,1.0353556,-0.3643074,0.3358562,0.86860865,0
0.92613786,1.370726,0.38326097,0.36905661,0.90840632,-0.19645655,0
0.47351941,1.4948711,0.39758155,0.36905661,0.90840632,-0.19645655,0
-0.86941814,-1.1069448,1.0377908,-0.36905661,-0.90840632,0.19645655,0
1.8262832,0.95368302,0.2772373,0.36905661,0.90840632,-0.19645655,0
0.21856856,-1.8607889,-0.23294264,-0.36905661,-0.90840632,0.19645655,0
0.48473597,1.0871861,-1.3084521,0.36905661,0.90840632,-0.19645655,0
1.5920367,1.0748532,0.16018832,0.36905661,0.90840632,-0.19645655,0
0.15868413,0.041611284,1.4674556,0.20700705,0.12572591,0.97022748,0
0.42245251,1.4129783,-0.2049707,0.36905661,0.90840632,-0.19645655,0
-0.95447075,1.7587043,-0.58879423,-0.91649932,0.32060161,-0.23925698,0
-1.2965328,0.18597084,-0.62155449,-0.82849532,0.22576147,-0.51247203,0
0.79878229,-0.8419826,1.2019714,0.71333897,-0.14135945,0.68641466,0
0.26955926,1.6806778,0.16751933,0.36905661,0.90840632,-0.19645655,0
-0.95599204,1.459778,-0.42248106,-0.92884052,0.35311842,-0.11208439,0
-0.69036913,-1.0185817,-1.2096518,-0.28065729,-0.092582867,-0.9553324,0
-1.5812712,-0.7548008,-0.73079562,-0.78228039,0.18948206,-0.59340882,0
1.1676326,-0.33483124,1.0214251,0.76618665,-0.1777219,0.61755407,0
-1.0871009,-0.020015188,-1.0424424,-0.69745713,0.13098416,-0.70455438,0
0.93742895,-1.431473,-0.26153123,0.8276931,-0.41738942,-0.37511408,0
-0.053811669,1.3962634,-1.3861679,0.36905661,0.90840632,-0.19645655,0
0.90731961,-0.191075,1.3372293,0.60151446,-0.072319686,0.7955817,0
-0.39413631,1.0500576,1.1163007,-0.37342978,0.33849955,0.86369467,0
0.40878999,-1.9867283,-0.65115225,-0.36905661,-0.90840632,0.19645655,0
0.14743352,-1.3646562,1.287322,-0.36905661,-0.90840632,0.19645655,0
-1.1095011,0.84209615,-0.87656808,-0.85850245,0.25222081,-0.44649577,0
-0.3555131,1.5220556,-1.1038146,0.36905661,0.90840632,-0.19645655,0
-0.98812914,-0.24349773,-1.1877288,-0.54720318,0.041520283,-0.83596957,0
-0.96397382,1.3448513,0.45561755,-0.8435086,0.41613367,0.33959705,0
0.14898396,1.4794858,-0.68221414,0.36905661,0.90840632,-0.19645655,0
-0.2605505,1.9150605,0.60658169,0.36905661,0.90840632,-0.19645655,0
-0.092087269,1.9133713,0.6045711,0.36905661,0.90840632,-0.19645655,0
0.46786606,0.72489893,-1.6345878,0.080448389,-0.24180831,-0.96698344,0
0.073907882,1.4779894,-0.26649785,0.36905661,0.90840632,-0.19645655,0
0.47028673,-1.8850425,-0.083782792,-0.36905661,-0.90840632,0.19645655,0
-1.9971611,-0.82158363,-0.043100834,-0.92413718,0.33619452,-0.18150425,0
0.61221337,1.4185234,-0.084146097,0.36905661,0.90840632,-0.19645655,0
0.58596808,-1.7916093,-0.48087692,0.76650357,-0.4170343,-0.48842067,0
-1.1711338,-0.38224712,-1.1082001,-0.58669168,0.06376417,-0.80729622,0
-0.70813262,1.4239607,0.59654135,-0.7464872,0.41564739,0.51960969,0
-1.9073046,-0.67140716,0.37865365,-0.92390531,0.38154781,0.028643012,0
-0.67046428,0.38938344,1.1984431,-0.39735806,0.34530634,0.8502177,0
0.43678123,-1.8832067,-0.51129359,-0.36905661,-0.90840632,0.19645655,0
0.97446752,1.0441242,-1.0762583,0.36905661,0.90840632,-0.19645655,0
0.03139919,-1.7063155,-0.45485768,-0.36905661,-0.90840632,0.19645655,0
-1.8286728,-0.62207538,0.31529498,-0.92728305,0.37417549,-0.011791706,0
1.1422932,-0.95904964,0.54931033,0.90727258,-0.30626976,0.2881937,0
-1.4639301,-0.96926725,0.12703156,-0.36905661,-0.90840632,0.19645655,0
-1.3277775,-0.42012596,1.3426818,-0.54171473,0.38200825,0.7487424,0
1.2465249,-0.65693688,0.16063321,0.92904615,-0.35468763,0.10521472,0
1.3940156,0.80897224,-1.3765323,0.36905661,0.90840632,-0.19645655,0
-1.697415,-0.95493782,-0.47768021,-0.36905661,-0.90840632,0.19645655,0
-0.01373601,-1.9310286,-1.0264891,-0.36905661,-0.90840632,0.19645655,0
-0.96449238,-1.03039,-1.0662816,-0.39230925,-0.039362833,-0.91899097,0
1.482115,0.61394709,0.65240443,0.75407618,-0.16910595,0.63464361,0
0.36678278,-1.5287051,0.98063546,-0.36905661,-0.90840632,0.19645655,0
-0.34304476,-0.85900748,-1.3430948,-0.089251757,-0.17576145,-0.98037863,0
-0.46691608,-1.4504365,0.39014915,-0.36905661,-0.90840632,0.19645655,0
0.65141654,1.0743415,-1.1642891,0.36905661,0.90840632,-0.19645655,0
0.2695173,-1.7781,-0.95303005,0.5002172,-0.37229404,-0.78178024,0
0.97640502,0.9627794,1.1694331,0.35393327,0.058084086,0.93346548,0
-0.10805345,-1.3016422,1.609512,0.31183892,0.078095466,0.94692022,0
0.52805185,1.6964716,1.0360435,0.36905661,0.90840632,-0.19645655,0
-1.2227464,-0.87477779,1.0588784,-0.36905661,-0.90840632,0.19645655,0
-1.1882107,0.95307982,-0.45402861,-0.9248721,0.33810157,-0.17406642,0
0.84475815,0.92138976,-1.4523907,0.36905661,0.90840632,-0.19645655,0
0.65023422,-1.8013579,0.33258343,-0.36905661,-0.90840632,0.19645655,0
-0.016155869,-1.5439517,0.5658145,-0.36905661,-0.90840632,0.19645655,0
1.7318125,0.43081695,-0.28852844,0.91998589,-0.38708174,-0.061594486,0
-1.4702936,-0.93973482,0.80321598,-0.36905661,-0.90840632,0.19645655,0
-1.3324645,0.80712879,-0.27008665,-0.92940068,0.36149436,-0.074406743,0
-0.3920145,-0.68843979,1.6578794,-0.05442977,0.23214063,0.97115815,0
0.53530443,0.90033346,1.2895478,0.11787224,0.16392344,0.97940564,0
0.70695806,-1.9568841,-0.095151663,0.86059511,-0.41383079,-0.29685044,0
1.2456579,0.78923571,1.0602756,0.5750016,-0.057098538,0.81615746,0
-0.10509455,1.456349,-1.4807786,0.36905661,0.90840632,-0.19645655,0
0.55365527,1.5322113,0.98367518,0.36905661,0.90840632,-0.19645655,0
1.1804889,-0.74616224,0.48952448,0.90119207,-0.29807872,0.31464601,0
1.2477521,0.475162,0.94876373,0.70646811,-0.13684328,0.69438964,0
1.1673082,0.90840721,-1.565438,0.36905661,0.90840632,-0.19645655,0
-0.34146249,0.84699035,1.3471787,-0.33616805,0.32753888,0.88301158,0
0.45667887,1.0285234,-1.7496595,0.36905661,0.90840632,-0.19645655,0
-0.16785324,0.5102396,-1.6088449,-0.27361977,-0.095814258,-0.9570539,0
-0.99977607,1.5154426,-0.077831388,-0.92589456,0.37771398,0.0071786642,0
0.57813293,1.2643538,-0.92856205,0.36905661,0.90840632,-0.19645655,0
-1.2459475,-1.3647194,-0.7488898,-0.36905661,-0.90840632,0.19645655,0
0.36203724,-1.5830834,0.57377362,-0.36905661,-0.90840632,0.19645655,0
-0.0039774179,1.8412193,1.0851417,-0.36493635,0.33603925,0.86827362,0
-0.77447879,-1.337675,-0.37245813,-0.36905661,-0.90840632,0.19645655,0
0.26649886,1.4943091,-0.13498443,0.36905661,0.90840632,-0.19645655,0
0.6359508,-0.103654,1.3214551,0.51474071,-0.023780152,0.85701615,0
-0.93679917,-1.0788326,0.73477614,-0.36905661,-0.90840632,0.19645655,0
0.69458777,-1.0894915,1.3048232,0.71474612,-0.14228964,0.68475688,0
-1.5335789,0.2423977,0.18115902,-0.91307604,0.39383072,0.10578215,0
1.1680344,-0.18934041,-1.1196549,0.65474916,-0.40413862,-0.63872963,0
0.23179007,1.6139547,0.32324147,0.36905661,0.90840632,-0.19645655,0
-0.53653812,0.48072612,-1.4954276,-0.44738287,-0.011641204,-0.89426696,0
0.1389755,1.6513749,-0.11825371,0.36905661,0.90840632,-0.19645655,0
-0.12939568,-1.4455515,0.39854079,-0.36905661,-0.90840632,0.19645655,0
0.48954725,-0.13816732,1.3954201,0.32873029,0.070129335,0.94181657,0
0.16804111,1.4724364,-0.5608148,0.36905661,0.90840632,-0.19645655,0
1.8471506,0.80965292,-0.64914072,0.36905661,0.90840632,-0.19645655,0
0.20040631,1.1778882,-1.6558012,0.36905661,0.90840632,-0.19645655,0
-1.2151835,-1.0919676,-0.04597342,-0.36905661,-0.90840632,0.19645655,0
-1.3163271,-1.1973519,-0.49749553,-0.36905661,-0.90840632,0.19645655,0
1.6413161,0.45830625,0.60075033,0.81482238,-0.21456911,0.53853959,0
-0.84717184,-1.4491923,-0.88814199,-0.36905661,-0.90840632,0.19645655,0
-1.7463394,-0.71265268,1.0712335,-0.36905661,-0.90840632,0.19645655,0
0.81045818,1.3318429,0.051408708,0.36905661,0.90840632,-0.19645655,0
0.14315343,1.3232197,-1.2287569,0.36905661,0.90840632,-0.19645655,0
0.88755906,-1.1396257,-0.77126813,0.71314347,-0.41233414,-0.56692785,0
-1.4437187,-1.1807241,-0.43200099,-0.36905661,-0.90840632,0.19645655,0
0.91021526,0.97752666,-1.5860746,0.36905661,0.90840632,-0.19645655,0
-0.53143048,-1.4703518,-1.185961,0.042787671,-0.22776079,-0.97277665,0
0.7507723,-0.73180169,1.1107845,0.67668903,-0.11773703,0.72679448,0
0.87448537,-0.70094019,-0.89743567,0.61422241,-0.39702794,-0.68198234,0
1.1932409,-0.90644419,0.1946193,0.92877603,-0.35268474,0.11396849,0
1.4791676,1.2120162,0.93919659,0.36905661,0.90840632,-0.19645655,0
-0.32765928,-1.3191426,0.49380314,-0.36905661,-0.90840632,0.19645655,0
-0.40927207,-0.31074315,-1.3956013,-0.17277789,-0.14063589,-0.97486901,0
-1.0366991,1.3308253,-0.44591951,-0.92250037,0.33231542,-0.19636631,0
-0.52828747,1.8296585,-0.0042897463,0.36905661,0.90840632,-0.19645655,0
-0.084258914,-1.7704079,-0.93217891,-0.36905661,-0.90840632,0.19645655,0
-0.10972476,0.51833677,-1.616493,-0.19972873,-0.12892194,-0.97133309,0
1.0765895,-0.53612971,0.93696797,0.79703522,-0.20061721,0.56963837,0
0.7717824,0.25179574,1.3222079,0.38973629,0.040632755,0.92002976,0
-1.0395193,1.2649763,-0.18477595,-0.92534828,0.37887532,0.013574839,0
-1.0373662,-1.0945812,0.73719394,-0.36905661,-0.90840632,0.19645655,0
-0.71721441,-1.3974782,-0.066844642,-0.36905661,-0.90840632,0.19645655,0
0.74691105,0.84286654,-1.5828695,0.13745034,-0.26240069,-0.95511961,0
-0.77233934,1.916297,-0.42988694,0.36905661,0.90840632,-0.19645655,0
-1.7035384,-0.41180623,-0.41474938,-0.87364519,0.26696014,-0.40678811,0
1.387972,-0.22983322,0.31908524,0.9191457,-0.32541138,0.22198808,0
1.7418302,0.52368665,-0.20521736,0.92401743,-0.38135684,-0.027549267,0
-0.81507653,-1.1647102,0.46683013,-0.36905661,-0.90840632,0.19645655,0
0.19721925,0.38483432,1.4001007,0.050662637,0.19140112,0.98020363,0
-1.4305589,-1.1290351,-0.50958145,-0.36905661,-0.90840632,0.19645655,0
1.0877861,0.10517246,-1.366082,0.53627121,-0.38077682,-0.75327444,0
1.0776918,-1.4692755,0.576437,0.91957057,-0.32622808,0.21901,0
-0.51944244,1.3325412,0.99985838,-0.57612425,0.38947019,0.71860546,0
-0.8012495,1.2905109,0.78378594,-0.7039035,0.41122359,0.57915044,0
-1.2101009,0.91537195,-0.73040676,-0.87260795,0.26591095,-0.40969133,0
-1.4190387,-0.57798529,1.4011739,-0.55888158,0.38580203,0.73403567,0
-0.67842758,-0.96382415,1.5514936,-0.36905661,-0.90840632,0.19645655,0
1.5561646,1.029466,0.016129136,0.36905661,0.90840632,-0.19645655,0
1.2190471,-0.65650988,-0.3500452,0.86801076,-0.41244137,-0.27649534,0
0.470994,-1.9169104,-0.46448219,-0.36905661,-0.90840632,0.19645655,0
-0.13468668,1.6546223,-0.58207411,0.36905661,0.90840632,-0.19645655,0
-1.4445848,-1.0650814,0.45199752,-0.36905661,-0.90840632,0.19645655,0
1.1591221,1.0349374,-0.71398026,0.36905661,0.90840632,-0.19645655,0
0.6819247,0.154948,-1.4756181,0.27240777,-0.30782089,-0.9116143,0
1.6388333,0.83789539,-1.0546448,0.36905661,0.90840632,-0.19645655,0
0.95558536,1.2089169,-0.70795166,0.36905661,0.90840632,-0.19645655,0
-0.15700662,-1.7251928,-0.80921781,-0.36905661,-0.90840632,0.19645655,0
-0.40237904,-1.615392,-1.1138425,0.12514174,-0.25802299,-0.95799983,0
0.18302923,-1.5305027,0.98822272,-0.36905661,-0.90840632,0.19645655,0
0.25951457,1.4206203,-1.0650158,0.36905661,0.90840632,-0.19645655,0
0.94605803,-0.95954186,0.88071966,0.84781706,-0.24244598,0.47162116,0
0.99636704,-1.2258835,0.20197952,0.927387,-0.37386224,0.013435245,0
0.098961115,1.0440942,1.2407755,-0.1174823,0.2552796,0.95970321,0
-1.5144447,-1.2055874,-0.79912734,-0.36905661,-0.90840632,0.19645655,0
-1.0351515,-0.87830389,1.4432634,-0.36905661,-0.90840632,0.19645655,0
-1.5107876,0.065183252,-0.18536353,-0.92482901,0.3379862,-0.17451918,0
1.0963749,1.2173638,0.311786,0.36905661,0.90840632,-0.19645655,0
1.2005168,-1.0618713,-0.25088942,0.89431572,-0.40463328,-0.19097531,0
0.43959939,0.36706954,-1.6685948,0.053783178,-0.23189826,-0.9712522,0
0.42930946,-1.6982265,0.74606824,-0.36905661,-0.90840632,0.19645655,0
1.1232898,-0.29525813,-1.0644746,0.68609178,-0.40887421,-0.60174751,0
0.30904835,1.309462,-0.74833262,0.36905661,0.90840632,-0.19645655,0
-1.1270028,-1.1327033,0.4948597,-0.36905661,-0.90840632,0.19645655,0
0.29216814,0.57394683,-1.5407803,-0.043213129,-0.19437805,-0.97997451,0
-0.24110192,1.7492646,0.2802043,0.36905661,0.90840632,-0.19645655,0
-0.29643607,0.054048061,-1.5530839,-0.22170699,-0.11922812,-0.96779692,0
0.58824897,-0.58954704,-1.1768123,0.46336019,-0.36307251,-0.80837852,0
-0.11424923,-1.4246583,-1.0725081,0.19443452,-0.28216416,-0.93945664,0
1.3373013,-0.61692762,0.25247884,0.92917931,-0.35595089,0.099623799,0
0.88447118,-0.55115271,-1.2107179,0.52363175,-0.37786663,-0.76356208,0
0.84526694,-0.26465252,-1.1433251,0.53939164,-0.38148439,-0.75068402,0
1.4268136,1.1408826,0.076604366,0.36905661,0.90840632,-0.19645655,0
-1.0523803,1.5293657,-0.30437624,-0.92903876,0.36652434,-0.050468326,0
-0.021768332,-1.3507246,1.1779563,-0.36905661,-0.90840632,0.19645655,0
-0.64261663,0.57241809,1.28579,-0.47270018,0.36545929,0.80186921,0
-1.0570879,-1.2792095,-0.32873148,-0.36905661,-0.90840632,0.19645655,0
-0.39364794,-1.4462734,0.066525936,-0.36905661,-0.90840632,0.19645655,0
-0.64515817,1.6620207,-0.93397069,0.36905661,0.90840632,-0.19645655,0
1.4704092,0.27050298,0.68139482,0.78829545,-0.1939778,0.58392042,0
1.3351394,-0.014858544,-1.0717163,0.70230967,-0.41102427,-0.58122325,0
0.17789233,0.73248202,-1.6613321,-0.12410605,-0.16131781,-0.9790681,0
0.71467721,1.0637352,-0.90582699,0.36905661,0.90840632,-0.19645655,0
-0.50561869,0.37900084,1.3651187,-0.29523802,0.3150163,0.90199739,0
0.47960442,-1.732779,-0.64029449,0.65605974,-0.40435082,-0.63724881,0
-1.2346857,0.72293681,0.065999985,-0.91906053,0.38815457,0.068293691,0
-0.40034187,1.5944968,-1.3211877,0.36905661,0.90840632,-0.19645655,0
0.54133558,1.5267606,0.17409973,0.36905661,0.90840632,-0.19645655,0
-0.30979514,1.3543462,-1.3973503,-0.5892207,0.065215573,-0.80533612,0
-0.24706578,0.90076017,1.245466,-0.32490516,0.32414234,0.88846415,0
1.392882,1.2545524,0.56968546,0.36905661,0.90840632,-0.19645655,0
1.4262106,1.0421565,-0.45176661,0.36905661,0.90840632,-0.19645655,0
-1.7895516,-0.64988297,0.76668346,-0.87718892,0.41030556,0.24937749,0
0.41595268,1.2802668,-1.3326218,0.36905661,0.90840632,-0.19645655,0
1.7947915,0.80704981,0.076456904,0.91732442,-0.32205495,0.23408675,0
0.21818268,0.30668348,-1.6687226,-0.016586185,-0.20490736,-0.97864091,0
1.0687952,1.2927709,0.53164238,0.36905661,0.90840632,-0.19645655,0
0.090438366,-1.2815046,1.5675343,-0.36905661,-0.90840632,0.19645655,0
0.94212466,1.0592927,-0.55824751,0.36905661,0.90840632,-0.19645655,0
0.24791968,-1.5396677,0.73605895,-0.36905661,-0.90840632,0.19645655,0
-1.3995026,0.57017273,0.48468363,-0.86404884,0.41321737,0.28752589,0
-1.3567294,-0.19746739,-0.88524306,-0.7814818,0.18888947,-0.59464878,0
1.0565169,1.1069891,1.2381206,0.41728747,0.026919305,0.90837586,0
1.6748649,0.98710465,-0.14709723,0.36905661,0.90840632,-0.19645655,0
0.51477069,-1.8621926,-0.50549912,-0.36905661,-0.90840632,0.19645655,0
-0.73096836,1.6652471,0.46209884,-0.8065446,0.41806746,0.41797811,0
-1.7383394,-0.7842105,0.25068533,-0.36905661,-0.90840632,0.19645655,0
-1.4655563,0.51256645,-0.029728413,-0.92934901,0.36305606,-0.067088246,0
0.0017333031,-1.356531,1.2781448,-0.36905661,-0.90840632,0.19645655,0
-1.1944602,-1.3407903,-0.56764096,-0.36905661,-0.90840632,0.19645655,0
0.62939227,1.5798521,0.9461112,0.36905661,0.90840632,-0.19645655,0
-0.21134961,1.8399155,0.31327194,0.36905661,0.90840632,-0.19645655,0
0.85797215,-1.885542,0.31843424,0.92266989,-0.38350788,-0.040027142,0
1.4817904,0.076508909,0.49115252,0.85843545,-0.25215808,0.44666004,0
0.97908735,0.076821476,1.2073654,0.55241573,-0.044413224,0.83238488,0
-0.64786792,-1.5271231,-0.24912098,-0.36905661,-0.90840632,0.19645655,0
-0.90450752,0.64010042,0.97943783,-0.63208479,0.4002887,0.66350424,0
1.0718859,0.64364433,-1.5912516,0.35756183,-0.33388463,-0.87216449,0
-0.73652565,0.55595201,1.2118773,-0.50928015,0.37447828,0.77485478,0
1.6115285,0.94834411,0.68921041,0.74026656,-0.15949979,0.65311974,0
-0.48814535,-1.2334139,1.1267648,-0.36905661,-0.90840632,0.19645655,0
0.2788223,-2.0421875,-0.77787292,-0.36905661,-0.90840632,0.19645655,0
-1.5322608,0.31013352,-0.15810084,-0.92376512,0.3352724,-0.1850692,0
-0.97787529,-1.1534961,0.34625137,-0.36905661,-0.90840632,0.19645655,0
1.1009916,1.2267588,-0.25615329,0.36905661,0.90840632,-0.19645655,0
0.067577064,1.7101552,0.4921051,0.36905661,0.90840632,-0.19645655,0
-0.39524138,-0.80205166,-1.2820998,-0.13303781,-0.15756755,-0.97850573,0
-0.66343766,1.686276,-0.58290446,0.36905661,0.90840632,-0.19645655,0
0.74717474,-1.0730283,1.2858012,0.70579314,-0.13640201,0.69516242,0
0.61036277,-1.8898878,-0.28862846,-0.36905661,-0.90840632,0.19645655,0
0.63528222,1.5636643,0.44191432,0.36905661,0.90840632,-0.19645655,0
0.26364833,1.3367262,-0.86718762,0.36905661,0.90840632,-0.19645655,0
-0.9941411,-1.254042,0.45280728,-0.36905661,-0.90840632,0.19645655,0
0.41904652,1.2286608,-1.2962955,0.36905661,0.90840632,-0.19645655,0
0.6920284,-0.13934702,1.3858262,0.48718691,-0.0090749264,0.87325072,0
-0.12606835,1.7454085,0.26457638,0.36905661,0.90840632,-0.19645655,0
-0.87306559,-0.36230814,1.6044097,-0.28752124,0.31260079,0.90532446,0
0.6079492,1.1942207,-0.94529438,0.36905661,0.90840632,-0.19645655,0
-0.44097662,-1.139955,1.7066033,-0.36905661,-0.90840632,0.19645655,0
-0.64021778,1.7134887,-0.48752451,0.36905661,0.90840632,-0.19645655,0
0.74046129,-2.0858374,-0.18571711,0.86868834,-0.41230047,-0.27457082,0
-0.03903988,1.640582,-0.35369068,0.36905661,0.90840632,-0.19645655,0
0.65601397,-1.4348412,-0.67399031,0.66961449,-0.40647483,-0.62160671,0
-0.48252451,-0.92805624,1.7895589,0.078750372,0.18005396,0.98049957,0
0.0024646372,-1.6017046,0.065043926,-0.36905661,-0.90840632,0.19645655,0
-1.8291426,-0.68174028,-0.036449194,-0.9124825,0.31399351,-0.26226664,0
0.12956965,1.4148993,-0.68507552,0.36905661,0.90840632,-0.19645655,0
0.45310643,-1.6536444,0.51871222,-0.36905661,-0.90840632,0.19645655,0
-0.29440987,1.8644257,0.095368683,0.36905661,0.90840632,-0.19645655,0
0.89909649,0.030737981,1.2661154,0.57572234,-0.0575075,0.81562048,0
-1.9278955,-0.81966138,-0.057603598,-0.36905661,-0.90840632,0.19645655,0
-0.90719885,1.6948301,-0.28375411,-0.92904174,0.35464966,-0.10538185,0
-1.579708,0.17950505,0.409266,-0.90296137,0.40051895,0.15570927,0
1.7258533,1.1298031,0.395365,0.36905661,0.90840632,-0.19645655,0
1.4523507,-0.36437398,0.44704974,0.905909,-0.30436674,0.29443169,0
0.97261143,-0.94450176,-0.79531276,0.71623147,-0.41268787,-0.5627625,0
-0.067525029,1.509285,-1.1626352,0.36905661,0.90840632,-0.19645655,0
-1.2856743,0.11193788,0.93490058,-0.73306388,0.41445267,0.53930193,0
0.60954082,0.36468932,1.3726252,0.37127227,0.049683481,0.92719406,0
0.69357061,0.72328019,1.2726185,0.26291597,0.10070254,0.95954907,0
0.44184196,1.7741508,1.0063201,0.36905661,0.90840632,-0.19645655,0
0.26332244,-1.7306774,0.29618102,-0.36905661,-0.90840632,0.19645655,0
0.94013476,-1.695437,-0.3156507,0.83918273,-0.41655111,-0.34965378,0
-1.4589237,-0.72421694,-0.78632402,-0.69849223,0.13165364,-0.70340317,0
-0.77056026,-0.2307754,-1.3370874,-0.46379185,-0.0031736642,-0.88593876,0
-0.741552,0.63354927,1.0976434,-0.54784447,0.38337868,0.74356401,0
-1.2108036,0.55607319,-0.60655129,-0.86410141,0.25753522,-0.43244028,0
-1.102327,0.82141542,0.55034995,-0.81946135,0.41777509,0.39236122,0
1.0006104,-0.21455827,-1.2354701,0.52020115,-0.37706468,-0.76629835,0
0.9592191,-0.89832228,-0.82296509,0.71485752,-0.41253158,-0.56462085,0
0.29539931,-1.5940129,0.9450379,-0.36905661,-0.90840632,0.19645655,0
-1.1455749,-1.2459154,-0.52822077,-0.36905661,-0.90840632,0.19645655,0
-0.52364004,1.6231353,0.80993646,-0.61558038,0.39728245,0.68060839,0
-0.13009858,1.7953085,0.86652213,0.36905661,0.90840632,-0.19645655,0
0.53654981,-0.96042937,1.3912594,0.55908972,-0.048135951,0.82770866,0
-1.1163247,0.2149823,0.96399403,-0.68269581,0.40839681,0.60591966,0
0.81909668,1.4930999,1.0670311,0.36905661,0.90840632,-0.19645655,0
0.84320211,0.98506165,-1.1313045,0.36905661,0.90840632,-0.19645655,0
-0.36961627,-0.96109885,-1.3622292,-0.12182999,-0.16227031,-0.97919661,0
1.4131398,-0.48001814,-0.62627494,0.82349372,-0.41760695,-0.38400871,0
0.4970845,-1.0656931,1.4073508,0.54761118,-0.041746289,0.83569098,0
-1.7400279,-0.61777657,0.8778342,-0.83509636,0.41689235,0.35890818,0
-0.39147186,1.4487489,-1.4435971,0.36905661,0.90840632,-0.19645655,0
-0.5509969,-1.4732471,0.21568286,-0.36905661,-0.90840632,0.19645655,0
-0.74152589,-0.55294919,1.5673879,-0.22905421,0.293758,0.92803049,0
-0.47761571,0.6365217,-1.3316723,-0.4933964,0.012361944,-0.86971688,0
-1.6718074,-0.50103402,0.71107864,-0.86759764,0.41252607,0.27766287,0
-1.0011814,-0.99358922,-1.2721086,-0.38237482,-0.044254407,-0.92294705,0
-1.278024,-1.148538,-0.34530497,-0.36905661,-0.90840632,0.19645655,0
1.4626099,0.06670633,0.36773264,0.89474809,-0.29007953,0.3395288,0
-0.039272547,-0.28777808,1.6490483,0.14395022,0.15295824,0.97769237,0
1.6226552,1.1405406,0.3064642,0.36905661,0.90840632,-0.19645655,0
-1.612444,-1.0880959,-0.055137753,-0.36905661,-0.90840632,0.19645655,0
1.554065,0.7026813,-1.1592345,0.36905661,0.90840632,-0.19645655,0
1.4196916,-0.67234987,0.038321733,0.92345953,-0.38228422,-0.032885671,0
-0.42623898,1.7251717,-0.52097547,0.36905661,0.90840632,-0.19645655,0
-0.31769702,-1.6716303,-0.25708768,-0.36905661,-0.90840632,0.19645655,0
-0.12547553,-1.4066108,1.1915928,-0.36905661,-0.90840632,0.19645655,0
-0.78881711,1.4699457,0.47947383,-0.81024706,0.41801995,0.41080326,0
0.058519363,-1.3126805,-1.2743388,0.21073174,-0.28766152,-0.93426073,0
-1.1909372,-1.1923355,-0.52257049,-0.36905661,-0.90840632,0.19645655,0
1.2518806,1.2868514,0.54740238,0.36905661,0.90840632,-0.19645655,0
-0.99488366,1.3293505,0.23648095,-0.8615011,0.41367531,0.29442966,0
-0.50859392,-1.1406997,1.4080834,-0.36905661,-0.90840632,0.19645655,0
-1.0118421,-1.2318527,-0.30246973,-0.36905661,-0.90840632,0.19645655,0
0.88974476,0.8785342,-1.5860072,0.36905661,0.90840632,-0.19645655,0
-0.97183317,0.6998542,-1.0539649,-0.72554541,0.14949188,-0.67174119,0
-0.38125241,-1.403913,0.42809659,-0.36905661,-0.90840632,0.19645655,0
-0.59350216,0.62981731,1.1533661,-0.3960079,0.34492722,0.8510012,0
0.63599384,1.2835635,-0.97081006,0.36905661,0.90840632,-0.19645655,0
-1.2931068,-0.82362205,1.0986803,-0.36905661,-0.90840632,0.19645655,0
0.31993335,-1.9103703,-0.54902637,-0.36905661,-0.90840632,0.19645655,0
0.27831298,1.3694279,-0.29252687,0.36905661,0.90840632,-0.19645655,0
0.745772,1.6010492,1.2389317,0.16435635,0.14425768,0.97579563,0
1.0881221,1.2658371,1.1648588,0.36733031,0.051601633,0.92865813,0
0.042278171,-1.1181802,-1.1701232,0.25918639,-0.30358696,-0.91687369,0
0.85453343,1.1948608,-0.14335465,0.36905661,0.90840632,-0.19645655,0
-0.51006085,-1.3978713,0.17023614,-0.36905661,-0.90840632,0.19645655,0
0.45079941,-1.8988465,-0.23177481,-0.36905661,-0.90840632,0.19645655,0
1.1718192,-1.0195916,-0.27452433,0.89119613,-0.40587407,-0.20257306,0
-0.15571035,-1.5332423,0.34754455,-0.36905661,-0.90840632,0.19645655,0
-0.94432288,0.88590884,0.72979659,-0.74581879,0.4155927,0.52061236,0
0.66047692,1.4703872,0.40234601,0.36905661,0.90840632,-0.19645655,0
0.29572165,0.5180968,-1.6539016,-0.031676769,-0.19896135,-0.97949547,0
1.3407806,0.90049922,-1.3988891,0.36905661,0.90840632,-0.19645655,0
1.0462524,-1.3470527,0.33291006,0.92917359,-0.35589021,0.09989357,0
-0.94199884,-0.2656458,-1.181159,-0.51583362,0.024369925,-0.8563422,0
-1.3882383,-0.83410031,1.2717105,-0.36905661,-0.90840632,0.19645655,0
-1.5200093,-0.44426152,-0.62309551,-0.83565611,0.23181415,-0.49793708,0
0.30704296,0.95511895,-1.5937045,-0.14244533,-0.15359572,-0.97781289,0
1.0972785,1.4008114,1.0534537,0.40391141,0.033608943,0.91418064,0
1.00553,0.85545421,-1.4146708,0.36905661,0.90840632,-0.19645655,0
0.22508305,1.612684,0.4701201,0.36905661,0.90840632,-0.19645655,0
0.82163358,-1.8302792,0.0027341843,0.89995772,-0.40207663,-0.16855443,0
-1.2451321,-1.3174572,-0.70797563,-0.36905661,-0.90840632,0.19645655,0
-0.58926129,-1.0282532,1.7635584,-0.36905661,-0.90840632,0.19645655,0
-0.39260042,-0.19439083,-1.4673486,-0.31250674,-0.077782139,-0.94672573,0
0.19998538,-0.47831324,1.5757892,0.31757724,0.075398684,0.94523013,0
-1.2324125,0.74656546,0.19204199,-0.89487159,0.40440014,0.18885291,0
-1.3735285,0.81973022,-0.25154412,-0.92756528,0.34670237,-0.13935614,0
-0.21700287,-0.69518572,-1.3292334,0.017773509,-0.21823794,-0.97573388,0
-0.048310161,1.7510109,0.66951877,0.36905661,0.90840632,-0.19645655,0
-0.30163169,-1.7514311,-0.75796533,-0.36905661,-0.90840632,0.19645655,0
-0.36958885,-1.6880703,-0.9438796,-0.36905661,-0.90840632,0.19645655,0
1.142882,0.22291707,0.99299765,0.64513028,-0.098224729,0.75773299,0
1.6447527,0.70395976,-1.1488435,0.36905661,0.90840632,-0.19645655,0
0.38125837,-1.5935364,1.3165457,-0.36905661,-0.90840632,0.19645655,0
0.68208635,0.72820413,-1.7519934,0.094786167,-0.24706425,-0.96435213,0
-1.2924548,-0.51029241,-0.98556042,-0.63978004,0.0949843,-0.76266605,0
1.1948154,-0.38261047,0.77593017,0.80266792,-0.2049683,0.5601005,0
-1.7463219,-0.29693118,0.23407841,-0.92006361,0.38698855,0.061017752,0
1.0602098,-0.88648474,0.63098037,0.88920575,-0.28361917,0.35898924,0
-0.9952544,-1.343135,0.023605347,-0.36905661,-0.90840632,0.19645655,0
-0.037865639,-0.61103255,-1.4023756,0.095770359,-0.24742317,-0.96416295,0
-0.47110391,1.305948,-1.3242198,-0.68703926,0.12429573,-0.71591067,0
1.8652709,0.86983693,0.41171491,0.84514678,-0.24006994,0.47759128,0
-0.89335895,-1.5193945,-0.83809114,-0.36905661,-0.90840632,0.19645655,0
1.2673242,1.1221126,1.0296714,0.52191895,-0.027663097,0.85254639,0
-0.49994838,-1.6437409,-1.0548772,-0.36905661,-0.90840632,0.19645655,0
1.5382869,0.83444643,-1.076098,0.36905661,0.90840632,-0.19645655,0
-0.13663054,-0.89509833,-1.2803988,0.046024203,-0.22898175,-0.97234213,0
-1.3815144,-0.69679296,-0.99634564,-0.66202945,0.10858582,-0.74157017,0
-1.2712557,-1.216737,-0.31729496,-0.36905661,-0.90840632,0.19645655,0
-1.1766211,1.0403528,-0.061633587,-0.9257226,0.37809056,0.0092428923,0
-1.0838115,-1.1070248,0.75944316,-0.36905661,-0.90840632,0.19645655,0
-0.31892085,0.36371511,1.4498078,-0.23410165,0.2954216,0.92624116,0
-1.6696646,-0.07809481,0.066135645,-0.92918146,0.36528683,-0.056458592,0
1.0719594,-0.064786851,-1.1404233,0.62984884,-0.39989111,-0.66586614,0
-0.65859258,0.49996686,1.1860391,-0.4216001,0.35200876,0.83566934,0
-0.7708199,1.3931329,0.61820585,-0.69927847,0.41063923,0.58513683,0
-0.0051360428,1.5698042,-0.29754105,0.36905661,0.90840632,-0.19645655,0
0.48421252,-1.5745323,1.2991005,-0.36905661,-0.90840632,0.19645655,0
-0.49068439,1.4641911,-1.3866405,0.36905661,0.90840632,-0.19645655,0
1.5309527,0.1814279,-0.62089872,0.86836338,-0.41236836,-0.27549505,0
0.4589355,-0.611404,1.5167259,0.40600836,0.032564178,0.91328895,0
1.257858,0.98986959,-1.1909074,0.36905661,0.90840632,-0.19645655,0
0.51946872,1.5970958,0.27543521,0.36905661,0.90840632,-0.19645655,0
-0.13163126,1.490273,1.1617426,-0.30133379,0.31691238,0.89931345,0
0.20584437,-1.6103287,0.69638413,-0.36905661,-0.90840632,0.19645655,0
-1.5409094,-0.57776624,1.0740157,-0.75144678,0.41603708,0.51209474,0
-1.7640498,-0.919402,0.39353716,-0.36905661,-0.90840632,0.19645655,0
-0.29879308,1.7487049,0.33383119,0.36905661,0.90840632,-0.19645655,0
-0.033132888,1.5515437,-0.12299371,0.36905661,0.90840632,-0.19645655,0
-0.43242979,1.5506972,-0.80449152,0.36905661,0.90840632,-0.19645655,0
0.25548196,-0.80913913,1.5911551,0.44198,0.014407709,0.8969093,0
-0.095456392,1.5950812,-0.63240796,0.36905661,0.90840632,-0.19645655,0
1.6466973,0.11028469,0.37652671,0.90071768,-0.2974686,0.31657612,0
1.1635938,0.89905417,-0.89403713,0.36905661,0.90840632,-0.19645655,0
-0.33801329,1.4704925,-0.97584373,0.36905661,0.90840632,-0.19645655,0
-1.6239314,-1.1227909,-0.49130964,-0.36905661,-0.90840632,0.19645655,0
-1.1094408,1.2229137,0.13024473,-0.90525419,0.39921927,0.14539218,0
-1.3947498,-1.2224174,-0.5626595,-0.36905661,-0.90840632,0.19645655,0
0.17399108,-1.4403162,1.1717768,-0.36905661,-0.90840632,0.19645655,0
1.8075961,0.51916355,-0.11639833,0.92924702,-0.35673511,0.096124887,0
-1.0857999,-0.91127843,-1.1332178,-0.40956169,-0.030790448,-0.91176277,0
-0.54838282,1.5376513,-1.2063571,0.36905661,0.90840632,-0.19645655,0
0.37042794,1.427235,-0.56903017,0.36905661,0.90840632,-0.19645655,0
-0.72583687,-0.92674911,1.4832904,-0.36905661,-0.90840632,0.19645655,0
1.4289628,0.95052665,-0.27500081,0.36905661,0.90840632,-0.19645655,0
1.0747321,0.39485458,1.1834087,0.60044152,-0.071696386,0.79644823,0
-0.024374962,0.4616558,-1.652405,-0.22695446,-0.11689462,-0.96686476,0
-0.19505686,-1.491333,0.74077177,-0.36905661,-0.90840632,0.19645655,0
-1.3839929,0.0023229569,-0.58325136,-0.85556042,0.24948409,-0.45362353,0
0.0078806281,-1.8203088,-0.38920945,-0.36905661,-0.90840632,0.19645655,0
0.045732081,-1.6184351,0.3094629,-0.36905661,-0.90840632,0.19645655,0
-0.59462559,-0.060295224,1.4162328,-0.33396554,0.32687768,0.88409173,0
-0.24142218,-1.5588788,-0.38712904,-0.36905661,-0.90840632,0.19645655,0
0.97556692,1.5133891,1.1455321,0.27942026,0.093151852,0.95563972,0
1.5955901,0.00077831745,-0.60526037,0.87498105,-0.41086656,-0.25611901,0
-0.11358978,-1.6395195,0.34467351,-0.36905661,-0.90840632,0.19645655,0
-0.078114271,1.5104413,-1.0508602,0.36905661,0.90840632,-0.19645655,0
1.1589481,0.82476491,-1.3437417,0.36905661,0.90840632,-0.19645655,0
1.1798073,0.88726401,-0.90395713,0.36905661,0.90840632,-0.19645655,0
1.6229537,0.70322323,-1.0905759,0.72924751,-0.41407752,-0.54473674,0
1.0695909,1.3799173,0.91348678,0.36905661,0.90840632,-0.19645655,0
0.44422966,1.6019996,0.75062513,0.36905661,0.90840632,-0.19645655,0
1.6930382,0.82726449,0.61555767,0.82190865,-0.22031374,0.52528864,0
-0.23618102,1.7850804,0.53506577,0.36905661,0.90840632,-0.19645655,0
-0.34264785,1.633448,-0.2555517,0.36905661,0.90840632,-0.19645655,0
-0.062957987,1.6115839,-0.30327535,0.36905661,0.90840632,-0.19645655,0
1.345191,0.85334092,-1.0403156,0.36905661,0.90840632,-0.19645655,0
0.001855731,-1.0645225,-1.1906805,0.19744134,-0.28318369,-0.93852234,0
-0.61307549,-1.0407418,1.4304631,-0.36905661,-0.90840632,0.19645655,0
-0.76639295,1.7829399,-1.0265453,0.36905661,0.90840632,-0.19645655,0
-0.6425575,-1.3836339,-0.38307908,-0.36905661,-0.90840632,0.19645655,0
-1.3929353,-1.224118,-0.57240224,-0.36905661,-0.90840632,0.19645655,0
0.73911417,-1.675707,0.80016267,-0.36905661,-0.90840632,0.19645655,0
-0.39440596,0.17027256,1.3855219,-0.1910187,0.28100309,0.94050479,0
0.21559536,-1.6803154,-1.0469714,0.44788307,-0.35904551,-0.81883287,0
-0.58026159,-1.2457205,1.2927536,-0.36905661,-0.90840632,0.19645655,0
-0.61399645,-1.2753105,0.80510521,-0.36905661,-0.90840632,0.19645655,0
-0.68316472,0.84797537,-1.2865939,-0.606296,0.075105071,-0.79168463,0
0.16374087,1.1672356,-1.4468354,0.36905661,0.90840632,-0.19645655,0
0.92820787,1.3327619,1.1801112,0.23532808,0.11315574,0.96530652,0
0.19248247,1.3283166,-1.0327953,0.36905661,0.90840632,-0.19645655,0
0.79105711,-1.0053803,1.106527,0.72543526,-0.14941782,0.67187667,0
-1.1618395,1.0156865,-0.5122813,-0.92176872,0.33070868,-0.20242131,0
-0.17120498,-1.3034186,0.79961681,-0.36905661,-0.90840632,0.19645655,0
0.76719898,-1.4680104,-0.67735845,0.71689117,-0.41276225,-0.561867,0
-1.0841458,-0.98922765,1.2968805,-0.36905661,-0.90840632,0.19645655,0
-1.6440527,-0.55371314,-0.62363851,-0.7995435,0.20254754,-0.56542444,0
1.9878502,0.74285048,-0.50782204,0.90326679,-0.40035176,-0.15436256,0
0.66307318,-0.79951006,-1.0363681,0.55525762,-0.38501269,-0.73719347,0
1.5970327,0.82040006,-0.66659784,0.36905661,0.90840632,-0.19645655,0
-0.40637848,-1.4989717,0.21951917,-0.36905661,-0.90840632,0.19645655,0
-0.27832681,-1.4220828,0.087686345,-0.36905661,-0.90840632,0.19645655,0
0.28991234,-1.4739101,1.4394513,-0.36905661,-0.90840632,0.19645655,0
-0.56836998,-1.2664347,0.45915881,-0.36905661,-0.90840632,0.19645655,0
0.0066637397,1.6516964,0.25273857,0.36905661,0.90840632,-0.19645655,0
0.66380423,1.4987841,0.064919621,0.36905661,0.90840632,-0.19645655,0
1.1902072,1.1711429,0.26401305,0.36905661,0.90840632,-0.19645655,0
0.58176911,-1.5304085,1.2563138,-0.36905661,-0.90840632,0.19645655,0
-0.095612168,0.50093752,-1.6342806,-0.24660778,-0.10808919,-0.9630689,0
-0.13082182,0.16075656,-1.498701,-0.22078681,-0.11963657,-0.96795684,0
0.035428286,-1.2281406,1.6108084,-0.36905661,-0.90840632,0.19645655,0
-1.2225109,-0.1397211,1.1659988,-0.65060729,0.40346032,0.64337397,0
0.48956397,1.4131081,-0.37241805,0.36905661,0.90840632,-0.19645655,0
-0.29973912,-1.574604,-0.43647188,-0.36905661,-0.90840632,0.19645655,0
-0.88421059,0.44567749,1.1122574,-0.57365596,0.38895413,0.72085619,0
-0.48379004,-1.0750196,1.7269211,-0.36905661,-0.90840632,0.19645655,0
1.5114607,0.29448378,-0.99201643,0.76760268,-0.41709557,-0.48663914,0
-0.14824758,-1.5589777,-0.059179425,-0.36905661,-0.90840632,0.19645655,0
-0.93584275,1.7818288,-0.27096927,-0.92908967,0.36611775,-0.0524441,0
-0.11723518,0.81384629,-1.6004988,-0.40195608,-0.03458181,-0.9150058,0
-1.0239866,-0.12467639,-1.2055779,-0.57380503,0.056420192,-0.8170464,0
-0.66104889,1.9372605,-0.33475649,0.36905661,0.90840632,-0.19645655,0
-0.70743144,-1.4075187,-0.021654993,-0.36905661,-0.90840632,0.19645655,0
0.46092641,1.5841948,1.1126523,-0.076974273,0.24052712,0.96758556,0
-0.5766108,-1.0678802,1.2253058,-0.36905661,-0.90840632,0.19645655,0
-1.6663899,-0.88281083,0.92003572,-0.36905661,-0.90840632,0.19645655,0
-0.53508294,-1.5519154,-1.2289239,-0.012975216,-0.20632191,-0.9783982,0
0.33843505,-1.8169613,0.20887744,-0.36905661,-0.90840632,0.19645655,0
0.3268497,1.0344329,-1.7318875,-0.15379691,-0.14877318,-0.97683841,0
1.3511299,-0.3793076,-0.18495238,0.91224712,-0.39448875,-0.11038208,0
-1.4690396,-1.1595016,-0.41924512,-0.36905661,-0.90840632,0.19645655,0
0.1833812,0.16281101,1.5476674,0.17655408,0.13900591,0.97442603,0
-0.87023377,-0.95606726,1.2861654,-0.36905661,-0.90840632,0.19645655,0
-1.0151883,0.11775026,1.1663692,-0.57923448,0.39011607,0.7157492,0
-1.7191043,-0.40150237,0.86292243,-0.79980457,0.41808447,0.43071854,0
-0.17403805,-1.1497679,1.5817103,-0.36905661,-0.90840632,0.19645655,0
