1.7498062,-2.1137452,0.10940337,-0.049165249,-0.85879439,-0.509956,0
2.6200197,-1.4411981,1.8421729,0.8348496,-0.31561053,0.45101708,0
3.3651776,-0.1557672,1.2903732,0.8348496,-0.31561053,0.45101708,0
3.2486265,0.48033857,1.8848405,0.8348496,-0.31561053,0.45101708,0
3.4163334,-1.4107902,-0.20539355,0.40648735,-0.19904608,-0.89171124,0
-0.39900815,-0.83999586,-1.6512675,0.15451288,-0.65202922,-0.74228281,0
-1.2400746,1.4203866,0.9271276,-0.20096624,0.58802342,0.78348035,0
2.6101706,-0.17440319,3.0059955,0.8348496,-0.31561053,0.45101708,0
-2.456578,1.8685651,-1.92642,-0.8348496,0.31561053,-0.45101708,0
3.6906965,-1.2915173,0.050922155,0.8348496,-0.31561053,0.45101708,0
-3.480109,1.6987262,-0.25882244,-0.8348496,0.31561053,-0.45101708,0
-2.4983475,-0.85590529,-1.5265101,-0.21694404,-0.94164586,-0.25736856,0
-2.3753252,0.14095235,0.53951454,-0.5225389,-0.19665235,0.82962704,0
-3.2420869,1.2709801,-1.0814127,-0.8348496,0.31561053,-0.45101708,0
-2.5045595,0.5180912,-2.5490377,-0.8348496,0.31561053,-0.45101708,0
-2.3622634,1.5341024,-2.4217634,-0.8348496,0.31561053,-0.45101708,0
-1.9948386,2.406492,-0.3635366,0.11449245,0.90095478,0.41853589,0
-1.8705777,-0.089979708,0.90957338,-0.53905755,-0.30269423,0.78599823,0
-2.9394741,2.1649878,-0.69589972,-0.8348496,0.31561053,-0.45101708,0
-2.0004065,1.8587241,0.28329921,-0.15931636,0.64572626,0.74676389,0
2.6240888,-1.6136806,1.8656555,0.8348496,-0.31561053,0.45101708,0
-2.713002,0.69148111,-2.1177049,-0.8348496,0.31561053,-0.45101708,0
-0.53916061,-0.59353948,-1.9340417,0.22168559,-0.55718344,-0.80025142,0
3.7953939,-0.63945723,0.31554806,0.8348496,-0.31561053,0.45101708,0
1.7035995,-1.2374287,-0.88517535,0.29425222,-0.43658388,-0.85018265,0
-3.3522973,-0.49933243,-0.74641168,-0.49417228,-0.79066575,0.36144364,0
1.6118189,-1.5486386,2.6475861,-0.53871393,-0.29994255,0.78728771,0
-0.98029399,1.0887676,1.2089386,-0.24681026,0.51774585,0.81916076,0
2.1897979,-0.78971148,3.017787,0.8348496,-0.31561053,0.45101708,0
2.5001874,-1.0508983,2.2042496,0.8348496,-0.31561053,0.45101708,0
1.1427059,1.3498515,0.96750283,0.17644146,0.92951089,0.32384861,0
-3.0858738,1.470907,0.25585842,-0.36735243,0.29077509,0.8834604,0
3.3180323,-1.4007275,0.41727042,0.8348496,-0.31561053,0.45101708,0
-3.6679175,0.84895682,-0.23309648,-0.8348496,0.31561053,-0.45101708,0
-3.8288016,0.45345783,-0.32442474,-0.8348496,0.31561053,-0.45101708,0
-2.5790858,1.2756302,-2.0183952,-0.8348496,0.31561053,-0.45101708,0
-2.3472233,2.085748,-2.1487377,-0.8348496,0.31561053,-0.45101708,0
1.2116387,-0.1892879,2.5404677,-0.35368729,0.32028779,0.87881815,0
-2.7819855,0.88495111,-1.7788152,-0.8348496,0.31561053,-0.45101708,0
-3.2214837,2.0650003,-0.26075196,-0.8348496,0.31561053,-0.45101708,0
3.1588848,0.60261655,1.3005748,0.35404301,0.93522877,-0.00089740753,0
-0.88742316,-1.4554362,0.50383806,-0.45937455,-0.85088497,0.25489181,0
-3.4479067,-0.057466269,-1.2382679,-0.8348496,0.31561053,-0.45101708,0
1.0206562,0.67397213,-1.3448417,0.54284787,0.3360737,-0.76965618,0
-2.989114,1.2793005,-1.5020441,-0.8348496,0.31561053,-0.45101708,0
0.84228581,-1.9652108,1.7184167,-0.5198884,-0.72137219,0.45753506,0
-3.0218887,1.6025643,-1.0018324,-0.8348496,0.31561053,-0.45101708,0
-2.6743689,1.5966468,-1.5330853,-0.8348496,0.31561053,-0.45101708,0
2.8428411,-0.35369635,2.2356105,0.8348496,-0.31561053,0.45101708,0
3.1672812,-1.9426162,0.46452117,0.8348496,-0.31561053,0.45101708,0
3.8556147,-0.29728723,0.4274947,0.8348496,-0.31561053,0.45101708,0
2.8427935,0.11956549,2.4486423,0.8348496,-0.31561053,0.45101708,0
-2.7364609,1.0260656,-1.8652849,-0.8348496,0.31561053,-0.45101708,0
3.1552439,-0.62319541,1.542882,0.8348496,-0.31561053,0.45101708,0
0.82369691,-1.4701352,2.0947223,-0.5504604,-0.48521662,0.67938071,0
-2.9115264,2.5196855,-0.71806192,-0.8348496,0.31561053,-0.45101708,0
-1.358397,0.19764525,1.3100955,-0.47708517,-0.0060978532,0.87883592,0
-1.6647758,-0.1655539,0.91906273,-0.53207111,-0.25254485,0.80815935,0
-0.44550645,1.0323672,-2.1592855,0.54128271,0.32152608,-0.77693903,0
0.29525328,-1.0607034,1.8712318,-0.54789925,-0.39719415,0.73623586,0
1.4476192,-1.1148496,2.7421529,-0.51447451,-0.15590423,0.84321404,0
-2.1274893,0.23275805,-2.8370392,0.30347079,-0.4196972,-0.85542965,0
-3.3613179,-0.038462162,-1.5882771,-0.8348496,0.31561053,-0.45101708,0
2.2742958,-1.7159724,2.4471927,0.8348496,-0.31561053,0.45101708,0
-2.8058534,2.429389,-0.69167805,-0.8348496,0.31561053,-0.45101708,0
1.9846239,-2.5942852,1.1495571,-0.31217319,-0.9462747,-0.084334731,0
-2.4262428,-0.67044616,-1.8965276,-0.13272643,-0.91055489,-0.3915019,0
2.8851123,-0.12201834,2.1153526,0.8348496,-0.31561053,0.45101708,0
-3.3581924,1.6160502,-0.56257701,-0.8348496,0.31561053,-0.45101708,0
1.0249584,-1.1673696,2.4227102,-0.53297502,-0.2584691,0.80568695,0
1.304594,-0.61266422,2.738585,-0.44031793,0.10885444,0.89121878,0
-0.17616498,0.62923706,1.6063414,-0.28587711,0.45159495,0.84518433,0
2.3848433,-2.5514812,1.4757075,0.8348496,-0.31561053,0.45101708,0
-3.6218021,0.77486467,-0.34596682,-0.8348496,0.31561053,-0.45101708,0
3.2123675,-1.8755894,0.44299984,0.8348496,-0.31561053,0.45101708,0
-3.1901221,1.768157,-0.44861794,-0.8348496,0.31561053,-0.45101708,0
3.435585,-0.69134045,-0.19807208,0.50518066,0.11379403,-0.85547853,0
-1.3047057,0.46968579,-2.7563229,0.4136833,-0.18082765,-0.89228225,0
1.9287477,-1.6998968,2.8015208,0.8348496,-0.31561053,0.45101708,0
2.5912583,-0.80546021,2.2493927,0.8348496,-0.31561053,0.45101708,0
0.51302934,-0.21525908,-1.7548276,0.41596651,-0.17494658,-0.89239329,0
1.0002407,-1.025399,2.5521712,-0.51784074,-0.17235193,0.83793545,0
-0.59565938,0.33627313,1.7288014,-0.41449153,0.17875159,0.89232546,0
2.4465561,-0.87458611,2.829083,0.8348496,-0.31561053,0.45101708,0
0.9076066,-1.6152308,2.1921098,-0.55005646,-0.51034898,0.66104609,0
2.2113414,0.98826301,0.96926427,0.34543282,0.9382863,0.017179966,0
-0.5121876,-1.5406698,-0.78386748,-0.14582428,-0.9168452,-0.3716591,0
-3.0417762,-0.50988913,-0.40960947,-0.50790262,-0.75757796,0.41001296,0
3.2783613,-0.78653073,1.1002705,0.8348496,-0.31561053,0.45101708,0
3.014622,-0.74896741,1.7151451,0.8348496,-0.31561053,0.45101708,0
-0.43858641,-0.76827168,1.5593456,-0.53867817,-0.29965901,0.78742003,0
-2.9684889,0.83163476,-1.5073218,-0.8348496,0.31561053,-0.45101708,0
-1.5957658,1.0105665,-2.8623452,0.49877769,0.087039083,-0.86234868,0
3.4065642,0.55883598,1.0928078,0.43793166,0.87720776,-0.1967802,0
-3.4778156,0.10885763,-1.4554601,-0.8348496,0.31561053,-0.45101708,0
1.2883739,1.0800526,-0.34019428,0.49773341,0.78275573,-0.37357068,0
0.24923229,-1.1740396,-1.4530002,0.16210872,-0.64202964,-0.74934578,0
-2.5614982,2.1592615,-0.13522053,-0.11652505,0.6994313,0.70513695,0
-3.5613835,0.31971812,-0.030888677,-0.54639983,-0.37555707,0.74860144,0
2.73175,-0.7796607,2.1999176,0.8348496,-0.31561053,0.45101708,0
-0.82848573,1.0748208,-2.3530383,0.52459633,0.2078737,-0.82558304,0
-0.55992413,-1.3757201,-0.96718264,-0.11221901,-0.89969003,-0.42185897,0
-2.4090204,2.4403138,-0.39200139,0.045186162,0.85584402,0.51525688,0
-0.13291907,0.88331074,1.4663534,-0.23036069,0.54382581,0.80696201,0
2.1795917,-1.0862956,2.7501016,0.8348496,-0.31561053,0.45101708,0
-3.0327532,0.084733486,-2.0002823,-0.8348496,0.31561053,-0.45101708,0
1.0049626,-2.0983191,0.31014705,-0.23893234,-0.94587326,-0.21962571,0
2.4539502,-2.5473065,1.2793822,0.8348496,-0.31561053,0.45101708,0
-3.6500432,1.3479226,-0.1390233,-0.8348496,0.31561053,-0.45101708,0
-1.7271017,0.67483759,-2.855361,0.44668466,-0.090428323,-0.89010984,0
3.5431318,0.17032957,1.1788385,0.8348496,-0.31561053,0.45101708,0
1.5394886,-2.4389439,0.61403394,-0.24477626,-0.94670045,-0.2093873,0
2.288255,-0.66696548,2.9078956,0.8348496,-0.31561053,0.45101708,0
0.9237166,0.82087082,-1.2957832,0.55044436,0.4695375,-0.69032288,0
0.52596551,-2.1014884,0.62463188,-0.36085603,-0.93249416,0.015422106,0
-1.0701485,2.0004694,-1.791352,0.51723307,0.73016083,-0.44646975,0
2.8516986,-0.2741251,2.129771,0.8348496,-0.31561053,0.45101708,0
2.9822407,0.69092441,0.93280029,0.40104854,0.90995038,-0.10559565,0
3.7499127,-0.98485327,0.010639787,0.48738885,0.042937368,-0.87212884,0
-0.089992702,1.5223632,-1.4972239,0.54220772,0.61294973,-0.57472032,0
-2.5870118,0.40311348,0.53307152,-0.49896055,-0.087782025,0.86216748,0
2.2352355,-1.1415105,2.7894523,0.8348496,-0.31561053,0.45101708,0
0.99303567,-2.2539899,0.96015882,-0.38158628,-0.92232418,0.060911417,0
-1.8482049,2.3255715,-2.1416407,0.49331802,0.79250228,-0.35857719,0
-2.5454092,-0.8744117,-0.54654956,-0.436331,-0.87892866,0.19261301,0
1.1507282,-0.099409282,-1.362007,0.48887086,0.048457593,-0.87100929,0
-2.0353198,-0.18689013,-2.7503724,0.20450801,-0.58285552,-0.78641993,0
-2.361577,0.44150829,-2.8677135,-0.8348496,0.31561053,-0.45101708,0
-1.9323822,1.9936895,0.27464247,-0.099672198,0.7191093,0.68771183,0
1.6964923,-0.33774805,2.8038316,-0.35704231,0.31314954,0.88003325,0
-3.4787297,-0.1708622,-1.4716474,-0.8348496,0.31561053,-0.45101708,0
-3.603085,0.92136264,-0.42178726,-0.8348496,0.31561053,-0.45101708,0
2.2464535,-1.6798613,2.3967736,0.8348496,-0.31561053,0.45101708,0
0.23480344,1.1255584,-1.5112524,0.55046952,0.47407234,-0.6871962,0
3.5597124,0.41451979,1.5524745,0.8348496,-0.31561053,0.45101708,0
-0.93679059,-0.7355777,-1.8580393,0.11586392,-0.70021868,-0.70446396,0
-2.4098983,2.7134938,-1.346241,0.27471656,0.9488706,0.15548503,0
2.7215104,-0.97366273,-0.56142759,0.41947722,-0.16580585,-0.8924951,0
2.4148676,-1.1227243,2.4618697,0.8348496,-0.31561053,0.45101708,0
0.75841403,-1.3018358,-1.0960387,0.15803528,-0.64741415,-0.74557364,0
-2.6084476,-0.83119273,-0.48394221,-0.45593637,-0.85555172,0.24526185,0
1.0758902,-2.1132193,1.5017977,-0.47374737,-0.82918167,0.29668373,0
-3.2012386,0.29992008,-1.7573891,-0.8348496,0.31561053,-0.45101708,0
-2.6541805,2.0123982,-1.4539351,-0.8348496,0.31561053,-0.45101708,0
-1.2564534,-0.83319163,-1.9891608,0.062898397,-0.75926131,-0.64773941,0
3.5338199,0.22558117,1.5277784,0.8348496,-0.31561053,0.45101708,0
3.6212821,0.35084271,1.3244234,0.8348496,-0.31561053,0.45101708,0
-2.1493833,0.80435252,0.7242645,-0.43622512,0.1204288,0.89174247,0
1.889577,-2.5757694,0.9779253,-0.29044002,-0.9485414,-0.12614989,0
3.101181,-1.6917908,0.89683294,0.8348496,-0.31561053,0.45101708,0
-3.4737926,0.16576409,-1.2506697,-0.8348496,0.31561053,-0.45101708,0
3.6134439,-1.1577525,0.26257777,0.8348496,-0.31561053,0.45101708,0
3.4955044,-0.91478515,0.56905377,0.8348496,-0.31561053,0.45101708,0
2.448318,-1.3105667,2.4931376,0.8348496,-0.31561053,0.45101708,0
2.7657835,-2.5471463,0.72186542,0.8348496,-0.31561053,0.45101708,0
0.60960662,-1.2246616,-1.0846505,0.17470729,-0.62504888,-0.76078343,0
3.6095915,0.17469025,1.1792092,0.8348496,-0.31561053,0.45101708,0
-0.64307702,1.893119,0.10306239,0.15670007,0.92167556,0.35490769,0
2.8794184,-1.9937692,-0.041500092,0.20286781,-0.58525401,-0.78506219,0
3.5579243,-1.0386255,0.60497904,0.8348496,-0.31561053,0.45101708,0
-1.5965767,-1.2248682,-0.95941329,-0.26657122,-0.94863331,-0.17039645,0
3.0011072,0.41292286,2.3693466,0.077145219,0.87831241,0.47182214,0
2.4361279,-2.3961909,1.6601155,0.8348496,-0.31561053,0.45101708,0
-2.7049417,2.499284,-0.82859993,-0.8348496,0.31561053,-0.45101708,0
-1.6820803,1.9576917,-2.451756,0.54981637,0.51824003,-0.6550796,0
-3.0970275,1.5899389,-1.1355556,-0.8348496,0.31561053,-0.45101708,0
2.6778836,-2.2781255,1.3149381,0.8348496,-0.31561053,0.45101708,0
-3.2711773,0.43487215,-1.3435218,-0.8348496,0.31561053,-0.45101708,0
3.6303039,0.38323855,1.179912,0.43687665,0.87834549,-0.19403112,0
-3.0335903,0.61217117,-1.5253435,-0.8348496,0.31561053,-0.45101708,0
-1.7617086,2.4743161,-0.66203976,0.22857726,0.94409859,0.23755145,0
0.03438139,-1.9114509,-0.17406273,-0.23184821,-0.94470131,-0.23191845,0
2.4142828,0.6572938,2.1215191,0.090201735,0.88667649,0.45350724,0
1.4358243,-0.061343074,-1.1036798,0.50278342,0.10358778,-0.85818321,0
1.4556692,0.49178696,2.3218768,-0.17496735,0.62469316,0.76101595,0
2.1569078,-1.9428163,-0.26151681,0.12619358,-0.68777168,-0.71487457,0
1.7080441,0.96340686,-0.22423911,0.50879329,0.75516176,-0.41335243,0
2.7709861,-2.1156659,0.17185712,0.14874166,-0.65950871,-0.73683399,0
0.26147634,1.8416545,-0.053612232,0.33948058,0.94015044,0.029502273,0
-2.3476102,2.3593569,-1.6339452,-0.8348496,0.31561053,-0.45101708,0
-2.4353981,2.0080187,-1.7638535,-0.8348496,0.31561053,-0.45101708,0
3.7162809,-0.66096354,0.54246008,0.8348496,-0.31561053,0.45101708,0
-2.9306302,-0.66930652,-0.44057047,-0.49178067,-0.79575056,0.35345846,0
2.7400312,-2.4247646,0.24980831,0.035915494,-0.78634381,-0.61674464,0
2.7685595,-0.55444002,2.3838723,0.8348496,-0.31561053,0.45101708,0
-2.9171381,-0.27240372,-2.6154389,-0.8348496,0.31561053,-0.45101708,0
-0.17374289,1.3180807,1.0896132,-0.086344898,0.73409832,0.67353129,0
-1.7196889,-1.1198015,-0.3522464,-0.41311699,-0.90070534,0.13440418,0
1.0962511,0.56281996,2.1297865,-0.18391943,0.61231458,0.7689243,0
2.1415126,-1.9556708,2.4172516,0.8348496,-0.31561053,0.45101708,0
3.0666995,-1.9660988,0.65373063,0.8348496,-0.31561053,0.45101708,0
-2.1616538,2.673301,-1.2396312,0.29926017,0.94788361,0.10936332,0
-0.23764479,0.016385674,1.7602067,-0.4501754,0.080095559,0.88934076,0
-0.32579267,-0.027111053,-2.1882367,0.40833271,-0.19441909,-0.89188886,0
-0.4387145,1.0240982,1.4221468,-0.22907299,0.54582548,0.80597794,0
0.79492682,0.92054069,1.567703,-0.049544394,0.77291363,0.6325742,0
-0.43148309,1.2443323,-1.8704144,0.5504759,0.47627544,-0.6856662,0
-0.38884068,1.2635704,1.0755135,-0.12595302,0.68806505,0.71463448,0
-1.9752967,-1.049298,-0.60724765,-0.35869518,-0.93339241,0.010793805,0
-2.3784332,1.2264054,-2.5693076,-0.8348496,0.31561053,-0.45101708,0
0.30067849,0.81504583,-1.6302034,0.54086298,0.3178252,-0.77875179,0
1.6759408,1.0649812,-0.24687386,0.51201403,0.74609327,-0.42566013,0
2.556953,-1.3346364,2.2275023,0.8348496,-0.31561053,0.45101708,0
-2.3302226,2.1034515,-0.080019236,-0.060284138,0.76197261,0.64479762,0
3.7641304,-1.0413661,0.28362679,0.8348496,-0.31561053,0.45101708,0
2.7569194,-1.4260871,1.5705401,0.8348496,-0.31561053,0.45101708,0
2.6591644,-0.38893652,2.7738087,0.8348496,-0.31561053,0.45101708,0
-0.72381276,1.7315762,0.62521672,-0.015659392,0.80537087,0.59256458,0
-2.5368278,0.73305702,-2.5137897,-0.8348496,0.31561053,-0.45101708,0
-0.75722623,0.98136926,1.2924385,-0.27447003,0.47155339,0.8380357,0
2.7308116,-2.0292797,1.478722,0.8348496,-0.31561053,0.45101708,0
-0.99010491,0.059063286,1.4167082,-0.46644652,0.029505104,0.88405722,0
3.0807545,-1.5944111,0.82202339,0.8348496,-0.31561053,0.45101708,0
3.5603549,-1.2195001,0.22350216,0.8348496,-0.31561053,0.45101708,0
1.721928,1.289953,0.66830808,0.32863864,0.94304544,0.05159688,0
2.833601,-1.9478974,0.99242973,0.8348496,-0.31561053,0.45101708,0
2.6961799,0.29541564,-0.31840372,0.55003554,0.51111543,-0.66047102,0
0.62264127,-2.2049837,0.97666097,-0.40163654,-0.90952951,0.10697848,0
2.2061625,-1.5476255,2.3863764,0.8348496,-0.31561053,0.45101708,0
1.8378438,1.1388526,0.32274407,0.40943772,0.90366161,-0.12552518,0
-2.4277723,1.00196,-2.3766279,-0.8348496,0.31561053,-0.45101708,0
1.6592852,0.20316136,-1.0289423,0.53632039,0.28171843,-0.79560995,0
1.7260172,1.1816252,0.74303287,0.31476247,0.94585645,0.079249382,0
-3.0322506,0.78835893,-1.4654089,-0.8348496,0.31561053,-0.45101708,0
-0.59707451,1.7237313,-1.8685987,0.53625834,0.65130836,-0.53686541,0
3.698741,0.36770296,1.1094296,0.45649207,0.85481,-0.2468096,0
3.343843,0.58439064,1.8990568,0.25275061,0.94762146,0.19527078,0
-3.1029942,2.313437,-0.29338336,-0.10874104,0.7086215,0.69715947,0
2.6484842,-1.5077665,2.000422,0.8348496,-0.31561053,0.45101708,0
2.6467438,-0.82938814,2.3982401,0.8348496,-0.31561053,0.45101708,0
-0.74929285,-1.5536619,-0.39119589,-0.28350595,-0.94881713,-0.13917804,0
-1.3250822,1.9093455,0.25693774,-0.0019625425,0.81760699,0.57577366,0
-2.265409,2.1295838,-2.2547188,-0.8348496,0.31561053,-0.45101708,0
0.43405238,1.6732504,-0.74995995,0.47394291,0.82885957,-0.29727119,0
-2.4108775,1.4968939,-2.3444088,-0.8348496,0.31561053,-0.45101708,0
-2.4563661,0.42712402,-3.0974381,-0.8348496,0.31561053,-0.45101708,0
-3.0987096,1.6069865,-1.0970478,-0.8348496,0.31561053,-0.45101708,0
3.2590806,-0.096839428,-0.052364647,0.5498324,0.43841553,-0.71096849,0
2.28598,-2.0132613,2.0823367,0.8348496,-0.31561053,0.45101708,0
-2.7551899,-0.1233958,0.24404523,-0.55034959,-0.4608348,0.69623744,0
2.7530622,-1.9129257,1.194654,0.8348496,-0.31561053,0.45101708,0
2.0300684,-1.2315474,-0.77687228,0.32300168,-0.38259241,-0.86561716,0
2.6648474,-2.1534302,1.4908171,0.8348496,-0.31561053,0.45101708,0
2.8834457,-1.5574846,1.3083113,0.8348496,-0.31561053,0.45101708,0
2.4192312,-2.3990748,1.4528401,0.8348496,-0.31561053,0.45101708,0
-2.4714394,1.8306735,-1.8374738,-0.8348496,0.31561053,-0.45101708,0
2.5547156,-2.1945076,1.4284291,0.8348496,-0.31561053,0.45101708,0
0.5420717,-0.19562912,2.2072957,-0.43874449,0.11332828,0.89143711,0
-0.16032413,-1.7444121,0.86010981,-0.4587948,-0.85168505,0.25325871,0
-1.8704631,-1.0778722,-1.3432167,-0.21384132,-0.94091153,-0.26259804,0
-2.7602181,2.6196249,-0.77148986,-0.8348496,0.31561053,-0.45101708,0
2.7486835,-2.1099603,1.4060967,0.8348496,-0.31561053,0.45101708,0
1.6608418,0.074171856,-1.1622406,0.52317572,0.20008412,-0.82840431,0
-0.6129182,1.8374658,0.40586925,0.097189307,0.89095592,0.44356757,0
0.41016555,-0.4955976,2.151654,-0.47044909,0.016371429,0.88227546,0
1.463896,-2.4999857,1.4017687,-0.39311182,-0.91535389,0.087123156,0
-2.4593029,2.6491337,-1.3698311,-0.8348496,0.31561053,-0.45101708,0
1.4393938,-1.1524367,2.6791975,-0.51610035,-0.16375697,0.84072846,0
1.6003435,0.95624137,1.8738694,0.021614671,0.8374812,0.54603887,0
0.42656416,1.3795569,1.1140119,0.022417486,0.83813143,0.54500782,0
-1.3104184,-0.020450659,1.1794621,-0.49650198,-0.07789737,0.86453342,0
-3.143229,1.9089303,-0.42743659,-0.8348496,0.31561053,-0.45101708,0
1.6031989,1.141448,0.44480002,0.38991594,0.91738772,-0.079784453,0
2.7776022,0.1614337,2.7056854,0.8348496,-0.31561053,0.45101708,0
0.71230769,1.5951502,-0.064086676,0.39960068,0.91097462,-0.1021989,0
2.5804648,-2.1696119,1.38552,0.8348496,-0.31561053,0.45101708,0
2.6507227,-0.66924381,2.1955109,0.8348496,-0.31561053,0.45101708,0
-0.27686763,-0.75477684,-1.6179008,0.2080816,-0.57759827,-0.78935587,0
1.1301656,-2.3014569,1.2597067,-0.42676938,-0.88859016,0.16815323,0
-3.0872004,2.0087025,-0.82171226,-0.8348496,0.31561053,-0.45101708,0
-2.9788394,1.4788365,-1.0147947,-0.8348496,0.31561053,-0.45101708,0
0.060479879,0.73467636,1.6809781,-0.23731345,0.53292429,0.81220335,0
0.44576368,1.5162127,-0.86360061,0.48178458,0.81525934,-0.32130349,0
-3.2873907,0.037032604,-1.5235782,-0.8348496,0.31561053,-0.45101708,0
-2.9833856,0.78666377,-1.6100228,-0.8348496,0.31561053,-0.45101708,0
0.13200164,0.48816311,-2.0122905,0.50928605,0.13185996,-0.85043561,0
-2.9559569,2.3696477,-0.79419184,-0.8348496,0.31561053,-0.45101708,0
3.1214223,-1.1943852,-0.37112546,0.43128902,-0.13412362,-0.89218873,0
-2.3018823,1.1736333,-2.6004093,-0.8348496,0.31561053,-0.45101708,0
-0.25724041,0.77151036,1.4947528,-0.24494398,0.52075523,0.8178122,0
3.2016745,-1.6479883,0.77583432,0.8348496,-0.31561053,0.45101708,0
-0.88888645,-0.43298525,1.4584978,-0.52301407,-0.19920948,0.82871711,0
-0.99363339,0.17154306,1.5232744,-0.45605052,0.062309891,0.88776994,0
0.24017596,1.5145673,1.0588822,0.042610288,0.85391086,0.51867229,0
0.97657645,1.5750178,0.40892434,0.31524056,0.94577563,0.078307867,0
2.3161249,-1.0138516,2.6514373,0.8348496,-0.31561053,0.45101708,0
0.75764525,-1.8773288,1.6505414,-0.50482547,-0.76564467,0.39867216,0
2.9241853,-2.6090171,0.69925952,0.8348496,-0.31561053,0.45101708,0
0.49951622,-1.8978429,1.1806695,-0.47124398,-0.83323824,0.28921133,0
-2.8876824,1.6987724,-1.0326654,-0.8348496,0.31561053,-0.45101708,0
-1.4144046,-0.51293826,-2.093457,0.13130188,-0.68150085,-0.71994203,0
-2.2763181,1.1737285,-2.9441817,-0.8348496,0.31561053,-0.45101708,0
2.0458226,-0.11430264,2.8842695,-0.25377262,0.50640154,0.82410991,0
-3.6519163,1.3123562,-0.27027535,-0.8348496,0.31561053,-0.45101708,0
-2.1949415,2.4149857,-1.9968809,-0.8348496,0.31561053,-0.45101708,0
3.3678253,-1.03245,0.62977874,0.8348496,-0.31561053,0.45101708,0
3.207969,0.14352512,1.7496855,0.8348496,-0.31561053,0.45101708,0
-1.8108268,-0.88053411,0.47510853,-0.53769553,-0.64307505,0.54528701,0
2.2942915,-2.7557566,1.2353981,-0.29492337,-0.94825071,-0.11764777,0
1.0845515,0.5421319,2.0824234,-0.19505852,0.59655011,0.77851164,0
2.4403083,0.79713547,0.15533909,0.48668849,0.80602062,-0.33684599,0
-2.2449515,1.9860356,-2.2233281,-0.8348496,0.31561053,-0.45101708,0
3.0749712,-0.1636219,2.0650747,0.8348496,-0.31561053,0.45101708,0
2.0844631,-0.25626701,-0.83630133,0.49243182,0.061974674,-0.86814177,0
0.68354577,0.57811427,-1.56925,0.52962369,0.23713765,-0.81441057,0
1.6176655,-0.24657273,2.7302842,-0.33618987,0.35644907,0.87173426,0
-1.5103455,0.46210766,-2.6890564,0.4203611,-0.16348541,-0.89250731,0
2.9898825,0.60397387,0.45402247,0.49151009,0.7963149,-0.35256267,0
3.1243296,0.16527987,2.2211075,0.8348496,-0.31561053,0.45101708,0
2.0383708,-2.4132943,2.1619825,0.8348496,-0.31561053,0.45101708,0
3.1971035,0.61825943,1.619096,0.31141394,0.94639122,0.085821867,0
2.88305,-0.42239094,2.2216609,0.8348496,-0.31561053,0.45101708,0
-1.1630425,-1.1607538,-1.3636861,-0.066442311,-0.87110162,-0.48658788,0
-1.9140375,2.0284898,-2.7279425,-0.8348496,0.31561053,-0.45101708,0
3.3425226,-1.0813122,0.74001932,0.8348496,-0.31561053,0.45101708,0
-2.9393642,-0.64489293,-2.0955195,-0.14583266,-0.91684902,-0.37164623,0
2.5310588,-1.9742453,1.8584309,0.8348496,-0.31561053,0.45101708,0
3.4938622,0.40210009,1.6441166,0.8348496,-0.31561053,0.45101708,0
-0.043208361,1.3530726,1.0338682,-0.038106322,0.78421903,0.61931324,0
-0.7391988,0.065480947,-2.327256,0.35839003,-0.31026268,-0.88050771,0
-2.8627076,-0.015910149,-2.3999774,-0.8348496,0.31561053,-0.45101708,0
-2.0907044,1.7304237,0.5111599,-0.21002144,0.57472634,0.79093671,0
-1.9456505,0.89625406,0.90578735,-0.40716022,0.19736257,0.89177847,0
-1.3269923,1.7488705,0.63360262,-0.10033828,0.71834713,0.68841124,0
2.2068539,0.75417042,-0.2642411,0.52681607,0.69570982,-0.48831627,0
2.320725,-1.9601669,2.2129889,0.8348496,-0.31561053,0.45101708,0
2.7186699,-0.1381402,2.6414795,0.8348496,-0.31561053,0.45101708,0
-3.1011548,2.3480465,-0.57772183,-0.8348496,0.31561053,-0.45101708,0
-3.8619921,0.82221484,-0.14730096,-0.8348496,0.31561053,-0.45101708,0
-2.5716438,-0.96600938,-1.1427724,-0.31373391,-0.94602644,-0.081272244,0
-2.7447991,1.9263494,-1.3325398,-0.8348496,0.31561053,-0.45101708,0
-3.1820986,-0.20331335,-1.899543,-0.8348496,0.31561053,-0.45101708,0
0.49438465,-0.37112182,-1.5739778,0.36875153,-0.28768626,-0.88388872,0
2.1713462,-1.5586238,2.458221,0.8348496,-0.31561053,0.45101708,0
-3.0540452,1.7911441,-0.80356503,-0.8348496,0.31561053,-0.45101708,0
-2.250699,-0.27761936,0.60671973,-0.55023384,-0.4540301,0.70078492,0
1.3010759,-0.20063207,-1.1637156,0.46257025,-0.041948527,-0.88558972,0
1.3328155,-2.1154652,2.1315143,-0.53370076,-0.66479939,0.52269042,0
2.0143869,-2.2113278,2.5955024,0.8348496,-0.31561053,0.45101708,0
1.8314028,1.0298316,0.069311798,0.46248752,0.84649515,-0.26372588,0
-1.5443711,1.5880413,0.59986949,-0.154661,0.65183592,0.74242193,0
0.77428818,-2.1597559,1.0761042,-0.42553031,-0.88976824,0.16503519,0
-2.8107929,1.6122217,-1.2228488,-0.8348496,0.31561053,-0.45101708,0
-2.5617411,-0.84562874,-1.7912846,-0.18090138,-0.9311111,-0.31671315,0
-2.3689513,-0.98840094,-0.89620924,-0.37160102,-0.92758369,0.038747787,0
-0.37383312,-1.5483533,-0.54594326,-0.1739966,-0.92860693,-0.32774156,0
2.9823689,0.02708149,2.1877651,0.8348496,-0.31561053,0.45101708,0
-3.4731309,0.1916399,-1.0255843,-0.8348496,0.31561053,-0.45101708,0
-2.8992808,0.17731094,-2.3724923,-0.8348496,0.31561053,-0.45101708,0
2.3246481,-2.5748785,1.5266132,0.8348496,-0.31561053,0.45101708,0
-2.6664417,0.90045166,-2.3185983,-0.8348496,0.31561053,-0.45101708,0
-2.4315367,2.1281404,-1.6309644,-0.8348496,0.31561053,-0.45101708,0
3.1384048,-0.50028849,1.6913928,0.8348496,-0.31561053,0.45101708,0
-2.7038629,-0.80951953,-0.87589055,-0.41107571,-0.90236092,0.12946707,0
-2.1561823,0.0061646104,0.79913807,-0.53224099,-0.25364769,0.80770195,0
3.4501803,0.49619174,1.4147918,0.37073877,0.92800564,-0.036856413,0
3.4065924,-0.0080649853,1.2950476,0.8348496,-0.31561053,0.45101708,0
1.4137022,1.3604269,0.80661726,0.28303397,0.94882834,0.14005959,0
2.8664429,-0.31021833,2.1900532,0.8348496,-0.31561053,0.45101708,0
-1.9710129,2.2872558,-0.19135046,0.040087521,0.85200012,0.52200478,0
-0.056428313,1.0914941,-1.7033495,0.55031073,0.45829809,-0.69794059,0
-2.8025765,1.0312063,0.53241646,-0.41938686,0.16604257,0.89249355,0
-2.8629518,1.0086131,-1.5570323,-0.8348496,0.31561053,-0.45101708,0
-2.9826663,0.46393633,0.35391104,-0.52360368,-0.20241112,0.82756817,0
-2.6359458,0.36930513,-2.4324183,-0.8348496,0.31561053,-0.45101708,0
3.2399158,-1.8045156,-0.047812223,0.28485197,-0.45341131,-0.8445577,0
-0.21933031,0.051687837,1.7984185,-0.43876606,0.11326736,0.89143437,0
2.1625516,0.85970116,1.7821676,0.13062394,0.90949768,0.39465386,0
-3.3913817,-0.17455101,-1.7043144,-0.8348496,0.31561053,-0.45101708,0
-2.9223571,1.1725969,-1.3859407,-0.8348496,0.31561053,-0.45101708,0
0.71283138,-1.4966199,-1.0128164,0.11410153,-0.7023114,-0.7026661,0
2.6788006,-2.293211,0.99007368,0.8348496,-0.31561053,0.45101708,0
-0.41668928,-1.5211341,0.87226212,-0.49538758,-0.78801322,0.36554939,0
-0.89148182,2.2790096,-0.64006162,0.29721493,0.94806737,0.11327767,0
3.3803961,-0.94307566,1.0287315,0.8348496,-0.31561053,0.45101708,0
-1.2314014,2.3304088,-0.3975482,0.1979962,0.93664771,0.28894407,0
2.8287797,-0.77071333,2.0932291,0.8348496,-0.31561053,0.45101708,0
3.3359787,-0.82947564,0.89187717,0.8348496,-0.31561053,0.45101708,0
-2.8980308,-0.026349068,-2.2841952,-0.8348496,0.31561053,-0.45101708,0
1.6455274,-1.0460314,-0.92821658,0.35696924,-0.31330577,-0.88000721,0
-3.4469981,-0.035746574,-1.5228946,-0.8348496,0.31561053,-0.45101708,0
-2.9972878,1.1971052,-1.5199274,-0.8348496,0.31561053,-0.45101708,0
3.6425228,-0.37294865,0.97510237,0.8348496,-0.31561053,0.45101708,0
3.5584064,-0.095312119,1.1050292,0.8348496,-0.31561053,0.45101708,0
-3.2667193,1.0410128,-0.99718034,-0.8348496,0.31561053,-0.45101708,0
-1.4376427,-0.99628967,0.59577525,-0.53063011,-0.67941797,0.50677693,0
3.0274007,-0.24075031,1.8060186,0.8348496,-0.31561053,0.45101708,0
3.2880216,0.32117653,0.37536365,0.53519309,0.65709323,-0.5308454,0
-2.7565517,1.3741705,-1.7134222,-0.8348496,0.31561053,-0.45101708,0
2.2191489,-0.17004418,-0.75829464,0.5170626,0.16848406,-0.83920169,0
-2.6763158,2.6127295,-1.0196531,-0.8348496,0.31561053,-0.45101708,0
2.0209465,0.86087155,1.5694374,0.14397249,0.91598701,0.37448639,0
-3.4335957,0.23573184,-1.3445714,-0.8348496,0.31561053,-0.45101708,0
-2.1187804,2.56476,-1.0061045,0.23022154,0.94440639,0.23472321,0
1.1910226,-0.062642574,2.4813228,-0.32214671,0.38425618,0.86519879,0
0.42689198,-1.3080665,1.9459181,-0.55028021,-0.50044978,0.66838735,0
2.600666,-0.36923647,2.6371856,0.8348496,-0.31561053,0.45101708,0
-3.2949336,1.1909194,-0.73658168,-0.8348496,0.31561053,-0.45101708,0
-2.2587457,-0.1706934,-2.5603499,0.12823468,-0.68527526,-0.71690583,0
2.8439984,-0.55310631,2.0553339,0.8348496,-0.31561053,0.45101708,0
-2.0651836,2.0842116,-2.2700758,-0.8348496,0.31561053,-0.45101708,0
-2.8727648,0.28211498,-2.3757546,-0.8348496,0.31561053,-0.45101708,0
-2.354775,0.44872618,-3.095422,-0.8348496,0.31561053,-0.45101708,0
1.9776486,0.48873687,2.2201612,-0.057965696,0.76436126,0.64217764,0
-2.4380822,-0.5952282,-1.9851825,-0.089354157,-0.88614798,-0.45470637,0
3.6605268,-1.4348364,0.15303636,0.8348496,-0.31561053,0.45101708,0
1.5158861,0.27549964,-1.0503085,0.54262149,0.33388889,-0.77076596,0
-1.6170371,-0.89232945,-1.6414362,-0.042960823,-0.85417497,-0.51820821,0
2.9375989,-1.136147,-0.25342011,0.40709752,-0.19751954,-0.89177227,0
2.5584493,-0.9800961,2.1442721,0.8348496,-0.31561053,0.45101708,0
-2.4111965,2.390147,-1.7229722,-0.8348496,0.31561053,-0.45101708,0
-1.7282567,1.0417325,0.95381343,-0.35978723,0.30725798,0.88099146,0
2.9556513,-2.1167204,0.63916159,0.8348496,-0.31561053,0.45101708,0
2.985049,-2.0459089,0.80124283,0.8348496,-0.31561053,0.45101708,0
-2.5003445,1.8672311,-2.0131476,-0.8348496,0.31561053,-0.45101708,0
-3.1049697,0.64358735,-1.6889448,-0.8348496,0.31561053,-0.45101708,0
-2.4870543,2.5864885,-1.5524356,-0.8348496,0.31561053,-0.45101708,0
-2.748817,2.4141726,-1.1833386,-0.8348496,0.31561053,-0.45101708,0
1.0008004,-1.3633379,-0.8847363,0.17303622,-0.62732989,-0.75928646,0
2.2335458,-0.69802761,3.0450239,0.8348496,-0.31561053,0.45101708,0
-3.7028222,-0.49022579,-1.3359606,-0.8348496,0.31561053,-0.45101708,0
-2.8465269,2.4552515,-0.83862638,-0.8348496,0.31561053,-0.45101708,0
-3.1476822,1.312484,-1.0668555,-0.8348496,0.31561053,-0.45101708,0
2.3434789,-0.020227432,2.7099643,-0.19672567,0.59415561,0.77992207,0
-1.0218079,1.9955266,-1.7001973,0.51033109,0.75089848,-0.41918224,0
2.4897125,-2.0628867,-0.11125112,0.12902784,-0.68430185,-0.71769291,0
2.5874031,-1.1229675,2.2033043,0.8348496,-0.31561053,0.45101708,0
-2.7165875,2.3499446,-0.33715296,-0.046222925,0.77623343,0.62874913,0
2.2914259,-1.891022,-0.19195747,0.14555722,-0.66359234,-0.73379749,0
-2.182168,-0.15764713,-2.6773944,0.14101326,-0.66936666,-0.72942692,0
0.18662685,-1.2618952,1.6787614,-0.55011129,-0.50824046,0.66262299,0
1.1040907,-1.5034049,2.339288,-0.5504334,-0.46816403,0.69126374,0
2.755563,-0.52066517,-0.48900902,0.51440686,0.15558082,-0.84331512,0
-3.6419387,1.1488378,-0.22984624,-0.8348496,0.31561053,-0.45101708,0
-1.1011176,-1.3144428,-1.1351879,-0.1266132,-0.90744472,-0.40064138,0
-0.13928318,-0.33803725,-1.7690192,0.32381517,-0.38100609,-0.86601287,0
1.9386996,-1.5546391,3.0241597,-0.52588898,-0.21513149,0.8228969,0
2.8572114,-1.5301259,1.1999617,0.8348496,-0.31561053,0.45101708,0
-1.0660018,1.9788563,-1.9529878,0.5246712,0.70413399,-0.47845113,0
-2.0854981,2.2785878,-2.2177052,-0.8348496,0.31561053,-0.45101708,0
0.26933801,0.65386748,-1.807219,0.53058589,0.24309176,-0.81202525,0
2.9468546,-0.86710238,1.6968302,0.8348496,-0.31561053,0.45101708,0
3.059797,-1.8283949,0.66327429,0.8348496,-0.31561053,0.45101708,0
-0.90219527,1.3875985,0.90887511,-0.12704378,0.68673331,0.71572173,0
-0.80566651,-1.0458863,-1.5302181,0.033404708,-0.78876263,-0.61378974,0
-1.5788817,0.32168651,-2.6945686,0.38819617,-0.24336126,-0.88886392,0
-0.88826793,-0.81230783,-1.7501055,0.079697967,-0.74138731,-0.66632825,0
2.4533222,-1.5072889,2.1987543,0.8348496,-0.31561053,0.45101708,0
0.33754224,1.4636564,-1.329425,0.53318357,0.66737151,-0.51993328,0
2.9092252,-2.1226101,0.8979516,0.8348496,-0.31561053,0.45101708,0
2.0443785,-1.6623652,3.0059166,0.8348496,-0.31561053,0.45101708,0
-2.0541093,2.5914071,-2.0180917,0.46333703,0.84526891,-0.26615649,0
2.1929741,-2.3533509,1.8708415,0.8348496,-0.31561053,0.45101708,0
2.9954972,-0.99297762,1.4920768,0.8348496,-0.31561053,0.45101708,0
1.102688,1.3282093,-0.033280492,0.41993648,0.89488697,-0.15109885,0
-3.72404,0.51912355,-0.35594749,-0.8348496,0.31561053,-0.45101708,0
-2.5643406,2.3471274,-1.5794837,-0.8348496,0.31561053,-0.45101708,0
-3.0412474,0.89331055,-1.5387073,-0.8348496,0.31561053,-0.45101708,0
3.2901735,-0.96232033,-0.18361974,0.48331749,0.028072298,-0.87499493,0
-2.6473274,0.96883774,-2.3470435,-0.8348496,0.31561053,-0.45101708,0
2.2939377,-1.6143603,2.2135849,0.8348496,-0.31561053,0.45101708,0
-0.019511104,1.7734778,-1.0257223,0.46276009,0.84610313,-0.26450467,0
-0.5104295,-0.11834216,-2.0588861,0.34667575,-0.33498889,-0.87612689,0
1.396642,-2.2944541,1.7204524,-0.4753297,-0.8265518,0.30145305,0
-2.0970087,0.14499414,0.84377724,-0.52031052,-0.18491295,0.83371711,0
-1.5897143,-1.2765896,-0.074285269,-0.45180172,-0.86092401,0.23384911,0
1.2171485,-1.1697353,-0.97926569,0.25778764,-0.49977458,-0.82690454,0
0.26547801,-0.8602134,2.1318817,-0.52379262,-0.20344386,0.82719523,0
-0.53919065,-0.4914391,-2.1211913,0.27951396,-0.4627963,-0.84124422,0
-3.0956707,1.6014636,-1.0460014,-0.8348496,0.31561053,-0.45101708,0
2.6557822,-0.96883917,2.2986536,0.8348496,-0.31561053,0.45101708,0
2.0073633,-1.0282421,3.1460638,-0.48029393,-0.017298818,0.87693703,0
-1.7870443,-0.78273767,0.32167479,-0.52603531,-0.69883192,0.48468632,0
-3.3179426,0.023106575,-1.5803754,-0.8348496,0.31561053,-0.45101708,0
-2.9477701,-0.23420858,-2.4406667,-0.8348496,0.31561053,-0.45101708,0
-3.4302647,1.5453601,-0.36894393,-0.8348496,0.31561053,-0.45101708,0
-0.46099269,-0.28237319,-2.0282724,0.31670415,-0.39476034,-0.86247498,0
-2.4817305,1.495121,-2.2259264,-0.8348496,0.31561053,-0.45101708,0
-2.1835618,1.3642125,-2.6216955,-0.8348496,0.31561053,-0.45101708,0
-2.2942805,0.23379374,-2.8909454,0.26457661,-0.48842502,-0.83152902,0
3.4072275,-1.9330754,0.2665019,0.8348496,-0.31561053,0.45101708,0
3.3380141,-0.22263169,1.3039724,0.8348496,-0.31561053,0.45101708,0
-1.4401761,1.9867573,-2.0566921,0.52954459,0.68424457,-0.50138998,0
3.175277,-1.3017659,-0.11550212,0.38634086,-0.2477079,-0.8884716,0
3.284698,-1.7718778,0.59689569,0.8348496,-0.31561053,0.45101708,0
1.09953,-1.5576866,-0.58751202,0.098678827,-0.72024381,-0.68666691,0
-2.8686407,1.5236247,-1.5212346,-0.8348496,0.31561053,-0.45101708,0
1.3871498,-0.79607308,-1.061793,0.34886193,-0.33043632,-0.87698781,0
2.4232211,-2.0559516,2.0553367,0.8348496,-0.31561053,0.45101708,0
3.1377654,-1.9774332,0.34993196,0.8348496,-0.31561053,0.45101708,0
-2.5703228,0.30540538,0.494991,-0.51482427,-0.15757993,0.84268892,0
-2.0187049,2.1365974,-2.3971591,-0.8348496,0.31561053,-0.45101708,0
3.4765997,-1.2446179,0.49916923,0.8348496,-0.31561053,0.45101708,0
-2.6838827,1.7826509,-1.6983232,-0.8348496,0.31561053,-0.45101708,0
-0.17427135,0.30735493,-2.1008008,0.4732421,-0.00702402,-0.8809045,0
1.1042823,-1.5047443,-0.71532607,0.12300891,-0.69164228,-0.71168816,0
-3.2737055,0.15903044,-1.7148645,-0.8348496,0.31561053,-0.45101708,0
-0.3586393,1.4038824,-1.7947726,0.55044043,0.48821718,-0.67724395,0
2.2087717,-2.6004939,0.77101254,-0.16324341,-0.92440718,-0.34470731,0
-3.5291748,-0.2398119,-1.259622,-0.8348496,0.31561053,-0.45101708,0
-1.3064065,2.1328776,-1.8751763,0.49447814,0.79000264,-0.36247379,0
0.39160728,0.27738082,-1.6923084,0.4867565,0.0406003,-0.87259376,0
-2.5749905,0.89643192,-2.406657,-0.8348496,0.31561053,-0.45101708,0
1.7315389,0.42377782,2.471477,-0.1697405,0.63180268,0.75631595,0
0.71237624,-1.9265809,1.4650376,-0.48493883,-0.80938661,0.33125174,0
-1.8472426,2.3047001,-0.51310515,0.13077566,0.90957439,0.3944267,0
-2.5969956,2.5125568,-1.1750574,-0.8348496,0.31561053,-0.45101708,0
1.2222255,1.3925693,0.15535271,0.37040707,0.92816675,-0.036129713,0
3.3869932,-0.74032164,-0.19848895,0.50543618,0.11489615,-0.85518014,0
-3.3240843,0.74622607,0.093033791,-0.50575334,-0.11626828,0.85480714,0
3.4775434,-1.0998564,0.71386325,0.8348496,-0.31561053,0.45101708,0
3.7666464,-0.66909623,0.52984095,0.8348496,-0.31561053,0.45101708,0
-2.7856021,1.6752043,-1.4207613,-0.8348496,0.31561053,-0.45101708,0
3.2678232,-0.615026,1.0851533,0.8348496,-0.31561053,0.45101708,0
1.0595136,-0.98885548,-1.0508025,0.27703238,-0.467118,-0.83967495,0
-3.1804147,1.8681083,-0.49195695,-0.8348496,0.31561053,-0.45101708,0
0.31895804,-0.50019789,2.0880187,-0.49821103,-0.084745914,0.86290443,0
2.2004294,0.48054779,-0.61004567,0.55035019,0.49621135,-0.67148274,0
0.6292994,1.1162941,1.5764647,-0.044214904,0.77822578,0.62642628,0
0.44348979,0.72843647,1.8034536,-0.2302044,0.54406869,0.8068428,0
3.1507521,-1.0402608,1.0630742,0.8348496,-0.31561053,0.45101708,0
-2.9823301,0.81654334,-1.7361641,-0.8348496,0.31561053,-0.45101708,0
2.5844541,0.76687384,1.5233853,0.24066001,0.94613105,0.21660793,0
-1.1932498,1.1275318,-2.7079382,0.51863563,0.176346,-0.83661175,0
0.93002599,-1.3140559,2.3976338,-0.53920454,-0.30388284,0.78543854,0
0.8196559,1.1951721,1.4113252,-0.0040332675,0.81578964,0.57833505,0
3.1444926,0.60172343,2.0123482,0.18489468,0.93248963,0.31028581,0
-2.2222281,0.19502056,0.65758717,-0.52694726,-0.22120321,0.82060695,0
-3.1452096,1.2714834,-0.87736952,-0.8348496,0.31561053,-0.45101708,0
-1.6219754,-1.0109599,-1.7747023,-0.057232618,-0.86464334,-0.49911594,0
3.2798386,-0.26609087,1.5948904,0.8348496,-0.31561053,0.45101708,0
-2.90153,1.0250192,-1.8646467,-0.8348496,0.31561053,-0.45101708,0
3.2092133,-0.30567789,-0.051380515,0.53888273,0.30128938,-0.78665763,0
2.436017,-0.63366449,-0.69015443,0.45850831,-0.054714561,-0.88700426,0
-2.5515728,2.1516938,-0.094446182,-0.12131107,0.6936937,0.70998085,0
-3.6500401,0.65929317,-0.59499609,-0.8348496,0.31561053,-0.45101708,0
-2.3381302,1.4257097,0.54018641,-0.32570511,0.37730759,0.86692297,0
-2.0745127,2.0677826,-2.5301216,-0.8348496,0.31561053,-0.45101708,0
-2.4204698,0.63123465,-2.9351997,-0.8348496,0.31561053,-0.45101708,0
-3.1758301,0.9383471,-1.3210332,-0.8348496,0.31561053,-0.45101708,0
2.7959085,-1.6236582,-0.15724444,0.28712153,-0.44938409,-0.84594059,0
-0.31653929,0.0060098171,1.7341852,-0.45808834,0.056019276,0.88713986,0
2.3677897,-1.0232124,2.6138053,0.8348496,-0.31561053,0.45101708,0
-2.805989,2.0636349,-0.95423222,-0.8348496,0.31561053,-0.45101708,0
-3.0351937,-0.0084810257,-2.0284019,-0.8348496,0.31561053,-0.45101708,0
-2.1740837,2.1816306,-2.0869775,-0.8348496,0.31561053,-0.45101708,0
2.3104134,0.55965877,2.2289858,0.033692241,0.84707862,0.53039885,0
2.4597192,-2.0391812,0.097239494,0.11764562,-0.69809395,-0.70627517,0
-2.8614063,1.3173892,-1.3711447,-0.8348496,0.31561053,-0.45101708,0
1.2578399,-0.25329709,2.594629,-0.36446279,0.29711413,0.88254762,0
2.8842945,-0.90914083,1.7939191,0.8348496,-0.31561053,0.45101708,0
-0.11395574,-0.011073351,-2.0885658,0.41658795,-0.17333746,-0.89241737,0
-1.0066788,2.0383248,-1.8578949,0.51543611,0.73583466,-0.43917313,0
-3.66151,0.43684316,-0.77426881,-0.8348496,0.31561053,-0.45101708,0
3.0820606,-2.1999719,0.49251103,0.8348496,-0.31561053,0.45101708,0
0.13911372,-1.9817185,0.31941867,-0.31079519,-0.94648403,-0.08703208,0
-1.0262353,-0.83629155,1.049859,-0.55047727,-0.4771958,0.68502474,0
2.8272972,-1.2728329,1.7511702,0.8348496,-0.31561053,0.45101708,0
3.4112267,-0.089697599,1.3491594,0.8348496,-0.31561053,0.45101708,0
-1.6989001,1.7161329,-2.6299963,0.54921091,0.42198664,-0.72131455,0
-2.7963183,0.79081416,-1.9537752,-0.8348496,0.31561053,-0.45101708,0
2.2136183,-0.66269112,3.130815,0.8348496,-0.31561053,0.45101708,0
-2.2334352,2.5754862,-2.0007617,-0.8348496,0.31561053,-0.45101708,0
0.76350063,1.5324551,0.57209253,0.21913004,0.94214308,0.25366998,0
0.82093167,1.4415423,-0.35032868,0.45103955,0.86188656,-0.23176473,0
3.2619538,0.28368759,1.9523964,0.8348496,-0.31561053,0.45101708,0
3.0950358,-0.2677021,1.7708631,0.8348496,-0.31561053,0.45101708,0
3.5594578,-0.054936886,0.97877419,0.8348496,-0.31561053,0.45101708,0
2.9098256,-0.29198074,2.012183,0.8348496,-0.31561053,0.45101708,0
1.7494457,-1.7500632,2.7476928,-0.54577184,-0.36765152,0.75297111,0
-2.6803975,-0.56920326,-0.19643775,-0.52094001,-0.71774679,0.46201861,0
0.050340891,-0.84513104,-1.4776843,0.20332867,-0.58458096,-0.78544432,0
-3.2603319,1.5863049,-0.70593739,-0.8348496,0.31561053,-0.45101708,0
3.5293355,0.27209234,1.5499005,0.8348496,-0.31561053,0.45101708,0
-2.2053704,1.7153087,-2.3072698,-0.8348496,0.31561053,-0.45101708,0
3.0588653,0.15105104,2.3903322,0.8348496,-0.31561053,0.45101708,0
2.1415989,-2.0365419,2.5009007,0.8348496,-0.31561053,0.45101708,0
2.3282924,-2.6742864,1.7615178,0.8348496,-0.31561053,0.45101708,0
2.9580956,0.14658451,-0.18354011,0.55047691,0.48044881,-0.6827476,0
-2.6355965,2.5859828,-0.61782742,0.074300706,0.87642705,0.47576827,0
-2.5282543,0.17086887,-3.0204906,-0.8348496,0.31561053,-0.45101708,0
0.7562809,-1.4841053,-0.74079347,0.082409263,-0.73842913,-0.66927689,0
0.93528605,-1.17065,2.4042358,-0.52601957,-0.21587422,0.8226189,0
0.90282696,-2.2099242,0.87809324,-0.35408798,-0.93521172,0.00099253654,0
3.6188469,-0.84674096,0.26142216,0.8348496,-0.31561053,0.45101708,0
2.5993142,-2.0347886,1.6586401,0.8348496,-0.31561053,0.45101708,0
-2.2896109,0.54188633,-3.0202498,-0.8348496,0.31561053,-0.45101708,0
-3.2405066,1.8291008,-0.70014882,-0.8348496,0.31561053,-0.45101708,0
-1.7321061,2.3733342,-2.0743628,0.49878308,0.78034198,-0.37720269,0
-0.45634204,1.9040473,-1.1904023,0.46259922,0.84633458,-0.264045,0
0.20445532,1.5042245,0.86415339,0.077343881,0.87844318,0.47154611,0
2.5220339,-1.7749557,1.8648518,0.8348496,-0.31561053,0.45101708,0
-0.24688458,0.62355191,1.6002585,-0.32014322,0.38814014,0.86420822,0
2.5873914,-1.4833639,-0.50475574,0.32338631,-0.38184294,-0.86580455,0
-1.6181531,-1.0753226,-0.13245219,-0.44821447,-0.86538333,0.22408837,0
-0.09287715,-1.6549166,1.2493716,-0.52212942,-0.71353924,0.46716458,0
0.90118241,1.3406984,-0.46647429,0.47534257,0.8265301,-0.30149215,0
2.4613912,-1.8076236,2.0080204,0.8348496,-0.31561053,0.45101708,0
-2.5051837,1.5350108,-1.9680319,-0.8348496,0.31561053,-0.45101708,0
-1.0907813,-1.3972018,0.13137329,-0.41711122,-0.8973521,0.14414424,0
-1.4619105,-0.17211071,1.2212834,-0.52478409,-0.20891771,0.82520002,0
-3.1899605,-0.30817318,-1.9489166,-0.8348496,0.31561053,-0.45101708,0
-2.053133,1.8017056,-2.630986,-0.8348496,0.31561053,-0.45101708,0
-2.4871783,1.5637553,-2.0727947,-0.8348496,0.31561053,-0.45101708,0
-2.758188,-0.11273158,0.22667307,-0.55039078,-0.49317682,0.67368144,0
3.0562754,-0.12563944,2.002013,0.8348496,-0.31561053,0.45101708,0
-2.8037248,0.79096055,-2.0065362,-0.8348496,0.31561053,-0.45101708,0
3.6770513,-0.83642864,0.022920489,0.51831245,0.17471635,-0.83715385,0
3.0187378,-1.3530302,1.2058702,0.8348496,-0.31561053,0.45101708,0
2.1843061,0.22785318,-0.54750121,0.54725754,0.38735354,-0.7419343,0
0.6748873,-0.8306337,-1.5149038,0.30515862,-0.41656318,-0.85636067,0
-3.0536399,0.7634685,-1.5163283,-0.8348496,0.31561053,-0.45101708,0
1.1036639,0.41952562,-1.2691851,0.54168665,0.32516351,-0.77514148,0
1.6607298,0.15527773,2.3861103,-0.2217319,0.55711281,0.80028772,0
-3.7502403,0.71560287,-0.29480827,-0.8348496,0.31561053,-0.45101708,0
3.5002854,0.53432965,1.5567962,0.33966568,0.94009542,0.029121161,0
-3.4200778,1.4422503,0.14052892,-0.38135135,0.25927126,0.88732731,0
2.5590968,-0.25818348,2.7111974,0.8348496,-0.31561053,0.45101708,0
-0.95995641,1.984075,-1.882859,0.53078252,0.67872727,-0.50754237,0
2.1362476,-0.78262472,3.0400224,-0.41015476,0.18982008,0.89204347,0
-2.9175599,0.54920006,-2.0764956,-0.8348496,0.31561053,-0.45101708,0
1.9143676,1.0571579,0.11821884,0.45520937,0.85651481,-0.24324232,0
-0.50252992,1.9823506,-0.056237459,0.20981288,0.93990844,0.26935267,0
2.6834612,-2.0290229,1.5149285,0.8348496,-0.31561053,0.45101708,0
-2.4090216,1.9155405,-2.1641738,-0.8348496,0.31561053,-0.45101708,0
1.4238172,-1.1506692,-0.97772336,0.30329019,-0.42003188,-0.85532939,0
-0.49743676,0.63727188,-2.2066488,0.50515407,0.11367935,-0.85550952,0
1.0147028,-0.35495502,-1.5251727,0.42761832,-0.14412862,-0.89239544,0
-2.7272897,1.610888,-1.5366918,-0.8348496,0.31561053,-0.45101708,0
-3.7315769,-0.28891325,-1.2318434,-0.8348496,0.31561053,-0.45101708,0
-1.0180109,-0.078516722,-2.2506084,0.31094295,-0.40572003,-0.85948002,0
2.5365534,-0.37880802,2.782608,0.8348496,-0.31561053,0.45101708,0
-1.741994,-1.1141415,-0.9859398,-0.28557009,-0.94875693,-0.13531518,0
-1.1008594,2.088012,-1.9859703,0.51921898,0.72363579,-0.45471191,0
3.4504967,0.31317544,0.80780137,0.49520916,0.78840566,-0.36494446,0
-2.9990673,1.2940705,-1.3149633,-0.8348496,0.31561053,-0.45101708,0
3.754611,-0.8070662,0.32830906,0.8348496,-0.31561053,0.45101708,0
-1.0865759,1.4033928,-2.4535744,0.5461905,0.37286186,-0.75010002,0
3.0659025,-1.7767346,0.69470954,0.8348496,-0.31561053,0.45101708,0
-2.8153524,1.3470852,-1.6576874,-0.8348496,0.31561053,-0.45101708,0
3.0147014,0.16705608,2.2326586,0.8348496,-0.31561053,0.45101708,0
-3.0229349,2.4768825,-0.51394892,-0.062909782,0.75924945,0.64775217,0
-2.5414295,0.18453979,-2.8429794,-0.8348496,0.31561053,-0.45101708,0
-2.2282856,2.0687239,-2.3631964,-0.8348496,0.31561053,-0.45101708,0
-2.7881975,0.88145494,-1.9673951,-0.8348496,0.31561053,-0.45101708,0
3.2344065,-1.5435238,0.76648021,0.8348496,-0.31561053,0.45101708,0
-3.6018877,-0.55688453,-1.2626444,-0.8348496,0.31561053,-0.45101708,0
2.6151226,-2.3846018,1.467701,0.8348496,-0.31561053,0.45101708,0
2.463114,-0.9964838,2.4370012,0.8348496,-0.31561053,0.45101708,0
-1.5330238,1.0211899,-2.8578851,0.50406826,0.10902834,-0.8567543,0
-2.7814476,-0.8156631,-0.72959107,-0.43445647,-0.88090515,0.18776006,0
0.67604315,-1.9620191,1.4952211,-0.49345171,-0.79221636,0.3590247,0
0.59548473,-0.12494224,-1.6415044,0.44910628,-0.083278537,-0.88958901,0
2.3945658,-0.94715905,2.4854798,0.8348496,-0.31561053,0.45101708,0
3.4617245,-0.39553666,0.96453452,0.8348496,-0.31561053,0.45101708,0
-2.8057532,1.1883471,-1.5680852,-0.8348496,0.31561053,-0.45101708,0
-3.846714,0.35394478,-0.4472822,-0.8348496,0.31561053,-0.45101708,0
-3.1837945,1.720161,-0.4669106,-0.8348496,0.31561053,-0.45101708,0
2.8291557,-0.31260252,2.0969942,0.8348496,-0.31561053,0.45101708,0
-2.6004345,0.25833082,-2.6307323,-0.8348496,0.31561053,-0.45101708,0
-1.9868422,2.1357534,-2.4476984,-0.8348496,0.31561053,-0.45101708,0
-3.8967123,-0.10527754,-0.7771399,-0.8348496,0.31561053,-0.45101708,0
-2.93859,0.0020647049,-2.3972478,-0.8348496,0.31561053,-0.45101708,0
2.5776973,-1.5744383,1.7351276,0.8348496,-0.31561053,0.45101708,0
-3.2726758,-0.42566252,-1.8407061,-0.8348496,0.31561053,-0.45101708,0
-2.6984456,-0.3142786,0.10942505,-0.54673153,-0.57082248,0.61257356,0
-0.56266809,1.8892378,0.43898726,0.081310213,0.88103229,0.46601617,0
-2.8187466,2.2052922,-1.1879306,-0.8348496,0.31561053,-0.45101708,0
0.16107118,-0.30732727,2.1259847,-0.46007043,0.049837202,0.88648272,0
-1.6293213,-0.80214763,-2.0177469,0.051379681,-0.77106637,-0.63467866,0
-2.2582481,0.2160629,0.69695854,-0.52271521,-0.1975989,0.82929099,0
-2.6301036,0.49994183,-2.5716369,-0.8348496,0.31561053,-0.45101708,0
-2.699492,1.3692713,-2.0233998,-0.8348496,0.31561053,-0.45101708,0
-3.0114303,1.7578571,-0.91005588,-0.8348496,0.31561053,-0.45101708,0
0.02905792,-1.8714746,0.58755112,-0.40240002,-0.90897846,0.1087774,0
3.054697,-1.1942854,1.3182089,0.8348496,-0.31561053,0.45101708,0
2.5996885,-1.6386235,1.5815356,0.8348496,-0.31561053,0.45101708,0
2.951956,-0.37556601,2.0700965,0.8348496,-0.31561053,0.45101708,0
3.2179537,0.53064585,2.0096598,0.8348496,-0.31561053,0.45101708,0
-2.3570895,2.5705578,-1.009439,0.21584415,0.94138932,0.25922489,0
2.936615,-2.2302036,0.97524238,0.8348496,-0.31561053,0.45101708,0
1.4953468,-0.78436708,2.8337262,-0.45378107,0.069240928,0.88841921,0
-1.5932045,-1.0229318,-1.5843045,-0.1167562,-0.90219933,-0.41521657,0
-3.4955225,0.88360906,0.054090261,-0.50556648,-0.11545885,0.8550275,0
-3.254385,0.13466549,-1.6666247,-0.8348496,0.31561053,-0.45101708,0
3.0925901,-0.4992342,-0.32439315,0.5229547,0.19888932,-0.82883143,0
-3.0468402,-0.26644039,-0.1718944,-0.54332316,-0.60410029,0.58297753,0
0.082405686,-1.9550847,0.3650353,-0.33721587,-0.9408077,-0.034154177,0
3.5530968,0.38340044,1.5072525,0.8348496,-0.31561053,0.45101708,0
-1.5059973,-1.3057289,-0.83355063,-0.28459316,-0.94878781,-0.13714516,0
3.7402554,-0.89065289,0.33703279,0.8348496,-0.31561053,0.45101708,0
2.0602186,-0.77956623,-0.94721043,0.43099046,-0.13494307,-0.89220941,0
3.2813182,-0.82633185,0.95973873,0.8348496,-0.31561053,0.45101708,0
-1.9425224,-1.0124702,-1.5903411,-0.15112144,-0.91924286,-0.36353171,0
0.31085998,-1.5305508,-0.68880916,-0.025259912,-0.84041965,-0.54134768,0
-1.351408,2.0250921,-2.244647,0.54181337,0.6159153,-0.57191503,0
0.99376827,-0.62324679,-1.2834376,0.35609859,-0.31516442,-0.87969625,0
-2.1494639,2.6041496,-1.9674957,0.46003982,0.84996027,-0.25677037,0
-2.9622855,2.1753469,-0.59170461,-0.8348496,0.31561053,-0.45101708,0
1.7905828,1.092186,1.5493467,0.13486055,0.91161472,0.38829321,0
-3.2599857,1.2659607,-1.0437026,-0.8348496,0.31561053,-0.45101708,0
-0.5833708,0.69236946,-2.2245276,0.49541616,0.073597759,-0.8655324,0
2.3826416,0.85349751,0.024829626,0.51106697,0.74881566,-0.42200202,0
