0.037879467,-1.7071943,-0.29338151,0.16269428,-0.98025113,0.11241937,0
-1.3750902,0.13054517,1.532517,-0.93845057,0.017652929,0.34496218,0
-0.48866189,1.510484,-1.5019928,-0.010792375,0.98544091,-0.16967472,0
0.98135757,0.92992342,1.713683,0.34309998,0.16303277,0.92504191,0
1.3963331,1.6078273,1.4213026,0.34309998,0.16303277,0.92504191,0
-0.07321167,-1.8625213,-1.3731749,0.25553298,-0.96387899,0.075099766,0
-1.6105504,-0.3749299,-1.4327406,-0.34309998,-0.16303277,-0.92504191,0
-1.1165938,1.247334,-2.0331919,-0.34309998,-0.16303277,-0.92504191,0
-0.55136371,-1.4578191,0.73115963,-0.39025974,-0.87105376,0.29826587,0
1.0113318,-0.77054656,-2.1470695,0.92622638,-0.22245455,-0.30433315,0
-1.2056665,0.79515719,-1.7802657,-0.34309998,-0.16303277,-0.92504191,0
1.2247835,-0.19258028,-1.9624288,0.93622661,0.020229965,-0.35081387,0
-0.43712401,0.82464123,2.2575779,0.34309998,0.16303277,0.92504191,0
-1.6643393,-1.0496902,-1.4311168,-0.34309998,-0.16303277,-0.92504191,0
-1.7207007,0.81121039,-0.5658251,-0.81033981,0.54940331,0.20372802,0
-1.8960257,0.74614382,-0.88106608,-0.80336159,0.56123739,0.19905406,0
-1.624293,0.043478966,-1.6306921,-0.34309998,-0.16303277,-0.92504191,0
-1.2749217,0.90780246,1.1909028,-0.86585921,0.43664315,0.24419343,0
-0.095737934,-1.9309018,-1.720237,0.37414134,-0.92704487,0.024616003,0
1.3237417,0.54222798,1.6627228,0.34309998,0.16303277,0.92504191,0
-0.82271421,0.8704505,-2.0886159,-0.34309998,-0.16303277,-0.92504191,0
0.14491493,-0.078424811,-2.2022004,-0.34309998,-0.16303277,-0.92504191,0
-1.7269646,0.52899849,0.078210235,-0.9009949,0.33549079,0.27505285,0
-1.7286398,-1.0465028,-0.19771129,-0.77888513,-0.5010581,0.37719852,0
-1.6738856,-1.2570167,-0.34357226,-0.72195995,-0.58422881,0.37074313,0
0.25226232,0.96058106,-2.3227782,-0.34309998,-0.16303277,-0.92504191,0
1.945505,-0.84196484,0.87252915,0.79842091,-0.56937814,-0.19578671,0
-1.9919032,0.65214634,-0.99592817,-0.83482105,0.50432289,0.22075319,0
-2.2998002,-0.18704391,-1.2071826,-0.93803096,0.11062238,0.32842124,0
0.77537286,-0.024266958,1.7867351,0.34309998,0.16303277,0.92504191,0
1.0953315,-1.3454924,1.8277619,0.2650851,-0.96159589,0.071154594,0
0.093705416,1.6350322,1.7635051,0.34309998,0.16303277,0.92504191,0
0.9647066,-1.0262957,-1.763176,0.8796522,-0.40111774,-0.25557053,0
-1.3586814,1.2913945,-0.55993509,-0.60570753,0.79110938,0.085230231,0
1.2267221,1.2901732,1.4865152,0.34309998,0.16303277,0.92504191,0
0.071495056,0.068983197,-2.2379689,-0.34309998,-0.16303277,-0.92504191,0
1.0889146,-1.1913824,1.9538972,0.34309998,0.16303277,0.92504191,0
-1.471421,-0.99193108,-1.5352702,-0.34309998,-0.16303277,-0.92504191,0
1.5253863,1.233839,0.41449308,0.6995908,0.61280435,-0.3674826,0
0.34315658,1.7182888,1.6554395,0.34309998,0.16303277,0.92504191,0
0.037704587,1.3776865,1.8132485,0.34309998,0.16303277,0.92504191,0
-0.41058576,-1.2671268,1.8048849,-0.44493002,-0.83911943,0.31291497,0
-0.29797226,-1.1590521,1.941165,-0.44017845,-0.84208184,0.31167471,0
0.75365281,0.55741155,1.8192797,0.34309998,0.16303277,0.92504191,0
0.82587522,-1.516104,1.0808518,0.26800191,-0.96087587,0.069945812,0
-1.6598655,0.30778074,-1.6098546,-0.34309998,-0.16303277,-0.92504191,0
0.54855871,-1.5870935,-0.16937351,0.39210737,-0.91976827,0.016669869,0
2.3509552,0.40415263,1.1891122,0.9279803,0.093590081,-0.36068457,0
0.42098475,1.7233038,1.7429925,0.34309998,0.16303277,0.92504191,0
0.22411716,0.5291816,1.8861911,0.34309998,0.16303277,0.92504191,0
0.099713087,1.8315511,1.1374439,-0.22371602,0.97066474,-0.088096738,0
0.11675704,-1.7570244,0.62360948,-0.038552403,-0.98154765,0.18729073,0
0.91625386,-1.03175,-1.5929854,0.82288629,-0.52704591,-0.21232188,0
0.21010542,-1.8484275,-1.9108818,-0.34309998,-0.16303277,-0.92504191,0
1.10637,-0.10139942,-2.2906411,0.92635441,0.10420296,-0.36195195,0
-0.23665047,0.23037708,-2.0098262,-0.34309998,-0.16303277,-0.92504191,0
1.1565771,0.45027956,-1.5868889,0.8420769,0.38294119,-0.37981907,0
0.60739923,-1.6687093,0.91196972,0.16926539,-0.97943079,0.10983753,0
-1.5720568,0.69215608,-1.7718852,-0.34309998,-0.16303277,-0.92504191,0
0.51025563,-0.006534338,1.9050401,0.34309998,0.16303277,0.92504191,0
-0.54734004,0.050485611,-1.8875318,-0.34309998,-0.16303277,-0.92504191,0
1.1144159,0.33911717,-1.7285794,0.88135022,0.28467858,-0.37706754,0
0.56017792,-0.40955305,2.1109741,0.34309998,0.16303277,0.92504191,0
-2.0982113,-0.83790326,-0.79614174,-0.86404091,-0.33147037,0.37889421,0
-1.7851118,-1.0122715,-0.2455197,-0.81081122,-0.44577867,0.37929732,0
-1.0484358,-0.65167582,1.6712416,-0.79634106,-0.47177309,0.37851164,0
0.7372973,-1.5033202,0.5515281,0.35766387,-0.93330765,0.031831205,0
-1.8124728,0.82248616,-1.577008,-0.34309998,-0.16303277,-0.92504191,0
-1.2921331,0.07823801,-1.728621,-0.34309998,-0.16303277,-0.92504191,0
-1.4822366,0.34133899,1.040472,-0.93813509,0.1084846,0.32883662,0
-0.79505265,-1.2450458,-1.6079264,-0.34309998,-0.16303277,-0.92504191,0
-1.8287472,-1.4577864,-0.9234342,-0.6938231,-0.61985785,0.36658651,0
1.1369367,-0.24962658,-2.0127468,0.93706393,0.0084854066,-0.34905452,0
-0.97682607,-0.30095863,1.9388331,-0.85696733,-0.34887004,0.37933716,0
0.41227877,1.8116429,0.44110346,0.082386076,0.9758029,-0.20253623,0
-0.77816629,0.58341372,2.2476768,0.34309998,0.16303277,0.92504191,0
-0.28739437,-0.83454859,2.4691803,0.34309998,0.16303277,0.92504191,0
1.5637908,-0.71878052,-0.46412849,0.85914862,-0.4525356,-0.23890358,0
-0.68789721,-1.4634839,-1.7494911,-0.34309998,-0.16303277,-0.92504191,0
1.477254,-0.69941592,-0.55701363,0.87698328,-0.40833145,-0.25330925,0
1.4291652,1.3684167,1.4580896,0.34309998,0.16303277,0.92504191,0
0.021292567,-1.7722597,0.17884982,-0.0093719363,-0.98417842,0.17693129,0
-0.81230336,-0.50325167,-1.7300817,-0.34309998,-0.16303277,-0.92504191,0
0.19303155,-1.8200073,-0.73081648,0.25392157,-0.96425277,0.075763404,0
-0.21017754,-1.9129908,-0.27057666,-0.021671951,-0.98318553,0.18131837,0
-1.1442873,1.1200264,0.46211803,-0.73321801,0.66202819,0.15527385,0
-0.85522354,1.5618079,-0.097616434,-0.46085775,0.88735467,0.01454252,0
1.7998397,-0.48065209,-0.028766751,0.91413426,-0.28438729,-0.28893298,0
-0.130867,-2.0352461,-1.1748245,0.17018789,-0.9793117,0.10947436,0
0.85421264,-1.2849066,-1.8923223,0.78448439,-0.59136379,-0.1867429,0
0.28961617,-1.4426086,1.4427469,-0.037036836,-0.98170769,0.18675679,0
-0.68064266,1.5158701,-1.2343931,-0.1410163,0.98260051,-0.12087381,0
1.3765099,-0.13365316,1.6697501,0.34309998,0.16303277,0.92504191,0
-1.0903521,-1.15555,0.42220628,-0.6304599,-0.69005167,0.35545614,0
-1.9619669,0.41928053,-1.5236367,-0.34309998,-0.16303277,-0.92504191,0
-0.27314472,-2.0628774,-1.499336,0.1829406,-0.97756112,0.10443592,0
0.4180634,-0.18978465,-2.2378716,-0.34309998,-0.16303277,-0.92504191,0
0.61500865,0.31232119,1.8221402,0.34309998,0.16303277,0.92504191,0
-1.1323828,-0.55802941,1.5620162,-0.80588996,-0.45480996,0.37906367,0
0.31440902,1.7442415,1.7736154,0.34309998,0.16303277,0.92504191,0
-0.40994149,0.098919749,-1.929636,-0.34309998,-0.16303277,-0.92504191,0
-1.3076103,-1.0568104,0.77983987,-0.72641081,-0.57829714,0.37134853,0
-1.1214261,0.079123259,-1.7553766,-0.34309998,-0.16303277,-0.92504191,0
2.0151279,0.12017202,0.54056799,0.93775737,-0.0030566752,-0.34727752,0
1.2387661,0.50909734,-1.4409974,0.86610943,0.32621223,-0.37873471,0
0.0079038143,0.14481044,2.0507345,0.34309998,0.16303277,0.92504191,0
-0.98904341,-0.53770924,-1.7378738,-0.34309998,-0.16303277,-0.92504191,0
0.58701652,-1.5106955,0.80640477,0.22488934,-0.97043651,0.087621331,0
1.1943754,-0.14852548,1.7782931,0.34309998,0.16303277,0.92504191,0
1.3593709,-0.97720337,1.835984,0.34309998,0.16303277,0.92504191,0
0.029450476,-0.94898558,2.3433092,0.34309998,0.16303277,0.92504191,0
0.15704852,0.09596169,1.9847239,0.34309998,0.16303277,0.92504191,0
1.6057379,0.10671026,-0.80175328,0.92795855,0.093736678,-0.36070234,0
-0.163661,-1.5995641,0.85302168,-0.20414805,-0.94833738,0.2428574,0
0.2953167,-1.1578888,-2.1664889,-0.34309998,-0.16303277,-0.92504191,0
-1.4291514,1.3527367,-1.2390087,-0.51340348,0.85724503,0.039338529,0
0.52282953,1.5724709,1.7231141,0.34309998,0.16303277,0.92504191,0
0.0083346367,1.95719,1.2055984,-0.31066459,0.94909352,-0.052045524,0
0.3881216,-1.2213068,-2.0326295,-0.34309998,-0.16303277,-0.92504191,0
-1.3092183,-0.44199872,-1.6604521,-0.34309998,-0.16303277,-0.92504191,0
-0.30787206,1.7467065,1.9482119,-0.51528072,0.85607606,0.040240705,0
2.1128569,0.39123559,1.4010885,0.34309998,0.16303277,0.92504191,0
1.0790318,1.4041811,1.4094293,0.34309998,0.16303277,0.92504191,0
-0.93456793,-1.1532007,1.2457432,-0.60831845,-0.71182227,0.35108078,0
-0.76181239,0.17740178,-1.8601652,-0.34309998,-0.16303277,-0.92504191,0
1.0679638,1.1895518,-0.69581932,0.62157547,0.69894236,-0.35372791,0
-0.8771196,-0.70600682,1.8899202,-0.78340179,-0.49368,0.37757337,0
-1.6759959,-0.13705772,0.70250684,-0.93301052,-0.054612458,0.35568076,0
0.057982922,-0.74074662,-2.022995,-0.34309998,-0.16303277,-0.92504191,0
-0.95837533,1.4022176,-1.5771815,-0.22703379,0.97001529,-0.08675164,0
1.294524,0.64520741,1.5508575,0.34309998,0.16303277,0.92504191,0
-0.59422791,1.5711179,0.86171341,-0.48888624,0.87190884,0.027660549,0
-0.72413212,-0.46363449,2.5463395,0.34309998,0.16303277,0.92504191,0
-0.76483035,-1.187281,-1.6537039,-0.34309998,-0.16303277,-0.92504191,0
-1.2951602,-1.914337,-1.3499348,-0.34309998,-0.16303277,-0.92504191,0
-1.5821297,0.46247911,-1.6999067,-0.34309998,-0.16303277,-0.92504191,0
-1.6456411,-0.063829958,0.47441769,-0.93504959,-0.034287214,0.35285479,0
-0.10468006,1.5834804,1.9776292,0.34309998,0.16303277,0.92504191,0
0.79068232,0.3585031,-2.2846665,0.84299541,0.38092893,-0.37980512,0
0.7234273,1.824748,1.5274408,0.34309998,0.16303277,0.92504191,0
-0.4831109,1.67858,1.1564752,-0.4608053,0.88738227,0.014518261,0
-1.1985676,-1.5060264,-1.5000328,-0.34309998,-0.16303277,-0.92504191,0
-0.73039049,-0.2848556,2.4822905,0.34309998,0.16303277,0.92504191,0
2.0638959,1.009298,0.84659207,0.82880855,0.41086885,-0.37981993,0
-1.1824462,-0.8536154,-1.5201263,-0.34309998,-0.16303277,-0.92504191,0
0.74176216,-0.59971571,2.0233514,0.34309998,0.16303277,0.92504191,0
-1.6157968,-0.11817709,0.83431494,-0.92286825,-0.12488601,0.36430418,0
0.78282255,-0.61018538,1.8844029,0.34309998,0.16303277,0.92504191,0
0.094440162,-1.4335673,1.5065253,-0.22332269,-0.94242358,0.24892701,0
0.51770425,-1.6330229,-1.2570947,0.55851489,-0.82722157,-0.06136179,0
1.3973372,0.39427322,-1.1977044,0.8863126,0.26989955,-0.37630332,0
1.4350103,-0.77998543,1.8685658,0.34309998,0.16303277,0.92504191,0
-1.7447493,0.18412185,-1.4925053,-0.34309998,-0.16303277,-0.92504191,0
-0.45556164,-1.072525,2.0780692,-0.53095621,-0.77872372,0.33417791,0
0.59534657,0.81568086,-2.2129211,0.6915729,0.62257671,-0.36623105,0
-1.1384804,-1.5763236,-1.4120414,-0.34309998,-0.16303277,-0.92504191,0
0.35724092,-0.83582067,-2.1803761,-0.34309998,-0.16303277,-0.92504191,0
1.4070019,0.7321502,-0.46989378,0.82270026,0.42307031,-0.37970471,0
0.68123674,-0.56244946,2.0960324,0.34309998,0.16303277,0.92504191,0
0.6468941,1.0834993,-1.6208156,0.61477953,0.70560175,-0.3523809,0
-0.49036321,0.55379272,-2.1823659,-0.34309998,-0.16303277,-0.92504191,0
0.94911706,-0.11498344,-2.2820532,0.93126613,0.069478333,-0.35765374,0
1.1801749,-1.3271964,1.6762868,0.33916706,-0.93988162,0.039850354,0
-0.99857336,-0.73212528,1.7935734,-0.77648532,-0.50492489,0.3769899,0
-1.2333243,-1.0853761,0.26375663,-0.68161154,-0.63439602,0.36461946,0
-0.31631434,-1.3710437,1.0567366,-0.35209185,-0.89069319,0.28757066,0
0.18792009,0.70474207,1.8839675,0.34309998,0.16303277,0.92504191,0
1.749043,-1.0389318,1.7416279,0.34309998,0.16303277,0.92504191,0
-0.5869056,-1.0763171,1.7214422,-0.54070246,-0.77100819,0.33643299,0
-0.17669547,1.435365,1.9455703,0.34309998,0.16303277,0.92504191,0
-1.8344233,-1.4924531,-1.1154445,-0.69670737,-0.61634594,0.36703736,0
-1.790392,-1.5146058,-0.82283795,-0.64930534,-0.67046678,0.35899428,0
-0.78132498,-1.329872,-1.5706379,-0.34309998,-0.16303277,-0.92504191,0
-1.5068564,-1.5352976,-1.3156769,-0.34309998,-0.16303277,-0.92504191,0
-1.4306564,-1.0825471,-1.4576521,-0.34309998,-0.16303277,-0.92504191,0
-0.57901978,1.2585189,-2.1230273,-0.34309998,-0.16303277,-0.92504191,0
-1.5899746,-1.6246002,-1.158285,-0.5094378,-0.79509616,0.32908225,0
0.18611312,0.63949013,1.940448,0.34309998,0.16303277,0.92504191,0
0.50282419,-1.7469717,0.20179093,0.25398993,-0.96423709,0.075735271,0
1.4350839,-1.3809161,1.4236459,0.47842932,-0.87783146,-0.022738338,0
0.77843785,1.7988657,0.71331412,0.17993051,0.95517647,-0.23508039,0
0.18921375,-1.5281039,0.91305983,-0.052575409,-0.97994459,0.19220933,0
-0.66244698,-1.7880443,-0.38262019,-0.16521609,-0.95899296,0.23029545,0
1.010404,-1.4181596,0.34506154,0.5238809,-0.85063398,-0.044389725,0
0.61158919,1.7304003,-0.04523921,0.28524554,0.92022836,-0.2679826,0
1.4762105,0.20000958,1.6764665,0.34309998,0.16303277,0.92504191,0
1.3448396,-0.81595141,-1.0414242,0.86172432,-0.44653109,-0.24091721,0
-1.5412271,-1.0268908,0.14755008,-0.77040541,-0.51456141,0.37643322,0
-1.9756353,0.38188779,-0.24329734,-0.92242432,0.2443161,0.29907,0
-0.86770928,1.1934916,1.204203,-0.742356,0.65044707,0.16070426,0
0.18908384,0.82195508,-2.3640039,-0.34309998,-0.16303277,-0.92504191,0
0.43252558,0.20884824,1.9484802,0.34309998,0.16303277,0.92504191,0
1.3073196,1.1725508,-0.039905131,0.68285263,0.63294244,-0.36482364,0
-1.548568,-0.33257023,0.71686184,-0.90244478,-0.21594152,0.37277704,0
-1.8049093,-1.1438532,-0.74943423,-0.74906474,-0.54670727,0.37418342,0
0.056273222,-1.6687336,1.0476015,-0.08128649,-0.97597361,0.20215848,0
0.6425662,1.3314793,1.670599,0.34309998,0.16303277,0.92504191,0
1.704043,1.4315395,1.0013354,0.60579121,0.71422672,-0.35056719,0
-1.3512511,0.89864397,-1.7165319,-0.34309998,-0.16303277,-0.92504191,0
0.25429153,1.2845476,-1.9693356,0.43945289,0.84253091,-0.31148478,0
-0.33073401,1.7691879,0.59935939,-0.36707735,0.92977726,-0.02771759,0
-2.1507466,-0.47113013,-1.2549953,-0.34309998,-0.16303277,-0.92504191,0
-1.6848142,-1.2449225,-1.3102183,-0.34309998,-0.16303277,-0.92504191,0
1.3705782,1.7846314,1.2602665,0.34309998,0.16303277,0.92504191,0
-2.1492264,-0.19098663,-0.62541181,-0.93587655,-0.024656862,0.35146421,0
-0.031029761,-0.16467106,2.1543283,0.34309998,0.16303277,0.92504191,0
-0.63794506,-1.4587781,-1.7070014,-0.34309998,-0.16303277,-0.92504191,0
0.71831638,-0.0076925755,1.9100755,0.34309998,0.16303277,0.92504191,0
0.65598184,0.83488512,-1.8438473,0.69017005,0.62426239,-0.3660078,0
-1.79129,0.774593,-0.69428325,-0.79970855,0.56727487,0.19663501,0
-0.97230119,1.296031,0.55599606,-0.66491115,0.73776674,0.11659026,0
1.5596024,0.41373849,1.5324057,0.34309998,0.16303277,0.92504191,0
0.84839982,0.78362238,-2.0722342,0.74465078,0.55305475,-0.37366498,0
0.3365016,-1.7094896,0.31937355,0.13859135,-0.98282951,0.12181365,0
-0.68173146,-1.8109512,-0.6013788,-0.18119764,-0.95483589,0.2354904,0
0.35764062,0.51004922,1.8933055,0.34309998,0.16303277,0.92504191,0
-0.10337242,-1.0692103,2.3020573,0.34309998,0.16303277,0.92504191,0
-0.71334565,1.2376237,1.7570405,-0.76606226,0.61844611,0.17513698,0
0.95275259,1.7789114,0.551579,0.3237772,0.9039371,-0.27940285,0
1.5403411,-1.2667549,1.7275362,0.47849816,-0.87779307,-0.022770524,0
-1.9724938,-0.55712628,-1.3630376,-0.34309998,-0.16303277,-0.92504191,0
-1.1784518,0.72871125,1.3939488,-0.89249045,0.36359417,0.26694548,0
1.1499749,-0.16713887,-1.7042359,0.93579185,0.025693327,-0.35161549,0
-1.6188793,0.58723402,-1.749337,-0.34309998,-0.16303277,-0.92504191,0
2.0538492,0.72495723,1.2962098,0.34309998,0.16303277,0.92504191,0
-1.7861388,0.23374867,0.14222789,-0.93510103,0.15228742,0.31999135,0
-1.9206529,0.48964238,-1.4589885,-0.34309998,-0.16303277,-0.92504191,0
-1.0176634,-0.57083458,1.9984348,-0.81612295,-0.43579495,0.37950784,0
-1.6450913,-0.60719955,0.57718009,-0.86347127,-0.33290404,0.37893558,0
0.48203015,0.30318975,1.8544705,0.34309998,0.16303277,0.92504191,0
-1.4339619,-0.63557196,-1.5928943,-0.34309998,-0.16303277,-0.92504191,0
-0.83188838,-0.25907433,2.2688639,-0.86705136,-0.32379091,0.37865734,0
-0.76348341,1.6195077,-0.55478585,-0.32587224,0.94431514,-0.045562863,0
-0.59402943,-0.90188777,-1.7555149,-0.34309998,-0.16303277,-0.92504191,0
-1.9371074,-0.7338047,-0.45169693,-0.88734305,-0.26673871,0.37612849,0
1.9735785,-0.063934565,1.4599847,0.34309998,0.16303277,0.92504191,0
-1.8770053,0.017489552,0.039948225,-0.93758428,0.11891952,0.32679319,0
0.32437527,1.213809,-1.7117486,0.45727909,0.83124709,-0.31610784,0
0.57033151,-0.48291314,-2.3370304,-0.34309998,-0.16303277,-0.92504191,0
0.30395985,1.9520988,1.7700324,0.34309998,0.16303277,0.92504191,0
0.930071,-0.73770022,1.8824757,0.34309998,0.16303277,0.92504191,0
1.588829,-0.99424386,0.3374362,0.71943378,-0.67878169,-0.14720857,0
-0.11056131,-1.3797721,1.8412673,-0.36883467,-0.88233626,0.29230767,0
1.4685789,1.0713342,1.5305709,0.34309998,0.16303277,0.92504191,0
1.0940918,0.50227785,1.6537728,0.34309998,0.16303277,0.92504191,0
-0.83883268,0.59363556,-1.9408238,-0.34309998,-0.16303277,-0.92504191,0
-1.7416677,0.64569747,-0.076836824,-0.86604559,0.43618992,0.24434251,0
-0.01163578,-0.87938535,-2.0847707,-0.34309998,-0.16303277,-0.92504191,0
1.7598194,1.2455784,1.357406,0.34309998,0.16303277,0.92504191,0
0.35317111,1.7130718,1.6996567,0.34309998,0.16303277,0.92504191,0
-0.088829905,-0.21493161,2.3235006,0.34309998,0.16303277,0.92504191,0
0.94621217,1.5908235,1.6096164,0.34309998,0.16303277,0.92504191,0
-0.54415071,-1.5864793,0.78780681,-0.35269326,-0.89039987,0.28774199,0
-1.3633361,1.0597937,-1.8256553,-0.34309998,-0.16303277,-0.92504191,0
-2.0680363,-1.041239,-1.2309287,-0.34309998,-0.16303277,-0.92504191,0
0.080087453,0.10999584,-2.2312889,-0.34309998,-0.16303277,-0.92504191,0
0.12788761,-0.45686865,-2.1988676,-0.34309998,-0.16303277,-0.92504191,0
1.6159675,0.78265381,1.3312297,0.34309998,0.16303277,0.92504191,0
1.198701,1.8386737,0.99513757,0.41438818,0.85753131,-0.30483192,0
-1.5809242,0.9689157,-0.04090035,-0.78387457,0.59229493,0.18635255,0
1.1041546,-1.0579057,-0.77103281,0.77006364,-0.6127404,-0.17762661,0
0.73098826,-1.3797843,2.0300829,0.34309998,0.16303277,0.92504191,0
1.4672309,1.6936649,1.2045741,0.48626614,0.81175268,-0.32342345,0
-1.6816884,0.24084973,-1.4840364,-0.34309998,-0.16303277,-0.92504191,0
1.4343421,-1.0009102,-0.56432092,0.82880777,-0.5159629,-0.21647143,0
0.5052194,-0.36874115,1.9672194,0.34309998,0.16303277,0.92504191,0
-0.99503607,-0.87527019,1.2726736,-0.73342365,-0.56877398,0.37227124,0
2.2417481,0.3156054,1.2791557,0.34309998,0.16303277,0.92504191,0
-1.2949108,1.2026222,-1.5343492,-0.46283942,0.88630718,0.01546216,0
1.004669,-0.19982815,1.7329092,0.34309998,0.16303277,0.92504191,0
1.2639747,0.41198605,-1.3126416,0.85999721,0.34152287,-0.3791661,0
-0.63394088,0.34948993,2.3537567,0.34309998,0.16303277,0.92504191,0
-1.8421232,0.50352192,-1.6732811,-0.34309998,-0.16303277,-0.92504191,0
-0.57652283,-1.754033,-0.030762553,-0.27318054,-0.92493165,0.26433659,0
0.84819818,-1.0626023,2.1023808,0.34309998,0.16303277,0.92504191,0
1.3561252,-0.032596096,-1.4177618,0.92758411,0.096243739,-0.36100531,0
-1.5992541,1.0765221,-1.4848901,-0.56596667,0.8218559,0.065071404,0
0.32535577,-1.0691469,-2.1502252,-0.34309998,-0.16303277,-0.92504191,0
-0.79999721,-1.4112056,-1.7005911,-0.34309998,-0.16303277,-0.92504191,0
-0.33080122,0.018728733,-2.0799108,-0.34309998,-0.16303277,-0.92504191,0
-2.2052507,-0.18362355,-0.77046973,-0.93929225,0.05586648,0.33853942,0
2.0465217,-0.60575676,1.1677705,0.83859974,-0.49679613,-0.22348136,0
0.82428294,0.7399708,1.7258525,0.34309998,0.16303277,0.92504191,0
-1.2813534,0.81598616,-1.8772343,-0.34309998,-0.16303277,-0.92504191,0
-1.3449242,-0.22626424,-1.6979457,-0.34309998,-0.16303277,-0.92504191,0
-0.5867852,1.566604,-1.680712,-0.044616282,0.98653877,-0.15732291,0
-1.7106808,1.0350604,-1.2083542,-0.64157408,0.75997514,0.10402042,0
-1.207303,0.89526558,-1.9488533,-0.34309998,-0.16303277,-0.92504191,0
-0.29954839,1.8033706,1.2853254,-0.4607743,0.88739866,0.014503896,0
-1.6854255,-0.07850033,0.48762536,-0.9386636,0.023298502,0.34404618,0
-1.3210082,-0.26079321,-1.6708139,-0.34309998,-0.16303277,-0.92504191,0
0.19243613,-1.2740374,2.3906889,0.34309998,0.16303277,0.92504191,0
-1.5330023,0.19189981,1.0255537,-0.9389751,0.085380912,0.33322012,0
2.0056598,1.2217597,1.1096784,0.74580711,0.55140138,-0.37380245,0
-1.7389221,0.84154773,-1.6156962,-0.34309998,-0.16303277,-0.92504191,0
-0.71412122,-0.038039446,-1.8585634,-0.34309998,-0.16303277,-0.92504191,0
0.70234501,1.8523761,0.2916843,0.19770092,0.95022637,-0.24079904,0
-1.5855179,-1.0418417,-0.10477445,-0.76838911,-0.51770806,0.37623996,0
-0.39558446,-1.3871652,1.3426774,-0.40665758,-0.86195987,0.3027451,0
-0.76989627,-1.6819552,-1.4950672,-0.34309998,-0.16303277,-0.92504191,0
1.1903509,-1.1059372,1.9446597,0.34309998,0.16303277,0.92504191,0
0.63762224,0.88547528,-1.9351757,0.65619159,0.66305244,-0.36024168,0
1.0022116,-1.42176,0.55027235,0.49647778,-0.86748642,-0.031255722,0
-0.076773524,0.69022584,1.9675015,0.34309998,0.16303277,0.92504191,0
0.43867183,0.238554,1.9221306,0.34309998,0.16303277,0.92504191,0
-0.89325607,1.3709984,-0.75210685,-0.39761186,0.91744345,-0.01421845,0
1.326539,1.8159542,1.0276341,0.41740698,0.85577685,-0.3056424,0
2.3031187,0.29125595,1.234875,0.93769145,-0.0018607378,-0.34746385,0
-0.61880326,-0.15111816,2.3445385,0.34309998,0.16303277,0.92504191,0
-1.8731225,-0.18999326,0.20474052,-0.92986447,-0.080276996,0.3590371,0
1.2322049,-0.066952407,-1.5079262,0.93052381,0.075306118,-0.35840553,0
-1.6122731,-1.023895,-0.073444843,-0.7452516,-0.5521965,0.37373656,0
0.38970315,-1.1472094,-2.1470659,-0.34309998,-0.16303277,-0.92504191,0
-1.385329,0.71190506,0.77735114,-0.89696014,0.34920803,0.27113873,0
-1.0864438,0.78503537,-1.8395852,-0.34309998,-0.16303277,-0.92504191,0
0.0069708824,1.1722237,1.9172701,0.34309998,0.16303277,0.92504191,0
1.6413618,0.93599981,-0.12544733,0.80318135,0.4596948,-0.37892002,0
-0.62873936,-2.0371797,-1.5670956,0.019490778,-0.98584539,0.16651985,0
-1.8165836,-0.49453449,0.039988041,-0.8829667,-0.27994156,0.37683222,0
0.45197093,-1.5911515,1.2109758,0.10571384,-0.98526692,0.13443756,0
-1.3826071,-1.4440891,-0.13279131,-0.60487175,-0.71509731,0.35037965,0
-1.8412535,0.92738211,-0.8416388,-0.75666964,0.63148201,0.16935569,0
0.06803304,1.3754257,-1.5995705,0.31861162,0.90623546,-0.27789199,0
-1.5923295,0.84405875,-1.8247517,-0.34309998,-0.16303277,-0.92504191,0
0.7396962,-1.2771578,2.1738024,0.34309998,0.16303277,0.92504191,0
0.88718212,-1.5123287,0.5241549,0.41375428,-0.91036171,0.0069830418,0
-0.71418333,1.314559,2.1788356,0.34309998,0.16303277,0.92504191,0
0.92989171,1.0152289,-1.2517076,0.66534293,0.65297484,-0.36185986,0
-2.2154133,-0.25634336,-0.72152394,-0.93272924,-0.057138562,0.35602158,0
-0.51341224,-1.0463115,-1.8154247,-0.34309998,-0.16303277,-0.92504191,0
-1.6372161,-1.4441327,-1.1271024,-0.61957335,-0.70091683,0.35333326,0
0.25832021,1.5300878,-0.95786852,0.21125841,0.94619626,-0.24511731,0
-0.94469339,-0.059607029,-1.8468271,-0.34309998,-0.16303277,-0.92504191,0
2.168947,0.07731986,1.1285744,0.93903542,-0.082852513,-0.33368814,0
0.42443514,1.2845516,-1.5579398,0.44208747,0.84089607,-0.31217375,0
1.7202764,-0.098311841,-0.45674622,0.93854457,-0.020043522,-0.3445757,0
0.49046111,-0.29271042,-2.2829359,-0.34309998,-0.16303277,-0.92504191,0
0.89848959,1.7120694,0.28633875,0.38917887,0.87163907,-0.29796818,0
-0.36251616,-1.9441537,-0.69165665,0.0012527704,-0.98490018,0.17311773,0
2.0176203,0.39507937,1.2504401,0.34309998,0.16303277,0.92504191,0
-0.061737962,0.56371522,-2.1482291,-0.34309998,-0.16303277,-0.92504191,0
-1.394632,0.59144598,1.094807,-0.91205585,0.29328904,0.28659314,0
1.7592652,0.92993736,0.32635117,0.799492,0.46625423,-0.37870771,0
0.32583642,1.9068656,1.4403869,-0.20254296,0.97449458,-0.096624851,0
-4.3436885e-06,0.76061094,-2.3294153,-0.34309998,-0.16303277,-0.92504191,0
1.5597538,-1.1534829,1.8260651,0.34309998,0.16303277,0.92504191,0
-1.0271734,0.47721195,-1.8186486,-0.34309998,-0.16303277,-0.92504191,0
1.1010065,0.30884346,-1.6722012,0.89291006,0.24905625,-0.37507683,0
1.6601095,0.88092518,-0.086561143,0.80698222,0.45282307,-0.37911862,0
0.78629333,0.143677,-2.47874,-0.34309998,-0.16303277,-0.92504191,0
-1.0252614,-0.48698276,1.9954307,-0.81873828,-0.43078446,0.37959483,0
-1.8837849,-0.16728854,0.069674373,-0.92970264,-0.081469983,0.3591873,0
0.55110449,-0.62311912,2.122092,0.34309998,0.16303277,0.92504191,0
-0.041400969,-0.15373957,-2.1124458,-0.34309998,-0.16303277,-0.92504191,0
1.3911408,1.5512893,1.3602087,0.34309998,0.16303277,0.92504191,0
0.066828668,-0.30633104,-2.0795093,-0.34309998,-0.16303277,-0.92504191,0
-0.13358375,1.1597694,-2.2665319,-0.34309998,-0.16303277,-0.92504191,0
1.2192683,-1.1996143,-1.0749493,0.80026877,-0.56635582,-0.19700474,0
0.16273224,-1.8581972,-0.14957726,0.16492206,-0.97997868,0.11154503,0
0.51421607,-1.5052716,0.97586125,0.17932642,-0.97807664,0.10586727,0
0.2563107,0.97132683,-2.3292491,0.54795384,0.7651422,-0.33808872,0
-0.0019208193,1.5819747,-0.7756387,0.097160637,0.97337896,-0.20758897,0
1.6948116,-0.99725246,1.7612845,0.34309998,0.16303277,0.92504191,0
1.2793373,-0.0063434839,-1.7512903,0.92339587,0.12190998,-0.36397541,0
1.3038293,0.054172516,1.6680002,0.34309998,0.16303277,0.92504191,0
1.6940426,-1.1819019,1.3899014,0.60938895,-0.78806925,-0.0871315,0
-0.73409015,0.78013456,-1.9607363,-0.34309998,-0.16303277,-0.92504191,0
-0.76472092,-1.0848557,1.5060986,-0.62462813,-0.69591147,0.35432592,0
-1.7723103,-0.10409522,-1.4134957,-0.34309998,-0.16303277,-0.92504191,0
-0.8699317,1.4899335,0.5604924,-0.53484344,0.84348726,0.049715281,0
0.82225728,-0.53368902,-2.2951288,-0.34309998,-0.16303277,-0.92504191,0
-1.3447361,-0.82925677,0.82804978,-0.78333092,-0.49379683,0.37756771,0
0.20269497,-0.41947281,2.2131581,0.34309998,0.16303277,0.92504191,0
0.94235861,1.8240432,1.5152329,0.34309998,0.16303277,0.92504191,0
-1.9874761,-1.1546603,-1.1510208,-0.79564703,-0.4729785,0.37846667,0
1.6765276,0.55723345,-0.25270492,0.87943089,0.29021144,-0.37733078,0
1.7360945,1.3570398,0.87010115,0.65233994,0.66721684,-0.35954708,0
1.0262427,-1.134685,-1.6541944,0.84978878,-0.47344753,-0.23174644,0
0.073302329,1.4046881,-1.6644657,0.25697035,0.93095911,-0.25938651,0
-0.68822485,0.93940222,-2.0181808,-0.34309998,-0.16303277,-0.92504191,0
-0.65680432,1.5642481,1.4035022,-0.60152411,0.794523,0.083076954,0
2.1503627,0.6486969,1.3063337,0.34309998,0.16303277,0.92504191,0
2.0012259,-0.73555827,1.4044371,0.81369495,-0.54356587,-0.20600122,0
-0.81524658,-1.5277708,0.26923135,-0.4241243,-0.8518222,0.30743688,0
-1.0454659,-0.0043823719,-1.8699056,-0.34309998,-0.16303277,-0.92504191,0
-0.91087866,-1.2419072,0.92323291,-0.63411289,-0.68633366,0.35615578,0
2.0316577,0.79405153,0.84981179,0.86033291,0.34069914,-0.37914538,0
-0.73071003,1.3402759,2.1044068,0.34309998,0.16303277,0.92504191,0
-0.61426347,-0.91919422,2.332056,-0.6709162,-0.64670813,0.3628225,0
1.5565841,0.064783573,1.625857,0.34309998,0.16303277,0.92504191,0
1.8432837,1.387944,0.83267826,0.70323968,0.60827768,-0.36803824,0
-1.6868997,0.010022879,-1.561693,-0.34309998,-0.16303277,-0.92504191,0
-1.8672116,0.12297344,-1.4465406,-0.34309998,-0.16303277,-0.92504191,0
-0.80023479,-1.4523315,0.4197526,-0.4468165,-0.83793306,0.31340563,0
-1.0499156,-1.5453342,-0.25331327,-0.48403758,-0.81330341,0.32287017,0
-1.9446024,0.40504563,-0.60710418,-0.89708173,0.34880543,0.27125478,0
-2.0112538,-0.091799736,-0.61904508,-0.93925595,0.05014205,0.33953488,0
0.13039696,-1.7897696,0.22324622,0.065837801,-0.9865737,0.14945793,0
1.199635,-0.14630538,-1.747472,0.9375273,0.0010179579,-0.34791028,0
-0.80604905,1.4924819,-0.99461859,-0.27861255,0.95816511,-0.065532506,0
-0.86798131,1.4218897,1.0516776,-0.67701709,0.72557724,0.12322873,0
1.4879022,-0.63935167,-0.51952636,0.88145238,-0.39614895,-0.25711387,0
1.5115997,1.6489956,1.3735195,0.34309998,0.16303277,0.92504191,0
1.0476741,-1.2281977,-1.6742194,0.82267982,-0.527426,-0.21217817,0
-0.38573205,1.6510763,0.66146648,-0.40035272,0.91626889,-0.012994885,0
1.6468468,1.5596576,1.200599,0.34309998,0.16303277,0.92504191,0
0.81701195,-1.1374993,-1.9843999,0.81937569,-0.53345001,-0.20989114,0
1.8243778,-1.038556,1.1304542,0.714522,-0.68455499,-0.14436936,0
-1.358479,1.0831079,-1.9569,-0.34309998,-0.16303277,-0.92504191,0
2.0844417,0.012195826,1.3685379,0.34309998,0.16303277,0.92504191,0
-0.41654712,0.072476387,-2.0842352,-0.34309998,-0.16303277,-0.92504191,0
-1.4755119,1.2767637,-1.6483033,-0.51457995,0.85651332,0.03990376,0
-0.13277125,1.7068379,1.9253094,0.34309998,0.16303277,0.92504191,0
2.0331993,-0.062620401,0.64488649,0.93775123,-0.11596215,-0.32737643,0
-0.014467835,1.626955,-0.59897894,0.070931077,0.97751266,-0.19858882,0
-0.053230107,-0.036165476,2.2357793,0.34309998,0.16303277,0.92504191,0
0.23275948,1.2590317,1.9162718,0.34309998,0.16303277,0.92504191,0
0.80930459,-0.66683578,-2.361341,-0.34309998,-0.16303277,-0.92504191,0
0.56760716,1.3033091,1.681057,0.34309998,0.16303277,0.92504191,0
1.6240027,0.97165179,1.3579836,0.34309998,0.16303277,0.92504191,0
0.34118545,-1.4397821,1.6342958,-0.10414183,-0.97214746,0.20996127,0
1.0188278,-1.5482433,0.69334602,0.41115278,-0.9115299,0.0081538558,0
0.47516155,1.7368928,1.6673279,0.34309998,0.16303277,0.92504191,0
0.64831889,-1.6134287,-1.0121065,0.55942535,-0.82657242,-0.06181401,0
-1.9590621,0.55351949,-1.5676324,-0.34309998,-0.16303277,-0.92504191,0
0.24287343,1.9500521,1.1997021,-0.11689466,0.98457682,-0.13016897,0
0.47061408,1.0518923,1.700949,0.34309998,0.16303277,0.92504191,0
1.3258717,-0.89220214,-0.65634656,0.82369292,-0.52555722,-0.21288341,0
0.11796838,1.415885,-1.7838563,0.37703913,0.87809473,-0.29460329,0
2.1495819,0.22633529,1.2216983,0.34309998,0.16303277,0.92504191,0
0.77640647,-0.80444455,-2.2107601,-0.34309998,-0.16303277,-0.92504191,0
-1.5045576,-0.88840389,0.28590614,-0.7773065,-0.5036059,0.37706202,0
-0.1314456,-0.80873156,2.3191845,0.34309998,0.16303277,0.92504191,0
-0.36027521,0.12158275,2.3555644,0.34309998,0.16303277,0.92504191,0
0.67840928,0.42280841,-2.4095855,-0.34309998,-0.16303277,-0.92504191,0
0.28590971,0.20008624,-2.4094214,-0.34309998,-0.16303277,-0.92504191,0
1.3668089,1.4767427,0.26975384,0.56507611,0.75085223,-0.34192088,0
-0.78439116,0.19588554,2.4546266,0.34309998,0.16303277,0.92504191,0
0.30613774,0.39539921,-2.3208823,-0.34309998,-0.16303277,-0.92504191,0
1.5901966,0.82956433,-0.33023989,0.83299971,0.40226752,-0.37985849,0
1.7321181,0.71054876,-0.12321484,0.86026442,0.3408674,-0.37914965,0
0.60549748,1.833142,0.63917983,0.14751875,0.96324772,-0.22448134,0
-1.7143872,-0.45391035,-1.5453163,-0.34309998,-0.16303277,-0.92504191,0
-2.0907295,-0.81157207,-1.2945076,-0.34309998,-0.16303277,-0.92504191,0
-0.35742545,-0.104087,2.2378736,0.34309998,0.16303277,0.92504191,0
0.57964981,0.50852084,1.9337952,0.34309998,0.16303277,0.92504191,0
1.5942658,-0.11176091,-0.66254747,0.93816447,-0.011094213,-0.34601194,0
-1.448603,-1.5494777,-1.4267993,-0.34309998,-0.16303277,-0.92504191,0
-0.74136448,-1.9215524,-0.78052759,-0.15000975,-0.96267092,0.22530362,0
-2.0011334,-0.78468812,-0.56911606,-0.86575156,-0.32712778,0.37876335,0
1.2303344,-1.2433722,1.2701143,0.47631419,-0.87900603,-0.021746755,0
-0.63568521,-0.591887,2.4182231,0.34309998,0.16303277,0.92504191,0
1.0260621,0.00020480156,1.8032546,0.34309998,0.16303277,0.92504191,0
1.3478049,1.7788393,0.97258329,0.41824007,0.85529017,-0.30586565,0
-0.9566226,1.3000822,-2.1406162,-0.34309998,-0.16303277,-0.92504191,0
-1.1522117,0.9937942,-1.8239886,-0.34309998,-0.16303277,-0.92504191,0
-0.53000271,-1.3942932,-1.8081818,-0.34309998,-0.16303277,-0.92504191,0
-0.32978123,-1.3156052,1.5836762,-0.37295842,-0.88021648,0.29346362,0
0.66881263,-1.5465658,-0.52572834,0.52928644,-0.84713978,-0.047010481,0
0.39995122,1.0700877,-1.9252043,0.54567337,0.76699865,-0.33757013,0
2.0234871,-0.54241991,0.96012175,0.85426199,-0.4636237,-0.23513687,0
-1.9198567,-0.14871013,-0.069565892,-0.93433034,-0.04192397,0.35393393,0
0.25148201,-1.0317862,-2.0739472,-0.34309998,-0.16303277,-0.92504191,0
1.0818191,-0.84255052,-1.7790855,0.89677811,-0.34980971,-0.27096516,0
-0.88309014,1.2913916,1.2620606,-0.73996496,0.6535157,0.15927655,0
-0.61076009,0.33412194,-1.9355801,-0.34309998,-0.16303277,-0.92504191,0
-0.81493282,-1.7291052,-0.048694491,-0.30653995,-0.91146731,0.2743367,0
-1.62269,-0.96464562,-1.4684614,-0.34309998,-0.16303277,-0.92504191,0
-0.45153475,-1.7946868,-1.6436071,-0.34309998,-0.16303277,-0.92504191,0
1.0962923,-0.29457903,-1.9300783,0.93881881,-0.091002911,-0.33217132,0
-1.9389255,-1.0935774,-1.0080235,-0.7706486,-0.5141803,0.37645629,0
0.7660054,-0.63555729,-2.3505998,-0.34309998,-0.16303277,-0.92504191,0
0.092659175,0.31949627,-2.2832816,-0.34309998,-0.16303277,-0.92504191,0
0.56623501,0.71729779,-2.4812794,-0.34309998,-0.16303277,-0.92504191,0
0.92803693,-0.31289506,-2.4776671,0.93468577,0.038225323,-0.35341394,0
-1.123422,-0.58257484,-1.6117381,-0.34309998,-0.16303277,-0.92504191,0
-0.25268936,0.85453439,2.1786511,0.34309998,0.16303277,0.92504191,0
1.521662,-0.34229192,-1.1388831,0.93607247,-0.14090133,-0.32235837,0
0.1166923,-0.68095005,-2.1535077,-0.34309998,-0.16303277,-0.92504191,0
1.3835225,0.36103702,-1.1384228,0.90743446,0.19680536,-0.37125507,0
1.142925,-1.1551354,-0.83347642,0.77748764,-0.6018995,-0.18229085,0
-2.1045067,0.5768249,-1.4257045,-0.34309998,-0.16303277,-0.92504191,0
-1.5721897,-0.51400876,0.69095033,-0.89116782,-0.2547057,0.37542635,0
0.44771647,0.89743066,1.9407719,0.34309998,0.16303277,0.92504191,0
-0.54978257,-0.90134084,2.0869117,-0.65168941,-0.66791588,0.35942894,0
1.4720902,1.4495487,0.52803135,0.56615996,0.74992645,-0.34215975,0
2.1151352,0.02829504,1.4683341,0.34309998,0.16303277,0.92504191,0
-0.64031684,-1.7795116,-0.33496466,-0.25038737,-0.93331242,0.25735962,0
-1.4012477,0.33802608,1.3276908,-0.93524599,0.15068102,0.32032818,0
-1.4245332,1.2976508,-1.6402638,-0.49863929,0.86620808,0.03228271,0
1.8914617,0.99603319,1.3257288,0.34309998,0.16303277,0.92504191,0
-0.01306808,-1.5098172,1.4404845,-0.20183372,-0.94902122,0.24211958,0
-0.037934542,1.778302,1.9424696,0.34309998,0.16303277,0.92504191,0
0.052117884,0.3528558,2.0907331,0.34309998,0.16303277,0.92504191,0
1.0997902,1.6664456,0.52883393,0.37834769,0.87740922,-0.2949678,0
2.070564,-0.42657638,1.4866455,0.34309998,0.16303277,0.92504191,0
1.2566602,0.73056293,1.6518104,0.34309998,0.16303277,0.92504191,0
1.2298616,0.70350742,1.6274614,0.34309998,0.16303277,0.92504191,0
1.8107336,0.47932267,1.3224678,0.34309998,0.16303277,0.92504191,0
-0.26359725,1.7242639,-0.13110411,-0.15001887,0.98169112,-0.11737448,0
-0.81665266,-1.573386,-1.6706001,-0.34309998,-0.16303277,-0.92504191,0
0.10771829,-0.049436331,-2.2977676,-0.34309998,-0.16303277,-0.92504191,0
-2.0819309,0.547544,-1.1688894,-0.82845891,0.51662612,0.21622509,0
1.8509445,0.79759359,1.4078007,0.34309998,0.16303277,0.92504191,0
1.0465713,1.3035533,1.6291784,0.34309998,0.16303277,0.92504191,0
1.3768311,-0.60118318,1.808051,0.34309998,0.16303277,0.92504191,0
0.85294306,1.7531536,0.60118073,0.23220104,0.93953407,-0.25171071,0
-0.6138829,-1.647692,0.17188349,-0.33946532,-0.89673531,0.28395236,0
1.4216521,1.3216161,0.18065783,0.65220535,0.66736168,-0.35952261,0
-2.0834472,0.31112075,-1.5274582,-0.34309998,-0.16303277,-0.92504191,0
1.3369157,-0.80157852,1.7669059,0.34309998,0.16303277,0.92504191,0
0.30299914,-1.7720983,-0.47161818,0.34790051,-0.93683714,0.036074579,0
-0.34110785,-1.9412977,-1.1736337,0.078041971,-0.98636448,0.14489448,0
0.93063414,0.59318358,-2.0460987,0.78250587,0.49515417,-0.37750095,0
-0.37705648,1.6722125,1.3003089,-0.4859522,0.87359017,0.026275933,0
-1.0451785,0.55912018,-1.8219631,-0.34309998,-0.16303277,-0.92504191,0
-0.88258004,-1.6144568,-1.639904,-0.34309998,-0.16303277,-0.92504191,0
0.92291689,-0.11264133,1.8367212,0.34309998,0.16303277,0.92504191,0
0.91023558,0.34823251,1.8093503,0.34309998,0.16303277,0.92504191,0
0.65973729,-1.0043689,2.0743914,0.34309998,0.16303277,0.92504191,0
-1.4848156,0.02070871,0.95640397,-0.93096894,-0.071842283,0.35796016,0
-1.0974293,1.3836174,0.13579476,-0.65414053,0.74822044,0.11075306,0
-1.0228229,1.2173855,-2.0562403,-0.34309998,-0.16303277,-0.92504191,0
1.5271844,1.5738361,0.86362642,0.55053389,0.76302874,-0.33867317,0
-0.19055319,-1.3121033,1.819689,-0.34077972,-0.89611661,0.28433079,0
0.11774266,-1.5956014,0.94836849,-0.066569209,-0.97812486,0.19707897,0
1.6663424,-0.86526453,0.16624784,0.80730861,-0.55459368,-0.20168889,0
1.3230767,-1.3931211,1.1528215,0.4994303,-0.86573815,-0.032658935,0
-1.578203,-0.83958501,0.023683608,-0.79953682,-0.46617514,0.37871036,0
-0.87482321,-0.80415452,-1.6725194,-0.34309998,-0.16303277,-0.92504191,0
0.76857722,-1.5729578,-0.96241641,0.63361835,-0.76718169,-0.099799514,0
-0.18997943,-1.8693135,-0.073747933,0.017645419,-0.98576665,0.16719046,0
-1.5119689,0.40219972,0.91419864,-0.93570107,0.14543599,0.32142133,0
0.67205155,-1.3366736,2.0281813,0.013509989,-0.98557639,0.16869062,0
0.93525267,0.64262062,-1.9724064,0.77159637,0.5126915,-0.37654543,0
1.7364119,0.53795117,-0.14778626,0.90446264,0.20837545,-0.372192,0
-0.44696367,-1.0260494,-1.7783949,-0.34309998,-0.16303277,-0.92504191,0
1.2609909,-0.11404443,1.7459252,0.34309998,0.16303277,0.92504191,0
-1.4285619,-0.89376289,0.3242268,-0.78467774,-0.49157131,0.37767503,0
-0.34812623,0.97080898,-2.1097753,-0.34309998,-0.16303277,-0.92504191,0
0.7230401,-0.63076448,2.0886571,0.34309998,0.16303277,0.92504191,0
-0.16061854,-1.8360972,-0.84352869,0.11454922,-0.98473346,0.13106644,0
0.21797371,1.365483,-1.6647946,0.3805697,0.87623954,-0.29558578,0
0.90815413,1.8060993,1.5347295,0.34309998,0.16303277,0.92504191,0
-1.314937,1.0421999,0.35790586,-0.76715809,0.6168927,0.17581719,0
1.4512445,0.92464852,-0.3476235,0.74388492,0.55414641,-0.3735733,0
0.45596826,1.8480618,0.056903958,0.1294874,0.96720952,-0.21849167,0
1.6781075,0.72479868,1.4817727,0.34309998,0.16303277,0.92504191,0
0.85313725,-1.5027617,-0.79123151,0.58103108,-0.81063348,-0.072636664,0
-0.37456155,1.2166567,2.0600557,0.34309998,0.16303277,0.92504191,0
-0.89389491,-0.86138225,-1.5869122,-0.34309998,-0.16303277,-0.92504191,0
0.96836448,1.8908701,1.3423942,0.19597262,0.95072424,-0.24024582,0
0.32814965,-0.38363731,2.1457663,0.34309998,0.16303277,0.92504191,0
-1.3757131,-0.20708421,1.2203729,-0.89960706,-0.22622398,0.37353677,0
1.6323085,-0.6548152,1.5890799,0.34309998,0.16303277,0.92504191,0
-0.9778837,-1.7007303,-0.50327909,-0.31741291,-0.90676355,0.27754048,0
-1.2081007,-0.032839745,1.5302283,-0.92640889,-0.10385883,0.36191154,0
-0.85518587,0.54003811,2.4230251,0.34309998,0.16303277,0.92504191,0
0.89922929,1.2749615,1.6084173,0.34309998,0.16303277,0.92504191,0
2.3435364,0.073346138,1.2374651,0.93892741,-0.08721897,-0.33287847,0
-0.80296564,-1.441658,0.26137707,-0.43165833,-0.84730226,0.30943465,0
1.2191409,0.15575418,-1.6969343,0.91966951,0.14197528,-0.36612967,0
1.0671164,1.6680417,1.3767271,0.34309998,0.16303277,0.92504191,0
-0.58219743,1.6774839,1.6581814,-0.61140794,0.78638732,0.088176727,0
1.0239311,0.34164536,-1.859365,0.88951468,0.25996679,-0.37574041,0
1.8967419,-0.87700891,1.1253984,0.74633253,-0.64528245,-0.16308945,0
0.74828005,-0.65777791,-2.2819009,-0.34309998,-0.16303277,-0.92504191,0
0.40688127,-0.023847342,2.114727,0.34309998,0.16303277,0.92504191,0
1.6483256,-0.54110849,-0.54557633,0.91992056,-0.25733337,-0.29584718,0
-2.2412126,-0.47229671,-1.1096995,-0.93270528,-0.057350546,0.35605013,0
-0.48366371,0.3067919,-1.9615333,-0.34309998,-0.16303277,-0.92504191,0
0.50708783,-0.39547944,1.9726875,0.34309998,0.16303277,0.92504191,0
-1.3597611,-1.674714,-1.0600908,-0.48772484,-0.81073296,0.32378477,0
1.5629643,0.95156366,0.094565392,0.78498363,0.49106431,-0.37769911,0
-0.96311235,-0.84759617,1.5581028,-0.69283342,-0.62105596,0.36643058,0
-1.1558542,-0.06054908,2.0010493,-0.90656996,-0.20022711,0.37153754,0
0.13272324,1.1134535,-2.3217647,-0.34309998,-0.16303277,-0.92504191,0
0.80627072,-1.0550321,-2.1945817,-0.34309998,-0.16303277,-0.92504191,0
-1.3977195,0.38873935,-1.642893,-0.34309998,-0.16303277,-0.92504191,0
0.070698738,-1.8504605,0.026772499,0.10689253,-0.98520088,0.13398874,0
1.3160999,-1.0780931,-0.24043,0.75689596,-0.63117355,-0.16949409,0
-1.9220474,-0.87814605,-0.27308118,-0.84738696,-0.3711535,0.37971109,0
0.75448906,-1.5105174,0.089047909,0.44373667,-0.89613241,-0.0066452026,0
1.4684938,0.98988259,-0.19797331,0.79173982,0.47969925,-0.37820196,0
1.6114023,0.9443872,1.3847487,0.34309998,0.16303277,0.92504191,0
-0.57503939,1.2098541,2.1997118,0.34309998,0.16303277,0.92504191,0
-1.4911312,0.71186388,0.44818485,-0.85747886,0.45636818,0.23760873,0
-0.52905989,-1.1015484,1.8613055,-0.54338545,-0.76885045,0.33704787,0
-1.925889,-0.034786701,-1.5142777,-0.34309998,-0.16303277,-0.92504191,0
0.50129282,0.47190869,-2.4272571,-0.34309998,-0.16303277,-0.92504191,0
-1.1711679,-1.708267,-1.4448366,-0.34309998,-0.16303277,-0.92504191,0
1.647222,-0.19294161,-0.51863086,0.9389807,-0.085159689,-0.33326119,0
-0.5563333,1.7309389,0.67493105,-0.48049641,0.87667608,0.023708582,0
0.59200233,0.23805428,1.884491,0.34309998,0.16303277,0.92504191,0
1.2829198,0.80414128,1.4891908,0.34309998,0.16303277,0.92504191,0
-1.0559511,0.30888581,1.954935,-0.93887997,0.03011781,0.34292454,0
-1.9426441,-0.95839834,-1.2188371,-0.34309998,-0.16303277,-0.92504191,0
-0.23827258,1.2729906,-2.303556,-0.34309998,-0.16303277,-0.92504191,0
1.6904861,-0.91567945,1.6262732,0.34309998,0.16303277,0.92504191,0
-2.0852716,0.36421251,-0.89160085,-0.88235986,0.39361125,0.25789768,0
0.041930556,1.6293033,-0.52287996,0.08454752,0.97546375,-0.20327815,0
0.72137535,-1.4945868,2.1429524,0.011453331,-0.98547471,0.16943562,0
1.016825,-0.085490704,-2.4016414,0.92412341,0.11772168,-0.36350709,0
-0.25843215,0.8412894,-2.1182632,-0.34309998,-0.16303277,-0.92504191,0
-0.55935454,-1.7348332,-1.663324,-0.34309998,-0.16303277,-0.92504191,0
1.3166368,-1.2683127,1.8655115,0.34982473,-0.93615198,0.035240114,0
-0.19289833,-0.34825277,-1.9891608,-0.34309998,-0.16303277,-0.92504191,0
1.4839742,-0.72474587,-0.8044529,0.89705253,-0.34890196,-0.27122706,0
-1.3194828,-1.3712548,-0.13751969,-0.61157179,-0.7087034,0.35173774,0
-0.77059948,-0.90636301,-1.7708178,-0.34309998,-0.16303277,-0.92504191,0
0.95431471,1.642351,1.5156181,0.34309998,0.16303277,0.92504191,0
1.6811478,1.0585828,1.32875,0.34309998,0.16303277,0.92504191,0
0.66924846,-0.14128065,1.9676626,0.34309998,0.16303277,0.92504191,0
1.6841201,-0.16398191,-0.61856306,0.9388845,-0.088775188,-0.3325882,0
0.12809527,-1.620273,0.95493066,-0.094714403,-0.97379732,0.20675534,0
1.8531188,-0.61713529,1.6379819,0.34309998,0.16303277,0.92504191,0
-0.73952186,1.5003015,1.2261268,-0.64850557,0.75354892,0.10772389,0
-0.004011631,1.2051449,-2.1821327,0.31039751,0.9098165,-0.27547649,0
-0.23632216,-1.5626066,1.1772692,-0.27713472,-0.92341077,0.26553515,0
-1.8757451,-0.88528061,-1.3384056,-0.34309998,-0.16303277,-0.92504191,0
-0.39890909,1.6950054,-0.99360514,-0.053993821,0.98661649,-0.15385848,0
0.79136747,0.30369735,-2.4788964,-0.34309998,-0.16303277,-0.92504191,0
-1.7490695,-0.16244578,-1.5718033,-0.34309998,-0.16303277,-0.92504191,0
0.66584527,1.7257742,0.10769758,0.30161536,0.91354609,-0.27287653,0
-1.5876122,-1.4203409,-1.3047328,-0.34309998,-0.16303277,-0.92504191,0
1.0420482,1.2591554,-0.71431971,0.60774684,0.71236742,-0.35096487,0
-0.061403275,1.6499155,1.8310118,0.34309998,0.16303277,0.92504191,0
1.3288819,1.353505,0.058296144,0.65340275,0.66607237,-0.35973948,0
1.3909085,-0.64476794,-0.82300591,0.91041768,-0.30005366,-0.28479338,0
-0.13807181,-0.74138784,2.2578421,0.34309998,0.16303277,0.92504191,0
0.0012639612,0.53443658,-2.2056866,-0.34309998,-0.16303277,-0.92504191,0
1.2146004,0.31066489,1.6366503,0.34309998,0.16303277,0.92504191,0
-0.57120848,-0.32228398,2.4285328,0.34309998,0.16303277,0.92504191,0
1.8409522,0.14545727,1.5436794,0.34309998,0.16303277,0.92504191,0
-1.8475393,0.60824049,-0.2973721,-0.87128496,0.42316642,0.24858111,0
-0.17413652,1.7155062,0.39107847,-0.21067446,0.97308773,-0.093360901,0
0.83629465,2.0052571,1.3283248,0.11676341,0.96978021,-0.21422538,0
-0.19723892,-1.3863872,-1.9308724,-0.34309998,-0.16303277,-0.92504191,0
-1.0422096,0.76346946,2.2172189,-0.92845309,0.20808902,0.30769086,0
0.20186627,-1.7001308,0.11674833,0.15775794,-0.98083419,0.114353,0
0.55989313,1.7430775,0.37193155,0.17989653,0.95518565,-0.23506944,0
-2.177562,-0.64128828,-1.1465096,-0.34309998,-0.16303277,-0.92504191,0
-2.048476,-0.041546106,-1.3530712,-0.34309998,-0.16303277,-0.92504191,0
0.054180145,1.7871614,-0.48077452,0.039732158,0.98142123,-0.18770599,0
-0.88875806,0.95373416,-2.0253971,-0.34309998,-0.16303277,-0.92504191,0
1.4360216,-0.64613569,-1.1426356,0.91559255,-0.27790764,-0.2906158,0
0.6303637,0.51301277,1.8837276,0.34309998,0.16303277,0.92504191,0
-0.57806963,-0.90580451,2.0236814,-0.6392442,-0.68104833,0.35712749,0
-0.50638837,-0.46267068,-1.8475375,-0.34309998,-0.16303277,-0.92504191,0
-1.1024252,0.56407893,1.6764187,-0.93472719,0.15630719,0.31914419,0
0.39154053,1.9288077,1.0496821,0.00024569035,0.98480612,-0.17365697,0
-0.68448448,-0.70211542,-1.740119,-0.34309998,-0.16303277,-0.92504191,0
0.56268394,1.5848407,-0.37650603,0.26299363,0.92875814,-0.26123267,0
0.061281025,0.14445555,-2.2998462,-0.34309998,-0.16303277,-0.92504191,0
1.4727716,1.4027116,0.38265446,0.61760664,0.70284617,-0.35294378,0
0.60551119,0.56200838,-2.36129,0.77042907,0.51452434,-0.37643552,0
-1.412775,0.34998471,1.4020481,-0.93805039,0.11023089,0.32849741,0
0.88195086,1.8751613,1.5007761,0.34309998,0.16303277,0.92504191,0
1.3522069,-1.0421362,-0.48125851,0.82006961,-0.53219366,-0.21036988,0
0.73048848,1.2064693,-1.2804599,0.57954443,0.73827779,-0.34507105,0
-1.0859337,0.91027164,1.7831883,-0.878075,0.40540248,0.25423026,0
0.60234845,-1.0216058,2.0497012,0.34309998,0.16303277,0.92504191,0
-0.041305065,-0.86728919,-1.9322391,-0.34309998,-0.16303277,-0.92504191,0
1.7301732,0.20818782,1.5093901,0.34309998,0.16303277,0.92504191,0
0.34094238,1.9006329,1.6861793,0.34309998,0.16303277,0.92504191,0
1.6348412,-0.55051613,1.6481943,0.34309998,0.16303277,0.92504191,0
-1.5355511,-0.92924947,0.38471213,-0.76978081,-0.51553893,0.37637383,0
-0.87007403,1.461637,0.51731384,-0.5966351,0.79845774,0.080570161,0
0.82682133,-1.6074672,-0.25380933,0.50807393,-0.86052752,-0.036783159,0
-0.26470402,0.52377141,-2.2443075,-0.34309998,-0.16303277,-0.92504191,0
-1.3144171,1.1321132,0.52931011,-0.7680186,0.61566812,0.17635214,0
-1.2275033,1.4599991,-1.0876646,-0.42122215,0.90695018,-0.0036119819,0
1.5887429,0.72090685,-0.62836319,0.84765279,0.37055323,-0.37970391,0
1.0205746,-1.4977834,0.88623995,0.35667855,-0.93366992,0.032260478,0
-0.20415719,-0.69433427,2.3941319,0.34309998,0.16303277,0.92504191,0
1.2684169,-0.76707608,-1.0321218,0.87373626,-0.41687521,-0.25059903,0
-1.5579971,-1.6016462,-1.3074664,-0.34309998,-0.16303277,-0.92504191,0
0.082045794,-0.44728851,-2.0196903,-0.34309998,-0.16303277,-0.92504191,0
1.3244299,1.4648719,0.30262688,0.53122342,0.77851474,-0.3342402,0
-0.73356855,1.5940311,-1.0651677,-0.26944792,0.96051478,-0.069345772,0
-0.29721093,-1.5990548,-1.7135243,-0.34309998,-0.16303277,-0.92504191,0
-0.98130792,1.2819217,-1.9347078,-0.34309998,-0.16303277,-0.92504191,0
-1.227219,-0.80622983,1.2355224,-0.76855034,-0.51745737,0.37625563,0
-0.23919612,-0.096965551,-1.9491181,-0.34309998,-0.16303277,-0.92504191,0
1.3156297,-1.2021598,0.014096856,0.66064656,-0.74194872,-0.11427152,0
-2.2913134,-0.32282162,-1.2903945,-0.34309998,-0.16303277,-0.92504191,0
-0.012925148,1.276885,1.9664553,0.34309998,0.16303277,0.92504191,0
-1.853207,0.66975427,-0.69147086,-0.850815,0.47122017,0.23251957,0
-2.0156386,0.38590002,-1.3818567,-0.34309998,-0.16303277,-0.92504191,0
0.42146999,-0.76359975,2.2245579,0.34309998,0.16303277,0.92504191,0
-1.4972742,-0.008464098,-1.6383066,-0.34309998,-0.16303277,-0.92504191,0
-0.87966377,1.5341604,-1.3178117,-0.27709788,0.95856094,-0.066164076,0
-1.4955342,0.20465589,-1.6089123,-0.34309998,-0.16303277,-0.92504191,0
1.8814948,-0.66942871,0.4175868,0.83975232,-0.49446619,-0.2243194,0
