-1.0327374,1.0946622,-4.8173728,-0.33731467,0.19964242,-0.91997921,0
2.6359277,0.28721786,3.3394518,0.76731473,0.62447047,-0.14582479,0
0.20500326,0.73440599,3.7464178,-0.47451401,0.80796868,0.34931797,0
-0.47882533,-0.90552974,3.6255486,-0.94054991,-0.11279422,0.32037979,0
-0.41153622,1.9913611,-4.9028578,-0.33731467,0.19964242,-0.91997921,0
0.91520584,1.5256453,-0.43880284,0.6237818,0.77932334,-0.059593558,0
0.9473601,-1.7562737,4.613842,0.33731467,-0.19964242,0.91997921,0
1.9123751,-2.0376687,4.3859377,0.33731467,-0.19964242,0.91997921,0
0.14179397,0.43819237,3.9581439,-0.6292733,0.67902255,0.37807894,0
-0.65084147,0.92418337,-4.9513135,-0.33731467,0.19964242,-0.91997921,0
-2.0343232,1.2263193,-4.3458896,-0.33731467,0.19964242,-0.91997921,0
-0.77291828,-1.5435238,0.43845093,-0.57215345,-0.81952441,0.031939805,0
-1.3002559,0.76932335,1.0801375,-0.78491426,0.4798938,0.39193302,0
1.0010403,-0.71702552,-1.7633342,0.73703367,-0.55196691,-0.39001775,0
0.318811,-1.5369678,4.9974813,0.33731467,-0.19964242,0.91997921,0
0.4426415,-0.93878508,4.9753265,0.33731467,-0.19964242,0.91997921,0
-2.2958894,0.82800066,-1.2110639,-0.89776492,0.22583224,0.37817705,0
0.85969234,-2.3689289,2.1781154,-0.052457213,-0.9797219,-0.19337326,0
2.9561496,-0.28780842,3.6433992,0.90246415,0.34669566,-0.25565714,0
-0.32019445,0.48922157,-5.2850242,-0.33731467,0.19964242,-0.91997921,0
-0.42227191,0.52254248,-5.0914631,-0.33731467,0.19964242,-0.91997921,0
-1.9211251,-0.20077896,-4.7933922,-0.33731467,0.19964242,-0.91997921,0
0.62624621,0.3769536,-3.2953706,0.91454995,-0.16220514,-0.37052375,0
-2.9162142,1.4965496,-4.0269814,-0.33731467,0.19964242,-0.91997921,0
-1.6556774,2.2596774,-4.314436,-0.33731467,0.19964242,-0.91997921,0
0.50099224,0.18156457,-3.3574977,0.8906287,-0.24889761,-0.38056582,0
-2.7210717,2.1364074,-3.674036,-0.59629488,0.71089733,0.37290427,0
0.50023568,0.30089068,-3.6032586,0.91007429,-0.18081561,-0.37292135,0
-1.3666437,1.9990497,-4.5060067,-0.33731467,0.19964242,-0.91997921,0
3.2555399,-1.2190108,3.9099169,0.33731467,-0.19964242,0.91997921,0
2.2542484,-1.0613308,4.449913,0.33731467,-0.19964242,0.91997921,0
-2.4493606,-0.6531105,-4.311532,-0.4717291,-0.88155276,-0.018341839,0
1.1398003,-2.2952724,4.5659599,0.33731467,-0.19964242,0.91997921,0
-0.46570104,-1.4200842,3.1772285,-0.85603321,-0.47166646,0.21151346,0
1.4612108,0.83087444,4.2125111,0.048392475,0.97963941,0.19484574,0
0.87557828,1.3259257,2.4465094,0.067371786,0.97986782,0.1879364,0
-0.98495495,2.6848488,-4.206738,0.35316786,0.93271422,0.072915375,0
1.8397692,-0.2684288,4.8008442,0.33731467,-0.19964242,0.91997921,0
-1.2984509,0.039162636,-4.9947762,-0.33731467,0.19964242,-0.91997921,0
2.5644464,0.57191133,4.5128355,0.52918369,0.84844947,-0.0099077821,0
-2.072423,0.70064211,-4.5843477,-0.33731467,0.19964242,-0.91997921,0
3.0779772,-0.96140575,4.1391716,0.33731467,-0.19964242,0.91997921,0
2.7027316,-1.0248256,2.5054307,0.90704441,-0.19264482,-0.37437737,0
1.046963,-0.098121166,5.0554366,0.33731467,-0.19964242,0.91997921,0
1.9547558,0.37012625,4.8729038,0.33731467,-0.19964242,0.91997921,0
-3.1888385,1.4593859,-3.8427982,-0.33731467,0.19964242,-0.91997921,0
-2.9928522,1.3180623,-4.1342268,-0.33731467,0.19964242,-0.91997921,0
-1.3940024,-1.157505,-3.0405421,-0.20784011,-0.96893263,-0.13406008,0
-2.8196113,0.99089622,-2.7079391,-0.92842942,0.091065362,0.36017478,0
-1.8951905,1.4497838,-0.89683294,-0.67914438,0.62513351,0.38467011,0
-1.6896676,0.11792281,0.15951085,-0.93633789,0.029977605,0.34981805,0
-2.867455,0.40275717,-2.5305359,-0.93938756,-0.13511977,0.31510884,0
0.6729601,-1.3976803,4.9679728,0.33731467,-0.19964242,0.91997921,0
-0.87149978,-1.5559556,1.1322358,-0.69804239,-0.70873421,0.10213983,0
1.5613909,0.69733572,4.9272671,0.33731467,-0.19964242,0.91997921,0
0.35027993,-0.26544285,5.2249813,-0.81864804,0.42029345,0.39136791,0
-2.6110275,1.5194306,-4.1804347,-0.33731467,0.19964242,-0.91997921,0
-0.38150316,2.0064192,-4.9609771,-0.33731467,0.19964242,-0.91997921,0
-2.3180215,2.1776557,-3.3404617,-0.50224066,0.78839189,0.35523584,0
3.2868481,-0.82839918,3.828228,0.94080579,0.10596958,-0.32195467,0
-1.9625152,-0.60874939,-4.8821502,-0.33731467,0.19964242,-0.91997921,0
0.68603444,0.55538654,-3.393671,0.9334693,-0.055586636,-0.35432357,0
0.44090402,0.41141868,-3.740442,0.90143764,-0.21318485,-0.37677902,0
-1.9558032,1.284358,-4.4582038,-0.33731467,0.19964242,-0.91997921,0
2.6124053,0.50755739,4.4409037,0.55326986,0.83270741,-0.022155285,0
-2.5310564,0.43727827,-4.3822436,-0.33731467,0.19964242,-0.91997921,0
-1.8189613,0.96726608,-4.47124,-0.33731467,0.19964242,-0.91997921,0
-2.3313258,2.0044165,-4.0698528,-0.33731467,0.19964242,-0.91997921,0
-2.1887403,2.3905811,-4.1928825,-0.33731467,0.19964242,-0.91997921,0
-0.47127473,-0.83129978,-3.892915,0.40320349,-0.85244125,-0.33282253,0
-2.051064,1.7717156,-4.3548193,-0.33731467,0.19964242,-0.91997921,0
1.2190959,-2.1929879,4.4934053,0.33731467,-0.19964242,0.91997921,0
1.4330838,-0.84977293,4.7897487,0.33731467,-0.19964242,0.91997921,0
-2.5330443,0.24488473,-1.7770089,-0.94114208,-0.094031915,0.32466853,0
-0.013187647,-2.101805,2.4666095,-0.52570999,-0.85062468,0.0081620812,0
-0.51027006,-0.12184525,-5.2552104,0.63610244,-0.67206895,-0.37907392,0
1.6182841,0.26053041,-0.24716401,0.93642658,0.17139716,-0.30615067,0
-0.27608651,0.54145908,-5.2670817,-0.33731467,0.19964242,-0.91997921,0
1.080759,-0.27994251,5.0071554,0.33731467,-0.19964242,0.91997921,0
-2.4379711,-0.070766926,-4.5646133,-0.33731467,0.19964242,-0.91997921,0
-3.183975,1.4367676,-4.002779,-0.33731467,0.19964242,-0.91997921,0
-0.98685288,1.0117035,-4.7772532,-0.33731467,0.19964242,-0.91997921,0
-0.30815983,1.8232902,0.1992569,-0.13436198,0.95703918,0.2569491,0
0.54133415,-1.2753458,-1.5861387,0.46281731,-0.81582791,-0.34673485,0
1.0142235,-1.9801126,4.5359602,0.33731467,-0.19964242,0.91997921,0
-0.98777962,0.34380245,-5.0527749,-0.33731467,0.19964242,-0.91997921,0
-0.86633134,1.6431804,-4.7746086,-0.33731467,0.19964242,-0.91997921,0
-0.94815975,0.67077208,-5.0301571,-0.33731467,0.19964242,-0.91997921,0
2.5353336,-1.1807072,2.1535308,0.86970133,-0.30797064,-0.38571197,0
1.6792946,-0.002122879,4.8382397,0.33731467,-0.19964242,0.91997921,0
-0.57710278,1.7469234,-4.9317379,-0.33731467,0.19964242,-0.91997921,0
-2.3039515,1.7451234,-4.1229124,-0.33731467,0.19964242,-0.91997921,0
-0.75967109,2.5478468,-4.0852485,0.38958901,0.9192456,0.056638539,0
1.814989,1.0576956,2.2393169,0.53157222,0.84694004,-0.011111081,0
-1.3896279,2.09623,-4.4246659,-0.33731467,0.19964242,-0.91997921,0
2.1550224,0.24687624,4.6512671,0.33731467,-0.19964242,0.91997921,0
0.45157468,-1.9793534,4.8982215,0.33731467,-0.19964242,0.91997921,0
-0.8227005,0.080777168,-5.0299239,-0.33731467,0.19964242,-0.91997921,0
-0.73653412,-0.21853495,-5.1585088,-0.33731467,0.19964242,-0.91997921,0
2.0410342,-1.9634719,4.175559,0.33731467,-0.19964242,0.91997921,0
-1.146068,0.15899086,-5.0857258,-0.33731467,0.19964242,-0.91997921,0
-1.0397649,1.3394744,0.6164701,-0.58021379,0.72548181,0.37017307,0
2.5206318,-0.53646207,1.7252841,0.93685782,-0.024609253,-0.34884369,0
-2.0652394,1.2772324,-1.1073037,-0.7602905,0.51851201,0.391285,0
0.9595772,-0.65146518,-1.7204829,0.76261133,-0.51502109,-0.39137846,0
-0.12682819,-0.041478157,4.1093798,-0.81445771,0.42819422,0.39154607,0
0.90578157,1.4507197,-0.74978399,0.61425495,0.78723139,-0.054384291,0
0.59506071,-1.5563126,4.8373995,0.33731467,-0.19964242,0.91997921,0
0.49649304,1.0030992,-3.2397356,0.92756951,0.23733579,-0.28859407,0
2.6881843,-0.62236071,4.3726072,0.33731467,-0.19964242,0.91997921,0
1.8311477,-2.18401,4.2330651,0.33731467,-0.19964242,0.91997921,0
-2.6882012,1.8441877,-3.4492462,-0.72772044,0.5646469,0.38935471,0
-0.048714876,-1.3144484,-2.0913749,0.28101361,-0.91134441,-0.30080345,0
-2.5859163,0.43059301,-1.9397991,-0.94134879,-0.080898225,0.32759434,0
0.86198181,1.4212701,0.49881172,0.44291589,0.89599055,0.032039464,0
-0.54645026,1.7405779,0.04516089,-0.15397704,0.95239288,0.26313275,0
0.059993505,1.9727519,-2.5080199,0.555197,0.83139682,-0.023146272,0
-1.8545001,1.4136391,-4.4314022,-0.33731467,0.19964242,-0.91997921,0
-0.80671167,0.33262014,-5.08285,-0.33731467,0.19964242,-0.91997921,0
0.73257363,0.56971025,-3.101192,0.94039953,0.026598901,-0.33902973,0
-0.84813678,-0.41943932,-5.213306,-0.33731467,0.19964242,-0.91997921,0
-1.1418735,2.5997009,-4.1707263,0.30103901,0.94881552,0.095522702,0
1.8819544,-2.3327575,4.1978011,0.33731467,-0.19964242,0.91997921,0
2.0241861,0.81541824,3.9991512,0.32259375,0.94259781,0.086270332,0
-2.2399304,0.33886099,-4.4343328,-0.33731467,0.19964242,-0.91997921,0
0.3874743,-2.2578731,3.9301162,-0.56924361,-0.82160586,0.030421197,0
3.0417738,-0.77453566,4.1630745,0.33731467,-0.19964242,0.91997921,0
-0.17336333,1.8773503,-0.19145262,-0.0035632253,0.97697634,0.21331757,0
2.2361479,-0.13624179,0.77614683,0.94132942,0.060266703,-0.33206451,0
1.7861756,-0.51267719,4.6441269,0.33731467,-0.19964242,0.91997921,0
-2.2964725,0.87192714,-1.4024777,-0.8827979,0.27230728,0.38277477,0
1.5250075,-1.1283813,4.6985302,0.33731467,-0.19964242,0.91997921,0
-1.222966,-1.2631241,-1.3211484,-0.4728168,-0.88098055,-0.017818928,0
0.46020845,1.4365253,-3.5703545,0.87159985,0.43549633,-0.22507018,0
-2.2501268,2.5288601,-4.0089717,-0.33731467,0.19964242,-0.91997921,0
-1.2706516,0.021428108,-4.9537349,-0.33731467,0.19964242,-0.91997921,0
-2.7527471,2.128922,-3.6786017,-0.66945583,0.63619405,0.38351801,0
-1.6188072,-1.0840745,-1.4650314,-0.58032548,-0.81357861,0.036226392,0
-2.2826648,1.2868266,-1.5955025,-0.81299806,0.43091005,0.39160025,0
-1.3065865,2.6386256,-3.4777229,0.034628749,0.97922421,0.19980216,0
-0.86295038,0.71118259,-5.0079527,-0.33731467,0.19964242,-0.91997921,0
-0.66388214,1.6795416,-4.7194648,-0.33731467,0.19964242,-0.91997921,0
-1.3611201,-1.2043655,0.2347368,-0.75607324,-0.63968617,0.13840115,0
2.0868609,0.48012984,1.4819672,0.83207196,0.52031374,-0.19217104,0
-0.71061015,2.287159,-2.3219686,0.18020582,0.9728756,0.14504796,0
1.3383335,-1.107983,-0.32022199,0.71546382,-0.58076578,-0.38835865,0
1.7441282,-1.2777638,4.5478806,0.33731467,-0.19964242,0.91997921,0
0.30419111,0.49746323,4.040576,-0.55081081,0.75065821,0.36485583,0
1.9091473,-1.9990544,4.3997149,0.33731467,-0.19964242,0.91997921,0
-2.2156215,0.35773945,-0.96720028,-0.93867081,0.0029217452,0.34480214,0
2.056942,-0.12948084,4.6292605,0.33731467,-0.19964242,0.91997921,0
0.24240863,-2.136116,2.4788246,-0.41532907,-0.9085632,-0.044882715,0
1.8337795,0.21045494,4.7261729,0.33731467,-0.19964242,0.91997921,0
-0.97122538,-0.10180235,-5.1579313,-0.33731467,0.19964242,-0.91997921,0
0.59830052,1.5505098,-1.083559,0.56646895,0.82357341,-0.028976917,0
2.1166687,-0.88455403,1.0545444,0.84576619,-0.36487824,-0.38928545,0
-2.0029006,1.7199249,-4.3093863,-0.33731467,0.19964242,-0.91997921,0
-0.35740507,1.0840168,-5.0731764,-0.33731467,0.19964242,-0.91997921,0
-3.2274642,0.99525547,-4.1160107,-0.33731467,0.19964242,-0.91997921,0
2.255434,-0.46767986,1.3900146,0.93815219,-0.0097174346,-0.34608662,0
2.1282094,-2.4943461,4.029212,0.33731467,-0.19964242,0.91997921,0
0.69739401,0.021307945,5.0774384,0.33731467,-0.19964242,0.91997921,0
-1.010361,-1.4276054,0.83281791,-0.66617018,-0.74111903,0.083426118,0
-0.72580671,2.0399685,-4.6451054,-0.33731467,0.19964242,-0.91997921,0
2.3403225,-1.1458087,4.2919745,0.33731467,-0.19964242,0.91997921,0
1.3535256,-1.8039131,4.5999689,0.33731467,-0.19964242,0.91997921,0
1.8678278,-1.003521,4.5148172,0.33731467,-0.19964242,0.91997921,0
0.80398834,0.068142891,5.1725411,0.33731467,-0.19964242,0.91997921,0
0.47403467,-1.2469778,4.9264407,0.33731467,-0.19964242,0.91997921,0
2.7290223,0.047229767,4.520412,0.33731467,-0.19964242,0.91997921,0
2.9856603,-0.20698142,3.4507256,0.89048529,0.38467637,-0.24302286,0
-0.057316482,-1.4629164,5.0254354,-0.91813326,-0.28565666,0.27464819,0
-2.3092163,0.58844328,-4.3888597,-0.33731467,0.19964242,-0.91997921,0
-0.62875032,1.9512835,-4.744585,-0.33731467,0.19964242,-0.91997921,0
0.61852998,1.3154638,-2.5299735,0.83226895,0.51994216,-0.19232386,0
-0.65039724,1.7961383,-4.8208647,-0.33731467,0.19964242,-0.91997921,0
-1.400282,0.10924673,-4.9104681,-0.33731467,0.19964242,-0.91997921,0
0.48206538,-1.1000161,4.98419,0.33731467,-0.19964242,0.91997921,0
0.51140761,-2.3515687,3.2147427,-0.37807566,-0.92370778,-0.061828315,0
-1.1189154,-0.25140572,-4.9755483,-0.33731467,0.19964242,-0.91997921,0
-0.98816389,1.5179019,-4.7010536,-0.33731467,0.19964242,-0.91997921,0
-0.28938806,-1.566726,3.1895213,-0.80444449,-0.56872147,0.17153656,0
1.3178697,1.1979498,1.5854051,0.42405397,0.9047153,0.040848613,0
0.66191959,-0.72806025,4.9749351,0.33731467,-0.19964242,0.91997921,0
0.94623178,-0.34222078,4.9634194,0.33731467,-0.19964242,0.91997921,0
-2.5339406,2.2031898,-4.0117893,-0.33731467,0.19964242,-0.91997921,0
-1.8415114,0.3537097,-4.6040411,-0.33731467,0.19964242,-0.91997921,0
-0.44697642,-0.078256845,3.5395751,-0.84215951,0.37272915,0.38966677,0
1.8697158,0.54885006,4.8547792,0.33731467,-0.19964242,0.91997921,0
0.75008547,0.7010324,4.3536177,-0.31803924,0.89562804,0.31096861,0
2.4758625,0.10857868,4.6150107,0.33731467,-0.19964242,0.91997921,0
-2.6299329,-0.21687222,-4.5230646,-0.33731467,0.19964242,-0.91997921,0
-1.6744822,1.3805156,-0.84348595,-0.69365925,0.60797501,0.38626856,0
1.2076828,-2.1094208,1.9622949,0.19391954,-0.94155991,-0.2754271,0
0.46254015,-0.16878462,5.2110038,0.33731467,-0.19964242,0.91997921,0
-0.81846368,1.7915655,-0.72478628,-0.21800095,0.93412441,0.28264308,0
-0.42471182,-0.079061985,3.9098706,-0.85303354,0.34853488,0.38840339,0
2.9582248,0.11033678,4.4464903,0.33731467,-0.19964242,0.91997921,0
-0.20638537,0.72485256,-5.2866583,-0.33731467,0.19964242,-0.91997921,0
-2.4432802,2.5250359,-3.8230369,-0.4538818,0.82167745,0.34472805,0
1.3950058,-0.30195141,4.8662367,0.33731467,-0.19964242,0.91997921,0
1.6020494,-0.010605812,4.8441968,0.33731467,-0.19964242,0.91997921,0
-1.0789946,-0.078054547,1.9951974,-0.90603441,0.19646677,0.3748365,0
2.7407019,-0.80803728,4.3613796,0.33731467,-0.19964242,0.91997921,0
0.23028505,-1.9906267,1.2375197,-0.23150876,-0.96483433,-0.12449247,0
-2.2431359,-0.67347622,-4.6414557,-0.36913061,-0.92704296,-0.06583178,0
2.9495432,-0.72111368,4.1349092,0.33731467,-0.19964242,0.91997921,0
1.2935297,-2.4971566,3.8105202,-0.11649191,-0.97859514,-0.16965014,0
-2.5410128,-0.32348013,-4.4989147,-0.33731467,0.19964242,-0.91997921,0
-0.010222852,1.9834943,-2.8370743,0.61705375,0.78493232,-0.055909395,0
-1.5568485,1.6769928,-1.1303279,-0.56308818,0.740372,0.36712518,0
1.9690191,-1.9225178,4.363905,0.33731467,-0.19964242,0.91997921,0
2.7410841,-0.27946281,4.2700877,0.33731467,-0.19964242,0.91997921,0
2.7115536,-1.1353173,2.5222893,0.87014902,-0.30681291,-0.38562489,0
-0.51116168,1.3489981,-4.9480338,-0.33731467,0.19964242,-0.91997921,0
-2.7574592,-0.1801405,-4.4954753,-0.33731467,0.19964242,-0.91997921,0
1.9554629,-1.4017549,4.4404221,0.33731467,-0.19964242,0.91997921,0
-1.5261635,1.6421454,-1.0279514,-0.53337216,0.7647351,0.36151665,0
1.6315985,0.46027565,4.9570932,0.33731467,-0.19964242,0.91997921,0
-3.1417327,0.56705475,-4.185946,-0.33731467,0.19964242,-0.91997921,0
-1.2633928,1.6002584,-4.716506,-0.33731467,0.19964242,-0.91997921,0
-0.37635672,2.3237014,-4.0315666,0.55212075,0.83348525,-0.021565139,0
-1.5261161,-0.29144955,1.0926743,-0.94128042,-0.086572573,0.32633799,0
3.0996015,-0.90468359,4.02106,0.33731467,-0.19964242,0.91997921,0
0.62400502,0.025448799,5.1919456,0.33731467,-0.19964242,0.91997921,0
1.4857124,-1.6773367,4.5490127,0.33731467,-0.19964242,0.91997921,0
2.6712854,-2.2720017,4.0055223,0.33731467,-0.19964242,0.91997921,0
-0.94300449,-1.5426755,-0.052731752,-0.4842847,-0.87482429,-0.012278199,0
1.7524372,0.89375293,2.4828351,0.50341058,0.8640424,0.0029258728,0
-1.9150126,0.30162334,-4.7017312,-0.33731467,0.19964242,-0.91997921,0
-2.472429,0.9711926,-1.8158448,-0.89411712,0.23785239,0.37944794,0
2.9468412,-1.8865523,4.0026584,0.33731467,-0.19964242,0.91997921,0
-0.30336604,0.33686256,-5.1919599,-0.33731467,0.19964242,-0.91997921,0
1.2992649,1.2120345,1.8898555,0.42047217,0.90630907,0.042507827,0
-2.8637559,-0.0365839,-4.2874308,-0.33731467,0.19964242,-0.91997921,0
2.5846281,-1.60467,4.2365341,0.33731467,-0.19964242,0.91997921,0
1.8543648,-0.074625492,4.7282372,0.33731467,-0.19964242,0.91997921,0
0.20314789,-1.3816061,-1.4074714,0.2613911,-0.91896403,-0.29526228,0
-1.5099871,1.6380486,-4.5041056,-0.33731467,0.19964242,-0.91997921,0
-2.1845798,-0.33484191,-1.0048933,-0.89638269,-0.36667639,0.24909145,0
2.3967111,-2.3511844,3.8399465,0.47109616,-0.81028908,-0.34856838,0
-1.0182339,-1.2103461,1.2015252,-0.8047685,-0.56819248,0.1717701,0
-2.629118,-0.38998079,-4.6610708,-0.33731467,0.19964242,-0.91997921,0
-2.3978491,0.70376921,-1.6961383,-0.92855865,0.09025351,0.36004609,0
-1.3614378,-1.198226,-2.6551244,-0.27348703,-0.95588785,-0.10715961,0
-1.3116647,2.6883597,-4.1221418,0.1593287,0.97526294,0.15322071,0
-0.3596797,-1.6979101,2.5630121,-0.73658311,-0.66453278,0.12586296,0
0.34264702,0.22625732,4.9727411,-0.67700899,0.62759769,0.38442191,0
-2.0965858,-0.57279837,-1.309037,-0.82796276,-0.52797353,0.18900228,0
0.58662271,1.443994,-2.3959689,0.81227612,0.55569339,-0.17723513,0
2.7426608,-2.317904,3.9576666,0.33731467,-0.19964242,0.91997921,0
1.4325886,0.78676367,5.0701027,0.33731467,-0.19964242,0.91997921,0
1.9501786,0.39739025,0.78832531,0.87649304,0.42316863,-0.22953951,0
0.43326318,1.4671125,-2.9235115,0.83653408,0.5117901,-0.19565684,0
-1.309881,2.1218896,-4.5872259,-0.33731467,0.19964242,-0.91997921,0
1.1445975,0.3751092,4.9929457,0.33731467,-0.19964242,0.91997921,0
1.6308858,-0.86169505,0.0039826035,0.81827676,-0.42099977,-0.39138511,0
0.61961222,-2.3085954,2.7564487,-0.29328254,-0.95090473,-0.098820031,0
-3.1164718,0.48450518,-3.6395867,-0.91451013,-0.30136186,0.26991165,0
1.6325967,-0.24775696,4.7929654,0.33731467,-0.19964242,0.91997921,0
-1.7750385,-0.98874426,-1.599571,-0.65370375,-0.75289422,0.076299787,0
2.6650715,-1.2570767,4.2379045,0.33731467,-0.19964242,0.91997921,0
-1.6138611,-0.70353782,0.51211596,-0.90236068,-0.3470495,0.25554234,0
2.0460882,-2.3567672,4.1301913,0.33731467,-0.19964242,0.91997921,0
2.8485227,-1.0620947,4.1661997,0.33731467,-0.19964242,0.91997921,0
-0.27645886,0.057756186,3.9054708,-0.84361994,0.36957037,0.38951668,0
2.5929539,-1.0770588,4.2565475,0.33731467,-0.19964242,0.91997921,0
1.6795349,-2.4574981,3.0868189,0.21806133,-0.93410492,-0.28266102,0
-0.82270706,2.390172,-3.4241772,0.29421887,0.95065671,0.098422885,0
-1.3421707,-0.68364525,-5.0375075,-0.33731467,0.19964242,-0.91997921,0
0.74504972,-0.29541636,-2.8501155,0.81947571,-0.41871396,-0.39132869,0
1.3517118,-0.72418833,4.7570243,0.33731467,-0.19964242,0.91997921,0
-1.6207358,0.70612669,-4.67624,-0.33731467,0.19964242,-0.91997921,0
2.0875781,-0.35183096,4.4914918,0.33731467,-0.19964242,0.91997921,0
0.39865583,1.727087,0.18924785,0.16271555,0.9749099,0.15190238,0
1.0088658,1.0035591,3.6889899,-0.12094396,0.95996523,0.2526643,0
-1.4927006,1.408033,-0.51241624,-0.62871051,0.67958975,0.37799573,0
1.6173985,0.22855377,4.8082695,0.33731467,-0.19964242,0.91997921,0
0.054417014,1.8461168,-3.0388372,0.66127861,0.74579573,-0.080617607,0
-1.8561881,0.80689669,-4.671248,-0.33731467,0.19964242,-0.91997921,0
-0.096730977,1.4387736,-5.0010052,-0.33731467,0.19964242,-0.91997921,0
0.51399148,-1.0755763,5.0608411,0.33731467,-0.19964242,0.91997921,0
0.37354553,-0.33334112,-3.4614508,0.75261879,-0.52984631,-0.39093181,0
0.20259583,-0.58867836,-3.0511618,0.65767682,-0.64924115,-0.38203043,0
0.79259437,-1.1969838,4.9519854,0.33731467,-0.19964242,0.91997921,0
-2.320405,0.26125133,-1.2777858,-0.94134933,-0.062218904,0.33164811,0
0.67493844,-2.0813866,1.2906617,-0.0047470927,-0.97760248,-0.21040651,0
0.92653483,0.39063334,-2.36443,0.93932658,0.0066788644,-0.34295911,0
0.19616179,-1.6106324,5.0252542,0.33731467,-0.19964242,0.91997921,0
1.5892712,1.0698931,1.2802489,0.61397147,0.78746301,-0.054230034,0
2.3892419,-2.259397,3.7573085,0.48420668,-0.80127883,-0.35142016,0
0.70916986,-0.23103189,5.01932,0.33731467,-0.19964242,0.91997921,0
2.8875809,-1.712883,3.9537032,0.33731467,-0.19964242,0.91997921,0
-2.5771933,1.1834762,-2.3156898,-0.84524864,0.36601523,0.38934246,0
1.569499,-0.53619385,4.6437359,0.33731467,-0.19964242,0.91997921,0
0.60364836,-2.0635104,4.8029585,0.33731467,-0.19964242,0.91997921,0
0.13653111,-2.1848624,3.081691,-0.55025411,-0.8347429,0.020607769,0
0.17462263,1.0594287,-4.5751276,0.93825537,0.15100494,-0.31124657,0
1.7270088,-0.73173857,4.7408233,0.33731467,-0.19964242,0.91997921,0
0.54707903,0.5764668,-3.5669239,0.93548298,-0.038236991,-0.3512969,0
-0.726524,-1.1240008,2.9628427,-0.91951305,-0.27933761,0.27652544,0
2.6278763,0.31795645,3.7999783,0.715141,0.6898669,-0.11250353,0
2.593348,0.39782095,4.0254035,0.61321682,0.78807896,-0.053819716,0
-0.4900879,-1.7342184,0.37398481,-0.33189362,-0.93972534,-0.082237124,0
-1.333124,-1.2759775,-2.6265502,-0.2531305,-0.96049786,-0.11562377,0
1.6997199,-0.34705925,4.6759629,0.33731467,-0.19964242,0.91997921,0
-1.343473,2.1333797,-1.7312942,-0.24706644,0.92422342,0.29115146,0
1.8621961,0.83486772,2.8400519,0.51311469,0.85831803,-0.0018744469,0
1.8936498,0.023309708,4.6772461,0.33731467,-0.19964242,0.91997921,0
-1.3995578,-0.16498518,-4.8573389,-0.33731467,0.19964242,-0.91997921,0
-1.3499503,1.0686264,-4.7794871,-0.33731467,0.19964242,-0.91997921,0
-3.1570153,1.3359318,-3.7811136,-0.90165251,0.21242617,0.37669319,0
2.5405314,-1.5390043,4.0947394,0.33731467,-0.19964242,0.91997921,0
2.7622533,0.41674566,4.1594534,0.6343801,0.77024567,-0.065449357,0
1.3624634,-2.4682922,3.4235508,-0.0011781454,-0.97734296,-0.21165878,0
3.3098857,-0.32358599,4.2251329,0.33731467,-0.19964242,0.91997921,0
0.71556169,1.0837009,-3.096384,0.92285466,0.26310635,-0.28127295,0
-0.28842694,-0.21661377,-4.7623668,0.67734051,-0.62721604,-0.3844606,0
0.46738493,-0.13463593,5.3098359,0.33731467,-0.19964242,0.91997921,0
0.94734347,-0.13362741,5.0534387,0.33731467,-0.19964242,0.91997921,0
-0.34803602,1.6348381,-4.9878983,-0.33731467,0.19964242,-0.91997921,0
1.4994884,-0.99650687,-0.33752722,0.79467577,-0.4635272,-0.39196041,0
1.4006665,1.1616693,2.3188679,0.34585103,0.93519533,0.07613647,0
-0.69258803,0.84208488,-4.9774652,-0.33731467,0.19964242,-0.91997921,0
0.62469244,1.6795838,-2.0993888,0.72555059,0.67781299,-0.11893594,0
0.47028261,-1.6244578,4.9263425,0.33731467,-0.19964242,0.91997921,0
0.64224052,-2.0156007,1.5072738,-0.037945569,-0.97934335,-0.19861197,0
0.99894536,1.0995907,3.0132756,0.06618911,0.97986525,0.18836954,0
1.8899302,0.13889933,4.7449017,0.33731467,-0.19964242,0.91997921,0
-0.44314831,1.9248281,-4.8457222,-0.33731467,0.19964242,-0.91997921,0
1.0555571,-2.311415,2.3582225,0.066963792,-0.96969014,-0.23498264,0
-2.8551178,0.58002305,-2.7776952,-0.94130337,-0.058127999,0.33251905,0
-0.10175104,-1.6045918,3.9855413,-0.86061907,-0.46144569,0.21541274,0
0.40145612,1.3317201,2.3458409,-0.16812426,0.94876772,0.26753318,0
0.98131812,-1.3296435,-0.42012152,0.52374518,-0.77224761,-0.35961717,0
-2.5018153,1.6614671,-2.385891,-0.74824184,0.53617799,0.390701,0
-1.0868673,-1.4337776,-1.8357779,-0.28390646,-0.95332712,-0.10278356,0
2.6746063,-0.068704128,4.3800879,0.33731467,-0.19964242,0.91997921,0
1.7518864,-1.1258645,4.5228615,0.33731467,-0.19964242,0.91997921,0
-0.57249153,2.2862542,-3.3665948,0.45759895,0.88880455,0.025096416,0
2.0574007,-0.044549465,4.606925,0.33731467,-0.19964242,0.91997921,0
0.57541454,-2.3398442,4.0415306,-0.54580963,-0.83770853,0.018334627,0
0.44304323,1.8448169,-2.0153239,0.6373229,0.76767099,-0.067087054,0
2.2551899,-0.77085924,1.1409816,0.88966775,-0.25186974,-0.38085842,0
1.5242448,0.4832015,5.0537276,0.33731467,-0.19964242,0.91997921,0
-0.51055324,0.41453409,-5.2201104,-0.33731467,0.19964242,-0.91997921,0
-1.6256157,0.70586205,-4.7256441,-0.33731467,0.19964242,-0.91997921,0
2.7171946,-0.056712866,2.8881989,0.89279258,0.37777928,-0.24536568,0
1.0280945,0.56152821,-2.3482275,0.9413048,0.058235109,-0.3324964,0
-2.2471225,-0.12396955,-4.7457538,-0.33731467,0.19964242,-0.91997921,0
-1.0833516,1.2850292,0.62705195,-0.61800587,0.6902231,0.37637836,0
1.1601725,-0.19854212,4.9757204,0.33731467,-0.19964242,0.91997921,0
-2.4839878,-0.48636842,-3.066875,-0.70201463,-0.70444995,0.10452592,0
0.32191873,-0.93915987,-2.3599689,0.54648578,-0.7542069,-0.36404014,0
-1.6221794,-0.68207598,-5.0308609,-0.33731467,0.19964242,-0.91997921,0
-0.29058331,0.27015448,-5.3089666,-0.33731467,0.19964242,-0.91997921,0
-0.53947103,-1.2676489,3.3218098,-0.91014445,-0.31885588,0.26451457,0
-0.53985304,-0.42733431,3.3690803,-0.92690784,0.10033381,0.36162817,0
0.72629118,1.6002507,-0.82238269,0.54555649,0.83787626,-0.018205404,0
-0.446518,-1.1213144,-2.8301225,0.28350812,-0.91034102,-0.30150035,0
0.21095665,-1.0980358,5.1528759,0.33731467,-0.19964242,0.91997921,0
-2.9169393,1.2817163,-4.008604,-0.33731467,0.19964242,-0.91997921,0
-0.16710436,-0.2666707,-4.6266041,0.71625078,-0.57974946,-0.38842666,0
2.3164194,0.54395604,3.0269885,0.68011034,0.72737467,-0.091519833,0
-2.6387346,-0.34265947,-4.5602646,-0.33731467,0.19964242,-0.91997921,0
0.70474702,-0.32692385,5.1352172,0.33731467,-0.19964242,0.91997921,0
-2.2247078,-0.026721954,-4.6081743,-0.33731467,0.19964242,-0.91997921,0
-0.9207418,-0.28126049,-5.1474099,-0.33731467,0.19964242,-0.91997921,0
0.58170164,0.04244566,5.2292976,0.33731467,-0.19964242,0.91997921,0
1.6904988,-0.49779749,4.7269983,0.33731467,-0.19964242,0.91997921,0
2.706352,-1.937396,3.1329043,0.67241335,-0.63285005,-0.38387668,0
2.5899274,-0.36571693,4.3992624,0.33731467,-0.19964242,0.91997921,0
-1.4071189,0.30709839,-4.7488532,-0.33731467,0.19964242,-0.91997921,0
-1.4642828,0.64917803,-4.6500387,-0.33731467,0.19964242,-0.91997921,0
-0.86142713,1.209621,-4.778758,-0.33731467,0.19964242,-0.91997921,0
2.4992175,-0.1390717,1.806095,0.93796307,0.15460852,-0.31035727,0
-2.109612,1.7668452,-4.3671174,-0.33731467,0.19964242,-0.91997921,0
2.5075986,0.38147473,2.6771097,0.80787551,0.5630756,-0.17401969,0
0.57763094,-1.4459596,4.9871421,0.33731467,-0.19964242,0.91997921,0
1.2254654,-2.0239658,4.6172671,0.33731467,-0.19964242,0.91997921,0
2.0713415,-1.893877,4.1838665,0.33731467,-0.19964242,0.91997921,0
-2.6568754,0.30146384,-2.3503513,-0.93768209,-0.15792599,0.30953443,0
1.0673563,0.63838601,-2.3102462,0.93816376,0.15215133,-0.31096417,0
0.97361112,-0.049500465,5.0130348,0.33731467,-0.19964242,0.91997921,0
-1.4450986,0.46657324,-4.7351098,-0.33731467,0.19964242,-0.91997921,0
-0.21426743,-1.1986785,4.518034,-0.93644112,-0.17125192,0.30618751,0
-1.0370407,0.63262069,1.6151304,-0.7914319,0.46903884,0.39196712,0
-3.1646445,1.2863913,-3.9956274,-0.33731467,0.19964242,-0.91997921,0
-1.1099434,-1.1610451,0.9756285,-0.76641697,-0.62571096,0.14522636,0
-1.2508607,1.4598355,-4.6118932,-0.33731467,0.19964242,-0.91997921,0
2.83464,-1.5927815,4.0799718,0.33731467,-0.19964242,0.91997921,0
1.7380433,-2.5066028,3.3660049,0.21293157,-0.93574697,-0.28113648,0
2.7471027,-1.0529094,4.1231847,0.33731467,-0.19964242,0.91997921,0
-2.157326,1.6250944,-4.2134242,-0.33731467,0.19964242,-0.91997921,0
0.87026775,-1.9849501,4.7125559,0.33731467,-0.19964242,0.91997921,0
-2.7421119,1.9844499,-3.4888155,-0.67720228,0.62737513,0.38444445,0
-2.2811778,-0.49675632,-2.6728516,-0.7005676,-0.70601743,0.10365534,0
0.21998608,1.8026514,-0.62961006,0.34755576,0.93462396,0.075387418,0
-0.14366806,1.2575812,1.6478205,-0.36454993,0.87330395,0.32317743,0
-2.532795,2.3441043,-3.6569631,-0.55565584,0.74663681,0.36575961,0
0.81583261,-1.1481371,4.9714861,0.33731467,-0.19964242,0.91997921,0
1.0017079,-1.1802665,-0.76333362,0.56904078,-0.73526943,-0.36820039,0
-0.48122731,-1.6520305,2.04108,-0.67016435,-0.73724484,0.085731268,0
-1.2303625,2.6545396,-4.1561413,0.24502423,0.96219075,0.11896324,0
2.8343921,-0.95826864,4.2779107,0.33731467,-0.19964242,0.91997921,0
1.4899375,0.97232103,3.169733,0.21343476,0.96802443,0.13181168,0
2.2564898,-1.7225647,4.3084259,0.33731467,-0.19964242,0.91997921,0
-3.0115469,-0.0053958893,-4.2514,-0.78736621,-0.595505,0.15946233,0
-1.9322704,1.7402391,-4.4153504,-0.33731467,0.19964242,-0.91997921,0
0.67619467,0.87343431,3.4747815,-0.22989988,0.93019485,0.28615314,0
1.6396453,-0.96452814,0.18738928,0.81262988,-0.43159193,-0.39161325,0
-2.0608392,2.259655,-4.080934,-0.33731467,0.19964242,-0.91997921,0
2.0394504,0.090023518,4.7326398,0.33731467,-0.19964242,0.91997921,0
-1.5060699,-0.47616702,0.81129408,-0.93477362,-0.18670844,0.30222207,0
-1.5753183,-0.97341931,-0.04754746,-0.78074229,-0.60534954,0.15489745,0
0.49963832,-0.48450112,-3.0402913,0.73326093,-0.55715001,-0.38975924,0
-1.8025398,0.75547135,-0.25873113,-0.84391659,0.36892503,0.38948548,0
-2.2415493,-0.372715,-4.6829433,-0.33731467,0.19964242,-0.91997921,0
2.9190872,0.012807846,4.2937613,0.33731467,-0.19964242,0.91997921,0
1.5113926,0.24629733,-0.66605902,0.93944913,0.13413961,-0.31534415,0
-0.19716063,1.8836308,-4.7153912,0.79495764,0.58385968,-0.16477299,0
-2.9256544,1.3148718,-3.0816555,-0.87235498,0.30104941,0.38518304,0
-0.91550958,-1.2040703,-2.4577465,-0.055418789,-0.97977054,-0.192298,0
-1.6077937,0.43863106,0.69163036,-0.88189155,0.2749064,0.38300639,0
-0.31517059,1.3810625,-4.9389291,-0.33731467,0.19964242,-0.91997921,0
-0.0006005764,-1.9255414,1.5166392,-0.38782054,-0.91994345,-0.057438433,0
2.9808812,-1.6405983,3.4145024,0.79604298,-0.46118197,-0.39195275,0
1.8687525,-0.42825842,4.6494145,0.33731467,-0.19964242,0.91997921,0
2.334322,-1.0333753,4.299448,0.33731467,-0.19964242,0.91997921,0
-2.8545935,1.5049381,-4.0692482,-0.33731467,0.19964242,-0.91997921,0
-1.2494992,-0.6962328,-4.9247909,0.25267315,-0.92219508,-0.29276702,0
-1.0114596,1.4349008,-4.7340174,-0.33731467,0.19964242,-0.91997921,0
1.1999217,-2.5774107,4.084877,-0.26464808,-0.95795304,-0.11084861,0
-2.5252719,0.43466949,-4.4604039,-0.33731467,0.19964242,-0.91997921,0
-0.1462567,-1.1988873,4.3114753,-0.92697227,-0.24082941,0.28761691,0
1.9011977,-2.5714998,3.5567253,0.22910899,-0.93046141,-0.28592092,0
2.3425119,-0.15166998,4.5816107,0.33731467,-0.19964242,0.91997921,0
0.40596166,1.1159663,-3.7636039,0.91827464,0.28501844,-0.27483851,0
1.0031946,0.99535298,3.93435,-0.14572066,0.95440221,0.26054159,0
0.17221403,1.2288007,2.3686178,-0.27955818,0.91192627,0.30039611,0
-0.65451288,0.45219421,-5.1157393,-0.33731467,0.19964242,-0.91997921,0
3.363137,-0.58386993,4.0774345,0.92183959,0.26818842,-0.27979785,0
-1.3362411,-1.1782136,-2.8524044,-0.23223367,-0.9646982,-0.12419713,0
-2.0877488,0.26824236,-4.6809721,-0.33731467,0.19964242,-0.91997921,0
0.62567616,0.72443795,4.0583668,-0.36596298,0.87257898,0.32353818,0
-2.6857119,-0.17453575,-2.6237547,-0.85040963,-0.48376274,0.20682651,0
3.2010198,-1.3364668,3.6501901,0.88594073,-0.26312566,-0.38193452,0
2.1158729,-0.96755314,4.470789,0.33731467,-0.19964242,0.91997921,0
-2.7673995,-0.48857737,-4.3789835,-0.63160592,-0.7726509,0.063910186,0
1.2918985,-2.2184832,1.8328468,0.21041197,-0.93654203,-0.2803852,0
2.5497825,0.57765722,4.3150086,0.53907573,0.84212536,-0.014907062,0
-1.0189914,1.606697,-0.020631,-0.39118683,0.85915989,0.3298746,0
1.1912427,-0.04653883,5.066515,0.33731467,-0.19964242,0.91997921,0
1.3511977,-0.46633625,4.8923812,0.33731467,-0.19964242,0.91997921,0
0.57801199,-0.85080659,-1.9900256,0.60736763,-0.700499,-0.3747077,0
0.79243517,-2.2732873,4.6673293,0.33731467,-0.19964242,0.91997921,0
-0.90769362,1.4056623,0.31696245,-0.50849891,0.7837826,0.35653013,0
1.0975549,-0.58303738,4.8990812,0.33731467,-0.19964242,0.91997921,0
2.7573233,0.19998646,4.3927908,0.33731467,-0.19964242,0.91997921,0
1.5503341,0.72365904,5.0618382,0.33731467,-0.19964242,0.91997921,0
0.25080743,-1.3491759,5.122684,0.33731467,-0.19964242,0.91997921,0
-1.9836466,-0.58481026,-4.8134232,-0.33731467,0.19964242,-0.91997921,0
-2.1070538,0.1355648,-0.90654236,-0.94139105,-0.072974682,0.32932931,0
-2.9650488,0.48670197,-4.2891645,-0.33731467,0.19964242,-0.91997921,0
-0.76501614,2.0304842,-4.744647,-0.33731467,0.19964242,-0.91997921,0
-1.3095101,-1.1305529,-2.8741419,-0.2251412,-0.96600306,-0.12708086,0
-1.5786734,0.60909748,-4.7172866,-0.33731467,0.19964242,-0.91997921,0
-0.20504105,1.5699294,0.89759982,-0.23981643,0.92678922,0.28904998,0
-1.5558338,1.8922677,-1.5916557,-0.41453427,0.84590852,0.3355594,0
-1.5179626,-0.17381722,1.0267781,-0.94139147,-0.072471902,0.32943857,0
-0.59155273,-1.7137947,2.1239572,-0.69229221,-0.71483445,0.098707795,0
1.4499091,-0.14186782,-0.79887414,0.92522532,-0.11002667,-0.36311477,0
-2.6441894,-0.49376392,-3.9972091,-0.65545392,-0.7512694,0.077294171,0
-0.42329663,-1.3237994,3.4783783,-0.88683879,-0.39522961,0.2393958,0
1.5801746,-1.5979939,4.6074471,0.33731467,-0.19964242,0.91997921,0
2.9173088,-1.2866745,4.1057405,0.33731467,-0.19964242,0.91997921,0
-2.7759905,-0.22934723,-4.4317527,-0.33731467,0.19964242,-0.91997921,0
0.73755097,-2.0729275,1.5386825,0.071173847,-0.96904874,-0.23638704,0
0.74392784,-1.2474818,-1.0570652,0.48489463,-0.80079788,-0.35156798,0
-0.22331667,-0.2125597,4.1950321,-0.87134868,0.30369067,0.38538724,0
0.33179784,0.21603918,4.8607125,-0.69501477,0.60633498,0.38640964,0
1.8955493,0.62214971,1.1731179,0.80043632,0.57520008,-0.168661,0
-1.7741617,1.450695,-1.1493341,-0.69247508,0.6094023,0.38614404,0
-1.0151657,-1.4357457,0.27599895,-0.61552393,-0.78619152,0.055075347,0
0.15966713,-1.7447853,4.9471846,-0.86911631,-0.44156295,0.22284299,0
-2.415906,0.50078392,-4.490715,-0.33731467,0.19964242,-0.91997921,0
-2.7811382,0.37376118,-4.2760258,-0.33731467,0.19964242,-0.91997921,0
0.71191198,1.66579,-0.55535269,0.45914578,0.88802683,0.024360597,0
-0.73111475,-1.7140174,0.71884227,-0.53764105,-0.84305459,0.014179409,0
1.8592907,-0.45368958,4.6117916,0.33731467,-0.19964242,0.91997921,0
0.78068751,1.0718029,-3.0336261,0.91571248,0.29628202,-0.27145481,0
0.73786438,1.117003,-2.5715222,0.87481892,0.4274447,-0.22799778,0
-1.406884,0.61204624,-4.689888,-0.33731467,0.19964242,-0.91997921,0
1.1691161,-2.5619392,3.7424278,-0.1914416,-0.97138083,-0.14060396,0
-2.5542226,0.022685051,-4.4200659,-0.33731467,0.19964242,-0.91997921,0
-0.11864537,2.115732,-3.4248502,0.58029574,0.81360036,-0.036210835,0
-1.731572,0.97962689,0.020686507,-0.79666638,0.46010774,0.39194828,0
2.0635562,0.46089894,1.1512351,0.8744725,0.42832199,-0.22768033,0
-3.0922635,1.4710746,-3.5242033,-0.88800603,0.25693926,0.38134933,0
0.36668235,-0.34443426,5.2716908,0.33731467,-0.19964242,0.91997921,0
-1.6139905,2.483017,-4.342845,-0.33731467,0.19964242,-0.91997921,0
0.60670614,-0.84561205,5.0278902,0.33731467,-0.19964242,0.91997921,0
-1.5687815,-0.28991422,0.61167002,-0.93966275,-0.13060862,0.31618863,0
-0.36406457,2.1576071,-2.7488236,0.45355707,0.89081776,0.027015269,0
1.4212459,-0.12066084,-1.0465969,0.92020363,-0.13624619,-0.36696339,0
-2.1092443,-0.14342129,-0.86887079,-0.93056226,-0.2185183,0.2937749,0
0.63905609,-1.1419765,-1.6251061,0.56349552,-0.74002528,-0.36719927,0
-1.0375243,1.8540392,-4.571341,-0.33731467,0.19964242,-0.91997921,0
1.0767571,-2.5006747,4.4745898,0.33731467,-0.19964242,0.91997921,0
2.1436002,-0.43613195,4.6204429,0.33731467,-0.19964242,0.91997921,0
1.8628567,-0.23895168,0.19438958,0.93757516,-0.01666598,-0.34738302,0
-1.895483,-0.36184502,-4.8343329,-0.33731467,0.19964242,-0.91997921,0
-1.4171131,-1.1409384,0.17331588,-0.78789234,-0.59471065,0.15982771,0
1.2733512,0.11990452,4.919528,0.33731467,-0.19964242,0.91997921,0
-1.2575221,-0.60132504,-5.0676079,-0.33731467,0.19964242,-0.91997921,0
0.01768291,1.7619259,0.38510197,0.028962493,0.9789924,0.20182946,0
-2.0717671,-0.69362688,-4.8083053,-0.33731467,0.19964242,-0.91997921,0
-0.55965889,1.2616134,1.1188517,-0.43306512,0.83480132,0.33994347,0
-0.9993062,-0.89330363,-4.0618281,0.14817256,-0.95381367,-0.26131284,0
-0.97822803,1.3963413,-4.7299685,-0.33731467,0.19964242,-0.91997921,0
0.79623783,0.094006062,-3.0409701,0.90356219,-0.20558976,-0.37590981,0
0.37603927,-1.4435616,5.0856495,0.33731467,-0.19964242,0.91997921,0
-2.4322689,1.8278508,-4.2210293,-0.33731467,0.19964242,-0.91997921,0
2.537425,-0.79626465,4.224247,0.33731467,-0.19964242,0.91997921,0
-0.96455586,0.75897789,-4.865015,-0.33731467,0.19964242,-0.91997921,0
-0.84377199,0.9974823,-4.9368224,-0.33731467,0.19964242,-0.91997921,0
1.6429006,0.39736462,4.9870057,0.33731467,-0.19964242,0.91997921,0
-2.4805582,0.59166098,-4.4969044,-0.33731467,0.19964242,-0.91997921,0
1.0386716,-1.4333646,-0.19826238,0.5139035,-0.77974361,-0.35763535,0
-0.12460542,-0.82285881,-3.1118777,0.52336478,-0.77254087,-0.3595413,0
0.38702947,-1.7731109,4.9988737,0.33731467,-0.19964242,0.91997921,0
-0.70302391,0.11676931,-5.2194667,-0.33731467,0.19964242,-0.91997921,0
0.29346323,-0.69285524,-2.9040194,0.67403752,-0.63100153,-0.38407105,0
1.9295853,-1.3710761,4.4253349,0.33731467,-0.19964242,0.91997921,0
2.6205933,-2.0565963,4.1238961,0.33731467,-0.19964242,0.91997921,0
-0.1821202,-1.3272824,4.5007229,-0.93224978,-0.20670474,0.29695719,0
0.38660449,-1.9920506,4.925097,0.33731467,-0.19964242,0.91997921,0
1.1768616,-2.6443524,4.4729238,0.33731467,-0.19964242,0.91997921,0
2.367389,0.29375613,1.9112672,0.87772131,0.41999075,-0.23067945,0
-0.64318991,1.020462,1.5970043,-0.5863378,0.71999818,0.37122846,0
0.62071782,-1.9718099,4.7193918,0.33731467,-0.19964242,0.91997921,0
-1.3771781,-0.067887068,1.3235247,-0.92890853,0.088034526,0.35969287,0
1.5159166,-2.4931808,3.4911368,0.052750349,-0.97171032,-0.23020959,0
1.094707,-0.69882441,4.8743448,0.33731467,-0.19964242,0.91997921,0
-0.56904632,0.58242226,-5.1025553,-0.33731467,0.19964242,-0.91997921,0
1.69242,0.68298334,0.015660882,0.8630448,0.45590031,-0.21750551,0
0.85875142,-1.0087111,-1.4151388,0.67841578,-0.62597585,-0.38458574,0
-2.1470776,-0.36583519,-4.71665,-0.33731467,0.19964242,-0.91997921,0
1.6424925,-0.52972776,-0.69947392,0.87170225,-0.30276513,-0.38531595,0
-0.83798862,2.406157,-3.7292709,0.33716664,0.93804502,0.079939127,0
1.7893637,0.20541906,4.7648749,0.33731467,-0.19964242,0.91997921,0
-0.038018107,-2.0014668,2.0513973,-0.43630099,-0.89911425,-0.03514272,0
-1.5785464,0.75197792,-4.7213087,-0.33731467,0.19964242,-0.91997921,0
-0.25843635,0.8444376,-5.049089,-0.33731467,0.19964242,-0.91997921,0
-1.9519391,1.730612,-1.7723677,-0.62821817,0.68008554,0.37792277,0
1.6994126,-0.55004615,-0.23144829,0.86684465,-0.31526649,-0.38624781,0
-2.1012986,-0.44817972,-4.7897348,-0.33731467,0.19964242,-0.91997921,0
-2.2300572,0.29471302,-4.6154022,-0.33731467,0.19964242,-0.91997921,0
1.0646975,1.414713,-1.0058664,0.71389967,0.6912747,-0.11174285,0
1.5666699,0.61645144,-0.09224236,0.89171886,0.38101083,-0.24427074,0
-2.7304702,1.5647721,-4.1453924,-0.33731467,0.19964242,-0.91997921,0
-1.3153987,-1.0455351,-3.9326346,-0.01147747,-0.97805363,-0.20803669,0
2.7976573,-0.26678634,2.483634,0.9354369,0.1808285,-0.30374116,0
0.47699487,-1.3987982,-0.99300534,0.34034431,-0.88528979,-0.31690335,0
-2.5815349,0.55279255,-4.3974671,-0.33731467,0.19964242,-0.91997921,0
-1.5864686,2.4305429,-4.2775984,-0.33731467,0.19964242,-0.91997921,0
1.1053047,-1.4600374,-0.34979752,0.54078853,-0.75882328,-0.36295298,0
2.2661138,0.64696443,2.2795556,0.72146451,0.68259805,-0.11639953,0
-1.1382138,1.5828555,-0.19627264,-0.52268064,0.77306747,0.35940468,0
-1.7459916,1.172452,-4.453681,-0.33731467,0.19964242,-0.91997921,0
-0.38916028,-0.14600134,3.8841615,-0.85845953,0.33583468,0.38763687,0
-0.48217204,-1.0176861,3.3491611,-0.92502618,-0.25172153,0.2845397,0
1.0953354,-0.76896143,4.7589812,0.33731467,-0.19964242,0.91997921,0
-1.2031736,0.24876308,-4.9545379,-0.33731467,0.19964242,-0.91997921,0
-2.9010477,1.090517,-4.1044354,-0.33731467,0.19964242,-0.91997921,0
-0.2804606,0.65089822,3.2175055,-0.62710476,0.68120408,0.37775728,0
0.43272662,-2.1641178,4.1154866,-0.64474887,-0.76106733,0.071242929,0
0.11256504,-0.90182185,-2.7659392,0.48626804,-0.79983521,-0.35186261,0
2.7781076,-1.5330269,2.9306066,0.80047154,-0.45349061,-0.39190751,0
1.7138947,-0.88732946,-0.14105904,0.81271726,-0.43143022,-0.39161015,0
-2.5112162,2.348774,-4.0188198,-0.51448381,0.77930671,0.35775328,0
-2.4832525,-0.10791302,-4.4729605,-0.33731467,0.19964242,-0.91997921,0
1.3017535,-0.74199867,4.7547307,0.33731467,-0.19964242,0.91997921,0
-0.14019555,-2.0284746,2.731019,-0.6126647,-0.78852886,0.053519726,0
2.3583856,0.087656498,4.6883326,0.33731467,-0.19964242,0.91997921,0
1.445523,-2.3552594,4.3750086,0.33731467,-0.19964242,0.91997921,0
2.5721068,0.091219425,2.0715644,0.89831215,0.36050665,-0.25113773,0
-1.3784062,2.3072939,-4.4712706,-0.33731467,0.19964242,-0.91997921,0
1.8028952,0.47427624,-0.083703279,0.90560937,0.33569017,-0.25919867,0
0.99954879,1.3722358,2.112395,0.14777434,0.97636795,0.15769702,0
-2.0585856,1.0538979,-4.3965464,-0.33731467,0.19964242,-0.91997921,0
-1.1707731,0.049906731,1.7663546,-0.90106326,0.21450105,0.37692738,0
-0.28696811,2.2312193,-3.3197432,0.53182495,0.8467797,-0.011238575,0
0.18416631,1.2462481,2.633189,-0.3204602,0.8945381,0.3116197,0
-0.028944254,1.8913413,-0.96132469,0.28478393,0.95310515,0.10241359,0
-0.99406028,1.4354897,-4.7064757,-0.33731467,0.19964242,-0.91997921,0
-1.1188542,2.4273381,-4.407033,-0.33731467,0.19964242,-0.91997921,0
1.3240002,-0.81110096,4.8485689,0.33731467,-0.19964242,0.91997921,0
-1.9245456,1.4027214,-4.452044,-0.33731467,0.19964242,-0.91997921,0
-2.9929144,1.7197466,-3.8280935,-0.80978143,0.43683046,0.39170563,0
-0.47210079,-1.7668457,1.2759074,-0.53552055,-0.84442043,0.013105512,0
2.1016567,-0.38906193,0.32826233,0.92653942,-0.10250235,-0.36196387,0
-1.8379169,-0.32640791,-4.9058981,-0.33731467,0.19964242,-0.91997921,0
1.3570722,-0.2473197,4.9699283,0.33731467,-0.19964242,0.91997921,0
2.3957624,-1.6434073,4.0984921,0.33731467,-0.19964242,0.91997921,0
2.6653571,-2.0309386,4.0199103,0.33731467,-0.19964242,0.91997921,0
0.6538288,1.5987729,-0.30614412,0.44835258,0.89337063,0.029477477,0
2.1475852,-2.407681,3.5809138,0.33061272,-0.88988239,-0.31433186,0
-1.1239412,0.87476063,-4.8359966,-0.33731467,0.19964242,-0.91997921,0
-0.65100121,-1.4531988,-1.5417789,-0.11586303,-0.97862852,-0.16988796,0
-2.8220129,0.64044952,-4.1846457,-0.33731467,0.19964242,-0.91997921,0
1.0858455,-2.0862446,1.821017,0.13232708,-0.95749611,-0.25630212,0
-2.0621748,0.040350676,-0.91793996,-0.93655306,-0.17012519,0.30647308,0
2.5467,-1.0815291,4.2262697,0.33731467,-0.19964242,0.91997921,0
-2.5197735,2.2406645,-3.5334792,-0.5684793,0.73575395,0.36809972,0
1.1809329,-1.8709381,1.3020833,0.30199111,-0.9026581,-0.30660999,0
1.2455223,-0.44080448,4.9373493,0.33731467,-0.19964242,0.91997921,0
0.57455754,-0.18708038,-3.2688131,0.83693767,-0.38381302,-0.39015743,0
-0.44609094,0.99478871,1.9528986,-0.5158751,0.77825677,0.35803553,0
-0.86050224,1.1781168,0.89396685,-0.5673151,0.73675644,0.36789045,0
2.5713375,-2.0643258,4.136734,0.33731467,-0.19964242,0.91997921,0
0.21390688,-0.20630026,-3.977025,0.79369789,-0.46519637,-0.39196414,0
-2.8552868,1.5083327,-4.0536633,-0.33731467,0.19964242,-0.91997921,0
-1.8387369,-0.93262327,-1.8773801,-0.61047095,-0.790308,0.052329183,0
0.68270677,1.2355238,2.1848876,0.022762716,0.97869807,0.20403877,0
2.0182807,-0.0092186928,4.7916069,0.33731467,-0.19964242,0.91997921,0
-1.1562399,2.651813,-4.342731,0.33484632,0.93878901,0.080951273,0
-2.2745774,2.3992696,-3.5474117,-0.46231902,0.81615764,0.34662366,0
0.82552373,1.2589731,-1.7742239,0.78964543,0.59205031,-0.16104794,0
-0.77788031,2.373986,-2.5855849,0.15241694,0.97594237,0.15590245,0
-0.29085517,-1.7530342,0.45196521,-0.34869039,-0.93424124,-0.074888408,0
-1.6926595,1.7036877,-4.3495855,-0.33731467,0.19964242,-0.91997921,0
1.0560203,-1.1652155,4.7129927,0.33731467,-0.19964242,0.91997921,0
-2.8174093,-0.30716467,-4.5630679,-0.33731467,0.19964242,-0.91997921,0
2.7241025,-1.4123931,4.1766286,0.33731467,-0.19964242,0.91997921,0
-1.3646071,0.43137646,-4.8722205,-0.33731467,0.19964242,-0.91997921,0
1.7259935,0.14942233,-0.20563841,0.93805271,0.15351975,-0.31062651,0
-1.3117239,-1.2053725,-2.5302117,-0.22033435,-0.96685296,-0.12902778,0
0.42087668,1.2088897,-3.5852261,0.89394408,0.37426889,-0.24654967,0
0.33401686,-1.9864531,4.849227,0.33731467,-0.19964242,0.91997921,0
-0.31624722,2.1785791,-2.722461,0.42428043,0.90461391,0.040743589,0
-1.7435839,2.326961,-2.8804419,-0.29805064,0.90433288,0.30552867,0
-1.2106215,-1.0617836,-2.9410205,-0.16364104,-0.9748112,-0.15154153,0
3.072217,-0.13493681,4.2881408,0.33731467,-0.19964242,0.91997921,0
0.32900774,-0.65898991,5.1439986,0.33731467,-0.19964242,0.91997921,0
-1.8615978,1.9349365,-4.4141917,-0.33731467,0.19964242,-0.91997921,0
1.3330851,-0.080151558,4.902204,0.33731467,-0.19964242,0.91997921,0
-3.3991165,0.74274588,-3.9956605,-0.93925375,-0.13719961,0.31460851,0
-1.362529,-1.1070715,-2.5949588,-0.25970295,-0.95906585,-0.11290318,0
1.764232,1.04023,1.3670731,0.64571971,0.76019245,-0.071788788,0
-1.1128303,1.9143872,-4.610599,-0.33731467,0.19964242,-0.91997921,0
0.57878703,0.73601079,4.2433033,-0.43209761,0.83539432,0.33971745,0
0.97068989,-1.7294507,4.653862,0.33731467,-0.19964242,0.91997921,0
-2.0127432,0.90304899,-4.4905186,-0.33731467,0.19964242,-0.91997921,0
-0.55197883,0.14559937,-5.172997,-0.33731467,0.19964242,-0.91997921,0
-0.28105867,-1.0460415,4.0722566,-0.93859613,-0.1465836,0.3123309,0
-0.039453983,-1.0400017,-2.403048,0.37338424,-0.86872548,-0.325423,0
-0.43297106,-1.7615759,1.4845332,-0.57371116,-0.81840253,0.032754421,0
2.1458001,-2.44976,4.0100646,0.33731467,-0.19964242,0.91997921,0
3.1225266,-0.62231922,4.1118631,0.33731467,-0.19964242,0.91997921,0
-0.65305132,1.2644439,-4.8490205,-0.33731467,0.19964242,-0.91997921,0
2.3648775,0.50005245,4.5945606,0.33731467,-0.19964242,0.91997921,0
-1.072987,-1.3245921,-0.49112701,-0.510876,-0.85965407,0.00076377392,0
2.3398397,-1.9382091,4.0925446,0.33731467,-0.19964242,0.91997921,0
-1.5648081,-0.50272179,-4.9695287,-0.33731467,0.19964242,-0.91997921,0
0.056826532,0.34267282,-4.6184926,0.89023244,-0.25012684,-0.3806873,0
0.70825845,-1.9207211,4.6868072,0.33731467,-0.19964242,0.91997921,0
-2.5733666,-0.62871242,-4.2863674,-0.54058605,-0.84114271,0.015674174,0
-1.6840966,-0.25424099,-4.9287395,-0.33731467,0.19964242,-0.91997921,0
2.1089427,-1.8080065,2.3616259,0.63939857,-0.66866708,-0.3795442,0
-1.6981498,-0.21925735,-4.7897692,-0.33731467,0.19964242,-0.91997921,0
0.43964458,1.6894796,-0.98423135,0.51663578,0.8561976,-0.0036256313,0
1.3482014,-2.0723968,4.5669918,0.33731467,-0.19964242,0.91997921,0
-2.5647008,1.564523,-2.6968215,-0.79927838,0.45557731,0.39192286,0
2.4711463,-0.1276226,4.4279871,0.33731467,-0.19964242,0.91997921,0
-0.12605727,1.5234029,0.90454978,-0.22320545,0.93242669,0.28418285,0
-2.5544081,-0.38969707,-4.6149807,-0.33731467,0.19964242,-0.91997921,0
2.524385,-1.314817,4.1840639,0.33731467,-0.19964242,0.91997921,0
-2.8007672,1.3675859,-2.9974341,-0.83482826,0.38820043,0.39033604,0
1.5886366,-0.045989513,4.8455472,0.33731467,-0.19964242,0.91997921,0
2.4022779,-0.16359997,4.6231909,0.33731467,-0.19964242,0.91997921,0
0.46924591,0.42035937,-3.7610278,0.92322904,-0.12088548,-0.3647393,0
-1.0863882,0.68228912,-4.7860055,-0.33731467,0.19964242,-0.91997921,0
-2.4173799,0.89647675,-4.291213,-0.33731467,0.19964242,-0.91997921,0
-1.1499966,1.6020889,-4.5846334,-0.33731467,0.19964242,-0.91997921,0
0.95819199,-2.4551499,2.6030753,-0.074670553,-0.97984916,-0.1852563,0
2.4207959,0.40598869,4.7082586,0.33731467,-0.19964242,0.91997921,0
1.6887465,-2.5538597,4.2065396,0.33731467,-0.19964242,0.91997921,0
-1.1186895,1.1265416,-4.8415475,-0.33731467,0.19964242,-0.91997921,0
1.4498708,0.375772,4.8949084,0.33731467,-0.19964242,0.91997921,0
-0.87970054,1.1034803,1.2497365,-0.62042153,0.68784964,0.37674898,0
1.1923527,-2.4286547,4.5199523,0.33731467,-0.19964242,0.91997921,0
0.40567505,-0.83174849,-2.699409,0.60911906,-0.69882673,-0.37498698,0
0.86220777,-1.4894247,4.9022307,0.33731467,-0.19964242,0.91997921,0
-1.9697206,-0.78034735,-3.2465367,-0.46504027,-0.88502729,-0.021548331,0
-2.8197908,-0.27488565,-4.5664315,-0.33731467,0.19964242,-0.91997921,0
0.98391187,-0.34041262,5.032548,0.33731467,-0.19964242,0.91997921,0
3.0228658,-0.56703711,4.2515364,0.33731467,-0.19964242,0.91997921,0
