-0.19518816,-1.6799678,0.6517756,-0.26570326,-0.94127566,0.20833176,0
-0.55378675,1.7043746,0.45721412,-0.29083967,0.92327744,0.25094035,0
-0.75121027,0.7260505,0.10894203,-0.63663322,0.0090389252,-0.77111387,0
1.3252635,0.76579005,-0.95709062,0.69302344,0.44530377,-0.56694186,0
-0.083366156,1.1633329,0.72664148,0.63663322,-0.0090389252,0.77111387,0
1.5266213,0.4976292,-0.72240162,0.63663322,-0.0090389252,0.77111387,0
-0.36815119,1.2879848,0.94076633,0.63663322,-0.0090389252,0.77111387,0
-1.1473908,1.1639988,0.63275415,-0.55012453,0.69542003,0.46233559,0
-0.07787621,1.6513131,0.25744814,-0.070655107,0.99504197,0.069996633,0
1.6765575,0.25497353,-0.66246319,0.76368785,0.14631343,-0.62878728,0
0.27482462,-0.43040764,-0.96789026,-0.63663322,0.0090389252,-0.77111387,0
0.42506427,-0.75857246,-1.0939333,-0.63663322,0.0090389252,-0.77111387,0
0.52342331,-0.31017271,0.15871887,0.63663322,-0.0090389252,0.77111387,0
-0.053815007,-1.6017418,-0.67540681,-0.63663322,0.0090389252,-0.77111387,0
-0.65837824,-1.491703,-0.012612224,-0.63663322,0.0090389252,-0.77111387,0
-1.1786793,-0.036971688,0.2314285,-0.63663322,0.0090389252,-0.77111387,0
1.3976884,0.48610491,-0.59851122,0.63663322,-0.0090389252,0.77111387,0
1.2467139,-0.2403505,-0.42074907,0.63663322,-0.0090389252,0.77111387,0
-0.88023001,-1.2396135,0.80893612,-0.5455938,-0.71195287,0.44209802,0
-0.22573118,-0.39098075,-0.41326976,-0.63663322,0.0090389252,-0.77111387,0
-0.46834594,0.049774855,-0.23533636,-0.63663322,0.0090389252,-0.77111387,0
0.26519668,-0.94814706,-0.95992094,-0.63663322,0.0090389252,-0.77111387,0
-0.98630619,-0.30699164,1.4282827,0.63663322,-0.0090389252,0.77111387,0
-0.060940027,-1.3500153,0.73502398,0.63663322,-0.0090389252,0.77111387,0
-1.1684434,-0.5096221,0.42848325,-0.63663322,0.0090389252,-0.77111387,0
-0.50724626,1.2611547,1.0139325,0.63663322,-0.0090389252,0.77111387,0
0.084645331,0.021472335,0.6592195,0.63663322,-0.0090389252,0.77111387,0
-0.47452873,-1.6678634,0.48895466,-0.29563677,-0.92639506,0.23321933,0
-0.75142348,-1.4352026,-0.08789134,-0.63663322,0.0090389252,-0.77111387,0
0.23679304,-1.8683431,0.46020788,-0.03216821,-0.9993723,0.014843702,0
-1.0344409,1.1321906,0.15620142,-0.63663322,0.0090389252,-0.77111387,0
1.3880973,0.32217568,-0.51532614,0.63663322,-0.0090389252,0.77111387,0
-0.22115159,0.81810737,-0.46254894,-0.63663322,0.0090389252,-0.77111387,0
0.25435138,1.2595201,-0.91433501,-0.63663322,0.0090389252,-0.77111387,0
-0.63004339,-1.1443237,-0.16829276,-0.63663322,0.0090389252,-0.77111387,0
-0.21472585,1.762201,0.57757169,-0.23261189,0.95110679,0.20319358,0
0.71250105,1.4338923,-0.73284018,0.4464308,0.81966025,-0.35896629,0
-1.4127444,0.71711057,0.64976847,-0.63663322,0.0090389252,-0.77111387,0
-0.61437309,-0.52092546,-0.037853301,-0.63663322,0.0090389252,-0.77111387,0
1.0002816,-0.24449575,-1.4790819,0.75992006,-0.16279903,-0.62929988,0
-0.91140002,-1.6021956,0.12730753,-0.29979199,-0.92418039,0.23667574,0
0.82239938,-1.5929193,-0.17425779,0.33799577,-0.89550072,-0.28954685,0
-0.95637488,0.7395516,1.3881023,-0.71114796,0.37987402,0.59157807,0
0.80131865,-0.19870591,-0.018219948,0.63663322,-0.0090389252,0.77111387,0
0.67596233,0.76407433,0.072563946,0.63663322,-0.0090389252,0.77111387,0
-0.074474186,-0.53052235,-0.51177901,-0.63663322,0.0090389252,-0.77111387,0
0.16470689,1.0673999,-0.68397146,-0.63663322,0.0090389252,-0.77111387,0
-1.3689792,-0.68507481,0.8647064,-0.6962359,-0.43669617,0.569695,0
0.29077429,-0.40243801,0.31882644,0.63663322,-0.0090389252,0.77111387,0
0.27028024,1.5352986,-0.77741075,0.32735854,0.90853459,-0.25961828,0
1.4078991,0.064685836,-0.42183256,0.63663322,-0.0090389252,0.77111387,0
-0.59714466,0.4716132,1.0890617,0.63663322,-0.0090389252,0.77111387,0
-0.27851185,0.33101964,0.97731113,0.63663322,-0.0090389252,0.77111387,0
0.88104582,1.5111778,0.063965797,0.63663322,-0.0090389252,0.77111387,0
-0.18126416,-1.2753056,-0.56020063,-0.63663322,0.0090389252,-0.77111387,0
-0.91808009,-0.90879655,0.019947171,-0.63663322,0.0090389252,-0.77111387,0
1.1754671,0.75499099,-0.30084455,0.63663322,-0.0090389252,0.77111387,0
-0.7118293,0.56036055,-0.10698023,-0.63663322,0.0090389252,-0.77111387,0
-0.051385403,0.34736365,-0.62503129,-0.63663322,0.0090389252,-0.77111387,0
0.042455077,-0.59818184,0.71838713,0.63663322,-0.0090389252,0.77111387,0
0.96572083,-0.051109552,-1.5020926,-0.63663322,0.0090389252,-0.77111387,0
0.31253755,-0.7550357,-0.92151058,-0.63663322,0.0090389252,-0.77111387,0
0.66927922,-1.4683499,-0.43740654,0.35847563,-0.88186085,-0.30629528,0
0.89521348,-0.18238646,-1.398255,-0.63663322,0.0090389252,-0.77111387,0
0.013395011,0.9479059,0.72600263,0.63663322,-0.0090389252,0.77111387,0
-0.30576003,1.3412765,-0.28932571,-0.63663322,0.0090389252,-0.77111387,0
-0.098329425,-0.67740875,-0.5304594,-0.63663322,0.0090389252,-0.77111387,0
0.35034204,0.45552862,-0.841097,-0.63663322,0.0090389252,-0.77111387,0
-1.214255,-0.77075619,0.23980737,-0.63663322,0.0090389252,-0.77111387,0
-0.93133903,0.55940497,0.026822031,-0.63663322,0.0090389252,-0.77111387,0
0.19567513,1.3831112,0.42457411,0.63663322,-0.0090389252,0.77111387,0
-0.53860915,-0.18577582,-0.26814842,-0.63663322,0.0090389252,-0.77111387,0
0.8608433,0.10110217,-1.425822,-0.63663322,0.0090389252,-0.77111387,0
-0.28330588,1.6131008,0.26702389,-0.141011,0.98170811,0.12792641,0
-0.060020328,1.1821711,0.58779436,0.63663322,-0.0090389252,0.77111387,0
-1.43023,0.29492691,0.50735343,-0.63663322,0.0090389252,-0.77111387,0
-1.5737722,0.17600615,0.63603508,-0.63663322,0.0090389252,-0.77111387,0
0.17620277,-0.33455348,0.50096524,0.63663322,-0.0090389252,0.77111387,0
0.95770681,-0.71235013,-0.13892937,0.63663322,-0.0090389252,0.77111387,0
0.17940713,0.16986606,0.54880297,0.63663322,-0.0090389252,0.77111387,0
-1.5830243,0.3409436,0.76362133,-0.76316738,0.13626763,0.63166994,0
-1.3782411,0.9739989,0.68618143,-0.63558245,0.56013483,0.53130406,0
-0.92042947,-0.84082991,1.1958854,-0.6823585,-0.47246766,0.55781841,0
0.15099823,0.07058239,0.64963698,0.63663322,-0.0090389252,0.77111387,0
-0.82564986,0.91535997,0.083494484,-0.63663322,0.0090389252,-0.77111387,0
-0.76399326,1.6696016,0.16162166,-0.32291031,0.90492415,0.27720279,0
-1.0372746,-0.81327868,0.31017709,-0.63663322,0.0090389252,-0.77111387,0
0.73237658,-0.17588872,-1.337772,-0.63663322,0.0090389252,-0.77111387,0
-0.66049838,1.2924038,-0.21092153,-0.63663322,0.0090389252,-0.77111387,0
0.58339262,-1.325368,-1.0737047,0.49926716,-0.75725192,-0.42107245,0
0.49335778,-0.46130121,0.14467072,0.63663322,-0.0090389252,0.77111387,0
1.04711,-1.0076773,-0.1692124,0.63663322,-0.0090389252,0.77111387,0
-1.0228376,1.3162318,0.26352096,-0.63663322,0.0090389252,-0.77111387,0
-1.4041855,0.57172871,0.61578894,-0.63663322,0.0090389252,-0.77111387,0
0.71084023,1.6195303,-0.48232317,0.3521834,0.89297312,-0.28029609,0
-1.5938728,0.060215637,0.68005764,-0.63663322,0.0090389252,-0.77111387,0
-0.96500444,0.024700582,1.3687264,0.63663322,-0.0090389252,0.77111387,0
-0.24495506,1.4690958,-0.37744403,-0.63663322,0.0090389252,-0.77111387,0
-0.12699556,0.9760015,0.8762511,0.63663322,-0.0090389252,0.77111387,0
-0.65694606,0.8424744,1.2730525,0.63663322,-0.0090389252,0.77111387,0
-0.26762116,1.036658,0.87500775,0.63663322,-0.0090389252,0.77111387,0
-1.5136664,0.37345111,0.94150686,-0.75707603,0.18295114,0.62718815,0
-0.81581736,1.0852176,1.3096313,-0.61663169,0.59451377,0.51606119,0
0.23050447,0.45532018,-0.7590878,-0.63663322,0.0090389252,-0.77111387,0
-0.83464468,1.2425463,0.93752497,-0.5326221,0.71796632,0.4481498,0
-1.4276806,-0.36727172,1.0028738,-0.75220251,-0.22766899,0.61835134,0
-0.055283457,-0.18786782,0.64029932,0.63663322,-0.0090389252,0.77111387,0
-0.52952516,-1.6274083,-0.10619402,-0.63663322,0.0090389252,-0.77111387,0
-0.46598181,-0.40759003,1.1176196,0.63663322,-0.0090389252,0.77111387,0
-0.6474123,1.7012807,0.18430062,-0.25296795,0.94215381,0.21989462,0
0.04954803,-1.5798697,0.47853631,0.63663322,-0.0090389252,0.77111387,0
-0.64147806,0.95898402,-0.1434076,-0.63663322,0.0090389252,-0.77111387,0
-0.49538302,1.8111641,0.044371545,-0.18888533,0.96764541,0.16728668,0
1.181288,-0.48383248,-1.1659158,0.73380256,-0.30037743,-0.60935003,0
0.99765712,1.3413504,-0.65516376,0.5120213,0.75267416,-0.41390318,0
-1.1485572,-0.40863329,1.3974537,-0.74807531,-0.25010177,0.61468089,0
0.28609794,1.3639967,-0.8099786,-0.63663322,0.0090389252,-0.77111387,0
-0.87336659,1.328313,0.66966492,-0.47302109,0.78515387,0.39973068,0
0.89725435,0.83473885,-1.4115055,0.66943038,0.502877,-0.54678857,0
-0.24000669,-1.3592914,-0.51699597,-0.63663322,0.0090389252,-0.77111387,0
0.95501369,-0.57530677,-0.051322103,0.63663322,-0.0090389252,0.77111387,0
0.40670705,1.3843588,0.26142061,0.63663322,-0.0090389252,0.77111387,0
-0.062088132,-1.335202,-0.72992438,-0.63663322,0.0090389252,-0.77111387,0
0.40083754,-1.6182778,0.25287819,0.041136086,-0.9981097,-0.045661613,0
-0.10280514,1.1608286,-0.62954336,-0.63663322,0.0090389252,-0.77111387,0
0.65641117,-0.32044241,0.15676567,0.63663322,-0.0090389252,0.77111387,0
0.80514604,1.2198822,-1.1273438,0.58592409,0.65579462,-0.47605312,0
-1.2649301,-0.93325657,0.49115419,-0.63663322,0.0090389252,-0.77111387,0
1.420337,-0.6659956,-0.50049114,0.63663322,-0.0090389252,0.77111387,0
-0.22212726,-0.97317034,0.73649353,0.63663322,-0.0090389252,0.77111387,0
-1.0021629,1.4329846,0.2495997,-0.43751323,0.8191942,0.37081429,0
0.91957867,-0.76414168,-0.020274878,0.63663322,-0.0090389252,0.77111387,0
1.5251827,-0.5295577,-0.80699801,0.74724227,-0.23990656,-0.61973703,0
-0.1790006,-0.28217986,-0.54041612,-0.63663322,0.0090389252,-0.77111387,0
-1.4661062,0.19701296,0.60376799,-0.63663322,0.0090389252,-0.77111387,0
-0.9564712,-0.82590437,0.21460831,-0.63663322,0.0090389252,-0.77111387,0
0.33834767,1.5886862,-0.85026896,0.34055382,0.90044153,-0.27060711,0
0.4701491,1.3753175,0.21236026,0.63663322,-0.0090389252,0.77111387,0
-0.80271333,-0.064167961,0.094006062,-0.63663322,0.0090389252,-0.77111387,0
-0.097267509,1.2077746,-0.43399528,-0.63663322,0.0090389252,-0.77111387,0
1.6658635,0.40124893,-0.76520896,0.75377363,0.21846661,-0.61975634,0
0.026697993,-0.42889395,-0.60998267,-0.63663322,0.0090389252,-0.77111387,0
-1.033008,-0.86137474,0.11236238,-0.63663322,0.0090389252,-0.77111387,0
-0.13775969,1.4706647,0.74743068,0.63663322,-0.0090389252,0.77111387,0
1.1669654,-0.96927309,-0.96035194,0.64067483,-0.550354,-0.53539371,0
-1.046512,-1.2201807,0.52463961,-0.55493844,-0.69970173,0.44995666,0
0.66532373,-1.6179466,-0.23195353,0.31994522,-0.90671569,-0.27477586,0
0.38723791,1.5278972,0.27763236,0.63663322,-0.0090389252,0.77111387,0
-0.14735126,1.7990177,-0.22841766,-0.016260087,0.99955177,0.025140867,0
1.2939845,0.87568581,-0.3905462,0.63663322,-0.0090389252,0.77111387,0
-0.7225163,-0.77884221,1.143856,0.63663322,-0.0090389252,0.77111387,0
-1.3738339,0.097802781,0.94248772,-0.76860714,0.073965326,0.63543081,0
1.4015523,-0.1913051,-1.1253175,0.76889932,-0.069183588,-0.635616,0
0.16730535,-0.94710964,-0.72552103,-0.63663322,0.0090389252,-0.77111387,0
1.164601,-1.0593463,-0.3388508,0.63663322,-0.0090389252,0.77111387,0
-0.17368615,1.6779402,-0.42919803,0.066779673,0.99682134,-0.043448895,0
-0.075957566,0.072374344,-0.59555185,-0.63663322,0.0090389252,-0.77111387,0
-0.040914774,-1.6373777,0.68313897,0.63663322,-0.0090389252,0.77111387,0
-0.29672062,1.472819,-0.38083637,-0.63663322,0.0090389252,-0.77111387,0
0.89393526,0.51541919,-1.3553233,-0.63663322,0.0090389252,-0.77111387,0
1.3212187,1.0015521,-0.54815078,0.63663322,-0.0090389252,0.77111387,0
0.77553988,-1.2467511,-1.2489777,0.55380368,-0.69049507,-0.46531528,0
0.66157377,0.51437527,0.036231935,0.63663322,-0.0090389252,0.77111387,0
-0.37384951,0.77718532,-0.34160796,-0.63663322,0.0090389252,-0.77111387,0
1.1656673,-0.4510538,-0.39364338,0.63663322,-0.0090389252,0.77111387,0
0.97037995,0.45024467,-0.084132969,0.63663322,-0.0090389252,0.77111387,0
0.23130655,0.97042257,-0.7891531,-0.63663322,0.0090389252,-0.77111387,0
0.63208807,1.173056,-1.0893714,-0.63663322,0.0090389252,-0.77111387,0
-0.96642768,0.92979634,1.1215554,-0.61724651,0.59344459,0.5165562,0
0.57341343,0.034680933,0.25034356,0.63663322,-0.0090389252,0.77111387,0
-1.1884249,-0.44391459,1.3461734,-0.75335979,-0.22093087,0.61938584,0
1.5022842,-0.43620214,-0.93773139,0.74123675,-0.26870084,-0.61511636,0
-1.2609017,0.43123841,0.50517738,-0.63663322,0.0090389252,-0.77111387,0
-0.72950244,1.7017936,0.17978802,-0.28576517,0.92597878,0.24678251,0
-0.76344073,-1.5507697,0.4926616,-0.42291644,-0.8402437,0.33931142,0
1.2749026,-0.70604646,-0.30117226,0.63663322,-0.0090389252,0.77111387,0
0.9345839,-0.92763424,-0.14365679,0.63663322,-0.0090389252,0.77111387,0
-0.16052854,0.64975464,-0.44071782,-0.63663322,0.0090389252,-0.77111387,0
0.49100292,1.3831849,0.2409766,0.63663322,-0.0090389252,0.77111387,0
1.1856426,1.2590344,-0.50966644,0.55845034,0.69498533,-0.45291138,0
-0.34745455,-1.5891294,0.83007383,0.63663322,-0.0090389252,0.77111387,0
0.043903232,1.2602729,-0.59653604,-0.63663322,0.0090389252,-0.77111387,0
0.30236554,-0.33616513,-0.85761482,-0.63663322,0.0090389252,-0.77111387,0
0.21514773,1.4955978,0.47354841,0.63663322,-0.0090389252,0.77111387,0
1.1922785,0.57834357,-1.030158,0.73357934,0.31547034,-0.60194683,0
-0.15969139,0.7329787,-0.60123682,-0.63663322,0.0090389252,-0.77111387,0
0.15237391,-0.61710143,0.53892064,0.63663322,-0.0090389252,0.77111387,0
0.14428127,0.40881914,0.44387543,0.63663322,-0.0090389252,0.77111387,0
1.3030168,-0.8823663,-0.8970381,0.68666494,-0.44845766,-0.57216883,0
0.4675447,0.74990892,-1.0244007,-0.63663322,0.0090389252,-0.77111387,0
0.95662773,-0.81884748,-0.26370877,0.63663322,-0.0090389252,0.77111387,0
-0.98782086,-1.0715632,0.84641623,-0.58197242,-0.66169685,0.47272146,0
0.56167275,0.84490722,-1.0162065,-0.63663322,0.0090389252,-0.77111387,0
0.76413435,-0.52724504,0.084076315,0.63663322,-0.0090389252,0.77111387,0
1.4954586,-0.83099055,-0.6165396,0.63663322,-0.0090389252,0.77111387,0
1.3239896,1.0480301,-0.67054141,0.62639678,0.58930081,-0.51024693,0
-0.36830533,0.62275195,-0.21659219,-0.63663322,0.0090389252,-0.77111387,0
-0.30891931,-1.1844077,-0.29217654,-0.63663322,0.0090389252,-0.77111387,0
1.2257361,-0.60504794,-0.31215346,0.63663322,-0.0090389252,0.77111387,0
0.33905241,-0.089660466,-0.98329967,-0.63663322,0.0090389252,-0.77111387,0
-0.61611092,1.2068043,-0.19020849,-0.63663322,0.0090389252,-0.77111387,0
0.98909962,-0.19609901,-0.23963851,0.63663322,-0.0090389252,0.77111387,0
-0.35696679,0.72428542,0.94312257,0.63663322,-0.0090389252,0.77111387,0
-0.48110503,-0.18147513,-0.29074562,-0.63663322,0.0090389252,-0.77111387,0
-1.1734763,-1.1213754,0.61671185,-0.58749527,-0.65342152,0.47737807,0
1.5768814,-0.23800294,-0.78087783,0.63663322,-0.0090389252,0.77111387,0
-1.4245512,0.15146467,0.96157396,-0.7656706,0.11176171,0.63344938,0
1.0594418,-0.53379029,-0.2890203,0.63663322,-0.0090389252,0.77111387,0
1.4962525,0.46788442,-0.68955255,0.73129612,0.32443532,-0.59995675,0
0.64082718,0.042067677,0.19461575,0.63663322,-0.0090389252,0.77111387,0
0.10161543,1.6669345,-0.66915774,-0.63663322,0.0090389252,-0.77111387,0
-0.88860536,-0.62484539,0.10173333,-0.63663322,0.0090389252,-0.77111387,0
0.946841,0.20742267,-1.3374897,-0.63663322,0.0090389252,-0.77111387,0
0.78050184,-1.3335906,-0.69860888,0.48769867,-0.76985633,-0.41166916,0
0.55205959,1.7512677,-0.18899059,0.25027615,0.94822806,-0.19551355,0
-0.88354325,-1.3145366,-0.0012568235,-0.63663322,0.0090389252,-0.77111387,0
-0.71457589,-0.30504125,-0.17431071,-0.63663322,0.0090389252,-0.77111387,0
-0.90879077,-0.42600709,0.076087832,-0.63663322,0.0090389252,-0.77111387,0
-0.90010989,-1.5770432,0.007101655,-0.63663322,0.0090389252,-0.77111387,0
-0.62586445,-0.50275159,-0.17134875,-0.63663322,0.0090389252,-0.77111387,0
0.27823073,-0.0074016154,0.37878898,0.63663322,-0.0090389252,0.77111387,0
0.97729886,0.51596844,-1.4033391,0.74259406,0.27685171,-0.60984218,0
-0.63100952,0.384561,-0.25230685,-0.63663322,0.0090389252,-0.77111387,0
-0.48204255,-1.600093,-0.0094519854,-0.16767341,-0.97763181,0.12697193,0
0.13078251,-0.28254694,0.44964746,0.63663322,-0.0090389252,0.77111387,0
0.73485565,-0.31998852,-0.081399262,0.63663322,-0.0090389252,0.77111387,0
1.0564491,-0.81887585,-0.14202619,0.63663322,-0.0090389252,0.77111387,0
-0.65124881,1.5274156,0.69420445,-0.39520317,0.8548196,0.33630061,0
-0.88302171,-0.24583247,0.1936807,-0.63663322,0.0090389252,-0.77111387,0
-1.1917844,0.86069566,1.1312535,-0.68171674,0.46084553,0.56822878,0
-1.3533546,0.58434409,0.58175826,-0.63663322,0.0090389252,-0.77111387,0
-0.44144118,-0.70960796,-0.30023652,-0.63663322,0.0090389252,-0.77111387,0
0.11664259,1.6250823,0.61847317,0.63663322,-0.0090389252,0.77111387,0
0.072840571,-1.0605018,0.46722326,0.63663322,-0.0090389252,0.77111387,0
1.5859109,0.021938443,-0.5475204,0.63663322,-0.0090389252,0.77111387,0
-1.0556608,0.72838199,0.18789077,-0.63663322,0.0090389252,-0.77111387,0
0.15819597,-1.2786194,0.56781322,0.63663322,-0.0090389252,0.77111387,0
0.84530753,0.84733611,-1.2259576,0.6604892,0.5225352,-0.53917623,0
0.92932916,0.32192558,-1.3594322,-0.63663322,0.0090389252,-0.77111387,0
-1.0195729,0.91461414,0.98851788,-0.64653826,0.53877801,0.54009879,0
-0.27602398,1.2817814,-0.43287382,-0.63663322,0.0090389252,-0.77111387,0
-0.28332651,1.7714094,-0.49521488,-0.63663322,0.0090389252,-0.77111387,0
0.29998028,-0.75962996,-0.93964636,-0.63663322,0.0090389252,-0.77111387,0
0.74604863,1.2350531,-1.1328342,0.56155217,0.69076723,-0.45552164,0
1.094749,0.48491719,-0.22176969,0.63663322,-0.0090389252,0.77111387,0
-0.43852842,-1.600232,0.16357297,-0.22712475,-0.95777714,0.17628783,0
0.37196609,0.9028669,0.25647056,0.63663322,-0.0090389252,0.77111387,0
0.68943202,-0.11190435,-0.031017303,0.63663322,-0.0090389252,0.77111387,0
-0.93087077,-0.39557552,1.4813032,0.63663322,-0.0090389252,0.77111387,0
-1.0721772,-1.2748955,0.71719408,-0.56485713,-0.68621743,0.45830357,0
0.9778229,1.259387,-0.058350325,0.63663322,-0.0090389252,0.77111387,0
0.1039623,0.55347168,0.69060034,0.63663322,-0.0090389252,0.77111387,0
0.87197822,0.64301813,-0.039462447,0.63663322,-0.0090389252,0.77111387,0
-0.10803187,1.6465312,0.15159841,-0.069348812,0.99520898,0.068920113,0
0.22940624,1.6597233,-0.22697824,0.13351804,0.98612189,-0.098673642,0
0.35545814,-1.7583022,0.37359151,0.63663322,-0.0090389252,0.77111387,0
-0.66120887,1.5750856,-0.072658703,-0.63663322,0.0090389252,-0.77111387,0
-0.70184803,0.16191649,1.2857287,0.63663322,-0.0090389252,0.77111387,0
0.18541968,1.7541564,0.16770202,-0.013573229,0.99964511,0.022923768,0
-1.10832,-0.67773581,1.267037,-0.71982533,-0.3657169,0.59000242,0
-0.73999655,1.20445,1.1276886,-0.54300457,0.70476437,0.45656687,0
-1.0801208,0.10266227,1.3731152,-0.77080631,0.023113877,0.63665032,0
1.1807553,1.3120456,-0.35848951,0.63663322,-0.0090389252,0.77111387,0
1.0911627,0.58178031,-0.23594809,0.63663322,-0.0090389252,0.77111387,0
-0.32720062,-0.50250542,-0.33393374,-0.63663322,0.0090389252,-0.77111387,0
0.47540408,1.5294261,-0.7131604,0.34628159,0.89680302,-0.2753787,0
-0.43513358,-1.1215672,1.0657912,0.63663322,-0.0090389252,0.77111387,0
1.1466779,-1.2388802,-0.67973018,0.58938247,-0.63914478,-0.4940874,0
-0.062957644,-0.28870702,0.57454193,0.63663322,-0.0090389252,0.77111387,0
-0.16118968,1.2093306,0.7713877,0.63663322,-0.0090389252,0.77111387,0
-0.52553064,-1.3807151,1.0573421,-0.48374444,-0.78341401,0.39019746,0
-0.98926753,-1.1829237,0.70717824,-0.54419118,-0.71375525,0.44091898,0
0.51159739,-1.4097588,-0.72066987,0.40896124,-0.84378541,-0.34753001,0
1.0928032,0.38700497,-1.3196187,0.75150418,0.23163186,-0.61772835,0
0.62434423,-1.006824,-1.1279336,-0.63663322,0.0090389252,-0.77111387,0
1.5438435,0.0080225989,-0.69534123,0.63663322,-0.0090389252,0.77111387,0
0.60690176,1.1013829,0.25426948,0.63663322,-0.0090389252,0.77111387,0
0.34318054,-1.4768225,-0.7714681,0.33985186,-0.89430529,-0.29106534,0
-0.12493861,1.1619405,-0.51034063,-0.63663322,0.0090389252,-0.77111387,0
0.6612134,-0.20482227,0.053399175,0.63663322,-0.0090389252,0.77111387,0
1.0080307,-0.91554117,-1.1742424,0.66243625,-0.50552237,-0.55283433,0
1.0221817,-0.7497313,-0.24572229,0.63663322,-0.0090389252,0.77111387,0
0.97792149,-0.13485903,-1.4088161,-0.63663322,0.0090389252,-0.77111387,0
0.5745542,1.5710299,-0.23403656,0.28193325,0.93343896,-0.2218231,0
0.08865416,-1.2435033,-0.63035148,-0.63663322,0.0090389252,-0.77111387,0
0.60524851,1.7359917,0.14110988,0.19303316,0.96996635,-0.14799887,0
0.49234718,1.6287947,0.16965759,0.63663322,-0.0090389252,0.77111387,0
0.37296277,-0.47217077,0.3858048,0.63663322,-0.0090389252,0.77111387,0
-1.2953901,-1.1756349,0.43092036,-0.63663322,0.0090389252,-0.77111387,0
-0.98462915,-0.81664765,0.088701725,-0.63663322,0.0090389252,-0.77111387,0
0.82320082,0.67092222,-1.2732272,-0.63663322,0.0090389252,-0.77111387,0
-0.91539305,0.3948068,1.4818544,0.63663322,-0.0090389252,0.77111387,0
0.35032856,1.6954726,0.43418944,0.63663322,-0.0090389252,0.77111387,0
0.20212734,1.7869118,-0.25155652,0.12842131,0.98721164,-0.094453007,0
-0.34393287,1.6193026,0.58792788,-0.25834477,0.93965191,0.22430444,0
0.80842888,0.18626827,-1.367087,-0.63663322,0.0090389252,-0.77111387,0
1.0868758,-0.36475822,-1.2886953,0.75652492,-0.18660764,-0.62677592,0
-0.88691312,0.70722497,0.13806957,-0.63663322,0.0090389252,-0.77111387,0
-0.4108721,1.6780076,0.43392259,-0.23032403,0.95206255,0.20131582,0
0.78313386,0.18338192,-1.3380785,-0.63663322,0.0090389252,-0.77111387,0
0.093066812,-0.81475335,0.62554288,0.63663322,-0.0090389252,0.77111387,0
-0.75529456,-0.15836811,1.2523481,0.63663322,-0.0090389252,0.77111387,0
0.13315582,1.6363239,0.5110386,-0.091349006,0.99200726,0.087046131,0
-0.07581228,-0.69829518,-0.46669319,-0.63663322,0.0090389252,-0.77111387,0
-0.8243553,-0.26635301,-0.032550812,-0.63663322,0.0090389252,-0.77111387,0
1.1133288,0.017252266,-0.34921587,0.63663322,-0.0090389252,0.77111387,0
-0.59163916,-1.3442376,-0.30486551,-0.63663322,0.0090389252,-0.77111387,0
-0.085839868,-1.7849991,-0.21429321,0.01368928,-0.99964142,-0.023019403,0
1.123058,-0.79957467,-0.17381948,0.63663322,-0.0090389252,0.77111387,0
-0.86237806,-1.2609639,0.75931251,-0.50209534,-0.76381087,0.40557772,0
-0.92654073,1.0675967,1.140859,-0.63942891,0.55277014,0.53439325,0
-0.27831975,-0.67448062,-0.39908111,-0.63663322,0.0090389252,-0.77111387,0
1.0495315,-1.3036766,-0.12828195,0.63663322,-0.0090389252,0.77111387,0
0.033457041,1.2185031,0.60403574,0.63663322,-0.0090389252,0.77111387,0
-0.23518276,1.7371339,0.2746222,-0.18901944,0.96760011,0.16739687,0
0.22163057,0.930547,0.58048844,0.63663322,-0.0090389252,0.77111387,0
0.19820273,-1.1966939,-0.80460083,-0.63663322,0.0090389252,-0.77111387,0
0.40832525,0.39155298,-0.85306901,-0.63663322,0.0090389252,-0.77111387,0
0.55125743,1.537959,-0.42223811,0.34522584,0.89747953,-0.27449912,0
-1.2656976,1.1411111,0.32679915,-0.63663322,0.0090389252,-0.77111387,0
0.20344879,0.082043022,0.47351143,0.63663322,-0.0090389252,0.77111387,0
-0.038733006,-1.0585381,-0.5427503,-0.63663322,0.0090389252,-0.77111387,0
1.0215299,-1.3322256,-0.54472917,0.46320021,-0.79497635,-0.39173761,0
-0.58107173,0.57628697,-0.23728482,-0.63663322,0.0090389252,-0.77111387,0
-0.0047195852,0.48636168,-0.51014167,-0.63663322,0.0090389252,-0.77111387,0
0.55091,0.64264297,-1.21321,-0.63663322,0.0090389252,-0.77111387,0
-0.081988454,-0.96359247,0.70988423,0.63663322,-0.0090389252,0.77111387,0
-0.23469019,-1.6852993,-0.13277596,-0.043902397,-0.99873441,0.024538964,0
-0.17495084,-0.73192835,-0.44433159,-0.63663322,0.0090389252,-0.77111387,0
-0.18170047,1.6640742,-0.10098216,-0.027908027,0.99900627,0.034751073,0
-0.9739846,-1.016299,0.92131865,-0.62378502,-0.59396291,0.50803596,0
-0.67954767,1.3493572,-0.17703581,-0.63663322,0.0090389252,-0.77111387,0
1.4109781,-0.92592633,-0.45129704,0.63663322,-0.0090389252,0.77111387,0
0.71458733,1.3295171,-0.80427969,0.47861311,0.78867692,-0.38589931,0
-0.72007048,-1.6115097,0.35978603,-0.31044167,-0.91833425,0.24553674,0
-1.159462,0.86926699,1.0528401,-0.68614972,0.44976729,0.57175881,0
0.28792948,-0.74124646,0.286553,0.63663322,-0.0090389252,0.77111387,0
-1.3740433,0.85196507,0.50480664,-0.63663322,0.0090389252,-0.77111387,0
-0.47879326,0.90517926,-0.21198547,-0.63663322,0.0090389252,-0.77111387,0
0.47083521,-0.73447812,-0.9689123,-0.63663322,0.0090389252,-0.77111387,0
-0.10441071,-0.90581906,-0.68996245,-0.63663322,0.0090389252,-0.77111387,0
0.26402116,-1.4782753,-0.97684765,-0.63663322,0.0090389252,-0.77111387,0
-0.9230563,-1.3029754,0.92954206,-0.55220324,-0.70333213,0.44765586,0
1.0105531,-0.57957757,-0.23580021,0.63663322,-0.0090389252,0.77111387,0
0.55263877,-1.3696159,0.19614549,0.63663322,-0.0090389252,0.77111387,0
0.60863596,1.1637988,0.21467948,0.63663322,-0.0090389252,0.77111387,0
-1.6934835,-0.17001686,0.76192057,-0.76377785,-0.1454798,0.62887144,0
-0.73594511,-1.696741,-0.14725119,-0.2429226,-0.95137489,0.18940562,0
0.7589379,0.14957428,-1.3383564,-0.63663322,0.0090389252,-0.77111387,0
-0.83083713,-1.2365236,0.99014437,-0.54148197,-0.71721041,0.43864161,0
1.0204971,-0.016033038,-0.28088701,0.63663322,-0.0090389252,0.77111387,0
-0.3831436,0.38111246,0.87439728,0.63663322,-0.0090389252,0.77111387,0
0.52548593,1.4895838,-0.74386823,0.39435217,0.8631171,-0.31546074,0
1.3605638,-0.7617383,-0.83029342,0.68999988,-0.43986434,-0.57482141,0
-0.042859316,-1.1975024,0.58045322,0.63663322,-0.0090389252,0.77111387,0
-0.57428473,-0.1128754,1.2215267,0.63663322,-0.0090389252,0.77111387,0
0.15939653,-0.86834669,-0.88498664,-0.63663322,0.0090389252,-0.77111387,0
1.3741179,-0.74453771,-0.43632054,0.63663322,-0.0090389252,0.77111387,0
1.3470696,0.77195197,-0.84247887,0.69103277,0.45053399,-0.56523705,0
-0.17446256,0.70274979,0.80784905,0.63663322,-0.0090389252,0.77111387,0
0.099827051,1.0896459,-0.78005886,-0.63663322,0.0090389252,-0.77111387,0
-1.0742416,1.214485,0.37760884,-0.63663322,0.0090389252,-0.77111387,0
-0.28796291,-1.6551766,0.59630567,-0.30148137,-0.92326939,0.23808128,0
-0.38945088,-0.74812329,-0.42189699,-0.63663322,0.0090389252,-0.77111387,0
-0.41180295,-1.3705564,1.0484728,0.63663322,-0.0090389252,0.77111387,0
0.71652579,-1.5391711,0.014167622,0.63663322,-0.0090389252,0.77111387,0
0.53415185,1.2990685,0.1699332,0.63663322,-0.0090389252,0.77111387,0
0.50789309,0.28353,-1.0831012,-0.63663322,0.0090389252,-0.77111387,0
-0.55290335,0.59777099,1.0052092,0.63663322,-0.0090389252,0.77111387,0
0.68711483,0.75538421,-1.2320979,-0.63663322,0.0090389252,-0.77111387,0
-0.10875154,-1.5282905,0.71987754,0.63663322,-0.0090389252,0.77111387,0
-0.60516948,-0.55510807,-0.15363061,-0.63663322,0.0090389252,-0.77111387,0
-0.55325252,-1.468821,0.46016538,-0.34038922,-0.90054494,0.27047008,0
-0.11232513,-0.96979886,0.8536709,0.63663322,-0.0090389252,0.77111387,0
-0.49618512,-1.2683874,-0.12886029,-0.63663322,0.0090389252,-0.77111387,0
1.4045011,1.1127733,-0.5610323,0.63663322,-0.0090389252,0.77111387,0
-0.22712564,0.19068021,0.77727342,0.63663322,-0.0090389252,0.77111387,0
-0.61059022,-1.2731988,-0.20065737,-0.63663322,0.0090389252,-0.77111387,0
0.95536059,1.6149846,-0.093802691,0.31756291,0.91428661,-0.25146353,0
-0.45761454,-1.1616373,-0.24735191,-0.63663322,0.0090389252,-0.77111387,0
-0.31961024,-1.6629696,-0.3835243,-0.63663322,0.0090389252,-0.77111387,0
0.21704626,-1.5331154,-0.80726701,0.31608558,-0.90901852,-0.27161628,0
-0.54257232,-0.80564731,0.99624908,0.63663322,-0.0090389252,0.77111387,0
-0.039665461,-1.6093496,-0.73194039,-0.63663322,0.0090389252,-0.77111387,0
0.60509133,-1.280798,-1.2686961,-0.63663322,0.0090389252,-0.77111387,0
0.26809669,-1.0627897,-0.82959807,-0.63663322,0.0090389252,-0.77111387,0
-0.16627586,0.89818895,-0.37286347,-0.63663322,0.0090389252,-0.77111387,0
-0.51203722,0.59128618,1.0129093,0.63663322,-0.0090389252,0.77111387,0
-1.056108,-0.52745515,0.13287914,-0.63663322,0.0090389252,-0.77111387,0
-0.22520393,0.41758877,0.81570262,0.63663322,-0.0090389252,0.77111387,0
-0.30967057,1.5252916,0.97968769,0.63663322,-0.0090389252,0.77111387,0
-0.96880698,0.91993719,0.23173505,-0.63663322,0.0090389252,-0.77111387,0
-0.89352554,-0.2022633,1.4934344,0.63663322,-0.0090389252,0.77111387,0
0.0047200173,0.18545085,-0.59572518,-0.63663322,0.0090389252,-0.77111387,0
1.5666655,-0.2580606,-0.9381181,0.76294029,-0.13828455,-0.63150615,0
1.6101061,-0.1413933,-0.88702154,0.76826811,-0.079184614,-0.63521194,0
-1.2104574,0.05844754,0.24088025,-0.63663322,0.0090389252,-0.77111387,0
1.0563848,0.64412379,-0.21626902,0.63663322,-0.0090389252,0.77111387,0
0.73731601,1.3706336,0.033853889,0.63663322,-0.0090389252,0.77111387,0
0.57603025,1.0624774,-1.0955523,-0.63663322,0.0090389252,-0.77111387,0
1.5129855,-0.34272659,-0.71518373,0.63663322,-0.0090389252,0.77111387,0
1.3801581,0.67117018,-0.99049306,0.71215963,0.39050347,-0.58338308,0
0.012791991,0.30692858,0.61642444,0.63663322,-0.0090389252,0.77111387,0
-1.2615619,0.97427082,0.71616185,-0.65441287,0.52266514,0.54641122,0
1.4241273,-0.33688444,-0.88197124,0.75331318,-0.2066288,-0.62435901,0
0.66365075,-0.97961605,0.15254968,0.63663322,-0.0090389252,0.77111387,0
0.42824805,-0.38990358,-0.99414307,-0.63663322,0.0090389252,-0.77111387,0
-1.0295117,0.96709073,1.0793233,-0.65817964,0.51471221,0.54942793,0
-0.10386443,-1.6199683,0.58780915,-0.20814222,-0.96483475,0.16053307,0
-0.8712337,-1.4314673,0.017585754,-0.63663322,0.0090389252,-0.77111387,0
-0.54061258,1.5245199,0.72585338,-0.37271506,0.87178111,0.3179332,0
0.37864238,0.15691009,0.31082284,0.63663322,-0.0090389252,0.77111387,0
0.63279951,-0.69068754,0.10570638,0.63663322,-0.0090389252,0.77111387,0
-0.40585595,-0.37859452,-0.3470248,-0.63663322,0.0090389252,-0.77111387,0
-0.34911537,-0.77770793,1.0070114,0.63663322,-0.0090389252,0.77111387,0
0.36524379,-1.63517,-0.19782791,0.22672129,-0.95354682,-0.19835883,0
-1.6703711,-0.22328943,0.73132968,-0.63663322,0.0090389252,-0.77111387,0
-0.46911514,1.0945702,-0.12343044,-0.63663322,0.0090389252,-0.77111387,0
0.6941328,0.71573037,-1.1886102,-0.63663322,0.0090389252,-0.77111387,0
-0.96199733,0.45414636,0.17252791,-0.63663322,0.0090389252,-0.77111387,0
-0.84651738,0.72077143,0.082014859,-0.63663322,0.0090389252,-0.77111387,0
0.79782641,1.1727549,0.11117673,0.63663322,-0.0090389252,0.77111387,0
-1.0502399,1.3335749,0.58132184,-0.48391128,0.77387649,0.40858942,0
1.1015314,-1.2881697,-0.75221574,0.54990393,-0.69571322,-0.46215695,0
-1.1978724,-0.061763182,0.43772268,-0.63663322,0.0090389252,-0.77111387,0
-0.41395199,1.7335129,-0.35151583,-0.63663322,0.0090389252,-0.77111387,0
0.044552386,-0.80008316,-0.59388262,-0.63663322,0.0090389252,-0.77111387,0
0.84205025,-0.40051988,-1.334192,-0.63663322,0.0090389252,-0.77111387,0
1.0648463,1.026116,-1.0368283,0.62474978,0.59224749,-0.50885254,0
0.27213085,-1.7413242,-0.49608427,0.17398429,-0.97246701,-0.15504083,0
-1.0292561,-0.35548306,1.3267107,-0.76125187,-0.16719505,0.62653136,0
-0.79000711,0.18800387,0.016181886,-0.63663322,0.0090389252,-0.77111387,0
1.39556,0.010771722,-1.0573456,0.77110422,-0.0052775741,-0.63668716,0
0.91919875,0.24507111,-1.4578869,-0.63663322,0.0090389252,-0.77111387,0
0.7846837,-0.44081014,-1.275329,-0.63663322,0.0090389252,-0.77111387,0
0.86443901,-0.76887906,-0.0031395555,0.63663322,-0.0090389252,0.77111387,0
-0.4985466,-1.5912505,0.58367121,-0.35838345,-0.88886005,0.28546309,0
-0.36214265,-0.57880306,0.85513383,0.63663322,-0.0090389252,0.77111387,0
0.342877,0.79316288,-0.93494886,-0.63663322,0.0090389252,-0.77111387,0
-0.020171344,-0.75994927,0.74942338,0.63663322,-0.0090389252,0.77111387,0
0.024419785,-1.6984569,-0.62488508,0.17426205,-0.97238082,-0.15526918,0
-0.065911189,-0.16375089,-0.63794303,-0.63663322,0.0090389252,-0.77111387,0
-0.43291718,-1.5503544,-0.38444096,-0.63663322,0.0090389252,-0.77111387,0
-0.13063645,-1.5002806,-0.5576303,-0.63663322,0.0090389252,-0.77111387,0
0.092213631,-1.6506777,-0.84373081,-0.63663322,0.0090389252,-0.77111387,0
0.091531277,0.79264885,-0.73999095,-0.63663322,0.0090389252,-0.77111387,0
0.043906927,-1.5750393,0.57240897,0.63663322,-0.0090389252,0.77111387,0
-0.25008851,-0.82110476,-0.34236252,-0.63663322,0.0090389252,-0.77111387,0
0.17275298,1.3485496,0.61314511,0.63663322,-0.0090389252,0.77111387,0
1.021785,1.0904224,-0.86008036,0.60930508,0.61882144,-0.49578989,0
-1.0712605,0.31528684,0.19472831,-0.63663322,0.0090389252,-0.77111387,0
-0.32239866,0.98824835,-0.3584494,-0.63663322,0.0090389252,-0.77111387,0
-0.086959302,0.71605361,0.68544561,0.63663322,-0.0090389252,0.77111387,0
0.12827945,-0.52954322,0.53842795,0.63663322,-0.0090389252,0.77111387,0
1.0716431,0.41449249,-1.4994376,0.75105882,0.23412095,-0.61733139,0
-0.30918038,0.11571574,-0.51551992,-0.63663322,0.0090389252,-0.77111387,0
0.5119915,0.1716933,0.24501947,0.63663322,-0.0090389252,0.77111387,0
0.93722653,-0.06486541,-1.4923043,-0.63663322,0.0090389252,-0.77111387,0
0.12215793,-1.7122254,-0.23066053,0.073180795,-0.99471068,-0.072078042,0
-0.59511471,-0.90122652,-0.15168196,-0.63663322,0.0090389252,-0.77111387,0
-0.64883876,-0.25750586,-0.23219118,-0.63663322,0.0090389252,-0.77111387,0
-0.40197444,-0.41321278,-0.30959707,-0.63663322,0.0090389252,-0.77111387,0
-0.34766343,0.08190006,-0.38341856,-0.63663322,0.0090389252,-0.77111387,0
0.17027354,-1.7686291,-0.38984659,0.18195033,-0.96994001,-0.16158801,0
1.1150591,1.0962257,-0.3815515,0.63663322,-0.0090389252,0.77111387,0
0.91185033,-0.2906054,-0.013445258,0.63663322,-0.0090389252,0.77111387,0
0.15869172,0.22141021,-0.75462341,-0.63663322,0.0090389252,-0.77111387,0
0.65692288,-0.37053767,0.11197993,0.63663322,-0.0090389252,0.77111387,0
-1.2230161,-0.35977843,0.23272145,-0.63663322,0.0090389252,-0.77111387,0
-1.2755129,-0.69266796,0.46192276,-0.63663322,0.0090389252,-0.77111387,0
-0.26079959,-0.09861204,-0.39046416,-0.63663322,0.0090389252,-0.77111387,0
1.1977884,-1.3588493,-0.42122179,0.50867057,-0.74663323,-0.4287113,0
-0.47195262,-0.14139581,1.0954313,0.63663322,-0.0090389252,0.77111387,0
0.33832654,0.55647969,0.30538017,0.63663322,-0.0090389252,0.77111387,0
-1.2313818,1.085036,0.31454271,-0.63663322,0.0090389252,-0.77111387,0
-0.85017169,1.6746991,-0.037690625,-0.63663322,0.0090389252,-0.77111387,0
-0.59494293,-1.1177206,1.126935,0.63663322,-0.0090389252,0.77111387,0
1.4924837,-0.18738663,-0.46445346,0.63663322,-0.0090389252,0.77111387,0
-0.20949528,0.46449876,-0.59111726,-0.63663322,0.0090389252,-0.77111387,0
-0.67968106,-0.42940378,1.0813851,0.63663322,-0.0090389252,0.77111387,0
-1.0482302,0.2310352,1.348541,-0.76079965,0.15604842,0.62994683,0
1.1774204,0.77584028,-0.99245524,0.67972147,0.47887903,-0.55556613,0
0.21468413,-0.78277647,-0.87291616,-0.63663322,0.0090389252,-0.77111387,0
-1.5826197,0.79471469,0.757285,-0.69208074,0.43439689,0.57647526,0
-0.061895311,-0.98120636,0.61567008,0.63663322,-0.0090389252,0.77111387,0
-0.38471788,0.53724241,-0.35886705,-0.63663322,0.0090389252,-0.77111387,0
-0.22001988,-0.82669413,-0.41378909,-0.63663322,0.0090389252,-0.77111387,0
0.26703617,-0.44995171,0.31061319,0.63663322,-0.0090389252,0.77111387,0
1.3491918,-0.87924999,-0.53031111,0.63663322,-0.0090389252,0.77111387,0
0.28168476,-1.5651647,-0.56450689,0.2838912,-0.92696273,-0.24524689,0
1.0048115,0.33340424,-0.099532366,0.63663322,-0.0090389252,0.77111387,0
0.33646616,-0.35757762,0.41984859,0.63663322,-0.0090389252,0.77111387,0
0.55743515,-0.68966299,0.055992559,0.63663322,-0.0090389252,0.77111387,0
0.23911488,-0.88157898,-0.81783926,-0.63663322,0.0090389252,-0.77111387,0
-1.1466184,1.3335469,0.26925784,-0.63663322,0.0090389252,-0.77111387,0
-0.68282133,-1.0481,1.162238,0.63663322,-0.0090389252,0.77111387,0
0.44393685,0.05352369,0.30739531,0.63663322,-0.0090389252,0.77111387,0
-0.9314065,1.2256651,0.080815077,-0.63663322,0.0090389252,-0.77111387,0
0.7500056,1.5084559,-0.65862417,0.41901687,0.84350032,-0.33605391,0
-0.29717824,-0.40732908,1.0087662,0.63663322,-0.0090389252,0.77111387,0
-1.3681264,-0.15652955,1.1616951,-0.76967436,-0.06962882,0.63462865,0
-0.19799495,1.3914984,-0.40376177,-0.63663322,0.0090389252,-0.77111387,0
0.25443739,0.48069662,0.4690198,0.63663322,-0.0090389252,0.77111387,0
-1.4216032,-0.96267897,0.41839802,-0.63663322,0.0090389252,-0.77111387,0
-1.2517049,0.99131525,0.60987663,-0.59887218,0.62418139,0.50174671,0
0.5918743,-0.209277,0.10775822,0.63663322,-0.0090389252,0.77111387,0
-1.599166,-0.47089851,0.69521642,-0.74610138,-0.26008606,0.61293423,0
-1.1516087,0.58945054,0.39949584,-0.63663322,0.0090389252,-0.77111387,0
0.81253558,-0.30911532,-1.2829435,-0.63663322,0.0090389252,-0.77111387,0
-0.71667635,1.4140831,-0.069938153,-0.63663322,0.0090389252,-0.77111387,0
0.42799526,-0.20522982,-0.98945391,-0.63663322,0.0090389252,-0.77111387,0
0.33080566,-1.4316099,-1.0013822,-0.63663322,0.0090389252,-0.77111387,0
0.95242381,-0.80330807,-0.11288881,0.63663322,-0.0090389252,0.77111387,0
1.1166078,-0.97626573,-1.1353891,0.64672178,-0.53841007,-0.54024601,0
0.023948193,-0.45612603,-0.76392698,-0.63663322,0.0090389252,-0.77111387,0
0.82628512,0.44506133,-0.085915744,0.63663322,-0.0090389252,0.77111387,0
-0.46978006,-0.71601641,0.99393082,0.63663322,-0.0090389252,0.77111387,0
-1.2025079,1.0365081,0.44528383,-0.63663322,0.0090389252,-0.77111387,0
0.99230915,1.4375077,-0.32508802,0.47420713,0.79312259,-0.38220966,0
0.24665332,-0.65448797,-0.95185119,-0.63663322,0.0090389252,-0.77111387,0
-0.52064705,0.24630958,1.0410556,0.63663322,-0.0090389252,0.77111387,0
0.5944885,-1.0847733,0.085571922,0.63663322,-0.0090389252,0.77111387,0
-0.3694315,1.234131,-0.33217737,-0.63663322,0.0090389252,-0.77111387,0
1.0206832,1.4628509,-0.077464104,0.63663322,-0.0090389252,0.77111387,0
0.98018003,0.80618083,-0.12926447,0.63663322,-0.0090389252,0.77111387,0
1.1998416,-1.1949126,-0.54256052,0.56342757,-0.67728883,-0.47310609,0
-0.62632346,1.3042085,-0.19139263,-0.63663322,0.0090389252,-0.77111387,0
-0.21487582,-1.6340239,-0.39821005,-0.63663322,0.0090389252,-0.77111387,0
0.41669524,-1.1316797,0.25702679,0.63663322,-0.0090389252,0.77111387,0
-0.28252697,-0.26188076,-0.47673166,-0.63663322,0.0090389252,-0.77111387,0
1.3265147,0.40380633,-0.95712531,0.75171727,0.2304306,-0.61791837,0
-1.3789053,0.33709186,1.1255326,-0.75027859,0.22389449,0.62205607,0
-0.039165497,1.3132768,0.63802862,0.63663322,-0.0090389252,0.77111387,0
-1.1223719,-0.79263198,1.0032676,-0.70273882,-0.41858801,0.57527602,0
-1.0907646,0.8685686,0.391514,-0.63663322,0.0090389252,-0.77111387,0
-0.64371336,-1.3708891,-0.15795678,-0.63663322,0.0090389252,-0.77111387,0
0.23576629,1.8007931,0.28228635,0.029901803,0.99946874,-0.012971371,0
-1.0847393,0.039463401,1.4346328,0.63663322,-0.0090389252,0.77111387,0
1.4295955,0.39305681,-0.82379222,0.74386281,0.27091938,-0.61095905,0
-0.42434806,-1.5527828,0.93555689,-0.42486611,-0.83859909,0.34094042,0
-1.0189168,-0.46524692,0.30532336,-0.63663322,0.0090389252,-0.77111387,0
1.1866441,-1.0824661,-0.54465282,0.57244313,-0.66447413,-0.48039907,0
-0.51818305,-0.45448422,1.094147,0.63663322,-0.0090389252,0.77111387,0
0.94398403,1.2066337,-0.68470764,0.52632761,0.73592079,-0.42591089,0
-1.1941669,-0.13246047,1.3337091,-0.7711668,-0.0076754838,0.63658702,0
-0.062444329,-1.6687257,0.69528115,0.63663322,-0.0090389252,0.77111387,0
-0.43360585,-0.25938731,-0.39991668,-0.63663322,0.0090389252,-0.77111387,0
0.32405448,-1.4215336,0.48666507,0.63663322,-0.0090389252,0.77111387,0
0.012116134,0.40817562,0.76030451,0.63663322,-0.0090389252,0.77111387,0
-0.98203671,-0.65708035,1.3244098,0.63663322,-0.0090389252,0.77111387,0
0.7202673,0.72144425,0.0042777658,0.63663322,-0.0090389252,0.77111387,0
-1.2703185,1.2468175,0.59532034,-0.56251764,0.67855811,0.47236967,0
0.5808453,1.6788023,0.025471807,0.14330989,0.98390019,-0.10678384,0
1.117406,1.2094897,-0.78423417,0.55646807,0.6976552,-0.45124346,0
0.983917,-1.3281387,-0.48797548,0.47414124,-0.78401297,-0.40064204,0
-1.0546405,0.37831232,1.4838129,-0.75012469,0.22473368,0.62193882,0
1.3209021,0.41643882,-1.094975,0.75900024,0.18426369,-0.62447226,0
-1.3674382,0.84898555,0.92526317,-0.67445147,0.47831163,0.56243533,0
-0.064941645,1.5673406,0.64961529,0.63663322,-0.0090389252,0.77111387,0
0.0059885979,-1.5547785,0.59829313,0.63663322,-0.0090389252,0.77111387,0
0.11781597,1.836653,0.56536466,-0.12737334,0.98496497,0.11670532,0
-0.89361572,1.069391,0.2124626,-0.63663322,0.0090389252,-0.77111387,0
-0.26655287,0.22643819,0.79342204,0.63663322,-0.0090389252,0.77111387,0
1.1162137,0.59606534,-0.39138734,0.63663322,-0.0090389252,0.77111387,0
1.0834084,0.35827839,-0.24602282,0.63663322,-0.0090389252,0.77111387,0
1.2778543,0.094118357,-1.2208433,0.77116477,0.0051477104,-0.63661498,0
-0.27625561,-0.90651619,-0.30267635,-0.63663322,0.0090389252,-0.77111387,0
-0.18316376,0.090107352,0.71629822,0.63663322,-0.0090389252,0.77111387,0
0.12239751,-0.31290984,0.50263613,0.63663322,-0.0090389252,0.77111387,0
-0.56102514,1.5023447,-0.19546773,-0.63663322,0.0090389252,-0.77111387,0
-0.13723981,1.7947035,0.29731235,-0.11233091,0.98817933,0.10432389,0
0.10302699,-1.3597958,-0.80303609,-0.63663322,0.0090389252,-0.77111387,0
-0.73819047,-0.87380719,-0.14960021,-0.63663322,0.0090389252,-0.77111387,0
0.59391701,-1.3740673,-0.79295409,0.42397708,-0.83114547,-0.35977891,0
-0.59186685,-0.74897063,-0.18684119,-0.63663322,0.0090389252,-0.77111387,0
0.38070619,1.514879,0.33342451,0.63663322,-0.0090389252,0.77111387,0
-0.14893758,0.74611348,-0.56475616,-0.63663322,0.0090389252,-0.77111387,0
-0.84499753,-1.4377587,-0.083630264,-0.63663322,0.0090389252,-0.77111387,0
-0.8338728,-1.6886147,0.15269804,-0.32653588,-0.90902579,0.25893331,0
-0.57829332,-1.1577475,1.0703914,0.63663322,-0.0090389252,0.77111387,0
-0.6522668,0.66706276,1.1087912,0.63663322,-0.0090389252,0.77111387,0
-0.29911542,-1.7537912,-0.21895826,-0.014544666,-0.99989426,0.00028753281,0
0.12888253,1.6638629,-0.45646942,0.21739179,0.96148145,-0.16820884,0
1.1266557,0.53727537,-1.2628894,0.73939401,0.29122037,-0.6070317,0
-0.5977807,-0.1500881,-0.045109361,-0.63663322,0.0090389252,-0.77111387,0
0.88670605,-0.21639192,-0.12995368,0.63663322,-0.0090389252,0.77111387,0
0.36752385,1.2349875,0.47184581,0.63663322,-0.0090389252,0.77111387,0
0.45306122,-1.6392456,-0.25890046,0.19609404,-0.96516621,-0.17320909,0
-0.29995072,1.6398737,0.87975013,0.63663322,-0.0090389252,0.77111387,0
0.21531534,1.6904919,-0.4045251,0.19024599,0.97086656,-0.14568725,0
0.81518465,1.2656672,0.014109969,0.63663322,-0.0090389252,0.77111387,0
-0.19904363,1.5859621,-0.54158986,-0.63663322,0.0090389252,-0.77111387,0
-1.5368681,-0.36271629,0.72076678,-0.63663322,0.0090389252,-0.77111387,0
-0.37014019,-1.6077949,0.64158988,-0.31030163,-0.91841269,0.24542028,0
0.98604715,1.4709595,-0.34808874,0.44978303,0.81658912,-0.36176991,0
-0.90811622,-0.21692926,1.4705461,0.63663322,-0.0090389252,0.77111387,0
-1.0785154,1.3117763,0.27435368,-0.63663322,0.0090389252,-0.77111387,0
-1.0960207,1.338047,0.36079776,-0.63663322,0.0090389252,-0.77111387,0
-0.87446636,-0.10889307,0.017572761,-0.63663322,0.0090389252,-0.77111387,0
0.13743503,0.094797373,-0.81987935,-0.63663322,0.0090389252,-0.77111387,0
-0.6460526,-1.2319001,1.0000279,-0.55214548,-0.70340824,0.44760728,0
1.0383041,-0.18482763,-1.5469507,-0.63663322,0.0090389252,-0.77111387,0
0.54466677,-0.083788723,0.23358792,0.63663322,-0.0090389252,0.77111387,0
-0.43436551,-0.002744019,-0.35050446,-0.63663322,0.0090389252,-0.77111387,0
-0.044346809,1.6473361,0.43672109,-0.16451693,0.9753201,0.14725806,0
0.1600883,-0.0073994994,0.51234317,0.63663322,-0.0090389252,0.77111387,0
-0.065006375,-1.7477248,-0.3889659,0.057492256,-0.9965924,-0.059147567,0
-1.2428107,0.36914849,1.1588372,-0.74629319,0.24469134,0.61900955,0
0.17204744,-0.78832734,-0.92788601,-0.63663322,0.0090389252,-0.77111387,0
0.43473876,-1.4853988,0.35341495,0.63663322,-0.0090389252,0.77111387,0
-0.03226912,-1.428597,-0.54681385,-0.63663322,0.0090389252,-0.77111387,0
-0.82282287,-0.1673089,0.026165962,-0.63663322,0.0090389252,-0.77111387,0
-0.41719645,-0.17157844,-0.36284602,-0.63663322,0.0090389252,-0.77111387,0
0.24127233,1.2372795,-0.82979184,-0.63663322,0.0090389252,-0.77111387,0
0.20593458,-0.62237549,0.58948576,0.63663322,-0.0090389252,0.77111387,0
-0.62958157,1.2526766,1.155592,-0.51808935,0.73564565,0.43635878,0
0.69231004,1.0010374,-1.1816633,-0.63663322,0.0090389252,-0.77111387,0
-0.76738334,-0.13953751,1.3864108,0.63663322,-0.0090389252,0.77111387,0
-0.4099462,-1.3313897,-0.40671819,-0.63663322,0.0090389252,-0.77111387,0
-0.38344064,-0.43379283,-0.41096735,-0.63663322,0.0090389252,-0.77111387,0
-1.4402474,-0.57709205,0.75208664,-0.72009182,-0.3648189,0.59023297,0
0.52881813,0.75785935,0.15789831,0.63663322,-0.0090389252,0.77111387,0
-1.0618818,0.66684854,0.16582769,-0.63663322,0.0090389252,-0.77111387,0
0.55295908,-1.0363938,-1.1732056,-0.63663322,0.0090389252,-0.77111387,0
0.79163569,0.92013228,-0.057420373,0.63663322,-0.0090389252,0.77111387,0
-1.2600662,-0.57080668,1.0849432,-0.7441029,-0.26978081,0.61117065,0
0.14156723,1.4145348,-0.68861419,-0.63663322,0.0090389252,-0.77111387,0
-0.3490867,-0.035542667,-0.41282266,-0.63663322,0.0090389252,-0.77111387,0
-1.2191283,-0.44815975,0.39872861,-0.63663322,0.0090389252,-0.77111387,0
-0.35225952,-1.439647,-0.4576773,-0.63663322,0.0090389252,-0.77111387,0
0.52133965,-1.5982636,0.079433747,0.63663322,-0.0090389252,0.77111387,0
-0.71629077,-1.518791,0.1154741,-0.28866595,-0.93002766,0.22742164,0
0.97642416,0.26675615,-0.18391144,0.63663322,-0.0090389252,0.77111387,0
1.6348612,-0.50696921,-0.74912679,0.73163491,-0.30896389,-0.60766107,0
0.46724945,0.4004772,0.16714606,0.63663322,-0.0090389252,0.77111387,0
0.31828094,-1.2926829,-0.98234427,-0.63663322,0.0090389252,-0.77111387,0
-1.5843303,-0.30382639,0.70408463,-0.63663322,0.0090389252,-0.77111387,0
0.53349113,-0.46197546,-1.0608156,-0.63663322,0.0090389252,-0.77111387,0
1.091922,0.98829663,-0.20507717,0.63663322,-0.0090389252,0.77111387,0
-1.2455547,1.0842323,0.47064829,-0.6002081,0.6220274,0.50282437,0
-0.64222366,-0.48737141,-0.11096948,-0.63663322,0.0090389252,-0.77111387,0
0.26522875,1.8280802,0.1705204,0.017596245,0.99984133,-0.0028075874,0
0.40126896,1.6157298,0.36416328,0.63663322,-0.0090389252,0.77111387,0
1.0539083,-0.8592459,-0.24237186,0.63663322,-0.0090389252,0.77111387,0
0.64170218,-1.3395281,0.15816484,0.63663322,-0.0090389252,0.77111387,0
1.0967011,1.5094444,-0.16196704,0.42217144,0.84086925,-0.33868915,0
1.0864927,-0.070446908,-1.3616616,0.77115273,0.013505265,-0.63650703,0
-0.62939012,0.90124232,1.1169925,0.63663322,-0.0090389252,0.77111387,0
-0.59380037,-0.99371004,1.2019244,0.63663322,-0.0090389252,0.77111387,0
-0.10825801,1.7647262,0.62729633,-0.1976254,0.96462715,0.1744671,0
0.76513612,-0.11855254,-0.022211194,0.63663322,-0.0090389252,0.77111387,0
-0.36821035,-0.52452552,0.93803191,0.63663322,-0.0090389252,0.77111387,0
1.0964844,0.90652221,-0.16677368,0.63663322,-0.0090389252,0.77111387,0
-0.9570967,-1.0589377,0.91991365,-0.63148665,-0.58004749,0.5145576,0
-0.19832557,-1.2708236,0.8437801,0.63663322,-0.0090389252,0.77111387,0
1.3882616,0.66351336,-0.46492207,0.63663322,-0.0090389252,0.77111387,0
1.3725954,-0.69156545,-0.4991039,0.63663322,-0.0090389252,0.77111387,0
0.25125301,1.7578137,0.23124284,0.0014020205,0.99994332,0.010563552,0
1.0865452,1.2687745,-0.15885925,0.63663322,-0.0090389252,0.77111387,0
-0.2169863,-1.3389552,0.76019722,0.63663322,-0.0090389252,0.77111387,0
-0.023093045,0.42887843,-0.56488723,-0.63663322,0.0090389252,-0.77111387,0
0.54569048,0.37958401,0.28837386,0.63663322,-0.0090389252,0.77111387,0
0.10370664,0.045537949,0.61972356,0.63663322,-0.0090389252,0.77111387,0
-0.14367783,1.0506699,0.6819073,0.63663322,-0.0090389252,0.77111387,0
-0.99732876,-0.84799314,1.3681769,-0.68103087,-0.47570956,0.55668437,0
0.86636341,1.3381753,0.030093789,0.63663322,-0.0090389252,0.77111387,0
0.62358713,-0.10825896,-1.2878915,-0.63663322,0.0090389252,-0.77111387,0
0.31315336,0.027934402,0.29023051,0.63663322,-0.0090389252,0.77111387,0
0.50510025,-0.82555443,-1.1424131,-0.63663322,0.0090389252,-0.77111387,0
1.3359126,-0.05829367,-0.36313283,0.63663322,-0.0090389252,0.77111387,0
-0.25961262,-1.2631295,0.80189896,0.63663322,-0.0090389252,0.77111387,0
