1.858115,0.8679024,2.1594563,0.40090728,-0.56068331,0.72450519,0
-3.1355686,-3.8028793,0.070468187,-0.50453675,-0.79523087,-0.33622986,0
1.7267275,3.9423103,1.6018713,0.50453675,0.79523087,0.33622986,0
0.57206106,2.6190298,-0.70859367,-0.32665646,0.53629977,-0.77825332,0
0.44563854,-1.0405716,-1.7554785,0.6407702,-0.083878443,-0.76313692,0
3.0129828,2.3323243,0.17422891,0.74965841,-0.21030132,-0.62752354,0
0.51013672,3.189976,-0.34203771,-0.44870919,0.57421833,-0.68478721,0
2.6491203,1.8534638,2.3135138,0.45629948,-0.57619679,0.6780768,0
2.554879,3.9187675,0.56023747,0.50453675,0.79523087,0.33622986,0
1.9793212,3.4048913,2.3757827,0.50453675,0.79523087,0.33622986,0
-0.36807209,2.5374472,0.24587071,-0.77566278,0.58852422,-0.22800565,0
-1.908705,-3.9542141,-0.97077942,-0.50453675,-0.79523087,-0.33622986,0
3.0637593,3.315717,0.69091225,0.50453675,0.79523087,0.33622986,0
2.8848021,3.1910429,1.5690743,0.50453675,0.79523087,0.33622986,0
1.7282411,-0.33470875,0.88068759,0.72300714,-0.60200334,0.33889908,0
2.5721226,3.6239614,1.1803739,0.50453675,0.79523087,0.33622986,0
2.2588415,3.1980629,2.3062105,0.50453675,0.79523087,0.33622986,0
-1.0617923,-4.0041428,-2.3744643,-0.50453675,-0.79523087,-0.33622986,0
-2.1586778,-2.0897918,-2.661891,-0.21379352,0.49237284,-0.84371877,0
-1.4966118,-0.36155513,1.192922,-0.62480235,0.067523494,0.77785772,0
1.8748397,1.1416203,2.1550837,0.31424475,-0.53185701,0.78637034,0
3.2360063,3.3247051,0.39325833,0.50453675,0.79523087,0.33622986,0
0.46608043,2.7085967,2.4591506,-0.62013805,0.062824234,0.78197306,0
-0.57903904,-4.1359515,-1.3585327,0.84124297,-0.5404253,0.015837073,0
-1.0018003,-4.2355118,-2.1442347,-0.50453675,-0.79523087,-0.33622986,0
-2.0986805,-3.7971959,-1.4325147,-0.50453675,-0.79523087,-0.33622986,0
2.4338973,1.8685538,-0.49378586,0.65666151,-0.10059471,-0.74744654,0
3.4595165,3.1003814,0.87115347,0.50453675,0.79523087,0.33622986,0
1.6593264,4.3997402,0.23276427,0.50453675,0.79523087,0.33622986,0
1.4506297,2.1704688,2.8638263,-0.14646351,-0.30495378,0.94103754,0
1.6951616,0.21736085,1.6455796,0.46834499,-0.5792352,0.66718781,0
3.0091262,2.298028,2.3478029,0.53460783,-0.59353894,0.60158616,0
-1.2078807,-4.5051045,-1.2086067,-0.50453675,-0.79523087,-0.33622986,0
-1.7647498,-2.2881134,0.87696993,-0.2757535,-0.22061324,0.93556917,0
3.0042076,3.4065115,0.69905329,0.50453675,0.79523087,0.33622986,0
3.1205909,2.9239211,1.6723839,0.50453675,0.79523087,0.33622986,0
0.80027807,-1.8683462,-0.47231507,0.84464836,-0.5353201,-0.0013474226,0
-3.225709,-3.5134792,-0.49048698,-0.50453675,-0.79523087,-0.33622986,0
2.903686,1.7813966,0.25374937,0.83140111,-0.34246692,-0.43759406,0
1.5128884,-0.75304341,-0.38240528,0.86337423,-0.46706575,-0.19087803,0
2.4278462,3.3123932,2.014246,0.50453675,0.79523087,0.33622986,0
-1.1705697,-0.28906062,1.3768141,-0.55011463,-0.004056111,0.83507943,0
-0.68286937,1.500376,1.534086,-0.76115918,0.22586787,0.60796416,0
1.5104656,1.6954101,-0.99862027,0.31968886,0.18968277,-0.92834234,0
-0.24527013,-2.7424614,-2.1260648,0.73400378,-0.1900105,-0.65202326,0
-3.4643016,-2.3197918,-1.0530024,-0.86331153,0.45940423,0.2089045,0
-1.7478392,-0.58928585,-1.8400521,-0.46256691,0.57779342,-0.67244822,0
-0.75043225,-2.3964109,-2.6333089,0.43571877,0.10168268,-0.89432085,0
-0.56575161,-4.3313031,-1.4659252,0.85030103,-0.52521461,-0.033730626,0
-3.0791912,-1.7208859,-0.98414588,-0.85664034,0.50967407,0.079998493,0
2.6126304,3.8944643,0.34462893,0.50453675,0.79523087,0.33622986,0
1.1264265,2.1099634,2.632303,-0.23284417,-0.24967588,0.93991786,0
-1.7930405,-3.6980066,-1.6736428,-0.50453675,-0.79523087,-0.33622986,0
-2.0119812,-4.1974735,-0.44102663,-0.50453675,-0.79523087,-0.33622986,0
-2.5334451,-3.4931774,-1.282153,-0.50453675,-0.79523087,-0.33622986,0
2.8843143,3.6043651,0.37153578,0.50453675,0.79523087,0.33622986,0
2.0334129,1.0722512,-0.63137698,0.72554344,-0.17941998,-0.66437596,0
1.5624917,3.5966568,2.3345344,0.50453675,0.79523087,0.33622986,0
-2.8801579,-1.1632487,-1.4388585,-0.75681347,0.59477293,-0.27106929,0
-2.8731196,-2.7397151,-2.8187404,-0.50453675,-0.79523087,-0.33622986,0
1.5588189,0.75552142,2.062417,0.26734447,-0.51418424,0.8149488,0
-1.9003595,-3.7646484,-1.8321185,-0.50453675,-0.79523087,-0.33622986,0
-0.72027969,-1.7012671,-2.41623,0.3395412,0.17529863,-0.92411155,0
3.1202483,2.264811,2.5198534,0.56169981,-0.59807587,0.57166302,0
-2.1101456,-3.2164724,-2.9060099,-0.50453675,-0.79523087,-0.33622986,0
0.39793742,-1.9379078,0.60355604,0.55795079,-0.59749818,0.57592267,0
0.1376096,2.1222072,2.0574431,-0.68582082,0.13256177,0.71559566,0
1.9354054,4.0330691,0.9802115,0.50453675,0.79523087,0.33622986,0
-2.7105002,-2.5804768,0.42903996,-0.58770525,0.031040058,0.80847937,0
-0.87550962,-4.3954206,-1.6598988,-0.50453675,-0.79523087,-0.33622986,0
-3.315454,-3.4519575,-0.22782922,-0.50453675,-0.79523087,-0.33622986,0
2.2276466,3.7694278,1.0204985,0.50453675,0.79523087,0.33622986,0
0.63966286,-1.8338798,-1.4480399,0.80608928,-0.29435918,-0.5133934,0
1.1927392,2.9288888,-0.67162323,-0.098024726,0.43967202,-0.89279324,0
3.1429362,2.7205777,2.035475,0.50453675,0.79523087,0.33622986,0
-1.842957,0.2150749,-0.79697478,-0.74191546,0.59850395,-0.30224937,0
3.0191622,2.7481794,2.5365355,0.50453675,0.79523087,0.33622986,0
-0.64023674,-2.6358211,0.79855382,0.23623359,-0.5017184,0.83214927,0
-1.3899189,-4.4027314,-1.0742532,-0.50453675,-0.79523087,-0.33622986,0
1.2789316,2.3919537,-0.87219852,0.024754047,0.3759461,-0.92631078,0
2.7145665,3.8811841,-0.009260416,0.50453675,0.79523087,0.33622986,0
-3.4626188,-3.2011037,-0.28769898,-0.73228633,0.18784064,0.65457821,0
2.3717954,2.9680243,3.0637975,0.50453675,0.79523087,0.33622986,0
-1.8338332,0.49473572,-0.14434099,-0.85500824,0.5143277,0.066543221,0
3.0515618,3.7387328,-0.076543808,0.50453675,0.79523087,0.33622986,0
-0.001824379,-0.34352213,-2.0450802,0.27568305,0.22066188,-0.93557853,0
3.595382,2.6479523,1.9459063,0.50453675,0.79523087,0.33622986,0
2.3686209,1.0729408,1.9893342,0.53084165,-0.59284383,0.60559332,0
-1.081347,-4.073473,-2.2424858,-0.50453675,-0.79523087,-0.33622986,0
3.0472126,1.7081548,1.6326373,0.72868937,-0.60108244,0.32819444,0
-0.020735025,-1.6771613,0.98766768,0.33615983,-0.53963304,0.77187616,0
1.0479038,4.4692192,1.2703328,0.50453675,0.79523087,0.33622986,0
-2.5653169,-4.0133481,-0.037996888,-0.50453675,-0.79523087,-0.33622986,0
2.4747334,3.0468943,2.3199704,0.50453675,0.79523087,0.33622986,0
-1.2065318,-3.7877569,-2.6507823,-0.50453675,-0.79523087,-0.33622986,0
2.6753957,1.1934798,0.90603197,0.83937639,-0.54298902,0.024701595,0
0.90386891,1.5000163,2.3992128,-0.20163393,-0.27013475,0.94147271,0
-1.6686066,-4.3022127,-0.56523919,-0.50453675,-0.79523087,-0.33622986,0
2.197459,0.12697363,0.40312147,0.83905482,-0.5434159,0.026193738,0
-1.1462171,0.53816617,1.1339563,-0.73639858,0.19305375,0.64841908,0
-1.3564204,-3.9327617,-2.3333702,-0.50453675,-0.79523087,-0.33622986,0
0.58271742,4.2023697,1.3741515,-0.84858829,0.52854073,0.023293734,0
2.3472319,0.5142858,0.12398291,0.86179864,-0.44021487,-0.25201988,0
-2.4129641,-3.6468554,-1.1423063,-0.50453675,-0.79523087,-0.33622986,0
2.7730076,1.5152837,-0.097098589,0.80570602,-0.29370326,-0.51436973,0
2.2615094,0.5095858,-0.26578856,0.84283322,-0.36916882,-0.39159489,0
1.719749,-0.18456715,1.0355141,0.68539876,-0.60572517,0.40413564,0
3.5875535,3.2317626,0.37487626,0.50453675,0.79523087,0.33622986,0
-0.016770244,-2.2333503,-2.0336056,0.69036853,-0.13771601,-0.71022934,0
3.0741773,3.7933111,0.071744442,0.50453675,0.79523087,0.33622986,0
-1.4774004,-4.3990321,-0.51264465,-0.50453675,-0.79523087,-0.33622986,0
2.7492805,3.2079859,1.9148258,0.50453675,0.79523087,0.33622986,0
1.1314394,4.0506067,1.83568,0.50453675,0.79523087,0.33622986,0
2.7122822,1.0129957,0.45006227,0.86337858,-0.46268159,-0.20125377,0
2.66537,3.8476405,0.36013603,0.50453675,0.79523087,0.33622986,0
-0.21495211,-1.19152,1.3917203,0.025512576,-0.40299141,0.91484803,0
2.3722193,0.74064445,1.2242059,0.7513206,-0.59625971,0.28282833,0
-0.33596882,2.5982716,0.73024237,-0.84276515,0.53821701,-0.0083298683,0
0.53805101,-2.3765841,-0.17822397,0.79259932,-0.58103734,0.18488353,0
-2.1248741,-3.7308016,-1.3085519,-0.50453675,-0.79523087,-0.33622986,0
0.12811291,-2.5900617,0.30882561,0.58234257,-0.60094911,0.54748273,0
-1.627897,-2.180634,0.94497037,-0.30333066,-0.20134187,0.93137097,0
1.1325355,-1.1317286,0.93399888,0.59527379,-0.60247004,0.5316757,0
-0.33118963,0.5777666,1.7388663,-0.46633804,-0.076738909,0.88127172,0
-0.44998193,0.24410248,1.8828752,-0.4003042,-0.12958589,0.90717369,0
-0.58046263,2.3667064,0.38061643,-0.83132088,0.55259728,-0.059514284,0
1.5658302,3.5098248,2.650054,0.50453675,0.79523087,0.33622986,0
1.8934164,3.7093,1.7049098,0.50453675,0.79523087,0.33622986,0
2.6617572,0.877801,0.26464629,0.86114478,-0.43543023,-0.26235533,0
1.250778,3.740674,2.4977543,0.50453675,0.79523087,0.33622986,0
-2.942019,-2.5993204,-2.7580624,-0.50453675,-0.79523087,-0.33622986,0
-1.7762246,-0.76476288,-1.9715623,-0.42886412,0.5688197,-0.70179749,0
1.1106286,3.7021742,2.6734729,0.50453675,0.79523087,0.33622986,0
-2.1890359,-3.4119909,-2.175137,-0.50453675,-0.79523087,-0.33622986,0
-3.2383537,-2.2132382,-0.27103376,-0.81886756,0.31730223,0.47830439,0
-1.9344738,-4.1218033,-0.85839885,-0.50453675,-0.79523087,-0.33622986,0
-1.3013048,-4.1848645,-1.2857168,-0.50453675,-0.79523087,-0.33622986,0
-1.4526622,0.95183688,0.11243749,-0.84511638,0.53456879,0.0038268566,0
0.55328667,3.3450663,0.012204468,-0.52115285,0.59098643,-0.61573917,0
-2.3638482,-2.7722912,-3.0577819,-0.50453675,-0.79523087,-0.33622986,0
1.1911211,3.9235075,0.052883625,-0.4165473,0.56530976,-0.71197844,0
-2.6988153,-3.8859212,-0.42574108,-0.50453675,-0.79523087,-0.33622986,0
1.7732491,3.872658,1.4695487,0.50453675,0.79523087,0.33622986,0
-1.4975483,-3.447772,-3.0856104,-0.50453675,-0.79523087,-0.33622986,0
2.8374624,2.7664165,2.7764778,0.50453675,0.79523087,0.33622986,0
-1.8244085,-3.5202074,-2.0297091,-0.50453675,-0.79523087,-0.33622986,0
0.216676,0.78532666,2.0920277,-0.34207594,-0.17344309,0.92352659,0
-1.9315807,-3.7672584,-1.3424184,-0.50453675,-0.79523087,-0.33622986,0
-2.329258,-3.2050691,-2.2329969,-0.50453675,-0.79523087,-0.33622986,0
-2.2317739,-3.8488615,0.21941578,-0.10250723,-0.33150244,0.93786913,0
2.247268,0.15014029,0.9239012,0.77458817,-0.58893377,0.23058665,0
-3.0409694,-2.9757605,-1.4910855,-0.50453675,-0.79523087,-0.33622986,0
2.7330997,1.693,2.2871706,0.51964641,-0.59068888,0.61729598,0
-0.0057405233,-2.6770642,-1.9377179,0.79895699,-0.28240892,-0.53095472,0
-1.4622324,-4.0895743,-1.5705256,-0.50453675,-0.79523087,-0.33622986,0
-0.53082311,0.9357537,1.800127,-0.5800302,0.023731083,0.81424922,0
-3.2955809,-2.5996227,-2.3726962,-0.50453675,-0.79523087,-0.33622986,0
0.85895681,4.4982796,1.2868049,0.50453675,0.79523087,0.33622986,0
1.6317812,4.2709575,0.84722781,0.50453675,0.79523087,0.33622986,0
2.0616283,3.5292535,2.1724792,0.50453675,0.79523087,0.33622986,0
0.40082216,-2.4412906,-0.93796861,0.86236638,-0.4831157,-0.15140533,0
1.3754008,3.0334876,2.9666154,-0.35916108,-0.16082244,0.91931456,0
2.2999344,0.62449634,1.0727954,0.76668513,-0.5917381,0.24907833,0
-2.4474604,-3.0409136,-2.3810306,-0.50453675,-0.79523087,-0.33622986,0
1.7072926,3.2153566,3.106853,0.50453675,0.79523087,0.33622986,0
-3.3011284,-2.7341938,-1.8856657,-0.50453675,-0.79523087,-0.33622986,0
-1.2752826,-3.8838665,-2.215169,-0.50453675,-0.79523087,-0.33622986,0
3.1335535,3.54091,0.16403055,0.50453675,0.79523087,0.33622986,0
-1.865858,-3.7817347,-1.4520135,-0.50453675,-0.79523087,-0.33622986,0
2.2210972,3.914784,0.9178583,0.50453675,0.79523087,0.33622986,0
0.85259581,4.3907633,0.57826769,-0.64248854,0.60595536,-0.46906996,0
1.6496794,4.1712379,0.93693948,0.50453675,0.79523087,0.33622986,0
2.8294253,2.2266865,2.6219876,0.43560719,-0.57069004,0.69610286,0
-2.0870681,-3.1627164,-3.0012124,-0.50453675,-0.79523087,-0.33622986,0
-2.838654,-3.7811365,-0.26553082,-0.50453675,-0.79523087,-0.33622986,0
-0.21961355,-2.6413441,0.37766883,0.52974725,-0.59263897,0.60675108,0
-2.2566073,-2.056617,0.70509839,-0.54468989,-0.0089819133,0.83858943,0
0.84895825,2.4179993,-0.82239681,-0.16065085,0.46909681,-0.86841214,0
-1.6938583,-3.6354821,-2.4329891,-0.50453675,-0.79523087,-0.33622986,0
1.4009862,4.0077281,1.623135,0.50453675,0.79523087,0.33622986,0
-2.8979528,-1.7196268,-1.860058,-0.69280022,0.605286,-0.39199054,0
1.3322929,3.6472197,2.4921319,0.50453675,0.79523087,0.33622986,0
-2.9213777,-2.8544791,-2.4683459,-0.50453675,-0.79523087,-0.33622986,0
3.7522061,2.8131871,0.67554355,0.83167577,-0.34305796,-0.4366082,0
-1.5029744,0.60516769,0.87362599,-0.82395709,0.3271355,0.46268475,0
-2.7529569,-3.1266909,-1.7119654,-0.50453675,-0.79523087,-0.33622986,0
1.8043532,-0.31323105,0.66734564,0.80247557,-0.57560247,0.15720928,0
3.0774665,2.0118389,0.4187367,0.84450412,-0.37353432,-0.38377714,0
1.7646472,3.3816547,2.5608964,0.50453675,0.79523087,0.33622986,0
0.75101805,-0.31775558,1.7741611,0.24635279,-0.50583631,0.8267042,0
-2.3724873,-1.2843413,-1.9663047,-0.5343594,0.59349358,-0.60185152,0
-2.5585186,-3.6997731,-0.69370073,-0.50453675,-0.79523087,-0.33622986,0
-0.34565234,-0.3135432,-1.9798203,0.10821116,0.32811597,-0.93841898,0
-1.7158751,-3.7461739,-1.9555035,-0.50453675,-0.79523087,-0.33622986,0
2.8558095,3.4650338,0.70734179,0.50453675,0.79523087,0.33622986,0
-3.2583749,-3.344656,-0.094942808,-0.62624419,0.068983153,0.77656919,0
-0.034761786,1.7545666,-0.95864558,-0.34008598,0.54099238,-0.76920015,0
-0.25252795,2.455766,-0.19302976,-0.65074462,0.60619009,-0.45723635,0
3.0806384,3.587044,0.49736905,0.50453675,0.79523087,0.33622986,0
2.8514261,2.7397594,2.3300631,0.50453675,0.79523087,0.33622986,0
-0.66913068,-3.1333766,-2.5422077,0.64680177,-0.090169281,-0.75730902,0
-1.8588876,-3.3287277,-2.9842486,-0.50453675,-0.79523087,-0.33622986,0
-1.4053258,-4.0906096,-1.4148769,-0.50453675,-0.79523087,-0.33622986,0
1.0420228,0.57675052,-1.3604172,0.42114872,0.11328121,-0.89988947,0
0.92340708,-1.6803476,-0.91801512,0.85292387,-0.39862013,-0.33708,0
0.80404156,4.3181367,0.60314643,-0.70304751,0.60445398,-0.37464607,0
-1.8176603,-1.857293,0.8470037,-0.4381696,-0.09971495,0.89334446,0
0.13799605,-2.7933176,-1.3008256,0.86214882,-0.44316322,-0.24557221,0
-0.60963511,0.020536423,-1.9173925,-0.084155202,0.43287075,-0.89751929,0
-2.0057118,-3.1945076,-3.0688591,-0.50453675,-0.79523087,-0.33622986,0
-1.833243,0.32505131,-0.9793942,-0.70204234,0.60454762,-0.37637568,0
-2.3621142,-3.5300055,0.34472501,-0.18680036,-0.27966338,0.94175059,0
2.4615839,0.58775461,1.0526458,0.80183405,-0.57598394,0.15907419,0
-2.6598573,-3.5809193,-0.78675371,-0.50453675,-0.79523087,-0.33622986,0
-2.3227491,-2.9674115,-2.7303638,-0.50453675,-0.79523087,-0.33622986,0
2.05972,2.6557717,2.9426107,0.011383414,-0.39552286,0.91838568,0
-1.4356791,-3.8008609,-2.0455904,-0.50453675,-0.79523087,-0.33622986,0
-3.1485233,-2.2339497,-2.340209,-0.61649418,0.60446078,-0.5045414,0
0.069866776,-1.8223057,1.031991,0.36275518,-0.54863697,0.75326371,0
1.9557042,3.4389207,2.1611817,0.50453675,0.79523087,0.33622986,0
1.7989459,0.36060834,-0.62410498,0.78296477,-0.2572917,-0.56636322,0
-3.6229672,-3.0278311,-0.72603774,-0.50453675,-0.79523087,-0.33622986,0
-2.3751111,-0.58757246,-0.66488302,-0.84669626,0.5319314,0.012435198,0
-0.76413465,-2.223685,-2.5876772,0.46871996,0.074764892,-0.88017708,0
0.06145221,2.9016068,0.15991783,-0.71222579,0.60347104,-0.35854852,0
3.4415059,2.2415891,2.0287476,0.70604461,-0.60415864,0.36945003,0
-1.0253884,1.5023574,0.35858166,-0.84915245,0.5274744,0.02666235,0
1.6389772,0.54781985,1.8099852,0.37826049,-0.55365956,0.74187613,0
0.68209815,0.36104691,-1.613251,0.31132036,0.19566888,-0.92994267,0
1.6079428,3.5285368,-0.38765317,-0.086372137,0.4339647,-0.89678007,0
-2.2916327,-4.3110247,-0.0080612898,-0.50453675,-0.79523087,-0.33622986,0
-2.1951632,-3.7561862,0.2931335,-0.1453321,-0.30565029,0.94098699,0
1.3930633,4.5542254,0.72793448,0.50453675,0.79523087,0.33622986,0
1.4378153,3.729763,2.3664129,0.50453675,0.79523087,0.33622986,0
0.33673668,3.4095988,2.1302047,-0.79983389,0.28385022,0.52886188,0
2.7912319,3.953892,0.0012283325,0.50453675,0.79523087,0.33622986,0
-2.3438568,-2.8511195,-3.072371,-0.50453675,-0.79523087,-0.33622986,0
-2.4675403,-4.1200209,-0.029657722,-0.50453675,-0.79523087,-0.33622986,0
-1.8476244,-3.4401941,-2.4447608,-0.50453675,-0.79523087,-0.33622986,0
-3.1167541,-2.5711455,-2.3427279,-0.50453675,-0.79523087,-0.33622986,0
-2.3977747,-0.6991936,0.0086052418,-0.8506757,0.39127678,0.35107458,0
-3.2406189,-3.1926527,-0.8440485,-0.50453675,-0.79523087,-0.33622986,0
-0.11964488,-2.9760027,-0.15508044,0.683882,-0.60579914,0.40658665,0
-1.5862393,-4.0649829,-1.2368304,-0.50453675,-0.79523087,-0.33622986,0
-3.2587399,-2.881907,-1.6034817,-0.50453675,-0.79523087,-0.33622986,0
-0.60616159,2.1771512,1.2520629,-0.85518372,0.40672445,0.32130349,0
-2.1011498,-2.0977831,-2.7240424,-0.19747126,0.48539308,-0.85170341,0
-1.2942443,1.4053148,0.2963841,-0.85639507,0.51041365,0.077881575,0
1.2914329,4.382688,0.86071455,0.50453675,0.79523087,0.33622986,0
1.2108791,3.8940594,2.4809084,0.50453675,0.79523087,0.33622986,0
-3.6009519,-2.8970079,-1.3744329,-0.50453675,-0.79523087,-0.33622986,0
3.111948,1.8259597,1.5334624,0.78067863,-0.58651638,0.21573019,0
-0.48461759,-1.6521249,1.1921192,0.097540259,-0.4394362,0.89296234,0
-3.0736089,-3.4593301,-0.51151192,-0.50453675,-0.79523087,-0.33622986,0
2.5440166,3.4338877,1.4147053,0.50453675,0.79523087,0.33622986,0
1.499431,3.5493727,2.8359568,0.50453675,0.79523087,0.33622986,0
0.27659148,-2.8349903,-1.0733086,0.86176658,-0.48770481,-0.13965142,0
2.9930806,2.7902515,2.4269483,0.50453675,0.79523087,0.33622986,0
1.2830565,4.5106287,0.67017961,0.50453675,0.79523087,0.33622986,0
-2.0543985,-1.5690346,-2.5330784,-0.30282998,0.52768332,-0.7936275,0
0.34451231,-2.6423166,-0.94841623,0.85643357,-0.51029837,-0.078212023,0
-1.7110507,-3.4325352,-2.6988297,-0.50453675,-0.79523087,-0.33622986,0
-1.32675,-3.9487054,-2.2524939,-0.50453675,-0.79523087,-0.33622986,0
-2.4856882,-3.0048299,-2.586278,-0.50453675,-0.79523087,-0.33622986,0
-1.5889311,-2.0236602,0.94920516,-0.34283197,-0.1728889,0.92335021,0
0.17602421,-2.8777122,-0.78652155,0.83352852,-0.55016774,0.050455332,0
1.2312429,4.0465322,1.8503407,0.50453675,0.79523087,0.33622986,0
0.69716167,-1.719347,0.40066075,0.66906047,-0.60625321,0.42990148,0
1.025229,-1.4846666,0.12899542,0.77679515,-0.58808494,0.22526741,0
2.4483199,2.9295573,2.7449942,0.50453675,0.79523087,0.33622986,0
-3.3670273,-3.272388,-0.5408411,-0.50453675,-0.79523087,-0.33622986,0
-1.2497981,1.0817356,-0.46221566,-0.7483685,0.5970037,-0.28901774,0
2.4691451,4.0965862,0.066016555,0.50453675,0.79523087,0.33622986,0
1.24008,3.5440354,-0.39420417,-0.24142373,0.503838,-0.82937437,0
0.42027664,1.4241984,-1.2767667,0.018433332,0.37941951,-0.92504114,0
-3.4497571,-2.7064986,-1.8731253,-0.50453675,-0.79523087,-0.33622986,0
2.8965466,3.1736388,1.485888,0.50453675,0.79523087,0.33622986,0
1.3325789,-1.0434251,0.20335174,0.81989032,-0.56334537,0.10208738,0
0.096377611,-0.98297983,-1.9957197,0.50065458,0.047802031,-0.86432624,0
3.5771804,2.9394908,0.98270082,0.50453675,0.79523087,0.33622986,0
1.7291794,4.1954846,0.91131127,0.50453675,0.79523087,0.33622986,0
3.0775664,2.0826604,0.20333338,0.80176151,-0.28704509,-0.52419817,0
-0.79351306,-1.8214991,1.1075096,0.030191064,-0.40544146,0.91362238,0
-3.4857638,-3.1063199,-1.0409874,-0.50453675,-0.79523087,-0.33622986,0
-2.6571145,-3.8669755,0.18729377,-0.30889052,-0.19739848,0.93038732,0
1.8423014,3.929271,1.1536152,0.50453675,0.79523087,0.33622986,0
-1.7835153,0.39937446,-0.46467185,-0.82440591,0.55942219,-0.08603251,0
0.34770739,-2.2104259,0.5120371,0.61494106,-0.60433745,0.50658047,0
0.76053268,4.3870659,2.0673704,0.50453675,0.79523087,0.33622986,0
2.3961864,3.3748786,1.9430487,0.50453675,0.79523087,0.33622986,0
0.31059861,0.51183456,2.0009649,-0.1547991,-0.29980105,0.94135892,0
2.1218152,3.5742991,2.0076663,0.50453675,0.79523087,0.33622986,0
1.5811971,4.2712808,1.1352086,0.50453675,0.79523087,0.33622986,0
-0.42468417,1.2389221,1.8274412,-0.63922632,0.082278445,0.76460439,0
-0.86110014,-4.5348153,-1.5207226,-0.50453675,-0.79523087,-0.33622986,0
-0.57152176,-4.1194324,-1.368751,0.84427154,-0.53591526,0.00062561035,0
3.2348657,2.0327649,0.45736742,0.83917803,-0.36009687,-0.40756643,0
1.3563526,4.1244402,1.2972454,0.50453675,0.79523087,0.33622986,0
2.6440201,3.5995941,1.0005403,0.50453675,0.79523087,0.33622986,0
2.0224774,3.4756508,2.0200276,0.50453675,0.79523087,0.33622986,0
-1.5676218,-2.1252806,0.9120518,-0.27581376,-0.22057176,0.93556118,0
2.5902915,3.4537868,1.2628058,0.50453675,0.79523087,0.33622986,0
-3.601943,-2.7526283,-1.6132885,-0.50453675,-0.79523087,-0.33622986,0
0.80082619,2.294651,2.4793687,-0.43396568,-0.1030872,0.8950122,0
2.5108163,1.9169773,2.5033982,0.41794121,-0.56571299,0.71084034,0
2.990618,3.6153848,0.088572025,0.50453675,0.79523087,0.33622986,0
-2.557415,-3.6356363,-1.1110457,-0.50453675,-0.79523087,-0.33622986,0
0.57783365,1.7818836,2.4068248,-0.39533776,-0.13342193,0.90879405,0
-2.1025195,-3.179486,-2.4830952,-0.50453675,-0.79523087,-0.33622986,0
-2.9579024,-3.7567525,-0.26826727,-0.50453675,-0.79523087,-0.33622986,0
1.8557774,4.4311175,0.20992559,0.50453675,0.79523087,0.33622986,0
-0.81926382,1.4630668,-0.61538059,-0.63215196,0.60549361,-0.48348883,0
0.63035595,3.7846148,0.53993821,-0.70387268,0.60437506,-0.3732211,0
3.7525303,2.6245,1.4217159,0.50453675,0.79523087,0.33622986,0
1.0879123,-0.60252857,-1.4167056,0.72224182,-0.1753521,-0.66904289,0
3.1176817,3.1718898,1.1190305,0.50453675,0.79523087,0.33622986,0
-2.6504045,-3.9743986,0.033618569,-0.50453675,-0.79523087,-0.33622986,0
-1.4886605,-3.6021256,-2.6167746,-0.50453675,-0.79523087,-0.33622986,0
-1.9454137,-0.94582641,-2.0542972,-0.39374506,0.55850279,-0.73009562,0
2.5988359,2.7981591,2.8510258,0.50453675,0.79523087,0.33622986,0
-3.3284204,-2.5155623,-0.4219501,-0.79327548,0.27324367,0.54410648,0
2.3908041,2.9540288,2.9256377,0.50453675,0.79523087,0.33622986,0
0.93158358,4.2767935,1.6212556,0.50453675,0.79523087,0.33622986,0
2.5550137,3.4806585,1.2676791,0.50453675,0.79523087,0.33622986,0
-2.1669474,-0.647264,-1.3955626,-0.66772771,0.60627109,-0.43194348,0
2.8447165,1.6708387,0.12578773,0.83517677,-0.35078165,-0.42359412,0
1.0902164,1.2502816,2.4194872,-0.029686689,-0.3732211,0.92726737,0
1.0340003,-1.4969018,-0.52967834,0.8611961,-0.49127126,-0.13036025,0
2.0211589,3.7491126,1.576232,0.50453675,0.79523087,0.33622986,0
-0.080943704,2.0325384,1.9959406,-0.71157205,0.16243684,0.68357849,0
2.6907234,2.8249903,2.8299813,0.50453675,0.79523087,0.33622986,0
2.772012,2.701406,2.9294829,0.25057518,-0.50753671,0.82438987,0
-0.61646557,1.1720762,1.6615499,-0.69306457,0.14079513,0.70699233,0
2.1569743,2.8861694,3.1687407,0.50453675,0.79523087,0.33622986,0
3.048178,3.2377801,1.09749,0.50453675,0.79523087,0.33622986,0
2.3281851,0.46389586,0.078114033,0.85777915,-0.41736066,-0.30004191,0
-0.86061931,-2.2643962,1.0089283,0.05352807,-0.41749129,0.90710294,0
1.5972152,2.273061,-0.90510201,0.28521699,0.21405351,-0.93425494,0
-0.5651412,-1.6713225,1.2434721,-0.0098159313,-0.38412127,0.92323053,0
-1.7461798,-1.7061635,1.0517325,-0.43224663,-0.10446215,0.89568448,0
-1.6813415,-3.7120647,-2.0677853,-0.50453675,-0.79523087,-0.33622986,0
3.3086603,2.1946058,1.4435642,0.82602298,-0.55792189,0.080057621,0
-3.6186705,-2.998625,-0.58356857,-0.50453675,-0.79523087,-0.33622986,0
0.66855818,-1.357848,-1.6414573,0.70012659,-0.14894629,-0.69831079,0
-0.13283992,0.10721052,-1.8267916,0.12697053,0.31685573,-0.93993664,0
1.3817217,-1.2007849,0.081331253,0.81691122,-0.56574041,0.11222231,0
0.047068238,-1.8285429,-2.0821671,0.60830361,-0.051050559,-0.79206097,0
1.9838715,3.2155833,2.7587397,0.50453675,0.79523087,0.33622986,0
-0.90459895,-0.24826849,-1.9978194,-0.16985953,0.4732433,-0.86440068,0
-3.0699782,-2.0654235,-0.36753607,-0.81199086,0.30468145,0.49783552,0
1.313802,2.3536224,2.793438,-0.29113883,-0.20992038,0.9333657,0
0.25396705,2.9662366,-0.13159347,-0.58167535,0.60086459,-0.54828429,0
-0.85955638,1.6767192,0.023978472,-0.79145885,0.58160889,-0.1879468,0
1.8460464,0.94696522,2.2400427,0.3745954,-0.55248779,0.74460429,0
3.0061054,2.1570725,2.1813822,0.61951065,-0.60468972,0.50055659,0
-2.3575535,-0.47332269,-0.18151641,-0.86221445,0.44375724,0.24426556,0
3.3224542,3.0210357,1.3150275,0.50453675,0.79523087,0.33622986,0
-2.2881179,-3.6458349,-1.364583,-0.50453675,-0.79523087,-0.33622986,0
-0.1742909,-1.3031211,1.3966322,0.069517136,-0.42558193,0.90224582,0
3.0709054,2.8293266,1.9867016,0.50453675,0.79523087,0.33622986,0
1.9188211,4.3836017,0.42892486,0.50453675,0.79523087,0.33622986,0
-2.6369667,-3.7654653,-0.68285149,-0.50453675,-0.79523087,-0.33622986,0
1.5606291,4.0817361,1.3226002,0.50453675,0.79523087,0.33622986,0
-0.2903533,1.4482296,1.8853289,-0.66551703,0.11011627,0.73821509,0
-3.0473499,-3.8145125,-0.017742634,-0.50453675,-0.79523087,-0.33622986,0
-0.1097337,-3.3798625,-1.4941057,0.86222303,-0.44383538,-0.24409378,0
1.4281157,3.6417646,2.8742397,0.50453675,0.79523087,0.33622986,0
-1.2547979,0.64616907,1.1869617,-0.75064325,0.211611,0.62590373,0
0.57412195,-1.8741457,0.36559772,0.6623643,-0.60630637,0.44007522,0
1.5702789,1.6421413,2.6758528,0.055603981,-0.41854927,0.90649033,0
3.0331459,2.6748328,2.52737,0.50453675,0.79523087,0.33622986,0
-0.5864141,-1.6316823,-2.384239,0.3824625,0.14328191,-0.91279399,0
-2.5809445,-3.5626163,-0.86619097,-0.50453675,-0.79523087,-0.33622986,0
-2.1171966,-3.6883047,-1.2884581,-0.50453675,-0.79523087,-0.33622986,0
-1.713783,-2.1266632,-2.7794774,0.013647556,0.38203546,-0.92404681,0
-1.382701,-3.6801286,-2.735178,-0.50453675,-0.79523087,-0.33622986,0
2.7305789,1.630932,-0.057612419,0.77891713,-0.2512407,-0.57460093,0
1.262935,-0.53125119,1.303385,0.56513697,-0.59859067,0.56772304,0
-0.79084969,-0.65871823,-2.1149704,0.0042829514,0.38711971,-0.92201948,0
2.6644869,2.9739127,2.3942485,0.50453675,0.79523087,0.33622986,0
1.2372444,4.4642539,0.69694602,0.50453675,0.79523087,0.33622986,0
-1.3427438,-4.2872167,-1.5234215,-0.50453675,-0.79523087,-0.33622986,0
0.50552952,2.0057096,-1.0061969,-0.10583138,0.44345522,-0.89002651,0
-2.7299078,-3.2545414,-1.5899222,-0.50453675,-0.79523087,-0.33622986,0
-2.1623456,-1.0731884,-1.9946877,-0.49502426,0.5855034,-0.64197886,0
-0.7435385,-2.3492298,-2.5458283,0.52534634,0.026283011,-0.85048246,0
1.852332,3.5484257,2.2981365,0.50453675,0.79523087,0.33622986,0
0.2558291,-0.6073221,1.7322344,0.070567966,-0.42610896,0.90191537,0
-1.0588871,0.0067331791,-1.7741132,-0.24877119,0.5068115,-0.82538164,0
2.4352522,3.0316706,2.3257966,0.50453675,0.79523087,0.33622986,0
-1.6824443,-3.4203019,-2.4915226,-0.50453675,-0.79523087,-0.33622986,0
1.9033289,3.1720772,2.7512264,0.50453675,0.79523087,0.33622986,0
0.89632511,0.36828411,1.9991522,0.0697788,-0.42571321,0.90216368,0
-2.1640444,-3.1378777,0.49585783,-0.28769362,-0.21232754,0.93388939,0
-0.93656695,-1.8672874,1.0776305,-0.016753435,-0.38033912,0.92469531,0
0.7238636,1.0491269,-1.4675837,0.18384409,0.28154761,-0.94177079,0
-3.2604959,-3.071023,-1.1777056,-0.50453675,-0.79523087,-0.33622986,0
1.4417896,4.3425093,1.0899068,0.50453675,0.79523087,0.33622986,0
2.4041824,3.5621557,1.4505509,0.50453675,0.79523087,0.33622986,0
-2.0198267,-1.7858906,0.84833932,-0.49572402,-0.052027002,0.86692035,0
-1.2408799,1.2554446,0.86547637,-0.85027456,0.39002693,0.35342896,0
-2.070559,-3.9974182,-0.70430803,-0.50453675,-0.79523087,-0.33622986,0
-1.7940505,-0.67437434,0.84705353,-0.68310899,0.12951121,0.71874142,0
3.4288294,2.4556153,0.88435769,0.86045241,-0.43102717,-0.27173007,0
2.1314006,3.7481558,1.582101,0.50453675,0.79523087,0.33622986,0
3.2604299,2.2045898,2.1195421,0.68395454,-0.60579574,0.40646982,0
1.4057416,3.9455743,1.8395537,0.50453675,0.79523087,0.33622986,0
2.8010907,2.6181564,2.7822514,0.50453675,0.79523087,0.33622986,0
-0.82351011,-4.400836,-1.4094992,0.83568585,-0.54765463,0.041274309,0
-2.0006552,-3.7378051,-1.4723859,-0.50453675,-0.79523087,-0.33622986,0
-0.5941515,1.2318269,-1.2617687,-0.39505994,0.55890608,-0.72907585,0
1.07429,4.1193523,1.7585574,0.50453675,0.79523087,0.33622986,0
3.4712775,2.8059177,1.7211528,0.50453675,0.79523087,0.33622986,0
2.6438296,3.5679431,1.118775,0.50453675,0.79523087,0.33622986,0
-3.6863761,-2.7919245,-1.0362265,-0.50453675,-0.79523087,-0.33622986,0
0.18740457,3.2989843,1.7333161,-0.8418622,0.36669874,0.39598,0
-0.38512367,2.5868318,0.89079714,-0.86098164,0.4924784,0.12718332,0
2.2138534,3.0226336,2.9019723,0.50453675,0.79523087,0.33622986,0
-2.5078797,-4.0311775,-0.1767633,-0.50453675,-0.79523087,-0.33622986,0
-1.5038736,-3.5413098,-2.5050635,-0.50453675,-0.79523087,-0.33622986,0
-3.3851426,-3.08428,-1.2204742,-0.50453675,-0.79523087,-0.33622986,0
2.1003258,4.2417812,0.0044690371,0.50453675,0.79523087,0.33622986,0
1.8020022,0.43428615,-0.72081637,0.75003016,-0.21079524,-0.62691319,0
-2.2409844,-4.2698464,-0.020540953,-0.50453675,-0.79523087,-0.33622986,0
-0.60853076,0.88122934,1.6799434,-0.65270048,0.096384749,0.75145984,0
-0.71428764,1.168568,1.5853829,-0.70372915,0.15315421,0.69376433,0
1.8525584,3.535337,1.9540496,0.50453675,0.79523087,0.33622986,0
2.0070329,4.3682642,0.15564632,0.50453675,0.79523087,0.33622986,0
0.29323077,0.68059456,2.1820836,-0.22367346,-0.25574583,0.94051278,0
0.25904703,-1.4894197,1.1672028,0.31587017,-0.5324446,0.78532082,0
-1.6965988,-3.6555064,-2.4721096,-0.50453675,-0.79523087,-0.33622986,0
-0.87458849,1.8402201,1.0305001,-0.85574806,0.408894,0.31701887,0
-0.53547955,-2.6661332,0.62498784,0.32025921,-0.53402251,0.78246665,0
-3.628129,-2.8667274,-1.0504258,-0.50453675,-0.79523087,-0.33622986,0
2.0202646,4.1357474,0.3589392,0.50453675,0.79523087,0.33622986,0
-3.3082585,-3.3729548,-0.57173586,-0.50453675,-0.79523087,-0.33622986,0
-2.0235455,-1.1738818,0.62062764,-0.6572578,0.10123105,0.7468363,0
-2.1476755,-3.7352457,-1.2078837,-0.50453675,-0.79523087,-0.33622986,0
-1.7225294,-4.0009308,-1.2697465,-0.50453675,-0.79523087,-0.33622986,0
1.4611304,0.57458293,1.9693248,0.35050392,-0.54454929,0.7619797,0
2.3964856,0.40181029,0.74514186,0.82706505,-0.55692583,0.076138139,0
-2.8685033,-3.003777,0.18640161,-0.56142867,0.0063262582,0.82750106,0
3.3175573,3.0873861,1.01443,0.50453675,0.79523087,0.33622986,0
-2.932323,-3.6811802,0.12662077,-0.43213224,-0.10455358,0.89572895,0
-0.5047456,1.8081285,1.4212286,-0.79594183,0.27750874,0.53802001,0
1.7201065,-0.5019412,-0.24732089,0.86327046,-0.4581567,-0.21179366,0
1.8959305,1.0736461,2.1228092,0.39948845,-0.56025434,0.72561967,0
-2.0791345,-3.9929843,-0.65701497,-0.50453675,-0.79523087,-0.33622986,0
-3.5441928,-2.6936173,-0.9490149,-0.85956919,0.42605242,0.28217065,0
-2.1912878,-4.2676759,0.18690062,-0.50453675,-0.79523087,-0.33622986,0
-2.0948608,-0.64463902,0.5413816,-0.78990448,0.26793736,0.55159819,0
-1.1554246,-0.71879339,1.3485473,-0.42518103,-0.11008826,0.89838856,0
2.3478024,0.62992972,0.57704854,0.846605,-0.5320881,-0.011927843,0
1.9494299,-0.0084096789,-0.098079205,0.85882705,-0.4222655,-0.29001355,0
0.94113588,4.4093766,1.2534223,0.50453675,0.79523087,0.33622986,0
1.1375818,-0.45520508,1.4449487,0.42376673,-0.56738162,0.70604521,0
1.2812579,4.427845,0.18740097,-0.44490105,0.57320738,-0.68811071,0
-1.8724165,-2.7177432,-3.0070653,0.11868453,0.32185268,-0.9393214,0
1.2308997,1.8345187,-1.0498204,0.16392446,0.2941165,-0.9416073,0
1.1801589,-1.2176116,0.59611475,0.710567,-0.60366619,0.36149919,0
-1.7290699,-3.9398885,-1.7499967,-0.50453675,-0.79523087,-0.33622986,0
3.0566585,2.8562701,2.0819235,0.50453675,0.79523087,0.33622986,0
-2.4537523,-1.0985618,-1.750208,-0.63669372,0.60571885,-0.47720605,0
-2.3640556,-2.8890028,-2.9291728,-0.50453675,-0.79523087,-0.33622986,0
0.45949817,2.2339621,-0.93369615,-0.22696614,0.49789423,-0.83701122,0
2.495626,3.229486,-0.37540126,0.30695915,0.19877052,-0.93073428,0
-1.8641943,-3.9561296,-1.023061,-0.50453675,-0.79523087,-0.33622986,0
0.13483062,-2.6959381,-1.359597,0.85687667,-0.41345596,-0.30792272,0
1.3321334,4.3464313,1.3441095,0.50453675,0.79523087,0.33622986,0
1.6402552,4.3678694,0.39857531,0.50453675,0.79523087,0.33622986,0
2.1376951,3.1044002,2.9140549,0.50453675,0.79523087,0.33622986,0
-2.8852401,-3.7818503,-0.220456,-0.50453675,-0.79523087,-0.33622986,0
-0.21752411,2.2901068,1.7594004,-0.78136849,0.25489217,0.56964302,0
0.51434457,-1.8590887,-1.3530929,0.82559276,-0.33039925,-0.45741987,0
0.43805492,2.807723,2.4475865,-0.66921431,0.11413798,0.73425114,0
-1.1831677,-2.7004476,0.72729909,0.085514069,-0.4335416,0.89706695,0
2.5064268,2.1482463,-0.5054903,0.6153872,-0.058072433,-0.78608268,0
3.7073498,2.8873372,0.94713998,0.50453675,0.79523087,0.33622986,0
-1.6478093,-4.1793628,-0.7474674,-0.50453675,-0.79523087,-0.33622986,0
-2.8840137,-3.5673575,-0.47731853,-0.50453675,-0.79523087,-0.33622986,0
3.2837017,3.3742254,0.69304872,0.50453675,0.79523087,0.33622986,0
0.17345178,-2.5495236,0.0065896511,0.67565429,-0.60611016,0.4196685,0
-1.8297391,-2.6528108,0.75297356,-0.22029042,-0.2579726,0.94070309,0
0.72843301,1.8107874,-1.1335603,0.05401516,0.35959402,-0.93154413,0
-2.4830153,-3.6959782,-0.94333929,-0.50453675,-0.79523087,-0.33622986,0
1.1697769,4.0430946,1.7880435,0.50453675,0.79523087,0.33622986,0
-2.0700464,-3.4296231,-2.1923418,-0.50453675,-0.79523087,-0.33622986,0
-1.6303105,-3.5365205,-2.5090649,-0.50453675,-0.79523087,-0.33622986,0
0.70598674,1.3132185,2.248893,-0.22841614,-0.25261277,0.94021952,0
-1.7562239,-4.2396159,-0.92849666,-0.50453675,-0.79523087,-0.33622986,0
-0.13635755,-1.1652553,1.4796034,0.031732082,-0.40624595,0.9132126,0
1.1236622,2.9554715,2.884444,-0.47703958,-0.067830428,0.87626046,0
1.0288,-1.0134935,-1.1086394,0.80997813,-0.30111259,-0.50325608,0
-3.1811767,-3.3762209,-0.59720755,-0.50453675,-0.79523087,-0.33622986,0
-0.15573114,3.120034,1.1759796,-0.86141425,0.48997527,0.1337527,0
2.9874523,2.8185973,2.4616826,0.50453675,0.79523087,0.33622986,0
-3.1861045,-2.96347,-1.853276,-0.50453675,-0.79523087,-0.33622986,0
-3.1647434,-2.534934,-2.4673908,-0.50453675,-0.79523087,-0.33622986,0
-2.8753986,-3.9025922,0.040880442,-0.50453675,-0.79523087,-0.33622986,0
3.4817767,2.8172078,1.3063769,0.50453675,0.79523087,0.33622986,0
-3.2023728,-2.0600054,-0.7233727,-0.85781598,0.41752562,0.29970706,0
-0.75164998,-3.8401992,-2.4719322,0.79596639,-0.27754825,-0.53796327,0
-0.2770738,-3.4559503,-2.0278683,0.8286913,-0.33673796,-0.44707751,0
1.2070225,0.34286609,-1.1865721,0.56741285,-0.011879012,-0.82334769,0
0.23254347,2.1283221,2.3445044,-0.58972776,0.032979012,0.8069284,0
2.69664,2.9931993,2.1570005,0.50453675,0.79523087,0.33622986,0
1.1004922,0.27045542,-1.4705704,0.50706267,0.042275861,-0.86087179,0
1.0011535,4.16715,0.17835826,-0.52858782,0.59242052,-0.60797429,0
0.84926534,4.2427454,0.48881114,-0.6668995,0.60628027,-0.43320793,0
-1.9387863,-3.9089994,-1.3288767,-0.50453675,-0.79523087,-0.33622986,0
1.7803173,3.2020226,3.133539,0.50453675,0.79523087,0.33622986,0
-0.98251998,-4.3929543,-1.2521908,-0.50453675,-0.79523087,-0.33622986,0
-1.4321234,0.78475672,-0.60976195,-0.73976606,0.59896696,-0.30656964,0
1.0617887,4.4293609,0.72802812,-0.66042489,0.606305,-0.44298232,0
0.22038078,-0.0082969069,1.9176842,-0.091624737,-0.33791506,0.93670613,0
2.2713132,1.8373207,-0.53467083,0.58964527,-0.032899827,-0.80699199,0
3.0804527,2.182605,0.19563723,0.77662152,-0.24785677,-0.57915962,0
-1.798444,-0.49343193,0.73271358,-0.74506491,0.20424697,0.63494992,0
-2.5561774,-3.3262081,-1.6901262,-0.50453675,-0.79523087,-0.33622986,0
0.77138925,4.2968121,1.7383934,-0.86243361,0.48251861,0.15291846,0
0.37661636,3.5166647,1.7218847,-0.85262412,0.39760488,0.33903158,0
2.9812231,2.7702885,2.1746876,0.50453675,0.79523087,0.33622986,0
-1.3780688,-4.5003953,-0.41208553,-0.50453675,-0.79523087,-0.33622986,0
1.3222059,-0.79750615,-0.94749677,0.80708826,-0.29607683,-0.51082993,0
1.9772375,2.9875855,3.1892927,0.50453675,0.79523087,0.33622986,0
-1.7560596,0.60853392,-0.55494571,-0.79142416,0.58162618,-0.18803978,0
-0.11015815,2.6841195,0.056072354,-0.66932088,0.60624927,-0.4295013,0
1.6773202,3.2819858,2.9406118,0.50453675,0.79523087,0.33622986,0
0.097162724,0.17601848,2.0098631,-0.16177046,-0.29546243,0.94155842,0
-0.053254545,3.0707698,0.29618251,-0.75535542,0.59518099,-0.2742222,0
-2.708714,-2.7201819,-2.7524312,-0.50453675,-0.79523087,-0.33622986,0
-0.22600317,2.3416181,-0.31558359,-0.61160058,0.60405999,-0.51093674,0
-2.8860226,-1.3305475,-1.1887205,-0.81806397,0.56483066,-0.10834086,0
1.3958954,4.3410492,1.2448348,0.50453675,0.79523087,0.33622986,0
1.0011406,-1.4875391,0.56585181,0.69509423,-0.60512292,0.38816261,0
1.8919922,4.0393114,1.1643169,0.50453675,0.79523087,0.33622986,0
1.5546386,4.2717218,0.78845018,0.50453675,0.79523087,0.33622986,0
1.9134167,0.49597931,1.8548259,0.4766835,-0.5812639,0.65947342,0
1.1559322,2.0463395,2.8069758,-0.24956125,-0.23848422,0.93853313,0
1.398802,4.2468791,1.5178686,0.50453675,0.79523087,0.33622986,0
-0.55448472,-3.8782532,-0.47704536,0.7017051,-0.60457844,0.37695467,0
0.51178515,2.9553981,2.2868848,-0.72431868,0.17790681,0.66611695,0
-3.4213469,-2.92731,-1.5431525,-0.50453675,-0.79523087,-0.33622986,0
2.7179642,3.1164761,2.086616,0.50453675,0.79523087,0.33622986,0
2.7605503,3.440536,1.0705758,0.50453675,0.79523087,0.33622986,0
2.8529043,2.9931617,1.9512539,0.50453675,0.79523087,0.33622986,0
2.1546347,1.4882156,-0.65440083,0.63884383,-0.081882641,-0.76496661,0
2.1280029,4.1009593,0.76711732,0.50453675,0.79523087,0.33622986,0
-2.0077305,-3.3667352,-2.5012736,-0.50453675,-0.79523087,-0.33622986,0
3.5460141,3.0647075,0.82498217,0.50453675,0.79523087,0.33622986,0
-0.63636732,-1.2590165,1.2640649,-0.096393585,-0.33511266,0.93723404,0
3.4425766,2.7178898,2.0506051,0.50453675,0.79523087,0.33622986,0
1.1899742,3.6141052,2.7822869,0.50453675,0.79523087,0.33622986,0
-0.88423908,1.8379785,0.60944545,-0.8628062,0.47871372,0.16247666,0
-0.5480808,0.38389963,1.7845535,-0.51296157,-0.037152946,0.85760707,0
-3.6304967,-2.4770191,-1.0403392,-0.86333728,0.46036303,0.20667541,0
2.5100684,3.2925,1.6895182,0.50453675,0.79523087,0.33622986,0
-1.711519,-3.7448068,-2.0758171,-0.50453675,-0.79523087,-0.33622986,0
-2.2864103,-0.84517395,0.47587204,-0.76541501,0.23178971,0.60034442,0
2.1712666,3.9473839,0.59357154,0.50453675,0.79523087,0.33622986,0
-3.116029,-3.2755277,-1.2139136,-0.50453675,-0.79523087,-0.33622986,0
0.71171939,2.0967612,-0.93500924,-0.12267268,0.4515056,-0.88379538,0
-2.8042786,-3.7157104,-0.47611678,-0.50453675,-0.79523087,-0.33622986,0
3.46766,3.2582326,0.74194384,0.50453675,0.79523087,0.33622986,0
2.7921124,3.6250796,0.46816182,0.50453675,0.79523087,0.33622986,0
0.49203885,3.0457525,-0.35484725,-0.45273501,0.57527375,-0.68124235,0
-3.610492,-3.1934543,-0.49444032,-0.50453675,-0.79523087,-0.33622986,0
-0.94714987,-3.9733729,-2.4764876,-0.50453675,-0.79523087,-0.33622986,0
0.52468705,-2.2848625,-0.74151206,0.85870278,-0.50270861,-0.099567771,0
2.0158277,3.3222947,2.6993542,0.50453675,0.79523087,0.33622986,0
-0.72052354,-3.0968847,0.32131028,0.43011808,-0.5691703,0.70074505,0
-1.2503632,-4.2081566,-1.4221113,-0.50453675,-0.79523087,-0.33622986,0
3.3623049,2.021143,1.5794226,0.80495822,-0.57408512,0.14989519,0
2.2620287,3.6579008,1.6194209,0.50453675,0.79523087,0.33622986,0
-3.1458549,-3.2552512,-0.72969556,-0.50453675,-0.79523087,-0.33622986,0
-3.4199529,-3.1145582,-0.92501509,-0.50453675,-0.79523087,-0.33622986,0
-2.7715497,-3.2611642,-1.294029,-0.50453675,-0.79523087,-0.33622986,0
3.1875532,3.0561614,0.18018842,0.66267341,-0.107042,-0.74121928,0
-0.33259678,0.77477807,1.9119582,-0.48303419,-0.062795326,0.87334687,0
-2.3465967,-3.5140934,-1.5013546,-0.50453675,-0.79523087,-0.33622986,0
0.33694923,3.5855644,1.6099578,-0.86016124,0.42932013,0.27533054,0
-2.2825427,-3.1402755,-2.5792408,-0.50453675,-0.79523087,-0.33622986,0
0.12581694,1.011507,-1.3559221,-0.055602074,0.41854835,-0.90649086,0
-2.5768716,-3.9706659,-0.090435624,-0.50453675,-0.79523087,-0.33622986,0
3.0102968,3.1556859,1.1307931,0.50453675,0.79523087,0.33622986,0
-1.1970981,-4.3129478,-1.636559,-0.50453675,-0.79523087,-0.33622986,0
-1.5858152,-3.6850259,-2.2312863,-0.50453675,-0.79523087,-0.33622986,0
3.3340683,2.807471,1.9834116,0.50453675,0.79523087,0.33622986,0
1.507762,3.4638596,3.0496562,0.50453675,0.79523087,0.33622986,0
3.0730081,2.1040034,2.3417768,0.61429036,-0.6042847,0.50743192,0
-0.1340456,0.2674067,2.010864,-0.28458166,-0.21449561,0.93434727,0
3.2151542,2.6786873,2.0781732,0.50453675,0.79523087,0.33622986,0
2.3631496,0.35586548,0.93908846,0.79566914,-0.57944399,0.17650855,0
-2.151927,-3.046535,-2.7462671,-0.50453675,-0.79523087,-0.33622986,0
-0.27581465,2.3465602,1.5290554,-0.83354515,0.3471373,0.42976511,0
1.6583685,4.3730969,0.33877337,0.50453675,0.79523087,0.33622986,0
-1.7715595,-3.6108024,-2.0220282,-0.50453675,-0.79523087,-0.33622986,0
-1.4628494,-3.8179882,-2.2269256,-0.50453675,-0.79523087,-0.33622986,0
3.043236,1.634949,0.85396671,0.86027151,-0.4960984,-0.11755598,0
1.2691078,-0.038174272,1.636369,0.37523413,-0.55269265,0.74413055,0
2.2752361,2.4162092,2.9496851,0.13731229,-0.45837951,0.8780852,0
0.87813509,1.1470547,-1.2824949,0.26880431,0.22539516,-0.93645138,0
-2.4591122,-3.8729911,-0.61439049,-0.50453675,-0.79523087,-0.33622986,0
-2.354948,-0.53368485,-0.68905401,-0.82247639,0.56114465,-0.093001962,0
-2.0496783,-3.4867861,-2.2380877,-0.50453675,-0.79523087,-0.33622986,0
1.5558466,3.5130882,2.8429921,0.50453675,0.79523087,0.33622986,0
1.5229218,1.1422499,2.3054268,0.12508357,-0.4526456,0.88287377,0
-3.0910804,-2.8347621,-2.2829347,-0.50453675,-0.79523087,-0.33622986,0
1.4010224,4.1067162,1.3920785,0.50453675,0.79523087,0.33622986,0
2.852716,2.8798981,2.0282912,0.50453675,0.79523087,0.33622986,0
-1.8715618,-4.2021646,-0.68910789,-0.50453675,-0.79523087,-0.33622986,0
2.0546575,0.3148942,1.3291814,0.66075742,-0.60630572,0.44248497,0
0.22726452,0.58592892,-1.5892881,0.15635705,0.29883391,-0.94140893,0
3.4194307,2.7323275,1.772241,0.50453675,0.79523087,0.33622986,0
0.48088044,-2.0768695,-1.1993328,0.85438466,-0.40375975,-0.32711613,0
0.014243543,-3.3003862,-1.3596073,0.86165529,-0.48844829,-0.13772595,0
-1.4740653,-3.61466,0.34370172,0.11607492,-0.44836989,0.88627934,0
3.5643866,3.1442611,0.47738719,0.7772634,-0.24879953,-0.57789314,0
1.937952,0.74262023,1.9922061,0.42601526,-0.5680185,0.70417762,0
2.2390606,3.0957665,-0.48777139,0.28007919,0.21762168,-0.93498468,0
-1.188988,-4.5036788,-0.81602001,-0.50453675,-0.79523087,-0.33622986,0
-2.576772,-3.8827462,-0.5968315,-0.50453675,-0.79523087,-0.33622986,0
-2.6767304,-3.7567275,-0.54256189,-0.50453675,-0.79523087,-0.33622986,0
-2.2727106,-2.3175118,-2.8741474,-0.15486062,0.46646562,-0.87087768,0
-0.00029802322,-2.663156,-1.9172925,0.80636227,-0.29482743,-0.51269543,0
3.3397923,2.0583522,1.6576943,0.7870667,-0.58371282,0.19951361,0
2.5357947,3.6515296,0.80640221,0.50453675,0.79523087,0.33622986,0
3.0696692,3.7452722,-0.026744843,0.50453675,0.79523087,0.33622986,0
-1.200249,1.2369738,0.51471281,-0.86275911,0.4494797,0.23154855,0
-1.8464786,-4.3723378,-0.13093653,-0.50453675,-0.79523087,-0.33622986,0
-0.17265308,-1.7052621,1.0493113,0.22908318,-0.49877226,0.83591098,0
2.3590002,3.4424577,1.8619115,0.50453675,0.79523087,0.33622986,0
-2.2210767,-0.66434109,-1.6648939,-0.62374598,0.60498744,-0.4949052,0
-1.3570148,1.0961453,0.44150066,-0.86083812,0.49325359,0.12513459,0
-3.0775557,-2.8183,-1.9359055,-0.50453675,-0.79523087,-0.33622986,0
0.18059361,-0.89685804,-1.9598227,0.44940871,0.090627864,-0.88871729,0
2.1603115,0.45318794,1.2802268,0.71507895,-0.60311675,0.35342938,0
0.73856729,4.1040606,2.2880502,0.50453675,0.79523087,0.33622986,0
1.8751463,4.1400738,0.78649449,0.50453675,0.79523087,0.33622986,0
-2.2583928,-2.9819598,-2.6810112,-0.50453675,-0.79523087,-0.33622986,0
1.9193627,3.7163718,1.4918569,0.50453675,0.79523087,0.33622986,0
2.4628198,3.6337521,1.014178,0.50453675,0.79523087,0.33622986,0
-1.7202024,-3.3984284,-2.4729702,-0.50453675,-0.79523087,-0.33622986,0
-2.7632384,-2.7066674,-2.8320079,-0.50453675,-0.79523087,-0.33622986,0
2.7365088,3.6252761,0.89892882,0.50453675,0.79523087,0.33622986,0
-1.074044,-3.9621682,-2.6956351,-0.50453675,-0.79523087,-0.33622986,0
-1.959587,-0.09720695,0.20385909,-0.85063958,0.39116368,0.35128796,0
-1.294373,-3.7973046,-2.4809029,-0.50453675,-0.79523087,-0.33622986,0
3.2838817,2.4139442,0.4544673,0.80738914,-0.29659644,-0.51005256,0
3.5504947,2.8830996,1.2758234,0.50453675,0.79523087,0.33622986,0
3.0288653,2.6798439,2.6407995,0.50453675,0.79523087,0.33622986,0
1.2098122,2.2846835,-0.93822032,0.084810495,0.34189844,-0.93590206,0
2.593853,3.9408028,0.27464211,0.50453675,0.79523087,0.33622986,0
-1.124308,-2.3967538,0.9004758,-0.067473769,-0.35192198,0.93359417,0
-3.6536703,-3.0796313,-0.74996257,-0.50453675,-0.79523087,-0.33622986,0
1.1780229,0.30233824,-1.2071291,0.55371451,0.0007686764,-0.83270615,0
-2.7736545,-3.8531356,-0.21829331,-0.50453675,-0.79523087,-0.33622986,0
-2.3196363,-2.9577985,-2.6210217,-0.50453675,-0.79523087,-0.33622986,0
-3.3847387,-2.6756935,-1.7421957,-0.50453675,-0.79523087,-0.33622986,0
-1.0994236,-3.0614591,0.50823808,0.18003345,-0.4777697,0.85983956,0
-2.5566998,-3.2135725,-2.0684578,-0.50453675,-0.79523087,-0.33622986,0
2.073462,3.5247793,2.2296228,0.50453675,0.79523087,0.33622986,0
-2.9135137,-3.3919854,-0.86716378,-0.50453675,-0.79523087,-0.33622986,0
-1.8361299,-0.12720621,-1.2321881,-0.62639952,0.60515952,-0.49133062,0
0.42629099,-1.8889426,0.65870404,0.56179804,-0.59809077,0.57155097,0
1.9388568,3.9029353,0.94729322,0.50453675,0.79523087,0.33622986,0
-0.050587893,0.097739637,2.0085673,-0.2188288,-0.25893271,0.94078034,0
2.8009367,3.3468523,1.4688913,0.50453675,0.79523087,0.33622986,0
-1.7290483,-2.2965612,-2.8534858,0.013088703,0.38234019,-0.92392892,0
2.0375762,4.1578178,0.47337794,0.50453675,0.79523087,0.33622986,0
-1.4209342,-3.3102088,-2.9553056,0.49207842,0.05513607,-0.86880314,0
-1.149533,-1.4288657,-2.6355004,0.074159384,0.34807539,-0.93452883,0
-1.4753859,-2.9393489,-2.9544239,0.33426076,0.17915015,-0.92529726,0
2.0864468,0.25590122,1.070456,0.72597975,-0.60153484,0.33333051,0
2.6644173,1.9323009,-0.32696867,0.71551031,-0.167164,-0.67830771,0
2.1301391,3.9013076,0.77635115,0.50453675,0.79523087,0.33622986,0
3.5243173,2.8983092,0.4718945,0.80052418,-0.28499007,-0.52720177,0
-2.8009763,-3.4265528,-0.95507246,-0.50453675,-0.79523087,-0.33622986,0
-0.58596349,0.04674983,-1.8229516,-0.084174991,0.43288052,-0.89751261,0
-0.66624731,0.97489154,1.5335464,-0.68913752,0.136316,0.71169329,0
-1.0044432,-0.25126934,-2.0302112,-0.1772579,0.47654057,-0.86109734,0
0.026852608,2.2772679,1.9063915,-0.73207498,0.18757424,0.65489101,0
2.4190204,3.5304775,1.4486767,0.50453675,0.79523087,0.33622986,0
1.8359244,2.8222952,-0.59047818,0.16703498,0.29216838,-0.94166714,0
-1.0201424,-1.7703044,1.2211566,-0.14433265,-0.30626494,0.9409411,0
-2.6752343,-3.9996912,-0.13858974,-0.50453675,-0.79523087,-0.33622986,0
-2.0540242,-3.2552876,-2.7767515,-0.50453675,-0.79523087,-0.33622986,0
-0.88844556,-4.0519485,-2.2351751,-0.50453675,-0.79523087,-0.33622986,0
3.1788025,2.6863871,2.1610327,0.50453675,0.79523087,0.33622986,0
-1.1933923,-4.4575191,-1.2701838,-0.50453675,-0.79523087,-0.33622986,0
-0.93034256,-4.6017427,-1.1577622,-0.50453675,-0.79523087,-0.33622986,0
-1.7762724,0.33824942,0.024055481,-0.85997856,0.49745619,0.11390507,0
1.2774513,3.6063228,-0.2099738,-0.27339852,0.51654238,-0.81144154,0
1.051446,4.0793972,2.0621157,0.50453675,0.79523087,0.33622986,0
2.5595167,3.8053744,0.69596893,0.50453675,0.79523087,0.33622986,0
1.6003577,3.8652387,1.7884848,0.50453675,0.79523087,0.33622986,0
-1.324331,0.49654317,-1.2382824,-0.59320229,0.60224152,-0.5342437,0
0.51149106,-0.21643186,-1.7753156,0.4363327,0.10119028,-0.89407742,0
2.9836028,1.5454869,1.6920022,0.72610527,-0.60151446,0.33309376,0
-1.6655419,-4.4482026,-0.64165211,-0.50453675,-0.79523087,-0.33622986,0
-2.682878,-3.7418997,-0.35915005,-0.50453675,-0.79523087,-0.33622986,0
-0.31022447,2.1502531,1.6756607,-0.79795945,0.28077841,0.53331435,0
-0.064842582,-1.0890279,-2.0362477,0.44788772,0.091863707,-0.88935798,0
