-2.1977744,1.0733528,-1.118633,-0.71511364,0.15814573,-0.68088359,0
-1.8452702,1.5945206,-1.3344272,-0.71511364,0.15814573,-0.68088359,0
1.6970237,-0.83465838,1.8135977,0.71511364,-0.15814573,0.68088359,0
-1.931713,-0.2754046,0.48440194,-0.69307375,-0.28707412,0.66123915,0
-2.1224089,0.6832056,-1.2875533,-0.71511364,0.15814573,-0.68088359,0
2.1046243,-0.7084235,1.3696066,0.71511364,-0.15814573,0.68088359,0
-0.88909018,1.7366983,-2.2795911,-0.71511364,0.15814573,-0.68088359,0
-1.6923608,0.88745666,-1.6455518,-0.71511364,0.15814573,-0.68088359,0
-0.22540271,-1.1935976,1.8183057,-0.64871866,-0.51293361,0.56219494,0
-1.7504587,1.5098166,-1.5431093,-0.71511364,0.15814573,-0.68088359,0
-2.2060745,1.7328938,-1.0290476,-0.71511364,0.15814573,-0.68088359,0
2.4643207,-1.0922939,0.96610379,0.71511364,-0.15814573,0.68088359,0
0.31174219,1.7551081,-0.035158634,0.19157445,0.98111558,0.026673794,0
-1.6344826,1.996904,-1.5282136,-0.71511364,0.15814573,-0.68088359,0
-0.36679327,-0.63301706,1.9505657,-0.69449842,-0.27121544,0.66641891,0
2.3567896,0.08232379,1.2059425,0.71511364,-0.15814573,0.68088359,0
-1.0440834,-1.4944193,0.23405719,-0.46128616,-0.83862579,0.28969264,0
-1.8479192,0.63799286,-1.7143898,-0.71511364,0.15814573,-0.68088359,0
2.5078368,-1.151705,0.91573316,0.71511364,-0.15814573,0.68088359,0
-0.9593035,-0.043041229,-2.6796937,-0.71511364,0.15814573,-0.68088359,0
1.6028274,1.0091686,-0.28667808,0.6048395,0.6282804,-0.48931885,0
0.99498343,1.4548942,1.4137851,0.0090821981,0.97609079,0.21717328,0
0.14943337,1.2748055,1.7036552,-0.34217572,0.77018577,0.53826547,0
-2.4926202,0.9919486,-0.77035511,-0.71511364,0.15814573,-0.68088359,0
2.0345116,1.3873221,1.9825381,0.71511364,-0.15814573,0.68088359,0
-1.2059197,1.7769207,-2.0010524,-0.71511364,0.15814573,-0.68088359,0
1.8658445,-1.9959471,1.0667011,0.067335069,-0.95395595,-0.2922911,0
-1.1486981,1.300808,-2.1860244,-0.71511364,0.15814573,-0.68088359,0
-0.9278,1.1868334,-2.3542223,-0.71511364,0.15814573,-0.68088359,0
1.9538933,-0.70857465,1.534122,0.71511364,-0.15814573,0.68088359,0
-1.3031902,0.25843787,-2.2174962,-0.71511364,0.15814573,-0.68088359,0
-1.8903687,0.92664182,-1.5905658,-0.71511364,0.15814573,-0.68088359,0
-1.7308139,-0.033861354,0.74280298,-0.69898045,-0.15310904,0.69855839,0
-2.5123389,0.23470163,-0.91302383,-0.71511364,0.15814573,-0.68088359,0
-1.6139259,1.7956666,-1.6495183,-0.71511364,0.15814573,-0.68088359,0
-2.3281775,-1.2457868,-1.6321096,-0.71511364,0.15814573,-0.68088359,0
-2.1930091,1.0296108,-1.0584122,-0.71511364,0.15814573,-0.68088359,0
-2.7047052,-0.44165814,-0.83995557,-0.71511364,0.15814573,-0.68088359,0
1.4938195,-1.681612,-0.0078737438,0.32570338,-0.78648239,-0.52475011,0
1.4472232,1.3035663,-0.16999125,0.52841216,0.75996429,-0.37846351,0
1.3158535,-0.20524716,2.3886142,0.71511364,-0.15814573,0.68088359,0
1.7213516,-1.9445126,0.9907676,0.096275151,-0.94250423,-0.32002628,0
0.16764873,-1.864702,0.38269544,-0.20567682,-0.97855508,-0.011267662,0
-2.1231084,0.3885746,-1.2580752,-0.71511364,0.15814573,-0.68088359,0
2.3737507,1.1966252,1.3531122,0.71511364,-0.15814573,0.68088359,0
1.0905015,-0.58065295,-1.324717,0.62776446,-0.28313026,-0.72508544,0
2.2593987,-1.8328636,0.80195272,0.71511364,-0.15814573,0.68088359,0
-1.5145172,1.6213568,-0.07612057,-0.29345131,0.81615704,0.497769,0
-0.78004587,1.4308265,0.86486232,-0.35191125,0.76017267,0.54616463,0
2.1747861,-0.52267855,-0.29082251,0.67141175,-0.11559302,-0.73201394,0
-2.0650425,1.4042395,-1.0630579,-0.71511364,0.15814573,-0.68088359,0
-0.12818432,-1.8051094,-0.17304969,-0.079401642,-0.98614407,-0.14565367,0
-0.11762583,1.7858033,-1.243718,0.41030055,0.8835789,-0.22570276,0
1.6974486,-1.6885525,1.435202,0.71511364,-0.15814573,0.68088359,0
-0.70800829,0.38173103,-2.8288693,-0.71511364,0.15814573,-0.68088359,0
-0.45603544,1.8227875,-1.2453961,0.35230878,0.92284536,-0.15567529,0
-1.8001139,1.3018399,-1.3836732,-0.71511364,0.15814573,-0.68088359,0
-0.85150254,1.1594234,-2.6503718,-0.71511364,0.15814573,-0.68088359,0
-0.74053013,0.69593382,-2.5980067,-0.71511364,0.15814573,-0.68088359,0
-2.246501,-0.11776319,0.23857188,-0.69678307,-0.23893386,0.67631632,0
-1.4280711,0.023089886,-2.1733127,-0.71511364,0.15814573,-0.68088359,0
1.8746737,-0.81457192,-0.31136787,0.59820312,-0.36545458,-0.71315908,0
-1.9328392,1.8243711,-0.63764209,-0.23778582,0.86094218,0.44970712,0
2.3808978,0.47924602,0.15689015,0.6713354,0.42674661,-0.60596693,0
1.795283,0.86817336,2.0906534,0.71511364,-0.15814573,0.68088359,0
-1.8755045,-0.85733342,-1.9214203,-0.71511364,0.15814573,-0.68088359,0
2.6703179,-0.84987271,0.52814662,0.71511364,-0.15814573,0.68088359,0
-0.69294584,0.84287214,-2.8258963,-0.71511364,0.15814573,-0.68088359,0
-2.3120546,1.3359433,-0.93642551,-0.71511364,0.15814573,-0.68088359,0
2.1080954,0.036846638,1.4174602,0.71511364,-0.15814573,0.68088359,0
-2.953239,0.11549914,-0.65692759,-0.71511364,0.15814573,-0.68088359,0
-0.97007596,-1.5024412,-1.3325068,-0.014785588,-0.97727513,-0.21145827,0
1.6942163,1.1052339,-0.15616035,0.55620849,0.71870947,-0.41723943,0
1.0103444,-1.4701247,-0.55403721,0.30532712,-0.80556393,-0.50778151,0
1.2701306,-1.3396586,2.0748129,0.71511364,-0.15814573,0.68088359,0
0.82789528,-1.7187728,-0.23578411,0.1442219,-0.91973162,-0.36509416,0
1.0216808,-0.75760531,2.2843575,0.71511364,-0.15814573,0.68088359,0
-0.27867484,1.3679562,-2.0895321,0.59788692,0.6430248,-0.47859216,0
-2.103739,0.78131986,0.21019614,-0.59988475,0.36116865,0.71392959,0
2.2206836,-1.0317532,1.1128854,0.71511364,-0.15814573,0.68088359,0
-2.3047528,0.54197598,-1.2600987,-0.71511364,0.15814573,-0.68088359,0
2.6627221,-1.237695,0.31982136,0.56081468,-0.45163894,-0.69390857,0
1.9970081,0.12171459,1.6529657,0.71511364,-0.15814573,0.68088359,0
0.7613185,1.3447587,-0.65263355,0.53381574,0.75241476,-0.38589239,0
-2.6306803,-0.27394128,-1.0281781,-0.71511364,0.15814573,-0.68088359,0
0.65438724,-1.9246666,1.1708752,-0.24095373,-0.9701401,0.027737141,0
-2.2548943,0.86177886,-1.2289228,-0.71511364,0.15814573,-0.68088359,0
-1.3541186,1.6470758,-1.7616065,-0.71511364,0.15814573,-0.68088359,0
1.7231076,-1.9546901,1.460743,0.71511364,-0.15814573,0.68088359,0
2.9202521,-0.051787615,0.66196036,0.71511364,-0.15814573,0.68088359,0
-2.0602136,1.8830817,-1.0676585,-0.71511364,0.15814573,-0.68088359,0
0.82070482,-1.6238666,-0.10122973,0.14329261,-0.92021888,-0.36423129,0
1.8203535,-0.51192617,1.7128109,0.71511364,-0.15814573,0.68088359,0
0.70681953,-1.652292,-0.20898753,0.12052178,-0.93158758,-0.34295624,0
0.79534233,-0.95572519,2.7122433,0.71511364,-0.15814573,0.68088359,0
-2.817596,0.74131453,-0.68079352,-0.71511364,0.15814573,-0.68088359,0
2.2921836,-1.0432395,0.15186071,0.55706632,-0.45946205,-0.69178885,0
2.0238657,1.2718509,1.7920731,0.18015009,0.98286259,0.039078236,0
-2.1324086,0.19748509,-1.3658072,-0.71511364,0.15814573,-0.68088359,0
2.5828972,-0.89405882,0.83855635,0.71511364,-0.15814573,0.68088359,0
-2.4295497,-0.66205502,-1.3944669,-0.71511364,0.15814573,-0.68088359,0
2.6306393,0.25621915,0.96903098,0.71511364,-0.15814573,0.68088359,0
-0.74929559,1.5840093,-2.4322143,-0.71511364,0.15814573,-0.68088359,0
2.6481395,0.042753458,0.18656826,0.69892091,0.17716324,-0.69290894,0
-0.83923036,-0.78797156,1.3688294,-0.68157345,-0.37395,0.62898248,0
2.2505119,-0.22192872,1.2275984,0.71511364,-0.15814573,0.68088359,0
-2.7644806,0.50393772,-0.31896365,-0.67423522,0.10096747,0.73158216,0
0.45736611,1.1803658,-1.3727059,0.61141372,0.61363506,-0.49962521,0
-1.7257576,0.81231046,-1.7929411,-0.71511364,0.15814573,-0.68088359,0
-2.2557628,1.5782515,-0.85005069,-0.71511364,0.15814573,-0.68088359,0
-0.16244841,0.54823482,2.1080022,-0.59307224,0.37828472,0.71075022,0
1.0309188,0.7001555,2.732976,-0.43061769,0.66762048,0.60733122,0
-0.88451529,1.2635249,0.91227996,-0.3823874,0.72689366,0.57044333,0
0.30177057,0.18581986,2.5008016,-0.62628287,0.28766349,0.72458225,0
-0.68940663,1.9650251,-0.42606926,0.036091566,0.98112524,0.18997532,0
0.38773894,1.6844387,-0.3201977,0.30173641,0.9484843,-0.096605539,0
2.7593348,-0.75463074,0.29038143,0.64734763,-0.21767664,-0.73045045,0
-0.81837893,-0.12072921,1.7388477,-0.68773115,0.015083462,0.72580874,0
2.8967121,-0.42461872,0.30302167,0.6912756,0.01551345,-0.72242469,0
1.2001076,-0.23811936,2.2514374,0.71511364,-0.15814573,0.68088359,0
1.540138,1.0832775,2.2636003,0.71511364,-0.15814573,0.68088359,0
-1.6304543,2.0891943,-1.5244451,-0.71511364,0.15814573,-0.68088359,0
1.1039518,0.19171333,2.5871644,0.71511364,-0.15814573,0.68088359,0
-0.85546184,1.8825958,-1.9728373,0.41543868,0.87952709,-0.23204029,0
2.4668698,0.78868222,0.69593549,0.56128132,0.71047944,-0.42447889,0
-1.2553794,0.47988594,1.2615396,-0.63007057,0.27597183,0.7258448,0
-1.1896896,-1.4367602,-1.0160476,-0.15828139,-0.98540521,-0.062636852,0
-2.6305547,-0.92189085,-1.2202847,-0.71511364,0.15814573,-0.68088359,0
1.209196,1.4953427,0.2886641,0.37790748,0.90691376,-0.18626142,0
0.69680434,0.93575126,-1.4596847,0.65336776,0.49742961,-0.57067877,0
1.926482,1.2127539,0.31324363,0.52278298,0.7676087,-0.37077582,0
1.135204,-1.4099157,-0.63191265,0.35915798,-0.75252968,-0.55200052,0
2.3500311,-0.21649867,-0.14987576,0.6914897,0.017566472,-0.72217274,0
2.4992223,0.55807281,0.46899629,0.65374309,0.49613786,-0.57137311,0
-2.6194062,1.2304081,-0.73090225,-0.71511364,0.15814573,-0.68088359,0
1.6450131,0.31178689,1.9857174,0.71511364,-0.15814573,0.68088359,0
0.34013546,-0.44955671,-1.8445082,0.61258793,-0.32736814,-0.71942073,0
1.949834,-0.14344549,1.4455203,0.71511364,-0.15814573,0.68088359,0
-1.2703027,-1.485494,-0.9148035,-0.18116602,-0.98271883,-0.037977815,0
0.95984197,-0.28707004,2.6387374,0.71511364,-0.15814573,0.68088359,0
-1.4580282,-1.017949,0.60657382,-0.5996626,-0.63932765,0.48131585,0
1.951667,-0.24051225,-0.46843708,0.68081307,-0.063221186,-0.72972369,0
0.36022562,1.6523888,0.49640071,0.026615798,0.97952491,0.19955593,0
1.2540449,-0.56824446,2.1252155,0.71511364,-0.15814573,0.68088359,0
-0.30498052,1.5024579,0.68625581,-0.21049732,0.88013458,0.42550433,0
0.38502097,0.017170906,2.7363358,-0.63440752,0.26214966,0.72718942,0
0.84963858,0.34910107,2.7936575,0.71511364,-0.15814573,0.68088359,0
0.9843477,-2.0098748,1.1190226,-0.15024742,-0.98607904,-0.071231246,0
1.6885839,0.85663116,-0.20787406,0.60052669,0.63751185,-0.48264503,0
0.70010495,1.5277622,1.2689776,-0.030336738,0.96613157,0.25626081,0
-0.030641556,-0.26276422,2.3371692,-0.69386053,-0.0426009,0.71884817,0
-1.2379431,-1.0080045,0.68355322,-0.6008628,-0.63680261,0.48316288,0
-1.1725478,-0.44107127,-2.6605966,-0.71511364,0.15814573,-0.68088359,0
-2.9059756,0.47239554,-0.56209934,-0.71511364,0.15814573,-0.68088359,0
-0.58229816,-1.520296,0.87569273,-0.49364907,-0.80389899,0.33174849,0
1.4969245,0.60961723,2.2920232,0.71511364,-0.15814573,0.68088359,0
-0.84276283,0.27203822,-2.7797148,-0.71511364,0.15814573,-0.68088359,0
1.6564182,1.1444216,-0.033789873,0.5212841,0.76960731,-0.36873734,0
-1.7788152,0.34186101,-1.6409829,-0.71511364,0.15814573,-0.68088359,0
1.6155341,0.15556502,1.9573429,0.71511364,-0.15814573,0.68088359,0
-1.8413903,-1.1167574,-2.010097,-0.71511364,0.15814573,-0.68088359,0
2.4859557,0.40395916,1.0750713,0.71511364,-0.15814573,0.68088359,0
2.4626479,1.1196917,1.0241866,0.43441346,0.86367065,-0.25565195,0
1.4695157,0.40721989,2.2691555,0.71511364,-0.15814573,0.68088359,0
1.5897936,0.86161858,-0.52903605,0.62968028,0.5686785,-0.52925181,0
-1.6305044,-0.28995085,-2.0614953,-0.71511364,0.15814573,-0.68088359,0
-1.7510209,0.23790741,-1.8652818,-0.71511364,0.15814573,-0.68088359,0
-1.5934473,1.466934,-1.6100131,-0.71511364,0.15814573,-0.68088359,0
-1.2121509,-0.80728054,-2.5400407,-0.71511364,0.15814573,-0.68088359,0
0.92627048,1.5032244,1.5963781,-0.076179087,0.95063698,0.30080891,0
-2.1766918,1.0518134,0.10269159,-0.56927204,0.43349648,0.69857717,0
0.18677211,1.0747378,1.7051347,-0.341151,0.77122295,0.53743011,0
0.16069064,-1.8342029,0.22056437,-0.092139363,-0.98689777,-0.1324507,0
1.5331529,0.33349606,-0.93944275,0.69786108,0.21730599,-0.68247199,0
0.50496519,0.6766398,2.4205101,-0.51269227,0.54344559,0.66469043,0
1.8782499,-2.1283438,1.269226,0.71511364,-0.15814573,0.68088359,0
-1.2921107,1.8974283,-0.90587997,0.012031972,0.97671145,0.21421927,0
-0.40447462,-1.4458485,1.0162567,-0.51942235,-0.7720688,0.36621034,0
-1.5163155,1.1660891,0.54691494,-0.47152233,0.60994309,0.63689578,0
-0.16806149,1.8011602,-0.12327623,0.1133939,0.98741448,0.11024761,0
2.1953726,0.85645199,1.6576086,0.71511364,-0.15814573,0.68088359,0
-2.4771824,0.30673623,-0.87895072,-0.71511364,0.15814573,-0.68088359,0
-1.079088,-0.79051709,-2.7843544,0.4347558,-0.66211778,-0.61039937,0
-0.85110211,-0.37734127,-2.9342079,-0.71511364,0.15814573,-0.68088359,0
0.60345924,-0.72875071,-1.6540205,0.56534684,-0.44200385,-0.69643068,0
0.28152812,0.77848732,2.22646,-0.45837712,0.62930512,0.62758696,0
-1.2408656,1.4665571,-2.1151345,-0.71511364,0.15814573,-0.68088359,0
-0.93845326,1.886722,-0.28923291,-0.0706442,0.95273268,0.29548252,0
1.2664027,0.21423483,2.4964795,0.71511364,-0.15814573,0.68088359,0
-2.8614769,0.083468199,-0.77952909,-0.71511364,0.15814573,-0.68088359,0
0.97214949,-0.16707373,2.7253737,0.71511364,-0.15814573,0.68088359,0
-1.0567765,0.051073551,-2.6305933,-0.71511364,0.15814573,-0.68088359,0
-2.8359699,-0.54914868,-0.54497194,-0.65987474,-0.47407824,0.58293664,0
1.3282053,1.4919389,0.37157702,0.37946129,0.90587789,-0.18813384,0
-1.6383444,0.99350476,-1.7353125,-0.71511364,0.15814573,-0.68088359,0
0.3486979,-0.88414788,2.5546911,-0.6901949,-0.31394094,0.65197545,0
0.90868771,1.4454582,1.7257876,-0.13094461,0.92651922,0.35272592,0
2.8337288,0.19189203,0.34545922,0.69158995,0.30160624,-0.65630555,0
-1.8133097,0.48546553,-1.7887378,-0.71511364,0.15814573,-0.68088359,0
1.1238377,-0.56276131,2.4180155,0.71511364,-0.15814573,0.68088359,0
1.0433376,-0.60789168,-1.3090914,0.6029883,-0.3531478,-0.71532631,0
-1.305434,1.1206641,-2.0820131,-0.71511364,0.15814573,-0.68088359,0
-0.18499675,1.8300548,-1.1849871,0.3894287,0.89903766,-0.20019114,0
1.4609177,0.33834553,2.227109,0.71511364,-0.15814573,0.68088359,0
1.4791282,-1.1917799,1.7080202,0.71511364,-0.15814573,0.68088359,0
-0.12779331,1.1744617,-2.2885802,0.6462428,0.52084184,-0.55775779,0
0.44930017,1.2616119,1.8191304,-0.27423751,0.83250314,0.48138589,0
-0.59334302,1.8923612,-1.0031749,0.21642804,0.97629845,-0.00054824352,0
0.80035162,-1.8959693,0.34705532,-0.038535714,-0.98150885,-0.1874975,0
-1.7516183,-1.2923565,-2.143645,0.06147778,-0.95606679,-0.28662968,0
1.8070766,-1.7450514,0.35121822,0.31572688,-0.79597068,-0.51647586,0
0.86666495,1.2881495,-0.9389571,0.58286518,0.67259187,-0.45594776,0
0.90157866,1.0955484,-0.91248882,0.61844665,0.59712642,-0.51084608,0
-1.8677185,0.51220763,-1.545628,-0.71511364,0.15814573,-0.68088359,0
-0.63986838,-0.38798165,1.8599428,-0.69865012,-0.13053074,0.70345551,0
1.7388471,0.34851551,1.896468,0.71511364,-0.15814573,0.68088359,0
2.3119285,1.1540657,1.2842572,0.39772177,0.89308333,-0.21028399,0
-1.2589798,0.24480152,-2.2749944,-0.71511364,0.15814573,-0.68088359,0
0.27088046,1.0444242,1.8624099,-0.4084937,0.69588363,0.59065968,0
2.5481722,1.0572673,1.3005292,0.71511364,-0.15814573,0.68088359,0
0.10483754,0.6073997,-2.119761,0.69734573,0.22854534,-0.67932022,0
-0.3601054,1.8097914,-1.4115309,0.37818149,0.90673161,-0.18659151,0
0.44797862,-1.6000215,2.0463991,-0.52390695,-0.76609981,0.37230682,0
1.2399074,0.56857181,2.6358302,0.71511364,-0.15814573,0.68088359,0
-2.0055144,0.71596336,-1.4843383,-0.71511364,0.15814573,-0.68088359,0
-1.4807787,0.15589833,-2.0872631,-0.71511364,0.15814573,-0.68088359,0
-2.3513622,0.079123855,-1.1723576,-0.71511364,0.15814573,-0.68088359,0
0.45334548,-1.6170415,1.954627,-0.54547983,-0.73536748,0.40210223,0
1.8057432,0.94235349,1.8966533,0.71511364,-0.15814573,0.68088359,0
-1.6373492,1.5715593,-1.6624472,-0.71511364,0.15814573,-0.68088359,0
-0.036742158,1.8918914,-0.75867474,0.29837483,0.94993258,-0.092738628,0
-2.3303525,-0.54270363,-1.4380319,-0.71511364,0.15814573,-0.68088359,0
0.63041306,-1.4066939,2.6225209,0.71511364,-0.15814573,0.68088359,0
-2.5644796,1.4960808,-0.54143745,-0.48181689,0.59418428,0.64404774,0
0.50365555,-0.72325063,2.93326,0.71511364,-0.15814573,0.68088359,0
0.81104124,1.0917622,2.2808416,-0.35315436,0.75887328,0.54716843,0
-2.9494848,0.25387478,-0.52382028,-0.71511364,0.15814573,-0.68088359,0
-0.23545146,-1.3638016,-1.4742095,0.22740811,-0.86844718,-0.44055089,0
-1.7255386,2.0670891,-0.82233942,-0.1266163,0.92865169,0.34867525,0
2.275831,-1.2076197,1.0788922,0.71511364,-0.15814573,0.68088359,0
-0.69987589,-0.86976451,1.449512,-0.65905404,-0.47714239,0.58136308,0
-0.41663575,0.55939007,1.9379406,-0.5776,0.41491798,0.70300877,0
1.6331905,0.65427065,-0.62147129,0.67274874,0.42018944,-0.60897434,0
0.99971068,-1.8602158,0.45962608,0.059890568,-0.95662701,-0.28509271,0
0.53954673,-0.99683243,-1.4303105,0.47129828,-0.61027992,-0.63673878,0
2.4129496,0.77841449,1.348197,0.71511364,-0.15814573,0.68088359,0
0.58063459,-1.9258933,1.2669536,-0.27146077,-0.9604485,0.062028885,0
-1.331754,1.6742823,-1.9059322,-0.71511364,0.15814573,-0.68088359,0
0.7180512,1.6874089,0.24564886,0.21869385,0.97578883,-0.0030462742,0
-2.7700036,0.57203948,-0.19394052,-0.67120147,0.11665171,0.73203886,0
-2.5776126,0.88373756,-0.74213505,-0.71511364,0.15814573,-0.68088359,0
-2.4139199,0.74133873,0.040816426,-0.65094715,0.20428249,0.73111993,0
-2.4179626,0.51292336,-0.99337929,-0.71511364,0.15814573,-0.68088359,0
-0.68878299,1.9834452,-0.88279343,0.17203334,0.98392826,0.04785049,0
-1.6369134,0.416657,0.95441318,-0.65421283,0.1916697,0.73162031,0
-1.506472,-1.1436713,-2.2271094,-0.71511364,0.15814573,-0.68088359,0
-0.87212086,-0.36155367,-2.7766771,-0.71511364,0.15814573,-0.68088359,0
-1.6118878,1.0635065,-1.8035642,-0.71511364,0.15814573,-0.68088359,0
-0.32122207,-1.554056,-0.60789156,-0.041640759,-0.98197889,-0.18434554,0
1.6534894,0.68472576,2.0938282,0.71511364,-0.15814573,0.68088359,0
0.61601591,-0.96839547,2.8079937,0.71511364,-0.15814573,0.68088359,0
0.95423955,1.6730542,0.91005182,0.10648629,0.98734868,0.11748719,0
-0.43882942,-1.3756982,-1.1782719,0.10910577,-0.93687892,-0.3321954,0
-0.66224992,-1.152087,-1.9879268,0.26402587,-0.84080333,-0.47258884,0
1.3412983,0.84617138,2.4044609,0.71511364,-0.15814573,0.68088359,0
-0.91406834,1.2473617,-2.4216266,-0.71511364,0.15814573,-0.68088359,0
-1.4729334,-1.1321167,0.28958321,-0.57672513,-0.68387729,0.44687784,0
-1.8619218,2.0544608,-1.16868,-0.71511364,0.15814573,-0.68088359,0
-0.10765874,0.48909974,2.1340692,-0.59501803,0.37346214,0.71167368,0
-2.0672901,-0.30093345,0.40790939,-0.69482225,-0.26726219,0.66767728,0
0.41867805,-1.8872566,1.4561368,-0.4141615,-0.88054365,0.23046279,0
-1.6365619,-1.0122093,0.049898624,-0.57959729,-0.67865193,0.45110798,0
1.5883051,1.4576946,0.44103336,0.39985693,0.89151096,-0.21289194,0
-2.1948142,-0.60471249,0.0013225079,-0.66129303,-0.46869409,0.58567673,0
1.631376,-1.5252855,-0.084414192,0.38213092,-0.72718632,-0.57024199,0
-2.0968266,1.9588675,-1.1081702,-0.71511364,0.15814573,-0.68088359,0
-0.54069299,-1.679399,-0.21810591,-0.14777184,-0.98625869,-0.073872924,0
1.455215,0.29386878,2.1242316,0.71511364,-0.15814573,0.68088359,0
2.9637852,0.22211504,0.49857259,0.71511364,-0.15814573,0.68088359,0
0.89996314,-1.3487535,2.4747748,0.71511364,-0.15814573,0.68088359,0
-1.8232119,1.6842537,-1.2617785,-0.71511364,0.15814573,-0.68088359,0
0.4364326,1.7033215,-0.49634004,0.37184978,0.91087556,-0.17897892,0
-2.4043643,-0.57631046,-0.18215227,-0.65450519,-0.49349546,0.57278717,0
-1.0289209,-0.12824702,-2.5261827,-0.71511364,0.15814573,-0.68088359,0
1.5651981,-1.0662103,1.9070077,0.71511364,-0.15814573,0.68088359,0
0.55545378,1.3750246,1.2438076,-0.10297823,0.93960774,0.3263936,0
-0.2535319,-1.4853109,1.2509962,-0.51988226,-0.77146292,0.36683416,0
-0.78912842,0.5152266,-2.6338248,-0.71511364,0.15814573,-0.68088359,0
-1.7920578,-1.4919949,-1.1699088,-0.268255,-0.9615761,0.058400154,0
-1.0721661,-1.1519289,-2.3848507,0.24074292,-0.85875654,-0.4523052,0
1.1286101,-1.2107365,2.30235,0.71511364,-0.15814573,0.68088359,0
1.5083934,-1.0020051,1.9761786,0.71511364,-0.15814573,0.68088359,0
0.5118379,1.5413826,0.478616,0.11865267,0.98739815,0.10472071,0
-1.7313284,0.59761167,-1.8254477,-0.71511364,0.15814573,-0.68088359,0
-0.79583716,-0.14861822,-2.9270008,0.61999339,-0.30636695,-0.7223208,0
0.55085182,-0.70352477,-1.5567168,0.53236932,-0.50801653,-0.67712778,0
-2.1625459,-0.042626739,-1.2785156,-0.71511364,0.15814573,-0.68088359,0
-2.1636722,1.8960667,-0.91345477,-0.71511364,0.15814573,-0.68088359,0
1.8326752,-1.502385,1.3136021,0.71511364,-0.15814573,0.68088359,0
1.3918761,0.095229149,2.2774968,0.71511364,-0.15814573,0.68088359,0
-1.0350127,-0.83599162,-2.5435629,0.36221224,-0.74925905,-0.55444854,0
-2.6050873,0.11622816,-0.16765881,-0.69619715,-0.073871195,0.71403933,0
1.4048271,0.91565156,-0.55929065,0.64022434,0.53917313,-0.5471791,0
1.3650634,-0.940328,1.901527,0.71511364,-0.15814573,0.68088359,0
-1.8944037,-1.1025085,-2.0823357,-0.71511364,0.15814573,-0.68088359,0
0.53384638,0.4762907,2.608115,-0.52866733,0.51488644,0.67483532,0
-1.989578,1.5234846,-1.1800196,-0.71511364,0.15814573,-0.68088359,0
1.8568277,1.3179051,0.62455702,0.43236724,0.86545038,-0.25308955,0
2.7300105,-0.086932182,0.23204327,0.69888759,0.17985448,-0.69224882,0
1.9546152,-0.61926067,1.5077724,0.71511364,-0.15814573,0.68088359,0
1.7686441,-0.38421059,1.7481334,0.71511364,-0.15814573,0.68088359,0
-1.1891921,0.61979926,1.0357387,-0.6044898,0.34921443,0.71598971,0
0.049596548,1.6311996,-1.0851448,0.42101961,0.87501144,-0.23895073,0
-0.50972605,1.3140604,-2.653933,0.64775717,0.51603198,-0.56046551,0
1.8814363,0.30214071,1.8886755,0.71511364,-0.15814573,0.68088359,0
-2.2202117,1.1320075,-1.1109799,-0.71511364,0.15814573,-0.68088359,0
0.32393265,-1.5825634,1.7081974,-0.50721133,-0.78765541,0.34976518,0
-1.8642288,0.90390265,-1.5123434,-0.71511364,0.15814573,-0.68088359,0
-0.33051854,-1.6459974,0.67152202,-0.41064858,-0.88330758,0.22613132,0
0.72577727,-1.196624,2.6624506,0.71511364,-0.15814573,0.68088359,0
-1.4166013,-1.4486704,-0.70560074,-0.28259197,-0.95632899,0.074676633,0
0.50770783,0.1988585,2.8196158,-0.61525542,0.31992263,0.72049308,0
0.41351211,-1.0285926,-1.5465224,0.45041955,-0.64063382,-0.6218605,0
1.5383987,0.81751728,2.2233779,0.71511364,-0.15814573,0.68088359,0
-1.8191385,1.0295893,-1.4905534,-0.71511364,0.15814573,-0.68088359,0
1.4568763,-1.8993896,1.6055162,0.71511364,-0.15814573,0.68088359,0
-1.5086577,1.4265559,-1.7779062,-0.71511364,0.15814573,-0.68088359,0
-2.4920955,-1.1342517,-1.0441103,-0.45337704,-0.84633029,0.27959645,0
-0.80929184,-0.066420317,-2.7878623,-0.71511364,0.15814573,-0.68088359,0
-0.75788474,1.5124464,-2.5428638,-0.71511364,0.15814573,-0.68088359,0
-1.0232217,-1.5642976,-0.95322835,-0.10262308,-0.98726881,-0.12152606,0
-1.0805943,-0.21421945,1.4387779,-0.69713092,-0.090012491,0.71127093,0
-1.479913,0.13629863,1.0136269,-0.67112422,0.1170395,0.7320478,0
1.6569529,1.3906952,1.860522,0.03861469,0.98152113,0.18741745,0
-1.6278083,-0.49992537,-2.0865278,-0.71511364,0.15814573,-0.68088359,0
-0.57290983,0.051534176,-3.0263462,0.65208763,-0.1999298,-0.73130679,0
1.6099682,-1.3625784,1.7137883,0.71511364,-0.15814573,0.68088359,0
-1.3558073,-0.88576913,-2.3757174,-0.71511364,0.15814573,-0.68088359,0
-0.18448579,-0.058341026,2.3140566,-0.6823442,0.053489298,0.72907138,0
-1.7172952,-1.5035989,-1.4446561,-0.1642991,-0.9848094,-0.056178212,0
1.2081423,0.80266452,2.5535765,0.71511364,-0.15814573,0.68088359,0
2.5564892,0.53725231,1.0358942,0.71511364,-0.15814573,0.68088359,0
-1.7824156,1.967633,-1.4677739,-0.71511364,0.15814573,-0.68088359,0
-2.2578039,0.80075049,-1.0277045,-0.71511364,0.15814573,-0.68088359,0
1.7958431,-1.2452115,-0.34357166,0.47523338,-0.60432434,-0.63948834,0
1.7559587,-0.5411604,-0.70462763,0.65615845,-0.18392721,-0.73186541,0
-2.8145552,0.37074125,-0.49890924,-0.71511364,0.15814573,-0.68088359,0
-0.37396526,0.23855758,1.9120973,-0.63612252,0.25654712,0.72768933,0
2.0905738,1.0804492,1.7819527,0.71511364,-0.15814573,0.68088359,0
-1.8373027,1.4986415,-0.09249004,-0.4043017,0.70102817,0.58745182,0
1.3383403,0.40255046,2.4935699,0.71511364,-0.15814573,0.68088359,0
1.5951513,-1.5334215,-0.19559564,0.35814047,-0.75361282,-0.55118346,0
2.0062013,1.0007968,0.0087652206,0.58867574,0.66150069,-0.46462643,0
-1.7206409,1.9110267,-1.5448778,-0.71511364,0.15814573,-0.68088359,0
2.894789,-0.48237491,0.45338774,0.71511364,-0.15814573,0.68088359,0
-2.4911947,-1.0009689,-1.1927416,-0.71511364,0.15814573,-0.68088359,0
-0.32502127,0.37114191,-2.8630886,0.68834615,-0.010160297,-0.72531116,0
1.7800555,0.93133074,-0.24899411,0.62705439,0.57557988,-0.52489102,0
1.3810219,-0.1963253,2.1687005,0.71511364,-0.15814573,0.68088359,0
2.6120872,-0.72704852,0.8411361,0.71511364,-0.15814573,0.68088359,0
-2.4738019,1.134359,-0.86801267,-0.71511364,0.15814573,-0.68088359,0
-0.60400534,0.22088575,-3.0203757,-0.71511364,0.15814573,-0.68088359,0
-1.3588039,1.7590257,-1.8059455,-0.71511364,0.15814573,-0.68088359,0
-2.8014593,-0.64487207,-0.99494028,-0.71511364,0.15814573,-0.68088359,0
-1.740509,1.2520361,-1.6384537,-0.71511364,0.15814573,-0.68088359,0
0.76287985,-0.5284245,2.6636121,0.71511364,-0.15814573,0.68088359,0
1.2415658,-1.5559887,1.919572,0.71511364,-0.15814573,0.68088359,0
0.68671781,-1.8511391,2.0340271,-0.47827891,-0.82106197,0.31161916,0
0.0093519688,0.78114772,-2.2791452,0.6866219,0.34148154,-0.64182597,0
2.155936,0.074550867,1.461226,0.71511364,-0.15814573,0.68088359,0
-1.6928527,-0.75556326,0.44806743,-0.65696162,-0.48479283,0.57738847,0
0.26376355,-1.2644622,-1.159445,0.33254248,-0.77981305,-0.53038394,0
0.75470042,-1.2615311,2.650929,0.71511364,-0.15814573,0.68088359,0
1.7513067,1.0948633,0.026186466,0.53674579,0.74823105,-0.38994133,0
2.5407133,0.79433441,1.0989435,0.71511364,-0.15814573,0.68088359,0
1.595576,-1.5151099,0.11038311,0.30559844,-0.8053174,-0.50800908,0
0.54194862,-1.9774046,0.3101213,-0.059007734,-0.98425168,-0.16663343,0
1.8895642,-1.6230505,0.42268646,0.29737604,-0.81269836,-0.50108773,0
1.6962992,-1.1206186,1.692489,0.71511364,-0.15814573,0.68088359,0
-0.43913972,-1.0686255,-2.1406515,0.40161264,-0.7042942,-0.5853861,0
-2.0848818,1.8971107,-0.82841265,-0.22293299,0.87160492,0.4365842,0
-1.4593292,0.97613192,-2.0415373,-0.71511364,0.15814573,-0.68088359,0
-0.92629951,1.5920854,-2.266331,-0.71511364,0.15814573,-0.68088359,0
-2.5783126,-0.39724731,-1.1286002,-0.71511364,0.15814573,-0.68088359,0
-0.40262127,0.12319946,-2.7245116,0.67257398,-0.10966882,-0.73185849,0
2.1979918,-0.48583233,1.1751703,0.71511364,-0.15814573,0.68088359,0
-2.721725,-0.33604157,-0.37928534,-0.66783267,-0.44222987,0.59869188,0
-0.74349332,0.25079608,-2.864279,-0.71511364,0.15814573,-0.68088359,0
1.3827157,-1.9612073,1.9099945,0.71511364,-0.15814573,0.68088359,0
2.1456082,-1.5250368,1.1932324,0.71511364,-0.15814573,0.68088359,0
0.99881053,0.2016964,2.800947,0.71511364,-0.15814573,0.68088359,0
2.1280327,-1.0979209,0.017514408,0.53689271,-0.49948585,-0.67989719,0
0.93389487,-1.8313378,0.45079887,0.0023742318,-0.97351575,-0.22860765,0
-1.2701713,0.89171499,0.93121696,-0.56554908,0.44156909,0.69654202,0
-1.5846044,1.2397366,0.53584164,-0.4622643,0.62366533,0.63035965,0
2.0163965,-1.0034547,1.1852031,0.71511364,-0.15814573,0.68088359,0
2.0416164,-1.2604671,-0.042210519,0.50957006,-0.54883224,-0.66266239,0
2.7725482,-0.51967895,0.22369301,0.67875218,-0.075693727,-0.73045605,0
1.7709208,-0.19010139,1.8142834,0.71511364,-0.15814573,0.68088359,0
-0.25308669,-0.96955395,-1.9174266,0.37837607,-0.73144764,-0.5672881,0
-1.3719912,0.59918082,1.0516567,-0.60509968,0.34760666,0.71625686,0
-1.2650626,1.5347769,0.058469146,-0.29244035,0.81704128,0.49691269,0
-1.4585187,-0.055327654,-2.2056262,-0.71511364,0.15814573,-0.68088359,0
-2.4820666,0.88307607,-0.85173994,-0.71511364,0.15814573,-0.68088359,0
-0.64745408,1.3852067,0.66776812,-0.28175193,0.82622492,0.48781988,0
0.069532037,-0.39357805,-2.1092279,0.59001154,-0.38576823,-0.70927382,0
2.026237,-0.09867835,1.4381242,0.71511364,-0.15814573,0.68088359,0
1.4631896,1.2197633,2.431905,-0.15446126,0.91424108,0.37457302,0
0.77933133,0.52504659,-1.6375346,0.69880307,0.18534261,-0.69088525,0
-1.7116842,1.9469576,-1.52336,-0.71511364,0.15814573,-0.68088359,0
1.7761078,-0.099224806,1.8778517,0.71511364,-0.15814573,0.68088359,0
1.5887568,0.69670868,2.2189045,0.71511364,-0.15814573,0.68088359,0
-1.7126966,1.1295025,-1.6368306,-0.71511364,0.15814573,-0.68088359,0
2.8185489,0.26070142,0.54325914,0.68714786,0.33771941,-0.64325219,0
2.4896874,-0.038702607,0.96816432,0.71511364,-0.15814573,0.68088359,0
-0.45872569,0.89301062,-2.8274856,0.69450641,0.27111968,-0.66644961,0
-0.60365033,0.16040564,-2.9857037,-0.71511364,0.15814573,-0.68088359,0
-1.1779064,0.44557714,-2.2097054,-0.71511364,0.15814573,-0.68088359,0
-2.3506782,-0.26011431,-1.2118891,-0.71511364,0.15814573,-0.68088359,0
0.7755546,1.329343,-1.0026234,0.54168427,0.74103129,-0.3968004,0
-1.7847452,-1.2479541,-0.71159244,-0.39298865,-0.8965115,0.20451689,0
1.320251,-0.79280186,1.9573519,0.71511364,-0.15814573,0.68088359,0
2.5193217,0.058986187,-0.10659051,0.69836968,0.2032662,-0.68626708,0
1.2499917,-0.91651464,2.2678547,0.71511364,-0.15814573,0.68088359,0
-2.0798702,-1.3497392,-1.6991585,-0.21600169,-0.97639298,7.8439713e-05,0
-1.3699857,2.0090137,-1.8909948,-0.71511364,0.15814573,-0.68088359,0
-0.20049348,1.8184823,-0.9635551,0.34520426,0.92690074,-0.14727163,0
0.21582019,-0.32138765,-2.0049038,0.61979538,-0.30694252,-0.72224647,0
-0.5598594,1.6598454,0.56549758,-0.20037907,0.88681197,0.41642842,0
1.126104,-2.0432267,1.0620803,-0.13841525,-0.98681992,-0.083830357,0
1.8916262,0.36582059,-0.40922558,0.68864381,0.32650733,-0.64742762,0
1.9908593,-0.12994006,-0.66038275,0.68954074,-0.00017622113,-0.72424692,0
2.0093219,0.81438851,1.607677,0.71511364,-0.15814573,0.68088359,0
-1.3173417,1.7722303,-1.7792524,-0.71511364,0.15814573,-0.68088359,0
-2.3111978,1.2983242,-0.94535315,-0.71511364,0.15814573,-0.68088359,0
0.065853953,-1.0754381,2.2038102,-0.66039217,-0.47212717,0.58393312,0
1.3271782,-2.1172698,1.073782,-0.07223171,-0.98557478,-0.15305185,0
0.21476394,-1.8325881,0.78506029,-0.23213963,-0.97251725,0.017927885,0
0.57208407,1.2240001,1.6511925,-0.25102258,0.85099417,0.46129867,0
-2.0061154,0.60789227,-1.4280639,-0.71511364,0.15814573,-0.68088359,0
2.1403918,1.2254195,0.83932304,0.4633643,0.83655304,-0.29235685,0
0.92049026,0.88058543,2.4279497,-0.34649825,0.76577556,0.54178095,0
2.639802,-1.4134746,0.63502383,0.71511364,-0.15814573,0.68088359,0
-1.4245903,-0.25683665,-2.2624114,-0.71511364,0.15814573,-0.68088359,0
-1.6936973,-0.047217131,-1.8304566,-0.71511364,0.15814573,-0.68088359,0
-1.1264669,1.8408874,-2.0421336,-0.71511364,0.15814573,-0.68088359,0
0.87883472,0.077713013,2.7092986,0.71511364,-0.15814573,0.68088359,0
1.3996558,-1.0397441,1.839874,0.71511364,-0.15814573,0.68088359,0
1.1074741,1.487093,-0.22775698,0.45699221,0.84284443,-0.28420305,0
2.6029117,0.81174994,1.2070889,0.71511364,-0.15814573,0.68088359,0
-0.5371753,-1.2116089,-1.8143866,0.29049659,-0.81873387,-0.49526417,0
-1.2585882,-0.56143236,-2.390069,-0.71511364,0.15814573,-0.68088359,0
-2.5447545,0.04478395,-0.98735905,-0.71511364,0.15814573,-0.68088359,0
0.70213211,1.4552307,1.1843483,-0.024563611,0.96778393,0.25058115,0
0.87732577,0.11063719,2.9147563,0.71511364,-0.15814573,0.68088359,0
-0.11847541,1.847685,-0.3913871,0.17284346,0.98382837,0.046976447,0
0.66600919,-1.7473643,1.7414222,-0.4445433,-0.85460174,0.26839745,0
-1.3561895,0.018997908,1.1505268,-0.692693,-0.02968809,0.72062123,0
0.81800127,0.25558376,2.7703679,0.71511364,-0.15814573,0.68088359,0
-0.93744063,-0.16015148,-2.6562335,-0.71511364,0.15814573,-0.68088359,0
-2.7988372,-0.045252323,-0.77034235,-0.71511364,0.15814573,-0.68088359,0
1.1268744,0.60797596,2.6557629,0.71511364,-0.15814573,0.68088359,0
2.2374601,-0.80981588,-0.10908496,0.62850499,-0.2808454,-0.72533244,0
0.96736062,1.3539839,1.6568208,-0.074974716,0.9510982,0.29965115,0
-1.5135436,1.8010185,-1.805631,-0.71511364,0.15814573,-0.68088359,0
1.7653784,1.1501877,2.1451824,0.71511364,-0.15814573,0.68088359,0
0.4291085,1.3221307,1.5729442,-0.26805544,0.83755952,0.47606748,0
2.5225992,0.39325035,0.99495161,0.71511364,-0.15814573,0.68088359,0
-2.3747354,1.5798695,-0.69608992,-0.40207636,0.70373285,0.58574277,0
-0.6043098,-1.0931271,-2.2256696,0.39498949,-0.71222693,-0.58027244,0
-1.7141922,-0.45070434,-2.0517566,-0.71511364,0.15814573,-0.68088359,0
-2.4950705,1.0435119,-0.85836059,-0.71511364,0.15814573,-0.68088359,0
-0.64187145,1.8963197,-0.30534446,0.057137072,0.98403597,0.16854799,0
-1.5574131,-1.2794858,0.026399612,-0.52636486,-0.76277006,0.37566173,0
-0.29229629,1.6803889,0.5380851,-0.090150058,0.94507033,0.31418926,0
-0.85595942,0.95337158,1.2802188,-0.51758093,0.5348866,0.66783696,0
-0.23472416,1.4199098,-2.1790469,0.60189795,0.63460755,-0.48475981,0
-2.2980585,-0.044439316,0.22931588,-0.69892776,-0.14699027,0.69992405,0
-0.56722045,0.96683431,-2.921262,-0.71511364,0.15814573,-0.68088359,0
0.62707365,1.1739239,1.9752142,-0.2763744,0.83073258,0.48321906,0
1.7796977,-0.1122824,-0.73664737,0.69421232,0.046771109,-0.71824908,0
2.8895602,-0.96333647,0.51217854,0.71511364,-0.15814573,0.68088359,0
0.69435018,0.80118644,-1.5421364,0.67246234,0.42153379,-0.60836136,0
-1.3240836,-0.3757925,-2.3718297,-0.71511364,0.15814573,-0.68088359,0
1.1658355,0.81131935,2.6250286,0.71511364,-0.15814573,0.68088359,0
1.1178138,-1.6394292,2.0857062,0.71511364,-0.15814573,0.68088359,0
-0.92564142,-0.8028478,1.335575,-0.66574979,-0.45097563,0.59447294,0
1.589332,-0.18400216,1.9108629,0.71511364,-0.15814573,0.68088359,0
-1.5647675,0.80688918,-1.7516412,-0.71511364,0.15814573,-0.68088359,0
-0.77288318,-1.3896999,-1.4343101,0.14161271,-0.92109501,-0.36267048,0
-0.28119242,1.2206343,-2.2132804,0.63247031,0.56116122,-0.53392804,0
2.6732166,0.6561389,1.0303199,0.71511364,-0.15814573,0.68088359,0
1.9683932,-0.70576859,1.3771026,0.71511364,-0.15814573,0.68088359,0
-0.53859699,-0.9437325,-2.2806759,0.39013761,-0.71793908,-0.5765034,0
0.52937186,-0.63406014,2.9145877,-0.69597375,-0.070423186,0.71460557,0
-0.55638051,1.8847193,-0.77450585,0.15903756,0.98533469,0.061826348,0
-0.14771266,1.9476832,-0.56555033,0.22934993,0.97323102,-0.014832139,0
-2.0363064,1.3771811,-1.1687177,-0.71511364,0.15814573,-0.68088359,0
-1.1217527,1.9174532,-1.65098,0.27734622,0.95831013,-0.06870687,0
2.1022522,-0.47289872,1.3448578,0.71511364,-0.15814573,0.68088359,0
2.0315673,1.0115649,1.885765,0.71511364,-0.15814573,0.68088359,0
0.44099236,0.44884408,-2.0070744,0.69889712,0.14439726,-0.70049417,0
2.6366246,-0.53068388,0.74348867,0.71511364,-0.15814573,0.68088359,0
1.5413656,0.30639386,2.1209941,0.71511364,-0.15814573,0.68088359,0
0.047381878,-0.51990199,2.4617755,-0.69722283,-0.091799617,0.71095234,0
1.4936668,-0.80359662,1.8482481,0.71511364,-0.15814573,0.68088359,0
-0.35728312,1.3875697,-2.1024423,0.58095962,0.67614055,-0.45312202,0
-0.6501565,-0.52923727,-2.8519039,0.54130375,-0.49101722,-0.68256301,0
-2.0606532,0.90275419,-1.203928,-0.71511364,0.15814573,-0.68088359,0
2.3865247,0.013357282,-0.086075544,0.69888735,0.14365125,-0.70065725,0
2.1342306,0.99735558,1.5352349,0.71511364,-0.15814573,0.68088359,0
0.51964581,-0.99187905,-1.2881808,0.43780446,-0.65801847,-0.61264908,0
-0.38871181,1.1889172,-2.5959206,0.66823214,0.44051567,-0.5995096,0
-0.4425838,1.7588601,-1.890521,0.48346764,0.81540918,-0.31838179,0
1.6417415,1.1320894,2.2826934,0.71511364,-0.15814573,0.68088359,0
-0.070325971,0.45359421,-2.4922059,0.6959362,0.069856048,-0.71469778,0
1.0441995,0.15406632,2.5640182,0.71511364,-0.15814573,0.68088359,0
-1.434564,-0.58308554,-2.1746321,-0.71511364,0.15814573,-0.68088359,0
0.54488575,-1.0512142,2.7441936,0.71511364,-0.15814573,0.68088359,0
-1.497418,-0.64764333,-2.2690403,-0.71511364,0.15814573,-0.68088359,0
-0.095660985,-1.645568,1.1611414,-0.4704138,-0.82936788,0.30142939,0
1.4391184,-0.096936941,2.1318111,0.71511364,-0.15814573,0.68088359,0
0.72932553,0.37974262,2.9049702,-0.56216365,0.44879165,0.694664,0
1.4501679,0.97956806,-0.68410492,0.61894667,0.59591711,-0.51165199,0
1.7100064,-1.2303001,1.7357602,0.71511364,-0.15814573,0.68088359,0
-2.079607,1.8451319,-0.95693302,-0.21352476,0.87809098,0.42820939,0
1.6617203,-1.1579593,1.6464726,0.71511364,-0.15814573,0.68088359,0
0.50763142,-1.8477023,1.0518711,-0.26966161,-0.9610846,0.059991598,0
0.95036662,-0.43081707,-1.3423597,0.62116671,-0.30294153,-0.7227574,0
-0.32452869,-0.95845103,1.8481574,-0.67687404,-0.39984754,0.6180318,0
0.54018295,-0.72888827,2.8680336,0.71511364,-0.15814573,0.68088359,0
-2.0120325,-1.345093,-1.2337291,-0.28472018,-0.95550478,0.077103257,0
-1.1686733,2.0079324,-0.91524518,0.10830131,0.9873755,0.11558717,0
-0.55088592,1.9233737,-0.085609198,-0.012808323,0.97094274,0.23896861,0
-0.76926661,0.95225906,-2.7548685,-0.71511364,0.15814573,-0.68088359,0
0.18016529,-1.028661,-1.7453283,0.43643624,-0.65986317,-0.61164045,0
-0.31297421,1.0755339,1.4635881,-0.43531495,0.66136885,0.61081266,0
1.0677836,-0.79800677,2.2226217,0.71511364,-0.15814573,0.68088359,0
-2.0440614,-0.91110504,-1.6798922,-0.71511364,0.15814573,-0.68088359,0
-2.2226067,1.3359125,-1.1736277,-0.71511364,0.15814573,-0.68088359,0
-1.7768158,0.41283035,0.61759448,-0.65868056,0.17361403,0.7321189,0
-1.0537989,0.26878619,1.2180138,-0.6600377,0.16792676,0.73222327,0
-1.5821784,2.0922704,-1.4742444,0.082439333,0.98635399,0.14251208,0
-3.0652852,0.32490623,-0.49587154,-0.69642627,-0.077547044,0.71342611,0
-0.11788523,1.0884328,1.5892142,-0.40103334,0.7049945,0.5849402,0
-1.170289,1.1229622,-2.0431671,-0.71511364,0.15814573,-0.68088359,0
0.91177607,0.85091645,-1.1675072,0.66603959,0.44977811,-0.59505552,0
-2.1699626,0.94978952,-1.2725248,-0.71511364,0.15814573,-0.68088359,0
2.4703074,-1.3834143,0.7050702,0.71511364,-0.15814573,0.68088359,0
0.35664523,1.2346425,1.6788471,-0.25916928,0.84465873,0.46838349,0
2.2026711,-0.61513901,-0.31724298,0.64965957,-0.20913222,-0.73089403,0
2.3077476,-0.95138693,1.0906591,0.71511364,-0.15814573,0.68088359,0
-0.81085122,-1.5444973,-0.16396904,-0.30549496,-0.9468286,0.10093749,0
-1.4018315,-0.32010818,-2.1801903,-0.71511364,0.15814573,-0.68088359,0
-1.457859,-0.58837771,-2.220494,-0.71511364,0.15814573,-0.68088359,0
2.605649,0.087822556,0.89035273,0.71511364,-0.15814573,0.68088359,0
0.27072597,-0.94199848,2.4920025,-0.67779219,-0.39504224,0.62011218,0
2.0353987,0.81221151,1.6516211,0.71511364,-0.15814573,0.68088359,0
-1.9514095,0.079265118,-1.5340956,-0.71511364,0.15814573,-0.68088359,0
-0.24469149,1.7703028,-1.4007721,0.45586306,0.84393954,-0.28276265,0
1.0001748,1.2837784,-0.69436407,0.54652196,0.73379207,-0.40356278,0
-1.9643931,1.1122901,-1.3100837,-0.71511364,0.15814573,-0.68088359,0
0.94788861,-1.8640172,0.19743586,0.053379774,-0.95887136,-0.27877605,0
-1.8104607,-0.098376989,-1.7217847,-0.71511364,0.15814573,-0.68088359,0
1.3678713,0.8575089,2.3444839,0.71511364,-0.15814573,0.68088359,0
1.2257227,0.91329765,-0.95709062,0.65952879,0.47537398,-0.58227229,0
0.76279676,-0.46144223,2.8688602,0.71511364,-0.15814573,0.68088359,0
-2.7382936,1.0049295,-0.48532116,-0.71511364,0.15814573,-0.68088359,0
-2.8450365,-0.065477133,-0.32255268,-0.69883943,-0.18315837,0.69143081,0
-1.0706317,1.5245281,-2.1086519,-0.71511364,0.15814573,-0.68088359,0
1.0555068,1.0612013,-0.93579924,0.60594606,0.62586498,-0.49104196,0
1.0471222,-0.30986202,-1.2907033,0.65174317,-0.20125034,-0.73125172,0
-0.91547632,1.239639,-2.4649022,-0.71511364,0.15814573,-0.68088359,0
0.28368187,0.74347472,2.3604608,-0.50506884,0.55649167,0.65971392,0
-1.991037,0.53111345,0.48202932,-0.6579082,0.17680681,0.73204929,0
-1.2835929,2.0629568,-1.8261993,-0.71511364,0.15814573,-0.68088359,0
0.41616309,0.41283536,-2.0469956,0.69899952,0.15691721,-0.69769377,0
-1.3746003,-0.31518197,-2.2076406,-0.71511364,0.15814573,-0.68088359,0
-1.5500129,-1.2312179,-2.1547992,0.087105095,-0.94631755,-0.31128085,0
-1.4525576,-1.5804167,-1.2723461,-0.14781317,-0.98625582,-0.073828936,0
-0.6884954,-1.4533639,-1.5533853,0.15792638,-0.91233206,-0.37776887,0
-0.097675562,-0.15255094,-2.5861249,0.6443724,-0.22838178,-0.72981215,0
-0.88490784,-0.43098545,-2.8506346,-0.71511364,0.15814573,-0.68088359,0
0.7966693,1.6237559,0.0028355122,0.32515618,0.93752867,-0.12374735,0
0.28353161,1.4984019,-1.0724887,0.4866432,0.81187952,-0.32253671,0
2.9619699,0.13065922,0.60231614,0.71511364,-0.15814573,0.68088359,0
0.9181968,0.6592434,-1.2995262,0.67783916,0.39479393,-0.62021917,0
1.2094611,0.73371124,-1.1544549,0.66989875,0.43322295,-0.60295391,0
2.4860051,0.74527526,1.3612175,0.71511364,-0.15814573,0.68088359,0
-1.8381889,-0.93975556,-1.858285,-0.71511364,0.15814573,-0.68088359,0
-0.39144623,1.0655506,-2.6443491,0.68065029,0.37931204,-0.62676758,0
-2.4925275,1.3826973,-0.57499427,-0.48993224,0.58137143,0.64959502,0
2.7611377,-0.8468883,0.3780117,0.63081712,-0.27362642,-0.72608417,0
2.9260058,-0.30854225,0.59011328,0.71511364,-0.15814573,0.68088359,0
-2.5148401,-0.51935327,-1.1347415,-0.71511364,0.15814573,-0.68088359,0
1.1744609,-1.4141818,2.2208929,0.71511364,-0.15814573,0.68088359,0
-2.6560338,1.3191378,-0.47299683,-0.50834668,0.55092633,0.66186392,0
2.5169241,-0.24622416,0.87896931,0.71511364,-0.15814573,0.68088359,0
2.9637289,-0.17016423,0.60896456,0.71511364,-0.15814573,0.68088359,0
-0.34916174,0.16678357,1.92906,-0.65590405,0.18494934,0.73183566,0
2.9062006,0.39307547,0.53222084,0.66196853,0.4660888,-0.58699137,0
0.052649736,-0.32007551,-2.3122892,0.63190639,-0.27017972,-0.72642761,0
1.3175412,-0.64495063,2.2156773,0.71511364,-0.15814573,0.68088359,0
0.72707069,-0.9122017,-1.283744,0.5057199,-0.55539161,-0.66014212,0
-1.2431234,-0.67392039,-2.4280355,-0.71511364,0.15814573,-0.68088359,0
-0.23216462,0.59760332,-2.6608658,0.69893277,0.14746103,-0.69982004,0
1.4870491,-1.2667608,1.6799543,0.71511364,-0.15814573,0.68088359,0
-0.33701289,-0.45569181,-2.3723874,0.56024486,-0.45283657,-0.69358832,0
-1.1670591,-1.5239083,-0.69295299,-0.18824342,-0.98165488,-0.030297518,0
0.84659684,-1.1283009,2.4267454,0.71511364,-0.15814573,0.68088359,0
-1.1741128,-1.491266,-1.5148482,-0.0025531054,-0.97465539,-0.22369719,0
0.5853802,1.4716536,1.4640694,-0.14766663,0.9179095,0.3682889,0
-0.94592011,-0.20949352,1.4748435,-0.69859368,-0.12815115,0.70394903,0
-0.62693143,0.81336141,-2.7045925,-0.71511364,0.15814573,-0.68088359,0
0.40313601,0.79174197,-1.8317688,0.67582351,0.40521371,-0.61568195,0
0.35161138,1.0548892,2.0661795,-0.37104475,0.73963213,0.56148922,0
-0.69702679,1.2649132,0.81357914,-0.32443494,0.78770453,0.52370185,0
-2.3637252,-1.148829,-0.96969986,-0.46225405,-0.83766299,0.29093289,0
2.8015141,0.64724755,0.86180282,0.71511364,-0.15814573,0.68088359,0
-0.30037355,0.1880753,-2.8017361,0.67272639,-0.10888252,-0.73183596,0
-1.5375942,-0.84716511,-2.1902008,-0.71511364,0.15814573,-0.68088359,0
0.87913346,-1.7296139,2.2842562,0.71511364,-0.15814573,0.68088359,0
1.6910373,-1.0136504,1.697084,0.71511364,-0.15814573,0.68088359,0
1.2202892,-1.0065129,2.1842535,0.71511364,-0.15814573,0.68088359,0
-2.7106504,0.68039197,-0.33196461,-0.65173668,0.20127529,0.73125064,0
1.6909394,-1.3955008,-0.21992481,0.44189703,-0.65245372,-0.61565495,0
0.065437376,1.7674297,-0.85876536,0.3396832,0.9299463,-0.14076579,0
-0.72179002,1.7960559,-2.0316834,0.46250832,0.83740926,-0.29125881,0
-0.5448463,0.99518275,1.4036393,-0.44817114,0.64378309,0.62023056,0
-1.1212969,1.9943652,-0.86165798,0.017582417,0.97783226,0.20865023,0
-2.2702935,0.11207032,-1.4024382,-0.71511364,0.15814573,-0.68088359,0
-2.7344847,0.34995222,-0.70332062,-0.71511364,0.15814573,-0.68088359,0
0.80449229,1.5249536,0.95825422,0.036957502,0.98126256,0.18909782,0
-1.6259559,1.5619698,0.074056074,-0.36616641,0.74498022,0.55760783,0
0.27299452,-0.70882463,2.6530213,-0.69746113,-0.22620153,0.67998582,0
-2.0142021,0.55433369,-1.2840884,-0.71511364,0.15814573,-0.68088359,0
2.5112684,1.0401163,1.2614839,0.71511364,-0.15814573,0.68088359,0
-1.8197592,1.0467701,0.29939643,-0.51822913,0.53374028,0.6682514,0
2.2846017,1.28188,1.6622708,0.71511364,-0.15814573,0.68088359,0
-1.8192444,-0.47774029,-1.9938023,-0.71511364,0.15814573,-0.68088359,0
-2.0843911,1.5569628,-0.15020639,-0.38803017,0.72039443,0.57486033,0
1.3468778,-0.26256442,2.3033767,0.71511364,-0.15814573,0.68088359,0
1.8661772,0.82966298,-0.17475939,0.62963003,0.56881189,-0.52916819,0
-2.025615,-1.1506196,-1.824178,-0.71511364,0.15814573,-0.68088359,0
-0.6187073,0.28963947,-2.8786435,-0.71511364,0.15814573,-0.68088359,0
-1.9044573,-1.238768,-1.3654436,-0.24937363,-0.96769452,0.037148356,0
-0.21807134,1.673655,0.59644079,-0.11685163,0.93331826,0.33950365,0
2.0842814,0.84162784,1.7525657,0.71511364,-0.15814573,0.68088359,0
2.3698003,-1.5190957,0.94589275,0.71511364,-0.15814573,0.68088359,0
2.3915465,-0.68109989,1.0089102,0.71511364,-0.15814573,0.68088359,0
0.3081308,1.5486082,-1.0078466,0.4874188,0.81100917,-0.32355332,0
-1.5518957,1.8237991,-0.50202525,-0.19846994,0.88804579,0.41470993,0
-1.2101263,1.790346,-0.18542588,-0.19660753,0.8892414,0.41303155,0
2.4218712,0.93042111,1.4426256,0.71511364,-0.15814573,0.68088359,0
-1.3580589,-1.3816111,-1.5250777,-0.028344095,-0.97983015,-0.19781154,0
0.28920773,-1.7086151,1.5768453,-0.48345137,-0.81542712,0.31836045,0
-1.2419651,0.50883031,-2.3033085,-0.71511364,0.15814573,-0.68088359,0
0.23493695,-1.6145072,-0.74349558,0.1706962,-0.90507269,-0.38949466,0
2.398,-0.78795993,-0.060899615,0.64477128,-0.22696477,-0.72990203,0
-2.8710463,-0.047243953,-0.65040421,-0.71511364,0.15814573,-0.68088359,0
1.7681459,0.68631291,2.0951812,0.71511364,-0.15814573,0.68088359,0
1.3519665,-1.4383132,1.8879226,0.71511364,-0.15814573,0.68088359,0
-1.2077773,0.070474267,1.3813577,-0.68150091,0.058902502,0.72944289,0
-1.625577,1.1337224,0.39308897,-0.50430655,0.55777657,0.65921175,0
-1.0232569,1.2129865,-2.4511437,-0.71511364,0.15814573,-0.68088359,0
2.535439,-1.3671994,0.63470185,0.71511364,-0.15814573,0.68088359,0
-0.11454356,-0.570207,-2.1594143,0.55013609,-0.47359431,-0.68779266,0
-0.93483424,0.42420399,1.5962828,-0.63338763,0.26544413,0.72688335,0
-2.4337659,0.63966835,-1.0014886,-0.71511364,0.15814573,-0.68088359,0
1.0617352,1.3207006,-0.41110158,0.52318108,0.7670753,-0.37131786,0
1.3547943,0.12039065,2.1688397,0.71511364,-0.15814573,0.68088359,0
1.7837921,1.2648772,0.61642838,0.43746617,0.86098337,-0.25948226,0
0.18820256,-1.3962797,1.8813264,-0.56555271,-0.70336199,0.43061805,0
-0.0030395985,-0.44810367,-2.3104486,0.58529311,-0.39706883,-0.70694292,0
-2.542376,-0.02853334,-1.097756,-0.71511364,0.15814573,-0.68088359,0
0.67190313,-1.7507323,1.5857487,-0.38086817,-0.90493292,0.18983102,0
1.6180394,-0.26923889,-0.92350262,0.68240726,-0.053079784,-0.72904247,0
-0.55522549,1.9900858,-1.1506543,0.27841192,0.9579134,-0.069918394,0
-1.8799436,1.6597657,-1.3910241,-0.71511364,0.15814573,-0.68088359,0
2.6026402,-0.45596755,0.71154094,0.71511364,-0.15814573,0.68088359,0
1.3869302,-1.0229288,1.9422731,0.71511364,-0.15814573,0.68088359,0
-1.7998812,-1.3330002,-0.34720993,-0.46613589,-0.83375669,0.29591715,0
-2.033299,0.89218414,-1.2549781,-0.71511364,0.15814573,-0.68088359,0
2.0342898,-2.0096488,0.99050671,0.71511364,-0.15814573,0.68088359,0
-0.54574943,0.1605463,-2.9271636,-0.71511364,0.15814573,-0.68088359,0
-2.0948749,1.2225932,-1.1612036,-0.71511364,0.15814573,-0.68088359,0
0.081277788,1.8378787,-0.37551033,0.26042604,0.96422076,-0.049563289,0
0.88307399,1.4497957,1.0947777,0.052413613,0.98346013,0.17337513,0
-1.2764556,0.04895854,-2.3065567,-0.71511364,0.15814573,-0.68088359,0
-0.24392319,1.5089183,0.94955897,-0.23799974,0.86078477,0.4498952,0
-1.6675344,0.055174828,-1.8444009,-0.71511364,0.15814573,-0.68088359,0
-0.79922974,1.3013034,-2.4994066,-0.71511364,0.15814573,-0.68088359,0
-2.7059898,0.52302712,-0.14334643,-0.68190461,0.056327879,0.72926897,0
0.81829166,0.26764441,2.9733086,0.71511364,-0.15814573,0.68088359,0
2.5062673,-0.32155347,0.9354099,0.71511364,-0.15814573,0.68088359,0
2.1838083,0.92587698,1.5463403,0.71511364,-0.15814573,0.68088359,0
