0.25122362,-0.6133579,-2.2387888,-0.26925021,-0.57266253,-0.77431387,0
-2.4612937,0.30621934,0.051701307,-0.68363923,-0.45265138,0.57248932,0
1.1046078,1.7103565,0.097580612,0.68363923,0.45265138,-0.57248932,0
-1.6864939,1.2333688,0.78555489,-0.46381557,0.8751086,0.13805759,0
-0.86364317,0.097667009,-1.8816278,-0.61384857,-0.067652695,-0.78651959,0
0.07330513,-2.2729325,0.51834846,0.50738752,-0.85862112,-0.072989941,0
-0.13933802,-2.2142391,0.59156477,-0.68363923,-0.45265138,0.57248932,0
-1.6942908,-0.38164151,-1.1945786,-0.62945867,-0.031283185,-0.77640402,0
-0.98408484,-1.8226125,-0.10111684,-0.68363923,-0.45265138,0.57248932,0
0.40757924,-0.30089998,-2.2607088,0.68363923,0.45265138,-0.57248932,0
-1.0364398,0.8652854,-1.727072,-0.71924138,0.28478888,-0.63370895,0
-0.89066583,-1.190944,0.60679018,-0.68363923,-0.45265138,0.57248932,0
-0.67219198,1.8492517,0.19934404,-0.40978765,0.88717568,0.2121163,0
-0.60402238,0.22773981,2.2211854,-0.68363923,-0.45265138,0.57248932,0
-0.73113936,0.56304049,2.2764223,-0.68363923,-0.45265138,0.57248932,0
-2.2055249,-0.79879618,-0.82808292,-0.5970301,-0.10429778,-0.79541004,0
1.9533343,-0.55588937,-0.69089907,0.68363923,0.45265138,-0.57248932,0
0.093652844,-1.4812028,-1.3711716,-0.020096362,-0.77245241,-0.6347546,0
0.28703618,1.048218,1.7787344,0.2655741,0.57635415,0.77284294,0
-2.0917711,-0.77292609,-0.53912187,-0.68363923,-0.45265138,0.57248932,0
-1.6147673,-0.050197423,-1.3435738,-0.66706872,0.069331244,-0.74176311,0
0.73337233,1.0619416,-1.0340519,0.68363923,0.45265138,-0.57248932,0
-0.23764467,1.81656,0.71933049,-0.22703522,0.87740642,0.42262626,0
1.3693213,0.685076,-0.5094167,0.68363923,0.45265138,-0.57248932,0
-1.4076892,-0.13990974,0.96533859,-0.68363923,-0.45265138,0.57248932,0
-0.16063499,1.5605172,1.2116585,-0.067084432,0.82007897,0.5683046,0
-1.004325,-0.81139934,0.94230616,-0.68363923,-0.45265138,0.57248932,0
0.24508324,-0.011179209,2.2602181,0.50694996,0.2697686,0.81867379,0
-0.3001138,-0.85321414,1.7479969,-0.68363923,-0.45265138,0.57248932,0
-0.92153955,1.824106,-0.18862808,-0.5377335,0.84276694,0.024216712,0
2.1542072,0.55928159,0.49389029,0.68363923,0.45265138,-0.57248932,0
1.5429618,0.85544449,1.1724265,0.52772206,0.23525417,0.81618923,0
1.7799562,0.65929306,0.19514099,0.68363923,0.45265138,-0.57248932,0
1.7150831,-0.97782516,0.68311143,0.72128075,-0.53869301,0.43538928,0
2.289052,-0.64505434,-0.28859317,0.68363923,0.45265138,-0.57248932,0
-0.31192088,-1.3919606,-1.3351605,-0.13222134,-0.69462681,-0.70711452,0
1.4056668,1.7428228,0.4603444,0.68363923,0.45265138,-0.57248932,0
1.7656282,1.128415,0.22643374,0.68363923,0.45265138,-0.57248932,0
1.2689061,-1.2880421,0.79672456,0.7086643,-0.59921867,0.37246734,0
0.071106911,1.68922,0.95925999,-0.075523973,0.82409161,0.56139916,0
-1.5639579,1.133105,-0.84070694,-0.71938306,0.55013198,-0.42407876,0
-1.8644315,-0.11283815,-1.1060219,-0.6737448,0.089895472,-0.7334758,0
-0.69179416,-1.8871154,-0.96214622,-0.071677446,-0.73899001,-0.66989255,0
0.2239188,-1.257112,2.043824,-0.68363923,-0.45265138,0.57248932,0
1.3351325,-0.13270301,1.4999654,0.66885781,-0.07473892,0.73962379,0
-0.91017044,0.44744182,1.8967133,-0.68363923,-0.45265138,0.57248932,0
0.25703096,2.2251468,-0.0017547607,-0.29167879,0.88851333,0.35421398,0
0.021786809,0.48326468,2.1003728,0.36697134,0.46484625,0.8057605,0
-2.1772528,-0.92018259,-0.70647395,-0.68363923,-0.45265138,0.57248932,0
-0.4022375,-0.71056283,1.4760613,-0.68363923,-0.45265138,0.57248932,0
0.36209786,0.9990977,-1.2742288,0.68363923,0.45265138,-0.57248932,0
0.87665439,1.4671339,-0.47759458,0.68363923,0.45265138,-0.57248932,0
-0.91174036,-0.20703807,-1.7097011,-0.57653517,-0.14601414,-0.80391985,0
-0.48225796,0.52231169,2.3059692,0.23873955,0.60256588,0.76152325,0
0.72820109,0.93418968,-0.83830541,0.68363923,0.45265138,-0.57248932,0
0.30982751,0.49781585,-1.9605738,0.68363923,0.45265138,-0.57248932,0
1.5593483,-1.4182048,-0.42016566,0.55495763,-0.8318637,0.0049723387,0
-0.26733243,1.1488745,-2.1849465,0.68363923,0.45265138,-0.57248932,0
-0.05280894,1.0194728,-1.8177077,0.68363923,0.45265138,-0.57248932,0
-1.4581554,1.1347911,-0.62498939,-0.71548831,0.57037342,-0.40342349,0
-1.4886801,-1.9337275,-0.67935282,-0.22120887,-0.61900759,-0.75358891,0
-1.3870637,-0.80098546,0.46281144,-0.68363923,-0.45265138,0.57248932,0
1.4703948,-0.69927412,1.2941248,0.72137272,-0.30009785,0.62414956,0
0.30629444,2.2004077,-0.65584362,0.68363923,0.45265138,-0.57248932,0
0.15526265,0.86092925,-1.5925741,0.68363923,0.45265138,-0.57248932,0
-1.2866617,1.5410053,-0.22161627,-0.62678796,0.76598603,-0.14283633,0
-0.11918902,1.866729,0.8551628,-0.17616904,0.86357933,0.47243547,0
-0.5078392,-2.0828106,-0.53688478,0.051116347,-0.81219649,-0.58114028,0
1.0004964,-0.46634531,-1.9084586,0.68363923,0.45265138,-0.57248932,0
1.3888998,0.65652096,-0.44553837,0.68363923,0.45265138,-0.57248932,0
-0.017245412,-0.94083977,1.9912802,-0.68363923,-0.45265138,0.57248932,0
2.1269205,0.65274429,0.7773217,0.63007224,0.029800586,0.7759645,0
-0.12606692,1.7606292,-1.2357702,0.68363923,0.45265138,-0.57248932,0
-0.51347136,-1.4621979,-1.3122218,-0.13708836,-0.6908173,-0.70991427,0
2.203891,0.55383956,0.45777127,0.68363923,0.45265138,-0.57248932,0
0.48613536,1.1528409,1.6219034,0.27404249,0.56781262,0.77620196,0
-0.2878896,-1.9634838,0.63497156,-0.68363923,-0.45265138,0.57248932,0
-0.48797715,1.1869751,1.8274446,0.025919735,0.76887167,0.63887751,0
-1.0032654,0.24164414,1.5164996,-0.68363923,-0.45265138,0.57248932,0
1.6715474,-0.29457545,-0.98866695,0.68363923,0.45265138,-0.57248932,0
-0.49975657,1.993722,-0.10838282,-0.45224208,0.87841308,0.15449101,0
0.041468799,0.054317951,2.4734039,0.46115422,0.34006533,0.8195684,0
-0.44954014,-0.54685736,1.7713972,-0.68363923,-0.45265138,0.57248932,0
0.014696598,2.1913362,-0.0082490444,-0.31276715,0.89045167,0.33056378,0
0.11168432,2.377718,-0.76146257,0.68363923,0.45265138,-0.57248932,0
0.90161645,0.045199633,-1.4766953,0.68363923,0.45265138,-0.57248932,0
2.2408895,-0.19548917,-0.13232005,0.68363923,0.45265138,-0.57248932,0
-1.3151939,1.0336956,1.6839721,-0.20873857,0.87292874,0.44093484,0
-0.24401188,-0.32317197,-2.1368639,-0.43012083,-0.38382822,-0.81711197,0
1.3227119,-0.97002578,-1.7196261,0.68363923,0.45265138,-0.57248932,0
0.4091177,1.7568582,-0.86680728,0.68363923,0.45265138,-0.57248932,0
-0.50793159,0.060376287,1.9535687,-0.68363923,-0.45265138,0.57248932,0
-2.1687245,0.30312324,0.40052629,-0.68363923,-0.45265138,0.57248932,0
-1.4256301,-0.06277132,0.75864214,-0.68363923,-0.45265138,0.57248932,0
-1.751801,1.1913694,-0.29312241,-0.68686277,0.66420138,-0.29505289,0
0.88122803,1.2239513,-0.48901445,0.68363923,0.45265138,-0.57248932,0
2.0828776,0.3463378,0.95251268,0.66443086,-0.061486036,0.74481612,0
1.1902471,-1.7227826,-0.19853342,0.52534223,-0.84972572,-0.044515967,0
1.3014508,1.0874404,-0.29125986,0.68363923,0.45265138,-0.57248932,0
0.98969311,-0.48217988,-1.8366005,0.68363923,0.45265138,-0.57248932,0
-1.130015,-1.4792123,-0.034391999,-0.68363923,-0.45265138,0.57248932,0
-1.5124285,1.5070405,0.35070205,-0.55078357,0.83464509,0.0022112727,0
0.014720201,1.9853719,-1.1301281,0.68363923,0.45265138,-0.57248932,0
-0.53626215,-1.4434326,-1.4223455,-0.18819839,-0.64855683,-0.73753327,0
-1.8690069,-1.1929529,-0.95993149,-0.48293063,-0.30755758,-0.8198697,0
2.0829973,0.58978772,0.23695451,0.68363923,0.45265138,-0.57248932,0
-1.7011377,-0.77829635,-0.1017126,-0.68363923,-0.45265138,0.57248932,0
-0.86280203,-1.5298823,0.36604625,-0.68363923,-0.45265138,0.57248932,0
1.1387113,-1.3710859,-1.3806163,0.26371813,-0.88463712,-0.38453841,0
1.320963,0.88682437,-0.37174094,0.68363923,0.45265138,-0.57248932,0
1.4610502,0.78360122,1.349347,0.51333165,0.25935626,0.81806171,0
-1.4179628,0.34438166,-1.248836,-0.71103829,0.23628402,-0.66226459,0
2.0949667,0.32101512,0.096029878,0.68363923,0.45265138,-0.57248932,0
-0.29355752,-1.7784278,0.86148244,-0.68363923,-0.45265138,0.57248932,0
2.0821059,-0.36608243,-0.58429337,0.68363923,0.45265138,-0.57248932,0
-0.32199031,-0.93424034,1.6291149,-0.68363923,-0.45265138,0.57248932,0
0.090756625,0.71495783,-1.8309761,0.68363923,0.45265138,-0.57248932,0
-2.30601,0.08058238,0.091232955,-0.68363923,-0.45265138,0.57248932,0
0.58573532,0.97601557,-1.2174182,0.68363923,0.45265138,-0.57248932,0
0.85867608,1.9196275,0.90494519,0.099851787,0.71903729,0.68776083,0
-1.9777527,0.83908486,0.7846154,-0.68363923,-0.45265138,0.57248932,0
-1.0876595,1.7369794,0.55162227,-0.41941839,0.88562512,0.19938982,0
1.3788378,0.16643178,-0.74119687,0.68363923,0.45265138,-0.57248932,0
-1.2129048,-1.8978066,-0.50054961,-0.68363923,-0.45265138,0.57248932,0
2.3289266,-0.12155914,0.44770521,0.72574496,-0.33886266,0.59872055,0
-0.46976566,1.9463098,-0.51448452,-0.55798602,0.82978725,-0.010230482,0
0.31180394,-0.74631155,-2.0783246,-0.19771433,-0.64022428,-0.7423085,0
0.33970881,1.1974704,-1.4418201,0.68363923,0.45265138,-0.57248932,0
-1.0403721,-0.041256189,1.2828158,-0.68363923,-0.45265138,0.57248932,0
0.6384033,1.4918748,-0.83242851,0.68363923,0.45265138,-0.57248932,0
-1.0048101,-0.76051617,-1.5550654,-0.45375386,-0.35076362,-0.81919008,0
-1.7292383,-1.351063,-0.84464151,-0.43225375,-0.38091034,-0.81735182,0
1.2195126,1.7723178,0.24290442,0.68363923,0.45265138,-0.57248932,0
1.5064422,-1.3025409,-0.044352889,0.6273008,-0.76535839,0.14394504,0
-2.2019975,-0.79532433,-0.49599692,-0.68363923,-0.45265138,0.57248932,0
0.2154336,-1.4851936,1.7724313,-0.68363923,-0.45265138,0.57248932,0
-0.83704901,-0.57350701,-1.7560577,-0.49376234,-0.29078096,-0.81953967,0
-1.0181127,-2.242157,-0.26154131,-0.68363923,-0.45265138,0.57248932,0
0.47026235,0.56829059,-1.7653215,0.68363923,0.45265138,-0.57248932,0
0.0079448,0.28581846,-2.3570266,0.68363923,0.45265138,-0.57248932,0
-0.11966944,2.207943,-0.4230969,-0.48732227,0.86705267,0.10361749,0
0.083196163,0.68925118,-1.9223824,0.68363923,0.45265138,-0.57248932,0
-0.81298852,-2.3298435,-0.074445963,-0.68363923,-0.45265138,0.57248932,0
1.7251148,0.59007871,-0.15569997,0.68363923,0.45265138,-0.57248932,0
1.4326693,0.45309985,1.3717854,0.55770582,0.18195252,0.80985028,0
1.3164679,-1.2248328,-1.4931111,0.25809932,-0.88368452,-0.39049497,0
-1.6843785,0.34491944,1.0295528,-0.68363923,-0.45265138,0.57248932,0
1.0414584,1.5961919,-0.28018612,0.68363923,0.45265138,-0.57248932,0
-1.0108111,1.647571,0.45102465,-0.4393273,0.88161951,0.17244834,0
0.76741529,-1.7916102,0.57961047,0.62454534,-0.76869678,0.13801497,0
-0.26387012,-1.6408567,-1.1614351,-0.041989207,-0.75873125,-0.65004915,0
2.2581458,-0.38183928,0.18662632,0.72814,-0.47622776,0.49296987,0
-1.5674503,-0.6924746,0.31194949,-0.68363923,-0.45265138,0.57248932,0
-1.7138853,-0.96741319,-0.13365063,-0.68363923,-0.45265138,0.57248932,0
-1.3346462,0.14990044,0.98309475,-0.68363923,-0.45265138,0.57248932,0
-1.8174629,-0.079876781,-1.0650845,-0.67718428,0.10093002,-0.72885835,0
-0.44715595,1.4434364,-1.8195977,-0.72938782,0.45075047,-0.51460397,0
1.5412731,-1.3574106,0.14252269,0.65638375,-0.72427344,0.21115929,0
-1.899448,-0.61998868,-0.24758664,-0.68363923,-0.45265138,0.57248932,0
1.6941159,-1.1719189,-0.75468332,0.49463391,-0.86415482,-0.0925951,0
0.87853175,0.53384602,-1.1313049,0.68363923,0.45265138,-0.57248932,0
-1.008494,-1.3937413,0.25712752,-0.68363923,-0.45265138,0.57248932,0
-0.071582079,1.6743376,1.074331,-0.089295805,0.83041048,0.54994965,0
0.44256616,2.2505693,-0.30647516,0.68363923,0.45265138,-0.57248932,0
-0.79676104,0.40241599,2.117152,-0.68363923,-0.45265138,0.57248932,0
0.62939608,1.8467007,-0.50658661,0.68363923,0.45265138,-0.57248932,0
-1.1712718,-1.9249413,-0.44269925,-0.68363923,-0.45265138,0.57248932,0
1.5808661,0.57417166,1.3571196,0.57352096,0.15191051,0.80498254,0
-1.6489106,-0.6867559,0.1318979,-0.68363923,-0.45265138,0.57248932,0
1.0690151,1.0673225,-0.4549396,0.68363923,0.45265138,-0.57248932,0
-0.38838255,1.5667534,-1.7273526,0.68363923,0.45265138,-0.57248932,0
-0.15933228,-1.2694103,1.2654328,-0.68363923,-0.45265138,0.57248932,0
-1.1301537,1.061819,1.8964887,-0.082268953,0.82722199,0.55581981,0
0.099086568,0.16731894,-2.3427601,0.68363923,0.45265138,-0.57248932,0
0.21076748,0.64818287,-1.7580473,0.68363923,0.45265138,-0.57248932,0
1.6220098,-0.86188304,0.82014883,0.7282837,-0.47398698,0.49491322,0
0.43295264,1.9178421,0.8971101,-0.015330195,0.79315883,0.60882187,0
-1.7426386,-1.3250531,-0.63429403,-0.68363923,-0.45265138,0.57248932,0
-0.70211196,-0.065018177,1.8672197,-0.68363923,-0.45265138,0.57248932,0
-1.1984701,-0.21013761,-1.502884,-0.60003358,-0.097926006,-0.7939586,0
-0.81235266,-1.365142,0.55360627,-0.68363923,-0.45265138,0.57248932,0
2.039964,-0.38542604,0.52949154,0.72976601,-0.43352845,0.52867264,0
0.66544628,-0.38018429,-2.0151711,0.68363923,0.45265138,-0.57248932,0
1.7521529,1.0718553,1.0194024,0.48956263,0.2973358,0.81970727,0
1.3070045,-1.3536438,0.81814528,0.69457245,-0.64436358,0.31994474,0
0.2167722,-1.2911048,-1.6941967,-0.058603883,-0.74784476,-0.66128182,0
1.1619631,-0.17877197,-1.5444617,0.68363923,0.45265138,-0.57248932,0
-1.2477255,-0.78646708,-1.4126227,-0.45806089,-0.34455794,-0.81942666,0
0.34491193,1.8909594,-0.78802508,0.68363923,0.45265138,-0.57248932,0
0.19808984,2.0941718,0.57287496,-0.13472295,0.84921533,0.5105713,0
0.97480965,1.1335527,-0.59111834,0.68363923,0.45265138,-0.57248932,0
1.9255013,-0.41671157,-0.79649323,0.68363923,0.45265138,-0.57248932,0
0.38931957,-0.5527252,2.2217331,0.62932694,0.031600922,0.7764979,0
0.4271695,-0.53670216,-2.2858834,-0.27218384,-0.56969863,-0.77547371,0
1.1149584,0.51485074,-0.91900027,0.68363923,0.45265138,-0.57248932,0
-0.75656211,-1.1502516,-1.5809592,-0.31716561,-0.52221322,-0.79164338,0
-0.90090394,-0.28572404,1.3127913,-0.68363923,-0.45265138,0.57248932,0
1.8192408,0.64784157,0.20279548,0.68363923,0.45265138,-0.57248932,0
-1.3676052,-0.0052931309,0.97967958,-0.68363923,-0.45265138,0.57248932,0
0.11453414,-1.1502203,1.9812583,-0.68363923,-0.45265138,0.57248932,0
-1.96213,-0.77554739,-0.97217131,-0.59886235,-0.10041907,-0.79453123,0
-1.1498562,-0.55928183,-1.5424097,-0.52028149,-0.2478267,-0.81724483,0
-1.215055,-0.80734265,0.6324172,-0.68363923,-0.45265138,0.57248932,0
1.6241412,0.68309629,0.033995748,0.68363923,0.45265138,-0.57248932,0
-0.8852818,1.7302216,-1.077325,-0.681126,0.67744601,-0.27773035,0
0.32774401,1.5640944,-0.84703588,0.68363923,0.45265138,-0.57248932,0
-1.3099302,0.79813457,1.5130516,-0.68363923,-0.45265138,0.57248932,0
1.0106071,-1.7057494,0.075383782,0.56650543,-0.82367128,0.025239706,0
-0.94737291,-1.8178192,0.18993175,-0.68363923,-0.45265138,0.57248932,0
1.3689817,1.3673965,1.0187253,0.32113135,0.51783669,0.79291856,0
-0.25513315,-1.6299934,0.94109046,-0.68363923,-0.45265138,0.57248932,0
-0.8989836,1.0389516,1.7533191,-0.058517814,0.81589723,0.57522815,0
0.086877823,1.3809447,-1.403015,0.68363923,0.45265138,-0.57248932,0
-1.2091511,-0.80506837,0.5536465,-0.68363923,-0.45265138,0.57248932,0
0.28783309,-0.38203466,-2.3978093,-0.37135005,-0.45954269,-0.80679595,0
0.0039117336,-1.2707875,1.5598921,-0.68363923,-0.45265138,0.57248932,0
-0.29234678,-0.34024382,2.0732665,-0.68363923,-0.45265138,0.57248932,0
-0.39859378,-1.5688019,-1.3367038,-0.12570935,-0.69966686,-0.70332307,0
2.2058563,-0.57891035,-0.50734532,0.68363923,0.45265138,-0.57248932,0
0.82796276,-1.8090748,-0.12012982,0.48147398,-0.86923283,-0.11232489,0
0.12648296,2.3528111,-0.46229291,0.68363923,0.45265138,-0.57248932,0
0.065560341,2.1637909,0.20611107,-0.31168884,0.89037389,0.33178985,0
0.31395966,-0.35811484,-2.3261931,-0.32140803,-0.51753014,-0.79300654,0
-0.89997023,-0.89121234,0.83349681,-0.68363923,-0.45265138,0.57248932,0
1.2716607,-0.84600306,1.4407338,0.72794592,-0.36674026,0.57930678,0
-1.020411,0.53568387,1.7624686,-0.68363923,-0.45265138,0.57248932,0
-0.36468685,1.2750279,1.5143263,-0.0078989267,0.78896844,0.61438286,0
-0.80380166,1.5450684,-1.3185194,-0.70814848,0.60115671,-0.37031913,0
2.0760043,-0.54168642,0.33440518,0.72718704,-0.48905116,0.48169267,0
0.47634271,-0.10969329,-2.0966387,0.68363923,0.45265138,-0.57248932,0
0.64377576,0.015613794,-1.8613696,0.68363923,0.45265138,-0.57248932,0
-0.64090687,-0.49895012,1.4479554,-0.68363923,-0.45265138,0.57248932,0
0.99007738,-0.47076333,-1.6789303,0.68363923,0.45265138,-0.57248932,0
2.0255828,0.13281083,-0.10982925,0.68363923,0.45265138,-0.57248932,0
-1.8430812,-1.5134367,-0.71860468,-0.68363923,-0.45265138,0.57248932,0
-0.66788387,1.7460303,0.57052463,-0.36154157,0.8914572,0.27311468,0
1.2316298,1.1515093,-0.086770773,0.68363923,0.45265138,-0.57248932,0
-0.92631936,-0.77415609,0.82868373,-0.68363923,-0.45265138,0.57248932,0
0.2028265,1.9121648,0.84222066,-0.077868044,0.82518727,0.55946636,0
1.2239196,1.2494664,-0.27223966,0.68363923,0.45265138,-0.57248932,0
0.176669,1.439232,-1.4130485,0.68363923,0.45265138,-0.57248932,0
-0.80151856,0.50717622,-1.9358819,-0.65268505,0.028205052,-0.75710416,0
-0.14751408,0.68788707,-2.3011804,0.68363923,0.45265138,-0.57248932,0
-0.53944302,1.8203053,0.47870547,-0.31978768,0.89090186,0.32253623,0
0.89207119,-0.50239253,1.7028697,0.67760164,-0.10229111,0.72828054,0
1.229388,1.3602781,-0.24224842,0.68363923,0.45265138,-0.57248932,0
-0.55564052,0.76490605,2.0626979,0.12397289,0.70099974,0.70230329,0
-2.0670662,0.57746172,-0.30817354,-0.72101057,0.54040265,-0.43371493,0
-0.75666142,-1.5579329,-1.0398542,-0.17526776,-0.65964276,-0.73085749,0
-0.38543904,-1.4633485,0.97978902,-0.68363923,-0.45265138,0.57248932,0
1.4106168,-0.94524074,1.0906054,0.72976637,-0.43348345,0.52870882,0
0.29813349,1.2559841,-1.2426231,0.68363923,0.45265138,-0.57248932,0
-1.2031149,1.3133898,-1.0837377,-0.71128792,0.58889145,-0.38376582,0
0.84836441,-1.2547848,1.6643771,0.72969013,-0.40913615,0.54786837,0
1.8563489,-0.83052915,0.60839152,0.72644901,-0.4973568,0.47424448,0
-0.05882597,-0.90292656,-1.9334779,-0.25555688,-0.58628929,-0.7687363,0
-0.93001115,-1.1369356,-1.3250548,-0.31366098,-0.52605462,-0.79049563,0
-0.45062625,1.5476115,-1.9365585,0.68363923,0.45265138,-0.57248932,0
-1.5454464,-0.069717884,0.71821451,-0.68363923,-0.45265138,0.57248932,0
-1.8521488,-1.4966862,-0.85218918,-0.41444972,-0.40488386,-0.81504625,0
0.25880504,-1.5398487,1.8490446,-0.68363923,-0.45265138,0.57248932,0
-2.1067588,-0.54851043,-0.94047368,-0.63491136,-0.017954029,-0.77237636,0
1.1947875,1.7252858,0.14628807,0.68363923,0.45265138,-0.57248932,0
-1.6438344,-1.2700721,-0.27068534,-0.68363923,-0.45265138,0.57248932,0
0.52867758,1.5124652,1.3175033,0.19169199,0.64551502,0.73930001,0
-1.3789257,-1.8897994,-0.58413959,-0.68363923,-0.45265138,0.57248932,0
-0.49295089,-0.44875622,1.7182858,-0.68363923,-0.45265138,0.57248932,0
-2.2625017,-0.016525984,-0.43841028,-0.72112864,0.29825941,-0.62531179,0
-0.98637038,0.93061817,1.9396654,-0.010139704,0.79024059,0.61271268,0
-1.3569624,-2.0036485,-0.51138043,-0.18096465,-0.65479207,-0.73382509,0
2.4278431,-0.57483387,-0.27928793,0.68363923,0.45265138,-0.57248932,0
-1.7217013,-0.64533269,-1.1509581,-0.56953287,-0.15962526,-0.80632013,0
0.78062487,-0.46491575,-2.0090418,0.68363923,0.45265138,-0.57248932,0
-1.2764457,-1.3183417,-1.1109259,-0.32552761,-0.51294744,-0.79430264,0
0.70165718,-1.7011851,1.3575559,0.70698154,-0.60544127,0.36553782,0
-1.3741055,-1.6185529,-0.94567239,-0.29593217,-0.5451141,-0.7843945,0
0.41352904,1.6877598,-0.84087133,0.68363923,0.45265138,-0.57248932,0
1.238344,2.0267622,0.43142486,0.68363923,0.45265138,-0.57248932,0
1.2157189,-0.57157063,1.6292261,0.71009994,-0.23143484,0.66497827,0
-0.12689498,-0.78053212,1.8062825,-0.68363923,-0.45265138,0.57248932,0
-1.9489217,-0.69529998,-0.38758355,-0.68363923,-0.45265138,0.57248932,0
2.207042,-0.37033963,-0.44943529,0.68363923,0.45265138,-0.57248932,0
1.4869111,1.735352,0.58932173,0.68363923,0.45265138,-0.57248932,0
-0.92489421,0.083567142,-1.9849768,-0.61741865,-0.059551403,-0.78437728,0
0.753043,-0.83061147,1.983129,0.69570261,-0.16715343,0.69861114,0
-0.58213818,0.32236063,2.1823585,-0.68363923,-0.45265138,0.57248932,0
0.99230325,-0.25067043,-1.5404022,0.68363923,0.45265138,-0.57248932,0
-0.89780998,-1.5064297,0.36142951,-0.68363923,-0.45265138,0.57248932,0
0.076368809,2.183639,-0.97228336,0.68363923,0.45265138,-0.57248932,0
-2.1049299,-0.17204642,-0.14450222,-0.68363923,-0.45265138,0.57248932,0
2.01,0.99000275,0.65898812,0.68363923,0.45265138,-0.57248932,0
-2.1321354,0.7898488,0.83867532,-0.68363923,-0.45265138,0.57248932,0
-1.9728967,-0.77120578,-0.17450586,-0.68363923,-0.45265138,0.57248932,0
1.0919228,-1.6455194,0.23043847,0.59629208,-0.79871714,0.080539882,0
-0.44997954,2.1265111,-0.0078222752,-0.42177737,0.88520765,0.19624251,0
0.11644387,-0.26700628,-2.3833604,-0.39129379,-0.43481791,-0.81106257,0
1.8672143,-0.56240249,-0.7697233,0.68363923,0.45265138,-0.57248932,0
0.69384181,0.015524864,-1.8401067,0.68363923,0.45265138,-0.57248932,0
0.078823566,0.35972464,2.2644432,0.43214917,0.38105375,0.81734031,0
2.1539712,0.26797795,0.095476806,0.68363923,0.45265138,-0.57248932,0
-1.1489621,-1.4890167,-1.1199882,-0.30564564,-0.53474808,-0.78779769,0
0.1923072,0.63650393,-1.7180744,0.68363923,0.45265138,-0.57248932,0
-0.45775655,0.11767304,2.0593474,-0.68363923,-0.45265138,0.57248932,0
-2.1418467,0.96994352,0.32443798,-0.62337786,0.77008671,-0.13552201,0
0.1136353,0.98141634,1.7628064,0.20606613,0.63278806,0.74640203,0
1.1243372,0.96437693,-0.41489735,0.68363923,0.45265138,-0.57248932,0
0.041141152,-0.33343875,-2.2746713,-0.41813779,-0.39998832,-0.81557965,0
1.8224571,1.2242676,0.63239521,0.68363923,0.45265138,-0.57248932,0
-1.4371015,-0.85922813,0.3202084,-0.68363923,-0.45265138,0.57248932,0
-0.072918519,-0.23506701,2.4646647,-0.68363923,-0.45265138,0.57248932,0
-0.1492331,2.0786684,-0.083515644,-0.40582246,0.88774353,0.2173003,0
1.5191493,-0.83407772,0.84812272,0.7259385,-0.50254852,0.46952981,0
-0.63615477,-1.5026927,0.61169064,-0.68363923,-0.45265138,0.57248932,0
-1.8942404,-0.70127547,-0.044915497,-0.68363923,-0.45265138,0.57248932,0
0.34644413,-2.1209393,0.19849157,0.47854269,-0.8702808,-0.11665404,0
-1.051008,-0.20203388,1.1909974,-0.68363923,-0.45265138,0.57248932,0
1.3238682,-1.1212516,1.1889827,0.72712469,-0.48979729,0.48102838,0
-0.42120957,2.1413407,0.12518752,-0.38839579,0.889768,0.23971099,0
1.1195498,0.88050342,1.5916468,0.44900259,0.35754347,0.81887692,0
2.210829,0.93751037,0.81267112,0.58126926,0.13663536,0.80215758,0
-0.49700856,-2.0224073,-0.78396904,0.046851993,-0.81002718,-0.5845176,0
0.14594173,1.194628,1.7151754,0.17349458,0.66114193,0.72992527,0
0.65715659,0.89181113,-1.2810477,0.68363923,0.45265138,-0.57248932,0
-0.30111611,1.5275627,-1.710719,0.68363923,0.45265138,-0.57248932,0
1.9879214,1.0467044,0.56728286,0.68363923,0.45265138,-0.57248932,0
0.79210567,1.2283455,-0.53624111,0.68363923,0.45265138,-0.57248932,0
0.59471351,-1.1439791,1.9243348,0.71619695,-0.265239,0.64553094,0
0.78149372,0.10992122,-1.7620553,0.68363923,0.45265138,-0.57248932,0
0.43272889,1.8157098,-0.81580985,0.68363923,0.45265138,-0.57248932,0
-1.0789965,-0.24712214,-1.6288393,-0.594998,-0.10856908,-0.79636055,0
-0.22639203,2.3081367,-0.73012912,-0.5308879,0.84669811,0.035499752,0
-0.76318264,0.64389485,-1.9454308,-0.68059313,0.1121982,-0.72401971,0
-1.7249241,-0.07694912,0.33192983,-0.68363923,-0.45265138,0.57248932,0
-2.0485456,0.89725804,0.72735226,-0.68363923,-0.45265138,0.57248932,0
-1.1496613,-0.9902463,-1.3826842,-0.42018589,-0.39725393,-0.81586343,0
1.1722801,1.9700766,0.1682452,0.68363923,0.45265138,-0.57248932,0
0.10695225,0.1422267,2.3330534,0.42686146,0.38826278,0.81672597,0
-0.40171456,1.5009707,-1.9051721,0.68363923,0.45265138,-0.57248932,0
-1.5871723,-1.4675329,-0.4264887,-0.68363923,-0.45265138,0.57248932,0
0.28678226,1.7856421,0.8753792,0.00076913834,0.78397804,0.6207881,0
-1.5709856,-1.8854382,-0.66637641,-0.26467794,-0.57725042,-0.77248144,0
-1.3587964,-0.20575288,-1.4699948,-0.62548935,-0.040772021,-0.7791667,0
0.93324041,1.6777133,-0.17784679,0.68363923,0.45265138,-0.57248932,0
1.3819828,-0.85024285,-1.7427077,0.68363923,0.45265138,-0.57248932,0
-0.035422534,-0.1130693,2.4623864,-0.68363923,-0.45265138,0.57248932,0
-2.3771324,0.24715185,-0.017251372,-0.68363923,-0.45265138,0.57248932,0
0.27848148,-1.1345277,2.02949,-0.68363923,-0.45265138,0.57248932,0
-1.0452591,-1.1668144,0.56766951,-0.68363923,-0.45265138,0.57248932,0
0.93852937,0.82784641,-0.97734147,0.68363923,0.45265138,-0.57248932,0
0.45566869,-0.030896902,-2.2691958,0.68363923,0.45265138,-0.57248932,0
-0.5889132,1.9557741,0.14747572,-0.45206386,0.87846071,0.15474135,0
1.5747018,-1.2648461,-1.1949809,0.35277545,-0.89165181,-0.28373665,0
-0.67885494,1.0005049,2.0124164,0.045176744,0.75667441,0.65222907,0
0.503106,-0.81991827,-2.1050568,-0.16877717,-0.66510564,-0.72742599,0
-0.99638516,-0.98905778,0.51828909,-0.68363923,-0.45265138,0.57248932,0
0.039537758,0.69549596,-2.0134835,0.68363923,0.45265138,-0.57248932,0
-0.14164901,0.83528471,2.1262462,0.21844923,0.6215477,0.75230205,0
-2.478987,0.24087954,-0.23658705,-0.72971034,0.41034526,-0.54693651,0
1.2867694,-1.0545363,1.081393,0.72817123,-0.47575068,0.49338424,0
0.9445436,2.2026637,0.093533158,0.68363923,0.45265138,-0.57248932,0
1.7587249,0.40146065,-0.038558632,0.68363923,0.45265138,-0.57248932,0
-0.34614396,2.1980398,-0.42533886,-0.52920878,0.84762937,0.038241208,0
0.46893764,0.18372291,2.053113,0.48491389,0.30451715,0.81983405,0
0.26461422,-0.18644238,2.355432,0.53251457,0.22702603,0.81540632,0
-0.44010538,-0.49380231,1.7667593,-0.68363923,-0.45265138,0.57248932,0
-2.0866606,0.58854282,-0.51881516,-0.7284528,0.4712072,-0.49731296,0
-0.0028469563,1.2350445,-1.7326864,0.68363923,0.45265138,-0.57248932,0
-0.71395743,-0.94836897,-1.7257938,-0.36927986,-0.46205562,-0.80631065,0
1.0457914,-1.6103063,-0.49425852,0.44072306,-0.88129669,-0.17052615,0
0.95878899,-0.88674933,1.7714939,0.720186,-0.29137635,0.62962836,0
1.8510475,0.31620002,1.0100648,0.66549957,-0.064646497,0.74359339,0
1.2636936,-0.61874008,-1.7468096,0.68363923,0.45265138,-0.57248932,0
0.48257303,-0.45796269,2.1145372,0.62735778,0.036327176,0.77788335,0
-1.3393154,0.65408772,-1.3799615,-0.71398145,0.25227177,-0.65313804,0
2.0306053,-0.97879648,-0.77640307,0.5558213,-0.83127654,0.0064679384,0
-1.5016935,0.67839932,1.4258965,-0.68363923,-0.45265138,0.57248932,0
-2.0589771,-0.71968162,-0.24887866,-0.68363923,-0.45265138,0.57248932,0
-2.0547643,0.075066566,0.071955502,-0.68363923,-0.45265138,0.57248932,0
-1.0555419,1.685059,0.11525679,-0.54426432,0.8388086,0.01328826,0
-0.46218628,1.2765093,-1.9856176,-0.7253958,0.33519655,-0.60120225,0
1.1967156,-1.5763259,-0.44838476,0.49056518,-0.86579132,-0.09874779,0
0.7066853,2.1775975,0.048676848,0.68363923,0.45265138,-0.57248932,0
-0.60273242,-2.1354666,0.33289266,-0.68363923,-0.45265138,0.57248932,0
-1.8744638,-0.067498446,-1.0253947,-0.69718909,0.17311734,-0.69567072,0
-0.360484,1.8530757,-1.5676113,0.68363923,0.45265138,-0.57248932,0
-2.3904145,0.63715219,0.21236634,-0.69164139,0.65221596,-0.31023604,0
-1.3578825,1.3777086,-0.7116338,-0.69165123,0.65219015,-0.31026822,0
2.0392895,-0.18994617,-0.29477936,0.68363923,0.45265138,-0.57248932,0
-1.062021,-2.1646039,-0.3893798,-0.68363923,-0.45265138,0.57248932,0
0.97804451,-0.5459733,-1.9904343,0.68363923,0.45265138,-0.57248932,0
-0.087741375,-2.3988457,0.58257425,-0.68363923,-0.45265138,0.57248932,0
-1.4199191,-1.6667111,-0.43028575,-0.68363923,-0.45265138,0.57248932,0
-0.23057729,-0.94667161,1.4985158,-0.68363923,-0.45265138,0.57248932,0
1.108729,-1.5083244,1.0046078,0.70636356,-0.60765642,0.36304837,0
1.063221,-1.2261581,1.2856042,0.72927082,-0.454119,0.51180089,0
-0.36188129,0.20499825,2.3737843,-0.68363923,-0.45265138,0.57248932,0
1.4256942,-0.04369396,1.3473032,0.66814244,-0.072568014,0.74048603,0
1.4699627,-0.57438087,-1.2396724,0.68363923,0.45265138,-0.57248932,0
-0.78617752,1.5005424,-1.3059341,-0.71991092,0.5470764,-0.42712498,0
-1.0595053,1.1770056,1.6867959,-0.15591842,0.85690004,0.49133661,0
0.10559297,1.5693274,-1.169908,0.68363923,0.45265138,-0.57248932,0
1.1135697,-1.3882945,0.94428039,0.71486348,-0.57331288,0.40035307,0
-1.3257909,0.13860655,1.2950938,-0.68363923,-0.45265138,0.57248932,0
-0.24015439,-0.89435053,-1.6646749,-0.28378677,-0.55781996,-0.77993715,0
-0.71450162,-2.4268534,-0.17384303,0.15562499,-0.85679847,-0.49160659,0
2.1307609,0.54420698,0.23569691,0.68363923,0.45265138,-0.57248932,0
-1.625999,-0.034784675,-1.2275229,-0.67692584,0.10008968,-0.72921419,0
0.68092847,2.020504,0.78801638,0.024677813,0.76963949,0.63800156,0
-2.219614,-0.5672096,-0.60725796,-0.68363923,-0.45265138,0.57248932,0
-1.4114087,-0.032282114,0.84070182,-0.68363923,-0.45265138,0.57248932,0
1.2007126,0.32788038,-1.0900258,0.68363923,0.45265138,-0.57248932,0
0.81091011,1.6704621,-0.47241318,0.68363923,0.45265138,-0.57248932,0
0.012156606,1.2508262,-1.6547308,0.68363923,0.45265138,-0.57248932,0
0.94849372,0.39331913,-1.0874914,0.68363923,0.45265138,-0.57248932,0
-2.1289527,0.58486652,0.38603538,-0.68363923,-0.45265138,0.57248932,0
-2.2578783,-0.76246715,-0.6506325,-0.68363923,-0.45265138,0.57248932,0
2.1649859,0.55843413,0.56887752,0.68363923,0.45265138,-0.57248932,0
0.12314713,1.628144,-1.2423372,0.68363923,0.45265138,-0.57248932,0
2.188616,0.80952561,0.78345686,0.61413586,0.067005217,0.78635067,0
0.90655321,-1.1626995,1.5810983,0.72956121,-0.40296984,0.55258989,0
-1.5618681,-0.78826058,0.15752877,-0.68363923,-0.45265138,0.57248932,0
-1.8693187,0.11915898,0.5705893,-0.68363923,-0.45265138,0.57248932,0
-0.89609635,0.6325087,-1.6905773,-0.69015753,0.14589179,-0.70880044,0
0.9651798,-1.6644738,-0.61641645,0.36002719,-0.89150304,-0.27495942,0
0.77234602,-1.8394783,0.15575266,0.50474048,-0.85982132,-0.077099979,0
-2.0815327,-0.30784106,-0.091138482,-0.68363923,-0.45265138,0.57248932,0
1.0822392,-0.86993682,1.5740927,0.72067761,-0.29492441,0.62741005,0
-0.32887506,-1.3166733,1.3022445,-0.68363923,-0.45265138,0.57248932,0
-1.5898238,-1.6239103,-0.95712531,-0.3311193,-0.50667143,-0.79601765,0
1.9672661,-0.14240897,0.7573632,0.71433628,-0.25428912,0.65196681,0
-0.8190434,-1.2796876,-1.384776,-0.28120607,-0.56048369,-0.77896154,0
0.96979737,1.8454276,0.030309498,0.68363923,0.45265138,-0.57248932,0
-1.4674975,-1.4043418,-1.0467693,-0.35041851,-0.4845047,-0.80153728,0
0.82217216,-0.61700714,-2.0350485,0.68363923,0.45265138,-0.57248932,0
1.118784,0.57935154,1.5992661,0.50326651,0.27570474,0.81896871,0
-1.2459797,-2.0141799,-0.4509593,-0.68363923,-0.45265138,0.57248932,0
-0.36295885,-0.66620755,-1.9974716,-0.38918787,-0.43747362,-0.81064761,0
1.7587173,-1.2349697,-1.1529672,0.41696775,-0.88604295,-0.20264655,0
1.7879425,0.36437738,1.1728803,0.61612809,0.062494002,0.78516287,0
1.4054103,-1.1142067,-1.4171096,0.28059459,-0.8871513,-0.36637327,0
0.82788163,-0.53723598,-2.1757755,0.68363923,0.45265138,-0.57248932,0
-1.4485394,0.97422445,1.5111245,-0.68363923,-0.45265138,0.57248932,0
-0.37778556,1.6518092,-1.7921427,0.68363923,0.45265138,-0.57248932,0
-0.68805313,-1.0508294,-1.6062326,-0.3253265,-0.51317203,-0.79423994,0
-1.0268106,1.1994107,1.478708,-0.19827515,0.87011534,0.45120516,0
-0.65133166,-2.0047987,-0.66229415,0.0097601414,-0.79002559,-0.61299616,0
-0.18697995,-1.0367572,1.7091998,-0.68363923,-0.45265138,0.57248932,0
-1.0693101,-1.3993175,0.17618197,-0.68363923,-0.45265138,0.57248932,0
0.93484271,0.9351716,-0.91370261,0.68363923,0.45265138,-0.57248932,0
0.6845361,-0.3307128,2.1164136,0.62238109,0.048083678,0.78123605,0
-0.096679568,-1.4502381,-1.4270055,-0.095000088,-0.72255838,-0.68475127,0
-0.23149776,2.4006016,-0.76230156,-0.54466289,0.83856022,0.012615919,0
-1.5087494,0.57556522,-1.2913597,-0.71325952,0.24823079,-0.65547109,0
0.69354606,2.141206,0.015233636,0.68363923,0.45265138,-0.57248932,0
1.4598919,1.1562239,0.045459978,0.68363923,0.45265138,-0.57248932,0
0.83765197,-1.7509868,0.73988986,0.63424516,-0.75656557,0.15918994,0
0.96817052,0.0089845657,-1.3465071,0.68363923,0.45265138,-0.57248932,0
0.94716132,0.93069929,1.5966251,0.38924953,0.43739605,0.81065995,0
-1.6222765,1.0458848,1.4657851,-0.68363923,-0.45265138,0.57248932,0
-1.1237226,-0.32556063,-1.7270459,-0.56178093,-0.1743499,-0.80870533,0
0.6901232,-0.52725601,-2.3454647,0.68363923,0.45265138,-0.57248932,0
-0.050609708,-0.73895049,-2.0741165,-0.33250737,-0.50510335,-0.79643548,0
-0.046888229,0.44449449,-2.4636908,0.68363923,0.45265138,-0.57248932,0
1.0817311,-0.6063273,-1.7577159,0.68363923,0.45265138,-0.57248932,0
0.094445825,-1.7526489,1.3299489,-0.68363923,-0.45265138,0.57248932,0
1.2927138,0.069453239,-1.1564484,0.68363923,0.45265138,-0.57248932,0
1.3547652,-1.2219555,-1.4851615,0.22535139,-0.87701815,-0.42432988,0
0.79492927,1.6539276,-0.45268553,0.68363923,0.45265138,-0.57248932,0
-0.087191105,-1.9653519,-0.48720968,0.19706213,-0.86977744,-0.45238653,0
-0.13363829,0.51286018,-2.5042491,0.68363923,0.45265138,-0.57248932,0
-0.1897136,1.2514905,1.4884409,0.049868345,0.75361961,0.65541631,0
-0.59953094,-2.01265,-0.60052091,0.068409801,-0.82071626,-0.56722546,0
2.0331264,-0.0088438988,-0.13601482,0.68363923,0.45265138,-0.57248932,0
1.2577901,0.25554478,-0.97329521,0.68363923,0.45265138,-0.57248932,0
2.246567,-0.80104327,-0.097860932,0.67040658,-0.69950217,0.24749058,0
-0.53476822,1.2303815,1.5112063,-0.02413094,0.79801601,0.602153,0
-0.77396798,-1.3907454,-1.3063362,-0.26969481,-0.57221437,-0.77449048,0
-0.13338387,-1.6032145,1.2343456,-0.68363923,-0.45265138,0.57248932,0
-0.80461454,0.7589432,2.0987818,-0.68363923,-0.45265138,0.57248932,0
-1.0554429,1.0766755,1.8641984,-0.091606677,0.83144283,0.54800636,0
1.7243447,-0.85980368,-1.3633676,0.68363923,0.45265138,-0.57248932,0
0.86122203,-1.1297133,1.5647128,0.72981995,-0.42435843,0.53598762,0
1.8167424,1.2027918,0.86609137,0.45944518,0.34255114,0.819493,0
0.28928936,0.99573916,1.6367147,0.26961857,0.57229125,0.7744602,0
0.26027286,-2.0388741,1.4874114,-0.68363923,-0.45265138,0.57248932,0
0.65578151,-1.8705071,-0.32121468,0.39769036,-0.88878256,-0.22783291,0
0.089495659,0.19166327,2.2950795,0.458262,0.34426686,0.81943661,0
-0.57421839,-1.8299429,-0.96207315,-0.062953413,-0.74492705,-0.66416901,0
1.5366712,1.1829954,0.1483276,0.68363923,0.45265138,-0.57248932,0
-0.28927088,1.1478623,1.8096542,0.12791812,0.69796473,0.70461488,0
-0.92458379,-1.6739813,-1.0658474,-0.21493125,-0.6247673,-0.75064659,0
-1.6359681,-0.34533447,-1.3575201,-0.61849618,-0.057082117,-0.78371167,0
-0.84033805,-0.99925709,0.87150407,-0.68363923,-0.45265138,0.57248932,0
1.8517746,-1.06208,-0.95391291,0.47559422,-0.87130517,-0.12098479,0
2.0082057,0.50295651,0.31583402,0.68363923,0.45265138,-0.57248932,0
-0.0031618103,0.46013355,-2.4005258,0.68363923,0.45265138,-0.57248932,0
1.1294382,-0.82962644,-1.7544308,0.68363923,0.45265138,-0.57248932,0
-0.80459201,0.96318257,-1.8193706,-0.72060639,0.29440516,-0.62773561,0
-0.43893528,2.089417,-0.22660422,-0.50917518,0.85779494,0.070201933,0
-1.0633349,1.2308977,-1.2713807,-0.7281903,0.47545454,-0.49364138,0
1.1167566,1.5256767,0.035701573,0.68363923,0.45265138,-0.57248932,0
0.34076262,2.4139197,-0.42034435,0.68363923,0.45265138,-0.57248932,0
-0.89972675,0.87774539,-1.7156539,-0.71529919,0.25987446,-0.64870048,0
2.419883,-0.15926552,0.091102839,0.68363923,0.45265138,-0.57248932,0
-0.478266,1.1715897,1.8941009,0.038971961,0.76066434,0.64797449,0
1.6437036,-1.0265853,-1.4441575,0.68363923,0.45265138,-0.57248932,0
-2.156425,0.85257018,0.012346029,-0.68308192,0.67305744,-0.28353596,0
0.5172956,1.8121909,-0.63447022,0.68363923,0.45265138,-0.57248932,0
-0.84887922,1.0988086,-1.5875885,-0.72935802,0.39583224,-0.55799073,0
-0.12110841,-1.3021457,1.4617802,-0.68363923,-0.45265138,0.57248932,0
-0.031741887,-0.34105062,2.2613196,-0.68363923,-0.45265138,0.57248932,0
0.17696023,-2.1988475,0.39931703,0.47510868,-0.87147105,-0.12169588,0
-1.7823458,-1.3775812,-0.72788614,-0.68363923,-0.45265138,0.57248932,0
-1.781693,1.1730804,0.18539774,-0.61993754,0.77410072,-0.12823987,0
-1.3950009,1.3072439,1.0634583,-0.37466985,0.89084154,0.2569508,0
1.0391994,0.95610905,-0.64158899,0.68363923,0.45265138,-0.57248932,0
1.7855167,-0.83138955,0.5392791,0.72449708,-0.51548409,0.45758075,0
-0.4048655,2.1530714,-0.69773293,-0.59325922,0.80153924,-0.074687123,0
0.62634134,0.95115018,1.5383813,0.33532089,0.50191283,0.7972725,0
0.65961087,1.1954888,-0.96903247,0.68363923,0.45265138,-0.57248932,0
-0.02908659,-2.263036,0.48370576,0.45698166,-0.8771103,-0.14780116,0
0.26205677,0.45750701,-1.826925,0.68363923,0.45265138,-0.57248932,0
-1.0114973,1.7068954,-0.83530426,-0.68004417,0.67982078,-0.27456081,0
-0.36845529,1.4568684,1.2898324,-0.037438989,0.80514371,0.59189683,0
-2.2913933,0.75475705,0.00029754639,-0.69651246,0.63892853,-0.32655883,0
0.52963424,-0.27887785,2.1451693,0.58219504,0.1347841,0.80179936,0
-1.868961,-0.25927663,0.12010658,-0.68363923,-0.45265138,0.57248932,0
-0.47189373,0.66927934,2.2144294,0.23155683,0.60936648,0.75832313,0
0.22555603,-0.49332237,2.4454122,-0.68363923,-0.45265138,0.57248932,0
0.85277438,-1.8205937,-0.35386539,0.44183332,-0.8810358,-0.16899425,0
-0.73627269,-1.555228,0.46028864,-0.68363923,-0.45265138,0.57248932,0
1.2772202,-1.0350468,-1.6922156,0.1793949,-0.8645826,-0.4693765,0
-0.96535021,-0.31829825,-1.7145967,-0.57747805,-0.14415772,-0.80357802,0
1.4087492,-1.340443,-0.83181655,0.44148809,-0.88111734,-0.16947097,0
-1.2033181,0.29330143,-1.5448692,-0.690566,0.14740922,-0.70808834,0
-0.85996997,-1.5937868,0.45598733,-0.68363923,-0.45265138,0.57248932,0
0.93407106,1.8391411,0.87923896,0.1721009,0.66231662,0.72918987,0
-0.6897856,0.59059751,2.2510412,-0.68363923,-0.45265138,0.57248932,0
-1.2814772,-0.0837183,1.1543287,-0.68363923,-0.45265138,0.57248932,0
0.56421638,-0.62603331,2.1768672,0.64345354,-0.0036739707,0.76547635,0
0.56874692,-0.21119976,-2.2465806,0.68363923,0.45265138,-0.57248932,0
0.079964235,0.57670689,-2.049253,0.68363923,0.45265138,-0.57248932,0
-1.2381352,-1.9846755,-0.45957103,-0.68363923,-0.45265138,0.57248932,0
-1.7417474,0.50259304,0.89636588,-0.68363923,-0.45265138,0.57248932,0
-1.8366753,-0.99016446,-1.031386,-0.52866614,-0.23364155,-0.81604153,0
0.10291225,0.20963633,-2.2431726,0.68363923,0.45265138,-0.57248932,0
1.2266071,-0.36113006,1.4667809,0.68227547,-0.11789092,0.72152752,0
1.4420429,-1.4028522,-0.90779269,0.43772006,-0.88198435,-0.17465615,0
-1.1664746,-1.2566497,-1.345886,-0.36940122,-0.46190858,-0.80633938,0
-0.83460748,0.22673655,1.8327582,-0.68363923,-0.45265138,0.57248932,0
-1.9031855,-0.048428535,0.41857299,-0.68363923,-0.45265138,0.57248932,0
-0.87397599,1.2282299,1.6786228,-0.064415097,0.81878769,0.57047111,0
1.2409196,0.01151371,-1.030054,0.68363923,0.45265138,-0.57248932,0
-2.0941756,0.86760437,-0.23732936,-0.71173823,0.58703297,-0.38577312,0
0.46977112,0.68686533,-1.4249914,0.68363923,0.45265138,-0.57248932,0
1.4298668,0.95572639,-0.27827406,0.68363923,0.45265138,-0.57248932,0
-2.2568762,0.74372959,0.15279746,-0.674905,0.69062686,-0.25987989,0
0.011493325,-1.5170817,1.4395545,-0.68363923,-0.45265138,0.57248932,0
-1.7123063,-0.48789167,0.3104251,-0.68363923,-0.45265138,0.57248932,0
-0.20893931,-0.39225817,1.945487,-0.68363923,-0.45265138,0.57248932,0
0.54353869,-1.4056412,-1.4393108,0.096669912,-0.83367658,-0.54372627,0
0.07017839,-1.3530425,-1.4173136,-0.079332471,-0.73368686,-0.67484063,0
-2.2757537,0.22935963,0.02571404,-0.68363923,-0.45265138,0.57248932,0
-0.70017338,-1.1405218,0.94666493,-0.68363923,-0.45265138,0.57248932,0
1.1056181,-0.89689016,1.4697819,0.72148657,-0.30096433,0.62360048,0
0.03335011,-1.0290871,1.8445333,-0.68363923,-0.45265138,0.57248932,0
-1.1474991,0.55121064,1.5949646,-0.68363923,-0.45265138,0.57248932,0
0.26154798,-1.0802745,2.0096946,-0.68363923,-0.45265138,0.57248932,0
-0.16268218,1.928876,-1.1244365,0.68363923,0.45265138,-0.57248932,0
2.2575173,0.47900009,0.62795311,0.68216079,-0.1175001,0.7216996,0
0.44440246,-1.9421393,-0.15357935,0.41731846,-0.88598418,-0.20218134,0
0.52876616,-2.0205266,-0.20143664,0.40529311,-0.88781625,-0.2179898,0
-1.0936157,-1.6981747,0.046628058,-0.68363923,-0.45265138,0.57248932,0
2.0420022,-0.56175375,-0.47696298,0.68363923,0.45265138,-0.57248932,0
1.0155092,0.83611655,-0.72101432,0.68363923,0.45265138,-0.57248932,0
2.4140658,-0.082813025,0.33178514,0.68363923,0.45265138,-0.57248932,0
-1.7780502,0.55122131,-1.01791,-0.72457004,0.32703945,-0.60666585,0
-1.3991047,-1.6673347,-0.28093392,-0.68363923,-0.45265138,0.57248932,0
1.2316693,-1.4613941,-0.14141464,0.54689258,-0.83715612,-0.0088431835,0
0.1274693,1.6998943,1.1874423,0.038894117,0.76071399,0.64792085,0
-0.022255659,-1.9352003,1.2036376,-0.68363923,-0.45265138,0.57248932,0
-1.2641393,-0.022073269,1.2562091,-0.68363923,-0.45265138,0.57248932,0
1.680028,0.39080656,-0.36212125,0.68363923,0.45265138,-0.57248932,0
-1.2414763,0.26972112,-1.6050837,-0.67969072,0.10918117,-0.72532749,0
0.0409199,-1.0058765,1.8940116,-0.68363923,-0.45265138,0.57248932,0
-2.0222859,0.73885036,-0.28287113,-0.71861762,0.5544129,-0.41977978,0
-2.2014174,-0.0091309547,-0.64794403,-0.72005939,0.29047641,-0.6301887,0
1.0319614,-1.7003884,-0.59854662,0.39865518,-0.88866806,-0.22659028,0
0.5809679,-1.6614882,1.2668346,0.69825923,-0.63385731,0.33265436,0
0.4850775,-1.5215824,-1.3406363,0.066776156,-0.81993043,-0.56855512,0
1.9158151,-1.0813754,-0.95658708,0.48631483,-0.86743689,-0.10512435,0
2.2737453,-0.29748464,-0.014331341,0.68363923,0.45265138,-0.57248932,0
1.3529915,2.0655446,0.46180308,0.68363923,0.45265138,-0.57248932,0
-1.9148018,0.32442546,0.66493618,-0.68363923,-0.45265138,0.57248932,0
2.2759533,0.2267822,0.54854888,0.7043739,-0.20389605,0.67991459,0
0.11375678,-1.4058485,-1.5240579,-0.084214151,-0.73025906,-0.67795986,0
0.95809019,-1.7269878,0.09474659,0.55841333,-0.82949024,0.01097548,0
0.40245199,-1.8168991,-0.8473056,0.25157845,-0.8825078,-0.39735141,0
-1.4244583,1.4248033,-0.088744283,-0.62812656,0.76434153,-0.14573514,0
0.92627507,-0.62104648,1.7224268,0.70549405,-0.2090385,0.67718613,0
0.43460917,-1.6047059,1.6871715,0.72765172,-0.48317108,0.48689693,0
-0.24610829,-2.3762648,0.35135198,-0.68363923,-0.45265138,0.57248932,0
1.7267553,0.99114537,0.13567907,0.68363923,0.45265138,-0.57248932,0
-0.39863873,-1.9150671,-0.705778,0.018859148,-0.79512012,-0.60615849,0
1.7283614,-1.3262352,-0.26148236,0.58375102,-0.80995166,0.056681335,0
0.64545774,-2.0387464,-0.058393836,0.44705331,-0.87976092,-0.16175276,0
-0.49277401,-2.1826835,0.29605222,-0.68363923,-0.45265138,0.57248932,0
1.8469447,0.81930798,1.0734499,0.5549854,0.18697694,0.81057441,0
-1.0453469,0.7956512,1.961799,-0.68363923,-0.45265138,0.57248932,0
0.46978033,1.4023265,-0.98079908,0.68363923,0.45265138,-0.57248932,0
-1.9453671,0.37827265,-0.77075917,-0.72835338,0.3734521,-0.57448649,0
0.62641311,2.0138798,-0.23743671,0.68363923,0.45265138,-0.57248932,0
-1.664536,-1.2495295,-0.51240325,-0.68363923,-0.45265138,0.57248932,0
0.72822464,-0.97767735,-1.8395714,-0.014839649,-0.77564162,-0.63099903,0
-1.7253432,-1.5184906,-0.83667374,-0.37327507,-0.45719704,-0.80724013,0
-1.6245848,-0.64695454,0.18067348,-0.68363923,-0.45265138,0.57248932,0
-1.2408717,0.87261677,1.9679136,-0.68363923,-0.45265138,0.57248932,0
1.1806335,-0.76713157,1.4222922,0.71647596,-0.26693925,0.64451969,0
0.59055942,-0.57719862,2.1903944,0.66489172,-0.062846079,0.74429113,0
0.39632529,-1.0841053,2.1020727,-0.68363923,-0.45265138,0.57248932,0
-1.6876477,-0.98789346,-0.25688925,-0.68363923,-0.45265138,0.57248932,0
0.33279037,2.4661536,-0.099784493,-0.30179107,0.88955122,0.34295896,0
0.39087844,-2.0907383,-0.31726098,0.34261554,-0.89166641,-0.29588076,0
-1.078599,-0.56783438,1.0255851,-0.68363923,-0.45265138,0.57248932,0
-1.8124279,1.0256865,1.1809645,-0.68363923,-0.45265138,0.57248932,0
-1.1152068,-1.9736757,-0.34661829,-0.68363923,-0.45265138,0.57248932,0
0.22418004,0.14946055,-2.2698741,0.68363923,0.45265138,-0.57248932,0
0.91745514,0.39690673,-1.2374068,0.68363923,0.45265138,-0.57248932,0
0.84237742,2.3217187,0.11089754,0.68363923,0.45265138,-0.57248932,0
1.0821481,1.980293,0.61662304,0.11673152,0.70650816,0.69801146,0
-1.7468147,-0.3398273,0.36015847,-0.68363923,-0.45265138,0.57248932,0
-1.5626069,0.42900777,1.0391566,-0.68363923,-0.45265138,0.57248932,0
-1.4640765,-1.4299576,-0.4229528,-0.68363923,-0.45265138,0.57248932,0
-0.075596929,1.9172482,-1.3085084,0.68363923,0.45265138,-0.57248932,0
-0.9048903,1.1106856,-1.7115809,-0.7270484,0.35409963,-0.58822966,0
0.45300019,1.5780573,1.0843245,0.10281438,0.71686953,0.68958473,0
-2.3483679,0.45129895,0.01332593,-0.68363923,-0.45265138,0.57248932,0
1.0415686,2.0943575,0.38583249,0.68363923,0.45265138,-0.57248932,0
-1.4959923,-0.92501497,-1.1238492,-0.500126,-0.28072435,-0.81918728,0
0.89622772,1.5619605,1.0947297,0.22690302,0.61372513,0.75621194,0
-1.5644933,1.1978861,-0.55720067,-0.70420456,0.61512625,-0.35456407,0
0.51387024,2.2987833,0.34776574,-0.13707054,0.85010099,0.50846821,0
-1.3174222,-0.89340925,0.44999143,-0.68363923,-0.45265138,0.57248932,0
-0.66157222,0.070878923,-2.0268083,-0.60140038,-0.095002651,-0.79327935,0
-0.87970734,-1.6319454,-1.1190615,-0.19671988,-0.64110202,-0.74181497,0
-0.13042164,1.6068636,1.2182015,-0.03056252,0.80149341,0.59722215,0
-1.3857802,1.4571676,0.39999068,-0.49582213,0.86366522,0.09078896,0
1.257221,-1.4142649,0.640715,0.68631768,-0.66551006,0.29336733,0
-0.26819211,0.098638415,-2.403415,-0.5475775,-0.20045933,-0.81238836,0
0.58462536,-1.9061745,-0.29971313,0.35994828,-0.8915053,-0.27505538,0
0.47684038,1.2182263,-0.94364327,0.68363923,0.45265138,-0.57248932,0
-0.87639594,-2.1415951,-0.148871,-0.68363923,-0.45265138,0.57248932,0
-1.802755,1.1631459,-0.10696077,-0.66507751,0.70939469,-0.23330492,0
2.1037202,0.78116322,0.87226593,0.60855269,0.079452991,0.78952569,0
-2.087718,0.19450212,-0.76297557,-0.72368681,0.31896341,-0.61199653,0
1.9427062,-1.1671351,-0.12594271,0.64129448,-0.74703896,0.17514026,0
-1.4176441,-1.742861,-0.28268638,-0.68363923,-0.45265138,0.57248932,0
0.029497385,-1.3188307,1.7461513,-0.68363923,-0.45265138,0.57248932,0
-1.6911421,0.27242279,0.93677777,-0.68363923,-0.45265138,0.57248932,0
1.7397413,1.5619098,0.65377998,0.68363923,0.45265138,-0.57248932,0
-0.18090677,2.0436261,0.62030244,-0.22462535,0.87684923,0.42506331,0
0.11245537,-0.003410697,-2.4329355,-0.47381604,-0.321356,-0.81989551,0
-0.51611054,-1.8756924,0.60300106,-0.68363923,-0.45265138,0.57248932,0
2.0565505,-0.3627342,0.65649116,0.72904605,-0.38744271,0.56425172,0
-1.0189154,0.34192348,1.5828509,-0.68363923,-0.45265138,0.57248932,0
-0.32383108,0.13573813,-2.1927862,-0.54985273,-0.19634888,-0.81185532,0
0.3762579,2.1635439,0.40196991,-0.14341587,0.8524521,0.50274974,0
0.62792397,2.1179268,-0.18318701,0.68363923,0.45265138,-0.57248932,0
0.3322376,-0.88290358,2.2963955,-0.68363923,-0.45265138,0.57248932,0
0.21848059,-2.2514372,1.2221297,-0.68363923,-0.45265138,0.57248932,0
1.8114097,1.1391424,0.57998037,0.68363923,0.45265138,-0.57248932,0
-0.48556453,0.12123632,2.1102548,-0.68363923,-0.45265138,0.57248932,0
-0.829566,-2.1977015,-0.055227876,-0.68363923,-0.45265138,0.57248932,0
1.3154174,1.9268367,0.48494765,0.68363923,0.45265138,-0.57248932,0
1.1398474,-1.3910068,1.1441872,0.72021049,-0.54530036,0.42888707,0
1.9377394,0.9695406,0.51762736,0.68363923,0.45265138,-0.57248932,0
1.4935439,-1.3578447,-1.0426812,0.42894208,-0.88384664,-0.18661082,0
-0.93864959,0.033834219,1.3544891,-0.68363923,-0.45265138,0.57248932,0
1.2158716,-0.33507681,-1.5245156,0.68363923,0.45265138,-0.57248932,0
-2.0791919,0.43995905,0.5935685,-0.68363923,-0.45265138,0.57248932,0
-0.29304075,0.12438881,-2.3576183,-0.52244812,-0.2441906,-0.81695706,0
-1.294482,-1.6402194,-0.29209748,-0.68363923,-0.45265138,0.57248932,0
1.6088068,0.79741418,-0.077578284,0.68363923,0.45265138,-0.57248932,0
-0.52501595,1.8635911,0.63333458,-0.31820601,0.89080906,0.32435149,0
0.36669898,-1.4532301,1.9325414,0.7274977,-0.36013141,0.58399701,0
0.51990616,1.8637626,0.74303418,-0.012711883,0.79169166,0.61078858,0
1.6508049,1.3256283,1.0171418,0.40412232,0.41840282,0.81340283,0
2.1008477,-0.15667129,-0.2383129,0.68363923,0.45265138,-0.57248932,0
-1.6518639,0.51017481,-1.0116861,-0.72262192,0.30992776,-0.61786914,0
1.1722517,-0.0064835027,1.556422,0.62539577,0.040993616,0.77923012,0
0.80029058,1.2811248,1.3982985,0.26970059,0.57220852,0.77449274,0
