-0.22662136,-2.3041363,-1.515221,0.047195554,-0.21978897,-0.97440517,0
-0.20257503,2.1939993,1.0186517,-0.098642059,0.96969855,-0.22350508,0
0.23009777,-1.3052388,-1.7053314,0.047195554,-0.21978897,-0.97440517,0
-1.3165984,1.0837564,1.7670698,-0.047195554,0.21978897,0.97440517,0
-0.72253424,-2.1648142,-0.86484253,-0.35108113,-0.91690385,0.18981421,0
0.067971706,-1.5155588,-1.7912679,0.047195554,-0.21978897,-0.97440517,0
-0.30900282,1.9729242,-0.32855165,-0.14695713,0.96334964,-0.22441322,0
0.76821697,1.4729896,-1.7247719,0.33810863,0.9214254,-0.1914624,0
-1.215654,1.3629129,1.6162386,-0.047195554,0.21978897,0.97440517,0
-1.3993056,1.7796156,1.4990951,-0.047195554,0.21978897,0.97440517,0
-0.7730056,0.1756134,2.0563319,-0.047195554,0.21978897,0.97440517,0
1.606788,1.1123323,-0.095097065,0.80391169,0.58734602,-0.093545437,0
-0.40774959,-1.8534199,0.5813303,-0.25031108,-0.94696969,0.20147669,0
1.659508,-1.2743889,-0.54965001,0.80141759,-0.57394493,0.16827703,0
-1.6341162,1.5047951,1.3367887,-0.81746745,0.55209559,-0.16412616,0
-0.9263072,0.54638314,1.8890834,-0.047195554,0.21978897,0.97440517,0
0.090834722,1.4979578,1.749542,-0.047195554,0.21978897,0.97440517,0
-2.0929179,0.0057083368,1.4683065,-0.98983395,-0.14131777,-0.016066868,0
1.0041897,-0.59484208,2.1820936,-0.047195554,0.21978897,0.97440517,0
0.67130762,-0.59917045,2.2784266,-0.047195554,0.21978897,0.97440517,0
1.6919984,0.92364031,-0.41234058,0.87353653,0.48220062,-0.066456288,0
1.1673084,-1.7210929,-0.054870009,0.55137742,-0.80768108,0.20888835,0
1.6059486,-1.4207194,-0.51194465,0.783786,-0.5965845,0.1725297,0
-1.6967485,1.2842104,0.74336982,-0.82537907,0.54084617,-0.16197187,0
-0.82474327,-0.57399178,-1.8697822,0.047195554,-0.21978897,-0.97440517,0
1.0426161,0.19693696,-1.945724,0.047195554,-0.21978897,-0.97440517,0
0.71031052,1.4289874,-2.3251095,0.047195554,-0.21978897,-0.97440517,0
1.3416162,1.7177832,0.66430062,0.64310569,0.75310743,-0.13872361,0
0.38608149,-0.74940354,2.3305507,-0.047195554,0.21978897,0.97440517,0
1.23757,0.8694731,1.9168632,-0.047195554,0.21978897,0.97440517,0
1.8014154,-0.57347798,-1.7628529,0.047195554,-0.21978897,-0.97440517,0
0.25735027,-2.0782499,-1.5085934,0.047195554,-0.21978897,-0.97440517,0
0.66822976,-2.1662095,-1.0642252,0.27708051,-0.93433082,0.22417021,0
-1.8796701,-0.571729,-1.6608549,-0.99645984,-0.078302257,-0.030601703,0
-1.6475822,-1.1743705,-1.1668701,-0.88021046,-0.47032246,0.063453808,0
-0.8855716,1.5736665,-0.63008547,-0.48680612,0.84674597,-0.21457237,0
-0.62841088,1.9416859,-0.076684952,-0.31533691,0.92233008,-0.22331619,0
-0.14948995,-1.7782634,-1.7189555,0.047195554,-0.21978897,-0.97440517,0
-1.9132279,-0.32426864,0.24466561,-0.98766339,-0.15608127,-0.01263164,0
-0.37414059,1.9294839,-0.60841,-0.18515909,0.95666164,-0.22475493,0
-1.9008509,-0.34242153,-1.069811,-0.99478227,-0.09867093,-0.025926061,0
0.94999069,1.9241024,0.46572632,0.51381868,0.8418802,-0.16500944,0
0.43150264,0.21282816,1.986166,-0.047195554,0.21978897,0.97440517,0
-0.90239644,0.074640036,1.9221797,-0.047195554,0.21978897,0.97440517,0
1.1870739,1.4265013,-0.9038223,0.55380934,0.81759363,-0.15759426,0
-0.10221657,-1.7335966,-1.6357796,0.047195554,-0.21978897,-0.97440517,0
-1.9350797,-0.15717441,-1.515824,-0.99259484,0.098988399,-0.070404559,0
-0.54448664,-1.3403041,2.3411508,-0.047195554,0.21978897,0.97440517,0
-0.86497539,0.11119688,-2.0423281,0.047195554,-0.21978897,-0.97440517,0
0.54993868,-2.1853766,-1.6169336,0.047195554,-0.21978897,-0.97440517,0
-0.95828593,1.6299732,-0.96737397,-0.51558554,0.83014083,-0.21222097,0
-0.0060466826,-2.0711408,-0.13959491,-0.0023513287,-0.97551399,0.21992517,0
0.16204815,0.55266917,1.9693114,-0.047195554,0.21978897,0.97440517,0
-0.46801502,0.7007221,1.9398258,-0.047195554,0.21978897,0.97440517,0
0.50215209,2.1734049,1.5568057,-0.047195554,0.21978897,0.97440517,0
-0.45143694,-0.80422348,2.1110427,-0.047195554,0.21978897,0.97440517,0
0.97329628,-2.0270739,-0.53488088,0.47323614,-0.85414922,0.21558499,0
-1.4474524,0.57723266,-2.2440057,0.047195554,-0.21978897,-0.97440517,0
-1.8746582,0.88011676,0.040749371,-0.89630508,0.42127496,-0.13843644,0
-0.74448037,0.28776693,-2.1442261,0.047195554,-0.21978897,-0.97440517,0
0.63595426,1.4594716,-1.9827501,0.26088989,0.944345,-0.20037228,0
0.6550076,0.48652601,1.9665117,-0.047195554,0.21978897,0.97440517,0
-0.61076576,0.01637423,2.0126348,-0.047195554,0.21978897,0.97440517,0
-1.1100904,1.2985857,1.6386163,-0.047195554,0.21978897,0.97440517,0
1.2371087,-1.7076119,-0.6781249,0.62739635,-0.75254273,0.20013326,0
-1.6890174,0.39137143,-2.1313624,-0.91054451,0.39162362,-0.13243791,0
2.070694,-0.2753737,-1.2255801,0.99771488,-0.036843851,0.056635097,0
-0.44294402,-0.13746369,1.9930636,-0.047195554,0.21978897,0.97440517,0
-0.45720634,0.9918347,-2.3180003,0.047195554,-0.21978897,-0.97440517,0
0.92029124,0.48624766,-2.0262232,0.047195554,-0.21978897,-0.97440517,0
-1.8214505,-0.056773305,1.8828049,-0.047195554,0.21978897,0.97440517,0
1.1797434,-0.99459672,-1.7207046,0.047195554,-0.21978897,-0.97440517,0
0.3335194,-2.0513005,-0.20673513,0.13488665,-0.96515495,0.22423571,0
1.2661223,-0.88949859,-1.7945205,0.047195554,-0.21978897,-0.97440517,0
-0.16767208,-2.2544432,-0.68597084,-0.11133786,-0.9705711,0.21353149,0
-0.23371854,1.257949,1.7406669,-0.047195554,0.21978897,0.97440517,0
-1.0765558,-1.9338207,-0.81746387,-0.5744313,-0.8040247,0.15353489,0
-1.6293584,0.97060597,-1.0380783,-0.78928006,0.58967346,-0.17123705,0
-0.31825763,-1.3006743,2.2927363,-0.047195554,0.21978897,0.97440517,0
-1.5419877,1.1010665,1.8297395,-0.047195554,0.21978897,0.97440517,0
2.0902305,-0.43720424,-0.76375461,0.99135166,-0.10927777,0.072665274,0
0.8654803,-1.5130663,1.8416784,0.43863964,-0.87184554,0.21790099,0
-0.866916,-1.9783216,-1.7371948,0.047195554,-0.21978897,-0.97440517,0
2.0396514,-0.28555214,-1.9674395,0.047195554,-0.21978897,-0.97440517,0
-0.020350546,0.72618771,1.8971179,-0.047195554,0.21978897,0.97440517,0
0.56597167,1.8677387,1.637692,-0.047195554,0.21978897,0.97440517,0
-0.99390894,-1.7026198,-1.7103016,0.047195554,-0.21978897,-0.97440517,0
1.4381624,1.4179018,-0.29218102,0.69518292,0.70771074,-0.12596142,0
0.76582944,1.9478289,1.7371866,-0.047195554,0.21978897,0.97440517,0
-1.8008038,-0.81494653,1.7868865,-0.83466566,-0.54455739,0.082404375,0
0.33057374,-1.7924429,1.3415387,0.13372263,-0.9653213,0.22421682,0
1.9327633,-0.70909762,-1.8156762,0.047195554,-0.21978897,-0.97440517,0
0.93038648,1.7884556,1.7016395,-0.047195554,0.21978897,0.97440517,0
1.2176735,-0.7329222,-1.871219,0.047195554,-0.21978897,-0.97440517,0
1.0734801,1.479429,-1.6016355,0.45757985,0.87187761,-0.17449963,0
-1.134227,-1.5184486,0.94895887,-0.53218859,-0.83104527,0.16167581,0
0.56333643,1.6881061,-1.7415427,0.21640822,0.95457351,-0.20483392,0
-0.47658035,1.3345158,-2.4188018,0.047195554,-0.21978897,-0.97440517,0
-0.65957093,0.80297208,-2.3265176,0.047195554,-0.21978897,-0.97440517,0
-2.0471652,-0.33376604,-0.4016577,-0.98871034,-0.14916062,-0.014243394,0
-1.1213193,-1.5697302,0.68050826,-0.5100165,-0.84405673,0.16568458,0
-0.42179805,0.49200034,1.832866,-0.047195554,0.21978897,0.97440517,0
1.9330168,0.1694029,-0.35699427,0.99235338,0.1216953,0.020614997,0
-1.5408436,-1.4490666,-1.7277981,-0.86536342,-0.49622965,0.070016563,0
1.9811199,0.010055482,-0.46714538,0.9976368,0.059136003,0.034981906,0
0.79820466,-0.65307027,2.1729188,-0.047195554,0.21978897,0.97440517,0
-0.083052933,-1.7797227,0.72086501,-0.037155926,-0.97520339,0.21816939,0
0.16159505,1.5236443,-2.2648582,0.055134743,0.97457826,-0.21715754,0
-0.081193522,2.2526875,1.0543029,0.029053792,0.97538155,-0.21860194,0
-0.42925739,1.0421138,1.8799574,-0.047195554,0.21978897,0.97440517,0
-0.49941105,2.3534448,1.1970621,-0.20469207,0.95266289,-0.2247991,0
-1.7467113,0.082684994,-2.2029924,0.047195554,-0.21978897,-0.97440517,0
1.1922522,-1.0492924,2.2553425,0.6059587,-0.76919782,0.20285165,0
1.7616348,0.70203698,-1.5459969,0.87266493,0.48372313,-0.066841945,0
-0.53336906,1.906893,1.6871336,-0.047195554,0.21978897,0.97440517,0
-0.21624744,1.8274043,-1.0995705,-0.10113487,0.96942806,-0.2235648,0
0.32429218,-0.77499437,-1.7998542,0.047195554,-0.21978897,-0.97440517,0
-0.40906301,-1.1877656,-1.8167934,0.047195554,-0.21978897,-0.97440517,0
0.25703117,-0.16509616,-2.0786796,0.047195554,-0.21978897,-0.97440517,0
1.6662691,-0.83966374,1.2350813,0.84237778,-0.51548725,0.15707517,0
1.9172093,0.2702291,-2.0535839,0.047195554,-0.21978897,-0.97440517,0
0.52373499,-0.34079063,2.2252078,-0.047195554,0.21978897,0.97440517,0
-1.8926729,-0.4745034,0.93700826,-0.94240344,-0.33317441,0.029506035,0
-1.5208619,1.3186342,0.37087369,-0.76086652,0.62412292,-0.17763126,0
-1.8797565,-0.32717866,0.56220877,-0.97960293,-0.2009313,-0.0021247726,0
2.0257292,0.23337281,-1.9919566,0.94614619,0.32261676,-0.026943356,0
0.91358101,-0.58984613,-1.8564801,0.047195554,-0.21978897,-0.97440517,0
-0.15146855,2.3953252,1.5552863,0.013327464,0.97554386,-0.21940029,0
1.0579994,-1.7702892,-0.38789773,0.51420873,-0.83096403,0.21233988,0
-1.5465645,-0.34976661,-2.094594,0.047195554,-0.21978897,-0.97440517,0
-0.97348511,0.76837724,-2.2029855,0.047195554,-0.21978897,-0.97440517,0
-1.4493203,-1.6471193,-0.98928964,-0.74420792,-0.65841162,0.1124669,0
-0.5171476,-1.6967216,1.400238,-0.2963503,-0.93465322,0.19646859,0
-0.28501043,2.124279,0.73701143,-0.086833335,0.97089666,-0.22320336,0
0.48082656,-1.5104587,-1.7411141,0.047195554,-0.21978897,-0.97440517,0
-0.52452755,1.1693568,1.7105899,-0.047195554,0.21978897,0.97440517,0
-0.34065294,-1.4316972,2.1490932,-0.15271091,-0.96561253,0.21040905,0
1.3797946,0.20119619,-1.9625641,0.047195554,-0.21978897,-0.97440517,0
0.74205583,1.7942581,0.1195792,0.3981033,0.89880925,-0.18345517,0
-1.258974,-1.4751028,-1.7400445,0.047195554,-0.21978897,-0.97440517,0
-0.36261329,0.65508699,1.9896729,-0.047195554,0.21978897,0.97440517,0
0.88293207,-0.65841228,2.280684,-0.047195554,0.21978897,0.97440517,0
-0.93893391,-2.0172076,-1.6979392,0.047195554,-0.21978897,-0.97440517,0
-0.23859429,-1.4287657,2.3451161,-0.047195554,0.21978897,0.97440517,0
-1.9553607,1.0849812,1.6389148,-0.94033021,0.31930685,-0.11756864,0
1.4284917,0.049177527,-2.0961964,0.047195554,-0.21978897,-0.97440517,0
-0.30543935,-1.6463745,1.9380831,-0.12962794,-0.96859092,0.21219891,0
-0.027974725,1.5458654,-2.3162341,-0.093499072,0.97023737,-0.22337753,0
0.83084995,0.038159132,2.0763967,-0.047195554,0.21978897,0.97440517,0
0.90238988,-0.57597947,-1.8811743,0.047195554,-0.21978897,-0.97440517,0
1.2597282,-1.5916562,0.026544929,0.58452976,-0.78495181,0.20536721,0
-0.41882885,1.968557,-0.45543909,-0.17444021,0.95868868,-0.22469288,0
1.2307811,-1.5608456,0.32599211,0.5962041,-0.77647686,0.20402104,0
-1.2220573,0.50005412,1.7955872,-0.047195554,0.21978897,0.97440517,0
-1.020103,-0.30040228,-2.0094128,0.047195554,-0.21978897,-0.97440517,0
-0.66673726,-0.64175439,2.2237556,-0.047195554,0.21978897,0.97440517,0
-1.5046374,1.1042171,1.7555408,-0.047195554,0.21978897,0.97440517,0
1.2225175,-0.0434407,2.076932,-0.047195554,0.21978897,0.97440517,0
-0.33724612,-0.72584319,-1.9727248,0.047195554,-0.21978897,-0.97440517,0
1.9658215,-0.77522206,-0.70507181,0.93669236,-0.3290948,0.11960021,0
-1.804121,-1.0480827,-1.403733,-0.94850153,-0.31576192,0.025283076,0
1.4345428,-1.0934469,-1.8349767,0.047195554,-0.21978897,-0.97440517,0
1.2682592,-0.76099563,2.2238085,-0.047195554,0.21978897,0.97440517,0
-1.8411382,-1.0144852,-1.8023764,-0.94527376,-0.32511312,0.027548678,0
0.77761257,-0.46624422,-1.8538461,0.047195554,-0.21978897,-0.97440517,0
-0.13308623,2.0785007,-0.35725319,-0.074208692,0.97202504,-0.22284645,0
-1.6722114,1.013821,-0.6419642,-0.85816503,0.49030623,-0.15215993,0
0.88664722,1.4051176,-2.2358649,0.35255384,0.91637796,-0.18962413,0
1.0710204,1.4651954,-1.1973685,0.509489,0.84435695,-0.16577786,0
2.1187162,-0.14807558,-1.7457771,0.990816,0.13404623,0.017754633,0
-0.88365871,2.0518913,1.1847101,-0.4538053,0.8642925,-0.21693182,0
-0.2346081,1.7637879,-0.83341432,-0.14693971,0.96335238,-0.2244128,0
1.2383878,1.271515,-1.5949187,0.59681547,0.7884351,-0.14893425,0
0.61178225,-0.39680433,2.2591748,-0.047195554,0.21978897,0.97440517,0
0.61836708,0.69369298,-2.1120837,0.047195554,-0.21978897,-0.97440517,0
1.2964866,-1.2649602,-1.6585476,0.047195554,-0.21978897,-0.97440517,0
0.5502485,-2.0713844,-0.16219532,0.26112005,-0.9388572,0.22441816,0
1.7179985,-0.7722007,-1.8513954,0.047195554,-0.21978897,-0.97440517,0
-0.67705297,1.5687398,-1.9146136,-0.35723829,0.90726,-0.22194642,0
-0.48991689,0.2085793,-2.1541619,0.047195554,-0.21978897,-0.97440517,0
1.8803668,-0.89791405,-1.7406613,0.047195554,-0.21978897,-0.97440517,0
0.014451265,-1.7854314,1.6862216,0.057693377,-0.97326398,0.22232592,0
-1.0149605,1.0222223,-2.3500299,0.047195554,-0.21978897,-0.97440517,0
-1.6248116,-1.0846741,1.5783594,-0.74752659,-0.65480793,0.11149329,0
1.9216553,-0.73001403,-0.49007213,0.95202988,-0.2853654,0.11047941,0
-1.0957775,-1.4142452,1.3924167,-0.49984962,-0.84976804,0.16746527,0
-1.6026568,-0.0039390326,1.9504708,-0.047195554,0.21978897,0.97440517,0
-1.5355372,0.47143751,-2.1522169,0.047195554,-0.21978897,-0.97440517,0
-0.72032577,-0.32462561,2.0828085,-0.047195554,0.21978897,0.97440517,0
2.0021484,-0.66876984,-1.352809,0.98771,-0.13524382,0.078345835,0
-0.60891068,1.3655831,1.7902837,-0.047195554,0.21978897,0.97440517,0
1.7329613,1.4450319,1.7836797,0.86370718,0.49900711,-0.070723295,0
0.080936372,1.0936778,-2.3268142,0.047195554,-0.21978897,-0.97440517,0
1.3300666,-0.4246068,-1.837038,0.047195554,-0.21978897,-0.97440517,0
1.096976,-1.5042505,0.88738573,0.58352184,-0.78567177,0.20548081,0
0.96671009,-1.9241341,-1.6534426,0.047195554,-0.21978897,-0.97440517,0
0.83820891,-0.01125896,-2.0806181,0.047195554,-0.21978897,-0.97440517,0
1.9411926,0.32464272,0.89559466,0.99546689,0.090987362,0.027692325,0
0.093968093,-1.7738767,1.5335451,0.028504282,-0.97479862,0.2212584,0
0.033140883,-1.5813278,-1.6160262,0.047195554,-0.21978897,-0.97440517,0
0.09769839,-0.88370174,2.1920896,-0.047195554,0.21978897,0.97440517,0
-1.6438148,-1.1965982,-0.31809542,-0.84458357,-0.52962953,0.078556806,0
-1.3241744,-1.1815256,1.5043629,-0.65146321,-0.74625009,0.13677204,0
0.021777242,1.9427803,-0.34708595,-0.0031394511,0.97545481,-0.22017783,0
0.10939611,-1.4901887,-1.6647102,0.047195554,-0.21978897,-0.97440517,0
0.40334058,1.6189659,1.6100596,-0.047195554,0.21978897,0.97440517,0
0.56664908,-0.71167755,-1.8739508,0.047195554,-0.21978897,-0.97440517,0
0.2046718,0.062475562,-2.0654843,0.047195554,-0.21978897,-0.97440517,0
-0.99809062,-1.5222043,1.1882985,-0.48837495,-0.85602719,0.16943282,0
1.6055295,-1.0954561,-1.6932404,0.047195554,-0.21978897,-0.97440517,0
-1.6813445,-0.98497611,0.40267324,-0.86674726,-0.4938924,0.069422364,0
0.58891004,2.0746951,1.5442879,-0.047195554,0.21978897,0.97440517,0
-1.5606863,0.82095373,-1.9461256,-0.79329067,0.584548,-0.17027509,0
-1.7525003,0.1838578,1.8332052,-0.047195554,0.21978897,0.97440517,0
1.6191888,0.36990809,-1.9990206,0.047195554,-0.21978897,-0.97440517,0
2.0008934,-0.033117652,-1.7333229,0.97803307,0.20844951,0.00035290979,0
1.8990649,0.92442757,0.71183777,0.9344182,0.35448354,-0.034699321,0
-0.31371003,0.74280769,-2.2491324,0.047195554,-0.21978897,-0.97440517,0
1.4778237,0.38414514,-2.1644943,0.047195554,-0.21978897,-0.97440517,0
-1.6263947,0.96755707,-1.3372298,-0.81597245,0.55418468,-0.16452497,0
1.3661541,1.4005811,0.23882735,0.70513344,0.69826353,-0.12334856,0
0.45825076,0.48015106,2.0020378,-0.047195554,0.21978897,0.97440517,0
0.13130186,2.3650715,1.5507816,-0.047195554,0.21978897,0.97440517,0
2.1968484,-0.24289954,-1.609908,0.99618429,0.082050242,0.029742971,0
-0.13697398,2.0433469,0.26834118,-0.027634233,0.97483158,-0.22122359,0
0.13503614,0.027529836,-1.9593687,0.047195554,-0.21978897,-0.97440517,0
1.9630998,-0.39087868,0.18976802,0.96958292,-0.22446536,0.09759286,0
0.30626112,-0.16415834,2.049644,-0.047195554,0.21978897,0.97440517,0
-1.0178608,-1.2305626,2.2800798,-0.047195554,0.21978897,0.97440517,0
1.2236592,-1.867469,-1.4246348,0.61891109,-0.75924569,0.20123422,0
-2.0526402,0.48277223,0.70659322,-0.9783532,0.18659861,-0.089476317,0
-0.84537917,1.8043004,-0.094807148,-0.43407845,0.8740561,-0.21817869,0
0.052109897,0.41491663,1.910094,-0.047195554,0.21978897,0.97440517,0
-0.79120243,-1.549906,1.3703268,-0.33670169,-0.92190391,0.19163841,0
1.8088048,0.38730526,-1.9520657,0.90743917,0.41718018,-0.050148055,0
1.4266815,-0.56115758,-1.9578778,0.047195554,-0.21978897,-0.97440517,0
-1.0074766,0.36394674,-2.1072414,0.047195554,-0.21978897,-0.97440517,0
0.40542048,-0.60962427,2.1250801,-0.047195554,0.21978897,0.97440517,0
0.33086383,-1.8334816,0.57519269,0.21082371,-0.95132589,0.22479451,0
0.28914583,1.9940935,-0.10308743,0.14925276,0.96609294,-0.21068496,0
-0.82501054,-1.1525199,-1.8767595,0.047195554,-0.21978897,-0.97440517,0
0.67608327,0.64861453,1.9325472,-0.047195554,0.21978897,0.97440517,0
-1.8542926,-0.071697831,2.0549541,-0.047195554,0.21978897,0.97440517,0
0.48397249,0.76886559,1.8163134,-0.047195554,0.21978897,0.97440517,0
-1.7537166,0.43358931,-1.5113244,-0.94181484,0.31521702,-0.11671799,0
-0.94940835,-1.7462994,0.32624662,-0.4508937,-0.87514216,0.17555982,0
-1.0885768,1.274424,-1.9544178,-0.58072448,0.78765982,-0.20579374,0
-0.91938376,1.0422584,-2.4199204,0.047195554,-0.21978897,-0.97440517,0
-1.1643956,-0.8659848,-1.9808767,0.047195554,-0.21978897,-0.97440517,0
-0.55375016,-2.319798,-1.2339084,-0.28840697,-0.93694532,0.19737041,0
1.9299691,0.6758498,0.0073355883,0.95298743,0.30220929,-0.022008844,0
-0.044700265,-1.0758406,-1.7421647,0.047195554,-0.21978897,-0.97440517,0
0.22702914,1.9224665,-0.40758884,0.15375167,0.96546561,-0.21032542,0
-1.7581758,-0.81271338,2.0181184,-0.81204903,-0.57649738,0.090704232,0
-1.68401,-0.72632337,1.6853664,-0.84258896,-0.53268075,0.07934165,0
-1.0476762,1.6704612,-0.062393665,-0.53373075,0.81901377,-0.21058989,0
0.61349744,1.2552925,-2.2059884,0.047195554,-0.21978897,-0.97440517,0
1.0635782,1.8549967,0.81899142,0.61360681,0.77612001,-0.14534312,0
-1.7578087,-1.3440398,-1.8316758,0.047195554,-0.21978897,-0.97440517,0
-0.26219553,2.33318,1.3128678,-0.05123052,0.97367579,-0.22210592,0
1.1435444,0.15285385,-1.9397358,0.047195554,-0.21978897,-0.97440517,0
-1.1474444,-1.7934566,-0.54570127,-0.56678736,-0.8091408,0.1550591,0
-1.6670907,0.63128734,1.9109545,-0.047195554,0.21978897,0.97440517,0
1.6367307,0.0039335489,2.0770359,-0.047195554,0.21978897,0.97440517,0
1.2570846,0.36343682,2.1010053,-0.047195554,0.21978897,0.97440517,0
2.0388155,-0.0035939813,-0.42634568,0.9987635,0.025644645,0.042590827,0
1.281666,1.5754181,-0.26182389,0.60832071,0.78005612,-0.14648706,0
-0.93908954,-1.6101615,-1.6893321,0.047195554,-0.21978897,-0.97440517,0
1.4115031,-1.0529822,1.6450384,0.76565862,-0.61852956,0.17660171,0
-0.71581995,0.10626411,1.9382709,-0.047195554,0.21978897,0.97440517,0
0.46977624,2.1292977,0.65601563,0.25937414,0.94472855,-0.2005322,0
1.9694206,-0.89409149,-1.0754669,0.93295115,-0.33883846,0.12161684,0
-0.1822637,0.068622112,2.0915492,-0.047195554,0.21978897,0.97440517,0
-1.3893127,0.84329468,-2.2344618,-0.77355057,0.60913223,-0.17486429,0
-1.1649542,-1.9301927,-1.6443554,-0.6545217,-0.74370158,0.13604906,0
-1.6723289,-1.2099677,-1.8147671,0.047195554,-0.21978897,-0.97440517,0
-1.5944641,1.0176834,-0.058880329,-0.84550178,0.51063627,-0.15613234,0
0.81034082,0.6344943,-2.1102993,0.047195554,-0.21978897,-0.97440517,0
0.014044508,-1.5683854,-1.7671487,0.047195554,-0.21978897,-0.97440517,0
0.10666883,0.83517861,-2.2896907,0.047195554,-0.21978897,-0.97440517,0
-0.9819572,0.25329292,1.8665457,-0.047195554,0.21978897,0.97440517,0
-1.0914116,-0.21216381,2.1294303,-0.047195554,0.21978897,0.97440517,0
-0.62985384,1.2401744,1.7319648,-0.047195554,0.21978897,0.97440517,0
-0.16880971,-1.3622428,-1.8031512,0.047195554,-0.21978897,-0.97440517,0
1.3449976,-0.15688133,2.0557373,-0.047195554,0.21978897,0.97440517,0
-1.0823989,0.91495466,-2.3367615,0.047195554,-0.21978897,-0.97440517,0
-1.2323585,0.8573907,-2.282222,0.047195554,-0.21978897,-0.97440517,0
-0.65734875,1.7866694,1.6278001,-0.047195554,0.21978897,0.97440517,0
-0.75239855,1.7890195,-0.8005873,-0.39406979,0.89227509,-0.22035038,0
-0.17551595,-1.7528862,1.2575639,-0.028955594,-0.97538334,0.21860713,0
0.36570382,-0.86264259,2.3296642,-0.047195554,0.21978897,0.97440517,0
2.0246305,0.31757432,-1.1099545,0.96652865,0.2563225,-0.011002634,0
0.3130129,-0.13904727,1.9990577,-0.047195554,0.21978897,0.97440517,0
-1.7378306,0.26927692,-1.8230184,-0.94098544,0.3175087,-0.11719477,0
-1.4231321,-1.1357172,-1.7748737,0.047195554,-0.21978897,-0.97440517,0
-0.74589097,-0.06533432,-2.007477,0.047195554,-0.21978897,-0.97440517,0
-1.6679193,-1.2221582,-0.23163843,-0.83209127,-0.54833537,0.083381206,0
-0.91950315,-2.0002618,-1.3525472,-0.49145913,-0.85436404,0.1689083,0
-1.9474779,-0.42971867,0.76437438,-0.95973647,-0.28040138,0.01676292,0
-1.886299,-0.83213526,-0.55872875,-0.92761177,-0.37151766,0.038871258,0
0.067628294,0.32330608,1.9928191,-0.047195554,0.21978897,0.97440517,0
-1.5916995,1.6852995,0.95775443,-0.70784795,0.68092173,-0.18787503,0
1.4206029,-1.3680285,-1.5912076,0.047195554,-0.21978897,-0.97440517,0
-1.503543,-0.99890471,1.8857446,-0.73100513,-0.67239499,0.11626053,0
-1.9213021,1.0325354,0.79495466,-0.9043234,0.40489411,-0.13512987,0
1.9247195,0.57306123,-0.72306776,0.93565273,0.35128832,-0.033918813,0
-1.1692895,1.7125038,1.6270911,-0.047195554,0.21978897,0.97440517,0
-1.0915493,1.1503282,1.8321559,-0.047195554,0.21978897,0.97440517,0
0.15179703,-1.1029512,-1.7881215,0.047195554,-0.21978897,-0.97440517,0
-0.19781974,-1.9185045,0.54861748,-0.052204341,-0.97470182,0.2173273,0
0.58415025,1.2145616,1.7303752,-0.047195554,0.21978897,0.97440517,0
1.7703991,0.43427038,-2.1000204,0.047195554,-0.21978897,-0.97440517,0
0.24779508,2.2383366,0.76690453,0.17576982,0.96209824,-0.20849955,0
1.3239598,-0.69708031,2.2514768,-0.047195554,0.21978897,0.97440517,0
-0.49915355,-0.49375153,-1.874256,0.047195554,-0.21978897,-0.97440517,0
0.43085515,1.938964,0.30628753,0.2604655,0.94445258,-0.2004171,0
0.92246032,-2.2046247,-1.4232765,0.38832831,-0.89472139,0.22062403,0
-0.69292569,2.0399075,0.23280632,-0.31404221,0.92276317,-0.22335124,0
-1.0138249,-1.4894433,1.6679248,-0.45774174,-0.8717978,0.17447382,0
-1.6994158,-1.0221621,-0.44138542,-0.87608582,-0.47771001,0.065319926,0
0.34906968,1.6634344,1.7177899,-0.047195554,0.21978897,0.97440517,0
0.64711004,0.24066401,-2.165235,0.047195554,-0.21978897,-0.97440517,0
-0.36825106,0.11698365,-2.0969532,0.047195554,-0.21978897,-0.97440517,0
1.8781035,-0.35745561,0.85803783,0.95337147,-0.28119382,0.10960343,0
-0.47144669,0.13177633,1.9761391,-0.047195554,0.21978897,0.97440517,0
-0.25724256,0.99160647,1.8531711,-0.047195554,0.21978897,0.97440517,0
1.9712392,0.67992395,1.7644466,0.99166834,0.12736264,0.019303467,0
-0.95014977,-2.1863694,-1.5241904,0.047195554,-0.21978897,-0.97440517,0
0.26927406,0.38774133,-2.0483699,0.047195554,-0.21978897,-0.97440517,0
0.55719364,0.24683273,-2.1591451,0.047195554,-0.21978897,-0.97440517,0
-0.086479716,2.1108317,1.4811145,-0.047195554,0.21978897,0.97440517,0
1.3958007,-0.24135649,2.129796,-0.047195554,0.21978897,0.97440517,0
-0.49711871,-0.30368042,-1.9093038,0.047195554,-0.21978897,-0.97440517,0
1.4349297,-0.95678329,1.8514404,0.76371157,-0.62081236,0.17702228,0
1.1665952,-1.1070175,-1.7037771,0.047195554,-0.21978897,-0.97440517,0
1.3800819,-1.2319576,1.0391264,0.73040557,-0.65783006,0.18375891,0
1.3890193,-1.0252038,1.8756126,0.74299109,-0.64427537,0.18131101,0
1.9556588,0.15754008,2.150162,-0.047195554,0.21978897,0.97440517,0
-0.016415179,1.9089552,-0.88695657,-0.0090455413,0.97535825,-0.22044206,0
-0.67510515,-1.9533224,-0.3279053,-0.37073487,-0.90967059,0.18723059,0
-1.8323716,-0.82377738,0.18090776,-0.89110762,-0.45002535,0.058347732,0
-1.4381157,1.4835128,1.5935123,-0.047195554,0.21978897,0.97440517,0
1.9366925,-0.018473744,-1.9278412,0.047195554,-0.21978897,-0.97440517,0
2.0641119,-0.11001289,-1.3337114,0.99460262,0.10057777,0.025487252,0
1.3053143,1.1398838,-1.8256502,0.65442348,0.74378371,-0.13607234,0
0.39412057,-2.0169141,0.052024961,0.19264181,-0.95517647,0.22478235,0
-1.788565,1.3747207,0.68543279,-0.81305474,0.55822873,-0.16529578,0
-1.3951553,0.81304842,-2.0984559,-0.78051132,0.60064441,-0.17328691,0
-0.38795951,1.4804161,-2.4471459,-0.20794079,0.95195937,-0.22479779,0
-1.2465339,-1.2640454,1.6835644,-0.61237431,-0.77704263,0.14561093,0
1.1893027,-1.2973278,-1.6623189,0.047195554,-0.21978897,-0.97440517,0
-1.543763,1.246186,1.6360574,-0.047195554,0.21978897,0.97440517,0
-1.6435087,-0.54451668,2.1874051,-0.047195554,0.21978897,0.97440517,0
2.0207641,0.16437531,-1.3301346,0.96658558,0.25610992,-0.010951933,0
-0.54562128,1.2133652,1.8306262,-0.047195554,0.21978897,0.97440517,0
-0.65881968,-0.21123838,-1.9381257,0.047195554,-0.21978897,-0.97440517,0
-1.9588833,-0.5574851,1.0389659,-0.92017466,-0.3891173,0.043201283,0
1.8780097,0.68798214,1.681749,0.99113095,0.13162021,0.0183171,0
1.9172245,-0.97139591,-0.29571116,0.90669566,-0.39989448,0.1341171,0
1.514519,-1.3804135,-1.7062526,0.047195554,-0.21978897,-0.97440517,0
0.60474068,-1.3299688,2.291007,-0.047195554,0.21978897,0.97440517,0
-0.41776338,2.0991278,0.22518408,-0.19494225,0.95470822,-0.22478813,0
-0.28064603,1.8495685,-1.1369531,-0.14164454,0.96416229,-0.22433907,0
-1.605369,0.87102324,-0.82158732,-0.86187595,0.48413301,-0.15094727,0
-0.42257884,-2.0125751,-0.34118402,-0.20309851,-0.95722693,0.2060771,0
-1.6883644,1.144207,-0.57831573,-0.79241747,0.58566988,-0.17048591,0
0.87524748,-0.96041089,2.3893991,-0.047195554,0.21978897,0.97440517,0
-0.75474173,-0.39094818,2.1233981,-0.047195554,0.21978897,0.97440517,0
-1.921833,0.15483123,-1.9562919,-0.95621973,0.27211404,-0.10769334,0
1.6341424,0.78432143,-1.2793183,0.82908231,0.55270267,-0.084512055,0
-1.3564959,-1.3556159,1.2786654,-0.6548987,-0.74338603,0.13595963,0
1.218523,1.3781524,-1.2119547,0.58306187,0.79812288,-0.15178555,0
1.1450443,1.7740397,0.93661749,0.60390931,0.78329903,-0.14743215,0
1.0375516,0.44090283,2.0794013,-0.047195554,0.21978897,0.97440517,0
1.4280933,1.745827,1.3498622,0.72982401,0.67361921,-0.11659384,0
1.1839157,1.6006604,0.10700083,0.60169208,0.78491473,-0.14790398,0
-0.43520987,-0.75225878,2.2794294,-0.047195554,0.21978897,0.97440517,0
1.1267862,0.54677939,-2.1898592,0.047195554,-0.21978897,-0.97440517,0
0.97068715,-1.7258149,-1.5732965,0.047195554,-0.21978897,-0.97440517,0
0.6737271,1.0615726,1.9448632,-0.047195554,0.21978897,0.97440517,0
1.0760183,1.453748,-1.9097396,0.4917101,0.8542282,-0.16886544,0
-1.6447091,-1.0706815,0.1946193,-0.83413154,-0.54534447,0.082607746,0
1.9495374,0.38680166,-1.212517,0.95304859,0.30201992,-0.021963164,0
-0.26748794,-1.8353277,0.2689575,-0.15834533,-0.96480381,0.20995367,0
-0.9435268,-1.879064,-1.7391233,0.047195554,-0.21978897,-0.97440517,0
1.0944555,1.3364441,-1.4277674,0.53688443,0.82818913,-0.16080403,0
0.47192055,-1.8685194,0.34184682,0.24162725,-0.94401008,0.22463626,0
1.2509172,-2.0457177,-1.1638125,0.53313017,-0.81939048,0.21064574,0
0.59576917,-2.2646482,-1.2774246,0.26099354,-0.93889201,0.22441989,0
-0.8172965,1.5446427,1.7202371,-0.047195554,0.21978897,0.97440517,0
1.2543924,0.12957048,2.1792514,-0.047195554,0.21978897,0.97440517,0
-1.9865339,0.10373971,-0.73950744,-0.98670334,0.14162846,-0.079737186,0
1.9324359,0.34278315,0.23813999,0.98945421,0.14402089,0.015438758,0
-0.86679304,-0.95662737,-1.9400952,0.047195554,-0.21978897,-0.97440517,0
1.4603559,-1.0294082,0.9967593,0.76273644,-0.62195027,0.17723179,0
0.34988531,-2.3007088,-1.5223937,0.047195554,-0.21978897,-0.97440517,0
1.1561944,-1.3467864,1.0313869,0.59806401,-0.77510297,0.20380127,0
0.65110183,0.080482244,-2.0480142,0.047195554,-0.21978897,-0.97440517,0
0.81187719,-1.493746,-1.6371949,0.047195554,-0.21978897,-0.97440517,0
0.10831347,-1.392902,-1.7812486,0.047195554,-0.21978897,-0.97440517,0
1.3113484,-0.93566883,-1.7062253,0.047195554,-0.21978897,-0.97440517,0
-0.56806183,1.7317028,-0.92081034,-0.2732701,0.93543684,-0.22423506,0
-1.5968822,-1.6150302,-1.7026501,0.047195554,-0.21978897,-0.97440517,0
2.0186903,-0.27272344,-1.7323556,0.99686843,0.072327115,0.031969279,0
0.28455392,-1.0226033,2.30901,-0.047195554,0.21978897,0.97440517,0
-1.5124342,-0.849105,-1.9117582,0.047195554,-0.21978897,-0.97440517,0
1.8550729,-0.82487071,-0.46946841,0.92703992,-0.35363132,0.12466726,0
-0.81596243,-0.60530818,2.1382608,-0.047195554,0.21978897,0.97440517,0
0.35341251,0.90435529,-2.2968409,0.047195554,-0.21978897,-0.97440517,0
1.2852503,1.1525614,1.8226565,-0.047195554,0.21978897,0.97440517,0
0.030211031,1.3640087,-2.4073195,0.047195554,-0.21978897,-0.97440517,0
1.6935698,0.0080498457,-1.9997907,0.047195554,-0.21978897,-0.97440517,0
-1.8969207,0.37112319,1.847163,-0.047195554,0.21978897,0.97440517,0
-1.3223619,-1.2945839,1.8784037,-0.61003041,-0.77878898,0.14611846,0
2.0424829,-0.47055519,-1.1989782,0.99690235,-0.051077262,0.059806287,0
-0.10035866,-1.4691818,2.3808012,-0.047195554,0.21978897,0.97440517,0
1.8377008,0.80347216,0.61887491,0.9517439,0.30603552,-0.02293212,0
-2.0375898,0.31974685,1.7816001,-0.047195554,0.21978897,0.97440517,0
1.2836171,-1.6662388,-1.6100022,0.047195554,-0.21978897,-0.97440517,0
-0.48612291,-0.35770059,-2.0023515,0.047195554,-0.21978897,-0.97440517,0
-0.97510517,0.50159538,1.9698491,-0.047195554,0.21978897,0.97440517,0
1.5278537,-0.75771368,2.1512985,0.82442898,-0.54221487,0.16223454,0
-2.0796425,-0.26577976,-0.23249449,-0.99226356,-0.12245478,-0.020439327,0
-1.5631869,0.98625684,-1.6886923,-0.75635338,0.62931508,-0.17858386,0
1.7382877,0.79480338,-1.4676175,0.83779722,0.53990901,-0.081204206,0
0.74809343,-1.6606182,0.64013124,0.42787617,-0.8770175,0.21854621,0
0.71122587,1.1192353,1.9020327,-0.047195554,0.21978897,0.97440517,0
1.6710376,1.5306209,1.5797927,0.84532869,0.52848315,-0.07826215,0
1.400774,0.52133715,2.0194595,-0.047195554,0.21978897,0.97440517,0
1.1163877,1.8047097,-0.17108262,0.53751373,0.82780373,-0.16068661,0
-0.48207647,2.0671277,-0.11128616,-0.22366045,0.94839907,-0.22475594,0
1.3566179,1.2638429,-0.90057743,0.67759389,0.7237767,-0.13043728,0
1.9583894,0.42215657,-1.0475725,0.95071232,0.3091678,-0.023688622,0
-1.676538,-0.89152116,0.90789586,-0.81731594,-0.5693019,0.08882609,0
0.93724644,1.4896774,-1.5996355,0.46784157,0.86674619,-0.17284513,0
-0.36117283,2.2595387,1.6071618,-0.047195554,0.21978897,0.97440517,0
-1.832183,-0.4353869,1.1434573,-0.92788589,-0.37084979,0.038707331,0
-1.7707517,-1.1634257,-0.22588605,-0.87330461,-0.48260641,0.066559076,0
0.94271344,-2.1770029,-1.6046597,0.047195554,-0.21978897,-0.97440517,0
-1.3574452,0.56159782,-2.2060378,0.047195554,-0.21978897,-0.97440517,0
2.0451806,-0.46591783,-0.64220524,0.98474067,-0.15334575,0.082285106,0
-2.0164554,-0.58172405,-1.3670926,-0.98761666,-0.1563825,-0.01256144,0
-1.2374372,-1.2959079,1.3315107,-0.62239003,-0.76945627,0.14341468,0
-0.10934594,1.3707176,1.8393381,-0.047195554,0.21978897,0.97440517,0
-0.93485016,1.9344783,1.5896294,-0.047195554,0.21978897,0.97440517,0
0.76905763,-0.84252435,2.3621936,-0.047195554,0.21978897,0.97440517,0
0.10798168,1.9611014,-0.15315652,0.09426181,0.97211897,-0.21470773,0
1.9007938,0.24035412,1.2398034,0.99884719,0.018950284,0.044104874,0
0.14628607,-1.051387,-1.9033334,0.047195554,-0.21978897,-0.97440517,0
-1.8920419,0.27912083,-0.7919817,-0.96950328,0.2247797,-0.097659886,0
0.1398773,2.3256598,0.87416142,0.11707622,0.96998584,-0.21312153,0
1.4916799,1.1744066,1.8622794,-0.047195554,0.21978897,0.97440517,0
-0.91885245,-0.2592361,1.9788566,-0.047195554,0.21978897,0.97440517,0
0.62368101,-1.6080081,1.758559,0.33957621,-0.9138633,0.22258043,0
0.5572859,-1.9287696,-0.045666814,0.30280572,-0.92644233,0.22363675,0
1.841054,0.82295787,1.8681713,-0.047195554,0.21978897,0.97440517,0
2.041883,-0.41623604,-1.7694581,0.99844491,0.039355814,0.039482713,0
1.6487349,0.93073344,-2.1090336,0.047195554,-0.21978897,-0.97440517,0
-0.21201932,0.20987201,1.9968601,-0.047195554,0.21978897,0.97440517,0
-1.7334046,0.53483701,-2.0865273,-0.86416733,0.48026955,-0.15018678,0
-1.7478514,-0.7124846,-2.0455625,0.047195554,-0.21978897,-0.97440517,0
-0.25307029,-0.84786922,2.2013354,-0.047195554,0.21978897,0.97440517,0
0.37648544,-1.9253671,0.38425863,0.15635405,-0.9618423,0.22452819,0
0.19589394,1.0110724,-2.2646775,0.047195554,-0.21978897,-0.97440517,0
-0.74503136,-2.0391679,-0.52055544,-0.41148287,-0.89315623,0.18153197,0
1.9528055,0.32251871,-0.43472731,0.97712982,0.21264292,-0.00063672103,0
-0.17197375,-2.31949,-1.6268004,0.047195554,-0.21978897,-0.97440517,0
-0.5697034,-1.3705657,2.3134677,-0.047195554,0.21978897,0.97440517,0
-0.29442295,-1.9858129,0.21570325,-0.1009137,-0.97155052,0.21425724,0
-1.6509188,0.82359779,-1.0404446,-0.86497581,0.4788968,-0.14991623,0
-0.20087901,0.16515112,-2.157629,0.047195554,-0.21978897,-0.97440517,0
0.39754015,-1.6920457,1.2925382,0.24676698,-0.94269109,0.22458768,0
-0.70268208,2.1199553,1.1285805,-0.28221282,0.93281585,-0.22407699,0
-0.77285898,0.54768753,1.9286091,-0.047195554,0.21978897,0.97440517,0
0.71343613,0.40133226,2.0841858,-0.047195554,0.21978897,0.97440517,0
2.0660889,0.055947125,-0.68317336,0.99081773,0.13403292,0.017757706,0
0.13052046,2.2166657,1.0061429,0.092828244,0.9722358,-0.21480346,0
-1.8339698,0.20678656,-0.89345706,-0.97433776,0.20480393,-0.093388289,0
1.7208554,-1.6146327,-1.6205623,0.047195554,-0.21978897,-0.97440517,0
-1.1331455,0.77815127,1.8426105,-0.047195554,0.21978897,0.97440517,0
-1.6577052,0.76934624,1.8908355,-0.047195554,0.21978897,0.97440517,0
1.0192351,1.6997954,0.32228041,0.55346245,0.81781554,-0.1576612,0
-1.0668365,0.16495395,2.0120721,-0.047195554,0.21978897,0.97440517,0
-1.7240678,0.24060988,-2.0219064,-0.93378764,0.33668691,-0.12117201,0
-0.98444015,1.1745946,-2.1217122,-0.56774795,0.79669869,-0.2072041,0
0.33367673,-2.260529,-1.5301948,0.047195554,-0.21978897,-0.97440517,0
1.7597129,0.95076621,-1.0154809,0.84174424,0.53396523,-0.079672307,0
1.2558168,1.6079483,0.61116731,0.65630704,0.74220413,-0.13562483,0
-1.238302,0.18131042,1.8759381,-0.047195554,0.21978897,0.97440517,0
1.4278177,1.5697441,1.2041521,0.73623145,0.66692603,-0.11477378,0
1.8847996,0.34093559,1.2062056,0.99813777,0.0481181,0.037491381,0
0.88850141,1.5141599,-0.98559082,0.45198086,0.87461549,-0.1753884,0
1.9986992,-0.027305603,-1.813343,0.97378695,0.22742477,-0.004132852,0
1.4935689,-1.6249574,-0.94006491,0.72810578,-0.66025341,0.18419421,0
-1.3912852,1.7954754,0.9840939,-0.63660645,0.74509805,-0.19890004,0
-0.78761959,-0.71556747,-1.9712573,0.047195554,-0.21978897,-0.97440517,0
1.6604022,0.38959432,2.0109358,-0.047195554,0.21978897,0.97440517,0
-0.026173055,0.14208686,1.9997656,-0.047195554,0.21978897,0.97440517,0
-0.45737773,-0.64327371,2.2123842,-0.047195554,0.21978897,0.97440517,0
-1.5864718,-1.303236,0.082077146,-0.77025521,-0.6291002,0.10459375,0
-0.72538745,0.13620949,-2.0552955,0.047195554,-0.21978897,-0.97440517,0
-0.39698857,-0.063390136,1.9659513,-0.047195554,0.21978897,0.97440517,0
-1.5073037,-0.95912486,1.87534,-0.72032869,-0.68330723,0.119239,0
-0.77904451,0.043960094,1.9746673,-0.047195554,0.21978897,0.97440517,0
2.0448673,-0.56645513,-1.7999775,0.99266952,-0.098339096,0.070261717,0
0.74842483,-1.8286866,-1.5321575,0.047195554,-0.21978897,-0.97440517,0
0.63955772,0.093766928,-2.1349707,0.047195554,-0.21978897,-0.97440517,0
-0.19201525,-0.48266137,-1.9853376,0.047195554,-0.21978897,-0.97440517,0
1.1183331,-1.0621325,2.2880466,-0.047195554,0.21978897,0.97440517,0
1.938292,0.27890372,-2.0384765,0.047195554,-0.21978897,-0.97440517,0
-0.3374674,1.7021011,1.6570547,-0.047195554,0.21978897,0.97440517,0
1.47615,0.39525187,2.0328836,-0.047195554,0.21978897,0.97440517,0
-0.8060751,1.6896465,-0.71465731,-0.45459771,0.86388916,-0.21687925,0
0.79776365,0.72916698,-2.2454984,0.047195554,-0.21978897,-0.97440517,0
0.89719844,1.425747,-2.111747,0.42689064,0.88635933,-0.17925262,0
-1.6654929,1.1692119,1.7753022,-0.047195554,0.21978897,0.97440517,0
-0.23171294,1.1155933,-2.3654313,0.047195554,-0.21978897,-0.97440517,0
-0.45706981,-1.7318517,1.009225,-0.20609248,-0.9566462,0.20580113,0
-1.5785949,-1.27039,-1.0622365,-0.87251502,-0.48398435,0.066908121,0
1.9849175,0.38889983,0.98569882,0.99863154,0.032383591,0.041064411,0
-0.51259899,0.49592435,-2.2669435,0.047195554,-0.21978897,-0.97440517,0
0.063452721,0.38892066,-2.0623486,0.047195554,-0.21978897,-0.97440517,0
0.58824939,-1.4474775,2.0272417,0.35449398,-0.90831035,0.22205055,0
-0.98143613,-1.5070437,1.9719753,-0.43154591,-0.88424438,0.17855006,0
0.4475123,-1.2123934,-1.6938434,0.047195554,-0.21978897,-0.97440517,0
-0.87157774,1.1776903,-2.3986573,0.047195554,-0.21978897,-0.97440517,0
0.79412532,-0.15345991,-2.075227,0.047195554,-0.21978897,-0.97440517,0
-0.093935043,0.6870178,-2.1602647,0.047195554,-0.21978897,-0.97440517,0
0.10422784,0.53861678,-2.1130574,0.047195554,-0.21978897,-0.97440517,0
1.23291,1.7964907,1.2016734,0.65065283,0.74692172,-0.13696277,0
-1.2510531,-0.42009294,-2.10794,0.047195554,-0.21978897,-0.97440517,0
-0.020827413,0.79404539,-2.3048906,0.047195554,-0.21978897,-0.97440517,0
1.8157862,-0.38767672,0.67568332,0.96593797,-0.23843277,0.1005668,0
2.0311899,0.23190486,-1.6562423,0.96428621,0.26454526,-0.012966003,0
0.27198946,2.2429693,0.53727782,0.13548627,0.96788585,-0.21175611,0
-1.0303817,1.655525,-0.6772095,-0.54280895,0.81324804,-0.20972902,0
0.96702075,1.9081028,1.661979,-0.047195554,0.21978897,0.97440517,0
0.38179347,0.0491817,-2.0965657,0.047195554,-0.21978897,-0.97440517,0
1.6708223,1.126514,0.916408,0.88814032,0.4556697,-0.059764594,0
-0.27464646,-1.9938926,-0.29007292,-0.14958966,-0.96604663,0.21065819,0
-0.75153899,1.8094263,1.6064855,-0.047195554,0.21978897,0.97440517,0
1.3453771,-0.022924542,2.2150559,-0.047195554,0.21978897,0.97440517,0
1.602757,0.81588304,1.9781945,-0.047195554,0.21978897,0.97440517,0
0.7193374,-0.77913475,-1.8799373,0.047195554,-0.21978897,-0.97440517,0
-1.1699225,1.040705,-2.1755283,-0.60298795,0.77143401,-0.2032122,0
1.001214,-0.71318698,-1.9237907,0.047195554,-0.21978897,-0.97440517,0
-1.0800974,-1.8213406,-0.40306252,-0.58531827,-0.79655749,0.15132326,0
0.14989179,1.283511,-2.2637582,0.047195554,-0.21978897,-0.97440517,0
1.3977306,1.4661038,0.025667608,0.73272568,0.67060399,-0.1157732,0
-1.8264053,-0.70478129,0.46453902,-0.92768919,-0.37132925,0.03882502,0
0.69427913,0.56164837,-2.1742816,0.047195554,-0.21978897,-0.97440517,0
0.1494419,-1.7986213,-1.6253357,0.047195554,-0.21978897,-0.97440517,0
1.6554776,1.1695286,1.8099589,-0.047195554,0.21978897,0.97440517,0
-1.9534941,-0.18157452,-1.0928444,-0.99838549,0.020487681,-0.052978262,0
1.4117682,-1.2829742,0.63752925,0.70116687,-0.68748254,0.1890313,0
2.0113447,0.0097467899,-0.98091483,0.99456412,0.10098217,0.025394157,0
-1.824306,-0.62151289,-1.9411725,0.047195554,-0.21978897,-0.97440517,0
0.018564999,1.6966752,-1.5504788,-0.064775109,0.97276562,-0.22255653,0
0.70668697,1.6515541,-1.073892,0.34930605,0.91753435,-0.19004238,0
2.0893807,0.08312428,-1.938893,0.96117866,0.27548647,-0.015584443,0
0.14418057,-0.97642171,-1.8235009,0.047195554,-0.21978897,-0.97440517,0
-1.7776189,0.25163269,-2.2344322,0.047195554,-0.21978897,-0.97440517,0
0.85481489,-1.336814,2.103502,0.4777351,-0.85172415,0.21525604,0
1.6491091,-0.35760099,2.2114034,-0.047195554,0.21978897,0.97440517,0
0.72302997,-1.5924448,0.99354899,0.36616272,-0.90378153,0.22159415,0
0.77300233,-1.6240795,-1.552503,0.047195554,-0.21978897,-0.97440517,0
1.4427857,0.52652609,-2.0496671,0.047195554,-0.21978897,-0.97440517,0
-0.94702113,1.0143787,1.8355634,-0.047195554,0.21978897,0.97440517,0
1.238068,1.5235571,-0.2207799,0.61162144,0.77760476,-0.14577419,0
-1.8574891,0.27654111,1.836567,-0.047195554,0.21978897,0.97440517,0
0.90790999,1.4069664,-1.9941471,0.39347732,0.9007107,-0.18410814,0
2.0385888,-0.36283708,-0.56656152,0.9848069,-0.15296456,0.082202375,0
1.4330213,0.30345154,2.047296,-0.047195554,0.21978897,0.97440517,0
1.152532,1.8700452,1.6030416,-0.047195554,0.21978897,0.97440517,0
-1.7827417,0.4440406,-1.4362408,-0.94543475,0.30499643,-0.11458799,0
-1.2152458,0.74540412,1.9207737,-0.047195554,0.21978897,0.97440517,0
-0.95439774,-0.32610762,2.1289661,-0.047195554,0.21978897,0.97440517,0
-0.091582671,2.0831671,0.054106116,0.015342504,0.9755367,-0.21930099,0
1.4015851,-0.37867534,2.1818681,-0.047195554,0.21978897,0.97440517,0
-1.8966482,-0.41367441,1.0620537,-0.92835212,-0.36971015,0.038427696,0
1.6011683,0.37094092,2.0015559,-0.047195554,0.21978897,0.97440517,0
-1.1667801,-1.5698519,0.19687951,-0.62159395,-0.77006668,0.14359087,0
1.8868277,0.79194117,1.6928637,0.9859966,0.1664528,0.010211488,0
0.12555307,-0.50584972,2.1296301,-0.047195554,0.21978897,0.97440517,0
0.48719677,-2.2008743,-0.71589071,0.20092025,-0.953466,0.22479743,0
-1.192536,1.0582846,-2.4032648,-0.65606737,0.72876441,-0.19615847,0
-1.9687092,0.84036589,1.4005249,-0.96484852,0.24244851,-0.10141984,0
-0.64680994,-2.1361923,-1.3878169,-0.36518705,-0.91175967,0.18797058,0
-1.8487284,1.0715462,1.714855,-0.93258917,0.33976501,-0.12180823,0
-1.5478678,-1.3179057,-0.68137604,-0.7985037,-0.59438348,0.095394731,0
1.853719,0.22284698,2.0491858,0.9967525,-0.053355262,0.060312837,0
-0.42836666,1.121334,-2.2613492,0.047195554,-0.21978897,-0.97440517,0
-1.4151782,0.42428982,1.8438157,-0.047195554,0.21978897,0.97440517,0
-2.0098054,-0.23691392,1.9134488,-0.047195554,0.21978897,0.97440517,0
1.0033798,-2.146245,-1.0742476,0.42922139,-0.87637949,0.21846747,0
-0.14048922,-1.1435664,2.3820813,-0.047195554,0.21978897,0.97440517,0
0.84775519,1.9385002,0.39077294,0.49118799,0.85451078,-0.16895455,0
1.5670527,1.1292754,0.42561588,0.82261419,0.56191945,-0.086904287,0
-0.083986521,1.8363479,-1.3303231,-0.044511884,0.97406048,-0.2218672,0
-0.91790044,1.9343092,1.6502568,-0.047195554,0.21978897,0.97440517,0
-1.9246335,0.91601908,1.0524968,-0.95111197,0.28818288,-0.11107042,0
-0.2851626,0.52572656,-2.2185693,0.047195554,-0.21978897,-0.97440517,0
1.5007162,0.34342933,-2.0465283,0.047195554,-0.21978897,-0.97440517,0
1.2539558,-1.3399128,0.94639015,0.61723852,-0.76054955,0.20144731,0
-0.80381417,0.32723677,-2.1751819,0.047195554,-0.21978897,-0.97440517,0
0.74095106,-2.1275072,-0.78185087,0.35917407,-0.90651363,0.22187185,0
-1.3315098,1.3227446,-1.3138139,-0.6599105,0.72543865,-0.19559431,0
1.8919101,0.27862787,-1.968787,0.93063635,0.36406565,-0.037043884,0
-2.0668824,-0.17281887,0.27607146,-0.99712974,-0.06818217,-0.032916874,0
-1.7287123,1.2416834,1.6528053,-0.047195554,0.21978897,0.97440517,0
-0.94032407,-2.1027083,-1.3016342,-0.48105869,-0.85991645,0.17066443,0
-0.26830205,2.3348105,1.4028111,-0.095224082,0.97005951,-0.22342092,0
-1.9811101,0.80250037,1.0809586,-0.94984514,0.29202414,-0.11187553,0
-1.5780759,0.53451675,-2.1883821,0.047195554,-0.21978897,-0.97440517,0
0.91228622,1.7794007,-0.21320903,0.43413484,0.88305563,-0.17815655,0
0.30730745,-1.6916971,1.4157635,0.18642239,-0.95641494,0.22476047,0
-1.22259,1.5746101,-0.19864345,-0.63912314,0.74303234,-0.19855607,0
-1.6418543,-0.61988735,2.0669184,-0.047195554,0.21978897,0.97440517,0
-1.8051506,0.14669156,-1.7651305,-0.97140616,0.2171372,-0.096028179,0
-0.95886528,2.1401269,1.5003405,-0.047195554,0.21978897,0.97440517,0
1.7837063,-1.0616958,0.26905882,0.85908282,-0.48878884,0.15186214,0
0.13739803,-0.20249605,-2.0365634,0.047195554,-0.21978897,-0.97440517,0
-0.98886549,-0.91909963,2.2607813,-0.047195554,0.21978897,0.97440517,0
0.23868316,0.76560259,-2.211318,0.047195554,-0.21978897,-0.97440517,0
1.9181263,0.2226696,-1.9606457,0.047195554,-0.21978897,-0.97440517,0
-0.44367382,-2.1331446,-0.74780965,-0.26735699,-0.9426806,0.19968367,0
0.49314913,2.1888928,1.2863771,0.25809979,0.94504905,-0.20066619,0
-0.39842534,-0.7825579,2.2971399,-0.047195554,0.21978897,0.97440517,0
-0.71364594,0.14641631,1.9105766,-0.047195554,0.21978897,0.97440517,0
1.7110409,0.66821611,-1.6349709,0.85020453,0.52089208,-0.076313734,0
1.5526961,1.3117759,1.7447997,-0.047195554,0.21978897,0.97440517,0
-1.6163867,1.2186253,1.7188215,-0.047195554,0.21978897,0.97440517,0
-0.09325023,-2.29336,-0.73586696,-0.072752953,-0.97365779,0.21609658,0
-0.20958427,-0.72376955,-1.8817441,0.047195554,-0.21978897,-0.97440517,0
-0.91863263,1.3709574,-1.8927513,-0.48845148,0.84583008,-0.21444547,0
-1.9051392,1.0541638,0.91701621,-0.92538989,0.35763901,-0.12549129,0
0.21614794,-2.2160935,-0.96967769,0.090775006,-0.97051209,0.22330749,0
1.2183955,1.5238708,1.8653662,-0.047195554,0.21978897,0.97440517,0
-0.51933521,-2.222954,-1.5122106,0.047195554,-0.21978897,-0.97440517,0
-1.4303293,-0.3026979,2.1154914,-0.047195554,0.21978897,0.97440517,0
0.047371626,2.1509731,0.92261058,0.06397441,0.97415459,-0.21663386,0
-1.8905178,-0.2004077,-0.8007189,-0.99798065,-0.05189091,-0.036632784,0
0.35650849,1.1073498,1.7924864,-0.047195554,0.21978897,0.97440517,0
-1.9678099,-0.44840634,1.9376926,-0.91184133,-0.40774974,0.047807708,0
-0.2013236,1.5587927,1.7634146,-0.047195554,0.21978897,0.97440517,0
0.12751374,0.21050346,2.041286,-0.047195554,0.21978897,0.97440517,0
-1.9816954,-0.46185344,0.27384853,-0.97525185,-0.2210813,0.0026310403,0
1.6481223,1.3936378,0.89100176,0.80565858,0.58504367,-0.092941493,0
-0.41685331,2.3038273,0.99793857,-0.20838799,0.95186168,-0.22479737,0
-0.05423665,-1.1053154,2.2846875,-0.047195554,0.21978897,0.97440517,0
0.63542116,1.2257777,1.7307212,-0.047195554,0.21978897,0.97440517,0
-1.8930353,-0.1094868,-0.73002362,-0.99863225,0.011590317,-0.05098331,0
1.2502927,0.029970169,2.05633,-0.047195554,0.21978897,0.97440517,0
-1.2468995,1.9716961,1.4468025,-0.047195554,0.21978897,0.97440517,0
-1.2263936,-0.34630609,1.9856346,-0.047195554,0.21978897,0.97440517,0
-0.38343102,1.4331946,1.640481,-0.047195554,0.21978897,0.97440517,0
0.21385679,-0.11463201,2.0543444,-0.047195554,0.21978897,0.97440517,0
-0.024017423,2.2575758,0.57867527,-0.017169133,0.9751696,-0.22079301,0
0.55332512,-1.7414099,1.107136,0.30070835,-0.92711318,0.22368658,0
-0.84129512,-1.923175,-1.5924642,0.047195554,-0.21978897,-0.97440517,0
1.9611535,-0.48780724,0.23988789,0.97229928,-0.21345547,0.09524104,0
-1.883764,-0.8991425,-0.13293147,-0.91911727,-0.39154178,0.0437994,0
0.53023493,-2.144491,-1.1299299,0.21841532,-0.94961596,0.22477633,0
1.7609019,-0.65305316,-1.8593686,0.047195554,-0.21978897,-0.97440517,0
0.31660864,-2.221648,-1.6284506,0.047195554,-0.21978897,-0.97440517,0
1.1459162,1.9601125,1.2690667,0.55646557,0.81588709,-0.15708077,0
-0.67886066,-0.8895458,-1.7968407,0.047195554,-0.21978897,-0.97440517,0
-0.51752007,0.043209195,-1.9971845,0.047195554,-0.21978897,-0.97440517,0
1.8490822,-0.50037283,0.63776678,0.95773792,-0.26714206,0.10664541,0
-1.3015275,-0.61476481,-2.0317078,0.047195554,-0.21978897,-0.97440517,0
-1.0000843,-2.0536273,-1.0440691,-0.53479612,-0.82946372,0.16119272,0
-1.94493,-0.50313818,-0.18597269,-0.97257888,-0.23251212,0.0053388886,0
-0.61586106,0.47578752,-2.1667793,0.047195554,-0.21978897,-0.97440517,0
-1.9647868,0.84212923,1.1472566,-0.96858191,0.22838748,-0.098429054,0
-0.28259745,1.7449708,-1.2020433,-0.1225853,0.96684408,-0.2240209,0
-0.63359171,1.1064322,-2.3044693,0.047195554,-0.21978897,-0.97440517,0
-1.2885211,-0.36054492,-2.1239612,0.047195554,-0.21978897,-0.97440517,0
-1.8459793,-1.1560838,-1.4741533,-0.92745352,-0.37190279,0.038965806,0
-0.14100814,0.41617906,-2.1557629,0.047195554,-0.21978897,-0.97440517,0
1.4646746,0.12836587,2.0120311,-0.047195554,0.21978897,0.97440517,0
0.026362896,1.431244,-2.2763267,0.047195554,-0.21978897,-0.97440517,0
-1.7899852,0.72370309,-0.4511804,-0.90820134,0.39668301,-0.13346562,0
-1.7319461,0.64067793,1.8227203,-0.047195554,0.21978897,0.97440517,0
0.62567508,0.57724261,1.9807422,-0.047195554,0.21978897,0.97440517,0
-1.2848142,1.4401031,-0.63197172,-0.68121099,0.7063728,-0.19232559,0
0.65409827,0.14588451,1.9491727,-0.047195554,0.21978897,0.97440517,0
-1.6013731,0.91493487,-1.3603375,-0.79442996,0.58307922,-0.16999906,0
-0.66023719,0.4454577,1.8318679,-0.047195554,0.21978897,0.97440517,0
0.0051444769,-0.49854136,2.1005769,-0.047195554,0.21978897,0.97440517,0
1.8831053,0.9043383,0.35383171,0.91493171,0.40096426,-0.046127453,0
