-0.34927559,4.3354368,-1.1691512,0.088044137,0.96750283,-0.23703691,0
-0.70798808,4.6209416,-0.78628927,0.088044137,0.96750283,-0.23703691,0
1.0622536,-4.8445492,-0.01375024,-0.088044137,-0.96750283,0.23703691,0
0.048260719,4.1158428,-2.151185,0.088044137,0.96750283,-0.23703691,0
-0.22865891,2.5225711,-2.5563605,-0.22254808,-0.21284074,-0.95140481,0
1.8039116,4.4927826,-0.24848795,0.088044137,0.96750283,-0.23703691,0
-1.9505818,-4.0631905,1.7512112,-0.088044137,-0.96750283,0.23703691,0
-0.83642399,3.953738,-2.6740832,-0.57230735,-0.14563407,-0.80700374,0
-1.6821163,-4.486691,-0.34404418,-0.088044137,-0.96750283,0.23703691,0
2.1974778,1.5603192,-0.40181506,0.99566621,-0.092631474,-0.0082630347,0
1.0647922,-3.6125302,2.3725033,0.71289867,0.10499799,0.69336206,0
-0.96542549,-4.4237576,0.43147126,-0.088044137,-0.96750283,0.23703691,0
2.3673141,3.3272176,-0.54896945,0.99253261,-0.065039545,0.10319376,0
0.87702149,-4.1758347,2.2189784,-0.088044137,-0.96750283,0.23703691,0
-1.2854369,-0.63022906,-1.4876025,-0.59676099,-0.13930047,-0.79023522,0
-1.0408442,-4.0750327,2.0385594,-0.088044137,-0.96750283,0.23703691,0
1.1591066,4.0186787,-2.4442391,0.088044137,0.96750283,-0.23703691,0
1.8103653,4.1539917,-1.6842978,0.088044137,0.96750283,-0.23703691,0
-1.8769654,-4.2094398,1.2491618,-0.088044137,-0.96750283,0.23703691,0
0.87681633,4.4568472,-0.20487598,0.088044137,0.96750283,-0.23703691,0
-0.23971361,-4.7990503,-0.80340064,0.078011543,-0.2439273,-0.96665066,0
-1.6319993,2.6623244,-1.4078515,-0.93127781,-0.0045010094,-0.36428201,0
-0.090688109,4.2248063,-2.1848297,0.088044137,0.96750283,-0.23703691,0
0.2006959,3.8841832,-2.7824969,0.088044137,0.96750283,-0.23703691,0
0.10961819,-4.5398979,0.51006848,-0.088044137,-0.96750283,0.23703691,0
0.53294885,3.8931782,-2.8590534,0.088044137,0.96750283,-0.23703691,0
-2.0390809,-2.9966288,-0.23701555,-0.89764959,-0.026096482,-0.43993655,0
1.6507325,4.4089279,-0.65759909,0.088044137,0.96750283,-0.23703691,0
-1.9512162,-0.38479248,0.54580808,-0.97960913,0.12723967,0.15548599,0
-0.28485715,0.87740582,1.8633683,-0.17366664,0.2492256,0.95274681,0
1.3870618,4.2458897,-1.3469646,0.088044137,0.96750283,-0.23703691,0
1.9762866,-0.45904133,-0.022161737,0.99278671,-0.10467002,-0.058469761,0
-0.93289202,4.3515816,-1.8946035,0.088044137,0.96750283,-0.23703691,0
-1.4331007,-4.6166606,-0.60389453,-0.088044137,-0.96750283,0.23703691,0
1.0358217,4.4916682,-0.46749648,0.088044137,0.96750283,-0.23703691,0
1.3034302,4.5926542,0.32289407,0.088044137,0.96750283,-0.23703691,0
-2.2137256,-1.4352021,0.43145695,-0.99559402,0.093176998,0.010516483,0
1.3171577,-2.1905479,1.7976931,0.81256855,0.067884579,0.57889891,0
1.8579732,-1.7958008,-0.079043031,0.97226208,-0.13523208,-0.19083714,0
-1.4841276,0.042427421,1.2564331,-0.76318365,0.21844403,0.60813892,0
0.43832076,-4.670671,-0.2807208,-0.088044137,-0.96750283,0.23703691,0
-0.058578283,4.4024324,-0.93632317,0.088044137,0.96750283,-0.23703691,0
-2.2671003,-1.9913527,0.7976765,-0.98545736,0.11931865,0.12098282,0
-1.4780128,2.0411532,0.80415231,-0.80406857,0.20949012,0.55640608,0
-1.9515502,-0.016774733,-0.48330414,-0.95586938,0.015102008,-0.29340351,0
1.4081339,-2.5525863,-0.57628369,0.82248455,-0.20484819,-0.53061891,0
1.6877553,-1.9026827,0.92998272,0.95936221,-0.01831604,0.2815823,0
-0.12972367,3.917125,-2.958668,-0.27675027,-0.20483401,-0.9388569,0
0.51278657,-3.8015728,-0.88115454,0.40043727,-0.25226364,-0.88091606,0
-0.24552773,-3.9806964,2.5132608,-0.088044137,-0.96750283,0.23703691,0
0.28376067,-4.5494318,0.26154315,-0.088044137,-0.96750283,0.23703691,0
1.4748629,4.0977969,-1.631795,0.088044137,0.96750283,-0.23703691,0
-1.7285748,0.97193027,0.72722012,-0.893282,0.18198654,0.41100875,0
-1.567528,4.4648147,-1.3941872,0.088044137,0.96750283,-0.23703691,0
0.44408494,4.5343313,-0.61844558,0.088044137,0.96750283,-0.23703691,0
1.8311497,4.082716,-1.5387233,0.088044137,0.96750283,-0.23703691,0
1.2243266,4.3969612,-0.87926412,0.088044137,0.96750283,-0.23703691,0
0.055730551,-4.7860351,-0.49117371,-0.088044137,-0.96750283,0.23703691,0
-0.34047997,-1.3515768,-1.6782191,-0.11634456,-0.22634435,-0.9670741,0
-1.141759,-2.8034112,2.615236,-0.3942256,0.25237581,0.88368124,0
0.82019794,4.1514149,-1.5292546,0.088044137,0.96750283,-0.23703691,0
0.47325405,0.85084808,-2.3348649,0.19790518,-0.25020713,-0.94774997,0
-2.0993018,-1.5004575,0.38514614,-0.99595499,0.089788184,-0.0034495294,0
-1.2755066,4.3300767,-1.6283557,0.088044137,0.96750283,-0.23703691,0
0.92771494,-4.7155147,-0.14431611,-0.088044137,-0.96750283,0.23703691,0
0.71030593,3.7862346,-2.9386199,0.1963571,-0.25014889,-0.94808722,0
-0.043715939,4.77845,0.39112025,0.088044137,0.96750283,-0.23703691,0
2.0558159,4.3743558,-0.53680211,0.088044137,0.96750283,-0.23703691,0
-1.7052454,-3.9462776,-0.49769673,-0.71078306,-0.1056959,-0.69542485,0
0.08159662,-3.5168591,-1.1792608,0.1682142,-0.24898443,-0.95378751,0
0.033729143,4.5871234,-0.16403843,0.088044137,0.96750283,-0.23703691,0
-1.8382976,-4.463254,-0.10376761,-0.088044137,-0.96750283,0.23703691,0
0.59223115,-2.0512552,-1.4808655,0.3969864,-0.25232744,-0.88245827,0
-1.3518144,4.5354805,-1.0215044,0.088044137,0.96750283,-0.23703691,0
-0.34966844,-4.7454009,-0.34714156,-0.088044137,-0.96750283,0.23703691,0
-1.2012831,-4.6339073,-0.1683501,-0.088044137,-0.96750283,0.23703691,0
0.75222057,-2.4353089,-1.2689549,0.48126316,-0.24966091,-0.84027094,0
0.055560187,4.5243216,1.0156888,-0.1095051,0.2459196,0.9630847,0
-2.0931098,-0.22108051,-0.19487697,-0.984267,0.047902718,-0.17007022,0
1.749815,2.8807318,-2.1048849,0.69737649,-0.22978459,-0.67887032,0
1.0283943,-4.2343998,1.8023995,-0.088044137,-0.96750283,0.23703691,0
0.67324668,-4.1952944,-0.71696746,0.52931213,-0.24702604,-0.81166911,0
2.2923419,4.1379051,-0.94598031,0.99478173,-0.073085107,0.07118991,0
-1.4527369,-4.1662889,1.2841802,-0.088044137,-0.96750283,0.23703691,0
0.1280522,-1.8573331,2.4960735,0.17176878,0.21965034,0.96033812,0
0.38976473,-4.4373612,0.65536422,-0.088044137,-0.96750283,0.23703691,0
-0.78362316,4.0850716,-2.5421433,0.088044137,0.96750283,-0.23703691,0
0.22164366,4.399394,-0.95556742,0.088044137,0.96750283,-0.23703691,0
0.84113377,2.140769,-2.5345302,0.27707672,-0.25235665,-0.92711627,0
1.0154308,-4.1317029,2.2563863,-0.088044137,-0.96750283,0.23703691,0
2.1355934,1.7786254,-0.44572732,0.99577165,-0.079223633,0.046502281,0
-1.3034614,-2.4016335,-1.1905843,-0.55164957,-0.1507799,-0.82033426,0
-1.544856,-4.4076438,0.70830864,-0.088044137,-0.96750283,0.23703691,0
-0.91314137,-1.8496355,-1.4489391,-0.39669037,-0.18422225,-0.89927685,0
-1.390348,2.4186568,0.7013303,-0.76837659,0.21739855,0.60194284,0
-0.80664134,2.8470435,1.0323155,-0.50190818,0.24863461,0.82841361,0
0.77277756,-4.7272992,0.30677083,-0.088044137,-0.96750283,0.23703691,0
-0.22394359,-4.536272,-0.99695581,0.053795949,-0.24223202,-0.9687258,0
-1.6822374,2.1284978,-1.3051367,-0.91817623,-0.013450343,-0.3959437,0
-2.0430562,0.62283009,-0.12801319,-0.99598575,0.089359999,-0.0052087065,0
-1.5156002,2.2073867,-1.5793835,-0.84520799,-0.053366937,-0.53176641,0
-1.3973334,4.688818,-0.33436185,0.088044137,0.96750283,-0.23703691,0
0.55066657,-1.2482694,-1.7282518,0.27856964,-0.25238121,-0.92666209,0
1.138988,-4.255321,2.0353546,-0.088044137,-0.96750283,0.23703691,0
-1.8493649,-3.950412,2.2019377,-0.088044137,-0.96750283,0.23703691,0
-1.3123683,-4.175065,1.4584674,-0.088044137,-0.96750283,0.23703691,0
-0.37445483,-3.8696675,3.0030563,-0.088044137,-0.96750283,0.23703691,0
-1.3472195,-4.2987928,0.67976505,-0.088044137,-0.96750283,0.23703691,0
0.38004848,2.8513019,1.2683412,0.051136393,0.23325726,0.97106951,0
-0.14564162,4.2673774,-1.3856366,0.088044137,0.96750283,-0.23703691,0
0.16464488,3.9319739,-2.7378266,0.088044137,0.96750283,-0.23703691,0
-0.27609527,4.67764,0.09292791,0.088044137,0.96750283,-0.23703691,0
1.1755179,0.75351816,-1.8545099,0.55778909,-0.2450401,-0.79298598,0
-0.14369901,2.9139292,-2.6493273,-0.25712875,-0.2078224,-0.94376624,0
-0.80557108,2.423317,-2.2818604,-0.57366872,-0.1452885,-0.80609888,0
-1.6659497,0.34658441,0.87198067,-0.86707479,0.19157282,0.45987087,0
1.1332177,-4.295608,1.9591445,-0.088044137,-0.96750283,0.23703691,0
-0.3402608,-4.2220097,1.7374812,-0.088044137,-0.96750283,0.23703691,0
0.24954301,4.7231755,0.093781471,0.088044137,0.96750283,-0.23703691,0
-0.17335232,-4.1815577,1.8107069,-0.088044137,-0.96750283,0.23703691,0
1.7680218,4.4233108,-0.10605802,0.088044137,0.96750283,-0.23703691,0
-1.1788127,-4.4481468,-0.028444577,-0.088044137,-0.96750283,0.23703691,0
-0.65857536,-4.2693167,1.1941694,-0.088044137,-0.96750283,0.23703691,0
1.1028811,-4.6134615,0.288279,-0.088044137,-0.96750283,0.23703691,0
-1.2564479,4.4097266,-1.4291633,0.088044137,0.96750283,-0.23703691,0
-1.6187526,-3.6137691,2.3978221,-0.61720979,0.23976329,0.74937677,0
2.2034869,4.0140581,-1.3715411,0.088044137,0.96750283,-0.23703691,0
-1.7243056,2.4501834,0.06252268,-0.93642455,0.16152743,0.31147698,0
1.7578101,-1.724587,-0.1432877,0.95637089,-0.14865085,-0.25151056,0
-0.75878638,-1.7854488,-1.5071752,-0.32902291,-0.19635913,-0.92368126,0
1.8112819,-0.78375167,0.4783577,0.9837634,-0.047094792,0.17318086,0
0.36099762,4.5200672,-0.49475446,0.088044137,0.96750283,-0.23703691,0
2.1459339,2.2397904,-1.168932,0.95980835,-0.14605914,-0.23965527,0
1.1123869,-0.38086861,-1.5542928,0.53602064,-0.24658777,-0.8073886,0
1.9032876,4.046237,-1.7940094,0.088044137,0.96750283,-0.23703691,0
1.1809999,-2.1060302,-1.1137426,0.65802115,-0.23513931,-0.71534443,0
-2.229799,-2.2990847,0.36238903,-0.98594677,0.05072546,-0.1591727,0
0.32642189,-0.48247597,-1.8074176,0.12898588,-0.24703082,-0.96038443,0
0.59110123,4.2839217,-1.5455662,0.088044137,0.96750283,-0.23703691,0
-2.1694891,-2.5924885,-0.17982139,-0.92005545,-0.012214558,-0.39159769,0
-1.2834048,0.8852042,-1.6341857,-0.68392092,-0.11429542,-0.72054756,0
1.5061584,-1.4533868,-0.81413913,0.80437505,-0.20941626,-0.55599064,0
-1.4060254,-4.3971252,0.80120158,-0.088044137,-0.96750283,0.23703691,0
-2.1381841,-1.5715406,0.48436964,-0.99253958,0.1053561,0.061361954,0
0.62502652,-4.6302738,0.15856226,-0.088044137,-0.96750283,0.23703691,0
-0.44702327,4.7335944,0.23999164,0.088044137,0.96750283,-0.23703691,0
-0.67400259,2.3462572,1.265193,-0.41848937,0.2518687,0.87259889,0
-1.4708285,-4.4603877,0.14376517,-0.088044137,-0.96750283,0.23703691,0
0.48164958,4.0487967,-2.1380129,0.088044137,0.96750283,-0.23703691,0
-1.1320628,1.0561385,-1.9077441,-0.57501072,-0.14494705,-0.80520374,0
-0.58590364,-4.8589315,-0.82797194,-0.088044137,-0.96750283,0.23703691,0
1.63845,0.18536009,1.0761379,0.82304263,0.06338691,0.56443143,0
-0.90615469,4.6683631,-0.28792876,0.088044137,0.96750283,-0.23703691,0
-1.8927177,-0.86878109,1.2463909,-0.87094712,0.19025409,0.45305011,0
-1.8757522,-0.32777324,-0.67166001,-0.93843341,0.00076171197,-0.34545925,0
-1.7652967,0.75504637,-0.77052492,-0.95317197,0.012710817,-0.30216157,0
1.049041,-4.6588283,0.73335004,-0.088044137,-0.96750283,0.23703691,0
-0.62153244,-4.0691147,2.041456,-0.088044137,-0.96750283,0.23703691,0
-1.752949,-4.3138466,0.51222461,-0.088044137,-0.96750283,0.23703691,0
-0.87120968,-3.6579051,-1.1441833,-0.28639373,-0.20332725,-0.93628877,0
-0.32776445,3.8206148,0.97560048,-0.35246819,0.25282499,0.90102476,0
-0.20149331,4.6456275,0.86629599,-0.23894222,0.25152636,0.9378919,0
-1.1969113,-4.4970136,-0.090502009,-0.088044137,-0.96750283,0.23703691,0
-0.68221301,4.2077489,-2.4262977,0.088044137,0.96750283,-0.23703691,0
1.3318841,4.615479,0.31988713,0.088044137,0.96750283,-0.23703691,0
2.0485594,0.22636528,0.048579242,0.99611294,-0.084868222,0.023589769,0
1.3874246,-1.5490704,-1.0744711,0.73957843,-0.22289899,-0.63509041,0
-2.3204434,-2.9481807,0.64196366,-0.99335295,0.067564264,-0.093193404,0
-0.20741603,-4.7914071,-0.62986583,-0.088044137,-0.96750283,0.23703691,0
0.14474328,-4.7760701,-0.30773377,-0.088044137,-0.96750283,0.23703691,0
0.30671063,0.43812749,1.9485718,0.2007848,0.2158397,0.955562,0
1.3479089,3.6494052,0.84880805,0.52972299,0.15604794,0.83369213,0
-0.078142911,4.6373658,0.22792417,0.088044137,0.96750283,-0.23703691,0
-2.150099,-4.3754072,0.39116213,-0.088044137,-0.96750283,0.23703691,0
-0.91270417,-3.9151905,2.8883455,-0.088044137,-0.96750283,0.23703691,0
0.34713054,-4.3216314,1.8576472,-0.088044137,-0.96750283,0.23703691,0
-1.631394,3.3003325,-1.0114321,-0.98584145,0.050542176,-0.15988165,0
1.5039304,-4.4943404,0.81653541,-0.088044137,-0.96750283,0.23703691,0
-0.94283313,4.3079734,-2.0365322,0.088044137,0.96750283,-0.23703691,0
0.28888923,-4.6064248,0.21207145,-0.088044137,-0.96750283,0.23703691,0
-1.3155798,4.6345906,-0.15224057,0.088044137,0.96750283,-0.23703691,0
1.2982032,2.2567677,1.2610306,0.55462819,0.15004908,0.8184576,0
-1.5886959,-4.1539979,1.8307246,-0.088044137,-0.96750283,0.23703691,0
0.62682211,4.0805883,-2.2175987,0.088044137,0.96750283,-0.23703691,0
-1.9437748,-4.3811302,0.64967853,-0.088044137,-0.96750283,0.23703691,0
1.2174942,-1.2590131,1.8383881,0.68589979,0.11367789,0.71876198,0
0.16261947,4.7621241,0.25690007,0.088044137,0.96750283,-0.23703691,0
-1.4640051,-1.1399275,1.8684478,-0.63388926,0.23797958,0.73590094,0
1.6960583,-0.12612639,-1.2749028,0.79233277,-0.2122383,-0.57198226,0
-1.2478061,2.3542998,-2.0963292,-0.72234821,-0.10184176,-0.68398935,0
1.2410514,-4.5627856,0.69459325,-0.088044137,-0.96750283,0.23703691,0
0.65919816,4.6059947,-0.29431009,0.088044137,0.96750283,-0.23703691,0
-0.65802228,-4.2211704,1.4491107,-0.088044137,-0.96750283,0.23703691,0
1.402742,-4.4320459,0.051924765,0.85656244,-0.19500399,-0.47778058,0
-1.8665397,0.054117683,0.47030282,-0.96888804,0.13843475,0.20516258,0
-0.97516209,1.4329599,1.2900549,-0.5404765,0.24628673,0.80450481,0
0.1732568,4.4206777,0.97135115,-0.12881987,0.24702175,0.9604091,0
-0.49272737,4.210875,0.80448365,-0.37344062,0.25266501,0.89258194,0
0.5481934,-4.3245201,1.1155974,-0.088044137,-0.96750283,0.23703691,0
1.200809,3.4673009,-2.7426422,0.40667194,-0.25213888,-0.8780911,0
-0.85339469,4.1650553,-2.3881495,0.088044137,0.96750283,-0.23703691,0
0.035809472,-4.0365205,2.4116054,-0.088044137,-0.96750283,0.23703691,0
-0.10121338,4.5570416,-0.087050036,0.088044137,0.96750283,-0.23703691,0
0.97653759,-4.4003329,1.793228,-0.088044137,-0.96750283,0.23703691,0
-1.4327812,4.4130673,-0.17189708,-0.90337598,0.17781842,0.3902466,0
-1.3527187,4.4553962,-1.0237596,0.088044137,0.96750283,-0.23703691,0
1.6132572,4.0115399,-1.5931726,0.088044137,0.96750283,-0.23703691,0
0.95629805,3.8671079,-2.4909637,0.088044137,0.96750283,-0.23703691,0
-1.7325283,-3.3311181,-0.60564148,-0.75917083,-0.088887908,-0.64479345,0
-1.4464467,-0.61227876,-1.2299912,-0.72724521,-0.10018048,-0.67902744,0
0.91255921,4.2531404,0.96920949,0.32327002,0.19732922,0.92550397,0
1.245536,-1.9569076,1.751958,0.74315637,0.09465605,0.66238862,0
-1.441162,2.463156,0.54170424,-0.80451578,0.2093823,0.55579984,0
-0.68292379,-4.0840435,1.6841884,-0.088044137,-0.96750283,0.23703691,0
-2.1118286,-4.0097923,2.0336828,-0.088044137,-0.96750283,0.23703691,0
1.9461265,0.30455944,-0.62531531,0.96417063,-0.14255361,-0.22372654,0
-1.3921086,0.20085627,-1.3342137,-0.7384066,-0.096326046,-0.66744071,0
0.76024216,-2.8430455,2.3378384,0.53207421,0.15549228,0.8322975,0
-1.9308981,-1.3009799,-0.36854881,-0.92934424,-0.0058739185,-0.36916757,0
1.4932258,-4.5370584,1.0246224,-0.088044137,-0.96750283,0.23703691,0
-0.96741289,0.61470312,1.7504455,-0.46944314,0.25017956,0.84677821,0
2.2657623,3.5735471,-0.37788725,0.97586203,-0.036033444,0.21539459,0
-1.3617046,4.242311,-1.7809569,0.088044137,0.96750283,-0.23703691,0
-0.10821149,4.4379244,-0.70181376,0.088044137,0.96750283,-0.23703691,0
-1.8300301,-4.0509152,1.5614847,-0.088044137,-0.96750283,0.23703691,0
-0.08387769,-3.8779345,3.0091581,-0.088044137,-0.96750283,0.23703691,0
1.0672189,-2.7144606,-0.91912997,0.66165268,-0.23468393,-0.71213698,0
-0.16003639,-4.4517202,0.58094972,-0.088044137,-0.96750283,0.23703691,0
-1.9931169,-2.5353003,-0.20912875,-0.90041113,-0.024476673,-0.43435079,0
-0.16064501,4.6876931,-0.14622521,0.088044137,0.96750283,-0.23703691,0
0.99974084,4.3264422,-0.68645495,0.088044137,0.96750283,-0.23703691,0
-1.1533519,4.1048474,-2.2796845,0.088044137,0.96750283,-0.23703691,0
-1.1885067,0.23757172,1.7357082,-0.52780181,0.24712224,0.81262285,0
-0.18641968,4.0886149,-2.6088917,0.088044137,0.96750283,-0.23703691,0
-1.540378,-4.5970411,-0.64267933,-0.088044137,-0.96750283,0.23703691,0
-1.6031975,3.4643919,-1.1287131,-0.9894495,0.057457116,-0.13299745,0
1.7089068,0.64328533,-1.3240246,0.84431022,-0.19875261,-0.49763197,0
1.5717849,2.5601575,0.96050638,0.66503251,0.1200694,0.73709911,0
1.0258807,-4.6704526,0.22039478,-0.088044137,-0.96750283,0.23703691,0
0.29585278,4.1586461,-1.5968859,0.088044137,0.96750283,-0.23703691,0
0.55844396,-4.8040709,-0.33552986,-0.088044137,-0.96750283,0.23703691,0
1.7769732,0.4039138,1.0923867,0.83683652,0.05723682,0.54445249,0
1.6554943,1.8826529,-2.0456936,0.67045891,-0.23354815,-0.70423013,0
-2.0538602,-4.2528605,0.54667121,-0.088044137,-0.96750283,0.23703691,0
-0.62487644,4.0601683,-2.3043156,0.088044137,0.96750283,-0.23703691,0
1.1959082,3.8730514,-2.8400054,0.088044137,0.96750283,-0.23703691,0
-0.010144055,-2.6380641,2.7843826,0.12750058,0.22505793,0.96596712,0
1.0343271,4.4900584,-0.55290109,0.088044137,0.96750283,-0.23703691,0
0.12130763,-4.1311364,2.2639153,-0.088044137,-0.96750283,0.23703691,0
-0.72398931,4.570817,-0.56857848,0.088044137,0.96750283,-0.23703691,0
-0.43476745,2.0937121,1.4048185,-0.27874252,0.25238401,0.92660934,0
1.047913,4.3923316,-0.63649219,0.088044137,0.96750283,-0.23703691,0
-0.0033035129,-4.2370586,1.6442327,-0.088044137,-0.96750283,0.23703691,0
0.55717802,-4.4168191,1.4724876,-0.088044137,-0.96750283,0.23703691,0
-2.0081418,-3.9705586,1.9685447,-0.088044137,-0.96750283,0.23703691,0
-1.9397451,-0.64298135,-0.16468935,-0.98589367,0.050632905,-0.15953071,0
-0.26086482,4.1797175,-1.7697538,0.088044137,0.96750283,-0.23703691,0
1.6774318,-0.38643739,-1.035134,0.85012841,-0.1970043,-0.48833492,0
1.8611652,4.0617371,-1.8564068,0.088044137,0.96750283,-0.23703691,0
0.73312718,-4.3797622,1.2359149,-0.088044137,-0.96750283,0.23703691,0
-0.56575525,-4.5518522,0.13787374,-0.088044137,-0.96750283,0.23703691,0
-0.11571625,-3.9927402,2.3285496,-0.088044137,-0.96750283,0.23703691,0
2.3786771,4.2187958,-1.1759802,0.088044137,0.96750283,-0.23703691,0
2.0304253,3.8088098,-0.052436218,0.88516074,0.033153657,0.46410269,0
-2.0679748,-2.519021,-0.29511455,-0.87280935,-0.039750233,-0.48643988,0
0.8016597,-4.7743959,0.18256694,-0.088044137,-0.96750283,0.23703691,0
-0.27016729,4.268867,-1.986094,0.088044137,0.96750283,-0.23703691,0
-1.7073091,-3.9846227,2.1294036,-0.088044137,-0.96750283,0.23703691,0
-1.961194,-0.63841981,0.74375731,-0.95360845,0.15063883,0.26065081,0
0.64565837,4.7538042,0.76874006,0.088044137,0.96750283,-0.23703691,0
-1.4524782,-4.2170606,1.3479083,-0.088044137,-0.96750283,0.23703691,0
0.68264747,-4.7870703,-0.081981003,-0.088044137,-0.96750283,0.23703691,0
0.5372467,-4.6258149,0.048423219,-0.088044137,-0.96750283,0.23703691,0
-0.41402858,-4.2639151,1.6903619,-0.088044137,-0.96750283,0.23703691,0
-0.83379763,2.9360375,1.0655775,-0.49009827,0.24924067,0.83527404,0
-0.23471145,-4.3480759,1.5625566,-0.088044137,-0.96750283,0.23703691,0
0.13161823,-4.4996896,0.38252851,-0.088044137,-0.96750283,0.23703691,0
-1.3918866,-4.3802581,0.25857705,-0.088044137,-0.96750283,0.23703691,0
1.6617937,0.97819412,0.98207337,0.79341847,0.075763032,0.60394305,0
-1.8976362,-4.6048083,-0.13227509,-0.088044137,-0.96750283,0.23703691,0
-0.31705654,-4.0159163,2.6524649,-0.088044137,-0.96750283,0.23703691,0
-1.5417067,4.678371,-0.58558607,0.088044137,0.96750283,-0.23703691,0
0.67734349,4.8472691,0.63296509,0.088044137,0.96750283,-0.23703691,0
-1.1346734,4.7104964,-0.13943729,0.088044137,0.96750283,-0.23703691,0
1.0807469,3.9788139,-2.2127903,0.088044137,0.96750283,-0.23703691,0
1.8998992,4.4533472,0.18377607,0.088044137,0.96750283,-0.23703691,0
1.7574857,-2.1914186,0.49346787,0.99521756,-0.095545605,-0.020324165,0
0.58678657,-2.4263482,2.4869373,0.37174058,0.18885617,0.90892369,0
-0.76233387,2.1799104,-2.3536046,-0.52286649,-0.15765584,-0.83770835,0
1.7628348,-0.82110202,0.8565408,0.95069867,-0.01058113,0.30993554,0
1.4436734,-0.1751353,-1.5063844,0.68303317,-0.23184629,-0.69261312,0
0.45094085,-1.3848292,2.3322086,0.32903364,0.19635731,0.9236778,0
-0.086589888,4.3378053,-1.163695,0.088044137,0.96750283,-0.23703691,0
-2.103899,-2.1022666,1.4199468,-0.91565245,0.1723019,0.36317021,0
-1.5927154,-4.2442698,0.71929371,-0.088044137,-0.96750283,0.23703691,0
0.63287199,-4.2656398,1.4646702,-0.088044137,-0.96750283,0.23703691,0
0.94537723,-4.1330752,2.1876731,-0.088044137,-0.96750283,0.23703691,0
1.1147995,3.0958138,-2.7526722,0.3879312,-0.25247738,-0.88643366,0
0.86032617,4.495811,-0.0067101158,0.088044137,0.96750283,-0.23703691,0
-0.32032305,-4.2736397,1.4080628,-0.088044137,-0.96750283,0.23703691,0
-1.7904783,1.3457191,-1.0068136,-0.93976068,0.0017720368,-0.34182844,0
-1.6429049,-0.48607537,-1.0685964,-0.81268686,-0.067834556,-0.57873869,0
-0.29155058,3.9765666,-2.6454678,0.088044137,0.96750283,-0.23703691,0
1.7936574,-1.4470156,0.32158422,0.99598122,-0.08942613,0.0049370807,0
1.8909413,-0.70586193,0.42737702,0.99185777,-0.063168615,0.11057959,0
-0.78653294,-4.6622496,-0.28999338,-0.088044137,-0.96750283,0.23703691,0
-0.46309215,4.0366969,-2.5939333,0.088044137,0.96750283,-0.23703691,0
1.373257,-4.6253548,0.84432167,-0.088044137,-0.96750283,0.23703691,0
0.35472286,-4.5310597,0.40350771,-0.088044137,-0.96750283,0.23703691,0
-1.1402447,1.7555979,-1.9563891,-0.62467581,-0.13172749,-0.76969343,0
1.3356735,4.5359411,0.16606221,0.088044137,0.96750283,-0.23703691,0
0.21208927,4.1305289,-2.117461,0.088044137,0.96750283,-0.23703691,0
0.4964059,4.2660704,-1.3239387,0.088044137,0.96750283,-0.23703691,0
0.3963303,-4.7473168,-0.31675658,-0.088044137,-0.96750283,0.23703691,0
1.8565027,0.36190975,-0.8758353,0.89929068,-0.17954205,-0.39879942,0
-1.581678,-3.9405508,2.2688453,-0.088044137,-0.96750283,0.23703691,0
-0.39982134,4.4899302,-0.65379035,0.088044137,0.96750283,-0.23703691,0
0.75812209,-4.4280801,1.4649711,-0.088044137,-0.96750283,0.23703691,0
-1.7836976,-1.249059,1.6453134,-0.77935511,0.21510483,0.58850276,0
2.3357887,3.8478229,-0.90843946,0.99581432,-0.079627603,0.044869285,0
0.25509906,4.5552235,-0.13389683,0.088044137,0.96750283,-0.23703691,0
-0.039388478,-4.1405582,1.9143711,-0.088044137,-0.96750283,0.23703691,0
2.2665937,3.716574,-1.6262251,0.94662589,-0.15534021,-0.28243384,0
-1.5876379,-1.7374451,-0.80567336,-0.760557,-0.088378236,-0.64322793,0
1.1351458,4.2499595,-1.6261661,0.088044137,0.96750283,-0.23703691,0
0.4558807,-4.3102608,1.7919432,-0.088044137,-0.96750283,0.23703691,0
0.453365,-0.87560737,-1.8784434,0.27905893,-0.25238916,-0.92651278,0
1.0143511,3.5368381,-2.7953296,0.32101631,-0.25282422,-0.91270387,0
0.27578467,-4.7580423,-0.74857569,-0.088044137,-0.96750283,0.23703691,0
1.6029434,4.4121575,-0.5503912,0.088044137,0.96750283,-0.23703691,0
-0.90827405,-4.3828011,0.43789139,-0.088044137,-0.96750283,0.23703691,0
0.24909326,1.2554506,1.7601718,0.1370917,0.22392753,0.96491563,0
0.80131459,4.3412781,-0.85006911,0.088044137,0.96750283,-0.23703691,0
-0.30388403,-4.595346,-0.218437,-0.088044137,-0.96750283,0.23703691,0
-1.8407128,2.8463855,-0.77099597,-0.99596328,0.0813272,-0.037987467,0
-0.13414495,4.3868523,-1.0675086,0.088044137,0.96750283,-0.23703691,0
-1.1828064,-2.5443156,2.5626562,-0.41269311,0.2520068,0.87531537,0
-1.747241,1.975088,-1.2202966,-0.94715452,0.0076245423,-0.32068688,0
1.1046158,4.2124591,-1.3728974,0.088044137,0.96750283,-0.23703691,0
-0.85602152,3.5497279,-2.5678196,-0.55492133,-0.14997694,-0.81827205,0
-0.32450345,4.2669048,-1.8836328,0.088044137,0.96750283,-0.23703691,0
1.0185567,4.6173935,0.32580262,0.088044137,0.96750283,-0.23703691,0
0.46137795,3.91149,-2.8527992,0.088044137,0.96750283,-0.23703691,0
0.064278938,4.4029822,1.035785,-0.14344531,0.24779531,0.95813411,0
1.018404,-4.349771,1.6726459,-0.088044137,-0.96750283,0.23703691,0
1.8517023,0.58440089,-0.99295002,0.90549523,-0.17690341,-0.38572475,0
1.1750799,0.77280349,1.5452342,0.5564608,0.1495976,0.81729549,0
0.97417754,-4.448967,0.83763641,-0.088044137,-0.96750283,0.23703691,0
-0.43069816,-4.0845408,2.0219326,-0.088044137,-0.96750283,0.23703691,0
0.59021044,4.5116072,-0.24135779,0.088044137,0.96750283,-0.23703691,0
-1.0344869,4.2175121,-2.0251055,0.088044137,0.96750283,-0.23703691,0
1.6172343,3.339263,-2.4224417,0.67084634,-0.23349716,-0.70387805,0
-0.57900721,2.0800376,1.4760622,-0.3491984,0.25283825,0.90229332,0
-0.20859203,-2.1316721,-1.5097771,-0.0021021762,-0.23778002,-0.97131675,0
-0.5286929,-4.2961431,1.4795735,-0.088044137,-0.96750283,0.23703691,0
2.3058534,3.0031145,-0.67545068,0.99609119,-0.087213226,0.014010251,0
-0.65712875,4.3473191,-1.7778889,0.088044137,0.96750283,-0.23703691,0
-0.58336568,-4.0364113,2.6307607,-0.088044137,-0.96750283,0.23703691,0
1.3632461,-4.4821358,0.82158011,-0.088044137,-0.96750283,0.23703691,0
-1.6863029,3.0146391,-1.1555786,-0.96461487,0.023440011,-0.26261905,0
-0.62933791,4.7561612,0.61866266,-0.50919563,0.24823479,0.8240748,0
-2.2130454,-2.3515382,0.84160972,-0.98325115,0.12253223,0.13491909,0
0.66757876,3.2262871,1.2270275,0.18694259,0.21768418,0.95794892,0
-2.1731384,-3.6308842,1.5065639,-0.95393926,0.15040496,0.25957331,0
0.71167779,-3.9777374,2.6962759,-0.088044137,-0.96750283,0.23703691,0
-1.2928802,4.2012119,-2.0401716,-0.8840369,-0.033768713,-0.46619567,0
-1.6817987,2.8906598,-0.071051091,-0.94468749,0.15657279,0.28818479,0
-1.102659,-4.2577696,1.0991483,-0.088044137,-0.96750283,0.23703691,0
1.8517982,4.1571221,-1.3935436,0.088044137,0.96750283,-0.23703691,0
-0.72863376,-4.3047028,0.7998665,-0.088044137,-0.96750283,0.23703691,0
-1.4409268,-4.3221474,0.99756813,-0.088044137,-0.96750283,0.23703691,0
1.1375297,-4.3360782,1.6864341,-0.088044137,-0.96750283,0.23703691,0
1.0779513,4.4945159,-0.04561203,0.088044137,0.96750283,-0.23703691,0
1.5957108,-3.4842944,0.30504122,0.95353597,-0.15068993,-0.26088628,0
1.6598133,-1.7026662,1.2589476,0.89379185,0.028321873,0.44758689,0
1.6821533,-3.2828431,0.38979784,0.97884458,-0.12815335,-0.1594992,0
-0.84883285,4.6341624,0.033868972,0.088044137,0.96750283,-0.23703691,0
-0.57420653,4.5207758,-0.69278681,0.088044137,0.96750283,-0.23703691,0
0.026232287,4.3678894,-1.3237082,0.088044137,0.96750283,-0.23703691,0
1.503243,-3.9650168,0.11448276,0.91891086,-0.17074311,-0.3555975,0
-1.6156379,-1.9247373,-0.76979035,-0.75238901,-0.091357179,-0.65235311,0
-0.98452026,-4.5959682,0.078721382,-0.088044137,-0.96750283,0.23703691,0
0.38243762,4.4629669,0.93335694,-0.038071748,0.24105553,0.96976429,0
0.1747463,-2.4018719,-1.4275122,0.19290109,-0.25001669,-0.94883132,0
-1.2943698,4.3572626,-1.5971227,0.088044137,0.96750283,-0.23703691,0
-0.8938601,4.4389825,-0.97707689,0.088044137,0.96750283,-0.23703691,0
-1.5556918,-4.5919867,-0.043744974,-0.088044137,-0.96750283,0.23703691,0
-1.9193772,-0.21670491,-0.44704518,-0.97139037,0.030701846,-0.23549539,0
-1.2388449,-4.1800404,1.6322792,-0.088044137,-0.96750283,0.23703691,0
-0.67175859,4.4157953,-1.1366074,0.088044137,0.96750283,-0.23703691,0
0.037833318,-4.2143188,1.7716554,-0.088044137,-0.96750283,0.23703691,0
-0.32109147,-3.8789389,3.0290616,-0.088044137,-0.96750283,0.23703691,0
-0.17235781,-4.0728898,2.5849254,-0.088044137,-0.96750283,0.23703691,0
0.59503293,-4.1020112,2.529659,-0.088044137,-0.96750283,0.23703691,0
-0.75425822,-4.6110396,-0.47734877,-0.088044137,-0.96750283,0.23703691,0
-1.5573903,-1.6628792,-1.0934569,-0.669608,-0.11869029,-0.73316956,0
0.7237255,4.4699244,-0.41150078,0.088044137,0.96750283,-0.23703691,0
-0.50304782,-4.3701639,1.122942,-0.088044137,-0.96750283,0.23703691,0
1.4996878,-2.8881338,-0.3623282,0.83764565,-0.20068865,-0.50800967,0
-1.4024342,-0.84213936,-1.4070423,-0.67534542,-0.11694349,-0.72817081,0
0.81339145,-4.6728382,-0.042475753,-0.088044137,-0.96750283,0.23703691,0
-1.7936949,-4.5660453,-0.21659331,-0.088044137,-0.96750283,0.23703691,0
1.4136468,-4.1592278,2.0807245,0.84898686,0.051583387,0.52589017,0
-0.52846581,-4.1186514,-0.97677314,-0.047686808,-0.23359434,-0.97116411,0
0.1434081,4.6514416,0.97986293,-0.063208975,0.24290784,0.96798778,0
1.4247749,-2.7415726,-0.35230124,0.86155981,-0.19339904,-0.46937349,0
1.0486622,3.9815621,-2.6662552,0.088044137,0.96750283,-0.23703691,0
1.7101858,3.2841096,-2.3282895,0.71789467,-0.22659755,-0.65824068,0
1.8524481,1.0895849,0.8469997,0.84798062,0.052060612,0.52746427,0
0.041444212,4.2374811,-1.7391396,0.088044137,0.96750283,-0.23703691,0
-0.81498462,-1.6893153,2.2826667,-0.2798526,0.25240189,0.92626983,0
0.73911506,4.7544675,0.82172567,0.088044137,0.96750283,-0.23703691,0
1.5674932,4.4146266,-0.75677752,0.088044137,0.96750283,-0.23703691,0
-0.61225808,-4.525012,0.28296638,-0.088044137,-0.96750283,0.23703691,0
1.1108389,-4.7073264,0.0028049685,-0.088044137,-0.96750283,0.23703691,0
1.5378863,4.1404996,-1.8250234,0.088044137,0.96750283,-0.23703691,0
-0.60487854,4.3452249,-1.3612701,0.088044137,0.96750283,-0.23703691,0
-1.8313495,-0.45959911,-0.86606735,-0.89719892,-0.026358696,-0.44083941,0
-0.81476915,-4.106328,2.0479352,-0.088044137,-0.96750283,0.23703691,0
2.0327404,0.65107638,0.2735379,0.9752751,-0.035303399,0.21815635,0
-1.1573799,-0.87497866,1.9365203,-0.50190932,0.24863453,0.82841289,0
-1.0675067,-4.7685289,-0.82150835,-0.29587427,-0.20182121,-0.93366301,0
-1.1802391,-0.4585022,-1.475631,-0.6264571,-0.13123116,-0.76832926,0
1.5720127,-3.3341899,1.6289774,0.91701084,0.014209401,0.39860907,0
-0.14970934,-4.696734,-0.39693975,-0.088044137,-0.96750283,0.23703691,0
-2.3664424,-3.5110116,1.1823481,-0.98534924,0.11948413,0.12169843,0
0.96417892,-4.355371,1.150283,-0.088044137,-0.96750283,0.23703691,0
-1.5417491,-1.2002934,-1.2160044,-0.7172358,-0.10355731,-0.68909264,0
-0.94942391,4.1417956,-2.6041472,0.088044137,0.96750283,-0.23703691,0
-1.2876225,-4.4301829,0.31008467,-0.088044137,-0.96750283,0.23703691,0
-1.3571104,-4.6270084,-0.44719264,-0.088044137,-0.96750283,0.23703691,0
2.0432565,4.2434297,-0.59404701,0.088044137,0.96750283,-0.23703691,0
-1.9933672,-2.8989985,1.9261675,-0.82777727,0.20343295,0.52287656,0
1.1557612,-4.1363616,2.4029498,0.73411071,0.097820945,0.67194676,0
-0.63930905,-4.0115123,2.6705098,-0.088044137,-0.96750283,0.23703691,0
0.13710542,-4.091496,2.4583013,-0.088044137,-0.96750283,0.23703691,0
1.1846266,-4.2056556,2.011709,-0.088044137,-0.96750283,0.23703691,0
-0.11297043,-4.4959593,0.19533922,-0.088044137,-0.96750283,0.23703691,0
-0.70205444,-3.9270329,2.7131956,-0.088044137,-0.96750283,0.23703691,0
-0.38789064,4.6560054,-0.28524563,0.088044137,0.96750283,-0.23703691,0
-0.20530917,4.0565467,-2.3175142,0.088044137,0.96750283,-0.23703691,0
2.2446733,3.289866,-1.0262359,0.99164832,-0.10764524,-0.071036451,0
-1.5411474,-4.1031938,1.4145631,-0.088044137,-0.96750283,0.23703691,0
0.3127079,-4.5585203,0.35183027,-0.088044137,-0.96750283,0.23703691,0
1.3673642,-1.1014208,-1.1460903,0.69350487,-0.23035413,-0.6826331,0
1.123467,4.3019986,-1.0725399,0.088044137,0.96750283,-0.23703691,0
-1.8077658,1.6659788,-0.98251516,-0.96346897,0.022289108,-0.26689094,0
0.97776556,-4.3157005,1.3234385,-0.088044137,-0.96750283,0.23703691,0
-0.39548093,1.8199115,1.5036745,-0.2831521,0.25245291,0.92525262,0
-0.11460703,2.7745283,1.2628499,-0.20322391,0.25040254,0.94657201,0
-1.5931089,2.408587,-1.4886713,-0.90838999,-0.019661713,-0.41766143,0
-1.7093297,2.8581736,-1.3964306,-0.93722701,-0.00014692731,-0.34871989,0
-0.95444471,4.8017912,0.30630493,0.088044137,0.96750283,-0.23703691,0
-1.2163789,2.1259725,-1.9493475,-0.70004231,-0.10919167,-0.70570385,0
0.90473145,1.4121311,1.4869406,0.41731104,0.18024664,0.8907091,0
0.090743907,0.026654949,2.1391492,0.069879852,0.23137568,0.97035152,0
-0.86706287,-3.9750743,2.3834238,-0.088044137,-0.96750283,0.23703691,0
-0.96562153,-4.1855812,1.1353236,-0.088044137,-0.96750283,0.23703691,0
1.5447025,4.3888426,-0.53963929,0.088044137,0.96750283,-0.23703691,0
-1.235558,4.2093744,-2.1389544,0.088044137,0.96750283,-0.23703691,0
-0.64367646,0.96468401,-2.0938809,-0.38997439,-0.18548837,-0.90195012,0
0.94777507,-4.8204827,-0.085837305,-0.088044137,-0.96750283,0.23703691,0
0.3140043,-4.7150912,0.090835303,-0.088044137,-0.96750283,0.23703691,0
-0.042724133,-3.8484452,2.848774,-0.088044137,-0.96750283,0.23703691,0
1.4074359,-4.36338,0.30092692,0.91982865,-0.17029619,-0.35343236,0
0.13649678,2.8133268,1.3323302,-0.033996679,0.24074095,0.96999377,0
-0.69729924,4.1794662,-2.0362415,0.088044137,0.96750283,-0.23703691,0
1.3365098,-4.7839174,0.18135685,-0.088044137,-0.96750283,0.23703691,0
0.080039874,-4.8294806,-0.64884597,-0.088044137,-0.96750283,0.23703691,0
-0.27154884,2.7064486,1.2801113,-0.27450916,0.25231293,0.92789161,0
-1.6321974,3.7884789,-1.3677801,-0.97124493,0.03053662,-0.23611577,0
1.419045,3.6859672,-2.596633,0.52193421,-0.24748752,-0.81629318,0
1.3877509,-0.68651199,1.6340016,0.72261035,0.10175327,0.68372548,0
-1.6449764,3.7122312,-0.38130176,-0.95142889,0.15215336,0.26764217,0
-1.6810446,0.13829406,1.1761582,-0.81880182,0.20581071,0.53591549,0
0.15488538,-1.537599,-1.7541592,0.13908538,-0.24757023,-0.95883489,0
0.0091721565,-4.5172176,0.14066432,-0.088044137,-0.96750283,0.23703691,0
1.0295182,-2.7081606,-1.0002749,0.6515854,-0.23592792,-0.72095382,0
-1.9726942,-4.4446273,0.21502794,-0.088044137,-0.96750283,0.23703691,0
1.4032687,3.9228029,0.63667154,0.57096654,0.14597362,0.80789173,0
-2.160078,-4.0565214,1.5722497,-0.088044137,-0.96750283,0.23703691,0
-1.2181287,4.6882229,-0.50164056,0.088044137,0.96750283,-0.23703691,0
-1.5534762,3.06301,-0.12319002,-0.93866199,0.16023041,0.305352,0
-0.30011854,1.3748696,-2.3471632,-0.21489795,-0.21390881,-0.95292276,0
-0.76900125,-3.7806563,2.863013,-0.16879088,0.24901029,0.95367885,0
1.3732134,-4.0396662,2.1459575,0.82678521,0.06174472,0.55911875,0
-0.41189182,-3.9922817,2.7775588,-0.088044137,-0.96750283,0.23703691,0
-0.45531052,4.2628894,-1.8481572,0.088044137,0.96750283,-0.23703691,0
1.6540083,3.0730829,0.76489443,0.70999962,0.10595357,0.69618565,0
-2.3360617,-3.1583917,0.89903826,-0.99445683,0.099103503,0.035128787,0
1.6240842,-3.1771946,1.2583146,0.95812821,-0.017164391,0.28582454,0
-2.2356212,-2.8727887,0.79603767,-0.99306214,0.10387377,0.055117503,0
-1.4298545,-4.5831375,-0.098522872,-0.088044137,-0.96750283,0.23703691,0
-0.74373102,-4.1395845,1.6201792,-0.088044137,-0.96750283,0.23703691,0
2.2752478,4.204917,-1.3840176,0.088044137,0.96750283,-0.23703691,0
1.7316679,-2.4445765,1.1215717,0.9612897,-0.020152705,0.27480158,0
-1.5922347,-2.3594046,2.1466413,-0.63761812,0.2375612,0.73280817,0
-0.43504748,-0.58948439,2.1159689,-0.15941432,0.24857944,0.95540321,0
-0.08882986,3.9677491,-2.5773535,0.088044137,0.96750283,-0.23703691,0
1.3394812,-4.7151079,-0.010917045,-0.088044137,-0.96750283,0.23703691,0
0.87891847,-4.2405267,1.6367073,-0.088044137,-0.96750283,0.23703691,0
0.065077014,4.8066773,0.27723318,0.088044137,0.96750283,-0.23703691,0
0.37894198,4.0266013,-2.1367698,0.088044137,0.96750283,-0.23703691,0
0.47333398,-4.1735792,2.0198874,-0.088044137,-0.96750283,0.23703691,0
-0.75340098,0.19075933,-1.8850727,-0.44039121,-0.17563504,-0.88045889,0
-1.7834373,-0.68806159,-0.9088276,-0.83441186,-0.058337688,-0.54804522,0
0.46699807,-4.1129904,2.6538506,-0.088044137,-0.96750283,0.23703691,0
-2.3808002,-4.2015829,1.1485049,-0.088044137,-0.96750283,0.23703691,0
-0.94438398,-2.1016226,-1.3696957,-0.35948676,-0.19106324,-0.91338062,0
-1.788874,-0.74555331,-0.76331675,-0.878878,-0.036553025,-0.47564408,0
1.5154045,4.5191917,0.62841183,0.56369567,0.14780134,0.81265116,0
0.29414523,-4.6937504,-0.079298973,-0.088044137,-0.96750283,0.23703691,0
-2.0358706,-4.3472281,0.54256457,-0.088044137,-0.96750283,0.23703691,0
-0.5256319,2.9786391,-2.6849422,-0.42452982,-0.1788229,-0.8875792,0
-1.0951033,-4.550746,0.19164246,-0.088044137,-0.96750283,0.23703691,0
1.0966154,2.8077862,1.0766596,0.45513785,0.17259628,0.87353307,0
-1.840555,-2.0799222,1.7748928,-0.7675373,0.21756922,0.60295117,0
1.2291491,-4.1184492,-0.29801631,0.75205785,-0.22060271,-0.62108243,0
0.11613299,-4.3080816,1.1275816,-0.088044137,-0.96750283,0.23703691,0
-2.2773356,-3.3509927,0.17705511,-0.9623692,0.021202685,-0.27091688,0
-1.6233184,4.0385089,-1.2023565,-0.98687828,0.052388407,-0.15273112,0
-0.26377386,-4.0225444,2.7261901,-0.088044137,-0.96750283,0.23703691,0
-1.4338441,3.0264983,-1.8355407,-0.85632592,-0.048050359,-0.51419556,0
-0.26948267,-1.2024072,-1.8384951,-0.10057075,-0.22811122,-0.96842694,0
-0.74470723,2.3508182,-2.3164353,-0.49037427,-0.16503137,-0.85574389,0
-0.62719691,4.7341766,0.2910383,0.088044137,0.96750283,-0.23703691,0
0.57803482,3.9538047,-2.7218964,0.088044137,0.96750283,-0.23703691,0
1.3673865,-1.4622425,-0.98758602,0.73718631,-0.2233247,-0.63771653,0
-2.1759386,-4.2281132,1.2378258,-0.088044137,-0.96750283,0.23703691,0
0.82068187,-0.82408404,2.0650957,0.43479249,0.17676973,0.88301075,0
1.697306,-2.7943585,0.08786279,0.95674092,-0.1483784,-0.25026104,0
-0.93030828,-1.6320367,-1.4628447,-0.40352964,-0.18291852,-0.89649582,0
0.34415299,1.2026458,-2.3203142,0.048589405,-0.24184906,-0.96909648,0
-1.0237774,-4.1680541,1.6118141,-0.088044137,-0.96750283,0.23703691,0
-1.9097921,-4.0443192,1.6146572,-0.088044137,-0.96750283,0.23703691,0
-1.0334427,-4.3425202,0.63083881,-0.088044137,-0.96750283,0.23703691,0
1.150646,4.128829,-1.6691039,0.088044137,0.96750283,-0.23703691,0
-1.7408988,2.5132663,-1.0032781,-0.98440093,0.04812042,-0.16923138,0
0.755813,4.2742367,-0.85568064,0.088044137,0.96750283,-0.23703691,0
2.0792677,1.106723,-0.85466111,0.95472819,-0.14984258,-0.25698486,0
-0.42106625,4.8042583,0.31338224,0.088044137,0.96750283,-0.23703691,0
-1.415053,3.3438768,0.34919283,-0.79953003,0.21057127,0.56250465,0
-1.2194722,4.8309793,-0.051417209,0.088044137,0.96750283,-0.23703691,0
-2.0743794,-4.3641806,0.50585413,-0.088044137,-0.96750283,0.23703691,0
-1.5822206,-0.059878953,-1.1629411,-0.84247106,-0.054644197,-0.53596312,0
1.7070755,0.47125793,0.8371768,0.86251849,0.044994101,0.50402117,0
-1.2718219,0.87177473,-1.7308838,-0.69982755,-0.10926077,-0.70590609,0
1.9748253,4.2888627,-0.45937774,0.088044137,0.96750283,-0.23703691,0
0.28839183,0.62250364,1.9376947,0.19522922,0.21658583,0.95654386,0
-1.7470292,-4.3386765,1.0028158,-0.088044137,-0.96750283,0.23703691,0
-2.2874541,-4.1428032,1.2047005,-0.088044137,-0.96750283,0.23703691,0
-0.005629912,-4.6018677,0.55080444,-0.088044137,-0.96750283,0.23703691,0
-0.42053613,0.11645302,-2.0521545,-0.22283423,-0.2128005,-0.95134687,0
-1.8983124,-4.0704155,1.6001924,-0.088044137,-0.96750283,0.23703691,0
0.028209582,2.4654777,-2.5918486,-0.15630309,-0.22159491,-0.96253049,0
1.208696,-4.6661701,0.61452919,-0.088044137,-0.96750283,0.23703691,0
1.5731082,-2.077101,-0.53155422,0.84195918,-0.1994435,-0.50132519,0
-1.884504,-0.48648149,-0.37241498,-0.9560886,0.015299693,-0.29267806,0
-1.1536944,4.7681532,0.16210258,-0.75200814,0.22061212,0.62113935,0
-0.61809647,4.611619,-0.65151668,0.088044137,0.96750283,-0.23703691,0
-1.2421566,-4.5234032,-0.26348248,-0.088044137,-0.96750283,0.23703691,0
-1.3374665,3.5550809,-2.1047978,-0.8262549,-0.061978586,-0.55987632,0
0.70312363,4.6468406,0.35972965,0.088044137,0.96750283,-0.23703691,0
1.1068389,-2.3392346,-0.90879655,0.65214539,-0.23586024,-0.72046953,0
-1.4250585,-3.0210476,-0.94774741,-0.55221498,-0.15064144,-0.81997907,0
0.78230953,-4.7113504,-0.17613369,-0.088044137,-0.96750283,0.23703691,0
-1.0178621,-4.1708803,1.855583,-0.088044137,-0.96750283,0.23703691,0
1.4698111,-4.3697567,-0.0048002079,0.86972678,-0.19067302,-0.45521337,0
0.17545287,-4.8289905,-0.54483241,-0.088044137,-0.96750283,0.23703691,0
-1.219671,-0.96012968,-1.4941387,-0.57230359,-0.14563501,-0.80700624,0
-1.9665579,-4.0899134,-0.17847753,-0.83282298,-0.059054334,-0.55038017,0
1.8898811,-1.2817166,-0.17497604,0.9760766,-0.13128658,-0.17331615,0
0.48495978,-0.25501901,-1.9890881,0.26234958,-0.25208193,-0.93146521,0
1.4252814,4.4881454,0.24368462,0.088044137,0.96750283,-0.23703691,0
0.69672823,-4.7133403,0.26893273,-0.088044137,-0.96750283,0.23703691,0
-1.0274067,-3.870898,2.8459475,-0.088044137,-0.96750283,0.23703691,0
-0.12345359,2.619267,-2.606585,-0.2246259,-0.21254802,-0.95098186,0
-1.9207875,-1.6672599,1.4449757,-0.85991728,0.19393165,0.47215745,0
-1.972389,-0.7601251,-0.29710177,-0.97247672,0.031951353,-0.23079886,0
-0.45633876,4.2407122,-2.2152233,0.088044137,0.96750283,-0.23703691,0
1.4990348,1.5469131,1.2162341,0.68094951,0.11521812,0.72320998,0
-1.6454884,-4.4675798,0.43509588,-0.088044137,-0.96750283,0.23703691,0
-2.1214941,-2.3264024,0.68206525,-0.99284208,0.10451284,0.057807654,0
-1.7259957,1.3093423,-0.9189474,-0.94558787,0.0063505787,-0.32530487,0
-1.4336519,2.3517656,0.42721379,-0.84562743,0.19836168,0.49554709,0
-1.8089294,1.7201498,-0.5172683,-0.99273914,0.065646112,-0.10079464,0
0.086059205,3.8785856,-2.8134301,0.088044137,0.96750283,-0.23703691,0
-1.7105587,0.79335326,0.55059505,-0.91333723,0.17338398,0.36844686,0
0.60894871,-4.2444229,1.8358178,-0.088044137,-0.96750283,0.23703691,0
-1.9877955,-4.0783653,-0.32285082,-0.80416369,-0.071394801,-0.59010458,0
-1.4928348,-2.0339282,2.0590107,-0.60608715,0.24087563,0.75804836,0
-0.93761533,4.4965096,-1.2238997,0.088044137,0.96750283,-0.23703691,0
0.34002653,-4.0673733,2.4179399,-0.088044137,-0.96750283,0.23703691,0
-0.10458042,4.3365202,-1.0872113,0.088044137,0.96750283,-0.23703691,0
-1.4484932,-3.8249986,2.4379909,-0.088044137,-0.96750283,0.23703691,0
-0.24570644,-4.7276096,-0.7466597,-0.088044137,-0.96750283,0.23703691,0
-0.76248372,-4.2738361,-0.96608824,-0.16595325,-0.22038856,-0.96119118,0
1.1402525,-1.3250498,-1.2165773,0.64894587,-0.23624471,-0.72322726,0
1.6800342,-3.6289847,0.53046334,0.98473293,-0.12041027,-0.12570751,0
1.4416102,2.3275068,1.1183815,0.62070334,0.13282855,0.77271205,0
0.72969431,-4.3784456,1.638909,-0.088044137,-0.96750283,0.23703691,0
0.24974301,-3.9725621,2.6347175,-0.088044137,-0.96750283,0.23703691,0
-0.96933049,-1.8795421,-1.4779965,-0.44201928,-0.17530313,-0.87970895,0
-1.8035436,0.045538135,-0.75284529,-0.92435086,-0.009332478,-0.38142949,0
0.255409,-4.3656406,1.1050431,-0.088044137,-0.96750283,0.23703691,0
0.17838427,-4.5826244,0.09156803,-0.088044137,-0.96750283,0.23703691,0
2.2043886,1.8290349,-0.9040271,0.97111744,-0.13634583,-0.19580826,0
-1.1061291,2.2708733,-2.0656331,-0.69104171,-0.11206171,-0.71407521,0
0.25464094,4.5458851,0.9723475,-0.095178939,0.24504323,0.96482891,0
-0.48165995,-4.2812381,1.0833286,-0.088044137,-0.96750283,0.23703691,0
-1.530654,-4.0567689,2.2785106,-0.088044137,-0.96750283,0.23703691,0
-0.41827872,-1.7713792,2.5731442,-0.11326156,0.24614111,0.96259356,0
-0.52757716,3.5746796,1.0767092,-0.35964933,0.25278491,0.89819384,0
-0.70024532,-4.6297345,-0.38196746,-0.088044137,-0.96750283,0.23703691,0
0.03914918,-3.3213112,-1.2568787,0.16830224,-0.24898838,-0.953771,0
1.96727,4.3917704,-0.2336688,0.088044137,0.96750283,-0.23703691,0
-0.17950717,-2.6317561,-1.4410295,0.008145065,-0.23865229,-0.97107089,0
1.3299725,-1.7412374,-0.9651767,0.76234883,-0.21860981,-0.60912561,0
1.6784074,-1.0174147,1.110388,0.89560622,0.027280524,0.44401041,0
-1.9559382,-4.2342815,1.0138401,-0.088044137,-0.96750283,0.23703691,0
-1.8240941,0.75858361,0.4250367,-0.94819254,0.15432224,0.27769691,0
-1.5297664,4.6080976,-0.67015803,0.088044137,0.96750283,-0.23703691,0
1.7394634,0.50383896,0.93749076,0.87671328,0.037702922,0.47953352,0
-0.91625178,4.3974791,-1.0810984,0.088044137,0.96750283,-0.23703691,0
1.0679352,4.7282448,0.32856825,0.088044137,0.96750283,-0.23703691,0
-0.56393236,4.0486941,-2.4764867,0.088044137,0.96750283,-0.23703691,0
-1.9267255,0.49597543,0.40898472,-0.96235025,0.14404835,0.23050374,0
-1.6185633,4.1692681,-0.7270447,-0.98704249,0.11678218,0.11004107,0
-1.2752401,-3.8843033,2.6810334,-0.088044137,-0.96750283,0.23703691,0
-1.7608413,-2.2050405,-0.79533815,-0.72963142,-0.099364452,-0.67658311,0
0.3337062,4.4815335,-0.49778071,0.088044137,0.96750283,-0.23703691,0
-0.7748341,4.2682028,-2.1797948,0.088044137,0.96750283,-0.23703691,0
1.8926959,-1.1374342,0.80438882,0.96371174,-0.022531345,0.26599243,0
-1.8290629,-4.2267385,1.1029714,-0.088044137,-0.96750283,0.23703691,0
1.371084,4.720232,0.62918532,0.088044137,0.96750283,-0.23703691,0
1.1760087,-4.5005221,0.98070741,-0.088044137,-0.96750283,0.23703691,0
1.9051884,3.463505,-2.2451866,0.74461281,-0.22198804,-0.62950224,0
-1.4316874,4.5955143,-0.52367294,0.088044137,0.96750283,-0.23703691,0
-0.044857576,4.6713605,0.31709784,0.088044137,0.96750283,-0.23703691,0
1.1267145,4.4862957,-0.47248077,0.088044137,0.96750283,-0.23703691,0
-0.56492573,3.0158877,-2.6824398,-0.41279003,-0.1811298,-0.89263451,0
1.8103954,4.3444014,-0.46232939,0.088044137,0.96750283,-0.23703691,0
-0.29254615,-4.7773662,-0.63539374,-0.088044137,-0.96750283,0.23703691,0
1.2651633,3.9757833,-1.9212861,0.088044137,0.96750283,-0.23703691,0
-1.5362757,4.6208663,-0.80121613,0.088044137,0.96750283,-0.23703691,0
-2.096663,-4.360599,-0.0028832522,-0.088044137,-0.96750283,0.23703691,0
1.1718998,4.6296873,0.22876346,0.088044137,0.96750283,-0.23703691,0
-0.078959234,-4.342576,-0.9198702,0.11276542,-0.24611203,-0.96265924,0
-2.2691655,-3.7386415,0.78324568,-0.99396235,0.069688693,-0.084748626,0
0.79795921,-1.1470916,-1.5375919,0.46392909,-0.25040472,-0.84974545,0
0.028501526,4.719697,0.67008173,0.088044137,0.96750283,-0.23703691,0
2.1568651,2.7750051,0.055182494,0.93868142,-0.0009496361,0.34478438,0
1.8167038,-2.1721299,0.67568123,0.99385542,-0.06929636,0.086310267,0
0.93516129,4.4379582,-0.5213713,0.088044137,0.96750283,-0.23703691,0
-0.030091081,1.9662019,1.573624,-0.05899217,0.24260774,0.96832913,0
2.1464579,4.1883159,-0.89439237,0.088044137,0.96750283,-0.23703691,0
-1.5400455,-2.727448,2.2574909,-0.58884156,0.24248357,0.77101707,0
0.93769681,1.1792274,1.6077372,0.42067102,0.17958605,0.88926077,0
0.20274906,4.7590733,0.24354517,0.088044137,0.96750283,-0.23703691,0
-1.2863942,-4.5659537,-0.06530802,-0.088044137,-0.96750283,0.23703691,0
0.45721263,-4.6870613,-0.15110056,-0.088044137,-0.96750283,0.23703691,0
1.2650146,4.3387361,-1.1815219,0.088044137,0.96750283,-0.23703691,0
1.4366497,4.5072351,0.18206666,0.088044137,0.96750283,-0.23703691,0
1.8762445,-0.51765984,-0.31524473,0.98293227,-0.12297126,-0.13682947,0
-1.3106881,-4.5065327,-0.71859902,-0.44814682,-0.17404599,-0.8768537,0
-1.6730762,0.056789316,1.1682796,-0.80438852,0.20941302,0.55597252,0
1.3595109,2.5654352,-2.2037861,0.5978958,-0.24165674,-0.76427907,0
1.7505156,3.314127,-2.3334355,0.70176452,-0.2291272,-0.67455721,0
-1.8673439,-4.007957,2.073899,-0.088044137,-0.96750283,0.23703691,0
1.0543776,-1.3115777,2.006875,0.60337818,0.13753934,0.7855047,0
1.8912055,4.1084714,-1.5280868,0.088044137,0.96750283,-0.23703691,0
0.66044784,-4.9299607,-0.56811595,-0.088044137,-0.96750283,0.23703691,0
1.5263785,-0.36742768,1.2373962,0.81565911,0.066572085,0.57468975,0
0.55466366,-2.9015632,2.472733,0.46436197,0.17065793,0.8690477,0
0.24628866,2.9192743,1.4191835,0.046909872,0.23366986,0.97118366,0
-0.95743352,1.790707,-1.9567375,-0.60854757,-0.13614905,-0.78175014,0
0.50239021,-0.12607084,2.0717404,0.24424084,0.2097294,0.94676292,0
-0.54662383,-4.54181,0.12431589,-0.088044137,-0.96750283,0.23703691,0
0.872109,-4.2607656,2.1058385,-0.088044137,-0.96750283,0.23703691,0
-1.6615691,-2.6667092,2.180861,-0.64372617,0.23685993,0.72767711,0
-0.62697423,-3.9993942,2.3148291,-0.088044137,-0.96750283,0.23703691,0
0.75325328,-4.2200885,1.931173,-0.088044137,-0.96750283,0.23703691,0
1.0240215,4.0401101,0.86177123,0.35282356,0.19224468,0.91572785,0
-1.5653417,3.502857,-1.3973688,-0.96126437,0.020128254,-0.274892,0
-1.4848282,4.2411842,-0.12136018,-0.88866407,0.18379681,0.42011294,0
-0.11075975,4.4075623,-1.4058785,0.088044137,0.96750283,-0.23703691,0
1.4885719,1.2524312,-1.8932039,0.67666185,-0.2327206,-0.69854838,0
1.1157566,-3.1672223,-0.65877926,0.67041403,-0.23355407,-0.70427096,0
2.2177756,3.6479437,-0.28576791,0.9516353,-0.011380862,0.30701923,0
-2.1530497,-4.4167194,0.1741201,-0.088044137,-0.96750283,0.23703691,0
