2.7066705,2.4570806,-1.5666928,-0.077732325,0.3265852,-0.94196594,0
3.192101,-0.17190933,1.068269,0.43037862,-0.7926513,0.43183124,0
1.0086402,2.2249925,1.5129302,-0.44568881,0.58139908,0.68068838,0
3.0566936,-0.44599783,0.85242057,0.46220738,-0.82294548,0.33034104,0
-0.55957747,1.9131527,0.2576884,-0.5309884,0.83763123,0.12816131,0
2.5259728,2.9534218,-1.0235177,0.84698546,0.52002609,0.11040172,0
2.0851676,3.3586009,0.087131776,0.84698546,0.52002609,0.11040172,0
-2.1973011,-0.18044096,-1.9828041,-0.16116512,0.44907349,-0.87883961,0
0.28631306,2.2723982,-0.57649577,-0.44220406,0.80444205,-0.3966471,0
1.5759658,0.64974344,-1.738232,0.17588162,-0.078133017,-0.98130584,0
-3.0716383,-1.4580044,-1.2091445,-0.84698546,-0.52002609,-0.11040172,0
-1.1493329,-2.8894265,0.58053118,0.43991536,-0.80220383,0.4036625,0
3.7361948,0.69606805,-0.89234281,0.84698546,0.52002609,0.11040172,0
1.5483645,-0.2512998,1.888953,0.15898633,-0.44594646,0.88082647,0
2.8548577,2.2340202,-0.63413894,0.84698546,0.52002609,0.11040172,0
3.5459371,0.98607135,-0.30869889,0.84698546,0.52002609,0.11040172,0
0.87541419,-0.97352064,-1.620568,0.405536,-0.49774587,-0.76667452,0
2.289851,2.6933951,1.8096931,0.84698546,0.52002609,0.11040172,0
-1.8706465,-3.3988283,-0.52471495,-0.84698546,-0.52002609,-0.11040172,0
-3.5600166,-0.87683082,-0.20975184,-0.84698546,-0.52002609,-0.11040172,0
0.91595256,-1.1509583,-1.3624307,0.43808532,-0.56510699,-0.6990962,0
3.3450301,1.0585227,1.0110155,0.84698546,0.52002609,0.11040172,0
-2.0253925,-3.4834895,-0.27802026,-0.84698546,-0.52002609,-0.11040172,0
-2.9470062,-1.967186,0.33119881,-0.84698546,-0.52002609,-0.11040172,0
-3.0336103,-0.57475257,1.32143,-0.37932217,0.44566986,0.81085944,0
1.6141562,-1.2539701,0.82965159,0.45659894,-0.81796789,0.3499229,0
0.76028889,-1.7836893,-0.28398538,0.53136802,-0.83447772,-0.14592791,0
2.2463348,2.9230928,0.54482722,0.84698546,0.52002609,0.11040172,0
2.0020132,3.2143972,1.3888135,0.84698546,0.52002609,0.11040172,0
-0.7400707,-0.12290113,-2.1539667,0.02225256,0.17280963,-0.98470402,0
-2.1226587,-1.0327879,1.8116603,-0.1308831,0.002700597,0.99139416,0
-3.0162754,-1.6156458,-0.44590759,-0.84698546,-0.52002609,-0.11040172,0
1.3895644,0.35431319,2.1262884,0.046177387,-0.27885413,0.95922267,0
2.7149374,2.0866497,1.310102,0.84698546,0.52002609,0.11040172,0
-2.7899804,0.24048221,0.63956428,-0.50268531,0.71585667,0.48462015,0
2.4293027,2.5627828,1.6582645,0.84698546,0.52002609,0.11040172,0
3.2197208,1.5089035,-0.76509893,0.84698546,0.52002609,0.11040172,0
3.4114406,1.3141406,-0.7242229,0.84698546,0.52002609,0.11040172,0
0.64273393,-1.9869556,-0.46063566,0.53161216,-0.82770264,-0.17971379,0
3.8002369,0.5303576,0.66734314,0.84698546,0.52002609,0.11040172,0
-3.3329768,-1.3918135,0.5419724,-0.84698546,-0.52002609,-0.11040172,0
3.0776517,1.4731699,0.72659361,0.84698546,0.52002609,0.11040172,0
1.4039135,3.1069674,0.081881046,-0.50552511,0.85211778,-0.13542455,0
-2.8132014,-1.9626104,-1.1527194,-0.84698546,-0.52002609,-0.11040172,0
-2.5930579,-2.0211122,-1.4525957,-0.84698546,-0.52002609,-0.11040172,0
-3.7680087,-0.75589395,0.66255808,-0.84698546,-0.52002609,-0.11040172,0
-0.29347908,-1.6413679,-1.6897914,0.38672647,-0.46021497,-0.79915261,0
2.6733251,2.3643515,0.51291841,0.84698546,0.52002609,0.11040172,0
0.1882298,0.70901185,-1.895305,-0.050422788,0.28531927,-0.95710534,0
-1.109911,0.22096801,1.8028657,-0.26588935,0.23455572,0.93503284,0
0.36597848,2.2047317,-0.82252383,-0.39438361,0.75389987,-0.52544904,0
-2.896884,-0.8261404,-2.1948109,-0.14551508,0.42652494,-0.8926937,0
-1.3215607,1.353683,-0.95231771,-0.4407782,0.8030501,-0.4010303,0
-3.3880084,-1.2533491,-0.39618182,-0.84698546,-0.52002609,-0.11040172,0
-2.9659932,-2.273823,1.0516133,-0.84698546,-0.52002609,-0.11040172,0
3.1339791,1.1008863,1.8564341,0.84698546,0.52002609,0.11040172,0
-2.7107422,-2.3427818,0.95488548,-0.84698546,-0.52002609,-0.11040172,0
-0.050557375,2.1272852,-0.78286523,-0.42714143,0.78933126,-0.44102889,0
-1.1543332,-2.8972261,-1.0168898,0.52246535,-0.7758922,-0.35358363,0
-3.5930128,0.031331062,-1.1273246,-0.44499475,0.80714059,-0.38794822,0
-0.67475986,-1.0287496,1.9261551,0.024579525,-0.24575683,0.96901989,0
-2.1786866,-2.1456802,-2.2875013,0.28568208,-0.27009577,-0.91947496,0
1.74865,3.4182508,0.72604918,-0.53148335,0.83295542,0.15398306,0
1.0158894,1.8145738,1.8022587,-0.36297309,0.41395932,0.83479834,0
-0.5272519,2.0808105,0.1490792,-0.52383667,0.85179335,0.0065873861,0
0.036136627,-0.90999895,1.7378488,0.12565994,-0.39762715,0.90890169,0
2.1363592,3.2648034,-0.31205213,0.84698546,0.52002609,0.11040172,0
2.0640812,3.2142808,0.18972209,0.84698546,0.52002609,0.11040172,0
2.8754349,0.56405258,2.1252871,0.16679645,-0.45713639,0.87361634,0
0.8473103,0.081293404,2.0829773,-0.014100194,-0.18562388,0.98251981,0
1.0786269,1.8554274,1.9684155,-0.33248079,0.35612398,0.87328827,0
1.9366248,2.7861788,1.7095883,-0.42932278,0.54662013,0.71894962,0
-2.8084979,-1.9682223,-0.81049758,-0.84698546,-0.52002609,-0.11040172,0
-3.8104525,-0.12138724,0.19814396,-0.52715361,0.7947129,0.30089974,0
-3.1745558,-1.3248565,-0.36071348,-0.84698546,-0.52002609,-0.11040172,0
1.8576043,-1.0802702,-0.25235677,0.5315842,-0.83074993,-0.16514516,0
-2.4838989,-2.6987138,0.80514151,-0.84698546,-0.52002609,-0.11040172,0
-3.1446755,-1.2664886,-1.1000613,-0.84698546,-0.52002609,-0.11040172,0
-2.6013427,-2.3640723,0.24935269,-0.84698546,-0.52002609,-0.11040172,0
-2.8297453,-2.3277898,1.190248,-0.84698546,-0.52002609,-0.11040172,0
3.6619582,0.9962666,-0.53556943,0.84698546,0.52002609,0.11040172,0
2.1153669,3.0685935,1.4935911,0.84698546,0.52002609,0.11040172,0
-3.2781835,-1.2960935,-0.13300824,-0.84698546,-0.52002609,-0.11040172,0
2.3175097,-0.77649337,1.0275249,0.43254948,-0.79485619,0.42556393,0
-3.915719,-0.46892858,-0.23994088,-0.84698546,-0.52002609,-0.11040172,0
-3.6601048,-1.0265987,0.8221097,-0.84698546,-0.52002609,-0.11040172,0
-3.137629,-1.7380655,0.78511441,-0.84698546,-0.52002609,-0.11040172,0
2.5776408,1.0854969,-1.7401214,0.21380085,-0.14306998,-0.9663437,0
3.0733092,1.2949375,2.2081363,0.84698546,0.52002609,0.11040172,0
1.8918908,1.1194766,2.2129254,-0.089305222,-0.065539241,0.9938457,0
3.724015,0.55813575,0.63350511,0.84698546,0.52002609,0.11040172,0
-3.2019506,-1.3810383,-0.12371051,-0.84698546,-0.52002609,-0.11040172,0
-1.6703951,-0.54963189,-2.2510195,-0.00704813,0.21863827,-0.97578061,0
3.2273297,0.82496083,2.0913289,0.17791522,-0.47297621,0.86292517,0
-3.1327341,-1.7301524,1.186795,-0.84698546,-0.52002609,-0.11040172,0
-2.7447772,-1.0162678,1.498166,-0.2526015,0.21094683,0.94429553,0
0.13957262,2.4550836,-0.46176898,-0.47922301,0.83676523,-0.26489508,0
2.7631097,2.0991049,-0.17068565,0.84698546,0.52002609,0.11040172,0
-2.640336,-2.6520877,0.53043872,-0.84698546,-0.52002609,-0.11040172,0
2.3790092,2.8754947,0.061013818,0.84698546,0.52002609,0.11040172,0
0.11994708,-1.974737,0.7304076,0.44392169,-0.80610716,0.39131182,0
1.4855404,2.4688218,-1.228119,-0.26486844,0.59285617,-0.76050407,0
-3.6235471,-0.79834485,-0.59811831,-0.84698546,-0.52002609,-0.11040172,0
2.0207374,3.3578537,0.11778019,0.84698546,0.52002609,0.11040172,0
3.8054981,0.80134344,-0.65983129,0.84698546,0.52002609,0.11040172,0
-1.7964035,-2.3505001,1.4158609,0.20649803,-0.51319057,0.83306313,0
-3.1694212,-1.403299,-0.85849857,-0.84698546,-0.52002609,-0.11040172,0
-1.085529,-2.9540606,-1.0445158,0.52430373,-0.78279716,-0.33516306,0
-1.3922307,-0.20097925,-2.0991404,-0.073994756,0.3209708,-0.94419414,0
1.3928945,-1.4920838,-0.33723283,0.53143197,-0.83370042,-0.15007961,0
-3.495039,-0.84696078,-0.52628016,-0.84698546,-0.52002609,-0.11040172,0
-2.0107026,0.87643385,-1.0609362,-0.4343552,0.79667711,-0.42028731,0
-3.2036078,0.33128011,-0.67396998,-0.49670291,0.84812605,-0.18430561,0
2.8828254,-0.58650243,0.35338306,0.51932359,-0.85376275,0.037313402,0
2.192925,2.8317442,0.90426433,0.84698546,0.52002609,0.11040172,0
0.79432964,-1.1118193,-1.516917,0.42468396,-0.53694695,-0.72892499,0
-2.4371765,-2.8399925,0.98139489,-0.84698546,-0.52002609,-0.11040172,0
2.3249521,2.7635767,1.649102,0.84698546,0.52002609,0.11040172,0
-2.7252955,-2.4116864,0.52005839,-0.84698546,-0.52002609,-0.11040172,0
3.6187906,0.079859257,-0.66561294,0.50262582,-0.71569633,-0.48491871,0
1.4367576,0.44658136,-1.8432363,0.18790728,-0.098585874,-0.97722656,0
-0.60624957,-0.83901143,-2.0836015,0.20061392,-0.12033781,-0.97225147,0
-0.19245267,-2.2713332,0.55234849,0.45702916,-0.81835604,0.34845072,0
-2.3988681,-2.7374237,-0.19160494,-0.84698546,-0.52002609,-0.11040172,0
-2.8483284,-1.6339426,-1.3629522,-0.84698546,-0.52002609,-0.11040172,0
3.3971012,1.0148327,0.29694366,0.84698546,0.52002609,0.11040172,0
0.085496664,2.2807145,-0.4375717,-0.48215508,0.83890963,-0.25250196,0
1.3663127,-1.3905908,-0.54007459,0.52890635,-0.80335522,-0.27363956,0
-3.1805987,-1.8328211,1.5202227,-0.84698546,-0.52002609,-0.11040172,0
-2.2351329,-2.6016169,-1.4527724,-0.84698546,-0.52002609,-0.11040172,0
-2.147512,-3.0985885,-0.43588477,-0.84698546,-0.52002609,-0.11040172,0
-2.9518001,-2.0854228,1.1015639,-0.84698546,-0.52002609,-0.11040172,0
0.62909365,-1.358768,1.4070513,0.30081743,-0.64004827,0.70699883,0
-3.2953358,-0.5602951,1.2370906,-0.4197188,0.52667373,0.73922324,0
-1.8104972,-2.6636548,-1.8274724,0.4050858,-0.49683702,-0.76750147,0
2.466357,2.3428879,1.2588048,0.84698546,0.52002609,0.11040172,0
-2.0648704,0.24138498,-1.769948,-0.26793849,0.5969463,-0.75621706,0
2.5761149,-0.37102467,1.4152231,0.36693311,-0.72213358,0.58641571,0
-2.3594637,-0.30177474,1.4599005,-0.33809853,0.36666286,0.86674559,0
3.4064147,1.2656302,-1.0453138,0.84698546,0.52002609,0.11040172,0
1.0605662,-0.23829305,-1.805005,0.27821541,-0.25663429,-0.92559981,0
-2.5094404,-2.3719473,-1.2804401,-0.84698546,-0.52002609,-0.11040172,0
-1.4692926,-1.5757798,1.7939086,0.058020115,-0.29685539,0.95315826,0
-0.63705862,0.13889259,1.8786349,-0.19138348,0.1045219,0.97593421,0
1.0758982,1.3319755,-1.7812241,-0.045001626,0.27706137,-0.95979786,0
2.8303049,2.2052419,-1.0321187,0.84698546,0.52002609,0.11040172,0
2.1062002,2.9411192,1.2511736,0.84698546,0.52002609,0.11040172,0
3.6015413,0.15029502,1.1777236,0.43193519,-0.79423416,0.42734563,0
-2.5757957,-2.6255937,-0.41306388,-0.84698546,-0.52002609,-0.11040172,0
3.4362829,0.28022099,-0.9400301,0.45332339,-0.59802222,-0.66095948,0
1.4604414,2.2218757,-1.4958466,-0.20354199,0.5090661,-0.83631486,0
2.549768,2.086195,2.053534,0.84698546,0.52002609,0.11040172,0
-0.44565988,-1.8926607,1.3136028,0.27869469,-0.6111908,0.74079365,0
2.5850174,2.22311,2.1619437,0.84698546,0.52002609,0.11040172,0
-2.9849384,0.57751894,0.0083253384,-0.53085369,0.83845049,0.12326878,0
2.8434572,2.118109,-1.5284333,0.012149096,0.18868354,-0.98196286,0
-3.2776229,-1.8203187,1.5062052,-0.84698546,-0.52002609,-0.11040172,0
-0.31155932,0.27412117,2.0462759,-0.20104647,0.12108088,0.97206992,0
-2.4220474,-2.3298635,-1.9298214,-0.84698546,-0.52002609,-0.11040172,0
0.96459758,0.93488139,2.2160327,-0.18220735,0.088875681,0.97923529,0
-4.0949812,-0.26499057,0.090025902,-0.84698546,-0.52002609,-0.11040172,0
2.8706214,1.8837163,0.92774123,0.84698546,0.52002609,0.11040172,0
-0.071605682,-2.3631163,0.40060067,0.48342317,-0.83981133,0.24702036,0
-3.0718575,-0.4909184,-1.9493409,-0.23172462,0.54804611,-0.80370975,0
2.2529898,3.0028303,1.0576429,0.84698546,0.52002609,0.11040172,0
2.3362908,2.9156082,-0.31911686,0.84698546,0.52002609,0.11040172,0
-3.8576677,-0.27986932,-0.073845625,-0.84698546,-0.52002609,-0.11040172,0
-0.2126143,-0.18968576,2.0036969,-0.080036283,-0.080569059,0.99353063,0
2.9462998,1.658995,0.71515632,0.84698546,0.52002609,0.11040172,0
-2.4743819,-2.4416776,-0.9231438,-0.84698546,-0.52002609,-0.11040172,0
-2.028295,-3.4371719,0.27151468,0.45464545,-0.81619287,0.35654867,0
-0.39022738,-1.6736178,-1.6880994,0.38701817,-0.46079043,-0.79867959,0
3.1596153,1.6999378,-0.49289489,0.84698546,0.52002609,0.11040172,0
0.648718,2.6244502,-0.53428042,-0.44086146,0.80313164,-0.40077531,0
-1.6519228,0.07843554,1.5504797,-0.33748069,0.3655014,0.86747658,0
-2.8207178,-2.2958322,0.87077183,-0.84698546,-0.52002609,-0.11040172,0
3.4435909,1.238199,-1.5454643,0.27616847,-0.25295559,-0.9272241,0
2.717669,2.4696879,0.032478452,0.84698546,0.52002609,0.11040172,0
2.4503534,2.8761754,0.064218551,0.84698546,0.52002609,0.11040172,0
-2.2314067,-2.9298258,-1.5498753,-0.84698546,-0.52002609,-0.11040172,0
-3.5200882,-0.74535882,-1.2166637,-0.84698546,-0.52002609,-0.11040172,0
-2.0207462,-0.95896381,-2.2519584,0.013839245,0.18603322,-0.98244601,0
3.117413,1.9036894,-1.1823533,0.84698546,0.52002609,0.11040172,0
3.7683001,0.67599106,-0.14729881,0.84698546,0.52002609,0.11040172,0
3.6234095,-0.15322328,0.71158862,0.49153545,-0.8451618,0.20998704,0
-2.1216164,-3.3924971,0.75127089,0.39722443,-0.75708956,0.51867938,0
-3.9609339,-0.36673951,0.0087857246,-0.84698546,-0.52002609,-0.11040172,0
1.819756,-1.2827945,-0.27519393,0.53154856,-0.83172876,-0.16026086,0
1.8401616,2.3897786,-1.3568586,-0.21646094,0.52702999,-0.82181764,0
-1.717976,1.1716981,0.058240414,-0.52777427,0.84745407,0.057234883,0
3.2997074,-0.34929121,-0.028939247,0.53159148,-0.8304832,-0.16645777,0
-3.0916309,-1.7354896,-0.34331477,-0.84698546,-0.52002609,-0.11040172,0
-1.5999362,0.15161192,1.5860667,-0.34716225,0.38377357,0.85568464,0
-2.4512575,-2.3642001,1.5283515,0.12463439,-0.3961257,0.90969813,0
1.5162965,2.4670768,-1.2742659,-0.25172782,0.57523066,-0.77829486,0
-3.4410257,-1.2598722,1.4115396,-0.84698546,-0.52002609,-0.11040172,0
0.99102366,0.67082399,2.2341151,-0.1049093,-0.0400877,0.99367356,0
-3.1275573,-1.2796268,-1.5834467,-0.84698546,-0.52002609,-0.11040172,0
0.22989798,1.9957492,1.5428152,-0.45882797,0.61019212,0.64586574,0
2.5732183,0.8475455,2.2373648,0.060056686,-0.2999405,0.95206565,0
-2.4559901,-1.4741756,-2.4175742,0.1033814,0.042588174,-0.99372971,0
2.2403786,2.7360849,1.6107376,0.84698546,0.52002609,0.11040172,0
0.95244193,0.91130745,-1.7984788,0.0075614452,0.19586644,-0.98060155,0
2.6152351,2.5410256,-0.56331778,0.84698546,0.52002609,0.11040172,0
-2.8636436,-2.081501,0.12299085,-0.84698546,-0.52002609,-0.11040172,0
0.29056942,-0.96063036,-1.8675492,0.33957475,-0.3694405,-0.86498725,0
0.80726779,-0.71201646,1.7773968,0.16015923,-0.44763041,0.87975913,0
-2.8533304,-1.8727742,-0.74405122,-0.84698546,-0.52002609,-0.11040172,0
-0.3411845,-0.84450459,-2.091439,0.2331841,-0.17678782,-0.95622772,0
0.38808429,1.2060136,1.9838474,-0.31967795,0.33228606,0.88735116,0
2.7324214,2.4619412,-1.5095887,0.84698546,0.52002609,0.11040172,0
-2.8912995,-2.2735503,1.1866565,-0.84698546,-0.52002609,-0.11040172,0
0.2767483,2.3815362,1.0023206,-0.51315838,0.74550587,0.42531127,0
3.3325005,1.2750654,0.58427835,0.84698546,0.52002609,0.11040172,0
-0.93940425,-3.0071714,-0.23313022,0.52328289,-0.85215884,-0.00061631203,0
0.65118039,-1.2424628,1.3409711,0.31739539,-0.66125542,0.67970699,0
2.34656,2.7974739,-0.19449872,0.84698546,0.52002609,0.11040172,0
3.606631,0.88788581,0.64093781,0.84698546,0.52002609,0.11040172,0
-0.10643727,-2.4924159,-0.1714232,0.52498651,-0.85088271,-0.019696951,0
0.06616354,-0.67143422,1.9818887,0.067338347,-0.31094563,0.94803923,0
3.5251613,1.0925748,-0.58112049,0.84698546,0.52002609,0.11040172,0
-1.7116333,1.0303562,-1.0468835,-0.40449017,0.76515448,-0.5009256,0
-3.1525598,-1.6772221,-0.30968297,-0.84698546,-0.52002609,-0.11040172,0
3.834796,0.8531878,-1.0032337,0.84698546,0.52002609,0.11040172,0
-3.0321977,-1.8258827,0.54542971,-0.84698546,-0.52002609,-0.11040172,0
-3.0109355,-1.4227673,-1.4908078,-0.84698546,-0.52002609,-0.11040172,0
0.34039712,-0.11205187,1.9477493,-0.043703198,-0.13885793,0.98934758,0
-3.2031391,-1.5370433,0.56330693,-0.84698546,-0.52002609,-0.11040172,0
-2.7628918,-1.9964062,-0.59632915,-0.84698546,-0.52002609,-0.11040172,0
0.82317269,0.42352149,2.1596947,-0.089286506,-0.06556955,0.99384534,0
-3.0324564,-1.3310915,-1.2886491,-0.84698546,-0.52002609,-0.11040172,0
-3.0479958,-1.892663,0.53924704,-0.84698546,-0.52002609,-0.11040172,0
-1.1669056,-2.9451139,0.15724552,0.49547684,-0.84745878,0.19056892,0
-2.5203009,-2.6163926,-0.76119393,-0.84698546,-0.52002609,-0.11040172,0
2.5116792,0.027881622,-1.3438138,0.39295837,-0.47255319,-0.78884554,0
-0.21979308,0.67351353,-1.8137341,-0.086323023,0.3394497,-0.93665493,0
-0.71442831,1.3633158,-1.2297421,-0.34080249,0.69052291,-0.63799059,0
0.63604194,-1.8606119,-0.49203432,0.53002876,-0.81000865,-0.25090963,0
-4.0268636,-0.25517845,-0.20887876,-0.84698546,-0.52002609,-0.11040172,0
2.755898,2.0310731,1.269068,0.84698546,0.52002609,0.11040172,0
2.7967978,-0.57216048,0.37967277,0.51323962,-0.85401046,0.085155368,0
-2.8188276,-1.8404951,-1.3393295,-0.84698546,-0.52002609,-0.11040172,0
-2.6572597,-0.59595931,-2.093709,-0.12501442,0.39668226,-0.90940344,0
-2.0666389,0.35443783,-1.6511867,-0.30941224,0.65109003,-0.69307005,0
-3.4817274,-0.78509736,-0.57213163,-0.84698546,-0.52002609,-0.11040172,0
-3.0490754,-1.8948798,0.32814813,-0.84698546,-0.52002609,-0.11040172,0
-3.0757959,-1.4325207,-0.74397874,-0.84698546,-0.52002609,-0.11040172,0
2.9312572,-0.34731984,-0.37572789,0.5221408,-0.77471781,-0.35662502,0
0.79173708,-0.029058576,-1.9598852,0.18455851,-0.092877448,-0.97842318,0
-3.2895739,-1.4657829,1.26679,-0.84698546,-0.52002609,-0.11040172,0
2.7565563,2.0607264,0.018033624,0.84698546,0.52002609,0.11040172,0
-3.2569234,-1.2568051,-1.3653744,-0.84698546,-0.52002609,-0.11040172,0
0.89819616,-0.62359273,-1.6243596,0.35790801,-0.40424034,-0.84171951,0
-2.8110631,-2.3293507,1.0370326,-0.84698546,-0.52002609,-0.11040172,0
-2.9815087,0.52045059,-0.10374951,-0.52646106,0.8493365,0.038292944,0
2.36202,1.7777671,-1.6302091,0.021724463,0.17364123,-0.98456943,0
-3.59267,-0.7970705,0.21154833,-0.84698546,-0.52002609,-0.11040172,0
2.760922,2.2475181,0.13559568,0.84698546,0.52002609,0.11040172,0
3.9130411,0.40638709,0.15390086,0.84698546,0.52002609,0.11040172,0
1.0878773,1.377313,2.1306961,-0.22429669,0.16128188,0.96108234,0
2.7968144,2.4127812,-1.5300598,0.84698546,0.52002609,0.11040172,0
2.208962,3.0948763,0.06881278,0.84698546,0.52002609,0.11040172,0
2.4795771,0.26912785,-1.3361331,0.38063896,-0.44824785,-0.80881894,0
-0.1952734,0.33709133,-2.0730255,0.0045101643,0.20063549,-0.97965562,0
-2.1515212,-0.68912327,1.7444849,-0.22264612,0.15841091,0.96194321,0
0.55729222,2.6947634,0.12189245,-0.51614797,0.85414433,-0.063474,0
3.0049007,1.3484358,2.397614,0.84698546,0.52002609,0.11040172,0
-2.290081,-2.5728841,-1.9324169,-0.84698546,-0.52002609,-0.11040172,0
-1.7354642,-2.9448154,-1.4332021,0.4787311,-0.65580004,-0.58373189,0
2.0355799,2.9656982,1.6717637,0.84698546,0.52002609,0.11040172,0
-2.0308659,-3.2255051,-0.19572811,-0.84698546,-0.52002609,-0.11040172,0
-3.9940133,-0.43760443,0.14404774,-0.84698546,-0.52002609,-0.11040172,0
-3.3594885,-1.2361214,-0.43465066,-0.84698546,-0.52002609,-0.11040172,0
-2.2659531,-2.9336891,-0.18156891,-0.84698546,-0.52002609,-0.11040172,0
2.3685603,2.9415832,-0.25920478,0.84698546,0.52002609,0.11040172,0
-1.0652643,-2.7268322,-1.4555681,0.49000433,-0.68312413,-0.54151386,0
2.9792905,1.8134311,0.23521614,0.84698546,0.52002609,0.11040172,0
-3.6609769,-0.91671491,0.67427826,-0.84698546,-0.52002609,-0.11040172,0
-3.6265481,-0.7476666,-0.38234234,-0.84698546,-0.52002609,-0.11040172,0
-0.37537193,1.4868718,-1.2656668,-0.30904478,0.65061998,-0.69367504,0
-1.1003797,0.6983273,-1.6776917,-0.2137177,0.52322865,-0.82495856,0
2.4929466,2.6510308,0.5457626,0.84698546,0.52002609,0.11040172,0
3.2856474,1.0365158,1.8749005,0.84698546,0.52002609,0.11040172,0
3.1304517,1.1706979,1.9659357,0.84698546,0.52002609,0.11040172,0
-3.1652546,-1.8763151,1.2440274,-0.84698546,-0.52002609,-0.11040172,0
0.15989327,-0.48517349,-1.9909165,0.23147219,-0.17379484,-0.95719177,0
-2.5003977,0.68697381,-0.28022623,-0.51380324,0.85406661,-0.081096411,0
3.9229343,0.4103725,-0.48137879,0.84698546,0.52002609,0.11040172,0
-2.0955451,-0.84916914,1.8205843,-0.1982187,0.11622626,0.9732424,0
1.2479955,-0.94945049,-1.263469,0.46412331,-0.6220625,-0.63057745,0
3.665674,0.67588735,1.1633677,0.84698546,0.52002609,0.11040172,0
2.4712427,2.9633961,-0.42393619,0.84698546,0.52002609,0.11040172,0
-3.4182954,-1.0154467,0.020173311,-0.84698546,-0.52002609,-0.11040172,0
-2.6908827,-1.4073112,1.5632846,-0.15971363,0.05083406,0.98585379,0
2.8380024,1.7446568,2.1601539,0.84698546,0.52002609,0.11040172,0
-3.1486461,-0.84773707,-2.1703129,-0.1518358,0.43565649,-0.88721442,0
-2.9592414,-2.2003133,1.5410757,-0.84698546,-0.52002609,-0.11040172,0
2.8324263,1.6406335,2.0128248,0.84698546,0.52002609,0.11040172,0
1.7402097,0.25330091,-1.7878165,0.27287358,-0.24704424,-0.92978996,0
1.6462759,-0.30758584,1.8131938,0.18809187,-0.48737887,0.85269189,0
-2.3716364,-0.43862176,1.5967706,-0.31219077,0.31845596,0.89505458,0
-2.0172868,-0.91995287,1.7281084,-0.16488051,0.059533983,0.98451525,0
-2.7205806,-2.2892218,-0.45211065,-0.84698546,-0.52002609,-0.11040172,0
-3.1381559,-1.381168,-1.8964938,-0.84698546,-0.52002609,-0.11040172,0
0.12126231,-0.33036411,1.877005,0.0013068914,-0.20970806,0.9777633,0
-2.2635145,-3.097131,0.91073322,0.34404486,-0.69450957,0.63189375,0
0.77098012,-1.9369067,0.15870941,0.51419294,-0.85409749,0.078251958,0
-1.685238,-2.8798413,0.88224703,0.37726206,-0.73427612,0.56436878,0
2.7589304,2.5863509,-1.387835,0.84698546,0.52002609,0.11040172,0
-2.6992321,-2.4523878,1.092386,-0.84698546,-0.52002609,-0.11040172,0
1.3783555,1.2770206,2.1491833,-0.16507846,0.059867501,0.9844619,0
2.2047241,3.2066908,-0.49647477,0.84698546,0.52002609,0.11040172,0
-1.1592476,-2.0134778,-1.9443125,0.35036981,-0.38986158,-0.85161567,0
-1.523199,-2.4571123,1.262507,0.28986782,-0.6258418,0.72408491,0
-0.52246451,-2.4763758,0.73732716,0.41976762,-0.78163505,0.46134812,0
-3.3050735,-1.4331696,0.7220434,-0.84698546,-0.52002609,-0.11040172,0
-2.9929914,-1.7717723,0.0077449083,-0.84698546,-0.52002609,-0.11040172,0
-3.1525977,-1.7681367,1.2060405,-0.84698546,-0.52002609,-0.11040172,0
-2.1307249,-3.2489817,-0.30544138,-0.84698546,-0.52002609,-0.11040172,0
-1.3232415,1.1213665,-1.1491808,-0.4094851,0.77061695,-0.48833555,0
2.3814802,-0.28825366,-1.2008655,0.4335739,-0.55555254,-0.70948941,0
2.523669,-0.19885957,-1.0620232,0.46474263,-0.62346214,-0.62873632,0
-1.0422381,-0.79449153,1.8291372,-0.062989473,-0.10804042,0.99214911,0
2.9196475,1.8881067,0.017034173,0.84698546,0.52002609,0.11040172,0
-1.4985205,-1.6342186,-2.2466118,0.24855906,-0.20380265,-0.94693351,0
-3.6912737,-0.79150319,-0.22813559,-0.84698546,-0.52002609,-0.11040172,0
0.57638907,2.2083495,-0.94938296,-0.3655988,0.72054958,-0.58919096,0
2.5380292,0.28654432,-1.357777,0.35890642,-0.40615228,-0.84037286,0
1.31186,1.2818059,2.2487507,-0.20714974,0.13158405,0.96941978,0
-2.6287367,-2.1336174,-2.0113206,-0.84698546,-0.52002609,-0.11040172,0
0.72409868,1.6774924,-1.4803877,-0.19427049,0.49607795,-0.84626573,0
2.7806942,2.1613266,-0.69308448,0.84698546,0.52002609,0.11040172,0
3.4585271,1.1924217,0.38546395,0.84698546,0.52002609,0.11040172,0
2.9995794,0.53581166,1.8981045,0.21822917,-0.52947628,0.81977504,0
1.9258585,3.3317628,0.55362231,0.84698546,0.52002609,0.11040172,0
-1.235386,-1.4658186,-2.0754447,0.26837003,-0.238985,-0.93320078,0
0.34593582,-0.52804071,-1.8986359,0.25830561,-0.22105762,-0.94043171,0
0.90856272,1.5747356,1.9433029,-0.30266106,0.30096495,0.90433204,0
-3.4065454,-1.2013187,-0.56716549,-0.84698546,-0.52002609,-0.11040172,0
-3.222476,-1.7556436,0.97027302,-0.84698546,-0.52002609,-0.11040172,0
3.0833981,1.8636949,-1.4506191,0.84698546,0.52002609,0.11040172,0
-1.483367,-0.36295462,1.7205319,-0.2365123,0.18261495,0.95431328,0
-3.4127409,-1.2729058,0.92868447,-0.84698546,-0.52002609,-0.11040172,0
1.7326076,1.1911607,-1.7422204,0.069066048,0.09827286,-0.99275994,0
-3.1117182,-1.7548041,0.38157952,-0.84698546,-0.52002609,-0.11040172,0
-3.2148104,-1.4192309,-1.158139,-0.84698546,-0.52002609,-0.11040172,0
-3.4675751,-1.0711386,0.30613017,-0.84698546,-0.52002609,-0.11040172,0
1.1948639,0.54494292,2.1134889,-0.074901104,-0.088867635,0.99322331,0
-3.2484505,-1.3589392,-0.79363346,-0.84698546,-0.52002609,-0.11040172,0
1.5283399,-1.5141989,0.30389833,0.51243246,-0.85390711,0.090861142,0
-2.8466477,-2.2286839,0.90600389,-0.84698546,-0.52002609,-0.11040172,0
0.54309767,1.8475636,1.8598655,-0.39015186,0.46698546,0.79354036,0
-3.4600024,-1.5043201,1.3181695,-0.84698546,-0.52002609,-0.11040172,0
-2.3919084,-2.9209018,-0.41230005,-0.84698546,-0.52002609,-0.11040172,0
1.2815878,1.5680209,-1.7327236,-0.080989957,0.33147004,-0.93998313,0
1.1222473,0.22858489,-1.8674971,0.20290518,-0.12427583,-0.9712801,0
2.972399,1.4604026,2.2641554,0.84698546,0.52002609,0.11040172,0
1.9712088,0.39603245,2.0178154,0.075388312,-0.32306528,0.94336927,0
2.6664879,2.3580856,0.38980061,0.84698546,0.52002609,0.11040172,0
-1.9137467,-2.7459619,-1.8268435,0.43692786,-0.56264794,-0.70179868,0
3.6573253,0.55724943,1.739028,0.84698546,0.52002609,0.11040172,0
3.8691382,0.12936592,0.94417143,0.84698546,0.52002609,0.11040172,0
-3.6392679,-0.40381384,-1.1387732,-0.84698546,-0.52002609,-0.11040172,0
3.0375438,1.6522704,1.3539282,0.84698546,0.52002609,0.11040172,0
-3.7536924,-0.35203385,-0.54618669,-0.84698546,-0.52002609,-0.11040172,0
3.7359757,0.63067555,0.39637446,0.84698546,0.52002609,0.11040172,0
-3.9937315,-0.50716186,0.70181036,-0.84698546,-0.52002609,-0.11040172,0
2.9059355,2.11344,-0.51932263,0.84698546,0.52002609,0.11040172,0
-1.1305937,1.079899,-1.2223486,-0.34781319,0.69912106,-0.6247046,0
-0.55868769,0.08548224,1.9766024,-0.18353164,0.091129094,0.97878069,0
-0.29727229,2.017067,0.64999747,-0.52798706,0.79863936,0.28879917,0
2.1660545,2.7870095,1.782187,0.84698546,0.52002609,0.11040172,0
2.3093278,2.9142671,-0.36195236,0.84698546,0.52002609,0.11040172,0
-3.9058099,-0.48085642,-0.072561502,-0.84698546,-0.52002609,-0.11040172,0
1.4788133,-1.4914677,0.09021759,0.51839298,-0.85394204,0.045297205,0
-1.8856082,-0.33433026,-2.0327206,-0.12219977,0.39255863,-0.91157293,0
-2.3439453,-2.8018742,0.082145721,-0.84698546,-0.52002609,-0.11040172,0
0.53255641,2.2010744,1.5527917,-0.46149549,0.6161508,0.63826329,0
1.4652355,2.1146057,1.9971217,-0.34813493,0.38561785,0.85445958,0
-1.3279252,-1.9946849,-1.9644886,0.36364937,-0.41526061,-0.83385718,0
-2.860842,-2.0793979,0.92616498,-0.84698546,-0.52002609,-0.11040172,0
-2.4105589,-1.3908458,-2.2436028,0.056218386,0.1188916,-0.99131441,0
3.2649002,-0.33778489,0.37846327,0.52227247,-0.85272253,0.0097904205,0
-0.47179294,-2.3062649,0.92184329,0.38504857,-0.74328244,0.54705477,0
-3.4011581,-1.3991706,1.5458914,-0.84698546,-0.52002609,-0.11040172,0
0.21051112,-1.8518858,-1.2259648,0.49364454,-0.69226408,-0.52638924,0
2.8481176,1.9354558,1.561641,0.84698546,0.52002609,0.11040172,0
2.7265191,2.21398,-0.075723529,0.84698546,0.52002609,0.11040172,0
-1.6365075,-2.7053118,-1.5987655,0.46368307,-0.62106913,-0.63187903,0
-0.61335325,1.0915147,1.6431258,-0.37847945,0.44402206,0.8121562,0
2.7117376,2.5949945,-0.88482839,0.84698546,0.52002609,0.11040172,0
-2.677407,-2.6097112,0.9736414,-0.84698546,-0.52002609,-0.11040172,0
-2.4034188,-3.0476017,0.97694039,-0.84698546,-0.52002609,-0.11040172,0
-2.138907,-1.3494488,1.7434829,-0.069387197,-0.097756118,0.99278867,0
0.87216407,2.8113544,0.94676286,-0.52199048,0.77417815,0.35801429,0
-3.2812934,-1.538852,1.5614589,-0.21194971,0.139869,0.96721977,0
1.4276804,-1.3527241,0.55741954,0.48798054,-0.84291172,0.22666085,0
-0.99954396,-2.8598857,-0.75247216,0.53010273,-0.81050175,-0.24915475,0
-0.49201655,0.60099363,-1.9042652,-0.10241055,0.3633883,-0.92599195,0
2.801861,1.0790975,2.1839359,0.079072595,-0.328596,0.94115484,0
-2.8568192,-0.23056626,-1.9147911,-0.24075174,0.56036562,-0.79248303,0
-1.5851424,-3.0037525,-1.2221273,0.5134511,-0.74638641,-0.42340916,0
-0.74590743,1.8760333,-0.61916041,-0.47479886,0.8333838,-0.28290921,0
2.5095034,2.391305,1.5256609,0.84698546,0.52002609,0.11040172,0
-0.40294325,0.10038093,-1.9711573,0.038978696,0.14636505,-0.98846251,0
0.67721784,-1.9679973,-0.50462425,0.53161615,-0.82845199,-0.17621487,0
-2.9926758,-2.1075621,0.44452751,-0.84698546,-0.52002609,-0.11040172,0
-1.6246722,-3.0572824,0.47543961,0.43545598,-0.79778099,0.41704154,0
3.4563665,1.2351892,-0.65619135,0.84698546,0.52002609,0.11040172,0
1.6936998,2.3167424,2.0048106,-0.35150903,0.39202833,0.85015011,0
-1.3890903,-3.087347,0.33193398,0.45168471,-0.8134644,0.36641049,0
1.8344465,0.16572917,-1.5964278,0.30955857,-0.31361234,-0.89767528,0
2.391696,2.2833841,1.7151276,0.84698546,0.52002609,0.11040172,0
-0.82478774,-1.6806636,1.554131,0.20811808,-0.5154472,0.83126473,0
-2.8445933,0.63220489,-0.099748611,-0.52608961,0.84977365,0.033383846,0
-3.9002562,-0.53674626,0.028467894,-0.84698546,-0.52002609,-0.11040172,0
0.59938675,-1.7154872,-0.97370017,0.50587118,-0.72455275,-0.46810019,0
-3.1966054,-0.99671793,-1.92908,-0.84698546,-0.52002609,-0.11040172,0
-2.5970981,0.63945282,0.6557641,-0.51354784,0.74667805,0.4227773,0
0.65880156,-1.0594862,-1.4596695,0.41732961,-0.52175862,-0.74404567,0
-2.0863147,-1.864496,1.677425,0.028989434,-0.25254285,0.96715146,0
2.5407579,2.7382126,0.21149716,0.84698546,0.52002609,0.11040172,0
2.7213719,2.1284213,1.4820993,0.84698546,0.52002609,0.11040172,0
-1.4470422,1.377908,0.42137957,-0.5291906,0.80492395,0.26843035,0
0.78865826,2.3432496,-1.0838555,-0.33095276,0.67830896,-0.65602386,0
-0.94158232,0.39073759,-1.9161239,-0.11930561,0.38831165,-0.91377264,0
2.1658223,0.63961476,2.2625451,0.056082487,-0.29391736,0.95418429,0
-2.905622,-1.9078755,-1.1883532,-0.84698546,-0.52002609,-0.11040172,0
2.3226671,2.652348,1.5479828,0.84698546,0.52002609,0.11040172,0
3.1841037,1.7777166,-0.92372894,0.84698546,0.52002609,0.11040172,0
3.0443816,1.859641,-0.11846876,0.84698546,0.52002609,0.11040172,0
-2.5195272,-1.45087,1.6120856,-0.10143697,-0.045767903,0.99378878,0
-3.6049068,0.15128231,-0.47408652,-0.51977175,0.85365361,-0.033361256,0
-1.7900195,0.90624821,-0.94508398,-0.42369324,0.78575486,-0.45063686,0
0.79907405,2.8698721,0.29805338,-0.52181292,0.85293961,-0.014338136,0
0.38709342,2.2748969,-0.78794259,-0.41711378,0.77882206,-0.46845764,0
3.2378516,-0.34191883,-0.025629282,0.53068864,-0.83933711,-0.11782664,0
-2.4569829,0.6001792,0.84713316,-0.49415773,0.69356728,0.52418774,0
1.3401604,-1.5767808,0.37458026,0.49477667,-0.8470673,0.19409615,0
3.9108694,0.61291647,-0.76016188,0.84698546,0.52002609,0.11040172,0
-1.1228828,-0.65203631,-2.1421072,0.10337698,0.042595476,-0.99372983,0
-2.4734218,-2.230922,-1.9853237,-0.84698546,-0.52002609,-0.11040172,0
-1.3235375,-1.6116291,1.6485214,0.080185413,-0.33026445,0.94047642,0
2.5146217,-0.60607994,-0.77190065,0.50343388,-0.717879,-0.48083705,0
2.110913,-0.63169038,-1.0403972,0.48043975,-0.6598587,-0.57772332,0
3.656214,0.54085398,1.2587218,0.84698546,0.52002609,0.11040172,0
2.7802095,2.0793829,1.4018836,0.84698546,0.52002609,0.11040172,0
-3.3368297,-1.4228046,0.62268496,-0.84698546,-0.52002609,-0.11040172,0
2.2057958,2.9758632,1.0699525,0.84698546,0.52002609,0.11040172,0
-3.0380561,-1.5516187,-1.7508812,-0.84698546,-0.52002609,-0.11040172,0
-2.6795783,-2.1577907,-1.7799338,-0.84698546,-0.52002609,-0.11040172,0
2.4672081,2.4032571,1.9649235,0.84698546,0.52002609,0.11040172,0
-3.7206163,-0.85473013,-0.0081365108,-0.84698546,-0.52002609,-0.11040172,0
-0.040431261,2.169944,-0.24881124,-0.4901557,0.8443073,-0.21654731,0
1.5483376,-1.3443354,0.0071213245,0.52804309,-0.84698862,-0.061489224,0
-2.398478,-2.6701791,-0.93177438,-0.84698546,-0.52002609,-0.11040172,0
-1.6309917,-0.36332524,-2.1233711,-0.053726315,0.29034084,-0.95541406,0
3.4406433,1.376132,-0.3933208,0.84698546,0.52002609,0.11040172,0
2.1194146,1.6746306,-1.7513177,0.030041933,0.16051993,-0.98657537,0
-3.1237011,-1.8139309,0.12679112,-0.84698546,-0.52002609,-0.11040172,0
-2.0795255,-2.3081577,1.4596997,0.14888024,-0.4313907,0.88979596,0
-3.1837833,-1.6166956,1.2437588,-0.84698546,-0.52002609,-0.11040172,0
-1.5316641,-2.4313552,-1.8854293,0.39947751,-0.4855603,-0.77759182,0
1.252709,-1.6758904,0.26028097,0.50930047,-0.85327888,0.11192977,0
-0.81046343,0.021899611,-1.9868426,-0.034200191,0.2605426,-0.96485651,0
3.6428342,1.0424707,-0.48128128,0.84698546,0.52002609,0.11040172,0
2.5211394,2.4634843,1.4109472,0.84698546,0.52002609,0.11040172,0
-0.96972317,1.7362206,-0.13955426,-0.51328719,0.85401571,-0.084815621,0
-2.6075034,-2.8060017,1.0200343,-0.84698546,-0.52002609,-0.11040172,0
-3.7036376,-0.91616273,1.0811799,-0.84698546,-0.52002609,-0.11040172,0
-3.2663157,-1.3355076,0.24354482,-0.84698546,-0.52002609,-0.11040172,0
-2.7251368,-2.1065509,-1.241636,-0.84698546,-0.52002609,-0.11040172,0
3.625293,0.9992373,-1.1366634,0.84698546,0.52002609,0.11040172,0
-3.532259,-0.69733858,-0.70380139,-0.84698546,-0.52002609,-0.11040172,0
2.5821352,0.95792401,2.2344332,0.068528056,-0.31273994,0.94736362,0
-3.6623216,-0.54317594,-0.33048224,-0.84698546,-0.52002609,-0.11040172,0
-2.9455976,-1.9176623,-0.20443213,-0.84698546,-0.52002609,-0.11040172,0
-3.323153,-1.3982048,0.66893935,-0.84698546,-0.52002609,-0.11040172,0
-3.1046863,-2.0476322,1.5207503,-0.057485342,-0.11686388,0.99148297,0
2.1222608,3.3323479,0.025241472,0.84698546,0.52002609,0.11040172,0
2.7072785,2.0181532,1.5362517,0.84698546,0.52002609,0.11040172,0
-2.8296623,-2.271915,-0.18362713,-0.84698546,-0.52002609,-0.11040172,0
2.600584,2.1860657,0.84140253,0.84698546,0.52002609,0.11040172,0
2.1471267,3.3983467,-0.54545653,-0.40853006,0.7695778,-0.49076816,0
2.0258234,3.0084734,1.534868,0.84698546,0.52002609,0.11040172,0
3.6912141,0.074203253,-0.45981002,0.51243389,-0.74334145,-0.42994779,0
1.5645847,-0.39795697,1.6873754,0.22251761,-0.5353967,0.81476158,0
1.5181298,-1.4587629,-0.13139105,0.5304395,-0.84049571,-0.11045754,0
2.6954894,-0.14599109,1.5526254,0.31526846,-0.65855575,0.68330836,0
0.99642038,-0.79874492,1.7903843,0.22455585,-0.53820437,0.81234908,0
-3.1245871,-1.5319974,-0.43167067,-0.84698546,-0.52002609,-0.11040172,0
2.8670979,2.2326195,-1.3940216,0.84698546,0.52002609,0.11040172,0
2.8238988,1.5629064,2.0568066,0.84698546,0.52002609,0.11040172,0
3.069303,1.6217449,0.18708098,0.84698546,0.52002609,0.11040172,0
2.075619,2.6159089,2.0684826,-0.36281386,0.41365308,0.83501947,0
3.3049238,0.89634204,1.6603663,0.84698546,0.52002609,0.11040172,0
-3.1801984,-1.4035645,-1.5354145,-0.84698546,-0.52002609,-0.11040172,0
3.2932973,1.6897423,-1.1109517,0.84698546,0.52002609,0.11040172,0
0.6352433,1.0610781,-1.7526731,-0.043817043,0.27525395,-0.96037257,0
-2.5153925,-2.674433,0.54523027,-0.84698546,-0.52002609,-0.11040172,0
-2.8529768,-2.3693709,0.96891069,-0.84698546,-0.52002609,-0.11040172,0
2.1891394,-0.40844214,1.4269629,0.3444286,-0.69498026,0.6311667,0
-2.6588922,-1.9274307,-1.6008754,-0.84698546,-0.52002609,-0.11040172,0
2.3102603,2.9192448,0.61167908,0.84698546,0.52002609,0.11040172,0
-0.75735688,1.3600684,-1.3177774,-0.32220191,0.66733229,-0.6714564,0
-0.38945389,0.8548308,-1.8205271,-0.16295314,0.45163649,-0.87719488,0
3.1487765,-0.17124736,1.3509865,0.40184027,-0.76222897,0.50747579,0
3.1561527,1.7342646,-1.3306396,0.84698546,0.52002609,0.11040172,0
1.4961128,3.0921876,1.2942777,-0.50591868,0.72468442,0.46784496,0
-3.4808679,-1.0837431,0.31638694,-0.84698546,-0.52002609,-0.11040172,0
2.4338787,-0.72214645,0.53242636,0.49589565,-0.84768945,0.18844193,0
-2.6939099,-2.1770792,-1.5877558,-0.84698546,-0.52002609,-0.11040172,0
2.3677945,0.93828315,2.3151379,0.031937838,-0.25707179,0.96586448,0
-0.37897539,0.11401361,1.8930111,-0.14699554,0.02951619,0.98869681,0
2.6367741,1.9913652,1.6262891,0.84698546,0.52002609,0.11040172,0
-2.792275,-1.9443218,-0.3028605,-0.84698546,-0.52002609,-0.11040172,0
3.9993281,0.2832067,0.013341427,0.84698546,0.52002609,0.11040172,0
0.11447895,1.2605261,1.768188,-0.33613217,0.36296836,0.86906219,0
-1.740716,-0.26910353,-2.0918217,-0.065303683,0.3078745,-0.94918329,0
-1.8691692,0.9870593,-0.98443341,-0.43643254,0.79875636,-0.41414374,0
-2.6460183,0.78410065,-0.11553073,-0.5294106,0.84398019,0.086151123,0
3.2249479,1.6159093,-1.2794789,0.84698546,0.52002609,0.11040172,0
-3.5637767,-1.0524805,1.2642701,-0.84698546,-0.52002609,-0.11040172,0
2.6569188,0.93013096,-1.5779308,0.26960468,-0.2411921,-0.93227673,0
2.5697846,0.49157667,-1.633821,0.30590343,-0.30690238,-0.90124035,0
3.2973812,1.6770799,-0.67378485,0.84698546,0.52002609,0.11040172,0
-2.8886671,-0.98319137,-2.180325,-0.083899379,0.33582598,-0.93818009,0
3.9286449,0.28320813,0.98817372,0.84698546,0.52002609,0.11040172,0
-2.1958196,0.75176734,-0.97747433,-0.42785835,0.7900697,-0.43900704,0
1.9486775,3.2997148,1.2365733,-0.51517987,0.75166374,0.41181457,0
-0.046325684,-1.0125352,1.6702237,0.13161135,-0.40632266,0.90420157,0
0.73667753,2.6041121,-0.35068834,-0.47516435,0.83366936,-0.28145033,0
3.9226024,0.71522689,-1.0281615,0.84698546,0.52002609,0.11040172,0
2.7154698,1.8573302,2.0270376,0.84698546,0.52002609,0.11040172,0
0.3141768,-0.81935668,1.8187485,0.14882183,-0.43130627,0.88984668,0
-0.18100476,-2.2055788,0.47544724,0.46121383,-0.82207716,0.33387297,0
2.7026272,2.5760727,-0.83327723,0.84698546,0.52002609,0.11040172,0
3.2182968,1.5352232,-0.70703554,0.84698546,0.52002609,0.11040172,0
-0.71863413,0.7794351,-1.803865,-0.18833113,0.48771629,-0.85244608,0
-2.6886723,-1.8902662,-1.3503464,-0.84698546,-0.52002609,-0.11040172,0
2.1987329,3.3827395,-0.56064516,0.84698546,0.52002609,0.11040172,0
-1.9652458,-2.4225309,1.4009867,0.16317809,-0.45195881,0.8769871,0
3.1395469,1.1992191,2.3456104,0.050649285,-0.28566393,0.95699048,0
-2.6473751,-1.4124625,-2.3502264,0.056591868,0.11829385,-0.99136472,0
-3.6357152,-0.5443368,-1.6752176,-0.84698546,-0.52002609,-0.11040172,0
3.7995255,0.43194699,0.3366034,0.84698546,0.52002609,0.11040172,0
0.99802077,2.5266798,1.3034334,-0.48371339,0.66771197,0.56584644,0
1.7765445,0.34530962,2.0323853,0.10344553,-0.36492145,0.92527372,0
-0.72652817,0.92953068,-1.5972013,-0.23658729,0.55469269,-0.79771084,0
0.16948128,-2.1124539,0.16013372,0.50072014,-0.85013425,0.16294515,0
-1.3901914,-0.4870857,1.9058139,-0.19752514,0.11503655,0.97352481,0
1.0314183,1.0823061,2.1340852,-0.17643481,0.079070956,0.98113137,0
2.1701174,2.9258819,0.83295113,0.84698546,0.52002609,0.11040172,0
-1.3467529,-1.6542352,1.6675144,0.12066245,-0.39030346,0.91274524,0
-1.6408954,-3.0419893,0.65812093,0.41738063,-0.7791059,0.46774745,0
-3.5014985,-1.2366078,1.3382013,-0.84698546,-0.52002609,-0.11040172,0
3.3121696,1.1247202,1.4607441,0.84698546,0.52002609,0.11040172,0
-0.68391514,-0.7919246,-2.0194302,0.15627837,-0.045062721,-0.98668462,0
3.5562241,0.87726665,0.96369481,0.84698546,0.52002609,0.11040172,0
1.6614615,3.1564496,1.1403028,-0.51523966,0.75184846,0.4114027,0
3.4583187,1.4155302,-0.8512578,0.84698546,0.52002609,0.11040172,0
2.2755146,3.105,0.021027938,0.84698546,0.52002609,0.11040172,0
2.6275725,2.4973519,0.48881096,0.84698546,0.52002609,0.11040172,0
-2.9791894,-1.5872337,-0.73834312,-0.84698546,-0.52002609,-0.11040172,0
-3.3378906,-1.6794407,1.4714125,-0.84698546,-0.52002609,-0.11040172,0
0.234393,0.83170021,1.9722368,-0.22286987,0.15879977,0.96182734,0
0.26081574,2.1892824,-0.94739187,-0.40581751,0.76661289,-0.49761128,0
2.0631611,-0.47637892,-1.2622797,0.44427609,-0.57835305,-0.68419778,0
2.4072115,-0.66433203,-0.50676703,0.52748108,-0.7962234,-0.29629731,0
-3.5963671,-0.89881039,1.1701455,-0.38524938,0.45730367,0.8015337,0
3.3227746,1.6760137,-1.2208669,0.84698546,0.52002609,0.11040172,0
-2.1901853,0.55925071,1.0013497,-0.48122239,0.66172677,0.57492852,0
3.2455783,1.2311441,1.2661239,0.84698546,0.52002609,0.11040172,0
3.003346,1.0699754,2.2037842,0.060308814,-0.30032218,0.95192945,0
-2.6831329,-1.0038366,-2.2196691,-0.039258718,0.26828936,-0.96253812,0
-3.5736175,0.00081562996,-1.1444728,-0.44781834,0.80983537,-0.37897968,0
2.533216,3.0207367,-1.1416379,0.84698546,0.52002609,0.11040172,0
3.3286462,1.4293869,-0.87652469,0.84698546,0.52002609,0.11040172,0
3.4735441,-0.059973001,-0.10793352,0.53161234,-0.82930839,-0.17215133,0
-3.2957883,0.13764894,-0.9543066,-0.46907389,0.82877564,-0.3051241,0
-2.5791197,-2.5885186,-0.25702077,-0.84698546,-0.52002609,-0.11040172,0
2.7766452,2.3427422,-0.24940038,0.84698546,0.52002609,0.11040172,0
-1.2179668,-1.8584846,-1.8812368,0.33933771,-0.36899424,-0.86527073,0
-2.4257042,-0.99195695,1.5827638,-0.21310061,0.14185879,0.96667701,0
-1.2642521,-0.83853579,1.7841582,-0.090699136,-0.06327334,0.99386632,0
-0.32919037,0.75914538,1.865227,-0.32021761,0.3332859,0.88678145,0
-3.2196953,-1.2790188,-1.3836371,-0.84698546,-0.52002609,-0.11040172,0
-2.9363427,-1.5369482,-1.7847739,-0.84698546,-0.52002609,-0.11040172,0
2.4794395,2.8760085,-0.12927094,0.84698546,0.52002609,0.11040172,0
0.94480073,0.30096805,-1.8142997,0.17881024,-0.083102256,-0.98036772,0
-0.21380734,-0.22531587,2.0327153,-0.092639804,-0.060116082,0.99388325,0
1.5387036,2.7524776,-1.1093426,-0.32649535,0.67273206,-0.66395223,0
3.7247283,0.39937258,0.79849148,0.84698546,0.52002609,0.11040172,0
-2.0595007,0.44715124,-1.5536931,-0.28803796,0.62345278,-0.7268706,0
-0.1317203,-2.4404173,-0.060412884,0.52183503,-0.85292965,0.014121771,0
3.5259032,1.2544518,-0.80509233,0.84698546,0.52002609,0.11040172,0
3.3493838,1.1556072,-0.1831584,0.84698546,0.52002609,0.11040172,0
3.0012417,-0.4211731,0.92789936,0.45097882,-0.8128072,0.36873132,0
3.7518816,0.22733164,1.3293839,0.84698546,0.52002609,0.11040172,0
0.40106928,-0.31551325,-1.8996454,0.23532462,-0.1805343,-0.95500243,0
-0.52676904,-2.7763355,-0.18737233,0.51702261,-0.85410112,0.056559324,0
1.8007967,2.8572221,1.5755901,-0.46045792,0.61382818,0.64124382,0
1.2783061,-1.3934212,-0.46454048,0.52781343,-0.79779834,-0.29142904,0
-2.4500475,-2.2482052,-1.7049404,-0.84698546,-0.52002609,-0.11040172,0
3.9145682,0.58140278,-0.55595732,0.84698546,0.52002609,0.11040172,0
3.6481662,0.87407231,-0.18869901,0.84698546,0.52002609,0.11040172,0
2.8604078,1.9857024,1.0539975,0.84698546,0.52002609,0.11040172,0
3.5926685,0.90348077,-0.94657946,0.84698546,0.52002609,0.11040172,0
3.41008,-0.13450277,0.89703107,0.47065049,-0.83006907,0.29912168,0
-1.7985054,-2.2499125,-2.041048,0.33702803,-0.3646507,-0.86801046,0
-3.0120018,-1.5974103,-1.0427361,-0.84698546,-0.52002609,-0.11040172,0
1.0465431,-1.7351395,0.33430398,0.50540423,-0.85207427,0.1361472,0
3.5474586,0.13177609,-0.79982448,0.49116251,-0.68601298,-0.53679192,0
-0.56375062,-2.7706623,0.10853064,0.5015831,-0.85052675,0.15817314,0
1.8754278,1.2793931,2.2698443,-0.097985864,-0.051403731,0.99385941,0
2.0724769,-0.95915961,0.72531891,0.4604466,-0.82140237,0.33658153,0
-2.7718513,-2.3516006,-0.12299562,-0.84698546,-0.52002609,-0.11040172,0
-3.4770746,0.12863994,0.42138433,-0.51885372,0.76339841,0.38472575,0
-3.1708651,-0.94452274,-2.1856227,-0.11413288,0.38070476,-0.91762608,0
0.93877518,0.74192071,-1.8942152,0.066637278,0.10218033,-0.99253154,0
2.8443966,2.2334652,0.24648428,0.84698546,0.52002609,0.11040172,0
2.7290268,1.265516,2.304476,-0.014961481,-0.18427235,0.98276144,0
-0.5240261,1.6931729,0.91893923,-0.50605488,0.72506154,0.46711278,0
3.9819088,0.38022304,-0.55698395,0.84698546,0.52002609,0.11040172,0
-0.84830862,1.2881091,1.1098545,-0.4777422,0.65346313,0.5871529,0
-3.7026885,-0.95592284,1.1548562,-0.84698546,-0.52002609,-0.11040172,0
1.2525629,2.3107545,1.8831601,-0.39484954,0.47631568,0.78563184,0
3.2590597,0.23131442,1.5710467,0.3471989,-0.69837099,0.62588418,0
-1.2284975,-0.92314994,1.7968986,-0.047388673,-0.13299048,0.98998386,0
0.67352629,-1.1579682,1.4956278,0.26911354,-0.59850895,0.75456285,0
-3.1684728,-1.4745262,-0.030236125,-0.84698546,-0.52002609,-0.11040172,0
-2.9961181,-1.9429002,1.1810867,-0.84698546,-0.52002609,-0.11040172,0
-2.4042754,-2.5582345,-1.4833537,-0.84698546,-0.52002609,-0.11040172,0
-2.6319413,-2.710012,0.65855032,-0.84698546,-0.52002609,-0.11040172,0
1.2140831,0.78313053,-1.8519146,0.066605806,0.10223088,-0.99252844,0
1.9344785,2.0164328,-1.6355673,-0.12398815,0.39517957,-0.91019785,0
0.086884379,0.46446308,2.0119286,-0.16278768,0.056007206,0.98507035,0
3.1230497,1.3234829,2.1697445,0.84698546,0.52002609,0.11040172,0
3.6470046,0.50734687,1.1982479,0.84698546,0.52002609,0.11040172,0
-1.3698491,1.0153041,1.0232552,-0.48398975,0.66837984,0.56482065,0
1.566848,1.8209183,2.2066603,-0.27373946,0.24859655,0.92912132,0
-2.5262945,-2.8277221,0.16396159,-0.84698546,-0.52002609,-0.11040172,0
3.3391793,1.2102451,1.053183,0.84698546,0.52002609,0.11040172,0
3.0027189,1.7071899,0.68000472,0.84698546,0.52002609,0.11040172,0
2.728775,2.3740921,-1.2052038,0.84698546,0.52002609,0.11040172,0
3.8343949,0.55279279,0.35161424,0.84698546,0.52002609,0.11040172,0
2.8500881,1.7146153,2.4558947,0.84698546,0.52002609,0.11040172,0
2.3328176,-0.039291024,1.7556684,0.25197816,-0.5755682,0.77796435,0
3.4189682,1.0677447,0.14942336,0.84698546,0.52002609,0.11040172,0
2.764287,1.9821869,1.789101,0.84698546,0.52002609,0.11040172,0
3.3749902,1.4340489,-0.9254328,0.84698546,0.52002609,0.11040172,0
-2.135931,-3.1173258,-0.75533766,-0.84698546,-0.52002609,-0.11040172,0
1.8444241,-0.98664558,-0.9415369,0.49916363,-0.70649529,-0.50169736,0
1.2765992,2.1660056,1.8618133,-0.39729267,0.48118943,0.7814188,0
-2.6988988,-1.9868475,-1.6657053,-0.84698546,-0.52002609,-0.11040172,0
1.2472529,2.7760723,1.336114,-0.50193048,0.7138294,0.48837852,0
2.9009366,2.0468218,-0.087558746,0.84698546,0.52002609,0.11040172,0
-2.4805908,-2.2064927,-1.8949066,-0.84698546,-0.52002609,-0.11040172,0
1.9010913,3.5550208,0.61390746,0.84698546,0.52002609,0.11040172,0
-2.0021105,-2.9683688,-1.5538046,-0.84698546,-0.52002609,-0.11040172,0
2.5570462,2.6704111,0.16759419,0.84698546,0.52002609,0.11040172,0
-1.9784842,1.0541902,0.51637578,-0.52738684,0.79578483,0.2976402,0
2.9700146,1.9963601,-0.19887054,0.84698546,0.52002609,0.11040172,0
2.4020603,2.7336407,-0.17601925,0.84698546,0.52002609,0.11040172,0
3.3544943,1.269767,0.032627583,0.84698546,0.52002609,0.11040172,0
-2.9973538,-1.4869808,-1.3986105,-0.84698546,-0.52002609,-0.11040172,0
-1.4834281,1.2097226,0.94808483,-0.49914303,0.70644122,0.50179392,0
-2.11023,-1.0151352,1.7805259,-0.14663064,0.028906524,0.98876888,0
-3.3148794,-1.1855822,-0.50800622,-0.84698546,-0.52002609,-0.11040172,0
-0.21961713,2.0575271,-0.40440333,-0.48063469,0.83780777,-0.25897568,0
-2.6058099,-2.1531053,-1.0869914,-0.84698546,-0.52002609,-0.11040172,0
-2.7834899,-2.0075245,-1.5653665,-0.84698546,-0.52002609,-0.11040172,0
2.5381041,0.98845315,-1.605406,0.20066738,-0.12042958,-0.97222918,0
0.40488946,2.2120032,-1.0081197,-0.39070439,0.74973959,-0.53407943,0
-1.1755476,-0.13726926,1.8099356,-0.20885503,0.13452497,0.96864992,0
-3.1060884,-1.5307614,-0.50110114,-0.84698546,-0.52002609,-0.11040172,0
-2.4520469,-2.3745687,-1.9105182,-0.84698546,-0.52002609,-0.11040172,0
3.5547123,1.1527643,-1.0135229,0.84698546,0.52002609,0.11040172,0
0.056727886,-1.2904999,1.594183,0.1943624,-0.496207,0.84616899,0
-3.3272488,-1.3360157,-0.11646056,-0.84698546,-0.52002609,-0.11040172,0
2.7179413,2.4805038,-1.2450106,0.84698546,0.52002609,0.11040172,0
-3.2843843,-1.2837044,-0.85900307,-0.84698546,-0.52002609,-0.11040172,0
1.5956481,1.6715885,-1.6564343,-0.061890244,0.30271518,-0.95106953,0
-1.7846947,0.97892565,-1.1879822,-0.40180886,0.76219428,-0.50755274,0
3.4042199,1.392312,-1.3776861,0.84698546,0.52002609,0.11040172,0
-0.87526155,-1.7534673,1.4852943,0.20242476,-0.50750518,0.83753383,0
1.570245,3.2485859,0.43521917,-0.52661192,0.84914833,0.040336967,0
-2.9477611,-2.0215459,1.6086115,-0.023878932,-0.1702472,0.98511207,0
2.7009072,2.0142589,1.7166632,0.84698546,0.52002609,0.11040172,0
-1.9586589,-3.1441514,-1.1564832,-0.84698546,-0.52002609,-0.11040172,0
-1.3428628,1.008023,1.1252536,-0.46542853,0.62501502,0.62668389,0
-3.0040257,-1.4937044,-1.7351861,-0.84698546,-0.52002609,-0.11040172,0
-3.1298132,-1.2188723,1.4842438,-0.26624179,0.23518464,0.93477452,0
-1.7241132,-1.3719231,1.7520287,-0.028190494,-0.16344512,0.98614967,0
0.50684607,-0.26491243,-1.9963485,0.20053542,-0.1202029,-0.97228438,0
3.2261586,1.5560052,-0.28899276,0.84698546,0.52002609,0.11040172,0
0.09581852,-0.095372558,2.0992343,-0.035055041,-0.15258694,0.98766828,0
3.4869876,1.0030825,-0.45841265,0.84698546,0.52002609,0.11040172,0
0.49059471,-1.4970748,-1.2660506,0.45997518,-0.61274964,-0.64262038,0
