-4.4699411,0.7823863,0.58605552,-0.92238885,0.19100094,-0.33573452,0
-4.0226984,0.48696852,-0.71719164,-0.92238885,0.19100094,-0.33573452,0
0.72038651,1.6961999,1.4880035,-0.017199516,0.84801501,0.52969307,0
-2.9465933,1.7641773,-2.8832927,-0.92238885,0.19100094,-0.33573452,0
4.3690839,0.25659084,0.31113541,0.92238885,-0.19100094,0.33573452,0
3.8448777,-1.7745414,0.11481762,0.92238885,-0.19100094,0.33573452,0
-0.26293477,-0.95430326,-2.0563653,0.18829408,-0.53657687,-0.82257557,0
-1.2223562,0.83047318,-2.9197991,0.36653578,0.15859118,-0.91678804,0
2.9460764,-1.9765439,2.6630669,0.92238885,-0.19100094,0.33573452,0
3.5168104,-1.6551967,1.3487114,0.92238885,-0.19100094,0.33573452,0
-0.52759457,-2.1944938,-0.029528823,-0.20149338,-0.97948313,-0.0036544949,0
0.090048075,-2.2235441,-0.10383175,-0.15986264,-0.98002076,-0.11833538,0
-3.2563682,1.7422318,-1.6984906,-0.92238885,0.19100094,-0.33573452,0
0.17746687,-2.0454288,-0.89701366,-0.011070728,-0.8819021,-0.47130272,0
3.710535,0.020443439,1.4795396,0.92238885,-0.19100094,0.33573452,0
-3.5136056,0.01452589,-2.5322235,-0.92238885,0.19100094,-0.33573452,0
4.3126793,0.67391062,0.69877917,0.92238885,-0.19100094,0.33573452,0
-3.8152051,2.1125109,-0.45984757,-0.92238885,0.19100094,-0.33573452,0
3.010962,-2.7711182,0.91727895,-0.14376807,-0.97650099,-0.16055113,0
-3.6436558,2.1379457,-0.78565192,-0.92238885,0.19100094,-0.33573452,0
-4.0431814,-0.99686003,-1.353482,-0.92238885,0.19100094,-0.33573452,0
4.1331973,0.13085127,0.79525858,0.92238885,-0.19100094,0.33573452,0
3.6414804,1.1802468,2.3276994,0.018232703,0.88974738,0.45608911,0
3.524972,-0.74809527,2.0054131,0.92238885,-0.19100094,0.33573452,0
-4.4634805,0.17584991,0.2369417,-0.92238885,0.19100094,-0.33573452,0
3.1129696,-0.045958519,3.0734508,0.92238885,-0.19100094,0.33573452,0
4.3278065,-0.65337944,-0.51846719,0.92238885,-0.19100094,0.33573452,0
-1.9893591,0.99207819,1.4927216,-0.27566904,0.28332326,0.91855019,0
-1.7262249,-1.3286146,0.97394633,-0.36988705,-0.68717098,0.62528372,0
-4.1681828,-0.94889402,0.27836025,-0.36759216,-0.70102525,0.61109722,0
-3.7634814,1.0438967,0.96829271,-0.30319256,0.18050973,0.93567652,0
-2.6897259,1.1874924,-3.3995867,0.36777502,0.16858888,-0.914505,0
1.0487086,1.6035061,-1.1558689,0.35649508,0.75555748,-0.54958558,0
1.9759856,1.0025961,2.5506411,-0.15082121,0.62209702,0.76827621,0
-0.11098123,-0.085324958,2.3909481,-0.33357102,0.044358775,0.94168073,0
-2.8645854,1.2054682,-3.2294698,-0.92238885,0.19100094,-0.33573452,0
-2.5955219,2.7240882,-0.57376069,0.12382615,0.96952999,0.21137322,0
3.943574,1.2534795,1.847958,0.92238885,-0.19100094,0.33573452,0
0.022842169,2.1813335,-1.0570984,0.31582993,0.87333596,-0.37085855,0
4.0215006,-1.2043695,-0.036066294,0.92238885,-0.19100094,0.33573452,0
3.7072403,0.27434111,-0.75703669,0.38487229,0.38077742,-0.84076267,0
-2.780571,-0.24213791,-3.1977801,0.23174632,-0.421718,-0.87661147,0
-2.5735188,-1.4881749,0.56743151,-0.3466689,-0.7926867,0.50146651,0
-4.442008,-0.043184757,0.24671412,-0.92238885,0.19100094,-0.33573452,0
-0.56300497,0.69535834,-2.5196192,0.36355221,0.13564473,-0.92164552,0
3.5671477,-0.44887495,1.8808779,0.92238885,-0.19100094,0.33573452,0
3.6694326,-1.7570534,-0.67671192,0.21834712,-0.45916218,-0.86110091,0
-3.0996809,0.00016307831,-3.2077217,-0.92238885,0.19100094,-0.33573452,0
-4.1403141,-0.03632164,0.76305044,-0.3822495,-0.32639545,0.86449486,0
0.85228026,0.59859967,-1.9405704,0.37897879,0.27950275,-0.88218665,0
-3.1362889,0.32888246,-2.9790175,-0.92238885,0.19100094,-0.33573452,0
-4.5227242,-0.64138269,0.021591663,-0.92238885,0.19100094,-0.33573452,0
-3.9244795,-1.0944605,-2.0127602,-0.92238885,0.19100094,-0.33573452,0
3.2240009,-1.3945806,2.3869112,0.92238885,-0.19100094,0.33573452,0
3.3072634,1.5880072,0.71013331,0.23565245,0.9669522,-0.097322039,0
-2.8564305,1.8064179,0.77664286,-0.16453803,0.59209406,0.78889287,0
-3.800416,1.1202078,-0.94039834,-0.92238885,0.19100094,-0.33573452,0
3.2367744,-2.2962348,1.9221312,0.92238885,-0.19100094,0.33573452,0
1.4828156,-1.8079884,-1.3019229,0.134395,-0.65618205,-0.74253839,0
-2.9408097,-0.11454177,1.2770479,-0.3755843,-0.24053171,0.89503127,0
-0.61512351,2.3475528,-0.46192947,0.20226574,0.97932971,0.0014453996,0
-2.9343309,1.9491475,-3.0156207,-0.92238885,0.19100094,-0.33573452,0
3.8042064,-1.9627845,0.46474355,0.92238885,-0.19100094,0.33573452,0
2.8765819,1.6674254,1.4669509,0.11326981,0.96472597,0.23764236,0
-0.38279256,0.47599691,2.213675,-0.28971809,0.23275474,0.92837948,0
-1.0884784,-1.4118651,1.5432242,-0.37845773,-0.62074029,0.68662328,0
-3.1563082,0.5240624,1.2227671,-0.34424752,-0.012266099,0.93879873,0
-3.3851368,0.22970772,-2.4968295,-0.92238885,0.19100094,-0.33573452,0
-4.4586744,-0.15629244,0.58482265,-0.38610056,-0.43071264,0.8157286,0
4.1421618,-0.06192112,-0.84389877,0.38089791,0.30540812,-0.87272143,0
-1.0810921,0.74282539,1.8022926,-0.26500505,0.31943744,0.90979779,0
3.3646524,-2.6693344,0.1741221,-0.0030705333,-0.87278485,-0.48809552,0
-3.8556952,1.0794206,-0.505665,-0.92238885,0.19100094,-0.33573452,0
0.2152344,1.7084072,1.4670601,-0.071953177,0.76900911,0.63517535,0
-1.6601844,-1.3070427,1.1050121,-0.37357223,-0.66209078,0.64967662,0
3.9162855,-1.877425,0.27831841,0.92238885,-0.19100094,0.33573452,0
-1.0371726,-1.9409893,0.34345591,-0.27559686,-0.93443418,0.22556417,0
-1.456501,0.73483849,-2.9758558,0.36400378,0.13902426,-0.92096341,0
4.0827146,0.86448765,1.2267424,0.92238885,-0.19100094,0.33573452,0
-4.3377972,-0.88309622,-0.25454736,-0.92238885,0.19100094,-0.33573452,0
4.2808857,1.1417651,0.77643162,0.92238885,-0.19100094,0.33573452,0
0.45422694,0.41958559,2.424515,-0.2688171,0.30673546,0.91304469,0
-3.6618264,1.5274727,-1.1828418,-0.92238885,0.19100094,-0.33573452,0
2.7360418,1.4987149,-0.22882318,0.32798564,0.84638882,-0.41958496,0
1.7421862,0.5608077,-1.6030571,0.38236541,0.32834053,-0.86370665,0
-3.9812269,1.7397671,-0.24707866,-0.92238885,0.19100094,-0.33573452,0
-4.0665007,1.3266828,-0.023281097,-0.92238885,0.19100094,-0.33573452,0
0.53857517,2.2947321,0.063993141,0.20625937,0.97844607,-0.010029327,0
3.1231172,-1.2678537,2.4049115,0.92238885,-0.19100094,0.33573452,0
-3.1113999,0.37676239,-3.3962941,-0.92238885,0.19100094,-0.33573452,0
-1.0184536,2.4025357,-0.81210893,0.23842025,0.96537954,-0.10582099,0
0.56702077,-1.024579,-2.0105498,0.22948274,-0.42818186,-0.87406987,0
1.1244204,1.2024179,-1.5875896,0.38418061,0.5437777,-0.7461307,0
1.8039572,-1.3318732,-1.3258231,0.2039822,-0.49723613,-0.84329557,0
-3.9903178,2.1323986,0.49552059,-0.17172882,0.57577926,0.79936695,0
3.2195094,-0.30867887,2.7394609,0.92238885,-0.19100094,0.33573452,0
2.9496765,-0.54417205,3.441638,0.92238885,-0.19100094,0.33573452,0
-3.4962208,0.81843662,-2.0562429,-0.92238885,0.19100094,-0.33573452,0
-3.792659,0.92933226,-1.0127238,-0.92238885,0.19100094,-0.33573452,0
-3.9082308,-0.85772038,-1.5579998,-0.92238885,0.19100094,-0.33573452,0
3.9719098,0.78650904,1.7316673,0.92238885,-0.19100094,0.33573452,0
3.6440175,-0.6419282,1.4744197,0.92238885,-0.19100094,0.33573452,0
-1.5038116,0.056120753,1.7417665,-0.3533276,-0.066014498,0.93316764,0
2.8564749,-2.0391271,2.7745221,0.92238885,-0.19100094,0.33573452,0
-3.4118228,-0.59991598,0.79748285,-0.38622701,-0.46791434,0.79491192,0
3.0131764,-0.34490752,3.3055496,0.92238885,-0.19100094,0.33573452,0
-1.6182175,-0.42073894,-2.8158975,0.23380992,-0.41577446,-0.87889957,0
1.3974295,1.9794593,0.56706011,0.18726206,0.9813329,0.043805823,0
3.6222048,1.3619795,1.7291162,0.10953712,0.96284831,0.24682952,0
3.1393976,-0.75347662,2.8563867,0.92238885,-0.19100094,0.33573452,0
2.9520178,-1.7882147,3.0102766,0.92238885,-0.19100094,0.33573452,0
-2.9512849,1.9763801,-2.5605593,-0.92238885,0.19100094,-0.33573452,0
-3.7569821,1.0649192,-1.1717606,-0.92238885,0.19100094,-0.33573452,0
-3.2536209,-1.3775508,-1.9737089,-0.046634555,-0.91789556,-0.39407238,0
-3.6999884,1.5663958,-0.8373273,-0.92238885,0.19100094,-0.33573452,0
0.66070199,0.71763104,2.4644446,-0.21789151,0.46040142,0.86055434,0
3.2282214,-2.7955267,1.575421,0.92238885,-0.19100094,0.33573452,0
3.2774396,-1.976495,1.5248424,0.92238885,-0.19100094,0.33573452,0
-3.6336355,-0.68133879,-2.4122581,-0.92238885,0.19100094,-0.33573452,0
0.77800107,0.51802135,2.5003374,-0.25696903,0.34550333,0.90254885,0
3.9837193,-0.31586504,1.0036614,0.92238885,-0.19100094,0.33573452,0
3.3791621,-2.1373954,1.3903576,0.92238885,-0.19100094,0.33573452,0
-3.5774126,2.3435194,-0.60793269,-0.92238885,0.19100094,-0.33573452,0
-2.6675975,-1.3022223,-2.0567343,0.0083868504,-0.85907829,-0.51177561,0
-3.4974511,0.51074862,1.084102,-0.35249877,-0.06084311,0.93383235,0
3.4925361,-0.10939646,2.3079283,0.92238885,-0.19100094,0.33573452,0
-0.164958,-1.947638,1.3402532,-0.35247892,-0.77170777,0.52936363,0
-2.5216496,-0.091081381,-3.2415764,0.27423686,-0.2882807,-0.91743577,0
-2.8514359,2.5468721,0.080309153,-0.010951281,0.85590577,0.51701599,0
-1.3370448,-1.4903538,1.0766649,-0.35933334,-0.74316561,0.56443304,0
-2.3851945,2.6569967,0.0020295978,0.049126506,0.92013752,0.38850158,0
-2.9703379,1.2611482,-2.8344872,-0.92238885,0.19100094,-0.33573452,0
1.6629267,-1.6448106,2.6823959,-0.3845914,-0.53490788,0.75230521,0
4.2547092,1.1171598,0.59078366,0.92238885,-0.19100094,0.33573452,0
3.9690928,1.3194203,1.4900011,0.92238885,-0.19100094,0.33573452,0
-3.5059981,1.4565988,-1.7211423,-0.92238885,0.19100094,-0.33573452,0
4.0227666,-0.99348164,0.58489978,0.92238885,-0.19100094,0.33573452,0
-2.4064124,-1.5180781,0.22673339,-0.31796336,-0.86896634,0.37920573,0
3.355145,-1.2849081,1.910583,0.92238885,-0.19100094,0.33573452,0
3.8439841,-0.16061735,1.387103,0.92238885,-0.19100094,0.33573452,0
3.8043137,-2.0580194,0.42077279,0.92238885,-0.19100094,0.33573452,0
-4.0298295,0.29641581,-0.7626121,-0.92238885,0.19100094,-0.33573452,0
3.3288095,-1.8486111,1.4940854,0.92238885,-0.19100094,0.33573452,0
-3.3252833,0.49505424,-2.6127701,-0.92238885,0.19100094,-0.33573452,0
-2.148828,-1.2071609,-2.3729813,0.087059855,-0.74401921,-0.66246217,0
-1.4976656,-0.93537557,1.5770246,-0.38612765,-0.47895229,0.78835922,0
-0.86441815,-1.1031363,1.8083718,-0.38626277,-0.45527834,0.80219871,0
3.5687101,-0.69011474,1.9034221,0.92238885,-0.19100094,0.33573452,0
-0.55170321,2.2286463,0.65305007,0.055172622,0.92542315,0.37489745,0
-3.6423457,1.3609519,-1.172146,-0.92238885,0.19100094,-0.33573452,0
2.4932234,1.0033684,-1.0157814,0.38296491,0.56555343,-0.73040223,0
-3.8040633,-1.5652008,-0.9738884,-0.24063373,-0.96405619,0.11265509,0
1.2447234,-1.286813,2.5557153,-0.38543546,-0.39826941,0.83235872,0
3.3629262,-1.4234431,2.0922065,0.92238885,-0.19100094,0.33573452,0
3.9312305,-0.81237459,0.69792199,0.92238885,-0.19100094,0.33573452,0
-2.9719009,-1.4107363,0.31421685,-0.34293729,-0.80491567,0.48425722,0
4.0910373,-0.99438,0.080331326,0.92238885,-0.19100094,0.33573452,0
-3.6388097,-0.72956991,-2.5770302,-0.92238885,0.19100094,-0.33573452,0
-3.9593701,-0.74475765,-1.1793041,-0.92238885,0.19100094,-0.33573452,0
-2.8362746,-0.6853559,-2.9474378,0.16195852,-0.59784698,-0.78507864,0
-0.32361591,1.5638452,1.5333416,-0.12768942,0.66954201,0.73171639,0
-4.1056051,0.014839649,-0.76866281,-0.92238885,0.19100094,-0.33573452,0
0.96219766,-0.80200905,2.5626416,-0.3741006,-0.22534913,0.8995924,0
-1.9292262,2.3002405,-2.2307653,0.35373306,0.76682419,-0.53558743,0
-3.560586,-0.35066938,-2.2310023,-0.92238885,0.19100094,-0.33573452,0
3.8481379,-1.1024067,0.510454,0.92238885,-0.19100094,0.33573452,0
4.0781469,1.3824563,1.2528201,0.92238885,-0.19100094,0.33573452,0
3.5053508,0.18193293,2.5285492,0.92238885,-0.19100094,0.33573452,0
0.22775769,1.1206865,-2.016773,0.3858116,0.41356492,-0.8246901,0
-4.0471058,1.6323073,0.7040174,-0.22463916,0.44182149,0.86852241,0
-2.8158777,-0.89333057,-2.6800981,0.11235386,-0.69893456,-0.70630533,0
3.1582966,-1.7885187,2.3805346,0.92238885,-0.19100094,0.33573452,0
-3.4376378,2.5426884,-1.0832042,-0.92238885,0.19100094,-0.33573452,0
-3.4685752,2.8028467,-1.0724397,-0.92238885,0.19100094,-0.33573452,0
3.3072536,-0.87233067,2.2618906,0.92238885,-0.19100094,0.33573452,0
3.3758259,1.5734086,1.3267834,0.16818392,0.98106349,0.09606722,0
4.3504257,-1.0968437,-0.38186073,0.92238885,-0.19100094,0.33573452,0
-2.5134721,-1.7604954,-0.40594175,-0.25874066,-0.95088911,0.16989221,0
0.010260582,2.1647317,0.5644058,0.10759729,0.96183616,0.25158316,0
2.8826296,-2.3143864,2.4630532,0.92238885,-0.19100094,0.33573452,0
4.3112121,-1.5587773,-0.53438818,0.92238885,-0.19100094,0.33573452,0
-1.9603795,-1.3998389,-1.9567841,0.017234027,-0.84797084,-0.52976274,0
-3.2795911,1.5003643,-2.0529244,-0.92238885,0.19100094,-0.33573452,0
-3.3281977,-0.60676575,-3.0570145,0.17081591,-0.57787335,-0.79805028,0
4.4051008,0.96244097,0.48532397,0.92238885,-0.19100094,0.33573452,0
-3.9882104,1.0713296,-0.3896569,-0.92238885,0.19100094,-0.33573452,0
3.4859307,-2.9016504,0.79564643,0.92238885,-0.19100094,0.33573452,0
-3.2726345,1.2319701,-2.29458,-0.92238885,0.19100094,-0.33573452,0
-3.2529526,2.827534,-0.83821356,0.12742984,0.97099626,0.20230697,0
3.1109509,-0.7659657,2.8265724,0.92238885,-0.19100094,0.33573452,0
-4.1833048,0.55116272,-0.22713995,-0.92238885,0.19100094,-0.33573452,0
0.10713698,-0.3757464,-2.191036,0.28269854,-0.25847599,-0.92372715,0
3.5226078,0.078064442,2.5148129,0.92238885,-0.19100094,0.33573452,0
3.4670861,-0.52472878,1.8999528,0.92238885,-0.19100094,0.33573452,0
3.941865,1.2765837,1.6870884,0.92238885,-0.19100094,0.33573452,0
-3.6558349,1.4146416,-1.3101749,-0.92238885,0.19100094,-0.33573452,0
-2.3667021,-0.27027965,1.3485161,-0.38014123,-0.29474527,0.87670863,0
-2.2952526,2.4639778,0.052521467,0.022877932,0.89467537,0.44613075,0
3.665391,-0.61568284,-0.98647046,0.33085749,-0.057858124,-0.94190544,0
3.2311416,-1.7414412,2.2426066,0.92238885,-0.19100094,0.33573452,0
-0.81584752,-1.5856166,1.2871189,-0.36628437,-0.70843321,0.6032896,0
-0.7211442,2.0778778,1.0418096,-0.024865568,0.83802187,0.54506975,0
3.3566971,-2.4533269,-0.26490235,0.076160252,-0.76219201,-0.64285541,0
0.63791144,0.77572608,-2.011282,0.38007677,0.2938664,-0.87703156,0
-3.3162086,0.02782774,1.1033735,-0.37651822,-0.25059435,0.89187253,0
2.5329692,-1.2130346,3.2667482,-0.37643245,-0.24965224,0.89217281,0
-2.7452879,-1.7403498,-0.63676953,-0.24089122,-0.96389848,0.11345194,0
-0.071834564,2.0907125,-1.0257977,0.30122721,0.89977646,-0.31569722,0
-4.1031508,1.7602181,0.1520834,-0.92238885,0.19100094,-0.33573452,0
-4.3448048,-0.57392073,-0.0408777,-0.92238885,0.19100094,-0.33573452,0
-2.0244365,-0.64551139,1.3814147,-0.3860313,-0.42574,0.81836748,0
-3.0380507,1.6707249,1.0051186,-0.18925247,0.53423703,0.82387757,0
2.916893,-0.61362529,3.4918828,0.92238885,-0.19100094,0.33573452,0
3.7371495,-1.4324255,0.87830591,0.92238885,-0.19100094,0.33573452,0
1.2111821,-2.3293583,-0.65790868,-0.0095146894,-0.88015801,-0.47458547,0
-4.1789322,0.32219076,-0.47131532,-0.92238885,0.19100094,-0.33573452,0
-3.168344,2.4724414,-2.0547609,-0.92238885,0.19100094,-0.33573452,0
2.2780895,0.75954556,-1.4148753,0.38625526,0.45060718,-0.8048355,0
-1.1907632,-1.9847324,0.17194474,-0.26247692,-0.94761544,0.18201955,0
3.1971846,-0.82689357,2.7052882,0.92238885,-0.19100094,0.33573452,0
-3.4590335,-0.67211723,-3.0274353,-0.92238885,0.19100094,-0.33573452,0
-3.08306,1.3657646,-2.9468226,-0.92238885,0.19100094,-0.33573452,0
-3.4010773,-1.3066342,-2.2240047,-0.035025477,-0.9069646,-0.41974813,0
-3.1739221,1.5825171,-2.4561677,-0.92238885,0.19100094,-0.33573452,0
-0.41713279,-0.12625718,-2.597935,0.30271769,-0.18242142,-0.93545955,0
-3.2108912,2.9238229,-1.648092,-0.92238885,0.19100094,-0.33573452,0
2.1574008,0.48338747,-1.3065253,0.38439831,0.3686038,-0.84638602,0
-1.6676522,-1.7034258,0.52768016,-0.3175177,-0.86989081,0.37745541,0
4.2796998,-0.53552771,0.11754584,0.92238885,-0.19100094,0.33573452,0
-3.5241983,1.6952126,-1.4699378,-0.92238885,0.19100094,-0.33573452,0
1.7287521,0.78973413,-1.5770564,0.38544229,0.39850849,-0.83224118,0
3.2820878,-2.3164375,-0.26123166,0.086455405,-0.7450465,-0.66138589,0
-3.3219552,0.15323353,-2.5235114,-0.92238885,0.19100094,-0.33573452,0
-2.808248,2.6111374,-2.1601973,0.32831156,0.8455925,-0.42093343,0
0.33987004,-0.067026645,-2.208972,0.33644083,-0.029717475,-0.9412356,0
3.3557405,-0.28473091,2.3901649,0.92238885,-0.19100094,0.33573452,0
4.083004,-0.63254023,0.20581615,0.92238885,-0.19100094,0.33573452,0
-3.1431937,-0.060654163,-3.1469684,-0.92238885,0.19100094,-0.33573452,0
-1.0022178,2.5850313,-0.47331235,0.19347441,0.98074991,0.026406253,0
-3.3982868,1.7753463,-1.2930144,-0.92238885,0.19100094,-0.33573452,0
3.2376664,-0.49312925,2.8797741,0.92238885,-0.19100094,0.33573452,0
3.9424388,-0.71602631,0.9332546,0.92238885,-0.19100094,0.33573452,0
0.99911189,-0.52804267,-2.0758009,0.30131897,-0.18802088,-0.93480211,0
-3.2683139,0.7185576,-2.502569,-0.92238885,0.19100094,-0.33573452,0
-0.17649524,-0.80949759,-2.2644873,0.2324708,-0.41963691,-0.87741786,0
-0.17561316,2.3349054,-0.35957155,0.20763576,0.97810602,-0.01400429,0
3.2294545,0.90545464,-0.8332299,0.38041407,0.59988564,-0.70386249,0
3.9097314,-0.7992034,0.96754873,0.92238885,-0.19100094,0.33573452,0
-3.7077434,2.1485281,-0.30948436,-0.92238885,0.19100094,-0.33573452,0
-3.8747232,1.5248702,-0.60374886,-0.92238885,0.19100094,-0.33573452,0
-3.3888826,2.7568674,-0.75778192,-0.92238885,0.19100094,-0.33573452,0
-3.5523443,-1.1811361,-2.5467243,-0.92238885,0.19100094,-0.33573452,0
2.5345335,1.0380273,-0.76407647,0.37514216,0.6500389,-0.66084629,0
0.34805357,-0.98197907,2.3940947,-0.38468337,-0.37571582,0.84312302,0
-3.2630486,-1.5277917,-1.5589669,-0.14136755,-0.97581166,-0.16675389,0
3.5788431,-2.2091093,0.73331952,0.92238885,-0.19100094,0.33573452,0
-4.3641901,-0.98881006,0.076271892,-0.35842383,-0.74723339,0.55962014,0
-3.784934,-1.4943972,-1.2106005,-0.2109437,-0.97721338,0.023600297,0
3.6533909,0.047388554,1.8174483,0.92238885,-0.19100094,0.33573452,0
4.4394674,0.85549593,0.075343013,0.92238885,-0.19100094,0.33573452,0
0.85263336,0.24529248,-1.9796164,0.36047855,0.11341664,-0.92584658,0
2.532105,-2.4333429,2.3051703,-0.33863515,-0.81798494,0.46500233,0
3.251657,-2.2384746,1.4332565,0.92238885,-0.19100094,0.33573452,0
1.2745454,1.8057432,1.3731362,0.048915327,0.919949,0.38897455,0
4.0936241,-0.99853802,-0.13264692,0.92238885,-0.19100094,0.33573452,0
-2.8546748,-0.51129389,-2.9936728,0.18519887,-0.54407871,-0.81833959,0
-3.5552082,1.3638263,-1.5925632,-0.92238885,0.19100094,-0.33573452,0
2.2686701,-0.043726921,3.0861571,-0.28541386,0.24863836,0.92559052,0
2.8486991,1.6780648,1.1443554,0.16280723,0.98045182,0.11049126,0
3.9088459,0.55911446,1.2932667,0.92238885,-0.19100094,0.33573452,0
4.0284052,-1.7824728,-0.30336142,0.92238885,-0.19100094,0.33573452,0
-1.9909797,0.40443444,-3.0545964,0.32069111,-0.10581098,-0.94125515,0
-4.0681992,1.6633976,0.18421102,-0.92238885,0.19100094,-0.33573452,0
-1.9673202,2.2161605,-2.4526477,0.36669636,0.70613456,-0.60572928,0
-4.5060639,0.16021442,0.71066809,-0.37401435,-0.22449401,0.89984208,0
4.3441238,0.44552517,-0.001886487,0.92238885,-0.19100094,0.33573452,0
4.1213088,-1.6352763,-0.39127874,0.92238885,-0.19100094,0.33573452,0
3.9267511,-0.33484697,-0.97972155,0.36574525,0.15236372,-0.91815877,0
-4.2336149,0.78840303,0.42913973,-0.92238885,0.19100094,-0.33573452,0
0.85382038,-0.78571171,-1.9280112,0.26363093,-0.32396176,-0.9085964,0
3.4711976,-1.3862369,1.3356205,0.92238885,-0.19100094,0.33573452,0
2.0321603,1.2459023,2.3480012,-0.095654011,0.72916317,0.67762184,0
3.9783115,0.45618582,-0.73744595,0.38600039,0.48783565,-0.782956,0
-3.1231079,1.7950494,-2.5440245,-0.92238885,0.19100094,-0.33573452,0
0.21518898,1.6962584,-1.5985755,0.36410052,0.72012186,-0.59063995,0
-2.5104306,2.5288301,0.12910765,-0.0051043034,0.86308348,0.50503552,0
1.3808293,-2.3410509,-0.37389553,-0.036917686,-0.90880066,-0.41559419,0
-4.0752044,1.4952569,-0.01723659,-0.92238885,0.19100094,-0.33573452,0
0.91034317,0.50278521,2.5087504,-0.24742213,0.37529922,0.89327091,0
3.8755116,1.1272087,1.8016571,0.92238885,-0.19100094,0.33573452,0
-4.0492816,1.5850973,0.24656737,-0.92238885,0.19100094,-0.33573452,0
3.1405139,-1.1693826,2.6373,0.92238885,-0.19100094,0.33573452,0
1.4217455,0.25863624,2.7225809,-0.2771793,0.27805793,0.91970402,0
4.3419013,0.17507505,0.2802434,0.92238885,-0.19100094,0.33573452,0
4.3698425,0.6679883,0.26398754,0.92238885,-0.19100094,0.33573452,0
3.5417149,-1.1606753,1.5845402,0.92238885,-0.19100094,0.33573452,0
-2.1935899,2.7175388,-0.83960021,0.18637347,0.98138845,0.046278745,0
-3.5512819,2.7456639,-0.8218981,-0.92238885,0.19100094,-0.33573452,0
0.80156672,2.0263634,0.38486463,0.16342819,0.98053402,0.10883175,0
-3.440866,2.0771301,-1.5202465,-0.92238885,0.19100094,-0.33573452,0
-4.3830843,-0.54877615,-0.23207986,-0.92238885,0.19100094,-0.33573452,0
-4.3891459,-0.7525816,0.098693609,-0.37394887,-0.65928638,0.65230656,0
0.26460028,-2.0902538,1.405596,-0.33303964,-0.83354777,0.44077542,0
4.1843615,-1.7528775,-0.4213438,0.92238885,-0.19100094,0.33573452,0
-2.1658759,2.7454076,-0.93242836,0.214293,0.97619903,-0.033378869,0
-3.4377582,2.3680451,-0.98882878,-0.92238885,0.19100094,-0.33573452,0
-4.3434839,-0.39716959,-0.40134346,-0.92238885,0.19100094,-0.33573452,0
-3.8156185,-1.2694669,-1.9473543,-0.92238885,0.19100094,-0.33573452,0
-4.2575412,0.93382263,0.23675811,-0.92238885,0.19100094,-0.33573452,0
3.1837208,-0.71728802,-1.2380482,0.32637718,-0.079472408,-0.9418928,0
4.4725275,0.50555515,-0.13404942,0.92238885,-0.19100094,0.33573452,0
-3.2690759,1.7533154,-1.689188,-0.92238885,0.19100094,-0.33573452,0
-2.911948,1.6131461,-3.2734241,-0.92238885,0.19100094,-0.33573452,0
-3.1694207,1.2447784,-2.4426181,-0.92238885,0.19100094,-0.33573452,0
-4.2660351,-0.82270908,-0.53343612,-0.92238885,0.19100094,-0.33573452,0
4.4749751,0.8764925,-0.0028444529,0.36893106,0.69308519,-0.61929244,0
-3.6291533,2.4833245,-0.35663819,-0.92238885,0.19100094,-0.33573452,0
-3.277261,-0.56623673,1.001354,-0.38623971,-0.44655302,0.80709934,0
4.0769863,-0.57496071,0.3500725,0.92238885,-0.19100094,0.33573452,0
-0.18885636,2.2130857,0.47297138,0.081601024,0.94592547,0.31395262,0
3.8718917,-1.2159753,0.83698255,0.92238885,-0.19100094,0.33573452,0
3.3095393,-0.43620992,2.4568214,0.92238885,-0.19100094,0.33573452,0
1.7350503,0.11405206,3.0148449,-0.27611458,0.28177398,0.91889292,0
-1.8703969,0.73472393,1.7011354,-0.30172259,0.18640989,0.93499452,0
-0.44836378,-2.2265987,0.23247366,-0.22960591,-0.97007787,0.078931935,0
-1.968092,2.6875429,-0.71902448,0.1810863,0.98157907,0.060912959,0
3.5785031,0.1021781,-1.0283065,0.38262412,0.3327843,-0.86188948,0
1.8678796,0.49924016,2.7787738,-0.23106684,0.42366442,0.87585187,0
3.4528894,-2.8357935,1.0768497,0.92238885,-0.19100094,0.33573452,0
3.2729344,-2.1493967,1.5037531,0.92238885,-0.19100094,0.33573452,0
4.2481093,-1.5222285,-0.71268678,0.92238885,-0.19100094,0.33573452,0
-3.137156,0.14985752,-3.181335,-0.92238885,0.19100094,-0.33573452,0
-1.1693659,2.5190163,-0.91832238,0.23576975,0.96688747,-0.097681202,0
2.091784,-2.354733,2.3247149,-0.35756063,-0.75100815,0.55510128,0
4.4158077,0.69242573,0.17674935,0.92238885,-0.19100094,0.33573452,0
4.2178307,0.62720633,0.55626267,0.92238885,-0.19100094,0.33573452,0
-3.0167112,0.039045811,-3.4375308,0.27080312,-0.30002794,-0.91468513,0
-2.6609604,2.4983249,-2.2618887,0.33717632,0.82219017,-0.45860177,0
1.7512622,-1.7044377,-1.1295891,0.15960941,-0.60304081,-0.78157955,0
4.3260169,-0.016927242,-0.17639327,0.92238885,-0.19100094,0.33573452,0
3.5391555,-0.99829817,-1.1433268,0.30222028,-0.18441793,-0.93522871,0
-0.31205416,2.0635557,0.89952409,0.023408473,0.89523017,0.44498885,0
2.8049002,-1.8095713,3.0742226,-0.38618451,-0.43849182,0.81153351,0
-3.078357,1.9888198,0.77202392,-0.16413358,0.59299952,0.78829676,0
4.220376,-0.64498997,0.1893394,0.92238885,-0.19100094,0.33573452,0
3.9361191,-0.17279911,0.89770538,0.92238885,-0.19100094,0.33573452,0
3.2960794,-2.5257747,1.3748267,0.92238885,-0.19100094,0.33573452,0
-2.2410183,0.06384778,-3.2067029,0.28090212,-0.26490936,-0.92245167,0
3.3346601,-1.4426272,1.8325119,0.92238885,-0.19100094,0.33573452,0
-0.96787214,2.3448198,0.54588962,0.051392913,0.92214453,0.38341671,0
2.0701032,-1.3379883,2.9914391,-0.3789826,-0.27955005,0.88217008,0
-4.1261549,1.7279336,0.59895504,-0.92238885,0.19100094,-0.33573452,0
-3.993125,0.77124262,-0.46582949,-0.92238885,0.19100094,-0.33573452,0
-2.2764914,2.8285723,-0.83408052,0.19127667,0.98099518,0.032584082,0
-3.0484846,2.6358268,-2.0221446,-0.92238885,0.19100094,-0.33573452,0
4.4963865,0.94737625,0.27708304,0.92238885,-0.19100094,0.33573452,0
3.4586778,-2.6642816,1.063259,0.92238885,-0.19100094,0.33573452,0
-1.0184213,-1.9603578,0.55990493,-0.30746722,-0.88917315,0.33887321,0
-1.593802,2.457855,-1.609957,0.31012225,0.88435769,-0.34890679,0
-3.3042285,0.48035002,-2.4404688,-0.92238885,0.19100094,-0.33573452,0
3.7488561,-0.63187075,1.2447186,0.92238885,-0.19100094,0.33573452,0
4.0285587,-0.1212945,0.78417504,0.92238885,-0.19100094,0.33573452,0
3.8844702,-0.92274618,0.84627074,0.92238885,-0.19100094,0.33573452,0
3.6040499,-0.84430218,-1.0459117,0.31623349,-0.12569071,-0.94031805,0
-2.4749892,-0.32778192,1.4021739,-0.37658063,-0.25128293,0.89165229,0
3.1062374,-0.66406465,3.2089105,0.92238885,-0.19100094,0.33573452,0
-1.196826,-0.85360396,-2.5102236,0.20430741,-0.49639648,-0.84371144,0
-3.0284872,1.0137303,-3.2562723,-0.92238885,0.19100094,-0.33573452,0
2.0847735,-2.725631,1.3321152,-0.2661227,-0.94422233,0.19396661,0
3.5631151,1.5099947,1.7521794,0.10400331,0.95989567,0.260353,0
-3.4613099,-0.34410167,0.8582834,-0.38487297,-0.38079426,0.84075481,0
4.4994783,-0.65762663,-0.69300735,0.92238885,-0.19100094,0.33573452,0
-4.0060983,1.4197292,-0.1975714,-0.92238885,0.19100094,-0.33573452,0
3.8311765,-0.9987905,0.84523654,0.92238885,-0.19100094,0.33573452,0
3.5395358,-2.1684403,0.9755013,0.92238885,-0.19100094,0.33573452,0
3.6360633,-0.7957561,1.4429867,0.92238885,-0.19100094,0.33573452,0
0.68691975,1.4185994,1.7791585,-0.092355847,0.73492014,0.67183542,0
1.4224584,0.45940387,-1.7562156,0.37868437,0.27582589,-0.8834694,0
-2.8189318,2.1309438,-2.6837745,-0.92238885,0.19100094,-0.33573452,0
4.5953903,0.5212698,-0.30296779,0.92238885,-0.19100094,0.33573452,0
-4.1411881,-0.20475197,-0.383789,-0.92238885,0.19100094,-0.33573452,0
2.941153,-1.6448488,2.7141407,0.92238885,-0.19100094,0.33573452,0
4.3792782,-0.4344573,-0.30568767,0.92238885,-0.19100094,0.33573452,0
-3.0258331,2.2300169,-2.2052488,-0.92238885,0.19100094,-0.33573452,0
-4.4012594,-0.066201687,-0.14363217,-0.92238885,0.19100094,-0.33573452,0
4.0277572,1.0574031,1.2496417,0.92238885,-0.19100094,0.33573452,0
4.0000939,-1.4356198,-0.098172426,0.92238885,-0.19100094,0.33573452,0
4.3391628,0.12236071,0.15451908,0.92238885,-0.19100094,0.33573452,0
-4.2690606,-0.066105366,0.053593636,-0.92238885,0.19100094,-0.33573452,0
0.46621132,2.0164504,0.77304989,0.091685593,0.95260966,0.29004952,0
-2.7327237,-1.4010639,-2.0049658,-0.0059841275,-0.87614846,-0.48200437,0
4.3694935,0.20253563,0.27391005,0.92238885,-0.19100094,0.33573452,0
-3.8499143,0.70577145,-0.84576869,-0.92238885,0.19100094,-0.33573452,0
0.99727106,1.9121869,1.2533462,0.05756855,0.92745692,0.369472,0
0.31510353,2.0948203,0.71290368,0.071416438,0.93853086,0.33772707,0
2.2669437,-0.0050592422,-1.5825257,0.36276034,0.12979209,-0.92279959,0
3.9856009,0.48782444,1.3072395,0.92238885,-0.19100094,0.33573452,0
3.2360113,-1.9080751,2.0707517,0.92238885,-0.19100094,0.33573452,0
0.1364615,-2.1824141,-0.26335362,-0.12146354,-0.9685204,-0.21728998,0
-3.4531188,0.64766502,-2.1030617,-0.92238885,0.19100094,-0.33573452,0
2.610703,0.63348722,-1.1944549,0.38585326,0.41559917,-0.82364726,0
-3.5587633,1.2066498,-1.1777166,-0.92238885,0.19100094,-0.33573452,0
0.94937718,-2.0433254,-0.80763102,0.0055421591,-0.86255288,-0.50593662,0
2.6084578,0.40237761,-1.2635916,0.38009143,0.29406595,-0.87695825,0
-1.0227181,-2.0974357,-0.68625373,-0.13624692,-0.97420251,-0.17990708,0
1.2208912,-0.67331576,2.8018317,-0.36470735,-0.14435318,0.91986459,0
-3.8317406,0.99573636,-0.71181166,-0.92238885,0.19100094,-0.33573452,0
3.8791876,0.87143373,1.7080777,0.92238885,-0.19100094,0.33573452,0
1.0563005,-1.7226008,-1.4222944,0.11689997,-0.69038725,-0.71393269,0
3.3728523,-0.99411798,2.0586271,0.92238885,-0.19100094,0.33573452,0
-3.7447422,1.033083,-1.1557347,-0.92238885,0.19100094,-0.33573452,0
3.1216063,-2.4133103,-0.20228076,0.042226911,-0.81411481,-0.57916677,0
-3.5268726,1.6713748,-1.258028,-0.92238885,0.19100094,-0.33573452,0
3.5976048,-1.9326074,0.71552742,0.92238885,-0.19100094,0.33573452,0
2.978518,-0.45884275,3.2618666,0.92238885,-0.19100094,0.33573452,0
4.0573659,0.97787094,1.37579,0.92238885,-0.19100094,0.33573452,0
-3.219352,0.26642299,-3.1292129,-0.92238885,0.19100094,-0.33573452,0
-3.7860394,-1.1300087,-2.2352266,-0.92238885,0.19100094,-0.33573452,0
3.977361,1.4436417,1.8064517,0.12329447,0.96930623,0.21270667,0
-0.59524345,1.9868903,0.99579471,-0.014592648,0.85133475,0.52441996,0
1.0460582,-0.90855378,2.615994,-0.37558213,-0.24050888,0.89503831,0
-0.6078549,-1.5582414,-1.6825166,0.064191937,-0.78130084,-0.62084496,0
-3.9434354,-0.20351458,-1.414318,-0.92238885,0.19100094,-0.33573452,0
3.0491409,-2.3533309,2.4793673,0.92238885,-0.19100094,0.33573452,0
4.0568008,-0.090179443,-0.8873024,0.37502941,0.23474604,-0.89679831,0
-2.9389362,0.016489029,1.3312253,-0.36599255,-0.15430018,0.91773683,0
3.0179052,-1.3841827,3.0902696,0.92238885,-0.19100094,0.33573452,0
3.9442923,0.95933628,1.7109225,0.92238885,-0.19100094,0.33573452,0
4.067379,-0.2068696,0.53585088,0.92238885,-0.19100094,0.33573452,0
-2.8759673,2.8049784,-0.5016979,0.10987985,0.96302468,0.24598783,0
2.9756172,-2.6839561,2.0217786,0.92238885,-0.19100094,0.33573452,0
4.2264867,0.080066204,-0.65965879,0.3817094,0.31766033,-0.86798036,0
-2.1219695,1.884444,0.88259977,-0.12782711,0.66927099,0.73194027,0
2.3697097,0.10679007,-1.4565654,0.36931822,0.18148068,-0.91141039,0
3.8098767,-1.7850559,0.59923279,0.92238885,-0.19100094,0.33573452,0
4.3125849,0.71207237,0.55097198,0.92238885,-0.19100094,0.33573452,0
-2.3227365,0.76377726,1.5829726,-0.29960048,0.19483674,0.93395841,0
-3.0222945,1.4591403,-2.927702,-0.92238885,0.19100094,-0.33573452,0
-3.4293399,-0.62778664,-2.6884513,-0.92238885,0.19100094,-0.33573452,0
4.0101485,-0.87791538,0.48167604,0.92238885,-0.19100094,0.33573452,0
1.7615138,-0.92243552,-1.5916189,0.26612797,-0.3157191,-0.9107675,0
3.0001304,-2.1124701,2.6856594,0.92238885,-0.19100094,0.33573452,0
-3.9044852,-1.4642611,-1.4133589,-0.17553747,-0.98152506,-0.076126896,0
3.55372,0.431494,-0.87569106,0.38582948,0.41443235,-0.82424599,0
-3.065866,-1.7268074,-0.66367918,-0.23222685,-0.96877438,0.086874023,0
-2.8781288,1.8896875,-3.1387444,-0.92238885,0.19100094,-0.33573452,0
-4.1343479,0.070043087,-0.4024545,-0.92238885,0.19100094,-0.33573452,0
4.0770497,0.045552731,0.76129758,0.92238885,-0.19100094,0.33573452,0
-3.1099348,-1.1399858,0.52932394,-0.37097371,-0.68017745,0.63224781,0
-2.5877988,1.9013276,-2.9290094,0.38370264,0.55299294,-0.73957497,0
3.6765511,1.1053977,2.2467394,0.92238885,-0.19100094,0.33573452,0
-2.9502382,2.457222,-2.2804618,-0.92238885,0.19100094,-0.33573452,0
-3.6671629,2.2203507,-0.7983743,-0.92238885,0.19100094,-0.33573452,0
-4.1190805,-1.0304751,-1.4633152,-0.92238885,0.19100094,-0.33573452,0
-3.4510603,-0.10268593,-2.5401754,-0.92238885,0.19100094,-0.33573452,0
-4.4292707,-0.8749733,-0.31589329,-0.92238885,0.19100094,-0.33573452,0
-3.2724273,0.40163469,-2.6612473,-0.92238885,0.19100094,-0.33573452,0
-4.5810161,0.012752056,0.48969078,-0.92238885,0.19100094,-0.33573452,0
3.119607,-0.92951131,3.0899928,0.92238885,-0.19100094,0.33573452,0
3.7546272,0.23574305,1.6638205,0.92238885,-0.19100094,0.33573452,0
-1.0312239,-1.6985747,1.0136219,-0.34086806,-0.8113308,0.47492254,0
3.1753771,-2.5520337,1.8914254,0.92238885,-0.19100094,0.33573452,0
2.7358685,1.2937956,-0.59961861,0.35946554,0.74256587,-0.56513762,0
2.6316519,0.22664237,3.1145105,-0.23627426,0.40861219,0.88159549,0
3.9421096,-1.6783929,0.087089896,0.92238885,-0.19100094,0.33573452,0
-3.8983164,1.754936,-0.17438936,-0.92238885,0.19100094,-0.33573452,0
-2.5963199,2.8331614,-1.434371,0.24517035,0.96115625,-0.12676865,0
-4.3322034,0.26906347,0.24735999,-0.92238885,0.19100094,-0.33573452,0
-3.3512688,0.91456509,-2.2820458,-0.92238885,0.19100094,-0.33573452,0
-0.5603013,-1.6707482,1.5352793,-0.37016737,-0.68539596,0.62706357,0
3.6268902,-1.6434224,0.98788041,0.92238885,-0.19100094,0.33573452,0
-3.7715681,1.9080389,-0.56644791,-0.92238885,0.19100094,-0.33573452,0
-3.4500387,0.031568527,-2.3926182,-0.92238885,0.19100094,-0.33573452,0
2.6170483,-0.64766455,-1.4906546,0.31966659,-0.11043701,-0.94107229,0
2.9050574,-0.024581194,3.2711596,-0.25423095,0.35417473,0.89995944,0
-4.0270195,2.1815434,0.34708965,-0.92238885,0.19100094,-0.33573452,0
3.4831696,1.2169743,-0.26050043,0.35211629,0.77309465,-0.52757835,0
-3.2135091,2.2453873,-1.6423539,-0.92238885,0.19100094,-0.33573452,0
-0.56628156,2.3545599,-0.84164524,0.25858963,0.95101714,-0.16940482,0
0.18492389,2.1446579,0.92384768,0.046072602,0.91738486,0.39532572,0
0.93473661,1.5171671,1.8427054,-0.080022931,0.75583649,0.64985198,0
-1.2150939,-1.8328569,-1.2915502,-0.036372244,-0.90827352,-0.41679299,0
2.9758048,-0.85023069,3.310981,0.92238885,-0.19100094,0.33573452,0
3.5818336,-1.0552194,1.6447525,0.92238885,-0.19100094,0.33573452,0
3.7382922,0.81293726,2.1285629,0.92238885,-0.19100094,0.33573452,0
-4.5359697,-0.3207283,0.26847756,-0.92238885,0.19100094,-0.33573452,0
-1.3556902,1.3453274,1.6623776,-0.20646122,0.49081033,0.84645081,0
-3.396785,-1.5476284,-1.5971975,-0.14245474,-0.976129,-0.16394776,0
-1.7370348,0.68417132,-3.0452149,0.35050437,0.048636764,-0.93529731,0
-3.7757816,0.77501678,-1.3891888,-0.92238885,0.19100094,-0.33573452,0
1.5795579,-0.76786959,2.8704658,-0.3595835,-0.10717699,0.9269374,0
-3.975033,1.7281172,0.10320592,-0.92238885,0.19100094,-0.33573452,0
4.3669553,0.98765421,0.73356026,0.92238885,-0.19100094,0.33573452,0
3.3071668,-2.997417,0.99695694,0.92238885,-0.19100094,0.33573452,0
-3.3515158,2.7486265,-0.88025618,-0.92238885,0.19100094,-0.33573452,0
1.8096673,-0.14251935,-1.7737194,0.34646562,0.024850488,-0.93773353,0
-0.17592347,-1.1386615,-2.015521,0.18551558,-0.54331487,-0.8187753,0
-3.6413975,0.33361411,1.0935937,-0.36163545,-0.12163147,0.92435145,0
3.3863909,-1.9148898,1.3143978,0.92238885,-0.19100094,0.33573452,0
-3.5624273,-1.2080514,0.0030024052,-0.33741492,-0.8215096,0.45964482,0
-3.3367298,0.12042952,-2.7364693,-0.92238885,0.19100094,-0.33573452,0
2.7849736,1.1208827,2.4557581,-0.076866508,0.76103699,0.64413846,0
3.645215,-2.0475042,0.63595909,0.92238885,-0.19100094,0.33573452,0
3.2122626,-0.96158266,2.5654111,0.92238885,-0.19100094,0.33573452,0
-2.6040225,2.6855645,-0.38545257,0.10191166,0.95872754,0.26543489,0
2.0183828,1.3360124,2.307827,-0.072303057,0.76844639,0.63581645,0
0.39653158,2.1402092,-0.014532182,0.19407737,0.98067522,0.024707451,0
-4.0617275,0.51444197,-0.6380325,-0.92238885,0.19100094,-0.33573452,0
-2.657939,0.93976593,1.3698416,-0.29703808,0.20487288,0.93262821,0
0.16455674,-2.2902226,-0.31145209,-0.13026106,-0.97208524,-0.19514731,0
-3.9034843,1.6646404,-0.15639019,-0.92238885,0.19100094,-0.33573452,0
-4.1653495,1.9237695,0.37758338,-0.92238885,0.19100094,-0.33573452,0
-3.6355414,-0.29464626,-1.9945514,-0.92238885,0.19100094,-0.33573452,0
4.0875664,0.20254135,0.97423422,0.92238885,-0.19100094,0.33573452,0
4.1165576,-1.7994547,-0.20359898,0.92238885,-0.19100094,0.33573452,0
-3.5990491,2.1013913,-1.0434492,-0.92238885,0.19100094,-0.33573452,0
-3.9714413,1.009635,-0.55975854,-0.92238885,0.19100094,-0.33573452,0
3.5182183,-0.048841,2.2278104,0.92238885,-0.19100094,0.33573452,0
-4.0841131,1.2251012,-0.08218801,-0.92238885,0.19100094,-0.33573452,0
-3.2162528,2.3261652,-1.8327334,-0.92238885,0.19100094,-0.33573452,0
-3.869833,1.5624654,-0.50021261,-0.92238885,0.19100094,-0.33573452,0
-0.39142752,2.2677917,0.34220085,0.11791754,0.96693397,0.22612929,0
-4.3769398,-0.17195034,0.2970866,-0.92238885,0.19100094,-0.33573452,0
-3.389972,0.42390585,-2.1601536,-0.92238885,0.19100094,-0.33573452,0
3.2431498,1.4051545,1.8284054,0.075669825,0.94169712,0.3278425,0
-4.0744681,-1.487606,-0.903566,-0.26521456,-0.94508624,0.19098029,0
3.6162858,-1.3312204,1.516735,0.92238885,-0.19100094,0.33573452,0
-4.0142007,0.1331234,-0.88931274,-0.92238885,0.19100094,-0.33573452,0
-3.5628765,2.7327631,-0.49350083,-0.92238885,0.19100094,-0.33573452,0
2.9733763,1.0008159,2.6702001,-0.087730467,0.74287677,0.66365457,0
4.1556058,-0.83103323,0.18389475,0.92238885,-0.19100094,0.33573452,0
-4.0382237,1.1899276,-0.16468728,-0.92238885,0.19100094,-0.33573452,0
2.8947074,-2.4360332,2.5937805,0.92238885,-0.19100094,0.33573452,0
-4.2791872,-1.3180771,-0.65218198,-0.30394781,-0.89527297,0.32573348,0
-3.6231265,0.11368942,-1.6044776,-0.92238885,0.19100094,-0.33573452,0
3.9175413,1.0954471,1.7886093,0.92238885,-0.19100094,0.33573452,0
2.1175957,-0.62439859,-1.5776392,0.30596137,-0.16925159,-0.93687862,0
-3.6010702,1.9913442,-0.78097034,-0.92238885,0.19100094,-0.33573452,0
2.5246544,-0.49997902,3.3197627,-0.3230457,0.095044017,0.94159871,0
3.983151,1.2900171,1.9005573,0.92238885,-0.19100094,0.33573452,0
-3.2829185,0.73766136,-2.1923602,-0.92238885,0.19100094,-0.33573452,0
0.53157282,-0.68347657,-1.9943119,0.27096084,-0.29949263,-0.91481382,0
-2.2999916,2.048372,-2.7711513,0.37976319,0.60721326,-0.69790554,0
-3.4901352,1.7871416,-1.3115857,-0.92238885,0.19100094,-0.33573452,0
-3.2125206,1.5391102,-2.0192668,-0.92238885,0.19100094,-0.33573452,0
-0.21632385,-2.0836325,-0.49097812,-0.10632551,-0.96115917,-0.25469223,0
4.0707121,-2.2146432,-0.40786564,0.92238885,-0.19100094,0.33573452,0
2.5313361,1.6225281,0.28291291,0.26870239,0.94169921,-0.20248923,0
-3.1033971,1.4113007,-2.3899264,-0.92238885,0.19100094,-0.33573452,0
4.2870874,-0.35058212,-0.19466352,0.92238885,-0.19100094,0.33573452,0
-3.4559548,-1.171277,-2.5753381,0.028560221,-0.8330828,-0.55241048,0
3.9219058,-1.2313073,0.52888566,0.92238885,-0.19100094,0.33573452,0
0.94751376,-1.1973513,-1.6369312,0.21412371,-0.47056994,-0.85598761,0
-3.969171,2.2116654,0.25901222,-0.92238885,0.19100094,-0.33573452,0
-2.3738344,-1.7159309,0.11735147,-0.30736309,-0.88935834,0.33848163,0
3.1522708,-1.4321022,2.7124443,0.92238885,-0.19100094,0.33573452,0
-1.1191986,-0.90351814,1.7603271,-0.38622338,-0.44362313,0.8087213,0
-4.4575834,-0.10951567,0.27024627,-0.92238885,0.19100094,-0.33573452,0
-3.8914347,1.4387171,-0.35251135,-0.92238885,0.19100094,-0.33573452,0
4.0968347,-1.715075,-0.28677595,0.92238885,-0.19100094,0.33573452,0
-3.1767306,-0.19797277,-3.0121388,-0.92238885,0.19100094,-0.33573452,0
-2.6844754,2.1446381,-2.869529,0.37563962,0.64600915,-0.6645053,0
4.3706117,0.59993505,-0.0098249912,0.92238885,-0.19100094,0.33573452,0
4.2466669,1.4108138,1.1155306,0.92238885,-0.19100094,0.33573452,0
0.85339677,1.6868397,-1.1419314,0.35777688,0.75007015,-0.55622894,0
-4.4796152,-0.87940884,-0.19304407,-0.92238885,0.19100094,-0.33573452,0
-1.8444393,-0.52963197,1.5434325,-0.38106281,-0.30782264,0.87180072,0
3.5425243,0.54057598,-0.85092175,0.3862595,0.45977688,-0.79963052,0
3.6842384,-0.1497426,1.4720787,0.92238885,-0.19100094,0.33573452,0
-3.4734166,1.2571011,-1.7708962,-0.92238885,0.19100094,-0.33573452,0
3.5344553,0.41196489,2.6251917,0.92238885,-0.19100094,0.33573452,0
4.5853434,0.73957396,-0.051967382,0.92238885,-0.19100094,0.33573452,0
-2.5254745,2.8034334,-0.86326212,0.17383635,0.98145735,0.080762304,0
-4.3560939,-1.0677881,-0.75515378,-0.92238885,0.19100094,-0.33573452,0
1.6674553,0.28299129,-1.7407241,0.36885619,0.17756602,-0.91236812,0
-0.6543746,-2.0543289,0.037831254,-0.21512175,-0.97593063,0.035808593,0
3.5569825,-0.076982975,2.3047061,0.92238885,-0.19100094,0.33573452,0
-2.6469402,-0.48217225,-3.1053059,0.21845828,-0.45885932,-0.86123407,0
-1.4519213,0.6116699,1.8885769,-0.29174417,0.22515003,0.92961967,0
1.359911,-1.7569616,-1.158644,0.10353881,-0.71511728,-0.69129372,0
3.974062,-0.15618944,0.94020236,0.92238885,-0.19100094,0.33573452,0
-0.99173695,0.24763727,-2.810051,0.34058854,-0.0078313053,-0.94017982,0
-3.3971405,2.1317608,-1.1867052,-0.92238885,0.19100094,-0.33573452,0
-3.2022359,-0.45733595,-3.1160331,0.17082667,-0.57784879,-0.7980659,0
-3.8877461,0.96350288,-0.59457374,-0.92238885,0.19100094,-0.33573452,0
-3.1803975,-1.5885506,-0.91653943,-0.21748853,-0.97512555,0.042768992,0
-3.039654,2.7824368,-0.4016183,0.05585587,0.92600656,0.37335247,0
0.7835263,0.83350658,-1.8976341,0.3847878,0.37847382,-0.8418408,0
-3.496757,1.5112019,-1.2691743,-0.92238885,0.19100094,-0.33573452,0
3.9646609,0.97887087,1.3731599,0.92238885,-0.19100094,0.33573452,0
2.7843294,-2.6053829,-0.0049716234,-0.010619283,-0.88139755,-0.47225598,0
2.0915327,-0.97754836,3.0341806,-0.36859846,-0.17540386,0.91289026,0
-4.2205043,1.2486343,0.53741944,-0.92238885,0.19100094,-0.33573452,0
-2.738704,2.7187085,-0.22667909,0.073026061,0.93974227,0.33399379,0
2.9865508,-0.65841866,3.3279326,0.92238885,-0.19100094,0.33573452,0
3.5416222,0.75710487,-0.66355383,0.38360178,0.55481595,-0.73826081,0
3.2264407,-1.4994361,2.23875,0.92238885,-0.19100094,0.33573452,0
-2.9169934,-0.51632953,0.98838258,-0.38611597,-0.43195617,0.81506348,0
-2.0536811,-0.73482656,-2.8168993,0.18903515,-0.53476834,-0.82358271,0
-3.7471004,2.4547207,-0.37767535,-0.92238885,0.19100094,-0.33573452,0
-1.2184585,-2.025496,-0.83767664,-0.13616979,-0.97417682,-0.18010417,0
-3.8492529,1.8597608,-0.30671406,-0.92238885,0.19100094,-0.33573452,0
-0.67856669,-1.8518242,0.98504907,-0.33596539,-0.82559931,0.45333561,0
-3.6414814,1.9663334,-1.0083321,-0.92238885,0.19100094,-0.33573452,0
3.6115675,0.81723404,2.3203487,0.92238885,-0.19100094,0.33573452,0
3.8472338,0.72285414,1.4677242,0.92238885,-0.19100094,0.33573452,0
3.800338,0.34920883,1.5584249,0.92238885,-0.19100094,0.33573452,0
-3.7014613,2.6288795,-0.091107011,-0.92238885,0.19100094,-0.33573452,0
3.1851618,-2.7672279,0.62416846,-0.088606775,-0.95063686,-0.29738593,0
-3.6717877,-0.21611404,-1.8332031,-0.92238885,0.19100094,-0.33573452,0
-2.4440732,-1.3851221,0.59830278,-0.3510353,-0.77716446,0.52229297,0
-3.7667847,1.39961,-0.49669731,-0.92238885,0.19100094,-0.33573452,0
0.016501725,-0.04202646,-2.4302461,0.33080968,-0.058093145,-0.9419077,0
-3.6991045,2.2180622,-0.60311973,-0.92238885,0.19100094,-0.33573452,0
-3.4223692,0.49091959,-1.9547852,-0.92238885,0.19100094,-0.33573452,0
-3.4061639,1.5472629,-1.3787074,-0.92238885,0.19100094,-0.33573452,0
-4.1455193,0.30979395,-0.46852046,-0.92238885,0.19100094,-0.33573452,0
-3.0618172,1.4759262,-2.6088288,-0.92238885,0.19100094,-0.33573452,0
-0.71952277,-0.053613663,2.0282254,-0.34973925,-0.044038057,0.93581146,0
1.3548127,0.61676288,-1.7490427,0.37933737,0.28407425,-0.88057095,0
-4.0575371,-0.10364437,-0.58102667,-0.92238885,0.19100094,-0.33573452,0
0.17428899,-2.3610451,0.17914444,-0.20564377,-0.97859222,0.0082548652,0
3.0966134,-2.3534613,-0.42303574,0.070922792,-0.77066219,-0.63328487,0
-4.3286591,1.2235208,0.75931227,-0.28926834,0.23443159,0.92809784,0
-3.0829487,1.0066957,-2.941004,-0.92238885,0.19100094,-0.33573452,0
3.5322266,-2.0660942,1.1169568,0.92238885,-0.19100094,0.33573452,0
-0.78472614,-2.1989954,-0.04745172,-0.21790159,-0.97497904,0.043987155,0
-4.3968363,-0.76769495,-0.55104274,-0.92238885,0.19100094,-0.33573452,0
3.9229579,-1.8490536,-0.75707924,0.21755785,-0.46130782,-0.8601532,0
-3.6160274,0.70758104,-1.558831,-0.92238885,0.19100094,-0.33573452,0
3.2869921,-0.092829704,2.6971068,0.92238885,-0.19100094,0.33573452,0
0.97882497,0.44271284,-1.9584577,0.36930209,0.18134362,-0.91144413,0
-0.40078723,0.88348526,-2.4015489,0.37467346,0.23110446,-0.8978923,0
-3.553211,2.692311,-0.82907093,-0.92238885,0.19100094,-0.33573452,0
3.2734938,-1.2857871,2.4519763,0.92238885,-0.19100094,0.33573452,0
3.8334064,-1.7000036,0.49417871,0.92238885,-0.19100094,0.33573452,0
0.8461709,0.0046991706,-2.1152585,0.34908873,0.040163338,-0.93622857,0
-4.2882094,-1.091713,-0.87003523,-0.92238885,0.19100094,-0.33573452,0
-0.75958073,-0.45252812,2.1149755,-0.37090203,-0.19528815,0.90790659,0
-3.1636152,1.9334748,-2.2245135,-0.92238885,0.19100094,-0.33573452,0
-1.7218792,-0.54364192,1.629112,-0.38367075,-0.35251707,0.85353887,0
3.4521656,-2.6412778,1.169737,0.92238885,-0.19100094,0.33573452,0
4.1012669,-0.81166267,-0.81340826,0.32649404,-0.078918621,-0.94189882,0
0.35299563,-2.3019106,-0.070805088,-0.15876842,-0.9798435,-0.12124103,0
-3.2233081,2.1718409,-1.5631862,-0.92238885,0.19100094,-0.33573452,0
2.9159086,-2.3485227,-0.37869966,0.053922892,-0.7970022,-0.60156465,0
-1.9180428,0.75134373,-3.0218954,0.36006266,0.11050475,-0.92636049,0
3.6040664,0.48680019,2.1937108,0.92238885,-0.19100094,0.33573452,0
3.6393571,0.1755147,2.2509704,0.92238885,-0.19100094,0.33573452,0
-1.8617882,-0.76147139,1.4044538,-0.38625485,-0.45046604,0.80491465,0
-4.0172863,0.698699,0.99360263,-0.34330997,-0.0070408285,0.93919569,0
-0.73749208,1.6173109,-2.0997174,0.38185412,0.58185208,-0.7180779,0
-3.2857468,-0.022194386,-2.8220859,-0.92238885,0.19100094,-0.33573452,0
-3.4337456,-0.54345226,-2.79389,-0.92238885,0.19100094,-0.33573452,0
-0.69749123,-1.3200738,-2.0462723,0.11239403,-0.69885957,-0.70637304,0
0.2129178,2.1980553,0.71577841,0.083096206,0.94695675,0.31043196,0
4.1515427,1.2443237,1.2763002,0.92238885,-0.19100094,0.33573452,0
-2.5069933,-0.91967845,-2.5821183,0.1195575,-0.68532652,-0.71835476,0
3.5713358,-0.55986309,1.5690786,0.92238885,-0.19100094,0.33573452,0
4.1168623,-0.76078463,0.35198826,0.92238885,-0.19100094,0.33573452,0
-0.84203696,1.7202383,-2.1866977,0.38003409,0.60421753,-0.7003538,0
-1.0909524,-1.7002578,-1.6622717,0.031974673,-0.82844722,-0.5591538,0
-4.3586006,0.45544624,0.40780878,-0.92238885,0.19100094,-0.33573452,0
3.2699537,-2.1396971,1.8791201,0.92238885,-0.19100094,0.33573452,0
3.4701715,0.13476849,2.233695,0.92238885,-0.19100094,0.33573452,0
3.2618122,0.68108916,-0.8639248,0.38614535,0.47741139,-0.78928459,0
-2.5464897,-0.73442745,1.2171921,-0.38575965,-0.49986672,0.77545011,0
3.1750102,-1.5985537,-0.92284131,0.2201623,-0.45420241,-0.86326635,0
3.5249577,0.77638149,2.675972,0.92238885,-0.19100094,0.33573452,0
-0.66855836,-2.0815406,0.016011938,-0.22347856,-0.97282749,0.06053317,0
3.2251961,0.080870152,3.151454,0.92238885,-0.19100094,0.33573452,0
-1.2394534,-1.185657,-2.1106768,0.12561071,-0.6736201,-0.72832543,0
2.7923582,1.056407,2.6114306,-0.073788166,0.76604909,0.63853282,0
2.9551394,-2.1313488,2.8000612,0.92238885,-0.19100094,0.33573452,0
2.2280929,-2.7050087,1.6695563,-0.28562468,-0.92241144,0.25995374,0
3.3424501,-1.1708241,2.0766425,0.92238885,-0.19100094,0.33573452,0
3.0604234,-0.41836238,3.0919242,0.92238885,-0.19100094,0.33573452,0
3.0674415,-0.32197952,-1.2040975,0.35089704,0.051014692,-0.93502343,0
-3.047148,2.1531351,-2.503973,-0.92238885,0.19100094,-0.33573452,0
-2.1437414,1.9600335,0.98885953,-0.12137598,0.68183613,0.72136503,0
3.3942041,0.76783156,-0.59823406,0.38062912,0.59736472,-0.70588744,0
2.5305586,-2.3584549,2.3204079,-0.34976286,-0.78183424,0.5161407,0
3.0369771,-0.50684381,3.4029937,-0.31931788,0.11200379,0.94100553,0
-3.3898311,1.803524,-1.7888865,-0.92238885,0.19100094,-0.33573452,0
1.3292294,-0.68101823,2.7907655,-0.35656565,-0.086819887,0.93022752,0
-3.9324121,2.3438938,0.045861244,-0.92238885,0.19100094,-0.33573452,0
-3.1042633,-0.0048041344,-3.2326853,-0.92238885,0.19100094,-0.33573452,0
1.6180608,0.46654093,-1.6835308,0.38095853,0.3062914,-0.87238538,0
-3.0862813,0.14245152,-3.0936334,-0.92238885,0.19100094,-0.33573452,0
3.8234673,-1.713361,0.51859617,0.92238885,-0.19100094,0.33573452,0
3.5144019,-0.90139437,1.9838452,0.92238885,-0.19100094,0.33573452,0
3.969383,0.81694603,1.7379038,0.92238885,-0.19100094,0.33573452,0
-0.59068465,1.3809986,-2.3137822,0.38601518,0.48694164,-0.78350514,0
3.736445,-1.589885,0.85489619,0.92238885,-0.19100094,0.33573452,0
4.13273,0.62023687,1.1147001,0.92238885,-0.19100094,0.33573452,0
3.4406881,-1.0701611,2.0073543,0.92238885,-0.19100094,0.33573452,0
3.5867198,-2.0921857,1.121909,0.92238885,-0.19100094,0.33573452,0
-3.7236991,1.070456,-1.3140419,-0.92238885,0.19100094,-0.33573452,0
