-1.106603,-0.80143845,-2.1869698,-0.21677577,-0.22272897,-0.95047367,0
2.6122475,0.17741632,0.077957988,0.97523069,-0.0055530965,-0.22112089,0
2.8493986,1.0917044,1.1497102,0.9263956,0.26014248,-0.27224472,0
1.3361603,1.6655324,-1.7658145,0.5884037,0.74708486,-0.30926597,0
1.9011919,1.728673,-0.0091179013,0.70566308,0.63702726,-0.31021917,0
0.026012182,1.8897433,-2.732147,0.21259344,0.9394871,-0.26864094,0
2.0091546,1.4459144,-0.4050647,0.77206588,0.55672586,-0.30654636,0
0.73540616,-2.566803,-0.61075807,0.36852625,-0.92025578,0.13159764,0
2.2821901,1.5782247,0.6248498,0.78190815,0.54332119,-0.30564988,0
2.9179387,0.38285327,1.8668538,0.21677577,0.22272897,0.95047367,0
1.2855482,2.5244093,1.7651813,0.21677577,0.22272897,0.95047367,0
2.4726801,-0.71434081,0.62429166,0.90989983,-0.39883909,-0.11406022,0
1.4533101,-1.4564087,2.631928,0.21677577,0.22272897,0.95047367,0
0.9562968,2.5176961,0.33275712,0.28863001,0.91547447,-0.28035575,0
1.5573404,-1.1473145,-2.6444273,-0.21677577,-0.22272897,-0.95047367,0
-1.2712914,1.0827785,-2.5479915,-0.21677577,-0.22272897,-0.95047367,0
-0.9484005,-0.64400482,2.9698558,0.21677577,0.22272897,0.95047367,0
-1.035599,-2.5262837,-0.52800333,-0.27243483,-0.92114115,0.27798995,0
-1.5875517,0.97669989,-2.4174032,-0.21677577,-0.22272897,-0.95047367,0
2.7569647,0.97048044,0.89933991,0.93572152,0.2301223,-0.26733693,0
0.37069988,-2.0574186,1.9201119,0.016728103,-0.97432965,0.22450411,0
-0.4603371,2.8379579,2.1525836,0.21677577,0.22272897,0.95047367,0
-2.0694942,1.3383107,0.31118274,-0.83652496,0.54426646,0.063246846,0
1.3678794,-2.0675359,-0.66632605,0.6569894,-0.75342655,0.02671361,0
0.03936255,1.4971288,2.3115726,0.21677577,0.22272897,0.95047367,0
-0.048703194,-0.44437814,2.7268498,0.21677577,0.22272897,0.95047367,0
0.4458468,-1.8753593,2.7146695,-0.051967263,-0.96961176,0.23906595,0
0.34957194,-0.98039377,2.7809911,0.21677577,0.22272897,0.95047367,0
2.2153604,-1.2451471,0.78271246,0.82847482,-0.55696964,-0.058434129,0
1.5551842,-0.67600608,2.4753094,0.21677577,0.22272897,0.95047367,0
0.84921563,2.3762069,-0.27028382,0.29890764,0.9117192,-0.28181976,0
1.7657557,-1.185136,2.4349227,0.21677577,0.22272897,0.95047367,0
1.4417554,1.42278,-1.7815093,0.67133248,0.67284942,-0.31078371,0
-0.40676111,-2.6356628,-0.71926057,-0.058185279,-0.96894646,0.24032825,0
-1.2193105,1.5616903,-2.6353257,-0.21677577,-0.22272897,-0.95047367,0
2.5416203,1.6120605,1.4074994,0.81939226,0.48774013,-0.3011744,0
-2.7651091,0.054788411,-1.2026949,-0.96332967,0.20651215,0.17131495,0
0.82117426,-0.52370214,2.5298088,0.21677577,0.22272897,0.95047367,0
2.5189154,0.65815926,0.023724675,0.93648785,0.22750038,-0.26689729,0
-1.6641467,-2.5881643,-1.5942166,-0.21677577,-0.22272897,-0.95047367,0
-1.8061162,0.11900806,2.9737694,0.21677577,0.22272897,0.95047367,0
1.4994516,-0.23555756,2.4268947,0.21677577,0.22272897,0.95047367,0
0.2131654,1.1185961,2.3515658,0.21677577,0.22272897,0.95047367,0
-0.091461606,-2.7421174,-2.0628576,-0.21677577,-0.22272897,-0.95047367,0
-1.0484047,-0.91998434,3.0917058,0.21677577,0.22272897,0.95047367,0
-2.4458785,-1.0319287,-0.35586751,-0.91155475,-0.30228263,0.27873486,0
-2.1386819,1.3994446,-0.20954132,-0.80738723,0.58820218,0.046305656,0
0.55803925,-1.4169531,-2.5103607,-0.21677577,-0.22272897,-0.95047367,0
-2.3071964,-0.92780924,-1.8371599,-0.21677577,-0.22272897,-0.95047367,0
-1.1793585,1.8449742,-2.4044552,-0.31901547,0.93633384,-0.14665729,0
1.5758693,-1.8670406,1.4023418,0.53937078,-0.83884966,0.073556662,0
-1.4572637,1.1979575,2.7484121,0.21677577,0.22272897,0.95047367,0
-1.535705,-2.6475124,-1.406494,-0.43087626,-0.8518281,0.29788345,0
1.1615869,1.7061189,1.9607813,0.21677577,0.22272897,0.95047367,0
1.8285158,-1.7626629,-0.68472028,0.77634197,-0.62962037,-0.029519439,0
-0.52054679,-2.6797578,-0.78210938,-0.11378318,-0.96122456,0.25119901,0
1.9003233,-0.43054879,2.2079077,0.21677577,0.22272897,0.95047367,0
-2.4488671,0.93972301,-2.2273829,-0.21677577,-0.22272897,-0.95047367,0
2.4534404,-0.10649145,-0.83851874,0.97469825,0.004986316,-0.22346926,0
1.1833199,-2.1732001,-1.4524894,0.62960923,-0.77597028,0.038241029,0
-2.2773538,0.38313282,1.0752604,-0.97567123,0.082114786,0.20328027,0
2.4281073,-0.76077563,-0.027639627,0.94439489,-0.29442605,-0.14639509,0
-1.6245354,-1.5850376,-1.8778044,-0.21677577,-0.22272897,-0.95047367,0
1.499411,2.3607259,0.60019881,0.45722395,0.83706963,-0.30043417,0
-0.25682914,-2.4223466,0.76917446,-0.10380316,-0.96284634,0.24930286,0
-1.8436687,-0.77539563,2.2255015,-0.86306,-0.41128039,0.29321656,0
2.0723476,0.6140728,1.9172429,0.21677577,0.22272897,0.95047367,0
0.79247516,-2.3168771,-2.3163068,-0.21677577,-0.22272897,-0.95047367,0
2.4789958,0.39060044,-0.37239897,0.95593977,0.14900109,-0.25293863,0
1.7299197,-1.7644876,1.4944506,0.55034989,-0.83204025,0.069456935,0
-1.7703267,1.8901069,0.71499038,-0.73139048,0.68192303,0.0070109367,0
-1.1101531,-2.1365221,0.42763335,-0.43050945,-0.85202646,0.29784635,0
-0.99904621,1.8925631,-2.6150498,-0.23292711,0.95730543,-0.17120588,0
-0.96652174,-2.6919065,-1.196492,-0.23911887,-0.93185145,0.27290139,0
1.9708803,0.37993276,2.0640569,0.21677577,0.22272897,0.95047367,0
-1.4360547,-2.2194376,-1.7340109,-0.21677577,-0.22272897,-0.95047367,0
-0.66114151,-0.10971737,-2.4339066,-0.21677577,-0.22272897,-0.95047367,0
-1.3276026,-2.1853161,-1.7959692,-0.21677577,-0.22272897,-0.95047367,0
-1.1483827,2.3955221,1.4187938,-0.57685632,0.81468719,-0.059345126,0
0.71983045,-2.4821572,0.25511861,0.27965611,-0.94698852,0.15813071,0
-0.44792843,-2.3094392,0.50006616,-0.16837406,-0.95050383,0.26113743,0
-1.5747836,1.0494478,2.6758125,0.21677577,0.22272897,0.95047367,0
-2.0513108,1.5581372,-2.4850364,-0.58182997,0.81128162,-0.057412744,0
0.3061173,-2.0094295,2.1346433,-0.057294965,-0.96904409,0.24014807,0
-1.2620907,-1.7086762,-1.9240328,-0.21677577,-0.22272897,-0.95047367,0
-0.19438878,-2.4831567,-1.9750323,-0.21677577,-0.22272897,-0.95047367,0
1.6432306,-1.3682992,2.5867109,0.21677577,0.22272897,0.95047367,0
0.82804298,-1.9416523,2.8861437,0.21677577,0.22272897,0.95047367,0
-0.70392901,-1.5922914,-2.039938,-0.21677577,-0.22272897,-0.95047367,0
-1.9057144,0.76597404,2.6051326,-0.97284395,0.13020733,0.19136578,0
-1.6078961,1.9463117,0.35970116,-0.66636455,0.74528152,-0.022666693,0
-1.1471105,1.9008108,-2.1546001,-0.29802179,0.94224513,-0.15283054,0
-2.9565911,-0.43550336,-1.4945287,-0.97552717,0.012710303,0.21951133,0
2.2464714,0.38397229,1.9941909,0.21677577,0.22272897,0.95047367,0
-2.1210196,-1.1528445,0.58658051,-0.85960424,-0.41791642,0.29398346,0
0.30043072,2.9150076,1.9548928,0.21677577,0.22272897,0.95047367,0
-1.4330091,-1.8171339,-1.8130717,-0.21677577,-0.22272897,-0.95047367,0
1.7797753,0.38757229,-2.5920887,0.898004,0.33636624,-0.28363127,0
-2.7857823,-0.34679854,-0.78087878,-0.97558105,0.01416564,0.21918261,0
1.4692729,1.2567225,1.9815494,0.21677577,0.22272897,0.95047367,0
2.096525,1.4297951,-0.3067984,0.81249583,0.49856153,-0.30213735,0
0.32136989,0.23338151,2.5291712,0.21677577,0.22272897,0.95047367,0
-2.3878136,-0.027637482,-1.9895893,-0.21677577,-0.22272897,-0.95047367,0
-2.4211979,0.63855642,-2.2656939,-0.21677577,-0.22272897,-0.95047367,0
2.5231993,1.3125935,1.8296283,0.21677577,0.22272897,0.95047367,0
0.93626034,-1.947273,-2.3395786,-0.21677577,-0.22272897,-0.95047367,0
0.42996788,2.2855518,-1.1873333,0.23137611,0.93416107,-0.27167666,0
-1.7086487,-1.4536455,-1.9121454,-0.21677577,-0.22272897,-0.95047367,0
1.7134303,0.49695134,-2.7395,0.87166643,0.39422154,-0.29118195,0
-0.80012405,-0.7531786,-2.3266819,-0.21677577,-0.22272897,-0.95047367,0
-0.1438188,-1.2275437,-2.2144206,-0.21677577,-0.22272897,-0.95047367,0
-1.7289848,-2.2193866,-1.6244363,-0.21677577,-0.22272897,-0.95047367,0
1.5174246,-1.5536752,-2.5187278,-0.21677577,-0.22272897,-0.95047367,0
-1.0016465,0.06398344,-2.4690685,-0.21677577,-0.22272897,-0.95047367,0
-2.5444138,0.82935899,-2.1807261,-0.21677577,-0.22272897,-0.95047367,0
2.0547504,-0.30167866,-1.8664125,0.9754709,-0.011249453,-0.21984076,0
2.6652732,-0.32133564,1.3854911,0.94988859,-0.27273619,-0.15273082,0
1.6125748,-0.88185048,-2.729058,-0.21677577,-0.22272897,-0.95047367,0
0.78629285,-2.4815052,-2.2091751,-0.21677577,-0.22272897,-0.95047367,0
-2.4975781,-0.025419354,0.48708832,-0.97331262,-0.025794804,0.22802931,0
1.3909662,1.7846818,1.8956635,0.21677577,0.22272897,0.95047367,0
1.8521138,0.4808253,2.1551328,0.21677577,0.22272897,0.95047367,0
-1.4982584,1.8736582,2.513397,-0.85446239,0.51415926,0.074393034,0
-1.6217432,-1.7657061,0.69070071,-0.61719519,-0.72307801,0.31020689,0
-1.455322,-2.6098871,-0.88426286,-0.44804561,-0.84232503,0.29957241,0
2.171042,0.15082264,-1.8799372,0.95585042,0.14943507,-0.25301996,0
-0.99164164,1.1553494,-2.7647746,-0.21677577,-0.22272897,-0.95047367,0
-1.5128102,0.97057366,2.8445117,0.21677577,0.22272897,0.95047367,0
-2.2647645,0.93981832,-2.241272,-0.21677577,-0.22272897,-0.95047367,0
-0.99938798,-2.0236712,0.87407684,-0.42355466,-0.85575294,0.29713339,0
-0.94826758,0.029742718,2.7615123,0.21677577,0.22272897,0.95047367,0
-1.5741311,1.9002218,0.53739762,-0.71305776,0.70110351,-0.0016648769,0
0.26825193,-1.9385245,-2.2936652,-0.21677577,-0.22272897,-0.95047367,0
1.7069294,-1.2022595,2.6112199,0.21677577,0.22272897,0.95047367,0
0.96981287,-2.0177586,-2.3139296,-0.21677577,-0.22272897,-0.95047367,0
2.1412516,0.91370845,-1.2093624,0.87679416,0.38366967,-0.28987882,0
1.3575382,-1.7915699,-2.5743599,-0.21677577,-0.22272897,-0.95047367,0
2.799109,1.1658963,1.8125072,0.21677577,0.22272897,0.95047367,0
1.2935693,1.3653913,2.1068056,0.21677577,0.22272897,0.95047367,0
1.6864529,-1.2413456,2.5987744,0.21677577,0.22272897,0.95047367,0
-1.2781745,0.60617423,2.7321901,0.21677577,0.22272897,0.95047367,0
-0.20814195,2.5132625,2.1932459,0.21677577,0.22272897,0.95047367,0
2.5589952,0.095732763,0.4952774,0.97620451,-0.055190176,-0.20971131,0
-1.9783903,-0.97938347,-2.0475001,-0.21677577,-0.22272897,-0.95047367,0
-0.42329866,-2.7482815,-0.82109201,-0.070015609,-0.96757054,0.24270397,0
1.0219855,-2.396167,-2.3786564,-0.21677577,-0.22272897,-0.95047367,0
2.0520856,0.16222167,-2.2027013,0.95065784,0.17318815,-0.25740182,0
2.2795489,-0.3197788,-1.320274,0.9760806,-0.032910913,-0.21490383,0
0.68616039,-2.4735742,0.16035461,0.31254521,-0.93821204,0.1485731,0
-1.812037,-1.9128215,0.052878097,-0.65499341,-0.68876374,0.31078652,0
-1.8026373,1.5775881,-1.6004212,-0.5828312,0.81059015,-0.057022333,0
1.10809,-1.1269212,2.6439877,0.21677577,0.22272897,0.95047367,0
1.4672817,2.3719361,0.39195988,0.46603876,0.83190489,-0.30123436,0
-0.25134295,2.6635144,0.64270139,-0.18465048,0.96540463,-0.1841144,0
0.88725883,-2.5665531,-1.653193,0.5070405,-0.85768664,0.085344553,0
2.7553496,0.64581096,0.81548214,0.95335299,0.16120452,-0.25520828,0
-0.35437274,-0.5800364,2.8348455,0.21677577,0.22272897,0.95047367,0
-1.9120046,-2.0590563,-0.88124716,-0.64175177,-0.70116824,0.3106733,0
1.8267136,-1.5883565,-0.59475756,0.77739573,-0.62829292,-0.030070901,0
-1.6605854,-2.1866124,-0.31535816,-0.58130276,-0.75274372,0.30897257,0
0.1063506,2.6715612,0.71336794,-0.034490705,0.97476459,-0.22055495,0
2.1349792,0.13343465,2.0897489,0.21677577,0.22272897,0.95047367,0
-2.6917505,-0.09023419,-0.32372117,-0.97530907,0.0073284209,0.22072273,0
-0.071305752,0.043221474,2.5620861,0.21677577,0.22272897,0.95047367,0
0.91246396,2.9009418,1.6801335,0.17881083,0.94809419,-0.26295304,0
-0.21785939,0.12668943,2.5742402,0.21677577,0.22272897,0.95047367,0
1.8526648,-1.4970827,-1.0146192,0.86231387,-0.50009829,-0.079478621,0
-0.78960693,0.92953801,2.6571085,0.21677577,0.22272897,0.95047367,0
-1.3034754,1.3352311,2.6333194,0.21677577,0.22272897,0.95047367,0
1.3190253,2.223619,1.7548265,0.21677577,0.22272897,0.95047367,0
-0.060979605,-1.5881938,3.0066557,0.21677577,0.22272897,0.95047367,0
-1.560621,-0.80960703,2.6651855,-0.82254183,-0.48269826,0.30071121,0
-0.19971013,-2.2609308,1.5798814,-0.15870428,-0.95263255,0.25943077,0
-0.51317227,2.5715086,1.1480585,-0.34843293,0.92714989,-0.13779593,0
0.45951593,-2.3417077,-2.1665306,-0.21677577,-0.22272897,-0.95047367,0
-1.636831,0.29281807,-2.2728953,-0.21677577,-0.22272897,-0.95047367,0
2.9357691,-0.3117308,1.8912416,0.93713838,-0.32021022,-0.1386981,0
0.67930114,-0.5645299,-2.6347785,-0.21677577,-0.22272897,-0.95047367,0
2.5094295,-0.86376065,0.77713513,0.88336611,-0.45918787,-0.093866825,0
-0.3788594,-0.073328733,2.820662,0.21677577,0.22272897,0.95047367,0
0.45576453,-2.3748784,0.95189762,0.15589911,-0.96902817,0.19152087,0
2.2417321,-0.94038224,0.0074760914,0.89225686,-0.44023949,-0.10033488,0
-0.42415261,1.4842215,-2.9415421,-0.21677577,-0.22272897,-0.95047367,0
1.22548,0.85193264,2.0477581,0.21677577,0.22272897,0.95047367,0
1.3863406,-1.9871323,1.3347359,0.47933355,-0.87246233,0.095125914,0
-2.0330966,0.75911474,2.0964398,-0.97168076,0.14302528,0.1880967,0
0.38893992,1.9065537,2.1014128,0.21677577,0.22272897,0.95047367,0
-1.9413888,-2.1655598,-1.0991498,-0.62172413,-0.71914017,0.31031701,0
-1.1350362,1.9420187,-1.9185853,-0.28643394,0.94528401,-0.15618545,0
-0.22945547,1.1507362,-2.906142,-0.21677577,-0.22272897,-0.95047367,0
1.4111354,-1.7428581,2.6703424,0.21677577,0.22272897,0.95047367,0
1.0985198,-2.3360856,0.13062549,0.43973732,-0.89153337,0.10862577,0
2.0764444,0.28339791,-1.6807454,0.93282336,0.23980963,-0.26894599,0
-2.8370147,-0.67361104,-1.9038554,-0.21677577,-0.22272897,-0.95047367,0
-2.4962533,0.065306902,-2.0567703,-0.21677577,-0.22272897,-0.95047367,0
1.8052708,1.8853753,-0.022506922,0.65450543,0.68922848,-0.31078416,0
2.2127447,0.68897426,-1.2713847,0.90576535,0.31728199,-0.28092936,0
-2.7736547,-0.66322935,-1.8134916,-0.21677577,-0.22272897,-0.95047367,0
1.5924649,2.2609482,0.63314033,0.53448004,0.78765744,-0.3064751,0
-2.434252,-1.7157949,-1.4314584,-0.80466729,-0.51050049,0.30314958,0
-0.74490154,-2.5562441,-0.56173813,-0.17170978,-0.94974637,0.26172066,0
-1.7208164,1.5107572,2.5953274,0.21677577,0.22272897,0.95047367,0
-2.2083888,-1.2211666,-1.8113364,-0.21677577,-0.22272897,-0.95047367,0
-1.2953031,1.5994205,2.584095,0.21677577,0.22272897,0.95047367,0
1.9069663,1.1395566,-1.1283607,0.8015554,0.51514941,-0.30352926,0
-2.7805853,-0.47640145,-0.86072624,-0.96653706,-0.087832987,0.24102175,0
-0.060460091,-0.61131191,2.7884495,0.21677577,0.22272897,0.95047367,0
-0.42406154,-2.1891024,1.6566123,-0.26183379,-0.92468625,0.27640295,0
0.36630201,1.8314455,-2.8901045,0.32272589,0.90253335,-0.28509945,0
0.065836489,-1.8864528,-2.1633415,-0.21677577,-0.22272897,-0.95047367,0
2.8086133,1.101162,1.1821557,0.91934496,0.28089923,-0.27550068,0
2.0334058,-0.47723055,-2.6399477,0.97395593,0.016948253,-0.22610295,0
-2.1998973,-1.3270729,-1.8655276,-0.21677577,-0.22272897,-0.95047367,0
-0.13267386,-1.3231723,-2.2537615,-0.21677577,-0.22272897,-0.95047367,0
1.8016031,-0.6662426,2.3654804,0.21677577,0.22272897,0.95047367,0
-0.06670773,2.6420619,0.46485341,-0.1574713,0.9688527,-0.19112116,0
-0.26302207,2.4127555,-0.34432101,-0.10011429,0.97356379,-0.20530659,0
0.34061813,-0.81848454,2.701354,0.21677577,0.22272897,0.95047367,0
-0.84418941,-0.91562045,-2.2806244,-0.21677577,-0.22272897,-0.95047367,0
-1.9706459,1.4166021,1.5642954,-0.90658391,0.40706402,0.11137652,0
-0.11593294,0.24504256,-2.7472367,-0.21677577,-0.22272897,-0.95047367,0
-1.6614704,1.7789006,-1.8154705,-0.50268912,0.86008853,-0.086899638,0
1.9399792,-0.36853981,2.2981007,0.21677577,0.22272897,0.95047367,0
-1.6077116,0.95595551,-2.5387721,-0.21677577,-0.22272897,-0.95047367,0
1.3460944,0.32563758,-2.9590545,-0.21677577,-0.22272897,-0.95047367,0
-1.562031,-0.45892847,-2.1258495,-0.21677577,-0.22272897,-0.95047367,0
-2.6181629,0.87239259,-2.0993252,-0.82551193,0.56153071,0.056689501,0
-2.0759642,1.4478801,-0.78012943,-0.73083925,0.68251646,0.0067461729,0
0.7251941,-1.6020417,-2.3251967,-0.21677577,-0.22272897,-0.95047367,0
-2.0226731,1.5234991,1.0708554,-0.86144304,0.50168669,0.078907728,0
-0.55154949,-1.6391867,-2.1394362,-0.21677577,-0.22272897,-0.95047367,0
-1.0682632,-0.1333077,-2.2968278,-0.21677577,-0.22272897,-0.95047367,0
-0.53462553,0.99737728,-2.7620349,-0.21677577,-0.22272897,-0.95047367,0
2.7958426,0.8145383,1.7403566,0.21677577,0.22272897,0.95047367,0
1.5552599,0.86061502,2.0503283,0.21677577,0.22272897,0.95047367,0
2.2732301,0.67458588,-0.94195724,0.92657423,0.25959688,-0.27215764,0
-0.23850626,1.4430759,2.27145,0.21677577,0.22272897,0.95047367,0
0.0016698837,-1.7534136,-2.226481,-0.21677577,-0.22272897,-0.95047367,0
-0.13931,-1.2554516,-2.3527384,-0.21677577,-0.22272897,-0.95047367,0
1.9858377,-1.6063797,0.25671983,0.76081729,-0.64860916,-0.021529078,0
-0.24393296,2.3429232,-0.64580774,-0.099328935,0.97360444,-0.2054953,0
2.238277,2.083065,1.1930476,0.7168293,0.62461531,-0.30985731,0
-0.65042782,2.6691902,1.3527972,-0.40558225,0.90616798,-0.11984491,0
-1.2100391,-0.40741229,-2.1884816,-0.21677577,-0.22272897,-0.95047367,0
-1.9216514,1.4686973,-0.68900037,-0.73542434,0.67754781,0.0089561939,0
-2.5821009,0.72541952,-0.88430595,-0.91404569,0.38822156,0.11749387,0
-1.0999495,2.2080722,-0.21791792,-0.48333931,0.87040108,-0.093729377,0
-2.2177429,1.3197247,-1.3686554,-0.72930491,0.6841625,0.0060105324,0
0.831608,0.52839124,2.3931632,0.21677577,0.22272897,0.95047367,0
-0.85303903,-2.9642613,-1.8280864,-0.21677577,-0.22272897,-0.95047367,0
2.8648093,1.1050606,1.6333766,0.21677577,0.22272897,0.95047367,0
-0.84559178,-1.9233158,1.7895913,-0.45543289,-0.83810496,0.30026829,0
-2.0545628,1.412642,-0.86262727,-0.76146394,0.64783883,0.021856904,0
-1.7534071,-2.547863,-1.5654945,-0.5267759,-0.79302347,0.3059755,0
0.83579528,-0.46403742,-2.8094192,-0.21677577,-0.22272897,-0.95047367,0
-1.2584655,2.054574,-0.8845861,-0.47602916,0.87414408,-0.096273661,0
-0.38061023,-2.3840766,0.49277759,-0.14681643,-0.95511317,0.25730085,0
1.2532805,0.12490153,-2.8668084,-0.21677577,-0.22272897,-0.95047367,0
1.1673051,0.32022512,2.3014565,0.21677577,0.22272897,0.95047367,0
-2.2205591,-0.54401159,0.95642751,-0.93496537,-0.23268428,0.26776484,0
-1.3804379,2.1429152,1.1389369,-0.67459261,0.73794395,-0.019070745,0
0.86067235,2.5276754,-0.09695065,0.2735793,0.92075062,-0.2781595,0
2.5807555,-0.70896077,2.1433725,0.83697248,-0.54354644,-0.06351769,0
-1.2585533,1.8444421,-2.7131677,-0.21677577,-0.22272897,-0.95047367,0
0.38249636,1.7177761,-2.5862839,0.35514462,0.88891858,-0.28930286,0
2.0557616,-1.3647984,-1.1622537,0.89654541,-0.4306775,-0.10355359,0
2.3128138,0.9130035,-0.86017954,0.88814259,0.35915595,-0.2867226,0
1.1655793,1.2369964,2.0546186,0.21677577,0.22272897,0.95047367,0
-0.59434813,-1.7586164,-2.0871446,-0.21677577,-0.22272897,-0.95047367,0
-2.4299865,0.40905213,-2.2118058,-0.21677577,-0.22272897,-0.95047367,0
1.1741936,1.2880483,-2.3759186,0.66432238,0.67976195,-0.31080475,0
-0.58424366,0.9278214,2.6366529,0.21677577,0.22272897,0.95047367,0
-1.7959837,-0.58568716,2.4104607,-0.89374894,-0.34638542,0.28500873,0
-1.7830837,-0.34456134,2.7098439,-0.90609497,-0.31644663,0.28080878,0
-2.4594653,0.55432934,-2.1519542,-0.21677577,-0.22272897,-0.95047367,0
-2.5738821,0.48531944,-2.0989261,-0.21677577,-0.22272897,-0.95047367,0
-0.42696124,-1.5884676,-2.1614068,-0.21677577,-0.22272897,-0.95047367,0
0.6690743,-1.8010011,2.827687,0.21677577,0.22272897,0.95047367,0
2.1493855,-1.3004639,2.148587,0.71355927,-0.70059347,0.0014309883,0
-0.10853386,-2.0951004,2.0848098,-0.16821796,-0.95053893,0.26111001,0
0.66197914,-2.2166922,-2.1762815,-0.21677577,-0.22272897,-0.95047367,0
0.86031002,-1.7231019,-2.362921,-0.21677577,-0.22272897,-0.95047367,0
-2.2332029,0.22266531,-2.0871584,-0.21677577,-0.22272897,-0.95047367,0
2.0815952,0.024566889,-1.9416283,0.95471442,0.15487567,-0.25403571,0
1.1173084,-1.5186117,2.7220585,0.21677577,0.22272897,0.95047367,0
0.31038833,-0.094905853,-2.5951686,-0.21677577,-0.22272897,-0.95047367,0
1.1082664,-0.15080225,2.4427853,0.21677577,0.22272897,0.95047367,0
1.6561105,2.1688352,0.52413291,0.57348663,0.75885785,-0.30862269,0
-0.57058358,-0.85195065,2.8591776,0.21677577,0.22272897,0.95047367,0
0.29486728,-1.479865,2.8076723,0.21677577,0.22272897,0.95047367,0
-0.002824083,2.3373346,2.0057929,0.21677577,0.22272897,0.95047367,0
1.8098607,1.9685659,0.18214579,0.65508926,0.68867236,-0.31078696,0
-0.38488305,-2.4023814,0.75405765,-0.14162827,-0.95614892,0.25636029,0
1.8972411,-1.5433182,-1.5151873,0.8649922,-0.4951643,-0.08124578,0
-2.2099614,-2.0082264,-1.1883001,-0.7068125,-0.63576776,0.31018618,0
-0.79589099,-0.13774228,-2.5145011,-0.21677577,-0.22272897,-0.95047367,0
-1.9193696,0.34005308,-2.3174663,-0.21677577,-0.22272897,-0.95047367,0
-0.51964164,-0.87770128,3.0406506,0.21677577,0.22272897,0.95047367,0
0.095766068,2.2500899,-1.2980638,0.08077693,0.96619391,-0.24483567,0
-1.9250998,1.7511325,-1.2829878,-0.63800287,0.76924956,-0.034751654,0
-0.8204056,-0.61860645,-2.2257195,-0.21677577,-0.22272897,-0.95047367,0
2.2218437,0.48200548,-0.93381965,0.92927992,0.25120151,-0.27080742,0
0.89845681,0.53521442,-2.9404263,-0.21677577,-0.22272897,-0.95047367,0
-0.029555798,-2.7799284,-1.0187356,0.12782061,-0.97171891,0.19855529,0
0.83086789,-2.4897549,-0.14104986,0.3662332,-0.92106855,0.13231111,0
-0.29730344,-2.8740542,-1.9310753,-0.21677577,-0.22272897,-0.95047367,0
-2.1163328,1.1094947,1.8632249,-0.94272655,0.30061233,0.14456499,0
0.21599698,-2.5944118,-2.0561113,-0.21677577,-0.22272897,-0.95047367,0
2.0466864,1.8482357,0.2830936,0.71011019,0.63213158,-0.31008619,0
0.99340826,0.76408291,2.2583344,0.21677577,0.22272897,0.95047367,0
-0.43451858,-1.7531135,2.4883916,-0.33813864,-0.89622289,0.28713593,0
1.132489,0.67806566,2.2022636,0.21677577,0.22272897,0.95047367,0
-0.58236253,1.0510856,-2.7001925,-0.21677577,-0.22272897,-0.95047367,0
-0.59047925,0.72049737,2.6935833,0.21677577,0.22272897,0.95047367,0
1.442317,2.3882358,0.53783005,0.46277153,0.83383274,-0.30094099,0
-1.9470422,0.90045929,2.720407,-0.96690786,0.18315575,0.17760426,0
-1.1675665,2.239984,-0.99018121,-0.39525375,0.91027761,-0.12316358,0
0.54509926,2.5811675,-0.18421412,0.17535454,0.94890511,-0.26235479,0
-1.4209361,-1.0136778,-2.124629,-0.21677577,-0.22272897,-0.95047367,0
0.69021082,-2.4779515,-1.0122676,0.40998724,-0.90437126,0.11841929,0
2.0807321,0.46340287,-1.6152697,0.91793513,0.284881,-0.27611226,0
-1.1910822,-2.4242001,-1.7909964,-0.21677577,-0.22272897,-0.95047367,0
1.1455005,-0.33665085,2.4598432,0.21677577,0.22272897,0.95047367,0
0.90941679,0.099939346,-2.8054686,-0.21677577,-0.22272897,-0.95047367,0
-2.9521027,-0.68892062,-1.8387498,-0.21677577,-0.22272897,-0.95047367,0
-0.34227753,2.4210308,-0.3353467,-0.15949821,0.96862286,-0.19060498,0
-0.1256991,2.6755495,1.9517908,0.21677577,0.22272897,0.95047367,0
2.6250021,0.90727246,0.6945374,0.94658893,0.19010809,-0.2604388,0
-2.3775563,0.41834664,-2.1718192,-0.21677577,-0.22272897,-0.95047367,0
2.1563103,0.6975438,-1.0378208,0.90640855,0.31564981,-0.28069359,0
1.1444863,2.5751657,1.7604119,0.21677577,0.22272897,0.95047367,0
-2.9297657,-0.083233267,-1.4189107,-0.97263354,0.13267535,0.19073951,0
1.4391699,-0.94432831,-2.7206042,-0.21677577,-0.22272897,-0.95047367,0
1.8501195,0.23863864,2.0834298,0.21677577,0.22272897,0.95047367,0
0.11790586,-0.70139289,2.6727705,0.21677577,0.22272897,0.95047367,0
-0.58906734,0.83604646,-2.7317576,-0.21677577,-0.22272897,-0.95047367,0
-1.4410777,2.2561457,1.9769962,-0.73198551,0.68128121,0.007297039,0
2.8884215,0.030919015,1.4872347,0.96921206,-0.16556749,-0.18225121,0
-0.060419679,-1.1484222,-2.3248496,-0.21677577,-0.22272897,-0.95047367,0
1.2737756,2.5267615,0.66369987,0.34967184,0.89130867,-0.28861472,0
2.0348678,-1.0022521,2.4538362,0.21677577,0.22272897,0.95047367,0
-1.1254338,1.5943289,2.5406651,0.21677577,0.22272897,0.95047367,0
2.3550489,0.30107284,-0.85911608,0.95204443,0.1671083,-0.25629342,0
1.7085979,-1.8299448,0.57981086,0.66289443,-0.74832278,0.024170876,0
-1.0275985,-1.1186717,-2.1957409,-0.21677577,-0.22272897,-0.95047367,0
-2.2039521,0.38263988,1.6310673,-0.9761287,0.062879235,0.20789224,0
-1.5364387,1.3731103,2.5693707,0.21677577,0.22272897,0.95047367,0
-1.846818,-0.41682816,2.6050382,-0.91114473,-0.30336854,0.2788958,0
-1.4775219,2.0080903,2.144134,-0.8097719,0.5848071,0.047645092,0
2.5648952,-0.62941557,0.36640573,0.93790877,-0.31760228,-0.13948482,0
0.40474701,0.044241428,-2.7541885,-0.21677577,-0.22272897,-0.95047367,0
1.9594381,1.9273771,1.6633546,0.21677577,0.22272897,0.95047367,0
-1.0960908,2.4746766,2.0846353,-0.59492236,0.80208182,-0.052270889,0
-0.98581117,2.2535357,-0.63907123,-0.39953154,0.90859294,-0.12179315,0
0.30455732,-2.0496643,1.8250499,0.017617822,-0.97435915,0.22430807,0
0.48330593,2.0563128,-1.9306865,0.3238622,0.90207797,-0.28525192,0
-0.80467784,-2.5427494,-0.53211772,-0.20260799,-0.94216049,0.26699001,0
0.86725676,2.7516916,0.92059422,0.18380928,0.9468987,-0.2638129,0
2.0014112,-1.431643,1.5259395,0.66577101,-0.74580389,0.022924542,0
-1.0394992,0.29856312,-2.3820357,-0.21677577,-0.22272897,-0.95047367,0
1.0180755,-1.458837,-2.4876332,-0.21677577,-0.22272897,-0.95047367,0
0.24276207,1.9165084,2.2170086,0.21677577,0.22272897,0.95047367,0
-0.07628122,3.0018523,1.7105788,-0.22496736,0.9588173,-0.17337567,0
2.1809816,2.2930603,1.4157749,0.67363656,0.67054892,-0.31077015,0
-1.8732588,1.3664093,2.5144682,-0.92994428,0.3433288,0.13163972,0
-1.4105413,-1.381454,1.9737959,-0.68601286,-0.65794355,0.31063896,0
0.86362463,-2.4603372,-1.0937099,0.50044876,-0.8613131,0.087697506,0
-1.1315665,2.0214767,-1.4926693,-0.33199328,0.93241346,-0.14277869,0
0.29877424,2.26265,2.0863407,0.21677577,0.22272897,0.95047367,0
1.7924521,0.52019882,-2.4886911,0.87813568,0.38085771,-0.28952578,0
0.79501665,-1.3862284,2.8524759,0.21677577,0.22272897,0.95047367,0
-2.612937,-0.76999015,-0.57055449,-0.95082712,-0.17245501,0.25726864,0
-1.1406606,-1.5059149,-2.0519564,-0.21677577,-0.22272897,-0.95047367,0
-0.060434103,2.029635,-2.3649826,0.15930712,0.95250273,-0.25953788,0
-2.1866126,-0.80262178,0.78643262,-0.91199523,-0.30111238,0.27856106,0
-2.1325545,0.20504713,-2.1475348,-0.21677577,-0.22272897,-0.95047367,0
0.58984947,-2.6836002,-2.1337962,-0.21677577,-0.22272897,-0.95047367,0
1.6268795,-0.12477267,2.3494821,0.21677577,0.22272897,0.95047367,0
2.6312139,0.042377949,2.0910287,0.21677577,0.22272897,0.95047367,0
-0.69023716,-2.2646036,0.82593191,-0.31261748,-0.90651488,0.28372705,0
2.3844986,0.76039624,1.9271907,0.21677577,0.22272897,0.95047367,0
-2.226433,-1.2884293,-1.773551,-0.21677577,-0.22272897,-0.95047367,0
0.1137867,-0.8905623,2.8478405,0.21677577,0.22272897,0.95047367,0
-0.61815387,-0.61548936,-2.4097011,-0.21677577,-0.22272897,-0.95047367,0
0.98139763,1.9175149,-1.5605237,0.45145363,0.84038812,-0.29989576,0
-0.085743546,-0.029927492,-2.5495307,-0.21677577,-0.22272897,-0.95047367,0
2.2368844,-0.1145612,2.2295909,0.21677577,0.22272897,0.95047367,0
2.1524196,1.3200219,1.7591492,0.21677577,0.22272897,0.95047367,0
-2.7829716,-1.2643651,-1.6744431,-0.92215949,-0.27278805,0.27424192,0
2.0900509,1.5011879,-0.22375926,0.76777494,0.56243306,-0.30690512,0
2.1142428,-1.3391794,2.137115,0.64999408,-0.75935888,0.029699087,0
-1.6632953,-1.6542462,-1.7903295,-0.21677577,-0.22272897,-0.95047367,0
1.9449914,-0.91783285,-2.8844767,-0.21677577,-0.22272897,-0.95047367,0
1.9863087,-1.405215,0.66683149,0.75647271,-0.65373945,-0.019335985,0
-0.10890448,-0.65402603,-2.4334474,-0.21677577,-0.22272897,-0.95047367,0
1.2376499,2.0114071,-1.075056,0.49500382,0.81409889,-0.30366784,0
2.3968842,0.39433938,-0.6901741,0.95136696,0.1701009,-0.25684008,0
-0.0072312355,0.39914274,-2.756104,-0.21677577,-0.22272897,-0.95047367,0
-1.3161949,-0.077610493,-2.3022156,-0.21677577,-0.22272897,-0.95047367,0
2.3482645,-0.97520888,2.4221108,0.21677577,0.22272897,0.95047367,0
1.3762026,1.5892863,2.0123549,0.21677577,0.22272897,0.95047367,0
2.1105063,1.7989426,0.69936973,0.74164009,0.59554368,-0.30870342,0
0.57765293,-1.9564697,2.2906096,0.084306657,-0.97425878,0.2090748,0
1.1062779,-1.9643022,1.8995368,0.32817858,-0.93358713,0.14392376,0
0.33695078,1.216359,-3.0831432,-0.21677577,-0.22272897,-0.95047367,0
-0.70765984,-0.090555668,2.8720288,0.21677577,0.22272897,0.95047367,0
-0.91400003,1.8733671,2.3568432,0.21677577,0.22272897,0.95047367,0
-0.84987742,1.7784038,2.4857497,0.21677577,0.22272897,0.95047367,0
1.641522,1.7139943,1.8980296,0.21677577,0.22272897,0.95047367,0
-0.30259001,0.69873691,-2.6830871,-0.21677577,-0.22272897,-0.95047367,0
0.39873058,-2.7538247,-1.5443143,0.32449332,-0.93470407,0.14502609,0
2.171679,-1.2721311,-0.85167098,0.89932477,-0.42432016,-0.10567731,0
1.9687513,0.16940498,-1.9842155,0.94061935,0.21288553,-0.26441482,0
1.4656097,-1.450551,2.6346688,0.21677577,0.22272897,0.95047367,0
0.28784168,2.6632335,0.52290547,0.061449111,0.96858108,-0.24098706,0
1.6559306,2.3234005,0.80689627,0.54817712,0.77786028,-0.30730322,0
-0.48329401,-1.0385263,2.8990214,0.21677577,0.22272897,0.95047367,0
1.9463601,-0.2589581,-2.8121972,0.96537715,0.095809609,-0.24262643,0
-0.2355451,-1.6482253,-2.1555073,-0.21677577,-0.22272897,-0.95047367,0
1.9747876,-0.95930481,2.4879076,0.21677577,0.22272897,0.95047367,0
0.98134744,-1.9235349,2.2154388,0.25889406,-0.95187926,0.16401213,0
0.53388798,-0.16853786,2.6043208,0.21677577,0.22272897,0.95047367,0
-0.6667316,0.99363351,2.5237761,0.21677577,0.22272897,0.95047367,0
-1.2993708,-1.1311615,-2.0086644,-0.21677577,-0.22272897,-0.95047367,0
-0.92813671,0.76919222,-2.6657455,-0.21677577,-0.22272897,-0.95047367,0
-0.033564895,-1.927873,-2.0862,-0.21677577,-0.22272897,-0.95047367,0
1.2579652,-1.3921435,2.7604287,0.21677577,0.22272897,0.95047367,0
1.6907098,-1.2026486,-2.7046452,-0.21677577,-0.22272897,-0.95047367,0
-1.4656873,1.2558088,-2.5555787,-0.21677577,-0.22272897,-0.95047367,0
-2.5763135,0.48506549,-1.1560595,-0.91866887,0.37590045,0.12143546,0
-0.43392205,1.7136316,2.2945218,0.21677577,0.22272897,0.95047367,0
-0.50960124,-2.6799641,-0.30614221,-0.13793141,-0.95686978,0.25568604,0
1.3589969,0.29184127,2.3066454,0.21677577,0.22272897,0.95047367,0
-0.88891912,-2.7252345,-0.95132428,-0.20876396,-0.94052541,0.26801085,0
-2.1495039,-1.086202,0.28452265,-0.8619011,-0.41351897,0.29347685,0
-1.6497605,-1.1179811,-2.0311799,-0.21677577,-0.22272897,-0.95047367,0
-1.1846669,2.1625013,-0.47695971,-0.42556477,0.89780378,-0.1133275,0
-1.2464008,-1.4468191,2.3898065,-0.64534569,-0.69784379,0.31071392,0
-1.248113,-1.4792397,-2.0061195,-0.21677577,-0.22272897,-0.95047367,0
0.0058176517,1.4946886,-3.0505471,-0.21677577,-0.22272897,-0.95047367,0
2.1528182,-0.40870786,-1.6202519,0.97457832,-0.10584086,-0.1974712,0
2.0946486,-0.43907452,2.204134,0.21677577,0.22272897,0.95047367,0
-1.2226527,2.181843,2.4260042,0.21677577,0.22272897,0.95047367,0
0.22714213,-1.9129338,-2.2453425,-0.21677577,-0.22272897,-0.95047367,0
1.4907453,2.6536644,1.2998028,0.38090682,0.87715423,-0.29242167,0
0.36533105,-0.37983584,2.7045438,0.21677577,0.22272897,0.95047367,0
-1.4189341,-2.7575645,-1.3141819,-0.37919235,-0.8779639,0.29222035,0
1.4462521,-0.39652538,-2.8255403,-0.21677577,-0.22272897,-0.95047367,0
1.6966736,1.3963821,-1.3949772,0.74128926,0.59596986,-0.3087233,0
-0.70229435,1.9349157,-2.2579575,-0.14741069,0.96992934,-0.19366795,0
2.049803,0.87754273,-0.9231357,0.87884808,0.37935567,-0.28933629,0
-1.9500966,1.1435437,2.4836438,-0.96122766,0.21868584,0.16798276,0
-2.7453928,-0.047991157,-1.1777189,-0.97220159,0.13752025,0.18950558,0
-1.0227609,1.638401,2.5113239,0.21677577,0.22272897,0.95047367,0
0.58369434,-0.94943714,2.7320776,0.21677577,0.22272897,0.95047367,0
0.4203949,-2.5226998,0.32337546,0.168044,-0.96760547,0.18841761,0
-2.2401245,-0.47079372,-1.9437788,-0.21677577,-0.22272897,-0.95047367,0
-0.62379408,-1.7828146,2.6230648,-0.40961719,-0.86301839,0.29565713,0
1.1903722,2.6365013,1.6612551,0.21677577,0.22272897,0.95047367,0
2.0225925,-0.38418484,-2.4181647,0.97404176,0.015678197,-0.22582495,0
-1.0267298,-1.2062593,3.2487288,0.21677577,0.22272897,0.95047367,0
0.29035687,2.5987372,0.033666253,0.063016534,0.96840185,-0.24130243,0
2.4090488,-0.98001307,1.304496,0.84630847,-0.52817291,-0.069249392,0
-1.4115201,-0.80711293,-2.176394,-0.21677577,-0.22272897,-0.95047367,0
0.48252261,1.4221685,2.2455864,0.21677577,0.22272897,0.95047367,0
0.53316677,-0.35507727,2.5727968,0.21677577,0.22272897,0.95047367,0
-0.85868752,2.1977935,-0.21712375,-0.37044117,0.91957176,-0.13100064,0
-0.16851485,-1.0485091,-2.3077927,-0.21677577,-0.22272897,-0.95047367,0
-1.3089011,-0.58091378,-2.1833861,-0.21677577,-0.22272897,-0.95047367,0
-1.9876587,-0.53492665,-2.1176298,-0.21677577,-0.22272897,-0.95047367,0
-1.0167892,1.5758197,2.4241025,0.21677577,0.22272897,0.95047367,0
0.50917959,-2.3146863,1.0818896,0.13467127,-0.97113907,0.19685704,0
-1.8610402,0.016580224,-2.2980068,-0.21677577,-0.22272897,-0.95047367,0
2.9101186,-0.17823064,1.820677,0.95208913,-0.26338091,-0.15542489,0
0.31479526,1.965874,-1.8149788,0.24281055,0.93072665,-0.2734797,0
-0.12791824,1.0424026,-2.8647721,-0.21677577,-0.22272897,-0.95047367,0
-0.83802998,-2.5060542,-1.7908076,-0.21677577,-0.22272897,-0.95047367,0
-2.0294681,1.2862557,0.74605775,-0.88213301,0.46172971,0.092990041,0
-1.1257293,-0.23354232,-2.2364557,-0.21677577,-0.22272897,-0.95047367,0
0.1467734,2.8134322,1.9011259,0.21677577,0.22272897,0.95047367,0
-1.3555024,-1.5637186,1.8292433,-0.62799889,-0.7136085,0.31045187,0
-2.2593629,0.78328115,-2.215517,-0.21677577,-0.22272897,-0.95047367,0
-0.94730872,-1.1535221,-2.0747876,-0.21677577,-0.22272897,-0.95047367,0
-2.6659439,-0.85339248,-1.1413549,-0.94494796,-0.19658992,0.26158348,0
-0.59809256,1.3366733,2.4061012,0.21677577,0.22272897,0.95047367,0
-0.69285619,0.92753685,-2.6535912,-0.21677577,-0.22272897,-0.95047367,0
-1.4102838,-2.354244,-1.6755952,-0.21677577,-0.22272897,-0.95047367,0
-1.3863459,-0.67515969,3.1097684,0.21677577,0.22272897,0.95047367,0
-1.7622786,-0.80898213,-2.0406439,-0.21677577,-0.22272897,-0.95047367,0
2.5385091,-0.080181241,2.0348883,0.21677577,0.22272897,0.95047367,0
1.8019001,1.7638297,1.7645942,0.21677577,0.22272897,0.95047367,0
-0.37669563,-2.1182024,1.2262014,-0.21209395,-0.93962348,0.26855904,0
-1.5376219,1.9771539,-0.51008272,-0.55803686,0.82714283,-0.066556096,0
-0.89060658,-2.558835,-0.61496073,-0.22778684,-0.93520916,0.27110362,0
1.9323094,-0.21513414,2.1510901,0.21677577,0.22272897,0.95047367,0
-1.2290385,1.905941,-2.6371803,-0.30564797,0.94015867,-0.15060228,0
-1.0680252,2.3652072,0.0037698746,-0.42670351,0.8973105,-0.11295223,0
-1.1986704,1.6411215,-2.7512853,-0.21677577,-0.22272897,-0.95047367,0
-0.61917019,2.7636352,2.0344987,0.21677577,0.22272897,0.95047367,0
-1.5490693,-1.5633011,1.5067971,-0.64769149,-0.6956569,0.31073645,0
-0.12797013,-2.7695596,-2.0548534,-0.21677577,-0.22272897,-0.95047367,0
-1.7488149,0.088245511,-2.2355886,-0.21677577,-0.22272897,-0.95047367,0
-1.7818472,-0.45304227,3.0137105,-0.88036555,-0.37613505,0.28892767,0
0.17032886,-1.0198445,2.7634315,0.21677577,0.22272897,0.95047367,0
1.6150962,0.37806153,2.1719027,0.21677577,0.22272897,0.95047367,0
1.9107318,1.8741865,0.020608313,0.70534164,0.63737869,-0.31022823,0
2.2281275,-0.76861131,-1.2572677,0.95841771,-0.23365334,-0.16383457,0
-1.9731524,0.96926647,-2.4067159,-0.21677577,-0.22272897,-0.95047367,0
-2.0908575,1.4998136,-0.9703877,-0.73499703,0.67801392,0.0087496042,0
0.97900605,-0.075363398,-2.8408508,-0.21677577,-0.22272897,-0.95047367,0
-1.3094469,0.039208412,2.8649111,0.21677577,0.22272897,0.95047367,0
2.8181994,0.125732,0.68082452,0.97616118,-0.060275912,-0.20850974,0
1.8698957,-1.5730996,-0.91786814,0.82993913,-0.55469334,-0.059301376,0
-1.1654416,1.6816621,-2.6720715,-0.21677577,-0.22272897,-0.95047367,0
-1.0513748,-0.60955417,-2.1946306,-0.21677577,-0.22272897,-0.95047367,0
-1.3585142,2.2390163,0.82435107,-0.62515408,0.77947181,-0.040077686,0
2.8911796,-0.2881121,1.8286698,0.94095898,-0.3069891,-0.14266759,0
-2.5099392,-0.60926414,-0.044565201,-0.94900137,-0.1802327,0.25867483,0
-2.3328166,0.79988909,0.68102312,-0.94646871,0.28649125,0.14872748,0
0.45770058,-1.9047674,-2.3225272,-0.21677577,-0.22272897,-0.95047367,0
2.7072182,-0.33154246,0.68472958,0.95901704,-0.23056975,-0.16469389,0
1.7217115,0.47942984,2.2159064,0.21677577,0.22272897,0.95047367,0
2.7528505,-0.34011725,0.78140283,0.95682633,-0.24158823,-0.16161215,0
2.2968922,-0.10575712,2.1425014,0.21677577,0.22272897,0.95047367,0
1.1595162,1.2460752,2.1003823,0.21677577,0.22272897,0.95047367,0
0.82449615,-2.043153,2.2292662,0.17014757,-0.96734297,0.18787634,0
1.2185149,0.48964906,-3.0899498,-0.21677577,-0.22272897,-0.95047367,0
-1.6410737,-2.1585398,0.040607333,-0.55510557,-0.77277648,0.30769205,0
1.5310519,1.3534241,-1.6692957,0.71084619,0.63131523,-0.31006277,0
-2.6096487,-0.04086417,-0.073820829,-0.97622073,0.05069232,0.210769,0
-1.3195571,1.3612636,-2.7181461,-0.21677577,-0.22272897,-0.95047367,0
-2.1083579,-0.58993173,1.2465022,-0.90702707,-0.31407216,0.28046492,0
-0.52051556,2.3390002,-0.87658954,-0.17303106,0.96697557,-0.18713254,0
-0.91965675,1.9904144,-2.5296369,-0.18137068,0.96586287,-0.18496978,0
0.82500917,-2.2347329,0.67843294,0.28932825,-0.94453979,0.15535092,0
1.7238235,1.3972325,1.9489808,0.21677577,0.22272897,0.95047367,0
1.7843752,2.4831614,1.1045467,0.55798185,0.77064013,-0.30784744,0
-0.16042447,-2.1054695,1.5851483,-0.14740407,-0.9549942,0.25740695,0
-2.3538847,0.83352625,0.096390724,-0.93701112,0.32063839,0.1385687,0
-2.8098454,-0.43364388,-1.8030887,-0.21677577,-0.22272897,-0.95047367,0
-2.0725496,-1.1666949,0.72228086,-0.83305883,-0.46538252,0.29905218,0
-1.6437668,-0.56059718,2.8453743,-0.86961907,-0.39835143,0.29168278,0
-0.00036783889,-2.5628943,-2.0335851,-0.21677577,-0.22272897,-0.95047367,0
-0.00261271,-2.569674,0.17992306,0.06128484,-0.97480953,0.21445441,0
-0.43276381,-2.9676595,-1.2583013,-0.00031924248,-0.97360891,0.2282232,0
-0.12473488,1.3306811,-2.8377395,-0.21677577,-0.22272897,-0.95047367,0
-1.6995507,-1.5626657,-1.7754865,-0.21677577,-0.22272897,-0.95047367,0
0.11993635,0.27140474,2.6239014,0.21677577,0.22272897,0.95047367,0
1.9556444,1.6666837,0.013404638,0.72723567,0.61268163,-0.30943424,0
2.3868291,1.2407353,1.7112522,0.21677577,0.22272897,0.95047367,0
1.7954462,-0.98819995,-2.7941439,0.97013867,-0.15766945,-0.18431342,0
2.7631109,0.55298758,1.224238,0.96920002,0.067461818,-0.23685539,0
-0.078559637,-1.9157518,2.7730222,-0.19802678,-0.94335055,0.26622415,0
0.15219942,1.8335871,2.1831787,0.21677577,0.22272897,0.95047367,0
-0.071936399,-2.9032791,-1.6650128,0.16186002,-0.96834934,0.19000226,0
-1.7503872,0.6273694,2.9729617,0.21677577,0.22272897,0.95047367,0
1.14742,-1.3026301,2.6656356,0.21677577,0.22272897,0.95047367,0
2.2018924,-0.73491919,-1.1361055,0.95404458,-0.25468346,-0.15790898,0
0.23059607,1.6765761,-3.0304713,-0.21677577,-0.22272897,-0.95047367,0
-1.4276118,-1.9407117,0.38348332,-0.53775495,-0.78534508,0.3066802,0
-2.7707725,-1.3100523,-1.2188625,-0.89825743,-0.33575985,0.28354698,0
1.3535722,-0.39038467,-2.921504,-0.21677577,-0.22272897,-0.95047367,0
0.56110966,-2.3542423,1.2357106,0.14206845,-0.97045743,0.19501013,0
1.8807764,-1.5263752,-0.61578918,0.82178396,-0.56718546,-0.05451417,0
2.6201286,0.0040050596,0.51781714,0.97172719,-0.14254826,-0.18821919,0
-2.4740942,0.25499499,-2.0770335,-0.21677577,-0.22272897,-0.95047367,0
0.57889247,2.6200876,1.9460167,0.21677577,0.22272897,0.95047367,0
2.1173449,-1.2559056,0.95713258,0.76362371,-0.64525348,-0.022955298,0
1.5627892,0.7324338,-3.0893407,0.81790876,0.49009287,-0.3013874,0
-1.0018009,-1.6238506,-2.013217,-0.21677577,-0.22272897,-0.95047367,0
-0.30665398,0.64679217,2.6169617,0.21677577,0.22272897,0.95047367,0
-0.8001076,-0.0484972,-2.5396428,-0.21677577,-0.22272897,-0.95047367,0
-0.60568118,-1.7366632,2.2180593,-0.37068343,-0.88192499,0.29120797,0
2.8587902,0.40488994,1.2253642,0.97207212,0.040424734,-0.23117471,0
-1.6910174,1.7601942,-0.37348962,-0.68298072,0.73027515,-0.015360475,0
1.7113131,1.1284587,2.0512528,0.21677577,0.22272897,0.95047367,0
-2.3660047,-0.46812791,0.48398209,-0.95349163,-0.16056883,0.25509101,0
0.18240821,1.3927134,2.1719909,0.21677577,0.22272897,0.95047367,0
0.08958739,-2.6933,-0.7551955,0.1817565,-0.96580958,0.18486935,0
2.5785842,-0.38168517,0.25288701,0.95954323,-0.22781616,-0.1654591,0
0.028752327,0.33085608,-2.6555402,-0.21677577,-0.22272897,-0.95047367,0
1.7556598,1.2239801,1.917334,0.21677577,0.22272897,0.95047367,0
0.47245705,-2.742306,-1.6579976,0.36989248,-0.91976833,0.13117182,0
-0.53628945,0.22757149,2.7498937,0.21677577,0.22272897,0.95047367,0
-0.50020432,-2.2553949,-2.0832775,-0.21677577,-0.22272897,-0.95047367,0
2.5213068,-0.05598104,2.0088706,0.21677577,0.22272897,0.95047367,0
-0.49879014,1.9327041,2.3889041,0.21677577,0.22272897,0.95047367,0
-2.8982768,-0.81696641,-1.7111444,-0.9659307,-0.092060477,0.2418741,0
2.5609598,0.62793463,1.9365126,0.21677577,0.22272897,0.95047367,0
1.8420758,0.35243654,-2.4957502,0.91068661,0.30457744,-0.27907461,0
0.66591382,1.2385442,-3.1025515,-0.21677577,-0.22272897,-0.95047367,0
2.5663073,1.0515226,1.7036276,0.21677577,0.22272897,0.95047367,0
1.0509164,1.0356431,2.2179697,0.21677577,0.22272897,0.95047367,0
-0.66382957,-1.7616906,2.3837919,-0.40078497,-0.86748457,0.29468936,0
-0.78764594,-0.53892231,-2.3416901,-0.21677577,-0.22272897,-0.95047367,0
1.1674485,-2.1354656,0.70069528,0.43993592,-0.89144343,0.10855937,0
1.8480513,-1.565212,-2.0880814,0.9029758,-0.41576356,-0.10851508,0
-1.4736569,-2.4839354,-1.0461901,-0.41164571,-0.86197758,0.29587594,0
1.1070431,0.4272294,2.2309005,0.21677577,0.22272897,0.95047367,0
-2.1106281,-1.177536,0.63032246,-0.84916937,-0.43727803,0.29614067,0
-0.03678453,-2.6267853,0.1095109,0.040131152,-0.97483522,0.21928501,0
-0.18090391,2.078326,-1.8635961,0.071976364,0.96732855,-0.24309444,0
1.338832,0.61903465,2.1469667,0.21677577,0.22272897,0.95047367,0
-1.1746305,-1.0127561,-2.1017215,-0.21677577,-0.22272897,-0.95047367,0
0.13337874,0.25704241,-2.6897902,-0.21677577,-0.22272897,-0.95047367,0
-1.1575353,-0.71157551,2.964747,0.21677577,0.22272897,0.95047367,0
-0.56321597,0.54197931,2.675287,0.21677577,0.22272897,0.95047367,0
-1.9022313,0.94513232,-2.3248394,-0.21677577,-0.22272897,-0.95047367,0
1.7126271,-0.62687981,2.4189272,0.21677577,0.22272897,0.95047367,0
2.0581107,2.277925,1.499189,0.64842236,0.69497293,-0.31074288,0
0.47382903,1.0005503,-2.9085491,-0.21677577,-0.22272897,-0.95047367,0
0.86410314,0.4215486,2.433321,0.21677577,0.22272897,0.95047367,0
-2.1552482,0.10680103,1.9432508,-0.96834838,-0.074344248,0.23827398,0
-2.2388382,-0.76567519,-1.8443501,-0.21677577,-0.22272897,-0.95047367,0
-2.7833395,-0.082212776,-1.1735599,-0.97309822,0.12711951,0.19214731,0
2.4561234,0.58235002,1.834246,0.21677577,0.22272897,0.95047367,0
-0.29077548,-2.4018509,-1.9466543,-0.21677577,-0.22272897,-0.95047367,0
-0.74662834,1.7412007,2.3276327,0.21677577,0.22272897,0.95047367,0
-2.6730418,-0.51920915,-1.9363838,-0.21677577,-0.22272897,-0.95047367,0
1.8768326,1.5942481,1.817904,0.21677577,0.22272897,0.95047367,0
1.9664866,-0.56994128,-2.813554,0.97621471,-0.045837581,-0.2119053,0
-2.6315742,0.67357165,-1.349031,-0.91385198,0.38872629,0.11733139,0
2.2060027,-0.5735997,2.2744126,0.21677577,0.22272897,0.95047367,0
-0.33221632,2.8414633,2.1156249,0.21677577,0.22272897,0.95047367,0
2.6179042,1.5690835,1.5524306,0.85450482,0.42750126,-0.29506651,0
0.89082813,-0.68734765,-2.7516229,-0.21677577,-0.22272897,-0.95047367,0
1.4745085,1.6508983,-1.4672836,0.66376323,0.68030787,-0.31080514,0
1.9920751,-0.71879339,-2.30599,0.97085786,-0.15110785,-0.18601513,0
2.4093626,1.3363404,1.8224871,0.21677577,0.22272897,0.95047367,0
-2.2120214,-1.5795002,-1.7027173,-0.21677577,-0.22272897,-0.95047367,0
-1.4781382,-1.1648773,2.1607747,-0.71073341,-0.63144028,0.31006637,0
2.0382793,-1.4881446,-0.40560555,0.82927203,-0.55573213,-0.058905721,0
1.6244354,2.55512,1.2209027,0.48886836,0.81797975,-0.30317795,0
-1.5277508,-0.31456423,3.0465026,0.21677577,0.22272897,0.95047367,0
-1.6714504,-2.078918,-0.20520777,-0.58987647,-0.74589849,0.30932388,0
0.97877181,2.5230768,1.8368276,0.21677577,0.22272897,0.95047367,0
-0.84516472,-2.65218,-1.8943422,-0.21677577,-0.22272897,-0.95047367,0
0.47232565,1.3700817,2.0974166,0.21677577,0.22272897,0.95047367,0
2.2093639,1.1800439,1.9455508,0.21677577,0.22272897,0.95047367,0
-1.3239644,0.23325348,2.81233,0.21677577,0.22272897,0.95047367,0
2.3784342,0.60978419,-0.28300261,0.94496256,0.19653299,-0.2615734,0
0.78012288,-2.4655669,-0.29587913,0.35296121,-0.92564088,0.13640946,0
0.85696787,2.6456995,1.7765791,0.21677577,0.22272897,0.95047367,0
-0.56360227,-0.30870259,-2.3824518,-0.21677577,-0.22272897,-0.95047367,0
0.21988961,2.1851099,2.1285748,0.21677577,0.22272897,0.95047367,0
-2.1448612,-0.65478861,1.0403109,-0.91687584,-0.28783882,0.27656379,0
-0.0042985603,-2.6191084,-1.9793601,-0.21677577,-0.22272897,-0.95047367,0
1.8210623,0.7233454,-1.8063089,0.85838664,0.42022738,-0.29424727,0
0.43373728,-2.435782,-2.2218807,-0.21677577,-0.22272897,-0.95047367,0
0.35385346,2.7018466,0.86029935,-0.018276572,0.97438037,-0.22416288,0
0.2366482,-1.1505377,-2.4867728,-0.21677577,-0.22272897,-0.95047367,0
0.76492947,1.1372271,2.1920078,0.21677577,0.22272897,0.95047367,0
-0.1736207,-2.3022695,1.4938524,-0.14715117,-0.95504546,0.25736129,0
-1.1102664,1.1922848,2.6476927,0.21677577,0.22272897,0.95047367,0
-0.36839294,-0.91123128,2.9344115,0.21677577,0.22272897,0.95047367,0
1.8628287,-0.98953235,2.5363693,0.21677577,0.22272897,0.95047367,0
-2.1775229,-1.8847622,-0.90768266,-0.74466711,-0.59184599,0.30852735,0
0.97195041,2.5898812,0.43716592,0.26132572,0.92485285,-0.27632609,0
-0.15956306,-1.5869215,3.0179522,0.21677577,0.22272897,0.95047367,0
1.9715748,-0.0091013908,-1.9445767,0.95938188,0.13145474,-0.24961194,0
1.9160734,-1.4952149,-1.6286228,0.86920381,-0.48725644,-0.084059477,0
0.056990623,-1.581638,2.9087286,0.21677577,0.22272897,0.95047367,0
-2.2941935,-1.4844351,-1.8520331,-0.21677577,-0.22272897,-0.95047367,0
1.13326,1.847569,-1.3261114,0.50936252,0.80478066,-0.30475909,0
-1.6441271,-2.006495,-1.8122519,-0.21677577,-0.22272897,-0.95047367,0
-0.025217891,-2.8884504,-0.85988247,0.097856045,-0.97367895,0.20584869,0
1.7537253,-1.6628079,-2.1113844,0.87824762,-0.46961164,-0.09025681,0
1.3963143,1.146729,2.0506737,0.21677577,0.22272897,0.95047367,0
1.0953679,0.85000992,-3.0187073,-0.21677577,-0.22272897,-0.95047367,0
2.799891,-0.17339039,1.9306198,0.9481982,-0.27964619,-0.15072596,0
0.019287229,-1.8282565,-2.2677529,-0.21677577,-0.22272897,-0.95047367,0
-2.0043781,1.497743,1.4833484,-0.89078242,0.44346073,0.099243701,0
-2.352633,0.93500626,-0.68357229,-0.88936317,0.44653097,0.09820056,0
1.3522166,2.0126023,-0.27775443,0.53718644,0.78574789,-0.30664486,0
0.22825515,-0.65218234,-2.4656024,-0.21677577,-0.22272897,-0.95047367,0
0.79418772,-2.4248257,-0.71522641,0.40334344,-0.90707099,0.1205672,0
1.0716404,1.8862092,-1.1141071,0.49364346,0.81496453,-0.30356044,0
-0.50407457,-2.0239387,1.6945508,-0.32087803,-0.90327036,0.28485072,0
1.4854088,0.45458341,-3.0392017,-0.21677577,-0.22272897,-0.95047367,0
0.61189139,-0.4936409,-2.751452,-0.21677577,-0.22272897,-0.95047367,0
-0.15596652,0.32275915,-2.6577556,-0.21677577,-0.22272897,-0.95047367,0
-1.6573441,0.99761283,-2.4083121,-0.21677577,-0.22272897,-0.95047367,0
0.59294367,-2.095212,2.4927471,0.041672647,-0.97484881,0.21893662,0
2.0073819,2.2031858,0.93845713,0.66385293,0.68022013,-0.31080505,0
-2.6514037,0.28255793,-1.2484596,-0.94640464,0.28674096,0.1486544,0
1.0878065,2.5890532,1.742326,0.21677577,0.22272897,0.95047367,0
-1.2206988,-2.7075891,-1.1872646,-0.34977669,-0.89126331,0.28862804,0
1.8153242,1.9536449,0.42240924,0.65408063,0.68963277,-0.31078196,0
1.9491932,0.5204097,-1.8135773,0.90964365,0.30731231,-0.27947763,0
0.65184909,0.38115311,2.3941133,0.21677577,0.22272897,0.95047367,0
1.2443848,-2.1940978,-2.4280081,-0.21677577,-0.22272897,-0.95047367,0
0.24670529,-2.1754012,1.6415952,-0.014996946,-0.97275037,0.23136961,0
0.15493846,2.1813278,-1.4377768,0.17682844,0.94856089,-0.26261026,0
2.8073339,0.82278645,1.8119624,0.21677577,0.22272897,0.95047367,0
2.1892443,-1.2182866,-0.025537729,0.87761444,-0.47087809,-0.089815617,0
2.6254499,1.7193857,1.5581015,0.21677577,0.22272897,0.95047367,0
2.353183,-0.82777858,-0.78690624,0.94388771,-0.29632482,-0.14583457,0
