3.290787,2.4678662,-1.265444,0.92747051,0.24549901,-0.28200823,0
-3.1211448,-2.4987252,1.4866588,-0.92747051,-0.24549901,0.28200823,0
-0.55456972,1.4192095,2.1644685,0.072856426,0.62112117,0.7803207,0
-3.2480779,0.67283964,2.9482021,0.06851691,0.62987435,0.77366889,0
-4.5346999,0.3402667,-0.14770281,-0.92747051,-0.24549901,0.28200823,0
3.2025743,-1.6052976,-1.7286806,0.15402028,-0.93813241,-0.31013751,0
1.7391748,-1.8274282,-1.3690202,0.11658632,-0.9065246,-0.40573484,0
-4.331296,-1.3161387,-1.2338003,-0.92747051,-0.24549901,0.28200823,0
1.6311944,-1.857424,0.67708004,0.3414461,-0.86346555,0.3712703,0
-2.472724,-2.6534567,2.7297208,0.37261045,-0.66937423,0.64272809,0
-1.7854443,-1.6685292,2.9088318,0.36138439,-0.39511105,0.84456402,0
-3.438055,-0.49216413,-1.548321,-0.31442738,0.10398299,-0.9435693,0
2.9973133,3.2237575,-1.2754054,0.92747051,0.24549901,-0.28200823,0
3.569675,-0.73694587,0.9785099,0.37340915,-0.56969666,0.7321279,0
-0.23833764,1.5751237,2.0284934,0.045875341,0.67382467,0.73746574,0
3.6848238,2.189075,0.032742023,0.92747051,0.24549901,-0.28200823,0
-3.4815419,-2.8094153,0.28192735,-0.92747051,-0.24549901,0.28200823,0
1.4385113,2.902107,-0.010992765,-0.18882343,0.95853519,0.21343809,0
-2.0384769,2.0328069,0.53166032,-0.24194232,0.96910548,0.047942042,0
-4.3007436,-1.637074,-1.1869152,-0.92747051,-0.24549901,0.28200823,0
-2.188797,1.7747853,1.4462868,-0.1286028,0.91768169,0.37592757,0
3.037729,1.0871518,-3.4423237,0.92747051,0.24549901,-0.28200823,0
-2.8139737,0.52463174,3.066936,0.096642077,0.5712083,0.8150959,0
-4.1503944,1.4045846,1.2077433,-0.22983512,0.96925294,0.087888896,0
3.5616403,0.87543201,-1.3946534,0.92747051,0.24549901,-0.28200823,0
1.7996478,0.7724303,-3.1693735,-0.29342604,0.010449409,-0.95592469,0
-3.7774339,-0.44802904,1.7163804,-0.92747051,-0.24549901,0.28200823,0
-1.3859196,0.089140534,-2.1406956,-0.30861759,0.076858044,-0.94807595,0
4.5848966,-0.17040157,0.71313238,0.92747051,0.24549901,-0.28200823,0
3.5779381,1.6075337,-1.1977514,0.92747051,0.24549901,-0.28200823,0
3.8843808,1.0132399,-0.86597669,0.92747051,0.24549901,-0.28200823,0
-3.4014866,1.6930308,1.1359477,-0.23212999,0.96935374,0.080428958,0
2.5968962,-1.8231992,-0.014841795,0.31046635,-0.92595482,0.2149846,0
-3.2637537,-0.82853389,2.597579,-0.92747051,-0.24549901,0.28200823,0
-0.42904985,-2.6944091,0.87649035,0.29967082,-0.93913293,0.16800785,0
2.7878428,-1.4342263,0.70049655,0.36138129,-0.78209835,0.50766665,0
-3.9245691,-0.82050991,0.88807273,-0.92747051,-0.24549901,0.28200823,0
-4.2794662,-0.69111395,-0.26667058,-0.92747051,-0.24549901,0.28200823,0
4.0585108,0.89787054,-0.34487295,0.92747051,0.24549901,-0.28200823,0
-3.5479124,1.7410555,1.0376308,-0.24465734,0.96883392,0.038776577,0
-1.9372631,-2.2911804,-1.2843488,-0.028039187,-0.70644981,-0.70720744,0
1.9926379,-0.40608132,-2.9546018,-0.17444545,-0.3829948,-0.90712929,0
-2.0622687,-2.7629747,-0.36510706,0.092123941,-0.88103384,-0.46399617,0
-3.6236186,-0.80475903,1.8478546,-0.92747051,-0.24549901,0.28200823,0
2.8093681,-1.8632305,-0.68772829,0.25411487,-0.96715415,-0.0062102675,0
-1.4033802,0.67432904,-2.1069467,-0.35361493,0.33090776,-0.87490356,0
-4.0280848,-0.4537344,0.83013725,-0.92747051,-0.24549901,0.28200823,0
3.1975727,2.6112537,-1.3097401,0.92747051,0.24549901,-0.28200823,0
-0.86259842,-0.52074444,-2.3211017,-0.23859292,-0.19211251,-0.9519276,0
-2.4480624,-1.0324585,3.3718834,0.30223227,-0.048210949,0.95201427,0
2.687283,-1.5962487,-1.8242012,0.094080985,-0.88320637,-0.45945102,0
3.1512556,3.3636887,-1.1474285,0.92747051,0.24549901,-0.28200823,0
-1.9808748,0.72954166,-1.7782121,-0.35938787,0.37727657,-0.85352367,0
1.4060718,0.53468466,2.2081854,0.25895429,0.12229785,0.95811582,0
-3.8235476,-0.74648762,-1.5361991,-0.29815567,0.030494958,-0.95402992,0
-0.70631099,1.7517812,-1.6184686,-0.37278515,0.66526544,-0.64687932,0
-2.4621778,-1.2959027,3.2378898,0.33445752,-0.20757174,0.91926718,0
-3.2561789,1.8244185,0.70188016,-0.26162407,0.96495414,-0.020401299,0
-3.9508193,-2.3366623,-0.6359899,-0.92747051,-0.24549901,0.28200823,0
3.5850062,1.6850116,-0.64186454,0.92747051,0.24549901,-0.28200823,0
0.49095929,-0.89045215,-2.5166509,-0.14375532,-0.46212825,-0.87508392,0
-0.4062283,-0.73900062,-2.2658319,-0.19697398,-0.320274,-0.92662054,0
3.5150061,3.0361278,0.056575775,0.92747051,0.24549901,-0.28200823,0
3.5641315,-0.15613914,-2.3760829,0.92747051,0.24549901,-0.28200823,0
1.2191287,2.6623001,-1.7321346,-0.34666008,0.84720993,-0.40256929,0
-3.0154705,-2.4370263,2.4801435,-0.92747051,-0.24549901,0.28200823,0
-3.8248196,0.54255867,2.2522762,-0.92747051,-0.24549901,0.28200823,0
2.3095877,-1.9523797,0.13618374,0.31442648,-0.92024893,0.23297584,0
3.5325637,1.5422049,-1.4477428,0.92747051,0.24549901,-0.28200823,0
-3.0704341,-2.9885285,1.4228404,-0.92747051,-0.24549901,0.28200823,0
1.253144,2.694169,-1.5349579,-0.34575117,0.85022503,-0.39695519,0
0.74404907,0.44610563,-2.7493794,-0.2894907,-0.0058398545,-0.95716298,0
4.1410775,-0.70627904,-0.86869228,0.92747051,0.24549901,-0.28200823,0
3.4463072,0.36640692,1.446391,0.32211101,-0.14165658,0.93604362,0
-3.5294178,-1.1185656,-1.4900699,-0.25677186,-0.1300455,-0.95768273,0
-3.5905004,0.18450427,2.4939885,-0.92747051,-0.24549901,0.28200823,0
-0.25746146,-2.3821707,-0.82343292,0.12712909,-0.91636336,-0.37962651,0
-0.48602366,-0.48060066,2.6906075,0.31211221,-0.09304437,0.94547808,0
-4.1150837,-1.5562716,-1.0269188,-0.92747051,-0.24549901,0.28200823,0
0.50747085,-1.6956117,1.9428009,0.37383556,-0.62245554,0.68760157,0
-4.2130294,0.046348095,0.16422212,-0.92747051,-0.24549901,0.28200823,0
3.6333451,-0.11928415,-2.1326013,0.92747051,0.24549901,-0.28200823,0
-1.6743956,0.83366269,2.7017965,0.113729,0.53327036,0.83826512,0
4.1763945,1.1536899,0.63016748,0.92747051,0.24549901,-0.28200823,0
-4.213975,-0.32302856,-0.2599628,-0.92747051,-0.24549901,0.28200823,0
-3.9609885,-1.9905195,-0.45431399,-0.92747051,-0.24549901,0.28200823,0
4.27,0.16698647,-0.20538753,0.92747051,0.24549901,-0.28200823,0
-3.3822122,-0.74790835,2.1687493,-0.92747051,-0.24549901,0.28200823,0
-0.62825936,2.3328831,0.18662071,-0.24337462,0.96897346,0.04311645,0
3.7552807,-0.44538975,-1.9354161,0.92747051,0.24549901,-0.28200823,0
-3.8000045,0.4050343,1.7023703,-0.92747051,-0.24549901,0.28200823,0
2.1534986,-1.0345566,-2.4393742,-0.046612501,-0.67243892,-0.73868346,0
4.5559163,-0.79080915,-0.099598549,0.92747051,0.24549901,-0.28200823,0
-4.0615597,1.411839,1.3315914,-0.23207602,0.96935201,0.08060509,0
1.6129248,0.67034566,-3.1801317,-0.28826493,-0.010845721,-0.95748925,0
3.9752066,-0.86725616,0.75932497,0.37308252,-0.65738314,0.65471888,0
3.8900058,1.0349336,-0.71097529,0.92747051,0.24549901,-0.28200823,0
-2.163939,-2.5920987,2.4683585,0.36907589,-0.72184521,0.5854249,0
-3.8158231,0.24164724,-1.2435857,-0.36317921,0.41223025,-0.8355639,0
4.17699,-1.2450387,-1.6146654,0.92747051,0.24549901,-0.28200823,0
3.9223661,2.4713717,0.88015842,0.92747051,0.24549901,-0.28200823,0
-3.721117,-2.6988735,-0.52928448,-0.92747051,-0.24549901,0.28200823,0
-1.49029,1.6039085,1.9366627,-0.035433173,0.80855823,0.58734822,0
0.69164443,-1.253231,2.0004714,0.36698508,-0.45337111,0.81226623,0
-4.5344353,0.038582325,-0.774158,-0.92747051,-0.24549901,0.28200823,0
-1.7853143,2.1220355,-0.19958007,-0.31567556,0.91834062,-0.23874497,0
-3.3837931,1.6682246,1.4554317,-0.19061022,0.95932305,0.20824754,0
2.996691,-1.8092978,-0.14854145,0.31424081,-0.92052794,0.2321223,0
-3.4279358,-3.088192,0.17057204,-0.92747051,-0.24549901,0.28200823,0
-4.289372,0.51911259,0.54607785,-0.92747051,-0.24549901,0.28200823,0
4.2882142,-0.28943491,-0.07518369,0.92747051,0.24549901,-0.28200823,0
-3.8245139,0.60519743,2.1630073,-0.92747051,-0.24549901,0.28200823,0
2.4605913,3.0307355,0.19643998,-0.11451066,0.90450448,0.4108026,0
-2.9424772,-2.511992,2.6485534,-0.92747051,-0.24549901,0.28200823,0
-3.5175869,-0.21007156,2.370275,-0.92747051,-0.24549901,0.28200823,0
-3.4979715,-2.3521821,0.90535498,-0.92747051,-0.24549901,0.28200823,0
-2.763567,-1.7477062,3.2529519,-0.92747051,-0.24549901,0.28200823,0
3.2635307,1.7114708,-1.6764898,0.92747051,0.24549901,-0.28200823,0
3.5152395,0.11299658,-2.5865991,0.92747051,0.24549901,-0.28200823,0
-0.3778348,0.32254043,-2.3780994,-0.31815898,0.12200475,-0.94015402,0
-2.8037267,-2.0545878,3.0537903,-0.92747051,-0.24549901,0.28200823,0
-0.88770032,-0.22307545,2.807585,0.26819813,0.088702947,0.95927131,0
-1.411257,1.4863098,-1.3396442,-0.37167722,0.68741024,-0.62395751,0
-3.1821587,-3.1632521,0.66023564,-0.92747051,-0.24549901,0.28200823,0
-3.4318726,1.0133216,2.6480422,0.0084937811,0.7402131,0.67231858,0
-1.5685602,-2.2034588,-1.2965205,-0.030595422,-0.70188087,-0.7116369,0
4.0704169,1.6780691,0.43936229,0.92747051,0.24549901,-0.28200823,0
3.2194991,1.7791555,-2.1630306,0.92747051,0.24549901,-0.28200823,0
-4.3602977,1.0180485,0.64800251,-0.92747051,-0.24549901,0.28200823,0
1.4772862,1.4594237,1.8877454,0.15734506,0.42793241,0.89000922,0
-3.8435855,-0.014057636,-1.2594675,-0.34609878,0.27831757,-0.89596593,0
-2.5433922,0.88464415,2.702991,0.060338438,0.64608115,0.76088005,0
-3.7295651,-2.4113421,-0.13446927,-0.92747051,-0.24549901,0.28200823,0
-3.7378592,-2.1840749,0.12688279,-0.92747051,-0.24549901,0.28200823,0
-0.49144936,-1.645817,-1.9178457,-0.067758322,-0.63139355,-0.77249652,0
-4.4197655,0.63687086,0.24577183,-0.92747051,-0.24549901,0.28200823,0
4.1387625,-0.67816234,-0.97806311,0.92747051,0.24549901,-0.28200823,0
3.7312183,2.5900478,0.14587307,0.92747051,0.24549901,-0.28200823,0
-4.4074779,-1.3049383,-1.1922235,-0.92747051,-0.24549901,0.28200823,0
0.34124267,-2.4609532,0.77791953,0.31524092,-0.91901088,0.23673201,0
-1.3961878,1.9743789,1.4377966,-0.11162875,0.9016552,0.41780019,0
1.8553202,0.4134624,-3.0835483,-0.25730717,-0.12815118,-0.95779443,0
3.3438225,-1.1656742,-2.4155421,0.038858205,-0.81344682,-0.58033979,0
1.6423048,-1.8173684,-1.3978515,0.11099812,-0.90102476,-0.41932553,0
-3.6479039,-1.5755904,0.82376242,-0.92747051,-0.24549901,0.28200823,0
3.2726178,2.0119157,-1.9768431,0.92747051,0.24549901,-0.28200823,0
2.6974831,0.049848318,1.8475006,0.32536137,-0.15829933,0.93224514,0
3.1876416,1.0238874,-2.932425,0.92747051,0.24549901,-0.28200823,0
-0.630229,-1.2924228,-2.0514457,-0.14529842,-0.45831019,-0.87683523,0
-1.8265159,0.9642849,-1.7464894,-0.36796713,0.46552956,-0.80491138,0
-2.4018447,0.25282669,3.066287,0.18054569,0.36642161,0.91276413,0
2.2937715,-0.76527619,-2.9418647,-0.10999775,-0.54170752,-0.83333874,0
-1.5283294,2.2115679,0.28446174,-0.25265998,0.96748924,0.011286557,0
3.3226433,1.8706439,-1.3231235,0.92747051,0.24549901,-0.28200823,0
-3.4768391,-0.29153228,2.2416999,-0.92747051,-0.24549901,0.28200823,0
-2.5462267,-0.62967467,-1.7863741,-0.26977777,-0.082829565,-0.95935345,0
2.8862689,2.63293,0.58269167,-0.017012715,0.78116971,0.62408686,0
-3.6150589,-0.27849174,2.0079868,-0.92747051,-0.24549901,0.28200823,0
3.7014847,-0.6045866,-2.2863321,0.92747051,0.24549901,-0.28200823,0
-0.17838645,-2.4527643,0.91844583,0.31610459,-0.91767269,0.24073756,0
1.0596642,-1.0874796,-2.3182054,-0.08628726,-0.59334385,-0.80031091,0
-3.8071742,1.0520885,-0.73488939,-0.37140024,0.69191295,-0.61912692,0
1.5531482,-2.122153,0.44956553,0.32316011,-0.90569937,0.27436471,0
-4.4588175,0.77158976,-0.574256,-0.37129837,0.69349962,-0.61741042,0
0.45177031,-1.2745608,-2.2423968,-0.092076659,-0.58104593,-0.80864549,0
2.8464053,1.7950053,1.4850081,0.14094514,0.46903929,0.87185818,0
3.9501915,0.80536842,1.5000823,0.30325556,-0.05272603,0.95144939,0
1.5403818,-0.49746746,-2.8963208,-0.16041398,-0.42002776,-0.89322108,0
1.9678106,0.048534632,2.0743194,0.30767965,-0.072576553,0.94871795,0
4.2582026,-0.50903225,-0.33926058,0.92747051,0.24549901,-0.28200823,0
-1.7962849,0.25246894,3.0026541,0.19745666,0.31888372,0.92699736,0
-3.3629398,-2.7479193,0.86279631,-0.92747051,-0.24549901,0.28200823,0
-3.917624,-0.90163183,0.24944854,-0.92747051,-0.24549901,0.28200823,0
2.9498863,-0.76617527,-2.9823804,-0.076820374,-0.61303145,-0.78631485,0
3.1016977,1.9157214,-2.3437021,0.92747051,0.24549901,-0.28200823,0
-3.6803248,-2.7170703,-0.0049779415,-0.92747051,-0.24549901,0.28200823,0
2.7042718,-0.67428565,1.4032159,0.36915028,-0.4814508,0.7949422,0
-4.2661552,1.3798575,0.77667725,-0.29338866,0.94540513,-0.14188701,0
-3.1097441,-1.3164129,-1.5581996,-0.21904093,-0.254504,-0.94193888,0
-3.7405953,-2.1810393,0.22196555,-0.92747051,-0.24549901,0.28200823,0
4.0044603,-0.63074994,-1.6565125,0.92747051,0.24549901,-0.28200823,0
-4.7300072,0.39172983,-0.73302317,-0.92747051,-0.24549901,0.28200823,0
-3.8736453,0.87330675,1.8736343,-0.92747051,-0.24549901,0.28200823,0
0.27918491,2.4680774,0.74602628,-0.14232874,0.92927194,0.34087545,0
-1.8936417,1.8079211,1.3521371,-0.14088912,0.92811573,0.34460336,0
-1.2094941,-2.7802606,0.92419195,0.29761404,-0.94129086,0.15936506,0
-2.8004251,-0.25049257,-1.6531891,-0.3129015,0.096753567,-0.94484466,0
1.7013546,2.7629476,0.53836608,-0.095249102,0.88449222,0.4567287,0
4.4431767,-0.76630688,-0.57963687,0.92747051,0.24549901,-0.28200823,0
-3.1599486,-3.05549,-0.3761642,0.067625329,-0.85194576,-0.51924497,0
4.0134182,0.91265965,-0.30651367,0.92747051,0.24549901,-0.28200823,0
1.7336795,-1.2095385,1.6926037,0.37281525,-0.54990143,0.74740684,0
2.9889646,1.1595941,-3.358923,0.92747051,0.24549901,-0.28200823,0
-4.34763,-0.5382247,-0.82012838,-0.92747051,-0.24549901,0.28200823,0
-0.51899672,0.26713794,2.6183884,0.2196449,0.25263759,0.9423005,0
-2.4800444,-1.747782,3.1387153,0.35461438,-0.33848512,0.87159413,0
-3.6219215,-2.2370346,0.48885012,-0.92747051,-0.24549901,0.28200823,0
3.295119,-1.5951965,-0.57598746,0.28665155,-0.95113921,0.11473823,0
4.5607886,-0.53212833,0.12727226,0.92747051,0.24549901,-0.28200823,0
-1.0184894,-1.2346196,2.8678527,0.34419584,-0.2660017,0.90042889,0
4.3094659,1.4108477,0.95635009,0.92747051,0.24549901,-0.28200823,0
3.764117,2.1390285,0.00012588501,0.92747051,0.24549901,-0.28200823,0
-1.4259062,-2.9611359,-0.11397457,0.17233002,-0.95003039,-0.26027793,0
-3.3361771,-1.3386366,1.745769,-0.92747051,-0.24549901,0.28200823,0
-3.2207115,-1.6495433,1.9402192,-0.92747051,-0.24549901,0.28200823,0
1.3244524,2.8601184,-0.22884512,-0.22622374,0.96897745,0.099526048,0
3.3320494,3.0765316,-0.81498218,0.92747051,0.24549901,-0.28200823,0
-3.5341752,-2.7158644,-0.74508023,-0.027023584,-0.70825529,-0.70543897,0
1.6566668,-1.3669767,-2.3999496,-0.035396248,-0.69320363,-0.719872,0
-3.9717915,-1.5291681,-0.55899954,-0.92747051,-0.24549901,0.28200823,0
-3.5992136,0.65942097,2.8230572,-0.92747051,-0.24549901,0.28200823,0
1.2348828,0.13043749,2.2155869,0.29153144,-0.0025647879,0.95655775,0
3.0893312,0.49710083,-3.4550495,0.92747051,0.24549901,-0.28200823,0
-3.7294493,-2.0838857,-0.1430254,-0.92747051,-0.24549901,0.28200823,0
4.2462115,0.091900349,0.12589741,0.92747051,0.24549901,-0.28200823,0
-1.2570748,1.2568229,2.247107,0.064570725,0.63774133,0.7675392,0
-1.4528797,1.4058281,-1.6801751,-0.37375379,0.58793306,-0.71738589,0
-3.2952425,-2.0972857,1.4100435,-0.92747051,-0.24549901,0.28200823,0
-3.7388957,1.4816287,0.40889418,-0.31408423,0.92076248,-0.23140329,0
-3.7373981,-2.5315971,-0.27222013,-0.92747051,-0.24549901,0.28200823,0
-2.2575679,-0.15897632,-1.8487773,-0.319363,0.1279273,-0.93895775,0
-3.5750785,1.7209306,1.1263044,-0.22836474,0.96915781,0.09264183,0
-1.0972631,-2.9284303,0.13811922,0.20022646,-0.96309125,-0.17990172,0
1.4634244,2.2624698,-2.357228,-0.37170708,0.68690616,-0.62449455,0
0.094355822,2.6008027,0.40759158,-0.18031585,0.95442128,0.23783648,0
3.8884671,1.5566773,-0.058594942,0.92747051,0.24549901,-0.28200823,0
-1.1338742,-1.0996726,2.8818741,0.3339299,-0.20459151,0.92012662,0
4.0705261,-1.0479133,0.29421926,0.36338377,-0.76944572,0.52526695,0
1.7940733,-0.58924735,-2.889838,-0.15603608,-0.43128312,-0.88862121,0
1.5179644,-1.9779471,0.6520195,0.33219278,-0.88720942,0.32016778,0
-0.25731421,-0.29507846,-2.5321465,-0.2535221,-0.14145839,-0.9569304,0
-4.1403241,-1.5130053,-0.71843839,-0.92747051,-0.24549901,0.28200823,0
3.7640412,2.5594983,0.48075581,0.92747051,0.24549901,-0.28200823,0
-4.164041,-1.4883699,-0.48063326,-0.92747051,-0.24549901,0.28200823,0
3.6507831,0.55579996,-1.6109431,0.92747051,0.24549901,-0.28200823,0
1.5463953,-2.1234319,-0.34762335,0.2405178,-0.96921194,-0.052719831,0
-4.1488161,0.78811121,0.97323573,-0.92747051,-0.24549901,0.28200823,0
-4.1119761,-0.76680517,-0.34449792,-0.92747051,-0.24549901,0.28200823,0
3.4482639,2.5850904,-0.83822417,0.92747051,0.24549901,-0.28200823,0
-0.42034936,-0.17822921,2.7951047,0.28311378,0.031544417,0.95856738,0
1.3168061,-1.9704443,-1.5656734,0.09133476,-0.88015133,-0.46582341,0
3.2565675,0.97302246,-2.3814945,0.92747051,0.24549901,-0.28200823,0
-1.4138082,-0.452232,-2.1717734,-0.27194351,-0.074710846,-0.95940858,0
-3.8164368,-2.0360355,-0.22175479,-0.92747051,-0.24549901,0.28200823,0
3.4561496,1.0404487,-1.7005098,0.92747051,0.24549901,-0.28200823,0
0.29730776,2.399471,1.13553,-0.082105577,0.86955917,0.48695534,0
0.79502559,2.8623619,-0.50441241,-0.25318182,0.9673723,0.0094687939,0
1.9294018,0.73302507,2.1104782,0.25959617,0.12000611,0.95823181,0
-4.1551666,-0.72845221,-0.448452,-0.92747051,-0.24549901,0.28200823,0
-3.0881143,-1.3417857,2.8002944,-0.92747051,-0.24549901,0.28200823,0
4.1882725,-1.4379861,-1.4639392,0.22386137,-0.96872151,-0.10707277,0
-4.3826351,0.081923485,-0.35020649,-0.92747051,-0.24549901,0.28200823,0
-2.7979796,1.2720001,-1.0418423,-0.37218064,0.67834955,-0.6335007,0
4.456214,-1.2891617,-0.98146236,0.92747051,0.24549901,-0.28200823,0
3.0920534,1.5457256,-2.9012451,0.92747051,0.24549901,-0.28200823,0
3.7814038,-1.453115,-1.7739842,0.14510481,-0.93146175,-0.33365172,0
-3.728672,-1.7180586,0.13599157,-0.92747051,-0.24549901,0.28200823,0
-2.051645,-1.6334732,3.0063853,0.3596518,-0.37957022,0.85239482,0
3.1663787,3.2697608,-0.92241788,0.92747051,0.24549901,-0.28200823,0
-1.4368854,-3.0012512,0.75433016,0.26451319,-0.96388906,0.030830443,0
0.88704878,1.857789,1.4507009,0.034065813,0.69562095,0.71760088,0
-3.9237752,-0.66484451,0.8822875,-0.92747051,-0.24549901,0.28200823,0
-2.8060782,0.48486447,3.1067379,0.1126579,0.53570122,0.83685863,0
-3.0770757,-2.6718144,1.5983284,-0.92747051,-0.24549901,0.28200823,0
4.2924848,-1.0345967,-1.3217764,0.92747051,0.24549901,-0.28200823,0
-3.7222087,-2.6796379,-0.61976075,-0.92747051,-0.24549901,0.28200823,0
1.2572773,-1.4824237,1.7465388,0.37389576,-0.60778731,0.70056862,0
2.7402482,-1.7554368,-0.35231245,0.29263955,-0.94609153,0.13882601,0
4.3126307,-0.20989132,-0.49490684,0.92747051,0.24549901,-0.28200823,0
-3.1773734,0.1743679,-1.5215142,-0.35412765,0.33477375,-0.87322402,0
-3.8606977,-1.5370774,0.38597155,-0.92747051,-0.24549901,0.28200823,0
1.4457672,2.1354628,-2.6509805,-0.37346125,0.57189494,-0.73038542,0
4.5110512,0.18689585,0.92689049,0.92747051,0.24549901,-0.28200823,0
0.26112634,-1.8720357,-1.7774944,0.0022169352,-0.75783938,-0.65243733,0
3.1195199,3.2260518,-0.89756513,0.92747051,0.24549901,-0.28200823,0
3.6745534,1.7394826,-0.53320217,0.92747051,0.24549901,-0.28200823,0
3.8347883,1.3896332,1.4574848,0.22971404,0.22096419,0.9478429,0
3.9332318,-1.0783114,-1.989965,0.92747051,0.24549901,-0.28200823,0
-1.7929258,0.35430646,-2.0680268,-0.33741391,0.22459397,-0.91417134,0
-3.2818122,-0.028493643,3.2203853,-0.92747051,-0.24549901,0.28200823,0
3.6189332,0.026077747,-2.1113985,0.92747051,0.24549901,-0.28200823,0
0.47244453,-1.8902225,1.7280645,0.37249368,-0.67195928,0.64009309,0
3.3917475,-0.29573321,-3.0838122,0.92747051,0.24549901,-0.28200823,0
-4.3259106,0.38886499,0.19231325,-0.92747051,-0.24549901,0.28200823,0
0.24652863,-2.0712645,1.4524717,0.35917258,-0.79456782,0.48954761,0
-3.6517777,-2.1337268,0.36429405,-0.92747051,-0.24549901,0.28200823,0
-2.6618669,-3.2822969,1.3371427,0.28884399,-0.94937968,0.12348038,0
2.993751,1.4380653,-3.1593442,0.92747051,0.24549901,-0.28200823,0
-3.6376777,-1.70542,-1.3611809,-0.17655939,-0.377285,-0.90911102,0
-2.7155488,0.88134146,2.7052155,0.065725386,0.63544858,0.76934075,0
2.813097,3.3004441,-1.6614826,-0.30772543,0.92961478,-0.20278412,0
-2.8079028,-0.78620553,3.3750389,0.26810473,0.089048862,0.95926535,0
0.46953964,0.30713111,2.3794303,0.2623089,0.11025488,0.9586646,0
-0.098174334,2.3854938,-1.3817148,-0.35141855,0.82993555,-0.43325716,0
-3.0660143,-1.4882278,2.8876615,-0.92747051,-0.24549901,0.28200823,0
-1.876812,-0.58396506,-2.1115489,-0.26304829,-0.10757786,-0.95876604,0
1.8168747,2.2613142,1.1476406,0.0081826448,0.7407338,0.67174876,0
2.8142123,0.64948082,-3.3857846,-0.2713663,-0.076882243,-0.95940042,0
-1.4740732,-2.7816782,1.8297048,0.34997302,-0.83546966,0.42368537,0
3.933835,0.27990437,-1.0349748,0.92747051,0.24549901,-0.28200823,0
3.4727511,-0.14110923,-3.1161728,0.92747051,0.24549901,-0.28200823,0
3.6429057,0.11744452,-1.7903849,0.92747051,0.24549901,-0.28200823,0
4.0832529,0.036381245,-0.94945782,0.92747051,0.24549901,-0.28200823,0
-3.1725214,0.66816282,2.9058614,0.074290991,0.61820394,0.78249896,0
3.6700208,0.78168774,1.4609244,0.28972328,0.0048867762,0.95709789,0
4.3546233,0.29316664,0.28558892,0.92747051,0.24549901,-0.28200823,0
-2.9617324,1.4051521,-0.69281971,-0.36503857,0.75774711,-0.54089367,0
-1.2226732,1.8326612,1.6580384,-0.053175375,0.83318305,0.55043453,0
1.3436681,-2.3003912,0.095269442,0.28248596,-0.95421529,0.098360598,0
2.7164242,-1.0334563,1.2414889,0.37335455,-0.56751192,0.73385036,0
1.8950338,-1.5511522,-1.8765922,0.056979358,-0.83823591,-0.54232258,0
-4.1122031,1.2360096,1.7661775,-0.92747051,-0.24549901,0.28200823,0
-4.4224081,0.2518549,0.097383797,-0.92747051,-0.24549901,0.28200823,0
-4.5002799,-0.96587801,-1.1871839,-0.92747051,-0.24549901,0.28200823,0
0.2243638,-0.51019168,2.4874003,0.32368207,-0.14964435,0.93425703,0
-3.3193452,-0.49959421,2.8930378,-0.92747051,-0.24549901,0.28200823,0
-2.2702591,-2.1429763,2.9376974,0.37064326,-0.504399,0.7798751,0
-3.8873119,-0.43335629,0.85746843,-0.92747051,-0.24549901,0.28200823,0
3.157367,2.4088008,-1.7108607,0.92747051,0.24549901,-0.28200823,0
0.01235199,-0.69123244,-2.4348814,-0.2059716,-0.29400802,-0.93334609,0
0.57963848,0.25962085,2.4578848,0.26566195,0.09804973,0.95906717,0
4.3408947,-1.2334032,-1.035693,0.92747051,0.24549901,-0.28200823,0
-3.0165026,-2.4695163,2.343668,-0.92747051,-0.24549901,0.28200823,0
-0.36742163,-0.11850899,-2.3934605,-0.27335727,-0.069369197,-0.95940804,0
3.5252814,-1.6553085,-0.86411881,0.2485553,-0.96828252,-0.025476992,0
3.4872179,1.8924522,-1.2359886,0.92747051,0.24549901,-0.28200823,0
2.6137662,2.6891155,0.76555848,-0.0078347921,0.76683694,0.64179409,0
-0.33273625,2.4282568,-0.80038309,-0.31348372,0.92165399,-0.22865212,0
3.2168477,1.080714,-2.3491335,0.92747051,0.24549901,-0.28200823,0
-3.8115942,1.5603273,1.394681,-0.20478979,0.96459234,0.16620094,0
3.8458924,1.221364,-0.15680504,0.92747051,0.24549901,-0.28200823,0
-3.7037611,-0.72562218,1.0431639,-0.92747051,-0.24549901,0.28200823,0
-0.59784865,-1.6028936,2.5316992,0.36683202,-0.45154694,0.81335074,0
-3.4247317,-2.2296097,0.84996772,-0.92747051,-0.24549901,0.28200823,0
-0.64755011,-2.0807228,2.1032267,0.37362713,-0.63715065,0.67412299,0
-3.2550495,1.72417,1.3253037,-0.19829559,0.96239948,0.18564987,0
0.51329255,1.1197957,-2.7090197,-0.34933031,0.30008021,-0.88764858,0
-3.3957653,-0.24045753,2.9545426,-0.92747051,-0.24549901,0.28200823,0
2.5176384,-0.76847553,-2.9649439,-0.096387804,-0.57175946,-0.81473947,0
3.7598801,0.82915211,-0.86119223,0.92747051,0.24549901,-0.28200823,0
-1.2990378,-2.8918669,0.31289601,0.22697923,-0.96904683,-0.097101688,0
2.4704375,2.2513795,-2.8062515,-0.37340581,0.56955796,-0.73223734,0
1.7354143,2.1148,-2.6120336,-0.37220538,0.53457296,-0.75874543,0
-1.0744746,1.9174185,1.5403886,-0.061340824,0.84392971,0.5329352,0
-0.99405384,2.3436985,0.68738806,-0.17747852,0.95291883,0.24586004,0
-0.2165935,-2.1223476,1.8142085,0.3657257,-0.75248235,0.54773617,0
1.2985394,-1.6190292,1.37198,0.37051994,-0.70460594,0.60518205,0
4.5456657,0.43925905,1.2402437,0.32932127,-0.17922422,0.92705238,0
-3.4185283,0.71501637,3.0472381,0.056407601,0.65373665,0.75461686,0
3.3391767,1.2121158,-1.8970777,0.92747051,0.24549901,-0.28200823,0
2.970659,3.1415062,-1.5525444,0.92747051,0.24549901,-0.28200823,0
3.4026074,2.6475735,-0.80896544,0.92747051,0.24549901,-0.28200823,0
-1.3636396,-2.4754753,-1.0426259,0.043775514,-0.82035291,-0.57017958,0
3.349004,-0.16102314,-3.2245607,-0.13712794,-0.47834104,-0.86740166,0
-3.4518027,-1.1046534,1.5494546,-0.92747051,-0.24549901,0.28200823,0
-3.519259,-2.5753613,0.32728171,-0.92747051,-0.24549901,0.28200823,0
-4.2246623,-0.34707785,-0.024062634,-0.92747051,-0.24549901,0.28200823,0
-3.8752899,-0.22663164,0.93508297,-0.92747051,-0.24549901,0.28200823,0
-1.1434207,-1.3294325,2.7453804,0.34801567,-0.29108942,0.89115196,0
-4.3456841,-0.53934908,-0.64603585,-0.92747051,-0.24549901,0.28200823,0
-0.52865791,0.24707407,2.6666679,0.22719276,0.22899622,0.94654322,0
4.2508821,-1.0935428,-1.1802051,0.92747051,0.24549901,-0.28200823,0
1.4758917,1.7550528,1.6245821,0.084744155,0.59658855,0.79806042,0
-2.8289714,-1.9455934,3.2902672,0.35869884,-0.3713713,0.8563984,0
-3.5349174,0.46101093,2.9621449,-0.92747051,-0.24549901,0.28200823,0
3.209543,2.1705594,-1.8786533,0.92747051,0.24549901,-0.28200823,0
-3.3402691,-2.0906572,1.3724036,-0.92747051,-0.24549901,0.28200823,0
4.104229,1.1733556,0.31758094,0.92747051,0.24549901,-0.28200823,0
-3.1076429,1.5567832,-0.30936348,-0.34295434,0.85901105,-0.3801083,0
3.2758141,2.0819261,-1.3087895,0.92747051,0.24549901,-0.28200823,0
3.9055748,-0.81821465,-2.2725706,0.92747051,0.24549901,-0.28200823,0
1.5447915,-0.52246296,2.0030124,0.34715545,-0.28531042,0.89335364,0
-3.912405,-0.75079584,0.65720975,-0.92747051,-0.24549901,0.28200823,0
-3.4893553,-0.39771533,2.1741755,-0.92747051,-0.24549901,0.28200823,0
-3.5424094,0.68427658,2.9849305,-0.92747051,-0.24549901,0.28200823,0
-0.17392677,-1.9605049,-1.6617384,-0.0041563809,-0.74742562,-0.66433251,0
-3.2232146,1.5168576,1.6924028,-0.14764464,0.93341875,0.32700223,0
0.80355549,-0.5060389,2.2283955,0.33039105,-0.1850104,0.92553377,0
0.2319386,-1.924734,-1.5633276,0.013421953,-0.77561647,-0.63106179,0
2.7244406,2.2551527,-3.1335082,0.92747051,0.24549901,-0.28200823,0
-2.9587629,1.1970016,2.3392646,-0.02639401,0.79534882,0.60557705,0
2.8990536,0.40574002,1.6784834,0.30515027,-0.061160356,0.95033813,0
3.4436674,3.0266645,-0.47253823,0.92747051,0.24549901,-0.28200823,0
-3.0557575,-1.529222,2.5637498,-0.92747051,-0.24549901,0.28200823,0
-2.7587798,-3.309011,0.75552416,0.21784964,-0.96780843,-0.12604898,0
4.2918754,0.28635979,1.1307371,0.3425734,-0.25576222,0.9040072,0
3.663898,2.5549684,0.042527437,0.92747051,0.24549901,-0.28200823,0
-1.6638716,0.19696224,2.9565797,0.19966012,0.31250921,0.92869473,0
3.5056133,2.9339526,-0.052335262,0.92747051,0.24549901,-0.28200823,0
0.41710687,-2.5138919,0.083123922,0.25754273,-0.96624917,0.0058512092,0
-3.7572489,1.2816641,2.0433645,-0.11910385,0.90893829,0.39955634,0
3.3806281,0.63045883,-2.8419523,0.92747051,0.24549901,-0.28200823,0
3.2225935,1.0597541,1.5275127,0.24568355,0.16840515,0.95460939,0
4.0885043,-1.5294869,-0.73715138,0.27943927,-0.95625305,0.086566567,0
3.5931036,-0.38511682,-3.042001,0.92747051,0.24549901,-0.28200823,0
-3.7700949,-0.44555569,1.5159386,-0.92747051,-0.24549901,0.28200823,0
-0.33774936,1.2477943,2.2734225,0.09863919,0.56686556,0.81788361,0
1.5548036,2.4911468,-2.2206888,-0.36759073,0.73663819,-0.56766284,0
-3.8939424,-2.4883962,-1.0124121,-0.09583348,-0.57295966,-0.81396139,0
-1.9835985,0.25041413,-2.0031726,-0.32978845,0.18174347,-0.92639565,0
2.9717271,2.3114605,1.1418648,0.059077442,0.64854646,0.75887901,0
3.5114865,2.9973257,-0.18815875,0.92747051,0.24549901,-0.28200823,0
-1.0315487,-2.6879184,-0.051711798,0.18159676,-0.95507848,-0.23419601,0
3.5039408,-0.24260712,-3.0192349,0.92747051,0.24549901,-0.28200823,0
-3.9024796,-0.026177883,1.0593321,-0.92747051,-0.24549901,0.28200823,0
2.7955525,1.8278241,1.538988,0.15157288,0.44261581,0.88380814,0
2.3488379,-0.64680004,-2.9293084,-0.11845684,-0.52245468,-0.84439862,0
-3.8925707,-0.93401384,0.70697737,-0.92747051,-0.24549901,0.28200823,0
4.2766838,-1.2594888,0.049321175,0.35161072,-0.82917941,0.43454719,0
3.2825356,3.2436337,-0.52342796,0.92747051,0.24549901,-0.28200823,0
-0.91423273,1.9531219,-1.3103946,-0.35859221,0.79762876,-0.48497415,0
1.3925625,-1.6909359,-1.7232937,0.046737254,-0.82444817,-0.56400418,0
-1.9076884,-2.4057226,2.466531,0.37172109,-0.68666875,0.62474734,0
4.1419616,-0.53469324,-1.3582611,0.92747051,0.24549901,-0.28200823,0
-1.9847827,-2.2903876,2.6881363,0.37379539,-0.59128511,0.71460414,0
-0.25874209,1.5478635,-2.0652699,-0.37260294,0.54419166,-0.75167966,0
3.7704546,-0.86700416,-2.8279142,0.92747051,0.24549901,-0.28200823,0
-0.64232564,-1.601127,2.4133065,0.36772335,-0.46243322,0.80680543,0
-3.2016225,1.6388314,1.2540824,-0.20010561,0.96304882,0.18026263,0
4.275403,-0.085389137,-0.47581649,0.92747051,0.24549901,-0.28200823,0
-4.1793013,-0.95854044,-0.32160544,-0.92747051,-0.24549901,0.28200823,0
3.4255481,0.0081231594,-2.876936,0.92747051,0.24549901,-0.28200823,0
3.2317445,2.8243406,-1.0440221,0.92747051,0.24549901,-0.28200823,0
2.4135604,-0.98634958,-2.6438103,-0.042506039,-0.68012142,-0.73186618,0
0.50760198,-0.2214368,2.5333874,0.30233729,-0.048672408,0.95195758,0
-3.2543595,-1.8556361,2.1014285,-0.92747051,-0.24549901,0.28200823,0
1.7851028,2.9018354,0.20978308,-0.14881769,0.93430746,0.3239181,0
3.0671496,3.1365483,-1.263186,0.92747051,0.24549901,-0.28200823,0
4.3193212,1.1175108,0.66117239,0.92747051,0.24549901,-0.28200823,0
-0.79183072,2.3612823,0.2644248,-0.24202317,0.96909869,0.047670364,0
2.4429564,0.42589211,1.7722527,0.30060565,-0.041090518,0.95286292,0
-2.1085274,1.0308771,-1.6464077,-0.37029302,0.49864805,-0.78373015,0
-1.5700375,-2.9760089,0.34308791,0.22640535,-0.96899474,-0.09894383,0
-4.3723741,0.16190672,-0.14781654,-0.92747051,-0.24549901,0.28200823,0
-4.3221207,-1.406199,-0.96586108,-0.92747051,-0.24549901,0.28200823,0
-3.9861844,-1.8682265,-0.82564116,-0.92747051,-0.24549901,0.28200823,0
3.7278943,-0.71993566,-2.4154789,0.92747051,0.24549901,-0.28200823,0
1.1176623,-0.19820827,-2.8294201,-0.22101647,-0.24838573,-0.94310987,0
3.775543,1.1201987,1.465377,0.25688219,0.12965554,0.95770609,0
-3.5173197,-1.0829201,1.7763693,-0.92747051,-0.24549901,0.28200823,0
4.0556612,1.3828292,0.1511066,0.92747051,0.24549901,-0.28200823,0
0.85844278,0.21130371,2.3101683,0.27983212,0.044461042,0.95901889,0
2.8633997,2.7940657,-2.2450967,0.92747051,0.24549901,-0.28200823,0
-1.7487789,1.7409106,1.6921366,-0.07082542,0.85594153,0.51219898,0
3.7317617,-1.4453011,-0.31825137,0.31609148,-0.91769344,0.24067599,0
-2.9962158,-1.1161847,3.0795236,-0.92747051,-0.24549901,0.28200823,0
-1.4142519,2.1706195,-0.075058937,-0.27984852,0.9559893,-0.088142276,0
3.6403825,1.1105661,-1.4089584,0.92747051,0.24549901,-0.28200823,0
-2.8772573,-1.4720905,3.32867,0.33890915,-0.23342407,0.91140199,0
-3.0372331,-1.930959,2.8363762,-0.92747051,-0.24549901,0.28200823,0
0.38810492,-0.87228847,-2.5536602,-0.15784895,-0.42663926,-0.89054066,0
3.2271457,0.99364829,-3.0114357,0.92747051,0.24549901,-0.28200823,0
-0.5566721,0.2819804,2.7140079,0.21558315,0.26511759,0.93980664,0
-0.06185317,-2.2308075,1.6603099,0.36578101,-0.75204533,0.54829901,0
-3.8043156,-0.74050522,1.2495192,-0.92747051,-0.24549901,0.28200823,0
-0.4487443,-0.71199614,2.6466835,0.3189621,-0.12594897,0.93936145,0
4.1434879,1.6450739,1.1792338,0.22116172,0.24793431,0.94319463,0
-0.94658029,2.3345001,-0.09463501,-0.27390504,0.95952237,-0.06551981,0
4.0449381,0.33574677,-0.35465014,0.92747051,0.24549901,-0.28200823,0
3.126682,2.8802679,-1.5990255,0.92747051,0.24549901,-0.28200823,0
3.5397015,0.40655875,-2.0092041,0.92747051,0.24549901,-0.28200823,0
-2.200042,1.713016,-0.67213809,-0.34875077,0.83994609,-0.41576856,0
3.9424856,2.3530102,0.77587318,0.92747051,0.24549901,-0.28200823,0
-3.570576,0.29246712,2.7997451,-0.92747051,-0.24549901,0.28200823,0
3.0725646,2.645323,-1.4828496,0.92747051,0.24549901,-0.28200823,0
-3.5798824,-0.24838758,2.1937239,-0.92747051,-0.24549901,0.28200823,0
4.1416135,1.3163872,0.93180132,0.92747051,0.24549901,-0.28200823,0
-1.722369,-0.24187946,3.0920897,0.26107949,0.11468771,0.95848,0
0.2367112,2.0997207,1.3682576,-0.039969325,0.81501889,0.57805401,0
2.7724352,1.6870403,1.3743691,0.14634204,0.45571887,0.87801158,0
1.088779,1.806523,1.7163744,0.07634455,0.61400729,0.78559953,0
-4.2561011,0.83664179,0.78489661,-0.92747051,-0.24549901,0.28200823,0
1.5378191,1.0952438,-3.0734258,-0.33455861,0.20814478,-0.91910076,0
-2.3892949,1.5063137,-0.93620867,-0.36671579,0.74438399,-0.55804288,0
-1.9920282,0.51733851,-1.8646531,-0.35523832,0.34329951,-0.8694545,0
0.35871542,1.7540565,1.9071481,0.053020716,0.66026366,0.74915993,0
-1.2282963,-2.0034404,2.3936043,0.37377214,-0.58934033,0.71622086,0
-3.5547645,-1.7872789,1.2776647,-0.92747051,-0.24549901,0.28200823,0
2.6942234,1.0126274,1.827579,0.24333,0.17634279,0.95377862,0
3.4969702,0.53041482,-2.024914,0.92747051,0.24549901,-0.28200823,0
3.2054601,1.2477794,-2.7453732,0.92747051,0.24549901,-0.28200823,0
3.8619246,1.2168694,-0.29718173,0.92747051,0.24549901,-0.28200823,0
1.4468517,-1.9575186,0.81021619,0.34738737,-0.84473622,0.40711486,0
4.5132756,0.72037077,1.0682094,0.92747051,0.24549901,-0.28200823,0
2.0726647,-0.63998473,-2.7520552,-0.11765528,-0.52429819,-0.8433674,0
3.5166814,-0.14592552,-2.635468,0.92747051,0.24549901,-0.28200823,0
-3.1600218,-1.9274051,2.4443636,-0.92747051,-0.24549901,0.28200823,0
2.1421688,3.2147808,-0.95679021,-0.25866789,0.9659161,-0.0098415017,0
3.6155233,0.42945766,-2.176151,0.92747051,0.24549901,-0.28200823,0
0.3273437,2.6689863,-1.0588303,-0.31974173,0.9117412,-0.25786281,0
3.1269228,2.0569565,-1.7726173,0.92747051,0.24549901,-0.28200823,0
-2.5100584,-0.81757379,3.4072926,0.29352134,-0.010848701,0.95589089,0
3.532928,-0.7428081,-2.8442254,-0.033851683,-0.69600928,-0.71723443,0
-4.396709,-0.20006323,-0.49767649,-0.92747051,-0.24549901,0.28200823,0
0.16937482,-2.590116,0.32779622,0.26458925,-0.96385944,0.031106174,0
4.3815503,-0.76452541,-0.14290783,0.92747051,0.24549901,-0.28200823,0
-3.0727763,-2.0017772,2.59657,-0.92747051,-0.24549901,0.28200823,0
-2.1782484,-1.7388973,-1.5478387,-0.11391139,-0.53285569,-0.83850402,0
-0.66041851,2.0012956,-1.2887429,-0.35770345,0.80216205,-0.47810471,0
-4.2559271,1.3328509,1.19436,-0.92747051,-0.24549901,0.28200823,0
3.0268219,2.5196357,-2.2211342,0.92747051,0.24549901,-0.28200823,0
-3.6933203,-0.78231835,1.6747659,-0.92747051,-0.24549901,0.28200823,0
-3.5984046,-1.2394111,1.3582698,-0.92747051,-0.24549901,0.28200823,0
-4.2499962,-1.283411,-0.91300261,-0.92747051,-0.24549901,0.28200823,0
0.99542403,-0.10911226,2.36412,0.31250381,-0.094882548,0.94516587,0
-3.7912958,-1.4369326,0.21085334,-0.92747051,-0.24549901,0.28200823,0
1.1542227,2.8855884,-0.7604394,-0.2703369,0.9613499,-0.052193701,0
2.9006202,0.63901806,-3.4801564,-0.26752907,-0.091178447,-0.95922601,0
2.832427,2.9445117,-2.2129731,0.92747051,0.24549901,-0.28200823,0
0.11848521,0.9976337,2.2575052,0.16329747,0.41253796,0.89618427,0
4.4262862,0.57763481,0.80711108,0.92747051,0.24549901,-0.28200823,0
-3.66874,-1.2555196,0.71549046,-0.92747051,-0.24549901,0.28200823,0
-4.5240164,0.038637638,-0.6292032,-0.92747051,-0.24549901,0.28200823,0
0.60355508,2.5963364,0.22001004,-0.18257594,0.95557189,0.23140502,0
-3.0758505,-1.0966473,3.1486504,-0.92747051,-0.24549901,0.28200823,0
1.9663866,2.5121617,-2.321897,-0.37035263,0.7067976,-0.60272384,0
3.96682,1.9436536,0.41763496,0.92747051,0.24549901,-0.28200823,0
-4.6498647,1.1643004,0.17536251,-0.92747051,-0.24549901,0.28200823,0
-3.7404287,-0.23649931,-1.4460806,-0.32915068,0.17830747,-0.92728966,0
4.1042123,1.8208346,0.92587256,0.92747051,0.24549901,-0.28200823,0
0.80876112,1.0860682,-2.7500155,-0.33851349,0.23107269,-0.91214794,0
-2.7161698,-2.4640236,2.8153133,-0.92747051,-0.24549901,0.28200823,0
2.6431785,-1.8420916,-0.5872997,0.25258183,-0.96750641,-0.01155889,0
-0.16600561,0.0081332922,2.7394271,0.25838786,0.12431547,0.958009,0
2.3434637,1.0963001,1.8483843,0.22594148,0.23295715,0.94587594,0
-4.4779267,1.4070456,0.77003229,-0.30258471,0.93589187,-0.18041271,0
-4.5473003,-0.44088364,-1.2328371,-0.34147584,0.24896082,-0.90631819,0
-0.20764661,0.71895278,2.3930173,0.17047548,0.39362416,0.90332609,0
0.4736383,2.5235324,-1.0434179,-0.32770634,0.8968873,-0.29698771,0
3.4791687,-0.37877798,-3.0231042,0.92747051,0.24549901,-0.28200823,0
-2.6796186,-1.3996742,3.434267,0.33502781,-0.21081239,0.91832143,0
4.6584663,-0.16491699,0.65612406,0.92747051,0.24549901,-0.28200823,0
-2.6450121,0.039329529,3.339468,0.19645458,0.32176819,0.92621315,0
3.7209735,0.66779804,1.4441704,0.30913889,-0.079249024,0.9477092,0
2.7370586,1.551827,1.6359696,0.18199784,0.36243275,0.91406739,0
-2.2408769,-0.095016479,3.1822562,0.20865035,0.28604454,0.9352237,0
4.1345649,-0.99605894,-1.1175911,0.92747051,0.24549901,-0.28200823,0
3.4931872,0.1942544,-2.8125076,0.92747051,0.24549901,-0.28200823,0
0.054753482,2.5417831,0.43316269,-0.18524538,0.95687741,0.22376239,0
1.6221385,-2.1410134,0.20692217,0.30743748,-0.92998642,0.20151329,0
-3.143863,-3.1521339,1.0214665,-0.92747051,-0.24549901,0.28200823,0
-3.3855484,-0.63998199,2.6115367,-0.92747051,-0.24549901,0.28200823,0
-4.1987319,1.2508433,1.1308894,-0.92747051,-0.24549901,0.28200823,0
-4.2417336,-0.86345625,-0.72072268,-0.92747051,-0.24549901,0.28200823,0
-4.3411436,0.8672533,0.80006409,-0.92747051,-0.24549901,0.28200823,0
-3.0361845,0.6540823,3.065902,0.082675338,0.6009168,0.79502439,0
0.88386703,0.85866576,-2.7546039,-0.32465529,0.15464494,-0.93310428,0
3.1807249,3.3787417,-0.48934054,-0.17131227,0.949435,0.26310688,0
-0.23229384,-1.9353914,-1.3778154,0.015854061,-0.77938533,-0.6263442,0
-3.164454,-0.45477605,-1.5597903,-0.31523561,0.10784471,-0.94286585,0
-3.7101014,-0.80125761,0.9959172,-0.92747051,-0.24549901,0.28200823,0
3.3173494,1.6139271,-1.7619054,0.92747051,0.24549901,-0.28200823,0
-2.0542498,-3.1700406,0.45909619,0.21656162,-0.96756494,-0.13007331,0
0.44385588,2.2382901,1.1251353,-0.074760213,0.86077476,0.50346571,0
3.6166701,2.8674114,0.71337724,0.013370484,0.73198253,0.68119216,0
-3.3008814,-2.4145174,1.4931374,-0.92747051,-0.24549901,0.28200823,0
-2.8719451,-1.9668765,-1.4543943,-0.13412517,-0.48558939,-0.86383635,0
3.9995699,1.1214194,-0.32652247,0.92747051,0.24549901,-0.28200823,0
-2.0367506,1.9350805,1.2558379,-0.15694638,0.94019914,0.30231333,0
3.3371017,0.30768538,-3.2018261,0.92747051,0.24549901,-0.28200823,0
-4.2355113,-0.12445307,0.098286152,-0.92747051,-0.24549901,0.28200823,0
3.8112798,2.4112921,0.64709306,0.92747051,0.24549901,-0.28200823,0
2.2819352,-0.57681274,1.7475955,0.36233509,-0.40403578,0.83992159,0
2.5141652,2.2430217,1.1143265,0.051796317,0.66260749,0.74717361,0
0.84996128,2.2545943,-2.0831614,-0.3699072,0.71235776,-0.59641838,0
-3.3079522,-0.70001149,-1.590809,-0.29088515,-0.00010666251,-0.95675796,0
-4.0909848,-0.85422421,-0.0039234161,-0.92747051,-0.24549901,0.28200823,0
-3.3766952,0.77038813,2.8695996,0.037759781,0.68888539,0.72388601,0
4.2456927,-0.62654924,-0.79551011,0.92747051,0.24549901,-0.28200823,0
3.309341,1.9293375,-1.7175815,0.92747051,0.24549901,-0.28200823,0
-4.255311,0.92468405,1.0528398,-0.92747051,-0.24549901,0.28200823,0
-0.0065071583,-2.2124591,1.7216644,0.3663587,-0.74738079,0.55425906,0
-4.0630522,-0.96116209,-0.27035952,-0.92747051,-0.24549901,0.28200823,0
1.6620022,-1.3385217,-2.2960787,-0.039046317,-0.68652213,-0.72605973,0
-3.1031845,-0.52864432,3.2458189,-0.92747051,-0.24549901,0.28200823,0
-4.3770237,-0.35591841,-0.66614032,-0.92747051,-0.24549901,0.28200823,0
-3.1583703,-1.3056414,2.9167471,-0.92747051,-0.24549901,0.28200823,0
-2.57693,-3.2384322,0.5991199,0.22271088,-0.96857566,-0.1107294,0
2.1640887,2.8981209,-2.1426969,-0.35615999,0.80963171,-0.46652609,0
-3.5023727,-2.0862939,0.61511707,-0.92747051,-0.24549901,0.28200823,0
-3.2117913,-0.34272003,-1.6382337,-0.32376432,0.15006483,-0.93416125,0
-1.1720238,-0.84661758,-2.215199,-0.22153854,-0.2467621,-0.9434135,0
2.8047118,0.22793531,1.7601817,0.32466924,-0.15471649,0.93308765,0
-0.86205065,2.4070196,0.46571851,-0.22165477,0.96842963,0.11407548,0
3.6448689,0.56073284,1.4996979,0.31722474,-0.11744609,0.94104987,0
3.9284821,0.1075635,-0.83945429,0.92747051,0.24549901,-0.28200823,0
-1.0096464,1.4506717,-1.7567813,-0.37384331,0.62156719,-0.68840045,0
3.4788244,2.3253713,-0.7794373,0.92747051,0.24549901,-0.28200823,0
-3.8342118,-1.6453133,-0.16130829,-0.92747051,-0.24549901,0.28200823,0
-3.2196424,-0.75727558,2.6164937,-0.92747051,-0.24549901,0.28200823,0
-3.9893546,-1.339292,-0.29603815,-0.92747051,-0.24549901,0.28200823,0
-3.9894824,-2.150578,-0.60402441,-0.92747051,-0.24549901,0.28200823,0
3.3490314,2.6324291,0.82468939,0.03624025,0.69166517,0.72130847,0
-0.53727174,-2.6174617,-0.45346022,0.15563259,-0.93927872,-0.30583292,0
-1.9505707,-1.9538679,-1.4328225,-0.080166519,-0.60613215,-0.79131353,0
-2.1648414,1.4470949,2.0834806,-0.039109245,0.8138026,0.57982385,0
1.8666698,2.1887541,-2.5307722,-0.37388587,0.60329783,-0.70444375,0
1.1531951,2.8976853,-0.85813665,-0.28853029,0.94963753,-0.12222433,0
-3.2445202,1.1162329,-0.99913251,-0.37270343,0.6672281,-0.64490199,0
-2.6752622,1.8766937,0.48297524,-0.27185488,0.96059847,-0.057840168,0
0.10642672,-1.9232531,1.6697608,0.36999726,-0.71126324,0.59766752,0
-4.2368035,1.5279057,1.1389096,-0.25806144,0.96609795,-0.0076885819,0
-0.95699322,2.294384,-0.63033462,-0.32529098,0.90168512,-0.28486747,0
-3.377105,-1.6776137,1.5330303,-0.92747051,-0.24549901,0.28200823,0
3.3791449,1.4995751,-1.7175915,0.92747051,0.24549901,-0.28200823,0
-4.1965284,0.20338297,0.42296571,-0.92747051,-0.24549901,0.28200823,0
-1.4150001,1.3907045,2.1462784,0.014469177,0.73011059,0.6831758,0
-3.5742958,-2.6327436,0.13918972,-0.92747051,-0.24549901,0.28200823,0
-3.4122322,-0.96541238,2.4243891,-0.92747051,-0.24549901,0.28200823,0
-3.1941299,-3.1796649,1.2102532,-0.92747051,-0.24549901,0.28200823,0
2.1403294,2.6753037,-2.4814048,-0.3688457,0.72429979,-0.58253121,0
2.7615161,2.156219,-2.918962,0.92747051,0.24549901,-0.28200823,0
-3.2493629,1.2946467,-0.69458759,-0.36413449,0.76429737,-0.5322175,0
0.96895963,2.7119315,0.34855723,-0.14871633,0.93423098,0.32418483,0
-4.5788674,0.74766588,-0.17942426,-0.92747051,-0.24549901,0.28200823,0
-0.34638572,-2.1183107,-1.4852645,0.027333945,-0.79674309,-0.60369956,0
-0.64796549,-2.1091945,-1.4195718,-0.0087203979,-0.73983359,-0.67273343,0
-3.1598794,-2.4104517,2.0197563,-0.92747051,-0.24549901,0.28200823,0
-2.9373937,0.42166042,-1.5175674,-0.36162329,0.39732522,-0.84342229,0
-1.6593423,-2.181242,2.5721068,0.37324226,-0.56332386,0.73712689,0
3.6882095,-0.50521159,-2.5721695,0.92747051,0.24549901,-0.28200823,0
-1.1183568,-2.7506249,-0.55886507,0.12840953,-0.91750956,-0.37641329,0
-2.8812432,-1.8404758,3.0436456,-0.92747051,-0.24549901,0.28200823,0
4.1628847,-1.0644054,-1.7257524,0.92747051,0.24549901,-0.28200823,0
3.5516276,0.79308176,-1.9027274,0.92747051,0.24549901,-0.28200823,0
3.1939416,3.15433,-0.9577539,0.92747051,0.24549901,-0.28200823,0
-3.5288768,-1.4387937,1.1533589,-0.92747051,-0.24549901,0.28200823,0
3.7008896,0.54773235,-1.6811789,0.92747051,0.24549901,-0.28200823,0
2.92044,-1.7986609,-0.8161391,0.23406073,-0.9693929,-0.074113369,0
-4.181159,-1.7000904,-0.73704696,-0.92747051,-0.24549901,0.28200823,0
-0.73094916,-1.5243136,2.5895729,0.36684716,-0.45172653,0.81324422,0
2.9820974,2.2325087,-2.4125357,0.92747051,0.24549901,-0.28200823,0
-2.3867788,-2.7987204,-0.66423917,0.043561637,-0.82005531,-0.57062399,0
3.4051094,2.8411646,-0.18886971,0.92747051,0.24549901,-0.28200823,0
-2.3788002,1.9795744,0.55649161,-0.25949183,0.96566081,-0.012773454,0
-3.9616437,-0.20829964,-1.3491099,-0.34396791,0.26454973,-0.90094358,0
3.5039001,-1.7028291,-0.7132796,0.27351242,-0.95973396,0.064043939,0
-3.9339442,-0.51158762,1.006415,-0.92747051,-0.24549901,0.28200823,0
-4.0679922,0.33858347,0.84687525,-0.92747051,-0.24549901,0.28200823,0
-0.048780918,-2.4765666,1.000114,0.32578272,-0.90073025,0.28731614,0
3.0611019,2.1628869,-2.4871428,0.92747051,0.24549901,-0.28200823,0
-3.6944699,0.57375193,2.2221384,-0.92747051,-0.24549901,0.28200823,0
3.5516009,0.17187333,-2.5668688,0.92747051,0.24549901,-0.28200823,0
4.3124022,0.46490622,1.2327256,0.32832909,-0.1739105,0.9284153,0
3.0403709,2.7862282,0.52026629,-0.042106315,0.8180235,0.57364154,0
3.1567466,2.1821537,-2.1756396,0.92747051,0.24549901,-0.28200823,0
3.0569532,1.7367878,-2.6337764,0.92747051,0.24549901,-0.28200823,0
-3.755451,-2.1063409,-0.05313158,-0.92747051,-0.24549901,0.28200823,0
-4.2858324,-0.076621056,-1.0595733,-0.35460269,0.338395,-0.87163389,0
-3.3478575,-2.8994625,0.87150097,-0.92747051,-0.24549901,0.28200823,0
-3.8638897,0.22404242,1.467744,-0.92747051,-0.24549901,0.28200823,0
-3.2381847,-1.4649899,1.924122,-0.92747051,-0.24549901,0.28200823,0
4.5688715,-0.6248908,0.082265466,0.92747051,0.24549901,-0.28200823,0
1.8077362,-0.97102857,1.8091092,0.36679268,-0.45108101,0.81362695,0
-1.7895322,1.3821214,2.0935891,0.0022628903,0.7505424,0.6608184,0
-1.5789074,2.0831096,0.83829796,-0.18196446,0.95526469,0.23314869,0
2.933881,3.0416031,-1.9026549,0.92747051,0.24549901,-0.28200823,0
4.084054,1.2859492,0.45291185,0.92747051,0.24549901,-0.28200823,0
3.9595413,2.3526206,0.79850602,0.92747051,0.24549901,-0.28200823,0
4.535234,-0.59993553,0.42591101,0.92747051,0.24549901,-0.28200823,0
0.57542133,-1.837199,1.6242036,0.36812556,-0.73157632,0.5738287,0
-3.7480187,0.51067472,2.1500838,-0.92747051,-0.24549901,0.28200823,0
0.55662048,2.4109182,0.79770231,-0.098763458,0.88831156,0.44849557,0
2.4174285,2.8326058,-2.2230768,-0.35646898,0.80817503,-0.4688102,0
-3.8869963,0.18021679,1.4724917,-0.92747051,-0.24549901,0.28200823,0
2.9137912,1.6372693,-3.4782529,-0.34233022,0.25424597,-0.90452695,0
3.905025,0.1272397,-1.2309213,0.92747051,0.24549901,-0.28200823,0
1.4688981,2.1399808,1.2747623,0.02174142,0.71755481,0.69616258,0
4.1262741,1.9030962,0.84630537,0.92747051,0.24549901,-0.28200823,0
4.0400972,1.8683758,0.47648311,0.92747051,0.24549901,-0.28200823,0
0.76174498,2.6700165,0.44320464,-0.14744683,0.93326795,0.32752156,0
-0.97144711,-1.6564498,-1.7475899,-0.097270966,-0.56984329,-0.81597608,0
3.6543384,0.81722331,-1.4513748,0.92747051,0.24549901,-0.28200823,0
-3.0313501,-1.5334499,2.9525852,-0.92747051,-0.24549901,0.28200823,0
-3.6529033,1.0806124,-0.47116318,-0.36518669,0.75663549,-0.54234797,0
2.1404567,-1.9710184,-0.52788877,0.25307599,-0.96739638,-0.0098379254,0
-3.4656367,-1.5729122,1.5852133,-0.92747051,-0.24549901,0.28200823,0
3.8314843,0.51718044,-1.1433022,0.92747051,0.24549901,-0.28200823,0
-2.7635102,-2.0385418,-1.3572024,-0.11014038,-0.5413866,-0.83352834,0
3.0451477,1.7201934,-2.6684225,0.92747051,0.24549901,-0.28200823,0
-0.58624047,1.7063509,1.9196825,0.0033314824,0.74878585,0.66280365,0
1.4517035,0.37675059,2.2547836,0.27689677,0.055845141,0.95927548,0
-2.3435214,1.7035615,1.5964277,-0.11462262,0.90461415,0.41052979,0
-3.8329866,-2.2958736,-0.91121626,-0.093725801,-0.57750666,-0.81098795,0
3.3395205,-0.037309885,-3.1192198,0.92747051,0.24549901,-0.28200823,0
-2.949486,-2.3247106,-1.1105602,-0.077680528,-0.61126405,-0.78760523,0
-2.3831215,1.7816062,-0.58439255,-0.34901428,0.83899575,-0.41746253,0
0.30119824,1.8588061,-2.0326228,-0.37362188,0.63741183,-0.67387879,0
-0.71168303,1.4099858,2.2319145,0.054323733,0.6577602,0.75126582,0
2.602653,3.2792954,-1.6941326,-0.31926602,0.91254491,-0.25559878,0
3.8670058,-1.0395997,-2.2170191,0.92747051,0.24549901,-0.28200823,0
-4.1503019,1.3223255,1.3665578,-0.92747051,-0.24549901,0.28200823,0
-3.7168298,-2.1162586,0.043766022,-0.92747051,-0.24549901,0.28200823,0
2.9005558,2.0274415,-2.8026206,0.92747051,0.24549901,-0.28200823,0
-0.67444253,-1.7511299,-1.6286905,-0.05516392,-0.65614092,-0.75261939,0
-4.4730592,0.1991744,-0.12299299,-0.92747051,-0.24549901,0.28200823,0
-4.1706944,-1.5307293,-0.95387566,-0.92747051,-0.24549901,0.28200823,0
-4.1565413,0.75053644,1.0495036,-0.92747051,-0.24549901,0.28200823,0
4.0202303,-0.14517498,-1.0126703,0.92747051,0.24549901,-0.28200823,0
