-1.1425769,2.8442283,-0.57439876,-0.20695375,0.73889792,0.64124894,0
-0.52071452,1.7580497,-1.6496397,-0.19564039,0.61094469,-0.76711893,0
1.7833354,-1.6474309,-0.55890393,0.20695375,-0.73889792,-0.64124894,0
1.0690136,-1.314234,-1.1956689,0.20695375,-0.73889792,-0.64124894,0
1.8287758,-1.0354469,-1.2576882,0.20695375,-0.73889792,-0.64124894,0
1.8593527,2.2353823,0.69872564,0.89249206,0.41108716,-0.18564841,0
0.8981216,2.6969256,-0.67816472,0.42973202,0.65747994,-0.61891079,0
1.7608958,1.4501988,-0.97030407,0.69691503,0.57135105,-0.43343675,0
1.4763451,-1.5946125,-0.81290126,0.20695375,-0.73889792,-0.64124894,0
0.5427289,1.9570338,-1.5387279,0.27730805,0.67286104,-0.68582672,0
1.9825573,1.7101737,0.11928165,0.90236783,0.39741692,-0.16670915,0
-0.95215243,-0.41167068,-2.8802848,0.20695375,-0.73889792,-0.64124894,0
-0.65926433,-0.42479849,2.8187156,-0.11514431,-0.66927898,0.73403507,0
0.12565237,-1.5958283,-1.1807594,0.20695375,-0.73889792,-0.64124894,0
1.2072887,0.80872369,2.6771545,-0.20695375,0.73889792,0.64124894,0
1.9172919,2.1457033,1.1910514,-0.20695375,0.73889792,0.64124894,0
1.847257,1.4028387,-1.0163411,0.75062817,0.54029399,-0.38031521,0
2.3067229,0.41692686,0.51042366,0.97797889,0.13817465,0.15641272,0
-0.31315333,-1.8411188,-1.135118,0.20695375,-0.73889792,-0.64124894,0
-0.67464876,-3.1793156,0.23636675,0.20695375,-0.73889792,-0.64124894,0
1.5579566,0.5933001,2.5089769,0.76726061,-0.28409517,0.57497919,0
1.8513262,-1.3318534,-0.92600143,0.20695375,-0.73889792,-0.64124894,0
2.31967,0.68282616,-0.004234314,0.96378982,0.26663589,0.0038101673,0
0.30771339,1.9406421,1.0017847,-0.20695375,0.73889792,0.64124894,0
-0.028201938,1.4272304,1.4512616,-0.20695375,0.73889792,0.64124894,0
-2.5278118,1.1675428,1.009117,-0.20695375,0.73889792,0.64124894,0
-0.6367569,2.993124,-0.41093791,-0.20695375,0.73889792,0.64124894,0
0.54645824,0.59885204,-2.8384056,0.048067093,0.66232646,-0.74767208,0
-2.3079784,0.90965343,1.2510521,-0.20695375,0.73889792,0.64124894,0
-0.55819392,-0.39500785,-2.7344837,0.20695375,-0.73889792,-0.64124894,0
-0.7277751,1.0588849,1.6112399,-0.20695375,0.73889792,0.64124894,0
0.32259262,-0.13380003,3.0101752,0.30593127,-0.57369387,0.75979042,0
0.8214767,-2.3699512,-0.072449207,0.20695375,-0.73889792,-0.64124894,0
-2.3093886,0.79246324,-0.7830193,-0.87708992,0.15026604,-0.45621657,0
-0.5049268,0.92330503,-2.2841825,-0.26801986,0.58754522,-0.76351559,0
1.9488075,2.3593647,1.1250949,-0.20695375,0.73889792,0.64124894,0
0.11752391,-2.3996391,1.1199652,-0.046170533,-0.6620847,0.74800551,0
1.6053348,-0.4882412,-1.9880733,0.20695375,-0.73889792,-0.64124894,0
2.1081433,-1.8603405,0.66198421,0.72386068,-0.32529607,0.60844731,0
1.3992209,-1.8987706,-0.4942199,0.20695375,-0.73889792,-0.64124894,0
-1.5396341,-2.7726276,-0.46820223,0.20695375,-0.73889792,-0.64124894,0
1.1899835,-2.2125998,-0.13091397,0.20695375,-0.73889792,-0.64124894,0
1.1464801,-2.6226206,0.78596807,0.35669488,-0.55333865,0.75271869,0
-2.1728301,1.5825121,0.61565018,-0.20695375,0.73889792,0.64124894,0
0.75780296,-1.6303767,-1.0523765,0.20695375,-0.73889792,-0.64124894,0
-2.7682326,1.1761811,0.35753226,-0.96195644,-0.034195513,-0.27105474,0
-0.52381754,2.228786,-1.2688731,-0.11643934,0.63217765,-0.76602435,0
2.6342194,-0.26479685,-1.1471379,0.94226933,0.326897,-0.072572887,0
1.8111162,1.1154859,2.3248653,-0.20695375,0.73889792,0.64124894,0
-1.0751119,1.6817536,-1.6543486,-0.39983904,0.53432393,-0.74473256,0
1.1842247,1.0147455,2.3508804,-0.20695375,0.73889792,0.64124894,0
-0.79225045,-1.4567411,-1.6473436,0.20695375,-0.73889792,-0.64124894,0
-1.2030785,0.35576272,2.4141457,-0.20695375,0.73889792,0.64124894,0
2.3590364,-0.71786809,-1.666181,0.20695375,-0.73889792,-0.64124894,0
-1.027818,-0.10529399,2.8109319,-0.20695375,0.73889792,0.64124894,0
-1.2672119,-2.2610471,-1.0713135,0.20695375,-0.73889792,-0.64124894,0
0.34111834,-2.8170731,0.77582109,0.012278736,-0.65342546,0.75689137,0
1.2703533,-2.6232934,0.42555618,0.20695375,-0.73889792,-0.64124894,0
0.61719769,1.4131603,1.6413913,-0.20695375,0.73889792,0.64124894,0
1.6127756,-0.15955949,-2.2664337,0.20695375,-0.73889792,-0.64124894,0
-0.041502714,2.166625,0.64286584,-0.20695375,0.73889792,0.64124894,0
0.42448974,2.5287111,-0.90775031,0.25815862,0.67345208,-0.69268793,0
1.9172944,1.9519596,1.3562158,-0.20695375,0.73889792,0.64124894,0
-1.177874,2.3312845,-1.1047342,-0.38112396,0.542772,-0.74842715,0
-0.059758365,-0.57136059,-2.3303876,0.20695375,-0.73889792,-0.64124894,0
1.0151165,-1.6921971,-0.81182867,0.20695375,-0.73889792,-0.64124894,0
-0.81994522,1.8948473,0.63143021,-0.20695375,0.73889792,0.64124894,0
2.2613707,-0.4881227,-1.8953881,0.20695375,-0.73889792,-0.64124894,0
-0.74449956,-1.9879849,1.3800681,-0.36832511,-0.66605949,0.64861494,0
2.0511146,0.2437191,-2.0163329,0.71921283,0.55924213,-0.41228759,0
-0.50325906,-0.61903667,2.8789043,-0.10192817,-0.66815591,0.73700643,0
-1.8532408,-2.2314477,-1.2532991,0.20695375,-0.73889792,-0.64124894,0
2.1165941,0.61175799,1.3037624,0.95521605,0.010912329,0.29570806,0
1.7405812,-0.6159398,1.8269193,0.72090423,-0.32793689,0.61053628,0
-0.74717355,2.333988,-1.1670558,-0.19572192,0.61092055,-0.76711744,0
0.13524795,1.9171848,-1.7091872,0.041674733,0.66150171,-0.74878472,0
-0.52696186,0.43568897,2.4684906,-0.20695375,0.73889792,0.64124894,0
1.6299584,1.2244282,2.3059282,-0.20695375,0.73889792,0.64124894,0
-2.3753998,1.7436118,0.37455821,-0.20695375,0.73889792,0.64124894,0
1.3953207,-1.7662755,-0.76696157,0.20695375,-0.73889792,-0.64124894,0
-0.92618525,0.37399244,2.4061584,-0.20695375,0.73889792,0.64124894,0
2.4694676,-1.4816091,-0.48482442,0.20695375,-0.73889792,-0.64124894,0
2.076457,0.12401044,-2.308341,0.67566639,0.58197099,-0.45253158,0
-0.95650148,1.8512542,0.66927934,-0.20695375,0.73889792,0.64124894,0
0.94288385,0.21515846,-3.11218,0.20695375,-0.73889792,-0.64124894,0
1.233564,2.2985075,-0.73270875,0.57774115,0.6212514,-0.52939755,0
-2.4825449,-0.092686832,1.3414648,-0.89784318,-0.40381178,0.17553815,0
2.2709126,-1.0828353,0.89849687,0.82897103,-0.215661,0.51604009,0
0.0032714605,1.8249886,1.07098,-0.20695375,0.73889792,0.64124894,0
1.8508329,2.0199523,0.059635103,0.85398453,0.45624211,-0.25010726,0
-2.0831432,-1.7498884,-0.9826479,-0.96940291,-0.24331483,-0.032494009,0
-0.21932352,-1.1119707,2.2725854,-0.069621265,-0.66489971,0.74368083,0
-0.020205878,-1.032305,-2.0217941,0.20695375,-0.73889792,-0.64124894,0
2.194361,0.80684066,1.5052855,0.95859551,0.022095293,0.28391284,0
2.3500664,0.65518022,0.51705217,0.97826695,0.16486752,0.12574792,0
-0.034770727,-2.787971,0.85373807,-0.11296088,-0.66910183,0.73453569,0
1.2023847,0.83905888,2.5289416,-0.20695375,0.73889792,0.64124894,0
-2.6777682,0.60435951,1.0279709,-0.96557236,-0.259848,-0.012206972,0
0.99357843,-0.88775975,2.110781,0.47903001,-0.49496692,0.72494012,0
-1.7129463,0.25113273,2.175245,-0.20695375,0.73889792,0.64124894,0
-0.49721873,1.6501496,1.1854597,-0.20695375,0.73889792,0.64124894,0
-1.8094198,-2.3817062,-1.0985941,0.20695375,-0.73889792,-0.64124894,0
1.1234475,2.7581034,0.30316684,-0.20695375,0.73889792,0.64124894,0
2.4274263,-0.5072183,0.72182775,0.90797848,-0.099029601,0.40714657,0
1.9583013,0.83921742,2.1945889,0.89662528,-0.11900404,0.42649865,0
-0.44934374,-1.7110908,-1.2570481,0.20695375,-0.73889792,-0.64124894,0
1.4468502,1.9251699,-1.0242437,0.60066253,0.61332709,-0.51286894,0
2.3972929,0.49433929,-0.56545758,0.92753375,0.35667554,-0.11164176,0
-0.41537285,-1.5312208,2.0145948,-0.17070836,-0.67265654,0.71999449,0
-1.055362,0.70249856,-2.3539383,-0.45849991,0.50575548,-0.73074573,0
-1.9080672,2.1071181,0.17851186,-0.20695375,0.73889792,0.64124894,0
2.597074,-0.29105854,-1.8600702,0.20695375,-0.73889792,-0.64124894,0
1.4527828,-1.4848973,1.5796576,0.52439976,-0.46955332,0.71029902,0
-1.0606319,-2.7607214,0.496553,-0.51691329,-0.63906634,0.56955665,0
0.32468486,-1.5954028,-1.0403626,0.20695375,-0.73889792,-0.64124894,0
-0.89685273,-2.8939373,0.07641834,0.20695375,-0.73889792,-0.64124894,0
-0.30212685,0.61433434,2.2772219,-0.20695375,0.73889792,0.64124894,0
-1.5666475,2.4408288,-0.23835778,-0.20695375,0.73889792,0.64124894,0
0.86470675,2.0536833,-1.3110347,0.41454023,0.65992093,-0.62662637,0
1.3313513,-2.3371477,0.032311201,0.20695375,-0.73889792,-0.64124894,0
0.54731917,-2.6977417,1.0551308,0.12061,-0.63117039,0.76620966,0
1.9731162,-0.10050189,1.8135438,0.81713849,-0.22988945,0.52861643,0
1.6411872,-0.29849648,-2.2410913,0.20695375,-0.73889792,-0.64124894,0
-0.25680256,-1.104739,-1.8587254,0.20695375,-0.73889792,-0.64124894,0
1.3441224,2.1937881,0.93559504,-0.20695375,0.73889792,0.64124894,0
-1.2354246,-2.294416,0.62674308,-0.61548007,-0.60781783,0.50173861,0
1.6903197,0.44160748,2.1385689,0.80429769,-0.24467896,0.5415138,0
1.8708797,-1.1025989,1.2659609,0.7100541,-0.33746493,0.61801344,0
-1.2144866,1.168591,1.2690998,-0.20695375,0.73889792,0.64124894,0
1.9760532,0.045158505,1.5685875,0.85402501,-0.1833218,0.48686206,0
-0.50407344,1.646371,0.9712745,-0.20695375,0.73889792,0.64124894,0
0.88802755,-1.2702335,-1.3774148,0.20695375,-0.73889792,-0.64124894,0
-0.5198065,2.3794544,0.098030925,-0.20695375,0.73889792,0.64124894,0
-2.3112497,0.60846889,1.6537316,-0.20695375,0.73889792,0.64124894,0
-0.17175055,-3.1107469,0.52339268,0.20695375,-0.73889792,-0.64124894,0
-0.45682126,-1.1922431,-1.7761219,0.20695375,-0.73889792,-0.64124894,0
-1.1394134,-0.96024466,-2.259954,0.20695375,-0.73889792,-0.64124894,0
-0.17139435,2.4106266,-1.2275862,0.0072695613,0.656582,-0.75421965,0
0.96634901,1.2559085,-1.9188161,0.37458229,0.66533875,-0.64576501,0
-1.1197265,1.9629472,-1.3290243,-0.37000555,0.54764503,-0.75045389,0
0.017444849,2.9905667,-0.28469968,-0.20695375,0.73889792,0.64124894,0
-1.9731791,2.0540192,-0.67157698,-0.63643742,0.39612085,-0.66184276,0
-0.64974785,0.34014368,2.4330204,-0.20695375,0.73889792,0.64124894,0
-0.59935367,-2.356647,-0.64056015,0.20695375,-0.73889792,-0.64124894,0
2.3671627,1.080595,0.67231452,0.9771055,0.18916084,0.097380519,0
-1.8171923,-2.4079816,-0.81105882,-0.89800739,-0.40358371,0.17522231,0
-2.3996875,-0.12900561,1.2904954,-0.8710112,-0.43764192,0.22317949,0
-0.54972124,-0.0021140575,2.9675536,-0.20695375,0.73889792,0.64124894,0
-1.6119897,-0.9388082,-2.551096,-0.84839082,0.19088387,-0.49375737,0
-0.1328131,0.47311294,-2.7509704,-0.16655225,0.61926293,-0.76731604,0
-0.74088109,0.40507555,2.444679,-0.20695375,0.73889792,0.64124894,0
-0.33510387,1.2942783,-2.2123706,-0.13967109,0.62641126,-0.76687747,0
-1.6458219,2.0057724,-1.0135972,-0.52703911,0.46800512,-0.7093668,0
-2.333708,0.16150194,-0.83197856,-0.92806399,0.059162974,-0.36769146,0
-0.39736217,0.29755998,2.6345229,-0.20695375,0.73889792,0.64124894,0
-0.19525719,1.3681179,-2.0438862,-0.11861396,0.63165402,-0.7661227,0
1.3963253,0.14248705,-2.8227239,0.20695375,-0.73889792,-0.64124894,0
2.2984991,1.3131371,1.0630589,0.97834975,0.1553624,0.13672733,0
2.3986664,0.8454206,-0.06867528,0.94475293,0.32122579,-0.065236568,0
-1.9236586,-2.1325574,-0.97495651,-0.94796181,-0.31353748,0.05534184,0
0.37549502,0.95318151,2.00964,-0.20695375,0.73889792,0.64124894,0
0.70921981,-0.77978992,-2.1375601,0.20695375,-0.73889792,-0.64124894,0
-0.87812185,0.65987873,2.0870788,-0.20695375,0.73889792,0.64124894,0
-1.699703,-1.2978894,1.2326974,-0.64644247,-0.59525365,0.47726852,0
1.5922809,0.17236137,-2.8978958,0.42075521,0.65894836,-0.62349987,0
2.1872737,1.3187234,0.048580527,0.93363833,0.34504014,-0.096264362,0
0.17438915,-0.69995403,-2.1184242,0.20695375,-0.73889792,-0.64124894,0
1.9035431,-2.4599004,0.33914018,0.20695375,-0.73889792,-0.64124894,0
-0.80921817,-1.4593461,-1.6074772,0.20695375,-0.73889792,-0.64124894,0
-2.071913,-1.6884823,-1.2375882,-0.97302431,-0.22375128,-0.056205451,0
2.4022079,-0.8045792,0.40420127,0.92894053,-0.057254404,0.36577517,0
1.7025113,2.4035671,0.85908389,-0.20695375,0.73889792,0.64124894,0
-0.77217817,-2.5037837,-0.43280333,0.20695375,-0.73889792,-0.64124894,0
-1.5845643,-1.5442481,-1.7928412,0.20695375,-0.73889792,-0.64124894,0
-0.34886217,-2.0263362,1.4901836,-0.14898902,-0.67159647,0.72578257,0
-0.29797387,2.0552852,0.54208654,-0.20695375,0.73889792,0.64124894,0
-0.53652084,-1.6594076,-1.5286576,0.20695375,-0.73889792,-0.64124894,0
-0.028053045,0.26257539,-3.047894,-0.13405395,0.62784028,-0.76671124,0
1.9973857,-2.0299568,-0.095303535,0.20695375,-0.73889792,-0.64124894,0
-2.00594,1.6266288,0.6702857,-0.20695375,0.73889792,0.64124894,0
-1.5302368,-0.88419461,-2.6808267,0.20695375,-0.73889792,-0.64124894,0
2.7189617,-1.7267276,-0.24153256,0.90886992,-0.097393483,0.40554905,0
0.48011434,2.6577668,0.26236054,-0.20695375,0.73889792,0.64124894,0
-2.1390305,-0.23924518,-1.4594595,-0.89300293,0.12507279,-0.4323225,0
2.388814,-1.5480653,-0.49425507,0.20695375,-0.73889792,-0.64124894,0
1.0823145,-0.31370735,2.5138564,0.48922676,-0.48944777,0.7218712,0
-0.9424414,0.33670259,2.5805578,-0.20695375,0.73889792,0.64124894,0
-0.5248751,1.8001083,0.91615278,-0.20695375,0.73889792,0.64124894,0
-2.0642285,0.85681832,1.5051199,-0.20695375,0.73889792,0.64124894,0
0.50815678,-0.51473522,2.7512879,0.32422048,-0.56660378,0.75752312,0
0.54496646,2.0597107,-1.2666132,0.31007892,0.67118615,-0.67332035,0
1.4381132,-1.6045719,-0.71813869,0.20695375,-0.73889792,-0.64124894,0
-0.76993644,1.7562805,-1.708357,-0.28387195,0.5818904,-0.76211572,0
0.3421613,-2.0756547,-0.6094901,0.20695375,-0.73889792,-0.64124894,0
1.7900264,-0.16514397,1.9187033,0.77081519,-0.28049913,0.57198274,0
0.72315848,-2.4266176,0.050496936,0.20695375,-0.73889792,-0.64124894,0
-2.587193,0.083017468,1.055752,-0.94496197,-0.32073802,0.064606965,0
2.7328625,-1.1901559,-0.87131619,0.20695375,-0.73889792,-0.64124894,0
-1.1852039,1.4224889,1.2280654,-0.20695375,0.73889792,0.64124894,0
-1.9310913,1.7559547,-0.88255382,-0.6752246,0.36643487,-0.64015424,0
-1.8714507,0.9728682,1.305908,-0.20695375,0.73889792,0.64124894,0
1.2986181,-1.0933259,-1.3170573,0.20695375,-0.73889792,-0.64124894,0
2.7229798,-0.38766396,-0.0081038475,0.97115654,0.075812548,0.22606945,0
-1.1753101,-2.1249642,0.84024245,-0.53475577,-0.63429773,0.55830348,0
-2.4405529,1.600412,0.40648174,-0.20695375,0.73889792,0.64124894,0
0.87197691,-0.76088262,-1.8432299,0.20695375,-0.73889792,-0.64124894,0
2.5673995,-0.1480381,-0.28088665,0.9767924,0.19303128,0.092819631,0
1.4423952,-0.2529037,-2.3818345,0.20695375,-0.73889792,-0.64124894,0
0.33530426,-2.2724309,-0.43332887,0.20695375,-0.73889792,-0.64124894,0
1.3137069,1.8748074,1.511946,-0.20695375,0.73889792,0.64124894,0
-0.49936146,0.98693585,1.7434678,-0.20695375,0.73889792,0.64124894,0
0.54354239,-2.7402253,0.3532753,0.20695375,-0.73889792,-0.64124894,0
0.47254479,1.9122224,1.0112419,-0.20695375,0.73889792,0.64124894,0
0.29745555,-0.13686156,-2.799109,0.20695375,-0.73889792,-0.64124894,0
0.67238033,-2.1076465,-0.57603323,0.20695375,-0.73889792,-0.64124894,0
1.2157481,-2.7165537,0.43449545,0.20695375,-0.73889792,-0.64124894,0
-0.89300132,2.8255067,-0.35709858,-0.20695375,0.73889792,0.64124894,0
1.2333574,-1.7617683,-0.60788667,0.20695375,-0.73889792,-0.64124894,0
2.3958945,0.40945673,-1.0007782,0.90160954,0.39850509,-0.16820776,0
0.34649229,2.7341061,-0.84213054,0.22459495,0.67381549,-0.70393884,0
-1.6730542,0.081235647,2.3790264,-0.20695375,0.73889792,0.64124894,0
0.62766767,-2.0632467,1.4259959,0.21164739,-0.60610515,0.76670855,0
-0.33630514,-2.3144457,1.2043583,-0.20375985,-0.67361867,0.71043634,0
-0.4186677,-0.9110682,-2.1508448,0.20695375,-0.73889792,-0.64124894,0
0.78094208,-1.7326417,-0.78544289,0.20695375,-0.73889792,-0.64124894,0
1.8545586,-2.1760991,0.65529561,0.59808087,-0.42315623,0.68061602,0
-0.90566456,1.2658198,1.3549168,-0.20695375,0.73889792,0.64124894,0
0.43700528,-1.9831145,-0.56965137,0.20695375,-0.73889792,-0.64124894,0
-0.58915126,-1.7498472,-1.372691,0.20695375,-0.73889792,-0.64124894,0
2.7669554,-0.34313595,-1.4991648,0.91959333,0.37063721,-0.13029224,0
-0.77210611,0.58498383,2.1412196,-0.20695375,0.73889792,0.64124894,0
-2.3251646,-0.36655128,1.2421961,-0.86736369,-0.44178885,0.2291351,0
-0.69090915,-2.3000336,1.1698514,-0.30636954,-0.67141849,0.6747852,0
0.77108645,-1.3170944,1.8721287,0.3367275,-0.56159848,0.7557922,0
-0.71987295,1.8095222,0.89986563,-0.20695375,0.73889792,0.64124894,0
-0.026378214,0.52855659,2.4139769,-0.20695375,0.73889792,0.64124894,0
1.6531655,2.1543198,1.1813693,-0.20695375,0.73889792,0.64124894,0
2.1401522,1.2974439,0.28231442,0.93699241,0.33825111,-0.087359011,0
1.9521539,0.59378433,1.8537998,0.87913704,-0.14714734,0.45328355,0
-1.6649818,1.3260088,-1.3235865,-0.67296064,0.36823848,-0.64150184,0
-0.18936497,0.31638694,2.6625657,-0.20695375,0.73889792,0.64124894,0
1.5294602,-2.0482519,-0.28715956,0.20695375,-0.73889792,-0.64124894,0
-1.8496352,-0.24774647,-1.9150748,-0.84523469,0.19504264,-0.4975307,0
-1.9623525,-1.4001529,-2.2671399,0.20695375,-0.73889792,-0.64124894,0
1.3211936,1.1706008,-1.7615333,0.46443045,0.65107769,-0.60033512,0
-2.5825143,-0.29265592,0.65477514,-0.9417721,-0.32800537,0.074010611,0
-2.5956936,0.31558681,1.6537166,-0.90697694,-0.39065266,0.15742737,0
1.294858,1.1957271,2.1074624,-0.20695375,0.73889792,0.64124894,0
-1.8175253,2.190429,-0.0081076622,-0.20695375,0.73889792,0.64124894,0
-0.54769301,-1.9620653,-0.90493977,0.20695375,-0.73889792,-0.64124894,0
0.22030544,2.0368526,-1.4804882,0.1687659,0.67257547,-0.72052789,0
0.35199445,1.119266,2.0629716,-0.20695375,0.73889792,0.64124894,0
2.0578797,-1.2879561,-1.0265584,0.20695375,-0.73889792,-0.64124894,0
1.2055881,1.4983209,-1.4446485,0.48439008,0.64685178,-0.58902395,0
-2.5129623,1.7590878,0.31037545,-0.20695375,0.73889792,0.64124894,0
-0.84938991,0.31787062,-2.6746366,-0.45904416,0.50547498,-0.73059815,0
-1.4705745,-1.7679918,-1.501581,0.20695375,-0.73889792,-0.64124894,0
-2.2896063,-1.0240345,-0.76702952,-0.97694296,-0.19122535,-0.094949126,0
0.42195892,-2.7189159,0.13658643,0.20695375,-0.73889792,-0.64124894,0
0.032708645,1.6017818,-1.8953195,0.042477489,0.66160685,-0.74864686,0
1.9403359,0.86392003,-1.4734786,0.6936928,0.57301706,-0.43639639,0
2.000118,0.96688342,1.8391513,0.9316662,-0.051208556,0.35968834,0
2.3108912,-0.093341708,-1.9347721,0.7933079,0.51032573,-0.3320092,0
1.8078358,2.4651556,0.61813849,0.8795445,0.42755482,-0.20880234,0
-0.38806629,-0.85137767,2.4902992,-0.036181808,-0.66077077,0.74971533,0
-1.806682,0.22300434,2.194356,-0.20695375,0.73889792,0.64124894,0
-0.0069426298,-2.4102645,-0.25599062,0.20695375,-0.73889792,-0.64124894,0
-1.7625364,1.3096644,1.1172121,-0.20695375,0.73889792,0.64124894,0
2.0183415,1.7787185,1.6440642,0.97828555,0.14872432,0.14435542,0
0.56840199,0.98505306,2.1840699,-0.20695375,0.73889792,0.64124894,0
1.1226796,1.7239189,1.4853609,-0.20695375,0.73889792,0.64124894,0
0.89905488,1.3052502,1.924207,-0.20695375,0.73889792,0.64124894,0
0.44140244,-2.5288277,1.1697301,0.080448687,-0.64036655,0.76384479,0
0.065323472,2.1080103,0.62807292,-0.20695375,0.73889792,0.64124894,0
1.9698626,-2.0803609,-0.025430441,0.20695375,-0.73889792,-0.64124894,0
0.33143663,-2.476227,-0.15464807,0.20695375,-0.73889792,-0.64124894,0
1.2633107,-2.4448681,0.2320528,0.20695375,-0.73889792,-0.64124894,0
1.4670261,-2.7793968,0.53797412,0.45040184,-0.50989497,0.73290205,0
-1.2531165,0.69305694,-2.0669911,-0.53477311,0.46342206,-0.70658189,0
-1.2015727,2.6684959,-0.76227975,-0.3755908,0.54521054,-0.74945116,0
-0.53208637,0.17213154,-2.9405308,-0.37738293,0.54442376,-0.74912304,0
-0.9430474,-0.45712662,-2.8382349,0.20695375,-0.73889792,-0.64124894,0
0.86974084,0.88329887,2.4463921,-0.20695375,0.73889792,0.64124894,0
-1.9152805,2.3763995,-0.41510487,-0.62127626,0.40706623,-0.66956192,0
-1.7229731,-0.32342434,2.4792182,-0.52408868,-0.63719225,0.56508142,0
0.45570195,2.6261787,0.24496487,-0.20695375,0.73889792,0.64124894,0
2.7425933,-0.23955715,-1.2719674,0.93598515,0.3403222,-0.090070605,0
-0.94880676,0.24538183,2.5741,-0.20695375,0.73889792,0.64124894,0
-0.35506445,1.7960005,0.88230723,-0.20695375,0.73889792,0.64124894,0
-1.2361188,-0.49615729,2.5291367,-0.41091442,-0.66047198,0.6284315,0
2.7282176,-1.8437775,-0.18086362,0.88348758,-0.14040504,0.44691861,0
-1.7397721,-1.7588387,-1.5361837,0.20695375,-0.73889792,-0.64124894,0
1.0619719,-2.6110332,0.86008263,0.33263248,-0.5632515,0.75637525,0
-0.98803771,1.1553839,-1.9230455,-0.39320999,0.53735197,-0.74608225,0
-0.085651875,2.9763281,-0.75433421,0.078205109,0.66583538,-0.74198866,0
-1.1118877,2.2426827,-1.064394,-0.35005867,0.55612087,-0.75378287,0
2.3948269,0.11310613,-1.4659591,0.85287732,0.45738858,-0.25178555,0
0.87415326,1.7618477,1.4641715,-0.20695375,0.73889792,0.64124894,0
-1.7098197,-0.3334074,-2.1075966,-0.7980476,0.25165224,-0.5475319,0
-1.3324996,-0.95644301,1.9913511,-0.45367992,-0.65318704,0.60623527,0
-0.38281202,2.5571392,-1.1945202,-0.04686898,0.64719838,-0.76087964,0
-2.3126805,-0.45497707,0.86175758,-0.90620869,-0.39179859,0.15899572,0
-2.2656462,0.47418079,-1.1832218,-0.86932951,0.16179705,-0.46699882,0
1.0088154,-1.4695878,1.7671156,0.37297058,-0.54635596,0.74992549,0
-1.0843461,-0.56850719,-2.7044091,0.20695375,-0.73889792,-0.64124894,0
0.98626757,-0.53483605,-2.0832033,0.20695375,-0.73889792,-0.64124894,0
-2.0670481,1.9345274,0.23293638,-0.20695375,0.73889792,0.64124894,0
-1.8882405,-1.7214243,-1.6958998,0.20695375,-0.73889792,-0.64124894,0
-2.062017,-1.5441936,-0.37701643,-0.93482935,-0.34266412,0.093142211,0
2.6800992,-0.60889471,-1.4242325,0.20695375,-0.73889792,-0.64124894,0
2.0841873,1.2442677,1.4281775,0.97405905,0.094290376,0.20571458,0
1.1051357,0.31450176,3.0747957,0.58951163,-0.42890957,0.68447989,0
-0.83846605,2.1043484,-1.2509398,-0.25454724,0.59219897,-0.76453006,0
-0.71822691,0.56145024,2.1945851,-0.20695375,0.73889792,0.64124894,0
-2.6189406,1.2293019,0.068796635,-0.92526126,0.0651564,-0.37369299,0
-2.2861571,0.40708292,1.9549769,-0.20695375,0.73889792,0.64124894,0
2.0377321,0.43545115,1.4743474,0.90608871,-0.10246316,0.41049314,0
-0.090754628,0.14320588,3.0677261,-0.20695375,0.73889792,0.64124894,0
1.759129,1.6709721,1.7116264,-0.20695375,0.73889792,0.64124894,0
-0.52903056,-0.078207254,-3.1834679,-0.34349829,0.55883497,-0.75479305,0
0.9777118,-0.37803543,2.6653113,0.4755497,-0.49682605,0.72595912,0
-1.6618712,-2.1395273,0.2435036,-0.73450208,-0.55031413,0.39706567,0
-2.061712,2.1145029,0.11349893,-0.20695375,0.73889792,0.64124894,0
-2.6578479,0.1090655,0.15346885,-0.97748744,-0.18369152,-0.1038059,0
-1.008278,1.3223667,-1.9790841,-0.41328168,0.52806175,-0.74185526,0
0.19481975,0.29680037,2.8048363,-0.20695375,0.73889792,0.64124894,0
-0.72921395,-2.8905065,0.41162628,-0.42779362,-0.65780342,0.61990911,0
1.0446912,1.6530609,-1.6865213,0.36596781,0.66632235,-0.64967859,0
-2.7163453,0.50646418,0.34174418,-0.9762063,-0.11258599,-0.18532586,0
-2.58003,1.4705197,0.68966866,-0.20695375,0.73889792,0.64124894,0
1.282614,-1.0704316,-1.3950268,0.20695375,-0.73889792,-0.64124894,0
0.63337159,-0.56108928,2.7265015,0.34564573,-0.5579505,0.75446683,0
-0.77794313,0.42213786,-2.6546907,-0.3865096,0.54037273,-0.74740064,0
-2.0386109,2.376014,-0.25659776,-0.20695375,0.73889792,0.64124894,0
-1.2532532,-1.0678771,1.9525187,-0.45901304,-0.65215498,0.60332489,0
1.869251,1.1052501,2.4112952,-0.20695375,0.73889792,0.64124894,0
0.30124021,0.70722532,-2.7228045,0.0080570579,0.65670371,-0.75410569,0
1.4403799,1.1482465,2.2741315,-0.20695375,0.73889792,0.64124894,0
2.1999931,0.17617559,-1.874301,0.78578043,0.51601541,-0.34099457,0
2.1440866,-1.5273308,0.68394995,0.76164216,-0.28970578,0.57963079,0
0.91648471,0.2188952,-3.0956798,0.20695375,-0.73889792,-0.64124894,0
1.8443267,-0.80617487,1.6056499,0.70480829,-0.34198192,0.62152529,0
1.6530489,2.6592131,0.36882132,0.79338956,0.51026309,-0.33191067,0
2.5690472,-0.040095091,-1.2163098,0.91702616,0.37490761,-0.1360414,0
-2.7576137,0.49676442,1.6017337,-0.20695375,0.73889792,0.64124894,0
1.5103105,-0.46493077,-2.1286855,0.20695375,-0.73889792,-0.64124894,0
0.79846966,-0.9586637,-1.7635422,0.20695375,-0.73889792,-0.64124894,0
-1.1934328,1.2632113,1.4163095,-0.20695375,0.73889792,0.64124894,0
-2.6760707,0.27101147,1.8252418,-0.86972058,-0.43912002,0.22529915,0
-1.3458339,-1.058116,2.1225128,-0.43667829,-0.65629154,0.61529958,0
2.7749808,-0.85621083,-1.0410438,0.97436345,0.21477887,0.066976368,0
-0.98287952,-0.49465752,-2.7593694,0.20695375,-0.73889792,-0.64124894,0
2.0482521,-1.3854671,-0.95473516,0.20695375,-0.73889792,-0.64124894,0
0.63775134,1.6674424,-1.7778075,0.26931888,0.67314196,-0.68872875,0
1.1598283,-1.3117807,-1.2626266,0.20695375,-0.73889792,-0.64124894,0
0.41234851,2.8970923,-0.12886536,-0.20695375,0.73889792,0.64124894,0
1.8205324,-0.2031126,1.7492046,0.81181562,-0.23609875,0.53405344,0
0.91378903,1.0973964,2.3010836,-0.20695375,0.73889792,0.64124894,0
-2.2204859,1.4980077,-0.7372458,-0.7733534,0.2779088,-0.56981713,0
0.43766361,1.8792772,1.1757556,-0.20695375,0.73889792,0.64124894,0
-1.1144128,-2.3628261,0.62322634,-0.5563314,-0.62803364,0.54412228,0
-2.7716491,0.6728977,0.26481938,-0.97487712,-0.10056415,-0.19874948,0
-2.1744983,-1.0241718,0.076424003,-0.93243909,-0.3473956,0.099365592,0
-0.0035123825,-0.078923702,-2.9656694,0.20695375,-0.73889792,-0.64124894,0
1.0826163,-2.3492005,-0.10202622,0.20695375,-0.73889792,-0.64124894,0
-0.067384958,-2.1413298,1.3371195,-0.073130608,-0.66528845,0.74299622,0
0.0017578602,-1.6506702,1.8323439,0.023524404,-0.65149093,0.7582916,0
-0.90535659,-1.7228997,-1.5320579,0.20695375,-0.73889792,-0.64124894,0
2.1012037,1.616888,1.1670629,0.97525799,0.20788239,0.075211763,0
2.2705555,0.73969454,-1.1162926,0.82687986,0.48242521,-0.28902507,0
-0.18851808,1.1501431,1.7757243,-0.20695375,0.73889792,0.64124894,0
-2.493155,-0.28268772,-0.39286304,-0.97690022,-0.12039044,-0.176557,0
-0.16252315,1.962913,0.73726594,-0.20695375,0.73889792,0.64124894,0
-0.7613315,-1.4474349,-1.676204,0.20695375,-0.73889792,-0.64124894,0
-2.1303649,0.21506214,2.1590736,-0.20695375,0.73889792,0.64124894,0
-0.32046056,-1.0078696,2.3687611,-0.073213637,-0.66529745,0.74297988,0
0.017462254,-0.66776705,-2.3299751,0.20695375,-0.73889792,-0.64124894,0
-2.144876,0.078063726,-1.2114933,-0.90484053,0.10470605,-0.41267478,0
0.76570702,2.6952345,-0.67393082,0.39825886,0.66230118,-0.63462365,0
0.78175974,1.4861569,1.8049527,-0.20695375,0.73889792,0.64124894,0
1.6465731,1.0648568,-1.5911009,0.63217473,0.60122639,-0.48875552,0
-1.9374084,0.33636153,1.9609159,-0.20695375,0.73889792,0.64124894,0
-0.051094532,-3.0841141,0.45485938,-0.20454669,-0.67363191,0.71019757,0
-2.6951013,0.8092922,1.2362385,-0.20695375,0.73889792,0.64124894,0
0.6023941,1.1327543,-2.1918223,0.15684962,0.67201889,-0.72373247,0
-2.5875435,-0.3913995,0.13437963,-0.96871901,-0.24650718,-0.028594911,0
-0.23376334,-0.28095222,3.1790671,0.034506023,-0.64951825,0.75956273,0
1.5249026,-1.8263079,1.1780088,0.54487538,-0.45733032,0.70282286,0
-1.4230094,2.7220738,-0.3952229,-0.20695375,0.73889792,0.64124894,0
0.90717316,-1.1514997,-1.6070298,0.20695375,-0.73889792,-0.64124894,0
1.1977196,1.625819,-1.5667372,0.45296168,0.65332389,-0.60662478,0
-2.3414891,-0.43768153,1.1285607,-0.84529132,-0.46505615,0.26306909,0
-0.50191778,0.1251421,2.6872239,-0.20695375,0.73889792,0.64124894,0
2.4722826,-0.83174694,0.66415811,0.89884442,-0.1152176,0.4228518,0
-1.8768941,-1.3322802,1.0773636,-0.74146831,-0.54606456,0.38992071,0
-0.56163657,-0.68680692,-2.579448,0.20695375,-0.73889792,-0.64124894,0
-0.31447721,-1.1997753,2.2785528,-0.034222126,-0.66050494,0.75004137,0
1.6848619,0.45616055,-2.3158033,0.5424965,0.63211429,-0.55328935,0
2.0637903,1.4676349,1.9483567,0.96162593,0.032954752,0.27237767,0
1.9801428,1.2392173,2.0909512,0.92743033,-0.060532242,0.36906463,0
0.83493805,2.8314757,0.11829224,-0.20695375,0.73889792,0.64124894,0
-0.093387842,-1.3396838,-1.5291189,0.20695375,-0.73889792,-0.64124894,0
-1.1428263,2.6011262,-1.0125608,-0.30932283,0.57239944,-0.75939345,0
-2.0686064,-1.5740583,-1.8265508,0.20695375,-0.73889792,-0.64124894,0
-0.23890138,1.4486221,1.2318311,-0.20695375,0.73889792,0.64124894,0
2.4538267,-0.44296241,-1.7878126,0.20695375,-0.73889792,-0.64124894,0
-1.0221722,-2.7965441,-0.23179302,0.20695375,-0.73889792,-0.64124894,0
-2.6999488,0.2009635,1.1805112,-0.93440521,-0.3435145,0.094258904,0
0.58023119,3.0830886,-0.16469193,-0.20695375,0.73889792,0.64124894,0
-0.41291082,-0.95164263,2.4440503,-0.12429243,-0.66998482,0.73189604,0
-0.35954773,-1.3337389,2.1456852,-0.14036971,-0.67108297,0.72797263,0
-0.80522275,1.6479226,0.92589724,-0.20695375,0.73889792,0.64124894,0
2.2604775,-1.4883634,-0.82822335,0.20695375,-0.73889792,-0.64124894,0
-0.17399968,-0.84666085,-2.1095018,0.20695375,-0.73889792,-0.64124894,0
2.4766603,-0.15722057,0.58706784,0.95759255,0.018684298,0.28751951,0
1.1229734,-1.7768101,-0.78952312,0.20695375,-0.73889792,-0.64124894,0
1.4068902,0.21768522,-2.8687723,0.37683207,0.66507137,-0.64473081,0
1.2767886,1.6277962,1.6403548,-0.20695375,0.73889792,0.64124894,0
1.7245315,1.6859064,1.6586896,-0.20695375,0.73889792,0.64124894,0
-1.85286,-0.28405046,-1.8520665,-0.83883286,0.20331544,-0.50499725,0
-1.3128314,0.48838162,2.0073662,-0.20695375,0.73889792,0.64124894,0
-1.3390276,0.6289506,1.9287961,-0.20695375,0.73889792,0.64124894,0
0.019338369,2.8136563,-0.22873795,-0.20695375,0.73889792,0.64124894,0
0.075721502,1.579025,1.1952219,-0.20695375,0.73889792,0.64124894,0
-2.0166206,-0.94592118,-1.6838803,-0.94645429,0.014791816,-0.32249862,0
-1.1759077,-1.3764098,1.7509379,-0.45845133,-0.65226495,0.60363293,0
1.5758126,2.6117585,0.69406432,-0.20695375,0.73889792,0.64124894,0
-1.4194858,-2.5176167,0.061027572,-0.70871574,-0.56507188,0.4223929,0
0.52595806,-2.3641732,1.1918287,0.14172035,-0.62588435,0.76693171,0
0.33077216,-2.6649203,-0.071139574,0.20695375,-0.73889792,-0.64124894,0
1.6107463,2.6511142,0.4629665,0.82142311,0.48726851,-0.29636699,0
-1.458149,-1.5028566,1.2814937,-0.56125402,-0.6265254,0.54079562,0
1.7577128,0.94400698,-1.5812721,0.65222514,0.59273994,-0.47250575,0
1.4733422,-0.77934122,-1.901026,0.20695375,-0.73889792,-0.64124894,0
-0.031585932,2.3642845,-1.1591882,0.085653365,0.66660595,-0.74047279,0
-2.068229,-0.28650069,1.9236138,-0.73728937,-0.54862785,0.39422309,0
1.4405152,-1.79933,-0.64102983,0.20695375,-0.73889792,-0.64124894,0
0.94255346,-0.43800259,-2.2188342,0.20695375,-0.73889792,-0.64124894,0
2.4631205,0.18784332,-1.0745561,0.90246916,0.39727113,-0.16650844,0
-0.091959715,0.8707608,-2.5211425,-0.097051919,0.63670075,-0.76497912,0
-1.3570813,1.9802692,-1.2524014,-0.4234978,0.52319157,-0.73954046,0
1.0232553,2.7023835,-0.51449549,0.54577374,0.63116848,-0.55114186,0
-2.3541417,-0.58122265,0.25128663,-0.94875884,-0.31155789,0.052803516,0
0.8126781,-1.0800934,2.1175179,0.39997149,-0.53426307,0.74470526,0
0.70918524,0.62031102,2.6480265,-0.20695375,0.73889792,0.64124894,0
1.7027045,-1.6443925,-0.66578436,0.20695375,-0.73889792,-0.64124894,0
1.1139212,2.289016,0.84882194,-0.20695375,0.73889792,0.64124894,0
2.0706007,0.38573074,1.6108601,0.91124791,-0.092976332,0.40122676,0
2.4721315,-0.69399965,0.32280064,0.94375813,-0.021974891,0.32990539,0
-2.1574173,-0.20080447,1.773065,-0.77606088,-0.5230915,0.35228515,0
-0.12640214,-1.8966229,1.8035686,-0.080423176,-0.66606891,0.74154198,0
1.0936242,2.8327775,-0.17095284,0.5872165,0.61806118,-0.52266347,0
0.73604667,1.3015641,-2.035038,0.23649514,0.67378342,-0.70006132,0
-1.1643783,2.553848,-0.27506113,-0.20695375,0.73889792,0.64124894,0
-0.6868825,-0.73904037,-2.4090638,0.20695375,-0.73889792,-0.64124894,0
-0.081421904,1.0422533,1.9349235,-0.20695375,0.73889792,0.64124894,0
1.180931,-1.8306621,1.4492199,0.37759614,-0.54432982,0.74908358,0
2.1794181,1.0665438,-0.44186044,0.87911475,0.42807633,-0.20954201,0
0.26553988,3.1130762,-0.43774378,-0.20695375,0.73889792,0.64124894,0
-1.9998732,-1.7002007,-1.0095569,-0.96518207,-0.26137525,-0.0103212,0
-1.0486965,0.30253541,-2.4873891,-0.4930802,0.48733354,-0.72067881,0
2.6399989,0.2425355,-0.59485841,0.95246565,0.30193907,-0.040523708,0
0.3472091,-1.6312008,-1.2813654,0.20695375,-0.73889792,-0.64124894,0
-2.6497436,0.40612763,0.40332246,-0.97692317,-0.19146885,-0.09466213,0
0.60286748,-2.424119,-0.17271924,0.20695375,-0.73889792,-0.64124894,0
2.1404481,1.3391527,0.28456211,0.94002771,0.33182859,-0.078978896,0
1.1884937,0.32072115,3.0147939,0.61447728,-0.41186276,0.6728946,0
0.61784744,-2.7922835,0.32663631,0.20695375,-0.73889792,-0.64124894,0
-0.53378123,-1.5699766,-1.3649278,0.20695375,-0.73889792,-0.64124894,0
1.460808,0.061886311,-2.8319492,0.20695375,-0.73889792,-0.64124894,0
1.385071,-2.5691457,0.74284291,0.40622181,-0.53137112,0.74339002,0
-0.4551208,0.25709295,-2.9905801,-0.28294498,0.58222646,-0.76220381,0
2.4974687,0.49121743,-0.36750364,0.95782214,0.28658581,-0.02110374,0
0.84666038,0.68361044,2.4996505,-0.20695375,0.73889792,0.64124894,0
2.6986508,-1.6841505,-0.2633245,0.20695375,-0.73889792,-0.64124894,0
1.5588624,0.55598199,-2.3273785,0.49430132,0.64459968,-0.5832302,0
-2.4529967,0.7140885,-0.65999484,-0.91097146,0.093493909,-0.40173376,0
-1.2101207,1.2558773,1.3652039,-0.20695375,0.73889792,0.64124894,0
-0.37447548,-2.6000586,-0.25186962,0.20695375,-0.73889792,-0.64124894,0
-0.85771465,1.5602974,1.136585,-0.20695375,0.73889792,0.64124894,0
2.5695939,-0.19612956,-1.5939498,0.86411875,0.44540057,-0.23434398,0
2.2149661,-1.0692052,-1.1443483,0.20695375,-0.73889792,-0.64124894,0
-1.7984958,-1.3276138,-2.1478109,0.20695375,-0.73889792,-0.64124894,0
-1.8126661,1.3848989,0.89853263,-0.20695375,0.73889792,0.64124894,0
-1.7563522,2.0838215,0.27143312,-0.20695375,0.73889792,0.64124894,0
-2.0278819,-1.8631849,-1.3284445,-0.97320628,-0.22260636,-0.057583511,0
2.5502756,-0.23864162,-1.7062223,0.85421509,0.45600256,-0.24975669,0
-0.13452184,1.1033463,1.8126414,-0.20695375,0.73889792,0.64124894,0
0.76483089,0.86796808,2.4480462,-0.20695375,0.73889792,0.64124894,0
-0.33885598,0.70683992,-2.5648453,-0.25681466,0.59142548,-0.7643705,0
-2.0997233,-0.073591948,-1.468282,-0.88839233,0.13260727,-0.43951619,0
0.34169656,-0.10988593,-2.7682166,0.20695375,-0.73889792,-0.64124894,0
1.762831,1.6505671,1.6972885,-0.20695375,0.73889792,0.64124894,0
-1.6850874,0.99017215,1.5502261,-0.20695375,0.73889792,0.64124894,0
2.277863,0.79429126,0.64464974,0.97801369,0.13904467,0.15542138,0
-1.8744137,2.6084573,-0.46514273,-0.59829819,0.4230091,-0.68051666,0
1.1106567,2.1074769,-1.1460854,0.4638207,0.65120041,-0.60067332,0
-1.9982851,0.1971004,-1.5554354,-0.82831115,0.21647078,-0.51676023,0
-1.9674735,-0.89532185,-1.9822236,-0.92417657,0.06743294,-0.37596613,0
-0.91089833,-1.4879053,1.7821826,-0.32338607,-0.6702615,0.66796029,0
2.0883346,-0.11688757,-2.2870069,0.20695375,-0.73889792,-0.64124894,0
-0.96343148,-1.654675,-1.3691621,0.20695375,-0.73889792,-0.64124894,0
-2.3723006,0.48500311,1.8864425,-0.20695375,0.73889792,0.64124894,0
-0.24973607,-2.2186186,1.3357078,-0.14160919,-0.67115998,0.72766137,0
0.97913265,2.9328079,0.069593295,-0.20695375,0.73889792,0.64124894,0
-0.96602857,-2.8253651,0.32051301,-0.55425596,-0.62866068,0.54551452,0
2.1636205,1.524332,1.7303873,0.96764326,0.057885051,0.24559307,0
2.6939859,-0.55626082,-1.6800544,0.20695375,-0.73889792,-0.64124894,0
-0.37501454,-1.6496332,1.7310245,-0.19774002,-0.67350256,0.71224523,0
-0.15219021,2.0170956,-1.6100692,-0.016040683,0.65278792,-0.75737095,0
0.33498979,-2.1170263,1.4245073,0.086557865,-0.63903993,0.76428777,0
-1.574581,2.3648913,-0.63831663,-0.51982415,0.47221878,-0.71189356,0
1.1386425,0.91868067,-2.3414919,0.34262729,0.66866904,-0.65991551,0
-0.76535976,2.519031,0.040101528,-0.20695375,0.73889792,0.64124894,0
1.8793604,1.8881407,1.5623118,-0.20695375,0.73889792,0.64124894,0
0.87107337,-0.84318495,-1.8347859,0.20695375,-0.73889792,-0.64124894,0
-0.69242835,-0.12574959,2.9765635,-0.20695375,0.73889792,0.64124894,0
-2.188576,1.8305799,0.36036015,-0.20695375,0.73889792,0.64124894,0
-2.4082499,0.80256438,-0.73656821,-0.87334126,0.15589225,-0.46148956,0
-0.91348362,1.9848975,0.5407809,-0.20695375,0.73889792,0.64124894,0
-1.4428613,0.33508372,2.4122415,-0.20695375,0.73889792,0.64124894,0
-2.3383644,0.20549995,-1.0856152,-0.89536911,0.12112403,-0.42853606,0
0.15778375,-0.51939559,-2.5551565,0.20695375,-0.73889792,-0.64124894,0
1.9517168,-0.14197516,-2.4222474,0.20695375,-0.73889792,-0.64124894,0
0.23895657,-0.036665201,3.1775665,0.273754,-0.58552217,0.76303518,0
-1.9391012,-0.72070444,1.8816645,-0.65139949,-0.59310222,0.47318965,0
1.7814155,0.93385887,2.3216062,0.86533409,-0.16756435,0.47235489,0
0.35303366,0.32734466,-2.9554887,-0.015039563,0.65295857,-0.75724441,0
0.19033206,-1.1541951,2.2492089,0.082705736,-0.63987941,0.76401174,0
-1.1193196,0.88166785,1.7217352,-0.20695375,0.73889792,0.64124894,0
-0.92771626,2.2248955,-1.295784,-0.26293945,0.58931637,-0.76391691,0
0.29634273,0.31550455,2.8675847,-0.20695375,0.73889792,0.64124894,0
2.5306654,-0.25644016,-1.1327586,0.93336576,0.34557867,-0.096972942,0
1.6454227,-0.89169395,-1.6751578,0.20695375,-0.73889792,-0.64124894,0
-2.1077266,-1.8783307,-1.3606582,-0.97038949,-0.23847601,-0.038388193,0
1.6476331,-1.7483437,-0.42685533,0.20695375,-0.73889792,-0.64124894,0
0.74808502,-2.0634155,1.3990343,0.26921982,-0.58712393,0.76341754,0
1.8501297,1.6892531,1.7180034,-0.20695375,0.73889792,0.64124894,0
-2.3489339,-0.29404294,-1.0409532,-0.95249975,-0.0024958551,-0.30452955,0
-1.4709673,-1.8711494,0.94344771,-0.61314338,-0.60870755,0.50351799,0
2.0765312,-1.8270395,-0.26475,0.20695375,-0.73889792,-0.64124894,0
-2.0197358,0.4030506,-1.5709195,-0.82098502,0.2253304,-0.52460444,0
0.89282179,0.21374798,-2.9678538,0.16920972,0.67259419,-0.72040635,0
-1.2071415,-0.37686479,2.7856264,-0.30726659,-0.67136329,0.67443222,0
-1.3477176,-0.90697145,-2.6061752,0.20695375,-0.73889792,-0.64124894,0
0.44881105,-1.4769646,1.9526521,0.19133121,-0.61221558,0.7671926,0
2.6801877,-0.20580745,-0.57721484,0.96416944,0.2652294,0.0055533051,0
0.30678248,-2.2541111,-0.45385116,0.20695375,-0.73889792,-0.64124894,0
-1.3518749,1.7705754,0.75219309,-0.20695375,0.73889792,0.64124894,0
-2.1164231,0.045862198,2.1413536,-0.73386657,-0.55069596,0.39771071,0
-1.3524846,2.5717485,-0.2765336,-0.20695375,0.73889792,0.64124894,0
0.73839998,-1.6960167,-0.96668041,0.20695375,-0.73889792,-0.64124894,0
-1.0608603,-2.0230975,-1.0477662,0.20695375,-0.73889792,-0.64124894,0
-1.6623265,1.5870441,0.74242675,-0.20695375,0.73889792,0.64124894,0
0.22453117,0.42386127,2.8464899,-0.20695375,0.73889792,0.64124894,0
-0.087576866,-1.4937656,-1.273347,0.20695375,-0.73889792,-0.64124894,0
-0.48765993,-2.7961702,0.80589926,-0.31459677,-0.67088825,0.6715191,0
0.40611839,-0.017132044,-3.0689249,0.20695375,-0.73889792,-0.64124894,0
0.61842287,2.0829673,0.84838182,-0.20695375,0.73889792,0.64124894,0
-2.1562858,-1.9302602,-1.0466003,-0.96028841,-0.27877986,0.0113132,0
-0.2849164,-2.2042036,-0.73591578,0.20695375,-0.73889792,-0.64124894,0
-0.096916676,0.61142612,2.3404193,-0.20695375,0.73889792,0.64124894,0
-2.1724625,1.0854266,-1.1089201,-0.80100662,0.24836849,-0.54470307,0
0.28673434,2.4225574,0.35795835,-0.20695375,0.73889792,0.64124894,0
-1.7502072,0.019912004,-2.1016054,-0.779176,0.2718932,-0.56476468,0
-2.0927262,1.889271,0.39755464,-0.20695375,0.73889792,0.64124894,0
-2.1029992,-1.3135941,-1.3648448,-0.97410643,-0.094637185,-0.20533019,0
1.4413793,2.7852921,0.14227811,0.71550304,0.56132954,-0.41589016,0
-2.0357497,-0.32228601,-1.5490875,-0.91311556,0.089450806,-0.39776707,0
-0.6551218,2.0079415,-1.4773757,-0.21449864,0.60522342,-0.76661271,0
1.3844259,-0.26524544,2.4027426,0.62526125,-0.40422314,0.6675719,0
1.166209,0.0078527927,-2.8316157,0.20695375,-0.73889792,-0.64124894,0
-0.29417253,-0.40530133,-2.6572213,0.20695375,-0.73889792,-0.64124894,0
1.2943428,-2.6136067,0.38928604,0.20695375,-0.73889792,-0.64124894,0
0.56857395,-1.8166699,-0.91526669,0.20695375,-0.73889792,-0.64124894,0
-0.13815188,-2.232723,1.4257022,-0.13456589,-0.67070746,0.72941303,0
-0.16566074,1.487303,1.4253346,-0.20695375,0.73889792,0.64124894,0
-0.056041002,-1.6161631,1.8117892,-0.015261173,-0.6577971,0.75304055,0
2.3310552,0.74102402,0.63209057,0.97834742,0.1545797,0.13762844,0
-0.49991655,-2.5838385,0.9706673,-0.31194866,-0.67106485,0.6725772,0
-1.6109835,0.22025037,-2.0959191,-0.69409943,0.3510291,-0.62849408,0
-1.5395504,-1.9879541,-1.3756212,0.20695375,-0.73889792,-0.64124894,0
-1.3329147,0.21745753,2.5376296,-0.20695375,0.73889792,0.64124894,0
1.4503927,1.2941532,2.0683939,-0.20695375,0.73889792,0.64124894,0
-0.28796792,3.0442743,-0.46570516,-0.20695375,0.73889792,0.64124894,0
-2.5454082,1.654415,0.13642931,-0.87967622,0.14632024,-0.45250452,0
1.2974948,2.1657927,1.1355996,-0.20695375,0.73889792,0.64124894,0
-1.4768059,-1.8085997,-1.523656,0.20695375,-0.73889792,-0.64124894,0
-0.86380434,-3.0249729,0.027083546,0.20695375,-0.73889792,-0.64124894,0
-1.1674185,2.0968347,0.38320768,-0.20695375,0.73889792,0.64124894,0
-1.5125192,0.59254909,1.886112,-0.20695375,0.73889792,0.64124894,0
-1.3078841,-2.6888003,-0.13249576,-0.7063449,-0.5663563,0.42463806,0
1.5544875,2.4181292,0.8421877,-0.20695375,0.73889792,0.64124894,0
0.9823609,2.0806816,0.89791143,-0.20695375,0.73889792,0.64124894,0
-1.9684627,-1.426546,0.93159956,-0.75490129,-0.53752822,0.37574923,0
2.1930096,-1.9537688,0.52263188,0.7502566,-0.30081004,0.58875155,0
-0.74842548,0.537009,2.2048671,-0.20695375,0.73889792,0.64124894,0
1.8698184,1.1475418,2.3344541,0.90850103,-0.098071903,0.40621173,0
-0.62205446,-2.4830811,-0.33766082,0.20695375,-0.73889792,-0.64124894,0
1.1151903,1.1277022,2.1628377,-0.20695375,0.73889792,0.64124894,0
1.9611956,-2.0457244,0.6387682,0.67852986,-0.363785,0.6381675,0
-2.436157,-0.89781809,-0.038170099,-0.95308316,-0.30026382,0.038394034,0
-1.9081807,-1.7765043,0.1101687,-0.85158634,-0.45871639,0.2537322,0
2.4693937,0.094053984,-0.46967721,0.96544802,0.26033738,0.011602938,0
-0.5570401,2.0240698,0.49199039,-0.20695375,0.73889792,0.64124894,0
1.150671,2.041502,1.0089982,-0.20695375,0.73889792,0.64124894,0
1.5245453,2.0678837,-0.76006913,0.63384187,0.60054499,-0.48743224,0
1.0131669,-0.67845941,-2.0614219,0.20695375,-0.73889792,-0.64124894,0
2.1194816,0.43866861,1.3989017,0.92617238,-0.063225895,0.37176251,0
1.9179974,1.3766528,-1.0270711,0.74573916,0.54340047,-0.38547257,0
-1.35795,-0.62297368,-2.6923208,0.20695375,-0.73889792,-0.64124894,0
1.8286717,1.7158623,1.7434649,-0.20695375,0.73889792,0.64124894,0
1.0637926,0.5551399,-2.7978077,0.31171072,0.67108041,-0.67267197,0
-2.5151017,1.3481506,0.8440212,-0.20695375,0.73889792,0.64124894,0
-0.48242819,0.26813078,-2.935112,-0.28526378,0.58138454,-0.76198214,0
2.224158,-2.0245857,-0.12240839,0.20695375,-0.73889792,-0.64124894,0
-2.4254403,-0.37312901,0.99415874,-0.91149908,-0.38374758,0.14801133,0
1.3082072,-0.21620989,-2.421294,0.20695375,-0.73889792,-0.64124894,0
-1.2639771,0.68858457,2.01262,-0.20695375,0.73889792,0.64124894,0
-0.84089518,-0.91481996,-2.4461045,0.20695375,-0.73889792,-0.64124894,0
-0.68523681,0.71272826,2.2221024,-0.20695375,0.73889792,0.64124894,0
-2.0170922,1.0348881,1.2761972,-0.20695375,0.73889792,0.64124894,0
0.91859937,-2.8721986,0.3806479,0.20695375,-0.73889792,-0.64124894,0
-1.7015117,0.37069964,-1.8015552,-0.76528913,0.28607416,-0.5766232,0
0.20191085,-0.59527576,2.7515492,0.18506461,-0.61403966,0.767272,0
-2.3656082,1.8561279,0.29027987,-0.20695375,0.73889792,0.64124894,0
-2.6751747,0.37474,1.8293309,-0.20695375,0.73889792,0.64124894,0
-1.9427732,1.520667,0.85374129,-0.20695375,0.73889792,0.64124894,0
2.0006659,1.0814952,-1.1814218,0.74879962,0.54146308,-0.38225248,0
1.4212046,1.7670832,1.5519011,-0.20695375,0.73889792,0.64124894,0
-1.0108383,-2.418345,0.6067189,-0.51187956,-0.64034665,0.57265645,0
0.74371052,-2.7319093,0.78796864,0.18413532,-0.61430776,0.76728112,0
2.4975886,0.1542132,-0.52143133,0.9553858,0.29381102,-0.030215502,0
-1.4962335,2.4310889,-0.23641109,-0.20695375,0.73889792,0.64124894,0
-0.52751929,-0.64388227,-2.6534626,0.20695375,-0.73889792,-0.64124894,0
-1.9732358,-2.069401,-0.69256425,-0.91211933,-0.38277829,0.14669418,0
2.0892487,-0.19772243,-2.3435466,0.20695375,-0.73889792,-0.64124894,0
-0.065627098,-0.97904825,2.6187558,0.034321129,-0.64955217,0.75954211,0
1.8717175,0.20724022,1.8531973,0.83878851,-0.20337205,0.50504816,0
0.0642277,-0.21206212,3.0626483,0.20141894,-0.60921925,0.76699573,0
0.21202266,0.097904444,-3.0950208,0.20695375,-0.73889792,-0.64124894,0
2.4214611,0.35363957,-0.77232611,0.92391121,0.36319488,-0.120323,0
-0.61707568,-1.3664644,-1.8484139,0.20695375,-0.73889792,-0.64124894,0
-1.62173,1.9249301,-0.98864484,-0.58760345,0.43017715,-0.68532473,0
-1.0921237,2.7037125,-0.23608351,-0.20695375,0.73889792,0.64124894,0
0.33121288,0.09417963,3.1892314,-0.20695375,0.73889792,0.64124894,0
0.83773029,-2.0635099,-0.31918883,0.20695375,-0.73889792,-0.64124894,0
0.41794765,-2.1227701,-0.66004068,0.20695375,-0.73889792,-0.64124894,0
-1.7069852,1.5161234,-1.1580722,-0.62856042,0.40185121,-0.66590351,0
0.1827445,2.0970571,0.89339,-0.20695375,0.73889792,0.64124894,0
-1.1556032,2.733541,-0.35629344,-0.20695375,0.73889792,0.64124894,0
0.4306258,-0.46873939,2.7941775,0.2704286,-0.58669853,0.76331741,0
-1.7122983,-0.20925903,2.687084,-0.49943662,-0.64339179,0.58018112,0
-0.79564404,-2.6597362,0.63889992,-0.44247621,-0.65526432,0.61224467,0
-2.2373662,0.69288146,1.6808943,-0.20695375,0.73889792,0.64124894,0
-0.77144927,-1.0560205,-2.1758518,0.20695375,-0.73889792,-0.64124894,0
-0.010909557,2.7523179,-0.10658514,-0.20695375,0.73889792,0.64124894,0
2.2865219,-1.7987366,0.35153747,0.77354866,-0.27770868,0.56964952,0
-1.1814973,-1.1838033,-2.1101809,0.20695375,-0.73889792,-0.64124894,0
2.4174314,-0.025432467,0.91166306,0.94941115,-0.0065597296,0.31396735,0
-1.6194123,0.25856543,-1.9830678,-0.74605554,0.30482137,-0.59201789,0
1.2437271,1.4563732,1.7075408,-0.20695375,0.73889792,0.64124894,0
-0.12580052,-0.91031981,-2.1135454,0.20695375,-0.73889792,-0.64124894,0
2.1270189,-1.9688751,-0.20606327,0.20695375,-0.73889792,-0.64124894,0
1.5817277,0.32350779,2.2436512,0.77984488,-0.27119547,0.56417644,0
2.3576405,-1.6023674,0.4758184,0.79631686,-0.25355858,0.5491699,0
0.079050973,-0.96528602,-1.9532201,0.20695375,-0.73889792,-0.64124894,0
1.8267576,-0.58819532,-1.985261,0.20695375,-0.73889792,-0.64124894,0
-0.55198586,-1.3434451,2.1229377,-0.19329834,-0.67339981,0.7135604,0
0.0095340014,0.39267731,2.6776133,-0.20695375,0.73889792,0.64124894,0
-1.451215,2.6973398,-0.72298574,-0.43960464,0.51531446,-0.73566222,0
-1.2585872,2.0029292,-1.2474558,-0.39405596,0.53696769,-0.74591255,0
-0.55103028,-1.3319139,-1.8301606,0.20695375,-0.73889792,-0.64124894,0
-2.3289111,-1.0277624,-0.23600912,-0.96222562,-0.27223545,0.0031469464,0
-2.1180792,-0.93087018,1.2339081,-0.7782824,-0.52150005,0.34973437,0
2.4039156,0.038479209,-1.530226,0.84480351,0.46553844,-0.2637822,0
2.2273154,-1.0223141,0.81153107,0.83643967,-0.20635462,0.50772691,0
0.51159692,1.7406669,1.2843593,-0.20695375,0.73889792,0.64124894,0
1.3817931,0.63950896,2.6868098,0.72600889,-0.32336491,0.60691547,0
1.5449467,0.64864087,2.5480542,0.75946569,-0.29185557,0.58140564,0
1.3118415,-0.44024897,2.1067388,0.60408032,-0.41906804,0.67784148,0
-1.9103931,1.827493,0.30430317,-0.20695375,0.73889792,0.64124894,0
0.65542203,0.43968463,2.8414593,-0.20695375,0.73889792,0.64124894,0
1.43967,-2.3071532,0.87688851,0.48499,-0.49175417,0.72316158,0
2.263936,0.72746623,-0.6186651,0.90893769,0.38769269,-0.15338385,0
-1.1794686,-1.5250483,-1.634022,0.20695375,-0.73889792,-0.64124894,0
0.58063293,-0.61579514,-2.0968573,0.20695375,-0.73889792,-0.64124894,0
-1.9286382,0.5357573,1.8887539,-0.20695375,0.73889792,0.64124894,0
1.3669486,-1.888508,-0.52803016,0.20695375,-0.73889792,-0.64124894,0
-1.7158027,-0.60433334,2.1000307,-0.58658636,-0.61827701,0.52311558,0
-1.3747755,-1.3891976,-1.821251,0.20695375,-0.73889792,-0.64124894,0
2.2797718,-0.11590624,-1.9384404,0.79643083,0.50790918,-0.32821673,0
-0.19512375,-0.87888575,-2.0698771,0.20695375,-0.73889792,-0.64124894,0
-1.3366143,-0.85379696,-2.5505056,0.20695375,-0.73889792,-0.64124894,0
-2.0207868,-1.8794522,-1.3099432,-0.97638226,-0.19754393,-0.087487459,0
-1.924307,1.1902684,-1.2479975,-0.73874563,0.31169522,-0.59757936,0
0.18820429,-2.9676456,0.45744896,0.20695375,-0.73889792,-0.64124894,0
