-1.0781363,-2.1452734,-2.4126592,-0.67225134,-0.26185292,-0.69246733,0
-0.14192653,2.6140189,2.268338,-0.58049059,0.76695156,0.27352497,0
-0.60286999,2.434895,1.7557089,-0.58913028,0.75566226,0.28618142,0
2.5132332,0.32144189,1.7410896,0.67225134,0.26185292,0.69246733,0
2.6293194,0.50235677,1.6287723,0.67225134,0.26185292,0.69246733,0
-0.93496412,2.1849294,1.678838,-0.61889148,0.71206909,0.33155817,0
-0.7176429,1.0960009,3.2116296,-0.73915857,0.18496336,0.64763659,0
-0.21153885,0.18399584,-3.9039855,0.61876208,0.3148101,-0.7197417,0
-0.61516011,2.6560919,1.5252723,-0.54128337,0.81197095,0.21843854,0
-2.1177948,-3.176264,-1.1332047,-0.67225134,-0.26185292,-0.69246733,0
0.24176085,0.46977532,-3.5001383,0.58993506,0.37563324,-0.71475613,0
-0.75565863,2.5391216,1.1194016,-0.49590525,0.85377473,0.15857735,0
-0.41556346,-0.86572504,-3.6939721,-0.67225134,-0.26185292,-0.69246733,0
3.0778351,-1.7246815,1.1583402,0.53098929,-0.82232463,-0.20452973,0
-1.3714653,-3.1364763,-0.55946505,-0.00018239021,-0.93529999,0.35385585,0
2.7730522,1.4561189,-0.9043358,0.59032381,0.37485987,-0.71484119,0
0.42370665,2.5444531,-1.055268,0.072923869,0.90738803,-0.413919,0
-0.36013913,-1.8103528,-3.3214388,-0.67225134,-0.26185292,-0.69246733,0
2.2406387,-1.6591189,2.8936734,0.67225134,0.26185292,0.69246733,0
0.30821204,2.7550437,-0.58381033,-0.027816772,0.94363219,-0.32982489,0
2.3618393,1.7750039,1.2905836,0.67225134,0.26185292,0.69246733,0
-0.85961455,-2.8496513,0.42221153,-0.049167991,-0.91750163,0.39468104,0
1.6129647,3.0640633,1.6602082,0.67225134,0.26185292,0.69246733,0
-0.80532265,1.7719038,-2.8968172,0.20375341,0.8337943,-0.51309997,0
-0.080851674,0.24348605,3.825712,-0.67812175,-0.15748774,0.71787775,0
0.823874,0.18044764,-2.9312129,0.64761776,0.24520361,-0.72143364,0
0.26507944,1.9016826,3.3679752,0.67225134,0.26185292,0.69246733,0
-1.1572528,-0.3076551,-3.0856962,-0.67225134,-0.26185292,-0.69246733,0
-2.8761466,0.075495839,1.0686748,-0.73485518,0.12254959,0.66706026,0
-2.2803731,0.8149035,-2.5166454,-0.67225134,-0.26185292,-0.69246733,0
-0.6620782,-3.2107716,-1.2949692,0.30023378,-0.95141679,0.068304718,0
2.5614715,1.2442362,1.389642,0.67225134,0.26185292,0.69246733,0
-2.5041039,0.19394612,-1.8790451,-0.67225134,-0.26185292,-0.69246733,0
-0.35319948,2.622787,1.6237789,-0.53201103,0.82132149,0.20590091,0
3.5440471,0.25313139,0.89066046,0.67225134,0.26185292,0.69246733,0
0.53872979,1.3692594,3.2961035,0.67225134,0.26185292,0.69246733,0
-3.0458162,0.92590809,-1.8044116,-0.67225134,-0.26185292,-0.69246733,0
-0.9519152,-2.0929933,-2.6299777,-0.67225134,-0.26185292,-0.69246733,0
-2.2053504,-0.77500069,1.7329638,-0.65113521,-0.2359558,0.72135133,0
-1.089972,-2.7449303,-2.1737294,-0.67225134,-0.26185292,-0.69246733,0
1.5771321,2.9407325,1.7149198,0.67225134,0.26185292,0.69246733,0
1.7921507,-0.040520906,2.4767299,0.67225134,0.26185292,0.69246733,0
2.7684383,-0.83959049,-0.68088365,0.73027325,-0.3881444,-0.56217873,0
1.4017826,-0.71084046,3.1726937,0.67225134,0.26185292,0.69246733,0
3.2475438,-1.3724717,0.70367014,0.61983645,-0.71054918,-0.3330504,0
-0.45012033,2.719717,0.4403339,-0.32920712,0.94352484,-0.037192881,0
-0.58200151,-2.7483494,0.51728582,-0.058082134,-0.91382062,0.40194303,0
1.4445554,3.3266997,1.5251606,-0.18922698,0.96506393,-0.1812312,0
0.061844349,-1.1287352,3.2692738,-0.4597556,-0.58546507,0.66772401,0
-1.9746443,-0.60983014,-2.1345842,-0.67225134,-0.26185292,-0.69246733,0
1.9964012,1.5685077,1.9001001,0.67225134,0.26185292,0.69246733,0
-1.7461956,2.2047875,-0.38942814,-0.44125831,0.89277691,0.090777218,0
1.3139766,-2.0820444,2.3855047,-0.010769546,-0.9318006,0.36281067,0
-0.50416875,2.5893402,1.905956,-0.59012341,0.75432879,0.28764981,0
-0.53273213,1.2069525,3.2061601,-0.74006796,0.2131487,0.63786125,0
3.8984373,0.71397519,0.39761516,0.67225134,0.26185292,0.69246733,0
-0.10466611,-2.836556,-2.6874886,0.58570802,-0.76020044,-0.28114295,0
0.060481548,3.0310721,1.4628283,-0.41584522,0.90741599,0.060570359,0
-0.99049723,0.87578905,-3.6884606,-0.67225134,-0.26185292,-0.69246733,0
0.20831132,2.9838953,0.21629739,-0.17164761,0.96499985,-0.19827312,0
-1.5305582,2.1980772,0.53495729,-0.52298158,0.83000731,0.19385064,0
-1.9577978,-1.8522654,-1.5993063,-0.67225134,-0.26185292,-0.69246733,0
-0.031957865,2.937799,0.62699556,-0.3142848,0.94783074,-0.053307742,0
-0.79615414,-1.0539329,-3.0663779,-0.67225134,-0.26185292,-0.69246733,0
0.36417782,-0.015264273,3.8674459,0.67225134,0.26185292,0.69246733,0
3.0826285,-0.46629393,-0.58336568,0.73942167,-0.28362632,-0.61058307,0
-2.3219376,-0.57124686,-1.88708,-0.67225134,-0.26185292,-0.69246733,0
2.1239626,-0.047707558,2.2811337,0.67225134,0.26185292,0.69246733,0
-0.82821995,-0.24717069,-3.4906919,-0.67225134,-0.26185292,-0.69246733,0
1.0671555,0.67548072,-2.6628861,0.60580027,0.34307656,-0.71784705,0
-1.0601132,2.139647,1.5795542,-0.62516093,0.70180821,0.34152481,0
-2.6989446,1.8290782,-1.7445,-0.37800044,0.92565048,0.01693511,0
-2.247956,1.7654977,-2.8532591,-0.67225134,-0.26185292,-0.69246733,0
-0.64794213,-2.6804512,0.54393554,-0.044605792,-0.91933274,0.39094448,0
3.2236364,-1.3704907,0.59651381,0.61761898,-0.71410131,-0.32955441,0
0.013522148,-2.0033488,-3.5303411,0.71629518,-0.46642524,-0.51900733,0
0.30071729,0.022667289,3.9326515,0.67225134,0.26185292,0.69246733,0
3.1989164,0.18805254,-0.62897831,0.72856408,-0.067951486,-0.68159878,0
-0.50241983,-3.2323198,-1.7552197,0.40760392,-0.91173702,-0.050935715,0
-1.3617491,-0.58639479,-2.8308501,-0.67225134,-0.26185292,-0.69246733,0
-2.7650869,-2.5794752,-0.58070272,-0.67225134,-0.26185292,-0.69246733,0
-0.62166023,-1.7290287,-3.2016356,-0.67225134,-0.26185292,-0.69246733,0
-2.0477767,-1.0135456,1.7821469,-0.60933286,-0.33553126,0.71842337,0
-2.531352,-1.3867407,-1.3076097,-0.67225134,-0.26185292,-0.69246733,0
0.32669085,0.94435263,3.7404976,0.67225134,0.26185292,0.69246733,0
-2.310154,-2.9561069,-1.0639018,-0.67225134,-0.26185292,-0.69246733,0
3.2860765,1.4092367,0.52586639,0.67225134,0.26185292,0.69246733,0
1.4598566,-2.2174659,1.8673974,0.10037303,-0.95895946,0.26518276,0
1.0703599,-1.8429439,-2.2747915,0.69589561,-0.54265505,-0.47037736,0
-1.3452905,2.3839185,-0.32820141,-0.37692243,0.92611152,0.015714169,0
-2.1164389,-0.42836642,-2.1618702,-0.67225134,-0.26185292,-0.69246733,0
3.9581518,0.49485946,0.1960694,0.7315132,-0.091077082,-0.675717,0
1.3994733,1.1828976,2.6652782,0.67225134,0.26185292,0.69246733,0
-2.7280877,1.1348865,-2.2125764,-0.67225134,-0.26185292,-0.69246733,0
2.8615465,-1.7920495,2.2546582,0.67225134,0.26185292,0.69246733,0
3.7517581,-0.93600118,0.67786032,0.67581397,-0.59893054,-0.4296017,0
-1.015105,0.38312608,2.9716346,-0.71678203,-0.0037838742,0.69728702,0
0.91405201,-1.095842,-2.7229166,0.7399776,-0.26623183,-0.6177004,0
-2.8298757,-2.6475763,-0.54962355,-0.67225134,-0.26185292,-0.69246733,0
0.57116652,0.077842951,3.6244638,0.67225134,0.26185292,0.69246733,0
2.2018189,-0.3240056,2.333879,0.67225134,0.26185292,0.69246733,0
-0.10408956,-0.42419922,3.6329656,-0.58114225,-0.39281818,0.71271849,0
-0.26906288,2.8013675,1.0661783,-0.4395417,0.89383054,0.088712245,0
-1.6268835,1.3365678,1.7795155,-0.72500408,0.42214975,0.54420447,0
-1.5945568,-2.8078468,0.12791193,-0.17608333,-0.85196203,0.49310771,0
2.3577762,-0.039277792,2.0292103,0.67225134,0.26185292,0.69246733,0
-1.8565559,-2.6170516,-1.5070752,-0.67225134,-0.26185292,-0.69246733,0
0.39809161,1.3892815,3.522459,0.67225134,0.26185292,0.69246733,0
1.6086608,1.4099925,2.3224268,0.67225134,0.26185292,0.69246733,0
1.6118832,0.93951923,-1.994081,0.6119771,0.3298077,-0.71882594,0
1.9375234,0.80395484,2.1377766,0.67225134,0.26185292,0.69246733,0
0.25806218,-2.1885512,-3.153214,0.70069665,-0.52696317,-0.48097205,0
-3.2359951,-0.1109581,-1.1737204,-0.67225134,-0.26185292,-0.69246733,0
3.1561823,1.0362864,-0.61573684,0.66944313,0.18437384,-0.71961945,0
0.55932868,1.7054405,3.2567933,0.67225134,0.26185292,0.69246733,0
2.6345742,0.040038347,1.6729888,0.67225134,0.26185292,0.69246733,0
0.15724969,-2.2969222,1.6800213,-0.10651928,-0.89141423,0.4404932,0
-1.3101846,-1.4869171,1.7641959,-0.47229999,-0.56859452,0.67352277,0
-3.1726785,1.2282296,-1.661096,-0.67225134,-0.26185292,-0.69246733,0
-0.84458435,-1.7085576,-2.8227355,-0.67225134,-0.26185292,-0.69246733,0
-1.055648,-2.3419013,-2.4234366,-0.67225134,-0.26185292,-0.69246733,0
0.41447008,-2.7591603,-1.4716903,0.49466899,-0.85478348,-0.1569957,0
2.0723724,1.1316655,-1.5654747,0.61730862,0.31806165,-0.71956021,0
0.50550991,1.9071631,3.1348634,0.67225134,0.26185292,0.69246733,0
-3.6286631,-1.076683,-0.44218132,-0.67225134,-0.26185292,-0.69246733,0
-1.3308961,-1.3618214,2.0958145,-0.51233298,-0.51064682,0.69047427,0
-2.3459353,-1.2712245,1.3128269,-0.59551823,-0.36441335,0.71593362,0
2.7876139,2.0301161,-0.42205167,0.48056298,0.55716258,-0.67722154,0
-2.0467286,-1.2407031,-1.9508893,-0.67225134,-0.26185292,-0.69246733,0
0.91967082,2.8429337,2.382935,0.67225134,0.26185292,0.69246733,0
0.8306601,-1.2878313,-3.0325963,0.73992246,-0.26841062,-0.61682296,0
1.7847185,-1.6982054,3.3463438,0.67225134,0.26185292,0.69246733,0
2.8386989,-1.1175154,2.0235312,0.67225134,0.26185292,0.69246733,0
-0.27319622,-0.94107819,-3.7167978,-0.67225134,-0.26185292,-0.69246733,0
0.12117994,2.0519161,-2.040061,0.25264192,0.79806513,-0.54705048,0
-3.34009,-1.4990828,-0.55853152,-0.67225134,-0.26185292,-0.69246733,0
3.4932196,1.2536671,0.36929008,0.67225134,0.26185292,0.69246733,0
0.49600476,2.0886128,3.0388842,0.67225134,0.26185292,0.69246733,0
-1.7431341,2.1666143,-2.1997242,-0.10454333,0.9595626,-0.26136234,0
2.157639,-1.0567093,-1.2480658,0.72624433,-0.41480064,-0.54818761,0
3.2024877,1.6956911,0.53330308,0.67225134,0.26185292,0.69246733,0
-3.5124545,0.41123402,-1.0029962,-0.67225134,-0.26185292,-0.69246733,0
-2.0732274,1.9463429,-0.037336409,-0.52666438,0.82651323,0.19874713,0
1.2523826,3.1868033,1.8740695,0.67225134,0.26185292,0.69246733,0
-2.9033093,-1.7388153,-0.77553976,-0.67225134,-0.26185292,-0.69246733,0
-2.7027435,1.9644654,-1.1460633,-0.45533419,0.88376415,0.10785037,0
1.9175413,0.72485423,2.2525103,0.67225134,0.26185292,0.69246733,0
0.69763005,1.2936897,3.2129424,0.67225134,0.26185292,0.69246733,0
-1.2632155,-0.43963027,-2.8762152,-0.67225134,-0.26185292,-0.69246733,0
-2.0225518,0.81601751,1.6343558,-0.73979467,0.27293488,0.61498809,0
-1.8606181,-3.0057838,-0.035670638,-0.17053568,-0.85543174,0.48903406,0
-3.8385212,0.70629346,-0.52320331,-0.71085578,0.48957974,0.50497103,0
1.0245965,0.40045404,3.293874,0.67225134,0.26185292,0.69246733,0
3.505672,-0.51867747,1.1739386,0.67225134,0.26185292,0.69246733,0
1.0027158,1.1598802,3.0042651,0.67225134,0.26185292,0.69246733,0
-2.5974987,-0.68124807,1.1229026,-0.6748575,-0.16781427,0.71861374,0
3.1112823,-1.6061226,1.3613436,0.48628324,-0.86146164,-0.14632937,0
-1.9490013,1.6868441,0.88667923,-0.66330433,0.62845254,0.40629369,0
-1.082031,-1.8521554,1.7262167,-0.38435912,-0.67597139,0.62875324,0
-1.605984,-2.395143,-1.906039,-0.67225134,-0.26185292,-0.69246733,0
3.3079576,1.2930307,0.73014355,0.67225134,0.26185292,0.69246733,0
-2.0301394,0.95459449,-2.6630347,-0.67225134,-0.26185292,-0.69246733,0
-0.22354689,0.83264565,3.8275764,-0.72310847,0.031712502,0.69000608,0
3.8050754,0.47384882,0.035074875,0.73266888,-0.10116391,-0.67302465,0
-2.3582778,0.29120111,-2.1940582,-0.67225134,-0.26185292,-0.69246733,0
-0.41207814,-1.571826,-3.2887597,-0.67225134,-0.26185292,-0.69246733,0
2.824471,-0.9611963,-0.42854637,0.71373582,-0.47765499,-0.51227617,0
3.6681821,0.65996385,0.61080486,0.67225134,0.26185292,0.69246733,0
2.9454482,1.2533431,0.93348563,0.67225134,0.26185292,0.69246733,0
0.52360773,0.35360086,-3.2358994,0.61559403,0.32186979,-0.71933573,0
1.3953264,-2.1781597,2.047492,0.040027618,-0.94684637,0.31918588,0
1.3776417,0.79667956,-2.1841755,0.60009593,0.35502544,-0.71682769,0
0.58462447,1.6798999,-2.219615,0.39558601,0.66357481,-0.6349647,0
-1.6742623,-0.10828257,-2.5268509,-0.67225134,-0.26185292,-0.69246733,0
-0.47739112,-2.9068129,-0.03267467,0.086097181,-0.9566642,0.27817395,0
3.2575641,-1.3948272,0.64987534,0.61680603,-0.71539086,-0.32827762,0
3.2710395,-0.0038137436,1.0186909,0.67225134,0.26185292,0.69246733,0
-0.73460597,-2.117182,1.5037656,-0.26870477,-0.78527057,0.55780625,0
-0.23013884,-0.67874336,-3.8597739,-0.67225134,-0.26185292,-0.69246733,0
-0.023476481,2.8108582,-0.14947176,-0.18496847,0.96510154,-0.18537962,0
-3.2265296,0.73364329,-1.5765008,-0.67225134,-0.26185292,-0.69246733,0
-3.5500484,-0.13468182,0.23575929,-0.73653084,0.14200792,0.66132897,0
0.72439671,2.9414768,2.5522084,0.67225134,0.26185292,0.69246733,0
1.958391,0.69926047,2.2881608,0.67225134,0.26185292,0.69246733,0
-0.94884676,-1.3555405,-2.7800918,-0.67225134,-0.26185292,-0.69246733,0
-0.11500424,-1.7909229,-3.559269,-0.67225134,-0.26185292,-0.69246733,0
3.3656385,1.2371144,0.50637132,0.67225134,0.26185292,0.69246733,0
-1.214388,-2.7358458,-2.0142269,-0.67225134,-0.26185292,-0.69246733,0
1.3517046,-0.83783972,-2.3154476,0.74032277,-0.23718821,-0.62901825,0
-1.5395987,-2.6862326,-1.7785096,-0.67225134,-0.26185292,-0.69246733,0
0.65912902,-2.7388599,-0.97168511,0.46591321,-0.87653822,-0.12085292,0
-2.8154569,-2.6205299,-0.6873799,-0.67225134,-0.26185292,-0.69246733,0
-3.5740399,-0.26141262,-0.84938896,-0.67225134,-0.26185292,-0.69246733,0
-1.8658834,-3.1363008,-0.50629419,-0.10048339,-0.8944295,0.43577379,0
1.4278064,-0.8433249,-2.3358879,0.740228,-0.22276907,-0.63437879,0
-0.07995379,-2.853389,-1.8846021,0.49000052,-0.8585366,-0.15104425,0
-1.0728623,-2.8884995,-2.2071047,-0.67225134,-0.26185292,-0.69246733,0
2.947624,2.1788249,0.5445196,0.67225134,0.26185292,0.69246733,0
-1.0659454,-0.11964321,-3.1801772,-0.67225134,-0.26185292,-0.69246733,0
3.3402865,0.15594888,0.88868093,0.67225134,0.26185292,0.69246733,0
-1.9972286,-2.4181564,0.66214645,-0.35142937,-0.7103833,0.60979748,0
-2.2232604,2.023787,-1.0133973,-0.40112215,0.91499531,0.043411016,0
3.217494,-0.037370086,-0.62582052,0.73876363,-0.17659843,-0.65041625,0
2.8575838,-0.76609278,1.71382,0.67225134,0.26185292,0.69246733,0
-1.4480833,1.3523713,2.0642307,-0.72872543,0.39896476,0.5565846,0
-0.84967482,-2.6598024,-2.5133724,-0.67225134,-0.26185292,-0.69246733,0
-3.4924827,-0.27836466,0.29617953,-0.73301756,0.10435235,0.67215753,0
0.56693298,0.48757023,-3.2332969,0.60399503,0.34688887,-0.71753621,0
-3.0930295,1.2343415,-1.8598373,-0.67225134,-0.26185292,-0.69246733,0
2.0155234,1.2538898,1.796793,0.67225134,0.26185292,0.69246733,0
-1.8609399,0.52196515,2.0032635,-0.73781216,0.16000098,0.65576893,0
-0.95394409,1.689752,2.4165821,-0.71689606,0.4636924,0.52062404,0
-3.1771739,0.15636706,-1.2659271,-0.67225134,-0.26185292,-0.69246733,0
-0.85006034,0.60057139,3.2105069,-0.72481591,0.042354241,0.68763947,0
-2.6432705,0.74565643,0.99557757,-0.73735261,0.32052678,0.5946207,0
3.8663726,0.80840659,-0.038058132,0.71512443,0.012276486,-0.69888926,0
-0.23400497,-2.9394093,-0.49013513,0.21582484,-0.96404707,0.15502527,0
0.61709225,-2.6696661,-0.46903795,0.35956806,-0.93311107,0.0037803352,0
1.1902573,-0.089752913,3.1281877,0.67225134,0.26185292,0.69246733,0
-3.1864796,-1.369067,-0.69465381,-0.67225134,-0.26185292,-0.69246733,0
-0.98987347,-2.4190211,-2.3574445,-0.67225134,-0.26185292,-0.69246733,0
2.435807,-2.0475247,1.7822281,0.32121551,-0.94589561,0.045847535,0
0.69682801,-2.5360386,-1.62937,0.55180508,-0.80079901,-0.23287769,0
-2.8680735,-2.8978617,-0.44316912,-0.67225134,-0.26185292,-0.69246733,0
-1.633414,0.69139397,-3.1220956,-0.67225134,-0.26185292,-0.69246733,0
1.1204681,-0.16246235,3.3465295,0.67225134,0.26185292,0.69246733,0
0.52430081,-2.0581217,2.3107176,-0.15972316,-0.86203033,0.48103243,0
3.4812021,-0.68698597,1.2222853,0.67225134,0.26185292,0.69246733,0
-2.6470337,-0.14240164,1.1913996,-0.72354293,0.034369286,0.68942314,0
0.62548053,-0.71670508,3.7781749,-0.50101596,-0.52770454,0.68593794,0
0.2456255,2.8773768,2.7224278,-0.59444296,0.74843824,0.29407075,0
-1.6528769,2.054383,-2.4525003,-0.031656563,0.94467038,-0.32648981,0
0.33355796,-2.6939864,-0.90620321,0.40330356,-0.91391242,-0.045938164,0
1.0670346,-2.2995448,1.4509184,0.10494757,-0.95961934,0.26099145,0
-0.96835732,-1.3542166,-2.9148514,-0.67225134,-0.26185292,-0.69246733,0
-0.85379767,-2.4618824,0.87861037,-0.17828622,-0.85056841,0.49471933,0
-1.3539621,-3.3550677,-1.720258,-0.67225134,-0.26185292,-0.69246733,0
1.0569824,-1.547538,-2.5510056,0.72850096,-0.40046853,-0.55579787,0
1.8840799,-0.92849499,-1.8926291,0.73757648,-0.31738853,-0.59602481,0
1.6508073,0.033177614,2.6537666,0.67225134,0.26185292,0.69246733,0
-1.1328331,1.9630582,-2.5416098,0.076214761,0.90591013,-0.41655496,0
-2.7905519,-0.58888781,1.1693709,-0.69819009,-0.086801916,0.71063077,0
-1.352895,2.3994668,-0.094435453,-0.43023568,0.89937669,0.07758069,0
0.67323005,-0.40438342,3.8229408,0.67225134,0.26185292,0.69246733,0
1.1110284,1.9190333,2.5317698,0.67225134,0.26185292,0.69246733,0
-3.2379131,1.7336903,-1.8778535,-0.67225134,-0.26185292,-0.69246733,0
3.7194207,0.80882931,0.51768816,0.67225134,0.26185292,0.69246733,0
0.73294866,1.5540597,-2.3069234,0.44723514,0.60174686,-0.661726,0
1.4867378,-2.224606,2.0588393,0.10013586,-0.95892423,0.26539969,0
-0.76588023,-2.9954085,-2.4470634,-0.67225134,-0.26185292,-0.69246733,0
-1.9785329,1.5438282,-2.8708768,-0.67225134,-0.26185292,-0.69246733,0
-0.69217753,-2.616281,0.62343788,-0.093288034,-0.89794052,0.43011624,0
-0.8534708,-2.1144381,-2.8226871,-0.67225134,-0.26185292,-0.69246733,0
-1.690742,2.2357802,0.32385933,-0.52787822,0.82534707,0.20036653,0
-0.25785857,-1.5116527,-3.6408265,-0.67225134,-0.26185292,-0.69246733,0
0.26638144,2.0312958,3.4400511,0.67225134,0.26185292,0.69246733,0
-4.0896769,-0.0058937073,-0.44037521,-0.67225134,-0.26185292,-0.69246733,0
2.4952109,1.7343724,1.3875866,0.67225134,0.26185292,0.69246733,0
3.6119223,1.4866216,0.20856366,0.67225134,0.26185292,0.69246733,0
3.546773,-0.81100249,0.21184802,0.71147627,-0.48706931,-0.50652254,0
-1.6590962,-0.03085734,2.3468227,-0.70055503,-0.077434793,0.70938456,0
-1.7425168,-2.1624346,-1.7035993,-0.67225134,-0.26185292,-0.69246733,0
-1.0145293,-1.8244922,-2.7002854,-0.67225134,-0.26185292,-0.69246733,0
0.30414152,-1.2995516,3.1072254,-0.36684337,-0.69462788,0.61880362,0
-3.5907838,0.35526323,-1.1199224,-0.67225134,-0.26185292,-0.69246733,0
0.64124328,1.2765272,3.3326271,0.67225134,0.26185292,0.69246733,0
0.17677152,2.5640538,-0.745718,-0.017177701,0.94062382,-0.33901581,0
-2.7695541,-2.5412042,-0.74139202,-0.67225134,-0.26185292,-0.69246733,0
3.5041437,-0.15377676,-0.21424043,0.74020386,-0.25451416,-0.62235099,0
-2.0368893,1.4077847,-2.8146012,-0.67225134,-0.26185292,-0.69246733,0
-0.97406429,-2.9613833,-2.1754951,-0.67225134,-0.26185292,-0.69246733,0
3.2771833,-0.50296903,1.2772037,0.67225134,0.26185292,0.69246733,0
-1.4783723,-2.5060329,0.7146188,-0.25025731,-0.79991889,0.54543638,0
0.24832767,0.12188852,-3.4519405,0.6370647,0.27187127,-0.72127289,0
2.1838672,-0.60720062,-1.7224306,0.74032056,-0.24012044,-0.62790728,0
2.0508056,2.6077292,1.4958122,0.67225134,0.26185292,0.69246733,0
-0.27043855,2.6277201,-0.97434914,-0.060419738,0.95164376,-0.30120337,0
0.5447998,-1.3778675,3.0888665,-0.33847129,-0.72316706,0.60205185,0
0.84027034,0.28090942,-3.083643,0.65388536,0.22858945,-0.72123563,0
1.7478652,-0.17215466,2.7124753,0.67225134,0.26185292,0.69246733,0
3.564647,-1.1357807,1.2163224,0.67225134,0.26185292,0.69246733,0
2.8892496,2.0633252,0.7756837,0.67225134,0.26185292,0.69246733,0
2.4481874,0.72822213,1.8017648,0.67225134,0.26185292,0.69246733,0
1.863898,0.64369202,2.3298738,0.67225134,0.26185292,0.69246733,0
3.1680651,-0.59112334,1.4959595,0.67225134,0.26185292,0.69246733,0
1.3443241,3.194664,0.74360049,-0.07742542,0.9550966,-0.28599963,0
1.0375894,-1.5018108,3.2300849,-0.27833059,-0.77734351,0.56415343,0
2.9482322,0.22019982,1.3105793,0.67225134,0.26185292,0.69246733,0
0.64333808,-2.7378478,0.0029577017,0.30181456,-0.95103562,0.066625804,0
2.0681412,2.6992691,1.4150264,0.67225134,0.26185292,0.69246733,0
1.9866005,0.17889509,-1.8864073,0.70029879,0.078462861,-0.70952451,0
3.2171805,1.0019598,-0.48006055,0.67704225,0.16093297,-0.71813262,0
-3.9011521,0.49476695,-0.38464171,-0.72134668,0.442101,0.53310937,0
-0.74854785,-2.0146902,-2.9793625,-0.67225134,-0.26185292,-0.69246733,0
-0.36492983,-0.36553359,-3.7085264,-0.67225134,-0.26185292,-0.69246733,0
1.7643063,1.1053424,2.3175075,0.67225134,0.26185292,0.69246733,0
3.0047503,1.8774694,-0.4603374,0.55577695,0.43941075,-0.7057125,0
0.92038685,0.079176426,3.4062836,0.67225134,0.26185292,0.69246733,0
0.52513933,0.60374236,3.6485226,0.67225134,0.26185292,0.69246733,0
-1.6924182,1.8666269,-2.9286351,0.028060973,0.92567372,-0.3772805,0
-0.23823845,-2.706995,0.77618301,-0.020219982,-0.92851532,0.37074292,0
1.5687732,0.53064227,2.5192471,0.67225134,0.26185292,0.69246733,0
2.6244693,-1.7050148,2.4554899,0.67225134,0.26185292,0.69246733,0
3.3716803,-1.1183139,0.57090414,0.65974456,-0.63626188,-0.39988485,0
-1.8953505,-1.4891894,-1.9856143,-0.67225134,-0.26185292,-0.69246733,0
-0.92288232,1.0265129,-3.7123046,-0.67225134,-0.26185292,-0.69246733,0
1.3815323,3.4284112,1.5833541,0.67225134,0.26185292,0.69246733,0
0.79098433,1.0847588,3.2579861,0.67225134,0.26185292,0.69246733,0
-0.5744803,2.555409,-0.88066125,-0.161843,0.96471453,-0.20768359,0
0.3748045,2.9084189,-0.20356715,-0.091972351,0.95765191,-0.27284387,0
-1.4895823,-0.33625707,2.3841634,-0.67251158,-0.17507306,0.71908116,0
2.9863408,1.1173038,1.0840456,0.67225134,0.26185292,0.69246733,0
-0.84694356,2.0777733,2.2189119,-0.66647571,0.62128788,0.41208178,0
2.4620485,2.6051133,1.078328,0.67225134,0.26185292,0.69246733,0
-0.60997283,-3.2033143,-1.0289657,0.22683245,-0.96322519,0.14402834,0
1.676731,-2.3143191,1.724385,0.19279784,-0.96500593,0.17774275,0
1.0793231,-1.4234942,3.2814264,-0.26309747,-0.78979808,0.55407459,0
1.635929,-2.1927922,0.050468683,0.47846815,-0.86743301,-0.13648435,0
3.3884692,-0.36957979,-0.3953371,0.738886,-0.2955637,-0.60554898,0
1.8660668,0.68639112,2.2696149,0.67225134,0.26185292,0.69246733,0
-1.6727571,-0.24286294,-2.5993674,-0.67225134,-0.26185292,-0.69246733,0
0.069779277,-2.7734571,0.2898351,0.12271351,-0.96183234,0.24458098,0
-2.7923205,-2.5740325,-0.79172969,-0.67225134,-0.26185292,-0.69246733,0
1.4167359,-0.61188942,-2.5815558,0.73535812,-0.12803721,-0.6654734,0
-2.0710325,-2.2548103,-1.3286685,-0.67225134,-0.26185292,-0.69246733,0
0.037646413,-1.9740152,2.2148614,-0.22983479,-0.81532347,0.53143531,0
0.62128377,1.330853,-2.4230528,0.46911865,0.57292753,-0.67207265,0
-2.5252624,1.2883077,-2.4627166,-0.67225134,-0.26185292,-0.69246733,0
1.0841806,3.3795035,1.6191843,-0.29284686,0.9531244,-0.076121569,0
0.92245734,1.4625149,2.7556915,0.67225134,0.26185292,0.69246733,0
-1.9629097,2.0292251,0.36260891,-0.57436705,0.7746278,0.26467735,0
-1.9996126,2.0623038,-1.530243,-0.27030778,0.95759833,-0.09969455,0
1.0512872,-1.3791976,3.4602373,-0.2661913,-0.78730816,0.55613667,0
2.3787069,3.0350833,0.85944462,0.67225134,0.26185292,0.69246733,0
-0.50781024,-0.59544039,-3.7351947,-0.67225134,-0.26185292,-0.69246733,0
3.5829835,-0.38726747,0.93065226,0.67225134,0.26185292,0.69246733,0
1.0519737,3.2724957,1.934432,0.67225134,0.26185292,0.69246733,0
-0.56895888,2.5063782,1.4650267,-0.55229801,0.80026031,0.23355985,0
0.21203351,-2.1333315,-3.2691135,0.70269406,-0.52010095,-0.485506,0
-0.11114568,-0.89335799,3.2664602,-0.50739902,-0.51815307,0.68852282,0
2.2948751,2.0135956,1.3353192,0.67225134,0.26185292,0.69246733,0
-2.1455083,-2.6602187,-1.1961427,-0.67225134,-0.26185292,-0.69246733,0
-0.82386577,2.0899358,-2.2239871,0.097942859,0.89567947,-0.4337801,0
2.4664576,-0.09110266,-1.4377041,0.73146003,-0.090629019,-0.67583477,0
-1.7725158,-2.5851209,-1.5538485,-0.67225134,-0.26185292,-0.69246733,0
0.92844814,3.0914588,0.49231839,-0.11450881,0.9608798,-0.25218591,0
-0.23356074,2.1874349,3.0129004,-0.68267566,0.58112741,0.44299525,0
0.51584935,-2.6900778,0.60896432,0.17540497,-0.96506214,0.19464898,0
-1.5616193,1.6057158,-3.3125508,-0.67225134,-0.26185292,-0.69246733,0
-3.3914788,-2.1365359,-0.35864282,-0.67225134,-0.26185292,-0.69246733,0
0.028805897,-1.1679828,-3.9716914,-0.67225134,-0.26185292,-0.69246733,0
1.4557593,-0.29889071,3.1176937,0.67225134,0.26185292,0.69246733,0
3.7610176,1.1566212,0.020001948,0.68913031,0.12044512,-0.71455747,0
-0.088443875,1.9149953,-2.3299465,0.26182795,0.79081398,-0.55322635,0
-2.6694388,-0.91218734,1.0470245,-0.6619221,-0.20632282,0.72061783,0
-1.2961959,0.42130023,2.5461276,-0.72822326,0.065471962,0.6822055,0
-0.23087829,2.0427608,3.2010646,-0.70987678,0.49348056,0.50254542,0
-1.2899405,-0.91048789,-2.8689852,-0.67225134,-0.26185292,-0.69246733,0
-0.19737375,-3.122555,-1.3218561,0.38594353,-0.92215681,-0.025967479,0
-2.2165661,2.0238094,-1.1459727,-0.39667982,0.91715854,0.038280398,0
1.92328,-0.99759066,2.9466875,0.67225134,0.26185292,0.69246733,0
-1.8834058,-2.3434784,-1.534291,-0.67225134,-0.26185292,-0.69246733,0
2.6864314,-0.8700186,2.1840742,0.67225134,0.26185292,0.69246733,0
0.90282553,3.3507273,2.1776397,-0.38379902,0.92311698,0.023522437,0
-2.8486304,0.74998724,-1.844565,-0.67225134,-0.26185292,-0.69246733,0
-0.55497169,-0.48293662,-3.5268879,-0.67225134,-0.26185292,-0.69246733,0
-3.0488043,0.63945866,0.36432204,-0.72890282,0.39776611,0.55720991,0
-2.8151088,1.6819525,-0.86203277,-0.54396653,0.80918014,0.22209868,0
3.0002656,-1.5382628,0.61892945,0.58988988,-0.75464302,-0.28730422,0
-2.4145334,0.9996835,1.0670187,-0.73055083,0.38611206,0.56321675,0
2.733048,2.1760495,-0.34605682,0.44196957,0.60843503,-0.65914321,0
-0.10115099,2.3367248,3.0111883,-0.67748791,0.59470361,0.43282515,0
0.055542171,2.7000437,2.8297052,-0.61601281,0.71664274,0.32703409,0
0.39963654,1.2974572,3.5679131,0.67225134,0.26185292,0.69246733,0
-3.306154,0.60908377,0.21662365,-0.73259026,0.37012953,0.57124043,0
-0.69960135,-1.9919224,-2.7811587,-0.67225134,-0.26185292,-0.69246733,0
-3.9765186,0.2821269,-0.63609701,-0.67225134,-0.26185292,-0.69246733,0
2.1469893,-2.2229657,1.4048964,0.32281131,-0.94543421,0.044123888,0
-0.10794365,2.0542815,-2.1196852,0.22705314,0.81735712,-0.52950382,0
0.36689073,0.15242088,3.8567462,0.67225134,0.26185292,0.69246733,0
-1.7468798,-0.61992383,-2.3197649,-0.67225134,-0.26185292,-0.69246733,0
-1.2145747,-2.6072445,-2.2853475,-0.67225134,-0.26185292,-0.69246733,0
-3.8672187,-1.3264403,-0.010931611,-0.66000021,-0.2117531,0.72080541,0
1.0268528,2.794404,-0.041536689,0.029498041,0.92514151,-0.37847435,0
1.0592316,-2.464072,-1.0635737,0.52955103,-0.82372791,-0.20260288,0
-3.546824,0.05741334,-0.90696192,-0.67225134,-0.26185292,-0.69246733,0
-1.3508424,-1.3671033,-2.3741505,-0.67225134,-0.26185292,-0.69246733,0
2.9855494,0.97807074,0.99423742,0.67225134,0.26185292,0.69246733,0
-1.2164941,-0.39086914,-3.1112306,-0.67225134,-0.26185292,-0.69246733,0
1.9225227,0.27405453,2.5028427,0.67225134,0.26185292,0.69246733,0
1.5292991,1.218518,-1.9189534,0.54542893,0.45728222,-0.70242453,0
0.98903,-2.4435825,0.91743183,0.2000432,-0.96481389,0.17063627,0
1.1658705,3.2287629,1.1127331,-0.16689944,0.96488392,-0.20283881,0
-3.5084977,0.93851423,-1.2114537,-0.67225134,-0.26185292,-0.69246733,0
0.01835382,2.8347137,-0.16603231,-0.14583814,0.96387023,-0.222902,0
-0.9422304,-2.5215039,-2.3709846,-0.67225134,-0.26185292,-0.69246733,0
-2.2006221,-2.4867182,0.20019329,-0.30426908,-0.75498319,0.58087921,0
0.49019659,-2.6652958,0.83245468,0.12934184,-0.9625144,0.2384041,0
-2.9289634,-2.2546296,-0.71957338,-0.67225134,-0.26185292,-0.69246733,0
-2.4034743,-0.88613892,-1.6689683,-0.67225134,-0.26185292,-0.69246733,0
2.5151434,0.27258825,1.690118,0.67225134,0.26185292,0.69246733,0
2.5536666,-1.1846743,2.3191242,0.67225134,0.26185292,0.69246733,0
-0.59388316,2.543288,1.4557316,-0.53398776,0.8193655,0.20855959,0
1.7257847,1.1608336,2.0778308,0.67225134,0.26185292,0.69246733,0
1.3925178,-0.098104477,3.1343055,0.67225134,0.26185292,0.69246733,0
-1.113307,1.5684679,2.2417803,-0.7202903,0.44746107,0.53005701,0
3.6509562,0.74930596,0.52148545,0.67225134,0.26185292,0.69246733,0
2.8191195,-0.53640413,1.8285904,0.67225134,0.26185292,0.69246733,0
-1.5489964,1.8021121,1.6585538,-0.67841041,0.59234321,0.43461329,0
0.31308413,-2.7366352,-1.0574751,0.42789948,-0.90072554,-0.074802697,0
1.7066579,-0.089363813,2.837476,0.67225134,0.26185292,0.69246733,0
0.96204334,0.45956838,-2.8869107,0.6265806,0.29693633,-0.72057307,0
-3.9496257,-0.019165993,-0.12414761,-0.74023664,0.25202394,0.62332457,0
-3.256412,-0.35397053,-1.0080103,-0.67225134,-0.26185292,-0.69246733,0
1.1981518,2.4226868,-1.0544204,0.24321526,0.80532569,-0.54064465,0
-1.6679244,-2.6725502,0.32305443,-0.19092664,-0.84239614,0.50390047,0
-2.6312232,-0.057870626,-1.8479681,-0.67225134,-0.26185292,-0.69246733,0
-2.8451591,1.2986077,0.17942086,-0.67421985,0.60289049,0.42655677,0
-0.41364396,-2.5849373,0.80930305,-0.065011799,-0.91086447,0.4075526,0
-1.3695844,-1.7455013,1.5284725,-0.43259516,-0.62011606,0.65445966,0
2.5277884,0.54384947,1.6938314,0.67225134,0.26185292,0.69246733,0
2.1922359,-1.9288449,2.609777,0.13034427,-0.96261072,0.23746735,0
0.18320441,-2.7129071,0.24301362,0.16749877,-0.96490085,0.20226341,0
-3.2761745,-0.74353385,-0.83898562,-0.67225134,-0.26185292,-0.69246733,0
3.5631981,-0.24845219,1.0456281,0.67225134,0.26185292,0.69246733,0
3.3348584,-0.071207523,-0.61283982,0.73920542,-0.18604264,-0.64727396,0
-3.4700851,-0.24430621,0.18738934,-0.73552549,0.12992321,0.66492271,0
-0.973355,-1.0744035,2.4968817,-0.54103577,-0.4646883,0.70096016,0
0.5677036,-2.7568336,-0.62850654,0.36755687,-0.92998666,-0.0051567256,0
2.0695233,0.76767325,1.9054517,0.67225134,0.26185292,0.69246733,0
1.8638258,-1.7622608,-1.0258758,0.65859771,-0.63872778,-0.39783895,0
-2.2277069,1.8340055,-2.648041,-0.11978126,0.96150565,-0.24730414,0
-2.2451482,1.4723207,0.68913519,-0.66360402,0.62778425,0.40683737,0
0.22345179,-1.9776106,-3.0923884,0.70124257,-0.52510846,-0.4822033,0
2.6017866,2.7220545,0.6934517,0.67225134,0.26185292,0.69246733,0
3.71,0.094768047,0.67366517,0.67225134,0.26185292,0.69246733,0
-2.6241748,-2.699146,-0.67258096,-0.67225134,-0.26185292,-0.69246733,0
-0.57431668,-1.3249922,-3.4141884,-0.67225134,-0.26185292,-0.69246733,0
0.99392784,-2.1957128,-1.5371752,0.61226785,-0.72246909,-0.32119533,0
-2.4149036,-3.0420363,-0.40184224,-0.21112075,-0.82871091,0.51833004,0
-2.7133179,1.2082187,-2.1483045,-0.67225134,-0.26185292,-0.69246733,0
2.4000998,2.4856391,-0.22570634,0.34685037,0.71494812,-0.60707825,0
1.7534612,-2.3062174,0.42211354,0.4309836,-0.8989411,-0.078471482,0
1.1292396,-1.0028238,3.5489655,0.67225134,0.26185292,0.69246733,0
1.1265607,0.60499698,-2.6778343,0.63245392,0.28305838,-0.72102702,0
-2.0432458,1.6697502,0.98414683,-0.66589999,0.62260383,0.4110252,0
2.6557968,-1.7812414,2.3653688,0.23766756,-0.96218204,0.13311511,0
2.0547242,-1.9183369,-0.56861138,0.59904051,-0.74200344,-0.30096731,0
0.0021888316,1.4069858,3.7452669,0.67225134,0.26185292,0.69246733,0
0.86172444,0.24121791,-2.8797081,0.64473844,0.25263512,-0.72144848,0
-0.29355758,1.2500763,3.5817554,-0.74031788,0.23434407,0.63008904,0
3.3616054,0.98494625,0.79496837,0.67225134,0.26185292,0.69246733,0
-3.4060259,1.3018078,-1.5893075,-0.67225134,-0.26185292,-0.69246733,0
3.2749758,0.69923997,0.85685825,0.67225134,0.26185292,0.69246733,0
-0.81421816,0.89874709,3.0430071,-0.73376292,0.11142694,0.67020583,0
2.6058314,1.1204568,-1.0076108,0.62461311,0.30149668,-0.72038752,0
-1.0506885,2.4690104,0.12116754,-0.39664418,0.91717565,0.03823933,0
0.30934083,-2.8342526,-0.14874887,0.28391147,-0.95502943,0.085516512,0
-1.2981927,-0.73105526,-2.7209837,-0.67225134,-0.26185292,-0.69246733,0
3.4872296,-0.36107469,1.052109,0.67225134,0.26185292,0.69246733,0
-0.32138085,-0.69697201,3.2179759,-0.5771029,-0.40052396,0.71171099,0
2.9803205,1.8134754,0.80137175,0.67225134,0.26185292,0.69246733,0
-1.173027,-3.2770872,-2.0803483,-0.67225134,-0.26185292,-0.69246733,0
-1.9221698,-2.4133768,-1.551748,-0.67225134,-0.26185292,-0.69246733,0
1.0866826,2.4756489,2.3898234,0.67225134,0.26185292,0.69246733,0
-2.0711164,-1.3128862,1.3565341,-0.56065536,-0.43076849,0.70718038,0
0.59142506,0.35566449,3.627147,0.67225134,0.26185292,0.69246733,0
-1.3381243,2.4650185,0.48857027,-0.4848966,0.86253864,0.14457595,0
0.30180636,-0.67129743,-3.4889662,0.72120512,-0.020442307,-0.69241995,0
-3.27526,0.33818519,0.43241233,-0.73947394,0.28228515,0.61114097,0
1.6561416,-2.0597079,2.203115,0.071440458,-0.95393848,0.29137197,0
-0.97073936,1.0523982,-3.9275978,-0.67225134,-0.26185292,-0.69246733,0
-1.3124068,-1.5867469,-2.3952951,-0.67225134,-0.26185292,-0.69246733,0
-1.2879418,0.90514946,-3.508795,-0.67225134,-0.26185292,-0.69246733,0
0.10605645,-1.9198124,2.3616199,-0.26455897,-0.78862429,0.55504972,0
-0.67708194,-2.7556949,0.14781797,0.013815343,-0.93963289,0.34190527,0
3.8697014,-0.88383937,0.80920768,0.67225134,0.26185292,0.69246733,0
2.5776408,0.74846363,1.4241694,0.67225134,0.26185292,0.69246733,0
-1.006659,2.3425865,-1.3391445,-0.11834061,0.96133953,-0.24863973,0
1.5516843,-1.0463333,-2.0766723,0.73540074,-0.34387562,-0.58389664,0
2.3707931,-1.3800035,-0.50842619,0.67995155,-0.58834922,-0.43761978,0
-0.93271637,-2.5283635,0.71437192,-0.14496377,-0.87069219,0.46997938,0
-0.13431633,2.8766501,0.51001042,-0.30322915,0.95068985,-0.06512183,0
-0.018681705,-2.5922351,-2.7495446,0.63777101,-0.6798104,-0.36208513,0
0.54319644,1.3137088,3.2232423,0.67225134,0.26185292,0.69246733,0
-2.064198,0.87430727,-2.7982728,-0.67225134,-0.26185292,-0.69246733,0
1.5946794,2.0742018,1.884774,0.67225134,0.26185292,0.69246733,0
-0.92317903,1.1842496,2.8938777,-0.73885882,0.29610193,0.60531908,0
3.5523899,-0.8099674,1.290767,0.67225134,0.26185292,0.69246733,0
1.2384984,3.2781982,0.71252292,-0.08135134,0.95582241,-0.28246298,0
1.895008,-2.2247486,1.6940176,0.2266283,-0.96324247,0.14423314,0
3.5877252,2.0551121,0.10034847,0.56174463,0.428819,-0.7075007,0
1.5001369,1.3712972,-1.7313575,0.51486635,0.50674987,-0.69146013,0
-0.61167622,-1.3109384,2.6183321,-0.47894278,-0.55942476,0.67650402,0
1.9908675,1.3463128,1.9577262,0.67225134,0.26185292,0.69246733,0
2.8105702,1.8692658,-0.38393331,0.53943372,0.46736291,-0.70041633,0
0.12315965,2.8088491,2.1994538,-0.52576023,0.8273772,0.19754274,0
0.13794398,2.7512689,2.534982,-0.5689919,0.78115553,0.25699082,0
2.3687179,1.8032141,1.3852558,0.67225134,0.26185292,0.69246733,0
3.1325371,2.4393024,0.081048846,0.44561845,0.60381031,-0.66093677,0
1.8069327,-1.4293498,-1.5164225,0.71568686,-0.46915352,-0.51738501,0
-2.3859773,1.3814813,-2.5228205,-0.67225134,-0.26185292,-0.69246733,0
-0.23429298,-0.025246024,-3.9808776,0.63743067,0.27097169,-0.72128797,0
1.7104305,-2.1962821,-0.62139583,0.58071566,-0.76666433,-0.27385211,0
-1.1094608,1.9273599,-2.5886319,0.10272971,0.89331484,-0.43753296,0
0.72942901,-2.0284901,-2.4587898,0.6952008,-0.54483968,-0.46887681,0
-2.7045698,-1.5310223,0.9281652,-0.58200318,-0.39116061,0.71292752,0
1.9690113,2.8612456,1.3669041,0.67225134,0.26185292,0.69246733,0
-3.0567012,-2.1761608,0.1617173,-0.47768563,-0.56117296,0.67594469,0
-0.46816736,0.86181962,3.4443963,-0.72952098,0.075106859,0.67982203,0
-0.76019204,-2.9079208,-2.4449978,-0.67225134,-0.26185292,-0.69246733,0
1.2458391,-1.3196298,3.5547128,-0.28297099,-0.77345121,0.56718653,0
-0.45549461,0.42994833,3.5394607,-0.70278966,-0.068324871,0.70810902,0
1.5349805,1.2475526,2.2625549,0.67225134,0.26185292,0.69246733,0
-3.2035336,-1.9763331,-0.44289708,-0.67225134,-0.26185292,-0.69246733,0
1.4815629,0.023787498,2.9895725,0.67225134,0.26185292,0.69246733,0
-1.3641636,2.4861002,0.20909417,-0.4409076,0.89299297,0.090355039,0
-2.7941484,0.58136618,-1.7025628,-0.67225134,-0.26185292,-0.69246733,0
2.9593852,-1.2321225,0.062272012,0.66684651,-0.62043673,-0.41276366,0
-0.67556399,-3.1719611,-0.41779613,0.13450271,-0.9629913,0.23357412,0
4.0429354,0.25489116,0.4357976,0.67225134,0.26185292,0.69246733,0
0.1603027,0.97364938,-3.1389699,0.52020681,0.49843794,-0.69350159,0
2.0390584,-1.4194071,2.9394069,0.67225134,0.26185292,0.69246733,0
-0.11910921,-0.029703498,3.7882817,-0.64191568,-0.25980482,0.72141927,0
2.5452094,-0.15056378,-1.250151,0.73830205,-0.1680623,-0.6531961,0
1.0844262,-0.074077964,3.1981027,0.67225134,0.26185292,0.69246733,0
-1.4662125,1.6347203,-3.2349684,0.16352189,0.8597365,-0.48385292,0
1.3075538,-0.49606967,3.1440704,0.67225134,0.26185292,0.69246733,0
0.77801996,2.8737092,2.3690817,0.67225134,0.26185292,0.69246733,0
-0.79844141,0.54348052,-3.8704212,-0.67225134,-0.26185292,-0.69246733,0
2.7724679,2.36748,0.69397944,0.67225134,0.26185292,0.69246733,0
1.8902512,1.2520139,2.1071711,0.67225134,0.26185292,0.69246733,0
-1.605621,-1.6018531,-2.0310736,-0.67225134,-0.26185292,-0.69246733,0
1.6410151,2.6207137,1.6805586,0.67225134,0.26185292,0.69246733,0
-1.0639703,0.43333125,-3.5433397,-0.67225134,-0.26185292,-0.69246733,0
3.3041053,1.6727104,0.57429951,0.67225134,0.26185292,0.69246733,0
-3.261971,1.2924559,-1.5402331,-0.67225134,-0.26185292,-0.69246733,0
1.3436065,2.8132527,1.9698944,0.67225134,0.26185292,0.69246733,0
-2.2700391,-1.0279319,-1.6172836,-0.67225134,-0.26185292,-0.69246733,0
0.35518205,-2.4151559,1.4717985,-0.046299279,-0.91865718,0.39233312,0
-3.1452403,1.2966291,-1.7731214,-0.67225134,-0.26185292,-0.69246733,0
1.3351281,-0.6532774,-2.5877173,0.73761916,-0.15704013,-0.65670109,0
0.18885547,-2.2766421,-3.1488757,0.68606782,-0.57182693,-0.44980529,0
3.7123456,-0.78864324,0.61229795,0.68244302,-0.58175242,-0.44253305,0
-2.1718299,0.73711056,1.5221316,-0.73653579,0.33104903,0.58984888,0
0.49974489,-2.4170876,1.5304621,-0.01892072,-0.92897606,0.36965576,0
-2.4644697,-2.7208989,-0.92968667,-0.67225134,-0.26185292,-0.69246733,0
2.1813993,-1.7220103,2.8367205,0.67225134,0.26185292,0.69246733,0
-3.2424402,-2.33707,-0.12219405,-0.48580733,-0.54977018,0.67951739,0
-0.75225675,2.251528,2.1057076,-0.63617969,0.6826942,0.35944971,0
0.30133665,1.8607366,3.2008443,0.67225134,0.26185292,0.69246733,0
0.21163645,-1.2866492,-3.7133915,0.73947746,-0.19281498,-0.64497709,0
-3.5437016,-1.9817216,-0.062199712,-0.67225134,-0.26185292,-0.69246733,0
0.60611451,-1.0059073,3.744024,-0.44217804,-0.60817188,0.65924609,0
-2.1922193,-0.091614455,1.8221903,-0.71368307,-0.019440152,0.70019895,0
-1.9353224,-0.91832709,-2.0838537,-0.67225134,-0.26185292,-0.69246733,0
-1.6339649,2.1979921,0.71816188,-0.57142264,0.77822739,0.26045772,0
-3.2614455,0.7292912,0.11125764,-0.71298599,0.48082769,0.5103485,0
-1.7124007,0.057476521,-2.6848156,-0.67225134,-0.26185292,-0.69246733,0
3.1923604,0.8316772,0.8561846,0.67225134,0.26185292,0.69246733,0
-2.581851,-1.1580081,-1.4446743,-0.67225134,-0.26185292,-0.69246733,0
-3.2726474,1.5816116,-1.3363166,-0.52342069,0.82959419,0.19443314,0
-0.10677743,-2.2861171,-3.2487645,-0.67225134,-0.26185292,-0.69246733,0
-2.3129787,0.96482795,1.2197497,-0.72545564,0.41951337,0.54563975,0
3.0707321,0.52451539,1.2057594,0.67225134,0.26185292,0.69246733,0
-1.2722654,-3.2427139,-1.8336835,-0.67225134,-0.26185292,-0.69246733,0
-3.8887053,-0.56184769,-0.39662606,-0.67225134,-0.26185292,-0.69246733,0
3.1854675,0.093046427,1.2304173,0.67225134,0.26185292,0.69246733,0
0.80479753,2.1764107,2.8695865,0.67225134,0.26185292,0.69246733,0
-1.9652972,-2.5833836,-1.3264723,-0.67225134,-0.26185292,-0.69246733,0
1.49238,0.60180855,2.5408604,0.67225134,0.26185292,0.69246733,0
-0.14960113,-1.43295,-3.561832,-0.67225134,-0.26185292,-0.69246733,0
3.3425581,-1.2206869,0.31808931,0.65930152,-0.6372174,-0.39909333,0
-2.2390883,1.7982454,0.30852169,-0.60937917,0.72687089,0.31672639,0
0.84155971,1.2723801,3.1748846,0.67225134,0.26185292,0.69246733,0
0.43689156,-2.8348906,-0.49330437,0.331146,-0.94292694,0.035084426,0
-2.0042865,-2.5018961,-1.3879027,-0.67225134,-0.26185292,-0.69246733,0
1.263604,2.9782629,1.9501727,0.67225134,0.26185292,0.69246733,0
-0.85929394,-3.1778092,-0.7208873,0.15216023,-0.96425951,0.21691173,0
2.5335472,1.8019996,1.0826488,0.67225134,0.26185292,0.69246733,0
2.9710019,-0.99871278,-0.31758004,0.70486307,-0.51240116,-0.4905234,0
2.6941643,-0.043992043,1.6867511,0.67225134,0.26185292,0.69246733,0
2.7114983,-1.7840627,0.95265287,0.4907746,-0.85792047,-0.15202868,0
-1.9148937,-0.69292045,-2.2437904,-0.67225134,-0.26185292,-0.69246733,0
0.79721975,-1.3460864,-2.9247594,0.73974615,-0.27450669,-0.61434662,0
2.997292,-1.3300357,1.794158,0.67225134,0.26185292,0.69246733,0
-1.8361714,-3.1885138,-0.67324638,-0.077809662,-0.90518707,0.41782993,0
2.8289657,-0.62089849,1.9351214,0.67225134,0.26185292,0.69246733,0
2.5219364,1.6078459,-0.95430487,0.5655129,0.42201814,-0.70858717,0
-3.5186126,-0.68784213,0.38507438,-0.71765572,0.00081143528,0.69639754,0
-0.77891994,-1.3021021,-2.9721651,-0.67225134,-0.26185292,-0.69246733,0
-1.3455865,-0.37812567,-2.9615977,-0.67225134,-0.26185292,-0.69246733,0
-0.20868933,-1.5004737,-3.6698151,-0.67225134,-0.26185292,-0.69246733,0
1.2111354,0.80245876,-2.4985414,0.59715033,0.36108616,-0.71625984,0
-3.0354092,1.7661182,-1.7297961,-0.42004967,0.90513313,0.06551528,0
3.405416,-0.3606081,1.1744871,0.67225134,0.26185292,0.69246733,0
2.2720065,-0.99619055,2.4755495,0.67225134,0.26185292,0.69246733,0
-1.7384573,1.1664901,1.8614314,-0.72915906,0.39601561,0.55812067,0
2.7217157,-1.3226583,-0.27279061,0.67743868,-0.59482884,-0.43273002,0
-0.76347548,-2.0199234,1.7399614,-0.32674503,-0.73438424,0.59490967,0
2.5356529,0.25722599,1.7217175,0.67225134,0.26185292,0.69246733,0
3.6740837,-0.42756426,0.34633911,0.72727954,-0.40839249,-0.55161577,0
-3.3098204,0.85053217,-1.35167,-0.67225134,-0.26185292,-0.69246733,0
1.9198799,1.2856244,-1.5544044,0.55072117,0.44821873,-0.70413494,0
2.9163361,-0.88967717,1.7175887,0.67225134,0.26185292,0.69246733,0
-0.50061381,1.8178263,3.0545418,-0.72055006,0.44615823,0.53080183,0
0.10814852,1.3675598,3.6592078,0.67225134,0.26185292,0.69246733,0
2.7001717,-1.1653069,-0.40062141,0.68257654,-0.58139408,-0.4427982,0
-3.48879,0.08373332,-1.0885153,-0.67225134,-0.26185292,-0.69246733,0
1.8786039,3.3046236,1.3373624,0.67225134,0.26185292,0.69246733,0
-2.7478726,-0.514992,-1.581387,-0.67225134,-0.26185292,-0.69246733,0
-3.6282651,0.021785259,0.033091582,-0.73997808,0.26621172,0.6177085,0
-0.5658462,-2.2200196,1.353677,-0.1911478,-0.84225053,0.50406003,0
1.8477851,-0.24723423,2.5045519,0.67225134,0.26185292,0.69246733,0
0.69026351,0.26371551,3.6087964,0.67225134,0.26185292,0.69246733,0
-2.8344045,0.49072742,-1.8981324,-0.67225134,-0.26185292,-0.69246733,0
-0.69544226,-0.29872227,-3.473654,-0.67225134,-0.26185292,-0.69246733,0
-0.61320609,0.42469561,-3.8527794,-0.67225134,-0.26185292,-0.69246733,0
2.1439002,-1.5931437,-0.66797167,0.64272773,-0.67061436,-0.37037453,0
-0.5964452,2.7309487,0.82159424,-0.42436129,0.90273577,0.070607573,0
1.7957929,1.1127167,2.0238371,0.67225134,0.26185292,0.69246733,0
2.0807495,0.69252586,2.1721108,0.67225134,0.26185292,0.69246733,0
-2.9670992,1.5217265,-2.1114461,-0.67225134,-0.26185292,-0.69246733,0
3.2971554,1.311691,0.7346487,0.67225134,0.26185292,0.69246733,0
-1.3703021,1.2243464,-3.4488127,-0.67225134,-0.26185292,-0.69246733,0
0.11997283,0.10488868,4.0233855,-0.64735627,-0.24588364,0.72143686,0
2.2798808,-0.84666342,-1.243786,0.73339891,-0.36317885,-0.5746538,0
0.76831985,2.4232154,-1.1765485,0.16922888,0.85624051,-0.48807135,0
-2.7619095,-2.4768734,-0.7998184,-0.67225134,-0.26185292,-0.69246733,0
2.3997848,-1.4157081,2.6138043,0.67225134,0.26185292,0.69246733,0
2.5582583,0.56271005,1.652029,0.67225134,0.26185292,0.69246733,0
2.1728811,2.8094971,0.060852408,0.22646534,0.81778473,-0.52909499,0
2.5613599,-1.1244801,2.3104873,0.67225134,0.26185292,0.69246733,0
2.7291093,-0.32678866,1.6628102,0.67225134,0.26185292,0.69246733,0
0.31709832,-0.25633454,3.9841936,-0.60613292,-0.34237093,0.71790326,0
0.67568362,1.4221578,3.1334355,0.67225134,0.26185292,0.69246733,0
-0.93963945,0.66783416,-3.5345588,-0.67225134,-0.26185292,-0.69246733,0
3.4398665,1.915283,-0.030155003,0.57587206,0.40284956,-0.71139544,0
-0.3031373,-2.1165385,2.0061636,-0.26197156,-0.79069918,0.55332232,0
1.4447949,1.6750054,2.1591907,0.67225134,0.26185292,0.69246733,0
-1.5957465,-3.0160673,-0.29249966,-0.10733029,-0.89100415,0.44112548,0
0.25328425,1.6875134,3.3542323,0.67225134,0.26185292,0.69246733,0
1.0343357,2.4195848,2.3205953,0.67225134,0.26185292,0.69246733,0
0.88503206,-0.82991445,3.8894725,0.67225134,0.26185292,0.69246733,0
-0.4657256,-0.79866505,3.0284359,-0.55000019,-0.44946283,0.70390552,0
1.0369436,-2.5504241,0.61721921,0.27447349,-0.95685375,0.095368683,0
0.95262265,-2.4374771,1.4045136,0.10987431,-0.96028912,0.25646156,0
-3.473362,0.55747223,0.19712281,-0.72892666,0.39760381,0.55729449,0
-0.51928246,-1.1082559,-3.3772268,-0.67225134,-0.26185292,-0.69246733,0
0.53115046,2.2903357,3.0585251,0.67225134,0.26185292,0.69246733,0
0.58929229,-2.4893188,-1.8447883,0.59698117,-0.74490726,-0.29786998,0
-2.3209918,0.41720617,-2.253608,-0.67225134,-0.26185292,-0.69246733,0
-3.3432639,1.5232234,-1.7995236,-0.67225134,-0.26185292,-0.69246733,0
-2.3315349,-0.12408328,-2.1018491,-0.67225134,-0.26185292,-0.69246733,0
0.73548377,-2.2737098,1.4683501,0.053739846,-0.95015103,0.30712363,0
-2.7946458,-2.7349064,-0.69855505,-0.67225134,-0.26185292,-0.69246733,0
-1.0960834,-2.1106884,1.2995397,-0.33121082,-0.73015112,0.59764427,0
3.3372488,0.061471224,0.96389198,0.67225134,0.26185292,0.69246733,0
1.6610255,1.1536603,-1.9419911,0.57251137,0.40914634,-0.71051395,0
-1.9726942,-0.99681038,1.6738335,-0.62385643,-0.30323938,0.72031176,0
-3.4984319,-0.60169387,0.21482843,-0.7165792,-0.0048384294,0.6974889,0
2.4572458,-1.6284839,2.4891829,0.67225134,0.26185292,0.69246733,0
3.3538737,1.064105,0.62887108,0.67225134,0.26185292,0.69246733,0
-0.3592695,2.8580503,0.94723511,-0.39125109,0.91972601,0.032039165,0
3.150228,-0.64449751,-0.39635479,0.72681439,-0.41130483,-0.55006289,0
2.2276673,3.0193315,0.67092472,0.13460138,0.87653774,-0.46212992,0
0.55615962,-0.26881111,-3.2775841,0.69933581,0.082297735,-0.71003979,0
-1.1137304,-0.50393128,-2.9544539,-0.67225134,-0.26185292,-0.69246733,0
-0.93421304,2.5661163,0.037410736,-0.33831352,0.94063848,-0.02726087,0
2.3679845,-0.11671036,-1.5116572,0.72854602,-0.067819282,-0.68163133,0
2.7718601,-0.37617207,1.691959,0.67225134,0.26185292,0.69246733,0
-1.9715588,-3.2132607,-1.2681003,-0.67225134,-0.26185292,-0.69246733,0
-0.098903656,0.78380406,-3.5152843,0.52171451,0.49606717,-0.69406873,0
2.4279683,3.0571086,0.93098229,0.67225134,0.26185292,0.69246733,0
0.73684728,-0.86920226,3.8571949,0.67225134,0.26185292,0.69246733,0
3.703326,-0.43866873,1.0145581,0.67225134,0.26185292,0.69246733,0
-1.2791137,-3.0285807,-1.9595239,-0.67225134,-0.26185292,-0.69246733,0
2.1723073,1.6205075,1.6069348,0.67225134,0.26185292,0.69246733,0
3.5343537,-0.026961088,0.86462092,0.67225134,0.26185292,0.69246733,0
1.3009663,-0.94107234,3.3930943,0.67225134,0.26185292,0.69246733,0
-1.9290814,0.3465625,-2.6552083,-0.67225134,-0.26185292,-0.69246733,0
-2.6789167,1.4238527,-2.4126415,-0.67225134,-0.26185292,-0.69246733,0
-0.40210003,2.4083717,2.166198,-0.62101352,0.70864296,0.33491388,0
0.22873282,2.6915419,-0.6904875,0.020214856,0.9285171,-0.37073871,0
2.8040731,1.9196944,0.77011609,0.67225134,0.26185292,0.69246733,0
3.6056161,-0.97846794,0.43655217,0.68836713,-0.56531423,-0.4545002,0
-0.2691257,-2.6171403,-2.990068,0.62761188,-0.69767976,-0.34546533,0
0.30318511,2.2616243,-1.4030173,0.14180383,0.87249523,-0.46759346,0
-3.6439676,-1.1300657,0.13826388,-0.67586839,-0.16464512,0.71839672,0
3.2800956,-1.2153244,1.5762424,0.67225134,0.26185292,0.69246733,0
3.163918,1.183504,-0.69949317,0.64679492,0.2473399,-0.72144258,0
0.39185607,-2.7588658,-1.5176501,0.49464676,-0.8548016,-0.15696715,0
-0.78479242,-1.7277067,2.1137695,-0.39735323,-0.66159135,0.63593018,0
1.9322562,2.8372252,1.2794366,0.67225134,0.26185292,0.69246733,0
2.4858992,1.0191028,1.4073794,0.67225134,0.26185292,0.69246733,0
-2.3498538,1.096053,1.0550945,-0.72535229,0.42012066,0.54530978,0
-1.5177066,0.59937,-2.9875412,-0.67225134,-0.26185292,-0.69246733,0
-1.3901238,0.95146847,2.4501064,-0.73992509,0.26830897,0.61686391,0
3.3896542,0.7124207,0.77245003,0.67225134,0.26185292,0.69246733,0
