-4.8626838,-1.3167758,0.40952715,-0.91965562,-0.18788183,-0.34486794,0
-4.8790574,1.2753253,-0.60291445,-0.91965562,-0.18788183,-0.34486794,0
-3.8477349,-3.1083803,0.0023050308,-0.01000917,-0.86664093,0.49883187,0
0.79034781,0.56048667,3.2538719,-0.36463451,0.082352564,0.92750186,0
4.7024021,-0.27146912,0.84294754,0.91965562,0.18788183,0.34486794,0
0.37166107,1.6745576,-2.1238358,0.14763874,0.64832646,-0.74691069,0
0.78413624,-1.4262414,2.5649257,-0.16129297,-0.61996579,0.76787162,0
3.2184086,3.0499384,2.6717873,0.91965562,0.18788183,0.34486794,0
-3.1727622,-2.87221,0.45779902,-0.038101196,-0.83131254,0.55449766,0
-3.3134472,0.36055827,1.5786698,-0.38896844,0.31457874,0.86587745,0
-5.0482373,-0.043118954,0.2576589,-0.91965562,-0.18788183,-0.34486794,0
-3.7972586,-0.43328047,-2.4157219,-0.91965562,-0.18788183,-0.34486794,0
-2.5784662,-2.1545606,1.3733771,-0.16875345,-0.60388273,0.7790044,0
4.6719847,2.1305194,-0.80069005,0.2179665,0.48628882,-0.84617597,0
-1.0053792,-2.840014,-1.6217613,0.3167814,-0.87392682,-0.36864796,0
4.1982746,-1.4974494,2.5301292,0.91965562,0.18788183,0.34486794,0
-3.4979358,-3.4385729,-1.7813257,-0.91965562,-0.18788183,-0.34486794,0
-2.8531873,-2.9952111,0.033325166,0.02492559,-0.904293,0.42618406,0
2.8558333,-1.675118,-0.87458426,0.36402375,-0.73735154,-0.56903386,0
1.9488966,-1.6593568,-1.3594511,0.37139535,-0.70153761,-0.60820276,0
-4.8541675,1.2410579,-0.89410686,-0.91965562,-0.18788183,-0.34486794,0
-4.4751911,0.66854382,0.77516818,-0.3923274,0.47906372,0.78522432,0
4.1648321,-0.88911819,2.1442714,0.91965562,0.18788183,0.34486794,0
-4.5301232,-1.8268254,0.20967238,-0.91965562,-0.18788183,-0.34486794,0
2.9295831,-1.1265082,-1.348223,0.38959053,-0.54719251,-0.74080998,0
2.4039338,2.6585455,2.7724884,-0.36385643,0.73808634,0.56818748,0
3.7729287,-2.0259867,0.84456205,0.23407549,-0.96734715,-0.097201794,0
4.0011735,1.4249876,1.5262251,0.91965562,0.18788183,0.34486794,0
-4.3210173,1.5283995,-2.3768339,-0.91965562,-0.18788183,-0.34486794,0
3.6846108,2.809602,1.576351,0.91965562,0.18788183,0.34486794,0
5.2056484,-0.30764627,-0.51312757,0.91965562,0.18788183,0.34486794,0
2.1798038,1.639071,-1.80006,0.21864215,0.48452175,-0.84701502,0
-1.9821808,-2.8246398,-2.4914072,0.35192281,-0.78401452,-0.51134276,0
-4.5909805,1.0116663,-1.5174716,-0.91965562,-0.18788183,-0.34486794,0
2.718447,2.5135081,3.319186,-0.38398418,0.61441964,0.68923473,0
-4.7964149,1.3145247,-1.1439506,-0.91965562,-0.18788183,-0.34486794,0
0.36403012,-2.2818651,1.529776,-0.018491626,-0.85644948,0.51589966,0
0.21704531,-2.8041382,0.0037616491,0.18979424,-0.98140889,0.028543085,0
-0.002597332,-1.7747829,-2.4244192,0.38639316,-0.58993286,-0.70899892,0
-4.1562195,-1.4735627,-1.0942731,-0.91965562,-0.18788183,-0.34486794,0
2.1365833,2.5286114,-0.88550568,0.073970318,0.77955383,-0.62195182,0
-1.3075998,-2.9992549,-0.4434548,0.16554934,-0.98176932,0.093392804,0
-0.80176467,0.44395724,2.6855187,-0.36872682,0.11081465,0.92290878,0
1.3873062,-2.1378841,-1.2325954,0.35442448,-0.77531403,-0.52275383,0
4.9540114,0.36500883,-0.51809722,0.91965562,0.18788183,0.34486794,0
4.3888903,1.3890762,0.48198956,0.91965562,0.18788183,0.34486794,0
-4.4637132,0.12444162,-1.3256135,-0.91965562,-0.18788183,-0.34486794,0
-4.8887467,1.2857542,-0.67272574,-0.91965562,-0.18788183,-0.34486794,0
-0.70224643,-2.386528,1.4201059,-0.057272196,-0.80458999,0.59106249,0
2.6318948,-1.6489096,-1.1550915,0.37174058,-0.69966823,-0.61014199,0
3.0910981,-0.82253242,-1.4328513,0.39250398,-0.46922031,-0.79105806,0
5.1398735,-0.30624533,-0.61675787,0.91965562,0.18788183,0.34486794,0
2.2518976,3.2098131,1.9397372,-0.28829521,0.91927946,0.26797628,0
2.2611742,2.5852907,-1.0661428,0.087411702,0.75818467,-0.64615417,0
2.540081,-1.4821727,-1.1706119,0.37660661,-0.67091089,-0.63878477,0
2.8144753,3.424161,0.85674858,-0.15150487,0.97989398,-0.12982355,0
3.3999381,0.63044882,3.4088993,0.91965562,0.18788183,0.34486794,0
1.7176561,-1.0383513,-2.1442981,0.39190978,-0.38247848,-0.83672988,0
3.6511936,1.8607707,2.0098202,0.91965562,0.18788183,0.34486794,0
-3.2469299,-1.8761104,1.2863182,-0.21846005,-0.48499829,0.84678912,0
4.3770337,0.040252209,-1.313343,0.38294938,-0.23429868,-0.8935625,0
4.9129906,-1.5288672,1.0052494,0.91965562,0.18788183,0.34486794,0
-4.1771784,-2.5848565,-0.56610048,-0.91965562,-0.18788183,-0.34486794,0
3.8023567,2.9254205,1.2134717,0.91965562,0.18788183,0.34486794,0
1.4452696,2.8875151,1.8424052,-0.30693305,0.89168036,0.33271354,0
4.3317413,2.1228878,0.37475204,0.91965562,0.18788183,0.34486794,0
-1.6474795,-2.4808939,1.171716,-0.088631928,-0.7561903,0.64832139,0
4.6221666,-0.62603283,1.1257708,0.91965562,0.18788183,0.34486794,0
1.9343815,-0.43159842,-2.1467071,0.37887976,-0.19333851,-0.90502506,0
-3.0837278,-3.0254045,0.20199165,0.0017951727,-0.88014138,0.4747082,0
-4.9656115,-0.092295647,0.22209859,-0.91965562,-0.18788183,-0.34486794,0
3.5014377,1.1901588,3.2518599,0.91965562,0.18788183,0.34486794,0
3.929544,-0.83619738,2.806479,0.91965562,0.18788183,0.34486794,0
4.4071693,0.26199913,1.3657539,0.91965562,0.18788183,0.34486794,0
0.23025942,-2.5790617,-1.1839705,0.31869781,-0.87017471,-0.37580273,0
-1.1859576,2.4352131,0.61029088,-0.27926368,0.93027693,0.23790058,0
-2.599664,0.46720505,1.7821757,-0.38849396,0.30666217,0.86892509,0
1.3932769,2.9332168,1.8816795,-0.31326675,0.88054758,0.35566831,0
-5.0219917,0.36288595,0.33893919,-0.91965562,-0.18788183,-0.34486794,0
4.1143713,-0.28947401,2.1495619,0.91965562,0.18788183,0.34486794,0
-3.63345,-1.6402514,-2.6296632,-0.91965562,-0.18788183,-0.34486794,0
-4.5932465,1.4223804,-1.3323743,-0.91965562,-0.18788183,-0.34486794,0
-5.0542817,-0.87094736,0.96011305,-0.91965562,-0.18788183,-0.34486794,0
-3.816432,1.9923425,-1.966867,-0.10398734,0.96329302,-0.24749413,0
4.9733734,0.57876778,-0.27832991,0.91965562,0.18788183,0.34486794,0
3.5046515,-1.9322252,1.9088855,0.1042341,-0.96341777,0.24690396,0
-4.1325035,-2.6411669,-0.52892512,-0.91965562,-0.18788183,-0.34486794,0
-0.26936066,-1.6057988,2.3794396,-0.17880017,-0.58154154,0.79362452,0
-1.376435,-1.3940821,1.9912195,-0.22377673,-0.4709425,0.85330957,0
4.4323435,2.0680003,-0.047695145,0.91965562,0.18788183,0.34486794,0
4.0153146,-0.7069788,2.4828188,0.91965562,0.18788183,0.34486794,0
-4.3400164,-2.0254803,-0.63579333,-0.91965562,-0.18788183,-0.34486794,0
-0.36651945,-1.5227652,-2.7885561,0.39270693,-0.43135557,-0.81222749,0
-4.5691004,-1.9524744,-0.067527749,-0.91965562,-0.18788183,-0.34486794,0
-1.7492105,0.42042446,-3.346426,0.27433348,0.32103994,-0.90646267,0
4.1439185,2.4751327,-0.82710791,0.16743672,0.60675216,-0.77705646,0
0.45493871,-0.77952337,-2.6358933,0.38553697,-0.26466477,-0.8839196,0
-3.990644,-1.9405336,-1.5175691,-0.91965562,-0.18788183,-0.34486794,0
4.5068541,-0.98766422,-0.62991434,0.38483268,-0.60629624,-0.69592285,0
-0.62955427,2.3774979,1.3380771,-0.335904,0.83128279,0.44287413,0
3.7255523,0.87449598,2.886945,0.91965562,0.18788183,0.34486794,0
3.6350904,-0.09307909,3.2046313,0.91965562,0.18788183,0.34486794,0
3.9285009,2.6891024,-0.52964473,0.11405385,0.71251833,-0.69232184,0
2.1134973,1.424232,3.5266366,-0.38901523,0.31538582,0.86556274,0
-3.4570324,-2.5447016,-2.2513833,-0.91965562,-0.18788183,-0.34486794,0
2.4390678,2.4557664,3.1731939,-0.38452685,0.60928047,0.69348145,0
4.7525334,0.92255068,-0.18912745,0.91965562,0.18788183,0.34486794,0
-2.1749237,-0.71940446,-3.773906,0.35290718,-0.010076843,-0.9356041,0
4.6596236,1.6516507,-0.14385214,0.91965562,0.18788183,0.34486794,0
3.4761086,0.49492836,3.2539599,0.91965562,0.18788183,0.34486794,0
-4.2197132,0.29660416,-2.2178254,-0.91965562,-0.18788183,-0.34486794,0
-4.4223766,-0.14729738,-1.0910678,-0.91965562,-0.18788183,-0.34486794,0
-2.8900425,0.36052275,-3.7103312,0.25620708,0.37850675,-0.88943273,0
-0.64990067,2.6197851,-0.97862488,-0.087360859,0.95400721,-0.28677246,0
-3.2811356,-0.54651022,-3.850199,-0.91965562,-0.18788183,-0.34486794,0
3.6945457,-0.38100863,3.466296,0.91965562,0.18788183,0.34486794,0
3.9949596,3.4788294,0.52668482,0.91965562,0.18788183,0.34486794,0
1.897736,-2.0566201,2.0225539,-0.011273742,-0.86514771,0.5013904,0
-0.24776626,2.2374792,-1.8196657,0.050855696,0.81377244,-0.57895428,0
-2.3470383,-3.2669606,-1.6434486,0.26582932,-0.94419694,-0.19449177,0
4.8566618,-0.8479476,0.74696469,0.91965562,0.18788183,0.34486794,0
-3.9960938,-0.64502764,-1.7913244,-0.91965562,-0.18788183,-0.34486794,0
3.4558444,1.0410652,3.2451634,0.91965562,0.18788183,0.34486794,0
3.7331941,2.6216557,1.9451046,0.91965562,0.18788183,0.34486794,0
-3.8970225,1.3099449,0.54845601,-0.37057221,0.70591384,0.60362381,0
-3.2767532,-2.9242198,-2.9835534,-0.91965562,-0.18788183,-0.34486794,0
-1.0188296,-2.059911,-2.5726101,0.38340503,-0.61970568,-0.68481046,0
3.9990811,2.2979791,0.98155904,0.91965562,0.18788183,0.34486794,0
3.431886,1.9387124,-1.2538621,0.22745088,0.46106023,-0.85772353,0
4.6977491,0.011031628,0.23786038,0.91965562,0.18788183,0.34486794,0
4.6438599,-1.7893963,1.2446334,0.23192191,-0.96848345,-0.09084025,0
-3.9676576,-0.95971775,-1.9210606,-0.91965562,-0.18788183,-0.34486794,0
-2.1777081,-2.9678874,0.49105978,0.015648782,-0.89497328,0.44584537,0
-0.6571002,-2.4476871,1.0747017,-0.00087183714,-0.87716061,0.48019648,0
2.9948716,2.3610952,3.5617821,0.91965562,0.18788183,0.34486794,0
-3.4481874,-3.1906583,-2.3362594,-0.91965562,-0.18788183,-0.34486794,0
-1.1634885,2.0326941,-2.0021236,0.027758479,0.84484559,-0.5342896,0
4.3860869,0.62498665,0.7473762,0.91965562,0.18788183,0.34486794,0
-3.7906973,-3.3589306,-1.3634453,-0.91965562,-0.18788183,-0.34486794,0
-1.9196796,-0.21879292,-3.7193851,0.3262983,0.1231249,-0.93721384,0
3.5819468,2.2866704,2.0510342,0.91965562,0.18788183,0.34486794,0
-4.6651449,0.6579833,0.78099984,-0.39138535,0.51095462,0.76533848,0
-0.1123662,2.5170538,-0.88645273,-0.062246799,0.9367736,-0.34435523,0
2.1380601,0.21501255,3.639874,-0.31740427,-0.16154751,0.93442869,0
-3.7376549,0.65921259,-3.5564089,-0.91965562,-0.18788183,-0.34486794,0
-0.38895965,-2.7479799,0.73933893,0.058621645,-0.9339748,0.35249782,0
-3.9944644,-3.0833168,-0.47663581,-0.91965562,-0.18788183,-0.34486794,0
4.5197487,-1.8378687,1.8644001,0.91965562,0.18788183,0.34486794,0
3.4063401,0.84030485,3.3148875,0.91965562,0.18788183,0.34486794,0
2.5664973,-0.48662281,3.7537923,-0.24750111,-0.40453291,0.88039553,0
-3.8245516,0.42371893,-3.1264429,-0.91965562,-0.18788183,-0.34486794,0
4.8358102,1.2935171,-0.52740163,0.91965562,0.18788183,0.34486794,0
3.2863553,-1.7476737,-0.50823206,0.34635931,-0.8019501,-0.48673543,0
1.9744782,-0.25174522,3.5736685,-0.27796337,-0.30894637,0.909554,0
-4.7644863,1.5283055,-1.2553821,-0.91965562,-0.18788183,-0.34486794,0
-4.1242266,-0.67420197,-1.6912982,-0.91965562,-0.18788183,-0.34486794,0
4.3071303,2.172184,0.59518999,0.91965562,0.18788183,0.34486794,0
4.0385795,-0.84642458,2.7965159,0.91965562,0.18788183,0.34486794,0
2.3770537,1.9437823,3.6081357,-0.3926236,0.41983151,0.8182838,0
5.0249081,1.0922413,-0.87496305,0.91965562,0.18788183,0.34486794,0
0.3404679,0.061031282,-2.8505852,0.34368238,0.039911136,-0.93823743,0
-0.88229203,1.6308737,-2.5016484,0.14727807,0.64905721,-0.74634707,0
-4.4855733,0.2188077,-1.4559813,-0.91965562,-0.18788183,-0.34486794,0
5.1106391,-0.69055796,-0.1710453,0.91965562,0.18788183,0.34486794,0
3.8445649,0.16193247,2.6246753,0.91965562,0.18788183,0.34486794,0
-1.6430981,0.28046918,2.2577891,-0.37213877,0.13632093,0.9181118,0
-4.4424973,1.5391903,-2.1908934,-0.91965562,-0.18788183,-0.34486794,0
3.3737319,3.4728594,1.1703582,-0.16519696,0.98174047,-0.094316795,0
-3.0307703,-2.1953001,-3.5810442,-0.91965562,-0.18788183,-0.34486794,0
-0.26141098,0.21854669,2.853723,-0.3601318,0.053186283,0.93138403,0
-0.52188718,2.1820688,-1.7187743,0.04611063,0.82040823,-0.56991583,0
-1.021625,-2.33831,-2.4171081,0.37680712,-0.66961443,-0.64002585,0
4.4234252,-1.6789479,2.2739747,0.91965562,0.18788183,0.34486794,0
3.2211106,2.902755,2.7391791,0.91965562,0.18788183,0.34486794,0
2.9528782,-1.7089078,2.5359144,-0.018729806,-0.85615742,0.51637554,0
-3.8883204,-0.17965174,-2.6285474,-0.91965562,-0.18788183,-0.34486794,0
5.0789509,0.319767,-0.79565144,0.91965562,0.18788183,0.34486794,0
4.7828507,1.7078042,-0.60223508,0.91965562,0.18788183,0.34486794,0
-1.3013562,0.82380098,2.1903737,-0.39074689,0.34970826,0.85148168,0
4.7542253,1.579998,-0.4246363,0.91965562,0.18788183,0.34486794,0
3.9838176,-1.529242,2.9798336,0.91965562,0.18788183,0.34486794,0
2.2016764,-0.11819112,-2.1888137,0.36746049,-0.10178151,-0.92445302,0
-0.65464735,2.7241576,-0.48038116,-0.15420181,0.9803673,-0.12288952,0
4.6294532,-0.33000326,0.85609484,0.91965562,0.18788183,0.34486794,0
-3.9670472,-1.4315729,-1.4342239,-0.91965562,-0.18788183,-0.34486794,0
3.6695912,3.4425955,1.2537708,-0.15645045,0.98072124,-0.11708592,0
3.988234,-2.0330076,1.3653761,0.19305068,-0.98099226,0.019631982,0
3.9317157,-1.9813056,1.1676401,0.20556533,-0.97852713,-0.015083671,0
-3.6644344,-1.6233518,-2.4735405,-0.91965562,-0.18788183,-0.34486794,0
3.286834,-1.6039627,-0.62048119,0.358724,-0.75929189,-0.54294831,0
3.7494571,1.1419113,-1.5072343,0.30837071,0.19830863,-0.93036616,0
-3.029964,-3.4304161,-1.5128278,0.21806163,-0.97462589,-0.050532937,0
-2.3841977,2.3208964,-0.21313703,-0.25333232,0.95481938,0.15537935,0
-4.1186914,0.42903185,-2.4695969,-0.91965562,-0.18788183,-0.34486794,0
-2.0259295,1.5470431,1.6655574,-0.38631517,0.59080237,0.70831716,0
4.0237417,-0.36502934,2.4332373,0.91965562,0.18788183,0.34486794,0
-4.2903128,0.68652153,-1.7276187,-0.91965562,-0.18788183,-0.34486794,0
-2.7755527,-1.1237173,1.7937131,-0.29165986,-0.26132268,0.92013317,0
-4.0921712,-2.080991,-0.92861176,-0.91965562,-0.18788183,-0.34486794,0
-3.0928016,1.9700212,-1.7599888,-0.11103916,0.96670479,-0.23054783,0
4.9474063,1.0987206,-1.0709211,0.3361719,0.077370882,-0.93861717,0
-4.5972409,1.1442156,-1.5689838,-0.91965562,-0.18788183,-0.34486794,0
-4.039515,-0.66285467,-1.6762271,-0.91965562,-0.18788183,-0.34486794,0
-4.6600857,-1.7420797,0.57178211,-0.91965562,-0.18788183,-0.34486794,0
4.0075302,1.0977058,2.0187514,0.91965562,0.18788183,0.34486794,0
-2.8191028,-1.3189948,-3.8857107,0.38060626,-0.20992032,-0.90059555,0
-3.3909373,-2.7547116,-2.5886884,-0.91965562,-0.18788183,-0.34486794,0
4.9630537,-0.10646105,-0.10089731,0.91965562,0.18788183,0.34486794,0
-3.5096636,-3.3451025,-1.7919278,-0.91965562,-0.18788183,-0.34486794,0
-2.1412625,-1.3679612,-3.618468,0.38664961,-0.27928838,-0.87891984,0
-4.6314797,-2.1655338,0.3091588,-0.91965562,-0.18788183,-0.34486794,0
-2.1336248,1.4728478,1.4874806,-0.38588113,0.59553182,0.70458335,0
2.6727891,-0.64137053,-1.7783091,0.3913157,-0.36404246,-0.84518939,0
0.54496419,0.8447476,3.1526697,-0.37446186,0.15482682,0.9142248,0
3.5225458,0.72467899,3.0607991,0.91965562,0.18788183,0.34486794,0
-4.3830457,1.4172287,-2.2286205,-0.91965562,-0.18788183,-0.34486794,0
-4.7059913,-0.19451904,-0.12596995,-0.91965562,-0.18788183,-0.34486794,0
3.1624563,-2.1436965,1.6552422,0.12863082,-0.97380501,0.18750447,0
-2.4227841,-2.7348504,-2.6766467,0.3546446,-0.77452743,-0.5237695,0
-0.011961699,-2.1935375,1.5150416,-0.04229641,-0.82564741,0.56259876,0
-1.0321418,0.28859836,2.4939959,-0.36585113,0.090600051,0.92625296,0
3.0509496,2.05476,3.7456698,-0.39272135,0.43582538,0.8098309,0
3.0777879,1.0592728,4.011373,-0.36052147,0.055632778,0.93109041,0
-4.7124977,1.886776,-1.2706518,-0.23796868,0.96516269,0.10877424,0
2.9610248,2.4735954,-0.91329885,0.1234082,0.69540417,-0.70794314,0
0.1435132,2.2414777,-1.4579687,0.039722383,0.82913536,-0.55763489,0
3.7353148,0.72684908,2.8412104,0.91965562,0.18788183,0.34486794,0
3.7860701,2.467381,1.4556599,0.91965562,0.18788183,0.34486794,0
-3.335624,-2.432929,-2.7076511,-0.91965562,-0.18788183,-0.34486794,0
-4.6934333,-0.67963123,-0.33068281,-0.91965562,-0.18788183,-0.34486794,0
4.6990614,0.55750084,0.38600537,0.91965562,0.18788183,0.34486794,0
1.1522024,3.0159049,-0.059083462,-0.10582685,0.96421361,-0.24308997,0
4.7517471,-0.55389547,0.48765859,0.91965562,0.18788183,0.34486794,0
3.6619914,1.5881054,-1.3605213,0.27072051,0.33287346,-0.90327489,0
4.9319391,-0.51849318,0.041420877,0.91965562,0.18788183,0.34486794,0
-4.7629976,1.3178759,0.18408787,-0.36185163,0.74666882,0.55816567,0
5.1983385,-0.11987782,-0.53572434,0.91965562,0.18788183,0.34486794,0
3.2773473,2.3296735,3.2122569,0.91965562,0.18788183,0.34486794,0
-0.55279016,2.4695811,0.88526356,-0.29972833,0.90320385,0.30722278,0
3.2914119,2.9825273,2.5694575,0.91965562,0.18788183,0.34486794,0
4.5542459,-0.27355289,0.86205769,0.91965562,0.18788183,0.34486794,0
2.3701384,-1.8507193,-0.81107759,0.34844422,-0.7954427,-0.49584037,0
-0.92008197,0.27747774,-3.2742305,0.30415243,0.21478587,-0.92809397,0
1.2100651,2.3867354,2.5028703,-0.37262028,0.69481373,0.61513257,0
2.2071755,-2.3616178,0.80146867,0.19159877,-0.98118931,0.023611277,0
-4.0847912,1.9957047,-1.8392406,-0.12639248,0.97301555,-0.19304313,0
-3.3193717,0.0012664795,-3.9075654,-0.91965562,-0.18788183,-0.34486794,0
-1.70021,2.1074967,0.91025579,-0.337277,0.82771367,0.44847989,0
4.1361656,-0.89983654,2.4547744,0.91965562,0.18788183,0.34486794,0
-5.0967832,-1.2805204,0.9679628,-0.91965562,-0.18788183,-0.34486794,0
-4.4607811,0.40646648,-1.5440822,-0.91965562,-0.18788183,-0.34486794,0
0.53867221,-2.5837126,1.0441389,0.079200625,-0.94882494,0.30571005,0
-0.94114804,-2.2157986,-2.6428101,0.38152477,-0.63564873,-0.67111075,0
-3.7951612,-2.6351345,-1.7222031,-0.91965562,-0.18788183,-0.34486794,0
2.2198639,2.3664494,3.1893063,-0.38456166,0.60894322,0.69375825,0
5.1074553,-0.48500776,-0.20467126,0.91965562,0.18788183,0.34486794,0
5.0395613,0.74680519,-0.85913259,0.91965562,0.18788183,0.34486794,0
-4.0731087,-0.7254281,-1.6459515,-0.91965562,-0.18788183,-0.34486794,0
-2.6826365,0.55473113,1.7544823,-0.38807985,0.30009025,0.87140119,0
-4.2101221,-3.0747004,-0.26451939,-0.91965562,-0.18788183,-0.34486794,0
-4.2493725,-1.4986839,-1.1543292,-0.91965562,-0.18788183,-0.34486794,0
3.5130072,0.66062737,3.0528452,0.91965562,0.18788183,0.34486794,0
-3.4696968,-3.2907743,-1.8895013,-0.91965562,-0.18788183,-0.34486794,0
-4.5469007,-2.2098224,0.4868035,-0.91965562,-0.18788183,-0.34486794,0
0.43400809,0.13792121,3.1608629,-0.34441555,-0.036111407,0.93812251,0
2.4612708,-1.9651053,2.1639247,0.0085709095,-0.88753223,0.46066594,0
4.3030014,2.7330287,-0.38743377,0.10152513,0.73455155,-0.67091471,0
-5.1106377,-0.43852043,0.92573941,-0.91965562,-0.18788183,-0.34486794,0
4.7512169,0.35034037,0.099488378,0.91965562,0.18788183,0.34486794,0
4.0156498,-0.76250648,2.7626228,0.91965562,0.18788183,0.34486794,0
1.1398001,-1.9600979,1.9652165,-0.051270485,-0.81318605,0.579741,0
2.2425313,-2.3714685,1.0636235,0.15212023,-0.98000658,0.1282441,0
4.0220146,1.2856622,1.8430204,0.91965562,0.18788183,0.34486794,0
-0.84637332,-2.4843254,0.97777092,-0.0079626441,-0.86903852,0.49468046,0
-2.6340182,-2.7729745,-3.106617,0.37106884,-0.70328629,-0.60637957,0
3.9300601,0.20610809,2.7357712,0.91965562,0.18788183,0.34486794,0
-4.5224075,1.3423595,-1.4615022,-0.91965562,-0.18788183,-0.34486794,0
3.4036086,3.1514177,2.1320958,0.91965562,0.18788183,0.34486794,0
-5.0758972,0.15556622,0.74462968,-0.39198136,0.38509333,0.83549607,0
-1.7761838,0.53991044,2.110877,-0.38609397,0.27184179,0.881495,0
5.2029066,0.72312307,-1.0427914,0.91965562,0.18788183,0.34486794,0
-2.9606035,0.8998208,1.457459,-0.39241493,0.47454673,0.78791869,0
-3.2258399,-2.4977164,-3.3506551,-0.91965562,-0.18788183,-0.34486794,0
-4.3542604,1.667984,-2.171479,-0.91965562,-0.18788183,-0.34486794,0
-1.4870511,2.345005,-1.097412,-0.12050343,0.97077852,-0.20752853,0
-4.6028476,0.40342522,-0.97816837,-0.91965562,-0.18788183,-0.34486794,0
-0.8219018,-2.272584,1.5812466,-0.093364418,-0.74836797,0.65667999,0
3.4440899,0.21354246,3.7179251,0.91965562,0.18788183,0.34486794,0
2.988739,-0.85677218,-1.4159596,0.39263278,-0.45896283,-0.7969898,0
-0.83520412,-2.5537057,-2.2893369,0.36049199,-0.75226545,-0.5514909,0
-4.3764853,-2.0065668,-0.055741765,-0.91965562,-0.18788183,-0.34486794,0
3.9937406,1.6784408,1.4986527,0.91965562,0.18788183,0.34486794,0
-0.83697367,2.2720025,1.3825834,-0.34732872,0.79895467,0.4909524,0
-1.2396464,-2.0985849,1.5224837,-0.12677562,-0.68910146,0.71348935,0
3.5694065,-1.8755,-0.01969552,0.31906801,-0.86943811,-0.37719098,0
-4.6269717,1.771893,-0.93422091,-0.25742614,0.95156997,0.16806644,0
-3.571615,-3.2679343,-1.8746183,-0.91965562,-0.18788183,-0.34486794,0
3.0666945,3.0061355,-0.39071694,0.033727288,0.8371107,-0.54599279,0
-2.6244142,-0.94885981,1.854802,-0.29552823,-0.24725243,0.92278343,0
1.7168784,2.1696944,2.926183,-0.38513419,0.60328895,0.69836533,0
0.064307928,-2.6884913,-0.76863915,0.25343555,-0.95474011,-0.15569738,0
3.8285074,2.2875197,1.7124256,0.91965562,0.18788183,0.34486794,0
0.40586948,-1.9301755,-2.0874929,0.37983999,-0.64863056,-0.65954542,0
-4.0181932,-1.9228129,-1.0561246,-0.91965562,-0.18788183,-0.34486794,0
-2.0618391,0.91309786,1.8423923,-0.39272279,0.43657488,0.80942643,0
3.8589599,2.7395267,-0.67530441,0.11921114,0.70315409,-0.70097291,0
-1.7485065,-1.9464138,-3.2430961,0.39194116,-0.49456653,-0.77574873,0
1.4284003,2.8890467,1.8029554,-0.30236489,0.89912015,0.31647828,0
0.56705737,-2.3785977,-1.3989052,0.34187359,-0.81516773,-0.46757242,0
3.3596907,2.0700812,2.7331238,0.91965562,0.18788183,0.34486794,0
1.8177669,1.0318174,3.4938335,-0.37336177,0.14593533,0.91613525,0
-3.8380334,-0.02847147,-2.5452039,-0.91965562,-0.18788183,-0.34486794,0
4.2890692,-1.2831669,2.4702675,0.91965562,0.18788183,0.34486794,0
0.091615677,-2.1940789,1.7684839,-0.069773078,-0.78600311,0.61427259,0
2.1532011,2.245605,-1.3362012,0.13886124,0.66584927,-0.73305005,0
-3.9546361,0.33680677,-2.4108269,-0.91965562,-0.18788183,-0.34486794,0
-3.7075522,-0.77752256,-2.8336194,-0.91965562,-0.18788183,-0.34486794,0
3.9997039,1.9393272,1.5987509,0.91965562,0.18788183,0.34486794,0
2.9701927,-0.7361145,3.586405,-0.20761275,-0.51281536,0.83301711,0
0.27332425,-2.7431319,-0.5586198,0.25145531,-0.9562372,-0.14960134,0
3.8687761,3.0485785,1.2059112,0.91965562,0.18788183,0.34486794,0
-1.6189814,-3.0550444,-1.2380583,0.24686831,-0.95951736,-0.135582,0
-4.4222918,-1.1121593,-0.73526698,-0.91965562,-0.18788183,-0.34486794,0
-2.5179739,0.50865555,-3.5531094,0.25061464,0.39533454,-0.88368714,0
3.471144,-0.98111248,3.4735739,-0.14455825,-0.65453804,0.74208009,0
1.5278611,3.0764494,1.0222201,-0.23317868,0.96782637,0.094549716,0
3.9743881,-1.9445214,0.59433597,0.28050917,-0.92884296,-0.24200296,0
4.2241392,-1.4369578,2.3266478,0.91965562,0.18788183,0.34486794,0
-4.1036568,0.93074131,-2.3726952,-0.91965562,-0.18788183,-0.34486794,0
-3.3092315,-0.76919651,-3.5587602,-0.91965562,-0.18788183,-0.34486794,0
-3.9889088,-2.9819689,-0.49947035,-0.91965562,-0.18788183,-0.34486794,0
1.5169452,-2.3390002,-0.43125045,0.27901578,-0.93055934,-0.2370857,0
2.0575583,0.8309902,-2.0412288,0.30768204,0.20102702,-0.93001068,0
4.0180721,-1.9722118,1.3682081,0.19550353,-0.9806183,0.012887478,0
-4.6447778,-1.3929782,-0.11335891,-0.91965562,-0.18788183,-0.34486794,0
-4.595727,-0.34875774,-0.35604689,-0.91965562,-0.18788183,-0.34486794,0
-4.3059602,0.1491785,-1.5338731,-0.91965562,-0.18788183,-0.34486794,0
-2.0362802,1.9416436,0.94670159,-0.35199189,0.78378016,0.51165462,0
-1.435331,1.9548788,1.4373387,-0.36934626,0.71223813,0.59690887,0
-4.129993,-1.3628025,-1.424341,-0.91965562,-0.18788183,-0.34486794,0
4.6090894,-0.28788471,0.71898019,0.91965562,0.18788183,0.34486794,0
3.8085063,3.3871608,0.79937267,-0.085173845,0.95265806,-0.29187003,0
1.7510283,2.4241133,-1.2045095,0.10200197,0.73373115,-0.6717397,0
-0.4439466,2.4665494,1.4831378,-0.33650607,0.82972747,0.44532686,0
-4.9245024,0.21529818,-0.15091449,-0.91965562,-0.18788183,-0.34486794,0
2.1072984,0.89525735,-2.1290612,0.29446951,0.25113225,-0.92207396,0
-2.3073819,2.3563464,-1.0513655,-0.14916265,0.97944009,-0.13582228,0
3.0946279,-1.6985855,2.5601368,-0.0045076609,-0.87303185,0.48764256,0
-0.41649818,-2.7778733,0.62472653,0.081612349,-0.95039868,0.30013624,0
-3.7673979,-0.96444893,-2.5255737,-0.91965562,-0.18788183,-0.34486794,0
1.0687933,1.8712344,2.9141312,-0.39160165,0.50509948,0.76910508,0
4.120542,-1.942812,1.4341613,0.1933738,-0.98094606,0.018745512,0
-0.72269726,-3.0233717,-0.30821139,0.17237234,-0.98214179,0.075401127,0
4.3840199,1.7883782,-0.99652404,0.25651446,0.37757009,-0.8897422,0
-3.790427,-0.79950953,-2.3926752,-0.91965562,-0.18788183,-0.34486794,0
-3.4570336,-1.6293495,-3.2102194,-0.91965562,-0.18788183,-0.34486794,0
-4.9058051,-1.4408073,0.86405551,-0.91965562,-0.18788183,-0.34486794,0
0.34469616,-1.5858531,-2.2722988,0.38945132,-0.54945904,-0.73920393,0
-4.7369127,-1.3690453,0.14259484,-0.91965562,-0.18788183,-0.34486794,0
-5.1011543,-0.68552256,0.78399074,-0.91965562,-0.18788183,-0.34486794,0
-3.3615556,0.95075107,1.2788148,-0.39211243,0.48833588,0.77959979,0
-1.9924662,0.73568594,2.1176867,-0.39037398,0.34137684,0.8550263,0
3.7845209,3.1822436,1.2444056,0.91965562,0.18788183,0.34486794,0
3.1680229,2.1661551,3.3565586,0.91965562,0.18788183,0.34486794,0
3.9907341,-1.2133622,3.2137542,0.91965562,0.18788183,0.34486794,0
-3.5460434,-0.55690956,-3.281733,-0.91965562,-0.18788183,-0.34486794,0
-3.4721303,-1.6598711,-2.6407046,-0.91965562,-0.18788183,-0.34486794,0
0.66281545,0.89385831,-2.4250562,0.26315808,0.35701829,-0.89626211,0
1.1090612,-1.277577,2.8048563,-0.1832636,-0.57135695,0.79997861,0
-1.9873953,-0.31965232,2.1078372,-0.34375295,-0.03954649,0.938227,0
3.9309611,0.066346645,2.5915093,0.91965562,0.18788183,0.34486794,0
-3.8595533,-2.0980585,-1.8434575,-0.91965562,-0.18788183,-0.34486794,0
1.8711309,-2.4521556,0.38178164,0.21934026,-0.97414142,-0.054206312,0
-2.8298187,-1.6459275,1.5859573,-0.22365931,-0.47125602,0.85316718,0
-4.041914,-2.8591688,-0.67949331,-0.91965562,-0.18788183,-0.34486794,0
-4.077508,-1.8958855,-1.2286494,-0.91965562,-0.18788183,-0.34486794,0
-3.3320808,0.66527081,-3.7376127,0.19686592,0.53929311,-0.8187837,0
0.463117,0.62710536,3.1235199,-0.37001556,0.12023756,0.9212119,0
-4.7317634,-0.99149132,0.36744645,-0.91965562,-0.18788183,-0.34486794,0
-3.2892139,-2.1927867,-3.2456875,-0.91965562,-0.18788183,-0.34486794,0
0.3673557,-1.0132091,2.6929131,-0.23283044,-0.44633397,0.86404634,0
3.0752668,2.2719636,-1.2153084,0.16206545,0.61832023,-0.7690351,0
-3.9016907,0.17458296,-2.5756478,-0.91965562,-0.18788183,-0.34486794,0
3.6402729,-0.044064999,3.1187601,0.91965562,0.18788183,0.34486794,0
-1.9661026,0.9776814,2.0163171,-0.39251053,0.4106645,0.82297635,0
-5.1028967,0.49065208,0.35763508,-0.91965562,-0.18788183,-0.34486794,0
3.6326704,3.4048562,1.6444664,0.91965562,0.18788183,0.34486794,0
3.4663687,2.3603323,2.262413,0.91965562,0.18788183,0.34486794,0
1.1724241,-0.080803871,3.2498198,-0.31409645,-0.17525449,0.93307513,0
2.9558442,-0.95000935,3.4296472,-0.16051453,-0.62161982,0.76669681,0
-1.3024123,-2.6185043,0.89835823,-0.0018501878,-0.87605697,0.4822042,0
3.8610396,-0.56721878,3.1336205,0.91965562,0.18788183,0.34486794,0
3.7679865,1.1686025,2.4790318,0.91965562,0.18788183,0.34486794,0
-4.787889,-0.40710926,-0.26526961,-0.91965562,-0.18788183,-0.34486794,0
2.3693464,2.5112057,-1.0195339,0.088324666,0.75669336,-0.64777625,0
-4.6053228,-2.369025,0.23466578,-0.91965562,-0.18788183,-0.34486794,0
-3.9429002,-2.3530545,-1.4257106,-0.91965562,-0.18788183,-0.34486794,0
-4.989028,-0.16357565,0.42974716,-0.91965562,-0.18788183,-0.34486794,0
3.160553,2.1200151,3.6786513,0.91965562,0.18788183,0.34486794,0
-3.1253879,0.51760674,-3.6815007,0.22165412,0.47658825,-0.85072505,0
-3.9148149,-0.057448387,-2.8501952,-0.91965562,-0.18788183,-0.34486794,0
-0.97731233,-2.5932379,0.83093798,0.0078309178,-0.88673782,0.46220645,0
4.1862288,2.0612514,0.98329097,0.91965562,0.18788183,0.34486794,0
-2.0339742,-2.4786181,1.0120497,-0.078160822,-0.77300942,0.62956119,0
4.606811,-1.1214767,1.4949968,0.91965562,0.18788183,0.34486794,0
5.1895289,-0.77564859,-0.28341007,0.91965562,0.18788183,0.34486794,0
3.3028164,2.6423905,3.0875955,0.91965562,0.18788183,0.34486794,0
-4.405427,-1.8882298,0.93818533,-0.24785289,-0.40349966,0.88077068,0
-1.268496,-2.9110823,-1.3381107,0.27298117,-0.93713015,-0.21741337,0
-1.6104035,-1.001843,2.2167861,-0.27537429,-0.31759369,0.90736061,0
-0.11388874,-2.1610293,1.7488132,-0.067729652,-0.78910482,0.61051303,0
-4.340456,-1.198348,-1.1062043,-0.91965562,-0.18788183,-0.34486794,0
-1.8457551,-0.26579285,-3.5433192,0.32657686,0.12188138,-0.93727922,0
-4.1714458,-1.2070341,-1.450851,-0.91965562,-0.18788183,-0.34486794,0
3.0356207,1.4301696,4.0033445,-0.38277656,0.23241426,0.89412844,0
3.9134855,-1.248889,3.0061069,0.91965562,0.18788183,0.34486794,0
-1.070503,-1.1215461,-3.262243,0.3857201,-0.26699483,-0.88313866,0
3.8397331,2.2215083,1.5828992,0.91965562,0.18788183,0.34486794,0
1.9503365,-0.64612198,-2.1501091,0.38714808,-0.28624666,-0.87645835,0
0.30399036,-2.6956689,-0.49862993,0.24929774,-0.95781243,-0.14298937,0
4.0941467,0.31786442,1.8254343,0.91965562,0.18788183,0.34486794,0
-1.2703654,1.0156913,-2.8938847,0.20968032,0.50759983,-0.83568931,0
-4.9987421,0.62246656,-0.022298217,-0.91965562,-0.18788183,-0.34486794,0
-4.4265966,-1.6363146,-0.44606203,-0.91965562,-0.18788183,-0.34486794,0
4.068151,-1.7074308,0.016658068,0.3311376,-0.84308928,-0.42373148,0
-1.6306002,-2.664017,0.67792439,-0.004684031,-0.8728295,0.48800278,0
4.5515966,-0.32295036,1.3535097,0.91965562,0.18788183,0.34486794,0
-1.5201906,2.3030951,-1.5453241,-0.057462215,0.93306333,-0.35509297,0
-4.7283649,0.32830715,-0.85846329,-0.91965562,-0.18788183,-0.34486794,0
-1.8114746,1.303731,-2.8916576,0.1513257,0.64080262,-0.7526437,0
-3.5275748,-3.0130131,-1.7525836,-0.91965562,-0.18788183,-0.34486794,0
4.0003772,1.6224134,1.5782752,0.91965562,0.18788183,0.34486794,0
-4.0853415,-1.6862707,-1.2903916,-0.91965562,-0.18788183,-0.34486794,0
-3.241734,-3.0925438,-2.4599857,-0.91965562,-0.18788183,-0.34486794,0
-0.62061167,-0.54072142,-3.0535877,0.36075824,-0.05712615,-0.93090814,0
-2.0204558,-2.8842509,-2.3067949,0.32763982,-0.85121816,-0.40997529,0
3.0279386,2.0590332,3.6811001,-0.39268914,0.42795384,0.81403363,0
-4.4029164,-1.4118018,-0.54640758,-0.91965562,-0.18788183,-0.34486794,0
3.3102117,0.49370718,3.8416619,0.91965562,0.18788183,0.34486794,0
2.8260922,1.45509,-1.7614386,0.26188353,0.36100757,-0.89503664,0
4.531579,0.3708353,1.0298488,0.91965562,0.18788183,0.34486794,0
3.747539,1.067728,-1.4653541,0.31095195,0.18801713,-0.93164283,0
0.80975085,-1.3582989,2.6400805,-0.18604004,-0.56493896,0.80388618,0
-1.7812458,0.22802305,2.142772,-0.36938202,0.11557529,0.92206252,0
4.8072262,0.81455421,-1.0219269,0.34610623,0.027243339,-0.93779969,0
2.6865809,0.80293036,3.901674,-0.35780156,0.038832642,0.9329899,0
3.7701793,0.19541836,3.1041451,0.91965562,0.18788183,0.34486794,0
-2.8278277,2.1159146,0.17560399,-0.3069101,0.89171904,0.33263087,0
-4.3507175,-1.8941567,-0.56055951,-0.91965562,-0.18788183,-0.34486794,0
-4.1291876,0.87577486,-2.6262655,-0.91965562,-0.18788183,-0.34486794,0
3.0849781,3.4208305,1.2654705,-0.18489575,0.98186642,-0.041855067,0
-4.0013237,-2.1863194,-1.118718,-0.91965562,-0.18788183,-0.34486794,0
4.5567288,1.2932887,0.11957574,0.91965562,0.18788183,0.34486794,0
4.2397823,-0.3604331,2.0577142,0.91965562,0.18788183,0.34486794,0
4.5034199,2.199666,-0.32005322,0.91965562,0.18788183,0.34486794,0
-2.5063241,-3.1338382,0.066616803,0.058171272,-0.9336217,0.35350645,0
-4.9737549,-0.76876354,0.9103108,-0.91965562,-0.18788183,-0.34486794,0
1.0374523,1.7639685,2.9329987,-0.39268008,0.45329371,0.80020446,0
3.25808,2.5760846,2.9843864,0.91965562,0.18788183,0.34486794,0
4.1045623,1.3690975,1.0904292,0.91965562,0.18788183,0.34486794,0
1.9587221,-0.25115287,-2.1201687,0.3765732,-0.17261855,-0.91016233,0
0.073919535,-1.8006356,-2.3505821,0.38487336,-0.60589457,-0.6962502,0
-1.8152769,-2.1170666,1.3812747,-0.12944376,-0.68405366,0.71785432,0
-0.77203476,1.9302746,-2.1453846,0.087260365,0.75843143,-0.64588487,0
3.1378274,1.6965117,3.6918726,0.91965562,0.18788183,0.34486794,0
3.4865646,0.45265341,3.3308332,0.91965562,0.18788183,0.34486794,0
1.5990183,-1.6560189,-1.6429241,0.38149282,-0.6359058,-0.67088538,0
4.2959719,0.3591156,1.4023445,0.91965562,0.18788183,0.34486794,0
4.7830644,1.7330685,-0.5863241,0.91965562,0.18788183,0.34486794,0
4.063076,0.42325354,1.7201563,0.91965562,0.18788183,0.34486794,0
-3.9479146,1.411715,-3.2715659,-0.91965562,-0.18788183,-0.34486794,0
3.7201998,2.2847304,2.0672913,0.91965562,0.18788183,0.34486794,0
-3.7736065,-1.0867634,-2.5348289,-0.91965562,-0.18788183,-0.34486794,0
4.2279086,3.2217684,0.2382172,0.91965562,0.18788183,0.34486794,0
-2.6452258,-2.4325514,1.0820982,-0.11238521,-0.71551102,0.68950236,0
-2.8927159,0.36236191,-3.8349769,0.25036323,0.39608166,-0.88342375,0
-3.9933619,0.90273809,-3.1742444,-0.91965562,-0.18788183,-0.34486794,0
-4.4948845,1.3708229,-0.068172693,-0.34748209,0.7984758,0.49162239,0
4.2785664,-1.3215976,-0.59201407,0.37498283,-0.68105662,-0.62892747,0
1.1225971,-1.1844486,2.8930998,-0.19162214,-0.55184066,0.81163597,0
-2.6092441,2.1105862,-0.096361935,-0.2722289,0.93790925,0.21498299,0
-3.1971698,-2.8767562,0.31021956,-0.020724177,-0.85369879,0.52035457,0
1.7365185,1.926062,-1.6119074,0.16918004,0.60295027,-0.77963394,0
3.6307468,2.882921,1.9639391,0.91965562,0.18788183,0.34486794,0
-2.0597191,-3.0646567,0.09155193,0.057168067,-0.93283081,0.35575065,0
-0.41390109,1.3911536,2.4113846,-0.39271587,0.43375775,0.81094301,0
2.4845574,-0.75605154,-1.8374701,0.39089507,-0.35322696,-0.84995985,0
1.9702157,0.13024378,-2.2672722,0.36046612,-0.055284344,-0.93113261,0
-0.013872623,-1.1109796,2.6690283,-0.22452161,-0.4689503,0.85421056,0
4.6539683,-1.6328478,0.43306196,0.31368601,-0.87977493,-0.35720742,0
0.37772822,2.6533842,-0.98557872,-0.029356718,0.90857065,-0.41669852,0
3.3632643,2.9726717,2.1885765,0.91965562,0.18788183,0.34486794,0
5.202035,-0.61193609,-0.24861044,0.91965562,0.18788183,0.34486794,0
2.7282248,-0.63626146,-1.7932703,0.39066228,-0.34775674,-0.85231924,0
-2.2649922,0.80022073,1.7658648,-0.39187026,0.38108194,0.83738542,0
-3.85182,-0.49898434,-2.38273,-0.91965562,-0.18788183,-0.34486794,0
-2.7588053,-1.7196801,-3.7322619,0.39134425,-0.36482966,-0.84483665,0
-3.4968431,-0.59522533,-3.6248527,-0.91965562,-0.18788183,-0.34486794,0
3.2430196,-1.267,-1.1487457,0.38465902,-0.60799742,-0.69453323,0
3.9530256,2.6097274,1.1428959,0.91965562,0.18788183,0.34486794,0
3.4885888,2.398664,2.3919983,0.91965562,0.18788183,0.34486794,0
-4.1691198,-2.7452724,-0.45872688,-0.91965562,-0.18788183,-0.34486794,0
-3.8850987,-1.4148686,-1.8596883,-0.91965562,-0.18788183,-0.34486794,0
3.6505132,1.2978754,2.8932488,0.91965562,0.18788183,0.34486794,0
-0.3121314,2.7190797,0.0053015947,-0.18049699,0.98210764,-0.053716406,0
-4.3962994,-2.639924,0.39232633,-0.91965562,-0.18788183,-0.34486794,0
-5.019516,-1.1938748,0.74581504,-0.91965562,-0.18788183,-0.34486794,0
-3.0596251,1.1867166,1.2407663,-0.38561133,0.5983873,0.70230806,0
4.8622098,-0.85209703,0.73783791,0.91965562,0.18788183,0.34486794,0
-4.1713133,0.37990999,-1.8891749,-0.91965562,-0.18788183,-0.34486794,0
2.0599003,3.0818112,1.6086619,-0.27464926,0.93537098,0.22282028,0
-3.9367166,0.027049541,-2.2899823,-0.91965562,-0.18788183,-0.34486794,0
3.7938659,3.3647389,0.81694871,0.91965562,0.18788183,0.34486794,0
4.4596682,2.5658922,-0.18467264,0.91965562,0.18788183,0.34486794,0
2.2545998,3.2374711,0.72019458,-0.16407192,0.98164159,-0.097263157,0
5.1762552,0.98975658,-1.0211796,0.91965562,0.18788183,0.34486794,0
-3.9454937,1.9779844,-2.0849969,-0.11373174,0.9679231,-0.22403131,0
2.0159924,1.26564,-1.9975636,0.26879042,0.33911479,-0.90152812,0
0.1488173,2.3441539,-1.4681902,0.046162844,0.82033587,-0.57001579,0
1.0760231,-0.44566035,-2.4856544,0.37745115,-0.18033198,-0.90830112,0
-0.67799854,2.0489745,1.7978649,-0.36997598,0.70901805,0.60034269,0
3.4067826,-2.1158335,1.3231919,0.16540694,-0.98175788,0.093766496,0
-0.49685508,-0.018512279,2.6990225,-0.35085526,-0.0014803559,0.93642849,0
-2.4128132,-1.8960054,-3.5909483,0.39252031,-0.41133749,-0.82263565,0
0.031987667,2.7370772,-0.37801874,-0.12235516,0.97150677,-0.2029876,0
-4.0769529,-2.8869452,-0.398729,-0.91965562,-0.18788183,-0.34486794,0
-3.4455183,-0.81276131,-3.1974471,-0.91965562,-0.18788183,-0.34486794,0
-4.8222198,-0.84876776,0.51818025,-0.91965562,-0.18788183,-0.34486794,0
-4.0245886,-2.3352561,-1.117574,-0.91965562,-0.18788183,-0.34486794,0
-0.3909018,2.4894245,1.1155417,-0.30820519,0.88952303,0.3372809,0
-1.1721199,-1.0845025,-3.2932456,0.38053346,-0.20919919,-0.90079409,0
2.1548789,-1.8775345,-1.0892351,0.35948002,-0.75632083,-0.54658306,0
3.7085187,1.1188657,-1.4156966,0.31779566,0.15990587,-0.934578,0
-4.0598612,-1.7123954,-1.516112,-0.91965562,-0.18788183,-0.34486794,0
-0.741781,-1.8092418,-2.79861,0.39146838,-0.5087707,-0.76674956,0
-1.339416,0.038659334,-3.4643354,0.31603605,0.1672532,-0.93388844,0
-1.2985449,2.2288959,0.90799141,-0.32276815,0.86185324,0.39119008,0
-0.75186658,-2.1949825,1.6414027,-0.10816085,-0.72300714,0.68232101,0
4.3704853,2.3029559,0.41384116,0.91965562,0.18788183,0.34486794,0
-3.6612685,-2.9349415,-1.665544,-0.91965562,-0.18788183,-0.34486794,0
4.2972984,-0.079283714,1.6236563,0.91965562,0.18788183,0.34486794,0
-4.7068524,0.27408934,-0.52647281,-0.91965562,-0.18788183,-0.34486794,0
-1.0004232,-2.9760804,0.33244789,0.09770143,-0.95998561,0.2624543,0
-1.6767583,-2.5077758,0.98938322,-0.040234685,-0.82844424,0.55862439,0
-0.37951446,-1.7744999,-2.5254076,0.39089662,-0.5225724,-0.75770575,0
0.72503972,-2.4431705,1.0221622,0.070126653,-0.94258863,0.32651007,0
-0.47512102,2.5938964,-0.91824061,-0.091882586,0.95670289,-0.27618328,0
3.8765197,2.4992247,1.276876,0.91965562,0.18788183,0.34486794,0
-4.3361406,1.1681232,0.50263679,-0.37785575,0.66266167,0.64661002,0
-3.4717727,-3.4954333,-1.1876613,0.1651144,-0.9817335,0.094533116,0
-3.5402761,-0.85141087,-2.9555831,-0.91965562,-0.18788183,-0.34486794,0
-3.8724384,0.88000393,-3.4621255,-0.91965562,-0.18788183,-0.34486794,0
1.6902076,-2.3233533,-0.6448341,0.31700182,-0.87350059,-0.36946791,0
-3.8455107,0.027179956,1.4229507,-0.38230672,0.22736439,0.8956266,0
3.7825813,-1.4522786,-0.41504163,0.36262983,-0.74338621,-0.56202912,0
1.5603508,1.8454815,-1.7246675,0.17510432,0.58985293,-0.78829694,0
-4.181529,-1.0300479,-1.2944573,-0.91965562,-0.18788183,-0.34486794,0
3.4307482,0.17399073,3.6740475,0.91965562,0.18788183,0.34486794,0
-0.84837687,-0.52905965,-3.3135896,0.35871708,-0.044416882,-0.93238896,0
3.4893944,2.2625339,2.717633,0.91965562,0.18788183,0.34486794,0
3.730659,0.25873518,3.0993156,0.91965562,0.18788183,0.34486794,0
4.253859,-0.88853312,2.1960924,0.91965562,0.18788183,0.34486794,0
1.8827286,2.7399909,2.4342322,-0.3466444,0.80107445,0.48797277,0
3.8764453,2.269515,1.6369438,0.91965562,0.18788183,0.34486794,0
-3.5497544,1.2822576,-3.1559634,0.095989227,0.74396938,-0.66128325,0
3.4641571,1.2678266,3.1726413,0.91965562,0.18788183,0.34486794,0
-3.4735606,-2.4841852,-2.4729314,-0.91965562,-0.18788183,-0.34486794,0
3.4812052,-0.86898375,3.612314,-0.17442,-0.59138,0.78730386,0
2.7408915,1.551101,3.890415,-0.38819206,0.30184263,0.87074572,0
-5.0131979,1.4054785,-0.16017973,-0.34871727,0.79457211,0.49704275,0
-3.2103252,-0.9791832,-3.8427162,-0.91965562,-0.18788183,-0.34486794,0
4.0911388,-1.472229,2.9817302,-0.012580812,-0.86359459,0.50402987,0
-0.44268417,0.8803066,2.7613513,-0.38616878,0.27282691,0.88115782,0
3.4765365,-0.022898674,4.0593429,0.91965562,0.18788183,0.34486794,0
-1.1872725,0.58148098,-3.2868762,0.27096963,0.33206391,-0.90349817,0
-4.0008678,1.2249556,-2.9458008,-0.91965562,-0.18788183,-0.34486794,0
-3.0264881,1.8223102,-2.1703119,-0.035416245,0.91423798,-0.40362704,0
2.6988113,2.9081945,-0.55085993,0.024968326,0.84839106,-0.52878076,0
-1.8037754,2.192404,-1.5607908,-0.055368364,0.93139714,-0.3597692,0
3.992414,1.784054,1.2419693,0.91965562,0.18788183,0.34486794,0
-2.310616,1.7173138,1.2233522,-0.36819965,0.7179547,0.59073681,0
2.8331561,3.2786496,1.1636281,-0.18964922,0.9814254,-0.02893883,0
1.0669849,2.9153297,0.93327254,-0.23596251,0.96630949,0.10279942,0
0.26096597,0.21189237,-2.7944562,0.3236036,0.13502207,-0.93650937,0
4.3258257,-0.37720346,1.45612,0.91965562,0.18788183,0.34486794,0
1.3768102,1.4996052,3.2295394,-0.39184904,0.38034379,0.83773082,0
-4.5284157,-0.37518644,-0.52685142,-0.91965562,-0.18788183,-0.34486794,0
4.6081009,-1.0964885,1.1107852,0.91965562,0.18788183,0.34486794,0
0.23271799,2.9289505,0.22235394,-0.19106758,0.98125678,-0.025064528,0
-1.128324,2.4599259,0.11660129,-0.24521774,0.96063483,0.13057187,0
-0.33682463,-0.14439255,2.8565834,-0.33310446,-0.09197472,0.93839329,0
2.1934223,-1.8267828,-0.92562592,0.35340047,-0.77892727,-0.5180546,0
-4.3506451,-2.6205049,-0.049298465,-0.91965562,-0.18788183,-0.34486794,0
4.4050961,-0.47227573,-1.0113025,0.39271706,-0.43414813,-0.81073338,0
-3.8171613,-1.8169489,-1.7549114,-0.91965562,-0.18788183,-0.34486794,0
2.8988194,0.17607427,-1.7709055,0.36050797,-0.055547617,-0.93110067,0
-3.9136631,-2.7068107,-1.4059513,-0.91965562,-0.18788183,-0.34486794,0
-2.554435,2.2625527,-0.24640489,-0.26571554,0.94430321,0.19413045,0
-1.429757,2.0666921,1.2511737,-0.35019737,0.78977621,0.50360262,0
-0.48382479,0.86090392,2.6108432,-0.38476837,0.25517702,0.88703895,0
-4.0590258,-1.0742497,-1.8661603,-0.91965562,-0.18788183,-0.34486794,0
-2.094569,-3.0768893,-1.7543044,0.28540558,-0.92295212,-0.25826943,0
3.6850712,-0.8251586,3.6104345,0.91965562,0.18788183,0.34486794,0
4.7231946,-0.74544287,1.0990345,0.91965562,0.18788183,0.34486794,0
4.7206664,0.52456522,0.21284893,0.91965562,0.18788183,0.34486794,0
2.7383161,2.2946959,-1.096632,0.14507294,0.65350497,-0.7428897,0
-0.55400968,2.6554096,-0.60787797,-0.12213445,0.97142112,-0.20352945,0
1.8981423,-1.8566639,2.2807889,-0.043310881,-0.82426214,0.56454945,0
0.61360669,-0.2581284,3.1121154,-0.30253598,-0.22099234,0.92716467,0
-2.5222282,-1.4823284,-3.8690462,0.38575351,-0.26742339,-0.88299423,0
-3.8994141,1.1173844,-3.4367228,-0.91965562,-0.18788183,-0.34486794,0
4.202137,2.6596456,0.37207791,0.91965562,0.18788183,0.34486794,0
-1.5924904,-0.7414856,-3.4225302,0.36510399,-0.085515097,-0.92703086,0
4.091342,-1.9858665,1.8589617,0.13232362,-0.97503352,0.17832583,0
-4.0792828,0.87891388,-2.5365803,-0.91965562,-0.18788183,-0.34486794,0
3.4986138,1.6205533,2.6821327,0.91965562,0.18788183,0.34486794,0
0.044569731,-1.7130779,-2.5506985,0.39111283,-0.51766431,-0.76095623,0
1.504993,-1.8934182,2.1651268,-0.039176226,-0.82987058,0.55657893,0
0.35098243,1.846256,-1.9604719,0.12425911,0.69381875,-0.70934844,0
1.0289341,-2.3430314,1.504413,0.019273937,-0.89867377,0.43819401,0
-3.1123672,2.0063381,-0.0070432425,-0.30120361,0.90093726,0.31239161,0
-5.0775828,0.069570065,0.59387296,-0.91965562,-0.18788183,-0.34486794,0
0.66980267,2.440583,-1.2330185,0.022485793,0.85150826,-0.52385885,0
-4.1039419,-1.2209473,-1.6384791,-0.91965562,-0.18788183,-0.34486794,0
-1.9111226,-3.1068702,-0.90694922,0.19727814,-0.98031509,0.0079901218,0
-0.67778873,-2.6171482,-2.0261602,0.34858876,-0.79498219,-0.49647677,0
-3.8679979,1.6906614,-2.6464295,-0.011913121,0.89108151,-0.45368701,0
-3.5037968,-0.1407609,-3.4661832,-0.91965562,-0.18788183,-0.34486794,0
4.0521693,1.2324157,1.3224201,0.91965562,0.18788183,0.34486794,0
-3.7481878,-0.88987207,-2.8517077,-0.91965562,-0.18788183,-0.34486794,0
-0.59975004,2.6305799,-0.51833802,-0.15211499,0.98000568,-0.1282575,0
-3.2546749,-3.2250891,-2.4077063,-0.91965562,-0.18788183,-0.34486794,0
3.6746316,3.4332566,1.1447189,0.91965562,0.18788183,0.34486794,0
-3.8424218,-3.5203776,-0.66073191,0.080983996,-0.94999206,0.3015905,0
0.90369868,3.0048723,1.0453668,-0.26475459,0.94519454,0.19108221,0
4.9610572,0.4577179,-0.64126915,0.91965562,0.18788183,0.34486794,0
-4.2449956,-1.5629621,-0.96005762,-0.91965562,-0.18788183,-0.34486794,0
0.99640834,1.3097059,3.1407349,-0.39084971,0.35213697,0.85043287,0
-2.9912677,-3.2907877,-0.67478573,0.12492478,-0.97247964,0.19666511,0
0.64515615,-2.4333134,-1.1098971,0.31369865,-0.87975162,-0.35725382,0
5.013773,-0.85448027,0.17091435,0.91965562,0.18788183,0.34486794,0
-2.9825287,-1.3724658,-4.0242276,0.37667605,-0.17351155,-0.90994996,0
-4.8473234,0.22226238,-0.510692,-0.91965562,-0.18788183,-0.34486794,0
3.0937686,1.3576968,3.9343762,0.91965562,0.18788183,0.34486794,0
4.368629,0.18220854,-1.1801143,0.37864086,-0.19112152,-0.90559572,0
-5.0354199,-0.55625486,0.88790637,-0.91965562,-0.18788183,-0.34486794,0
-3.7816191,1.4173789,-3.1827383,0.07265991,0.78157884,-0.61956048,0
1.7538892,-2.4835072,0.71565139,0.17581105,-0.98219156,0.066258103,0
1.4597408,-1.9611113,2.0652251,-0.01952374,-0.85518128,0.51796114,0
-3.1352232,-2.5170522,-3.4292829,-0.91965562,-0.18788183,-0.34486794,0
-4.4866853,-1.3350601,1.1200504,-0.30348456,-0.21735731,0.92771387,0
-3.1591318,1.8833525,0.25023746,-0.33371979,0.83680248,0.43404239,0
0.27105832,0.95738357,2.9481318,-0.38590392,0.26936221,0.88233912,0
3.634145,-1.8125484,-0.075648785,0.31725836,-0.87300265,-0.37042329,0
0.08317101,-1.3438835,-2.5057719,0.39271447,-0.44659641,-0.80394459,0
4.6609597,0.64147615,0.45172822,0.91965562,0.18788183,0.34486794,0
3.6800828,2.3053067,2.2362525,0.91965562,0.18788183,0.34486794,0
-3.2253361,-1.7292347,-3.3982747,-0.91965562,-0.18788183,-0.34486794,0
0.23108006,-2.6683972,0.81258833,0.072324634,-0.94414467,0.32149675,0
2.1474187,-1.3124321,3.0776114,-0.14783067,-0.64793718,0.7472105,0
-4.4124327,-0.70666218,-1.1599753,-0.91965562,-0.18788183,-0.34486794,0
2.6841054,1.0702479,3.8673632,-0.36743897,0.10162995,0.92447817,0
-3.905901,-1.2667081,1.3893716,-0.3030445,-0.21904597,0.92746049,0
-1.6459668,0.83743048,-3.2195446,0.2169981,0.488814,-0.84496909,0
-3.97858,0.98631811,0.79631984,-0.38736632,0.57854205,0.71779972,0
4.7469349,1.8953867,-0.57953775,0.91965562,0.18788183,0.34486794,0
3.2844505,1.4849234,3.5320537,0.91965562,0.18788183,0.34486794,0
4.5811386,1.53266,0.13893911,0.91965562,0.18788183,0.34486794,0
3.337991,2.758626,2.5656352,0.91965562,0.18788183,0.34486794,0
-5.196681,0.45180368,0.31481737,-0.91965562,-0.18788183,-0.34486794,0
4.9109287,1.3851657,-0.68002468,0.91965562,0.18788183,0.34486794,0
3.9909489,1.3727229,1.4427574,0.91965562,0.18788183,0.34486794,0
0.55198026,2.8880358,1.1407669,-0.27513671,0.93484885,0.22440457,0
-3.4104848,-1.0424702,1.5231819,-0.3170566,-0.1630023,0.93429404,0
-4.591301,-0.50909853,1.2422167,-0.363554,0.075165883,0.92853576,0
-3.8709626,-1.7598596,-1.4838749,-0.91965562,-0.18788183,-0.34486794,0
-3.7598109,-3.091934,-1.064517,-0.91965562,-0.18788183,-0.34486794,0
-3.9324636,-1.6992652,-1.6868494,-0.91965562,-0.18788183,-0.34486794,0
-3.5079904,0.46887064,-3.6779099,-0.91965562,-0.18788183,-0.34486794,0
-2.5539641,0.43079066,-3.5463796,0.24836829,0.40198311,-0.88131881,0
-4.5556641,-0.82769299,-0.39938155,-0.91965562,-0.18788183,-0.34486794,0
-4.1470819,0.95716238,-2.5819914,-0.91965562,-0.18788183,-0.34486794,0
-2.5599933,-3.2020879,-0.36918476,0.095995784,-0.95904505,0.26649067,0
-2.6499579,-0.15211344,1.8552558,-0.36283225,0.070434101,0.92918879,0
4.2455831,-1.4328418,2.4438858,0.91965562,0.18788183,0.34486794,0
-4.1417193,0.53578424,-2.2963705,-0.91965562,-0.18788183,-0.34486794,0
-3.3393025,-3.3876014,-2.518625,0.30818385,-0.88955957,-0.33720422,0
4.4607439,2.6236393,-0.33587021,0.91965562,0.18788183,0.34486794,0
-3.7343645,-1.4075828,1.3859639,-0.28841808,-0.27289471,0.91779274,0
1.1259087,-2.4097581,-1.0546639,0.3212707,-0.86497188,-0.38549811,0
-0.8170135,-3.028862,-0.38104397,0.1957854,-0.98057204,0.012110561,0
-0.6864326,2.2871673,-1.3269429,-0.024360478,0.90373933,-0.42738956,0
-4.3838692,2.0246439,-1.5598669,-0.17522597,0.98218977,-0.067817256,0
-1.4550204,-1.6754785,-3.3297267,0.39221072,-0.39443544,-0.83101827,0
-4.1534295,-0.17244911,-2.0748732,-0.91965562,-0.18788183,-0.34486794,0
4.6439753,0.94794416,-0.084914088,0.91965562,0.18788183,0.34486794,0
-4.6963468,0.99283171,0.57783139,-0.3810544,0.63938457,0.66782117,0
0.84564328,3.0491099,0.14663416,-0.16576505,0.98178661,-0.092827156,0
-4.3071842,-2.8800335,-0.014960222,-0.91965562,-0.18788183,-0.34486794,0
2.6294496,2.2784262,3.4929616,-0.38935357,0.55101842,0.73809379,0
