0.47804868,1.7291241,-0.60630465,0.6010586,0.11099529,-0.79145992,0
-1.6072738,1.3536439,-1.7514364,-0.73166478,0.47486192,-0.48905322,0
0.70250374,-0.42996514,-0.86469281,0.6010586,0.11099529,-0.79145992,0
1.2316084,1.2104082,2.321265,0.66246402,0.4847765,0.57108074,0
0.16569811,0.81330693,-0.96303648,0.6010586,0.11099529,-0.79145992,0
2.2335122,0.27919298,1.5213864,0.78380895,0.11157931,0.61089611,0
-1.2892315,1.7925936,0.64546394,-0.6010586,-0.11099529,0.79145992,0
1.7081388,0.74362588,0.23599017,0.6010586,0.11099529,-0.79145992,0
-0.0059762001,-1.290673,1.1846486,-0.6010586,-0.11099529,0.79145992,0
-0.95644152,0.85678887,0.66390747,-0.6010586,-0.11099529,0.79145992,0
0.9873147,0.87261564,2.0295019,-0.6010586,-0.11099529,0.79145992,0
0.55341089,-1.1675508,-1.0785967,0.6010586,0.11099529,-0.79145992,0
1.2223727,2.5902252,-0.075879097,0.6010586,0.11099529,-0.79145992,0
-0.30529857,-1.1994809,0.76267469,-0.6010586,-0.11099529,0.79145992,0
1.3932045,-0.38308161,-0.29715145,0.6010586,0.11099529,-0.79145992,0
-0.96066141,0.30110329,-1.9253212,0.6010586,0.11099529,-0.79145992,0
0.95230913,1.6092631,2.2320626,-0.6010586,-0.11099529,0.79145992,0
0.28701174,-1.5584142,1.3793265,-0.6010586,-0.11099529,0.79145992,0
0.98130333,-2.57985,0.18983316,0.30571866,-0.94692183,0.099374652,0
1.398546,1.3018464,0.0067404509,0.6010586,0.11099529,-0.79145992,0
-0.31233013,-0.88786376,0.78749448,-0.6010586,-0.11099529,0.79145992,0
-0.19465387,1.1492475,1.2445624,-0.6010586,-0.11099529,0.79145992,0
-2.3249519,0.92091978,-0.99322271,-0.76271594,0.37548286,-0.52657139,0
-1.5093753,-0.51215208,-0.022834003,-0.6010586,-0.11099529,0.79145992,0
-1.8288612,-1.7370405,-0.3980912,-0.6010586,-0.11099529,0.79145992,0
0.94139218,-2.2490849,1.412962,0.5428794,-0.78347576,0.30240351,0
1.2038522,-1.245312,1.9023731,-0.6010586,-0.11099529,0.79145992,0
-1.4580605,0.91590101,-2.2628756,0.6010586,0.11099529,-0.79145992,0
-0.61206937,1.3795224,-1.6564407,0.6010586,0.11099529,-0.79145992,0
-2.1726117,0.5580529,-1.6426287,-0.79347837,0.20121793,-0.57437247,0
1.0124028,2.5305905,0.45411015,0.27829531,0.89926249,0.33745944,0
-1.4820828,-1.9967707,-0.17472517,-0.6010586,-0.11099529,0.79145992,0
-2.0843549,-0.7420212,-0.36511087,-0.6010586,-0.11099529,0.79145992,0
1.0874655,2.4165788,0.6504668,0.314955,0.87727034,0.36221564,0
-1.9843769,0.5458377,-1.8197815,-0.79537117,0.17995995,-0.5787912,0
-1.0378079,0.068836451,-2.0709436,0.6010586,0.11099529,-0.79145992,0
-1.2459676,1.7019789,-2.0628874,-0.70540333,0.53918934,-0.46008819,0
1.1534274,-2.0178494,1.8199061,0.61831266,-0.69204342,0.37251246,0
-0.93110049,2.2217455,-1.3556142,-0.51849407,0.80777252,-0.28047717,0
0.56218457,-2.3677924,-1.2088026,0.6010586,0.11099529,-0.79145992,0
-1.7243567,0.52992743,0.11779654,-0.6010586,-0.11099529,0.79145992,0
-0.52171707,0.53516877,0.92153096,-0.6010586,-0.11099529,0.79145992,0
0.17637128,1.4349549,-0.90893579,0.6010586,0.11099529,-0.79145992,0
2.4810622,-0.32309753,1.0833302,0.7962079,-0.16884944,0.58098471,0
-1.4923196,1.2621377,-2.1873956,-0.75356275,0.40858421,-0.51497811,0
-1.4097648,-1.966982,-0.085097075,-0.6010586,-0.11099529,0.79145992,0
-1.5959196,1.6247433,-1.4465725,-0.68260461,0.58635879,-0.43615896,0
1.8493512,1.4465284,1.6176463,0.64838123,0.51126564,0.56410068,0
-0.15363365,2.746763,-0.51174641,-0.20124936,0.9794178,-0.01548028,0
0.6409018,1.5634615,-0.43510294,0.6010586,0.11099529,-0.79145992,0
-0.31559804,-2.7334189,0.53099704,-0.6010586,-0.11099529,0.79145992,0
-0.27887857,2.7543283,-0.84540629,-0.27294546,0.95927465,-0.07275337,0
-1.6717317,1.0924882,0.09374404,-0.6010586,-0.11099529,0.79145992,0
-0.5008781,1.7489235,-1.2773789,0.6010586,0.11099529,-0.79145992,0
1.2211469,2.1469388,1.1876723,0.43212485,0.78793263,0.43866912,0
1.4952931,-1.7535288,1.7319393,0.68517143,-0.58136702,0.43880838,0
-2.2675438,-0.68431163,-1.3419822,-0.75150573,-0.25850895,-0.60696983,0
-1.5715442,-1.9594975,-1.3509628,-0.53003162,-0.68582892,-0.49870345,0
-0.61168492,0.72280043,-1.7486832,0.6010586,0.11099529,-0.79145992,0
-0.31258857,2.5933831,-1.0391855,-0.34707052,0.92830467,-0.13338947,0
0.86215073,0.66318929,-0.51251966,0.6010586,0.11099529,-0.79145992,0
-0.63669252,-1.34237,-1.8614039,0.6010586,0.11099529,-0.79145992,0
0.13798964,1.2587973,1.5847456,-0.6010586,-0.11099529,0.79145992,0
-0.71548629,-1.8258235,-2.1635602,0.6010586,0.11099529,-0.79145992,0
1.4088545,1.4207239,0.11729527,0.6010586,0.11099529,-0.79145992,0
-0.69551456,2.2193499,1.0972946,-0.6010586,-0.11099529,0.79145992,0
0.079043955,-2.5974424,-0.85577512,-0.082470782,-0.97640842,-0.19956332,0
-0.087656736,-2.2354784,-1.5784271,0.6010586,0.11099529,-0.79145992,0
-0.84579295,-0.89407194,0.45492744,-0.6010586,-0.11099529,0.79145992,0
0.087854266,-0.97363275,-1.2523694,0.6010586,0.11099529,-0.79145992,0
-0.7436381,-1.2255038,0.54227936,-0.6010586,-0.11099529,0.79145992,0
-0.87511039,-0.27439058,0.47409642,-0.6010586,-0.11099529,0.79145992,0
0.44558018,-2.4514847,-1.3109139,0.6010586,0.11099529,-0.79145992,0
0.68449676,-1.7288957,1.4219176,-0.6010586,-0.11099529,0.79145992,0
-0.53759646,1.8039041,-1.3348078,0.6010586,0.11099529,-0.79145992,0
0.63104939,-0.77798045,-0.82398653,0.6010586,0.11099529,-0.79145992,0
-2.6488955,0.061128139,-0.77142251,-0.6010586,-0.11099529,0.79145992,0
1.0081546,-2.340723,-0.92510688,0.6010586,0.11099529,-0.79145992,0
-2.8413212,-0.21192503,-0.80376416,-0.6010586,-0.11099529,0.79145992,0
0.1520561,-0.10606158,1.4183393,-0.6010586,-0.11099529,0.79145992,0
1.6477163,-1.6657017,1.5163505,0.6776517,-0.59578729,0.43107539,0
-0.19239974,1.3153689,1.3857272,-0.6010586,-0.11099529,0.79145992,0
0.73055321,1.9139975,-0.43923807,0.6010586,0.11099529,-0.79145992,0
-1.628598,-1.119036,-2.0194166,-0.69111568,-0.42514265,-0.58447671,0
0.85144031,-2.7193623,-0.62445307,0.12454668,-0.99121869,-0.04442507,0
0.19328517,-1.8571455,-1.4261682,0.6010586,0.11099529,-0.79145992,0
-0.26692879,-1.7995169,-1.7665519,0.6010586,0.11099529,-0.79145992,0
-1.4792881,2.2400179,-0.32187271,-0.46789777,0.85172051,-0.23588961,0
-1.0520926,1.3088926,-1.8284022,0.6010586,0.11099529,-0.79145992,0
1.3354774,2.3604662,0.021470308,0.6010586,0.11099529,-0.79145992,0
1.6945884,0.0045131184,2.1574883,0.79386628,0.0313586,0.60728371,0
0.19304779,1.8643801,-0.7549628,0.6010586,0.11099529,-0.79145992,0
-0.26065379,0.51502532,1.1900749,-0.6010586,-0.11099529,0.79145992,0
1.0706058,0.89238453,2.1189415,-0.6010586,-0.11099529,0.79145992,0
-2.1658473,0.30336285,-0.25463927,-0.6010586,-0.11099529,0.79145992,0
-2.0019951,-0.45378101,-1.7992735,-0.77334481,-0.16910514,-0.61101687,0
1.2211586,1.5202419,-0.04432869,0.6010586,0.11099529,-0.79145992,0
-1.5203815,-0.74432945,-0.11410493,-0.6010586,-0.11099529,0.79145992,0
-0.40597636,-0.30432051,1.0180194,-0.6010586,-0.11099529,0.79145992,0
-1.0306779,-0.37638891,0.40075701,-0.6010586,-0.11099529,0.79145992,0
-0.017670691,2.6734786,-0.017239571,-0.067119025,0.99382097,0.088402271,0
-1.3663347,1.6339576,-1.8461479,-0.69828421,0.55464423,-0.45251429,0
-0.9248358,2.5817633,-0.72675085,-0.40857852,0.89379013,-0.18494076,0
-1.0634038,2.6080008,0.45137167,-0.25510275,0.96515006,-0.058379114,0
-0.43723774,2.7001781,-0.75776839,-0.31844679,0.94156116,-0.10979259,0
-0.29903162,1.9035439,-1.3484514,0.6010586,0.11099529,-0.79145992,0
0.56831694,2.6277788,-0.50846553,0.6010586,0.11099529,-0.79145992,0
1.2292645,-1.8156761,1.8365202,-0.6010586,-0.11099529,0.79145992,0
0.36599886,2.5681927,-0.54533648,0.6010586,0.11099529,-0.79145992,0
-1.5317173,-0.78441751,0.063970864,-0.6010586,-0.11099529,0.79145992,0
2.5587337,-1.0352347,0.66906559,0.75849247,-0.39126977,0.52115005,0
-0.34700006,2.4071653,1.3069429,-0.6010586,-0.11099529,0.79145992,0
-0.67265725,0.71798831,-1.7264005,0.6010586,0.11099529,-0.79145992,0
-0.24630117,-0.73948097,-1.6550405,0.6010586,0.11099529,-0.79145992,0
1.8089914,-1.351462,-0.15631247,0.6010586,0.11099529,-0.79145992,0
-1.3162351,-0.72886181,-2.4452152,0.6010586,0.11099529,-0.79145992,0
0.54430902,2.3317804,-0.56146049,0.6010586,0.11099529,-0.79145992,0
-1.4721985,2.3544302,0.59058952,-0.6010586,-0.11099529,0.79145992,0
-0.3379508,-1.2019632,0.90541148,-0.6010586,-0.11099529,0.79145992,0
-0.62228537,-0.61267632,-1.8099198,0.6010586,0.11099529,-0.79145992,0
1.7955759,-2.0712273,0.41167748,0.51658332,-0.80958521,0.27877194,0
-0.83827257,-2.2645781,-1.4723895,-0.37701395,-0.83381617,-0.40325099,0
-0.83495349,0.14093196,0.69563603,-0.6010586,-0.11099529,0.79145992,0
-1.9559422,-0.046388149,-0.30541638,-0.6010586,-0.11099529,0.79145992,0
-0.65669084,-1.8309531,-1.9140705,0.6010586,0.11099529,-0.79145992,0
-0.7245748,0.19129586,-1.7961013,0.6010586,0.11099529,-0.79145992,0
1.626008,1.5211939,1.6459576,0.63722122,0.53115225,0.5584144,0
1.0656179,0.22374284,-0.38618448,0.6010586,0.11099529,-0.79145992,0
-0.98165667,-0.4574126,0.51875961,-0.6010586,-0.11099529,0.79145992,0
-2.328166,-0.60478783,-0.68303734,-0.6010586,-0.11099529,0.79145992,0
1.0295312,-0.024442554,-0.45911476,0.6010586,0.11099529,-0.79145992,0
-2.0321188,-0.22420526,-0.37166876,-0.6010586,-0.11099529,0.79145992,0
-2.4325783,-0.19031131,-0.55437821,-0.6010586,-0.11099529,0.79145992,0
-0.6356653,2.6113925,-1.2232025,-0.40423977,0.89651203,-0.1812641,0
-0.045790076,1.4329901,-1.1237295,0.6010586,0.11099529,-0.79145992,0
0.77957988,-1.8062131,1.5974714,-0.6010586,-0.11099529,0.79145992,0
0.17668247,1.0002931,1.4847586,-0.6010586,-0.11099529,0.79145992,0
0.21921539,2.7040379,-0.71026063,0.6010586,0.11099529,-0.79145992,0
0.53903675,2.3411617,-0.43061423,0.6010586,0.11099529,-0.79145992,0
-2.5764432,0.067030907,-0.63027585,-0.6010586,-0.11099529,0.79145992,0
-1.6136854,2.3209882,-0.085856438,-0.46413589,0.85467339,-0.23261845,0
-2.1786036,1.4719249,-0.22081637,-0.6010586,-0.11099529,0.79145992,0
-2.6772087,-0.32082653,-1.0771438,-0.79156029,-0.053968862,-0.60870349,0
-1.7576602,-1.3946025,-1.4622611,-0.64849311,-0.51106107,-0.56415713,0
-0.24280155,2.0478842,-1.0869832,0.6010586,0.11099529,-0.79145992,0
-1.6227188,1.2968005,-1.8352697,-0.7499634,0.42057079,-0.51056361,0
0.29146147,-0.33817029,1.5190895,-0.6010586,-0.11099529,0.79145992,0
-1.3832325,-2.3491426,-0.09990406,-0.6010586,-0.11099529,0.79145992,0
0.5755825,2.0210159,1.9734457,-0.6010586,-0.11099529,0.79145992,0
-1.7792698,-1.0812918,-0.14025044,-0.6010586,-0.11099529,0.79145992,0
2.8066523,-0.47363412,0.70235407,0.6010586,0.11099529,-0.79145992,0
-1.2773228,-1.2932279,-2.164588,-0.65028375,-0.50778151,-0.56505692,0
1.7977469,-0.028757453,0.21531121,0.6010586,0.11099529,-0.79145992,0
-1.7375802,2.3958426,0.25277972,-0.43455088,0.87651616,-0.20708746,0
0.93567044,2.5551775,0.75923491,0.26268998,0.90784788,0.32681227,0
-0.59591448,-1.3423055,-1.9773428,0.6010586,0.11099529,-0.79145992,0
-0.35167646,2.2025001,-1.1521959,0.6010586,0.11099529,-0.79145992,0
-1.749835,1.5548974,-1.2634612,-0.68957376,0.57263005,-0.44337696,0
2.0670109,-0.53763229,0.15889269,0.6010586,0.11099529,-0.79145992,0
0.47734082,-0.94757265,1.5026004,-0.6010586,-0.11099529,0.79145992,0
1.6740596,-1.1526294,-0.09216857,0.6010586,0.11099529,-0.79145992,0
0.74708289,1.731389,-0.38972831,0.6010586,0.11099529,-0.79145992,0
-0.34372723,0.00011384487,0.97238159,-0.6010586,-0.11099529,0.79145992,0
0.37866411,-1.7836428,-1.3425392,0.6010586,0.11099529,-0.79145992,0
-1.8538038,0.023811936,-0.16159207,-0.6010586,-0.11099529,0.79145992,0
0.15374537,-2.5964718,-0.76685882,-0.055122241,-0.98219311,-0.17960536,0
2.3027804,0.99168801,0.60805398,0.6010586,0.11099529,-0.79145992,0
0.36047488,-2.6939611,-0.73903513,0.03850529,-0.99318075,-0.11004263,0
-2.1602268,-0.30666471,-0.34886298,-0.6010586,-0.11099529,0.79145992,0
2.2532296,-1.9380455,0.074977636,0.6010586,0.11099529,-0.79145992,0
2.5438905,0.050208449,0.76180881,0.6010586,0.11099529,-0.79145992,0
-0.74707735,-2.0239749,-1.7999245,-0.42330784,-0.79577529,-0.43307316,0
0.61332476,2.386354,1.4798574,0.32172865,0.87291789,0.36674935,0
-1.2915263,-1.6734297,-1.7405187,-0.59254164,-0.6026547,-0.53451097,0
0.27618039,-2.4247522,1.0483069,-0.6010586,-0.11099529,0.79145992,0
1.2107134,-2.2452476,1.118516,0.5487709,-0.77726531,0.30774885,0
1.4842386,2.0934904,0.22568583,0.6010586,0.11099529,-0.79145992,0
-1.1565583,-1.6113718,0.15278113,-0.6010586,-0.11099529,0.79145992,0
0.81307948,-0.2965647,-0.64730853,0.6010586,0.11099529,-0.79145992,0
-0.80509478,0.55705357,0.77766907,-0.6010586,-0.11099529,0.79145992,0
-0.44542754,2.5276651,-1.275054,-0.37683624,0.91267264,-0.15818661,0
2.4151618,-1.2909287,0.32132638,0.6010586,0.11099529,-0.79145992,0
0.14863127,-0.18783456,-1.2995269,0.6010586,0.11099529,-0.79145992,0
1.1215913,-0.44189674,-0.47042382,0.6010586,0.11099529,-0.79145992,0
1.8471545,0.72295833,0.35655755,0.6010586,0.11099529,-0.79145992,0
1.6185731,1.3201039,0.10276067,0.6010586,0.11099529,-0.79145992,0
-1.8946033,0.41209936,-2.0712717,-0.79812157,0.13491303,-0.5871973,0
1.2160754,1.0736612,-0.10591412,0.6010586,0.11099529,-0.79145992,0
-0.65622997,-2.2550216,0.37874317,-0.6010586,-0.11099529,0.79145992,0
-1.0551348,1.7539777,-1.7803569,0.6010586,0.11099529,-0.79145992,0
-0.72176433,-0.34571326,0.72892261,-0.6010586,-0.11099529,0.79145992,0
-2.0807447,1.1931989,-0.048967123,-0.6010586,-0.11099529,0.79145992,0
-1.061727,1.5049531,-1.9036829,0.6010586,0.11099529,-0.79145992,0
-2.1393814,-1.1813838,-1.4677808,-0.7097472,-0.38112783,-0.59245324,0
1.3499212,-1.6680011,1.851342,0.67126966,-0.60756177,0.42457741,0
-1.2491841,-1.1214099,-2.3528781,0.6010586,0.11099529,-0.79145992,0
0.021122456,1.1378241,-1.1817108,0.6010586,0.11099529,-0.79145992,0
1.5318439,-0.89011508,-0.22084856,0.6010586,0.11099529,-0.79145992,0
-0.56183326,2.6013517,-0.50784779,-0.30670512,0.94651777,-0.10018039,0
-0.60475737,0.14467049,0.70181704,-0.6010586,-0.11099529,0.79145992,0
2.2052648,-1.2768428,0.30630171,0.6010586,0.11099529,-0.79145992,0
1.3816149,-2.3160517,0.96337485,0.52053523,-0.80582231,0.28230071,0
1.5641305,2.0784292,0.10449338,0.6010586,0.11099529,-0.79145992,0
-1.8576186,1.6139263,0.075590611,-0.6010586,-0.11099529,0.79145992,0
-0.23067349,0.97849423,1.3068955,-0.6010586,-0.11099529,0.79145992,0
0.75523424,-2.301882,1.4756112,-0.6010586,-0.11099529,0.79145992,0
0.14344633,-2.7989583,0.7008028,0.24268112,-0.96889704,0.04842031,0
-0.86252618,-1.9911094,0.35808635,-0.6010586,-0.11099529,0.79145992,0
1.0790035,1.0558629,-0.28936803,0.6010586,0.11099529,-0.79145992,0
-0.34709373,2.3340673,1.4161901,-0.6010586,-0.11099529,0.79145992,0
0.47109771,0.58494931,1.6365231,-0.6010586,-0.11099529,0.79145992,0
0.82087576,-2.0003378,-0.79738116,0.6010586,0.11099529,-0.79145992,0
-0.67899644,0.20326442,0.69889176,-0.6010586,-0.11099529,0.79145992,0
2.2025077,0.8499456,1.4659662,0.72818118,0.33206323,0.5995717,0
-0.10282075,-0.42060608,-1.412746,0.6010586,0.11099529,-0.79145992,0
2.3588052,-0.79874301,0.44782478,0.6010586,0.11099529,-0.79145992,0
0.5506165,-1.2256899,1.5219756,-0.6010586,-0.11099529,0.79145992,0
0.039079666,1.6313207,1.6190349,-0.6010586,-0.11099529,0.79145992,0
-0.98867273,2.3267729,-1.4516916,-0.53903872,0.78745079,-0.29892939,0
-2.364641,1.5210814,-0.69437885,-0.69020158,0.57136554,-0.444031,0
-0.68418962,2.1365919,0.99530697,-0.6010586,-0.11099529,0.79145992,0
2.8276951,0.17683613,0.92211783,0.6010586,0.11099529,-0.79145992,0
-0.9592042,-0.7531321,-2.2208338,0.6010586,0.11099529,-0.79145992,0
-1.9404199,0.90349174,-1.7620038,-0.78197515,0.2862013,-0.55371833,0
-0.93432283,1.7787011,-1.6362112,0.6010586,0.11099529,-0.79145992,0
2.4694247,0.056081176,1.3172286,0.79614198,0.0034644008,0.60510015,0
2.1323001,-0.60590112,1.6719531,0.79203224,-0.21510793,0.57132638,0
0.64780933,-2.6665218,0.28394985,0.24634016,-0.96782219,0.051349699,0
-1.6421431,2.1453681,-0.79246235,-0.5416854,0.78471762,-0.30132264,0
-0.67358494,-0.1098758,-1.67559,0.6010586,0.11099529,-0.79145992,0
0.63412702,-0.53461134,1.7788072,-0.6010586,-0.11099529,0.79145992,0
-0.79323089,0.49113452,0.70741755,-0.6010586,-0.11099529,0.79145992,0
2.0657606,0.76217628,0.36467105,0.6010586,0.11099529,-0.79145992,0
1.9864579,1.0761544,0.28133178,0.6010586,0.11099529,-0.79145992,0
-1.5427833,0.98332751,0.31592298,-0.6010586,-0.11099529,0.79145992,0
-0.84254766,1.0075904,-1.6800259,0.6010586,0.11099529,-0.79145992,0
-0.95935726,1.9896144,-1.7586106,0.6010586,0.11099529,-0.79145992,0
2.6714351,0.3764323,0.97935921,0.79008687,0.066641837,0.60936183,0
0.25586009,-2.6931853,0.24836636,0.1762073,-0.98434407,-0.0042282939,0
1.6590331,2.4293613,0.40597486,0.6010586,0.11099529,-0.79145992,0
1.4568064,1.6658654,0.080601096,0.6010586,0.11099529,-0.79145992,0
1.2869611,2.133244,0.040627003,0.6010586,0.11099529,-0.79145992,0
2.5372949,-0.59820485,1.0293592,0.78760302,-0.25039309,0.56301415,0
-2.1009586,-0.70189738,-1.6901407,-0.74383146,-0.28451079,-0.60478812,0
0.59201825,-0.25837451,-0.92644763,0.6010586,0.11099529,-0.79145992,0
1.321746,-2.4369833,0.31925964,0.4350456,-0.87617034,0.20751178,0
-0.81443274,-1.2679114,0.36979353,-0.6010586,-0.11099529,0.79145992,0
1.2574902,1.5699399,2.0857096,0.58902776,0.60780078,0.5325641,0
1.8320315,-2.2099266,0.4418366,0.52436352,-0.80212426,0.28572679,0
1.5841529,2.4352536,0.19146419,0.6010586,0.11099529,-0.79145992,0
-0.85060388,2.7245016,0.55184484,-0.18640275,0.98246622,-0.0037777424,0
-2.5198359,-0.33303154,-1.0851641,-0.78766501,-0.085411042,-0.61015475,0
0.47010446,1.9301637,1.9879298,-0.6010586,-0.11099529,0.79145992,0
-0.20288253,-1.5563416,0.92670214,-0.6010586,-0.11099529,0.79145992,0
-0.57117021,-1.3460091,-1.9770055,0.6010586,0.11099529,-0.79145992,0
-0.90735364,2.5514829,-0.89975309,-0.40512985,0.89595723,-0.18201786,0
-2.8579583,0.61186385,-0.72405636,-0.6010586,-0.11099529,0.79145992,0
1.4697723,-2.5312133,-0.30455613,0.33789802,-0.93273735,0.12580192,0
0.56755149,1.390348,1.8030435,-0.6010586,-0.11099529,0.79145992,0
-0.20413563,-2.7858982,0.43365645,0.11642994,-0.99190485,-0.050685346,0
-0.68466997,-1.2460573,-1.862219,0.6010586,0.11099529,-0.79145992,0
-0.22966173,-0.39740777,0.91793078,-0.6010586,-0.11099529,0.79145992,0
0.72087955,1.3974524,1.9375504,-0.6010586,-0.11099529,0.79145992,0
1.2880094,-1.5543398,2.1053424,-0.6010586,-0.11099529,0.79145992,0
-1.5325222,1.6131634,0.36465812,-0.6010586,-0.11099529,0.79145992,0
-0.49491227,-2.8542254,0.3579638,0.033442292,-0.99293458,-0.1138531,0
2.0165069,-1.4476948,1.0210867,0.70179158,-0.54711998,0.45623311,0
0.89894754,-1.8869598,-0.81562924,0.6010586,0.11099529,-0.79145992,0
1.2078731,-0.18040255,2.1335008,-0.6010586,-0.11099529,0.79145992,0
-1.5152421,-1.3111275,-0.019406796,-0.6010586,-0.11099529,0.79145992,0
-0.99106109,0.61908221,0.65758687,-0.6010586,-0.11099529,0.79145992,0
0.56393725,-2.6320608,-0.80486882,0.045073491,-0.99344075,-0.10509098,0
0.86121774,-1.5338559,1.8073546,-0.6010586,-0.11099529,0.79145992,0
-1.2636013,-1.4075875,-2.3138173,0.6010586,0.11099529,-0.79145992,0
-0.54738677,-1.6252921,-1.9663062,0.6010586,0.11099529,-0.79145992,0
1.2577237,2.1757789,1.2621369,0.45610243,0.76556474,0.45374152,0
1.3289053,-1.9769735,-0.40970755,0.6010586,0.11099529,-0.79145992,0
-0.61816788,2.7253444,0.2111764,-0.18932554,0.98189563,-0.006077528,0
0.35921526,2.4270763,-0.68198061,0.6010586,0.11099529,-0.79145992,0
-1.9539886,2.0398669,-0.58403432,-0.5872578,0.73304659,-0.34317803,0
1.4002378,0.04895407,2.2265253,-0.6010586,-0.11099529,0.79145992,0
-2.1146648,0.25417072,-1.9072162,-0.79877186,0.050823793,-0.59948385,0
1.0908321,-2.6446729,-0.6141243,0.23003513,-0.97242755,0.038321435,0
-1.8948691,-1.1175039,-0.43764293,-0.6010586,-0.11099529,0.79145992,0
-0.045485795,-2.6151569,-1.1824985,-0.13419017,-0.96223372,-0.23685277,0
0.11524105,2.4300976,1.753475,-0.6010586,-0.11099529,0.79145992,0
-0.92786551,0.38864446,-1.9531586,0.6010586,0.11099529,-0.79145992,0
0.90993828,2.72332,-0.11787534,0.11088128,0.96915019,0.22012115,0
-2.2210727,0.9717052,-1.4237707,-0.76728314,0.35723197,-0.53259945,0
0.69244719,0.48965201,1.767953,-0.6010586,-0.11099529,0.79145992,0
0.77396297,0.64544165,1.9895918,-0.6010586,-0.11099529,0.79145992,0
1.6904982,1.7011594,0.30764925,0.6010586,0.11099529,-0.79145992,0
0.37256896,1.7015684,-0.71852267,0.6010586,0.11099529,-0.79145992,0
0.36089027,-1.3057213,1.4275947,-0.6010586,-0.11099529,0.79145992,0
0.25682989,-2.7295632,-0.97530317,-0.049776763,-0.98318714,-0.17568517,0
-1.1792991,-2.5072241,-0.72251594,-0.34137756,-0.85976344,-0.37982655,0
-1.6770364,-1.9779074,-1.1102791,-0.51069725,-0.7084052,-0.4871864,0
1.6006687,1.8437612,0.32246196,0.6010586,0.11099529,-0.79145992,0
0.75873554,-2.6960371,0.50640345,0.3140929,-0.94343114,0.10622382,0
1.3188586,-2.0536511,1.6232814,0.61063129,-0.70268667,0.36518633,0
-0.57224464,-2.8291192,0.44103837,-0.6010586,-0.11099529,0.79145992,0
1.1479464,-1.4330673,-0.65553588,0.6010586,0.11099529,-0.79145992,0
-1.8144794,1.2766646,-1.6619518,-0.74253976,0.44380748,-0.50166714,0
0.58496755,0.3216114,-0.84352291,0.6010586,0.11099529,-0.79145992,0
1.5608439,1.3865535,0.077226639,0.6010586,0.11099529,-0.79145992,0
-0.64392841,1.0121599,0.84354377,-0.6010586,-0.11099529,0.79145992,0
-0.028370857,-1.6287007,0.98326683,-0.6010586,-0.11099529,0.79145992,0
-1.8209437,-2.1390691,-0.38308477,-0.6010586,-0.11099529,0.79145992,0
0.2079289,-0.95799333,1.1663938,-0.6010586,-0.11099529,0.79145992,0
-0.68389565,2.7113452,0.3338685,-0.16646907,0.9859755,0.011852562,0
-0.42989886,2.7229841,-1.1439931,-0.35382754,0.92492521,-0.13899487,0
2.3623734,-0.0028709769,1.5486504,0.79685259,-0.0073037595,0.60412967,0
-1.6484959,0.44115627,-2.4806645,-0.79854405,0.12367722,-0.58909386,0
-1.5084567,-1.0058806,-2.3238211,-0.70395279,-0.39534283,-0.59004635,0
-1.9573896,1.2248201,-1.2998189,-0.73814178,0.45675269,-0.49651173,0
-1.4597106,-1.1349977,0.096105933,-0.6010586,-0.11099529,0.79145992,0
0.7982263,-1.4566066,-0.89320439,0.6010586,0.11099529,-0.79145992,0
-0.55671966,1.9230845,-1.3432556,0.6010586,0.11099529,-0.79145992,0
0.30953428,-2.1509278,-1.3204732,0.6010586,0.11099529,-0.79145992,0
-1.1773469,-1.5022581,-2.2521658,-0.61991817,-0.5602743,-0.54935807,0
0.069663212,-2.7406607,-0.73383284,-0.060486458,-0.98115098,-0.18353289,0
0.13206041,2.1625063,1.7722752,-0.6010586,-0.11099529,0.79145992,0
-0.45154405,-2.611589,-0.39879131,-0.11467929,-0.96808273,-0.22285581,0
-0.62441313,-0.57674146,-1.8028202,0.6010586,0.11099529,-0.79145992,0
0.34014642,1.095428,-0.96967912,0.6010586,0.11099529,-0.79145992,0
-1.7605085,-0.17173149,-2.3462234,-0.78907669,-0.074743956,-0.60973084,0
-0.89059722,-0.71611202,0.60045165,-0.6010586,-0.11099529,0.79145992,0
0.33997786,2.4526546,1.3337686,0.27626193,0.9004069,0.33607572,0
2.4346049,1.0775473,0.64264643,0.6010586,0.11099529,-0.79145992,0
-0.45552894,1.7091597,1.0551295,-0.6010586,-0.11099529,0.79145992,0
-0.8000645,-2.0986893,0.45658755,-0.6010586,-0.11099529,0.79145992,0
1.7380269,-0.33082578,2.1743,0.79892623,-0.05728747,0.59869468,0
2.1595454,1.080148,1.2803735,0.71241707,0.3744002,0.59353733,0
-0.86897635,-2.3415148,-1.3855224,-0.38137364,-0.83044893,-0.40608963,0
1.7987653,-1.8933836,-0.059731841,0.6010586,0.11099529,-0.79145992,0
0.057261229,2.2141938,-0.95421267,0.6010586,0.11099529,-0.79145992,0
-2.7544367,-0.085422993,-1.0091059,-0.79492998,-0.019264162,-0.60639548,0
1.644954,0.11661693,2.5194175,0.78978944,0.069072396,0.6094768,0
-1.2843435,-2.4857855,0.061416149,-0.6010586,-0.11099529,0.79145992,0
0.24195862,1.2274715,1.5398402,-0.6010586,-0.11099529,0.79145992,0
-0.19149959,1.1677628,1.2555081,-0.6010586,-0.11099529,0.79145992,0
0.0036494732,-0.26547122,1.2768127,-0.6010586,-0.11099529,0.79145992,0
1.6166325,-1.7618712,1.4579816,0.6537441,-0.63793659,0.40700817,0
1.7649753,2.0877135,0.75168061,0.4945519,0.7262767,0.47743142,0
-2.0641055,0.99695051,-1.5783963,-0.77354902,0.32970417,-0.5412184,0
2.3203554,-1.7209345,0.27826869,0.6010586,0.11099529,-0.79145992,0
-1.9027398,0.58089995,-1.8937355,-0.7966907,0.16170549,-0.58235329,0
-2.0526252,0.18464145,-1.8949038,-0.79917324,0.092325673,-0.59396845,0
0.42893991,-1.9504673,-1.1726491,0.6010586,0.11099529,-0.79145992,0
2.148711,-1.313745,0.13519609,0.6010586,0.11099529,-0.79145992,0
1.1686096,-0.23370725,2.1872144,-0.6010586,-0.11099529,0.79145992,0
2.1750338,-0.062340736,0.30143172,0.6010586,0.11099529,-0.79145992,0
-1.582998,-0.36346832,-2.554729,-0.77038527,-0.18307672,-0.61072874,0
-1.698271,-1.8343556,-1.1057985,-0.54973781,-0.6613937,-0.51024204,0
0.9548986,-2.255609,1.4074473,0.51986647,-0.80646276,0.28170323,0
1.3772514,0.82684505,-0.078614295,0.6010586,0.11099529,-0.79145992,0
1.5621647,0.89224362,0.12005657,0.6010586,0.11099529,-0.79145992,0
0.47115338,1.8755338,-0.52160156,0.6010586,0.11099529,-0.79145992,0
1.9014804,-1.7204545,1.112254,0.65942127,-0.62839258,0.41265804,0
-1.4396268,2.5292811,0.32413173,-0.32162204,0.94017339,-0.11239862,0
-2.7179401,-0.6793834,-0.99264181,-0.77051562,-0.18247771,-0.6107437,0
-1.8566351,0.63780069,-2.095685,-0.79490542,0.18561541,-0.57764423,0
-1.9285796,0.39758927,-1.7897276,-0.79747117,0.14849171,-0.58479911,0
1.685708,0.2234652,0.07612586,0.6010586,0.11099529,-0.79145992,0
-0.039001107,-1.5819554,-1.5331286,0.6010586,0.11099529,-0.79145992,0
-1.3827324,2.2449787,0.54166436,-0.6010586,-0.11099529,0.79145992,0
2.4455476,-1.4797002,0.42295921,0.66769814,-0.6139769,0.42096537,0
1.0495626,2.0650494,1.541512,0.48000199,0.74166596,0.46853998,0
0.84730148,-1.876493,1.7539403,-0.6010586,-0.11099529,0.79145992,0
-1.4450123,-1.2952489,-0.12512171,-0.6010586,-0.11099529,0.79145992,0
0.59964633,-1.4604322,-1.0113547,0.6010586,0.11099529,-0.79145992,0
-0.41344163,-2.1620812,0.63095856,-0.6010586,-0.11099529,0.79145992,0
-2.1280937,1.7832828,-0.2682966,-0.61150742,0.70149022,-0.36601961,0
2.0311527,-2.1059685,0.10436964,0.5498181,-0.77614677,0.30870092,0
1.4478235,-1.4457707,-0.39464438,0.6010586,0.11099529,-0.79145992,0
2.3376372,1.109022,0.96847296,0.70175475,0.40060455,0.58911496,0
0.61626577,-2.2483182,1.4061098,-0.6010586,-0.11099529,0.79145992,0
-0.30409336,-2.3009772,-1.769207,-0.33603841,-0.86341673,-0.37628418,0
-1.8241131,2.2251177,-0.18343711,-0.50923014,0.81644225,-0.27222604,0
1.6057523,1.8252838,0.17541993,0.6010586,0.11099529,-0.79145992,0
1.5098171,0.1317859,2.5539553,-0.6010586,-0.11099529,0.79145992,0
-2.3675294,0.39262199,-0.53674746,-0.6010586,-0.11099529,0.79145992,0
0.43584538,-1.3691244,1.3470699,-0.6010586,-0.11099529,0.79145992,0
-0.48452419,-1.1540451,0.68309772,-0.6010586,-0.11099529,0.79145992,0
1.7960656,1.5678474,1.4542181,0.63023543,0.54314816,0.55479145,0
-2.5587854,0.74536204,-0.91185015,-0.77934521,0.30079862,-0.54967397,0
-0.10369968,-0.10684949,-1.441648,0.6010586,0.11099529,-0.79145992,0
0.11580116,-1.4294896,-1.4579811,0.6010586,0.11099529,-0.79145992,0
-2.1104629,0.060972631,-1.7605135,-0.79882658,0.052964002,-0.59922534,0
-0.86623138,-1.6678307,0.26892138,-0.6010586,-0.11099529,0.79145992,0
-2.0910954,-1.6719233,-0.45593715,-0.6010586,-0.11099529,0.79145992,0
-1.8086791,1.8462338,0.096139193,-0.6010586,-0.11099529,0.79145992,0
1.8929834,0.29592514,1.9526165,0.78466332,0.10609613,0.61077607,0
0.93596494,1.9843018,1.8368412,0.47646034,0.74531358,0.46636188,0
0.0066077709,0.4259882,-1.3129706,0.6010586,0.11099529,-0.79145992,0
-0.9579463,-1.7711077,-2.1126976,-0.5482831,-0.66324961,-0.50939757,0
2.3820243,-0.14493823,0.54905587,0.6010586,0.11099529,-0.79145992,0
0.24172175,-0.0042012334,1.4712861,-0.6010586,-0.11099529,0.79145992,0
2.4404235,-0.33410639,1.2323065,0.79864478,-0.12049542,0.5896166,0
-2.3920491,0.78208035,-0.54507279,-0.6010586,-0.11099529,0.79145992,0
-0.89785898,2.4816356,-0.93083739,-0.41392505,0.89037269,-0.18948025,0
0.81864023,-2.5048265,0.38330674,0.31292349,-0.94392693,0.10526627,0
-1.9587334,1.5709115,-0.076737523,-0.6010586,-0.11099529,0.79145992,0
1.834837,0.20838149,2.0790789,0.78117883,0.12755111,0.6111387,0
-0.50952655,-0.60755116,0.77951264,-0.6010586,-0.11099529,0.79145992,0
0.21651959,-2.4304531,1.1111603,-0.6010586,-0.11099529,0.79145992,0
1.9730812,1.7733244,0.36589658,0.6010586,0.11099529,-0.79145992,0
-2.6007683,1.0829158,-0.45180935,-0.6010586,-0.11099529,0.79145992,0
1.343477,0.26664841,-0.33034909,0.6010586,0.11099529,-0.79145992,0
-1.4501925,-1.0356666,-2.2009766,-0.70168871,-0.40076143,-0.58908689,0
-0.41222179,2.1180468,-1.2222781,0.6010586,0.11099529,-0.79145992,0
0.28559613,-2.6453972,-0.35402584,0.053431608,-0.99367422,-0.09877634,0
0.70058304,-2.6119626,0.015038252,0.21931306,-0.9751997,0.029789984,0
-2.5214016,0.99890143,-0.46395087,-0.6010586,-0.11099529,0.79145992,0
2.0669255,-1.9655826,-0.041235566,0.6010586,0.11099529,-0.79145992,0
-0.38991189,0.50558507,-1.5723006,0.6010586,0.11099529,-0.79145992,0
0.21437514,-1.5752876,1.3050855,-0.6010586,-0.11099529,0.79145992,0
0.87993574,-2.2371569,1.7020247,0.54516459,-0.78108311,0.30447465,0
0.65344048,1.6613686,1.9012042,-0.6010586,-0.11099529,0.79145992,0
1.1180718,0.74818683,-0.42749417,0.6010586,0.11099529,-0.79145992,0
-2.088172,-0.39301431,-0.48135552,-0.6010586,-0.11099529,0.79145992,0
-1.2298801,2.1106124,-1.4017148,-0.60032678,0.71643245,-0.35543305,0
1.2139394,1.6599143,2.1166883,0.59566325,0.59802979,0.53623301,0
1.4995923,0.51649779,2.3588452,-0.6010586,-0.11099529,0.79145992,0
0.54305983,-0.3979491,1.6654637,-0.6010586,-0.11099529,0.79145992,0
2.6190438,-0.82946789,0.86587435,0.76484251,-0.36715037,0.52935505,0
0.17334038,0.42905313,-1.1498163,0.6010586,0.11099529,-0.79145992,0
-1.7243052,-1.6002105,-1.5848,-0.62613779,-0.55003202,-0.55264497,0
-2.0041823,1.3877891,-1.0998865,-0.71450013,0.51832676,-0.46992236,0
1.1687405,2.6636653,-0.11191368,0.6010586,0.11099529,-0.79145992,0
0.35265779,-2.7509346,0.54899216,0.26525173,-0.96188009,0.066545069,0
-1.6754231,0.63312191,0.040199876,-0.6010586,-0.11099529,0.79145992,0
0.95281643,2.6153047,0.18534541,0.18354471,0.94466811,0.27187055,0
0.67324358,0.60342044,-0.57748878,0.6010586,0.11099529,-0.79145992,0
-1.0826746,-1.7531457,0.18477941,-0.6010586,-0.11099529,0.79145992,0
1.7376719,-0.66333544,2.0589945,0.79456651,-0.18953235,0.57683766,0
-1.8421283,0.28319541,-1.9865227,-0.79888785,0.11133696,-0.59108561,0
-1.4416516,1.8109667,-1.7079097,-0.64834815,0.64676452,-0.40167218,0
2.1858861,0.61321509,0.44723755,0.6010586,0.11099529,-0.79145992,0
0.59933621,-2.7267694,-0.89541161,0.068078823,-0.99382031,-0.087673306,0
-2.3775206,0.26535082,-1.2709327,-0.79913044,0.097008377,-0.5932793,0
0.78332043,-0.21111256,1.8567175,-0.6010586,-0.11099529,0.79145992,0
-1.7068081,0.92762709,-2.057193,-0.77835572,0.30602348,-0.54818988,0
-1.1489744,2.2847478,0.65722704,-0.6010586,-0.11099529,0.79145992,0
-1.1492846,-1.3976727,0.1177336,-0.6010586,-0.11099529,0.79145992,0
-0.82426202,-1.976853,-1.9088047,-0.44283313,-0.77813458,-0.44542727,0
-1.7263231,0.036056638,-0.041764207,-0.6010586,-0.11099529,0.79145992,0
-1.4467301,1.657717,0.46818042,-0.6010586,-0.11099529,0.79145992,0
-0.98718393,-2.2321506,0.25282025,-0.6010586,-0.11099529,0.79145992,0
2.4702785,0.4030416,0.54896098,0.6010586,0.11099529,-0.79145992,0
-0.6618346,-0.20413458,-1.6727623,0.6010586,0.11099529,-0.79145992,0
1.1462591,0.82837677,-0.19142926,0.6010586,0.11099529,-0.79145992,0
-1.5711679,1.3206439,-1.9890856,-0.73078585,0.47723934,-0.48805228,0
2.1971798,0.27530015,0.41708705,0.6010586,0.11099529,-0.79145992,0
2.216289,-1.8198527,0.23054206,0.6010586,0.11099529,-0.79145992,0
2.1527834,-1.0724823,0.18763906,0.6010586,0.11099529,-0.79145992,0
-1.2825551,1.6134707,-1.9160624,0.6010586,0.11099529,-0.79145992,0
0.97895479,-2.5250368,0.46240091,0.38477254,-0.90817201,0.16484505,0
2.1511266,0.011597574,1.7979343,0.79415405,0.028213844,0.60706133,0
1.1001571,-1.2403435,-0.60588634,0.6010586,0.11099529,-0.79145992,0
0.69531715,-2.0916395,1.5964191,-0.6010586,-0.11099529,0.79145992,0
0.252361,2.6861589,0.22926903,0.042288348,0.9845047,0.170183,0
-1.5660791,0.96496385,-2.3176076,-0.7765252,0.31535435,-0.54549104,0
0.88794303,-0.96327132,1.7293234,-0.6010586,-0.11099529,0.79145992,0
0.6789456,2.2813232,-0.51354885,0.6010586,0.11099529,-0.79145992,0
-1.0794349,-0.66205239,0.33200049,-0.6010586,-0.11099529,0.79145992,0
-0.21075106,-1.5878103,-1.7651827,0.6010586,0.11099529,-0.79145992,0
1.6897154,-2.4080772,-0.10692191,0.42069983,-0.88594031,0.19524699,0
1.520569,-0.46395439,-0.23708335,0.6010586,0.11099529,-0.79145992,0
1.8871925,0.88259429,1.848341,0.72633064,0.33728883,0.59889919,0
0.85877585,-0.5514015,1.7276801,-0.6010586,-0.11099529,0.79145992,0
1.4617085,1.2019414,2.1936295,0.67051709,0.46885401,0.57496351,0
1.2455778,0.026669651,2.3238344,-0.6010586,-0.11099529,0.79145992,0
-0.88166451,-0.040040374,-1.8140668,0.6010586,0.11099529,-0.79145992,0
-2.0902584,-1.1765263,-1.350011,-0.69725662,-0.41116112,-0.58717942,0
0.18762481,-1.0728439,-1.3805432,0.6010586,0.11099529,-0.79145992,0
1.9256229,2.1021335,0.41445708,0.6010586,0.11099529,-0.79145992,0
0.41331887,1.7985129,-0.69159842,0.6010586,0.11099529,-0.79145992,0
-0.74717236,-0.98597932,-1.8980196,0.6010586,0.11099529,-0.79145992,0
-2.6484306,-0.33768308,-0.92248726,-0.7879442,-0.083357006,-0.61007869,0
0.13180774,-2.4716086,-1.3962731,-0.11926834,-0.96676201,-0.22615564,0
0.029809237,-0.61045438,1.2239091,-0.6010586,-0.11099529,0.79145992,0
-1.2569238,0.64439923,0.36810166,-0.6010586,-0.11099529,0.79145992,0
-1.9550911,1.5583609,0.055867076,-0.6010586,-0.11099529,0.79145992,0
-0.83382201,1.768007,-1.6191555,0.6010586,0.11099529,-0.79145992,0
-0.45381725,2.4496663,-1.2926819,0.6010586,0.11099529,-0.79145992,0
2.697397,0.047297835,0.85670477,0.79786837,-0.026082769,0.6022675,0
-0.40976262,-0.57861477,-1.7682018,0.6010586,0.11099529,-0.79145992,0
-2.1292224,1.5212632,-0.066742301,-0.6010586,-0.11099529,0.79145992,0
-0.21265858,-1.2632973,0.94809854,-0.6010586,-0.11099529,0.79145992,0
-1.6009194,2.3375816,0.39890683,-0.6010586,-0.11099529,0.79145992,0
-0.39613974,0.90298003,-1.3529359,0.6010586,0.11099529,-0.79145992,0
-2.0038197,1.8193815,-0.90524292,-0.63915789,0.66128534,-0.39265656,0
2.7865927,0.03526175,0.98586154,0.79863834,-0.046126351,0.60004127,0
1.1737732,-2.6755476,-0.51452065,0.23269036,-0.97170991,0.040438533,0
-0.15565479,2.2769945,1.4673282,-0.6010586,-0.11099529,0.79145992,0
-0.59568059,0.14639777,-1.6719624,0.6010586,0.11099529,-0.79145992,0
-1.4114089,1.5421509,0.33356166,-0.6010586,-0.11099529,0.79145992,0
1.015084,-1.247389,-0.73896283,0.6010586,0.11099529,-0.79145992,0
0.17378312,1.4936345,-1.0410292,0.6010586,0.11099529,-0.79145992,0
0.11442995,1.5747108,1.5447032,-0.6010586,-0.11099529,0.79145992,0
1.8704598,-1.0575165,1.698476,0.75717866,-0.39599377,0.51948982,0
-0.049777746,0.95945787,-1.1801499,0.6010586,0.11099529,-0.79145992,0
-1.5289567,-0.27921057,0.16305381,-0.6010586,-0.11099529,0.79145992,0
-2.6163614,0.20175195,-0.70087314,-0.6010586,-0.11099529,0.79145992,0
-1.7731459,-1.8594058,-0.28627336,-0.6010586,-0.11099529,0.79145992,0
-0.9798305,-1.0134821,0.50343239,-0.6010586,-0.11099529,0.79145992,0
-1.4691492,-2.3913019,-0.6217072,-0.37736574,-0.83354592,-0.40348029,0
1.8121589,-0.13807833,-0.029567005,0.6010586,0.11099529,-0.79145992,0
2.6246393,1.1217618,0.76393592,0.6010586,0.11099529,-0.79145992,0
-2.5132058,1.4502814,-0.34009683,-0.6010586,-0.11099529,0.79145992,0
0.55200773,2.8463311,-0.35016084,0.6010586,0.11099529,-0.79145992,0
2.7931824,-0.31840754,0.73595864,0.6010586,0.11099529,-0.79145992,0
0.7871204,2.1634278,-0.37567973,0.6010586,0.11099529,-0.79145992,0
-0.62490892,-2.2834868,-1.469543,-0.32603681,-0.87010145,-0.36962616,0
-0.8146621,2.1552374,0.97473693,-0.6010586,-0.11099529,0.79145992,0
1.2319901,1.8744779,-0.12168086,0.6010586,0.11099529,-0.79145992,0
2.6998203,-0.46094227,0.64926922,0.6010586,0.11099529,-0.79145992,0
2.5847094,-0.90918267,0.4511441,0.6010586,0.11099529,-0.79145992,0
2.0368805,1.5056164,0.4024241,0.6010586,0.11099529,-0.79145992,0
-2.6168301,-0.15161467,-1.1295395,-0.79254627,-0.044790462,-0.60816503,0
-0.26290542,-2.6348944,-0.86261606,-0.15439875,-0.95552605,-0.25125915,0
1.5407164,-2.1121392,1.2188067,0.58793491,-0.73220718,0.34381014,0
-2.6458848,0.96926349,-0.4863556,-0.6010586,-0.11099529,0.79145992,0
-2.1347795,1.1540116,-0.31243587,-0.6010586,-0.11099529,0.79145992,0
0.42900893,1.6081846,-0.68402302,0.6010586,0.11099529,-0.79145992,0
0.18679592,2.8081398,0.33560681,0.026251953,0.98703265,0.15835905,0
-1.8702848,-0.94677752,-1.7787402,-0.73116118,-0.32348791,-0.60063219,0
0.96562171,0.98777616,2.1484294,-0.6010586,-0.11099529,0.79145992,0
1.0556061,0.79808557,-0.30416226,0.6010586,0.11099529,-0.79145992,0
-0.88986754,-1.1210409,-2.0407429,0.6010586,0.11099529,-0.79145992,0
-2.5661252,0.68648207,-0.50538778,-0.6010586,-0.11099529,0.79145992,0
0.66010606,0.79395574,-0.59222609,0.6010586,0.11099529,-0.79145992,0
-0.3725512,1.5033596,-1.2586037,0.6010586,0.11099529,-0.79145992,0
-0.24939215,0.7284317,-1.2264431,0.6010586,0.11099529,-0.79145992,0
0.89834571,-2.0588651,1.6346368,-0.6010586,-0.11099529,0.79145992,0
1.3276731,0.49758136,-0.28531194,0.6010586,0.11099529,-0.79145992,0
0.41496348,-1.2626708,1.4498205,-0.6010586,-0.11099529,0.79145992,0
-0.95645273,-2.728826,0.080857277,-0.6010586,-0.11099529,0.79145992,0
-1.6958442,0.36593056,-2.1011875,-0.79854774,0.12356506,-0.58911246,0
-0.54255831,0.16390735,-1.734152,0.6010586,0.11099529,-0.79145992,0
-0.98043692,-1.5977042,0.32428467,-0.6010586,-0.11099529,0.79145992,0
1.811039,-1.1073742,-0.11237592,0.6010586,0.11099529,-0.79145992,0
0.91939557,2.5175977,0.75113428,0.31485227,0.87733567,0.36214674,0
-0.4461624,-1.7286484,0.67005563,-0.6010586,-0.11099529,0.79145992,0
-0.2132318,-1.1920969,0.91884506,-0.6010586,-0.11099529,0.79145992,0
1.7029176,-1.8610284,-0.1544435,0.6010586,0.11099529,-0.79145992,0
-0.48502111,-1.9823173,-2.0133777,0.6010586,0.11099529,-0.79145992,0
1.2068776,0.030373693,-0.43998158,0.6010586,0.11099529,-0.79145992,0
0.23890245,0.2558409,1.5352317,-0.6010586,-0.11099529,0.79145992,0
0.2527765,-1.9802651,1.1986027,-0.6010586,-0.11099529,0.79145992,0
-1.8709949,-2.0708036,-0.44152963,-0.6010586,-0.11099529,0.79145992,0
1.697988,-1.5089463,1.3902067,0.69058156,-0.57059765,0.44442731,0
1.1314462,1.4202659,-0.23308468,0.6010586,0.11099529,-0.79145992,0
1.7324153,0.74281609,0.1935336,0.6010586,0.11099529,-0.79145992,0
-0.27206752,2.738112,0.95658863,0.014782177,0.9885956,0.14986771,0
0.80888438,1.5387101,2.1871669,-0.6010586,-0.11099529,0.79145992,0
0.10116538,2.7845767,-0.42046762,-0.10549596,0.99266237,0.059095144,0
1.3015673,-2.0383437,-0.55453181,0.6010586,0.11099529,-0.79145992,0
1.2764444,0.17515886,-0.22990966,0.6010586,0.11099529,-0.79145992,0
-1.3963403,-2.4472411,-0.084840059,-0.6010586,-0.11099529,0.79145992,0
-0.037813127,0.44964334,1.2616296,-0.6010586,-0.11099529,0.79145992,0
-2.1391611,1.6834017,-0.10195172,-0.6010586,-0.11099529,0.79145992,0
-2.3023672,-0.87891209,-1.3343005,-0.73535085,-0.31107423,-0.60207313,0
0.13325799,-2.6802106,0.97066998,0.26555148,-0.96178067,0.066786706,0
-1.8723638,-0.64828551,-0.31086886,-0.6010586,-0.11099529,0.79145992,0
0.77008533,2.8141074,-0.25685692,0.052514099,0.98268372,0.17769337,0
-0.59551346,1.0191276,-1.5347776,0.6010586,0.11099529,-0.79145992,0
-0.089396007,2.6362226,0.55222797,0.019927165,0.98791969,0.15368021,0
-0.15859848,0.53159773,1.327009,-0.6010586,-0.11099529,0.79145992,0
1.5000603,0.32451293,2.4352531,-0.6010586,-0.11099529,0.79145992,0
-2.0168958,-1.4117334,-1.1788678,-0.64847833,-0.51108831,-0.56414956,0
-1.7420174,-1.0914747,-0.19504762,-0.6010586,-0.11099529,0.79145992,0
0.41122961,-2.6920948,0.70715261,0.26796553,-0.96097362,0.068733156,0
0.97280383,-1.7482281,-0.66962898,0.6010586,0.11099529,-0.79145992,0
1.5608835,-0.91646594,-0.21054757,0.6010586,0.11099529,-0.79145992,0
-1.2534144,1.1507689,0.57698202,-0.6010586,-0.11099529,0.79145992,0
0.95201373,0.11079651,2.105855,-0.6010586,-0.11099529,0.79145992,0
0.70678747,0.85659814,-0.51311487,0.6010586,0.11099529,-0.79145992,0
-0.37370598,-2.1042376,-1.7976232,0.6010586,0.11099529,-0.79145992,0
0.32158712,0.93431157,-0.81314892,0.6010586,0.11099529,-0.79145992,0
-1.9388962,-0.89711666,-0.39011973,-0.6010586,-0.11099529,0.79145992,0
0.45012724,-1.8462639,-1.0544653,0.6010586,0.11099529,-0.79145992,0
1.0713314,-2.5651517,-0.52075291,0.2300103,-0.97243428,0.038301587,0
1.5321215,-2.4490824,-0.32844567,0.6010586,0.11099529,-0.79145992,0
-0.24071693,-2.1575592,0.83968234,-0.6010586,-0.11099529,0.79145992,0
-0.08589381,-2.7966712,0.83004999,-0.6010586,-0.11099529,0.79145992,0
2.3977392,-0.91926175,0.32336456,0.6010586,0.11099529,-0.79145992,0
-0.19109428,-2.6854105,-0.94652081,-0.14514217,-0.95868117,-0.24467182,0
0.29553738,1.1475992,-0.83329082,0.6010586,0.11099529,-0.79145992,0
-0.39554727,2.6476548,0.8143611,-0.024230991,0.99238461,0.12077129,0
1.3352916,1.4696698,2.2230189,0.63891697,0.52818906,0.55928665,0
-1.0879434,-1.1477183,0.3281585,-0.6010586,-0.11099529,0.79145992,0
0.82818604,2.0279346,2.0321898,0.47359824,0.74823368,0.46459782,0
-0.85936165,1.9666274,-1.7149796,0.6010586,0.11099529,-0.79145992,0
0.60420179,1.6962373,-0.51091743,0.6010586,0.11099529,-0.79145992,0
2.1941128,1.5212673,0.72260177,0.6010586,0.11099529,-0.79145992,0
-1.306408,1.432477,0.3619535,-0.6010586,-0.11099529,0.79145992,0
0.47834694,-2.4571095,1.2810702,-0.6010586,-0.11099529,0.79145992,0
-2.2530665,0.84361368,-0.29871738,-0.6010586,-0.11099529,0.79145992,0
0.40354154,-2.5894632,-0.74308085,0.0446348,-0.99342543,-0.10542202,0
-0.54791582,2.6190026,-0.76127982,-0.33611241,0.93357974,-0.12432784,0
1.2433453,-2.1522663,1.3078732,0.54986072,-0.77610123,0.3087396,0
-1.8915496,-0.89378726,-1.8387567,-0.73341995,-0.31684917,-0.60141659,0
2.087338,1.3228261,0.5737341,0.6010586,0.11099529,-0.79145992,0
0.94921273,-0.93333888,-0.65260661,0.6010586,0.11099529,-0.79145992,0
-2.2953913,-0.12000179,-0.49255896,-0.6010586,-0.11099529,0.79145992,0
0.50440621,-2.6345639,-0.66591525,0.076167054,-0.99375695,-0.081521928,0
0.63574159,-0.34279472,1.8129456,-0.6010586,-0.11099529,0.79145992,0
-1.8602459,1.8368789,0.054107666,-0.6010586,-0.11099529,0.79145992,0
0.93987989,0.10357165,2.0562842,-0.6010586,-0.11099529,0.79145992,0
-0.35397005,2.6844637,-0.83825564,-0.29884639,0.94968331,-0.093768537,0
-2.6334412,0.32094312,-0.60768163,-0.6010586,-0.11099529,0.79145992,0
-1.3439481,-1.3843309,-1.9414506,-0.6275385,-0.54769135,-0.55338049,0
-2.1201134,1.9892613,-0.16087353,-0.6010586,-0.11099529,0.79145992,0
0.82794338,-1.5154307,-0.8839305,0.6010586,0.11099529,-0.79145992,0
-1.6006858,-2.0072422,-0.16727567,-0.6010586,-0.11099529,0.79145992,0
-2.13554,-1.3203877,-0.5831272,-0.6010586,-0.11099529,0.79145992,0
1.5990522,1.9241514,1.1416882,0.53136259,0.68422538,0.49948928,0
1.1512957,1.7952615,-0.26249385,0.6010586,0.11099529,-0.79145992,0
-1.9198111,-0.14263892,-0.10136339,-0.6010586,-0.11099529,0.79145992,0
-0.86115855,0.66959608,0.70040023,-0.6010586,-0.11099529,0.79145992,0
2.334353,1.3474281,0.9847343,0.68249685,0.44399416,0.58057499,0
0.37656957,1.4283884,-0.89771891,0.6010586,0.11099529,-0.79145992,0
-0.89324421,-1.2055598,0.40977895,-0.6010586,-0.11099529,0.79145992,0
0.87961751,-2.3764019,-0.89458203,0.6010586,0.11099529,-0.79145992,0
-0.59463716,1.5447345,-1.5294099,0.6010586,0.11099529,-0.79145992,0
-2.1752279,2.0286615,-0.037747025,-0.6010586,-0.11099529,0.79145992,0
0.29407418,-1.5510255,-1.3617263,0.6010586,0.11099529,-0.79145992,0
1.0009252,0.25324154,-0.42926949,0.6010586,0.11099529,-0.79145992,0
1.6127851,-0.85423911,2.2453225,0.78400981,-0.27408233,0.55696309,0
0.79466021,0.4868131,1.881532,-0.6010586,-0.11099529,0.79145992,0
-1.1750414,1.2784436,-1.9553057,0.6010586,0.11099529,-0.79145992,0
2.0041428,0.15946269,0.18120313,0.6010586,0.11099529,-0.79145992,0
-2.5333877,0.9893828,-0.63431233,-0.6010586,-0.11099529,0.79145992,0
1.3799083,0.15136135,-0.092339873,0.6010586,0.11099529,-0.79145992,0
2.3975885,-0.47448385,0.48164478,0.6010586,0.11099529,-0.79145992,0
-0.41427329,2.1114964,1.3429055,-0.6010586,-0.11099529,0.79145992,0
1.7717824,-1.9265215,1.103246,0.62579829,-0.68132544,0.37970036,0
1.066554,-2.50458,0.43797755,0.37167442,-0.91552359,0.15386683,0
-1.7328742,1.4502312,0.11109984,-0.6010586,-0.11099529,0.79145992,0
-1.1406999,-0.50344265,0.28014618,-0.6010586,-0.11099529,0.79145992,0
1.3151574,-1.9305408,-0.4408673,0.6010586,0.11099529,-0.79145992,0
1.29581,-1.6101872,2.0747435,-0.6010586,-0.11099529,0.79145992,0
-1.7172873,0.55575424,-2.1613026,-0.79485953,0.1861542,-0.57753384,0
0.39745617,2.0823417,1.981166,-0.6010586,-0.11099529,0.79145992,0
-0.95019484,1.3883911,0.67019016,-0.6010586,-0.11099529,0.79145992,0
-0.73024404,0.69746637,-1.6167099,0.6010586,0.11099529,-0.79145992,0
-0.75482213,1.7463095,0.88245279,-0.6010586,-0.11099529,0.79145992,0
-0.19718897,-2.5145941,-0.99813581,-0.13437761,-0.96217459,-0.23698688,0
-0.2645565,-1.7109879,0.72532856,-0.6010586,-0.11099529,0.79145992,0
0.065925837,-0.26423407,1.2809746,-0.6010586,-0.11099529,0.79145992,0
0.36696231,-1.1560667,1.4447716,-0.6010586,-0.11099529,0.79145992,0
1.5262376,1.5566242,0.21897984,0.6010586,0.11099529,-0.79145992,0
-1.2596409,0.38977808,0.23821563,-0.6010586,-0.11099529,0.79145992,0
0.049471617,1.0428877,-1.2009943,0.6010586,0.11099529,-0.79145992,0
-1.0423977,1.6183244,0.57616138,-0.6010586,-0.11099529,0.79145992,0
-1.004606,-2.1910188,0.23672342,-0.6010586,-0.11099529,0.79145992,0
-2.0103159,1.2135093,-0.20964873,-0.6010586,-0.11099529,0.79145992,0
1.6350561,-0.75074118,-0.10547251,0.6010586,0.11099529,-0.79145992,0
0.66698909,2.4502804,1.0568291,0.27418885,0.90156573,0.33466375,0
1.0379667,1.2795423,2.2576721,-0.6010586,-0.11099529,0.79145992,0
-2.2758558,-1.4243481,-1.0159469,-0.67713016,-0.45531386,-0.57808685,0
-0.85090494,2.5865219,-0.90843463,-0.41048026,0.89258248,-0.18655449,0
1.2236474,2.6434214,0.20483971,0.24151322,0.91878343,0.31226361,0
0.51342261,-1.3842096,1.4119842,-0.6010586,-0.11099529,0.79145992,0
1.1725388,-2.0528376,-0.78458059,0.6010586,0.11099529,-0.79145992,0
-0.85892212,0.35795599,0.63484561,-0.6010586,-0.11099529,0.79145992,0
-1.8088951,-0.015298279,-2.2057238,-0.79594266,-0.0062533468,-0.60533988,0
1.3305461,2.2371182,0.94326055,0.39059639,0.82318234,0.4120746,0
-0.65465403,-2.7576964,-0.46805143,-0.1423756,-0.95959699,-0.24269933,0
2.3075538,-0.91410357,0.39089131,0.6010586,0.11099529,-0.79145992,0
-1.6145856,-0.14655054,-2.4015691,-0.78277409,-0.11801724,-0.61101311,0
-1.4992335,-0.39625323,-0.032112718,-0.6010586,-0.11099529,0.79145992,0
1.1497133,0.063131124,2.2085452,-0.6010586,-0.11099529,0.79145992,0
-0.12848669,-1.3598247,1.0280881,-0.6010586,-0.11099529,0.79145992,0
-1.4135637,-0.73035443,-0.00020366907,-0.6010586,-0.11099529,0.79145992,0
0.26964378,2.0103307,1.6429951,-0.6010586,-0.11099529,0.79145992,0
-2.3670821,-1.1208738,-0.99242592,-0.71424645,-0.36972243,-0.59427065,0
1.684322,-0.59472167,0.027044654,0.6010586,0.11099529,-0.79145992,0
-0.19798371,2.8333809,0.17160463,-0.069209382,0.99381763,0.086814344,0
-1.1088244,-0.23591352,0.32999659,-0.6010586,-0.11099529,0.79145992,0
-1.8476577,-0.84623432,-0.20773572,-0.6010586,-0.11099529,0.79145992,0
2.4543893,-0.69050336,0.51485765,0.6010586,0.11099529,-0.79145992,0
2.1490686,0.55068469,1.579602,0.76625335,0.20139724,0.61016005,0
2.1309705,-1.6409727,0.13735163,0.6010586,0.11099529,-0.79145992,0
0.42127037,-2.7561846,0.59598494,0.24735323,-0.96752036,0.052161455,0
0.4347806,-1.5263038,1.3189944,-0.6010586,-0.11099529,0.79145992,0
1.064254,-2.4117036,1.0058215,0.47944289,-0.84239906,0.24596453,0
-1.6674544,-2.0061083,-1.0172676,-0.52031684,-0.69733834,-0.49293986,0
0.32626104,2.612438,0.80334187,0.15147886,0.95653641,0.24918324,0
-0.09474498,-0.29833096,1.2348669,-0.6010586,-0.11099529,0.79145992,0
-0.13107979,-0.15283304,1.1250999,-0.6010586,-0.11099529,0.79145992,0
0.75403994,-2.3582892,-0.95112622,0.6010586,0.11099529,-0.79145992,0
-1.3256782,-0.80700469,0.052310288,-0.6010586,-0.11099529,0.79145992,0
0.51178443,-1.1779404,1.4393888,-0.6010586,-0.11099529,0.79145992,0
-2.4974034,-0.47798967,-0.6190232,-0.6010586,-0.11099529,0.79145992,0
1.5136819,-1.4808095,1.914413,0.71410835,-0.51925325,0.46949491,0
-0.21066463,-1.2741228,-1.6815822,0.6010586,0.11099529,-0.79145992,0
