-3.7564478,-0.63102913,1.4944631,-0.93605828,-0.30759132,0.17082891,0
-4.5174608,0.14803934,-1.4948511,-0.93605828,-0.30759132,0.17082891,0
-1.5359602,-0.79136229,3.1121655,0.19126344,-0.037321568,0.98082888,0
-0.55229449,-2.9710157,0.024674892,0.29625434,-0.95095813,-0.088949442,0
-4.2583365,-0.35636568,-0.165133,-0.93605828,-0.30759132,0.17082891,0
-2.0981598,1.7917469,-1.1716244,-0.35131189,0.79036504,-0.50189942,0
-2.9100599,-2.9352448,1.6869774,-0.93605828,-0.30759132,0.17082891,0
-2.8735631,-2.4014895,2.8208213,-0.93605828,-0.30759132,0.17082891,0
-3.4533057,-0.80361462,3.046093,-0.93605828,-0.30759132,0.17082891,0
-3.8238158,1.3906264,-0.46750742,-0.34874058,0.87545884,-0.33459187,0
-3.475224,-1.5158591,1.3056278,-0.93605828,-0.30759132,0.17082891,0
3.2719665,1.882244,2.0465243,0.064214706,0.32801712,0.94248664,0
-4.140852,-0.1561203,0.33171779,-0.93605828,-0.30759132,0.17082891,0
3.4017396,2.3845677,-0.34519768,0.93605828,0.30759132,-0.17082891,0
2.8942759,0.87544441,-3.3861883,-0.16695642,-0.039071053,-0.98518991,0
3.7353003,0.45388365,-2.5952044,0.93605828,0.30759132,-0.17082891,0
-4.4850473,0.68145132,-0.33036005,-0.93605828,-0.30759132,0.17082891,0
-3.1299615,-3.7093635,0.0025453568,-0.93605828,-0.30759132,0.17082891,0
-2.3753386,-2.1094532,3.0135734,0.28916866,-0.39595628,0.87155032,0
-3.1892161,-2.0546079,1.6624074,-0.93605828,-0.30759132,0.17082891,0
-2.1268396,-3.3073502,1.5174534,0.34829348,-0.87887585,0.32598901,0
1.0888772,3.211175,-0.77318907,-0.33012041,0.93576097,-0.12398356,0
-2.9994707,-2.9415126,1.7286608,-0.93605828,-0.30759132,0.17082891,0
3.4956224,0.92846847,2.0988257,0.17399317,0.017326415,0.98459446,0
-2.9495564,-3.8124948,0.60891533,-0.93605828,-0.30759132,0.17082891,0
3.2222955,2.798878,-0.95182586,0.93605828,0.30759132,-0.17082891,0
-4.2840014,0.08722496,-0.35452244,-0.93605828,-0.30759132,0.17082891,0
-2.9092569,-0.56293774,3.161968,0.12593305,0.16046178,0.97897542,0
-1.4234648,-0.092068128,-2.418457,-0.20257044,0.074159592,-0.97645569,0
3.9409182,1.4947405,1.0063556,0.93605828,0.30759132,-0.17082891,0
-2.9966841,1.9003255,0.45395017,-0.31359857,0.94951594,-0.0086850524,0
-3.3129101,-2.680006,0.44748878,-0.93605828,-0.30759132,0.17082891,0
-1.5838592,-0.40841651,3.1601887,0.14381438,0.10862738,0.9836247,0
-0.67746782,0.74763227,2.7199986,0.044569612,0.37795132,0.924752,0
3.552891,2.5311475,0.72546077,0.93605828,0.30759132,-0.17082891,0
-1.3960235,-1.4326637,-2.2704,-0.044829071,-0.37730211,-0.9250046,0
-2.9781466,-3.1810415,1.382515,-0.93605828,-0.30759132,0.17082891,0
-4.2674022,-1.2589626,-1.8502636,-0.93605828,-0.30759132,0.17082891,0
-4.4692383,1.2021942,0.84262103,-0.93605828,-0.30759132,0.17082891,0
2.6364672,-1.9726363,-0.3767097,0.31271493,-0.94984144,0.0032569766,0
3.6511748,1.7139809,-0.19524026,0.93605828,0.30759132,-0.17082891,0
3.3593817,2.1945806,-0.60387468,0.93605828,0.30759132,-0.17082891,0
-0.73414993,-2.3060765,2.269403,0.33283973,-0.61670822,0.7133643,0
0.47614908,-1.1318491,2.4689975,0.27391699,-0.33235222,0.90250283,0
4.5398808,-0.4324286,1.1914887,0.93605828,0.30759132,-0.17082891,0
-2.9776402,-3.1864703,0.98067164,-0.93605828,-0.30759132,0.17082891,0
-4.0187454,-0.93218708,-0.81914204,-0.93605828,-0.30759132,0.17082891,0
0.61071932,1.6837217,-2.5354586,-0.29833454,0.43647742,-0.8488133,0
-1.5459143,-3.406368,0.43978024,0.30900335,-0.9508723,-0.018936753,0
1.2597973,3.1408358,0.3820169,-0.25703323,0.9293648,0.26498127,0
-4.5598888,0.47964907,-0.40028283,-0.93605828,-0.30759132,0.17082891,0
-4.5129151,2.8848648e-05,-1.4869647,-0.93605828,-0.30759132,0.17082891,0
2.9738746,0.40303755,-3.2753029,-0.10967743,-0.20624262,-0.9723348,0
-3.6410515,-1.5433667,0.29448009,-0.93605828,-0.30759132,0.17082891,0
-3.2029781,-3.1262484,-1.23873,0.10518098,-0.70795161,-0.69838488,0
-4.5114679,-0.042675257,-1.4371499,-0.93605828,-0.30759132,0.17082891,0
3.8886724,0.070646763,-1.493414,0.93605828,0.30759132,-0.17082891,0
2.9135013,3.6426585,-0.53054428,0.93605828,0.30759132,-0.17082891,0
-2.9563925,-3.6686418,0.86176133,-0.93605828,-0.30759132,0.17082891,0
4.6619473,-0.97265959,0.3537311,0.93605828,0.30759132,-0.17082891,0
3.1873231,1.8808403,-2.1673002,0.93605828,0.30759132,-0.17082891,0
-1.9295542,0.87731701,-2.1647086,-0.29520035,0.42239609,-0.85699379,0
-3.2580285,-3.2936594,-0.1990006,-0.93605828,-0.30759132,0.17082891,0
3.5324674,1.4976354,-0.81057143,0.93605828,0.30759132,-0.17082891,0
-3.1839838,-2.2957964,1.6564531,-0.93605828,-0.30759132,0.17082891,0
-2.0029001,1.1744834,-1.9369776,-0.31759775,0.52972841,-0.78646016,0
0.02042073,1.7000425,-2.3923774,-0.31327027,0.50757289,-0.80264032,0
-2.2426145,-0.8892436,3.1495557,0.17787832,0.0051944852,0.98403883,0
4.261301,-1.4161065,0.31863362,0.3466939,-0.88912046,0.29877776,0
-4.2048011,0.45110369,-1.542877,-0.32475582,0.5685001,-0.75587118,0
-3.9703894,0.17507839,2.1500275,-0.93605828,-0.30759132,0.17082891,0
-3.9598911,-1.0544012,-0.65165198,-0.93605828,-0.30759132,0.17082891,0
3.0434937,2.640769,1.6817147,-0.03860271,0.57237452,0.81908315,0
-0.76810193,2.5678244,0.1598897,-0.30015886,0.95143306,0.068409801,0
4.5785995,-1.0364232,0.16915777,0.93605828,0.30759132,-0.17082891,0
3.941061,-0.30960417,1.6903244,0.30088317,-0.44811761,0.84181947,0
4.2237563,0.077660084,-0.36790717,0.93605828,0.30759132,-0.17082891,0
4.3503299,-0.44036293,-0.9260276,0.93605828,0.30759132,-0.17082891,0
-4.5368004,-0.13032484,-1.3554608,-0.93605828,-0.30759132,0.17082891,0
0.83168507,-2.6109674,-0.58988428,0.27487677,-0.94238698,-0.19065529,0
3.0102541,-1.0823592,1.5723835,0.33389431,-0.62347311,0.70696253,0
-2.7580235,-3.8180089,0.29756784,0.29012215,-0.94945562,-0.11984605,0
4.3677278,-1.2211251,-1.7380443,0.23399717,-0.90681767,-0.3506096,0
-4.5989294,0.51499844,-0.4171744,-0.93605828,-0.30759132,0.17082891,0
-1.2685744,-3.2811947,0.58585048,0.32506669,-0.94183052,0.085362852,0
-4.1085129,-0.27736807,0.031893015,-0.93605828,-0.30759132,0.17082891,0
3.1887136,1.4921236,-2.7089584,0.93605828,0.30759132,-0.17082891,0
3.3875966,2.2209456,-1.3371553,0.93605828,0.30759132,-0.17082891,0
-4.3285294,-0.12567806,-0.19613469,-0.93605828,-0.30759132,0.17082891,0
-3.575011,-0.81692076,2.3464811,-0.93605828,-0.30759132,0.17082891,0
4.5984602,-0.1574893,1.229642,0.93605828,0.30759132,-0.17082891,0
2.6545651,3.6890872,0.15978122,-0.25233263,0.92523783,0.28330767,0
-4.1421695,0.99032354,2.0530739,-0.93605828,-0.30759132,0.17082891,0
-1.4409043,2.4277782,-0.41901398,-0.33839655,0.91999799,-0.19771546,0
-1.5411632,-0.36046451,-2.5094182,-0.18633461,0.021532804,-0.98225027,0
0.5492602,-1.7713981,2.0186007,0.33166891,-0.6093477,0.72020221,0
-4.0257182,-1.1511931,-1.0702832,-0.93605828,-0.30759132,0.17082891,0
-4.0482302,-1.3970768,-1.3625929,-0.93605828,-0.30759132,0.17082891,0
4.6081686,-0.12219667,1.2376137,0.93605828,0.30759132,-0.17082891,0
-1.1934412,-0.42765212,3.03689,0.16412425,0.047742128,0.98528373,0
4.6059837,-0.69937372,0.1506906,0.93605828,0.30759132,-0.17082891,0
-4.4171185,1.1820388,1.7101856,-0.93605828,-0.30759132,0.17082891,0
-0.53150487,0.2922833,2.7419171,0.097641408,0.2393575,0.96600938,0
-3.739222,-1.6101,0.47301161,-0.93605828,-0.30759132,0.17082891,0
2.4391837,3.7459064,-0.38411808,-0.29956311,0.95138669,0.071590841,0
3.6061962,1.1923351,-0.94827712,0.93605828,0.30759132,-0.17082891,0
0.61204922,-0.69038308,2.6853666,0.25118318,-0.24421905,0.93662381,0
-3.1701865,-3.1815219,0.60266805,-0.93605828,-0.30759132,0.17082891,0
-3.196219,-3.6969156,-0.59268904,-0.93605828,-0.30759132,0.17082891,0
-3.2041228,-2.775862,0.94196987,-0.93605828,-0.30759132,0.17082891,0
-3.3815811,1.4418516,1.7551866,-0.19456929,0.85706079,0.4770636,0
-3.1380355,-2.4045913,1.815625,-0.93605828,-0.30759132,0.17082891,0
-1.6430608,-1.2681546,3.0983908,0.23354101,-0.18002737,0.95553577,0
-3.7883472,-1.2611594,0.75012136,-0.93605828,-0.30759132,0.17082891,0
-4.2285132,-1.0729418,-1.8255405,-0.93605828,-0.30759132,0.17082891,0
3.4883616,-0.69790435,1.7063746,0.31947517,-0.53961819,0.77894014,0
3.9984779,-0.74452209,1.3232224,0.3357639,-0.63581568,0.69498277,0
-3.5461104,-2.1829166,0.48154283,-0.93605828,-0.30759132,0.17082891,0
-2.4193835,-3.7518945,0.27558398,0.28681481,-0.94829953,-0.13588661,0
3.4343977,1.4079213,-2.119143,0.93605828,0.30759132,-0.17082891,0
4.0538068,0.53059578,-0.57199061,0.93605828,0.30759132,-0.17082891,0
3.4030523,0.99062204,-3.2454147,0.93605828,0.30759132,-0.17082891,0
3.2277381,1.3596387,-2.7572985,0.93605828,0.30759132,-0.17082891,0
3.4513712,2.9286797,0.7160728,0.93605828,0.30759132,-0.17082891,0
-0.42064792,2.5221417,-1.1933142,-0.3516596,0.83365691,-0.42585403,0
-3.9435439,0.47256708,2.2903666,-0.93605828,-0.30759132,0.17082891,0
3.5331554,-1.6841505,-0.84934199,0.29302526,-0.95027566,-0.10541463,0
-3.4278955,-1.8051078,0.92698264,-0.93605828,-0.30759132,0.17082891,0
-0.69747114,-0.94737285,-2.5538044,-0.079914868,-0.28696686,-0.95460123,0
4.3084507,-0.28967619,-0.4414947,0.93605828,0.30759132,-0.17082891,0
-1.1941124,-3.1815705,1.2484601,0.34747005,-0.88447702,0.31139201,0
-4.5658188,0.47329235,-1.1953027,-0.93605828,-0.30759132,0.17082891,0
4.4750834,-0.692945,0.26691541,0.93605828,0.30759132,-0.17082891,0
-4.2074194,0.704144,1.1753391,-0.93605828,-0.30759132,0.17082891,0
3.6017334,2.0102336,0.0048613548,0.93605828,0.30759132,-0.17082891,0
0.20957494,-0.84845412,2.6445749,0.24545857,-0.2230338,0.94340128,0
4.1402192,-0.66678143,1.2952646,0.33214346,-0.61231285,0.71746343,0
-0.60502815,-2.7626951,1.6924407,0.35147467,-0.79519016,0.49410343,0
-3.1564186,0.88922596,2.486908,-0.077607632,0.65406537,0.75244629,0
3.4681182,3.0749505,0.82973719,0.93605828,0.30759132,-0.17082891,0
-3.7610664,-0.66934729,2.0554259,-0.93605828,-0.30759132,0.17082891,0
-2.9682367,-3.0124543,2.2968261,-0.93605828,-0.30759132,0.17082891,0
0.34615493,-2.4299979,-1.0778449,0.21437347,-0.88358837,-0.41631186,0
3.6979384,1.8045542,0.48126495,0.93605828,0.30759132,-0.17082891,0
-1.9070299,-3.3407469,-0.67201018,0.21953845,-0.89001822,-0.39958763,0
-2.8114414,-3.1523957,1.9127626,-0.93605828,-0.30759132,0.17082891,0
3.9906273,1.0283124,-0.025637627,0.93605828,0.30759132,-0.17082891,0
3.8530719,1.9480622,1.066452,0.93605828,0.30759132,-0.17082891,0
-3.7436504,-0.831563,1.3895074,-0.93605828,-0.30759132,0.17082891,0
-0.15520632,2.6848681,-0.66950917,-0.3415153,0.91108322,-0.23085624,0
-3.5060263,-1.089849,1.8921634,-0.93605828,-0.30759132,0.17082891,0
3.3656673,-1.8081863,-0.51134896,0.30626345,-0.95131254,-0.034742594,0
1.5332285,-2.0007126,-1.4573883,0.19016796,-0.85079014,-0.48989004,0
-3.3348665,-1.6359348,2.1194453,-0.93605828,-0.30759132,0.17082891,0
-2.0990155,-2.2668777,2.7292132,0.30973837,-0.49007505,0.81479359,0
-2.9992781,-2.0384603,2.9714835,-0.93605828,-0.30759132,0.17082891,0
-3.0902488,-2.8830845,1.7640791,-0.93605828,-0.30759132,0.17082891,0
-1.3768065,-2.0509446,-1.8743048,0.050003409,-0.59689331,-0.80076087,0
-2.0435081,-1.2854865,-2.2361028,-0.089942157,-0.26020306,-0.96135563,0
-1.5568686,-0.97678852,3.0125256,0.2115519,-0.10407203,0.97180998,0
2.0129447,2.70157,-2.3833816,-0.33771652,0.64925891,-0.68147671,0
-3.8062294,0.56448603,-1.5958307,-0.3141565,0.51204252,-0.79944867,0
-3.9104691,-0.22558641,1.9489858,-0.93605828,-0.30759132,0.17082891,0
-4.0494666,-1.6574521,-1.9475106,-0.93605828,-0.30759132,0.17082891,0
-2.4312062,0.58034754,2.8625946,0.005530715,0.4725998,0.8812598,0
-1.8431584,-2.4588969,2.6379642,0.32531831,-0.57168138,0.75322533,0
2.9247344,2.7688065,1.6042438,-0.067178845,0.63283616,0.771366,0
3.3571494,2.4628761,-0.024382353,0.93605828,0.30759132,-0.17082891,0
1.3574057,0.67677283,-3.0728564,-0.18732411,0.024689764,-0.98198777,0
3.6473291,2.5505412,1.4389977,0.93605828,0.30759132,-0.17082891,0
4.1017485,1.2610631,1.2489471,0.93605828,0.30759132,-0.17082891,0
0.7244935,-0.037543952,2.5879977,0.1837436,-0.01329571,0.98288429,0
-4.0853815,-0.61178255,-0.12829006,-0.93605828,-0.30759132,0.17082891,0
0.32040286,-1.8445606,-2.0891848,0.080180883,-0.65923345,-0.7476511,0
-3.9427166,1.3218179,-0.39803731,-0.34842908,0.87787151,-0.32854038,0
-3.6781685,-0.87645769,1.6317705,-0.93605828,-0.30759132,0.17082891,0
-3.0189664,-2.158287,2.9531512,-0.93605828,-0.30759132,0.17082891,0
-4.2843227,-0.75145888,-1.537089,-0.93605828,-0.30759132,0.17082891,0
3.5206125,-1.8057017,-0.15487301,0.3265734,-0.94023335,0.096494496,0
-3.4025602,-2.8505824,-1.543138,0.04455471,-0.58524036,-0.8096348,0
3.9758048,0.8483994,0.088546157,0.93605828,0.30759132,-0.17082891,0
2.5112243,2.1952643,1.8323522,-0.0072002411,0.50216776,0.86474037,0
-2.5265646,-2.1282816,3.062418,0.29022267,-0.400518,0.86911225,0
2.8509879,3.1292689,-2.2154503,0.93605828,0.30759132,-0.17082891,0
-1.046561,0.60373664,-2.5214999,-0.2593385,0.27505359,-0.92579103,0
-3.2665021,-1.9920344,2.4899039,-0.93605828,-0.30759132,0.17082891,0
-2.9502373,0.19668543,-2.2073774,-0.27094197,0.3204096,-0.90770483,0
3.0049381,2.5963871,-1.8438821,0.93605828,0.30759132,-0.17082891,0
-3.1107342,-2.4271929,2.1982973,-0.93605828,-0.30759132,0.17082891,0
4.2529116,-0.94701338,-1.6582067,0.93605828,0.30759132,-0.17082891,0
-1.3240952,1.1783817,2.5478535,-0.036893249,0.56865335,0.82174951,0
-3.1419368,0.80293655,-1.6131616,-0.32866377,0.59109098,-0.73660809,0
3.4267879,2.0128117,-0.59345436,0.93605828,0.30759132,-0.17082891,0
-3.1669412,-3.0163341,0.12353325,-0.93605828,-0.30759132,0.17082891,0
3.1856782,2.9428084,-0.13004684,0.93605828,0.30759132,-0.17082891,0
-3.5082779,-0.53944302,2.7527208,-0.93605828,-0.30759132,0.17082891,0
-0.3160603,-1.0257304,-2.5659604,-0.046331048,-0.37353796,-0.92645729,0
-3.5359402,-1.879272,0.70462275,-0.93605828,-0.30759132,0.17082891,0
1.7180941,-0.98800373,2.0613523,0.30251509,-0.45566615,0.83716965,0
3.2158201,2.6889563,-1.4178994,0.93605828,0.30759132,-0.17082891,0
4.6167994,-1.3679376,-0.9352569,0.93605828,0.30759132,-0.17082891,0
2.7380757,3.0034444,-2.5559893,0.93605828,0.30759132,-0.17082891,0
4.0664001,-0.25680923,-2.0110188,0.93605828,0.30759132,-0.17082891,0
1.0300143,-0.60139942,-2.7559738,-0.048982859,-0.36687043,-0.9289816,0
-3.7509072,-1.7252505,-0.10016799,-0.93605828,-0.30759132,0.17082891,0
3.5144501,1.334229,-2.1540563,0.93605828,0.30759132,-0.17082891,0
3.0308781,3.0938053,-1.420558,0.93605828,0.30759132,-0.17082891,0
3.3253818,1.0366158,-2.9538827,0.93605828,0.30759132,-0.17082891,0
-3.9399142,-0.62435913,0.3610661,-0.93605828,-0.30759132,0.17082891,0
3.9129009,1.3679068,0.19560421,0.93605828,0.30759132,-0.17082891,0
-1.4510548,2.2069342,1.19025,-0.22796506,0.90003306,0.37144631,0
3.2914758,-1.1077228,-2.3205886,0.14305246,-0.77629447,-0.61392421,0
-3.3789315,-1.5292039,1.8685951,-0.93605828,-0.30759132,0.17082891,0
1.5061049,-2.0804901,1.0629588,0.35172713,-0.83061862,0.43169516,0
3.0267155,2.8207998,1.6289203,-0.064630389,0.62757939,0.77586532,0
1.8641036,1.9406698,2.0566411,0.010567784,0.46072558,0.88747966,0
-0.31608856,-2.7365723,1.3029811,0.35098279,-0.85028982,0.39219671,0
1.0403655,-1.5455278,-2.225631,0.078900814,-0.65666592,-0.75004303,0
3.5419602,2.2883227,-0.14336014,0.93605828,0.30759132,-0.17082891,0
4.2558632,-0.70211649,-1.6223783,0.93605828,0.30759132,-0.17082891,0
3.7746911,1.9692092,1.0750986,0.93605828,0.30759132,-0.17082891,0
2.4824328,-0.25089455,-3.0358679,-0.04925561,-0.36618283,-0.92923844,0
1.2159412,3.1881402,0.20690489,-0.26538914,0.93601686,0.23117292,0
-3.8448505,-1.0229959,0.62756932,-0.93605828,-0.30759132,0.17082891,0
3.4514668,0.73974752,-3.2380311,0.93605828,0.30759132,-0.17082891,0
4.3715458,-0.23552799,0.63116664,0.93605828,0.30759132,-0.17082891,0
-1.0325053,-2.6204543,1.9522184,0.34767911,-0.73414159,0.58322859,0
-1.0540624,-3.1440291,1.3876784,0.34880641,-0.87492919,0.33590621,0
0.88200593,-1.7252549,-1.9622347,0.1049583,-0.70752996,-0.69884562,0
-3.642025,-2.7174449,-1.5294621,-0.93605828,-0.30759132,0.17082891,0
3.610291,1.664726,-0.87747681,0.93605828,0.30759132,-0.17082891,0
-3.5900102,-2.879488,-1.2474668,-0.93605828,-0.30759132,0.17082891,0
-0.5951876,2.1604319,-1.5995443,-0.35011563,0.76622248,-0.53881544,0
-3.9211268,-0.50002432,0.58610016,-0.93605828,-0.30759132,0.17082891,0
3.8175831,-0.99312806,1.2185894,0.34355456,-0.69426525,0.63242877,0
4.1168742,-1.3587637,-1.0909885,0.27356559,-0.94158822,-0.1964013,0
-2.8005424,1.1991512,-1.3755589,-0.34132081,0.67598546,-0.65310311,0
3.1331325,1.8668637,-2.8843703,0.93605828,0.30759132,-0.17082891,0
3.6461592,1.2004123,-1.1054262,0.93605828,0.30759132,-0.17082891,0
-3.9152544,-1.182452,0.31644726,-0.93605828,-0.30759132,0.17082891,0
-3.2199624,-1.2661328,3.4177182,-0.93605828,-0.30759132,0.17082891,0
0.98560393,3.1707239,-1.1036677,-0.34339446,0.90444207,-0.25311053,0
2.2657301,2.041007,2.0079846,0.01277709,0.45548582,0.89015132,0
-4.0019255,0.261127,2.3393126,-0.93605828,-0.30759132,0.17082891,0
-4.2842011,0.31282949,0.61002153,-0.93605828,-0.30759132,0.17082891,0
2.7027969,3.5466671,0.1243453,-0.25277305,0.92563552,0.28161079,0
3.5144334,2.6771758,1.7136927,-0.033960223,0.56224108,0.82627577,0
-2.8852794,-2.0694022,3.1798055,0.27927789,-0.35423222,0.89248157,0
-2.1040859,1.1633056,-1.8033394,-0.33037022,0.60135198,-0.72748291,0
3.3776295,2.8502243,-0.091027737,0.93605828,0.30759132,-0.17082891,0
3.9797332,-0.29634619,-2.0573626,0.93605828,0.30759132,-0.17082891,0
1.6291187,1.2533937,-3.045918,-0.24119815,0.20749548,-0.94803435,0
-3.6981263,-2.3390927,-0.99910402,-0.93605828,-0.30759132,0.17082891,0
4.2124605,-0.060585499,-0.20311505,0.93605828,0.30759132,-0.17082891,0
4.0197363,-0.17222643,-1.8984529,0.93605828,0.30759132,-0.17082891,0
0.21329153,2.8524709,-0.97993612,-0.34637302,0.89089334,-0.29382777,0
3.4980776,0.54164648,-3.1989679,0.93605828,0.30759132,-0.17082891,0
0.17970228,1.3766105,2.2823715,0.001326561,0.48243439,0.87593108,0
4.2660685,-0.49552393,-0.38276914,0.93605828,0.30759132,-0.17082891,0
-1.5800927,-1.0491018,-2.4711494,-0.10399461,-0.22195894,-0.9694944,0
1.7256578,-0.90447342,2.1986713,0.2993249,-0.44097966,0.84613335,0
-0.9616313,-0.60481262,-2.6352496,-0.12099886,-0.17448941,-0.97719628,0
2.1376252,0.15889835,-3.0267513,-0.089725077,-0.26078701,-0.96121788,0
-4.3505569,0.0087404251,-0.27169988,-0.93605828,-0.30759132,0.17082891,0
4.4891376,-0.75328922,-0.7159332,0.93605828,0.30759132,-0.17082891,0
2.7873106,2.9870183,-2.4022207,0.93605828,0.30759132,-0.17082891,0
4.109508,1.4623592,1.7456863,0.93605828,0.30759132,-0.17082891,0
4.0249267,0.30090475,-0.33858985,0.93605828,0.30759132,-0.17082891,0
3.2149942,-1.8350692,-0.63594365,0.29196596,-0.94999844,-0.11071956,0
3.0262852,1.9617276,-3.1593378,0.93605828,0.30759132,-0.17082891,0
-0.79657435,2.0260122,1.5530238,-0.16517305,0.8128584,0.55855083,0
-0.16525817,2.8610284,-0.30451488,-0.32043117,0.94579828,-0.052817941,0
-0.4481411,1.7072053,2.0740039,-0.077054381,0.65295064,0.75347054,0
-0.96293956,2.4732878,-0.66577935,-0.34199893,0.90948135,-0.23639035,0
3.1399808,1.9209254,2.0035057,0.056150198,0.34870601,0.93554854,0
3.0990524,-0.45695639,-2.9188719,0.015249968,-0.52053553,-0.85370386,0
0.83114761,-0.99724168,2.5334439,0.2793588,-0.35456586,0.89232373,0
-1.1396537,-1.8437816,-2.2265563,0.0031661987,-0.49286732,-0.87009865,0
1.5198268,-2.4103503,0.47975779,0.33548027,-0.92661381,0.16982311,0
-0.23971295,-2.9572597,-0.068712473,0.28754961,-0.94857609,-0.13235831,0
1.2242227,0.67730618,-2.9856112,-0.18187582,0.0073844492,-0.98329377,0
1.7294669,-0.12328577,-3.0429521,-0.088401973,-0.26434231,-0.96036881,0
0.043813944,-2.9291854,0.036222219,0.29798579,-0.95121807,-0.079930007,0
-3.6250703,-0.31628561,2.5952096,-0.93605828,-0.30759132,0.17082891,0
3.1896834,3.3024468,-0.095009804,0.93605828,0.30759132,-0.17082891,0
4.2470155,0.52684164,0.27939177,0.93605828,0.30759132,-0.17082891,0
1.5859188,-0.64750463,2.2333546,0.27541271,-0.33840901,0.89979291,0
-2.416893,1.9093106,-0.55626357,-0.34743708,0.88468575,-0.31083536,0
3.449317,2.0270202,-0.63575721,0.93605828,0.30759132,-0.17082891,0
-3.8357668,-0.034780979,2.1303518,-0.93605828,-0.30759132,0.17082891,0
0.89406037,1.4975061,-2.8105302,-0.27591434,0.34044838,-0.89886945,0
4.4124703,0.47922969,1.7523047,0.93605828,0.30759132,-0.17082891,0
3.9838588,1.4497883,0.60905826,0.93605828,0.30759132,-0.17082891,0
-3.4132843,-1.610549,2.0050592,-0.93605828,-0.30759132,0.17082891,0
-0.97232276,-1.1499686,2.8261588,0.24164918,-0.20913184,0.94755971,0
-3.8361888,-1.155627,0.21562862,-0.93605828,-0.30759132,0.17082891,0
3.9689593,1.082031,-0.095124245,0.93605828,0.30759132,-0.17082891,0
2.3100648,-1.9197857,-1.4469318,0.21499288,-0.88437074,-0.41432625,0
-3.2105527,-2.5430601,1.2771094,-0.93605828,-0.30759132,0.17082891,0
-4.458396,0.11453342,-0.56331491,-0.93605828,-0.30759132,0.17082891,0
3.8301263,1.1118159,-0.37997401,0.93605828,0.30759132,-0.17082891,0
-2.9199221,-1.7989211,3.3213532,0.24915013,-0.23665406,0.93910545,0
4.1707869,-0.98701811,-2.1156385,0.93605828,0.30759132,-0.17082891,0
-3.2792618,-1.6277781,2.8634043,-0.93605828,-0.30759132,0.17082891,0
3.3970487,0.83948135,-3.0111058,0.93605828,0.30759132,-0.17082891,0
0.112679,-1.889339,-2.0891647,0.083957553,-0.6667667,-0.74052227,0
-3.4886332,-1.7859426,1.3554379,-0.93605828,-0.30759132,0.17082891,0
-3.2463872,-2.8652439,1.0253649,-0.93605828,-0.30759132,0.17082891,0
4.1339908,-1.5145848,-0.69916224,0.31126815,-0.95030606,-0.0055067539,0
-1.7405709,-1.886853,2.899497,0.28172857,-0.36439803,0.88760531,0
0.052242756,2.3375645,1.6158561,-0.14747626,0.78381598,0.60322738,0
1.815879,-0.79396236,2.1067805,0.29596806,-0.42582268,0.85503095,0
4.4081345,-1.1306725,-1.6436496,0.93605828,0.30759132,-0.17082891,0
-3.4751601,-1.1059618,2.6332827,-0.93605828,-0.30759132,0.17082891,0
-0.45952797,1.5967178,2.1329534,-0.055832267,0.60922629,0.79102844,0
2.399276,-1.8771447,0.73541951,0.34988356,-0.86495745,0.35976368,0
0.49030468,2.0362396,-2.2184124,-0.32888538,0.59240878,-0.73544961,0
-2.0687339,-3.4929748,-0.2931757,0.25383317,-0.92658389,-0.2775085,0
3.6419625,2.0183511,-0.16206574,0.93605828,0.30759132,-0.17082891,0
2.6011658,-1.9590993,-0.64212477,0.2968961,-0.95106333,-0.085622191,0
2.3608589,1.5774044,2.2821009,0.078195691,0.29151237,0.95336556,0
2.7948797,1.4172778,-3.1994812,-0.21188349,0.10518789,-0.9716177,0
-3.5190742,-2.2448809,0.1833508,-0.93605828,-0.30759132,0.17082891,0
-3.4911778,-0.22610569,3.3043118,-0.93605828,-0.30759132,0.17082891,0
-3.8076551,-2.0415378,-1.5701503,-0.93605828,-0.30759132,0.17082891,0
-3.4388735,-3.3457055,-1.0065963,-0.93605828,-0.30759132,0.17082891,0
-1.10829,0.97339767,-2.312911,-0.29084712,0.40323159,-0.86764753,0
-2.7057161,1.1627414,-1.5168952,-0.33831236,0.65349007,-0.67712295,0
-3.3508253,0.74337912,2.5256276,-0.085487008,0.6698004,0.73760372,0
2.6236277,-1.4980199,1.3616817,0.34424073,-0.70024109,0.62542856,0
3.5009713,-1.4491601,0.63573694,0.35154551,-0.83765811,0.41802478,0
-2.3789868,-2.0653696,2.9532452,0.28900009,-0.39522898,0.87193638,0
-3.188493,0.93386316,2.552506,-0.10495782,0.70752925,0.69884634,0
0.81987429,-2.2963476,-1.2788717,0.19667059,-0.86000836,-0.47085708,0
-3.34129,-2.2248938,1.3457446,-0.93605828,-0.30759132,0.17082891,0
3.0578983,-0.54712629,-2.8485365,0.025640845,-0.54386789,-0.83877909,0
3.4701667,0.69842768,-3.3926442,0.93605828,0.30759132,-0.17082891,0
-3.7238421,-2.2891695,-0.62016535,-0.93605828,-0.30759132,0.17082891,0
3.8327005,0.49540615,2.0236468,0.23460734,-0.18381861,0.95455229,0
2.5082977,-0.99615926,1.8527465,0.32061708,-0.54572427,0.7742027,0
0.76009643,3.1441786,-0.13981485,-0.30572921,0.95136899,0.037771583,0
-1.2889391,0.22178289,-2.5435727,-0.23481759,0.18456733,-0.95435607,0
4.418098,0.32876515,1.0428487,0.93605828,0.30759132,-0.17082891,0
4.0101767,-1.3348477,0.64304209,0.35184425,-0.81939101,0.4525528,0
-2.3432245,-0.93100244,-2.4216533,-0.15432835,-0.077386528,-0.98498434,0
4.1415162,-0.66240358,-1.8285599,0.93605828,0.30759132,-0.17082891,0
2.5284874,2.8649015,-2.4602532,-0.33560294,0.63473427,-0.69604814,0
4.2392821,0.92550468,0.93370944,0.93605828,0.30759132,-0.17082891,0
4.1842623,1.5586829,1.9688978,0.93605828,0.30759132,-0.17082891,0
-3.8719707,-1.7998097,-1.4628267,-0.93605828,-0.30759132,0.17082891,0
3.1126449,3.0272627,-1.2072136,0.93605828,0.30759132,-0.17082891,0
1.7211021,-0.91582143,2.0563464,0.30238307,-0.45505267,0.837551,0
2.9846194,1.6973009,-3.2283199,-0.23443982,0.18322229,-0.95470816,0
-4.04913,-0.25311756,0.61056429,-0.93605828,-0.30759132,0.17082891,0
2.9830968,1.249248,2.1843963,0.12339658,0.16768733,0.97808701,0
-2.4800725,-3.058332,2.2642376,0.34532714,-0.71014357,0.61355144,0
-3.3798866,-3.3492217,-1.1702895,-0.93605828,-0.30759132,0.17082891,0
3.454649,2.8209689,0.98650956,0.93605828,0.30759132,-0.17082891,0
-3.4907649,-1.7819989,0.6046629,-0.93605828,-0.30759132,0.17082891,0
-3.6562159,-1.3423009,1.3138261,-0.93605828,-0.30759132,0.17082891,0
3.5718081,-0.013478994,2.0181653,0.2706801,-0.31936488,0.90815115,0
-4.1599669,-0.76987743,-0.5656265,-0.93605828,-0.30759132,0.17082891,0
-1.6264459,1.2938761,-1.9586416,-0.32453069,0.56723315,-0.75691903,0
3.2934852,2.5231123,-0.6628747,0.93605828,0.30759132,-0.17082891,0
-0.50332904,-2.4654412,1.7898333,0.34993848,-0.76341277,0.54290342,0
-4.4356022,-0.2924273,-1.8014749,-0.93605828,-0.30759132,0.17082891,0
-4.6472435,1.3223953,0.15005612,-0.93605828,-0.30759132,0.17082891,0
-0.067228794,-2.7382743,0.92103767,0.34296674,-0.9060573,0.24785882,0
-3.88796,-1.4503083,-0.99734628,-0.93605828,-0.30759132,0.17082891,0
3.0098443,2.3041272,-2.6790242,0.93605828,0.30759132,-0.17082891,0
-3.7857397,-1.3625326,-0.30903494,-0.93605828,-0.30759132,0.17082891,0
-3.9792981,0.22305298,-1.7838534,-0.30409306,0.46304002,-0.83253902,0
0.26994348,0.18335497,-2.8222406,-0.17091334,-0.026879519,-0.98491931,0
-1.4645456,2.3536088,-0.817909,-0.34725526,0.88581693,-0.30780214,0
-4.0736041,1.0776343,2.3132327,-0.15944207,0.80364132,0.57335752,0
-4.3958721,-0.85698009,-1.7146008,-0.93605828,-0.30759132,0.17082891,0
-3.78459,-0.85120296,1.2391903,-0.93605828,-0.30759132,0.17082891,0
3.4627452,1.1500096,-1.8258976,0.93605828,0.30759132,-0.17082891,0
0.091795832,-1.7807634,2.2889891,0.32422304,-0.56550723,0.7583409,0
3.5433388,2.5230081,0.2447288,0.93605828,0.30759132,-0.17082891,0
3.6148443,-0.66511273,1.6666071,0.32342726,-0.56107175,0.76196671,0
2.4727433,0.42391872,-3.2178738,-0.13007116,-0.14860699,-0.98030484,0
-3.4992392,-0.82794285,2.4652891,-0.93605828,-0.30759132,0.17082891,0
4.3331861,0.24985695,0.58442795,0.93605828,0.30759132,-0.17082891,0
1.1723869,-1.4429531,-2.1941781,0.077185154,-0.65321428,-0.75322866,0
-2.8541448,-3.4573154,1.4703906,-0.93605828,-0.30759132,0.17082891,0
-4.2357793,-0.62749481,-0.77139819,-0.93605828,-0.30759132,0.17082891,0
3.94661,0.44165421,-0.83518177,0.93605828,0.30759132,-0.17082891,0
4.3837485,-0.49671841,0.098402858,0.93605828,0.30759132,-0.17082891,0
-0.59490776,-1.9019123,-1.9318788,0.067194343,-0.63286805,-0.77133834,0
2.5833554,0.25997734,-3.1736493,-0.08359921,-0.27718335,-0.95717323,0
-2.0226274,1.6659038,-1.4853177,-0.34420344,0.69991124,-0.62581813,0
-2.7773526,-2.8130696,2.5536239,-0.93605828,-0.30759132,0.17082891,0
0.30328131,-0.80758393,2.5201361,0.25571632,-0.26125944,0.93078071,0
3.0685165,2.5805082,-1.9769051,0.93605828,0.30759132,-0.17082891,0
-0.28730226,2.3712211,1.3064209,-0.18086392,0.83711898,0.51625586,0
-3.8275793,0.49039984,2.8091693,-0.058923721,0.61571145,0.78576547,0
-3.8209782,-2.0231018,-1.5505669,-0.93605828,-0.30759132,0.17082891,0
-4.0936704,-0.93627238,-0.61902392,-0.93605828,-0.30759132,0.17082891,0
2.943517,3.8208165,-0.6896596,0.93605828,0.30759132,-0.17082891,0
3.8844271,0.58167076,-1.5048207,0.93605828,0.30759132,-0.17082891,0
-3.2464972,1.0573118,-1.298353,-0.34188175,0.68042755,-0.64817846,0
1.8324493,-1.0953753,-2.6411009,0.038246989,-0.57160139,-0.81963944,0
-0.39636865,1.9484825,-1.9587345,-0.33439162,0.62671053,-0.70385808,0
2.8914771,2.8141618,-2.7413123,-0.3229534,0.5584501,-0.76409072,0
-3.5667725,-0.95629787,2.2669044,-0.93605828,-0.30759132,0.17082891,0
1.4279878,1.488964,2.2870736,0.032855093,0.40698686,0.91284293,0
-4.66259,1.0603137,-0.70115763,-0.35140383,0.79299027,-0.49767637,0
-1.4765569,-0.52247161,-2.5952988,-0.15806413,-0.066144019,-0.98521101,0
2.3867395,-0.019203663,-3.0897665,-0.072445691,-0.3066248,-0.9490695,0
-3.5104537,-2.3922136,-0.60924482,-0.93605828,-0.30759132,0.17082891,0
4.3191113,-0.5229001,-0.21088056,0.93605828,0.30759132,-0.17082891,0
-4.5461769,0.94153118,0.59496307,-0.93605828,-0.30759132,0.17082891,0
2.4435074,3.515471,-1.3401797,-0.34297734,0.90601814,-0.24798739,0
-0.086213708,-1.7852646,2.22192,0.32373589,-0.56278718,0.76056921,0
4.3078642,-0.87617874,-0.80446601,0.93605828,0.30759132,-0.17082891,0
-3.9590821,-0.25918913,0.72309875,-0.93605828,-0.30759132,0.17082891,0
-2.1300151,-3.4460716,1.4337986,0.34740591,-0.88488185,0.3103112,0
-3.2304935,-3.055732,0.1364851,-0.93605828,-0.30759132,0.17082891,0
3.7680631,0.22858715,-2.5980077,0.93605828,0.30759132,-0.17082891,0
-1.8861367,0.5137161,-2.2698243,-0.2643514,0.29442084,-0.918387,0
-3.2204561,1.7917688,-0.09799552,-0.33923277,0.91782147,-0.20621574,0
0.46660161,-2.639329,-0.46881819,0.27172571,-0.94042164,-0.20438242,0
3.7688956,0.85864687,-1.666272,0.93605828,0.30759132,-0.17082891,0
4.282083,-0.085006714,0.3790825,0.93605828,0.30759132,-0.17082891,0
2.209908,-0.63590765,-2.7329926,0.0025100708,-0.4913488,-0.87095922,0
3.8897991,2.0944648,1.918013,0.07805568,0.29188186,0.953264,0
-2.0991323,-1.7407918,3.011493,0.26276463,-0.28825426,0.92079544,0
-2.1162281,-1.3716335,3.0915208,0.22232115,-0.14076096,0.96475881,0
4.1592879,-0.89239645,-2.2510557,0.93605828,0.30759132,-0.17082891,0
3.4320045,1.7597294,-1.026426,0.93605828,0.30759132,-0.17082891,0
0.91423678,1.763157,2.1976781,-0.016753197,0.52393717,0.85159218,0
3.5331776,0.49378538,-2.8410492,0.93605828,0.30759132,-0.17082891,0
-3.3675284,-3.1899385,-0.77215505,-0.93605828,-0.30759132,0.17082891,0
3.2675495,1.871752,-1.753373,0.93605828,0.30759132,-0.17082891,0
3.365963,-0.55936289,-2.7736156,0.042360187,-0.58051294,-0.81314838,0
2.9426124,2.5408645,-2.9876461,0.93605828,0.30759132,-0.17082891,0
3.630487,2.3930273,1.3549672,0.93605828,0.30759132,-0.17082891,0
1.3491685,3.1615577,0.50420117,-0.23402089,0.90684366,0.35052627,0
-4.0168934,-0.55596972,0.5652439,-0.93605828,-0.30759132,0.17082891,0
4.125195,-0.77931452,-1.6477042,0.93605828,0.30759132,-0.17082891,0
-1.2474689,2.4399347,-0.00088620186,-0.31559187,0.94865924,-0.021149933,0
3.0248444,3.0488553,-1.2503722,0.93605828,0.30759132,-0.17082891,0
4.2901902,1.1479554,1.8859286,0.93605828,0.30759132,-0.17082891,0
3.6928408,2.5786784,1.5673749,0.93605828,0.30759132,-0.17082891,0
1.912205,2.2827864,-2.7446594,-0.30566356,0.47045481,-0.82779348,0
-3.061213,-3.8195858,0.2703433,-0.93605828,-0.30759132,0.17082891,0
-1.2222784,2.4142997,0.1660893,-0.30192882,0.95151204,0.058853745,0
4.0367985,0.15798473,-0.98684198,0.93605828,0.30759132,-0.17082891,0
3.5324757,0.60550928,-3.2890081,0.93605828,0.30759132,-0.17082891,0
-3.715775,-2.2385151,-0.94869471,-0.93605828,-0.30759132,0.17082891,0
-4.3480597,-0.34484935,-1.390179,-0.93605828,-0.30759132,0.17082891,0
3.3786793,2.2421243,-1.4083765,0.93605828,0.30759132,-0.17082891,0
0.43743253,2.7871337,0.85830545,-0.22339886,0.89468127,0.38683122,0
-2.3844085,-2.5849125,2.6472096,0.32339913,-0.56091565,0.76209366,0
-0.60557312,1.1623447,-2.3855577,-0.28386354,0.3733438,-0.88319641,0
2.98577,3.026243,-1.4339473,0.93605828,0.30759132,-0.17082891,0
-1.0127436,2.6182857,0.56547713,-0.28063059,0.9455561,0.16483301,0
-1.6624074,-2.3557887,-1.9061383,0.057258844,-0.61222374,-0.78860855,0
-2.9412034,0.34839582,2.9893079,9.5367432e-06,0.48550099,0.87423611,0
-3.9430292,-2.0782242,-1.7573469,-0.93605828,-0.30759132,0.17082891,0
-1.8381152,-0.77731556,-2.3641343,-0.14624304,-0.10146254,-0.98403156,0
3.5200906,3.0087643,1.5277138,0.93605828,0.30759132,-0.17082891,0
3.9131033,0.9806428,-0.2907511,0.93605828,0.30759132,-0.17082891,0
-1.2743949,-2.9348984,1.7454119,0.35160401,-0.7997942,0.48652226,0
-0.46211225,2.0881014,-1.6900486,-0.34655631,0.72215712,-0.5986551,0
-1.1083326,0.78434229,2.785553,0.037235677,0.39619336,0.9174118,0
-3.7134006,1.6205382,0.14810699,-0.32987523,0.93610549,-0.12201965,0
3.3590257,-0.3193922,-3.0392399,0.011905074,-0.51293385,-0.85834569,0
3.9528527,-0.2067194,-2.1302083,0.93605828,0.30759132,-0.17082891,0
-3.2504539,-3.2028687,0.32384896,-0.93605828,-0.30759132,0.17082891,0
-3.8477592,0.10688591,3.0026379,-0.93605828,-0.30759132,0.17082891,0
4.0356874,-0.37410736,-2.2681186,0.93605828,0.30759132,-0.17082891,0
3.8062477,2.3781285,1.8821607,0.93605828,0.30759132,-0.17082891,0
-3.0632758,-2.5433681,2.2319124,-0.93605828,-0.30759132,0.17082891,0
-1.7767448,-2.305064,-1.7116497,0.067735314,-0.63398027,-0.77037716,0
0.88852733,-1.1153972,2.3547847,0.28880131,-0.39437199,0.87239015,0
-4.2194748,-0.324296,-1.914916,-0.26601106,0.30090699,-0.91580188,0
0.10614967,1.1092826,-2.5203927,-0.2727634,0.327705,-0.90454936,0
-2.9228616,1.6326904,1.3370777,-0.23494607,0.9078542,0.34727705,0
-3.0327284,-3.332288,1.2081959,-0.93605828,-0.30759132,0.17082891,0
-1.0609343,1.6441542,2.2102532,-0.095525265,0.68945986,0.71799719,0
2.5485587,1.3296355,2.1653073,0.091882765,0.25497341,0.96257269,0
3.9275618,1.558038,0.93012321,0.93605828,0.30759132,-0.17082891,0
4.1252756,0.55380487,-0.12728608,0.93605828,0.30759132,-0.17082891,0
3.7489903,1.488132,0.20701778,0.93605828,0.30759132,-0.17082891,0
4.3049984,-1.4775534,-1.073698,0.28667045,-0.94824398,-0.13657767,0
3.4594412,0.58994889,2.1094873,0.22845495,-0.16208893,0.95996642,0
-2.8433774,-2.7357466,2.3331614,-0.93605828,-0.30759132,0.17082891,0
2.703866,0.059528828,2.2435579,0.2382662,-0.19691011,0.9510287,0
-2.0937328,-3.1669121,-0.80030513,0.20288986,-0.86855274,-0.45216352,0
1.2899526,0.52509713,2.4977813,0.14567667,0.10313651,0.98394161,0
0.45415106,2.3807976,-2.0448141,-0.33893734,0.65800041,-0.6724261,0
-4.0537133,-0.41057968,0.88624251,-0.93605828,-0.30759132,0.17082891,0
3.9764194,-0.76758146,-2.5290265,0.10544586,-0.70845324,-0.69783604,0
1.3003702,-1.1836051,2.1730189,0.3015022,-0.45097199,0.84007186,0
3.9183621,0.85471153,0.10706639,0.93605828,0.30759132,-0.17082891,0
0.92411518,1.3438498,2.3531127,0.033096075,0.40639511,0.91309792,0
1.9083,-1.2890625,-2.3198912,0.086213231,-0.67123747,-0.73621178,0
-2.939141,-2.9959543,1.6353688,-0.93605828,-0.30759132,0.17082891,0
-3.2890043,0.78519678,2.7418857,-0.062171698,0.62248248,0.78016043,0
0.65376335,-1.829511,1.9004126,0.33708635,-0.6448524,0.68595785,0
2.9799452,2.2619414,-2.8861966,0.93605828,0.30759132,-0.17082891,0
-1.792282,1.6379213,1.8779635,-0.13835239,0.76819289,0.62509084,0
4.5758595,-0.1216135,1.568314,0.31015772,-0.49212772,0.81339562,0
3.4048629,2.2771015,-0.18398237,0.93605828,0.30759132,-0.17082891,0
-0.3754164,-2.4985187,1.6002489,0.35038653,-0.77076918,0.5321129,0
-4.5983467,0.70310664,-1.0256341,-0.93605828,-0.30759132,0.17082891,0
-4.1522255,-0.26095343,0.47043335,-0.93605828,-0.30759132,0.17082891,0
3.4703326,1.8063743,-0.96270621,0.93605828,0.30759132,-0.17082891,0
-2.9271173,-2.7354977,2.6921802,-0.93605828,-0.30759132,0.17082891,0
3.6411848,1.7380838,0.24001861,0.93605828,0.30759132,-0.17082891,0
4.1666646,0.98623633,1.6112671,0.93605828,0.30759132,-0.17082891,0
-4.0615978,-0.83321142,-0.53502011,-0.93605828,-0.30759132,0.17082891,0
-3.9329386,-0.70873117,0.82091367,-0.93605828,-0.30759132,0.17082891,0
2.2961521,3.634963,-0.2688179,-0.29809976,0.95123243,0.079331577,0
-4.620986,0.61564732,-0.54457515,-0.93605828,-0.30759132,0.17082891,0
4.0807219,1.6024327,1.4932106,0.93605828,0.30759132,-0.17082891,0
4.1732116,0.94459748,1.4404221,0.93605828,0.30759132,-0.17082891,0
3.9374299,-0.33120489,-2.2230237,0.93605828,0.30759132,-0.17082891,0
-0.88296103,-3.226043,-0.1589365,0.27916104,-0.94480056,-0.17152518,0
-1.9170825,0.35131538,-2.2656014,-0.25824776,0.27088255,-0.92732453,0
3.1203647,2.2903228,-2.6884427,0.93605828,0.30759132,-0.17082891,0
2.8986733,3.5040448,-0.85336351,0.93605828,0.30759132,-0.17082891,0
0.27946866,2.1250944,-2.1681919,-0.33400279,0.6241765,-0.70629025,0
3.9876032,1.5485337,0.74827683,0.93605828,0.30759132,-0.17082891,0
-3.1622052,-2.1856928,2.6640196,-0.93605828,-0.30759132,0.17082891,0
3.123112,-1.8320427,-0.088883758,0.32495531,-0.94194221,0.084551454,0
3.3813727,3.1636703,1.296572,-0.10261405,0.70307642,0.70367175,0
4.6005239,-0.40277481,0.54924744,0.93605828,0.30759132,-0.17082891,0
-3.1243019,1.7801137,0.99148518,-0.27820063,0.94428641,0.17586213,0
3.2281122,-1.3863515,1.1267427,0.34802058,-0.73803687,0.57808584,0
2.0194008,3.1359751,-1.8721001,-0.35102159,0.78320932,-0.51319289,0
-3.8141317,-0.35153198,1.4820111,-0.93605828,-0.30759132,0.17082891,0
-2.2155819,0.6619516,-2.1434438,-0.28307664,0.37003672,-0.88483918,0
2.2814336,2.8982086,1.2964289,-0.11974382,0.73504144,0.66736448,0
2.9237175,-1.6610621,0.60423517,0.3499651,-0.86407554,0.36179817,0
-2.7808256,1.6317761,1.5975581,-0.20800602,0.87537378,0.43641061,0
3.797955,1.6634097,-0.01789999,0.93605828,0.30759132,-0.17082891,0
3.0647678,3.0869503,-0.79330993,0.93605828,0.30759132,-0.17082891,0
4.1335349,1.0504351,0.97868115,0.93605828,0.30759132,-0.17082891,0
-4.0251837,-0.16213512,1.239125,-0.93605828,-0.30759132,0.17082891,0
-2.7661333,-3.2180495,-1.0985405,0.14072251,-0.77229232,-0.61948502,0
3.8031375,-1.093564,1.0612192,0.34967217,-0.75939476,0.54867923,0
-4.0846758,-1.1057544,-1.1058004,-0.93605828,-0.30759132,0.17082891,0
4.0106492,1.2565908,0.31657004,0.93605828,0.30759132,-0.17082891,0
4.0816255,0.64803171,0.16804469,0.93605828,0.30759132,-0.17082891,0
-4.297287,-0.74850488,-1.504097,-0.93605828,-0.30759132,0.17082891,0
-0.64846641,-1.6158412,2.6475427,0.28485686,-0.37753513,0.88109237,0
3.0281174,2.836165,-1.6951613,0.93605828,0.30759132,-0.17082891,0
4.1970091,0.0089325905,-0.060676455,0.93605828,0.30759132,-0.17082891,0
2.4787488,-0.67124271,-2.6728077,0.02218926,-0.53616452,-0.84382182,0
2.9496903,3.6225231,-0.35640597,0.93605828,0.30759132,-0.17082891,0
-3.0741796,-2.7794378,1.1267431,-0.93605828,-0.30759132,0.17082891,0
4.2531915,0.094394684,0.33654755,0.93605828,0.30759132,-0.17082891,0
-3.2883291,-3.4882908,-0.94568968,-0.93605828,-0.30759132,0.17082891,0
-0.47790694,2.8289933,0.063097954,-0.30379981,0.9514969,0.048574269,0
2.9524808,1.9902344,-3.1804881,0.93605828,0.30759132,-0.17082891,0
3.469312,1.6143248,-1.3256346,0.93605828,0.30759132,-0.17082891,0
-2.9968028,-3.666368,0.52653646,-0.93605828,-0.30759132,0.17082891,0
-3.6893382,-1.43469,0.25026107,-0.93605828,-0.30759132,0.17082891,0
3.9925547,0.080702305,-1.8674853,0.93605828,0.30759132,-0.17082891,0
-1.4370711,2.3740892,-0.09625268,-0.32302797,0.94374096,-0.070751965,0
3.7593257,1.0099921,-0.8098613,0.93605828,0.30759132,-0.17082891,0
2.5422227,-0.71127129,1.9356129,0.30444255,-0.46468329,0.83149511,0
-0.58116579,-3.1007996,-0.24118257,0.27775538,-0.94404274,-0.17786288,0
-3.2206459,-3.0691481,0.76318097,-0.93605828,-0.30759132,0.17082891,0
-3.0655079,-3.4816711,0.34222364,-0.93605828,-0.30759132,0.17082891,0
-1.6975676,1.3625488,2.1786926,-0.090028405,0.67874885,0.72883111,0
3.901686,2.0780675,1.5153662,0.93605828,0.30759132,-0.17082891,0
1.8863381,0.011872977,2.5137382,0.21750742,-0.12424609,0.96811849,0
-4.4644518,0.10306358,-0.91399252,-0.93605828,-0.30759132,0.17082891,0
-2.9183846,-2.7550786,2.7877364,0.31711301,-0.52720368,0.78834999,0
3.6832907,2.0235081,0.71662951,0.93605828,0.30759132,-0.17082891,0
-1.635156,2.2891021,0.41381347,-0.30323744,0.9515124,0.051683843,0
2.9545226,3.3667359,-0.83107901,0.93605828,0.30759132,-0.17082891,0
1.2035515,-2.046392,1.2363938,0.35136017,-0.79171526,0.49973297,0
-1.1626511,0.98071605,-2.4126499,-0.28363007,0.37236139,-0.88368607,0
-0.34465599,2.2257371,1.6644254,-0.14655399,0.78225648,0.60547233,0
-3.5543182,-2.657923,-0.68430233,-0.93605828,-0.30759132,0.17082891,0
-4.4414525,-0.02517271,-1.252112,-0.93605828,-0.30759132,0.17082891,0
1.4995017,1.6044712,-2.8605809,-0.27863646,0.3515887,-0.89372653,0
-0.98648953,-0.23022294,2.8571277,0.15667248,0.070340872,0.98514253,0
-0.87804514,2.0011802,-1.6847034,-0.3467465,0.72411048,-0.59618026,0
-4.4794054,-0.16939735,-0.86546397,-0.93605828,-0.30759132,0.17082891,0
1.1907322,-2.1676579,-1.6121273,0.17738301,-0.83186418,-0.52586806,0
2.9225304,-0.073014259,-3.1359408,-0.052527726,-0.3579123,-0.93227655,0
-0.01770997,1.7921649,1.9827757,-0.070035696,0.63869703,0.76626426,0
3.3110387,2.0196118,-2.1759086,0.93605828,0.30759132,-0.17082891,0
-1.6285586,2.386523,-0.056773901,-0.32538164,0.94151032,-0.087665081,0
-2.5620353,0.90470934,2.5542226,-0.068940759,0.6364547,0.76822698,0
-1.0425476,2.5170991,0.78463221,-0.2572664,0.92956245,0.26405978,0
0.54434282,1.1381567,-2.7424328,-0.26587239,0.30036372,-0.91602039,0
1.2219677,-2.0658247,-1.5460534,0.16840118,-0.81796807,-0.55006295,0
4.1955223,-0.78080654,-1.7906648,0.93605828,0.30759132,-0.17082891,0
4.2295418,0.75255084,0.79165542,0.93605828,0.30759132,-0.17082891,0
-3.8118467,-2.3171499,-1.7325484,-0.93605828,-0.30759132,0.17082891,0
-4.1734862,-1.2519448,-1.2070795,-0.93605828,-0.30759132,0.17082891,0
3.7615921,0.21842766,-2.3600142,0.93605828,0.30759132,-0.17082891,0
-4.0938587,0.49121475,1.5077236,-0.93605828,-0.30759132,0.17082891,0
4.3671222,-0.012239456,0.40559819,0.93605828,0.30759132,-0.17082891,0
-3.9671562,0.68243265,2.5165777,-0.93605828,-0.30759132,0.17082891,0
4.4882941,-0.78086948,-0.7574513,0.93605828,0.30759132,-0.17082891,0
4.3775458,-0.67575359,-0.62899888,0.93605828,0.30759132,-0.17082891,0
4.5709276,-0.98751593,0.065109015,0.93605828,0.30759132,-0.17082891,0
3.1328323,3.5661428,0.26276898,0.93605828,0.30759132,-0.17082891,0
4.5954394,-0.60203695,0.82813936,0.93605828,0.30759132,-0.17082891,0
-0.92993486,-3.2051113,0.18025255,0.29860049,-0.95129156,-0.076694787,0
-3.3211989,-2.9143221,-0.14692068,-0.93605828,-0.30759132,0.17082891,0
3.0605059,3.5810599,0.70846939,-0.18352956,0.84109217,0.50880331,0
-0.24419928,-3.0063024,0.80952907,0.33633816,-0.92481005,0.17777169,0
-0.44027734,-3.0610309,-0.11389375,0.29216856,-0.95005345,-0.10970879,0
3.2385545,3.1634135,0.52392101,0.93605828,0.30759132,-0.17082891,0
3.840456,-1.4850321,0.0038791895,0.33836693,-0.92007273,0.19741839,0
-3.3554161,-3.3342588,-0.42733431,-0.93605828,-0.30759132,0.17082891,0
3.8429723,1.8853409,1.4407885,0.93605828,0.30759132,-0.17082891,0
2.3667417,1.7780132,2.0869379,0.055161595,0.35122368,0.93466532,0
-3.3847952,-1.7750602,2.2414503,-0.93605828,-0.30759132,0.17082891,0
-4.5040483,0.97404766,0.65312099,-0.93605828,-0.30759132,0.17082891,0
1.6821126,1.6421227,-2.8939271,-0.27615333,0.3414216,-0.89842677,0
-3.5149703,1.5139878,-0.48799866,-0.35043117,0.8585192,-0.37435633,0
1.9284264,-2.0585806,0.56191146,0.34661448,-0.88956642,0.29753977,0
3.6063251,2.9387469,1.0803826,0.93605828,0.30759132,-0.17082891,0
4.233376,0.9503994,1.9085215,0.93605828,0.30759132,-0.17082891,0
-4.1544623,-1.5086157,-1.7020423,-0.93605828,-0.30759132,0.17082891,0
-4.5120192,0.40531301,-0.15809086,-0.93605828,-0.30759132,0.17082891,0
4.2197819,0.25993729,0.41882986,0.93605828,0.30759132,-0.17082891,0
2.661727,1.0744753,-3.3599796,-0.18597931,0.020400643,-0.98234189,0
-1.138688,2.4047568,-0.2112267,-0.32415307,0.94272089,-0.078753352,0
4.6417994,-1.0409665,0.34892997,0.35125607,-0.84503567,0.40315467,0
3.4625561,3.0493426,1.3597336,-0.091860175,0.68233275,0.72524726,0
3.9726932,-0.018414021,-2.0756652,0.93605828,0.30759132,-0.17082891,0
2.7026181,3.7307808,-1.0866952,-0.33122814,0.93413192,-0.13298637,0
-2.4336281,2.0403018,0.92396438,-0.25721383,0.92951787,0.26426756,0
-1.9169953,2.1267445,-0.50580943,-0.34569079,0.89442348,-0.28373313,0
-3.7705588,0.57915592,-1.4402297,-0.32520449,0.5710358,-0.75376409,0
-1.5454792,-0.016321659,2.8966608,0.1116153,0.2008495,0.97324276,0
-3.3964942,-2.7989774,-0.29636288,-0.93605828,-0.30759132,0.17082891,0
-0.93437445,-3.2375638,0.62973666,0.32814667,-0.93838048,0.1084516,0
-3.8905346,-1.9737058,-1.4579858,-0.93605828,-0.30759132,0.17082891,0
3.7858386,0.8601737,-0.57294297,0.93605828,0.30759132,-0.17082891,0
3.9799457,0.28210449,-1.4522953,0.93605828,0.30759132,-0.17082891,0
-2.8699141,-3.3166687,1.8757122,-0.93605828,-0.30759132,0.17082891,0
3.4004576,2.6525195,-0.38506365,0.93605828,0.30759132,-0.17082891,0
3.7641973,0.87241554,-1.0059264,0.93605828,0.30759132,-0.17082891,0
-1.1957715,-3.1813209,1.0424416,0.33989975,-0.91598016,0.21318638,0
3.1695182,1.8899512,-2.3123026,0.93605828,0.30759132,-0.17082891,0
-4.0601649,-1.1921692,-0.51100218,-0.93605828,-0.30759132,0.17082891,0
-4.2161732,-1.0022883,-1.1205881,-0.93605828,-0.30759132,0.17082891,0
-2.1698413,-0.20725727,3.1007011,0.093700469,0.25006005,0.96368575,0
-4.2392912,0.44850111,1.5369747,-0.93605828,-0.30759132,0.17082891,0
2.881304,3.1258285,-2.2266018,0.93605828,0.30759132,-0.17082891,0
3.1879873,-0.66249847,-2.7692027,0.047037125,-0.59056425,-0.80561864,0
-4.3664598,-0.36893654,-0.65716457,-0.93605828,-0.30759132,0.17082891,0
1.7012435,3.1976824,-1.3237519,-0.34896594,0.87361348,-0.33914912,0
-2.3215714,1.0285008,-1.9521315,-0.31425586,0.5125457,-0.79908705,0
3.6298337,0.089175701,-3.2298574,-0.043865502,-0.37971216,-0.92406416,0
3.0852747,2.0731125,-2.9914072,0.93605828,0.30759132,-0.17082891,0
-3.4366908,-2.7095139,-0.74231935,-0.93605828,-0.30759132,0.17082891,0
3.8241873,0.42514372,-1.9009882,0.93605828,0.30759132,-0.17082891,0
3.3238246,1.1919789,-3.2777405,0.93605828,0.30759132,-0.17082891,0
0.095393181,-0.95023906,-2.523618,-0.043015838,-0.38183421,-0.92322928,0
0.054804325,-1.931793,-2.0011835,0.078420043,-0.65570009,-0.75093788,0
1.4785521,-1.9424326,1.26423,0.35163599,-0.80110365,0.48433989,0
-2.1559408,2.0956941,1.0381253,-0.24841994,0.92160672,0.29820889,0
-3.8458433,-1.7008576,-0.35554397,-0.93605828,-0.30759132,0.17082891,0
-1.4601958,1.9551406,-1.5354961,-0.34814319,0.73946977,-0.57617778,0
-3.8784509,-1.9012103,-1.0608469,-0.93605828,-0.30759132,0.17082891,0
-3.6159008,-2.8670197,-1.2812459,-0.93605828,-0.30759132,0.17082891,0
-3.3550124,-1.7618203,2.4097934,-0.93605828,-0.30759132,0.17082891,0
-3.4110966,1.2716155,2.002346,-0.17240512,0.82422197,0.53938353,0
-2.8793488,-1.9005899,-1.9665591,-0.046839297,-0.37226239,-0.92694485,0
-3.230772,-2.304986,1.9826664,-0.93605828,-0.30759132,0.17082891,0
-3.8128088,0.22458267,3.0178301,-0.020974755,0.53344303,0.84557587,0
1.3940356,2.4420211,1.6847084,-0.098513484,0.69522679,0.71200758,0
3.0154297,1.9201617,-2.8607872,0.93605828,0.30759132,-0.17082891,0
-2.7711005,1.9589348,1.0743774,-0.25901067,0.93102038,0.25712746,0
0.79978228,-0.47934294,-2.820323,-0.066475749,-0.32216886,-0.94434536,0
2.3244214,2.9422171,-2.2686193,-0.34319052,0.69117099,-0.6360054,0
-2.263535,-3.3119962,-0.46167374,0.22476315,-0.89629924,-0.38226837,0
2.861727,3.1333678,-1.9192967,0.93605828,0.30759132,-0.17082891,0
4.1080985,-0.33493423,-0.97787553,0.93605828,0.30759132,-0.17082891,0
3.8376102,2.4425952,1.4916544,0.93605828,0.30759132,-0.17082891,0
4.1140242,0.42519855,0.30500722,0.93605828,0.30759132,-0.17082891,0
-4.4521036,0.13784266,-1.1732292,-0.93605828,-0.30759132,0.17082891,0
-1.5476003,-3.4517436,-0.092229605,0.27680981,-0.94351399,-0.18209273,0
3.0454907,2.2760754,-3.1134129,-0.28782159,0.39016056,-0.87460464,0
-3.7823148,-1.1954865,0.1413182,-0.93605828,-0.30759132,0.17082891,0
-2.7782705,0.29160058,-2.0170801,-0.28440282,0.37561703,-0.88205832,0
-2.1533437,1.6005423,2.0917535,-0.14310145,0.77637821,0.61380684,0
-1.6780503,-3.0742249,-0.98956919,0.17579651,-0.82944471,-0.53020453,0
-0.48342562,-0.99124694,-2.5303416,-0.060960472,-0.33639765,-0.93974495,0
2.2950537,3.0029881,1.2144008,-0.13109457,0.75546402,0.64194083,0
-2.9422112,-2.3302422,2.6627398,-0.93605828,-0.30759132,0.17082891,0
3.4433689,1.5663819,-2.026386,0.93605828,0.30759132,-0.17082891,0
1.6365662,-2.2538099,0.92108274,0.34923285,-0.87130326,0.34477115,0
3.6205683,2.3289442,0.75445509,0.93605828,0.30759132,-0.17082891,0
1.719933,2.0654118,2.0747585,-0.016311169,0.52293801,0.85221463,0
-4.3610387,0.72950459,0.32469368,-0.93605828,-0.30759132,0.17082891,0
