2.0249412,1.3134303,-3.8392112,0.45356447,0.30747366,-0.8365041,0
1.7690134,1.2183433,-3.8585231,0.45356447,0.30747366,-0.8365041,0
0.82725281,-2.3143096,-2.4379547,0.011980534,-0.94062066,-0.33924788,0
-2.3578758,1.0221443,4.4980307,-0.45356447,-0.30747366,0.8365041,0
-2.0865974,-3.7321205,1.7978137,-0.15584067,-0.89677846,-0.41412777,0
0.57093465,-3.2011876,2.9714453,0.69331133,-0.71150029,0.11439723,0
2.325784,-1.5087228,1.3307426,0.84562957,-0.44484234,0.29500175,0
-2.1889346,-3.7913408,2.7060995,-0.45356447,-0.30747366,0.8365041,0
1.1189916,2.3759856,-3.8404036,0.45356447,0.30747366,-0.8365041,0
3.2925277,2.1509361,-0.72819734,0.69532979,0.4650417,0.54795301,0
3.9619789,2.9144216,-2.0787876,0.67987001,0.48750561,0.5478276,0
2.6349111,-0.22598028,-4.111752,0.45356447,0.30747366,-0.8365041,0
-3.0625563,0.44493008,3.8362145,-0.45356447,-0.30747366,0.8365041,0
-1.3306775,-2.351259,-1.5063977,-0.40985411,-0.76149976,-0.50213307,0
2.120698,1.744362,1.3726676,0.64639425,0.53268218,0.54628205,0
-4.2704015,-2.1315424,2.3863764,-0.45356447,-0.30747366,0.8365041,0
-0.48126027,-2.6825297,4.2054,-0.45356447,-0.30747366,0.8365041,0
-1.450624,-1.6874685,4.0320697,-0.45356447,-0.30747366,0.8365041,0
-0.062802076,-3.1209686,0.18713355,0.15774874,-0.95147932,-0.26420152,0
3.068625,1.9499347,-2.9396319,0.45356447,0.30747366,-0.8365041,0
3.8561308,2.9480078,-2.3213212,0.45356447,0.30747366,-0.8365041,0
1.9220849,-2.0222409,1.690264,0.7995531,-0.55500722,0.22952521,0
3.5430312,1.420413,-2.9448895,0.45356447,0.30747366,-0.8365041,0
-0.64860314,2.0023549,3.2279882,0.1235047,0.90786088,0.40066832,0
4.4669838,0.82404542,-1.9477636,0.8906213,-0.1218798,0.43810827,0
1.651233,0.55709457,-4.3345976,0.45356447,0.30747366,-0.8365041,0
1.0361085,2.4878554,-3.8513126,0.45356447,0.30747366,-0.8365041,0
2.0020564,-0.38379049,-4.4526229,0.45356447,0.30747366,-0.8365041,0
0.42958403,3.0692978,0.63642669,0.043922782,0.92974949,0.36556345,0
2.9778564,2.3316538,-2.818393,0.45356447,0.30747366,-0.8365041,0
-2.236707,-2.0432007,3.3667901,-0.45356447,-0.30747366,0.8365041,0
1.0600342,3.9807582,-2.507803,-0.22532019,0.94767118,0.22616351,0
-1.3654658,-0.064743996,4.7041602,-0.45356447,-0.30747366,0.8365041,0
0.71578038,-2.8458116,3.7875366,0.80143481,-0.55128819,0.23191246,0
-1.3047748,-1.5710669,4.1067467,-0.45356447,-0.30747366,0.8365041,0
-0.28167671,3.1229844,-0.39289808,-0.27811942,0.94056094,0.19492149,0
1.3782476,1.120846,2.6894305,0.68547869,0.47948217,0.54791939,0
2.9532931,3.7190685,-2.395113,0.45356447,0.30747366,-0.8365041,0
-0.93701047,2.509104,-3.8647244,-0.83389539,0.47761315,-0.2765938,0
3.6638761,-1.122035,-3.7342248,0.45356447,0.30747366,-0.8365041,0
-3.2041302,1.3744493,3.1331518,-0.50134361,0.86403728,0.045758367,0
-1.5711832,1.4401221,4.5250292,0.095893532,0.91631591,0.38880491,0
3.4775283,1.4822694,-0.20381999,0.8017801,0.26904827,0.53363061,0
-1.7210246,0.86714315,4.7067394,-0.45356447,-0.30747366,0.8365041,0
2.5531466,-1.2972937,-4.3999796,0.45356447,0.30747366,-0.8365041,0
-0.25888729,-3.0315144,-0.17961264,0.068703204,-0.94787174,-0.31115717,0
-0.40766591,-1.0677562,4.8824286,-0.45356447,-0.30747366,0.8365041,0
-3.6249411,0.67954159,3.5509524,-0.45356447,-0.30747366,0.8365041,0
2.8525317,2.3601711,-3.0203466,0.45356447,0.30747366,-0.8365041,0
-2.3224411,-1.7978995,3.4140146,-0.45356447,-0.30747366,0.8365041,0
1.3145775,4.138669,-3.2240055,0.45356447,0.30747366,-0.8365041,0
4.1173806,-0.42990446,-3.245435,0.45356447,0.30747366,-0.8365041,0
-0.29283392,0.96597338,4.5668101,0.46585163,0.71837389,0.51664394,0
3.8821523,0.16554952,-0.86025012,0.89098334,-0.17822848,0.41759244,0
0.73752701,3.858012,-3.6227155,0.45356447,0.30747366,-0.8365041,0
-1.5950102,-1.5353756,3.9175692,-0.45356447,-0.30747366,0.8365041,0
-1.558901,1.2949414,5.0831871,-0.45356447,-0.30747366,0.8365041,0
3.738214,0.4852078,-0.7676658,0.88876009,-0.086310521,0.45017323,0
3.4173751,2.5891695,-2.4948175,0.45356447,0.30747366,-0.8365041,0
0.87408376,1.4143491,-4.2719383,0.45356447,0.30747366,-0.8365041,0
0.72851408,0.04738903,-4.8866158,0.45356447,0.30747366,-0.8365041,0
-1.8200848,-3.7145395,1.43467,-0.15435478,-0.89731592,-0.41351974,0
-3.8259382,-0.24906278,0.64170301,-0.89094651,0.13303657,-0.43418372,0
2.2728889,2.3593884,0.32579732,0.52681601,0.66456586,0.52992153,0
-1.2665977,2.6990585,-1.4352212,-0.64388752,0.76199913,-0.06903708,0
-0.41105914,0.84800339,-5.2193217,-0.83185619,-0.19078095,-0.5211696,0
-2.07776,-2.1640997,3.4091392,-0.45356447,-0.30747366,0.8365041,0
2.7181373,-1.5612407,-3.9001315,0.3090196,-0.93463111,-0.17598736,0
2.1822505,4.1080847,-2.3922429,0.10118991,0.91476548,0.3911069,0
-1.2453752,-0.46795845,4.6418881,-0.45356447,-0.30747366,0.8365041,0
0.31895268,-1.7509575,4.820714,-0.45356447,-0.30747366,0.8365041,0
-1.5918293,0.9701519,4.9101491,-0.45356447,-0.30747366,0.8365041,0
-2.7091179,0.85627365,4.1704087,-0.45356447,-0.30747366,0.8365041,0
3.592664,1.9741831,-2.6554861,0.45356447,0.30747366,-0.8365041,0
-1.3487489,-2.7323048,3.5632644,-0.45356447,-0.30747366,0.8365041,0
-4.1021557,0.51751852,3.2325921,-0.45356447,-0.30747366,0.8365041,0
-0.29991663,1.7507792,-4.9399009,0.45356447,0.30747366,-0.8365041,0
1.9826007,2.1889691,-3.5211146,0.45356447,0.30747366,-0.8365041,0
4.0004106,1.6714838,-1.0780952,0.82568634,0.2083012,0.52426416,0
3.528986,2.3356607,-2.6694508,0.45356447,0.30747366,-0.8365041,0
-2.6206644,1.0682652,-0.82940769,-0.86914235,0.36024114,-0.33884758,0
-4.2751532,-0.81884909,1.8187829,-0.89024156,0.11226135,-0.44143778,0
4.2887678,1.3422596,-2.4706249,0.45356447,0.30747366,-0.8365041,0
3.1915851,1.2617627,-0.018181205,0.80458707,0.2624076,0.53271174,0
1.9452753,0.53405619,-4.2325101,0.45356447,0.30747366,-0.8365041,0
1.144303,2.2513096,-3.9430401,0.45356447,0.30747366,-0.8365041,0
-1.6611373,2.3952279,1.7727107,-0.34557745,0.92584389,0.15293539,0
-3.4143815,-3.1050243,1.4849641,-0.56215119,-0.62962961,-0.53623921,0
-3.1787105,0.0457654,3.7248335,-0.45356447,-0.30747366,0.8365041,0
3.9194918,0.53530765,-1.1336919,0.89078224,-0.12687199,0.43636054,0
0.2791183,3.3853621,-0.68621373,-0.14976387,0.95155013,0.26855713,0
-2.9913623,-3.4199383,2.5958767,-0.45356447,-0.30747366,0.8365041,0
0.79655486,0.16497231,-4.7909908,0.45356447,0.30747366,-0.8365041,0
1.2628851,-0.064026356,-4.7751637,0.45356447,0.30747366,-0.8365041,0
1.8941729,-0.99014449,2.6671858,0.89121735,-0.15301019,0.42698884,0
-1.226806,-2.2198639,3.9048171,-0.45356447,-0.30747366,0.8365041,0
-2.6506395,1.1368532,-0.72382611,-0.85010231,0.43107766,-0.30248639,0
-0.5094924,2.7408273,1.3310697,-0.06326738,0.94734234,0.31391007,0
1.2397926,2.0857162,1.7360801,0.47221544,0.7131083,0.51815909,0
1.255703,-2.6645303,-0.10737419,0.43390125,-0.89603406,-0.09408772,0
-4.2374802,0.0093784332,3.1825802,-0.45356447,-0.30747366,0.8365041,0
1.5094578,2.3613286,-3.5928602,0.45356447,0.30747366,-0.8365041,0
1.0919682,-2.2452815,-2.621695,0.062478304,-0.94726259,-0.31430846,0
-1.9776485,2.1610405,2.1091125,-0.34701997,0.92545646,0.1520108,0
-0.70042431,-3.2053435,3.7574301,-0.45356447,-0.30747366,0.8365041,0
2.0759268,-0.19909191,-4.4000101,0.45356447,0.30747366,-0.8365041,0
3.3662364,-0.72914016,-0.40173888,0.85670865,-0.40909868,0.31414732,0
4.4544582,0.70820856,-2.6129608,0.45356447,0.30747366,-0.8365041,0
3.6130736,2.0789051,-0.99317622,0.74286073,0.38812339,0.54545218,0
3.9284613,-0.73849726,-2.0088634,0.79138237,-0.57060945,0.21935999,0
-2.7603202,1.5013425,0.16432762,-0.77674615,0.59658277,-0.201877,0
0.85953361,-2.0135732,4.6789761,0.88731527,-0.2435988,0.3915754,0
-0.19227922,0.21013308,5.2765789,-0.45356447,-0.30747366,0.8365041,0
-3.7422614,-1.8340702,1.0816808,-0.79955786,-0.27422601,-0.53432888,0
-0.29555345,0.54549694,-5.2807989,0.45356447,0.30747366,-0.8365041,0
-4.2241631,-1.9165471,2.419384,-0.45356447,-0.30747366,0.8365041,0
-3.3862009,1.1944528,1.6147125,-0.7265172,0.67119277,-0.14721775,0
0.26934695,0.35680723,-5.0670204,0.45356447,0.30747366,-0.8365041,0
-0.89814389,-3.2359087,3.6406381,-0.45356447,-0.30747366,0.8365041,0
-1.9287132,2.2572629,0.7725296,-0.52958256,0.84790397,0.024516702,0
-3.7873671,1.0712528,3.039686,-0.65955925,0.74705273,-0.083028376,0
3.3922963,1.56802,-0.23588061,0.78887242,0.29821506,0.5373528,0
-0.78354663,2.7809467,-3.4285502,-0.78932339,0.57440925,-0.21684682,0
-1.6855335,2.4529426,0.086550236,-0.53401208,0.84521282,0.021125734,0
2.5108931,-2.004406,-1.454547,0.55822384,-0.82968718,-0.0022911429,0
-2.3561392,-2.7629013,-0.059050083,-0.48597351,-0.70145488,-0.52133536,0
-1.7802231,1.7771807,4.1067324,-0.035482168,0.94408774,0.32777935,0
-0.29814184,-3.3430839,0.66163349,0.15907809,-0.95145971,-0.26347351,0
-1.5945929,-1.897886,-1.5175481,-0.54790282,-0.64407653,-0.53382385,0
-1.6307037,-1.4851489,4.0551639,-0.45356447,-0.30747366,0.8365041,0
1.2652775,1.1364415,2.873461,0.65389907,0.52293432,0.54676837,0
0.57569361,1.9342127,-4.3992825,0.45356447,0.30747366,-0.8365041,0
-0.307248,1.7249289,-4.841516,0.45356447,0.30747366,-0.8365041,0
-2.5157943,-2.508249,3.0089569,-0.45356447,-0.30747366,0.8365041,0
0.63885516,0.75626326,-4.7079883,0.45356447,0.30747366,-0.8365041,0
3.0352297,2.9077685,-2.5519698,0.45356447,0.30747366,-0.8365041,0
-1.794696,-3.0668228,3.2189336,-0.45356447,-0.30747366,0.8365041,0
3.8072803,1.7145944,-2.7553766,0.45356447,0.30747366,-0.8365041,0
3.0605137,-1.580281,-1.6595278,0.67331165,-0.73315293,0.095594168,0
-3.4681115,-2.8375938,2.3967876,-0.45356447,-0.30747366,0.8365041,0
-0.16286612,-2.5292931,-1.4616771,-0.10736638,-0.91291457,-0.3937754,0
-0.96392381,-0.12412071,4.7619271,-0.45356447,-0.30747366,0.8365041,0
-0.42379117,-2.5656345,-1.5979781,-0.22444707,-0.86894101,-0.44109493,0
-0.80248713,-3.7578244,3.6203816,-0.45356447,-0.30747366,0.8365041,0
-1.35344,2.6501122,0.55772972,-0.38630906,0.91367072,0.12637556,0
-0.52556098,-0.36299849,4.9955993,-0.45356447,-0.30747366,0.8365041,0
-0.89135706,-0.17237473,4.9004402,-0.45356447,-0.30747366,0.8365041,0
3.7129815,0.24328911,-0.4270193,0.89117134,-0.1463162,0.42942441,0
-0.63335598,-0.52201557,-4.107172,-0.68048203,-0.48663682,-0.54784006,0
-0.32546905,3.3504686,-3.7954347,-0.70879579,0.6934377,-0.12943232,0
-2.3492935,-3.3955898,2.759707,-0.45356447,-0.30747366,0.8365041,0
-1.5245185,0.28995514,4.6613169,-0.45356447,-0.30747366,0.8365041,0
-2.425988,-3.7221136,2.0223091,-0.22731429,-0.86764646,-0.44217366,0
1.2669735,-0.86268425,-5.1004767,0.45356447,0.30747366,-0.8365041,0
3.431288,2.6523206,-1.00967,0.6281296,0.5555681,0.54479086,0
-3.2721291,-0.53015947,3.4024308,-0.45356447,-0.30747366,0.8365041,0
-4.4557853,-1.4841175,2.4198909,-0.45356447,-0.30747366,0.8365041,0
-0.37852246,-2.6066959,4.2540169,-0.45356447,-0.30747366,0.8365041,0
2.631814,1.718662,-3.2782795,0.45356447,0.30747366,-0.8365041,0
1.9516017,-2.1958237,0.55844259,0.68571621,-0.7199347,0.10717881,0
-1.936529,2.1371889,-1.0446992,-0.72748947,0.66991925,-0.14821303,0
-4.5451412,-0.95443344,2.4862776,-0.45356447,-0.30747366,0.8365041,0
-0.26887643,0.57437325,5.3023314,0.57259721,0.6187132,0.53789061,0
-2.7839644,-2.3996317,0.30714607,-0.59455973,-0.59481293,-0.54101408,0
-0.81552225,3.1119144,-0.54371095,-0.39627519,0.91029155,0.11972964,0
2.0274642,-1.8973427,-3.5632062,0.17482379,-0.95106184,-0.25478971,0
0.28796232,1.6515007,-4.6606231,0.45356447,0.30747366,-0.8365041,0
-1.3846091,2.0245268,-3.4467282,-0.86952716,0.35851446,-0.33969092,0
2.3259046,-1.9916449,-0.37066102,0.65948576,-0.74712503,0.082961977,0
-4.2285843,-2.3324728,1.7870796,-0.75747401,-0.36155438,-0.54360968,0
0.40594146,3.6025414,-1.4277413,-0.22397995,0.94780344,0.22693884,0
-4.1167054,0.35887671,3.374521,-0.45356447,-0.30747366,0.8365041,0
-3.6751595,-1.8520775,2.7236257,-0.45356447,-0.30747366,0.8365041,0
1.8075156,-2.2647398,0.73841739,0.70145345,-0.70215273,0.12224787,0
-2.197017,-0.87506104,3.9832237,-0.45356447,-0.30747366,0.8365041,0
-4.4218011,-0.743083,1.8704174,-0.89042819,0.11669753,-0.43990836,0
0.5609324,-1.9506998,-3.404443,-0.19322282,-0.88235104,-0.42909378,0
3.1558404,-1.0874766,-0.1515041,0.83684117,-0.46978432,0.28106865,0
-0.71223241,-1.2661624,4.6191707,-0.45356447,-0.30747366,0.8365041,0
-2.4401097,1.8928628,2.1943932,-0.43264624,0.89654899,0.094957471,0
-2.4667382,-0.089993954,4.0994134,-0.45356447,-0.30747366,0.8365041,0
-3.978802,-0.97400951,1.2334529,-0.87820423,-0.0056522489,-0.47825247,0
0.56521881,-1.1180887,5.3058591,-0.45356447,-0.30747366,0.8365041,0
2.5803757,-1.9148227,-0.92484391,0.64927155,-0.75696695,0.073806107,0
1.3893578,2.9420087,0.24245071,0.24706876,0.85843343,0.44949841,0
-1.219751,-0.74215889,4.4143276,-0.45356447,-0.30747366,0.8365041,0
3.6490755,-0.62092113,-3.6547852,0.45356447,0.30747366,-0.8365041,0
-0.64473349,-1.0056176,4.6103163,-0.45356447,-0.30747366,0.8365041,0
3.8151364,-0.16080666,-1.2591804,0.87110817,-0.35123959,0.34322214,0
-1.0326467,-2.1834188,4.0998607,-0.45356447,-0.30747366,0.8365041,0
3.0989501,-0.23625696,0.47662494,0.89118129,-0.14734316,0.42905229,0
-3.6409993,-3.1150393,2.2349072,-0.45356447,-0.30747366,0.8365041,0
0.92982233,-2.5438199,3.5955095,0.83451688,-0.47598156,0.27753043,0
1.7077595,3.4534349,-3.2327092,0.45356447,0.30747366,-0.8365041,0
-1.6738484,-1.8607616,-1.6307032,-0.58044946,-0.6103192,-0.53906304,0
1.8208039,3.1354632,-3.1838994,0.45356447,0.30747366,-0.8365041,0
4.3826118,1.9703162,-2.2410741,0.45356447,0.30747366,-0.8365041,0
0.95147198,2.9491799,-3.7573941,0.45356447,0.30747366,-0.8365041,0
1.7993186,1.3490996,-3.8447771,0.45356447,0.30747366,-0.8365041,0
4.0124936,1.6091728,-2.6948414,0.45356447,0.30747366,-0.8365041,0
3.4000244,1.489086,-0.16754031,0.80613804,0.25868863,0.53218567,0
0.63714361,1.2089186,-4.5000968,0.45356447,0.30747366,-0.8365041,0
3.8218822,-0.98549795,-2.4823232,0.71912682,-0.68068695,0.1397208,0
3.3875022,1.746197,-2.8402472,0.45356447,0.30747366,-0.8365041,0
1.572708,-0.73900986,-4.7485542,0.45356447,0.30747366,-0.8365041,0
-1.8702623,-2.5672293,3.4067914,-0.45356447,-0.30747366,0.8365041,0
0.88619041,0.58015251,-4.620646,0.45356447,0.30747366,-0.8365041,0
-0.98462015,-2.9791558,3.7403319,-0.45356447,-0.30747366,0.8365041,0
1.4838706,2.9403894,-3.420202,0.45356447,0.30747366,-0.8365041,0
4.6405382,0.76889181,-2.5121052,0.45356447,0.30747366,-0.8365041,0
0.90267187,-0.11625004,-5.0312767,0.45356447,0.30747366,-0.8365041,0
-3.7267885,-2.5265572,2.4183371,-0.45356447,-0.30747366,0.8365041,0
2.7900949,-0.57143164,-4.0695724,0.45356447,0.30747366,-0.8365041,0
2.9033165,1.7743299,0.27401805,0.70279324,0.4537909,0.54786444,0
0.26550722,-1.3669982,4.9726744,-0.45356447,-0.30747366,0.8365041,0
-3.341109,1.2157831,1.1242278,-0.77112246,0.60596842,-0.19537783,0
2.4211333,3.6019633,-2.7029061,0.45356447,0.30747366,-0.8365041,0
0.59139478,-2.0857258,-3.1909299,-0.13888666,-0.902749,-0.40712965,0
1.8712744,-0.95444679,2.7399862,0.89080572,-0.12767483,0.43607816,0
-2.340992,1.4600077,4.6560411,-0.12845406,0.95135534,0.28003997,0
-0.77472192,-0.19595385,4.8316784,-0.45356447,-0.30747366,0.8365041,0
3.4345822,1.5560315,-2.9219875,0.45356447,0.30747366,-0.8365041,0
0.8691349,3.6742423,-1.3157203,-0.11310665,0.95087165,0.28818387,0
-4.4420085,-1.9325249,2.2349086,-0.45356447,-0.30747366,0.8365041,0
1.8912745,3.6552157,-1.6139958,0.14734882,0.89981323,0.41063899,0
-2.8150332,0.11335316,-1.256109,-0.88591635,0.053270102,-0.460776,0
4.0103598,0.10133553,-3.2461967,0.45356447,0.30747366,-0.8365041,0
1.6459756,0.83584118,-4.091917,0.45356447,0.30747366,-0.8365041,0
2.0394061,1.5000629,-3.809227,0.45356447,0.30747366,-0.8365041,0
-1.5497866,2.4146197,-1.8529265,-0.74848264,0.64092726,-0.17025238,0
1.6513791,2.8088682,-3.5017931,0.45356447,0.30747366,-0.8365041,0
2.7237821,3.5029385,-2.5646968,0.45356447,0.30747366,-0.8365041,0
-2.2776787,1.5970556,-1.5131572,-0.8476963,0.43858224,-0.29842341,0
-3.4705088,1.2571287,2.8705814,-0.62009341,0.78303325,-0.048404038,0
-4.1664329,-0.2264297,1.6404672,-0.88327128,0.28018978,-0.37593293,0
-4.1783462,-1.8071072,1.4942685,-0.80861145,-0.25268143,-0.53131878,0
-0.97252554,0.70796776,4.9940453,-0.45356447,-0.30747366,0.8365041,0
-4.491138,-1.1132593,1.9759849,-0.88433582,0.038805485,-0.46523577,0
1.1664321,1.1968031,2.9354711,0.62239373,0.56252271,0.54423714,0
3.398387,1.0021732,-0.051808119,0.84853083,0.13803752,0.51082397,0
-1.3644767,-3.590987,1.0263357,-0.053487211,-0.92751873,-0.36992955,0
-0.2997185,-1.6229775,-3.3804021,-0.44283918,-0.73677844,-0.51093131,0
1.2720113,-1.6587653,3.8602178,0.8861056,-0.25602603,0.38635164,0
1.7835443,-1.8688921,1.8818071,0.82263023,-0.5055325,0.2602233,0
4.41222,1.5075696,-2.5387244,0.45356447,0.30747366,-0.8365041,0
2.4492555,2.7012758,-3.071887,0.45356447,0.30747366,-0.8365041,0
3.9958458,0.54017282,-1.2628378,0.89090484,-0.131328,0.43478906,0
1.3782141,-1.799988,3.1943684,0.87514514,-0.33114028,0.352799,0
2.4730117,3.3526986,-2.8083322,0.45356447,0.30747366,-0.8365041,0
1.0249205,-1.2710626,4.2419481,0.88416719,-0.037364766,0.46567392,0
3.131273,2.1183777,-2.9059258,0.45356447,0.30747366,-0.8365041,0
3.774826,1.0647993,-2.9150953,0.45356447,0.30747366,-0.8365041,0
-0.045931458,-3.16765,-0.18354321,0.1138799,-0.95090288,-0.28777593,0
0.069355249,0.62388992,4.7690878,0.61264598,0.5740999,0.54320723,0
-1.3638703,-1.1293349,-2.7477596,-0.65450907,-0.52213269,-0.54680443,0
-3.5752821,-2.9264538,2.4668543,-0.45356447,-0.30747366,0.8365041,0
-4.3501234,-1.4853704,2.5807457,-0.45356447,-0.30747366,0.8365041,0
0.35221201,1.0122123,-4.8718209,0.45356447,0.30747366,-0.8365041,0
0.23992658,2.6493826,1.5372109,0.11691985,0.90996099,0.39786983,0
-3.5110726,-2.5961127,1.1065583,-0.65763271,-0.51800632,-0.54698139,0
3.1452971,0.28465107,0.54050148,0.88348001,-0.031661779,0.46739757,0
0.57722294,-0.46329498,-5.1308656,0.45356447,0.30747366,-0.8365041,0
-3.2816393,-3.0994737,2.4771881,-0.45356447,-0.30747366,0.8365041,0
3.6332803,0.73680925,-3.0225101,0.45356447,0.30747366,-0.8365041,0
-3.2524896,0.81349993,3.8084507,-0.45356447,-0.30747366,0.8365041,0
1.8179677,2.7379906,-3.4406154,0.45356447,0.30747366,-0.8365041,0
-1.4290404,-3.9134197,3.1978533,-0.45356447,-0.30747366,0.8365041,0
0.33697301,2.7508347,-4.2909436,0.45356447,0.30747366,-0.8365041,0
-2.7984617,-0.44725642,-1.1860622,-0.85767972,-0.10449336,-0.50345474,0
1.6358699,2.0490551,-3.843518,0.45356447,0.30747366,-0.8365041,0
-1.3147783,-1.3250294,4.1491542,-0.45356447,-0.30747366,0.8365041,0
3.3401437,0.071675837,0.31705451,0.88798845,-0.076012522,0.45354009,0
1.9880279,-0.33996344,-4.3384933,0.45356447,0.30747366,-0.8365041,0
1.2942173,3.1880641,-3.5312402,0.45356447,0.30747366,-0.8365041,0
-1.0896404,0.52863169,4.8869658,-0.45356447,-0.30747366,0.8365041,0
0.30515683,0.23699665,4.8071766,0.71016634,0.44239831,0.54767454,0
3.8015475,1.0724001,-2.9586771,0.45356447,0.30747366,-0.8365041,0
-1.0583991,-3.8475549,1.6399803,0.092652187,-0.94978392,-0.29887468,0
-1.5603451,-2.0315087,3.7333834,-0.45356447,-0.30747366,0.8365041,0
3.7184861,2.1516581,-2.5661979,0.45356447,0.30747366,-0.8365041,0
-2.5662451,-1.3289146,-0.92443681,-0.74890107,-0.37733498,-0.5447619,0
-0.77342921,-0.1802702,4.8935585,-0.45356447,-0.30747366,0.8365041,0
-1.0868297,1.2743473,4.8297935,0.28190637,0.84091204,0.46194762,0
3.8617086,-0.49528933,-3.4031579,0.45356447,0.30747366,-0.8365041,0
2.649683,1.3051423,1.0369295,0.7519778,0.37173671,0.54437232,0
-4.2073088,0.73565197,3.3227921,-0.45356447,-0.30747366,0.8365041,0
2.7061205,-0.78863764,-4.2752457,0.45356447,0.30747366,-0.8365041,0
1.9713055,-1.716814,-4.0516663,0.1156583,-0.95097184,-0.28683686,0
-2.0862191,0.2455864,4.3230381,-0.45356447,-0.30747366,0.8365041,0
-1.6828877,1.1650858,5.0012765,-0.45356447,-0.30747366,0.8365041,0
-3.5818214,-1.9513259,2.7599101,-0.45356447,-0.30747366,0.8365041,0
2.4974878,1.7740345,0.90058076,0.68328267,0.48264033,0.54788971,0
-0.48823833,0.34116936,-4.9740801,-0.78028321,-0.31651509,-0.53942204,0
-0.34438503,-0.025630951,-5.1679368,-0.72819811,-0.41327435,-0.54674661,0
1.453548,4.0853682,-2.5997839,-0.14807405,0.95155507,0.26947504,0
0.42264509,-1.2566209,-4.4908595,-0.38574618,-0.77839863,-0.49527293,0
-0.21372408,3.1470308,-0.24206543,-0.20768833,0.94922602,0.23629534,0
1.5556165,0.66292238,-4.2780747,0.45356447,0.30747366,-0.8365041,0
-3.6835566,1.0800538,3.5906661,-0.55013871,0.83502847,0.0086382627,0
2.2861814,2.2737277,-3.2358744,0.45356447,0.30747366,-0.8365041,0
-0.18115604,-1.647017,4.7492375,-0.45356447,-0.30747366,0.8365041,0
-0.84111452,0.8409524,5.1223269,-0.45356447,-0.30747366,0.8365041,0
-0.78592116,-1.9706059,4.281745,-0.45356447,-0.30747366,0.8365041,0
-0.56381762,-0.69876099,4.8580203,-0.45356447,-0.30747366,0.8365041,0
-1.7071681,2.1967702,-2.0320518,-0.802351,0.54945976,-0.23308128,0
2.0930407,-1.0298915,-4.5627508,0.45356447,0.30747366,-0.8365041,0
-1.5519758,2.2994576,1.5814525,-0.32015443,0.93216181,0.16904223,0
-3.1604958,0.88389444,3.8902817,-0.45356447,-0.30747366,0.8365041,0
2.0306134,0.69987011,-4.0596275,0.45356447,0.30747366,-0.8365041,0
-0.81063259,-3.3048382,-0.0082654953,-0.040775836,-0.93045962,-0.36411828,0
-0.36392981,-3.1351061,-0.35532594,-0.028948396,-0.93302381,-0.35864764,0
-3.4329672,-2.8710289,2.4776936,-0.45356447,-0.30747366,0.8365041,0
-4.2125726,-0.82935095,1.465355,-0.887016,0.064645559,-0.45719093,0
-0.31191313,-2.1687036,-2.2582164,-0.27812663,-0.84289312,-0.4606263,0
-1.1036359,-3.0534158,3.580061,-0.45356447,-0.30747366,0.8365041,0
-3.3760669,0.94120061,0.59296,-0.83582234,0.47251943,-0.27951086,0
-1.5959625,1.9515307,-2.5650544,-0.8558501,0.41208112,-0.31258556,0
1.0780224,0.099708557,-4.6827269,0.45356447,0.30747366,-0.8365041,0
3.8646798,1.4670157,-2.7438273,0.45356447,0.30747366,-0.8365041,0
4.0192695,2.5346658,-1.752295,0.72845662,0.41284275,0.54672819,0
3.442493,-0.39732265,-3.7657762,0.45356447,0.30747366,-0.8365041,0
1.877055,3.6478133,-1.5240948,0.14682409,0.89999783,0.41042215,0
1.5702502,-2.5445845,-0.35335636,0.47869289,-0.87576568,-0.062351048,0
2.2587242,0.21488893,2.131696,0.84316432,0.15601537,0.51452225,0
-1.7184081,-1.3793507,3.8677056,-0.45356447,-0.30747366,0.8365041,0
-1.1299611,2.3594575,-3.0282059,-0.81225371,0.52888727,-0.24601245,0
-2.6890233,-0.23970413,3.9271863,-0.45356447,-0.30747366,0.8365041,0
-2.7155871,0.64374352,4.0833225,-0.45356447,-0.30747366,0.8365041,0
0.42592335,2.7115948,1.2571721,0.1720137,0.89075142,0.42068172,0
-0.17763591,-1.3890052,4.6845579,-0.45356447,-0.30747366,0.8365041,0
-0.54074037,-3.6909914,3.7462504,-0.45356447,-0.30747366,0.8365041,0
0.85445499,-1.4067621,-4.5197854,-0.29993451,-0.83118927,-0.46814889,0
-4.4567194,-2.0170896,2.1079183,-0.45356447,-0.30747366,0.8365041,0
-3.3291979,-0.69071388,3.3170564,-0.45356447,-0.30747366,0.8365041,0
0.75837851,-0.4434824,4.7286668,0.81924921,0.22567974,0.52716166,0
-2.6421971,-2.7290292,0.40713024,-0.53582847,-0.65593517,-0.53163588,0
1.2004104,0.92920828,-4.282115,0.45356447,0.30747366,-0.8365041,0
-1.4954834,-3.7232299,3.1761463,-0.45356447,-0.30747366,0.8365041,0
2.5767374,1.3725029,0.95407033,0.74410415,0.38592398,0.54531789,0
-2.5923505,1.4385463,-0.91494167,-0.83932137,0.46299797,-0.28490788,0
-1.1574183,-3.876055,2.2578132,0.16463472,-0.95135462,-0.26042205,0
0.80597311,-0.010079384,-4.9308624,0.45356447,0.30747366,-0.8365041,0
-0.15169811,-0.67217875,5.0775342,-0.45356447,-0.30747366,0.8365041,0
1.3299067,-2.0583971,3.2635133,0.86264527,-0.38724494,0.32539901,0
-1.6386138,1.3048897,-2.9318683,-0.88960361,0.21276145,-0.40415105,0
4.2414727,1.2660232,-1.366152,0.86123669,0.090210035,0.50013334,0
0.75809681,-0.60574245,-5.26373,0.45356447,0.30747366,-0.8365041,0
1.6090214,-1.6095381,-4.5379767,-0.073852926,-0.92240661,-0.37909299,0
2.0721512,2.723196,0.0096654892,0.42245784,0.75227726,0.50557715,0
-1.3524473,-0.05099678,4.5134687,-0.45356447,-0.30747366,0.8365041,0
4.1150789,-0.51841021,-2.7362998,0.78029627,-0.59049606,0.20603913,0
-1.6203508,0.56096005,-3.4243736,-0.8718791,-0.0414121,-0.48796707,0
-3.0854113,-2.3401463,2.8492374,-0.45356447,-0.30747366,0.8365041,0
2.7299681,1.2234991,1.0646772,0.77344453,0.33052784,0.54086483,0
3.6389778,3.0883055,-1.6085384,0.59287024,0.59669888,0.54079127,0
0.71902895,2.8795178,-3.8579485,0.45356447,0.30747366,-0.8365041,0
1.4255939,3.3656502,-3.3852911,0.45356447,0.30747366,-0.8365041,0
-2.2270577,1.6714791,-1.4341254,-0.82488555,0.50017631,-0.26341495,0
1.5480374,-2.2163105,2.611927,0.82190806,-0.50722539,0.25920948,0
-0.069882035,1.1857586,4.1470375,0.43619233,0.74191397,0.50921494,0
-0.58439314,-3.6602371,1.7396693,0.22874632,-0.94732225,-0.2241776,0
0.63393593,-3.0985651,3.2026255,0.71463066,-0.6863085,0.13521653,0
2.4554741,1.3287368,-3.4961317,0.45356447,0.30747366,-0.8365041,0
-1.4002197,2.6577156,-1.8884449,-0.71542329,0.68532586,-0.13600749,0
1.8041494,-0.21962595,2.74892,0.86107141,0.090892538,0.50029457,0
1.9916234,2.0895822,-3.6476593,0.45356447,0.30747366,-0.8365041,0
3.6761079,1.2328815,-2.9669306,0.45356447,0.30747366,-0.8365041,0
3.2477286,2.7272863,-2.5533288,0.45356447,0.30747366,-0.8365041,0
0.90962702,3.6198883,-1.0916386,-0.085375398,0.94927543,0.30263329,0
0.40592247,-3.3622427,1.9816418,0.50949407,-0.85955811,-0.0396927,0
-1.2817047,-3.6424453,3.3576384,-0.45356447,-0.30747366,0.8365041,0
-3.1867952,-1.6955526,3.0587907,-0.45356447,-0.30747366,0.8365041,0
3.5610394,-0.49936175,-0.71322954,0.85702568,-0.40798688,0.31472787,0
2.61673,3.6455431,-2.5718262,0.45356447,0.30747366,-0.8365041,0
2.3076222,3.209157,-0.88544893,0.35319683,0.79973382,0.48546642,0
-1.1238272,-2.4797142,3.8744535,-0.45356447,-0.30747366,0.8365041,0
-3.9598527,0.14029241,1.2184132,-0.87752748,0.31799307,-0.35892323,0
-0.61460066,3.1508152,-1.9962881,-0.54141402,0.84061462,0.015422285,0
-2.5915182,-2.559876,-0.071056366,-0.55597383,-0.63595456,-0.53521472,0
-2.0850003,1.9463603,-0.86285365,-0.76855409,0.61015475,-0.19244647,0
-3.5778961,-0.92239189,3.211551,-0.45356447,-0.30747366,0.8365041,0
2.6862752,0.10294467,1.5033319,0.86937362,0.05391711,0.49120507,0
-2.601562,1.0009822,-1.0693301,-0.87078124,0.3527683,-0.34248301,0
-1.7149475,-2.3718455,3.5354078,-0.45356447,-0.30747366,0.8365041,0
-2.8370337,0.16422558,3.9237008,-0.45356447,-0.30747366,0.8365041,0
-0.81076401,2.127064,2.9425988,0.070069581,0.92339373,0.37740451,0
0.047739863,0.25860643,5.0358381,0.64405596,0.53567725,0.54611516,0
-2.4178348,0.59903717,4.1957216,-0.45356447,-0.30747366,0.8365041,0
3.5253079,0.46077478,-0.16310072,0.88229847,-0.022413298,0.47015637,0
1.7337708,3.8528786,-3.1327064,0.45356447,0.30747366,-0.8365041,0
-1.3389776,2.6357398,0.28557825,-0.45912451,0.88508177,0.076385558,0
-0.38855612,1.4565792,-5.0384645,0.45356447,0.30747366,-0.8365041,0
-2.3147931,1.2857432,4.5046892,-0.45356447,-0.30747366,0.8365041,0
3.403955,0.29519224,-3.3953543,0.45356447,0.30747366,-0.8365041,0
-0.25328559,-3.626636,2.4337919,0.42387709,-0.90006989,-0.10100639,0
3.0775189,3.7238727,-2.3776593,0.45356447,0.30747366,-0.8365041,0
-0.28753185,-1.4269609,-3.620224,-0.46889925,-0.71586192,-0.51737309,0
4.1236959,2.3191345,-1.6354268,0.76840442,0.34056461,0.54182112,0
-2.9836531,-2.119504,2.9849586,-0.45356447,-0.30747366,0.8365041,0
1.0953342,2.3615799,-4.0098109,0.45356447,0.30747366,-0.8365041,0
-1.7076018,-3.4639442,0.95258379,-0.14230579,-0.90157342,-0.40855145,0
3.1429453,-1.0446754,-4.0621233,0.45356447,0.30747366,-0.8365041,0
2.5067909,-0.22536045,1.6560869,0.88779199,-0.073592037,0.45432329,0
0.44481122,-1.4872551,4.9943581,-0.45356447,-0.30747366,0.8365041,0
0.12641782,-3.4109135,3.0177636,0.5965488,-0.80206543,0.028642178,0
-2.0064931,0.19471192,-2.3788497,-0.87544012,-0.022152513,-0.48281869,0
-2.342747,1.9220324,2.9947174,-0.33820599,0.92777455,0.15764177,0
3.7287426,0.14962292,-0.82058799,0.89089632,-0.18185556,0.41621205,0
2.6303518,2.9582276,-2.8827283,0.45356447,0.30747366,-0.8365041,0
1.4617914,1.0825934,-4.197401,0.45356447,0.30747366,-0.8365041,0
1.4092703,-0.52137899,3.6322737,0.8666423,0.0667568,0.4944436,0
0.74692118,-1.0853229,-4.9299011,-0.39171538,-0.77430332,-0.49700415,0
3.7568202,0.43148613,-0.71397513,0.88835895,-0.08078441,0.45198697,0
3.3564544,-0.16883826,0.16301559,0.89115644,-0.16797897,0.42145368,0
0.26062578,-3.4126785,3.216583,0.64714003,-0.75897181,0.071913362,0
-4.2615013,-2.1156824,2.3858683,-0.45356447,-0.30747366,0.8365041,0
-2.387331,-3.0951076,2.9961066,-0.45356447,-0.30747366,0.8365041,0
3.5858903,1.3520513,-2.9309218,0.45356447,0.30747366,-0.8365041,0
0.144072,3.4633765,-4.123179,0.45356447,0.30747366,-0.8365041,0
-1.3717271,-0.046270132,-3.5703557,-0.80169988,-0.26923639,-0.5336563,0
-0.50594783,-2.8394861,4.0838027,-0.45356447,-0.30747366,0.8365041,0
-1.1970484,0.99372005,-4.2840328,-0.87416351,-0.029284239,-0.48474795,0
0.34697545,1.3888662,3.6379876,0.45792401,0.72482544,0.51471686,0
-2.6529565,-0.25188351,3.9259815,-0.45356447,-0.30747366,0.8365041,0
2.1779566,-0.05907774,-4.3271594,0.45356447,0.30747366,-0.8365041,0
-3.2888606,-0.63157797,3.3567135,-0.45356447,-0.30747366,0.8365041,0
3.7200937,-1.0132728,-2.8541627,0.65438676,-0.75208747,0.078373134,0
-4.5619459,-0.030436516,2.8092375,-0.84675652,0.44144934,-0.29686001,0
-1.9473723,-2.5934026,3.4327497,-0.45356447,-0.30747366,0.8365041,0
-1.4898255,-1.2016208,-2.5516355,-0.66567385,-0.5072093,-0.5473727,0
-1.3731943,-1.3554983,4.0193992,-0.45356447,-0.30747366,0.8365041,0
-1.551276,2.2833283,-1.7810069,-0.75335807,0.63375038,-0.17553389,0
-1.1246152,1.2665186,4.9750214,0.26976848,0.84720415,0.45767909,0
-3.6000135,0.80478168,1.1695316,-0.83073527,0.48575252,-0.27188849,0
3.7430947,0.0077693462,-1.0709432,0.88357693,-0.27782592,0.37696752,0
3.9484992,-0.94423676,-3.5861933,0.45356447,0.30747366,-0.8365041,0
2.9373121,-1.3768897,-4.2621026,0.287848,-0.9388383,-0.18901336,0
-2.0467753,-3.3504329,3.0691147,-0.45356447,-0.30747366,0.8365041,0
-1.7714336,-1.7311897,3.8368299,-0.45356447,-0.30747366,0.8365041,0
4.0012088,-0.51634502,-2.1967716,0.81815243,-0.51585943,0.25399953,0
2.0725207,-2.0174329,1.2459316,0.7898882,-0.57337189,0.21753442,0
-0.95913577,-0.97152376,4.4738131,-0.45356447,-0.30747366,0.8365041,0
-0.44902158,-0.18032312,5.184433,-0.45356447,-0.30747366,0.8365041,0
0.22389627,2.4896755,-4.2337956,0.45356447,0.30747366,-0.8365041,0
0.47569945,-3.0435405,-0.40144348,0.22925007,-0.94726962,-0.22388518,0
0.57629323,1.1090841,-4.5963125,0.45356447,0.30747366,-0.8365041,0
-2.8050387,-1.1429863,3.5256276,-0.45356447,-0.30747366,0.8365041,0
-1.7521524,2.4209399,0.78701591,-0.47236228,0.87886024,0.066921055,0
-3.6917083,-2.0175142,0.85734534,-0.74649376,-0.38166621,-0.54504853,0
-2.2188675,-0.32823801,3.9535809,-0.45356447,-0.30747366,0.8365041,0
-2.8708344,0.073806867,-1.0192772,-0.8886264,0.084422797,-0.45079464,0
-2.0142226,2.2464662,2.151648,-0.34445992,0.9261418,0.15365076,0
-1.6189747,1.4013953,-2.999047,-0.88503939,0.26577294,-0.38219088,0
0.26664817,-0.3088131,-5.3577471,0.45356447,0.30747366,-0.8365041,0
3.6207528,-0.28431773,-0.6512022,0.88051534,-0.29966193,0.36728126,0
3.0442085,2.3087885,-2.8311901,0.45356447,0.30747366,-0.8365041,0
-1.1251032,-0.72170997,-3.3057332,-0.71034491,-0.44211879,-0.5476687,0
1.2880558,0.96102524,-4.3175058,0.45356447,0.30747366,-0.8365041,0
-1.3997436,-1.6294165,4.0723219,-0.45356447,-0.30747366,0.8365041,0
0.64348429,2.5777211,-4.1409049,0.45356447,0.30747366,-0.8365041,0
0.34898686,-1.7187417,-3.5872972,-0.26276386,-0.85074347,-0.45518196,0
2.367316,-1.8178554,-3.2958503,0.27820334,-0.94054663,-0.19487071,0
-3.8087697,-0.75064278,3.1564608,-0.45356447,-0.30747366,0.8365041,0
0.30558509,1.5071478,-4.6019864,0.45356447,0.30747366,-0.8365041,0
1.0377504,-0.67454576,4.1522331,0.85297859,0.12224136,0.50742936,0
-3.8275726,-1.7622914,2.6501913,-0.45356447,-0.30747366,0.8365041,0
1.0794535,0.22408915,-4.8198838,0.45356447,0.30747366,-0.8365041,0
-2.43434,0.16499996,-1.8000892,-0.88273728,0.025772676,-0.46915945,0
-4.2002702,-0.4561646,1.6315992,-0.88992274,0.20694302,-0.40646282,0
1.0516323,1.3922358,-4.3500428,0.45356447,0.30747366,-0.8365041,0
-1.5554292,-1.3569841,-2.11655,-0.63584399,-0.54604232,-0.54547232,0
2.0788381,1.5384769,-3.7721357,0.45356447,0.30747366,-0.8365041,0
1.4473758,-1.6399686,3.5113368,0.88374203,-0.27652887,0.37753385,0
1.328438,3.1729743,-3.4261909,0.45356447,0.30747366,-0.8365041,0
-0.17824292,-1.1812737,-3.8687284,-0.49613449,-0.69260514,-0.523592,0
-2.6688824,0.12016869,3.9142504,-0.45356447,-0.30747366,0.8365041,0
-3.3022318,1.1220846,3.9204245,-0.45356447,-0.30747366,0.8365041,0
-0.52931333,3.2617199,-1.2786794,-0.42970848,0.8977437,0.096989512,0
-1.7732365,0.7045846,4.7796593,-0.45356447,-0.30747366,0.8365041,0
-3.4588475,1.2630453,2.9956715,-0.58891124,0.80788827,-0.022360682,0
1.9820405,1.3154782,1.9102857,0.68491185,0.48029941,0.54791248,0
1.8849607,3.9219029,-1.8532763,0.06861046,0.92376977,0.37675154,0
-1.0600178,-2.8285437,-0.83110714,-0.25853315,-0.85284895,-0.45366198,0
2.9962161,-1.4453073,-4.0138144,0.35240027,-0.92398381,-0.14855218,0
-2.7463784,-3.3543787,2.5936263,-0.45356447,-0.30747366,0.8365041,0
2.9877324,-0.6730873,0.32641435,0.87412322,-0.33646145,0.35028896,0
0.084163427,-1.3209634,5.056458,-0.45356447,-0.30747366,0.8365041,0
1.2553589,2.2559741,-3.9766693,0.45356447,0.30747366,-0.8365041,0
3.8182817,0.31142426,-3.1485925,0.45356447,0.30747366,-0.8365041,0
0.17929935,1.5885706,-4.7385178,0.45356447,0.30747366,-0.8365041,0
1.4068894,-2.577579,-1.2616639,0.30852765,-0.93473613,-0.1762929,0
-2.1016049,-2.2566793,-0.87118816,-0.54078257,-0.65111113,-0.53254896,0
-0.047124028,1.8832197,-4.8092613,0.45356447,0.30747366,-0.8365041,0
1.416924,-1.5742159,-4.4929233,-0.10330978,-0.9141354,-0.39202476,0
0.21562088,0.30863762,-5.1906786,0.45356447,0.30747366,-0.8365041,0
-2.6695204,-0.41413546,3.7471337,-0.45356447,-0.30747366,0.8365041,0
-0.96218914,2.015841,-4.0861526,-0.87923855,0.307787,-0.3636024,0
-2.718996,-2.8269048,0.77873826,-0.50302637,-0.68648183,-0.52507812,0
-3.8355124,-2.2910168,2.3774319,-0.45356447,-0.30747366,0.8365041,0
1.3136106,2.8247142,0.44074535,0.24457625,0.85962433,0.44858474,0
1.5349004,3.3811958,-3.2277949,0.45356447,0.30747366,-0.8365041,0
2.4372449,-1.2128963,-4.5139289,0.45356447,0.30747366,-0.8365041,0
-1.5275276,0.5769558,-3.5400672,-0.86962169,-0.052711919,-0.49089658,0
-4.4526935,-0.14693069,2.420871,-0.85916775,0.40032029,-0.31870729,0
2.3816264,0.46762598,1.9221715,0.83964986,0.1672346,0.5167405,0
1.4480184,-2.5777559,1.8699627,0.73095518,-0.66533291,0.15177792,0
3.7851384,2.4741888,-2.4677532,0.45356447,0.30747366,-0.8365041,0
-1.1060066,1.6650362,3.7612903,0.12743402,0.90658242,0.40232891,0
-2.0360868,-0.97981024,3.8724623,-0.45356447,-0.30747366,0.8365041,0
-1.7617527,1.3379425,-2.6800961,-0.88488245,0.2671335,-0.38160565,0
2.8003879,1.9965065,-3.1099105,0.45356447,0.30747366,-0.8365041,0
-2.3116176,-2.9211695,2.9705577,-0.45356447,-0.30747366,0.8365041,0
0.76490366,-1.3685269,-4.3358326,-0.28806514,-0.83764172,-0.46408486,0
3.8422186,2.5131412,-1.6966171,0.69671321,0.46297711,0.54794419,0
-2.0309298,0.6387794,-2.3910475,-0.88767958,0.072238639,-0.45475978,0
-2.0042202,2.3833122,1.0481429,-0.47635359,0.87691826,0.064042985,0
-2.4363968,-3.9020264,2.1031775,-0.18187156,-0.88691741,-0.42461741,0
-2.7739735,-2.6451843,0.42789531,-0.54864997,-0.64333129,-0.53395504,0
-2.4810431,-0.35169184,-1.5324503,-0.85892463,-0.099585444,-0.50232577,0
-2.3940849,-1.939738,3.4585488,-0.45356447,-0.30747366,0.8365041,0
-1.4760928,1.033462,5.0288,-0.45356447,-0.30747366,0.8365041,0
-1.1633862,2.4361472,1.5957112,-0.20107126,0.94970602,0.24005961,0
-1.7200978,0.76592159,-2.9657588,-0.8861981,0.056064352,-0.45990169,0
-3.0541196,-2.6824527,0.70218468,-0.57657218,-0.61448443,-0.53849161,0
-3.9382458,-1.9411392,2.5916185,-0.45356447,-0.30747366,0.8365041,0
0.8403964,-2.2622054,-2.2209904,0.035127908,-0.94404036,-0.32795393,0
1.9911897,0.76684642,2.2229805,0.78645629,0.30344605,0.53796542,0
-0.60631216,-1.8183479,4.3669677,-0.45356447,-0.30747366,0.8365041,0
0.24937296,0.25745296,-5.0694346,0.45356447,0.30747366,-0.8365041,0
-1.1754287,-2.7897682,-0.81431651,-0.26769328,-0.84825957,-0.45694172,0
-0.6382975,-1.0455294,4.5897045,-0.45356447,-0.30747366,0.8365041,0
2.5939431,3.3716474,-2.7360764,0.45356447,0.30747366,-0.8365041,0
-1.9962859,2.087424,-0.34524512,-0.69893432,0.70507962,-0.11980611,0
-2.5012145,-2.4548841,3.2038341,-0.45356447,-0.30747366,0.8365041,0
-3.0818489,-2.2322288,2.8808715,-0.45356447,-0.30747366,0.8365041,0
-3.4915566,0.7021122,3.7802067,-0.45356447,-0.30747366,0.8365041,0
1.8875999,2.1589622,0.89353251,0.53675628,0.65503609,0.53180844,0
3.8650997,1.1221023,-2.9507403,0.45356447,0.30747366,-0.8365041,0
1.5273545,-1.5749474,3.2552388,0.88609314,-0.25614554,0.38630095,0
-1.7635816,0.80412197,-3.1493175,-0.88855541,0.083438396,-0.45111796,0
-3.7278569,0.27007103,3.5627704,-0.45356447,-0.30747366,0.8365041,0
3.1994741,3.0047879,-1.3851218,0.55947167,0.6323849,0.53579915,0
-1.8020015,-4.2268925,2.5772853,0.041862667,-0.94491613,-0.32462412,0
-1.8322039,0.63353205,4.7142925,-0.45356447,-0.30747366,0.8365041,0
-3.5305083,-1.9015932,0.82628083,-0.75909829,-0.35849905,-0.54336739,0
-0.5776,-3.4558814,0.95556784,0.10853796,-0.95067251,-0.29058778,0
1.5124167,3.0792742,-3.5306814,0.45356447,0.30747366,-0.8365041,0
3.8187222,1.5426972,-0.75904071,0.82324791,0.21498536,0.52539891,0
2.3981481,-2.0402417,-2.019546,0.44480565,-0.89144146,-0.086487055,0
-2.7762401,-2.716274,2.9520104,-0.45356447,-0.30747366,0.8365041,0
0.99876159,3.0417893,0.26196718,0.13216516,0.90501827,0.40431935,0
-0.30478227,3.3498743,-3.4256532,-0.65402973,0.75243121,-0.078053176,0
1.1193924,2.9198709,0.26602149,0.19462276,0.88177651,0.42964172,0
2.8134637,1.6566353,-3.285166,0.45356447,0.30747366,-0.8365041,0
0.21375394,2.7500365,-4.3318114,0.45356447,0.30747366,-0.8365041,0
-0.58964789,0.49607849,-4.9851289,-0.82038146,-0.22268432,-0.52667451,0
1.8707848,0.26188135,-4.3626871,0.45356447,0.30747366,-0.8365041,0
-1.0609646,-1.7475266,4.0566678,-0.45356447,-0.30747366,0.8365041,0
-0.98001397,2.2495232,-3.7723198,-0.85689938,0.40843076,-0.31449619,0
-0.76748115,0.25647593,5.1177292,-0.45356447,-0.30747366,0.8365041,0
3.2201078,-0.27164519,-0.0021652114,0.88732868,-0.24345043,0.39163724,0
-3.8844147,0.46599674,3.3802214,-0.45356447,-0.30747366,0.8365041,0
1.6062706,-2.3349419,-2.2534151,0.24155179,-0.94588149,-0.21670485,0
-2.4159198,-0.046737671,4.0708818,-0.45356447,-0.30747366,0.8365041,0
3.2944553,2.7077556,-2.5345094,0.45356447,0.30747366,-0.8365041,0
1.2292203,-2.5968049,-1.0295293,0.319244,-0.93237042,-0.16961265,0
2.3724473,2.5944593,-3.0830505,0.45356447,0.30747366,-0.8365041,0
-1.0577147,2.7138858,0.79337025,-0.29468942,0.93754798,0.18482971,0
-0.0052525997,-0.8932519,5.0948777,-0.45356447,-0.30747366,0.8365041,0
3.5218256,0.79106712,-3.1378939,0.45356447,0.30747366,-0.8365041,0
-2.2361984,-0.85318297,-1.8827109,-0.76639169,-0.34450763,-0.54217917,0
0.31395406,2.1879606,-4.4944167,0.45356447,0.30747366,-0.8365041,0
-2.2159083,1.9398277,2.250854,-0.39219293,0.91169536,0.12245905,0
1.2418826,-2.6917586,0.08060503,0.44742182,-0.89030761,-0.084651768,0
3.9743459,2.1088023,-2.3602047,0.45356447,0.30747366,-0.8365041,0
2.8093996,-1.210247,0.067478895,0.83328414,-0.47920793,0.27567613,0
1.103356,-2.4168205,-2.2952595,0.11156134,-0.95080715,-0.28899801,0
1.3835156,-0.73368907,3.5586123,0.87952864,-0.0028721094,0.47583729,0
0.57101583,-0.66319418,-5.3561811,0.45356447,0.30747366,-0.8365041,0
-1.1093893,2.5365617,-3.0534387,-0.80515033,0.54379696,-0.23668063,0
1.3874993,3.8374352,-1.6407189,0.0070315599,0.93733811,0.34834987,0
-0.035665154,1.8139343,3.1609132,0.29899314,0.83170831,0.46782935,0
-3.2799869,-0.59897727,-0.401164,-0.87047803,-0.048498139,-0.48981208,0
2.8408706,-0.40430677,1.0920817,0.89119393,-0.1641193,0.42289275,0
-3.4283102,0.84360409,3.937218,-0.45356447,-0.30747366,0.8365041,0
-4.6989207,-0.21034098,2.7788966,-0.45356447,-0.30747366,0.8365041,0
-2.9545522,-3.0217559,2.7307236,-0.45356447,-0.30747366,0.8365041,0
-1.217355,-2.3683329,3.8976557,-0.45356447,-0.30747366,0.8365041,0
-1.5081396,-4.2623682,2.900619,-0.45356447,-0.30747366,0.8365041,0
-1.1836265,2.5404935,-2.3492286,-0.75785542,0.6269666,-0.180466,0
-0.688887,-3.5314188,3.7594135,-0.45356447,-0.30747366,0.8365041,0
4.6288586,1.1956184,-2.3618116,0.45356447,0.30747366,-0.8365041,0
-0.49585533,1.4776249,-5.2037244,0.45356447,0.30747366,-0.8365041,0
4.3035717,0.99866629,-1.8244147,0.8884787,-0.082391948,0.45146102,0
-0.68333668,3.0387402,-3.1666954,-0.71530211,0.6854763,-0.13588655,0
0.27905405,-3.4883244,1.7354231,0.42368954,-0.90014362,-0.10113513,0
0.30397129,0.69227505,4.5986156,0.60169864,0.58675277,0.54192221,0
-1.3468115,-4.2287974,2.709909,0.16871223,-0.95125306,-0.25817376,0
0.53093362,2.2935212,-4.2309399,0.45356447,0.30747366,-0.8365041,0
-2.3672872,-0.9103179,3.8166804,-0.45356447,-0.30747366,0.8365041,0
-2.2507334,-0.73981875,-1.7711718,-0.79521894,-0.28414214,-0.53562111,0
2.2164409,-0.68670034,-4.4272432,0.45356447,0.30747366,-0.8365041,0
0.14161468,1.3955996,3.7308986,0.43539238,0.74252665,0.50900638,0
-1.6154625,-2.7548757,3.3861451,-0.45356447,-0.30747366,0.8365041,0
-2.2376747,-2.618521,3.1601372,-0.45356447,-0.30747366,0.8365041,0
2.5120485,1.9041693,0.80181646,0.665097,0.50799239,0.54734778,0
2.3831491,2.2830496,-3.1301107,0.45356447,0.30747366,-0.8365041,0
-2.7767744,-0.34413958,3.7785749,-0.45356447,-0.30747366,0.8365041,0
0.58468294,2.2053421,-4.1355848,0.45356447,0.30747366,-0.8365041,0
1.1095345,2.8303981,-3.8234348,0.45356447,0.30747366,-0.8365041,0
-2.4083943,-0.83719683,3.7890296,-0.45356447,-0.30747366,0.8365041,0
-3.2631333,1.0923975,1.1626875,-0.77001137,0.60778689,-0.194107,0
-0.79591256,-1.0669713,4.5558677,-0.45356447,-0.30747366,0.8365041,0
-1.9773598,-2.4258442,3.3061152,-0.45356447,-0.30747366,0.8365041,0
-3.4700944,-2.7943985,2.3535149,-0.45356447,-0.30747366,0.8365041,0
-3.2193012,-3.474875,2.350461,-0.45356447,-0.30747366,0.8365041,0
1.1037898,0.51381063,-4.52526,0.45356447,0.30747366,-0.8365041,0
-1.5074685,-0.8759594,4.2858229,-0.45356447,-0.30747366,0.8365041,0
2.0431902,-2.130368,-1.8126554,0.40108037,-0.90860397,-0.11650395,0
0.4231984,1.0845151,-4.689117,0.45356447,0.30747366,-0.8365041,0
-0.42398071,-2.3246222,-2.1570907,-0.25643405,-0.85388452,-0.4529044,0
-3.7646353,0.96752691,3.767674,-0.45356447,-0.30747366,0.8365041,0
-2.1641135,1.9585068,-0.98030007,-0.76725286,0.61225283,-0.19096971,0
1.3078263,3.625577,-1.0558853,0.075255185,0.92203641,0.37971723,0
-1.8185194,-3.6796136,3.0057373,-0.45356447,-0.30747366,0.8365041,0
-1.7588542,1.6107442,-2.4624958,-0.86423987,0.38095668,-0.32857496,0
4.1326003,0.93023944,-1.5529628,0.88759661,-0.071252733,0.45507717,0
2.7995908,1.7475643,-3.3110452,0.45356447,0.30747366,-0.8365041,0
1.6001863,-2.5136333,0.53669715,0.60855412,-0.79257095,0.038641512,0
-2.4506383,1.1253734,4.3759766,-0.45356447,-0.30747366,0.8365041,0
-1.7362132,-0.73518479,-2.527916,-0.74457389,-0.38509023,-0.54526615,0
3.720922,1.1480947,-3.0520501,0.45356447,0.30747366,-0.8365041,0
0.42856395,0.5837779,-4.8541594,0.45356447,0.30747366,-0.8365041,0
-1.5843663,0.36718607,4.5403552,-0.45356447,-0.30747366,0.8365041,0
-1.5097641,-1.4839416,3.9558775,-0.45356447,-0.30747366,0.8365041,0
2.2748818,-1.8195989,-3.0714524,0.31555548,-0.93320328,-0.17191875,0
2.6758485,1.6321459,-3.22101,0.45356447,0.30747366,-0.8365041,0
0.56714272,3.4747987,-3.9123473,0.45356447,0.30747366,-0.8365041,0
3.0067229,2.3888221,-0.45799518,0.64930642,0.52892429,0.54647982,0
-1.7339923,-2.4154923,3.4402328,-0.45356447,-0.30747366,0.8365041,0
-2.3222647,-1.3255143,3.6732035,-0.45356447,-0.30747366,0.8365041,0
1.7664155,0.27640963,-4.3471394,0.45356447,0.30747366,-0.8365041,0
1.4819317,-2.7333128,0.11375451,0.52102202,-0.85297918,-0.0310238,0
-0.86839592,1.0185046,5.1846075,0.35484931,0.79869032,0.48597884,0
-1.3925167,1.1409404,-3.8345301,-0.88834733,0.080630049,-0.45203739,0
-1.3049271,0.57500315,4.9282761,-0.45356447,-0.30747366,0.8365041,0
1.7110448,-2.4964457,0.06221962,0.57400346,-0.81878841,0.010270953,0
-0.017908275,2.474689,-4.5096259,0.45356447,0.30747366,-0.8365041,0
-0.66513127,-1.932301,4.2029901,-0.45356447,-0.30747366,0.8365041,0
-1.2765356,-4.1588874,3.2463098,-0.45356447,-0.30747366,0.8365041,0
0.33996522,3.7674465,-2.7875457,-0.45580783,0.88658875,0.078737795,0
2.2833869,3.0955174,-0.69144249,0.37854013,0.78326595,0.49315482,0
-3.7015936,-0.043197632,0.86099166,-0.88867545,0.22695702,-0.39842993,0
-3.9606991,-1.6354146,2.5281401,-0.45356447,-0.30747366,0.8365041,0
-3.9389791,0.74005222,3.5186653,-0.45356447,-0.30747366,0.8365041,0
-1.1926364,1.3674107,4.6710448,0.1848937,0.88571763,0.42581522,0
1.2931287,4.1241088,-2.5534186,-0.15717757,0.95148689,0.26451397,0
1.0376885,-1.2259979,-4.7500877,-0.29573929,-0.83349252,-0.46672082,0
-0.72810125,0.92894459,-4.980176,-0.85069925,-0.13044703,-0.50920957,0
1.8305802,-0.34933114,2.9618778,0.87042719,0.048750669,0.48987731,0
-0.7039448,0.060741425,-4.4051423,-0.76503241,-0.34715003,-0.54241341,0
1.0895206,1.4074721,2.8727541,0.59930426,0.58947271,0.54162371,0
-0.15627301,-2.5858173,-1.6658838,-0.13418305,-0.90434289,-0.40516514,0
-2.3542345,-2.677285,3.1792004,-0.45356447,-0.30747366,0.8365041,0
1.3465735,-2.2147701,-2.3376997,0.18805462,-0.95048738,-0.24740469,0
0.94596422,-3.0093017,1.3294823,0.53790146,-0.84281266,-0.018134713,0
-1.0285206,-3.6315355,0.96795082,0.021119952,-0.94204658,-0.33481634,0
-3.4569986,-3.4106297,2.069603,-0.50326574,-0.68626738,-0.52512902,0
-2.0523076,-0.05655098,4.2550745,-0.45356447,-0.30747366,0.8365041,0
1.1314938,-2.8121276,0.068509817,0.42494369,-0.89964885,-0.10027337,0
-1.6301825,-1.9949944,3.6820047,-0.45356447,-0.30747366,0.8365041,0
-0.18778384,-0.87613344,4.8523922,-0.45356447,-0.30747366,0.8365041,0
-0.61679411,-0.98805118,-3.7280242,-0.61351985,-0.57307428,-0.54330409,0
0.51743078,1.4416885,-4.4793596,0.45356447,0.30747366,-0.8365041,0
-1.8028573,0.70808935,-2.8659024,-0.88805491,0.076847091,-0.45326936,0
0.6562283,1.5341234,-4.3718834,0.45356447,0.30747366,-0.8365041,0
-3.018492,1.4990873,3.3732967,-0.47079581,0.87961394,0.068047345,0
2.6381574,-0.62270707,1.5158936,0.89122021,-0.15899941,0.42478892,0
0.66102922,1.5826621,3.0534728,0.50746316,0.68248725,0.52601558,0
-3.4334414,-0.43637884,-0.01563096,-0.88128436,0.014949501,-0.47234997,0
-3.0702596,0.50635481,3.8450308,-0.45356447,-0.30747366,0.8365041,0
-1.7254175,-1.8163457,3.8177063,-0.45356447,-0.30747366,0.8365041,0
-2.300071,-1.6142344,3.540278,-0.45356447,-0.30747366,0.8365041,0
-2.471087,0.076836586,3.9794888,-0.45356447,-0.30747366,0.8365041,0
1.2711194,2.9525146,0.4672718,0.23928809,0.86212367,0.44663614,0
-3.9491658,-2.635566,1.6845393,-0.70982325,-0.44293481,-0.54768574,0
-1.2391062,-3.1403236,3.5651817,-0.45356447,-0.30747366,0.8365041,0
-0.84620452,-2.0204954,-2.4713268,-0.42126811,-0.75315946,-0.5052563,0
-0.37298548,0.83694077,-5.3351631,0.45356447,0.30747366,-0.8365041,0
-2.6804342,-1.0144029,3.6278093,-0.45356447,-0.30747366,0.8365041,0
-0.77785611,-3.2192817,3.7453091,-0.45356447,-0.30747366,0.8365041,0
1.5297291,3.3787861,-3.3687606,0.45356447,0.30747366,-0.8365041,0
1.6767757,0.44120789,-4.34057,0.45356447,0.30747366,-0.8365041,0
-0.11965308,-3.2483423,4.1723652,-0.45356447,-0.30747366,0.8365041,0
-0.73369145,1.1526575,4.8871126,0.39079508,0.77493858,0.49673879,0
-2.2639067,1.0685077,4.5786047,-0.45356447,-0.30747366,0.8365041,0
-0.23574054,-2.253808,-2.2700019,-0.24251682,-0.86060208,-0.4478274,0
-4.0124717,-0.80532551,2.9197998,-0.45356447,-0.30747366,0.8365041,0
2.97595,-1.5579016,-0.93577123,0.71718425,-0.68312967,0.13776958,0
3.394407,-1.3269968,-3.9040546,0.46358156,-0.88302433,-0.073212743,0
2.7362792,-0.16253233,-3.9429233,0.45356447,0.30747366,-0.8365041,0
-0.51875281,-1.7902946,4.3926563,-0.45356447,-0.30747366,0.8365041,0
-1.0482324,-0.78368855,-3.4579773,-0.67145824,-0.49928254,-0.5475955,0
1.6155078,3.8428714,-1.8585639,-0.003406018,0.93919313,0.34337234,0
-3.2772598,1.3863873,3.8761761,-0.4394961,0.89370435,0.090197742,0
2.0848231,0.78193045,-3.9829264,0.45356447,0.30747366,-0.8365041,0
-2.6422937,1.0790815,4.2841277,-0.45356447,-0.30747366,0.8365041,0
