1.0234782,-0.51448202,-4.630106,0.71054006,-0.091022074,-0.69774485,0
2.4812181,-3.0380754,-2.9374149,0.71054006,-0.091022074,-0.69774485,0
2.8426764,-1.7418618,-2.4709196,0.71054006,-0.091022074,-0.69774485,0
0.53977275,-2.5159733,-3.0727639,-0.48448762,-0.78240079,-0.39130652,0
1.5200226,2.7646451,-0.078365564,0.306081,0.93285251,0.19000149,0
-1.9132042,-1.1098518,3.9884825,-0.71054006,0.091022074,0.69774485,0
-2.5756197,-2.3056569,-0.069416046,-0.4718703,-0.79722524,-0.37652397,0
-0.54705203,-1.4074697,4.1398973,0.55797744,-0.53126055,0.63751346,0
-2.1594806,-2.0087712,3.825671,-0.71054006,0.091022074,0.69774485,0
-1.0466893,-2.8214357,0.091570377,-0.24189644,-0.96276087,-0.12073845,0
-2.8248353,-0.35863376,2.9903116,-0.71054006,0.091022074,0.69774485,0
-2.9579165,-2.047533,0.15227842,-0.52512395,-0.72863352,-0.43970209,0
3.7839561,0.19768763,-1.9487177,0.71054006,-0.091022074,-0.69774485,0
1.515718,-2.8744907,0.011269808,0.19578519,-0.92686808,0.32028705,0
-3.1798115,-1.6772552,-0.38860035,-0.60284019,-0.59018427,-0.53690434,0
-3.0877104,-1.5582943,2.728075,-0.71054006,0.091022074,0.69774485,0
3.5205972,-0.43580514,0.66372216,0.69531131,-0.061444551,0.71607745,0
2.9514511,1.0775123,0.81159997,0.66287559,0.41925657,0.62033856,0
-4.1276908,0.39430404,1.400263,-0.71054006,0.091022074,0.69774485,0
1.2620981,-1.9385998,1.9066265,0.49065477,-0.64667428,0.58401227,0
-1.3746353,-0.20257568,4.2378607,-0.71054006,0.091022074,0.69774485,0
0.62817168,1.2989843,3.281666,0.66769946,0.400143,0.62774444,0
1.3997114,-2.1903985,-3.9386516,0.71054006,-0.091022074,-0.69774485,0
0.14795804,-2.3021965,-3.0310767,-0.52628469,-0.72694671,-0.44110429,0
2.7563457,-0.31115985,-2.9579623,0.71054006,-0.091022074,-0.69774485,0
0.6619581,-0.91045785,3.1545422,0.62128913,-0.38438138,0.68282557,0
1.5172268,-0.91276217,2.381073,0.63949573,-0.33015653,0.69429231,0
2.9068162,-1.6184793,-2.7023373,0.71054006,-0.091022074,-0.69774485,0
-4.8252878,0.85542965,0.67168891,-0.71054006,0.091022074,0.69774485,0
-1.6160285,-0.41497803,4.2584243,-0.71054006,0.091022074,0.69774485,0
-1.4501394,-2.8239882,0.69540334,-0.17005812,-0.98441708,-0.044757605,0
1.2141601,0.072564125,-4.5221186,0.71054006,-0.091022074,-0.69774485,0
-3.1302674,2.5616026,2.344707,-0.71054006,0.091022074,0.69774485,0
-3.4601631,0.47741866,2.0225058,-0.71054006,0.091022074,0.69774485,0
3.8939416,1.1651106,-0.26599264,0.63728023,0.50366521,0.58326268,0
4.2330422,-0.6013813,-0.061129332,0.68733406,-0.12256032,0.71592665,0
3.5862503,-0.69901061,-2.0757461,0.71054006,-0.091022074,-0.69774485,0
2.042552,-2.9752133,-0.73044097,0.16048068,-0.94450295,0.28663582,0
-2.9237349,1.4679562,-0.7930727,-0.59304702,0.45622909,-0.6634382,0
0.26615953,0.76100349,-4.3065195,-0.62913251,0.36194631,-0.68788606,0
-3.474457,0.6451757,2.0861638,-0.71054006,0.091022074,0.69774485,0
0.55407238,-2.7955785,1.0432215,0.19488387,-0.92735279,0.3194325,0
-4.2180834,0.61364055,1.4010055,-0.71054006,0.091022074,0.69774485,0
1.9697793,-2.7177565,-3.451443,0.71054006,-0.091022074,-0.69774485,0
1.6306304,-0.74110889,-3.8551681,0.71054006,-0.091022074,-0.69774485,0
2.4902818,-1.6252477,-3.0657883,0.71054006,-0.091022074,-0.69774485,0
-3.9701996,1.1461557,-0.078748345,-0.6525377,0.28581035,-0.70178843,0
0.51306415,0.20098138,3.8315597,0.69923884,-0.01960656,0.71461922,0
4.0028825,-0.42328095,-1.492944,0.71054006,-0.091022074,-0.69774485,0
3.4620748,1.7463341,-2.3045602,0.71054006,-0.091022074,-0.69774485,0
-4.4842014,1.6073163,0.55083531,-0.60993528,0.41478223,-0.67522931,0
0.17316437,0.66897178,4.08004,0.70312953,0.1302214,0.69903594,0
-4.9010191,0.39423323,0.5360465,-0.69738072,0.041050196,-0.71552438,0
1.1436597,-0.55183363,-4.4197898,0.71054006,-0.091022074,-0.69774485,0
-1.7212167,-1.8341796,-1.4937123,-0.58556652,-0.62633967,-0.51459748,0
4.8070989,-0.38751698,-0.44176698,0.69945157,-0.016884208,0.71448064,0
0.041905999,-2.151515,2.650229,0.40237218,-0.76092112,0.50901449,0
4.0216074,0.34353137,-1.7148461,0.71054006,-0.091022074,-0.69774485,0
-2.6522074,-2.3465185,3.3913453,-0.71054006,0.091022074,0.69774485,0
-3.5455179,1.3839359,1.9699764,-0.71054006,0.091022074,0.69774485,0
2.2241037,-1.3709345,1.6601235,0.6109941,-0.41204095,0.67594999,0
0.1821866,-1.044878,-4.1575842,-0.69415212,-0.25310123,-0.67386395,0
1.186118,-0.10417986,-4.606092,0.71054006,-0.091022074,-0.69774485,0
-1.5378442,-1.3435092,4.3734498,-0.71054006,0.091022074,0.69774485,0
-3.9325075,-1.5677428,1.9879794,-0.71054006,0.091022074,0.69774485,0
-3.1011169,1.0058429,2.4767125,-0.71054006,0.091022074,0.69774485,0
-2.9737134,2.8163705,2.2854254,-0.71054006,0.091022074,0.69774485,0
3.0513401,-2.2689958,-2.3871689,0.71054006,-0.091022074,-0.69774485,0
-0.23086238,0.94147396,4.4611454,0.69971824,0.19616592,0.68695945,0
2.2925208,-1.9782176,-3.0837851,0.71054006,-0.091022074,-0.69774485,0
-1.3000281,-0.31514311,4.3971467,-0.71054006,0.091022074,0.69774485,0
-2.7255075,-1.978116,-0.2149291,-0.53556514,-0.71312124,-0.45235837,0
4.5612097,-0.15082669,-0.36940646,0.70293939,0.047055155,0.70969141,0
3.2330351,-0.78214264,-2.2708538,0.71054006,-0.091022074,-0.69774485,0
-0.024349928,-0.22245336,4.1215339,0.67814076,-0.17602837,0.71353978,0
2.4807901,-2.9036293,-0.63423324,0.22107616,-0.91250932,0.34416872,0
0.34627128,-0.21534109,3.6984138,0.67960441,-0.16827184,0.7140184,0
-0.47712278,-0.57853293,-3.7689579,-0.7028228,-0.14006948,-0.69743884,0
-2.8897738,0.36394072,2.6861725,-0.71054006,0.091022074,0.69774485,0
1.9607952,-2.6595695,-3.4168682,0.71054006,-0.091022074,-0.69774485,0
-4.0677376,-0.3715415,1.6038878,-0.71054006,0.091022074,0.69774485,0
-2.1630433,0.0056686401,3.5338631,-0.71054006,0.091022074,0.69774485,0
3.4787493,2.5004253,-1.964355,0.31124789,0.92997324,0.19563884,0
1.7783277,-2.8757749,-3.6101646,0.71054006,-0.091022074,-0.69774485,0
2.1811662,-0.16888785,2.2154737,0.69354773,-0.076886475,0.71629602,0
-2.3977141,-0.25362754,-1.9265556,-0.70364547,-0.086298227,-0.70529115,0
3.8310285,-1.5355327,-1.503234,0.71054006,-0.091022074,-0.69774485,0
-2.6533661,3.0576372,1.1951852,-0.19547537,0.92703485,-0.31999332,0
-0.23909545,0.61125994,4.383213,0.70364809,0.096854389,0.70391667,0
-3.3092601,-2.5915396,1.7556362,-0.29642317,-0.93803871,-0.17949009,0
0.94049382,-0.50193,3.3094747,0.66924,-0.21890578,0.71006912,0
-2.322144,2.5236745,3.0298519,-0.71054006,0.091022074,0.69774485,0
1.963661,2.6108806,-0.77971053,0.28038141,0.94610208,0.16210234,0
1.821599,-1.9118545,-3.6066403,0.71054006,-0.091022074,-0.69774485,0
-4.1922727,0.74227071,1.454583,-0.71054006,0.091022074,0.69774485,0
1.6867464,1.5428607,-4.1752248,0.71054006,-0.091022074,-0.69774485,0
0.58075118,-0.24826431,-4.7346458,-0.7000348,0.0090420544,-0.71405149,0
2.2111969,-2.5844033,-3.2195792,0.71054006,-0.091022074,-0.69774485,0
-4.8476734,-0.94147015,0.92610025,-0.71054006,0.091022074,0.69774485,0
4.5219555,0.72435474,-1.2437255,0.71054006,-0.091022074,-0.69774485,0
3.7218513,2.000556,-0.74864459,0.50962925,0.7503038,0.42109638,0
3.3899231,-1.8194976,-2.0116711,0.71054006,-0.091022074,-0.69774485,0
4.5107908,0.62300348,-0.45803308,0.68551958,0.31322938,0.6572293,0
-4.4308057,1.7506781,1.0425029,-0.71054006,0.091022074,0.69774485,0
-2.456331,-1.5830257,3.3228822,-0.71054006,0.091022074,0.69774485,0
4.230588,-0.78559303,-1.4379153,0.71054006,-0.091022074,-0.69774485,0
-1.6151924,2.4122422,3.7079852,-0.71054006,0.091022074,0.69774485,0
-4.0355039,0.22865224,1.5492724,-0.71054006,0.091022074,0.69774485,0
0.80667853,-0.71930504,-4.9054503,0.71054006,-0.091022074,-0.69774485,0
0.10109985,2.7486649,2.1965275,0.43618229,0.83507901,0.3352434,0
0.37062407,-1.2901061,3.2024014,0.58952761,-0.46437675,0.66091722,0
1.0270743,2.5530469,-2.767647,-0.21506535,0.91605544,-0.33851027,0
-4.6434731,1.1646788,0.81594551,-0.71054006,0.091022074,0.69774485,0
2.5213461,0.094394922,-3.0557892,0.71054006,-0.091022074,-0.69774485,0
-1.7004769,-2.7647054,1.0742412,-0.18315575,-0.98134214,-0.058496594,0
-2.3019106,2.6589618,3.1784441,-0.71054006,0.091022074,0.69774485,0
-2.7314003,1.2363498,2.6859374,-0.71054006,0.091022074,0.69774485,0
4.0774803,-0.30787015,-1.4579071,0.71054006,-0.091022074,-0.69774485,0
4.2439218,0.30408883,-1.4597149,0.71054006,-0.091022074,-0.69774485,0
-2.2468853,-1.4621277,3.758533,-0.71054006,0.091022074,0.69774485,0
-3.3045554,1.6310921,2.2786903,-0.71054006,0.091022074,0.69774485,0
1.4176321,-1.8784002,1.911116,0.50833517,-0.6192466,0.59843886,0
-3.7397385,0.059020281,1.7845582,-0.71054006,0.091022074,0.69774485,0
3.024991,1.7231452,-2.8888118,0.71054006,-0.091022074,-0.69774485,0
-2.9562879,1.2631652,2.5715117,-0.71054006,0.091022074,0.69774485,0
-1.0032358,0.77019739,4.6013436,-0.71054006,0.091022074,0.69774485,0
0.67536378,2.1166375,2.4052711,0.55635786,0.67977518,0.47788239,0
0.49245095,-2.1415691,2.5369234,0.43897063,-0.71764535,0.54063857,0
2.6514928,-2.5480325,-2.5979121,0.71054006,-0.091022074,-0.69774485,0
0.26090884,-0.0694561,-4.4728413,-0.69449794,0.068751127,-0.71620238,0
-1.6559855,1.1370063,-2.1854696,-0.61216974,0.40897596,-0.67674732,0
-4.4069238,-1.9514825,1.633765,-0.71054006,0.091022074,0.69774485,0
3.3608508,-0.94270349,0.80175078,0.66615909,-0.23236607,0.7086876,0
-2.8471601,-2.5854044,2.5327675,-0.13626948,-0.99062586,-0.0095393658,0
4.9401226,-0.48125243,-0.58006454,0.69840121,-0.029740244,0.71508825,0
0.87381077,-1.9417429,-4.4879255,0.71054006,-0.091022074,-0.69774485,0
-1.4385202,-0.60774374,4.2228131,-0.71054006,0.091022074,0.69774485,0
-3.2417624,-2.2910218,1.0938616,-0.39243576,-0.87432319,-0.28557527,0
-1.1839194,-0.25603914,4.4727497,-0.71054006,0.091022074,0.69774485,0
-2.6041369,-1.0167933,3.2100282,-0.71054006,0.091022074,0.69774485,0
-2.1679411,1.1987116,3.3978133,-0.71054006,0.091022074,0.69774485,0
0.40471148,-0.11939454,3.8328776,0.69279647,-0.083049566,0.71633494,0
-2.6355941,-1.8941567,3.3360689,-0.71054006,0.091022074,0.69774485,0
3.948205,-0.50633121,-1.7729963,0.71054006,-0.091022074,-0.69774485,0
2.8554883,-0.44750819,1.4700654,0.69108796,-0.09631139,0.71632504,0
-4.9049945,0.77271891,0.54218936,-0.68904209,0.11104405,-0.71616364,0
3.916904,-0.4020896,0.34656036,0.69820535,-0.03199181,0.71518242,0
0.93056893,-1.9670683,2.2032769,0.47003701,-0.67651945,0.56690973,0
1.1165502,-1.914515,-4.2520275,0.71054006,-0.091022074,-0.69774485,0
4.3047218,1.0996317,-0.42115092,0.64554465,0.47891235,0.59490758,0
-0.49733758,1.9243705,3.957674,0.61256236,0.56797439,0.54970223,0
0.1144135,1.7290608,-3.4083545,-0.51084197,0.61520916,-0.60046494,0
-1.6263559,-2.6526361,2.3074071,0.073107645,-0.97668248,0.20185822,0
-1.780921,0.28257561,3.9242644,-0.71054006,0.091022074,0.69774485,0
-2.4484856,3.374366,2.1956356,0.037403837,0.99508196,-0.091720581,0
2.403558,-1.6197367,-3.1950114,0.71054006,-0.091022074,-0.69774485,0
1.6416978,-0.47402155,2.4487023,0.67567867,-0.18857577,0.71266925,0
-1.5893315,-2.8782706,1.0513306,-0.16338398,-0.98583907,-0.037775517,0
0.26425445,-2.2155223,2.416822,0.37559399,-0.78946161,0.48546833,0
-0.9847765,0.71588182,4.7082705,-0.71054006,0.091022074,0.69774485,0
-1.0464131,0.31385612,-2.9874904,-0.68689054,0.1254496,-0.71585178,0
0.38190305,2.5100985,2.3063822,0.49780881,0.76583999,0.40703249,0
-3.1389675,-1.4418168,2.7055352,-0.71054006,0.091022074,0.69774485,0
3.6135988,-2.786361,-0.98911065,0.35974461,-0.80522096,0.47138417,0
-2.8376698,-2.6663382,1.3618431,-0.27934852,-0.94659817,-0.16098583,0
0.50068969,2.6745489,-2.0832205,-0.18549281,0.93229485,-0.31051391,0
2.8113954,0.59062099,-2.8513107,0.71054006,-0.091022074,-0.69774485,0
-1.1036227,-2.5710902,2.4608927,0.17802879,-0.93608224,0.30340701,0
3.7997108,-0.26499677,-1.865028,0.71054006,-0.091022074,-0.69774485,0
-0.43373072,3.008651,1.3442311,0.22839481,0.96774369,0.1063391,0
-1.8108612,3.2044303,2.2299809,0.14005943,0.99005139,0.013473868,0
1.5633394,2.7296948,-2.6963329,-0.12527785,0.95939207,-0.25272965,0
-3.282887,-1.5564938,2.6910179,-0.71054006,0.091022074,0.69774485,0
1.4564874,0.86708593,-4.3345733,0.71054006,-0.091022074,-0.69774485,0
-2.3891497,2.047811,-0.8873111,-0.47973755,0.66274905,-0.57499176,0
2.5268056,1.1601989,1.3363035,0.6680243,0.39880544,0.6282497,0
2.4799392,1.0796521,-3.2195778,0.71054006,-0.091022074,-0.69774485,0
3.0311677,1.6664903,-2.8745978,0.71054006,-0.091022074,-0.69774485,0
-1.3942299,1.3217955,4.1779661,-0.71054006,0.091022074,0.69774485,0
2.6525805,-2.930418,-2.7165809,0.71054006,-0.091022074,-0.69774485,0
3.9208193,1.7319604,-0.68134093,0.5561415,0.68014044,0.4776144,0
4.1363759,1.9424801,-1.8040175,0.71054006,-0.091022074,-0.69774485,0
-1.6581894,-2.0471034,3.9389668,0.3324382,-0.83053249,0.44687891,0
-2.0253785,-1.6262536,3.9585733,-0.71054006,0.091022074,0.69774485,0
4.0084271,-1.2935431,-1.5489476,0.71054006,-0.091022074,-0.69774485,0
4.3843746,-1.8106608,-0.94619006,0.71054006,-0.091022074,-0.69774485,0
3.2398121,-1.7422769,-2.1969008,0.71054006,-0.091022074,-0.69774485,0
2.5938425,-1.8163376,-2.9762661,0.71054006,-0.091022074,-0.69774485,0
-1.1285391,0.30083609,4.4498916,-0.71054006,0.091022074,0.69774485,0
-3.8012815,-1.0273094,-0.23424554,-0.66850436,-0.39681691,-0.6289978,0
-2.4502468,2.2255154,-0.67027712,-0.44580609,0.70896453,-0.54646695,0
-3.7143347,-0.35474277,1.9433125,-0.71054006,0.091022074,0.69774485,0
3.3646426,2.5600495,-2.5898905,0.16593008,0.98530811,0.040437698,0
-3.4547284,-2.0571196,0.53357577,-0.5085668,-0.75173432,-0.4198277,0
-0.40176201,-2.1410856,3.0479536,0.39277259,-0.77143919,0.50061089,0
-0.57261443,-1.0042346,-3.3511262,-0.69223833,-0.26833227,-0.66992825,0
-2.9302061,-0.68733382,2.721333,-0.71054006,0.091022074,0.69774485,0
-0.7149871,-2.126883,3.0665312,0.34877181,-0.81566477,0.46157253,0
-2.5667684,3.1673195,2.7582574,-0.71054006,0.091022074,0.69774485,0
-2.2423842,-1.9599528,3.6230309,-0.71054006,0.091022074,0.69774485,0
1.7944742,1.9977782,-4.0393,0.71054006,-0.091022074,-0.69774485,0
4.1139493,1.8388627,-1.6592591,0.71054006,-0.091022074,-0.69774485,0
3.6717572,1.337779,-2.1816704,0.71054006,-0.091022074,-0.69774485,0
-3.7806778,2.8848481,1.5086683,-0.31397685,0.84639859,-0.43014878,0
4.7125258,-0.009447813,-0.88894725,0.71054006,-0.091022074,-0.69774485,0
3.8496399,-0.90773416,-1.8242354,0.71054006,-0.091022074,-0.69774485,0
2.6557772,2.7483065,-2.1102719,0.12502755,0.99215102,-0.0021076202,0
-2.9086409,3.2541816,2.0790999,-0.088714734,0.97209775,-0.21715361,0
-1.236215,-1.4814074,4.6333876,0.51014727,-0.61633188,0.59990394,0
-4.375545,2.0377934,0.78759998,-0.54065841,0.56402475,-0.62415105,0
-3.6289728,0.35880327,2.0681102,-0.71054006,0.091022074,0.69774485,0
-4.5265565,-0.4104948,1.056282,-0.71054006,0.091022074,0.69774485,0
-0.97443318,-2.6479862,-0.86847234,-0.38182667,-0.88278788,-0.27366728,0
2.7555931,0.52249122,-3.0351818,0.71054006,-0.091022074,-0.69774485,0
0.09257865,1.3139899,-3.5208347,-0.55333912,0.54027969,-0.63396662,0
-4.0192409,2.3931046,0.89547598,-0.44461116,0.71049654,-0.54544997,0
-2.3111069,-2.6278577,2.532069,-0.025721461,-0.99429536,0.10351449,0
3.3828492,-1.6190021,-2.0875804,0.71054006,-0.091022074,-0.69774485,0
-0.46690881,2.0866427,-2.3569522,-0.40696549,0.75577074,-0.51302016,0
4.8529034,-0.5595386,-0.60743976,0.71054006,-0.091022074,-0.69774485,0
-3.8766513,-0.36486244,1.8133607,-0.71054006,0.091022074,0.69774485,0
1.6786188,-3.2273879,-2.0269489,-0.11985889,-0.99276304,0.007450819,0
4.6955676,0.16483641,-1.0822017,0.71054006,-0.091022074,-0.69774485,0
4.231102,-2.2077341,-1.0775378,0.71054006,-0.091022074,-0.69774485,0
-3.1612623,-1.9422107,2.7458742,-0.71054006,0.091022074,0.69774485,0
0.71451044,-2.6168504,1.3193859,0.28704497,-0.86784685,0.40552098,0
1.8776217,2.3269205,-3.4959438,-0.22107294,0.91251123,-0.34416574,0
2.0696721,-2.5851452,-3.4143872,0.71054006,-0.091022074,-0.69774485,0
-3.4271717,-2.4528782,2.6688824,-0.71054006,0.091022074,0.69774485,0
4.522624,-0.79467535,-0.94961691,0.71054006,-0.091022074,-0.69774485,0
0.42103744,-1.9111789,2.725738,0.4813534,-0.66040921,0.57633197,0
4.3321419,-1.7950988,-1.2126133,0.71054006,-0.091022074,-0.69774485,0
3.7986445,1.7091811,-2.148504,0.71054006,-0.091022074,-0.69774485,0
-1.938217,-1.41434,3.8488436,-0.71054006,0.091022074,0.69774485,0
-1.9441724,-1.2023242,3.9959397,-0.71054006,0.091022074,0.69774485,0
-2.824548,0.65295029,2.7541223,-0.71054006,0.091022074,0.69774485,0
4.8771582,-0.39573622,-0.8470763,0.71054006,-0.091022074,-0.69774485,0
-0.086392879,-0.37590623,4.2299857,0.66516507,-0.23658377,0.70822567,0
1.6805713,0.038922429,2.6188428,0.70086616,0.0033230186,0.71328509,0
2.9165592,0.47613192,-2.8270781,0.71054006,-0.091022074,-0.69774485,0
0.65301633,1.4702554,3.1513085,0.64983106,0.46524376,0.60105574,0
-1.6457821,2.8007107,3.7648129,-0.71054006,0.091022074,0.69774485,0
3.2091384,1.4216182,-2.6358054,0.71054006,-0.091022074,-0.69774485,0
-3.3985643,-1.8506489,2.6435943,-0.71054006,0.091022074,0.69774485,0
2.4138043,-3.2545938,-1.5204567,0.056403443,-0.98103994,0.18541622,0
0.80343342,-1.8551217,2.4365106,0.47401243,-0.67093277,0.57022929,0
-0.11357236,1.9031005,-2.7282557,-0.43565851,0.72178054,-0.5378052,0
-1.2900376,-1.2594316,4.6646109,-0.71054006,0.091022074,0.69774485,0
-3.098449,0.23817396,2.5424957,-0.71054006,0.091022074,0.69774485,0
-1.7942933,-0.99535751,4.1583552,-0.71054006,0.091022074,0.69774485,0
-2.1024914,-2.6777275,1.7103772,-0.12401044,-0.99227595,0.0031596422,0
2.4686937,-2.0544159,-3.0555224,0.71054006,-0.091022074,-0.69774485,0
-3.3005197,-2.1458757,0.90568161,-0.45857197,-0.81200504,-0.36105371,0
-2.3345103,-0.92604089,3.4448004,-0.71054006,0.091022074,0.69774485,0
0.032306232,2.8239107,-1.1036501,-0.11655334,0.96267635,-0.24427354,0
-0.54416883,-1.4812536,3.8210404,0.51983631,-0.60040009,0.60769236,0
2.4363604,-2.7509096,-2.8722034,0.71054006,-0.091022074,-0.69774485,0
3.8014202,-0.060033321,-1.8227584,0.71054006,-0.091022074,-0.69774485,0
-1.6607157,-2.6630476,2.2378373,0.046863321,-0.98327535,0.17599273,0
2.5608985,0.71738791,-3.3322399,0.71054006,-0.091022074,-0.69774485,0
-1.0791146,0.40792704,4.4635196,-0.71054006,0.091022074,0.69774485,0
-2.9623203,1.9825459,2.5237479,-0.71054006,0.091022074,0.69774485,0
1.0448228,0.10690546,-4.6291223,0.71054006,-0.091022074,-0.69774485,0
2.6062684,2.246501,-0.2726171,0.45132342,0.81971562,0.35266644,0
-2.6021502,-2.6002929,2.2059839,-0.11951378,-0.99280179,0.007807374,0
-4.1713009,1.3815749,1.2967165,-0.71054006,0.091022074,0.69774485,0
-0.27267727,-2.9782155,0.89763427,0.026445411,-0.98744339,0.15574414,0
-3.0058846,1.3897738,2.385273,-0.71054006,0.091022074,0.69774485,0
-4.712111,-1.0583144,1.0368047,-0.71054006,0.091022074,0.69774485,0
3.2823677,-0.60259891,-2.4170732,0.71054006,-0.091022074,-0.69774485,0
-3.2602949,2.26054,0.15673107,-0.46840918,0.67878479,-0.56554759,0
-0.61213684,1.9155123,3.9804981,0.62348497,0.54110843,0.56432986,0
-2.7582817,0.28433084,2.9772952,-0.71054006,0.091022074,0.69774485,0
-3.5946336,2.1254694,1.7756293,-0.71054006,0.091022074,0.69774485,0
2.4065895,-2.1983111,0.51230633,0.44135672,-0.71463764,0.54267609,0
2.4972801,2.6453543,-3.2784696,-0.090372048,0.9715817,-0.21877384,0
4.4119043,-1.9290037,-0.90284723,0.71054006,-0.091022074,-0.69774485,0
-1.0798075,0.48818564,-2.9331765,-0.67557013,0.18911535,-0.7126292,0
-4.8641047,0.63357234,0.5124197,-0.6879425,0.11853126,-0.71602058,0
1.6648098,0.9085288,-4.1074438,0.71054006,-0.091022074,-0.69774485,0
1.9259508,1.2973039,-3.8784876,0.71054006,-0.091022074,-0.69774485,0
-4.4529538,-0.96629727,0.5178287,-0.66133904,-0.42507458,-0.61801493,0
4.2502565,1.1987008,-1.4259138,0.71054006,-0.091022074,-0.69774485,0
4.0362029,-1.6746125,-0.28670698,0.59950238,-0.44086564,0.66800779,0
3.05915,-3.1243577,-2.1681042,0.71054006,-0.091022074,-0.69774485,0
-1.2078309,1.2625961,4.3149362,-0.71054006,0.091022074,0.69774485,0
0.51740503,1.9857917,2.8879447,0.59166288,0.61401945,0.52241272,0
2.1148133,-2.0246015,-3.1891069,0.71054006,-0.091022074,-0.69774485,0
-0.41310912,-2.9766769,0.62605953,-0.048988536,-0.99559122,0.079989791,0
3.4898963,-2.5069623,-1.8477583,0.71054006,-0.091022074,-0.69774485,0
-3.074604,1.2071443,2.3682418,-0.71054006,0.091022074,0.69774485,0
-1.9390591,0.064350605,3.8598936,-0.71054006,0.091022074,0.69774485,0
-0.53993225,-0.78623772,-3.618834,-0.6978184,-0.21862233,-0.68209523,0
3.3449478,1.3059866,-2.3562732,0.71054006,-0.091022074,-0.69774485,0
1.7334616,2.6955404,-0.90115833,0.19184323,0.97909212,0.067636847,0
-4.3423681,-0.7036891,1.446867,-0.71054006,0.091022074,0.69774485,0
-0.39823595,3.0361776,-0.19265532,-0.023215942,0.98802602,-0.15253139,0
4.7835727,0.81784248,-0.97202086,0.71054006,-0.091022074,-0.69774485,0
2.9885767,0.58674145,-2.8766882,0.71054006,-0.091022074,-0.69774485,0
-3.1004343,-0.064708233,2.6647398,-0.71054006,0.091022074,0.69774485,0
-2.0255649,1.9793849,3.2830167,-0.71054006,0.091022074,0.69774485,0
-2.6911566,-2.2217236,0.23550677,-0.43911678,-0.83217764,-0.33861017,0
0.13040173,1.5249126,-3.369123,-0.51025724,0.61615443,-0.59999281,0
-1.0117292,3.1023433,1.2305447,0.098058611,0.99473113,-0.029907703,0
-2.7938609,-2.3387396,0.51028538,-0.43200502,-0.83914757,-0.33045888,0
-2.7280552,2.9871464,1.1459831,-0.21591495,0.91555929,-0.33931082,0
-1.6352718,-2.5971732,2.7260034,0.10047868,-0.96831197,0.22863936,0
1.0890175,-3.1629386,-1.6399809,-0.17238875,-0.98389751,-0.047198653,0
-0.80597335,-2.8751507,-0.19129777,-0.21955223,-0.97077274,-0.096939325,0
4.3201232,1.2175303,-1.4489257,0.71054006,-0.091022074,-0.69774485,0
-3.939868,0.73140919,-0.17669785,-0.68368804,0.1452494,-0.7151736,0
1.2450296,0.19393492,-4.3503819,0.71054006,-0.091022074,-0.69774485,0
1.418669,-0.77947378,-4.1857219,0.71054006,-0.091022074,-0.69774485,0
4.0532188,2.0285506,-1.8958807,0.71054006,-0.091022074,-0.69774485,0
-0.51669288,1.7133131,4.2934046,0.65810394,0.43694258,0.61317235,0
-4.0951214,1.4876531,0.20980638,-0.60430378,0.42906386,-0.67135763,0
-3.9030087,-0.75245214,1.8039122,-0.71054006,0.091022074,0.69774485,0
-2.7372,2.6673195,2.6085601,-0.71054006,0.091022074,0.69774485,0
2.7130923,-0.46451378,-3.0324364,0.71054006,-0.091022074,-0.69774485,0
1.8531867,0.29450369,-3.8875322,0.71054006,-0.091022074,-0.69774485,0
2.2142439,-1.7009974,-3.1490164,0.71054006,-0.091022074,-0.69774485,0
1.8074131,2.5828209,0.27946901,0.38419873,0.88092875,0.27632535,0
0.47197342,-2.9735019,-2.0459838,-0.33417141,-0.91629213,-0.22076738,0
-3.0758498,-0.76269436,2.5584135,-0.71054006,0.091022074,0.69774485,0
-4.0815234,-0.56645751,-0.039321423,-0.68790674,-0.2984803,-0.66158432,0
1.5567582,0.7694701,2.6786439,0.69673312,0.22976869,0.6795361,0
-1.7522693,-2.437396,-0.42902207,-0.40912503,-0.86020344,-0.30441236,0
4.6485853,-0.81045783,-0.26937115,0.67879081,-0.17261261,0.7137562,0
-0.84688401,0.51135445,4.7887144,-0.71054006,0.091022074,0.69774485,0
-3.4757094,-0.46385884,2.2578442,-0.71054006,0.091022074,0.69774485,0
-3.0601223,0.42557836,2.4688168,-0.71054006,0.091022074,0.69774485,0
1.2282109,0.25051498,-4.418571,0.71054006,-0.091022074,-0.69774485,0
2.7684326,0.17105913,-2.9271233,0.71054006,-0.091022074,-0.69774485,0
2.1109886,2.4588041,0.077267647,0.40813282,0.86107123,0.30328882,0
3.7034214,-0.59926844,-2.0213928,0.71054006,-0.091022074,-0.69774485,0
1.7088525,2.836674,-1.2410185,0.13327064,0.99105883,0.0064290762,0
-2.8461943,0.82309371,-1.4204146,-0.6689204,0.22033069,-0.70992953,0
2.9085736,2.1947579,-0.25791955,0.48292246,0.78428388,0.38946694,0
0.36924052,1.7161455,3.3645144,0.64393669,0.48388565,0.59262145,0
-4.4605293,0.81482482,1.0027132,-0.71054006,0.091022074,0.69774485,0
-2.666863,-0.78269792,3.1668818,-0.71054006,0.091022074,0.69774485,0
1.120873,-1.7081296,2.2492893,0.52271181,-0.59555537,0.60998857,0
0.1660977,3.0097332,0.41988325,0.17487231,0.98333079,0.049801707,0
-3.0227275,1.7223725,2.3993874,-0.71054006,0.091022074,0.69774485,0
-1.2423308,2.9324567,3.3328028,0.40815434,0.86105227,0.3033132,0
-3.8015666,2.3672707,0.5826804,-0.48412654,0.65636194,-0.57862806,0
1.7623131,-1.9521012,-3.5536633,0.71054006,-0.091022074,-0.69774485,0
1.5481002,-2.3148901,-3.816005,0.71054006,-0.091022074,-0.69774485,0
-1.9715722,1.0616865,3.6840737,-0.71054006,0.091022074,0.69774485,0
-2.8284082,1.6990353,-0.761702,-0.56522417,0.51678473,-0.64300478,0
2.5363145,-2.3366983,-2.7796116,0.71054006,-0.091022074,-0.69774485,0
2.1718771,0.5146904,-3.5293381,0.71054006,-0.091022074,-0.69774485,0
2.035701,-1.1293514,-3.4469144,0.71054006,-0.091022074,-0.69774485,0
-2.6239526,2.2916808,2.8666587,-0.71054006,0.091022074,0.69774485,0
-0.51635414,-3.0011353,-0.16839433,-0.19501533,-0.97822845,-0.070979714,0
2.4221835,-0.69792515,1.7771819,0.67509323,-0.19147423,0.71245128,0
-0.66873264,-0.65800762,-3.5903378,-0.70208848,-0.15787339,-0.69436854,0
0.70596743,-0.085275173,3.5904245,0.69246507,-0.085700184,0.71634322,0
0.2328136,-0.50347137,3.8113384,0.66967261,-0.21696579,0.71025664,0
-2.0259264,-2.5064127,-0.25385857,-0.40645862,-0.86252719,-0.30139405,0
0.553653,0.40876389,3.5801177,0.70363188,0.10025465,0.70345658,0
1.3486773,-1.5893211,-4.1481524,0.71054006,-0.091022074,-0.69774485,0
-0.26655227,3.0509722,-0.26535916,-0.022591494,0.98813605,-0.15191007,0
2.6049051,0.9894979,-3.1704059,0.71054006,-0.091022074,-0.69774485,0
2.3687494,0.024711132,-3.1870091,0.71054006,-0.091022074,-0.69774485,0
-0.40503597,-0.62435055,-3.8264747,-0.70164746,-0.16653267,-0.69278973,0
-4.4843125,1.0372174,1.021225,-0.71054006,0.091022074,0.69774485,0
4.6576819,1.2278177,-1.0926535,0.71054006,-0.091022074,-0.69774485,0
-2.904098,-0.97854042,2.9839869,-0.71054006,0.091022074,0.69774485,0
-1.5741093,0.82759762,4.0031776,-0.71054006,0.091022074,0.69774485,0
-1.5233805,-1.522988,-2.2724729,-0.64603817,-0.4773699,-0.59561139,0
3.4380984,2.2789516,-2.5733898,0.71054006,-0.091022074,-0.69774485,0
-1.3627943,-0.30166101,4.4854355,-0.71054006,0.091022074,0.69774485,0
3.1340132,-0.023836374,-2.5015657,0.71054006,-0.091022074,-0.69774485,0
4.8935127,0.90558028,-0.88011336,0.71054006,-0.091022074,-0.69774485,0
2.0430355,0.65928602,-3.8284874,0.71054006,-0.091022074,-0.69774485,0
-0.75612617,1.5834733,-2.7192764,-0.53212827,0.5792982,-0.61745697,0
0.52719712,2.4459434,-2.619561,-0.28242761,0.87132919,-0.40127319,0
1.465621,0.32343674,-4.1731901,0.71054006,-0.091022074,-0.69774485,0
-0.7701115,-2.0511866,3.4777937,0.39060399,-0.77377021,0.49870658,0
-2.2008083,2.7183826,3.2801371,-0.71054006,0.091022074,0.69774485,0
-2.9447267,1.8486944,-0.50515336,-0.54600716,0.55416638,-0.62831187,0
2.5057726,-1.5705161,1.3429699,0.58758491,-0.46880853,0.65951699,0
-2.9000478,-1.5463665,3.1144354,-0.71054006,0.091022074,0.69774485,0
2.7662914,2.3701117,-3.2265916,0.71054006,-0.091022074,-0.69774485,0
-4.370738,1.3353519,1.0783539,-0.71054006,0.091022074,0.69774485,0
3.5908837,-2.1555738,-0.29675859,0.51288486,-0.61189049,0.60211229,0
-2.5541992,2.1417284,2.762835,-0.71054006,0.091022074,0.69774485,0
-1.553967,0.67814374,-2.4099398,-0.66683668,0.22945708,-0.7089982,0
0.89298332,2.1290286,-3.6096585,-0.38371694,0.78106487,-0.49264491,0
-3.2348185,2.0200686,2.0928614,-0.71054006,0.091022074,0.69774485,0
2.9340527,-0.61125994,-2.6202276,0.71054006,-0.091022074,-0.69774485,0
-0.72492945,-2.5449932,-1.4474375,-0.40311486,-0.86540431,-0.29761356,0
-1.7908089,2.4111066,-0.84565187,-0.38127989,0.78360736,-0.49049488,0
2.7380054,-0.79818207,1.3173701,0.66007078,-0.25734809,0.70574677,0
1.006533,-3.1301768,-0.71743703,-0.036586329,-0.99503589,0.092547059,0
2.9763427,0.97867823,-2.9276371,0.71054006,-0.091022074,-0.69774485,0
-1.7869606,0.491014,3.9597371,-0.71054006,0.091022074,0.69774485,0
2.6575322,2.6101992,-1.5857456,0.21576935,0.97201264,0.09292531,0
3.5636206,-2.9513516,-1.1698718,0.32392085,-0.83797348,0.43917602,0
-3.1789262,2.948364,2.1092405,-0.71054006,0.091022074,0.69774485,0
-3.8692613,0.4575811,-0.48946416,-0.6904546,0.10099351,-0.71629095,0
-3.3692117,1.3642678,2.2083566,-0.71054006,0.091022074,0.69774485,0
-0.31039917,-3.0313938,-0.53766227,-0.21860018,-0.97108793,-0.095928788,0
2.6359682,1.3684802,-3.356312,0.71054006,-0.091022074,-0.69774485,0
2.3361373,-1.7632172,-3.2472489,0.71054006,-0.091022074,-0.69774485,0
4.2456722,1.3195555,-1.4412799,0.71054006,-0.091022074,-0.69774485,0
0.17616606,-2.1136732,2.6610994,0.4210265,-0.73951495,0.52521837,0
-3.2100925,0.26375869,-1.0639637,-0.69504797,0.063846797,-0.71612275,0
2.994458,2.5431607,-1.0618153,0.35120472,0.90513092,0.23956907,0
-3.3848486,-0.92259502,2.4461823,-0.71054006,0.091022074,0.69774485,0
-2.3666959,2.6916265,2.9753132,-0.71054006,0.091022074,0.69774485,0
1.6373106,-0.38107538,-3.9249744,0.71054006,-0.091022074,-0.69774485,0
-3.7166133,-1.3065398,2.0479977,-0.71054006,0.091022074,0.69774485,0
-0.16243482,-1.1960042,-4.0131721,-0.68883228,-0.29244584,-0.66331404,0
-1.4351246,2.7533941,3.808146,0.46263197,0.80758119,0.36576521,0
2.4410896,1.44467,-3.4531076,0.71054006,-0.091022074,-0.69774485,0
-1.1174519,2.2008224,4.1926436,-0.71054006,0.091022074,0.69774485,0
2.7796946,0.66149998,1.3700707,0.69298196,0.26258489,0.67143518,0
-1.5230163,0.23711824,4.2208176,-0.71054006,0.091022074,0.69774485,0
4.7825098,0.81972837,-1.0379834,0.71054006,-0.091022074,-0.69774485,0
-3.6557193,-2.0617342,1.1442223,-0.46050385,-0.80990952,-0.36329436,0
-1.2152345,-0.94812012,4.7047558,-0.71054006,0.091022074,0.69774485,0
-0.75031984,-2.5317328,-1.4900948,-0.43889505,-0.83239812,-0.3383556,0
-1.1194396,2.2063031,4.193522,-0.71054006,0.091022074,0.69774485,0
2.8232737,0.89572024,-2.8834829,0.71054006,-0.091022074,-0.69774485,0
0.28774166,1.3435423,3.7287412,0.67477894,0.36929837,0.63897741,0
0.22809362,-2.1602004,2.6620078,0.41385704,-0.74789703,0.51901096,0
1.1252797,-3.2763822,-1.2599207,-0.10432118,-0.99426669,0.023469687,0
-0.72169411,2.7835186,-0.70040178,-0.17268318,0.93871891,-0.29830748,0
2.2493443,-3.1449924,-1.0144067,0.15306257,-0.94786108,0.27951956,0
3.7432179,0.40641016,0.34888792,0.69941831,0.20003128,0.68614978,0
-1.3962286,-1.8475231,-1.876434,-0.59515905,-0.60674465,-0.52692211,0
-3.0680661,1.1353738,2.4988158,-0.71054006,0.091022074,0.69774485,0
3.7069273,1.7412505,-0.46468639,0.57934284,0.63846654,0.50667769,0
-2.1546404,1.5686798,-1.3718088,-0.56284761,0.52158535,-0.64121085,0
1.9044476,-1.7189826,1.609467,0.54579997,-0.55455244,0.62815124,0
-4.166842,2.2362628,1.0667756,-0.71054006,0.091022074,0.69774485,0
3.4854221,-2.7499094,-0.92744422,0.34715587,-0.81717145,0.46012342,0
-2.9724252,-0.27329016,2.6332479,-0.71054006,0.091022074,0.69774485,0
-1.0772729,2.036895,-1.9107687,-0.46576959,0.68243098,-0.56333518,0
-2.0963995,2.0879502,-1.0462034,-0.48635519,0.65308022,-0.58046949,0
-3.8665988,2.5865331,1.5018742,-0.71054006,0.091022074,0.69774485,0
2.2521999,2.6834478,-1.2524478,0.23196657,0.96646786,0.11014295,0
0.92070699,1.0611494,3.1979463,0.68648303,0.30740827,0.65896976,0
0.29073378,2.8936181,-0.65728712,0.020840541,0.9938854,-0.10843152,0
3.3136775,2.5696793,-2.6607335,0.16128601,0.98626602,0.035583496,0
4.1043406,-0.23136806,-1.6222098,0.71054006,-0.091022074,-0.69774485,0
-2.4801724,-2.744303,2.9601569,0.018793412,-0.98878974,0.14812756,0
3.0167673,-2.5457661,-2.2132907,0.71054006,-0.091022074,-0.69774485,0
-1.0014565,-1.9225848,-2.192595,-0.59228981,-0.61272639,-0.52322,0
0.98775768,-1.0563421,-4.5402889,0.71054006,-0.091022074,-0.69774485,0
1.514079,-0.031469822,-4.1082039,0.71054006,-0.091022074,-0.69774485,0
-0.76797283,-2.4782052,-1.9889109,-0.49065959,-0.7748481,-0.39857692,0
3.1062469,1.2615151,-2.7172453,0.71054006,-0.091022074,-0.69774485,0
1.494489,1.8529801,-4.3944969,0.71054006,-0.091022074,-0.69774485,0
1.9850852,-1.8050704,-3.3639388,0.71054006,-0.091022074,-0.69774485,0
4.4256849,-1.8034437,-1.0677853,0.71054006,-0.091022074,-0.69774485,0
-4.6343098,-0.48500204,0.56202126,-0.68834531,-0.29564509,-0.66240072,0
-2.1325312,2.5838737,-0.47876477,-0.35508904,0.80969775,-0.46722722,0
4.5492201,1.4081478,-1.3230801,0.71054006,-0.091022074,-0.69774485,0
-1.8980865,0.086662292,3.9012136,-0.71054006,0.091022074,0.69774485,0
3.5678337,2.0018883,-2.4490578,0.71054006,-0.091022074,-0.69774485,0
-1.1764629,-0.21472454,-2.9971766,-0.70330429,-0.060482711,-0.70831132,0
-3.2579069,-1.896116,0.39631391,-0.52733815,-0.7254079,-0.44237751,0
3.1174548,1.6213208,0.20913005,0.58126819,0.63476175,0.50912166,0
2.0251851,-1.7310514,1.4092014,0.54061013,-0.56411272,0.62411344,0
-1.8834575,-2.0336239,4.1902761,0.34654546,-0.81773853,0.45957595,0
-3.7611995,2.0471404,1.6092744,-0.71054006,0.091022074,0.69774485,0
1.8849376,-1.0654831,-3.6721706,0.71054006,-0.091022074,-0.69774485,0
3.6058483,2.1695397,-0.95502138,0.46440393,0.80562645,0.36782473,0
-4.5780201,0.85375404,1.0922536,-0.71054006,0.091022074,0.69774485,0
2.2148869,1.0896351,-3.5771775,0.71054006,-0.091022074,-0.69774485,0
-1.8241369,-0.16665649,3.848386,-0.71054006,0.091022074,0.69774485,0
-1.7638903,-2.2614017,-1.0999002,-0.5102365,-0.74948323,-0.42182171,0
-1.3983165,1.0445889,-2.5256677,-0.6231944,0.37904769,-0.68406999,0
-4.1453342,-0.16589355,1.4433334,-0.71054006,0.091022074,0.69774485,0
1.2617625,-1.3875914,-4.1486549,0.71054006,-0.091022074,-0.69774485,0
-1.1733994,-2.2916303,3.1052451,0.2726588,-0.87851423,0.39226258,0
1.1975129,0.0306077,-4.5704145,0.71054006,-0.091022074,-0.69774485,0
4.6277585,-0.061513186,-0.97474766,0.71054006,-0.091022074,-0.69774485,0
1.6602347,2.0836787,-4.0143061,-0.34285438,0.82114339,-0.4562614,0
-4.1251659,-1.1939595,1.5959623,-0.71054006,0.091022074,0.69774485,0
-4.7587857,0.60460329,0.66760993,-0.71054006,0.091022074,0.69774485,0
3.0918815,2.1659062,-0.61956763,0.44668287,0.82452911,0.34731281,0
0.78334665,0.23305726,3.3635483,0.70243257,0.033285558,0.71097153,0
3.6329353,-1.4865534,0.08770439,0.59992456,-0.43984109,0.66830409,0
-2.5082436,2.9622557,2.7450697,-0.71054006,0.091022074,0.69774485,0
-2.8877697,2.3173902,-0.16574657,-0.45997953,0.69031382,-0.55846727,0
-0.82497859,0.58930349,4.9383669,-0.71054006,0.091022074,0.69774485,0
-0.82162523,-1.8760252,3.7087495,0.46005392,-0.6902135,0.55853009,0
-2.4346855,1.3299516,-1.3427956,-0.61822903,0.39280224,-0.68080783,0
1.8247156,-3.0001125,-3.3550668,0.71054006,-0.091022074,-0.69774485,0
-1.9393378,-1.439395,3.8602142,-0.71054006,0.091022074,0.69774485,0
-1.7226033,-1.9941347,4.2468815,-0.71054006,0.091022074,0.69774485,0
1.8008137,1.7901638,1.5142152,0.60501754,0.58533704,0.53975397,0
2.9443712,-2.8501101,-1.0860169,0.25675121,-0.88969445,0.37752181,0
1.1138958,-0.64760494,-4.4632764,0.71054006,-0.091022074,-0.69774485,0
-2.1937976,-1.7792592,3.6866062,-0.71054006,0.091022074,0.69774485,0
-2.3844733,-2.5976477,3.2410858,0.06325268,-0.97932166,0.19216698,0
1.3960147,2.7584529,-1.9210625,-0.0034917146,0.99112993,-0.13285041,0
-3.445121,1.4128319,-0.31213164,-0.60597277,0.42488226,-0.67251176,0
3.1831505,-0.59668255,0.94283003,0.68611503,-0.13040972,0.71570909,0
0.34623623,2.9489074,-0.47413707,0.030827783,0.99467301,-0.098363698,0
-4.3193073,1.0703509,1.1783872,-0.71054006,0.091022074,0.69774485,0
3.5148029,1.4539438,-0.069591999,0.61547273,0.56102681,0.5535723,0
-2.4383841,-2.5911062,1.5350306,-0.2025319,-0.97609097,-0.078913093,0
-2.0339267,2.4959495,3.3054969,-0.71054006,0.091022074,0.69774485,0
0.96630728,-0.68000174,3.2024629,0.65555298,-0.27470702,0.70341057,0
-0.99322891,-0.010408878,4.7757211,-0.71054006,0.091022074,0.69774485,0
0.66028523,-2.7522204,-3.0338597,-0.46432096,-0.8057183,-0.36772829,0
-1.0612017,1.7498589,4.292654,-0.71054006,0.091022074,0.69774485,0
-0.32722008,3.1234648,1.1923773,0.19067852,0.97940361,0.066410184,0
4.2244263,-0.044086456,-1.3997923,0.71054006,-0.091022074,-0.69774485,0
1.1643643,-1.0821462,-4.3293281,0.71054006,-0.091022074,-0.69774485,0
2.5521958,-0.20032072,1.7667685,0.69529533,-0.061590582,0.71608031,0
3.6111619,-1.7283128,0.22111383,0.57364857,-0.49932799,0.64930642,0
2.8506823,0.43943238,-2.7740192,0.71054006,-0.091022074,-0.69774485,0
-0.93976974,-2.9168797,-0.19968104,-0.23378509,-0.96580666,-0.11208105,0
-1.1737427,2.7796104,3.5097976,0.45743054,0.81323493,0.35973102,0
2.3406489,-1.6054165,-3.1327314,0.71054006,-0.091022074,-0.69774485,0
-1.8974116,0.11519861,3.83635,-0.71054006,0.091022074,0.69774485,0
-2.7148314,2.7548931,2.6355433,-0.71054006,0.091022074,0.69774485,0
0.36670065,-0.519279,-4.7013264,-0.70308858,-0.05199641,-0.70919871,0
-0.78772306,0.20606756,4.8675222,0.69167721,-0.091846406,0.71634275,0
4.5819969,-1.4282348,-0.87990052,0.71054006,-0.091022074,-0.69774485,0
-0.07700634,0.5966692,4.3207064,0.70349175,0.11337003,0.701603,0
-3.0190973,2.8264003,0.91871935,-0.28280506,0.87104654,-0.40162075,0
3.9152708,0.82549572,-1.8201926,0.71054006,-0.091022074,-0.69774485,0
3.5965867,-1.8617671,-1.8431072,0.71054006,-0.091022074,-0.69774485,0
4.0932593,1.867556,-1.6798987,0.71054006,-0.091022074,-0.69774485,0
0.48702943,-2.4924119,-3.2896047,-0.51003563,-0.74975508,-0.42158163,0
-3.7402406,-2.1355782,2.1740973,-0.71054006,0.091022074,0.69774485,0
3.2568018,2.020997,-2.6133657,0.71054006,-0.091022074,-0.69774485,0
-2.6742532,0.69154191,2.9671292,-0.71054006,0.091022074,0.69774485,0
3.9040608,-1.0771246,0.10317683,0.653404,-0.28265709,0.7022593,0
-2.9589729,-1.2746649,2.8061161,-0.71054006,0.091022074,0.69774485,0
4.0489407,1.1911471,-1.7662542,0.71054006,-0.091022074,-0.69774485,0
-2.702332,0.64605522,2.9036276,-0.71054006,0.091022074,0.69774485,0
2.9079108,1.2964656,-3.0167837,0.71054006,-0.091022074,-0.69774485,0
-4.2538395,1.471894,1.3103014,-0.71054006,0.091022074,0.69774485,0
0.55089116,2.4431858,2.1253736,0.5006367,0.76219767,0.41038728,0
-1.4084259,-0.92302823,4.4173326,-0.71054006,0.091022074,0.69774485,0
-2.9468398,-1.9841926,3.1229112,-0.71054006,0.091022074,0.69774485,0
-1.0830576,0.26192093,4.6270022,-0.71054006,0.091022074,0.69774485,0
-2.8883886,-0.043569326,2.8336473,-0.71054006,0.091022074,0.69774485,0
1.0931581,-0.72100115,-4.5891032,0.71054006,-0.091022074,-0.69774485,0
-1.5242157,-2.4973063,-0.54759359,-0.39536765,-0.87191498,-0.28887492,0
3.7108216,0.7693584,-1.9821589,0.71054006,-0.091022074,-0.69774485,0
0.73039579,1.2237089,3.2698491,0.6817013,0.33481348,0.65052533,0
0.83862329,-2.2920938,-4.1070023,-0.58817881,-0.62111574,-0.51793915,0
2.1302876,-2.9850302,-0.40692484,0.2334791,-0.9049238,0.35580963,0
-1.9240117,1.2015479,3.5523114,-0.71054006,0.091022074,0.69774485,0
-3.4750557,1.0026951,-0.75576949,-0.66480517,0.23809661,-0.70805657,0
-2.655426,-1.7199309,3.3347344,-0.71054006,0.091022074,0.69774485,0
-2.3036149,1.7621431,3.0577826,-0.71054006,0.091022074,0.69774485,0
-1.9296478,0.30295372,-2.2030649,-0.69202864,0.089130729,-0.71634632,0
-4.4188285,-1.0939428,0.8019011,-0.64035553,-0.49468261,-0.58756614,0
1.9039768,-2.2530856,1.096383,0.44677123,-0.70772284,0.54728782,0
0.75207877,-0.52907944,-4.767374,0.71054006,-0.091022074,-0.69774485,0
2.464406,-1.3379245,-2.9626765,0.71054006,-0.091022074,-0.69774485,0
-1.6763587,0.51953411,3.9390585,-0.71054006,0.091022074,0.69774485,0
-0.21347404,1.0405035,-3.6851206,-0.60051847,0.43839553,-0.6687203,0
4.2757363,1.0255094,-1.4734123,0.71054006,-0.091022074,-0.69774485,0
3.3588076,-0.40532827,-2.3251762,0.71054006,-0.091022074,-0.69774485,0
1.2270647,-0.31706619,-4.5074668,0.71054006,-0.091022074,-0.69774485,0
3.4825311,0.96071339,-2.3262212,0.71054006,-0.091022074,-0.69774485,0
2.9489725,-2.2661843,-2.4090297,0.71054006,-0.091022074,-0.69774485,0
2.3293066,2.1219881,-3.5760739,0.71054006,-0.091022074,-0.69774485,0
1.9212482,-2.9285495,-3.4985418,0.71054006,-0.091022074,-0.69774485,0
3.5373192,-0.87745214,-2.050185,0.71054006,-0.091022074,-0.69774485,0
1.3249892,-0.49475288,-4.3419437,0.71054006,-0.091022074,-0.69774485,0
-2.4978821,0.5959537,3.1606407,-0.71054006,0.091022074,0.69774485,0
4.0789995,-0.81056309,-1.5152481,0.71054006,-0.091022074,-0.69774485,0
-0.82837975,-2.7714407,1.8656814,0.11166628,-0.96444654,0.23952782,0
1.189235,1.030519,-4.6243792,0.71054006,-0.091022074,-0.69774485,0
4.7514234,0.07119298,-0.52253938,0.70164651,0.16654971,0.69278663,0
-0.13531888,2.7522378,2.2956312,0.42908567,0.84194875,0.32712048,0
-2.0394249,-0.038873076,-2.2144098,-0.70028448,0.0054927766,-0.71384275,0
-4.826436,0.98882556,0.6341331,-0.67040294,0.21366119,-0.71056932,0
3.1743641,-2.8395848,-2.0371909,0.71054006,-0.091022074,-0.69774485,0
-0.65585327,-0.80441046,-3.3495488,-0.6984278,-0.2118918,-0.68359381,0
3.7148404,-1.9927492,-1.5604266,0.71054006,-0.091022074,-0.69774485,0
-1.5847728,1.7552927,3.7644672,-0.71054006,0.091022074,0.69774485,0
-2.1766496,-0.013689518,3.6570311,-0.71054006,0.091022074,0.69774485,0
-0.6590395,-1.2334416,4.2212677,0.57266319,-0.50140661,0.64857411,0
-1.1878153,-0.10315657,4.5770764,-0.71054006,0.091022074,0.69774485,0
-0.094105005,-0.78215957,3.9048083,0.62466812,-0.37487221,0.68502605,0
-1.0416819,1.2215576,4.4796772,-0.71054006,0.091022074,0.69774485,0
-3.8435216,1.1106248,1.7579148,-0.71054006,0.091022074,0.69774485,0
-3.8750424,1.3467112,1.4810667,-0.71054006,0.091022074,0.69774485,0
0.33769011,0.25216293,-4.3767719,-0.68010443,0.16556713,-0.71417475,0
-2.266053,-1.0216901,3.4648077,-0.71054006,0.091022074,0.69774485,0
-2.2633517,-2.6286979,3.1683524,0.072605468,-0.97682166,0.20136505,0
-1.9331241,1.8661499,3.3860018,-0.71054006,0.091022074,0.69774485,0
-1.6886275,-2.0153661,-1.4697565,-0.56279111,-0.66872382,-0.48587525,0
-3.4809785,1.5235074,2.0581834,-0.71054006,0.091022074,0.69774485,0
-3.8853037,-0.71951693,-0.26132393,-0.68537855,-0.31406748,-0.65697628,0
2.0265079,-0.02799511,-3.5727415,0.71054006,-0.091022074,-0.69774485,0
-4.3124027,0.57235336,1.3450469,-0.71054006,0.091022074,0.69774485,0
1.695588,-3.1054466,-3.3824868,-0.36447424,-0.89581907,-0.25429678,0
4.7581191,0.1315155,-0.80560875,0.71054006,-0.091022074,-0.69774485,0
-3.6683066,1.5942464,-0.24379539,-0.59819746,0.44401658,-0.66708994,0
-0.31399393,-1.3463724,3.9827905,0.56835604,-0.51037681,0.64535803,0
-0.38287187,-1.6413813,-3.4285748,-0.65501201,-0.44784284,-0.60860169,0
-0.14182729,-3.06687,-0.0092234612,-0.06437394,-0.99584854,0.06435585,0
-4.7812872,0.84134293,0.66656542,-0.67386919,0.19743648,-0.71198261,0
3.3551493,-0.28547788,-2.220974,0.71054006,-0.091022074,-0.69774485,0
-1.8747137,2.0730419,3.6251855,-0.71054006,0.091022074,0.69774485,0
-2.7393706,2.8836141,0.75720334,-0.24160959,0.89975262,-0.36341459,0
-3.0319936,-2.5878525,1.7526124,-0.24739419,-0.96060604,-0.12661797,0
-0.37817228,-1.4566033,3.9360771,0.54721332,-0.55191207,0.62924612,0
1.0674744,-0.48500633,-4.5799813,0.71054006,-0.091022074,-0.69774485,0
3.5586057,-0.60077882,-1.8979905,0.71054006,-0.091022074,-0.69774485,0
-1.1457589,2.9435146,0.41616797,-0.068668917,0.97789568,-0.19749635,0
-1.2362971,-2.7513185,0.36678004,-0.20028247,-0.97674406,-0.076537251,0
-2.2186611,1.4521344,3.411051,-0.71054006,0.091022074,0.69774485,0
3.0886116,-2.9089096,-2.3456399,0.71054006,-0.091022074,-0.69774485,0
3.3277686,-2.2607331,-0.32589674,0.46271318,-0.68661165,0.56076825,0
0.33104062,-0.19129324,-4.4951544,-0.69455302,0.068266511,-0.71619523,0
-2.4566846,3.2182431,2.9312973,-0.71054006,0.091022074,0.69774485,0
1.7339641,0.66607857,-4.1340528,0.71054006,-0.091022074,-0.69774485,0
2.7716961,-2.0829725,0.5720247,0.48610568,-0.65344894,0.5802635,0
1.0977473,-1.3991995,-4.5096331,0.71054006,-0.091022074,-0.69774485,0
-4.282311,1.2208512,1.1965115,-0.71054006,0.091022074,0.69774485,0
0.33919883,0.56281137,-4.2803502,-0.64680558,0.30598193,-0.69858265,0
2.4724789,1.2249033,-3.3436708,0.71054006,-0.091022074,-0.69774485,0
2.0310104,-2.7135384,0.24874318,0.33206236,-0.83086514,0.44653952,0
-3.5010831,-0.71673536,2.3993413,-0.71054006,0.091022074,0.69774485,0
-4.6331348,0.59633422,0.98500085,-0.71054006,0.091022074,0.69774485,0
4.2189403,1.3418938,-1.6336119,0.71054006,-0.091022074,-0.69774485,0
2.5494959,-0.18390989,-2.9778836,0.71054006,-0.091022074,-0.69774485,0
-3.8642426,1.9420886,0.27952576,-0.55536401,0.53636497,-0.63551807,0
-0.22114015,-2.5114036,2.2739053,0.27163768,-0.87925112,0.39131886,0
-0.79380435,3.0017676,1.792793,0.23084833,0.96687061,0.10895169,0
1.5230494,-3.2617021,-1.5732392,-0.062757462,-0.99584413,0.066001296,0
3.3283558,-2.6713767,-0.57052195,0.38754344,-0.77703202,0.4960154,0
-1.9472992,1.787791,3.4580116,-0.71054006,0.091022074,0.69774485,0
2.6708298,2.1594098,-3.229073,0.71054006,-0.091022074,-0.69774485,0
2.6402538,-0.16635251,-2.9592462,0.71054006,-0.091022074,-0.69774485,0
2.2891359,2.5825269,-3.560437,-0.14512727,0.95132208,-0.2718904,0
1.1946937,-0.34500289,2.8694649,0.68660676,-0.127278,0.71580136,0
-0.45648837,-0.56614518,4.3356023,0.65748668,-0.26738879,0.70442498,0
1.3695064,-2.167486,1.5459495,0.41607973,-0.74531955,0.52093804,0
-2.9068441,-0.83927464,2.9343419,-0.71054006,0.091022074,0.69774485,0
-4.3379917,-0.96576023,1.3730099,-0.71054006,0.091022074,0.69774485,0
-2.5793099,1.8894529,2.7780125,-0.71054006,0.091022074,0.69774485,0
3.7556608,-2.120255,-0.23792894,0.5121749,-0.61304677,0.60154021,0
-2.353879,1.3330996,3.2248991,-0.71054006,0.091022074,0.69774485,0
4.2105522,-1.3783798,-1.3164502,0.71054006,-0.091022074,-0.69774485,0
0.052824974,1.3289955,-3.5519609,-0.55779278,0.53162318,-0.63737279,0
-2.9426889,-0.079788208,2.6294112,-0.71054006,0.091022074,0.69774485,0
1.6533607,-2.7153256,0.2220701,0.2626335,-0.8856343,0.38298231,0
-0.78034526,-2.6050029,2.3463814,0.1763774,-0.93690342,0.30183268,0
2.7355802,2.4216442,-3.3760741,0.71054006,-0.091022074,-0.69774485,0
1.1983223,-2.6031356,-3.7469542,-0.48242155,-0.78488392,-0.38887858,0
-4.2729435,-1.2050283,1.631114,-0.71054006,0.091022074,0.69774485,0
-4.9122558,-0.039589405,0.66522431,-0.71054006,0.091022074,0.69774485,0
3.1088684,-0.11197543,-2.4922123,0.71054006,-0.091022074,-0.69774485,0
4.8549066,0.10217643,-0.76893091,0.71054006,-0.091022074,-0.69774485,0
-3.509109,2.8279896,1.0401204,-0.34842271,0.81599104,-0.46125948,0
-0.16938949,-0.53645039,-3.9785781,-0.70363688,-0.084447205,-0.70552391,0
2.348048,1.3195455,-3.5743423,0.71054006,-0.091022074,-0.69774485,0
3.7861128,0.97310185,-1.8829567,0.71054006,-0.091022074,-0.69774485,0
3.067668,2.4123826,-1.4333155,0.32910267,0.919447,0.21519423,0
-2.4991686,-2.3933725,0.42445707,-0.41488492,-0.855093,-0.31094468,0
-2.773279,2.7194583,2.6776726,-0.71054006,0.091022074,0.69774485,0
2.5842443,2.2295773,-0.17305493,0.46231735,0.80792677,0.36539978,0
1.138494,-3.2432952,-1.4396855,-0.12982522,-0.9915328,-0.002858758,0
0.20847619,2.9660919,0.54452729,0.17378069,0.98358148,0.048657537,0
-3.4671011,-1.1185024,2.4893265,-0.71054006,0.091022074,0.69774485,0
3.9974017,-1.1056283,-1.5716505,0.71054006,-0.091022074,-0.69774485,0
0.086179972,-0.14984274,-4.2878461,-0.69951504,0.016057283,-0.71443743,0
-4.8021355,-0.78121328,1.0018756,-0.71054006,0.091022074,0.69774485,0
-3.9572897,0.89920938,-0.21368098,-0.66842979,0.22250453,-0.70971358,0
0.48546737,-3.0483277,-0.55739999,-0.088694289,-0.99527478,0.03951478,0
-0.76954317,-1.1760244,-3.2573047,-0.68256164,-0.33013737,-0.65201139,0
1.532138,-2.7098119,-3.7259667,0.71054006,-0.091022074,-0.69774485,0
4.3527775,1.5658691,-1.3799186,0.71054006,-0.091022074,-0.69774485,0
3.0862885,-2.0316615,-2.2929988,0.71054006,-0.091022074,-0.69774485,0
3.4584136,0.82537746,-2.3193126,0.71054006,-0.091022074,-0.69774485,0
-1.0549135,-0.79235435,-2.9500794,-0.69803357,-0.21628824,-0.68261892,0
3.126914,-1.6521347,0.68985242,0.57759619,-0.49089986,0.65222692,0
4.6743932,-1.5871716,-0.79172564,0.71054006,-0.091022074,-0.69774485,0
-4.192275,0.19033289,1.3386825,-0.71054006,0.091022074,0.69774485,0
1.7237848,1.8368683,1.6518085,0.60062814,0.5950377,0.53401875,0
1.3349364,-3.0446618,-0.4229424,0.079385877,-0.9748981,0.20801884,0
-0.96002984,1.5235758,4.6418657,-0.71054006,0.091022074,0.69774485,0
-0.31010813,2.9396052,-0.15879893,-0.025696062,0.98758042,-0.15499884,0
-3.7798595,-1.1203988,1.9496467,-0.71054006,0.091022074,0.69774485,0
-3.0210586,-0.265522,2.6055422,-0.71054006,0.091022074,0.69774485,0
1.5085635,-1.4449806,-3.9279957,0.71054006,-0.091022074,-0.69774485,0
-3.9459832,0.66262531,-0.24118185,-0.67910945,0.17092162,-0.71386003,0
1.6939933,2.0538249,1.4405748,0.57384825,0.64881933,0.49973178,0
4.658113,1.1761907,-1.1860466,0.71054006,-0.091022074,-0.69774485,0
