2.8834093,-2.7193027,-0.81850284,0.88800126,-0.035514355,-0.45846742,0
0.80416071,-1.6787715,-3.2470224,-0.40426207,-0.53544259,-0.74153447,0
-2.580904,2.3387852,1.5315028,-0.88800126,0.035514355,0.45846742,0
1.4807518,-1.2312663,2.3770704,0.4043721,-0.41440052,0.81532526,0
-2.9479218,1.4048269,0.88904953,-0.88800126,0.035514355,0.45846742,0
2.8297453,1.9238192,0.90732658,0.35232973,0.69323128,0.62872428,0
-4.0465374,-0.6730051,-1.2389576,-0.45171231,-0.25400388,-0.85524148,0
2.6689775,2.0458088,-1.5773699,0.88800126,-0.035514355,-0.45846742,0
-1.6816897,-2.9699049,1.3350904,0.025126278,-0.99177623,0.12549314,0
-2.4317193,2.1011944,-1.1766672,-0.30359176,0.70355874,-0.642524,0
-3.0785763,-1.2315335,0.46190804,-0.88800126,0.035514355,0.45846742,0
-2.4492826,2.3411679,1.4252776,-0.88800126,0.035514355,0.45846742,0
-3.7387865,0.71333289,-1.4315867,-0.43957818,0.22714034,-0.86900997,0
3.0888147,-2.5582817,-0.49051648,0.88800126,-0.035514355,-0.45846742,0
3.4573712,-2.1194992,0.48323393,0.88800126,-0.035514355,-0.45846742,0
0.78490031,-2.9955366,0.2158885,0.057249188,-0.9807179,0.18685511,0
1.1767411,0.99363434,2.6632855,0.44529116,0.31522706,0.83806187,0
-3.4855909,1.4507411,-0.50305319,-0.88800126,0.035514355,0.45846742,0
-0.72318208,2.2954969,-1.7635229,-0.2622821,0.77981299,-0.56841862,0
0.18225265,2.4168229,-1.7974303,-0.21145773,0.85380691,-0.4757092,0
-2.8510351,-1.7803806,-1.1815706,-0.3897177,-0.58732474,-0.70934457,0
-1.4926231,1.6505632,3.495729,-0.88800126,0.035514355,0.45846742,0
-1.6955175,-2.7046719,-0.49709228,-0.22766459,-0.90019864,-0.37122929,0
2.14116,1.1328189,-2.4187818,0.88800126,-0.035514355,-0.45846742,0
3.111233,2.7062187,-0.72516781,0.15327847,0.9628548,0.22229786,0
-2.6015158,2.4131637,1.1412809,-0.88800126,0.035514355,0.45846742,0
0.083076,-2.9304252,0.19385743,-0.0045208335,-0.99763918,0.068523914,0
3.1317704,2.2711985,-0.54299396,0.88800126,-0.035514355,-0.45846742,0
-3.2144783,-2.3081217,0.33386385,-0.88800126,0.035514355,0.45846742,0
-1.9211435,0.64120436,2.9251995,-0.88800126,0.035514355,0.45846742,0
-1.2851827,0.92580152,3.7835591,-0.88800126,0.035514355,0.45846742,0
-0.48625278,2.7914448,-1.0851316,-0.14089727,0.92804444,-0.34479183,0
-1.0143399,2.4711089,2.4417431,0.29035544,0.81642455,0.49914387,0
-2.8525915,-1.4172908,1.3252366,-0.88800126,0.035514355,0.45846742,0
0.55299592,-3.0336199,-0.57713211,-0.061769605,-0.99718964,-0.042395443,0
3.0542426,-1.5298045,-0.47979185,0.88800126,-0.035514355,-0.45846742,0
1.3011806,2.375174,-2.6068931,-0.23864746,0.81664163,-0.52549374,0
2.9554732,0.5712744,1.6653607,0.45314541,0.23710194,0.85932648,0
-1.6120681,1.9552758,3.3277202,-0.88800126,0.035514355,0.45846742,0
2.3513613,-3.0062428,-0.062799454,0.1246013,-0.94113034,0.31424212,0
2.191081,-0.99243689,2.1106796,0.43002185,-0.28904969,0.85529613,0
-2.4473042,1.5808237,1.8863704,-0.88800126,0.035514355,0.45846742,0
2.2871943,1.935817,-2.2076607,0.88800126,-0.035514355,-0.45846742,0
-1.5457544,2.8041704,1.9972591,0.19724494,0.93005174,0.30999714,0
1.2263963,-2.7714596,-2.2114892,-0.22822881,-0.89958465,-0.37236959,0
-1.3891387,1.5062463,3.5914397,-0.88800126,0.035514355,0.45846742,0
-0.62636411,-1.4565024,-2.5124736,-0.4128387,-0.50068831,-0.76083863,0
2.3059292,1.6411233,-1.9962813,0.88800126,-0.035514355,-0.45846742,0
3.6195707,-0.74887729,0.70547575,0.88800126,-0.035514355,-0.45846742,0
0.39222431,-2.8516619,-1.2555149,-0.16065812,-0.95814437,-0.23695649,0
-1.7983197,-0.11949062,3.270539,-0.88800126,0.035514355,0.45846742,0
2.631789,-0.383425,-1.5315373,0.88800126,-0.035514355,-0.45846742,0
-3.0469012,-1.8477143,0.67097771,-0.88800126,0.035514355,0.45846742,0
0.6197319,-0.52002716,-3.6060219,-0.45934638,-0.11473475,-0.88081604,0
-1.5482968,2.3250713,-1.2762324,-0.27190626,0.76348639,-0.58579481,0
0.34463501,2.3580904,-2.1629939,-0.23449874,0.82265723,-0.51792413,0
-1.8963919,-2.7719321,0.036451936,-0.16215074,-0.95715392,-0.23992412,0
1.6644588,2.6954327,0.43937147,0.1962204,0.9309504,0.30794305,0
2.5009041,-1.0426927,-1.6944036,0.88800126,-0.035514355,-0.45846742,0
-0.36039138,3.0010104,-0.46048367,-0.047270775,0.98468101,-0.16783509,0
2.4172573,0.65623569,-1.7380576,0.88800126,-0.035514355,-0.45846742,0
2.1576486,1.4952972,-2.5534894,0.88800126,-0.035514355,-0.45846742,0
-2.1514096,-2.5576904,-0.39874434,-0.22777039,-0.90008378,-0.37144297,0
-0.017201185,-1.2459147,3.1610818,0.40841112,-0.397255,0.82182044,0
2.8337033,-0.023667097,-0.8866747,0.88800126,-0.035514355,-0.45846742,0
-1.761541,-1.6693733,-1.8743092,-0.39555952,-0.56741226,-0.72220206,0
-1.9381239,-1.8486614,-1.6119471,-0.36739928,-0.65436906,-0.66092277,0
-2.390914,0.13157248,2.0147405,-0.88800126,0.035514355,0.45846742,0
1.0353544,2.7398927,0.50121093,0.16138023,0.95766675,0.23839188,0
-2.8624852,-1.8620783,0.94920099,-0.88800126,0.035514355,0.45846742,0
-0.17781973,-2.8993554,-0.29124123,-0.072242975,-0.99540675,-0.062819153,0
2.3242471,-0.95065999,-1.998825,0.88800126,-0.035514355,-0.45846742,0
2.0622218,2.0020514,-2.7936871,0.88800126,-0.035514355,-0.45846742,0
-3.1998618,2.6955109,0.056418777,-0.88800126,0.035514355,0.45846742,0
3.7585261,0.91383553,0.77821237,0.88800126,-0.035514355,-0.45846742,0
3.2026448,0.13640833,-0.34041238,0.88800126,-0.035514355,-0.45846742,0
-2.2474647,-2.0649128,2.4194613,-0.88800126,0.035514355,0.45846742,0
3.0487738,-0.9774735,1.5643922,0.42787832,-0.30140284,0.85210109,0
-1.3726726,-2.9261413,0.32737738,-0.093800247,-0.99003971,-0.1049891,0
2.8474967,2.1493974,0.7807318,0.33657438,0.72953534,0.59539551,0
2.1177084,-1.6736071,-2.2272332,0.88800126,-0.035514355,-0.45846742,0
-1.4119179,-0.23631811,3.9345934,-0.88800126,0.035514355,0.45846742,0
-3.6254742,1.9502373,-0.60543215,-0.88800126,0.035514355,0.45846742,0
1.943581,1.2607896,-2.7213998,0.88800126,-0.035514355,-0.45846742,0
-0.55482984,-2.7932558,-0.70281994,-0.15550458,-0.96146643,-0.22671704,0
1.1933355,-1.8861359,2.0188847,0.34610158,-0.60482991,0.71721303,0
1.3422856,1.7251389,-3.4772699,-0.35060915,0.59281486,-0.7250129,0
-2.278718,2.9579246,0.35582876,-0.084815443,0.96725756,-0.23920515,0
-3.6087887,0.51918578,-0.60306346,-0.88800126,0.035514355,0.45846742,0
-2.6958086,3.0533152,0.63127112,-0.087213755,0.96590972,-0.24374592,0
-1.8889503,-2.8402801,0.10199988,-0.15755314,-0.96016395,-0.23078597,0
3.3479745,2.5265734,-0.21964759,0.88800126,-0.035514355,-0.45846742,0
0.5335924,0.63036621,-3.4976716,-0.43929929,0.22914368,-0.86862499,0
2.1123824,-0.87946963,-2.4752567,0.88800126,-0.035514355,-0.45846742,0
-1.4155653,-2.9395714,0.80646193,-0.02103889,-0.99910688,0.036643922,0
-2.267082,0.90168142,1.8658481,-0.88800126,0.035514355,0.45846742,0
-3.4322901,-0.070916176,0.069000691,-0.88800126,0.035514355,0.45846742,0
0.11845571,-1.3450339,-3.083735,-0.42153686,-0.46124828,-0.78074116,0
1.6614177,2.9874892,-1.3526819,-0.039197624,0.98753822,-0.15241942,0
2.6253757,-1.4096889,1.788996,0.40103146,-0.42803866,0.80991143,0
1.7606207,1.2477397,2.0471556,0.42350188,0.45162076,0.7852928,0
2.0948827,2.2036881,-2.6962299,0.88800126,-0.035514355,-0.45846742,0
0.66636002,-2.9701967,-1.2197313,-0.14551753,-0.9674781,-0.20690753,0
2.4853671,0.12139225,-1.8204105,0.88800126,-0.035514355,-0.45846742,0
-2.5573785,3.1100559,1.2943914,0.033520997,0.99935997,-0.012487024,0
-3.5651627,-0.52598381,-0.23278309,-0.88800126,0.035514355,0.45846742,0
-1.6681666,1.3951297,3.2411499,-0.88800126,0.035514355,0.45846742,0
-0.76370227,2.9105496,-0.29719126,-0.053647876,0.98220354,-0.1799947,0
-1.2094504,1.158497,-2.3807149,-0.4078123,0.39984521,-0.8208611,0
2.4544542,1.3115762,-1.8653125,0.88800126,-0.035514355,-0.45846742,0
-2.4852352,3.0952346,1.1418169,0.0088239312,0.99814558,-0.060228556,0
0.5395391,-2.7546942,1.2802827,0.17661995,-0.89419663,0.41136089,0
3.4843154,1.1768968,1.2818143,0.43570092,0.38377157,0.81417698,0
0.064766169,2.7369566,1.4094698,0.23670089,0.89008462,0.38951492,0
-2.5449893,2.3988135,1.223954,-0.88800126,0.035514355,0.45846742,0
1.8326793,-0.93193769,-2.7500494,0.88800126,-0.035514355,-0.45846742,0
-0.82319295,2.8769426,1.5938793,0.17852992,0.94543099,0.27255678,0
-2.1464741,-2.8383431,1.7189627,0.04425478,-0.98578495,0.16207871,0
1.0665971,-0.46652865,-3.7869577,-0.45914936,-0.12313652,-0.87978357,0
1.8516281,-2.1460149,-2.7650213,0.88800126,-0.035514355,-0.45846742,0
0.99649251,1.1438117,-3.5359232,-0.4106195,0.38755065,-0.82534605,0
-2.8545265,0.97957063,0.9054606,-0.88800126,0.035514355,0.45846742,0
-2.608789,-2.7492583,1.8704324,-0.88800126,0.035514355,0.45846742,0
0.35615015,-2.7996454,1.0277591,0.13565522,-0.93240982,0.33497691,0
-3.1481662,-0.084077835,0.45072591,-0.88800126,0.035514355,0.45846742,0
1.9539118,2.1008279,1.3205528,0.33250028,0.73829436,0.58682621,0
-2.135098,3.1196208,0.98463732,0.021219194,0.99911577,-0.036295384,0
1.6001071,0.46482563,-3.475426,0.88800126,-0.035514355,-0.45846742,0
-3.5722451,1.4463189,-0.35077965,-0.88800126,0.035514355,0.45846742,0
-2.0627592,1.1528592,2.5090313,-0.88800126,0.035514355,0.45846742,0
-2.4785101,0.18140388,1.5594153,-0.88800126,0.035514355,0.45846742,0
-3.4658976,0.95383978,-0.098911464,-0.88800126,0.035514355,0.45846742,0
2.4947004,1.6810688,-1.7512134,0.88800126,-0.035514355,-0.45846742,0
-1.4960986,2.8397098,-0.61214995,-0.14560175,0.92399877,-0.35359049,0
-1.2074518,2.5414252,2.4453602,0.27080864,0.84616786,0.45897982,0
3.3414257,-2.2403946,0.10935259,0.88800126,-0.035514355,-0.45846742,0
3.058866,-2.4109662,-0.40528738,0.88800126,-0.035514355,-0.45846742,0
2.5625787,-1.0882308,-1.3928496,0.88800126,-0.035514355,-0.45846742,0
-2.4413416,3.0515859,1.7096117,-0.88800126,0.035514355,0.45846742,0
-1.8727409,-1.4971827,-2.0727804,-0.41523314,-0.49030086,-0.76628095,0
-2.0077834,2.0052555,-1.579815,-0.32490173,0.65709019,-0.6801995,0
-2.9333265,1.7683699,0.82234764,-0.88800126,0.035514355,0.45846742,0
0.44876242,3.0157523,0.28906107,0.10283548,0.98709947,0.12271729,0
-0.96871471,-2.473222,2.2539158,0.22705644,-0.83313048,0.50432038,0
-3.5069239,1.23054,-0.17914051,-0.88800126,0.035514355,0.45846742,0
-1.4557389,-0.55348063,3.7160878,-0.88800126,0.035514355,0.45846742,0
-2.4741755,0.35297203,1.675899,-0.88800126,0.035514355,0.45846742,0
2.8321326,-0.69397092,-0.84727514,0.88800126,-0.035514355,-0.45846742,0
0.16949272,2.9753661,0.82533532,0.14706463,0.96658319,0.20997356,0
2.7228429,-1.4752307,1.670305,0.38384634,-0.49175578,0.78156137,0
2.5391088,1.0995067,-1.8835976,0.88800126,-0.035514355,-0.45846742,0
3.8069351,-0.071356058,0.82139611,0.88800126,-0.035514355,-0.45846742,0
-2.5439718,2.6304312,-0.31381392,-0.18828148,0.88152707,-0.43296662,0
2.7709768,-2.6119199,-1.0043495,0.88800126,-0.035514355,-0.45846742,0
-2.9196007,0.53896761,1.0154307,-0.88800126,0.035514355,0.45846742,0
-2.0595665,-1.9114113,-1.4784307,-0.35913634,-0.67622638,-0.64322531,0
2.1057529,0.8329289,2.0969512,0.45029449,0.26925844,0.85131353,0
-3.1372898,-2.6293542,0.10872787,-0.23420709,-0.89293581,-0.38446403,0
2.8784394,-0.55749726,-1.0335313,0.88800126,-0.035514355,-0.45846742,0
0.84739709,2.8232212,0.79365414,0.2016806,0.92608339,0.31889588,0
3.1305881,-2.7615602,0.19611335,0.20967478,-0.85606402,0.47243068,0
-2.5042224,2.6963162,1.2737513,-0.88800126,0.035514355,0.45846742,0
3.6062052,-0.77366567,0.65853417,0.88800126,-0.035514355,-0.45846742,0
0.57683635,2.9751046,0.5195511,0.14154136,0.9697175,0.19903274,0
-1.8961666,-2.6085932,-0.69056952,-0.2553103,-0.86730075,-0.42732427,0
0.88103855,-2.849401,-1.7411242,-0.20631576,-0.92179978,-0.32820547,0
-1.0056554,-1.1226742,3.6071813,0.40683728,-0.40402561,0.81929648,0
-1.9930285,-1.8387904,2.843678,-0.88800126,0.035514355,0.45846742,0
-3.5495102,1.3272119,-0.42848933,-0.88800126,0.035514355,0.45846742,0
-2.9523439,-1.2872936,0.8197633,-0.88800126,0.035514355,0.45846742,0
3.8185456,-0.96028543,0.90784699,0.88800126,-0.035514355,-0.45846742,0
1.4341557,2.7474923,0.72605968,0.22234398,0.90587783,0.3604838,0
3.7066183,0.87770009,1.1487557,0.44280317,0.33492017,0.83171737,0
-0.42619634,-2.8255627,-0.71046603,-0.16943288,-0.95213652,-0.25441754,0
-2.4537656,0.43116546,1.777936,-0.88800126,0.035514355,0.45846742,0
2.9241614,2.9056394,-1.2479293,0.88800126,-0.035514355,-0.45846742,0
-2.9447026,2.4061933,0.73225772,-0.88800126,0.035514355,0.45846742,0
2.8713682,2.4813461,-1.3679852,0.88800126,-0.035514355,-0.45846742,0
2.2487483,1.8439684,-2.2122293,0.88800126,-0.035514355,-0.45846742,0
-1.3692248,-0.36574483,4.0258546,-0.88800126,0.035514355,0.45846742,0
1.6948384,0.87259543,-3.1649182,0.88800126,-0.035514355,-0.45846742,0
2.0133603,1.5473742,-2.5586331,0.88800126,-0.035514355,-0.45846742,0
0.18448889,-1.1654422,3.0724616,0.41487345,-0.36813164,0.8320812,0
-0.37396848,0.46428418,3.6171587,0.45950091,0.10686252,0.88172519,0
3.1007318,-2.2146118,-0.33720082,0.88800126,-0.035514355,-0.45846742,0
2.2435193,2.1493368,-2.3381965,0.88800126,-0.035514355,-0.45846742,0
-0.46093476,2.8272824,1.1841681,0.17435229,0.94857156,0.26422197,0
0.50841665,2.5779607,-1.8485117,-0.17923528,0.89142704,-0.41621202,0
2.0139251,-1.4786403,-2.3881869,0.88800126,-0.035514355,-0.45846742,0
1.3350213,2.9613361,-0.47584569,0.067106009,0.9963479,0.052796751,0
-0.18174863,-2.9438844,-0.62326491,-0.13558006,-0.97291291,-0.18723875,0
-3.3679504,1.980346,-0.30762887,-0.88800126,0.035514355,0.45846742,0
-3.0617852,-1.9481428,-0.83392501,-0.3603512,-0.67309952,-0.64582044,0
3.615253,1.1218058,0.4385885,0.88800126,-0.035514355,-0.45846742,0
-3.2235041,2.4591076,0.13131809,-0.88800126,0.035514355,0.45846742,0
-1.722033,-1.9034722,3.319284,-0.88800126,0.035514355,0.45846742,0
3.5790815,-1.1122,0.34182537,0.88800126,-0.035514355,-0.45846742,0
2.0694313,-1.9774632,1.6353761,0.3354148,-0.63200378,0.69861877,0
-3.6149032,-0.7298038,-0.45171404,-0.88800126,0.035514355,0.45846742,0
1.9126916,2.4689913,-2.7160525,-0.2006743,0.86713654,-0.45585534,0
3.3092074,2.4465237,-0.070712626,0.2593106,0.86204147,0.43547964,0
-2.2178707,-0.050949454,-2.3222711,-0.45899802,-0.0081183165,-0.8884002,0
2.5513644,1.6810873,-1.6513408,0.88800126,-0.035514355,-0.45846742,0
-3.3271132,1.9988592,0.023284018,-0.88800126,0.035514355,0.45846742,0
2.4113908,-3.0486395,-1.454406,-0.049161553,-0.998631,-0.017863423,0
0.13705468,0.31669843,3.3031385,0.45984,0.066635728,0.88549805,0
1.0037563,0.65405965,-3.8757362,-0.43982065,0.2253872,-0.8693437,0
1.6820252,-0.23936343,-3.4708545,0.88800126,-0.035514355,-0.45846742,0
-2.7923419,-2.3733397,-0.42454368,-0.26958561,-0.84791118,-0.45647591,0
3.1780725,2.4511867,-0.51877153,0.88800126,-0.035514355,-0.45846742,0
-3.1479959,-0.77278996,0.67110509,-0.88800126,0.035514355,0.45846742,0
2.8907857,0.073937416,-0.93304956,0.88800126,-0.035514355,-0.45846742,0
-3.0530572,-1.973729,0.88546169,-0.88800126,0.035514355,0.45846742,0
-3.1848979,1.3121033,0.15384465,-0.88800126,0.035514355,0.45846742,0
-1.9795389,0.41105747,2.5756223,-0.88800126,0.035514355,0.45846742,0
3.4793792,1.3957237,-0.0020143688,0.88800126,-0.035514355,-0.45846742,0
0.63266462,-1.1201011,2.8276863,0.41137499,-0.38417342,0.82654774,0
-1.4291444,1.7546003,3.4320035,-0.88800126,0.035514355,0.45846742,0
-2.7117715,1.1701739,1.2900862,-0.88800126,0.035514355,0.45846742,0
0.62226343,0.98105276,-3.4376345,-0.41176686,0.38241035,-0.82717007,0
-3.5340719,-1.6973649,-0.14942755,-0.88800126,0.035514355,0.45846742,0
-0.56572056,-2.93713,-0.27996564,-0.10013396,-0.98802191,-0.11741321,0
-1.4712653,-2.9691615,0.13737214,-0.12051141,-0.9801392,-0.15749264,0
-3.6252389,-2.0063133,-0.51434618,-0.88800126,0.035514355,0.45846742,0
-0.90074384,-2.277559,-1.9198064,-0.33112985,-0.74118686,-0.58394766,0
0.76255322,3.0056238,-0.33648396,0.028277099,0.99934357,-0.022642761,0
-1.6983798,-2.9377275,1.5966604,0.060305476,-0.97940814,0.19267315,0
1.3490126,-0.54834187,2.6492844,0.44704306,-0.16690753,0.87880284,0
-2.936451,-1.0285847,-1.5683601,-0.43445489,-0.39148211,-0.81116623,0
-0.39183691,0.1280064,-3.2844963,-0.45534927,0.071099006,-0.88746935,0
0.29708505,2.3954525,-1.9257081,-0.22000366,0.84268844,-0.49140048,0
-1.7856464,-3.0202329,1.0027871,-0.024144769,-0.99923885,0.030638546,0
-2.0358536,-0.010187387,2.6375608,-0.88800126,0.035514355,0.45846742,0
1.6648831,-2.4254055,-3.0400662,-0.32597238,-0.75183809,-0.57313305,0
-3.2409215,2.4529493,-0.26073325,-0.24631041,0.80518711,-0.53944868,0
1.3757182,0.27367541,2.6365893,0.45958546,0.10177306,0.88228315,0
3.4347219,0.40989518,0.15302916,0.88800126,-0.035514355,-0.45846742,0
-2.4995968,-2.795172,0.57896346,-0.11824936,-0.98112047,-0.15303537,0
-1.024518,-2.778739,1.8229002,0.14975619,-0.9203245,0.36135262,0
-1.2157202,2.2878315,-1.5684714,-0.26634732,0.77301532,-0.57576585,0
-2.5805504,0.29301953,1.4528501,-0.88800126,0.035514355,0.45846742,0
1.3372023,2.9064941,-0.25362462,0.09415108,0.98993331,0.10567696,0
-2.409745,3.1194334,0.6533764,-0.042563438,0.98638499,-0.15884921,0
0.90279543,-2.7617717,-1.9200848,-0.21586615,-0.91252363,-0.3474223,0
1.2773789,0.29402098,2.6692524,0.45984086,0.068315811,0.8853696,0
1.7659049,-1.6700842,-3.205579,0.88800126,-0.035514355,-0.45846742,0
-1.6985298,-1.5030071,3.3163664,-0.88800126,0.035514355,0.45846742,0
3.4138288,1.2286319,0.14760318,0.88800126,-0.035514355,-0.45846742,0
2.0270197,-2.0037589,1.4042695,0.31284922,-0.68404615,0.65894324,0
2.7948556,-1.9525359,1.2331803,0.3357715,-0.63112497,0.69924164,0
1.8820295,-3.0487843,-0.43044293,0.033004582,-0.98951942,0.14057761,0
2.9053149,1.7577872,-0.96496987,0.88800126,-0.035514355,-0.45846742,0
-2.6271858,-0.06354785,1.3802958,-0.88800126,0.035514355,0.45846742,0
-3.1943383,-2.2339182,0.45936346,-0.88800126,0.035514355,0.45846742,0
-0.052726924,1.2573516,3.0611358,0.42956057,0.41987938,0.7994867,0
1.2450657,2.6219754,1.0947419,0.25305581,0.87020683,0.42273259,0
-3.5982747,1.3632514,-1.1114109,-0.39451897,0.4533644,-0.79925931,0
-0.24973702,-2.7846565,1.1587996,0.10892779,-0.95239091,0.28475651,0
1.4391216,0.95398426,-3.9280543,0.88800126,-0.035514355,-0.45846742,0
2.2019873,-1.6653097,-2.2058756,0.88800126,-0.035514355,-0.45846742,0
1.899935,-0.7577638,2.3794582,0.43332988,-0.26900873,0.86015087,0
1.3530067,-1.8616526,-3.5080662,-0.39702889,-0.56221873,-0.72545034,0
3.5372477,-1.6584466,0.62646937,0.88800126,-0.035514355,-0.45846742,0
-0.35654521,-2.7356954,1.3475741,0.11848515,-0.94567686,0.30274805,0
2.7088852,2.9297414,-0.94717199,0.097755611,0.98880327,0.1127461,0
3.2639265,-0.24303579,-0.41767156,0.88800126,-0.035514355,-0.45846742,0
1.9477969,1.7867258,1.7149613,0.38276035,0.60964245,0.69414014,0
3.0192153,2.5405171,-0.78437638,0.88800126,-0.035514355,-0.45846742,0
-3.894815,-0.28153801,-1.0943836,-0.88800126,0.035514355,0.45846742,0
0.022462219,-0.17327309,3.4294319,0.45496899,-0.076890886,0.88718152,0
3.4946082,-1.6629994,0.34986305,0.88800126,-0.035514355,-0.45846742,0
-2.4375486,1.4824085,1.8961034,-0.88800126,0.035514355,0.45846742,0
-3.9698143,0.48788905,-1.3476052,-0.88800126,0.035514355,0.45846742,0
2.4033418,0.052960396,-1.8100166,0.88800126,-0.035514355,-0.45846742,0
-0.87192243,-0.57952297,3.8141468,0.4388845,-0.23209685,0.8680504,0
2.9421539,-0.85615826,-0.84682345,0.88800126,-0.035514355,-0.45846742,0
0.048707783,-1.2091048,-3.0325489,-0.43326288,-0.39866334,-0.80830115,0
2.8823671,1.092638,1.6784824,0.43141413,0.40945274,0.80388457,0
-0.5224545,0.044933379,-3.0291588,-0.45864695,0.003394708,-0.88861209,0
2.5606432,-2.1299095,-1.5019346,0.88800126,-0.035514355,-0.45846742,0
-0.21485472,-2.0746987,2.4676723,0.29959387,-0.71168637,0.63541007,0
-1.7134196,1.3197179,-2.0523982,-0.3923175,0.46158117,-0.79563171,0
3.6445503,-1.8013091,0.97295535,0.36567324,-0.54997653,0.75087202,0
3.1163647,-1.423547,-0.27606815,0.88800126,-0.035514355,-0.45846742,0
1.1841276,0.18766165,-4.0005894,-0.45277852,0.10653739,-0.88523525,0
-1.5564936,0.12464333,-2.6061647,-0.45868123,0.0023534894,-0.88859779,0
-2.9857979,-2.8150322,0.46938795,-0.17507958,-0.94803226,-0.2656723,0
-1.3748052,-0.3492794,3.8570936,-0.88800126,0.035514355,0.45846742,0
-0.1732471,2.0724955,-2.4173336,-0.31738368,0.67411876,-0.66695678,0
-1.2393637,-0.082859516,4.0114388,0.45619565,-0.057250604,0.88803601,0
1.9227606,-0.3740685,-2.9965105,0.88800126,-0.035514355,-0.45846742,0
-1.9460564,-2.8444879,0.41502357,-0.10217124,-0.98732972,-0.12141283,0
-0.88729978,2.9525738,1.644489,0.19264102,0.93403751,0.30077094,0
-1.1006181,2.8342566,1.9750613,0.20543498,0.92262465,0.32643563,0
-3.1453891,1.8532541,0.29064441,-0.88800126,0.035514355,0.45846742,0
-0.76167041,1.5552669,-2.3878622,-0.36606836,0.54879242,-0.75154555,0
2.0468493,-2.2795439,-2.4466536,0.88800126,-0.035514355,-0.45846742,0
-1.4735245,1.9356742,3.5709007,-0.88800126,0.035514355,0.45846742,0
-3.9154441,-0.69176769,-1.2803472,-0.44831532,-0.28868529,-0.84597528,0
0.52150106,-3.018892,-1.0484675,-0.13957453,-0.97079313,-0.19513971,0
-0.06823945,-2.9299572,-0.27900749,-0.087972701,-0.99171829,-0.093571872,0
-3.6330574,2.086302,-0.61240447,-0.31975505,0.66882575,-0.67113996,0
-0.19781286,-0.70318139,3.3437526,0.43893281,-0.23175466,0.86811733,0
1.4384053,-1.7480876,-3.4085131,0.88800126,-0.035514355,-0.45846742,0
0.79113579,2.9733598,-1.0722318,-0.052548826,0.98264444,-0.17790014,0
2.0512533,1.4009113,-2.7291696,0.88800126,-0.035514355,-0.45846742,0
0.14659953,-2.9493392,-0.75053525,-0.11777377,-0.98132324,-0.1520983,0
-1.4563931,-0.15541005,3.657326,-0.88800126,0.035514355,0.45846742,0
2.8917341,0.079932451,-1.1307516,0.88800126,-0.035514355,-0.45846742,0
1.9231472,-0.17162299,-2.9716992,0.88800126,-0.035514355,-0.45846742,0
-0.8537215,-1.3135927,-2.6203442,-0.42693076,-0.4340677,-0.79329389,0
-4.0627098,-0.43281722,-1.2436635,-0.45457804,-0.21820676,-0.86356509,0
-2.3755038,1.0826883,1.8042536,-0.88800126,0.035514355,0.45846742,0
-3.2601643,-2.0851178,0.18426895,-0.88800126,0.035514355,0.45846742,0
-2.7773111,-0.52294171,-1.855877,-0.45775977,-0.16301961,-0.87400264,0
1.887078,-1.906283,1.73911,0.34513849,-0.60735297,0.71554309,0
2.6596961,2.2521141,-1.6112981,0.88800126,-0.035514355,-0.45846742,0
1.6138605,-1.7683904,-3.2443767,0.88800126,-0.035514355,-0.45846742,0
-1.9800577,-2.6343651,-0.69409537,-0.26145715,-0.85916412,-0.43986034,0
-0.18192005,1.0470555,-3.0308843,-0.4212617,0.3369168,-0.8420366,0
-2.053798,-2.3735344,-1.1091679,-0.30510628,-0.79144245,-0.52964991,0
-0.35706758,2.9782567,-0.47493136,-0.071974814,0.97398996,-0.21485585,0
0.6355691,-0.033810973,-3.6563754,-0.45892665,-0.0056075156,-0.88845646,0
3.581027,-1.1323366,0.40001321,0.88800126,-0.035514355,-0.45846742,0
-3.5372336,0.80047941,-0.28294384,-0.88800126,0.035514355,0.45846742,0
-1.9394372,-2.1178839,2.9100952,-0.88800126,0.035514355,0.45846742,0
-1.902831,-0.17124701,2.7059364,-0.88800126,0.035514355,0.45846742,0
-0.17027187,1.2598495,3.1363356,0.43308216,0.39973652,0.80786794,0
2.348572,-2.9092913,-1.8926424,0.88800126,-0.035514355,-0.45846742,0
-3.8833299,0.56948662,-0.98310065,-0.88800126,0.035514355,0.45846742,0
-2.2134423,0.95431614,2.3333318,-0.88800126,0.035514355,0.45846742,0
0.35491562,-2.5037253,-1.8971488,-0.27192479,-0.84456539,-0.46126577,0
2.6281075,-1.3359747,-1.4264317,0.88800126,-0.035514355,-0.45846742,0
1.6449175,1.0510505,-3.2332122,0.88800126,-0.035514355,-0.45846742,0
-2.2990673,-2.8127646,0.33192915,-0.16056055,-0.95820874,-0.23676224,0
2.7778354,2.0708618,-1.1838715,0.88800126,-0.035514355,-0.45846742,0
-1.1704817,0.2014482,4.0850954,0.45927316,0.018969156,0.88809252,0
-2.7419853,1.6102629,1.1643343,-0.88800126,0.035514355,0.45846742,0
-2.7446065,1.9075761,1.1682322,-0.88800126,0.035514355,0.45846742,0
-3.2977266,-2.4960899,0.51983726,-0.88800126,0.035514355,0.45846742,0
1.9062386,-1.2070222,-2.7404754,0.88800126,-0.035514355,-0.45846742,0
1.5981402,-1.8899999,-3.1357863,0.88800126,-0.035514355,-0.45846742,0
0.23633432,0.86959076,-3.3068383,-0.42333555,0.32617223,-0.84522116,0
-2.1285882,2.1917262,2.4108181,-0.88800126,0.035514355,0.45846742,0
3.4162822,2.2674358,0.35548908,0.3092494,0.78399634,0.5382514,0
0.67415786,0.65171432,2.9135563,0.45305991,0.23815982,0.85907894,0
1.9886613,-0.83197355,-2.700444,0.88800126,-0.035514355,-0.45846742,0
-1.4382734,-0.59766769,3.6424925,-0.88800126,0.035514355,0.45846742,0
3.35166,1.9224212,0.66443574,0.34934056,0.70043451,0.62237662,0
-3.8249023,-0.46430874,-0.91318136,-0.88800126,0.035514355,0.45846742,0
-3.7736144,0.98560905,-0.76441807,-0.88800126,0.035514355,0.45846742,0
-2.4342232,1.1859825,1.954622,-0.88800126,0.035514355,0.45846742,0
3.1327195,-1.7932045,-0.40542161,0.88800126,-0.035514355,-0.45846742,0
3.7897675,0.40140676,0.90962029,0.88800126,-0.035514355,-0.45846742,0
-2.4895732,2.9307032,1.5163893,-0.88800126,0.035514355,0.45846742,0
2.9869728,-0.28188515,1.8299263,0.45669401,-0.048328646,0.88831013,0
-3.3881927,-1.5128639,-0.00192976,-0.88800126,0.035514355,0.45846742,0
1.3789592,-1.9284873,-3.4425035,-0.39374894,-0.57370698,-0.7182076,0
0.14507967,1.3180993,3.0343714,0.42550173,0.44150555,0.78995001,0
2.5132148,2.9247401,-1.5197256,0.014257431,0.99866021,-0.049744338,0
0.52902341,-2.5867019,1.306356,0.19733781,-0.87110686,0.4497005,0
-1.4842137,0.53533983,3.6871076,-0.88800126,0.035514355,0.45846742,0
-1.8024642,-0.11787939,3.2564433,-0.88800126,0.035514355,0.45846742,0
3.0539539,0.65686512,-0.68693084,0.88800126,-0.035514355,-0.45846742,0
-2.5089319,0.12732697,1.8727596,-0.88800126,0.035514355,0.45846742,0
-2.306628,-2.3311644,-0.76012796,-0.29199308,-0.81376386,-0.50252193,0
-1.4578532,0.0017616749,3.8016317,-0.88800126,0.035514355,0.45846742,0
-0.28196096,2.8074179,-0.70422006,-0.095408499,0.96108764,-0.25924468,0
2.2007172,0.42050672,-2.1469822,0.88800126,-0.035514355,-0.45846742,0
3.4292421,-0.040701866,0.17226064,0.88800126,-0.035514355,-0.45846742,0
-0.26705089,0.10336429,-3.2287476,-0.45706576,0.041201919,-0.8884781,0
-1.9681525,0.053059101,2.651556,-0.88800126,0.035514355,0.45846742,0
-0.43799603,-1.856122,-2.4069309,-0.37554711,-0.63136423,-0.67848623,0
3.8631945,-1.3822548,0.9765265,0.88800126,-0.035514355,-0.45846742,0
-0.22825205,1.2293574,-3.0543783,-0.40601462,0.40751839,-0.81797361,0
1.6270784,-1.4012481,2.1987464,0.3915005,-0.46458894,0.79428232,0
-3.793932,-1.5992877,-0.50062335,-0.88800126,0.035514355,0.45846742,0
-3.0809379,-1.1503022,0.49049574,-0.88800126,0.035514355,0.45846742,0
-2.8484912,-1.3803281,1.2016145,-0.88800126,0.035514355,0.45846742,0
1.6931415,-1.6292849,-3.328753,0.88800126,-0.035514355,-0.45846742,0
1.5947576,-1.7471938,-3.172858,0.88800126,-0.035514355,-0.45846742,0
1.375355,-0.8318634,-3.6962326,0.88800126,-0.035514355,-0.45846742,0
-1.9152408,-2.8024516,0.1308201,-0.13661122,-0.97237396,-0.18927786,0
-1.7054065,-0.91630989,-2.344698,-0.44293952,-0.33388251,-0.83206189,0
0.30809081,1.9033124,2.5818086,0.38745168,0.59475183,0.70438015,0
-3.8647032,-1.5405807,-0.61381692,-0.88800126,0.035514355,0.45846742,0
-2.008235,0.17322278,2.614327,-0.88800126,0.035514355,0.45846742,0
-0.92586476,0.45055199,3.9051905,0.45959511,0.10113888,0.88235098,0
-3.3714807,1.1829839,-0.28477287,-0.88800126,0.035514355,0.45846742,0
2.2785256,-0.14985871,-2.2361219,0.88800126,-0.035514355,-0.45846742,0
1.889819,-0.74014193,2.3737183,0.4369233,-0.24566168,0.86530244,0
-3.8538992,-0.24513984,-0.95823395,-0.88800126,0.035514355,0.45846742,0
-1.7222571,0.80203056,-2.4031055,-0.43744507,0.24211456,-0.86603832,0
2.449749,0.10454607,-1.7690363,0.88800126,-0.035514355,-0.45846742,0
2.6091526,0.0086326599,-1.3587856,0.88800126,-0.035514355,-0.45846742,0
0.92159879,-2.5505195,-2.5093489,-0.28705418,-0.821706,-0.49234048,0
-1.9392185,-0.5208863,-2.3704796,-0.45727217,-0.17343453,-0.87225151,0
2.4954226,-2.3805654,0.80991042,0.27126428,-0.76460063,0.58463788,0
-3.1997962,-0.86070156,0.53909135,-0.88800126,0.035514355,0.45846742,0
-0.29514319,1.0911813,-2.967299,-0.41483301,0.36832124,-0.83201748,0
2.3661408,1.6956872,-2.2945225,0.88800126,-0.035514355,-0.45846742,0
-0.064772725,0.54175353,-3.2781982,-0.44710132,0.16637433,-0.8788743,0
2.5218003,0.63897341,2.0366902,0.45587862,0.19859168,0.8676036,0
0.20904374,3.1008742,-0.005277276,0.049595714,0.99859411,0.018707037,0
2.6786976,-2.3128679,0.76128614,0.28445241,-0.74094421,0.60834908,0
2.8445144,1.9888132,-1.1247175,0.88800126,-0.035514355,-0.45846742,0
0.2543757,0.47032464,-3.5058353,-0.44736826,0.1639135,-0.87920082,0
-2.0771093,1.4560847,2.1910913,-0.88800126,0.035514355,0.45846742,0
-0.24531424,0.74549383,-3.2429006,-0.43261415,0.27345347,-0.85910898,0
-1.4098032,1.1643028,3.5478804,-0.88800126,0.035514355,0.45846742,0
3.3126411,1.0030851,-0.12143885,0.88800126,-0.035514355,-0.45846742,0
-1.1567006,2.9639134,1.6644275,0.17884082,0.94519299,0.27317759,0
-0.84830236,-1.8613688,3.0325799,0.34047723,-0.61935288,0.70744413,0
1.4228179,-2.1603827,1.607461,0.29357183,-0.72360456,0.62466937,0
1.5808566,2.3629909,1.2193673,0.29431081,0.80995142,0.50730646,0
-0.33816814,-2.9637356,-0.45812792,-0.1304642,-0.97550195,-0.17712943,0
0.29691482,2.5856197,1.5762242,0.26612437,0.85277289,0.44939542,0
1.5913093,2.6806598,0.76852798,0.22885638,0.89889884,0.37363824,0
-0.262815,-2.3498011,2.310854,0.27045512,-0.76600021,0.58317888,0
-2.9674032,-1.3778242,0.72763497,-0.88800126,0.035514355,0.45846742,0
-3.6278324,-0.95440221,-0.33519024,-0.88800126,0.035514355,0.45846742,0
-1.2021521,-0.53038871,4.0071206,0.44380441,-0.19481334,0.87469161,0
3.6389725,0.76509309,0.4345071,0.88800126,-0.035514355,-0.45846742,0
-3.5468788,-0.30647516,-0.1590777,-0.88800126,0.035514355,0.45846742,0
2.7390022,0.79029655,-1.3116801,0.88800126,-0.035514355,-0.45846742,0
2.8082335,-0.88972425,-1.1213994,0.88800126,-0.035514355,-0.45846742,0
3.8139849,-0.23863959,0.93019772,0.88800126,-0.035514355,-0.45846742,0
0.33434302,-1.0748556,2.8978398,0.41351154,-0.3744581,0.82993335,0
-0.29186344,1.77754,-2.5686924,-0.34391519,0.61053568,-0.71342027,0
-2.8945971,1.5940683,0.82445472,-0.88800126,0.035514355,0.45846742,0
0.3631826,-1.6725824,-2.8790345,-0.39949948,-0.5533058,-0.73092604,0
3.9314928,0.58941293,1.0717256,0.88800126,-0.035514355,-0.45846742,0
-2.7227521,-2.3193095,-0.57388943,-0.30491549,-0.79178059,-0.5292542,0
0.28661305,-0.16490138,-3.642204,-0.45936865,-0.023337804,-0.8879391,0
-2.0217111,-0.9509064,-2.1755893,-0.44786185,-0.29288295,-0.8447718,0
-2.5899904,-2.9071779,1.8479657,0.053649366,-0.98220295,0.17999768,0
-2.5009727,-2.0818484,-1.0028383,-0.34711856,-0.70568961,-0.61766577,0
-0.72305107,-3.0113659,0.092157841,-0.069404125,-0.99594283,-0.057279378,0
-1.1908078,-2.2914233,2.5006335,0.23877764,-0.81645083,0.52573109,0
-1.5922797,0.85877872,3.2300682,-0.88800126,0.035514355,0.45846742,0
-2.3881485,0.60018432,-2.0680239,-0.44107419,0.21613888,-0.87105542,0
-3.044404,2.4446642,0.53893709,-0.88800126,0.035514355,0.45846742,0
-3.7349572,-0.70991063,-0.65597975,-0.88800126,0.035514355,0.45846742,0
3.2102628,2.129859,-0.34733075,0.88800126,-0.035514355,-0.45846742,0
-3.8009989,0.56679296,-1.0410385,-0.88800126,0.035514355,0.45846742,0
-3.8810863,-0.23800087,-1.0630206,-0.88800126,0.035514355,0.45846742,0
-3.1986606,-2.4490302,-0.36728299,-0.28786445,-0.82041973,-0.49400955,0
-2.3201134,1.9646969,-1.4810836,-0.33851621,0.62429923,-0.7040292,0
-2.5035169,-2.8426397,2.0545759,-0.88800126,0.035514355,0.45846742,0
-1.4489723,-0.031946898,3.5773368,-0.88800126,0.035514355,0.45846742,0
3.6659925,0.14011765,0.50552666,0.88800126,-0.035514355,-0.45846742,0
1.7333308,-1.9314535,-3.1925018,0.88800126,-0.035514355,-0.45846742,0
3.1281457,1.0156902,1.4209431,0.43880743,0.36353245,0.82176173,0
2.2604008,-0.38507283,2.2599125,0.45292437,-0.1047226,0.88537717,0
3.6198339,-1.5402515,0.44462967,0.88800126,-0.035514355,-0.45846742,0
-0.96966481,0.18921542,3.8042693,0.45958343,0.035187665,0.88743722,0
-3.4653647,-0.62566924,0.0095823631,-0.88800126,0.035514355,0.45846742,0
-3.2465534,-1.6522855,0.21799004,-0.88800126,0.035514355,0.45846742,0
1.9822186,-2.0345349,-2.6673169,0.88800126,-0.035514355,-0.45846742,0
3.1792302,-2.6628385,-0.20153737,0.88800126,-0.035514355,-0.45846742,0
-1.5159512,2.9823003,-0.11219335,-0.091684937,0.96332031,-0.2522057,0
-2.0655084,0.58270729,-2.156117,-0.44686586,0.16852275,-0.87858468,0
3.5892723,1.6211193,0.45167881,0.88800126,-0.035514355,-0.45846742,0
-2.1306906,-2.591588,-0.52282929,-0.25390685,-0.86911476,-0.42446536,0
-1.430143,0.28127575,3.6818671,-0.88800126,0.035514355,0.45846742,0
3.0430646,-1.6462345,-0.67003071,0.88800126,-0.035514355,-0.45846742,0
-2.4046166,0.048856258,1.9487284,-0.88800126,0.035514355,0.45846742,0
3.9436142,-0.41361189,1.1413512,0.88800126,-0.035514355,-0.45846742,0
-3.273597,-2.39323,0.32072914,-0.88800126,0.035514355,0.45846742,0
-3.9573302,0.42054176,-1.2330739,-0.88800126,0.035514355,0.45846742,0
-3.5820689,-1.2151133,-1.3178229,-0.43132186,-0.4099803,-0.80366504,0
-1.3578198,-2.9905968,0.79746461,-0.0069865584,-0.99794006,0.063771427,0
-2.0914173,-1.4369684,2.4863503,-0.88800126,0.035514355,0.45846742,0
-2.4311051,3.0359621,0.37890166,-0.076461136,0.97173011,-0.22337022,0
3.4638381,-1.3708022,0.20668906,0.88800126,-0.035514355,-0.45846742,0
-3.5931017,-1.0502739,-0.45311746,-0.88800126,0.035514355,0.45846742,0
1.7347302,-2.9682884,-1.8384675,-0.15275013,-0.96318018,-0.22124931,0
2.2931843,1.3088316,-2.2843151,0.88800126,-0.035514355,-0.45846742,0
2.2772472,0.33020467,2.2095466,0.45813227,0.15419494,0.87540781,0
-3.2068801,-2.063031,0.42802522,-0.88800126,0.035514355,0.45846742,0
0.35823941,-3.0958908,-0.42661792,-0.068431914,-0.99611735,-0.055382848,0
-1.9827822,0.13010907,2.7879152,-0.88800126,0.035514355,0.45846742,0
2.3918762,0.96396601,-2.008076,0.88800126,-0.035514355,-0.45846742,0
0.30777156,-0.64449453,-3.4302711,-0.45810503,-0.15487202,-0.87530255,0
2.300653,-1.1040616,-1.7927425,0.88800126,-0.035514355,-0.45846742,0
-2.388129,-0.24650097,2.0061908,-0.88800126,0.035514355,0.45846742,0
-2.8634443,-2.8981457,1.18045,-0.88800126,0.035514355,0.45846742,0
-2.1350927,0.48714817,-2.3301921,-0.4477357,0.16048235,-0.8796466,0
2.805644,-2.0890012,-1.0401875,0.88800126,-0.035514355,-0.45846742,0
0.36191443,-0.041553617,3.2045002,0.45651972,-0.051525198,0.88822007,0
-2.4886558,-1.0439537,1.9589306,-0.88800126,0.035514355,0.45846742,0
2.0358553,-0.51395249,-2.4238594,0.88800126,-0.035514355,-0.45846742,0
-2.5149481,-2.6039538,2.0249724,-0.88800126,0.035514355,0.45846742,0
-2.4351306,0.30574179,1.7703068,-0.88800126,0.035514355,0.45846742,0
2.8830838,2.5528512,-1.3277137,0.88800126,-0.035514355,-0.45846742,0
3.4528711,2.32779,0.088552445,0.88800126,-0.035514355,-0.45846742,0
-0.36149263,2.8567076,-0.80790436,-0.089377224,0.96466935,-0.24784029,0
2.989872,-1.3590884,-0.57601023,0.88800126,-0.035514355,-0.45846742,0
0.92048419,-1.5020541,2.382962,0.38206494,-0.49783212,0.77858174,0
2.4395359,0.91484284,2.0167091,0.44643095,0.30560309,0.84101498,0
-0.59122574,2.7522061,-1.1933388,-0.18323332,0.88711351,-0.42362154,0
-2.9215326,2.2116714,0.57417554,-0.88800126,0.035514355,0.45846742,0
2.5097051,-2.0348201,-1.3101553,0.88800126,-0.035514355,-0.45846742,0
2.0682416,2.191504,-2.8721933,0.88800126,-0.035514355,-0.45846742,0
1.6789677,-2.4621952,0.90767384,0.22248137,-0.83937085,0.49594223,0
2.0660057,-2.2022395,-2.2765419,0.88800126,-0.035514355,-0.45846742,0
-3.6230793,-1.3179033,-0.39949465,-0.88800126,0.035514355,0.45846742,0
-0.050288558,-1.7946784,2.6372089,0.34316745,-0.6124692,0.71212178,0
3.4762747,-1.9696732,0.41970575,0.88800126,-0.035514355,-0.45846742,0
-3.1229563,2.7396762,0.21052349,-0.88800126,0.035514355,0.45846742,0
1.5307384,-0.76291084,-3.59284,0.88800126,-0.035514355,-0.45846742,0
-0.35651767,1.7364128,-2.5639429,-0.34333089,0.61204743,-0.71240562,0
2.178288,0.98068964,-2.416177,0.88800126,-0.035514355,-0.45846742,0
-1.8274271,2.7346187,2.5171165,0.23653579,0.89027482,0.38918054,0
2.4417315,-1.805406,1.3700016,0.34841365,-0.59870982,0.72121727,0
-2.810766,3.1386664,0.90779865,-0.88800126,0.035514355,0.45846742,0
1.5593336,2.940032,-1.0650535,-0.010600567,0.9951672,-0.097620904,0
3.422554,2.3465242,0.10240877,0.28694278,0.82188231,0.49211115,0
0.11275363,2.9261262,-0.32937622,-0.005230546,0.99616855,-0.087297499,0
-0.79816914,-2.1784835,-1.8400915,-0.32171792,-0.7603544,-0.56423295,0
1.7331781,2.3505857,1.1067642,0.2988869,0.80225921,0.51676565,0
-3.9498389,-0.35677505,-0.88343102,-0.88800126,0.035514355,0.45846742,0
1.6718436,-0.52821803,-3.3846629,0.88800126,-0.035514355,-0.45846742,0
-2.4681087,0.80276847,-2.0513735,-0.43618488,0.25060943,-0.86425555,0
-0.13318908,-1.5285751,-2.9075961,-0.41747522,-0.48026574,-0.77140093,0
0.071621418,3.0572126,0.50422478,0.091879547,0.99061173,0.10122481,0
-3.4524894,-1.5632924,0.069101602,-0.88800126,0.035514355,0.45846742,0
0.95759761,-3.069068,-0.17590821,0.013309717,-0.99461037,0.10282516,0
-1.7071497,2.9828744,1.0746963,0.058269978,0.9976666,0.035580218,0
2.4102626,-2.7149649,-1.6349566,0.88800126,-0.035514355,-0.45846742,0
3.7256663,0.37898445,1.3020157,0.45784679,0.16103522,0.87432492,0
-1.5996323,-1.7934098,3.4200177,-0.88800126,0.035514355,0.45846742,0
1.6359956,2.5077801,-2.7428327,-0.22017419,0.84246147,-0.49171326,0
3.6027675,1.5424159,0.34245566,0.88800126,-0.035514355,-0.45846742,0
3.6938751,0.64516902,0.69164246,0.88800126,-0.035514355,-0.45846742,0
2.8244808,-0.5247829,-0.90306675,0.88800126,-0.035514355,-0.45846742,0
2.7401848,-1.0173135,-1.2524815,0.88800126,-0.035514355,-0.45846742,0
-2.0973032,-0.034319878,2.5322883,-0.88800126,0.035514355,0.45846742,0
0.69733691,2.9228356,-0.22172683,0.046545029,0.99883443,0.012779862,0
-2.6276054,0.75634575,1.3318063,-0.88800126,0.035514355,0.45846742,0
-1.0953903,-1.5711718,3.5356495,0.37691832,-0.51490849,0.7699362,0
3.1551051,-2.4125984,-0.060793757,0.88800126,-0.035514355,-0.45846742,0
1.0491029,-1.2202857,-3.634609,-0.43893257,-0.36268339,-0.82206994,0
-1.688938,2.5237234,-0.8461889,-0.21374595,0.85087872,-0.47991449,0
-3.7379534,0.73136973,-0.70252854,-0.88800126,0.035514355,0.45846742,0
0.13301492,-2.3546472,-2.1794059,-0.31959683,-0.76451224,-0.55980253,0
1.8006521,-3.0909858,-1.0408885,-0.048117578,-0.99871606,-0.015834779,0
0.9216277,-0.5954693,2.8869529,0.44665772,-0.17040506,0.87832737,0
2.7910633,-2.475898,-0.99982959,0.88800126,-0.035514355,-0.45846742,0
0.9566685,-3.0502825,0.066251159,0.033495009,-0.98936909,0.14151606,0
1.6305263,2.046459,1.6182399,0.34532249,0.70987695,0.61386251,0
1.6032403,0.26716995,-3.2998185,0.88800126,-0.035514355,-0.45846742,0
3.1427238,-0.22863173,-0.27007431,0.88800126,-0.035514355,-0.45846742,0
-2.5201821,1.7519245,1.655688,-0.88800126,0.035514355,0.45846742,0
-2.0423026,-2.0496688,2.8121614,-0.88800126,0.035514355,0.45846742,0
2.5926614,-0.35105753,-1.6240913,0.88800126,-0.035514355,-0.45846742,0
2.3300128,1.3794112,1.938483,0.42310849,0.45357186,0.7843799,0
-1.5877625,1.7930751,3.4687448,-0.88800126,0.035514355,0.45846742,0
-2.9871612,-0.91486347,-1.6327488,-0.44148308,-0.34474123,-0.82839978,0
1.5586326,1.0592134,2.3742585,0.43472606,0.38982254,0.81181991,0
-1.7224225,-0.96787846,3.1304803,-0.88800126,0.035514355,0.45846742,0
2.7613645,1.9940871,1.0811546,0.36852485,0.65128058,0.66334224,0
1.9570787,1.0930874,-2.7976449,0.88800126,-0.035514355,-0.45846742,0
-0.51921076,1.0651357,-2.9111035,-0.41013178,0.38971511,-0.82456905,0
-3.1863706,0.71893311,0.38729882,-0.88800126,0.035514355,0.45846742,0
2.8707421,-0.22836268,1.9883705,0.45646533,-0.052504145,0.88819069,0
-2.0675614,0.40972757,2.7198079,-0.88800126,0.035514355,0.45846742,0
2.2657275,1.0238999,-2.2625318,0.88800126,-0.035514355,-0.45846742,0
3.2446647,0.74307132,-0.31643069,0.88800126,-0.035514355,-0.45846742,0
-3.1672897,1.8938389,0.15254194,-0.88800126,0.035514355,0.45846742,0
1.5236005,-2.1447659,-3.2131369,0.88800126,-0.035514355,-0.45846742,0
-1.6359948,0.81412721,3.523365,-0.88800126,0.035514355,0.45846742,0
-2.4208245,-2.0276349,1.9838108,-0.88800126,0.035514355,0.45846742,0
2.1599505,-0.57415223,-2.1907518,0.88800126,-0.035514355,-0.45846742,0
-1.41891,-1.7739096,-1.9510121,-0.38589472,-0.5997647,-0.70097619,0
-2.2289584,-2.1850057,2.2081742,-0.88800126,0.035514355,0.45846742,0
-2.521544,2.1107557,-1.0933168,-0.32161707,0.66461945,-0.67442071,0
-3.3497021,1.9482732,-0.3127892,-0.88800126,0.035514355,0.45846742,0
-0.50357318,-2.9602606,0.28003156,-0.026026607,-0.99929661,0.026997954,0
2.7926328,2.2493036,-1.3493712,0.88800126,-0.035514355,-0.45846742,0
3.016408,1.8419161,1.0994971,0.36794657,0.65287066,0.662099,0
1.5565619,-1.3429728,-3.3924413,0.88800126,-0.035514355,-0.45846742,0
-0.8581996,-2.9264169,0.49418741,-0.013411939,-0.99858916,0.051376462,0
1.7009525,2.1861763,-3.1060195,-0.26672128,0.7723828,-0.57644129,0
-3.1027811,-0.64224005,-1.7057464,-0.45498943,-0.21230188,-0.86481929,0
-2.2333195,-0.25258493,2.1432085,-0.88800126,0.035514355,0.45846742,0
3.2348242,-2.0366166,-0.086042225,0.88800126,-0.035514355,-0.45846742,0
2.8683109,2.6881847,-1.1647742,0.88800126,-0.035514355,-0.45846742,0
0.041626811,1.1650977,-3.0312328,-0.40347856,0.4180944,-0.81388086,0
-1.8371578,-1.176365,-1.9915525,-0.42981037,-0.41849586,-0.80007768,0
-1.8447008,-2.9954443,1.1341946,0.0040307641,-0.99637365,0.084989399,0
-3.9338562,-0.60285854,-1.1254381,-0.88800126,0.035514355,0.45846742,0
-3.4881148,-1.3331512,-0.042183489,-0.88800126,0.035514355,0.45846742,0
2.5760658,-0.067310929,2.0112648,0.4574028,-0.034313545,0.88859731,0
-1.9539075,-0.47619796,2.8336434,-0.88800126,0.035514355,0.45846742,0
1.4751532,-1.4651823,2.1294768,0.38004738,-0.50460953,0.77519888,0
-3.6980371,-1.0528514,-0.5624392,-0.88800126,0.035514355,0.45846742,0
-3.24385,-0.47398782,0.13796017,-0.88800126,0.035514355,0.45846742,0
1.8123778,-2.0771432,-2.9169526,0.88800126,-0.035514355,-0.45846742,0
0.32479548,2.3905168,-2.1012635,-0.24757683,0.80325007,-0.54175162,0
-2.7992458,1.2273011,1.2400875,-0.88800126,0.035514355,0.45846742,0
-2.1419032,2.6286919,2.1543999,-0.88800126,0.035514355,0.45846742,0
-2.579175,1.1486316,1.3883507,-0.88800126,0.035514355,0.45846742,0
-2.1134734,-2.6358044,-0.46512488,-0.24649966,-0.87842578,-0.40939713,0
1.0489839,-2.849143,-1.8084204,-0.19479066,-0.93219316,-0.30507749,0
2.050261,-0.71083498,-2.3724711,0.88800126,-0.035514355,-0.45846742,0
1.2672348,2.7594631,-1.5206048,-0.096180141,0.96061623,-0.2607027,0
-0.9301576,1.518347,-2.450804,-0.37379694,0.52493769,-0.76466739,0
2.6350303,0.78837109,-1.5459009,0.88800126,-0.035514355,-0.45846742,0
-2.0068979,1.0871708,2.5771632,-0.88800126,0.035514355,0.45846742,0
1.6767913,-0.061136961,-3.3120852,0.88800126,-0.035514355,-0.45846742,0
-3.3323488,-0.84933925,0.061759237,-0.88800126,0.035514355,0.45846742,0
-1.5671258,-2.6728029,2.0798514,0.13513958,-0.93283123,0.33401072,0
3.3376098,1.079133,1.4049462,0.43885261,0.36322623,0.82187289,0
-0.63722539,-2.2180846,2.4615543,0.28166324,-0.74608356,0.60334492,0
0.7013731,2.0215435,-2.830137,-0.30261448,0.70556182,-0.64078623,0
3.2593358,2.7294178,-0.59476399,0.88800126,-0.035514355,-0.45846742,0
3.1183181,0.4861331,-0.58887684,0.88800126,-0.035514355,-0.45846742,0
1.9536859,-0.2390554,-2.9448464,0.88800126,-0.035514355,-0.45846742,0
-1.9881995,1.9666679,2.6847482,-0.88800126,0.035514355,0.45846742,0
2.7635717,1.0882357,-1.0736239,0.88800126,-0.035514355,-0.45846742,0
1.2135739,2.790313,-1.6077826,-0.096185923,0.9606126,-0.26071367,0
3.201901,0.15609765,-0.28541389,0.88800126,-0.035514355,-0.45846742,0
0.36512575,-0.51484239,-3.4888833,-0.45844039,-0.14612791,-0.87662941,0
-3.1333442,1.0009642,0.24892461,-0.88800126,0.035514355,0.45846742,0
-3.1727815,2.5122654,0.36141151,-0.88800126,0.035514355,0.45846742,0
-2.3956831,3.0933092,1.1285948,0.006415844,0.99787295,-0.064871728,0
2.2955844,-2.948992,-1.7438246,0.88800126,-0.035514355,-0.45846742,0
-2.0042663,0.98964739,2.7471066,-0.88800126,0.035514355,0.45846742,0
2.0816865,0.68396807,-2.49262,0.88800126,-0.035514355,-0.45846742,0
-2.6706047,1.7514439,1.3801987,-0.88800126,0.035514355,0.45846742,0
1.5121233,2.8077078,-1.3176901,-0.039584816,0.98740834,-0.1531592,0
1.6216375,1.4564425,-3.5569234,0.88800126,-0.035514355,-0.45846742,0
3.2956266,2.5488553,-0.57382286,0.88800126,-0.035514355,-0.45846742,0
-0.25723928,0.308002,3.4237716,0.45946276,0.10895009,0.88148957,0
-1.6430392,1.9592526,-1.6800427,-0.33017969,0.64468896,-0.68946171,0
0.88228309,-2.8717728,0.58996391,0.094987094,-0.96134371,0.2584486,0
-2.6679997,2.5261426,-0.63924468,-0.25324142,0.79443085,-0.55204016,0
-1.5864635,-2.4151073,2.5820532,0.21197701,-0.85314548,0.4766638,0
-1.9660354,-0.71194267,2.6660697,-0.88800126,0.035514355,0.45846742,0
-2.559468,-2.739193,1.5964041,-0.88800126,0.035514355,0.45846742,0
-2.3711705,-0.54254174,1.7875057,-0.88800126,0.035514355,0.45846742,0
-0.24486299,0.85834813,3.3653834,0.44910997,0.28111404,0.8481009,0
-0.80336249,-0.85115921,3.7169633,0.43133873,-0.28122211,0.85724044,0
2.5199718,-0.33420777,1.9835839,0.45438194,-0.085402064,0.88670373,0
-2.6204121,-2.5049939,1.5057065,-0.88800126,0.035514355,0.45846742,0
-3.5014195,-2.0640466,-0.25176242,-0.88800126,0.035514355,0.45846742,0
1.9512396,-2.3362644,-2.3948371,0.88800126,-0.035514355,-0.45846742,0
-3.6545174,0.60057187,-0.42407417,-0.88800126,0.035514355,0.45846742,0
-3.4566269,-1.3806652,-1.0526319,-0.4093163,-0.51540005,-0.7528764,0
-3.1907799,-1.8161974,0.31741306,-0.88800126,0.035514355,0.45846742,0
1.6262572,0.58547235,-3.3177645,0.88800126,-0.035514355,-0.45846742,0
-1.0565299,2.899667,1.414488,0.14744765,0.96635956,0.2107328,0
-2.9092724,-0.67170787,0.96243232,-0.88800126,0.035514355,0.45846742,0
3.0501394,-0.18733191,-0.65679836,0.88800126,-0.035514355,-0.45846742,0
2.6960597,-2.5143304,0.51285231,0.23852968,-0.81681418,0.52527905,0
-1.9185187,2.3280175,2.5324962,-0.88800126,0.035514355,0.45846742,0
-1.9518992,-1.4577045,-2.0387287,-0.41420376,-0.49480677,-0.76393819,0
-1.8788815,-0.37631774,3.1243517,-0.88800126,0.035514355,0.45846742,0
-0.27089483,0.1447826,-3.1654224,-0.45657641,0.050494522,-0.88825011,0
3.0757749,-0.57664561,-0.45143977,0.88800126,-0.035514355,-0.45846742,0
-3.1059976,2.6374295,0.12005448,-0.88800126,0.035514355,0.45846742,0
2.4963326,2.4835241,-1.9530189,0.88800126,-0.035514355,-0.45846742,0
1.1255505,-2.1913462,1.5926133,0.28055653,-0.74810213,0.60135782,0
0.066409349,2.5649247,1.6385562,0.26855505,0.8493697,0.45436698,0
0.32505047,0.23251551,3.1120608,0.45977908,0.084918566,0.88396388,0
-3.2454178,2.1983721,0.19875908,-0.88800126,0.035514355,0.45846742,0
-3.5902612,-1.3961377,-0.17748131,-0.88800126,0.035514355,0.45846742,0
2.9456773,0.59803772,-0.76188755,0.88800126,-0.035514355,-0.45846742,0
2.0130751,-1.964709,1.5430763,0.33408412,-0.63526547,0.69629413,0
-0.23206997,2.3491573,2.4479651,0.32533097,0.75313735,0.5717901,0
-2.3466473,3.0478642,0.64534599,-0.029888153,0.99044728,-0.13461331,0
0.52097654,2.5428357,-1.9161553,-0.20241749,0.86503339,-0.45906886,0
3.4951653,1.9774953,0.67537284,0.34707022,0.7058028,0.61756349,0
2.1842155,0.31914902,-2.4403052,0.88800126,-0.035514355,-0.45846742,0
1.073468,1.274443,2.3886321,0.42772228,0.42986798,0.79515237,0
2.6704397,-1.5794005,-1.2468004,0.88800126,-0.035514355,-0.45846742,0
-3.8166962,-1.0586348,-0.98250872,-0.88800126,0.035514355,0.45846742,0
1.8924035,0.13733763,2.3517547,0.45977607,0.051834814,0.88652074,0
-3.0528965,-0.66712284,0.56878573,-0.88800126,0.035514355,0.45846742,0
-1.4021661,-2.9527822,-0.18724221,-0.15339714,-0.96278137,-0.22253349,0
-2.3283577,-0.42500198,-2.0304871,-0.45792571,-0.15919648,-0.87462014,0
1.6457567,1.5265906,-3.3707576,0.88800126,-0.035514355,-0.45846742,0
-0.40360713,-1.4656054,3.0558028,0.37692201,-0.51489675,0.76994228,0
1.6068063,2.6498914,0.6266225,0.22123593,0.90703535,0.35824785,0
-2.3480816,-0.52198172,2.2117021,-0.88800126,0.035514355,0.45846742,0
2.0447724,-2.8525741,-2.2659359,0.88800126,-0.035514355,-0.45846742,0
1.9859021,2.9017024,-0.44433981,0.10156369,0.98753828,0.12021992,0
2.1877334,-2.9180386,-0.019411445,0.10886186,-0.95243561,0.28463227,0
-3.2944045,2.077338,-0.076984644,-0.88800126,0.035514355,0.45846742,0
-3.9496112,-0.7130692,-0.88432968,-0.88800126,0.035514355,0.45846742,0
0.59001875,-2.9917657,-0.082276225,0.0077713728,-0.99571168,0.092183322,0
-0.35539579,2.6439452,1.8990082,0.26291394,0.8571893,0.44283494,0
