2.9148414,0.7563405,0.68816304,0.41605413,0.39899588,-0.81712973,0
0.38695669,1.6671418,2.1367698,-0.41605413,-0.39899588,0.81712973,0
0.89584279,-3.0145726,0.3246038,-0.41605413,-0.39899588,0.81712973,0
-1.1153984,-1.4904677,-0.15394795,-0.41605413,-0.39899588,0.81712973,0
0.22839621,-0.43074346,-1.1997052,0.41605413,0.39899588,-0.81712973,0
0.7930162,-2.2664049,-1.8549869,0.41605413,0.39899588,-0.81712973,0
-1.399325,2.2102849,-0.74641711,0.41605413,0.39899588,-0.81712973,0
0.1261518,-3.0893157,-0.62520045,0.10475892,-0.91364455,-0.39278364,0
1.3986623,2.3535922,1.3016703,0.43358731,0.70282471,0.56394964,0
1.3187022,-0.89352363,-1.1003666,0.41605413,0.39899588,-0.81712973,0
-0.99425066,-1.6599118,-2.3682332,-0.46270305,-0.68068022,-0.56796139,0
-1.3375558,2.566797,0.73742139,-0.4554863,0.86918229,0.19249491,0
0.61609358,-1.056461,0.90155721,-0.41605413,-0.39899588,0.81712973,0
-1.8148611,-1.0899528,-0.26516843,-0.41605413,-0.39899588,0.81712973,0
-2.5449133,-0.96998566,-0.55991578,-0.41605413,-0.39899588,0.81712973,0
2.7025833,-1.1803875,0.71393752,0.87897891,-0.40671897,0.24894887,0
1.7559998,-1.4639679,-1.1068228,0.41605413,0.39899588,-0.81712973,0
-2.7803407,0.88225752,-0.86003256,-0.90060681,0.3050389,-0.30961043,0
0.67248654,-2.391871,0.32996351,-0.41605413,-0.39899588,0.81712973,0
-1.437142,1.0942912,-1.3498189,0.41605413,0.39899588,-0.81712973,0
2.2201123,-1.078532,1.8262646,-0.41605413,-0.39899588,0.81712973,0
-2.3737752,-1.3219035,-1.2408903,-0.72427988,-0.3979353,-0.56308585,0
-0.99789524,2.8227415,-0.2888549,0.41605413,0.39899588,-0.81712973,0
-0.57857466,-2.8733993,-1.0227606,-0.1464631,-0.85746109,-0.49326339,0
-0.72959316,-1.1779264,-2.0857768,0.41605413,0.39899588,-0.81712973,0
-0.55637431,-3.0926487,-0.61762679,-0.41605413,-0.39899588,0.81712973,0
0.089468479,-1.6466603,0.48636138,-0.41605413,-0.39899588,0.81712973,0
-1.3336513,-2.6367257,-0.7280674,-0.41605413,-0.39899588,0.81712973,0
2.3068187,-1.3960795,1.7308013,-0.41605413,-0.39899588,0.81712973,0
-2.5821838,-0.53403533,-1.4043298,-0.84650588,-0.15829015,-0.50830281,0
-1.4461213,2.7670305,0.10760224,-0.53056306,0.83630139,0.13821305,0
-0.78178793,-0.89091849,0.4054119,-0.41605413,-0.39899588,0.81712973,0
-0.81397843,-1.8599932,-0.033677816,-0.41605413,-0.39899588,0.81712973,0
-2.2237058,2.1510441,0.28652287,-0.68366396,0.72975051,0.0082316399,0
-0.35011911,1.6287334,-0.57001841,0.41605413,0.39899588,-0.81712973,0
-2.3159051,0.73184657,-1.9914823,0.41605413,0.39899588,-0.81712973,0
-1.9076964,-0.25860417,0.19580936,-0.41605413,-0.39899588,0.81712973,0
-0.8386848,0.34054291,-1.4238865,0.41605413,0.39899588,-0.81712973,0
-1.1753341,1.3510081,-1.1527101,0.41605413,0.39899588,-0.81712973,0
1.9589291,0.71091962,2.2488549,0.74807799,0.36070144,0.55702209,0
0.8714096,0.074699044,1.6974165,-0.41605413,-0.39899588,0.81712973,0
-2.0510197,-1.6563623,-1.5718777,-0.63592756,-0.51465148,-0.57509118,0
-0.7788204,2.4406104,-0.45896775,0.41605413,0.39899588,-0.81712973,0
1.4781001,2.6360555,0.70697451,0.41605413,0.39899588,-0.81712973,0
2.9822164,0.024602681,0.78215694,0.90470266,-0.090991646,0.41621292,0
-1.9770601,1.8807251,-1.4085072,0.41605413,0.39899588,-0.81712973,0
0.47023988,2.1713395,0.0089086294,0.41605413,0.39899588,-0.81712973,0
0.2425344,-2.8439207,-0.73282379,0.14712304,-0.91629332,-0.37250668,0
3.1726999,-0.0011421889,0.42787647,0.41605413,0.39899588,-0.81712973,0
-1.6411021,0.41458589,0.66853857,-0.41605413,-0.39899588,0.81712973,0
2.5607009,0.073581696,1.502718,0.88158947,0.043314934,0.47002494,0
-0.66184163,-2.675513,-1.3215903,-0.17731065,-0.8457526,-0.50325269,0
2.6162374,-1.2253664,1.1119978,0.88850164,-0.36963961,0.27190298,0
-1.0799925,-1.0795199,0.11387408,-0.41605413,-0.39899588,0.81712973,0
-0.67578638,-1.3454204,-2.2011385,0.41605413,0.39899588,-0.81712973,0
-2.4151959,1.6708654,-0.22659349,-0.81080198,0.56961107,-0.13469696,0
0.2673353,1.1186278,-0.61175537,0.41605413,0.39899588,-0.81712973,0
1.2120252,1.6690514,2.1764147,0.50257874,0.64798641,0.57230061,0
0.25036836,-2.8372746,-0.81037366,0.11497247,-0.91446656,-0.38798457,0
-0.13078833,3.0504062,0.081214547,0.41605413,0.39899588,-0.81712973,0
-0.16988227,0.59738672,-1.0898467,0.41605413,0.39899588,-0.81712973,0
1.6764872,2.1614289,1.4287214,0.50100189,0.64933383,0.57215577,0
2.5358934,0.45710161,0.32498431,0.41605413,0.39899588,-0.81712973,0
2.6072369,0.779302,0.36682343,0.41605413,0.39899588,-0.81712973,0
-1.6216693,-2.2614074,-1.3241084,-0.46904415,-0.6756689,-0.56874317,0
0.7288096,-2.516459,-1.4547253,0.1966579,-0.91681123,-0.34753814,0
0.26016068,-1.3422568,-1.8010416,0.41605413,0.39899588,-0.81712973,0
-0.67931378,-0.30641341,0.68729436,-0.41605413,-0.39899588,0.81712973,0
-0.70491612,-0.69539273,-2.0149937,0.41605413,0.39899588,-0.81712973,0
-1.1124752,2.9347661,-0.37625998,-0.50391024,0.84916961,0.15806711,0
0.86112654,-2.3301606,-1.8729856,0.41605413,0.39899588,-0.81712973,0
1.5149165,0.054711819,-0.44453299,0.41605413,0.39899588,-0.81712973,0
0.62123674,-1.0592815,0.91816241,-0.41605413,-0.39899588,0.81712973,0
-0.21696162,2.1382422,2.1618543,-0.41605413,-0.39899588,0.81712973,0
-2.7256966,0.68721282,-1.195003,-0.90741372,0.24062172,-0.34453046,0
1.6201471,-1.5690584,1.3891032,-0.41605413,-0.39899588,0.81712973,0
-1.5347469,1.3022866,1.0233989,-0.41605413,-0.39899588,0.81712973,0
2.3476434,0.62947804,1.63413,0.82262284,0.21781994,0.52521014,0
2.2538943,-2.0254092,-0.74026477,0.63569283,-0.77016228,-0.052389562,0
0.45848465,2.9652803,0.44349015,0.41605413,0.39899588,-0.81712973,0
-1.072982,-0.66862702,0.42949027,-0.41605413,-0.39899588,0.81712973,0
0.68306828,0.81161314,-0.41301662,0.41605413,0.39899588,-0.81712973,0
-2.245858,-0.70424032,-2.0930059,-0.79452258,-0.277574,-0.54007983,0
-2.9808102,-0.087511361,-0.75921583,-0.90435266,0.087571323,-0.41770482,0
2.5206406,1.225336,1.3050299,0.76405537,0.33385721,0.5520494,0
2.7114694,0.99976468,1.157629,0.8180232,0.22824652,0.52795947,0
-1.6842805,-0.035853982,0.39471984,-0.41605413,-0.39899588,0.81712973,0
1.4147679,0.21201491,2.0909739,-0.41605413,-0.39899588,0.81712973,0
1.9168006,1.6488234,1.4194827,0.61674786,0.53651249,0.57600015,0
1.5207671,-2.5781119,0.77098215,-0.41605413,-0.39899588,0.81712973,0
-1.6038408,-1.8096378,-1.6441028,-0.52886921,-0.62481469,-0.57437241,0
-0.50879169,-2.8024516,-0.89664102,-0.092306554,-0.87542403,-0.47445977,0
-1.8404071,2.020143,-1.0620513,0.41605413,0.39899588,-0.81712973,0
-0.055341184,-0.79165542,0.71695364,-0.41605413,-0.39899588,0.81712973,0
-2.6466861,0.087565571,-0.044393301,-0.41605413,-0.39899588,0.81712973,0
-1.3650448,-1.4060937,-2.5425625,-0.56707752,-0.5886181,-0.57615238,0
-2.2438042,0.38307023,-2.2206466,-0.88489437,-0.029308647,-0.46486855,0
1.639311,1.4620786,2.1032364,0.59055281,0.5647555,0.57645321,0
0.2555871,-0.42613363,-1.3160707,0.41605413,0.39899588,-0.81712973,0
-2.1970105,-0.22941637,-2.1999643,-0.84215009,-0.16992947,-0.51176834,0
-1.3692046,2.1574078,-0.92464626,0.41605413,0.39899588,-0.81712973,0
2.0331414,1.6334198,0.71135283,0.41605413,0.39899588,-0.81712973,0
2.0085316,-0.0391469,2.1118209,-0.41605413,-0.39899588,0.81712973,0
0.59707028,-0.99603319,-1.3243479,0.41605413,0.39899588,-0.81712973,0
-0.76661116,0.080532968,0.81587577,-0.41605413,-0.39899588,0.81712973,0
1.7654049,-1.8717275,-1.1435169,0.41605413,0.39899588,-0.81712973,0
0.30701041,1.817364,-0.066326678,0.41605413,0.39899588,-0.81712973,0
0.76152444,-3.1181936,-0.033053532,0.37933773,-0.89282942,-0.24281375,0
2.5234118,0.95542276,0.64085412,0.41605413,0.39899588,-0.81712973,0
1.8367202,1.5812452,1.8209767,0.6137023,0.53988892,0.5760982,0
-0.22510314,1.63237,-0.5011487,0.41605413,0.39899588,-0.81712973,0
-0.75294542,-1.993099,-0.21087992,-0.41605413,-0.39899588,0.81712973,0
-1.6811236,-1.5126212,-2.039001,-0.59751213,-0.5574246,-0.57641709,0
0.10251427,2.4612527,1.7254573,0.11314821,0.86889827,0.48188516,0
-2.0229304,0.71194005,-1.9442408,0.41605413,0.39899588,-0.81712973,0
0.44490343,0.058678746,1.4094461,-0.41605413,-0.39899588,0.81712973,0
0.62803173,-2.9494488,-0.39552468,0.28788984,-0.91016978,-0.29784295,0
0.37435055,-1.2780904,0.89820415,-0.41605413,-0.39899588,0.81712973,0
2.4329495,1.3136566,1.2334228,0.76287073,0.33590418,0.55244577,0
1.6957481,-0.97244918,1.562279,-0.41605413,-0.39899588,0.81712973,0
1.9589618,-1.201808,1.6631491,-0.41605413,-0.39899588,0.81712973,0
-2.6440756,1.1541495,-0.97811413,-0.88350588,0.39003739,-0.25939929,0
-1.8789953,-1.9970788,-0.5920279,-0.41605413,-0.39899588,0.81712973,0
-0.23314086,-0.025610685,1.1043911,-0.41605413,-0.39899588,0.81712973,0
0.092431545,0.62115991,-0.87431407,0.41605413,0.39899588,-0.81712973,0
-2.1953814,-0.40311754,-2.1966832,-0.80712056,-0.25189161,-0.53395391,0
1.6391102,1.4504499,0.32222247,0.41605413,0.39899588,-0.81712973,0
-1.7886313,0.17698908,-1.9953718,0.41605413,0.39899588,-0.81712973,0
-1.0564578,-1.8357742,-0.10338461,-0.41605413,-0.39899588,0.81712973,0
1.8995326,-1.1415668,-0.73227137,0.41605413,0.39899588,-0.81712973,0
1.4565511,2.7028899,0.76258254,0.41605413,0.39899588,-0.81712973,0
-1.6433938,-0.1607635,-2.256655,0.41605413,0.39899588,-0.81712973,0
2.2913351,-0.38652211,-0.17388511,0.41605413,0.39899588,-0.81712973,0
-0.28234088,1.4151675,-0.58471012,0.41605413,0.39899588,-0.81712973,0
2.4924219,1.2042536,0.54272461,0.41605413,0.39899588,-0.81712973,0
-0.97101033,0.37966162,0.84862536,-0.41605413,-0.39899588,0.81712973,0
3.092531,0.630683,0.63691783,0.87264591,0.077501714,0.48216426,0
0.97346258,0.9330411,2.1059892,-0.41605413,-0.39899588,0.81712973,0
1.0475935,-0.66575313,1.5132595,-0.41605413,-0.39899588,0.81712973,0
1.8779359,-1.8128003,1.3891767,-0.41605413,-0.39899588,0.81712973,0
-0.73285317,2.9090803,-0.12844965,0.41605413,0.39899588,-0.81712973,0
1.4924835,-0.85795271,-0.80931348,0.41605413,0.39899588,-0.81712973,0
-1.0217267,2.5783243,-0.5136652,0.41605413,0.39899588,-0.81712973,0
-1.6152912,-1.72524,-1.8850889,-0.53317589,-0.62088859,-0.5746482,0
-0.43856061,-1.2055507,0.51182389,-0.41605413,-0.39899588,0.81712973,0
-1.598191,1.5131631,1.2665067,-0.41605413,-0.39899588,0.81712973,0
0.72735763,-2.5329068,-1.459787,0.18477428,-0.9169445,-0.35365388,0
-1.5012783,0.10756755,-1.9384664,0.41605413,0.39899588,-0.81712973,0
2.4415288,1.681622,0.87394166,0.70022058,0.43273696,0.56782901,0
-1.0407465,0.93359911,-1.4078015,0.41605413,0.39899588,-0.81712973,0
-2.8357193,0.83821869,-0.5961442,-0.89986098,0.31005847,-0.30677962,0
1.9434986,-2.0240364,-1.3287364,0.41605413,0.39899588,-0.81712973,0
0.42417842,-0.7420432,-1.4880564,0.41605413,0.39899588,-0.81712973,0
0.21488559,1.3455803,2.0318499,-0.41605413,-0.39899588,0.81712973,0
1.8719174,1.6860036,1.5681872,0.5924443,0.5627749,0.57644922,0
2.1713467,-0.49893132,-0.45105803,0.41605413,0.39899588,-0.81712973,0
-2.1908405,1.9618614,0.64099485,-0.65436161,0.75534105,0.035647005,0
2.7158794,-0.47704542,1.1916287,0.90931386,-0.17575833,0.37717003,0
-0.81596112,2.7859194,0.81985152,-0.30180758,0.90824944,0.28981891,0
2.366775,1.7106541,1.1934514,0.67171705,0.47084787,0.5719251,0
0.55679715,-1.8967795,0.48849046,-0.41605413,-0.39899588,0.81712973,0
-2.0173612,2.1401639,-0.86333394,-0.77284157,0.628672,-0.08653003,0
0.056336761,1.2104039,-0.48356354,0.41605413,0.39899588,-0.81712973,0
1.3535204,0.57751918,2.1833832,-0.41605413,-0.39899588,0.81712973,0
1.5802555,1.5282102,2.0307217,0.59819824,0.55669534,0.57641035,0
-0.94534832,1.3317748,1.4076725,-0.41605413,-0.39899588,0.81712973,0
-0.58092135,-1.0412027,0.36519158,-0.41605413,-0.39899588,0.81712973,0
-2.5273325,0.21091127,-1.6675465,-0.88911474,-0.0099719465,-0.45757556,0
-0.80405951,-2.6433372,-0.49628472,-0.41605413,-0.39899588,0.81712973,0
-0.40482074,1.2967074,-0.69342655,0.41605413,0.39899588,-0.81712973,0
0.65502572,-1.0043495,1.1340445,-0.41605413,-0.39899588,0.81712973,0
-1.0784976,-0.96717525,0.17615592,-0.41605413,-0.39899588,0.81712973,0
-2.835633,0.18075967,-0.99631834,-0.90604806,0.10550353,-0.40981197,0
-1.0554787,-0.61867833,-2.1612015,0.41605413,0.39899588,-0.81712973,0
1.2077156,0.38803697,2.0040026,-0.41605413,-0.39899588,0.81712973,0
2.6906133,-1.5836059,-0.31241405,0.78382868,-0.61290091,0.099825203,0
1.2993664,-2.4270127,-1.3618048,0.33754742,-0.90215868,-0.26864728,0
-2.5900278,0.60401511,-1.5627625,-0.90921152,0.16743374,-0.38118273,0
0.025366306,1.4857651,-0.4191348,0.41605413,0.39899588,-0.81712973,0
-0.62016404,-1.3892448,0.15729588,-0.41605413,-0.39899588,0.81712973,0
-0.1809026,1.9316192,-0.46277034,0.41605413,0.39899588,-0.81712973,0
1.9536707,-2.1984386,1.0552495,0.7755546,-0.624865,0.089770377,0
0.33001614,-0.28157079,-1.2546635,0.41605413,0.39899588,-0.81712973,0
2.8358536,-0.65966272,0.60156107,0.90224981,-0.2931236,0.31626505,0
-1.8730119,0.71749151,-1.9311807,0.41605413,0.39899588,-0.81712973,0
0.1829682,0.72934806,1.5701849,-0.41605413,-0.39899588,0.81712973,0
-1.4152604,2.6426778,0.38871124,-0.50935984,0.84665054,0.15406242,0
-1.4172597,-0.76536053,0.24362528,-0.41605413,-0.39899588,0.81712973,0
-1.3749778,-2.6872284,-0.76400208,-0.41605413,-0.39899588,0.81712973,0
-1.7402836,0.50496882,0.48708844,-0.41605413,-0.39899588,0.81712973,0
0.13954401,1.614538,-0.48530945,0.41605413,0.39899588,-0.81712973,0
1.3996046,1.4996831,2.2266982,0.56646061,0.58922791,0.57613599,0
1.3408699,-0.75471318,1.5971484,-0.41605413,-0.39899588,0.81712973,0
2.8975432,-1.131809,-0.053807497,0.86211902,-0.45888022,0.21489453,0
-1.0722808,2.0620096,1.7858261,-0.41605413,-0.39899588,0.81712973,0
-1.7695516,-0.71564519,-2.4464707,-0.7331003,-0.38448778,-0.5610106,0
1.6141212,0.77141726,2.488081,-0.41605413,-0.39899588,0.81712973,0
-0.39289629,2.0768981,-0.52379251,0.41605413,0.39899588,-0.81712973,0
-0.17931819,3.082252,0.33329314,-0.1849215,0.91694391,0.35357863,0
-2.1832025,0.23950133,0.26658762,-0.41605413,-0.39899588,0.81712973,0
-0.82238817,-2.6355515,-1.1724741,-0.23438549,-0.82117975,-0.52031451,0
-0.57382655,-2.4073341,-1.6683123,-0.21988285,-0.82778811,-0.51615715,0
-2.6088748,1.0763837,0.48402345,-0.41605413,-0.39899588,0.81712973,0
-1.4881141,0.52683949,0.74244046,-0.41605413,-0.39899588,0.81712973,0
0.13359952,0.61438566,1.6444964,-0.41605413,-0.39899588,0.81712973,0
-2.2104206,0.30541897,-2.205929,0.41605413,0.39899588,-0.81712973,0
-0.45790219,-2.738363,-1.0431117,-0.084672868,-0.87769413,-0.47168151,0
2.5131721,0.060633659,1.5701149,0.88355201,0.035104603,0.46701515,0
-0.68176174,-2.9104517,-0.95094013,-0.11478794,-0.86836433,-0.4824594,0
0.4730702,-0.67062044,1.1108961,-0.41605413,-0.39899588,0.81712973,0
-2.7436719,0.52065724,-0.86182785,-0.9092015,0.19819421,-0.36615765,0
1.493169,-1.7739046,1.0125971,-0.41605413,-0.39899588,0.81712973,0
0.13043618,-2.0886164,-2.2852321,0.41605413,0.39899588,-0.81712973,0
1.6210725,-0.97561324,1.5033137,-0.41605413,-0.39899588,0.81712973,0
-2.2814457,1.1119347,-1.9119997,0.41605413,0.39899588,-0.81712973,0
-0.41771531,-0.26981771,0.78916305,-0.41605413,-0.39899588,0.81712973,0
0.85256708,0.27467829,-0.64752924,0.41605413,0.39899588,-0.81712973,0
-0.43738312,1.1074625,1.5444033,-0.41605413,-0.39899588,0.81712973,0
1.6723258,-0.13555765,2.0811281,-0.41605413,-0.39899588,0.81712973,0
-0.26596189,-2.1652656,-2.1164215,-0.16891474,-0.84904706,-0.50058645,0
0.3988381,-0.55677271,1.0916656,-0.41605413,-0.39899588,0.81712973,0
-2.3468418,0.24030125,-1.8082678,-0.89464259,0.018698275,-0.44639087,0
-1.5928713,2.3133285,1.532998,-0.41605413,-0.39899588,0.81712973,0
-0.79276073,0.60288465,-1.2466177,0.41605413,0.39899588,-0.81712973,0
-0.34912217,-1.0632894,0.57644027,-0.41605413,-0.39899588,0.81712973,0
-2.5981097,0.19734642,0.0027651787,-0.41605413,-0.39899588,0.81712973,0
-1.3493466,2.5854933,0.22770584,-0.50478244,0.84877032,0.15742812,0
-1.8932847,0.89653456,-1.6761103,0.41605413,0.39899588,-0.81712973,0
0.18698975,0.031264067,1.3755106,-0.41605413,-0.39899588,0.81712973,0
1.3921206,2.4785218,1.1991403,0.38767171,0.73501784,0.55629057,0
-1.5142186,2.1350021,1.5557809,-0.41605413,-0.39899588,0.81712973,0
2.8024373,-0.95447707,0.61939263,0.89226675,-0.35243675,0.28222001,0
2.290976,-0.53636742,-0.23710644,0.41605413,0.39899588,-0.81712973,0
2.853981,-0.49918753,0.87193298,0.90930164,-0.19077879,0.36982948,0
-0.027868927,-0.486875,-1.3724232,0.41605413,0.39899588,-0.81712973,0
0.37563622,1.4762962,2.0151863,-0.41605413,-0.39899588,0.81712973,0
-0.21334958,1.1145295,-0.77728391,0.41605413,0.39899588,-0.81712973,0
-0.36870599,-2.8319409,-0.38480723,-0.41605413,-0.39899588,0.81712973,0
1.2538066,0.68452334,-0.19603872,0.41605413,0.39899588,-0.81712973,0
-1.1475148,1.9089723,1.4632972,-0.41605413,-0.39899588,0.81712973,0
0.67811441,-0.7099731,1.1008195,-0.41605413,-0.39899588,0.81712973,0
1.8552451,-0.9229939,1.8257604,-0.41605413,-0.39899588,0.81712973,0
2.6883223,-0.77749085,-0.21879172,0.41605413,0.39899588,-0.81712973,0
-0.089478254,2.7333839,1.1892648,-0.017359257,0.90191787,0.43155846,0
0.77930129,1.3403714,-0.2932964,0.41605413,0.39899588,-0.81712973,0
1.6662887,1.7433258,0.40373063,0.41605413,0.39899588,-0.81712973,0
0.32095194,-1.5661864,-1.7893826,0.41605413,0.39899588,-0.81712973,0
-1.5474445,2.491611,0.071157336,-0.55979252,0.82052577,0.11562735,0
0.80785507,-0.51482749,-0.95540899,0.41605413,0.39899588,-0.81712973,0
0.65277791,2.5816798,1.4087203,0.17305183,0.84743381,0.50190508,0
-1.2854357,0.014582753,0.68153012,-0.41605413,-0.39899588,0.81712973,0
-0.82173681,-1.2851424,0.056629419,-0.41605413,-0.39899588,0.81712973,0
-1.9747955,-0.18738818,-2.4055221,0.41605413,0.39899588,-0.81712973,0
2.9764726,0.84995294,0.75856924,0.85757756,0.1266869,0.49850857,0
-0.34387034,0.7332809,1.2919178,-0.41605413,-0.39899588,0.81712973,0
0.040837049,2.1817877,2.140419,0.10139143,0.87263852,0.47772536,0
-0.39934349,-1.0858237,-1.8615059,0.41605413,0.39899588,-0.81712973,0
1.8278676,0.40409565,2.4167922,-0.41605413,-0.39899588,0.81712973,0
0.78581667,-0.35956061,1.4828603,-0.41605413,-0.39899588,0.81712973,0
0.89201164,-2.1487341,0.66049135,-0.41605413,-0.39899588,0.81712973,0
0.10597026,1.0708841,1.8996603,-0.41605413,-0.39899588,0.81712973,0
1.7894549,1.9750177,0.72849655,0.41605413,0.39899588,-0.81712973,0
1.7052071,-2.3911238,0.85537851,-0.41605413,-0.39899588,0.81712973,0
2.2388024,-0.10355794,-0.21545148,0.41605413,0.39899588,-0.81712973,0
0.29613012,-0.96109128,-1.4371191,0.41605413,0.39899588,-0.81712973,0
-2.0980608,1.2577323,0.69882506,-0.41605413,-0.39899588,0.81712973,0
-1.714365,1.6587534,1.1045965,-0.41605413,-0.39899588,0.81712973,0
-0.62442732,2.9225223,0.43467611,-0.29202867,0.90962464,0.29546949,0
-2.3112421,0.63051903,-1.8393009,-0.90438819,0.08791244,-0.41755629,0
0.3110404,2.0851996,0.040845752,0.41605413,0.39899588,-0.81712973,0
-0.14495158,2.5090137,1.5645013,0.0032536983,0.89793766,0.44011036,0
0.22630155,-0.75434947,-1.3573849,0.41605413,0.39899588,-0.81712973,0
-0.20125449,1.3356881,1.7550026,-0.41605413,-0.39899588,0.81712973,0
2.3396981,-1.254173,1.4382544,0.8984524,-0.31900355,0.30169469,0
1.0973842,-0.56448197,1.4313079,-0.41605413,-0.39899588,0.81712973,0
0.59865308,2.0100548,0.008022666,0.41605413,0.39899588,-0.81712973,0
1.3513141,1.497467,2.333297,0.56679308,0.58889925,0.57614475,0
-2.3655565,1.8787943,-0.93164182,-0.83457679,0.52436179,-0.16889709,0
-1.3554147,2.3496704,-0.70131201,0.41605413,0.39899588,-0.81712973,0
1.8591126,-1.3152138,1.5698169,-0.41605413,-0.39899588,0.81712973,0
-1.1007726,2.9245586,-0.14893049,-0.4747225,0.86172825,0.1790608,0
-1.1935365,2.338939,1.6385324,-0.41605413,-0.39899588,0.81712973,0
-2.5835276,-0.36432052,-1.6546099,-0.86239344,-0.11186641,-0.49372399,0
-2.7302871,1.1579065,0.46866727,-0.41605413,-0.39899588,0.81712973,0
-0.97470427,-2.494144,-1.4172375,-0.28943026,-0.7937603,-0.5349527,0
-0.066441536,2.8546638,0.86995798,-0.10541838,0.91370112,0.39247549,0
0.19035351,-1.0949527,-1.5845789,0.41605413,0.39899588,-0.81712973,0
-2.5809686,-1.254097,-0.5987885,-0.41605413,-0.39899588,0.81712973,0
-0.71767282,-2.6007042,-0.52682114,-0.41605413,-0.39899588,0.81712973,0
-1.313457,1.9692621,1.5682648,-0.41605413,-0.39899588,0.81712973,0
0.88636625,-0.7927413,-1.1477997,0.41605413,0.39899588,-0.81712973,0
2.8020103,0.7034173,0.95453238,0.84843874,0.15299228,0.50670004,0
1.5381972,1.4777249,0.20152712,0.41605413,0.39899588,-0.81712973,0
1.6271863,0.90666032,0.11390018,0.41605413,0.39899588,-0.81712973,0
-0.53525543,-2.1510179,-0.1720345,-0.41605413,-0.39899588,0.81712973,0
1.8753479,2.2761757,0.75312972,0.41605413,0.39899588,-0.81712973,0
-2.4387074,-1.4935939,-1.126219,-0.71155715,-0.41666472,-0.56575316,0
0.60694814,-2.7292523,-1.2316606,0.17830724,-0.91694832,-0.35694855,0
1.4471052,-0.35178268,1.7333275,-0.41605413,-0.39899588,0.81712973,0
-1.9578724,-0.47578454,-2.3214238,-0.78977251,-0.28685495,-0.54219306,0
0.015939951,1.8369707,2.0192561,-0.41605413,-0.39899588,0.81712973,0
2.1300342,0.073073149,2.4004927,-0.41605413,-0.39899588,0.81712973,0
-2.3771129,-0.9716202,-1.4536631,-0.78298527,-0.29976949,-0.54504323,0
1.0672647,1.9737442,1.8946378,0.42038578,0.71241343,0.56190991,0
-2.4695063,1.1664844,0.48707867,-0.41605413,-0.39899588,0.81712973,0
-1.4804081,0.47399652,-1.7520219,0.41605413,0.39899588,-0.81712973,0
-2.5985303,1.217284,0.38049972,-0.41605413,-0.39899588,0.81712973,0
2.9997358,-0.39784035,0.59032011,0.90773535,-0.2355881,0.34715205,0
-1.8869841,0.9090144,0.62354892,-0.41605413,-0.39899588,0.81712973,0
1.8391056,2.1871159,1.0502193,0.4963581,0.65327573,0.57171607,0
2.261935,-1.1498958,-0.60737669,0.41605413,0.39899588,-0.81712973,0
-0.25676322,2.8691058,1.1457791,-0.099305212,0.9131583,0.39532298,0
-1.7153621,-2.491004,-0.8614192,-0.46196222,-0.681261,-0.56786788,0
-1.3427739,1.2302277,1.2485883,-0.41605413,-0.39899588,0.81712973,0
1.27557,0.37654769,-0.38654655,0.41605413,0.39899588,-0.81712973,0
-1.1675185,2.7304897,0.44843844,-0.44308752,0.87365633,0.20099258,0
-2.7003849,-0.86105812,-1.240325,-0.82747829,-0.20649055,-0.5221504,0
0.48284355,-0.2355417,-1.0728528,0.41605413,0.39899588,-0.81712973,0
0.45511901,-2.2396836,0.47904664,-0.41605413,-0.39899588,0.81712973,0
2.3571382,-0.53625858,1.7319386,0.90653682,-0.11149126,0.40713704,0
-0.37757945,2.7272294,-0.10311072,0.41605413,0.39899588,-0.81712973,0
0.71939254,1.7394282,0.1060878,0.41605413,0.39899588,-0.81712973,0
2.4420278,0.5246802,0.38706422,0.41605413,0.39899588,-0.81712973,0
1.0884311,1.8161269,2.0995224,0.42954534,0.7057898,0.56333941,0
-0.85985529,-0.73170805,0.42207783,-0.41605413,-0.39899588,0.81712973,0
0.7742337,0.43524277,1.9091802,-0.41605413,-0.39899588,0.81712973,0
-1.0081353,2.9413085,0.44869721,-0.35741651,0.8980279,0.25651363,0
-0.84049726,2.2751989,-0.54066026,0.41605413,0.39899588,-0.81712973,0
2.6676328,1.1880523,0.72669649,0.41605413,0.39899588,-0.81712973,0
1.1040554,-1.2423443,-1.3401291,0.41605413,0.39899588,-0.81712973,0
-1.8672705,-1.4474292,-1.8129754,-0.62476134,-0.52750599,-0.5756824,0
-2.6617765,-0.10642791,-0.25692129,-0.41605413,-0.39899588,0.81712973,0
1.652092,-2.3812068,0.99577582,-0.41605413,-0.39899588,0.81712973,0
1.4050304,1.2392211,2.3771553,0.60800922,0.5461337,0.57624865,0
1.4044766,2.4430418,1.1590862,0.41179287,0.71850812,0.56051075,0
-1.7566485,-2.4196594,-0.75388479,-0.41605413,-0.39899588,0.81712973,0
1.1441531,2.6844132,0.7137475,0.41605413,0.39899588,-0.81712973,0
0.25426579,2.895139,0.87227595,0.016246438,0.89519173,0.44538495,0
2.9102902,-0.85070527,0.41420603,0.89446336,-0.34144393,0.28870612,0
-1.6684284,0.75288129,-1.5847533,0.41605413,0.39899588,-0.81712973,0
-1.7252899,-0.33779335,0.21563244,-0.41605413,-0.39899588,0.81712973,0
2.3911362,0.017353415,1.7277174,0.88192344,0.041938663,0.46952295,0
1.9388443,-0.70103216,1.8403201,-0.41605413,-0.39899588,0.81712973,0
-1.7048764,-2.3232908,-0.72653008,-0.41605413,-0.39899588,0.81712973,0
-1.8403914,-0.14087069,-2.1378844,0.41605413,0.39899588,-0.81712973,0
-0.99140149,1.3578603,-0.9556058,0.41605413,0.39899588,-0.81712973,0
2.5849843,0.82233691,1.4547505,0.8210935,0.22131886,0.52613997,0
0.62827867,0.18620026,1.5492051,-0.41605413,-0.39899588,0.81712973,0
0.67806017,-0.88416386,1.2115426,-0.41605413,-0.39899588,0.81712973,0
2.2206364,1.4226149,0.72225904,0.41605413,0.39899588,-0.81712973,0
-1.9635011,1.5580548,1.0382406,-0.41605413,-0.39899588,0.81712973,0
0.78400898,-2.9069126,-0.22064784,0.33934367,-0.90180749,-0.26756129,0
2.7311878,0.94579983,0.85772419,0.82645738,0.20890155,0.52280784,0
-1.6697278,-1.5528333,-0.28699875,-0.41605413,-0.39899588,0.81712973,0
2.0474451,0.89104259,2.175858,0.73406506,0.38299248,0.56077176,0
-1.1930718,1.2758517,-1.3276206,0.41605413,0.39899588,-0.81712973,0
1.572171,1.6633348,0.36066914,0.41605413,0.39899588,-0.81712973,0
-0.59123075,2.1939111,-0.351161,0.41605413,0.39899588,-0.81712973,0
-1.3443735,-0.013306737,-2.0210819,0.41605413,0.39899588,-0.81712973,0
0.8828702,2.098743,2.038655,0.33203983,0.76989084,0.54499292,0
-0.47933352,2.0928326,-0.35410047,0.41605413,0.39899588,-0.81712973,0
0.12655747,-0.93558586,-1.5720749,0.41605413,0.39899588,-0.81712973,0
-1.1204691,-2.3000422,-1.5068731,-0.3314023,-0.77026582,-0.5448513,0
1.1636487,0.28589022,-0.59431469,0.41605413,0.39899588,-0.81712973,0
-0.31268629,-0.22656763,1.0150808,-0.41605413,-0.39899588,0.81712973,0
2.5468838,-1.2374732,1.1990423,0.88954002,-0.36507544,0.27466035,0
-1.6286523,1.9398853,-1.1806122,0.41605413,0.39899588,-0.81712973,0
0.97225243,0.59729981,1.9357097,-0.41605413,-0.39899588,0.81712973,0
2.8938093,0.22395223,0.26962948,0.41605413,0.39899588,-0.81712973,0
-1.2955133,-0.83067584,-2.1825137,0.41605413,0.39899588,-0.81712973,0
-0.1173315,0.62257981,1.4154798,-0.41605413,-0.39899588,0.81712973,0
-0.075098991,1.2185783,-0.72617364,0.41605413,0.39899588,-0.81712973,0
1.759815,-2.3914418,-0.043561459,0.59674448,-0.79783803,-0.085734516,0
0.28950453,2.7362065,1.3296056,0.08749944,0.87686104,0.47271386,0
2.6053305,-1.3852084,0.31054163,0.83957171,-0.51373243,0.17663056,0
1.661696,0.86571383,0.026220441,0.41605413,0.39899588,-0.81712973,0
-1.739593,2.0528989,1.4375564,-0.41605413,-0.39899588,0.81712973,0
1.4852951,-0.89627063,1.580546,-0.41605413,-0.39899588,0.81712973,0
0.85879123,0.54794884,1.8831694,-0.41605413,-0.39899588,0.81712973,0
-0.38034177,1.3236068,-0.79067183,0.41605413,0.39899588,-0.81712973,0
-1.9174056,2.4091356,-0.57820415,-0.71110833,0.70282876,-0.018887639,0
-1.9254501,-1.3664545,-0.42434955,-0.41605413,-0.39899588,0.81712973,0
2.5963778,-1.3264894,0.37060475,0.85196197,-0.48517847,0.19688183,0
-1.2528865,0.89478976,0.98028332,-0.41605413,-0.39899588,0.81712973,0
2.4813278,0.54380643,1.8101888,0.83164197,0.19648986,0.51938713,0
0.51428223,-1.7262669,-1.7899114,0.41605413,0.39899588,-0.81712973,0
2.1600077,0.18659338,-0.091557264,0.41605413,0.39899588,-0.81712973,0
1.7239671,-0.0077337027,-0.38378298,0.41605413,0.39899588,-0.81712973,0
-1.025864,0.58336985,-1.4130417,0.41605413,0.39899588,-0.81712973,0
1.4456279,-2.1588571,-1.655803,0.41605413,0.39899588,-0.81712973,0
-1.4356763,1.7934848,-1.1144477,0.41605413,0.39899588,-0.81712973,0
-0.83237255,1.061252,-1.1242412,0.41605413,0.39899588,-0.81712973,0
-0.70640159,2.9436116,0.38651586,-0.33508509,0.90263295,0.27013269,0
-1.0137632,2.2037899,-0.61799818,0.41605413,0.39899588,-0.81712973,0
0.33458358,-0.85841382,1.0630783,-0.41605413,-0.39899588,0.81712973,0
-1.2670357,-0.9539448,0.10884702,-0.41605413,-0.39899588,0.81712973,0
1.4945481,2.0549138,1.4678946,0.48908979,0.65936536,0.57098883,0
-1.8418012,1.0133194,0.88484752,-0.41605413,-0.39899588,0.81712973,0
0.64536333,2.6630692,1.4133642,0.1697486,0.84872347,0.500853,0
0.31845236,-2.6843061,-1.4866896,0.043880701,-0.90635914,-0.42022324,0
0.73830634,0.9984588,-0.4819037,0.41605413,0.39899588,-0.81712973,0
0.0019376278,-1.0133569,0.74176961,-0.41605413,-0.39899588,0.81712973,0
2.1999362,-1.6603646,-0.81373668,0.41605413,0.39899588,-0.81712973,0
0.72569823,0.51028752,1.9025264,-0.41605413,-0.39899588,0.81712973,0
-1.1111541,2.7644985,0.33110875,-0.4494741,0.87138343,0.19663095,0
-2.7637384,-1.4266863,-0.77187586,-0.41605413,-0.39899588,0.81712973,0
2.8222024,1.0258989,0.6749773,0.41605413,0.39899588,-0.81712973,0
1.7612867,-0.53181255,1.9020746,-0.41605413,-0.39899588,0.81712973,0
1.9765321,1.6704282,0.5545249,0.41605413,0.39899588,-0.81712973,0
-0.82574517,0.57910252,-1.4385418,0.41605413,0.39899588,-0.81712973,0
-0.60247505,-0.34173882,-1.7968235,0.41605413,0.39899588,-0.81712973,0
-1.3193047,1.3834814,-1.2309382,0.41605413,0.39899588,-0.81712973,0
-1.5510738,2.4178925,0.61769271,-0.50857109,0.84701872,0.15464374,0
-0.85271525,2.4525058,-0.44109872,0.41605413,0.39899588,-0.81712973,0
-1.4217567,-1.3076551,-0.18092191,-0.41605413,-0.39899588,0.81712973,0
-1.5239161,2.6298704,-0.55828261,-0.6465863,0.76164567,0.042684406,0
0.077739596,-1.6279559,0.42818201,-0.41605413,-0.39899588,0.81712973,0
0.0015528202,0.31159687,1.4452662,-0.41605413,-0.39899588,0.81712973,0
-0.30643845,2.0782111,1.9751189,-0.41605413,-0.39899588,0.81712973,0
-0.21212387,0.15028203,1.1526129,-0.41605413,-0.39899588,0.81712973,0
-2.5714993,-1.2322822,-1.0953741,-0.78242439,-0.30081919,-0.5452702,0
-2.0182168,2.1088839,1.18753,-0.52352619,0.83983457,0.14352119,0
-1.699772,-0.52569771,-2.2777472,0.41605413,0.39899588,-0.81712973,0
-0.34573179,0.035898924,0.97296804,-0.41605413,-0.39899588,0.81712973,0
0.21220684,-3.0538607,-0.67619526,0.12354475,-0.91506684,-0.38391298,0
1.5344783,-1.5148656,1.2435551,-0.41605413,-0.39899588,0.81712973,0
-0.42600635,0.54240072,-1.2407818,0.41605413,0.39899588,-0.81712973,0
0.33834255,-1.8895873,-2.0249245,0.41605413,0.39899588,-0.81712973,0
1.5150335,2.7098675,0.94627118,0.35562909,0.75563323,0.55004185,0
-0.87537575,-0.39809668,-1.8655337,0.41605413,0.39899588,-0.81712973,0
-0.54797268,1.5473198,1.6319047,-0.41605413,-0.39899588,0.81712973,0
-0.00083756447,2.9801922,0.27748209,0.41605413,0.39899588,-0.81712973,0
-1.669417,-2.0345359,-1.6437171,-0.51877314,-0.63387257,-0.57365471,0
-1.9967854,1.3749694,0.87598228,-0.41605413,-0.39899588,0.81712973,0
-0.48668909,2.3448205,1.9294096,-0.066159129,0.9094969,0.41041204,0
-1.9068282,1.226275,-1.7166584,0.41605413,0.39899588,-0.81712973,0
0.26673597,-1.1310002,0.73901767,-0.41605413,-0.39899588,0.81712973,0
1.2243199,-2.5077982,-1.0568094,0.35091096,-0.89944029,-0.26051572,0
-1.45033,1.1660984,1.1698616,-0.41605413,-0.39899588,0.81712973,0
1.7751657,-2.376477,-1.2097447,0.45396233,-0.86974597,-0.19354615,0
-2.7762055,0.24884129,-1.2092576,-0.90240121,0.07036674,-0.42511201,0
2.4182823,0.63981342,1.5964859,0.81230587,0.24082407,0.5311898,0
0.22158551,1.1212285,-0.55340379,0.41605413,0.39899588,-0.81712973,0
-0.8361156,-1.9617441,-2.3158269,-0.38173169,-0.73895085,-0.55518657,0
0.48712873,-2.0161512,-1.9904591,0.41605413,0.39899588,-0.81712973,0
0.93146658,2.7039475,1.0465003,0.20998871,0.83215278,0.51325053,0
-0.23014593,-2.8186321,-1.0627853,-0.055205226,-0.88585645,-0.46066314,0
2.8827841,-1.1156992,-0.1878655,0.41605413,0.39899588,-0.81712973,0
2.4400363,0.086891294,1.7206278,0.87981457,0.050494552,0.47262692,0
2.9380355,0.60242647,0.53077626,0.41605413,0.39899588,-0.81712973,0
1.3537303,-2.5706649,-1.1527259,0.38462704,-0.89147174,-0.2394577,0
-2.1179297,-0.69253492,-2.0375636,-0.79688561,-0.27287829,-0.53899014,0
-1.8105173,1.2933104,-1.4277445,0.41605413,0.39899588,-0.81712973,0
-0.05361104,-2.9104202,-0.80523062,0.040307283,-0.90580535,-0.42177233,0
-1.6097841,0.3154434,-1.8266008,0.41605413,0.39899588,-0.81712973,0
-0.83523703,2.6118233,-0.28450355,0.41605413,0.39899588,-0.81712973,0
-1.6262287,-1.6538968,-0.3693006,-0.41605413,-0.39899588,0.81712973,0
-0.089328885,-1.0667825,0.75795674,-0.41605413,-0.39899588,0.81712973,0
0.033250332,-1.1782017,-1.7331158,0.41605413,0.39899588,-0.81712973,0
2.4926457,-0.35551202,1.912313,0.89498007,-0.02060923,0.44562948,0
2.2673087,1.5505649,0.6727643,0.41605413,0.39899588,-0.81712973,0
-0.76022375,-1.070893,-2.0331452,0.41605413,0.39899588,-0.81712973,0
-2.0678065,-0.86828518,-2.1433794,-0.76194602,-0.33749557,-0.55275202,0
0.072868019,0.1137768,1.3627577,-0.41605413,-0.39899588,0.81712973,0
-0.096904993,-1.5184538,-1.8976426,0.41605413,0.39899588,-0.81712973,0
1.6375871,2.3706558,1.1245425,0.44128162,0.69710803,0.56507593,0
0.73893833,-0.81325233,1.1888498,-0.41605413,-0.39899588,0.81712973,0
-0.88292718,-2.3773813,-1.6693977,-0.31056386,-0.78221869,-0.54007769,0
-1.476855,1.7391692,1.4275815,-0.41605413,-0.39899588,0.81712973,0
-1.4153109,2.5237889,-0.70706367,0.41605413,0.39899588,-0.81712973,0
-0.24689555,1.1110646,-0.92385334,0.41605413,0.39899588,-0.81712973,0
0.92711258,-1.8264741,0.76512104,-0.41605413,-0.39899588,0.81712973,0
-0.25447229,0.026456594,1.2213207,-0.41605413,-0.39899588,0.81712973,0
-0.091421843,-2.3103123,-2.1023507,-0.10787642,-0.87059438,-0.48002917,0
-2.2034268,0.85384893,-2.036159,0.41605413,0.39899588,-0.81712973,0
-0.073156595,2.6602116,1.2843075,-0.037612915,0.9053787,0.42293584,0
1.4286602,0.18638873,-0.51895344,0.41605413,0.39899588,-0.81712973,0
1.7045125,1.2012717,2.1749368,0.65618861,0.49036509,0.57354867,0
1.7248856,-1.0991555,1.6621399,-0.41605413,-0.39899588,0.81712973,0
-0.97909522,-2.5810654,-1.0659062,-0.25497121,-0.81136322,-0.52600276,0
0.80151939,-2.1488609,0.64338869,-0.41605413,-0.39899588,0.81712973,0
1.0526412,-0.59982932,-0.87965119,0.41605413,0.39899588,-0.81712973,0
1.3928528,-2.7695842,0.48946708,0.61559522,-0.78496093,-0.069848567,0
-0.80030751,-2.4843388,-0.41914403,-0.41605413,-0.39899588,0.81712973,0
0.69518292,1.8294966,-0.0049561262,0.41605413,0.39899588,-0.81712973,0
-0.2715981,-2.4880567,-0.10733151,-0.41605413,-0.39899588,0.81712973,0
2.1185408,-0.77614033,1.8504336,-0.41605413,-0.39899588,0.81712973,0
-2.5996816,-0.77412999,-0.49231195,-0.41605413,-0.39899588,0.81712973,0
1.1710099,-0.86011052,-1.1513118,0.41605413,0.39899588,-0.81712973,0
1.1321824,0.82009661,2.1698799,-0.41605413,-0.39899588,0.81712973,0
1.2581319,0.61518288,-0.19157517,0.41605413,0.39899588,-0.81712973,0
0.23698151,-0.8518337,-1.6066229,0.41605413,0.39899588,-0.81712973,0
0.033228636,1.7762396,2.0759709,-0.41605413,-0.39899588,0.81712973,0
0.55786276,-2.409996,0.37860134,-0.41605413,-0.39899588,0.81712973,0
-2.534301,1.7712519,0.81140447,-0.41605413,-0.39899588,0.81712973,0
2.9053702,-0.36070538,1.0202408,0.90925467,-0.17024207,0.37983352,0
1.6986355,0.83024156,0.16262507,0.41605413,0.39899588,-0.81712973,0
-1.2445267,-1.0207185,0.046172619,-0.41605413,-0.39899588,0.81712973,0
-1.2021061,-1.2882774,-2.4681661,0.41605413,0.39899588,-0.81712973,0
-2.3315241,1.9590901,0.50443912,-0.67636555,0.73640919,0.015199214,0
-2.0440497,-0.96416402,-0.29388213,-0.41605413,-0.39899588,0.81712973,0
-0.97355074,0.9883579,-1.3294134,0.41605413,0.39899588,-0.81712973,0
-2.2952514,-0.55863345,-1.8029299,-0.8222183,-0.21874879,-0.52545786,0
1.2907016,-1.4426786,1.2548736,-0.41605413,-0.39899588,0.81712973,0
2.0542874,1.3546827,0.44444418,0.41605413,0.39899588,-0.81712973,0
-2.7749898,1.3511513,-0.27988243,-0.84559309,0.50027674,-0.18626666,0
-1.2090993,2.0679286,-0.91068906,0.41605413,0.39899588,-0.81712973,0
-2.1435168,-0.2020005,-2.2281172,-0.84811991,-0.15387195,-0.50696743,0
-1.7068422,0.28086066,-2.0011616,0.41605413,0.39899588,-0.81712973,0
-2.0804009,-0.80608189,-0.28664446,-0.41605413,-0.39899588,0.81712973,0
-0.30085111,2.9675353,0.53940529,-0.19408101,0.91685414,0.34887105,0
-1.4726692,0.89831424,-1.6090499,0.41605413,0.39899588,-0.81712973,0
0.25711471,-0.51798904,1.2120774,-0.41605413,-0.39899588,0.81712973,0
-1.6228608,0.30417109,-1.9596848,0.41605413,0.39899588,-0.81712973,0
2.4935231,-0.31598771,-0.039124727,0.41605413,0.39899588,-0.81712973,0
1.1854901,1.1337439,0.028167367,0.41605413,0.39899588,-0.81712973,0
3.1991673,-0.16259506,0.22901416,0.41605413,0.39899588,-0.81712973,0
2.4852142,-1.5589991,0.79927492,0.85403651,-0.48004535,0.20044458,0
-0.91934741,-1.4160966,-0.00116992,-0.41605413,-0.39899588,0.81712973,0
-1.6242745,-0.25211105,0.15505636,-0.41605413,-0.39899588,0.81712973,0
2.9327946,0.69463849,0.70166779,0.41605413,0.39899588,-0.81712973,0
-2.2715311,-0.68943268,-0.31684947,-0.41605413,-0.39899588,0.81712973,0
-2.3645873,0.86119521,-1.9102824,-0.90913749,0.16355801,-0.38303745,0
2.3426151,-1.8621033,0.1156081,0.76804644,-0.63526762,0.080867946,0
-3.0541973,0.81886822,0.045866728,-0.88401318,0.38807091,-0.26061785,0
0.57444179,-1.0812402,-1.3716336,0.41605413,0.39899588,-0.81712973,0
2.8161464,-0.88809001,0.29993057,0.88602543,-0.38004827,0.26555967,0
-2.5493052,0.8139509,0.2772963,-0.41605413,-0.39899588,0.81712973,0
2.1613369,1.8048214,0.74994206,0.41605413,0.39899588,-0.81712973,0
0.11572194,2.0705414,-0.08975935,0.41605413,0.39899588,-0.81712973,0
2.0614483,-2.2055733,-0.23019946,0.67889386,-0.7341249,-0.012796432,0
-0.88331449,1.7208891,1.7017317,-0.41605413,-0.39899588,0.81712973,0
2.7793615,-0.61876804,1.061425,0.90825653,-0.22618449,0.35200918,0
-2.1000676,-1.9148747,-0.8904717,-0.41605413,-0.39899588,0.81712973,0
-2.415184,1.8197256,-0.00087952614,-0.7766124,0.62336552,-0.091041148,0
-1.3033239,-2.0124931,-1.8430624,-0.44725835,-0.69260097,-0.56591839,0
1.4626206,-0.79741871,-0.87849176,0.41605413,0.39899588,-0.81712973,0
-1.4594139,1.0854459,0.93047029,-0.41605413,-0.39899588,0.81712973,0
1.1623399,-1.615905,-1.5202179,0.41605413,0.39899588,-0.81712973,0
2.2890477,-1.965842,-0.90359271,0.41605413,0.39899588,-0.81712973,0
-1.4016718,1.8355474,1.4355388,-0.41605413,-0.39899588,0.81712973,0
0.051034115,-0.15289414,1.2589445,-0.41605413,-0.39899588,0.81712973,0
0.087016582,2.8893032,0.97367358,-0.048610866,0.90707064,0.41816223,0
1.5962389,1.0231782,2.4806547,0.66002572,0.48561835,0.57318461,0
-0.036595106,2.0954716,2.3105206,-0.41605413,-0.39899588,0.81712973,0
1.1223781,-2.8467278,-0.16356105,0.4226166,-0.88049704,-0.21475595,0
-1.66092,-0.47916412,0.25316548,-0.41605413,-0.39899588,0.81712973,0
-2.8006682,1.1401658,0.27994323,-0.41605413,-0.39899588,0.81712973,0
-2.1044474,1.0331943,-1.8445451,0.41605413,0.39899588,-0.81712973,0
2.4105155,0.93040454,0.49847817,0.41605413,0.39899588,-0.81712973,0
-0.35459399,-2.5488782,-0.14248133,-0.41605413,-0.39899588,0.81712973,0
-2.3836415,1.7429258,-0.97520375,-0.85239989,0.48410422,-0.19762933,0
2.2782717,-1.4533074,1.6131997,-0.41605413,-0.39899588,0.81712973,0
0.69640732,-1.7394538,-1.7240903,0.41605413,0.39899588,-0.81712973,0
-0.054666281,-1.3310349,0.64304072,-0.41605413,-0.39899588,0.81712973,0
0.42589617,0.010591149,1.5291662,-0.41605413,-0.39899588,0.81712973,0
1.4375699,2.3874183,0.66082907,0.41605413,0.39899588,-0.81712973,0
-0.87388623,0.74873054,-1.4100112,0.41605413,0.39899588,-0.81712973,0
2.1262231,-2.0996399,0.68757272,0.78127766,-0.61664814,0.096696556,0
2.0254183,-0.43136179,1.9430678,-0.41605413,-0.39899588,0.81712973,0
0.12916017,2.8660567,0.18938422,0.41605413,0.39899588,-0.81712973,0
-0.99469185,-2.3722968,-0.36578047,-0.41605413,-0.39899588,0.81712973,0
0.55904722,-1.595228,-1.7114775,0.41605413,0.39899588,-0.81712973,0
-0.92552674,2.25741,1.903493,-0.41605413,-0.39899588,0.81712973,0
-1.9058156,1.1359913,-1.7156036,0.41605413,0.39899588,-0.81712973,0
-0.10876966,1.6831076,2.0880768,-0.41605413,-0.39899588,0.81712973,0
-2.3112926,-1.5018946,-0.71630836,-0.41605413,-0.39899588,0.81712973,0
0.013954952,-0.042382479,-1.1157364,0.41605413,0.39899588,-0.81712973,0
0.16294362,-0.1880604,1.3089528,-0.41605413,-0.39899588,0.81712973,0
-0.80646008,1.1086525,-1.1706209,0.41605413,0.39899588,-0.81712973,0
-1.9483078,-1.3401337,-1.8761399,-0.69113874,-0.44522238,-0.56930131,0
0.74169159,2.2572906,1.7938828,0.31286418,0.78092742,0.54061842,0
-1.228887,-1.6079812,-2.2325358,-0.52726346,-0.62626892,-0.57426488,0
0.2649579,-2.8941371,-0.01089853,-0.41605413,-0.39899588,0.81712973,0
-1.3872591,-0.35582334,0.41214442,-0.41605413,-0.39899588,0.81712973,0
-2.0123134,-0.958453,-2.1555865,-0.73759198,-0.37748447,-0.55987799,0
2.8193855,-0.87815952,-0.23985863,0.41605413,0.39899588,-0.81712973,0
1.6642551,-2.3186102,0.86671686,-0.41605413,-0.39899588,0.81712973,0
2.0959768,1.5377562,0.67585492,0.41605413,0.39899588,-0.81712973,0
1.4232053,1.0862603,2.596585,-0.41605413,-0.39899588,0.81712973,0
-0.73390341,2.6521196,1.2254674,-0.2393229,0.91496271,0.32491192,0
0.53133476,-0.55646515,-1.2943141,0.41605413,0.39899588,-0.81712973,0
-1.6872257,2.5174446,0.37592006,-0.5622983,0.81908756,0.11364923,0
1.1297857,-2.5994382,0.60695535,-0.41605413,-0.39899588,0.81712973,0
1.4073973,-0.96991497,-0.91737425,0.41605413,0.39899588,-0.81712973,0
-0.88406903,1.1934618,1.3186375,-0.41605413,-0.39899588,0.81712973,0
1.5597522,-2.4923849,-0.24112153,0.55799901,-0.82154661,-0.11703901,0
1.8508108,-2.0620625,-1.1934688,0.41605413,0.39899588,-0.81712973,0
1.046926,-2.8219445,-0.34018987,0.3908354,-0.88982618,-0.23549309,0
-0.64250696,-1.9175937,0.06069994,-0.41605413,-0.39899588,0.81712973,0
-2.4721062,1.2677518,0.63266075,-0.41605413,-0.39899588,0.81712973,0
-2.6270518,1.4269621,-0.042722464,-0.81144607,0.56848466,-0.135575,0
2.2903233,-2.0899749,-0.7287426,0.64035964,-0.76655793,-0.048253417,0
2.0771151,1.735181,1.2965126,0.63665372,0.51380265,0.57504648,0
-1.3265634,-0.09537822,0.46620411,-0.41605413,-0.39899588,0.81712973,0
0.76185781,0.23812044,1.6853423,-0.41605413,-0.39899588,0.81712973,0
0.086828947,-1.5584185,0.45612368,-0.41605413,-0.39899588,0.81712973,0
0.84152198,-1.7024599,0.78888041,-0.41605413,-0.39899588,0.81712973,0
0.91281903,-2.6389644,0.31027493,-0.41605413,-0.39899588,0.81712973,0
-1.0338812,-1.538896,-2.5094717,-0.50144428,-0.64895636,-0.57219672,0
-1.0778286,-2.3856165,-0.61158681,-0.41605413,-0.39899588,0.81712973,0
-1.7529861,2.2161055,-0.9571439,0.41605413,0.39899588,-0.81712973,0
1.4001563,1.6762505,0.25408435,0.41605413,0.39899588,-0.81712973,0
0.75954771,1.3894048,2.2885294,-0.41605413,-0.39899588,0.81712973,0
1.9431255,-2.0491817,-1.1952972,0.53560752,-0.83370692,-0.13437773,0
0.85758066,1.6247908,0.034639597,0.41605413,0.39899588,-0.81712973,0
1.0863707,-2.4993587,-1.351161,0.29447043,-0.90929282,-0.29406416,0
-0.96260548,1.0426607,-1.1226116,0.41605413,0.39899588,-0.81712973,0
-1.5644495,0.12862062,-2.0402985,0.41605413,0.39899588,-0.81712973,0
1.3873408,-2.0263271,1.0294689,-0.41605413,-0.39899588,0.81712973,0
-2.2511845,1.4876304,-1.2370749,-0.87024963,0.4353416,-0.230528,0
-1.4297971,0.55325842,0.72212064,-0.41605413,-0.39899588,0.81712973,0
-2.01577,-1.4806957,-1.515378,-0.66654712,-0.47743735,-0.57251036,0
-2.4128926,-0.26161993,-1.7953074,-0.84658909,-0.15806368,-0.50823462,0
-0.34437633,2.342658,1.8822985,-0.030020356,0.90413356,0.42619377,0
-1.4742827,1.4364319,1.1288552,-0.41605413,-0.39899588,0.81712973,0
0.074928284,-2.1578133,0.2908054,-0.41605413,-0.39899588,0.81712973,0
0.27536297,-2.0756629,0.24080247,-0.41605413,-0.39899588,0.81712973,0
0.13027436,-0.83020788,-1.6190856,0.41605413,0.39899588,-0.81712973,0
2.5651886,1.3099723,0.75920558,0.41605413,0.39899588,-0.81712973,0
-0.22020984,1.5485141,-0.63397217,0.41605413,0.39899588,-0.81712973,0
-2.0332828,1.0717088,-1.6712072,0.41605413,0.39899588,-0.81712973,0
1.88837,-2.3574324,0.30694842,0.66087699,-0.7499072,-0.029676288,0
-0.46061164,-0.99414301,0.43872553,-0.41605413,-0.39899588,0.81712973,0
-0.71872717,-0.46257091,0.69557661,-0.41605413,-0.39899588,0.81712973,0
1.5894277,-0.13109314,1.9007995,-0.41605413,-0.39899588,0.81712973,0
1.3331091,2.3031795,0.68360901,0.41605413,0.39899588,-0.81712973,0
0.10223341,-1.7370156,-1.9533448,0.41605413,0.39899588,-0.81712973,0
-1.4739466,-2.5218508,-0.73517132,-0.41605413,-0.39899588,0.81712973,0
-1.5301545,0.49350104,0.66994298,-0.41605413,-0.39899588,0.81712973,0
-3.1701131,0.71644485,-0.085307598,-0.89212149,0.35313693,-0.28180414,0
0.91507602,-2.5542293,-1.6393573,0.18233919,-0.91695154,-0.3548972,0
-1.0649763,1.2558297,-1.1690453,0.41605413,0.39899588,-0.81712973,0
-1.3089579,-1.6957946,-0.18670821,-0.41605413,-0.39899588,0.81712973,0
-1.1154327,2.1385741,1.6559548,-0.41605413,-0.39899588,0.81712973,0
-2.0882151,-2.1705642,-0.92672324,-0.41605413,-0.39899588,0.81712973,0
-2.1552782,1.9242352,-1.1554558,-0.84221166,0.5079242,-0.18081069,0
3.0206265,-1.0538883,-0.14989853,0.41605413,0.39899588,-0.81712973,0
0.24251437,-1.2754097,0.69449914,-0.41605413,-0.39899588,0.81712973,0
0.87842453,-0.2855705,1.5693934,-0.41605413,-0.39899588,0.81712973,0
2.6851351,-1.0026337,0.61329126,0.88367653,-0.38937837,0.25980806,0
-2.2280164,0.84243011,0.56658447,-0.41605413,-0.39899588,0.81712973,0
2.298502,-1.9730887,0.14089608,0.73407894,-0.67771083,0.042848289,0
-2.0727794,1.6753843,-1.5157938,0.41605413,0.39899588,-0.81712973,0
-0.043025546,0.21903157,-1.2564361,0.41605413,0.39899588,-0.81712973,0
-0.043774128,2.0783124,-0.15809983,0.41605413,0.39899588,-0.81712973,0
-2.8553994,-0.73312926,-0.74980402,-0.85837656,-0.12427792,-0.4977392,0
2.1353652,-1.6207219,-0.938694,0.41605413,0.39899588,-0.81712973,0
-2.1489322,0.64456332,0.44349039,-0.41605413,-0.39899588,0.81712973,0
2.2949972,-1.8272743,-1.0158949,0.62994784,-0.77451056,-0.057437927,0
0.90018332,-1.8491946,-1.731127,0.41605413,0.39899588,-0.81712973,0
-0.20126414,1.9700052,1.9805124,-0.41605413,-0.39899588,0.81712973,0
2.0861962,0.44406149,0.14646101,0.41605413,0.39899588,-0.81712973,0
-1.5972149,2.4886832,0.32097155,-0.56575644,0.81707954,0.11090797,0
-1.9649185,-1.5446336,-0.63749909,-0.41605413,-0.39899588,0.81712973,0
2.8556862,-0.71531439,0.84544468,0.90613616,-0.25727379,0.33574885,0
1.0136948,-1.6608379,0.94459671,-0.41605413,-0.39899588,0.81712973,0
-2.5555072,0.092571974,-1.5458765,-0.88992685,-0.0060283542,-0.45606351,0
0.78061712,-0.16725606,-0.80337095,0.41605413,0.39899588,-0.81712973,0
-0.37373072,0.22734833,-1.3597608,0.41605413,0.39899588,-0.81712973,0
1.4480525,0.58251482,-0.29065168,0.41605413,0.39899588,-0.81712973,0
2.579433,-1.6238785,-0.51470077,0.76046187,-0.64537054,0.072073042,0
2.7441945,-0.27563366,0.016881227,0.41605413,0.39899588,-0.81712973,0
1.9847403,-0.71151626,-0.50792623,0.41605413,0.39899588,-0.81712973,0
-0.16635907,0.75425923,1.597204,-0.41605413,-0.39899588,0.81712973,0
0.93690771,-0.55402768,1.5305256,-0.41605413,-0.39899588,0.81712973,0
0.15747744,-0.9077127,0.83261925,-0.41605413,-0.39899588,0.81712973,0
0.36358768,-1.2340857,0.72758377,-0.41605413,-0.39899588,0.81712973,0
-1.0355462,0.96958888,1.1054714,-0.41605413,-0.39899588,0.81712973,0
2.6545749,1.1439179,1.1154525,0.78196383,0.30167925,0.54545557,0
3.1095314,-0.18296158,0.30999947,0.41605413,0.39899588,-0.81712973,0
-1.0948544,-2.1848745,-1.7006748,-0.34291261,-0.76341397,-0.54736632,0
-2.0175567,1.1227484,-1.7237666,0.41605413,0.39899588,-0.81712973,0
1.5365472,0.36785638,2.1351552,-0.41605413,-0.39899588,0.81712973,0
-1.4149613,1.5108411,-1.1485362,0.41605413,0.39899588,-0.81712973,0
-2.0530803,-1.1204019,-1.8073831,-0.72956663,-0.38992283,-0.56186533,0
-0.16793084,3.0114264,0.69062781,-0.11395043,0.91438955,0.3884674,0
2.170768,0.64599955,2.0240712,0.80785513,0.25034243,0.53357148,0
1.5249748,2.2954659,0.7141273,0.41605413,0.39899588,-0.81712973,0
0.75579202,-1.8496215,0.61830842,-0.41605413,-0.39899588,0.81712973,0
0.42950061,-0.56865168,-1.2788571,0.41605413,0.39899588,-0.81712973,0
-0.012678742,-0.7560153,-1.7194133,0.41605413,0.39899588,-0.81712973,0
-0.083385229,-2.4104218,-1.9018828,-0.10047913,-0.87292236,-0.47739947,0
-1.6085441,-0.30180559,0.22106445,-0.41605413,-0.39899588,0.81712973,0
-1.6354649,-1.8794398,-1.4832721,-0.54081464,-0.61383134,-0.57509154,0
1.4743067,0.16104066,1.9448289,-0.41605413,-0.39899588,0.81712973,0
2.3313637,1.0285337,1.6040606,0.77323985,0.31765321,0.54881358,0
1.0421357,-1.7521509,-1.5231291,0.41605413,0.39899588,-0.81712973,0
-2.0359507,0.057252228,0.22239017,-0.41605413,-0.39899588,0.81712973,0
-0.47728515,-2.9534283,-0.56766331,-0.05604738,-0.88563639,-0.4609845,0
2.2838571,-0.15965557,2.2002039,0.86847258,0.092009634,0.48712349,0
0.47547257,1.6775055,-0.067382753,0.41605413,0.39899588,-0.81712973,0
1.4863993,-0.92206895,-0.87170267,0.41605413,0.39899588,-0.81712973,0
-1.6241624,0.7979399,-1.7338505,0.41605413,0.39899588,-0.81712973,0
-1.7654657,-1.2078876,-0.26619101,-0.41605413,-0.39899588,0.81712973,0
