0.79111546,3.0269876,0.99997401,-0.7083509,0.70249152,-0.068881601,0
2.6609209,1.784688,0.36110759,0.69702196,0.71153712,0.088742733,0
-2.840436,-0.75258338,-1.4575846,-0.7083509,0.70249152,-0.068881601,0
-1.4226766,0.49934375,-1.4529272,-0.7083509,0.70249152,-0.068881601,0
-1.6396502,-2.7450624,-0.86288667,-0.66039145,-0.69401622,-0.28674835,0
0.25326276,2.6183777,1.9236742,-0.7083509,0.70249152,-0.068881601,0
-0.097077012,2.1372032,1.4898369,-0.7083509,0.70249152,-0.068881601,0
1.2276294,-0.45831037,3.3351629,0.07236886,0.16934875,0.98289561,0
-3.2496698,-1.1595076,0.21052599,-0.7083509,0.70249152,-0.068881601,0
-0.93945241,-2.5677123,-1.9918915,-0.50431991,-0.57196027,-0.64693338,0
1.220191,0.41049522,-3.0146227,0.3032856,0.21478465,-0.92837781,0
-0.26171756,-2.2378032,2.5472069,0.7083509,-0.70249152,0.068881601,0
0.95386195,-0.56978798,-3.1260653,0.09745574,0.00068205595,-0.99523956,0
0.71141446,-1.6520283,-1.7076585,0.7083509,-0.70249152,0.068881601,0
-0.032473326,2.1369247,1.6988325,-0.7083509,0.70249152,-0.068881601,0
1.7460147,2.962733,-0.076260328,0.70299959,0.71088982,0.020669103,0
-2.5027294,-1.5928372,-1.326839,-0.62207508,-0.66740489,-0.40938151,0
-0.62797332,0.91776466,3.1061254,-0.020607829,0.076961905,0.99682105,0
2.9713655,1.5256749,0.32602167,0.69965577,0.71168363,0.063151956,0
1.7329048,2.4615893,-1.2065079,0.67018354,0.63870609,-0.37803239,0
-3.0631092,-1.4685637,-0.3256495,-0.70144457,-0.71145821,-0.042456865,0
-1.0162702,-2.4014685,2.3154275,-0.54407048,-0.48121363,0.68732858,0
0.034400463,0.80118787,3.0761268,0.075859427,0.17278382,0.98203409,0
-1.797369,0.64590782,2.5765224,-0.7083509,0.70249152,-0.068881601,0
2.1279485,-0.089557052,-0.83626938,0.7083509,-0.70249152,0.068881601,0
-0.059959531,1.9319119,-1.2680099,-0.7083509,0.70249152,-0.068881601,0
0.38722229,-1.9379992,-1.611636,0.7083509,-0.70249152,0.068881601,0
-0.45288801,-2.5330148,1.2008117,0.7083509,-0.70249152,0.068881601,0
0.63530612,2.4739945,-2.007097,-0.7083509,0.70249152,-0.068881601,0
-0.090071201,-2.0549903,1.9592339,0.7083509,-0.70249152,0.068881601,0
-0.99426275,-2.5506434,-1.8385181,-0.53296262,-0.5962733,-0.6003406,0
2.398231,1.7613419,1.2686007,0.62378317,0.66866767,0.40469509,0
-1.1242621,-3.1137812,1.446143,-0.6689955,-0.63702708,0.38293791,0
-2.8901522,-0.90990341,0.10759926,-0.7083509,0.70249152,-0.068881601,0
0.51182389,0.9806602,-3.2184176,0.2644093,0.17359559,-0.94865811,0
-2.9634013,-1.7346263,-0.11761045,-0.7020303,-0.71129686,-0.034788132,0
2.0989566,-0.14009494,-2.2597787,0.7083509,-0.70249152,0.068881601,0
0.78939772,0.40768862,3.2422071,0.12542993,0.22130403,0.96710479,0
0.25817442,-1.6467412,1.8851421,0.7083509,-0.70249152,0.068881601,0
0.1166485,-2.0116725,0.42600965,0.7083509,-0.70249152,0.068881601,0
-0.97257221,-2.4417477,-2.0648718,-0.50595593,-0.57336253,-0.64440972,0
-1.1368189,0.37760288,3.0298753,-0.17963982,-0.085040987,0.98004979,0
-2.4312813,-0.019637048,1.9012365,-0.7083509,0.70249152,-0.068881601,0
0.19503331,2.2345769,-1.6716173,-0.7083509,0.70249152,-0.068881601,0
1.8658943,2.5682557,-1.1890814,0.67723942,0.64887851,-0.34684789,0
-2.4663081,-1.3058892,-1.8310232,-0.57001817,-0.62685466,-0.53116131,0
-0.45329794,1.6732434,-0.22129029,-0.7083509,0.70249152,-0.068881601,0
-1.2789421,1.0712272,2.4868784,-0.7083509,0.70249152,-0.068881601,0
-1.1961737,-2.4681144,-2.0555286,-0.51034689,-0.57711822,-0.63755834,0
-0.89606261,0.91722047,-2.7074668,-0.7083509,0.70249152,-0.068881601,0
-2.1556756,0.24743113,2.1029062,-0.7083509,0.70249152,-0.068881601,0
-1.7359817,0.53037333,1.3492181,-0.7083509,0.70249152,-0.068881601,0
-0.75019145,-2.6467321,1.7295872,0.7083509,-0.70249152,0.068881601,0
-1.4043779,-0.12350082,-3.0768273,-0.20957756,-0.30249786,-0.92982382,0
1.9120281,2.4999177,0.78333902,0.67136455,0.70065123,0.24157298,0
1.0622919,-1.2226305,-2.7356312,0.7083509,-0.70249152,0.068881601,0
1.4451061,-0.86795139,-0.6344794,0.7083509,-0.70249152,0.068881601,0
-2.6982706,-0.35606578,1.376895,-0.7083509,0.70249152,-0.068881601,0
-1.7533137,-2.5519941,1.1811879,-0.67518878,-0.64588326,0.35630721,0
0.92243099,-1.0594366,-3.2273378,0.047769785,-0.04965201,-0.99762356,0
-1.0990474,-3.1596029,-1.1052871,-0.64445418,-0.68345094,-0.3428899,0
1.6504321,1.40543,-2.5196247,0.48810256,0.41699347,-0.76672828,0
1.0864887,-0.627002,2.8155656,0.7083509,-0.70249152,0.068881601,0
-1.0418065,0.45676193,3.1951418,-0.12835085,-0.032230496,0.99120498,0
-1.1021152,0.70092964,-2.4121256,-0.7083509,0.70249152,-0.068881601,0
-0.20159078,-2.0614619,2.8429239,-0.40378118,-0.32322991,0.85585231,0
-0.944094,-3.2369499,-1.1500823,0.7083509,-0.70249152,0.068881601,0
-0.53279495,-1.038776,-2.9925401,-0.1997568,-0.29310089,-0.93498075,0
1.0770444,-1.1836237,-0.030338585,0.7083509,-0.70249152,0.068881601,0
-1.143816,1.2977768,2.5500145,-0.7083509,0.70249152,-0.068881601,0
0.32870662,-1.8748032,-1.686343,0.7083509,-0.70249152,0.068881601,0
2.5388842,0.3213982,0.10877633,0.7083509,-0.70249152,0.068881601,0
2.1230619,0.0085365176,-0.94720292,0.7083509,-0.70249152,0.068881601,0
-0.47380304,-2.4756694,2.2496836,0.7083509,-0.70249152,0.068881601,0
0.52590358,2.8692267,1.0984067,-0.7083509,0.70249152,-0.068881601,0
0.19833326,2.2070763,-0.67099023,-0.7083509,0.70249152,-0.068881601,0
0.28750134,-1.7946414,0.9080649,0.7083509,-0.70249152,0.068881601,0
-0.36444411,1.8950516,0.69945455,-0.7083509,0.70249152,-0.068881601,0
2.0376868,-0.25836712,-0.36481249,0.7083509,-0.70249152,0.068881601,0
-1.5477749,-1.0416512,-2.6398873,-0.35515386,-0.43903893,-0.82529432,0
-1.7321711,0.278216,-1.9541856,-0.7083509,0.70249152,-0.068881601,0
-1.0304192,-1.6543955,-2.6070504,-0.38557124,-0.46682492,-0.7958703,0
0.25597674,-1.7199582,0.35836723,0.7083509,-0.70249152,0.068881601,0
-1.3888615,-3.2431312,0.66943622,-0.70195043,-0.6908077,0.17334974,0
-0.39072418,-1.081039,3.1606674,-0.2664665,-0.17576568,0.94768238,0
0.61371267,-1.7540981,-1.7519951,0.7083509,-0.70249152,0.068881601,0
-0.14947152,-2.3843937,-2.3082297,0.7083509,-0.70249152,0.068881601,0
2.1576521,0.048367918,-0.74535382,0.7083509,-0.70249152,0.068881601,0
-1.3877494,-2.8284516,1.1878262,-0.68029726,-0.65341479,0.33203107,0
-0.80463958,-0.3271215,-3.1872053,-0.1127919,-0.20898089,-0.97139329,0
-0.47473466,1.833082,1.9205766,-0.7083509,0.70249152,-0.068881601,0
0.38353348,-1.2930356,3.2504287,0.7083509,-0.70249152,0.068881601,0
-0.92487156,-3.0337877,1.0491893,0.7083509,-0.70249152,0.068881601,0
2.0718272,0.83210969,-2.3970463,0.4836449,0.41195664,-0.77225602,0
2.7284977,1.138698,2.0179436,0.55147922,0.61169362,0.56718743,0
-0.55400169,-2.9350977,-1.8718189,0.7083509,-0.70249152,0.068881601,0
1.9271336,0.14160359,2.9802277,0.2530607,0.34383968,0.90428662,0
2.6669786,1.9094048,0.31148267,0.69639033,0.71144331,0.09428072,0
2.5799894,1.6816373,-1.0699375,0.67293608,0.64263105,-0.36630905,0
-1.3492315,1.0923491,3.0303786,-0.088297844,0.0086323023,0.99605668,0
2.3002691,2.2761295,0.6222806,0.67803502,0.70430887,0.21027946,0
-0.80802011,1.1553658,3.203805,-0.0081539154,0.08943522,0.99595928,0
-1.7843083,0.34444535,-0.74056673,-0.7083509,0.70249152,-0.068881601,0
1.4239091,3.1369538,-0.92343068,0.69703567,0.68077374,-0.22514045,0
-0.32623005,-1.2236105,3.2074034,-0.26778746,-0.17715961,0.94705033,0
-0.60123789,1.4120948,-1.3903183,-0.7083509,0.70249152,-0.068881601,0
-0.025024891,-0.073134184,-3.3104489,0.043859601,-0.053592473,-0.99759924,0
0.21337867,0.38772833,-3.317739,0.1310122,0.0349572,-0.99076414,0
-0.82361817,-0.76242393,-2.9459732,-0.21209615,-0.30490434,-0.92846566,0
-1.5939324,0.69960237,2.4377351,-0.7083509,0.70249152,-0.068881601,0
-0.72684479,1.6378009,3.0378518,-0.7083509,0.70249152,-0.068881601,0
-1.4254388,0.63233137,-1.4900633,-0.7083509,0.70249152,-0.068881601,0
2.6770887,0.69551414,0.11124682,0.7083509,-0.70249152,0.068881601,0
0.8011291,1.1988611,-2.8912783,0.36998916,0.28641731,-0.8837834,0
-1.603961,0.3582083,-1.794138,-0.7083509,0.70249152,-0.068881601,0
0.38836408,2.4134963,-1.5330118,-0.7083509,0.70249152,-0.068881601,0
1.6453034,-0.59699261,-1.2352326,0.7083509,-0.70249152,0.068881601,0
0.19706225,-2.0655117,-2.6333885,0.7083509,-0.70249152,0.068881601,0
-2.233701,-2.3973994,-0.58256269,-0.68823558,-0.70903814,-0.1536119,0
0.32027328,2.5258994,0.67677391,-0.7083509,0.70249152,-0.068881601,0
-0.65587831,0.0084514022,3.2194629,-0.12826574,-0.032143354,0.99121881,0
2.1377718,0.10570943,1.4655435,0.7083509,-0.70249152,0.068881601,0
3.0941803,0.84736747,-1.1671908,0.7083509,-0.70249152,0.068881601,0
-1.0883228,-3.369772,-0.20363021,-0.695171,-0.71121269,-0.10446858,0
2.9269657,1.0198636,-1.4651914,0.63570774,0.59249324,-0.49480033,0
2.2191935,1.9074382,-1.2618883,0.66607845,0.63294005,-0.39462191,0
1.5267217,-0.60594678,0.22909415,0.7083509,-0.70249152,0.068881601,0
-0.64040005,-2.8636448,-0.91312766,0.7083509,-0.70249152,0.068881601,0
-1.8886971,-1.7998072,-1.763155,-0.55566281,-0.6151408,-0.55932176,0
-1.2159796,0.86349213,-1.1493188,-0.7083509,0.70249152,-0.068881601,0
0.42184401,-0.57731771,3.3164237,-0.086416006,0.01054424,0.9962033,0
0.49831343,-1.4275105,2.473196,0.7083509,-0.70249152,0.068881601,0
-1.4235884,-2.6419246,1.365659,-0.66111052,-0.62608314,0.41346437,0
-0.76814342,-2.4538789,2.3937726,-0.53436559,-0.46993253,0.70257866,0
-0.09129858,2.2136836,2.7003469,-0.7083509,0.70249152,-0.068881601,0
1.2221394,-0.70697415,3.1926601,0.7083509,-0.70249152,0.068881601,0
2.9943318,1.051044,1.6158199,0.6142441,0.66154832,0.43018353,0
0.62427115,-1.7288672,-1.326268,0.7083509,-0.70249152,0.068881601,0
0.79108453,0.25071669,3.2978768,0.12395167,0.21986419,0.96762371,0
-1.7593272,-0.47957897,-2.8760152,-0.30955994,-0.39686972,-0.86409903,0
-1.7916113,0.6000396,1.8417933,-0.7083509,0.70249152,-0.068881601,0
0.38004363,-1.5960658,1.1447731,0.7083509,-0.70249152,0.068881601,0
1.5721118,-0.37290156,1.8076899,0.7083509,-0.70249152,0.068881601,0
-1.3584567,-2.6052003,-1.5221252,-0.58629262,-0.63989425,-0.49678588,0
0.28321433,0.79842186,-3.0933633,0.2126441,0.119324,-0.96981657,0
0.67840207,-1.2128462,1.503904,0.7083509,-0.70249152,0.068881601,0
-1.8970013,-1.8816315,1.7282398,-0.62021375,-0.57284009,0.53590012,0
0.7826159,-0.88990474,-3.2637763,0.015414953,-0.082166523,-0.99649936,0
-0.60029304,1.4232572,-1.2725558,-0.7083509,0.70249152,-0.068881601,0
-0.51032376,1.5146059,-2.0287054,-0.7083509,0.70249152,-0.068881601,0
-0.17242971,1.9113588,0.34187078,-0.7083509,0.70249152,-0.068881601,0
1.3467996,-0.47087467,2.6601355,0.7083509,-0.70249152,0.068881601,0
-1.2995801,0.9397068,0.80177987,-0.7083509,0.70249152,-0.068881601,0
2.9300628,1.7795247,0.55874658,0.69085586,0.70999825,0.13645744,0
0.51880741,2.7089887,0.52027118,-0.7083509,0.70249152,-0.068881601,0
1.5342478,1.648869,2.4688492,0.44132543,0.51692814,0.73349649,0
-0.46968555,-2.2630291,-2.559525,-0.37247241,-0.45489541,-0.80890942,0
-0.08882761,2.3855765,2.3574324,-0.7083509,0.70249152,-0.068881601,0
2.5107431,1.4965891,1.554687,0.59279823,0.64502549,0.48221618,0
0.83209109,3.0284801,1.4131715,-0.7083509,0.70249152,-0.068881601,0
-0.13395715,1.9382865,-1.990473,-0.7083509,0.70249152,-0.068881601,0
-2.6755314,-0.79753268,-1.8285184,-0.7083509,0.70249152,-0.068881601,0
0.73602498,2.7213812,-0.68096113,-0.7083509,0.70249152,-0.068881601,0
0.79291338,-1.4343096,-0.3900933,0.7083509,-0.70249152,0.068881601,0
0.95825195,1.35825,2.830647,0.30153883,0.38939112,0.87031537,0
0.1243645,2.2523859,1.1010072,-0.7083509,0.70249152,-0.068881601,0
-1.2617642,1.1715835,1.9496535,-0.7083509,0.70249152,-0.068881601,0
0.36785358,2.5602274,-0.35273671,-0.7083509,0.70249152,-0.068881601,0
-1.1012188,-3.4097362,-0.5616622,0.7083509,-0.70249152,0.068881601,0
-1.6161361,-2.8908236,0.87448835,-0.69736379,-0.68138826,0.22224742,0
-1.866039,-2.6495914,-0.60805154,-0.68535405,-0.70784056,-0.17103076,0
1.4518582,-0.84082818,-0.4848755,0.7083509,-0.70249152,0.068881601,0
-2.5931165,-1.8372215,-0.7006166,-0.68075597,-0.70569122,-0.19639528,0
-0.33330727,1.6967143,-1.9456671,-0.7083509,0.70249152,-0.068881601,0
-2.3952672,-1.8873482,0.96087742,-0.68963945,-0.66796911,0.27966887,0
1.7363595,0.43887424,2.9508877,0.29881901,0.38685146,0.87238371,0
2.0172691,1.8913746,1.9557886,0.54842496,0.60916793,0.57283896,0
-0.63268125,-2.629714,1.1677467,0.7083509,-0.70249152,0.068881601,0
2.8117218,1.7720445,-0.28919315,0.70569015,0.70265603,-0.090971351,0
-2.6852274,-0.62496156,-0.44069505,-0.7083509,0.70249152,-0.068881601,0
2.5533495,2.0813146,-0.62224221,0.7022109,0.69141436,-0.16984105,0
-0.83289194,0.96086061,-2.8297884,-0.7083509,0.70249152,-0.068881601,0
-0.29150391,-0.31789291,3.2269003,-0.1346314,-0.038667768,0.99014091,0
-2.8662682,-0.60092878,1.4626179,-0.7083509,0.70249152,-0.068881601,0
-0.45109817,-2.6894343,-0.35677218,0.7083509,-0.70249152,0.068881601,0
0.50439429,-1.6748167,-1.7301301,0.7083509,-0.70249152,0.068881601,0
-0.17157674,-0.23573196,3.2707176,-0.12160802,-0.025328457,0.99225497,0
0.175946,0.80714369,-3.2901134,0.19862747,0.10473493,-0.97446275,0
2.5546513,1.993917,0.76840544,0.67713785,0.70383787,0.21470141,0
-0.43016005,1.2147722,3.0476112,0.092691958,0.18931529,0.97753149,0
1.8023877,-0.11747134,2.1121809,0.7083509,-0.70249152,0.068881601,0
-0.31300902,2.0629086,1.2956412,-0.7083509,0.70249152,-0.068881601,0
-1.7176211,0.028698921,-2.613996,-0.7083509,0.70249152,-0.068881601,0
-0.67324448,0.43425179,-3.3002918,0.011991739,-0.085594624,-0.99625778,0
-0.47803038,-2.7406411,-1.3675317,0.7083509,-0.70249152,0.068881601,0
1.5247748,0.22707331,2.9544756,0.24522156,0.33641934,0.90922415,0
-2.0523891,0.1908886,2.2463031,-0.7083509,0.70249152,-0.068881601,0
-0.64404774,-2.3265443,2.5334539,-0.514,-0.44646886,0.73244095,0
3.0102649,1.2586975,-1.0003474,0.67992961,0.65286458,-0.33386135,0
0.19250309,2.329797,-0.56367922,-0.7083509,0.70249152,-0.068881601,0
-1.7503276,0.59346265,1.4442599,-0.7083509,0.70249152,-0.068881601,0
-1.3794386,0.95283318,2.460463,-0.7083509,0.70249152,-0.068881601,0
-2.268265,-0.22179222,-2.1209857,-0.7083509,0.70249152,-0.068881601,0
1.907567,-0.1695956,-0.64067304,0.7083509,-0.70249152,0.068881601,0
1.9302399,0.045938373,1.6002568,0.7083509,-0.70249152,0.068881601,0
-0.14062929,0.69600403,-3.2427239,0.15331686,0.057867855,-0.98648131,0
3.1434634,1.2044911,1.1843035,0.64650309,0.68485719,0.33616132,0
-2.0353377,-2.6946959,-0.083198547,-0.70320511,-0.71077442,-0.017379284,0
-1.1941113,0.77940726,-2.083689,-0.7083509,0.70249152,-0.068881601,0
-3.0090256,-1.7004631,-0.44863796,-0.69633234,-0.71143377,-0.094780087,0
-1.5773801,0.54480517,0.5203566,-0.7083509,0.70249152,-0.068881601,0
-1.1222963,-3.308578,0.67802882,0.7083509,-0.70249152,0.068881601,0
-2.2913072,-1.9249434,-1.5116074,-0.60221601,-0.65236068,-0.46017534,0
1.40679,-0.68404126,1.2319123,0.7083509,-0.70249152,0.068881601,0
1.2513931,1.0112631,-2.9384365,0.37732017,0.29437143,-0.87805182,0
2.2611067,0.31065261,0.84711289,0.7083509,-0.70249152,0.068881601,0
0.43478557,2.5520444,0.98539281,-0.7083509,0.70249152,-0.068881601,0
1.5286463,2.90362,0.96607399,0.64570469,0.68431067,0.33879834,0
0.41688943,-1.0922707,3.3504567,-0.15833473,-0.063036442,0.98537123,0
1.7439384,-0.038550586,-3.0157979,0.30621767,0.21790704,-0.92668617,0
0.43774483,2.7480924,0.49923074,-0.7083509,0.70249152,-0.068881601,0
2.4274678,0.3224802,-0.98065805,0.7083509,-0.70249152,0.068881601,0
-1.10162,-3.3052483,0.44810796,0.7083509,-0.70249152,0.068881601,0
-0.78172994,1.4950054,2.4143903,-0.7083509,0.70249152,-0.068881601,0
-0.77515495,-2.9230154,0.68713593,0.7083509,-0.70249152,0.068881601,0
-0.99682689,1.2661293,3.1648421,-0.0034888983,0.094099671,0.99555665,0
-2.0207329,-0.84501827,-2.5330434,-0.3944419,-0.47487137,-0.78671002,0
-0.60091233,-1.056825,-2.9452648,-0.20988029,-0.30278718,-0.92966133,0
1.1053178,3.3670802,0.15652514,-0.7083509,0.70249152,-0.068881601,0
-1.0845091,1.3596947,2.9337363,-0.7083509,0.70249152,-0.068881601,0
-0.51990414,-1.0312283,-3.0264175,-0.1973964,-0.29083914,-0.93618762,0
-0.62053829,1.4659306,-0.71605909,-0.7083509,0.70249152,-0.068881601,0
-2.5686545,-0.33035731,-0.090146303,-0.7083509,0.70249152,-0.068881601,0
0.96494967,3.2322178,0.60737181,-0.7083509,0.70249152,-0.068881601,0
3.0589623,1.3274182,0.70171714,0.680493,0.7055608,0.1977706,0
0.30853736,-1.8690122,0.33265382,0.7083509,-0.70249152,0.068881601,0
0.44237423,2.5071597,-2.0561218,-0.7083509,0.70249152,-0.068881601,0
-1.0691265,1.0898652,-0.35783643,-0.7083509,0.70249152,-0.068881601,0
-2.8829398,-1.2671564,-1.5618548,-0.60672081,-0.65582687,-0.44920021,0
-0.23713803,-2.0872176,1.6356499,0.7083509,-0.70249152,0.068881601,0
0.30398655,2.5033107,-0.10571849,-0.7083509,0.70249152,-0.068881601,0
0.54782844,2.5641108,-2.3593943,-0.7083509,0.70249152,-0.068881601,0
-0.41634393,1.5233016,-0.98277926,-0.7083509,0.70249152,-0.068881601,0
-1.8681935,-1.4857889,-2.2502153,-0.46295184,-0.5360325,-0.70593542,0
2.012718,0.15761566,1.2828233,0.7083509,-0.70249152,0.068881601,0
-2.5971959,-1.6768547,-1.1979473,-0.64615738,-0.68462074,-0.33730567,0
0.50140905,-1.9526739,-2.4873991,0.7083509,-0.70249152,0.068881601,0
-1.5367024,0.55738962,0.86806637,-0.7083509,0.70249152,-0.068881601,0
-1.4550631,0.92794466,1.4483548,-0.7083509,0.70249152,-0.068881601,0
2.0545464,2.4816871,-0.12044501,0.70459121,0.70955181,-0.0093444586,0
-1.0179304,1.330714,0.93850034,-0.7083509,0.70249152,-0.068881601,0
0.79396218,-1.3322674,0.43890089,0.7083509,-0.70249152,0.068881601,0
-1.0578678,0.91306716,3.1510177,-0.087574005,0.0093677938,0.99611402,0
0.11271453,-1.7158679,2.0651078,0.7083509,-0.70249152,0.068881601,0
-2.3782625,-0.19582281,1.650019,-0.7083509,0.70249152,-0.068881601,0
0.50362813,-1.5482774,0.42239624,0.7083509,-0.70249152,0.068881601,0
0.53538227,2.3850844,-2.4434445,-0.7083509,0.70249152,-0.068881601,0
2.4564409,0.32533032,-0.43713188,0.7083509,-0.70249152,0.068881601,0
-1.2980857,-2.745585,-1.6534479,-0.5774551,-0.63284749,-0.5158,0
1.9199219,2.5069568,-1.1253872,0.67704725,0.64859635,-0.34774971,0
1.7823021,-0.19394414,-2.9329698,0.30890137,0.22076699,-0.92511725,0
-0.17971921,-0.66207421,-3.1165042,-0.066744447,-0.16380832,-0.98423171,0
-2.4328752,-1.2738304,-1.9021196,-0.55518115,-0.6147446,-0.56023473,0
0.85618639,1.1672857,-2.9993615,0.35134166,0.26626062,-0.89758807,0
2.7115078,0.46192908,-0.3734982,0.7083509,-0.70249152,0.068881601,0
1.4259098,2.8281722,1.1939895,0.62005705,0.66590595,0.41484755,0
-1.6203173,0.36803365,-0.97559536,-0.7083509,0.70249152,-0.068881601,0
2.7303686,1.4617116,1.4941075,0.60727543,0.65625167,0.44782835,0
-2.542665,-0.38125962,0.053554296,-0.7083509,0.70249152,-0.068881601,0
-0.12880373,0.85426414,-3.3241124,0.1789788,0.084356874,-0.98022974,0
1.7898717,1.3067471,-2.3882487,0.523045,0.45685658,-0.71951771,0
1.2289152,-0.79441178,1.1582501,0.7083509,-0.70249152,0.068881601,0
-0.85002238,1.4359454,1.2707429,-0.7083509,0.70249152,-0.068881601,0
-2.5648718,-0.21853212,1.5590155,-0.7083509,0.70249152,-0.068881601,0
-3.037961,-1.3473723,0.79635477,-0.69175017,-0.67146301,0.2657423,0
0.19845581,-0.87932038,3.3111711,-0.16953397,-0.074591279,0.98269749,0
-1.6658953,-1.4847239,-2.5444884,-0.42707714,-0.50423497,-0.75056785,0
2.8003032,1.7563487,-0.51894712,0.69945174,0.68544912,-0.20230395,0
-2.649725,-1.7953987,-0.51009822,-0.68915915,-0.70939207,-0.14772439,0
-1.1506506,0.85810274,-0.016112268,-0.7083509,0.70249152,-0.068881601,0
-1.0172846,0.086996675,-3.3116801,-0.091442525,-0.18809015,-0.97788554,0
-0.89643335,0.94176853,-2.9067225,-0.7083509,0.70249152,-0.068881601,0
-0.24793839,-2.2007065,1.0017939,0.7083509,-0.70249152,0.068881601,0
1.8369374,-0.62496215,-2.2480564,0.7083509,-0.70249152,0.068881601,0
0.39231896,1.22579,2.9112988,0.21401513,0.30673689,0.92742109,0
-0.68878961,-1.7713617,-2.6643226,-0.34466439,-0.42939046,-0.83476359,0
1.9718101,-0.089594603,-0.084433913,0.7083509,-0.70249152,0.068881601,0
-1.752156,-2.6344547,-0.73330331,-0.67825353,-0.70442259,-0.2091912,0
0.17048693,1.9268534,-2.9269023,-0.7083509,0.70249152,-0.068881601,0
2.5550704,1.1425631,2.0769811,0.51740515,0.58313125,0.62629867,0
-1.6831193,0.57594466,0.30410504,-0.7083509,0.70249152,-0.068881601,0
-2.8195984,-1.7021604,-0.062741041,-0.70528799,-0.70832753,0.028995633,0
-1.5480011,-0.12612438,-3.1066029,-0.20876878,-0.30172476,-0.93025684,0
-0.95997047,0.78380769,3.1209733,-0.09103024,0.0058549345,0.99583095,0
-1.180449,-2.0392461,-2.3404119,-0.45861381,-0.53221673,-0.71163106,0
-2.8879068,-1.7984629,-0.54828978,-0.69094139,-0.7100271,-0.1358726,0
0.63782132,-1.5932322,-0.90784454,0.7083509,-0.70249152,0.068881601,0
-2.4779432,-0.32951999,1.6468694,-0.7083509,0.70249152,-0.068881601,0
2.7531786,0.79647404,0.36748099,0.7083509,-0.70249152,0.068881601,0
-0.080358744,-1.0797853,-3.1264639,-0.13858515,-0.23409632,-0.96228534,0
-0.33273172,-1.9923217,-2.8049026,-0.32724601,-0.41329747,-0.84976184,0
-0.59688687,-1.2219908,-2.8990059,-0.24617875,-0.33732617,-0.90862912,0
2.0150213,1.3952248,-2.1730423,0.54889566,0.48684871,-0.679479,0
1.1382776,1.4947063,2.7077613,0.34982538,0.43414178,0.83014643,0
0.31176734,-1.8368675,1.2494293,0.7083509,-0.70249152,0.068881601,0
2.972311,0.99822962,1.6920168,0.58883637,0.6419065,0.49114925,0
-1.4430693,-1.0011697,-2.6815851,-0.34483117,-0.42954412,-0.83461559,0
0.14612913,0.98299301,3.0942039,0.11088705,0.20712087,0.97201073,0
-0.15810871,1.9399565,-0.79474902,-0.7083509,0.70249152,-0.068881601,0
1.6110778,2.9537725,-0.20098853,0.70577943,0.70636809,-0.054032922,0
-0.53326964,1.8709583,1.8359663,-0.7083509,0.70249152,-0.068881601,0
-1.1287614,-3.2891555,-0.98102093,-0.65417844,-0.69000632,-0.30974478,0
0.10918546,-2.1116383,-1.5517173,0.7083509,-0.70249152,0.068881601,0
0.14539653,2.2448397,0.28761244,-0.7083509,0.70249152,-0.068881601,0
1.1486046,2.0028036,-2.3220954,0.53180325,0.46696523,-0.7064904,0
0.84551072,1.9192723,2.6135702,0.37104279,0.45359004,0.81029832,0
2.1216049,0.6087538,-2.528492,0.46387136,0.38973212,-0.79557037,0
0.81422043,2.7397778,-2.0544419,0.57986546,0.52349019,-0.62427074,0
-1.4284129,0.51600027,-2.8782291,-0.7083509,0.70249152,-0.068881601,0
-1.0365255,-2.6475284,-1.9344856,-0.53411007,-0.59723616,-0.59836048,0
-0.55145335,1.2467066,-2.2656617,-0.7083509,0.70249152,-0.068881601,0
-2.416239,-0.20670384,0.86993527,-0.7083509,0.70249152,-0.068881601,0
1.8627257,-0.13174522,1.8454661,0.7083509,-0.70249152,0.068881601,0
2.809098,1.2736037,1.5256841,0.61240435,0.66015732,0.43491727,0
1.4586248,1.6355078,2.4563017,0.44543916,0.52057761,0.7284112,0
-2.4006178,-0.27574018,1.0451007,-0.7083509,0.70249152,-0.068881601,0
0.9319334,2.9251509,-1.6775941,-0.7083509,0.70249152,-0.068881601,0
0.32766056,-1.9845567,-1.0712392,0.7083509,-0.70249152,0.068881601,0
-2.1976509,0.069815576,0.10152841,-0.7083509,0.70249152,-0.068881601,0
0.14276314,-0.71362805,3.3378146,-0.13284421,-0.036835104,0.99045217,0
-1.0727997,-2.558079,2.0255527,-0.58364987,-0.52803129,0.61687565,0
1.7694235,-0.49233615,-1.4548675,0.7083509,-0.70249152,0.068881601,0
-2.9369898,-1.580918,-0.22957873,-0.70310056,-0.71083462,-0.019067645,0
1.6443747,-0.74205506,-1.3241194,0.7083509,-0.70249152,0.068881601,0
-2.2612152,-2.1075313,0.7763412,-0.6981141,-0.68281573,0.2154054,0
-0.19588375,-2.2973485,0.93276471,0.7083509,-0.70249152,0.068881601,0
-2.5130727,-1.4983276,1.5778077,-0.62884247,-0.58372366,0.5136379,0
0.76434827,0.049693465,3.2366364,0.084278524,0.18105936,0.97985435,0
-0.21540868,-2.5725574,-1.8070364,0.7083509,-0.70249152,0.068881601,0
-3.1378984,-1.3383234,0.70210195,-0.69818354,-0.68294954,0.21475458,0
1.4608741,-0.70967746,-0.39283597,0.7083509,-0.70249152,0.068881601,0
0.035078883,-2.0437176,1.2222495,0.7083509,-0.70249152,0.068881601,0
0.39961857,-1.6489675,0.15102571,0.7083509,-0.70249152,0.068881601,0
2.136786,1.9017944,-1.6447787,0.63758969,0.59491616,-0.48944241,0
-2.1687393,-2.362659,-0.82232904,-0.66418016,-0.69637907,-0.2718842,0
-0.025154591,-0.12653971,-3.2018876,0.037634492,-0.059859514,-0.99749702,0
-2.1254649,-0.40648937,-2.7419362,-0.34100109,-0.42601323,-0.83799219,0
0.27488351,1.3256367,-3.0036998,0.29993522,0.21121961,-0.93028229,0
-0.43061829,0.49474281,3.1693232,-0.018381715,0.079193592,0.99668968,0
2.3945527,0.39201105,1.5363538,0.7083509,-0.70249152,0.068881601,0
0.94221687,2.7632017,1.9003325,0.52177852,0.58684158,0.61916399,0
2.2641656,1.7663107,-1.3696547,0.65586042,0.61895901,-0.4321304,0
1.3490758,0.46412402,-3.0008173,0.30991161,0.22184421,-0.92452145,0
1.7973835,1.9569999,1.7104361,0.56773019,0.62500024,0.53577715,0
-0.41178775,1.9438528,2.6067531,-0.7083509,0.70249152,-0.068881601,0
1.1479318,0.42462051,-2.9837201,0.30766034,0.21944425,-0.92584521,0
-1.6928344,0.71201921,2.2240434,-0.7083509,0.70249152,-0.068881601,0
2.3421471,0.36399725,-2.4242399,0.46388787,0.38975057,-0.79555178,0
2.7189722,0.73202634,0.8836267,0.7083509,-0.70249152,0.068881601,0
-1.172797,-2.4714155,2.0524271,-0.58450854,-0.52906382,0.61517584,0
0.43335748,2.2526741,-2.5414977,-0.7083509,0.70249152,-0.068881601,0
-0.19464684,2.0732806,1.8736551,-0.7083509,0.70249152,-0.068881601,0
-0.8545084,1.2665002,-1.4477681,-0.7083509,0.70249152,-0.068881601,0
0.55202204,2.6104729,0.53022206,-0.7083509,0.70249152,-0.068881601,0
1.2818426,2.8196011,1.2086356,0.62316537,0.66821158,0.40639669,0
1.1011306,1.4396526,2.6859264,0.33563751,0.42106134,0.84264755,0
-2.2895732,-2.1126714,-0.78355408,-0.67695296,-0.70373988,-0.21560359,0
-1.1944199,0.86707854,-0.22488475,-0.7083509,0.70249152,-0.068881601,0
0.23306465,2.0770438,-2.2001042,-0.7083509,0.70249152,-0.068881601,0
1.2383409,2.4926736,1.7913721,0.53417814,0.59729326,0.59824294,0
0.21553898,-1.5593325,3.0752361,0.7083509,-0.70249152,0.068881601,0
-2.0695021,0.081092954,-1.0983016,-0.7083509,0.70249152,-0.068881601,0
-2.315912,-0.29102343,-0.041797638,-0.7083509,0.70249152,-0.068881601,0
0.60173488,-1.1931937,2.1555614,0.7083509,-0.70249152,0.068881601,0
0.63883877,-1.6536022,-1.4640003,0.7083509,-0.70249152,0.068881601,0
2.0483134,-0.072671346,-2.8033879,0.33031434,0.24365672,-0.91187924,0
1.2749046,3.3803563,0.23858356,-0.7083509,0.70249152,-0.068881601,0
0.62048817,-1.7729619,-3.1205378,-0.13355917,-0.22921319,-0.96416974,0
-1.6569993,0.1885252,-1.3976325,-0.7083509,0.70249152,-0.068881601,0
3.0660491,1.0806627,1.3434279,0.7083509,-0.70249152,0.068881601,0
1.2832441,2.7508295,1.4819114,0.60032892,0.65090019,0.46468705,0
-0.38414478,-0.022639513,-3.2154877,-0.0056868792,-0.10326192,-0.99463785,0
-0.52935123,1.7765474,1.6331265,-0.7083509,0.70249152,-0.068881601,0
-1.3755889,-2.7774489,1.4102108,-0.66617298,-0.6330719,0.39425033,0
-1.6615245,-1.9390113,-1.8304818,-0.5438363,-0.60535991,-0.58118957,0
1.7946332,2.3884361,-1.4997826,0.6457327,0.60550618,-0.46517909,0
-1.8566411,0.54961997,3.0228271,-0.2459991,-0.15422153,0.95692217,0
-2.2507842,-1.8958812,-1.4158716,-0.62074733,-0.66641951,-0.41298622,0
-2.9662974,-1.0044698,-0.93064189,-0.7083509,0.70249152,-0.068881601,0
1.7677948,2.2346778,1.4529781,0.60616016,0.65539706,0.45058239,0
-1.4204235,0.70591462,1.1751959,-0.7083509,0.70249152,-0.068881601,0
-1.6676972,0.26519048,-1.690662,-0.7083509,0.70249152,-0.068881601,0
1.0896569,3.0437677,-1.2628314,-0.7083509,0.70249152,-0.068881601,0
-2.3331163,0.17679313,2.6221139,-0.7083509,0.70249152,-0.068881601,0
3.0145941,1.3221802,-0.68985796,0.69239402,0.67254972,-0.2612803,0
2.4290414,0.82083225,-2.1693366,0.53464872,0.47026062,-0.70214355,0
-2.0942352,-1.1863375,-2.2310569,-0.47419646,-0.54588294,-0.69076002,0
-0.44865656,-0.30486751,3.185636,-0.15315175,-0.057697892,0.98651683,0
-2.2126927,-0.058072805,0.0058796406,-0.7083509,0.70249152,-0.068881601,0
1.5600662,1.9434223,-2.1593134,0.57114816,0.5130865,-0.64072764,0
0.95228338,2.2880359,-2.4412723,0.51736522,0.45032763,-0.72769374,0
0.80235529,-0.41107053,-3.2055912,0.092943668,-0.0039092004,-0.99566364,0
-0.99842966,-3.0073221,0.30045438,0.7083509,-0.70249152,0.068881601,0
1.4056045,-0.96745777,-1.5898054,0.7083509,-0.70249152,0.068881601,0
-0.24656707,1.867517,0.28346443,-0.7083509,0.70249152,-0.068881601,0
0.61261672,2.7612045,-0.35265017,-0.7083509,0.70249152,-0.068881601,0
0.47131419,-1.6970868,-3.0615101,-0.15261477,-0.24769941,-0.95674115,0
-1.6407847,0.24124956,-3.1791897,-0.7083509,0.70249152,-0.068881601,0
1.2929372,-0.82697803,0.8196885,0.7083509,-0.70249152,0.068881601,0
1.4785627,-0.60199857,1.7355323,0.7083509,-0.70249152,0.068881601,0
0.25888956,2.4290705,-0.84709358,-0.7083509,0.70249152,-0.068881601,0
1.7529492,1.2056935,-2.3662932,0.50195712,0.43271521,-0.74886358,0
-0.69862628,1.2373829,-2.870795,-0.7083509,0.70249152,-0.068881601,0
2.4662976,0.64520395,1.7125125,0.7083509,-0.70249152,0.068881601,0
0.62789023,2.7436314,0.44459295,-0.7083509,0.70249152,-0.068881601,0
-0.35327148,-0.75933564,-3.1290367,-0.12284511,-0.21878619,-0.96800923,0
1.197767,1.7264435,-2.572753,0.49725276,0.42736527,-0.75504863,0
-1.5796399,-2.4099393,1.8085375,-0.61691058,-0.56871021,0.54404974,0
-0.57421285,-2.6867027,0.51891387,0.7083509,-0.70249152,0.068881601,0
-2.2103996,-2.4396377,-0.57935262,-0.68786228,-0.70889068,-0.15594709,0
-2.4797111,-0.18956828,0.39532089,-0.7083509,0.70249152,-0.068881601,0
-2.268518,0.16577286,1.8323631,-0.7083509,0.70249152,-0.068881601,0
-1.5062287,-2.0796452,-2.0270171,-0.50609958,-0.57348555,-0.64418745,0
3.1544857,1.2359283,0.55187559,0.68733013,0.70867634,0.15923285,0
-2.2567389,-0.12099081,0.83551276,-0.7083509,0.70249152,-0.068881601,0
2.7962108,0.88461637,1.3679814,0.7083509,-0.70249152,0.068881601,0
1.1638482,-1.0172415,0.82972479,0.7083509,-0.70249152,0.068881601,0
0.1626786,2.1627429,-0.86266303,-0.7083509,0.70249152,-0.068881601,0
0.31352544,2.2672377,-0.65142548,-0.7083509,0.70249152,-0.068881601,0
-1.6245461,0.45850229,0.63215053,-0.7083509,0.70249152,-0.068881601,0
-1.7819047,-1.8264465,1.9308786,-0.58961558,-0.53522217,0.60488886,0
0.85909534,-1.6571321,-2.894659,0.7083509,-0.70249152,0.068881601,0
-1.7873837,-0.45632839,-2.8222919,-0.29533869,-0.38359883,-0.87500119,0
2.2036588,1.5884589,-1.6715846,0.62049663,0.57319456,-0.53519338,0
1.7944791,-0.37973094,-1.8398957,0.7083509,-0.70249152,0.068881601,0
-1.6778784,-2.2088253,1.6825382,-0.62326276,-0.57666939,0.52820057,0
-2.4007647,-0.12719908,2.6617856,-0.40602916,-0.32569277,0.85385275,0
1.2593536,3.276509,-0.95523548,0.69096184,0.67014635,-0.2710638,0
1.2353215,0.2763499,3.2273788,0.17795491,0.27216351,0.94565272,0
1.3271211,-0.75789928,0.42470002,0.7083509,-0.70249152,0.068881601,0
1.2287648,-0.88266659,-0.12801981,0.7083509,-0.70249152,0.068881601,0
1.4229956,2.2978005,1.9628587,0.52104044,0.58621627,0.62037677,0
0.50111413,-1.7583714,-2.5351603,0.7083509,-0.70249152,0.068881601,0
-0.51367521,1.9799579,2.7355268,-0.7083509,0.70249152,-0.068881601,0
-0.91052473,-3.2046924,-0.51547885,0.7083509,-0.70249152,0.068881601,0
2.0624936,0.3284831,2.7571387,0.33585793,0.42126501,0.84245789,0
0.045168877,-1.7153205,2.6111412,0.7083509,-0.70249152,0.068881601,0
1.69046,-0.82274711,-3.0998306,0.7083509,-0.70249152,0.068881601,0
-0.61045325,1.4133313,-1.8068404,-0.7083509,0.70249152,-0.068881601,0
1.0004222,-1.2490865,-0.68871903,0.7083509,-0.70249152,0.068881601,0
-2.097477,0.034149766,-1.1800729,-0.7083509,0.70249152,-0.068881601,0
2.0771508,-0.30381441,-2.1324663,0.7083509,-0.70249152,0.068881601,0
-0.19098431,-2.3512621,-0.92532146,0.7083509,-0.70249152,0.068881601,0
0.82894909,-1.331892,-0.29826009,0.7083509,-0.70249152,0.068881601,0
-0.78164417,1.5229148,0.98023123,-0.7083509,0.70249152,-0.068881601,0
-0.54912186,-2.3424196,2.6624207,0.7083509,-0.70249152,0.068881601,0
-1.0471601,-0.46366525,-3.0899661,-0.19919562,-0.29256332,-0.93526882,0
0.32342625,-1.9458258,-1.4756564,0.7083509,-0.70249152,0.068881601,0
0.028053284,-0.013718843,3.2944922,-0.04157722,0.055891156,0.99757075,0
-2.347733,-0.6035049,-2.6733258,-0.39475787,-0.47515744,-0.78637868,0
-1.5615153,-0.31762204,2.8577197,-0.32458991,-0.23752496,0.91554523,0
1.1686503,2.5460112,1.6461666,0.56357837,0.62162256,0.54402655,0
1.7322862,-0.10632849,2.1521511,0.7083509,-0.70249152,0.068881601,0
1.7100096,2.913691,-0.6022191,0.70277649,0.69277775,-0.16175294,0
2.17714,0.017585754,0.043525457,0.7083509,-0.70249152,0.068881601,0
1.7265811,0.11796376,-2.9100106,0.31005114,0.22199294,-0.92443895,0
-0.91731238,-1.1815375,2.9413607,-0.38168061,-0.29911071,0.87455857,0
3.0188627,1.3473805,1.3048613,0.63493985,0.67677075,0.37260276,0
-2.1075926,-0.29720688,-2.8215625,-0.7083509,0.70249152,-0.068881601,0
-2.8236532,-0.74119157,1.0248051,-0.7083509,0.70249152,-0.068881601,0
1.1171715,-0.82387388,1.3968589,0.7083509,-0.70249152,0.068881601,0
-0.70860648,0.75447536,-3.4327238,0.049186587,-0.048223436,-0.99762475,0
1.4893086,-0.56664085,1.2488275,0.7083509,-0.70249152,0.068881601,0
0.44830132,-1.9268004,-2.4974453,0.7083509,-0.70249152,0.068881601,0
1.154331,3.2357242,0.6974504,0.66357017,0.69600332,0.2743246,0
1.9380255,2.1990795,-1.5203817,0.6516521,0.61332643,-0.44629627,0
0.67907262,-0.82715762,-3.2686405,0.045107841,-0.052334875,-0.99761021,0
-0.30460143,-1.7778862,2.9031181,-0.35852718,-0.27401507,0.89239794,0
0.75671542,-1.5860345,-1.7113287,0.7083509,-0.70249152,0.068881601,0
1.6965604,-0.36785379,-0.72964227,0.7083509,-0.70249152,0.068881601,0
2.3983781,1.5066538,1.8270199,0.56559956,0.62326884,0.54003066,0
-1.214875,1.0033138,3.1531301,-0.08194387,0.015085042,0.99652278,0
-2.2733333,0.11713659,2.8574567,-0.37176001,-0.28833705,0.88241506,0
1.4950963,3.1981153,0.036727905,0.70076877,0.71158481,0.050697446,0
0.87725019,-1.0396643,2.9326897,0.7083509,-0.70249152,0.068881601,0
-1.2460061,-2.9801383,-1.2073355,-0.61581367,-0.66273057,-0.42610049,0
-0.11431217,1.823498,-0.88742173,-0.7083509,0.70249152,-0.068881601,0
1.4825381,-0.76483709,-0.40030468,0.7083509,-0.70249152,0.068881601,0
2.6086323,0.5255096,-2.3886397,0.5145328,0.44707945,-0.73169386,0
-2.5546172,-0.2945568,0.36924911,-0.7083509,0.70249152,-0.068881601,0
0.56830204,2.7781382,2.190217,0.46317247,0.53622633,0.70564342,0
-1.6889441,0.64051825,3.1203125,-0.19420505,-0.1001409,0.9758361,0
1.7834034,1.7071475,-2.0966105,0.56083184,0.50086886,-0.65924048,0
-1.0653486,1.4299269,2.9106688,-0.7083509,0.70249152,-0.068881601,0
-1.7876506,-1.6454446,2.2347569,-0.55530202,-0.49435887,0.66876662,0
-2.3567762,-0.15205079,1.0524695,-0.7083509,0.70249152,-0.068881601,0
0.13507837,-1.9316096,-0.52121449,0.7083509,-0.70249152,0.068881601,0
2.1705623,-0.13657917,-2.0425906,0.7083509,-0.70249152,0.068881601,0
0.63019574,-1.3659873,1.5504408,0.7083509,-0.70249152,0.068881601,0
-1.9607008,-0.19450174,2.8709588,-0.37595683,-0.29289091,0.87913096,0
2.5141389,1.2412082,-1.7278628,0.60412884,0.55289745,-0.57387507,0
-2.7253423,-0.65217996,0.71745348,-0.7083509,0.70249152,-0.068881601,0
0.098647356,1.9785485,2.7403321,0.26998127,0.3598057,0.89311248,0
2.7931571,1.5886497,0.93360782,0.66467631,0.69668329,0.26988471,0
-2.0277114,0.40176481,2.0236983,-0.7083509,0.70249152,-0.068881601,0
-0.94788718,0.93136013,-2.8797297,-0.7083509,0.70249152,-0.068881601,0
2.6424999,0.37801778,-0.37063622,0.7083509,-0.70249152,0.068881601,0
1.4895751,1.329118,2.6272154,0.3854928,0.46675357,0.79595,0
0.040801287,1.9320523,-1.4017813,-0.7083509,0.70249152,-0.068881601,0
0.8317976,-1.4408362,-2.6846466,0.7083509,-0.70249152,0.068881601,0
0.90756512,-0.97128153,2.0755281,0.7083509,-0.70249152,0.068881601,0
-0.29257035,2.1671705,2.4914107,-0.7083509,0.70249152,-0.068881601,0
-1.0993991,-2.7756104,-1.7388639,-0.55673647,-0.61602318,-0.55727905,0
0.44017541,-1.8585109,-0.79930997,0.7083509,-0.70249152,0.068881601,0
0.61865592,-1.3320725,3.2532184,0.7083509,-0.70249152,0.068881601,0
1.9510299,-0.47412759,-2.0550332,0.7083509,-0.70249152,0.068881601,0
0.042517066,-2.2004294,-2.1921656,0.7083509,-0.70249152,0.068881601,0
-2.1696937,-1.6529946,1.6921625,-0.61440355,-0.56558836,0.55010736,0
-1.2749664,1.0099897,1.4425224,-0.7083509,0.70249152,-0.068881601,0
-0.26776981,-1.4540582,2.9828002,-0.3263278,-0.23938556,0.91444224,0
-1.5012114,0.95265782,2.0861318,-0.7083509,0.70249152,-0.068881601,0
1.4800713,1.3608079,-2.5362539,0.48341322,0.41169515,-0.77254039,0
2.2727196,0.68718499,-2.4091096,0.50006455,0.43056142,-0.75136697,0
-1.2516403,0.98430574,-0.014550269,-0.7083509,0.70249152,-0.068881601,0
0.57649255,-1.7531424,-2.8219337,0.7083509,-0.70249152,0.068881601,0
0.11039114,-1.9023275,1.6682601,0.7083509,-0.70249152,0.068881601,0
1.6867316,2.5066974,-1.515039,0.65259838,0.61458737,-0.44316798,0
0.32190776,1.6741734,-3.0271208,0.36731166,0.28351635,-0.88583332,0
2.0165205,0.10373825,-2.8288672,0.36862564,0.28493977,-0.88483018,0
2.5804558,0.51764369,0.26161814,0.7083509,-0.70249152,0.068881601,0
-0.47606921,1.9126121,2.7695441,-0.7083509,0.70249152,-0.068881601,0
1.4557056,0.45120311,3.0189579,0.22887629,0.3209005,0.91904205,0
-1.7785033,0.55910361,1.8772631,-0.7083509,0.70249152,-0.068881601,0
-0.91502392,1.4399911,1.4079775,-0.7083509,0.70249152,-0.068881601,0
-2.4674616,-0.79343629,-2.3532622,-0.46495414,-0.53779089,-0.70327693,0
-2.3688526,-2.2796755,0.32862306,-0.70501292,-0.69934261,0.11779988,0
-0.16163707,0.33550066,3.3133385,-0.0092054605,0.088383019,0.99604398,0
2.4020822,0.16213582,-1.8773372,0.7083509,-0.70249152,0.068881601,0
0.69187331,-1.743154,-2.3647766,0.7083509,-0.70249152,0.068881601,0
1.2237945,2.9661856,1.4761941,0.60443473,0.65407145,0.45480663,0
-1.4122063,-0.94373,-2.7353418,-0.34143162,-0.42641029,-0.83761477,0
0.54529256,-1.7150768,-1.0520064,0.7083509,-0.70249152,0.068881601,0
1.5635123,-0.64850014,-1.625499,0.7083509,-0.70249152,0.068881601,0
-0.55348241,-2.8155174,-1.0672415,0.7083509,-0.70249152,0.068881601,0
3.3720264,1.248729,0.3819437,0.7083509,-0.70249152,0.068881601,0
-1.2851138,0.89479351,2.0101628,-0.7083509,0.70249152,-0.068881601,0
-1.8092607,0.18956375,-2.6175973,-0.7083509,0.70249152,-0.068881601,0
2.8450465,1.5864427,-1.0641258,0.68314672,0.65772867,-0.31733787,0
2.4796393,0.30414695,0.24177861,0.7083509,-0.70249152,0.068881601,0
1.8507175,-0.25296926,-0.051413298,0.7083509,-0.70249152,0.068881601,0
-2.1095154,0.024889946,-1.1775508,-0.7083509,0.70249152,-0.068881601,0
-1.5035048,0.40516961,-2.8309834,-0.7083509,0.70249152,-0.068881601,0
-0.75568104,1.7281375,2.9391999,-0.7083509,0.70249152,-0.068881601,0
-1.5554008,0.71591264,0.85163832,-0.7083509,0.70249152,-0.068881601,0
-0.35905242,1.6644982,-0.54551512,-0.7083509,0.70249152,-0.068881601,0
-0.82082152,1.590971,2.6121664,-0.7083509,0.70249152,-0.068881601,0
1.2981455,-0.75241041,-3.2075086,0.11974716,0.023425311,-0.99252796,0
0.15431717,-2.0128577,-0.39199889,0.7083509,-0.70249152,0.068881601,0
2.6806076,0.67746186,1.7674887,0.7083509,-0.70249152,0.068881601,0
2.0976434,-0.23843971,-2.119066,0.7083509,-0.70249152,0.068881601,0
-0.55482268,-2.015902,2.7809892,-0.43410277,-0.3566063,0.82727671,0
2.4185054,0.38277364,1.6929488,0.7083509,-0.70249152,0.068881601,0
1.0449951,1.0879917,-2.8101466,0.37570602,0.29261857,-0.87932903,0
1.6019728,-0.66605097,-0.9761852,0.7083509,-0.70249152,0.068881601,0
-1.6570485,0.17255867,-2.8222363,-0.7083509,0.70249152,-0.068881601,0
-2.3442309,-2.1439908,-0.74246097,-0.66800511,-0.69869083,-0.25612569,0
-0.45655918,-0.78228986,-3.2143993,-0.14355475,-0.23891948,-0.96036947,0
-1.8979588,0.24744225,-1.1260312,-0.7083509,0.70249152,-0.068881601,0
0.88097966,-1.1144209,0.68139625,0.7083509,-0.70249152,0.068881601,0
-2.3884225,-1.9921026,0.94638324,-0.68958652,-0.66788274,0.2800054,0
-0.010496855,0.051641941,3.1827192,-0.025071859,0.07248354,0.99705446,0
0.89524913,2.4854207,2.0951366,0.50115579,0.56924403,0.65177006,0
1.1425787,-1.1310349,-1.6935196,0.7083509,-0.70249152,0.068881601,0
0.82501411,-1.1214039,2.5930481,0.7083509,-0.70249152,0.068881601,0
-2.3451977,-2.3556168,0.098085403,-0.70461547,-0.70951998,0.0099185705,0
1.9833356,0.47646129,2.7939763,0.3250131,0.41122815,0.85162067,0
-1.8014221,-0.4063012,2.856401,-0.38065815,-0.29799885,0.87538338,0
1.9033515,0.81518459,-2.5641208,0.452088,0.37657446,-0.80858392,0
1.4218431,-0.40720391,1.818574,0.7083509,-0.70249152,0.068881601,0
-3.0331395,-0.78092265,1.2033262,-0.7083509,0.70249152,-0.068881601,0
0.79306912,-0.37787646,-3.1921568,0.096764445,-2.1606684e-05,-0.99530721,0
2.2174883,0.57327515,-2.436595,0.47179431,0.39861462,-0.78645825,0
-2.4176157,-0.43472242,-0.96794319,-0.7083509,0.70249152,-0.068881601,0
-1.3939781,-0.61503959,2.932224,-0.3431322,-0.25742024,0.90332443,0
-2.974452,-0.90634495,1.0006912,-0.7083509,0.70249152,-0.068881601,0
-2.1727891,-0.18279362,-1.331874,-0.7083509,0.70249152,-0.068881601,0
0.66566515,-1.0941955,2.5258999,0.7083509,-0.70249152,0.068881601,0
0.71585363,-1.5712147,-1.3246788,0.7083509,-0.70249152,0.068881601,0
-0.44472069,-2.4006667,0.49586141,0.7083509,-0.70249152,0.068881601,0
1.1641725,-1.1153549,-0.71086222,0.7083509,-0.70249152,0.068881601,0
1.3014289,2.0118282,2.1363106,0.4806658,0.55152279,0.68174994,0
-1.2472658,0.18757513,3.0948019,-0.22263432,-0.12974927,0.96622926,0
0.32328796,-1.929773,-1.4876821,0.7083509,-0.70249152,0.068881601,0
-2.1775923,-2.1822023,1.0344276,-0.68825632,-0.66572988,0.28828269,0
-1.348495,1.0109768,1.4534203,-0.7083509,0.70249152,-0.068881601,0
-0.88827348,-2.6745243,-2.000103,-0.52276659,-0.58767825,-0.61753494,0
-0.69869256,1.3778535,-0.64497852,-0.7083509,0.70249152,-0.068881601,0
-0.4712522,1.8132695,0.95258498,-0.7083509,0.70249152,-0.068881601,0
1.0499434,1.9411761,-2.6687376,0.48404729,0.41241097,-0.77176112,0
-0.9440186,-1.5331941,2.8186128,-0.40658528,-0.32630229,0.85335529,0
1.3190973,-0.89344037,0.19049531,0.7083509,-0.70249152,0.068881601,0
0.39840245,2.4064155,-1.8590696,-0.7083509,0.70249152,-0.068881601,0
-1.0243347,0.44807935,-3.328253,-0.031478882,-0.12892747,-0.99115419,0
-1.7511649,-1.9111184,1.96038,-0.58787155,-0.53311574,0.60843611,0
0.94418633,-1.2922018,-1.400489,0.7083509,-0.70249152,0.068881601,0
0.71358418,0.59409845,3.1317563,0.15040922,0.24556361,0.95764065,0
0.10750365,-2.1873448,-1.7291508,0.7083509,-0.70249152,0.068881601,0
2.8857112,1.4791641,0.95756054,0.66259336,0.69539773,0.27819419,0
0.52101827,0.96242899,3.1673987,0.16414326,0.25884628,0.95186955,0
1.3753102,-0.74745101,0.11513561,0.7083509,-0.70249152,0.068881601,0
-0.33863139,1.646042,2.9666605,0.14301389,0.23839475,0.96058053,0
2.5482893,1.7899241,-1.072736,0.67461848,0.64505637,-0.35887635,0
-2.4479935,-0.34935784,-0.11596084,-0.7083509,0.70249152,-0.068881601,0
0.0096516609,-1.8097727,1.9168358,0.7083509,-0.70249152,0.068881601,0
1.7931828,-0.60476023,-2.8558173,0.7083509,-0.70249152,0.068881601,0
1.072521,-1.400987,-2.1452961,0.7083509,-0.70249152,0.068881601,0
-3.1112516,-1.48,-0.11286736,-0.7027787,-0.71100098,-0.024074197,0
-0.32495901,-2.406225,-0.48863792,0.7083509,-0.70249152,0.068881601,0
-1.5970714,-0.94016236,-2.7511878,-0.34175038,-0.42670426,-0.83733517,0
-1.8986305,-2.8172374,0.098789692,-0.70531887,-0.70825118,0.03009212,0
1.3103142,-0.88531977,-0.25928056,0.7083509,-0.70249152,0.068881601,0
-0.77243781,0.12317669,-3.3416474,-0.032125354,-0.12956896,-0.99104989,0
1.1918848,2.6136334,-1.9697905,0.59795541,0.5453456,-0.58740753,0
0.13026667,-1.8994563,2.2042375,0.7083509,-0.70249152,0.068881601,0
-0.81342697,-2.3094954,-2.2639029,-0.43048391,-0.50727725,-0.74656093,0
0.33983731,-1.0820038,-3.2099161,-0.052130222,-0.14938331,-0.98740417,0
-1.7628131,-1.9165688,2.009922,-0.57356232,-0.5159601,0.63624799,0
1.2307642,0.68649876,2.9604158,0.26046848,0.3508383,0.89948231,0
-0.63138747,-2.3682001,2.641834,-0.49149901,-0.42083803,0.76244611,0
-1.7008407,-2.0681953,1.9100541,-0.59438425,-0.54100001,0.59500104,0
-2.6345956,-1.6769006,-0.84086561,-0.66794693,-0.6986562,-0.2563715,0
0.3709023,-1.4817531,2.4565716,0.7083509,-0.70249152,0.068881601,0
0.74908328,3.0767615,0.61379886,-0.7083509,0.70249152,-0.068881601,0
0.95183802,0.67212975,3.1634576,0.1982705,0.29167676,0.93574214,0
1.4574356,3.1059439,-0.23154783,0.70585752,0.70468414,-0.072009683,0
1.1417922,3.1527965,-0.96398807,0.68817365,0.66559714,-0.28878593,0
0.94841123,3.140439,0.77937078,-0.7083509,0.70249152,-0.068881601,0
-3.0733318,-0.978315,-0.28632665,-0.7083509,0.70249152,-0.068881601,0
-1.1503537,-2.8425934,1.5855393,-0.65340668,-0.61566705,0.44046998,0
-0.38896561,1.6388055,-0.25823441,-0.7083509,0.70249152,-0.068881601,0
0.15076351,-2.035717,0.45249057,0.7083509,-0.70249152,0.068881601,0
-0.014651775,-1.4192876,-3.032995,-0.17088121,-0.2653482,-0.94888872,0
1.0837985,2.9670436,-1.4807515,0.66330546,0.6290977,-0.40529215,0
-0.52005517,1.913733,1.722674,-0.7083509,0.70249152,-0.068881601,0
-2.8195388,-1.5368716,-1.254945,-0.64307046,-0.6824944,-0.34736401,0
-1.6385672,0.39466023,-1.3428364,-0.7083509,0.70249152,-0.068881601,0
1.9100462,-0.023487806,2.1532149,0.7083509,-0.70249152,0.068881601,0
2.3339474,2.287951,0.68705583,0.68049622,0.70556247,0.19775403,0
-2.4780891,-1.4180396,-1.760669,-0.58417642,-0.63821453,-0.50141799,0
0.077040672,-0.28819561,3.1603305,-0.098719716,-0.00196895,0.99511325,0
1.0276098,-1.1641922,-0.70229644,0.7083509,-0.70249152,0.068881601,0
-1.2136726,-2.6146526,1.9741155,-0.60118568,-0.54929066,0.58039254,0
-1.1871612,0.59334588,3.2500267,-0.12303078,-0.026784033,0.99204141,0
-0.53414583,1.3191562,-3.2470636,0.14798415,0.05238086,-0.98760164,0
1.3789179,3.1091614,-0.70875597,0.7025044,0.6921134,-0.16573071,0
-0.78592658,-1.4406308,-2.9431853,-0.27531576,-0.36482465,-0.88944042,0
-0.12655497,-0.56404722,-3.1034081,-0.040583372,-0.13795602,-0.9896065,0
-0.19442415,1.774859,-2.9638114,-0.7083509,0.70249152,-0.068881601,0
0.02443409,1.7561322,-2.8473732,-0.7083509,0.70249152,-0.068881601,0
1.2804904,-0.60041744,-3.1984282,0.15092039,0.055401355,-0.98699224,0
0.099982619,2.5136724,2.2042766,-0.7083509,0.70249152,-0.068881601,0
-1.76238,0.2953459,-0.6660099,-0.7083509,0.70249152,-0.068881601,0
-0.3738476,-2.4049182,0.30576289,0.7083509,-0.70249152,0.068881601,0
2.9722359,0.73606366,-1.7919316,0.60029435,0.54820073,-0.58234251,0
1.5138094,-0.85340869,-1.208953,0.7083509,-0.70249152,0.068881601,0
-2.3514562,-0.60739303,-2.6053176,-0.40153196,-0.48128328,-0.77919096,0
-2.8908067,-1.2805289,-1.5600386,-0.60723537,-0.65622091,-0.44792765,0
0.50796688,2.6781497,-0.94839358,-0.7083509,0.70249152,-0.068881601,0
2.8512301,0.69197762,0.95649195,0.7083509,-0.70249152,0.068881601,0
2.4252656,0.5521282,1.9134133,0.7083509,-0.70249152,0.068881601,0
-1.1524541,0.53730261,-3.1377146,-0.7083509,0.70249152,-0.068881601,0
1.651966,2.9454923,0.33780456,0.69102412,0.71005499,0.13530564,0
0.57701409,2.6795979,-0.042057991,-0.7083509,0.70249152,-0.068881601,0
0.20078331,-1.8930777,0.61074245,0.7083509,-0.70249152,0.068881601,0
-0.014481962,-2.2153659,-0.71474147,0.7083509,-0.70249152,0.068881601,0
-2.0637071,0.21984458,1.2654722,-0.7083509,0.70249152,-0.068881601,0
3.1908002,0.97739071,-1.2445567,0.7083509,-0.70249152,0.068881601,0
-1.0775204,-2.9695516,-1.6000235,-0.58062911,-0.63538802,-0.50906956,0
1.8869221,-0.37731633,-1.2404538,0.7083509,-0.70249152,0.068881601,0
0.45042109,-1.6571573,0.90081412,0.7083509,-0.70249152,0.068881601,0
-0.8643868,-2.99298,0.91788471,0.7083509,-0.70249152,0.068881601,0
-0.37106752,-2.4800093,-0.21447921,0.7083509,-0.70249152,0.068881601,0
1.6090163,-0.7059114,-1.6072712,0.7083509,-0.70249152,0.068881601,0
0.49893093,-2.0105441,-2.614809,0.7083509,-0.70249152,0.068881601,0
-2.6189802,-1.356235,1.7487893,-0.62240136,-0.57558578,0.53039384,0
-0.50121117,-1.9220917,2.839886,-0.42271894,-0.34403491,0.83842027,0
2.4405448,2.0416167,0.17322874,0.70112652,0.7115249,0.046407938,0
-0.63189316,-1.5567907,2.9950657,-0.36567456,-0.28174394,0.88707519,0
3.0751281,1.4460899,0.41371155,0.6922825,0.71045756,0.12647116,0
-0.55851948,1.437501,-1.2792139,-0.7083509,0.70249152,-0.068881601,0
-2.605674,-0.46974343,0.62415075,-0.7083509,0.70249152,-0.068881601,0
0.41565669,2.7677326,2.1513777,0.45510158,0.52912122,0.71617955,0
0.68108106,1.2607126,2.9067552,0.23705441,0.32867292,0.91420966,0
-1.2863853,0.66002429,-3.2257073,-0.7083509,0.70249152,-0.068881601,0
-2.2576416,-0.25734103,-0.58886719,-0.7083509,0.70249152,-0.068881601,0
-1.275905,-3.3830912,0.63815546,-0.70288742,-0.6930536,0.16008103,0
