2.7906981,-1.396843,-1.6543477,0.29929197,-0.62719202,-0.71906495,0
2.7089293,-3.1605897,0.18733788,0.62268364,-0.44262666,0.64524925,0
0.86456656,0.8331213,3.7664015,-0.29929197,0.62719202,0.71906495,0
-3.4992208,0.067897677,2.6098082,-0.29929197,0.62719202,0.71906495,0
-3.1345534,1.9920083,1.0413268,-0.29929197,0.62719202,0.71906495,0
2.9744079,-0.90099359,-2.1944525,0.29929197,-0.62719202,-0.71906495,0
-0.31345606,2.6453021,1.7983748,-0.29929197,0.62719202,0.71906495,0
-3.7345626,1.6857359,0.59835029,-0.91670454,0.020071208,-0.39906108,0
-0.45465231,4.1009989,-0.31645098,0.065225124,0.76529467,-0.64036679,0
-1.2461276,3.4391556,0.59860533,-0.29929197,0.62719202,0.71906495,0
0.95689785,3.9756205,0.57140326,0.55159312,0.72865248,-0.40596831,0
3.6857209,-1.2372849,-0.29594946,0.92588198,0.0087861419,0.37771058,0
1.5888385,-1.2774345,-2.523572,0.29929197,-0.62719202,-0.71906495,0
3.4774768,0.17160094,-2.2153721,0.82752115,0.54578805,-0.13162017,0
-1.8138201,0.52621257,2.8663025,-0.29929197,0.62719202,0.71906495,0
1.4136152,-3.3291233,0.92695057,0.23628664,-0.68141812,0.69270337,0
1.867624,-1.9262195,-1.7471708,0.29929197,-0.62719202,-0.71906495,0
1.7137889,3.364311,0.68481588,0.74215716,0.62666196,-0.23769158,0
-3.8297842,0.46246141,1.6307676,-0.92521393,-0.37498304,-0.058023572,0
-1.7554548,-1.8218971,2.4499338,-0.41950232,-0.76336062,0.49122128,0
2.6304107,2.0308874,1.745476,0.94604653,0.29313552,0.13808477,0
0.71598238,-2.470706,-1.5816617,0.29929197,-0.62719202,-0.71906495,0
-3.0882981,0.96075606,1.9614325,-0.29929197,0.62719202,0.71906495,0
0.78746712,-1.5282067,-2.4591351,0.29929197,-0.62719202,-0.71906495,0
-2.2296255,-2.5025058,-0.36583781,-0.82169604,-0.55249071,0.13989103,0
-1.5396152,-3.2064013,-2.0495126,0.29929197,-0.62719202,-0.71906495,0
-2.4378371,3.179738,-0.36779833,-0.54364669,0.50723207,-0.6687032,0
-3.5386319,0.92737997,-0.11317873,-0.93168473,-0.029488117,-0.36206889,0
-3.2231305,-0.63967085,0.77026415,-0.90508819,-0.4251833,-0.0058604479,0
0.87559414,-1.2399631,-2.751255,0.29929197,-0.62719202,-0.71906495,0
2.4735425,1.4927881,2.3851955,0.94440657,0.087234676,0.31699562,0
-0.72797644,2.2869153,1.972934,-0.29929197,0.62719202,0.71906495,0
-1.3437047,-2.1531343,-2.7812147,0.29929197,-0.62719202,-0.71906495,0
-0.61287236,2.3887734,1.7875957,-0.29929197,0.62719202,0.71906495,0
-0.77739,-0.90807247,3.7703855,5.1259995e-05,-0.75359869,0.65733474,0
2.3481441,1.343209,2.9474542,0.91821641,-0.015579224,0.39577222,0
-0.24328518,-3.8343453,0.37705004,-0.26827145,-0.77852237,0.56739169,0
3.3718781,-2.5138276,-0.64653873,0.29929197,-0.62719202,-0.71906495,0
-3.7361116,0.38372266,2.2105696,-0.29929197,0.62719202,0.71906495,0
2.81602,1.1132402,1.3433375,0.95415503,0.19950415,0.22312796,0
-3.434,0.91149104,1.951926,-0.29929197,0.62719202,0.71906495,0
0.0042725801,-1.7535654,-2.6572282,0.29929197,-0.62719202,-0.71906495,0
0.64806604,1.2618741,-3.368644,0.040962577,0.76136017,-0.64703369,0
-2.1594901,3.1577547,0.5357877,-0.29929197,0.62719202,0.71906495,0
-0.88091826,-2.0350709,2.4336715,-0.22931647,-0.77880234,0.58384991,0
3.4186878,0.47839284,-1.7706969,0.85390043,0.51233637,-0.091462851,0
1.0265088,-3.1548219,1.2083291,0.16685081,-0.70759606,0.68663567,0
-1.5183092,-1.5182488,-3.4845121,0.29929197,-0.62719202,-0.71906495,0
0.87409496,-0.83627272,-2.9572496,0.29929197,-0.62719202,-0.71906495,0
-0.76734996,0.34021688,3.536293,-0.29929197,0.62719202,0.71906495,0
2.9684374,-0.95779759,0.95073366,0.85870367,-0.15150899,0.48956412,0
3.1502252,0.095609188,-2.8591142,0.29929197,-0.62719202,-0.71906495,0
3.3955643,-0.95108676,-2.0193057,0.29929197,-0.62719202,-0.71906495,0
0.30282784,3.7589056,1.0680569,-0.29929197,0.62719202,0.71906495,0
-0.84489781,3.0571167,1.2235281,-0.29929197,0.62719202,0.71906495,0
1.9613719,-3.3660982,-0.42109299,0.29929197,-0.62719202,-0.71906495,0
-1.9359602,-1.9522877,-3.3532624,0.29929197,-0.62719202,-0.71906495,0
0.28719425,0.97851086,3.3001075,-0.29929197,0.62719202,0.71906495,0
-1.6523538,-1.9904999,2.1058388,-0.41865355,-0.76351333,0.49170771,0
-1.3609352,3.9818907,0.029732764,-0.29929197,0.62719202,0.71906495,0
-2.2314415,2.7935319,0.78673995,-0.29929197,0.62719202,0.71906495,0
1.2260165,0.39658093,-3.8865108,0.29929197,-0.62719202,-0.71906495,0
-1.7979293,-2.8135824,-2.4476721,0.29929197,-0.62719202,-0.71906495,0
-2.01861,2.1630042,1.3142831,-0.29929197,0.62719202,0.71906495,0
1.5259602,-2.4600506,-1.4813272,0.29929197,-0.62719202,-0.71906495,0
2.9093933,-0.11686099,-2.9812212,0.29929197,-0.62719202,-0.71906495,0
-1.1029263,-2.8929191,1.1040806,-0.38241637,-0.76928234,0.51182234,0
2.6275785,-0.047318339,1.9338725,0.86586499,-0.13809121,0.48084134,0
1.7271008,-0.7371608,-2.7668066,0.29929197,-0.62719202,-0.71906495,0
-1.5374136,-2.5402853,-2.6894867,0.29929197,-0.62719202,-0.71906495,0
-2.2462881,3.5642533,0.11028457,-0.29929197,0.62719202,0.71906495,0
-2.6875885,1.9221255,1.463083,-0.29929197,0.62719202,0.71906495,0
-0.28162622,-3.1570041,1.2922137,-0.18566108,-0.77748519,0.6008715,0
0.046464056,3.0682082,1.6144919,-0.29929197,0.62719202,0.71906495,0
-1.9583945,-0.10589647,3.4562814,-0.29929197,0.62719202,0.71906495,0
-0.7456013,-3.7917976,-1.145524,0.29929197,-0.62719202,-0.71906495,0
-1.4653374,3.6950459,-0.46689504,-0.21534801,0.6897639,-0.69126761,0
-0.79753947,0.95346248,2.9256835,-0.29929197,0.62719202,0.71906495,0
0.18466425,-4.260015,-0.19507062,-0.22801685,-0.77878773,0.58437806,0
1.5554681,-2.1533899,1.9260399,0.40721703,-0.59756964,0.69071323,0
-1.4194524,-2.1471412,2.1017194,-0.39800757,-0.76697814,0.50332332,0
-1.8178306,0.76908493,2.6444559,-0.29929197,0.62719202,0.71906495,0
2.8839059,-0.15167665,-2.7067802,0.29929197,-0.62719202,-0.71906495,0
-1.5614957,2.3195577,1.5901388,-0.29929197,0.62719202,0.71906495,0
-3.1455171,-0.88747394,1.7114677,-0.80859995,-0.56679678,0.15782011,0
0.7541821,-0.89961147,-3.1718519,0.29929197,-0.62719202,-0.71906495,0
0.65037608,0.20718336,4.1984229,-0.29929197,0.62719202,0.71906495,0
-1.2595395,-3.902714,-0.63006449,-0.63551438,-0.69315779,0.34007865,0
1.0384765,0.91717052,3.8677311,-0.29929197,0.62719202,0.71906495,0
-0.48066214,2.8783002,1.3359692,-0.29929197,0.62719202,0.71906495,0
-3.595469,0.67581332,0.34874654,-0.95055592,-0.13053612,-0.28178608,0
1.7042682,-3.2409823,-0.6550138,0.29929197,-0.62719202,-0.71906495,0
-3.5640934,1.312263,1.5880482,-0.29929197,0.62719202,0.71906495,0
-1.0210198,3.029541,1.1563734,-0.29929197,0.62719202,0.71906495,0
-0.66366529,-0.23189187,-4.2453294,0.29929197,-0.62719202,-0.71906495,0
-0.9322145,-1.9153546,-2.9917264,0.29929197,-0.62719202,-0.71906495,0
0.29942513,-2.1032934,-2.127084,0.29929197,-0.62719202,-0.71906495,0
-0.32481575,-0.4164691,4.4380603,0.18491709,-0.70119476,0.68857199,0
3.0949755,-0.8807292,0.78388691,0.88824475,-0.092101574,0.45004267,0
-2.7980981,2.1272402,1.0482237,-0.29929197,0.62719202,0.71906495,0
-2.5784812,-0.92468011,2.7134538,-0.62474322,-0.69841921,0.34915107,0
-3.4926677,2.3509741,0.7888279,-0.29929197,0.62719202,0.71906495,0
-2.8079467,-1.4491284,-0.95537281,-0.94170415,-0.31554109,-0.11673439,0
2.7228389,-2.37589,0.76976156,0.69505721,-0.37298965,0.61463326,0
-2.3680575,-1.6808932,1.9856929,-0.60594207,-0.7070747,0.36452615,0
-3.5740855,1.0829685,1.6921439,-0.29929197,0.62719202,0.71906495,0
1.4911381,2.6461616,2.5663331,-0.29929197,0.62719202,0.71906495,0
-1.719691,-0.74499154,-3.7895939,-0.76918811,0.28733578,-0.57077807,0
1.7361238,2.4555881,-1.3035858,0.55999982,0.7256276,-0.39983088,0
-2.268204,-0.32569051,3.4601204,-0.29929197,0.62719202,0.71906495,0
-2.9097948,2.2636354,1.0659978,-0.29929197,0.62719202,0.71906495,0
-2.7000809,0.90968573,2.3261666,-0.29929197,0.62719202,0.71906495,0
0.6494925,1.0792153,3.4252281,-0.29929197,0.62719202,0.71906495,0
-1.2238922,-0.72788835,-3.9123533,0.29929197,-0.62719202,-0.71906495,0
2.4651632,-0.76714849,-2.5967822,0.29929197,-0.62719202,-0.71906495,0
0.66440988,0.15034103,4.2741928,-0.29929197,0.62719202,0.71906495,0
-1.7099469,-2.0363181,2.0407386,-0.47478944,-0.75157946,0.45793352,0
0.26849008,0.99288106,3.5389199,-0.29929197,0.62719202,0.71906495,0
0.32118273,-1.6928592,-2.546767,0.29929197,-0.62719202,-0.71906495,0
-0.13704681,1.5304344,2.8580494,-0.29929197,0.62719202,0.71906495,0
2.2257552,-2.5940933,1.0556651,0.55526203,-0.49837509,0.66581237,0
-3.5147774,-0.055214286,2.5776565,-0.81761354,-0.55705976,0.14557552,0
0.22948217,3.0587246,1.5504763,-0.29929197,0.62719202,0.71906495,0
-1.7950525,-0.66530824,3.8832304,-0.29929197,0.62719202,0.71906495,0
0.66217351,3.941824,0.2004317,0.43150669,0.76111174,-0.48426321,0
-0.87074423,1.6663072,-2.682441,-0.35634983,0.62560689,-0.69399613,0
-1.4840261,3.5385718,-0.60194159,-0.26263595,0.67034769,-0.69401461,0
3.0534849,0.67341733,-2.6005654,0.72103292,0.642241,-0.26007253,0
1.7275317,-2.6319554,-1.2296643,0.29929197,-0.62719202,-0.71906495,0
-2.8374047,-1.3601164,-1.3052821,-0.95343465,-0.22599164,-0.19972491,0
-1.1121829,-0.85976911,-3.7673676,0.29929197,-0.62719202,-0.71906495,0
-1.5980201,2.2259717,1.5486076,-0.29929197,0.62719202,0.71906495,0
-2.6332021,-1.7123203,-1.5318089,-0.95049083,-0.26201409,-0.16707969,0
0.59777904,2.3973398,-2.0243034,0.19828713,0.77804017,-0.59610033,0
-1.4008434,-3.3491874,0.25029278,-0.58503705,-0.71595484,0.38097286,0
2.5705872,-3.2716398,-0.36083305,0.29929197,-0.62719202,-0.71906495,0
0.99501371,0.49807596,4.1726937,-0.29929197,0.62719202,0.71906495,0
-3.6044452,0.11542299,0.89183283,-0.93827683,-0.33039436,-0.10235238,0
-3.2297652,1.8316724,-0.24019814,-0.84926701,0.16841447,-0.50038177,0
-1.8537238,-0.97200704,-3.7057667,-0.80331397,0.2410368,-0.54459858,0
-1.912426,-1.1252227,3.1042194,-0.39403188,-0.76759088,0.50551242,0
-0.91843545,-2.5755143,-2.2544627,0.29929197,-0.62719202,-0.71906495,0
0.60084486,-3.9465053,0.31450677,-0.031375527,-0.75967079,0.6495505,0
-2.3335655,3.0326021,-0.71268952,-0.52243286,0.52289271,-0.67353314,0
-1.3577082,-1.5803301,-3.3718119,0.29929197,-0.62719202,-0.71906495,0
-2.1000967,-2.8000383,-2.6364367,0.29929197,-0.62719202,-0.71906495,0
0.81889987,-0.49730992,-3.3686943,0.29929197,-0.62719202,-0.71906495,0
1.4893234,2.2828603,2.76001,-0.29929197,0.62719202,0.71906495,0
-0.78316498,-3.4678869,0.48931992,-0.38284773,-0.76922214,0.5115903,0
3.0694184,-2.3909237,0.36090446,0.73128921,-0.33329344,0.5950895,0
-0.26520646,1.7292306,2.531431,-0.29929197,0.62719202,0.71906495,0
-2.1237173,2.9277742,-0.87319648,-0.4963007,0.54131335,-0.67872334,0
2.6944661,1.5854374,0.25750375,0.89969629,0.43647164,-0.0062297583,0
-3.0492566,-1.0649709,-0.39249921,-0.93758643,-0.3331708,-0.09964323,0
-2.6104507,-0.14728689,3.3180103,-0.29929197,0.62719202,0.71906495,0
-2.6481814,-1.3985379,1.4362736,-0.73418045,-0.63270986,0.24628693,0
-3.1265402,-0.8891722,0.039046764,-0.93533671,-0.34180757,-0.091173768,0
0.59445393,1.3606093,3.1689169,-0.29929197,0.62719202,0.71906495,0
2.7774699,1.2017862,-1.8960199,0.69792116,0.65778184,-0.28324747,0
2.188957,1.4012344,-2.4336381,0.53096426,0.73562402,-0.42063543,0
1.4049126,-2.670289,-1.2772962,0.29929197,-0.62719202,-0.71906495,0
2.3691447,2.6288052,0.63304019,0.84408629,0.52542943,-0.10696793,0
-1.9666809,3.4856627,0.44332135,-0.29929197,0.62719202,0.71906495,0
-1.3558681,-0.87252307,-3.9492955,0.29929197,-0.62719202,-0.71906495,0
-0.81888103,-4.2497702,-0.72069812,-0.53997809,-0.73265535,0.41429424,0
-3.4705417,0.26414749,0.090777397,-0.95200139,-0.14560544,-0.26924372,0
0.93681479,-4.2164073,-0.020007979,0.29929197,-0.62719202,-0.71906495,0
-2.5348845,-0.82760656,3.1944845,-0.55917394,-0.72592962,0.40043801,0
2.8127894,1.361398,-0.91082191,0.81746656,0.55722237,-0.14577854,0
-0.70937109,-0.64087296,4.2421274,0.079881072,-0.73449355,0.67389774,0
0.27210534,1.7142515,2.9122701,-0.29929197,0.62719202,0.71906495,0
-3.8082039,0.42726272,1.1889591,-0.94736046,-0.28514704,-0.14559937,0
-0.87950873,4.2492924,-0.13404103,-0.041119814,0.7444309,-0.66643202,0
0.041050434,-2.4905338,2.1918478,-0.0048316717,-0.75459576,0.6561721,0
2.4562113,2.3131473,0.66092825,0.8745926,0.481608,-0.056048036,0
-0.16275191,-0.61380577,-3.6464257,0.29929197,-0.62719202,-0.71906495,0
3.077431,0.82331592,0.93132544,0.95410955,0.18885927,0.23239386,0
-1.7823648,-2.5473089,-2.5604088,0.29929197,-0.62719202,-0.71906495,0
-3.3939748,2.3448589,0.75224018,-0.29929197,0.62719202,0.71906495,0
-1.6311876,-1.6105208,-3.358211,0.29929197,-0.62719202,-0.71906495,0
2.2969398,-1.1893275,2.0378273,0.69483924,-0.37321758,0.61474121,0
-1.4243578,-3.2272782,-2.0536385,0.29929197,-0.62719202,-0.71906495,0
-0.89999223,4.3134403,-0.12828752,-0.01552546,0.75030839,-0.6609056,0
3.4060926,-0.49028242,-2.415576,0.29929197,-0.62719202,-0.71906495,0
3.382545,0.42873198,-0.41410542,0.93966234,0.32461923,0.1079663,0
-2.1454756,-3.1509738,-1.5255568,-0.87214172,-0.48550251,0.060465097,0
3.6729786,-0.30003119,-0.69125819,0.94935012,0.27132499,0.15848362,0
2.4610023,1.3660034,2.5162113,0.93771565,0.054025203,0.34317708,0
1.6420838,-1.3659711,-2.3659523,0.29929197,-0.62719202,-0.71906495,0
-0.80109096,0.55647469,-3.7479577,-0.47198075,0.5576396,-0.68284118,0
-1.6831821,-2.8689725,-2.4998364,0.29929197,-0.62719202,-0.71906495,0
-1.005686,0.7063148,3.2640643,-0.29929197,0.62719202,0.71906495,0
2.7877095,-1.6273823,1.1666541,0.76127261,-0.29736209,0.5762288,0
-0.93542749,2.652411,1.3748589,-0.29929197,0.62719202,0.71906495,0
-0.99906135,-0.89849591,-3.6941829,0.29929197,-0.62719202,-0.71906495,0
1.4933169,0.98423529,3.9397314,-0.29929197,0.62719202,0.71906495,0
1.4968925,-1.2240847,-2.5845418,0.29929197,-0.62719202,-0.71906495,0
-2.5443544,3.6802883,-0.084153175,-0.29929197,0.62719202,0.71906495,0
-2.7242286,-0.6496768,3.3694232,-0.55809647,-0.726322,0.40122879,0
2.2407587,-1.1267968,-2.1358418,0.29929197,-0.62719202,-0.71906495,0
-0.52377111,-2.2358713,-2.4817107,0.29929197,-0.62719202,-0.71906495,0
2.0382659,3.0188806,0.4398818,0.75612772,0.61555183,-0.22218609,0
-0.92019534,0.14340401,3.6894703,-0.29929197,0.62719202,0.71906495,0
-3.0146375,-1.1003472,1.1821213,-0.84152734,-0.52870971,0.1108942,0
-2.2831955,-2.763376,-1.8593159,-0.91627812,-0.39916313,-0.033213615,0
-0.765306,-0.57158852,4.2192163,-0.29929197,0.62719202,0.71906495,0
-0.62748098,2.9708688,-1.4500446,-0.11928678,0.72310197,-0.68036318,0
0.99100673,-2.1964245,-1.9090168,0.29929197,-0.62719202,-0.71906495,0
1.7866423,2.6658039,-1.0197661,0.57600975,0.71955967,-0.3878746,0
-0.4473058,-4.0275564,-0.76094913,0.29929197,-0.62719202,-0.71906495,0
-1.2987442,2.0608039,1.9610264,-0.29929197,0.62719202,0.71906495,0
-0.55883145,-0.069198847,-4.308291,0.29929197,-0.62719202,-0.71906495,0
-2.251344,-0.55610871,3.661691,-0.29929197,0.62719202,0.71906495,0
-2.6511781,1.093438,2.1205378,-0.29929197,0.62719202,0.71906495,0
-0.83382761,2.4628081,1.593649,-0.29929197,0.62719202,0.71906495,0
-1.9438136,-0.22217059,3.6209993,-0.29929197,0.62719202,0.71906495,0
1.2767415,-2.1048493,2.1420579,0.37576056,-0.61523545,0.69302899,0
-3.2604718,0.65875232,-0.74510145,-0.91554737,0.023449332,-0.40152597,0
-1.5574503,-2.6462808,-2.4359779,0.29929197,-0.62719202,-0.71906495,0
1.2652289,2.3054514,2.6042218,-0.29929197,0.62719202,0.71906495,0
-1.7286174,0.60877419,3.0138569,-0.29929197,0.62719202,0.71906495,0
-1.3616779,-3.4469142,-0.035456657,-0.58224052,-0.71708596,0.38312346,0
1.5308108,0.39070845,3.9410453,0.6892578,-0.37901297,0.61747307,0
-2.0276773,1.2041097,2.3495858,-0.29929197,0.62719202,0.71906495,0
-3.8337257,0.67988706,1.2533762,-0.94595587,-0.2936607,-0.13758886,0
-1.1875644,3.1032753,-1.2071953,-0.23627639,0.68142229,-0.69270277,0
-1.7959447,-1.3845062,2.9766016,-0.40442336,-0.76595259,0.49975827,0
-0.10153437,1.3744944,-3.2444162,-0.13971519,0.71667951,-0.68326414,0
2.0464783,-0.74472225,2.4585795,0.72403097,-0.34154889,0.59926897,0
-3.0739098,1.0624647,1.8560897,-0.29929197,0.62719202,0.71906495,0
2.919517,-2.311595,-0.89748049,0.29929197,-0.62719202,-0.71906495,0
3.4945018,-1.814588,-1.1621456,0.29929197,-0.62719202,-0.71906495,0
1.2416892,-1.6445394,2.5585566,0.45052814,-0.57142049,0.68593216,0
-3.6144209,1.6309175,0.18099284,-0.89606535,0.074193776,-0.43767798,0
0.48217201,-3.5972049,-0.90698498,0.29929197,-0.62719202,-0.71906495,0
0.58235502,-0.48405647,-3.3972883,0.29929197,-0.62719202,-0.71906495,0
-3.5497763,0.16645387,0.84271884,-0.94601846,-0.2932983,-0.13793099,0
2.0478375,-3.6503215,0.35597324,0.40760452,-0.59734523,0.69067878,0
-1.7801247,3.7114763,0.16373289,-0.29929197,0.62719202,0.71906495,0
-1.5627227,1.241295,2.4652531,-0.29929197,0.62719202,0.71906495,0
-2.7003016,-0.37179053,3.2370248,-0.29929197,0.62719202,0.71906495,0
-3.3330646,0.65991414,2.1176825,-0.29929197,0.62719202,0.71906495,0
1.4193842,3.5771296,1.6795712,-0.29929197,0.62719202,0.71906495,0
-1.638773,-1.1853323,-3.9422009,0.29929197,-0.62719202,-0.71906495,0
1.4528656,3.8560138,1.2824857,-0.29929197,0.62719202,0.71906495,0
3.5091705,0.3093974,-1.4845192,0.87819052,0.47574872,-0.049439788,0
-1.4048045,0.5928309,3.0679135,-0.29929197,0.62719202,0.71906495,0
-1.3358483,-1.8245788,2.6032143,-0.28145921,-0.77810794,0.5615412,0
-3.2449391,-0.16723311,3.0457683,-0.73382354,-0.63297558,0.24666721,0
3.2511349,-2.6762505,-0.54030228,0.29929197,-0.62719202,-0.71906495,0
1.3850365,1.5730534,-3.0734808,0.28057194,0.77814108,-0.5619393,0
-2.2215774,1.9329989,1.5342914,-0.29929197,0.62719202,0.71906495,0
0.39091539,1.3214927,3.1977282,-0.29929197,0.62719202,0.71906495,0
-1.920453,-3.3006535,-1.6897497,-0.86671472,-0.49386528,0.070018172,0
-0.924604,-3.6446452,-1.4951507,0.29929197,-0.62719202,-0.71906495,0
-1.1041827,1.04357,2.8905065,-0.29929197,0.62719202,0.71906495,0
-2.156539,-2.4836946,0.1644063,-0.75684452,-0.61496305,0.22137421,0
-0.87674832,-4.082983,-0.29735637,-0.47024018,-0.75268966,0.46079534,0
-0.40022027,-1.9912796,-2.7081647,0.29929197,-0.62719202,-0.71906495,0
-0.77925801,2.5470729,1.7135003,-0.29929197,0.62719202,0.71906495,0
-0.53480339,2.5531693,-1.9907382,-0.12163019,0.72238326,-0.68071169,0
0.88219237,-1.4446375,-2.4747005,0.29929197,-0.62719202,-0.71906495,0
-2.6360822,-2.0982506,-1.1391697,-0.91622895,-0.39928663,-0.033085465,0
-1.4120715,-1.9315814,2.5038757,-0.32854509,-0.77526563,0.53946376,0
-1.7045907,-2.2440684,-2.9426837,0.29929197,-0.62719202,-0.71906495,0
-1.5289961,1.4195991,2.3856871,-0.29929197,0.62719202,0.71906495,0
-1.3669193,-0.7902503,-4.0600562,0.29929197,-0.62719202,-0.71906495,0
3.44208,-0.49590755,-2.4199076,0.29929197,-0.62719202,-0.71906495,0
1.8076241,2.4443381,-0.8934617,0.60599452,0.70705152,-0.36448407,0
-0.57134378,2.7298279,1.5012627,-0.29929197,0.62719202,0.71906495,0
1.7392797,-0.092735291,-3.2833397,0.29929197,-0.62719202,-0.71906495,0
2.6188138,0.14582086,2.0901079,0.86967182,-0.13072947,0.47600466,0
2.4386425,2.2678199,1.9825327,0.94468582,0.3007209,0.13090217,0
1.2259153,1.6485624,3.2220516,-0.29929197,0.62719202,0.71906495,0
1.1874301,-0.9798547,-2.77825,0.29929197,-0.62719202,-0.71906495,0
-2.074259,0.35419297,2.9650524,-0.29929197,0.62719202,0.71906495,0
0.97991693,2.6357269,2.3772736,-0.29929197,0.62719202,0.71906495,0
-3.9880424,1.5865363,1.000946,-0.29929197,0.62719202,0.71906495,0
-0.49570727,0.94788218,-3.5262153,-0.34247327,0.63278127,-0.69447803,0
-3.2941661,0.56226814,-0.49729705,-0.9242413,-0.0033215582,-0.3817941,0
-0.24125147,3.1298831,-1.3252946,0.049807787,0.76285124,-0.64465272,0
2.8565254,-2.4477954,-0.86347795,0.29929197,-0.62719202,-0.71906495,0
-1.5447662,3.7574,0.30085534,-0.29929197,0.62719202,0.71906495,0
2.8429046,1.2810736,-1.20508,0.78402603,0.59115934,-0.18929821,0
0.84253716,-2.4497905,-1.6075985,0.29929197,-0.62719202,-0.71906495,0
-2.8879063,-1.6198676,-0.45385647,-0.91457868,-0.40337899,-0.028828979,0
0.43992168,-2.6776772,-1.6445457,0.29929197,-0.62719202,-0.71906495,0
-1.8561676,3.5606856,0.17791438,-0.29929197,0.62719202,0.71906495,0
1.6847707,-3.6069946,0.6732769,0.28809375,-0.65903747,0.6947456,0
-0.47051418,-2.1309576,-2.6385765,0.29929197,-0.62719202,-0.71906495,0
0.43679446,-2.5843582,-1.6688912,0.29929197,-0.62719202,-0.71906495,0
3.8179209,-0.47000778,-1.2172401,0.94160503,0.3159993,0.11629355,0
-0.78407812,-3.0423479,1.1670859,-0.31395686,-0.77637768,0.54650569,0
-0.036354303,1.3156949,3.0524738,-0.29929197,0.62719202,0.71906495,0
-2.1047878,-0.75508547,3.7430778,-0.35924226,-0.77222538,0.5240351,0
1.2383585,-1.3315363,2.7440128,0.4784503,-0.55337095,0.68181068,0
0.3160938,-3.5463798,-0.84413409,0.29929197,-0.62719202,-0.71906495,0
-3.2158446,1.4524605,1.4847202,-0.29929197,0.62719202,0.71906495,0
-2.9319131,1.4523276,-1.0117843,-0.79036176,0.25924233,-0.55508697,0
-3.3460817,2.2486222,0.87586522,-0.29929197,0.62719202,0.71906495,0
2.5011585,0.89527953,-3.0809913,0.52884299,0.73630553,-0.42211267,0
0.69875956,1.632285,3.0472538,-0.29929197,0.62719202,0.71906495,0
-2.1822164,-2.4773073,-2.7867253,0.29929197,-0.62719202,-0.71906495,0
-1.0377268,-2.0050101,-2.9521174,0.29929197,-0.62719202,-0.71906495,0
-3.0421431,-0.8568067,1.072051,-0.86384583,-0.49814945,0.074949026,0
-3.5146847,0.7340858,1.9874496,-0.29929197,0.62719202,0.71906495,0
-2.432373,1.3004798,-1.6530504,-0.71651065,0.34993595,-0.60345441,0
-1.2817633,-1.201283,-3.5595131,0.29929197,-0.62719202,-0.71906495,0
-3.5246165,2.0603712,0.34089947,-0.86323249,0.14308688,-0.48410308,0
2.3317075,-0.760746,2.251919,0.7360574,-0.32778105,0.59226602,0
-3.4694142,0.94921577,2.0221996,-0.29929197,0.62719202,0.71906495,0
0.99747229,-1.3299749,-2.6848822,0.29929197,-0.62719202,-0.71906495,0
2.7224522,1.8555285,-0.24464583,0.84985131,0.51784027,-0.097948909,0
-3.0888419,2.5007687,0.82973886,-0.29929197,0.62719202,0.71906495,0
0.52711344,4.1148229,0.21257401,0.40273964,0.76622617,-0.50069773,0
-1.5581665,-3.2135892,0.014914274,-0.6165629,-0.7022658,0.35591102,0
1.451731,-1.9864237,-1.9740838,0.29929197,-0.62719202,-0.71906495,0
2.1193929,-1.1515777,-2.3695292,0.29929197,-0.62719202,-0.71906495,0
-3.6122105,1.8291318,0.27313852,-0.87771583,0.11459264,-0.46527773,0
0.29425859,1.0539181,3.359556,-0.29929197,0.62719202,0.71906495,0
3.7412195,-0.3102814,-1.7056777,0.9119187,0.4097729,0.022145033,0
2.1303306,2.7829003,2.703387,-0.29929197,0.62719202,0.71906495,0
-3.4121327,0.095280021,-0.063970566,-0.95415795,-0.19468939,-0.2273289,0
2.274785,1.368602,3.1328578,0.9014172,-0.061231613,0.42859948,0
-1.1270407,2.8702626,1.2207471,-0.29929197,0.62719202,0.71906495,0
-2.3182058,-2.7287841,-1.8502803,-0.91771448,-0.39551398,-0.036994338,0
0.9261837,-4.1305876,0.35189721,0.041716814,-0.74428725,0.66655523,0
3.1928823,0.44600773,-2.1392198,0.80323493,0.57237643,-0.16491997,0
-2.5814304,1.012715,2.240344,-0.29929197,0.62719202,0.71906495,0
-3.9071481,0.60331941,1.8619049,-0.92618549,-0.37211227,-0.060931921,0
1.4222095,-3.1391082,-0.80395776,0.29929197,-0.62719202,-0.71906495,0
0.35633779,-3.3585825,1.1207641,-0.011075139,-0.75584197,0.65466034,0
2.8514762,-2.8015854,-0.45420933,0.29929197,-0.62719202,-0.71906495,0
-1.7360587,0.91457987,-2.8396163,-0.61391163,0.45033002,-0.64831728,0
-3.0142233,0.91308606,2.1088901,-0.29929197,0.62719202,0.71906495,0
-0.81038451,-3.061873,1.0929852,-0.32636559,-0.77544522,0.54052752,0
-1.4627911,2.5909185,1.2968253,-0.29929197,0.62719202,0.71906495,0
-1.0170398,3.9727554,0.3087368,-0.29929197,0.62719202,0.71906495,0
-0.89462566,2.9059842,-1.4378318,-0.16685581,0.70759428,-0.68663621,0
-2.4911704,2.4168296,-0.89819741,-0.62180042,0.44340888,-0.64556384,0
1.4325523,-0.55460334,-2.9980938,0.29929197,-0.62719202,-0.71906495,0
0.055050373,-1.5041056,3.0080214,0.13842452,-0.71709585,0.68309009,0
3.4590378,-0.66282964,0.37829971,0.93120056,0.027667254,0.36345565,0
0.93501794,2.3972692,2.3924279,-0.29929197,0.62719202,0.71906495,0
2.3585281,2.1846395,-0.58090138,0.75847471,0.6136173,-0.21952182,0
2.346642,-3.0668707,-0.52009761,0.29929197,-0.62719202,-0.71906495,0
0.25555849,0.93221211,-3.8998952,-0.12854624,0.72023493,-0.6817165,0
-2.3691626,-2.0720565,0.70776343,-0.72968692,-0.63602704,0.25105047,0
-1.1283889,-3.3822598,0.43112791,-0.47871584,-0.75060022,0.45544514,0
-0.23268378,-3.8672838,-0.84364438,0.29929197,-0.62719202,-0.71906495,0
-3.0630305,-0.93238193,0.35673547,-0.91344899,-0.40612391,-0.025964618,0
-2.8777061,2.6723366,0.67619085,-0.29929197,0.62719202,0.71906495,0
1.5707942,-1.4033366,-2.2821796,0.29929197,-0.62719202,-0.71906495,0
-1.9280134,-1.1439686,-3.492893,-0.84083945,0.18285,-0.50946522,0
-2.9255605,2.8235378,0.36174202,-0.29929197,0.62719202,0.71906495,0
1.1422291,-0.79020798,3.4258056,0.47510201,-0.55558687,0.68234986,0
-0.64405179,-3.7364795,-1.0682936,0.29929197,-0.62719202,-0.71906495,0
-3.7497852,1.2191265,1.4186783,-0.29929197,0.62719202,0.71906495,0
2.5542076,2.0058889,2.1285295,0.95262575,0.23915461,0.18790698,0
-1.243952,0.057812452,-3.888484,-0.58496881,0.4747619,-0.65758085,0
-0.37078023,2.7220001,-1.746316,-0.080323935,0.73437274,-0.67397666,0
-2.1862814,-2.4473724,0.64685345,-0.70310014,-0.65442657,0.27816516,0
-2.828531,1.741396,1.5534586,-0.29929197,0.62719202,0.71906495,0
-0.93781352,-1.7982829,-2.9547603,0.29929197,-0.62719202,-0.71906495,0
-2.5371828,-2.1549139,-1.9209597,-0.94405824,-0.30402571,-0.12775838,0
0.56771147,-1.3733823,-2.7476888,0.29929197,-0.62719202,-0.71906495,0
-0.47990459,2.0903111,2.0431905,-0.29929197,0.62719202,0.71906495,0
0.56220293,1.2842786,-3.5811858,-0.0015153885,0.75329584,-0.65768003,0
1.7823555,0.71347237,3.7009406,0.7925638,-0.25620526,0.55335456,0
0.127105,3.1091824,1.3883798,-0.29929197,0.62719202,0.71906495,0
-2.6043878,-1.7478557,-2.0817595,-0.95386726,-0.17795518,-0.241804,0
-1.9653333,-2.8207915,0.21836638,-0.67600816,-0.6712234,0.30409229,0
0.57591462,2.6575189,2.0041747,-0.29929197,0.62719202,0.71906495,0
-1.7347214,1.0225085,2.5926952,-0.29929197,0.62719202,0.71906495,0
2.6281259,1.3633485,2.1779778,0.94421726,0.086163223,0.31785142,0
1.2048197,1.9678525,3.0641668,-0.29929197,0.62719202,0.71906495,0
2.2413163,2.7648697,1.6207237,0.90001655,0.43582058,-0.0055285692,0
-2.0191205,2.49014,1.2880924,-0.29929197,0.62719202,0.71906495,0
2.6596951,-2.4832258,-0.82088888,0.29929197,-0.62719202,-0.71906495,0
-3.0623598,-1.0614998,-0.64741063,-0.9491452,-0.27287012,-0.15705061,0
0.046445131,2.368341,-2.1064322,0.030450463,0.75950366,-0.64978981,0
1.8585377,3.5539434,1.9624822,-0.29929197,0.62719202,0.71906495,0
-1.3229845,-3.2730722,-1.7922027,0.29929197,-0.62719202,-0.71906495,0
2.9307604,-0.71804255,1.1311116,0.88179249,-0.10608304,0.45955223,0
-2.1963797,-1.4920492,2.2367251,-0.56707233,-0.72299743,0.394593,0
2.9039948,-1.5975239,-1.4725556,0.29929197,-0.62719202,-0.71906495,0
1.7817516,0.86021376,3.7967117,0.78957647,-0.2603198,0.5557,0
-2.2236075,1.3106502,2.0450506,-0.29929197,0.62719202,0.71906495,0
1.5752239,2.0900321,-2.0913215,0.42772299,0.76183844,-0.48647195,0
1.42221,0.27568102,-3.8831336,0.29929197,-0.62719202,-0.71906495,0
2.4939871,-2.1699889,1.1606617,0.63281131,-0.43355036,0.64154786,0
-0.88842005,2.4379997,1.6298913,-0.29929197,0.62719202,0.71906495,0
0.66112971,-2.8417754,1.6362026,0.11778259,-0.72356087,0.6801374,0
2.9654195,1.3166544,-0.80693364,0.84279931,0.52708572,-0.10894823,0
2.0414314,3.3634284,1.4647999,0.84525597,0.52391243,-0.10515797,0
-0.88338447,2.46334,-1.9205348,-0.22968185,0.68409348,-0.6922878,0
0.78257632,-2.3848927,2.1748891,0.24083245,-0.67955375,0.6929692,0
-2.3131731,-1.7889423,1.3518457,-0.66861379,-0.67549801,0.31089848,0
2.697484,-0.80301607,-2.4556613,0.29929197,-0.62719202,-0.71906495,0
-3.2534435,-0.28346431,3.004962,-0.29929197,0.62719202,0.71906495,0
-1.2752016,-0.24778342,-4.0249825,-0.64644724,0.4210085,-0.63628423,0
0.1982519,-3.2931881,-1.0929022,0.29929197,-0.62719202,-0.71906495,0
2.5962591,-2.7125416,0.62607026,0.64292353,-0.4242858,0.63767612,0
3.0127077,0.46981776,0.84695935,0.95335686,0.16562234,0.25234854,0
0.4674542,-4.3223763,-0.26391989,0.29929197,-0.62719202,-0.71906495,0
2.966222,-1.4058158,-1.730767,0.29929197,-0.62719202,-0.71906495,0
-3.0823312,2.0424433,0.99056315,-0.29929197,0.62719202,0.71906495,0
-1.0892985,-0.14313245,3.9046278,-0.29929197,0.62719202,0.71906495,0
-3.0512624,-0.71116447,-0.99733686,-0.9541285,-0.19046292,-0.23100305,0
2.7916167,-2.3863144,0.71245909,0.69589043,-0.37211725,0.61421907,0
-0.22514057,-3.574553,-1.156104,0.29929197,-0.62719202,-0.71906495,0
1.4120038,1.5017736,-3.0993729,0.24649405,0.77885085,-0.57674259,0
-2.8092632,-1.3253646,-1.2449753,-0.95142883,-0.25316247,-0.17519081,0
-1.4517959,-1.2519252,-3.6245396,0.29929197,-0.62719202,-0.71906495,0
-0.67631721,4.3930411,0.12304375,-0.29929197,0.62719202,0.71906495,0
-3.2268474,-0.82590127,0.91608429,-0.87607855,-0.47920924,0.053337216,0
-0.77551699,-3.5795422,0.41989088,-0.39971578,-0.76670957,0.50237787,0
2.0223002,-2.9454489,-0.6658628,0.29929197,-0.62719202,-0.71906495,0
1.9914279,3.3353984,1.0555425,0.79004544,0.5854637,-0.18182492,0
0.40477347,-3.3034084,-1.1360826,0.29929197,-0.62719202,-0.71906495,0
-1.2842021,-2.1583648,-2.949414,0.29929197,-0.62719202,-0.71906495,0
-0.50167656,0.17938471,-4.309114,-0.42213839,0.58880585,-0.68927979,0
-0.40068865,-3.2380292,1.0466075,-0.21309948,-0.7785114,0.59034598,0
-1.0136923,4.0129547,0.28064933,-0.29929197,0.62719202,0.71906495,0
-0.045530319,1.2065299,-3.4421272,-0.18853366,0.69987917,-0.68892968,0
-1.0999064,0.84983861,3.023695,-0.29929197,0.62719202,0.71906495,0
1.1762296,2.1415348,2.8370109,-0.29929197,0.62719202,0.71906495,0
3.1970234,-0.93022537,0.89036679,0.87056208,-0.12898347,0.47485226,0
2.2468019,-0.37937307,-2.8629107,0.29929197,-0.62719202,-0.71906495,0
1.3231472,-1.6450304,-2.2286437,0.29929197,-0.62719202,-0.71906495,0
-3.4700108,2.0839057,0.83057046,-0.29929197,0.62719202,0.71906495,0
-0.021199703,1.9171791,-2.7700243,-0.075787425,0.7356022,-0.67316079,0
0.97152066,-1.486074,-2.448401,0.29929197,-0.62719202,-0.71906495,0
0.9661727,-1.6815932,2.6194367,0.33978093,-0.63415045,0.69455171,0
1.7662567,-0.31132889,2.9354615,0.68075764,-0.38768932,0.62150288,0
-0.046047807,-2.4018073,-2.1920509,0.29929197,-0.62719202,-0.71906495,0
-0.2324152,-1.2515578,-3.1432729,0.29929197,-0.62719202,-0.71906495,0
-0.7911852,-2.2094727,-2.455379,0.29929197,-0.62719202,-0.71906495,0
3.0375154,-2.8141007,-0.4306221,0.29929197,-0.62719202,-0.71906495,0
0.019432902,3.7686391,0.90916765,-0.29929197,0.62719202,0.71906495,0
1.1252301,0.74205136,3.9969401,-0.29929197,0.62719202,0.71906495,0
-3.4643617,1.457353,0.088820696,-0.89606225,0.074201077,-0.43768311,0
2.5711989,-0.65590096,-2.4086456,0.29929197,-0.62719202,-0.71906495,0
0.67037845,-2.4116106,2.0791833,0.18456352,-0.70132285,0.68853652,0
0.979702,0.8767128,-3.8329058,0.054337621,0.76358962,-0.64341128,0
-3.1034095,0.065146804,-0.98233008,-0.92748106,-0.014264464,-0.37359786,0
-0.49253464,-0.48557353,-3.8444135,0.29929197,-0.62719202,-0.71906495,0
-2.5419354,-1.9963641,-1.9636116,-0.95250434,-0.24078611,-0.18643355,0
1.6772299,2.9001758,2.4416502,-0.29929197,0.62719202,0.71906495,0
1.5935433,1.349793,3.582876,-0.29929197,0.62719202,0.71906495,0
-0.6787343,0.7632091,-3.7778494,-0.37748152,0.61429667,-0.69292653,0
-0.80782264,3.3049874,0.93824124,-0.29929197,0.62719202,0.71906495,0
-0.68081361,-2.9565656,-1.8584372,0.29929197,-0.62719202,-0.71906495,0
0.20338815,2.1685448,2.334655,-0.29929197,0.62719202,0.71906495,0
0.23703504,4.3880234,0.57491946,-0.29929197,0.62719202,0.71906495,0
-0.0078979731,-2.0705998,-2.4258227,0.29929197,-0.62719202,-0.71906495,0
-3.1984134,1.7605361,1.3525465,-0.29929197,0.62719202,0.71906495,0
2.502954,0.73037767,-3.5093451,0.48874128,0.74801004,-0.44901308,0
1.9600923,-1.9247959,-1.6467409,0.29929197,-0.62719202,-0.71906495,0
-1.7084055,-1.6632024,2.557234,-0.38994789,-0.76820242,0.50774568,0
-0.84060538,-3.7190897,-1.2005547,0.29929197,-0.62719202,-0.71906495,0
-2.6986496,1.2630167,1.9210147,-0.29929197,0.62719202,0.71906495,0
1.5023944,0.28716636,3.5868506,0.69193757,-0.37624025,0.61616999,0
-0.006768465,-0.25028443,-4.0721593,0.29929197,-0.62719202,-0.71906495,0
-2.4922974,-1.68567,-2.4250565,-0.94630879,-0.098626405,-0.30785108,0
-2.8296862,-1.411206,1.1301851,-0.79129255,-0.58426273,0.18025827,0
2.7678032,-3.0706391,0.26890993,0.62997007,-0.4361167,0.6426037,0
1.0451188,-0.60033154,-3.1480913,0.29929197,-0.62719202,-0.71906495,0
-1.3459923,0.4289782,3.0998864,-0.29929197,0.62719202,0.71906495,0
2.6065388,1.7723808,-0.49358582,0.81760263,0.55707192,-0.14559078,0
0.21371898,2.9236815,1.8405716,-0.29929197,0.62719202,0.71906495,0
0.83610559,-0.93149281,3.472954,0.39771628,-0.60301948,0.69151229,0
1.6583451,1.3756495,3.5751319,-0.29929197,0.62719202,0.71906495,0
-2.2579966,2.7728117,0.93448436,-0.29929197,0.62719202,0.71906495,0
1.8492467,0.62282348,3.630275,0.78456193,-0.26713312,0.55955565,0
1.3152933,2.3282511,2.8122711,-0.29929197,0.62719202,0.71906495,0
3.426244,-1.3030157,-0.021327734,0.91522962,-0.024367899,0.40219498,0
-0.24026871,-4.1538177,0.069849849,-0.31380272,-0.77638841,0.54657924,0
0.18019199,-0.15431261,4.2657299,-0.29929197,0.62719202,0.71906495,0
2.2557302,2.5015657,2.3627794,0.95068705,0.26026791,0.16868436,0
-1.9069231,-2.7368171,-2.6024625,0.29929197,-0.62719202,-0.71906495,0
-2.1190197,-2.8607659,-2.0294948,-0.91769457,-0.39556533,-0.036941409,0
-2.2546372,3.7929883,-0.21206927,-0.29929197,0.62719202,0.71906495,0
1.7967868,3.0634995,2.1229258,-0.29929197,0.62719202,0.71906495,0
-1.1260052,-0.54321408,4.2004638,-0.081952929,-0.76772165,0.63552117,0
0.12730992,-1.9377016,-2.5429883,0.29929197,-0.62719202,-0.71906495,0
-2.8252709,2.8524339,0.42904902,-0.29929197,0.62719202,0.71906495,0
-3.318408,-0.40704709,0.60531044,-0.92744827,-0.3682965,-0.064785719,0
-0.073004007,4.1878457,0.036213756,0.21929359,0.7786504,-0.58788919,0
-2.618695,-1.5872482,-2.0414059,-0.95378411,-0.17545734,-0.24394798,0
-3.5937271,-0.037812114,1.4750555,-0.90418339,-0.42712754,-0.0037881136,0
-1.3605665,-3.1426444,-1.9607675,0.29929197,-0.62719202,-0.71906495,0
0.71227598,-2.7493517,1.7212297,0.17747867,-0.70386487,0.68780482,0
1.0612352,-4.1258297,0.069330439,0.072570801,-0.73646349,0.67257327,0
-2.0764027,-3.0990124,-2.2632079,0.29929197,-0.62719202,-0.71906495,0
2.5361114,-3.2918768,-0.11015987,0.29929197,-0.62719202,-0.71906495,0
1.413877,2.5658231,2.4800377,-0.29929197,0.62719202,0.71906495,0
2.0769498,-0.41893649,-2.8699238,0.29929197,-0.62719202,-0.71906495,0
1.4478052,-0.74102771,3.2239585,0.55868733,-0.49572396,0.66492558,0
-1.0626678,1.6013825,2.4617891,-0.29929197,0.62719202,0.71906495,0
2.5227001,-2.7810488,-0.64399576,0.29929197,-0.62719202,-0.71906495,0
-2.6132021,2.2556374,1.083949,-0.29929197,0.62719202,0.71906495,0
-0.25118673,1.4462991,2.9394653,-0.29929197,0.62719202,0.71906495,0
-1.9623952,-0.60809064,3.8275652,-0.29929197,0.62719202,0.71906495,0
-0.78618336,0.69708037,3.3407292,-0.29929197,0.62719202,0.71906495,0
-2.5704739,-1.0536166,-2.3051257,-0.93626451,-0.047765344,-0.34803319,0
-2.5861747,0.004871726,-2.0550654,-0.86449087,0.14070836,-0.48255217,0
-2.0676367,-1.4233456,2.8002419,-0.47421938,-0.75172001,0.45829347,0
0.028588533,-0.81805682,-3.3893445,0.29929197,-0.62719202,-0.71906495,0
-2.1167622,-2.4690409,0.71787429,-0.66937912,-0.67506135,0.31019908,0
-2.3860631,3.0064602,-0.59370399,-0.57038188,0.48653388,-0.66177726,0
-3.1402292,1.6787236,-0.54344773,-0.82870746,0.20266578,-0.52169955,0
-2.7201176,0.49204707,2.5098803,-0.29929197,0.62719202,0.71906495,0
-0.15279603,-0.67203641,-3.543678,0.29929197,-0.62719202,-0.71906495,0
3.2201002,-2.6215324,0.065848827,0.76215523,-0.29625612,0.5756315,0
1.5426314,-3.1100664,0.98943615,0.32521456,-0.64143109,0.69483924,0
0.87203503,-1.5186011,-2.4290318,0.29929197,-0.62719202,-0.71906495,0
-2.9038246,-1.0191797,-0.64430022,-0.94695294,-0.28770441,-0.14319921,0
0.085337639,2.1740119,-2.3712714,0.0066039562,0.75495273,-0.65574574,0
-2.2297838,-2.7411675,-1.4399736,-0.90015846,-0.43553093,0.0052168369,0
1.2562444,2.8741229,2.1463318,-0.29929197,0.62719202,0.71906495,0
2.1165805,2.6013274,2.9176905,-0.29929197,0.62719202,0.71906495,0
1.2142015,0.4242866,-4.0863738,0.29929197,-0.62719202,-0.71906495,0
3.6273832,-1.6264483,-0.34050226,0.91296721,-0.03080529,0.4068681,0
0.30749607,-0.92427075,3.6572242,0.25649446,-0.67298526,0.69375885,0
-1.9121379,-2.8022192,-0.11087871,-0.72724646,-0.63780242,0.25361484,0
3.6618733,-1.3103544,-1.4550135,0.29929197,-0.62719202,-0.71906495,0
-0.9455744,-3.4511344,-1.6632199,0.29929197,-0.62719202,-0.71906495,0
1.3925614,-2.7339272,-1.2241368,0.29929197,-0.62719202,-0.71906495,0
2.6306033,-0.30517387,-2.7126603,0.29929197,-0.62719202,-0.71906495,0
2.4360778,1.9643095,2.7780123,0.94794738,0.10958192,0.29897726,0
-0.97312397,2.3875775,1.7730677,-0.29929197,0.62719202,0.71906495,0
3.5714633,-0.26930901,-0.65638113,0.95061064,0.2609542,0.16805398,0
-0.6457603,2.0452628,-2.4475207,-0.19966495,0.69575745,-0.68996775,0
-1.0782626,-1.3324256,-3.4434636,0.29929197,-0.62719202,-0.71906495,0
-1.2411847,-3.9506705,-0.82834625,-0.650599,-0.68539834,0.32703209,0
-0.50366855,1.0571058,3.1711402,-0.29929197,0.62719202,0.71906495,0
-1.1276761,4.216023,0.1416565,-0.29929197,0.62719202,0.71906495,0
-1.2635806,0.47413421,3.191783,-0.29929197,0.62719202,0.71906495,0
-1.4003432,-3.3443627,-1.9436705,0.29929197,-0.62719202,-0.71906495,0
-0.61180371,3.2179055,1.189278,-0.29929197,0.62719202,0.71906495,0
1.5298144,-3.8329389,-0.18727201,0.29929197,-0.62719202,-0.71906495,0
-0.95044374,-2.3927383,1.9361687,-0.27254832,-0.7784059,0.56551003,0
-1.4448001,-0.46733546,-3.8331532,-0.70749521,0.35977679,-0.60828549,0
-2.3130867,2.8978076,0.58213592,-0.29929197,0.62719202,0.71906495,0
2.0885293,-2.372211,-1.2345681,0.29929197,-0.62719202,-0.71906495,0
-1.9802155,0.69073713,-2.6787236,-0.69517046,0.37287134,-0.61457717,0
1.9314449,1.7598305,3.5043137,-0.29929197,0.62719202,0.71906495,0
-3.3644075,1.1610332,1.8301485,-0.29929197,0.62719202,0.71906495,0
-3.153039,-0.97018564,-0.57569265,-0.95054066,-0.26157594,-0.1674825,0
-0.77833724,-3.9683955,-0.33761287,-0.48916739,-0.74789715,0.44873732,0
2.5825686,2.2497106,0.48832536,0.87234426,0.48518342,-0.060102344,0
-2.1387324,-2.9708488,-0.70558405,-0.81238735,-0.5627625,0.15272486,0
-2.4938076,0.47701526,2.7927473,-0.29929197,0.62719202,0.71906495,0
-0.30072856,-4.1037555,-0.024620414,-0.29571903,-0.77747411,0.55505311,0
2.9688804,0.38112915,-3.1850047,0.29929197,-0.62719202,-0.71906495,0
3.1846728,-2.2522495,-0.84210587,0.29929197,-0.62719202,-0.71906495,0
-0.98386234,-3.0800276,-1.8202007,0.29929197,-0.62719202,-0.71906495,0
1.3286926,-3.1689587,-0.96662682,0.29929197,-0.62719202,-0.71906495,0
2.7627649,-0.45836294,-2.5891566,0.29929197,-0.62719202,-0.71906495,0
-0.13869333,-3.9352033,0.29132408,-0.22625864,-0.77876556,0.58509058,0
2.2672567,-0.96235728,1.988755,0.73943496,-0.32383218,0.59022748,0
3.3064737,-0.67633533,-2.1823354,0.29929197,-0.62719202,-0.71906495,0
-3.1175363,0.42898118,-1.1547356,-0.89543015,0.07569176,-0.43872011,0
2.6004272,-1.5887332,-1.6317285,0.29929197,-0.62719202,-0.71906495,0
0.81932271,1.930494,2.8874824,-0.29929197,0.62719202,0.71906495,0
1.6251554,0.64675808,-4.0967255,0.29929197,-0.62719202,-0.71906495,0
2.3510253,-2.1637471,-1.2613492,0.29929197,-0.62719202,-0.71906495,0
0.32905686,-3.4734435,-1.068961,0.29929197,-0.62719202,-0.71906495,0
0.68340564,-0.7770505,-3.1483405,0.29929197,-0.62719202,-0.71906495,0
-2.8759389,-0.59836483,2.7507486,-0.6815846,-0.66791463,0.29888517,0
0.40376288,-1.9830391,-2.3545423,0.29929197,-0.62719202,-0.71906495,0
-0.3579545,-0.71601892,-3.8288772,0.29929197,-0.62719202,-0.71906495,0
-2.409044,-2.0770776,-2.3713098,-0.95383251,-0.17687498,-0.24273169,0
2.5960448,-3.3143249,0.20491815,0.52744883,-0.51924843,0.6724422,0
-2.4019969,-0.61177421,-2.6543009,-0.87835813,0.1132676,-0.46438926,0
-0.075554371,-2.9366953,-1.6686884,0.29929197,-0.62719202,-0.71906495,0
3.5440559,-0.74781322,-0.27121496,0.94913697,0.11845878,0.29172981,0
2.2357705,2.4452488,2.9649706,0.95350426,0.16862948,0.24978697,0
2.1326337,-2.7370968,-0.91517138,0.29929197,-0.62719202,-0.71906495,0
-1.1554875,-1.0976386,-3.7045875,0.29929197,-0.62719202,-0.71906495,0
-0.69597137,1.7628464,2.4157958,-0.29929197,0.62719202,0.71906495,0
0.6602993,-0.3815732,-3.4412658,0.29929197,-0.62719202,-0.71906495,0
-2.493037,0.11613619,-2.0975108,-0.85218447,0.16327602,-0.49711418,0
-0.668226,3.7960253,0.4905498,-0.29929197,0.62719202,0.71906495,0
-1.0142624,-3.4074657,-1.4845567,0.29929197,-0.62719202,-0.71906495,0
0.28095984,-2.3736746,2.1759501,0.11471772,-0.72448993,0.679672,0
-1.4179137,0.024132967,-3.6314692,-0.64743614,0.42008415,-0.63588953,0
0.94177723,-0.61875415,-3.32199,0.29929197,-0.62719202,-0.71906495,0
0.28023827,-1.5807642,-2.7825933,0.29929197,-0.62719202,-0.71906495,0
3.7688529,-0.54589748,-0.86197472,0.95286572,0.23572537,0.19099808,0
3.3436823,0.22574472,-2.5801945,0.78571761,0.58957535,-0.18721265,0
1.3859792,2.3324137,2.7790687,-0.29929197,0.62719202,0.71906495,0
0.7795248,-1.6681929,2.7479992,0.30732512,-0.65008378,0.69494045,0
-2.1754053,-2.0312607,1.5606843,-0.6267429,-0.69745946,0.34748161,0
3.0939984,0.45185369,0.63328576,0.95394212,0.18052633,0.23959243,0
-0.9726975,4.1408377,-0.11401289,-0.041577339,0.74432093,-0.66652656,0
1.8117452,-2.9026415,-0.97482687,0.29929197,-0.62719202,-0.71906495,0
3.7842896,-1.2681077,-1.4253855,0.29929197,-0.62719202,-0.71906495,0
0.60710335,1.1300477,-3.7397528,-0.0088018179,0.75176233,-0.65937519,0
-0.044739008,-4.0533538,-0.6842804,0.29929197,-0.62719202,-0.71906495,0
1.6938996,3.6289935,1.3263509,0.7688328,0.60483068,-0.20754659,0
-0.51055467,-2.4758639,-2.1902981,0.29929197,-0.62719202,-0.71906495,0
2.9273753,-2.259768,-0.90447855,0.29929197,-0.62719202,-0.71906495,0
0.71349251,4.1915169,0.92633808,-0.29929197,0.62719202,0.71906495,0
2.2057381,-2.7002609,-0.83397305,0.29929197,-0.62719202,-0.71906495,0
-2.1916814,-0.90361905,-2.9558067,-0.86768752,0.13458771,-0.47854412,0
-0.46756363,2.0311732,2.1372175,-0.29929197,0.62719202,0.71906495,0
1.3677776,3.5963473,1.546247,-0.29929197,0.62719202,0.71906495,0
1.0894542,-0.34849429,-3.3667088,0.29929197,-0.62719202,-0.71906495,0
-2.4121132,1.6234581,-1.5506885,-0.69861996,0.36924678,-0.61285132,0
-2.3963611,-2.5320876,-0.62108374,-0.85212928,-0.51476204,0.094315767,0
-0.38800681,3.9406738,0.50545418,-0.29929197,0.62719202,0.71906495,0
-1.7535124,-2.2714527,-2.7883544,0.29929197,-0.62719202,-0.71906495,0
-0.88269615,-1.9755032,-2.8509321,0.29929197,-0.62719202,-0.71906495,0
1.0534611,1.3080854,-3.3223987,0.14094448,0.77440226,-0.61679459,0
-1.0991453,-4.0058112,-0.86023355,-0.62457621,-0.69849896,0.34929019,0
-1.1532755,3.4975934,0.7443701,-0.29929197,0.62719202,0.71906495,0
2.4952018,2.3772435,1.9750788,0.94602108,0.29328346,0.13794518,0
-2.1921949,-2.3187542,-3.1408672,-0.94882196,-0.11601555,-0.29372966,0
-1.8968934,3.7533543,-0.35401821,-0.34574866,0.63110566,-0.69437981,0
2.1559315,-2.8010631,-0.70278895,0.29929197,-0.62719202,-0.71906495,0
0.43019682,-1.913056,-2.2135777,0.29929197,-0.62719202,-0.71906495,0
1.073827,-3.2051342,-0.90284336,0.29929197,-0.62719202,-0.71906495,0
-1.4563141,-1.8405356,2.3843143,-0.37439549,-0.77036548,0.51610565,0
-3.0581098,-0.86022085,0.5504458,-0.90273505,-0.43019649,-0.00050842762,0
-2.1009116,-2.8723855,-2.3463814,-0.93255478,-0.35174382,-0.081349134,0
3.0689704,-1.3983481,0.96002984,0.81702614,-0.22079593,0.53265125,0
0.8842814,3.7109878,1.4175885,-0.29929197,0.62719202,0.71906495,0
-2.6905308,-1.8158388,-1.0435305,-0.92562079,-0.37378743,-0.059235692,0
3.1636348,-1.6676817,0.56721401,0.81608611,-0.22221801,0.53350037,0
2.7024517,-2.4620051,-0.93427241,0.29929197,-0.62719202,-0.71906495,0
-0.7748425,0.8261168,3.1957431,-0.29929197,0.62719202,0.71906495,0
-1.8980539,2.1148272,-1.7025203,-0.49371195,0.54308784,-0.67919362,0
-0.24111223,-1.0738891,3.5888889,0.094389439,-0.73045129,0.67641062,0
0.97459984,0.68170977,3.9062269,-0.29929197,0.62719202,0.71906495,0
-2.0262675,0.46686041,-2.6968861,-0.70111948,0.36660099,-0.61158401,0
-2.4808152,-1.7616658,-2.4998767,-0.95191479,-0.14458278,-0.27009988,0
-1.4705224,-1.8244225,-3.0750151,0.29929197,-0.62719202,-0.71906495,0
-3.4154963,-0.43582523,0.31031895,-0.94509995,-0.29847708,-0.13303161,0
2.1435027,2.7221012,0.29266453,0.76544857,0.60774702,-0.21149886,0
-0.31656426,-2.0808551,-2.4244137,0.29929197,-0.62719202,-0.71906495,0
-2.7157323,-1.5312333,0.49659085,-0.8385371,-0.53247756,0.11542535,0
-2.4815159,0.54784596,-1.8923919,-0.80290687,0.24162197,-0.54493958,0
-3.1273241,0.66081822,2.2846484,-0.29929197,0.62719202,0.71906495,0
-1.9399242,3.5794914,-0.54540372,-0.37982827,0.61301142,-0.69278216,0
2.5284834,-3.4946997,-0.11186385,0.29929197,-0.62719202,-0.71906495,0
2.9761958,1.3195889,0.054727554,0.90624613,0.42266393,0.0085400343,0
-0.28269768,-0.34959126,-4.1179371,0.29929197,-0.62719202,-0.71906495,0
-1.5915012,1.1433122,2.3749824,-0.29929197,0.62719202,0.71906495,0
0.93666244,-2.1973524,-1.9565263,0.29929197,-0.62719202,-0.71906495,0
3.1869133,-2.2183914,0.40562868,0.76674134,-0.29046112,0.57248574,0
-1.3981414,-1.4470155,-3.4494219,0.29929197,-0.62719202,-0.71906495,0
0.3824203,3.5835149,-0.63812429,0.2877394,0.77785277,-0.55870467,0
-0.42659998,0.070527315,-4.4543176,-0.41889542,0.5907321,-0.68961012,0
1.5569134,-1.3742795,-2.4520481,0.29929197,-0.62719202,-0.71906495,0
-2.1346173,0.28215325,2.9472539,-0.29929197,0.62719202,0.71906495,0
1.9646789,-2.8939331,1.0044619,0.46073496,-0.56493461,0.68452334,0
-3.7438571,0.4332628,0.88920546,-0.94999105,-0.26625425,-0.1631732,0
0.056484222,1.6723281,2.7178004,-0.29929197,0.62719202,0.71906495,0
-2.1125579,0.024773121,3.1605124,-0.29929197,0.62719202,0.71906495,0
0.074266434,0.29612136,-4.3056474,0.29929197,-0.62719202,-0.71906495,0
3.4658248,-1.2703352,0.16563892,0.90092134,-0.06245929,0.42946398,0
2.0113745,-3.5844989,0.40878129,0.41515857,-0.59293669,0.68997771,0
3.2008104,-1.9300092,0.36658096,0.80309749,-0.2413483,0.54478025,0
0.17250061,-3.6201458,0.84629595,-0.096474528,-0.7696386,0.63114893,0
-2.6876736,1.8846148,1.3096627,-0.29929197,0.62719202,0.71906495,0
-3.4040213,0.014526814,-0.35615206,-0.95102215,-0.13500269,-0.2780844,0
2.1545119,-0.27744675,2.6233182,0.76328421,-0.29483697,0.57486355,0
-3.2641933,-0.76659691,0.28974414,-0.92818171,-0.3660343,-0.067064285,0
-0.90547526,-4.2490101,-0.82647109,0.29929197,-0.62719202,-0.71906495,0
0.4385829,-1.0602207,-3.0678604,0.29929197,-0.62719202,-0.71906495,0
2.7992156,0.11468148,-3.0972912,0.29929197,-0.62719202,-0.71906495,0
-0.78654194,3.3317065,-1.1452892,-0.11078763,0.72566962,-0.67906523,0
0.38628036,-2.90236,-1.3690611,0.29929197,-0.62719202,-0.71906495,0
2.1030822,-1.8852286,-1.6546822,0.29929197,-0.62719202,-0.71906495,0
0.64664173,4.0566244,0.98242354,-0.29929197,0.62719202,0.71906495,0
-1.0796434,3.8551579,0.29349482,-0.29929197,0.62719202,0.71906495,0
0.97037268,0.14667249,4.1613555,0.580522,-0.47838771,0.65889251,0
-2.7134242,-0.54902613,3.3126936,-0.55028629,-0.72911304,0.406914,0
-1.1310431,2.2519364,1.6287916,-0.29929197,0.62719202,0.71906495,0
-3.4535265,2.4858592,0.57727742,-0.29929197,0.62719202,0.71906495,0
-0.064021945,2.1084754,2.4016657,-0.29929197,0.62719202,0.71906495,0
-3.6761482,0.24093649,0.86879015,-0.94996846,-0.2664398,-0.16300201,0
1.0863783,-0.022294521,-3.7111521,0.29929197,-0.62719202,-0.71906495,0
-0.055296421,-0.62580943,4.1251388,0.20546985,-0.69356447,0.69047111,0
0.06704247,-1.689586,-2.6633432,0.29929197,-0.62719202,-0.71906495,0
1.3518851,2.9406474,-0.74239612,0.52572936,0.7372942,-0.42427105,0
3.9429631,-1.6108968,-1.2150655,0.29929197,-0.62719202,-0.71906495,0
2.611635,1.9295111,1.8691154,0.94887322,0.27487373,0.15518975,0
-0.99019659,1.8417959,2.0764947,-0.29929197,0.62719202,0.71906495,0
-0.57974422,-3.6101205,-1.1269659,0.29929197,-0.62719202,-0.71906495,0
1.9383562,2.5280075,2.6799591,-0.29929197,0.62719202,0.71906495,0
-3.039947,0.18786049,-1.0239744,-0.92575562,-0.0083598793,-0.37802982,0
-0.86250067,-2.5912285,-2.2935419,0.29929197,-0.62719202,-0.71906495,0
-2.3417413,1.5396042,1.8441256,-0.29929197,0.62719202,0.71906495,0
-3.1612186,-0.18482447,2.9253197,-0.7341643,-0.63272178,0.24630386,0
-3.2201993,-0.40613317,2.2758212,-0.79982251,-0.57584625,0.16936672,0
