-1.1255784,-2.8158476,1.1838791,0.62416452,-0.54354131,0.56123221,0
-0.85099792,2.9592426,1.9220281,-0.064047098,0.68032378,0.73010808,0
1.9204807,-2.4925842,-1.8459244,0.62416452,-0.54354131,0.56123221,0
0.74970818,3.0979705,1.5488367,0.27551812,0.82531774,0.49289006,0
2.9734368,0.69064617,-1.9610896,0.75915498,0.25213555,-0.60009313,0
1.1652181,-0.10817516,1.4477458,0.62416452,-0.54354131,0.56123221,0
0.11404705,-3.2157865,-1.6396875,-0.10945636,-0.7720871,-0.62602007,0
-1.4378569,0.16827166,3.2061989,-0.56613064,0.18040633,0.80433196,0
-2.8537292,-0.85054338,1.8245182,-0.77008569,-0.30676466,0.55934244,0
-2.3170383,-0.63224936,2.5212507,-0.72475815,-0.13452399,0.67574346,0
-0.99076247,-1.4924182,2.3675189,0.62416452,-0.54354131,0.56123221,0
-1.5341928,-3.2465014,0.78360033,-0.66835874,-0.74347556,0.023263335,0
-1.9537678,-2.8795614,-0.24762011,-0.58573639,-0.80092025,-0.12425768,0
-1.6409863,-3.2158813,-0.30601668,-0.55145299,-0.81535065,-0.17636096,0
-0.45911837,-0.23441482,-2.3462229,-0.62416452,0.54354131,-0.56123221,0
-2.4530232,1.1834304,1.2617781,-0.62416452,0.54354131,-0.56123221,0
-1.0913306,-2.2386613,1.8063411,0.62416452,-0.54354131,0.56123221,0
2.6248438,2.2692862,1.453891,0.51945072,0.82527602,0.22156417,0
3.1283174,-0.36793089,-1.8087947,0.70497215,0.082150608,-0.7044614,0
-1.5276141,-3.1779947,0.58767867,-0.6493417,-0.76036364,-0.014242053,0
-3.2972436,-1.6507301,-0.53630638,-0.62416452,0.54354131,-0.56123221,0
0.83652222,-1.0593517,0.61119366,0.62416452,-0.54354131,0.56123221,0
1.7356436,1.9176183,2.511723,0.62416452,-0.54354131,0.56123221,0
-2.1058426,0.92440003,2.6477222,-0.52569753,0.23923454,0.81633902,0
-1.4736184,-2.063139,2.3701813,0.62416452,-0.54354131,0.56123221,0
-3.0498292,-2.0242918,-0.88614082,-0.63448644,-0.77180099,-0.041839957,0
-1.2967126,-0.73973525,-1.9014616,-0.62416452,0.54354131,-0.56123221,0
-0.42929983,0.14212942,3.4282665,0.62416452,-0.54354131,0.56123221,0
0.60459423,-1.1007085,-3.3842907,0.33278364,-0.46496224,-0.82040566,0
0.33183312,3.5092788,0.38865089,-0.62416452,0.54354131,-0.56123221,0
-0.91385531,0.46293354,3.474123,-0.45543247,0.330549,0.82663107,0
-0.10126042,1.7841238,-0.87061614,-0.62416452,0.54354131,-0.56123221,0
-0.42385083,1.4617527,-0.88336128,-0.62416452,0.54354131,-0.56123221,0
-3.0535672,-1.972338,-0.17289495,-0.69613016,-0.71302742,0.083637118,0
0.92789173,2.2726638,2.6890559,0.097608089,0.76695853,0.6342299,0
-2.2729568,0.80184448,0.64031696,-0.62416452,0.54354131,-0.56123221,0
-0.55024004,0.75678205,3.5762529,-0.38518947,0.41088748,0.82631761,0
-1.5708401,0.20815712,-0.82464409,-0.62416452,0.54354131,-0.56123221,0
-2.3979115,-2.2492166,1.4724243,-0.77116847,-0.54387003,0.33091509,0
-0.98255062,1.4605552,-0.21181521,-0.62416452,0.54354131,-0.56123221,0
-1.4233691,-3.1731358,1.338007,0.62416452,-0.54354131,0.56123221,0
0.59074354,-1.4528199,-3.2356753,0.30314767,-0.49357647,-0.81515884,0
2.6386991,1.3801116,-1.7161937,0.77902138,0.37822676,-0.50007039,0
2.7990336,2.2601097,0.50291538,0.65814525,0.75288594,-0.0027908087,0
0.021268109,2.2774193,-0.66372979,-0.62416452,0.54354131,-0.56123221,0
-1.6825645,-3.20522,0.89198351,-0.68345153,-0.72791201,0.055121303,0
-1.1357714,-3.1083884,-1.1810405,-0.39738292,-0.83933938,-0.37093991,0
-0.16902828,-3.2008486,-0.38224578,0.62416452,-0.54354131,0.56123221,0
1.213802,0.16761589,1.6519325,0.62416452,-0.54354131,0.56123221,0
3.2338648,0.055076122,-1.7724524,0.7294699,0.14816436,-0.66777337,0
0.61749935,-2.7729752,-0.83431304,0.62416452,-0.54354131,0.56123221,0
-2.4329116,0.42088953,0.36313438,-0.62416452,0.54354131,-0.56123221,0
-3.191592,-1.5662487,-0.73713493,-0.62416452,0.54354131,-0.56123221,0
2.7480674,-1.0146972,-1.5002172,0.62416452,-0.54354131,0.56123221,0
2.4951625,1.8238964,1.7340612,0.62416452,-0.54354131,0.56123221,0
2.372442,-1.9819233,-1.815781,0.62416452,-0.54354131,0.56123221,0
0.81254745,-3.2477522,-1.2787021,0.62416452,-0.54354131,0.56123221,0
0.63784099,0.70301819,2.5244966,0.62416452,-0.54354131,0.56123221,0
-2.3972707,-0.0031625032,-0.079098463,-0.62416452,0.54354131,-0.56123221,0
-1.4292302,-2.0627279,2.3905561,0.62416452,-0.54354131,0.56123221,0
0.60406756,-3.3662422,-1.5971248,-0.055373669,-0.74730688,-0.66216803,0
-1.9038776,-0.89966142,-1.3724537,-0.62416452,0.54354131,-0.56123221,0
0.91979647,3.4004002,0.72861743,0.43709141,0.83833337,0.32580459,0
-1.9714875,-3.0074396,0.8458941,-0.70305943,-0.70406127,0.10002697,0
-0.18642521,-3.3608208,-1.394165,-0.23143399,-0.81472528,-0.53165895,0
-0.099341393,0.18730378,-2.3243637,-0.62416452,0.54354131,-0.56123221,0
1.7154169,2.1699822,-2.3523128,-0.62416452,0.54354131,-0.56123221,0
-2.9082713,-2.0698116,-0.83852768,-0.62891537,-0.77574289,-0.051853299,0
0.60143244,3.5338345,0.80362511,0.35868001,0.83751321,0.4122141,0
1.0715603,-2.0143948,-0.53136045,0.62416452,-0.54354131,0.56123221,0
-0.17753577,3.0771594,1.7717661,0.10272968,0.76919615,0.6307013,0
0.71612906,-1.1143543,-3.259521,0.3319962,-0.46574026,-0.82028329,0
2.5159137,-0.67232871,-0.6779983,0.62416452,-0.54354131,0.56123221,0
3.1166401,0.52886438,-0.31870747,0.62416452,-0.54354131,0.56123221,0
-1.7388778,-1.216337,2.9773042,-0.73850083,-0.17597362,0.65088415,0
0.040766001,-2.9728703,-2.0212994,-0.10027713,-0.76812863,-0.63239485,0
2.1258974,2.3722596,-1.4380274,0.76194048,0.58236378,-0.28337181,0
0.061514139,-1.8793504,-3.1204326,0.12418783,-0.64018369,-0.75811768,0
-2.4593601,0.77838695,0.89867139,-0.62416452,0.54354131,-0.56123221,0
2.3741727,1.7105901,-1.9228342,0.78112084,0.4190473,-0.46287155,0
1.9383224,-1.1168818,-0.62250233,0.62416452,-0.54354131,0.56123221,0
3.2238212,0.42669892,-1.6277256,0.76169616,0.26345778,-0.59195381,0
-2.7476952,-2.2344928,-0.87584686,-0.59174955,-0.79792476,-0.11466932,0
1.6065979,1.1906252,-3.1287894,0.72556543,0.13682383,-0.67441416,0
2.2290459,2.627296,-0.57231712,0.69677353,0.71222144,-0.085133195,0
0.31129289,2.7231009,2.154654,0.086076915,0.76180476,0.64206278,0
2.0434594,2.113018,2.2652693,0.3546685,0.8371762,0.41634905,0
0.67646909,2.7616975,2.1578445,0.1606493,0.792274,0.58863735,0
-2.1188521,-2.7062376,0.41827726,-0.68507814,-0.72610229,0.058683038,0
-2.719084,-2.2348084,-1.1313848,-0.55461401,-0.81419516,-0.17172635,0
-2.743715,-1.6319507,-1.2979918,-0.62416452,0.54354131,-0.56123221,0
-0.50190592,1.8876674,-0.15539289,-0.62416452,0.54354131,-0.56123221,0
0.57991946,2.5616887,-0.90959215,-0.62416452,0.54354131,-0.56123221,0
1.8962774,2.0209029,2.5411174,0.62416452,-0.54354131,0.56123221,0
-0.072775364,0.9936403,3.5885763,0.62416452,-0.54354131,0.56123221,0
2.0557961,2.8879981,0.6505065,0.56057811,0.81192267,0.1628927,0
2.448936,1.2568736,1.0236957,0.62416452,-0.54354131,0.56123221,0
0.82909107,0.27730274,-3.3501241,-0.62416452,0.54354131,-0.56123221,0
-0.98514962,1.4467902,2.9091992,-0.34450287,0.45326638,0.82211173,0
-3.4015613,-1.3569659,0.24029255,-0.760535,-0.58717608,0.27714813,0
2.1299319,-1.7323442,-2.4432688,0.45539141,-0.33059898,-0.82663369,0
0.23400164,-1.4238005,1.0542507,0.62416452,-0.54354131,0.56123221,0
1.9368737,2.8168526,0.98410249,0.49321097,0.83123052,0.25651324,0
3.0210111,0.061717331,-0.61629272,0.62416452,-0.54354131,0.56123221,0
2.5155728,-1.7578526,-1.9363589,0.62416452,-0.54354131,0.56123221,0
1.0763861,0.6380285,2.2557938,0.62416452,-0.54354131,0.56123221,0
-0.75798118,0.54119062,-1.4038932,-0.62416452,0.54354131,-0.56123221,0
-0.81526875,1.807652,2.9931378,-0.27142286,0.52274525,0.80812585,0
0.55216336,0.70582855,-2.5758789,-0.62416452,0.54354131,-0.56123221,0
0.86473447,2.249059,-1.5526754,-0.62416452,0.54354131,-0.56123221,0
-2.0081623,1.5728124,1.060928,-0.62416452,0.54354131,-0.56123221,0
1.9695987,2.7884755,-1.5088224,0.75749767,0.59693778,-0.26431632,0
-3.3713531,-1.683253,-0.45472383,-0.62416452,0.54354131,-0.56123221,0
-1.4957957,0.83003575,-0.27813005,-0.62416452,0.54354131,-0.56123221,0
-3.4738216,0.48987079,1.7283134,-0.70929492,-0.093013197,0.69874871,0
0.21543789,-0.50369716,-3.2392111,-0.62416452,0.54354131,-0.56123221,0
-2.2363329,-2.7628512,-0.031024933,-0.65441459,-0.75612283,-0.0044929981,0
-2.4702983,-1.8181195,-1.8406351,-0.62416452,0.54354131,-0.56123221,0
-1.6873368,1.8555968,0.90113646,-0.62416452,0.54354131,-0.56123221,0
-0.41545773,-3.5452578,-1.1692717,-0.28446501,-0.82713258,-0.48469758,0
-3.0589981,0.14263394,0.72766685,-0.62416452,0.54354131,-0.56123221,0
3.120126,1.9099696,0.95762444,0.62416452,-0.54354131,0.56123221,0
-2.3473833,0.87169635,0.94469297,-0.62416452,0.54354131,-0.56123221,0
0.36055374,-3.547497,-1.2005255,0.62416452,-0.54354131,0.56123221,0
-1.7550592,-0.98026764,3.144278,-0.71163499,-0.099016875,0.69553691,0
-1.9362725,-1.397357,2.8909838,-0.74699169,-0.20465407,0.63255078,0
-1.3685664,-0.25691152,-1.445605,-0.62416452,0.54354131,-0.56123221,0
2.8574073,2.0991893,0.70670795,0.6432358,0.7652353,0.025750637,0
-1.398596,-3.2976348,0.59242129,-0.64196873,-0.76621562,-0.028109193,0
-0.025786877,1.2776623,-1.5499566,-0.62416452,0.54354131,-0.56123221,0
1.1014012,-0.1758275,1.1580782,0.62416452,-0.54354131,0.56123221,0
-2.9094734,-0.71825606,1.8524795,-0.75972289,-0.25461221,0.59832609,0
0.40453613,-2.8908441,-0.58307695,0.62416452,-0.54354131,0.56123221,0
2.908839,0.099683359,-0.61392283,0.62416452,-0.54354131,0.56123221,0
2.1448302,-1.3816106,-1.1831229,0.62416452,-0.54354131,0.56123221,0
0.33596539,0.6863476,-2.5419707,-0.62416452,0.54354131,-0.56123221,0
2.0033333,-2.2463977,-2.1664095,0.33013713,-0.46757311,-0.81999093,0
0.12812722,0.68141782,-2.0555408,-0.62416452,0.54354131,-0.56123221,0
-2.058928,-0.31267774,2.8599765,-0.66225159,0.01306814,0.74916774,0
2.6570692,1.6974232,-1.3924217,0.77960581,0.48047414,-0.40169603,0
0.41117144,1.614957,3.2189622,-0.074297845,0.67378885,0.73517942,0
2.1569004,2.783896,-0.82653117,0.71357518,0.68911994,-0.12619221,0
-0.33362603,-2.5697803,-2.212826,-0.079675198,-0.75887465,-0.64634466,0
-2.6399741,-0.95989758,2.194644,-0.75914288,-0.25208312,0.60013038,0
2.1649327,1.7887831,-2.1009045,0.78044319,0.40025911,-0.48031384,0
-1.2068781,-3.1474247,-1.2048073,-0.39376646,-0.83928168,-0.37490606,0
-1.7487111,-0.2156207,-0.98064744,-0.62416452,0.54354131,-0.56123221,0
-0.1367712,2.3572507,2.5616493,-0.058443189,0.68384343,0.72728443,0
1.8283801,1.2650393,-2.9940014,0.73161268,0.15455124,-0.66397071,0
-0.29606628,-0.28461599,2.5806274,0.62416452,-0.54354131,0.56123221,0
-1.6266823,0.89997554,3.0523474,-0.49968255,0.27450258,0.82156318,0
2.8455143,-1.4050469,-1.7334238,0.62416452,-0.54354131,0.56123221,0
0.27251005,-3.2593436,-0.86685252,0.62416452,-0.54354131,0.56123221,0
3.6254396,0.90089214,-0.75630856,0.7811867,0.44602126,-0.43682104,0
3.1324172,0.80458188,-0.065841198,0.62416452,-0.54354131,0.56123221,0
0.90799499,-1.0772141,0.69093239,0.62416452,-0.54354131,0.56123221,0
1.640299,2.9610016,-1.4628406,-0.62416452,0.54354131,-0.56123221,0
-1.9977643,2.1869729,1.7551266,-0.62416452,0.54354131,-0.56123221,0
-0.30848217,-0.86255848,2.2618978,0.62416452,-0.54354131,0.56123221,0
0.11218452,2.7296393,-0.17362809,-0.62416452,0.54354131,-0.56123221,0
-0.18423986,-1.2525705,1.6377947,0.62416452,-0.54354131,0.56123221,0
-1.7383515,-2.326164,-2.0167084,-0.34280393,-0.83602357,-0.42842776,0
-1.747586,-2.5517597,2.0364566,-0.77279168,-0.53518391,0.34113264,0
-1.9406421,-1.3449275,-1.6612,-0.62416452,0.54354131,-0.56123221,0
0.61067915,1.4446889,3.4869924,-0.10569799,0.65298873,0.74995589,0
-3.7101877,-0.71372396,0.70096302,-0.7812472,-0.44199273,0.44078976,0
1.2027352,2.8047383,1.6521018,0.31597072,0.83258307,0.4549377,0
-1.4631462,-1.6639389,-2.5248656,-0.62416452,0.54354131,-0.56123221,0
2.3405077,-0.63914156,-0.56225228,0.62416452,-0.54354131,0.56123221,0
-3.0083203,-1.7738062,0.21795225,-0.73956525,-0.64265436,0.20009744,0
-0.96133041,-1.0129292,2.9376543,0.62416452,-0.54354131,0.56123221,0
-1.4098153,-1.5527518,-2.4602077,-0.62416452,0.54354131,-0.56123221,0
-0.16195488,-3.4835067,-1.1351192,-0.26020783,-0.82194638,-0.50665218,0
-2.997066,0.22505212,2.0210681,-0.7020371,-0.074932992,0.70818734,0
-0.015120745,0.52836418,3.3492422,0.62416452,-0.54354131,0.56123221,0
2.0636606,1.4141651,1.6167722,0.62416452,-0.54354131,0.56123221,0
0.58579254,-1.8962562,-2.940424,0.2054953,-0.57883489,-0.78912741,0
-1.0309012,-0.67874515,-2.3020191,-0.62416452,0.54354131,-0.56123221,0
-2.8945611,0.17189729,0.85635257,-0.62416452,0.54354131,-0.56123221,0
-2.6733212,-2.4025507,-0.74280882,-0.60856813,-0.78871322,-0.087043524,0
1.9720254,0.17023718,-3.0392759,0.65697664,-0.023640335,-0.75354034,0
2.5551231,0.087559789,-0.067257881,0.62416452,-0.54354131,0.56123221,0
1.0451429,-2.5319495,-2.2363565,0.17348778,-0.60398293,-0.77788609,0
-0.43647003,-3.233994,-1.5819008,-0.23762584,-0.81637508,-0.52637058,0
2.7492187,1.8602066,-1.1097472,0.77263159,0.53608012,-0.3400867,0
-1.6139264,-1.4253197,3.0078559,0.62416452,-0.54354131,0.56123221,0
0.87711573,2.923769,-0.82889414,-0.62416452,0.54354131,-0.56123221,0
2.3970509,0.86481202,-2.332304,0.74962687,0.21419168,-0.62624437,0
1.4518011,1.5726117,2.5698462,0.62416452,-0.54354131,0.56123221,0
2.0077233,0.91906869,1.2910502,0.62416452,-0.54354131,0.56123221,0
-1.9566174,2.0753002,2.2059374,-0.37062037,0.42638797,0.82512671,0
2.6057703,1.8544016,-1.3043909,0.77422202,0.5267244,-0.35091603,0
0.43233848,2.844192,1.9444371,0.16935432,0.7953828,0.58196688,0
2.9481277,1.002863,0.3441267,0.62416452,-0.54354131,0.56123221,0
0.61984742,-1.7194278,0.47372061,0.62416452,-0.54354131,0.56123221,0
1.6145579,-2.661778,-1.6260926,0.62416452,-0.54354131,0.56123221,0
2.0037775,2.8356712,-1.3275375,0.73575342,0.65058035,-0.18818212,0
-0.70052612,-0.052321553,-2.0478768,-0.62416452,0.54354131,-0.56123221,0
2.3156185,-2.0365932,-2.0613883,0.41149175,-0.38193321,-0.82752758,0
-2.9553461,0.077740341,0.79510713,-0.62416452,0.54354131,-0.56123221,0
-0.59039211,0.29680729,3.5964952,0.62416452,-0.54354131,0.56123221,0
2.877233,0.21631487,-0.37116098,0.62416452,-0.54354131,0.56123221,0
0.4688499,-3.1140599,-1.7253218,-0.036104679,-0.73763657,-0.67423213,0
-0.66877037,1.6775824,-0.2227852,-0.62416452,0.54354131,-0.56123221,0
-1.8225615,-3.0046153,0.81247187,-0.69263899,-0.71731114,0.075605869,0
1.141855,-1.5726647,-2.9115186,0.33984494,-0.45794138,-0.82145929,0
-2.0334172,-0.15871,2.9293106,-0.65725487,0.023087978,0.75331491,0
1.1652976,-2.0187438,-0.67604274,0.62416452,-0.54354131,0.56123221,0
-1.8158782,-1.1928093,3.0195439,-0.73625863,-0.1688405,0.65529871,0
0.47638583,-0.48323822,-3.7595129,-0.62416452,0.54354131,-0.56123221,0
-2.6154573,-2.0346246,-1.6189423,-0.62416452,0.54354131,-0.56123221,0
3.6516373,0.78483075,-0.78025389,0.78100187,0.45367843,-0.42919958,0
1.7684191,3.088109,-0.055238724,0.61789632,0.78303242,0.071167707,0
-0.18362975,2.6295369,2.3813157,0.0070194006,0.72220993,0.69163853,0
-1.5969141,-2.8824821,-1.1513152,-0.42044219,-0.8391304,-0.34509254,0
1.7390218,2.3595796,-2.3070371,-0.62416452,0.54354131,-0.56123221,0
2.1796656,1.7257729,2.0325298,0.62416452,-0.54354131,0.56123221,0
-2.7159815,-1.4917418,1.6938975,-0.78070801,-0.4061093,0.47494268,0
0.46796888,2.7544088,-0.42705107,-0.62416452,0.54354131,-0.56123221,0
-0.81508493,3.3223877,1.5427501,-0.62416452,0.54354131,-0.56123221,0
-0.23697519,3.0829284,0.53837168,-0.62416452,0.54354131,-0.56123221,0
-2.6221402,0.92824793,0.99324095,-0.62416452,0.54354131,-0.56123221,0
-2.4154093,0.87042367,0.77790928,-0.62416452,0.54354131,-0.56123221,0
-0.26258945,-1.0853229,-3.5979464,-0.62416452,0.54354131,-0.56123221,0
-3.3468032,-0.57380897,0.62533426,-0.62416452,0.54354131,-0.56123221,0
-0.64122486,-1.8976831,-3.0948772,0.0046057701,-0.71576536,-0.69832587,0
0.32853228,-2.1280818,0.2372396,0.62416452,-0.54354131,0.56123221,0
-1.0817688,2.0927217,2.6577418,-0.25651765,0.53594881,0.80433679,0
0.81124198,3.5278568,0.62968373,0.41125533,0.8393352,0.35550779,0
3.6276498,0.060952514,-1.1831255,0.62416452,-0.54354131,0.56123221,0
-1.1277914,-1.7422969,-3.2159839,-0.054397047,-0.74682724,-0.6627897,0
-1.2757235,-3.354938,-0.25668049,-0.53806013,-0.81988621,-0.19564819,0
0.60215878,-2.0907483,0.023194313,0.62416452,-0.54354131,0.56123221,0
0.078980625,-1.9890649,0.81802595,0.62416452,-0.54354131,0.56123221,0
2.6074328,2.37396,-0.013710022,0.69163388,0.71851718,-0.073319912,0
-2.2975209,-2.2955925,1.7065058,-0.77593046,-0.51526678,0.36391258,0
-3.4855676,-0.91766542,0.77651882,-0.78006059,-0.47387585,0.40859216,0
-1.2562506,-1.607466,-2.810534,-0.62416452,0.54354131,-0.56123221,0
2.2459652,-0.16374362,-0.1579721,0.62416452,-0.54354131,0.56123221,0
-0.80103946,3.3843641,1.5010972,0.042114437,0.74069971,0.67051512,0
0.80817699,-0.52872789,1.3437712,0.62416452,-0.54354131,0.56123221,0
0.34111452,0.45912766,-2.5112939,-0.62416452,0.54354131,-0.56123221,0
0.43424594,-2.6906629,-0.41571796,0.62416452,-0.54354131,0.56123221,0
-1.6092098,1.708846,2.7126658,-0.38243037,0.41385162,0.8261199,0
-2.5140371,0.70433533,0.98252571,-0.62416452,0.54354131,-0.56123221,0
-0.03043294,-2.3310094,-2.7462409,0.059383273,-0.68325561,-0.72776061,0
2.1989403,2.666286,-0.085714817,0.66994619,0.74193609,-0.026519656,0
3.126018,1.5648911,-0.75355005,0.77003765,0.54946476,-0.32423902,0
0.98082221,2.008007,-1.9344046,-0.62416452,0.54354131,-0.56123221,0
2.4301445,0.66150177,-2.5351634,0.72057909,0.12284851,-0.68240339,0
-0.45407176,-2.3901932,-2.5989211,-0.056338012,-0.74777925,-0.66155314,0
1.9413831,-1.6580296,-2.4262795,0.40942097,-0.38425958,-0.82747769,0
1.0974153,1.5328432,-2.4419665,-0.62416452,0.54354131,-0.56123221,0
-0.82185048,-3.1597052,0.49731374,0.62416452,-0.54354131,0.56123221,0
-0.57067478,0.067553759,-2.086798,-0.62416452,0.54354131,-0.56123221,0
-2.0050819,-0.12408018,-0.54605317,-0.62416452,0.54354131,-0.56123221,0
-2.202075,1.3511589,1.0293995,-0.62416452,0.54354131,-0.56123221,0
-2.4519496,-2.2954869,0.55249119,-0.72587943,-0.66913813,0.15922809,0
0.85879374,1.0863171,-2.6774499,-0.62416452,0.54354131,-0.56123221,0
-1.514698,1.8935299,0.87203205,-0.62416452,0.54354131,-0.56123221,0
1.231348,1.893326,3.1942034,0.063136816,0.75107855,0.65718716,0
3.3709164,1.2908618,-0.62416887,0.77529538,0.519732,-0.35888183,0
-1.1400626,2.6549811,2.2126982,-0.15313965,0.61929142,0.77008235,0
1.9106796,-2.0671768,-1.3205156,0.62416452,-0.54354131,0.56123221,0
-1.3164358,-0.8479563,3.1668136,0.62416452,-0.54354131,0.56123221,0
-3.3400502,-1.6866866,0.11164284,-0.73674023,-0.64857382,0.19122291,0
-1.5186344,2.4423375,1.2425859,-0.62416452,0.54354131,-0.56123221,0
0.31964755,1.4249377,3.5401945,-0.16511238,0.61034709,0.77473509,0
1.8892698,1.448714,1.9229498,0.62416452,-0.54354131,0.56123221,0
0.053220034,2.696624,2.3108406,0.056780577,0.74799573,0.66127044,0
0.8101365,-0.60893148,1.0532074,0.62416452,-0.54354131,0.56123221,0
0.51556206,-2.0379307,-2.7244155,0.17031109,-0.60640723,-0.77670115,0
3.1403878,1.3235898,-0.84990001,0.77495646,0.52200878,-0.3563,0
1.7699859,1.8891296,2.5121136,0.62416452,-0.54354131,0.56123221,0
-0.082597017,-0.42039943,2.3947027,0.62416452,-0.54354131,0.56123221,0
-3.2104602,-1.5597281,-0.65767241,-0.62416452,0.54354131,-0.56123221,0
0.16914821,-0.0053470135,2.6368442,0.62416452,-0.54354131,0.56123221,0
1.0809692,-2.7022796,-0.98869079,0.62416452,-0.54354131,0.56123221,0
-2.7955852,1.2361048,2.0152013,-0.57099897,0.17295125,0.8025263,0
-0.38155353,2.9716594,0.66516352,-0.62416452,0.54354131,-0.56123221,0
-2.1132586,-2.5541086,-1.295141,-0.50893301,-0.82788396,-0.23578703,0
0.28692698,-2.278826,-2.5228076,0.089214921,-0.66405505,-0.74234211,0
0.21461338,1.9458803,-1.16539,-0.62416452,0.54354131,-0.56123221,0
1.7412275,-1.4579558,-0.62181908,0.62416452,-0.54354131,0.56123221,0
1.9678088,2.7299089,-1.5240326,0.74948853,0.61942071,-0.23363483,0
0.92025256,-2.4044814,-0.5946089,0.62416452,-0.54354131,0.56123221,0
0.44856679,3.4641924,0.085591078,-0.62416452,0.54354131,-0.56123221,0
2.3895764,0.0067675114,-2.6197081,0.66716558,-0.0030221343,-0.74490339,0
2.6001377,1.2783945,-2.0940034,0.7726959,0.32317805,-0.54634911,0
-3.5281587,-0.41452515,1.0900128,-0.77145052,-0.31509501,0.55279243,0
1.3913339,3.1830726,-1.2454417,-0.62416452,0.54354131,-0.56123221,0
1.1931815,-2.239784,-2.3976731,0.24655044,-0.54460484,-0.80163503,0
1.5401556,1.8160625,2.5761666,0.62416452,-0.54354131,0.56123221,0
0.10449857,1.7701304,-1.1507292,-0.62416452,0.54354131,-0.56123221,0
2.4255683,1.7516284,1.5734499,0.62416452,-0.54354131,0.56123221,0
1.2318311,-1.2078689,-2.9661257,0.41637152,-0.37641832,-0.82761359,0
-1.5395724,-1.6297125,2.7070887,0.62416452,-0.54354131,0.56123221,0
0.77170587,3.4872241,0.41797209,0.45163316,0.83716929,0.30850476,0
-0.21891785,2.8298321,0.43721771,-0.62416452,0.54354131,-0.56123221,0
2.1830761,1.9713051,-1.9817798,0.78128731,0.43146208,-0.45103329,0
-2.4209754,1.5983421,1.5456891,-0.62416452,0.54354131,-0.56123221,0
-0.031427503,-3.4110222,-0.65599155,0.62416452,-0.54354131,0.56123221,0
2.6298187,-0.62635362,-0.74594259,0.62416452,-0.54354131,0.56123221,0
0.25315642,-2.6546714,-2.1593449,-0.015607297,-0.72686851,-0.68659937,0
1.4014037,-2.6607027,-1.2900017,0.62416452,-0.54354131,0.56123221,0
-0.65354538,2.6849933,2.3190207,-0.093225896,0.66139233,0.74422407,0
-1.085813,1.0411224,-0.54778838,-0.62416452,0.54354131,-0.56123221,0
-2.6277602,1.2283643,2.1470046,-0.57252854,0.17059094,0.80194145,0
-2.2976534,-2.4037833,1.5301926,-0.76971275,-0.55101222,0.32237899,0
0.1661011,-2.9357774,-0.43354845,0.62416452,-0.54354131,0.56123221,0
-3.0605977,0.62411809,1.9127223,-0.66607028,0.0052785575,0.74587053,0
-2.9266658,1.1721004,1.6894414,-0.62416452,0.54354131,-0.56123221,0
-2.1655183,2.1455262,1.8864903,-0.62416452,0.54354131,-0.56123221,0
-0.88157058,-2.4049113,-2.5018506,-0.13709086,-0.78338546,-0.60622901,0
1.1750021,-1.1372588,0.35554397,0.62416452,-0.54354131,0.56123221,0
-0.68180799,-0.63198876,2.9856603,0.62416452,-0.54354131,0.56123221,0
2.2417302,2.5847692,0.23644066,0.62266117,0.77996016,0.062893033,0
-1.3735667,-1.9227597,2.3134632,0.62416452,-0.54354131,0.56123221,0
-3.1636267,-1.6049421,0.65020704,-0.76104677,-0.58544695,0.279392,0
0.65474033,2.1466448,2.9090588,0.019479632,0.72894078,0.68429983,0
-0.41748571,0.2324543,3.5262113,0.62416452,-0.54354131,0.56123221,0
1.8507928,1.5386488,-2.7422161,0.76352382,0.27202171,-0.58569247,0
-1.1934236,-1.9581311,2.1027412,0.62416452,-0.54354131,0.56123221,0
3.4698296,0.51564729,-0.69239378,0.62416452,-0.54354131,0.56123221,0
0.57735944,-0.048262835,-3.3379118,-0.62416452,0.54354131,-0.56123221,0
1.3745782,1.6406622,2.7327957,0.62416452,-0.54354131,0.56123221,0
-2.4238901,-2.1969416,1.318017,-0.77069181,-0.54626948,0.3280611,0
-0.73066449,-0.7270745,2.8917646,0.62416452,-0.54354131,0.56123221,0
1.6101936,2.3279767,2.1898277,0.27752376,0.82573467,0.49106336,0
0.86351287,3.329349,-0.29194498,-0.62416452,0.54354131,-0.56123221,0
1.7659383,-0.56890988,-3.0868535,0.54872274,-0.20638248,-0.81012952,0
2.142756,2.4256711,1.7728682,0.44281539,0.83792841,0.31904656,0
3.4937844,-0.45124233,-1.6264534,0.71032059,0.095633566,-0.69735163,0
2.5335937,-0.58047646,-2.2865014,0.63503575,-0.065520495,-0.7696991,0
-1.976382,0.56287467,-0.045503378,-0.62416452,0.54354131,-0.56123221,0
2.7697499,-0.86473346,-2.1768224,0.6329366,-0.069366962,-0.77108985,0
-1.6907501,-0.18514693,3.209687,-0.62279606,0.087594718,0.77746552,0
-1.6922283,1.7571598,0.83743298,-0.62416452,0.54354131,-0.56123221,0
-0.13386917,-0.47109926,-3.0603275,-0.62416452,0.54354131,-0.56123221,0
-2.3798416,-1.2557008,-1.28197,-0.62416452,0.54354131,-0.56123221,0
-1.2050323,1.1525661,-0.098517448,-0.62416452,0.54354131,-0.56123221,0
-0.53183198,-0.84750867,2.3027275,0.62416452,-0.54354131,0.56123221,0
-2.9705505,-0.32439214,0.37322259,-0.62416452,0.54354131,-0.56123221,0
-2.9646182,1.1926917,1.9746981,-0.60512501,0.11806935,0.78732687,0
-0.69609332,3.1957593,1.7387129,0.004914701,0.72105491,0.6928606,0
-0.40106627,2.3185244,-0.063203812,-0.62416452,0.54354131,-0.56123221,0
-1.132977,-0.23656726,-1.5656101,-0.62416452,0.54354131,-0.56123221,0
0.94734561,3.4653692,0.47409487,0.4723711,0.83471107,0.28306061,0
1.1047678,-0.44484955,0.9406358,0.62416452,-0.54354131,0.56123221,0
-0.25620329,-3.1054144,-0.18201733,0.62416452,-0.54354131,0.56123221,0
-3.3603539,0.72254533,1.7857656,-0.68627155,-0.038076848,0.7263484,0
-0.31749034,2.5531111,0.15619898,-0.62416452,0.54354131,-0.56123221,0
-0.047576189,-1.3729544,1.5612676,0.62416452,-0.54354131,0.56123221,0
1.5171977,-1.3720011,-0.35853702,0.62416452,-0.54354131,0.56123221,0
-1.1813717,2.7733216,1.1924803,-0.62416452,0.54354131,-0.56123221,0
2.1076114,-1.3252983,-0.85418159,0.62416452,-0.54354131,0.56123221,0
-3.0131919,0.27380264,0.99326062,-0.62416452,0.54354131,-0.56123221,0
0.68094444,-3.2869301,-1.6386331,-0.035962522,-0.73756355,-0.67431957,0
-0.41769862,2.9189703,2.154099,-0.012584507,0.71125025,0.70282644,0
0.94159359,2.5174513,-1.3242424,-0.62416452,0.54354131,-0.56123221,0
-0.10328245,3.647687,1.1493127,-0.62416452,0.54354131,-0.56123221,0
-1.521289,-1.0118927,-2.0927413,-0.62416452,0.54354131,-0.56123221,0
1.7621132,2.6160183,1.3605335,0.43703341,0.83833718,0.32587272,0
2.0091391,0.051408887,0.50732517,0.62416452,-0.54354131,0.56123221,0
-1.9287989,0.087778151,-0.43398595,-0.62416452,0.54354131,-0.56123221,0
-0.59965324,-2.550591,-2.284816,-0.12883371,-0.7801075,-0.61223733,0
3.5278983,0.93063474,-0.39001417,0.62416452,-0.54354131,0.56123221,0
1.7492874,-0.45272624,0.38140523,0.62416452,-0.54354131,0.56123221,0
-1.5911896,0.63560402,2.9889348,-0.51788926,0.2500163,0.81809711,0
-1.1524502,-3.2862926,-0.61430645,-0.44905668,-0.83740836,-0.3116017,0
1.1718239,0.18588221,1.681757,0.62416452,-0.54354131,0.56123221,0
0.94812155,-2.3454235,-0.72748435,0.62416452,-0.54354131,0.56123221,0
2.6884451,0.12392867,-0.085517168,0.62416452,-0.54354131,0.56123221,0
-0.48436081,1.236617,-0.82936805,-0.62416452,0.54354131,-0.56123221,0
0.83107591,-0.41839755,1.3692887,0.62416452,-0.54354131,0.56123221,0
2.3504081,2.5023434,0.11278248,0.6579386,0.75306803,-0.0023844242,0
1.3311834,1.7641811,2.7890887,0.62416452,-0.54354131,0.56123221,0
-0.22429077,-2.5097926,0.39694428,0.62416452,-0.54354131,0.56123221,0
1.8989573,2.7618465,-1.2919991,0.73927903,0.6432665,-0.19918633,0
2.1944325,-0.35818693,-0.079362392,0.62416452,-0.54354131,0.56123221,0
1.6646738,-0.85467064,0.14995337,0.62416452,-0.54354131,0.56123221,0
-3.3008387,-0.37103373,0.52311611,-0.62416452,0.54354131,-0.56123221,0
-2.3786473,1.9454362,1.9836612,-0.62416452,0.54354131,-0.56123221,0
-0.27106953,-0.81113589,2.3375823,0.62416452,-0.54354131,0.56123221,0
-2.9186654,0.14134777,0.76534724,-0.62416452,0.54354131,-0.56123221,0
-1.7291734,-0.1984989,-0.83756101,-0.62416452,0.54354131,-0.56123221,0
-0.39087701,-2.6969306,-2.1815104,-0.11929512,-0.77621657,-0.61907744,0
-2.7629347,-1.4688884,1.47543,-0.78127253,-0.43942973,0.44330025,0
-1.4281385,-1.6250746,2.766098,0.62416452,-0.54354131,0.56123221,0
-0.4308579,2.7672839,2.1142831,-0.017583191,0.70838332,0.70560902,0
0.49942303,-2.0829296,-2.8861835,0.16661626,-0.60921085,-0.7753073,0
-3.3387635,-1.2376622,-0.047904491,-0.62416452,0.54354131,-0.56123221,0
-1.5809717,-2.9016793,-0.7867322,-0.49562591,-0.83075815,-0.25336999,0
-2.534214,0.46159947,2.4153435,-0.65130121,0.034785002,0.75802183,0
1.7638623,-2.1943111,-1.5672576,0.62416452,-0.54354131,0.56123221,0
-2.1753168,-2.0705287,1.7844408,-0.77965534,-0.47980553,0.40239865,0
-2.6776097,-2.2085695,-1.5426114,-0.51108211,-0.82737577,-0.23290479,0
2.6108887,2.0667408,-1.1660526,0.76308095,0.57830143,-0.28857458,0
1.3696864,0.247715,-3.352854,0.5998075,-0.12694603,-0.79001009,0
-1.4340017,0.31633228,-0.64908791,-0.62416452,0.54354131,-0.56123221,0
-1.2372735,-3.3357177,-0.025767565,-0.55272174,-0.81489086,-0.17450476,0
0.82800055,-1.6501131,-3.0485775,0.26825333,-0.52557921,-0.80734563,0
0.92558026,3.0587263,1.5895154,0.30628967,0.83106673,0.46423578,0
-1.2033453,1.6777409,2.793684,-0.31970704,0.47775552,0.81825268,0
3.5463529,1.1261809,-0.61529398,0.7775194,0.50264812,-0.3779006,0
1.272862,-0.84262991,-3.0641429,0.46446609,-0.31947923,-0.82595676,0
-2.332705,-2.1689258,-1.7085118,-0.46172413,-0.83609366,-0.29624045,0
1.1513534,-0.57545167,0.87556112,0.62416452,-0.54354131,0.56123221,0
2.1910162,-1.7369308,-1.2836816,0.62416452,-0.54354131,0.56123221,0
-0.076828003,-0.13634157,2.6162589,0.62416452,-0.54354131,0.56123221,0
0.099110842,0.34857476,2.7574387,0.62416452,-0.54354131,0.56123221,0
2.4845786,0.45456076,-2.4331367,0.7097795,0.094249427,-0.69809049,0
1.1209269,-1.5885342,-2.8874383,0.35130119,-0.44637942,-0.82300252,0
0.57331324,0.66136634,2.5255756,0.62416452,-0.54354131,0.56123221,0
0.086148262,0.72202885,3.3922987,0.62416452,-0.54354131,0.56123221,0
1.5661731,0.61019707,-3.4097884,0.66398036,-0.0095562041,-0.74768925,0
1.4676136,-2.2389958,-1.0229342,0.62416452,-0.54354131,0.56123221,0
-0.69630885,-1.8817475,-3.2025292,0.0081214309,-0.71378505,-0.70031786,0
2.9855752,1.5970851,0.76583481,0.62416452,-0.54354131,0.56123221,0
-1.7331097,-2.2824357,-2.5505383,-0.25088429,-0.81973165,-0.51487613,0
-0.97104573,1.3360336,3.0902324,-0.35453802,0.44307363,0.82340074,0
3.2285321,1.6162176,-0.38369751,0.75381094,0.60780025,-0.24969602,0
2.4654951,2.440762,-0.54888058,0.72626662,0.66845733,-0.16031814,0
-1.9762988,-0.56099689,-0.97666395,-0.62416452,0.54354131,-0.56123221,0
2.0171461,2.748847,1.1407907,0.48336965,0.83300531,0.26917678,0
3.2094135,1.6507714,0.77762842,0.62416452,-0.54354131,0.56123221,0
0.71076131,-1.5579162,-3.1358628,0.29506159,-0.50115162,-0.81350231,0
-0.67979723,-1.8317547,1.6821324,0.62416452,-0.54354131,0.56123221,0
-3.4080391,-0.81016105,0.19447517,-0.62416452,0.54354131,-0.56123221,0
-0.9249866,-1.6296153,-3.1448994,-0.62416452,0.54354131,-0.56123221,0
-0.52520674,0.76451993,-1.3061666,-0.62416452,0.54354131,-0.56123221,0
-2.2814202,1.0229294,0.75629914,-0.62416452,0.54354131,-0.56123221,0
-3.1934316,0.82823813,1.7929645,-0.6605683,0.016464949,0.75058556,0
-0.91990733,0.79449522,3.416162,-0.40509766,0.38909042,0.82734811,0
-3.0214286,-2.0527675,-0.51584578,-0.6689105,-0.74294287,0.024392843,0
-1.9366937,0.051840544,-0.51832914,-0.62416452,0.54354131,-0.56123221,0
-2.0819507,1.2775792,2.6904147,-0.4889673,0.28850761,0.82320994,0
2.6842735,0.67064643,0.31663823,0.62416452,-0.54354131,0.56123221,0
-1.3042322,-2.9436996,1.1262329,0.62416452,-0.54354131,0.56123221,0
-2.621352,-2.1888895,-1.9135096,-0.46851245,-0.83524209,-0.28786629,0
0.40075409,3.5525475,1.0748296,0.28813756,0.82784379,0.48130208,0
-0.22909963,-2.5891659,0.4153465,0.62416452,-0.54354131,0.56123221,0
0.22589779,2.6105502,2.3580909,0.052429378,0.74585766,0.6640389,0
1.9298397,0.51285857,0.98410535,0.62416452,-0.54354131,0.56123221,0
-1.2620906,-3.3047004,-0.57734728,-0.4786762,-0.83376837,-0.2751357,0
-2.6364498,-1.3753664,-1.1605616,-0.62416452,0.54354131,-0.56123221,0
-1.0529675,-0.032189369,3.6619797,-0.54977977,0.20483425,0.80980575,0
0.045162678,3.180027,0.4253583,-0.62416452,0.54354131,-0.56123221,0
0.0071909428,-3.1794078,-1.6094087,-0.16345161,-0.79328513,-0.58650005,0
-2.3010819,-2.6240735,0.1136384,-0.66759199,-0.74421132,0.021697998,0
-2.9191046,-1.8805344,0.12835455,-0.7252214,-0.67028713,0.15738344,0
-2.8567014,1.2367656,1.8328153,-0.62416452,0.54354131,-0.56123221,0
0.050518513,-2.4123361,0.17875707,0.62416452,-0.54354131,0.56123221,0
-2.2745571,-2.580421,-0.67411876,-0.58788067,-0.79986918,-0.12085497,0
1.5960767,-2.26421,-2.3274584,0.29859257,-0.49785581,-0.8142373,0
0.99090344,-0.88512844,0.65560943,0.62416452,-0.54354131,0.56123221,0
0.30733776,-0.54228961,1.8469605,0.62416452,-0.54354131,0.56123221,0
-2.1553802,0.73534435,2.585273,-0.57953656,0.15966389,0.79915273,0
1.8778398,1.0851278,1.7209349,0.62416452,-0.54354131,0.56123221,0
-0.091674328,-0.57074404,2.3002601,0.62416452,-0.54354131,0.56123221,0
-0.92256057,2.3473971,0.51233506,-0.62416452,0.54354131,-0.56123221,0
-1.0488594,-0.9362359,-2.5397944,-0.62416452,0.54354131,-0.56123221,0
-0.63080573,-2.3054845,-2.4973488,-0.07317096,-0.75584745,-0.65064657,0
2.0090752,-1.6062577,-1.2609199,0.62416452,-0.54354131,0.56123221,0
-0.6084516,-1.1682271,2.2505629,0.62416452,-0.54354131,0.56123221,0
-0.95653921,-1.9707899,1.8330364,0.62416452,-0.54354131,0.56123221,0
1.5653455,2.004818,2.7549233,0.62416452,-0.54354131,0.56123221,0
3.0854545,1.6837187,-0.85579586,0.77184528,0.54035187,-0.33507502,0
-1.6213512,-1.1236055,-1.8006396,-0.62416452,0.54354131,-0.56123221,0
1.1744754,2.383558,-1.6059837,-0.62416452,0.54354131,-0.56123221,0
-0.1644516,-3.2704594,-1.5746369,-0.17567223,-0.79757911,-0.57706761,0
2.2464046,1.1838036,1.3591475,0.62416452,-0.54354131,0.56123221,0
2.1388628,1.0184577,-2.8295703,0.73696661,0.17107502,-0.65392202,0
-1.6017032,-0.32946062,3.2187321,-0.6290189,0.076477528,0.77361929,0
-0.24340677,-1.9029551,-3.0545411,0.056649566,-0.68496209,-0.72637314,0
1.9403768,1.3579664,1.9388806,0.62416452,-0.54354131,0.56123221,0
2.2235725,0.027074456,-2.6465402,0.67576551,0.01505211,-0.73696327,0
1.3148155,0.11580837,1.2374101,0.62416452,-0.54354131,0.56123221,0
0.28410625,-0.49560308,-3.3278446,-0.62416452,0.54354131,-0.56123221,0
-3.3684037,0.10355611,1.3047981,-0.62416452,0.54354131,-0.56123221,0
1.9480107,2.6377244,1.2884533,0.45518726,0.83681607,0.30421001,0
-1.5122061,-1.688664,-2.7053263,-0.62416452,0.54354131,-0.56123221,0
1.2379214,1.705955,-2.3448563,-0.62416452,0.54354131,-0.56123221,0
-1.9637027,-2.4549234,-1.9658167,-0.38301349,-0.83896977,-0.38656271,0
2.1056433,2.0515966,-2.1281803,0.78120446,0.44499552,-0.43783414,0
-0.50525236,0.82380521,-1.474488,-0.62416452,0.54354131,-0.56123221,0
-2.7331548,1.2732407,1.6414782,-0.62416452,0.54354131,-0.56123221,0
0.76469898,1.106205,-2.6165292,-0.62416452,0.54354131,-0.56123221,0
1.7862718,2.9364922,-1.2599297,0.72371352,0.67288256,-0.153193,0
-1.7878208,1.0457261,2.7516792,-0.50503451,0.26739681,0.82063359,0
2.8149991,2.0264664,-0.68413258,0.74796951,0.62326163,-0.22822547,0
2.2345839,0.62980616,-2.6496,0.70939326,0.093263984,-0.69861525,0
-2.4244113,-2.0923541,-2.1214435,-0.62416452,0.54354131,-0.56123221,0
-1.3536267,-1.0317409,3.0249324,0.62416452,-0.54354131,0.56123221,0
1.5557719,3.2388482,-0.99584723,0.69104481,0.71921867,-0.071985483,0
0.89031744,-2.1088355,-2.7091329,0.23090392,-0.55791748,-0.79712719,0
-0.1421901,3.5001278,0.80722332,-0.62416452,0.54354131,-0.56123221,0
-1.6495513,0.3482759,-0.4547472,-0.62416452,0.54354131,-0.56123221,0
-0.11042118,-0.075258732,2.8499637,0.62416452,-0.54354131,0.56123221,0
0.041771412,2.3982306,2.4361696,-0.01627934,0.70913392,0.70488596,0
-0.45944285,-2.7313838,-2.0423312,-0.12790549,-0.77973366,-0.61290777,0
2.5675919,0.93982136,0.7643764,0.62416452,-0.54354131,0.56123221,0
-3.1382115,1.0084367,1.738992,-0.62416452,0.54354131,-0.56123221,0
0.50017118,0.44158351,-2.7498956,-0.62416452,0.54354131,-0.56123221,0
-3.1220064,0.4416759,1.8623323,-0.68361712,-0.032153934,0.72913241,0
-0.66049957,-0.91918099,2.5003562,0.62416452,-0.54354131,0.56123221,0
2.015486,2.4590611,1.9548533,0.38850662,0.8391552,0.38063306,0
-2.1697726,-0.76841366,2.7069213,-0.7159366,-0.1102947,0.68939829,0
1.345336,1.5948201,-2.6507478,-0.62416452,0.54354131,-0.56123221,0
0.84757853,1.0769085,2.7483108,0.62416452,-0.54354131,0.56123221,0
1.6139178,3.2851949,-0.75414348,0.66476375,0.74688327,-0.015964866,0
2.875524,1.8494631,1.1943786,0.62416452,-0.54354131,0.56123221,0
0.13102305,-2.3950772,0.2228384,0.62416452,-0.54354131,0.56123221,0
-0.37127471,0.26616859,3.5019021,0.62416452,-0.54354131,0.56123221,0
1.9185835,1.7588842,2.1695225,0.62416452,-0.54354131,0.56123221,0
1.3021841,0.10006678,1.28883,0.62416452,-0.54354131,0.56123221,0
1.4606878,-0.21767533,0.98040247,0.62416452,-0.54354131,0.56123221,0
1.7007643,2.9250214,0.92898917,0.48848927,0.83211195,0.26261795,0
-1.4692831,0.67197257,-0.45381552,-0.62416452,0.54354131,-0.56123221,0
-1.7808506,1.7732342,2.453258,-0.39281315,0.40262619,0.82679522,0
-0.87100291,-0.10335994,3.7169232,0.62416452,-0.54354131,0.56123221,0
-1.6068089,-1.5064147,-2.3512354,-0.62416452,0.54354131,-0.56123221,0
-3.0872698,0.37724686,2.0124872,-0.68968689,-0.045809597,0.72265756,0
2.3249755,2.5832193,-0.2828536,0.69756573,0.71122181,-0.08698225,0
-1.9675462,-1.0668447,2.9346666,-0.72880507,-0.14620683,0.6689297,0
0.99594951,-2.9112492,-1.9346226,0.064352334,-0.68013102,-0.73026073,0
2.2174129,0.4328059,0.78272152,0.62416452,-0.54354131,0.56123221,0
0.12991607,3.6748128,0.65547729,-0.62416452,0.54354131,-0.56123221,0
3.0187905,1.8987634,-0.30682421,0.74122155,0.63905513,-0.20542526,0
-1.3400444,-1.7877153,2.5699935,0.62416452,-0.54354131,0.56123221,0
-0.68805313,-1.0919988,2.2708983,0.62416452,-0.54354131,0.56123221,0
-1.3354957,-2.782304,1.3169029,0.62416452,-0.54354131,0.56123221,0
2.2127023,2.5766447,0.58255792,0.58580005,0.80088925,0.12415695,0
2.5825448,-0.35686222,-0.71339059,0.62416452,-0.54354131,0.56123221,0
-1.3374593,2.5750906,2.1663902,-0.19848639,0.58445513,0.78677547,0
0.84426975,-2.8402953,-0.94528848,0.62416452,-0.54354131,0.56123221,0
-1.6905482,-2.9210987,1.7276719,-0.74902296,-0.62061036,0.23196483,0
1.3956707,-2.8581486,-2.0973489,0.17225838,-0.60492271,-0.77742893,0
0.89162433,-0.81995654,0.9033215,0.62416452,-0.54354131,0.56123221,0
2.9208686,1.0701797,0.35513234,0.62416452,-0.54354131,0.56123221,0
-1.5425816,1.335629,2.7863495,-0.43922448,0.34996498,0.82740957,0
-1.4748931,-1.7182972,-2.7997603,-0.62416452,0.54354131,-0.56123221,0
1.1827357,-2.9451208,-1.546141,0.62416452,-0.54354131,0.56123221,0
-1.7608895,0.30395818,-0.50081897,-0.62416452,0.54354131,-0.56123221,0
0.27229857,0.47076535,-2.5988028,-0.62416452,0.54354131,-0.56123221,0
-1.1341382,-2.8239548,-1.5428381,-0.33672071,-0.83534366,-0.43453461,0
-0.81081891,-0.80699396,-2.6909628,-0.62416452,0.54354131,-0.56123221,0
0.32025766,0.14998662,2.4350843,0.62416452,-0.54354131,0.56123221,0
-0.28706646,2.5136499,2.351258,-0.020648003,0.70661098,0.70730102,0
-3.1403332,0.021604553,0.67511535,-0.62416452,0.54354131,-0.56123221,0
-2.7452676,-1.725738,1.4306808,-0.77878964,-0.49029586,0.39127624,0
-0.87991929,3.1665969,1.3148372,-0.62416452,0.54354131,-0.56123221,0
0.97353852,-0.81537616,0.62758428,0.62416452,-0.54354131,0.56123221,0
0.0011427402,2.8179061,0.17848241,-0.62416452,0.54354131,-0.56123221,0
-0.46334636,2.8088274,0.46257746,-0.62416452,0.54354131,-0.56123221,0
2.8289709,2.2266243,1.0107694,0.6069237,0.78967083,0.089799881,0
0.29639697,0.66658819,2.929301,0.62416452,-0.54354131,0.56123221,0
0.69539344,-1.4472761,0.57249695,0.62416452,-0.54354131,0.56123221,0
1.9334219,2.4127824,-2.1392827,0.77977455,0.47814941,-0.40413517,0
-0.72451496,-0.73706591,2.8875804,0.62416452,-0.54354131,0.56123221,0
-0.41700602,-0.71170485,-2.9144213,-0.62416452,0.54354131,-0.56123221,0
2.1323993,0.2899332,0.70607996,0.62416452,-0.54354131,0.56123221,0
0.18792224,1.095898,-1.7647314,-0.62416452,0.54354131,-0.56123221,0
2.2745037,0.74256498,0.74217057,0.62416452,-0.54354131,0.56123221,0
-0.76723886,-0.66184783,-2.6223588,-0.62416452,0.54354131,-0.56123221,0
-2.0182002,-2.688971,1.1311498,-0.74444371,-0.63175416,0.21607959,0
1.7471637,2.1592822,-2.3973656,-0.62416452,0.54354131,-0.56123221,0
3.2332795,-0.35220909,-1.117485,0.62416452,-0.54354131,0.56123221,0
1.5870683,0.091311097,-3.0793431,0.61608768,-0.099347919,-0.78138751,0
0.94850552,1.7212143,-1.8984845,-0.62416452,0.54354131,-0.56123221,0
0.40404439,-2.9607372,-1.8866081,-0.0073924065,-0.72241408,-0.69142139,0
0.086440086,1.0000783,-1.9392309,-0.62416452,0.54354131,-0.56123221,0
0.30579972,0.11180902,2.4116333,0.62416452,-0.54354131,0.56123221,0
1.4945846,3.0375102,-1.4399941,-0.62416452,0.54354131,-0.56123221,0
0.25133705,-3.3799591,-0.99821222,0.62416452,-0.54354131,0.56123221,0
-1.9207513,0.29694641,2.9377089,-0.60817504,0.1129187,0.78573066,0
2.2191043,-0.1316539,-2.8284254,0.63911349,-0.057973087,-0.76692462,0
-2.8198702,-1.5637441,1.1480274,-0.77859116,-0.49241477,0.38900328,0
-1.7749872,0.41944706,2.9126902,-0.58196515,0.15583304,0.79814339,0
1.3908874,2.6358161,1.6771014,0.34147444,0.83588016,0.42976731,0
-0.013344288,-2.4378815,-2.3906975,0.011373222,-0.71194059,-0.70214778,0
-0.54512596,-2.1409757,-2.9163301,0.00099545717,-0.71778381,-0.69626546,0
2.4498727,1.4702092,-2.1910605,0.7756539,0.34494251,-0.52856046,0
-2.4746246,-1.1169698,2.2078819,-0.76259875,-0.26763958,0.58890784,0
0.19448996,-0.17053246,2.3403676,0.62416452,-0.54354131,0.56123221,0
-1.5701807,1.3491635,0.383035,-0.62416452,0.54354131,-0.56123221,0
-0.83006519,2.2989902,0.51788187,-0.62416452,0.54354131,-0.56123221,0
-1.1896241,-3.3076034,0.63264394,0.62416452,-0.54354131,0.56123221,0
1.7709866,-1.0671897,-0.49224329,0.62416452,-0.54354131,0.56123221,0
3.4889801,1.5469556,0.01984787,0.73815084,0.64565134,-0.19562197,0
0.66922736,-3.3145418,-1.1186357,0.62416452,-0.54354131,0.56123221,0
2.0411174,-0.59083414,-0.26629245,0.62416452,-0.54354131,0.56123221,0
1.5079179,-2.6284573,-1.5574393,0.62416452,-0.54354131,0.56123221,0
-0.83918953,2.823616,2.0985782,-0.068383574,0.67757457,0.73226821,0
-1.9784318,-2.4394379,-1.6562529,-0.40694699,-0.83937538,-0.36033815,0
-0.85804892,2.4765263,0.63884425,-0.62416452,0.54354131,-0.56123221,0
-2.826932,0.018427372,2.2644455,-0.70506173,-0.082372785,0.70434594,0
-2.7140925,0.039360374,0.53217602,-0.62416452,0.54354131,-0.56123221,0
0.73545897,1.248588,-2.1215668,-0.62416452,0.54354131,-0.56123221,0
-0.17132163,-3.4021935,-1.245429,-0.25614578,-0.82099634,-0.51024956,0
-0.66105878,-0.94219422,2.4024222,0.62416452,-0.54354131,0.56123221,0
-3.3586686,0.75475317,1.6182277,-0.62416452,0.54354131,-0.56123221,0
-0.27047205,2.4089668,2.5970023,-0.063395023,0.68073523,0.72978145,0
-1.4790692,0.59473139,-0.43618286,-0.62416452,0.54354131,-0.56123221,0
-1.8454031,-1.3721169,-1.8452833,-0.62416452,0.54354131,-0.56123221,0
-1.9986874,-1.7176157,-2.0435481,-0.62416452,0.54354131,-0.56123221,0
0.88218617,2.6178372,2.3448679,0.16553915,0.7940321,0.58490181,0
-3.0717468,-1.6937116,-0.81753588,-0.62416452,0.54354131,-0.56123221,0
0.89320421,0.76427078,2.5686364,0.62416452,-0.54354131,0.56123221,0
-1.7649797,-1.5746665,-2.2283282,-0.62416452,0.54354131,-0.56123221,0
0.66132641,3.4736462,0.86864448,0.36513081,0.83799839,0.40550995,0
0.077752709,-1.0056666,1.6156685,0.62416452,-0.54354131,0.56123221,0
-1.2997775,1.7474191,0.62854064,-0.62416452,0.54354131,-0.56123221,0
1.2719476,2.6236527,2.2079468,0.23614097,0.81598425,0.52764338,0
1.2046169,0.8628602,2.1640739,0.62416452,-0.54354131,0.56123221,0
-0.70435458,2.4916365,0.4763248,-0.62416452,0.54354131,-0.56123221,0
1.6924961,1.8777785,2.71561,0.62416452,-0.54354131,0.56123221,0
2.9169648,-0.3063063,-0.86424255,0.62416452,-0.54354131,0.56123221,0
2.3014779,-1.2467506,-2.535574,0.51676965,-0.2515482,-0.81833553,0
1.0067389,2.4168217,-1.5288978,-0.62416452,0.54354131,-0.56123221,0
0.67413783,0.8255496,2.5566075,0.62416452,-0.54354131,0.56123221,0
1.3220665,2.3828182,2.3265851,0.22219723,0.81216812,0.53945482,0
1.1218085,-3.1188526,-1.7017281,0.62416452,-0.54354131,0.56123221,0
-1.2882719,-2.3711185,-2.4266109,-0.1912483,-0.80277628,-0.56477839,0
-2.6312194,-2.0666432,1.3338778,-0.7699371,-0.54994649,0.32366061,0
-0.14732119,1.9308501,-0.48601747,-0.62416452,0.54354131,-0.56123221,0
-2.3827343,0.22150382,0.23258305,-0.62416452,0.54354131,-0.56123221,0
-2.7103682,-0.92107552,-0.41546941,-0.62416452,0.54354131,-0.56123221,0
-0.39198208,-1.0229341,-3.3949409,-0.62416452,0.54354131,-0.56123221,0
-2.7563477,-0.37179428,-0.094965458,-0.62416452,0.54354131,-0.56123221,0
1.8263409,-0.52521646,0.21518254,0.62416452,-0.54354131,0.56123221,0
-2.4831414,-1.7001953,1.991153,-0.7811349,-0.41968551,0.46226901,0
0.4191227,1.8141471,-1.2582525,-0.62416452,0.54354131,-0.56123221,0
-0.46110713,-3.6763608,-0.42670751,0.62416452,-0.54354131,0.56123221,0
1.9191873,2.1694479,-2.269722,0.78128457,0.4308694,-0.45160413,0
-1.0560572,2.2855401,2.4881377,-0.21122807,0.57419026,0.79100472,0
0.60457981,2.6458261,-0.86261821,-0.62416452,0.54354131,-0.56123221,0
2.1628602,2.6140337,-0.71026516,0.70835721,0.69675088,-0.11299872,0
2.8849335,-1.4935393,-1.9852223,0.62416452,-0.54354131,0.56123221,0
0.92346668,1.3490344,-2.4695845,-0.62416452,0.54354131,-0.56123221,0
-0.6161046,2.9495902,0.83009303,-0.62416452,0.54354131,-0.56123221,0
-1.0825655,-2.4392726,-2.1734202,-0.21425992,-0.80987966,-0.54606593,0
-2.2226646,-1.5926223,-1.7531021,-0.62416452,0.54354131,-0.56123221,0
2.2072937,0.41283792,0.51761198,0.62416452,-0.54354131,0.56123221,0
2.1118951,1.8708818,2.239795,0.62416452,-0.54354131,0.56123221,0
0.44050491,1.1714147,-1.9440022,-0.62416452,0.54354131,-0.56123221,0
-2.2281039,-2.586453,-0.78920484,-0.57470655,-0.80603731,-0.14148021,0
0.41091168,3.6181738,0.45736694,-0.62416452,0.54354131,-0.56123221,0
-1.6761057,0.8317734,0.12721717,-0.62416452,0.54354131,-0.56123221,0
-2.8829937,-0.9188332,-0.21934748,-0.62416452,0.54354131,-0.56123221,0
1.9926529,2.6233521,-1.6610324,0.76598108,0.56723666,-0.30251598,0
2.4986479,2.4796283,0.17271376,0.65332097,0.75705242,0.0066096783,0
3.5784016,1.1108671,-0.11646366,0.62416452,-0.54354131,0.56123221,0
2.6300416,-1.7570515,-1.9495389,0.62416452,-0.54354131,0.56123221,0
1.6340259,2.2044005,-2.3261578,-0.62416452,0.54354131,-0.56123221,0
2.2218437,0.87601423,0.9748857,0.62416452,-0.54354131,0.56123221,0
-1.0202644,0.74479461,-0.64505637,-0.62416452,0.54354131,-0.56123221,0
0.11361071,-1.6849506,0.75719935,0.62416452,-0.54354131,0.56123221,0
-0.22397089,-0.73550916,-3.2085917,-0.62416452,0.54354131,-0.56123221,0
1.7058651,1.1591117,-3.0225039,0.72773635,0.14308316,-0.67076623,0
-2.0801888,-0.86319965,-1.0189946,-0.62416452,0.54354131,-0.56123221,0
-0.45766234,-0.54593289,-2.5597229,-0.62416452,0.54354131,-0.56123221,0
2.8598135,1.1752234,-1.7717695,0.77688622,0.35559052,-0.51961863,0
-3.0158203,-0.53990805,0.18524742,-0.62416452,0.54354131,-0.56123221,0
-0.77396512,-2.7037466,-2.207711,-0.19259429,-0.80321074,-0.56370223,0
-2.6382804,1.5802703,2.0355902,-0.52453965,0.24084443,0.81661034,0
1.7436848,2.8682141,-1.425894,0.73627198,0.64952993,-0.18977606,0
-0.15366244,-2.802084,-2.2163432,-0.056368053,-0.74779403,-0.66153395,0
-0.92753768,-1.878553,-3.0024185,-0.038621426,-0.73892456,-0.67268068,0
2.8580496,-0.87041014,-1.2356246,0.62416452,-0.54354131,0.56123221,0
-2.5678048,0.8812983,1.0515511,-0.62416452,0.54354131,-0.56123221,0
2.7201498,1.0941947,-1.7659066,0.77730727,0.35954565,-0.51625639,0
2.4861269,0.012150943,-0.17217422,0.62416452,-0.54354131,0.56123221,0
-2.9306202,-2.0824409,-0.59443426,-0.65805298,-0.75296736,0.0026091337,0
-1.5873981,0.70949543,3.0739524,-0.53590167,0.22487625,0.81378156,0
-1.3732928,-3.0637374,-1.0760794,-0.41218615,-0.83932185,-0.35445976,0
2.8809896,-0.42911297,-2.1597214,0.68148863,0.027457505,-0.73131371,0
-1.3037167,-1.4626918,-2.7474971,-0.62416452,0.54354131,-0.56123221,0
-0.78290391,-1.336547,-3.0773172,-0.62416452,0.54354131,-0.56123221,0
0.14979196,2.2137725,2.6326671,-0.029592216,0.70137537,0.71217775,0
-1.9776309,0.85330826,2.7734463,-0.55059069,0.20364419,0.80955499,0
-1.9923116,1.1092833,0.77165508,-0.62416452,0.54354131,-0.56123221,0
0.029597014,1.9276676,-0.90601385,-0.62416452,0.54354131,-0.56123221,0
-2.0533481,-2.4533775,-1.9892683,-0.38048041,-0.83886617,-0.38927948,0
2.7882292,0.87618887,-1.8282228,0.77064502,0.31011826,-0.5567165,0
-1.7210206,1.1575015,0.31660968,-0.62416452,0.54354131,-0.56123221,0
2.2658954,-1.6305466,-2.4416962,0.46281832,-0.32151201,-0.8260929,0
0.74797833,-1.1479907,0.8576569,0.62416452,-0.54354131,0.56123221,0
-1.1147294,1.0506948,-0.28712222,-0.62416452,0.54354131,-0.56123221,0
-2.2487793,0.85496789,2.5841923,-0.57717901,0.16336086,0.80011123,0
0.39811897,-0.094240904,-3.215344,-0.62416452,0.54354131,-0.56123221,0
0.24943399,0.37188399,2.584024,0.62416452,-0.54354131,0.56123221,0
1.0835661,-0.17470801,1.4338251,0.62416452,-0.54354131,0.56123221,0
-0.80029696,0.2859652,-1.5044988,-0.62416452,0.54354131,-0.56123221,0
-3.2256145,-1.5950379,-0.64539576,-0.62416452,0.54354131,-0.56123221,0
0.5353446,-2.7436373,-0.73911279,0.62416452,-0.54354131,0.56123221,0
0.092505693,-2.1215982,-2.7035511,0.089419663,-0.66391963,-0.74243861,0
