1.6897886,-1.2954893,2.9614558,0.92868567,-0.32531512,0.1780822,0
-2.3684227,1.5557902,0.6301111,-0.92868567,0.32531512,-0.1780822,0
3.5712152,1.8379035,-0.93267524,0.92868567,-0.32531512,0.1780822,0
-3.476135,-2.1450429,0.68846297,-0.92868567,0.32531512,-0.1780822,0
-2.4694278,1.7702646,1.9675143,-0.92868567,0.32531512,-0.1780822,0
2.4802413,1.170188,3.1386397,0.92868567,-0.32531512,0.1780822,0
1.400455,-3.0566051,0.76010227,0.92868567,-0.32531512,0.1780822,0
-1.6116083,1.8090576,-2.8060365,-0.92868567,0.32531512,-0.1780822,0
2.6291325,-0.32145762,-0.019358248,0.92868567,-0.32531512,0.1780822,0
2.2547371,-1.4876568,-0.63118696,0.92868567,-0.32531512,0.1780822,0
0.12867355,2.2578268,-3.2215145,0.3278845,0.4958173,-0.80415004,0
2.5495129,0.39843082,1.5501447,0.92868567,-0.32531512,0.1780822,0
1.5546901,-1.3623457,3.1798716,0.92868567,-0.32531512,0.1780822,0
-1.1816518,-2.9024348,-2.0239882,-0.18419917,-0.82136041,-0.53984976,0
0.23603809,-4.1441917,0.19041014,-0.32204604,-0.94551694,-0.047793925,0
1.4481299,-3.7561321,-1.7174461,-0.1807671,-0.81633347,-0.54856455,0
-2.6266813,0.22321677,0.27802473,-0.92868567,0.32531512,-0.1780822,0
3.1249511,1.1077888,-0.4106034,0.92868567,-0.32531512,0.1780822,0
-3.1591225,-0.31626248,2.0417168,-0.92868567,0.32531512,-0.1780822,0
-1.2858416,-3.5533452,0.3941288,-0.34537384,-0.93357587,0.095672488,0
-2.6572824,-0.86817849,-1.7715819,-0.92868567,0.32531512,-0.1780822,0
1.5239285,-3.486623,-0.29033732,0.92868567,-0.32531512,0.1780822,0
-1.5419085,2.2134118,-1.9624345,-0.92868567,0.32531512,-0.1780822,0
2.7580996,2.2713428,-1.9998033,0.36606514,0.7270382,-0.580872,0
-2.4622319,2.3622346,3.0397751,-0.040486574,0.38837799,0.92061043,0
1.5764377,3.3398614,0.13387489,0.33013561,0.94392967,0.0027077198,0
-2.3181729,0.14676356,-1.8222131,-0.92868567,0.32531512,-0.1780822,0
-0.74757671,-1.0913342,-3.6352701,0.04251188,-0.38363412,-0.92250633,0
-2.9155614,0.63195419,2.5662625,-0.92868567,0.32531512,-0.1780822,0
1.2367985,-3.0253916,1.6671622,0.92868567,-0.32531512,0.1780822,0
-2.4118199,-3.0455518,0.52066398,-0.35658291,-0.91522485,0.18764961,0
-0.29886365,-1.9850132,-3.1998792,-0.023214638,-0.53022653,-0.84753817,0
3.6703556,2.3022156,-1.0068414,0.92868567,-0.32531512,0.1780822,0
-1.5535103,2.9372835,-0.93769598,-0.92868567,0.32531512,-0.1780822,0
2.4281716,2.8222244,1.7560078,0.23160973,0.88376135,0.40659922,0
3.6252477,2.0584512,-1.5408133,0.36830449,0.75262427,-0.54581028,0
2.728956,2.7719102,1.4650594,0.26296905,0.91620922,0.30233759,0
2.0145905,-1.2533824,1.0036136,0.92868567,-0.32531512,0.1780822,0
-0.72680426,3.4680443,2.0162497,0.15449509,0.77587962,0.61167157,0
2.3168705,-1.9052768,-1.8597105,0.92868567,-0.32531512,0.1780822,0
-2.2220261,1.6444039,0.16429567,-0.92868567,0.32531512,-0.1780822,0
-1.4984436,2.0972939,-2.9138067,-0.92868567,0.32531512,-0.1780822,0
1.4606918,-3.394582,-2.0600164,-0.12668738,-0.72956324,-0.67207724,0
0.4657197,-4.0280685,0.70905972,-0.34952828,-0.92827606,0.12701851,0
-1.6740352,-3.2181954,-1.1754806,-0.27252477,-0.92428535,-0.26725823,0
2.3377476,2.8116548,-1.345207,0.37058496,0.83275229,-0.41132808,0
1.9993925,-1.8265405,0.47928047,0.92868567,-0.32531512,0.1780822,0
-2.9196553,0.29634142,1.1939955,-0.92868567,0.32531512,-0.1780822,0
-0.64649868,3.358325,-2.5906138,0.3660658,0.72704482,-0.5808633,0
1.0714669,0.85543334,-3.5143964,0.26927555,0.26128685,-0.92694134,0
0.95653081,3.2068429,-1.9500659,0.37052286,0.79314494,-0.48335719,0
-3.2525909,-1.6128078,0.1588397,-0.92868567,0.32531512,-0.1780822,0
-0.95695472,-0.97155279,-3.6296265,0.050324082,-0.36519825,-0.92956871,0
2.5556366,-1.3225842,-1.315546,0.92868567,-0.32531512,0.1780822,0
0.72035456,2.6740904,-2.5722115,0.35694051,0.65366989,-0.66731519,0
2.4842019,3.1399679,0.48658657,0.31339651,0.94513559,0.092203856,0
1.7588317,-2.6967764,-0.25168443,0.92868567,-0.32531512,0.1780822,0
-2.5205536,1.8646827,2.5547142,-0.92868567,0.32531512,-0.1780822,0
-3.0530174,-2.1869886,-2.5522308,-0.92868567,0.32531512,-0.1780822,0
-1.5522029,3.5156636,0.18138337,-0.92868567,0.32531512,-0.1780822,0
-3.5619364,-2.402575,-0.20673609,-0.92868567,0.32531512,-0.1780822,0
0.1991502,-2.8934317,-2.488755,-0.12219179,-0.72176188,-0.68127018,0
1.5023661,-2.0367203,2.605217,0.92868567,-0.32531512,0.1780822,0
-1.3916042,3.8818166,1.5049589,0.18674651,0.82505095,0.53330731,0
0.75272846,-2.5953898,-2.8943596,-0.050746918,-0.58712697,-0.80790269,0
-3.5537088,-2.3554575,-0.25316429,-0.92868567,0.32531512,-0.1780822,0
2.5363221,3.0623975,0.47116613,0.32369661,0.94536102,0.038901627,0
-1.2329397,3.2927294,-1.8454268,-0.92868567,0.32531512,-0.1780822,0
1.4023428,2.3387358,-2.7157269,0.3511557,0.61685395,-0.70440137,0
2.4084752,1.366536,-2.7729163,0.32653463,0.48957667,-0.80851096,0
1.9756377,-3.179167,-2.2024255,0.92868567,-0.32531512,0.1780822,0
1.9367431,-0.4531368,2.7622757,0.92868567,-0.32531512,0.1780822,0
0.702636,1.7986314,-3.1992865,0.3195653,0.4582532,-0.82938683,0
-1.6225924,1.3337677,-3.6897931,-0.92868567,0.32531512,-0.1780822,0
-2.8767178,-1.8279176,-2.4324851,-0.92868567,0.32531512,-0.1780822,0
-3.0775318,-2.7524509,-0.82312918,-0.3038668,-0.94273734,-0.13751948,0
3.0649385,-0.32311344,-2.9156928,0.92868567,-0.32531512,0.1780822,0
-1.3883953,3.3602862,-0.64330792,-0.92868567,0.32531512,-0.1780822,0
-3.4001875,-1.1502891,1.7349174,-0.92868567,0.32531512,-0.1780822,0
-1.3076985,4.2120452,0.78610802,0.25101686,0.90483654,0.34389192,0
-3.6420512,-2.4792588,0.83097839,-0.92868567,0.32531512,-0.1780822,0
-3.331466,-2.0373375,1.8638668,-0.3642655,-0.70991045,0.60277539,0
3.3069606,2.486331,1.383134,0.92868567,-0.32531512,0.1780822,0
2.4960971,-1.4351804,-2.0733597,0.92868567,-0.32531512,0.1780822,0
0.31404781,-2.9827912,2.9343131,-0.35423231,-0.63587499,0.68569875,0
1.5906751,1.0021336,-3.2456727,0.28878319,0.33303589,-0.89760327,0
-3.2616711,-1.2458379,1.1522518,-0.92868567,0.32531512,-0.1780822,0
-3.0202665,0.21612835,3.1268525,-0.22763085,-0.1209048,0.96621251,0
-2.2123857,-0.036461353,-3.0514894,-0.92868567,0.32531512,-0.1780822,0
1.7687569,-0.25595641,3.9642873,0.92868567,-0.32531512,0.1780822,0
-0.70903111,2.9821146,-3.1506386,0.34600323,0.58714008,-0.73181188,0
-3.3721051,-0.40713334,2.4303625,-0.92868567,0.32531512,-0.1780822,0
1.6838127,-2.1000245,0.91850281,0.92868567,-0.32531512,0.1780822,0
-0.39606658,-3.6385081,-1.0571146,-0.2659027,-0.91879028,-0.29175371,0
-0.96457028,-0.021325275,-3.979605,0.13531554,-0.14985219,-0.97940505,0
-1.7219671,1.6154327,-2.3718741,-0.92868567,0.32531512,-0.1780822,0
-2.9927464,-1.1425372,-0.82785761,-0.92868567,0.32531512,-0.1780822,0
0.025166273,-3.7836647,1.4801383,-0.36796993,-0.8681637,0.33300197,0
-1.5515876,0.67586541,3.4745121,-0.1639545,0.070578128,0.98394001,0
-3.058506,-2.1275563,-2.1560662,-0.92868567,0.32531512,-0.1780822,0
-2.4368339,0.70669246,-0.4591307,-0.92868567,0.32531512,-0.1780822,0
1.8123306,3.416853,0.13019705,0.32834291,0.94446862,0.013041258,0
0.016904235,-3.8154728,0.96955919,-0.35797849,-0.91179764,0.20118856,0
1.7754842,-2.2218246,1.1864014,0.92868567,-0.32531512,0.1780822,0
2.1718698,-2.3735979,-1.356102,0.92868567,-0.32531512,0.1780822,0
-1.0976095,-2.8278322,-2.2753634,-0.16538054,-0.79305202,-0.58627462,0
0.1841228,-2.0890388,-3.1394114,-0.012876928,-0.50817198,-0.86115944,0
2.5237603,0.040362597,1.48342,0.92868567,-0.32531512,0.1780822,0
0.98730612,2.319663,-2.6162457,0.34991199,0.60946178,-0.71141976,0
-2.2101245,0.85120034,-0.65097868,-0.92868567,0.32531512,-0.1780822,0
-3.5828166,-1.6681652,1.6003437,-0.92868567,0.32531512,-0.1780822,0
-0.30169725,3.3574891,-2.5316658,0.36632711,0.72973096,-0.57731926,0
-2.6892054,-0.50582576,-0.64075518,-0.92868567,0.32531512,-0.1780822,0
2.0993259,-0.87522221,1.9750819,0.92868567,-0.32531512,0.1780822,0
1.7199737,2.5729218,2.3772144,0.16861069,0.79803795,0.57853782,0
-2.7953379,1.4539547,3.1803577,-0.92868567,0.32531512,-0.1780822,0
-2.5155554,-2.4675128,-2.3541484,-0.19393447,-0.83527374,-0.51449722,0
3.4511852,2.7493234,-0.38042092,0.3571372,0.91390562,-0.19295007,0
2.2249417,2.9206741,-1.162545,0.36786556,0.86899936,-0.33093089,0
0.39762855,1.818234,3.2580266,0.012054265,0.5064007,0.86221409,0
1.0539179,-3.185689,2.8931675,0.92868567,-0.32531512,0.1780822,0
-2.3729718,0.88488388,0.34166044,-0.92868567,0.32531512,-0.1780822,0
0.8740018,3.5783625,0.086172819,0.32801354,0.94455528,0.014917374,0
-2.3297634,1.817544,0.87950957,-0.92868567,0.32531512,-0.1780822,0
-2.9031401,-3.0232687,-0.67591166,-0.31746209,-0.94555175,-0.071762502,0
0.23238671,3.4480343,1.5928934,0.20865802,0.85528982,0.4742797,0
1.9741495,-2.3877485,-0.12454081,0.92868567,-0.32531512,0.1780822,0
-2.1234303,-1.7255001,-3.1860552,-0.080558538,-0.64565998,-0.75936395,0
0.72705173,2.0926132,-2.972374,0.33212084,0.51582152,-0.78969884,0
-0.17036867,3.9589975,-1.0891852,0.35813683,0.91138572,-0.2027666,0
-3.5655913,-2.4102757,0.13775182,-0.92868567,0.32531512,-0.1780822,0
0.85189629,-0.91473496,-3.4655612,0.12175781,-0.18611887,-0.97495377,0
-3.1632712,-2.4848561,-1.7244098,-0.92868567,0.32531512,-0.1780822,0
-0.81258583,2.2429619,-3.5412724,0.30465698,0.39536154,-0.8665297,0
1.7814975,-1.0551755,-3.4775963,0.1240561,-0.1800257,-0.97580791,0
2.2295685,-0.96418214,0.84355628,0.92868567,-0.32531512,0.1780822,0
1.1739552,-0.87908506,-3.4489551,0.13323438,-0.15546969,-0.9788146,0
-2.6332154,0.76479053,1.6303582,-0.92868567,0.32531512,-0.1780822,0
-2.0763693,2.8281796,1.8993759,-0.92868567,0.32531512,-0.1780822,0
3.26929,1.5515921,-2.3088214,0.34623498,0.58842927,-0.73066592,0
-1.908412,-0.67966413,-3.8890631,0.045931458,-0.37559107,-0.92564666,0
-2.5653234,0.94269538,0.98020679,-0.92868567,0.32531512,-0.1780822,0
0.5800674,1.8493292,-3.3019552,0.31196553,0.42557564,-0.84944886,0
-1.3504347,3.1063027,-1.8658469,-0.92868567,0.32531512,-0.1780822,0
0.14952707,-1.4105711,3.6952653,-0.26414061,-0.24312595,0.93333805,0
1.8036578,-2.9326975,-0.85088086,0.92868567,-0.32531512,0.1780822,0
-1.6322129,2.4815722,2.8981943,0.0052625537,0.49168795,0.87075567,0
-0.71717596,3.3620055,-2.6527214,0.36528403,0.71933931,-0.59086287,0
-1.3980073,3.0544446,-0.88742399,-0.92868567,0.32531512,-0.1780822,0
-1.3810329,2.5702207,2.8326201,0.031123579,0.54684657,0.83665431,0
1.0759091,-3.7254581,1.6001666,0.92868567,-0.32531512,0.1780822,0
-0.41342258,1.0436858,3.6354227,-0.092409313,0.262054,0.96061879,0
-2.6707721,-0.50974941,-1.1257725,-0.92868567,0.32531512,-0.1780822,0
1.4888849,-1.3181498,-3.3831391,0.10108894,-0.23995179,-0.96550739,0
-2.1703975,-1.4689659,2.8250222,-0.32598919,-0.48707157,0.8102423,0
2.1169324,1.0321274,3.7501898,-0.0034902692,0.4724893,0.8813296,0
-2.5255609,0.24022293,-0.94328082,-0.92868567,0.32531512,-0.1780822,0
0.19028068,3.444124,1.6338732,0.2075958,0.85388911,0.47726041,0
-2.3342361,1.5740747,0.93217051,-0.92868567,0.32531512,-0.1780822,0
-2.324604,1.6650364,1.6638603,-0.92868567,0.32531512,-0.1780822,0
-2.5038362,-2.9235456,-1.6066792,-0.25300696,-0.90682119,-0.33713925,0
-1.0101261,2.1333704,-3.6740174,0.2996639,0.37530816,-0.87712353,0
-1.5266049,-0.3841767,-3.8373537,0.076543093,-0.30171061,-0.95032203,0
-1.2541676,2.4366376,-3.559545,-0.92868567,0.32531512,-0.1780822,0
1.7574986,-1.2500952,2.9079723,0.92868567,-0.32531512,0.1780822,0
-3.0797298,-2.9021573,0.23382163,-0.35516924,-0.91836178,0.1745469,0
-1.1587648,4.0940952,0.9518106,0.24803632,0.90179932,0.35388702,0
2.2372718,-1.2238536,0.46631098,0.92868567,-0.32531512,0.1780822,0
-1.7990146,3.1656053,1.1747491,-0.92868567,0.32531512,-0.1780822,0
-1.9112985,-2.8278902,1.4549589,-0.37077951,-0.82491791,0.42665374,0
2.6082549,0.91523409,-2.9802847,0.2948525,0.35638857,-0.88659441,0
2.1977851,-0.24731278,2.1039705,0.92868567,-0.32531512,0.1780822,0
1.9663472,-2.3695486,-0.60771608,0.92868567,-0.32531512,0.1780822,0
1.7403755,-2.7927759,0.12005973,0.92868567,-0.32531512,0.1780822,0
2.7510026,2.1821055,-2.1618516,0.3622759,0.69298279,-0.6233229,0
-2.6652627,-2.6856308,1.2526309,-0.37057626,-0.83302033,0.41079259,0
1.9171734,0.71586084,-3.2487981,0.2671448,0.25371793,-0.92965651,0
-2.289928,-2.876152,-1.4523579,-0.26046872,-0.91394168,-0.31123435,0
-2.2062376,2.2008038,2.9770696,-0.042987406,0.38251814,0.92294753,0
2.3487005,0.32050991,2.4615209,0.92868567,-0.32531512,0.1780822,0
-1.2582362,-2.0509844,2.7066007,-0.34280217,-0.56972975,0.74692369,0
1.9125011,2.158154,2.9581673,0.10960433,0.69947588,0.70620143,0
-3.5283761,-1.4387302,2.174221,-0.92868567,0.32531512,-0.1780822,0
-0.79864693,0.60113764,3.6801023,-0.14507771,0.12324762,0.98171419,0
0.47838521,-3.8497176,1.8885159,-0.37012577,-0.84335339,0.38956696,0
-3.2183843,-2.7514949,-1.23287,-0.28995776,-0.9362793,-0.19825679,0
0.47334731,3.6711247,-0.83527589,0.35395041,0.92082965,-0.16368324,0
2.5275483,2.7751772,1.814546,0.22592476,0.87704313,0.42397338,0
1.4705336,-3.3421311,0.13219428,0.92868567,-0.32531512,0.1780822,0
-2.6821291,-1.0850775,2.8777835,-0.31482995,-0.43772903,0.84218508,0
-3.0288014,-0.031977892,1.9824599,-0.92868567,0.32531512,-0.1780822,0
-2.5623496,-0.83565235,-2.4018946,-0.92868567,0.32531512,-0.1780822,0
1.1327999,-3.480355,1.678638,0.92868567,-0.32531512,0.1780822,0
-1.3969238,-2.8944485,-2.2162118,-0.18357827,-0.82045567,-0.54143488,0
-0.75209951,1.0480782,3.5722706,-0.1082868,0.22139928,0.96915245,0
-0.060522556,1.3499331,-3.7128944,0.27283323,0.27403384,-0.92220819,0
-1.198545,2.8949511,-2.0723534,-0.92868567,0.32531512,-0.1780822,0
1.9986011,-0.71781003,2.6858644,0.92868567,-0.32531512,0.1780822,0
-2.185174,0.50407326,-2.2708454,-0.92868567,0.32531512,-0.1780822,0
2.7599003,2.2333205,2.4974785,0.17219064,0.80350357,0.56985307,0
2.7618628,0.12200975,0.26368582,0.92868567,-0.32531512,0.1780822,0
-1.6324821,-3.3455715,-0.93214202,-0.28376755,-0.93246555,-0.22357154,0
0.05591321,3.2094433,-2.4638631,0.36611027,0.72749752,-0.58026809,0
3.2142167,1.5989257,0.51577818,0.92868567,-0.32531512,0.1780822,0
1.5707154,-2.4118962,1.9198213,0.92868567,-0.32531512,0.1780822,0
0.33263695,2.9771442,2.3555908,0.1396274,0.75153983,0.64474189,0
2.2267208,-2.5571668,-2.7882252,0.92868567,-0.32531512,0.1780822,0
-0.92911243,-2.8693843,2.1960022,-0.36538023,-0.72026306,0.5896768,0
1.9177647,-2.6146755,-0.67903328,0.92868567,-0.32531512,0.1780822,0
-1.4788191,2.7928181,-1.1374855,-0.92868567,0.32531512,-0.1780822,0
1.1999044,2.6912074,-2.2862711,0.36519158,0.71845752,-0.59199172,0
3.3592632,2.3775942,0.42591405,0.92868567,-0.32531512,0.1780822,0
1.0970349,-1.0721481,-3.4620347,0.11561173,-0.20230708,-0.97247422,0
1.6753962,-1.5095067,2.9802799,0.92868567,-0.32531512,0.1780822,0
0.9321208,-3.1069586,-2.3120418,-0.1178911,-0.71422035,-0.68992114,0
-2.0782821,-1.6147125,2.8772569,-0.33171797,-0.51388991,0.79112613,0
-1.6916649,1.8524861,3.1928782,-0.05870533,0.34517598,0.93670028,0
1.9806027,0.1438911,4.1009622,0.92868567,-0.32531512,0.1780822,0
3.1346669,0.054245949,-3.1462584,0.25317192,0.20520726,-0.94540685,0
1.0179724,-3.9572875,1.4266372,0.92868567,-0.32531512,0.1780822,0
-3.3768001,-2.2296491,1.416405,-0.37012035,-0.7824977,0.50070804,0
2.8957765,-0.9799633,-3.2318323,0.16408336,-0.070212901,-0.98394465,0
1.3529382,-2.8872368,1.6442335,0.92868567,-0.32531512,0.1780822,0
-1.2343762,-3.3586099,1.3271897,-0.36865574,-0.8621273,0.34760565,0
1.5726683,-1.1252544,3.380852,0.92868567,-0.32531512,0.1780822,0
-1.3196406,1.1058459,3.5337446,-0.11146277,0.21314785,0.97064114,0
0.58931333,-4.0800886,-0.18739367,-0.3042742,-0.94287676,-0.13564968,0
1.5152984,-1.1793777,3.9051738,0.92868567,-0.32531512,0.1780822,0
0.15750539,3.7570238,-0.85330963,0.35432592,0.92009103,-0.16699046,0
-2.4440088,-0.54073048,-2.1288996,-0.92868567,0.32531512,-0.1780822,0
-1.7483915,1.9575187,-1.2993557,-0.92868567,0.32531512,-0.1780822,0
1.6546884,-1.4210002,3.2013617,0.92868567,-0.32531512,0.1780822,0
0.37830019,-0.83248055,-3.6582437,0.11456996,-0.20503572,-0.97202593,0
0.36013436,-3.1153624,2.6029694,-0.36166221,-0.68807298,0.62909168,0
-3.0640047,-1.5671296,-0.45288265,-0.92868567,0.32531512,-0.1780822,0
0.59072018,-1.2593895,-3.5451174,0.074791789,-0.30603004,-0.94907951,0
-1.3027478,3.1226497,-1.6017764,-0.92868567,0.32531512,-0.1780822,0
-1.4363296,1.5868948,-3.1908426,-0.92868567,0.32531512,-0.1780822,0
-1.1489959,3.6672187,-1.3753862,-0.92868567,0.32531512,-0.1780822,0
-2.2084713,2.7857759,2.2244444,-0.92868567,0.32531512,-0.1780822,0
3.5368266,1.5114899,-1.4615939,0.92868567,-0.32531512,0.1780822,0
-3.5671539,-1.9234002,1.7788613,-0.36398995,-0.70745927,0.60581607,0
2.0697594,-3.018985,-2.6484179,-0.055931628,-0.59753954,-0.79988635,0
-0.060105801,0.42324936,3.7865753,-0.14031208,0.1362879,0.98068261,0
-2.0463765,-0.32937527,3.3380778,-0.25456321,-0.20995435,0.94398999,0
0.38201141,-2.9078064,2.9647593,-0.35313106,-0.62893635,0.69263119,0
1.5602683,2.0411816,3.0710154,0.09611243,0.67488432,0.73163766,0
-2.6406958,-2.521148,1.8048356,-0.36942619,-0.76914835,0.52147418,0
-0.76952565,-3.5271082,-0.8828702,-0.27879709,-0.92903781,-0.24323046,0
-3.2191381,-1.0347741,1.2350507,-0.92868567,0.32531512,-0.1780822,0
-1.5857787,3.387044,0.83976531,-0.92868567,0.32531512,-0.1780822,0
1.2320998,-0.68334699,-3.6191106,0.13875437,-0.14052817,-0.98030579,0
-3.1915662,-1.4567884,-0.40007913,-0.92868567,0.32531512,-0.1780822,0
-2.8314359,1.4298663,3.2093587,-0.92868567,0.32531512,-0.1780822,0
-0.93811369,3.9504924,-1.9645948,0.37009364,0.84393072,-0.3883453,0
-0.57328427,4.2061996,-0.70709515,0.3449398,0.93405211,-0.092538953,0
-1.5695475,3.7907543,1.5031943,-0.92868567,0.32531512,-0.1780822,0
2.7950597,1.572173,2.0499432,0.92868567,-0.32531512,0.1780822,0
-2.359952,-0.20055032,-2.6523583,-0.92868567,0.32531512,-0.1780822,0
2.5424809,2.6036656,2.0272527,0.21480617,0.86325854,0.45677459,0
3.2176301,1.9327437,0.59054637,0.92868567,-0.32531512,0.1780822,0
2.1119616,-1.6444569,-0.26569808,0.92868567,-0.32531512,0.1780822,0
-3.1412277,-2.014806,-1.8888035,-0.92868567,0.32531512,-0.1780822,0
-3.3400068,-2.6837885,-0.92154098,-0.30592653,-0.9434104,-0.12800765,0
2.369545,-0.77028465,-3.296344,0.17404974,-0.04171145,-0.98385322,0
-2.1002045,2.0447521,0.41876566,-0.92868567,0.32531512,-0.1780822,0
0.44557011,-3.1939523,-2.2136655,-0.14023766,-0.75255823,-0.64342016,0
-0.31982875,-3.2951803,1.9447651,-0.37051278,-0.79282391,0.48389143,0
2.1132355,-3.0548394,-2.2385097,0.92868567,-0.32531512,0.1780822,0
-2.924608,0.97224045,2.8111987,-0.92868567,0.32531512,-0.1780822,0
-2.6516776,-1.7599311,2.4449873,-0.34983838,-0.60902864,0.71182692,0
2.3418555,0.26893544,1.9726974,0.92868567,-0.32531512,0.1780822,0
-0.97362685,3.4728658,-2.1928484,-0.92868567,0.32531512,-0.1780822,0
-0.19399476,0.88726568,3.5656722,-0.097632706,0.24878797,0.96362472,0
1.8272913,2.8253946,-1.816581,0.37012994,0.78271401,-0.50036305,0
3.062501,-0.38853526,-2.3065219,0.92868567,-0.32531512,0.1780822,0
2.7392502,0.93837798,1.1768771,0.92868567,-0.32531512,0.1780822,0
-3.4996405,-2.4843841,-0.70913434,-0.92868567,0.32531512,-0.1780822,0
2.6531916,0.59312892,1.1917664,0.92868567,-0.32531512,0.1780822,0
0.26394892,-4.045413,0.33278131,-0.33239764,-0.94307935,0.010641813,0
-1.7184911,0.44686699,3.41752,-0.18696713,0.0040174127,0.98235816,0
2.3654943,1.2702168,3.5510273,0.021970034,0.52759135,0.84921432,0
-0.94534314,-3.4815059,-1.1388857,-0.26288909,-0.9161377,-0.30262363,0
1.5727422,-1.1361096,3.2341683,0.92868567,-0.32531512,0.1780822,0
-1.1237769,3.3418851,-2.1311121,-0.92868567,0.32531512,-0.1780822,0
0.1927135,2.237298,2.9639475,0.045108199,0.57569277,0.81642091,0
2.7687616,-1.326911,-3.0489876,0.92868567,-0.32531512,0.1780822,0
-2.5351729,0.90014982,1.1662141,-0.92868567,0.32531512,-0.1780822,0
-2.0805116,1.66976,0.079043031,-0.92868567,0.32531512,-0.1780822,0
-1.2929182,2.2813828,-3.1342511,-0.92868567,0.32531512,-0.1780822,0
-1.2926714,3.4521177,-0.67911935,-0.92868567,0.32531512,-0.1780822,0
3.3033054,2.7696404,0.72268486,0.31342882,0.94514048,0.092044115,0
-3.1620879,-1.0189371,0.60408109,-0.92868567,0.32531512,-0.1780822,0
-2.6443734,0.60433793,0.96517098,-0.92868567,0.32531512,-0.1780822,0
-2.4419217,0.66776395,0.44158068,-0.92868567,0.32531512,-0.1780822,0
-3.2313564,-2.9341638,-0.80534363,-0.3134546,-0.94514424,-0.09191668,0
-3.5936937,-2.519177,0.97412872,-0.36980236,-0.84865075,0.37820393,0
-2.2210629,0.95781207,3.3903484,-0.15015864,0.10923311,0.98260915,0
-3.4120092,-1.1855445,1.6691692,-0.92868567,0.32531512,-0.1780822,0
2.8223407,0.63476038,0.35153958,0.92868567,-0.32531512,0.1780822,0
1.5511842,3.4319804,0.59596419,0.30367595,0.94267088,0.13839346,0
0.39075208,3.7254338,-1.2992706,0.36634886,0.87942302,-0.30397993,0
0.64136553,3.7562749,-0.65670538,0.35301185,0.92259604,-0.15556169,0
2.1159596,-0.093879342,3.3059726,0.92868567,-0.32531512,0.1780822,0
-1.8176003,2.6111224,0.21262145,-0.92868567,0.32531512,-0.1780822,0
-1.2216082,2.1727357,-3.669641,-0.92868567,0.32531512,-0.1780822,0
-2.3852177,-3.1555274,-0.45449209,-0.31698993,-0.9455241,-0.074174166,0
1.2131497,-3.2593651,1.2527969,0.92868567,-0.32531512,0.1780822,0
0.17659831,3.9589486,-0.59507656,0.3421326,0.93682462,-0.072834849,0
0.72114539,-3.3940229,-2.1709504,-0.14700687,-0.76374537,-0.62855554,0
-2.3220949,0.15935683,-1.6753664,-0.92868567,0.32531512,-0.1780822,0
2.6619461,0.39786577,0.59751815,0.92868567,-0.32531512,0.1780822,0
2.5127506,0.71100497,-3.1749809,0.28943419,0.33551487,-0.89646971,0
1.1278446,-0.12552953,-3.6873372,0.1959126,0.022613108,-0.98036069,0
-2.3969862,-0.23515177,-1.4670715,-0.92868567,0.32531512,-0.1780822,0
-1.1064465,3.6055143,-1.3409019,-0.92868567,0.32531512,-0.1780822,0
2.633244,0.21705651,0.47936544,0.92868567,-0.32531512,0.1780822,0
2.9766471,0.65116429,-0.41204166,0.92868567,-0.32531512,0.1780822,0
3.0297923,0.49129057,-0.47012478,0.92868567,-0.32531512,0.1780822,0
1.1583235,-3.2878842,1.9017425,0.92868567,-0.32531512,0.1780822,0
-3.1165214,-2.8766966,0.29897141,-0.35695869,-0.91433632,0.19123226,0
1.0639682,3.5370855,-0.63323164,0.3540059,0.92072165,-0.16416979,0
0.77161169,3.7347989,0.34058237,0.30402774,0.94279265,0.13678122,0
-1.2657053,3.4319661,2.1335232,0.13298762,0.74035293,0.65893239,0
2.6006479,-1.3687284,-2.2242873,0.92868567,-0.32531512,0.1780822,0
3.6755133,1.5217931,-2.2525382,0.92868567,-0.32531512,0.1780822,0
-2.4952114,-2.1015551,2.2627168,-0.35469174,-0.63881719,0.68272007,0
1.2666321,-1.991365,-3.1343968,0.028011441,-0.41727805,-0.90834713,0
2.5544775,1.8032099,3.072628,0.10816696,0.69689018,0.70897388,0
-1.3294981,1.6014867,3.4190786,-0.07369107,0.30873895,0.94828796,0
-3.5610433,-1.6585293,1.2713989,-0.92868567,0.32531512,-0.1780822,0
-1.0241213,-3.5964217,0.31321836,-0.34517902,-0.93379128,0.094263077,0
1.9585643,0.064935923,3.5730827,0.92868567,-0.32531512,0.1780822,0
-0.94362378,-3.480238,0.97618794,-0.36083075,-0.90352738,0.2311703,0
-2.3245449,1.6250336,0.51448846,-0.92868567,0.32531512,-0.1780822,0
1.0585477,-3.3562672,2.1300848,0.92868567,-0.32531512,0.1780822,0
-1.16903,-3.4855418,-0.51474261,-0.30936968,-0.9443506,-0.1117695,0
1.0403435,-2.1534741,3.7840257,-0.30164289,-0.383203,0.87302202,0
0.99596095,-3.3043818,2.331408,0.92868567,-0.32531512,0.1780822,0
2.0866499,1.3685298,3.3967633,0.038807631,0.56278247,0.82569361,0
-0.78879118,3.5020845,-2.7104075,0.36479902,0.7147733,-0.5966751,0
0.90309143,-3.9458358,1.7716379,-0.36912173,-0.85732484,0.3588087,0
2.8953993,1.0515974,0.33327413,0.92868567,-0.32531512,0.1780822,0
1.9685689,3.0294659,-1.1390269,0.36878777,0.86083579,-0.35065299,0
2.3779893,0.59095037,2.7865305,0.92868567,-0.32531512,0.1780822,0
-3.5375831,-1.4298332,2.3451939,-0.92868567,0.32531512,-0.1780822,0
-0.62722468,-1.07301,-3.715219,0.049842119,-0.36634195,-0.9291445,0
2.98926,-0.13835263,-1.8781641,0.92868567,-0.32531512,0.1780822,0
-2.1650453,0.13636255,-2.5696697,-0.92868567,0.32531512,-0.1780822,0
1.7272612,-2.6870832,-0.011611462,0.92868567,-0.32531512,0.1780822,0
-2.3260067,0.60926104,3.4573026,-0.18332338,0.014738798,0.98294222,0
2.2888169,-0.06833744,1.8077281,0.92868567,-0.32531512,0.1780822,0
-2.181987,-0.22904289,-2.7806067,-0.92868567,0.32531512,-0.1780822,0
1.4625974,-2.7531924,1.3959303,0.92868567,-0.32531512,0.1780822,0
-3.1863592,0.13924074,2.644954,-0.92868567,0.32531512,-0.1780822,0
1.1055543,-3.1323421,2.9044268,0.92868567,-0.32531512,0.1780822,0
-2.0361509,0.47558331,-2.8423512,-0.92868567,0.32531512,-0.1780822,0
-1.8503382,1.4453365,-1.8589628,-0.92868567,0.32531512,-0.1780822,0
-2.13639,2.7698514,1.8969079,-0.92868567,0.32531512,-0.1780822,0
-1.0691711,4.3957453,-0.17668009,0.31260985,0.94501024,0.096077025,0
-1.7827859,0.43350601,-3.9611354,-0.92868567,0.32531512,-0.1780822,0
2.0745604,-0.91741204,1.1996229,0.92868567,-0.32531512,0.1780822,0
0.21827221,1.5065621,-3.5504003,0.28514302,0.31928295,-0.90374339,0
0.68720341,-1.3869407,3.8614368,-0.25144351,-0.19933292,0.94712347,0
1.0746961,-3.500829,1.9393365,0.92868567,-0.32531512,0.1780822,0
-1.7845298,0.87705755,-2.7508221,-0.92868567,0.32531512,-0.1780822,0
-1.4611964,2.9356663,-0.81254458,-0.92868567,0.32531512,-0.1780822,0
-1.9587536,0.37517953,-2.8566866,-0.92868567,0.32531512,-0.1780822,0
-0.71192861,3.8398716,1.4651895,0.21076538,0.85804802,0.46832865,0
2.8988876,0.38165474,0.12251541,0.92868567,-0.32531512,0.1780822,0
-2.9494112,-1.915332,-2.411799,-0.92868567,0.32531512,-0.1780822,0
-1.8524957,3.1755552,1.1046631,-0.92868567,0.32531512,-0.1780822,0
2.6187472,-0.12770629,-0.10609691,0.92868567,-0.32531512,0.1780822,0
3.0784776,1.7816932,-2.2245214,0.35374892,0.63281024,-0.68877667,0
2.9620721,1.0325303,0.72791064,0.92868567,-0.32531512,0.1780822,0
1.4553258,2.2248464,2.8205674,0.10911199,0.69859123,0.70715272,0
2.9675567,1.95227,2.2540841,0.92868567,-0.32531512,0.1780822,0
0.94658327,-1.2237064,-3.569819,0.095941484,-0.2530947,-0.96267259,0
2.5209341,0.26496148,1.1474308,0.92868567,-0.32531512,0.1780822,0
-3.1843126,-2.7686067,-0.71844149,-0.31902328,-0.94560289,-0.063714504,0
3.2363772,1.0499802,-1.4596516,0.92868567,-0.32531512,0.1780822,0
2.6806026,2.72787,-1.379976,0.37083983,0.82048863,-0.43505925,0
-3.1855576,-1.8665993,2.0161648,-0.36151779,-0.68693465,0.63041741,0
1.1611077,2.6441231,2.5619621,0.14757881,0.76468128,0.62728238,0
1.3707091,3.5419993,-0.143085,0.34122479,0.93761551,-0.066655755,0
1.4102902,2.8801866,-1.979671,0.36851019,0.75537765,-0.54185355,0
-1.3529449,2.8677049,-1.6952584,-0.92868567,0.32531512,-0.1780822,0
-2.6895003,-0.48400545,-0.56703931,-0.92868567,0.32531512,-0.1780822,0
0.17556214,-3.2736487,2.41975,-0.36823308,-0.75169003,0.54714435,0
-0.43964243,-0.39012188,3.657171,-0.20577693,-0.052508771,0.97718936,0
-3.2451177,-0.82055354,1.2230897,-0.92868567,0.32531512,-0.1780822,0
-3.4991035,-0.85715699,2.2510505,-0.92868567,0.32531512,-0.1780822,0
1.6617229,-2.3194263,-3.0701435,0.0025877953,-0.47448123,-0.8802619,0
-2.4750938,0.065485716,-0.75487334,-0.92868567,0.32531512,-0.1780822,0
2.4717951,0.46893096,2.1249237,0.92868567,-0.32531512,0.1780822,0
1.1642414,-3.4692562,-2.0287719,-0.15504518,-0.77676088,-0.61041272,0
1.98838,-1.6807091,-3.141444,0.073935926,-0.30813673,-0.94846475,0
-1.2557688,2.3614573,-3.2201984,-0.92868567,0.32531512,-0.1780822,0
1.8427167,-3.5595851,-2.1927264,-0.11748019,-0.71349561,-0.69074059,0
-2.3295896,-0.49744177,3.2173133,-0.26816154,-0.25732324,0.92837197,0
3.5059919,1.8797483,-1.3481504,0.92868567,-0.32531512,0.1780822,0
-2.1613419,2.0759392,1.3595866,-0.92868567,0.32531512,-0.1780822,0
1.0543993,-3.0494177,2.4537344,0.92868567,-0.32531512,0.1780822,0
2.5218453,-0.69427824,-0.91416246,0.92868567,-0.32531512,0.1780822,0
-3.3557656,-1.379879,0.54745758,-0.92868567,0.32531512,-0.1780822,0
-1.645813,0.15648085,-4.1209888,0.12652469,-0.17345625,-0.9766804,0
3.1329246,2.5109472,1.973276,0.22502469,0.8759585,0.42668563,0
1.0483603,2.8921895,-2.1181221,0.36849505,0.75517231,-0.54214984,0
0.87309146,0.79808426,3.7039232,-0.074462831,0.30684042,0.94884378,0
-0.21714067,-1.4639151,3.6533074,-0.27851665,-0.29469621,0.9141022,0
-1.9917662,0.44818914,-3.2176318,-0.92868567,0.32531512,-0.1780822,0
2.2271791,3.1173632,-0.066718102,0.34267566,0.93632787,-0.076574326,0
3.3560567,0.94840002,-1.4590902,0.92868567,-0.32531512,0.1780822,0
-2.3706353,1.1028538,0.33981907,-0.92868567,0.32531512,-0.1780822,0
-1.5288014,-2.5898464,2.2755632,-0.36108786,-0.68358767,0.63428992,0
2.6377523,2.6263258,-1.5025949,0.37071663,0.80055922,-0.47082335,0
0.52033305,0.95679891,3.6008358,-0.072119832,0.31259811,0.94714379,0
2.3968706,-2.4296691,-2.4998646,0.92868567,-0.32531512,0.1780822,0
-2.0894482,-2.9083428,1.1074893,-0.36806732,-0.86736614,0.3349669,0
0.974738,-3.4474821,-2.181242,-0.14296207,-0.75708526,-0.6374824,0
-2.8010688,-1.6905777,-2.3418355,-0.92868567,0.32531512,-0.1780822,0
2.4417334,-1.4231055,-1.0616443,0.92868567,-0.32531512,0.1780822,0
1.269619,-1.2437768,-3.4674132,0.090303957,-0.26737103,-0.95935297,0
-1.9317639,0.13502431,3.4579251,-0.20404887,-0.047230273,0.97782081,0
-0.040563107,-3.6444323,1.6473384,-0.36966354,-0.8506403,0.37384546,0
1.5110443,-2.5971842,1.0545914,0.92868567,-0.32531512,0.1780822,0
-0.41795683,2.1069088,3.0256567,0.015709221,0.51425171,0.85749555,0
-0.99740291,-3.1188922,-1.8684483,-0.20519683,-0.8507002,-0.48394573,0
2.1256955,0.62292403,3.7898178,0.92868567,-0.32531512,0.1780822,0
3.692554,2.3308764,-1.1455379,0.92868567,-0.32531512,0.1780822,0
-2.1506445,0.99346566,-1.4060665,-0.92868567,0.32531512,-0.1780822,0
0.47537088,-2.2310295,-2.9750545,-0.025321424,-0.5346753,-0.84467822,0
-2.1510901,-0.97435766,-3.7454844,0.0073449612,-0.46394953,-0.88583124,0
-3.0767033,-0.44862795,1.517305,-0.92868567,0.32531512,-0.1780822,0
2.0108047,1.7446145,3.3125219,0.062337279,0.6102699,0.78973711,0
-3.0787334,-1.2597749,-0.09991014,-0.92868567,0.32531512,-0.1780822,0
-3.0524163,-1.3746208,-1.1005833,-0.92868567,0.32531512,-0.1780822,0
-1.5980194,1.7285744,-2.768249,-0.92868567,0.32531512,-0.1780822,0
3.57709,1.7754829,-1.7525661,0.92868567,-0.32531512,0.1780822,0
-0.8311491,3.898133,-1.8041773,0.3702358,0.841254,-0.39397645,0
-1.1540158,2.3177223,-3.721781,0.3064695,0.40275455,-0.86247641,0
1.5928211,1.5863717,-3.024219,0.31668466,0.44570071,-0.83729458,0
1.5790389,-3.2922616,-0.54350686,0.92868567,-0.32531512,0.1780822,0
-1.3929374,-3.4951658,0.11174679,-0.33355904,-0.94256425,0.017639399,0
-3.1301303,0.4573884,3.2094948,-0.21747363,-0.088726878,0.97202522,0
-1.683872,3.480325,1.1621709,-0.92868567,0.32531512,-0.1780822,0
-2.857923,-2.8962388,-0.56201625,-0.31951359,-0.94560575,-0.061162889,0
-1.2672325,2.8838754,-1.964838,-0.92868567,0.32531512,-0.1780822,0
-2.075357,2.0478606,0.54139996,-0.92868567,0.32531512,-0.1780822,0
0.012686968,1.3950367,3.5733809,-0.042754829,0.383064,0.922732,0
3.0750742,1.8736874,1.7470295,0.92868567,-0.32531512,0.1780822,0
2.3859005,-2.4057262,-2.6045172,0.92868567,-0.32531512,0.1780822,0
2.3835025,-0.714679,0.85829443,0.92868567,-0.32531512,0.1780822,0
2.4681971,-0.66315556,-0.097465277,0.92868567,-0.32531512,0.1780822,0
-0.11515999,-3.6411269,1.6721253,-0.37038481,-0.83806032,0.40058744,0
1.6723459,-1.6198695,-3.2505984,0.072345436,-0.31204486,-0.94730902,0
3.3496208,2.3355694,1.1541275,0.92868567,-0.32531512,0.1780822,0
-2.1561775,0.99736452,3.3002367,-0.14832461,0.11430514,0.98231065,0
-2.2599754,-3.0025406,0.77923894,-0.36450851,-0.8891902,0.27654058,0
-1.1348393,3.5431485,-1.3544352,-0.92868567,0.32531512,-0.1780822,0
1.2049059,3.5115309,-0.49412465,0.34626999,0.93254942,-0.10222077,0
-2.8708422,-1.9798169,-2.6782732,-0.92868567,0.32531512,-0.1780822,0
-3.599874,-2.6302071,-0.33229136,-0.92868567,0.32531512,-0.1780822,0
-3.0032568,-1.0700274,2.8072295,-0.3184337,-0.45329699,0.83253956,0
1.7421963,-2.0146639,1.41519,0.92868567,-0.32531512,0.1780822,0
-2.5919774,0.48078179,0.12853324,-0.92868567,0.32531512,-0.1780822,0
2.8547559,-0.87940717,-2.4051394,0.92868567,-0.32531512,0.1780822,0
-0.22073245,0.81976342,3.7249005,-0.097579837,0.2489228,0.96359527,0
-2.1012487,-2.6621041,1.8171496,-0.36837816,-0.75359809,0.5444153,0
-2.727371,-0.13718319,0.042366188,-0.92868567,0.32531512,-0.1780822,0
0.13641787,0.74564242,3.6065083,-0.090568483,0.2667037,0.95951372,0
1.6222903,-2.0143757,1.9324298,0.92868567,-0.32531512,0.1780822,0
-3.0958061,-2.0120509,-1.0217345,-0.92868567,0.32531512,-0.1780822,0
-0.45632935,2.3857293,-3.3233426,0.32105529,0.46483135,-0.82513982,0
2.1501403,1.0336063,-3.0854862,0.29525638,0.35796231,-0.88582563,0
-1.3749166,3.4004269,2.1931214,0.12651628,0.7292679,0.67242992,0
1.738694,0.87683201,-3.2916937,0.28176451,0.30667743,-0.90915239,0
-1.7664757,1.548898,3.2358978,-0.0838539,0.28355622,0.95528257,0
1.7361282,2.8903563,2.0215807,0.19736594,0.84005195,0.50533104,0
0.9164834,-1.1608959,-3.4012365,0.087627351,-0.27410647,-0.95769894,0
2.7801614,0.8763895,1.5174339,0.92868567,-0.32531512,0.1780822,0
-0.92557454,4.0525837,-1.6523805,-0.92868567,0.32531512,-0.1780822,0
-0.95124507,-3.3409271,1.5164721,-0.36959416,-0.85158467,0.37175816,0
2.7857614,-0.44198298,-1.013225,0.92868567,-0.32531512,0.1780822,0
1.1967415,-3.5784719,0.72711515,0.92868567,-0.32531512,0.1780822,0
0.50028205,2.4458532,-2.9943199,0.34592152,0.58668655,-0.73221415,0
2.6672549,-1.1341784,-1.921977,0.92868567,-0.32531512,0.1780822,0
0.37067163,-4.1994591,0.50271893,-0.34140959,-0.93745852,0.06790638,0
3.4448407,1.7764132,-0.58734834,0.92868567,-0.32531512,0.1780822,0
-3.2930679,-2.7473953,-0.48479795,-0.32962114,-0.94409627,-0.0056951046,0
2.4848371,0.50783873,1.5967855,0.92868567,-0.32531512,0.1780822,0
-2.9085016,-2.0689669,-2.3948655,-0.92868567,0.32531512,-0.1780822,0
2.4159737,2.8776879,-0.9196496,0.36590242,0.88202274,-0.29690319,0
-2.034925,-0.38935441,-3.7864566,-0.92868567,0.32531512,-0.1780822,0
1.3960706,-3.1486034,0.54757595,0.92868567,-0.32531512,0.1780822,0
1.6325986,-2.9513583,0.17360568,0.92868567,-0.32531512,0.1780822,0
-2.2490108,0.72826052,-1.3078446,-0.92868567,0.32531512,-0.1780822,0
-3.6099715,-1.2561834,2.4281645,-0.92868567,0.32531512,-0.1780822,0
-3.3136666,-1.1554492,1.5610077,-0.92868567,0.32531512,-0.1780822,0
1.9025166,2.2120371,2.7799459,0.13345826,0.74115223,0.65793794,0
2.8328109,1.603266,2.3479187,0.92868567,-0.32531512,0.1780822,0
1.6212921,-1.4510947,3.4647894,0.92868567,-0.32531512,0.1780822,0
1.7212453,-1.8844175,-3.2213793,0.054131806,-0.35613331,-0.93286598,0
-3.2683003,-1.9123821,-0.85586762,-0.92868567,0.32531512,-0.1780822,0
-1.2536287,-0.039993763,3.6642051,-0.20292175,-0.043796569,0.97821522,0
-2.5367067,2.1420925,3.0380466,-0.92868567,0.32531512,-0.1780822,0
-0.86760998,3.331681,-2.8037343,0.3633613,0.70200592,-0.61250019,0
2.6133456,-1.6983192,-3.2618906,0.10023397,-0.2421419,-0.96504956,0
3.1812437,0.173944,-2.2143545,0.92868567,-0.32531512,0.1780822,0
-2.4538555,-0.18053007,-1.72654,-0.92868567,0.32531512,-0.1780822,0
2.0319157,-0.96311772,2.0466568,0.92868567,-0.32531512,0.1780822,0
0.48284125,-1.8765359,3.6542821,-0.28758168,-0.32847637,0.89966679,0
1.3188715,1.8390369,3.2314699,0.059539139,0.60472739,0.794204,0
-2.8812256,-1.2238232,-0.79687625,-0.92868567,0.32531512,-0.1780822,0
2.23752,-2.4492862,-1.7514914,0.92868567,-0.32531512,0.1780822,0
2.5759873,-0.68288469,-0.18866086,0.92868567,-0.32531512,0.1780822,0
-1.9543505,-3.1853993,-1.2083311,-0.26361814,-0.9167878,-0.30000967,0
-1.3616781,4.0800343,0.39481688,-0.92868567,0.32531512,-0.1780822,0
2.3232653,-0.65734792,0.28327227,0.92868567,-0.32531512,0.1780822,0
1.0558331,-1.9111758,3.8110294,-0.2852447,-0.31966481,0.90357637,0
1.5368516,-3.4159021,-0.31091976,0.92868567,-0.32531512,0.1780822,0
2.5652044,-1.0969567,-0.95765895,0.92868567,-0.32531512,0.1780822,0
3.3833499,2.718184,1.0455623,0.29818761,0.94048351,0.1630187,0
-1.3899465,2.5433054,-2.6003556,-0.92868567,0.32531512,-0.1780822,0
0.66073287,2.7265551,2.5245094,0.1305874,0.73626238,0.66397655,0
3.1997662,-0.1774478,-2.5008373,0.92868567,-0.32531512,0.1780822,0
-0.13565159,-0.97856915,-3.6885397,0.081652999,-0.28904253,-0.95382774,0
-1.7792313,-3.4409575,0.10231471,-0.33583423,-0.94138914,0.031651378,0
-1.666456,-3.1950595,-1.5470688,-0.24784786,-0.90160477,-0.3545143,0
-1.3250512,2.9664969,-1.9309499,-0.92868567,0.32531512,-0.1780822,0
0.69327152,3.1227076,1.7259077,0.20808712,0.85453784,0.47588325,0
0.58943224,-3.4971144,2.5278695,-0.36656237,-0.73220199,0.57403189,0
-1.1525298,3.4713717,-1.2353671,-0.92868567,0.32531512,-0.1780822,0
-0.54030895,3.4236605,-2.3559849,0.36795133,0.74810684,-0.5522213,0
0.22847891,2.261718,-3.2700174,0.32818884,0.49723253,-0.80315149,0
-3.1307175,0.043797493,2.3382111,-0.92868567,0.32531512,-0.1780822,0
-0.18633842,3.1112986,-2.6791523,0.36002135,0.67551094,-0.64348257,0
-2.4729805,0.44525337,-0.022996604,-0.92868567,0.32531512,-0.1780822,0
1.597038,-3.5223784,-0.2158916,0.92868567,-0.32531512,0.1780822,0
-2.987896,0.1858027,1.887827,-0.92868567,0.32531512,-0.1780822,0
-1.742664,3.7231328,1.3880997,-0.92868567,0.32531512,-0.1780822,0
-1.9965661,3.0815532,1.4737673,-0.92868567,0.32531512,-0.1780822,0
2.5277274,-1.5015454,-2.0853739,0.92868567,-0.32531512,0.1780822,0
-1.5559158,1.3833523,-3.8821754,-0.92868567,0.32531512,-0.1780822,0
1.3466783,-2.3801038,2.5336587,0.92868567,-0.32531512,0.1780822,0
-1.8958321,-0.11040306,3.5294843,-0.2266326,-0.11771068,0.96684134,0
-2.2035096,-1.0421247,2.9615397,-0.3062517,-0.40186262,0.8629697,0
3.5472152,1.3425386,-1.9211704,0.92868567,-0.32531512,0.1780822,0
2.7600069,1.629863,3.1796222,0.92868567,-0.32531512,0.1780822,0
-1.7265193,0.98331201,-3.0676942,-0.92868567,0.32531512,-0.1780822,0
-0.64785337,1.7249336,-3.6229017,0.28292012,0.31097218,-0.90733278,0
1.740344,1.6718698,-2.8022356,0.3292197,0.50205135,-0.79972434,0
-2.2212722,-1.6276343,2.8525021,-0.33240837,-0.51720369,0.78867316,0
-0.85001081,-3.3404765,-1.2224414,-0.24914277,-0.90293568,-0.3501929,0
1.8305941,-2.0904717,1.1209013,0.92868567,-0.32531512,0.1780822,0
-1.4943054,2.9098725,-1.0305309,-0.92868567,0.32531512,-0.1780822,0
-2.3291478,2.0539775,1.4885147,-0.92868567,0.32531512,-0.1780822,0
-1.3603601,-3.40271,1.0746915,-0.36464387,-0.88854802,0.27841961,0
1.7260959,-0.75613809,3.8894238,0.92868567,-0.32531512,0.1780822,0
-1.1436596,-1.9208562,2.9267917,-0.33321673,-0.52110815,0.78575653,0
-1.6418756,2.2708988,-0.77850175,-0.92868567,0.32531512,-0.1780822,0
3.1708593,0.2916615,-1.9351615,0.92868567,-0.32531512,0.1780822,0
-3.4654655,-2.1403651,0.46809292,-0.92868567,0.32531512,-0.1780822,0
1.6032054,2.4038501,-2.2225578,0.36184615,0.68953073,-0.62738752,0
-0.38306731,3.6137581,1.5794797,0.19878994,0.84201503,0.50149119,0
-0.3302812,3.9032526,0.75051045,0.27553052,0.92662001,0.25584853,0
-0.66790032,-2.7834702,2.6444426,-0.35804564,-0.66128093,0.65917462,0
2.8827281,-0.44973779,-1.9308343,0.92868567,-0.32531512,0.1780822,0
3.347537,2.1570325,-1.6801043,0.36846191,0.75472176,-0.54279947,0
-3.602993,-1.7612772,1.924427,-0.36270237,-0.69647312,0.61917084,0
2.4990611,2.9117868,-0.93915057,0.36619216,0.88035524,-0.30146009,0
-0.54785347,-1.1614376,3.506753,-0.27297926,-0.27456039,0.92200828,0
2.5996199,-1.6891959,-3.2625086,0.10330153,-0.2342706,-0.96666753,0
-1.3126783,-3.0634968,1.8970962,-0.37020946,-0.78456712,0.49739271,0
2.4841592,-2.3408835,-3.0169673,0.026923835,-0.41977155,-0.90723044,0
0.65319014,-0.78776115,3.9504514,-0.2196312,-0.095503539,0.97089726,0
2.905436,-0.43332171,-1.7733507,0.92868567,-0.32531512,0.1780822,0
-2.4999678,0.71720386,3.288538,-0.18909705,-0.0022834241,0.98195589,0
0.46051323,3.7664194,-0.12287617,0.32511789,0.94516122,0.031124473,0
3.3252325,0.85230589,-1.6048563,0.92868567,-0.32531512,0.1780822,0
-2.3329816,-0.31630063,-2.9757848,-0.92868567,0.32531512,-0.1780822,0
3.1787379,-0.017794132,-2.548965,0.92868567,-0.32531512,0.1780822,0
3.5414739,2.0504053,-1.6912339,0.36833131,0.75297856,-0.54530323,0
0.55720919,3.6563492,0.97802544,0.27213481,0.92397493,0.26872486,0
3.5501597,2.4213958,0.19364643,0.92868567,-0.32531512,0.1780822,0
-1.6161995,-2.2169163,2.6118174,-0.34926355,-0.60566664,0.71497077,0
-1.5518761,1.2880242,-3.9359045,-0.92868567,0.32531512,-0.1780822,0
-1.7862668,3.6338253,1.5650864,-0.92868567,0.32531512,-0.1780822,0
-0.43147936,-3.3433166,-1.5837607,-0.21225563,-0.85998172,-0.46408945,0
1.6014396,-3.6533496,-0.71747971,0.92868567,-0.32531512,0.1780822,0
-0.21569973,-3.8652706,-0.27356625,-0.30355105,-0.94262701,-0.13896477,0
1.2801758,-3.1801844,1.7124467,0.92868567,-0.32531512,0.1780822,0
-0.73448819,-3.5478492,-0.66449165,-0.29322159,-0.93807113,-0.18450952,0
-2.6158791,-0.83140326,-1.7794242,-0.92868567,0.32531512,-0.1780822,0
0.34487125,-3.8086848,-1.3096383,-0.22955935,-0.88136506,-0.41291434,0
-1.7822951,1.9812462,-1.3906722,-0.92868567,0.32531512,-0.1780822,0
2.8744643,1.2302096,-2.7721851,0.32912761,0.50161952,-0.80003333,0
-1.1117468,4.2832875,0.59168005,0.27653429,0.92737645,0.2519958,0
1.3879451,-3.6709042,0.43159819,0.92868567,-0.32531512,0.1780822,0
-1.4847399,-3.3118911,-1.1380579,-0.27525693,-0.92641181,-0.25689507,0
0.53408861,-4.1456804,1.0632081,-0.35376918,-0.92117953,0.16209823,0
0.47645211,-0.3428691,3.9543631,-0.18127823,0.020726115,0.98321354,0
2.2540534,2.5051529,-1.7372837,0.36982018,0.77624291,-0.51056868,0
0.31829262,2.4629984,2.7702286,0.081748128,0.64792752,0.75730264,0
-1.8679531,-2.975584,-1.750252,-0.2294734,-0.88126385,-0.41317791,0
0.46377635,2.6807134,2.7515001,0.10767058,0.69599539,0.7099278,0
-2.1994147,0.11041903,-2.2868962,-0.92868567,0.32531512,-0.1780822,0
1.8416235,-3.0846055,-1.6718669,0.92868567,-0.32531512,0.1780822,0
-1.8292342,1.8098325,-1.3287385,-0.92868567,0.32531512,-0.1780822,0
-3.0274029,0.44259644,2.9569159,-0.92868567,0.32531512,-0.1780822,0
0.22076464,-1.0901308,3.7590413,-0.24944472,-0.19257334,0.94904852,0
0.52432442,-3.9930172,1.3897448,-0.36324996,-0.89470869,0.2598964,0
-2.2744045,1.4683166,0.30203474,-0.92868567,0.32531512,-0.1780822,0
-3.0555964,-2.8920782,-0.61496115,-0.31281206,-0.9450438,-0.095084071,0
1.7537551,-0.83511937,3.2224529,0.92868567,-0.32531512,0.1780822,0
1.7916031,-1.2612605,1.8900195,0.92868567,-0.32531512,0.1780822,0
1.4294634,1.4950988,-3.1535442,0.31346804,0.43192688,-0.84568155,0
2.7829244,0.11800265,-0.40671116,0.92868567,-0.32531512,0.1780822,0
2.3803954,2.5075521,2.1983862,0.20026726,0.84403914,0.49748468,0
3.5940406,1.8176198,-1.2772703,0.92868567,-0.32531512,0.1780822,0
0.40039468,-2.9799376,-2.3437505,-0.11750555,-0.71354049,-0.6906898,0
1.7301756,-3.2832093,-0.59049678,0.92868567,-0.32531512,0.1780822,0
-1.3458264,3.5181425,-0.2569387,-0.92868567,0.32531512,-0.1780822,0
-2.5207248,1.0520546,1.5496165,-0.92868567,0.32531512,-0.1780822,0
0.55142546,-0.051416397,-3.8033595,0.17242491,-0.046391696,-0.98392969,0
-2.6631963,1.4649498,2.7577505,-0.92868567,0.32531512,-0.1780822,0
1.5190003,-2.9952178,0.73414707,0.92868567,-0.32531512,0.1780822,0
3.0662422,-0.83559465,-3.1164632,0.92868567,-0.32531512,0.1780822,0
0.49510753,3.7430601,-0.40297222,0.34278473,0.93622601,-0.07732904,0
-1.5897818,3.4288027,0.98503065,-0.92868567,0.32531512,-0.1780822,0
-1.3602043,3.1708453,2.2985749,0.10960245,0.69947249,0.70620513,0
3.0744662,1.2684506,0.62046373,0.92868567,-0.32531512,0.1780822,0
-0.51558113,1.4636711,3.4559114,-0.051107526,0.36333755,0.93025476,0
2.6372783,1.1663779,2.2397707,0.92868567,-0.32531512,0.1780822,0
-3.0215068,-0.19216537,1.6003424,-0.92868567,0.32531512,-0.1780822,0
-1.3624289,-0.48552191,3.5376427,-0.24289739,-0.1706681,0.95492071,0
1.7192163,0.83758497,3.8448367,-0.029625058,0.41357073,0.90999001,0
2.1349945,-2.1673648,-0.94801033,0.92868567,-0.32531512,0.1780822,0
2.108294,3.1236107,-0.93037486,0.3666147,0.8777889,-0.30835158,0
2.2516897,-2.6238456,-2.8314226,0.0016733408,-0.47649664,-0.87917477,0
-1.1113946,3.340301,-2.4804678,-0.92868567,0.32531512,-0.1780822,0
2.990123,1.900526,2.205683,0.92868567,-0.32531512,0.1780822,0
-2.5613766,0.72632575,0.099048316,-0.92868567,0.32531512,-0.1780822,0
-2.6032958,0.10968184,-0.44175279,-0.92868567,0.32531512,-0.1780822,0
2.9888933,2.2880914,2.440702,0.92868567,-0.32531512,0.1780822,0
-3.2749147,-0.37795663,1.8593138,-0.92868567,0.32531512,-0.1780822,0
-2.5604579,-1.0078421,-2.512275,-0.92868567,0.32531512,-0.1780822,0
-2.7205346,-0.47422719,-0.31800389,-0.92868567,0.32531512,-0.1780822,0
2.8719888,0.66452312,0.78462398,0.92868567,-0.32531512,0.1780822,0
-2.5667067,-0.32400274,-0.82166421,-0.92868567,0.32531512,-0.1780822,0
1.6353009,-0.88063788,3.4096572,0.92868567,-0.32531512,0.1780822,0
1.5109708,-3.8769312,-0.56544447,0.92868567,-0.32531512,0.1780822,0
1.9109979,-2.3875041,-3.030879,0.0077314377,-0.46309045,-0.88627744,0
3.6105013,1.9520006,-1.449598,0.92868567,-0.32531512,0.1780822,0
-1.4881804,3.2304506,-0.63971019,-0.92868567,0.32531512,-0.1780822,0
-1.1947091,2.2259746,-3.4030964,-0.92868567,0.32531512,-0.1780822,0
-3.3561502,-1.1241441,1.1751039,-0.92868567,0.32531512,-0.1780822,0
-2.5522163,-2.0481648,2.3376122,-0.35642457,-0.65019059,0.67097998,0
0.59593153,-2.5458434,3.3465893,-0.32480687,-0.48167518,0.8139348,0
-2.5459518,2.0983078,2.5114195,-0.92868567,0.32531512,-0.1780822,0
-1.6805036,1.7691482,-2.1393003,-0.92868567,0.32531512,-0.1780822,0
-1.7606583,3.5028322,1.1329265,-0.92868567,0.32531512,-0.1780822,0
2.9555578,1.9587241,2.5588095,0.92868567,-0.32531512,0.1780822,0
-3.4542222,-2.1697197,0.052511215,-0.92868567,0.32531512,-0.1780822,0
2.0345302,1.2668099,3.5963187,0.012755036,0.50790954,0.86131603,0
0.055041075,-2.9280348,-2.3894906,-0.12352967,-0.72409236,-0.67855048,0
2.6018248,1.5826664,3.2006867,0.92868567,-0.32531512,0.1780822,0
-2.3808801,-0.63922048,-2.550565,-0.92868567,0.32531512,-0.1780822,0
-3.0670924,-2.0667524,-1.9075221,-0.92868567,0.32531512,-0.1780822,0
-2.8836267,-0.577317,-0.45425242,-0.92868567,0.32531512,-0.1780822,0
-1.8130827,0.46374953,-4.0080752,-0.92868567,0.32531512,-0.1780822,0
-2.047051,1.2912543,-1.2454491,-0.92868567,0.32531512,-0.1780822,0
-1.1908653,2.2147377,3.1425703,-0.0089626312,0.46035022,0.88769221,0
-2.3567915,2.1473215,2.6779716,-0.92868567,0.32531512,-0.1780822,0
-3.2179055,-2.8358245,0.077406406,-0.3468596,-0.93184054,0.10659111,0
2.583019,-1.888845,-3.1656024,0.086194754,-0.2777003,-0.95679319,0
3.3699868,1.5765946,-0.6245718,0.92868567,-0.32531512,0.1780822,0
1.0253668,-3.2631738,2.7697506,0.92868567,-0.32531512,0.1780822,0
-2.4802427,0.54378486,-0.30589354,-0.92868567,0.32531512,-0.1780822,0
-1.0743184,3.1743577,-3.1970947,-0.92868567,0.32531512,-0.1780822,0
-1.530642,1.4529053,-3.2164092,-0.92868567,0.32531512,-0.1780822,0
3.5360909,2.0144899,-0.88942003,0.92868567,-0.32531512,0.1780822,0
0.6379683,2.6834235,2.4386101,0.13510212,0.7439363,0.65445113,0
1.7285433,3.1644049,-1.3274024,0.36984569,0.84800071,-0.37961727,0
-0.43480682,-2.5910788,2.8529854,-0.34824812,-0.59980136,0.72039014,0
1.2154768,3.0693381,1.6552624,0.21914661,0.86873811,0.44414967,0
-0.15557718,-3.2877965,2.2548108,-0.36770892,-0.74513638,0.55638337,0
3.4430013,2.5333767,1.0492244,0.92868567,-0.32531512,0.1780822,0
-3.2101948,-2.7406273,-0.37274265,-0.32809836,-0.94453335,-0.014434576,0
-1.0007288,3.782341,-1.501626,-0.92868567,0.32531512,-0.1780822,0
1.1505914,2.7304444,-2.2180417,0.36473018,0.71413589,-0.59748,0
0.79168838,-3.8100276,-1.2961736,-0.22328842,-0.87385017,-0.43188906,0
-0.8722778,-3.166846,-1.8570215,-0.2016526,-0.84592575,-0.49370638,0
-0.35028002,4.0267091,0.8641367,0.26862559,0.92110658,0.28178549,0
2.8985817,1.6450183,-2.4064548,0.34524375,0.58294445,-0.73551536,0
-2.6562567,1.7954497,3.1316881,-0.096842766,0.25080088,0.96318251,0
2.1546752,-1.9573286,-0.89785826,0.92868567,-0.32531512,0.1780822,0
0.59911239,3.6846573,-0.85124135,0.3593393,0.90808845,-0.21506059,0
0.12919629,3.3085034,1.8955443,0.17691714,0.8106209,0.55820632,0
1.7418926,-0.65478945,-3.4318683,0.1647433,-0.068340421,-0.98396611,0
-2.0414357,-2.5449507,2.1201835,-0.36509413,-0.71753371,0.59317106,0
-2.4931576,-2.7335854,-1.8035011,-0.23192264,-0.8841244,-0.40563053,0
-0.1295855,1.7309934,3.3822083,-0.0040798187,0.47118658,0.88202423,0
1.4202557,1.6145182,-3.0782442,0.32271737,0.47224289,-0.82026863,0
1.527622,3.4132266,-0.026377439,0.33625489,0.94114673,-0.034287691,0
0.1840353,0.74492437,3.7295074,-0.088687599,0.27144176,0.95836014,0
-0.36952448,-0.42290473,3.7050784,-0.21082139,-0.068023056,0.97515512,0
