-3.4060483,-0.53397131,2.826211,-0.76830339,-0.56757778,0.29591474,0
3.0333614,-2.6624713,-0.75451207,0.22480404,-0.67212296,-0.70548838,0
2.506093,3.3841417,0.30725372,0.77408773,0.56293279,-0.28964624,0
-2.0890183,-2.0569637,2.6145067,-0.49044561,-0.70367104,0.51411104,0
2.6544247,-2.0362811,-1.3451842,0.22480404,-0.67212296,-0.70548838,0
0.049579144,-0.74582136,4.5299964,0.15369797,-0.69049752,0.70681697,0
-2.0235271,1.4887774,2.1712778,-0.22480404,0.67212296,0.70548838,0
3.3011496,0.80800915,-2.4455972,0.7734586,0.56344348,-0.29033327,0
-0.11115241,3.3716412,-1.8029737,0.044335842,0.73032618,-0.68165845,0
-0.53330433,-1.4262226,-3.1834657,0.22480404,-0.67212296,-0.70548838,0
0.96835351,-0.92765379,-3.1604435,0.22480404,-0.67212296,-0.70548838,0
-1.9680479,1.5842482,-2.7441292,-0.57203281,0.49509406,-0.65395749,0
1.5560015,3.8700893,1.182255,-0.22480404,0.67212296,0.70548838,0
0.62225777,-3.606379,-0.72939843,0.22480404,-0.67212296,-0.70548838,0
1.4025843,3.226927,-1.6800016,0.40750426,0.72251415,-0.5584923,0
2.3004632,0.51117277,4.0046654,0.75769037,-0.33466285,0.56027335,0
2.5425441,-3.2242019,1.005358,0.53888816,-0.51746148,0.6647054,0
-1.6087413,-4.1698647,-0.091597021,-0.57156342,-0.67733681,0.46317402,0
0.77397954,3.213748,1.4089102,-0.22480404,0.67212296,0.70548838,0
3.6476793,-0.2799015,-2.7739263,0.22480404,-0.67212296,-0.70548838,0
-0.40640137,3.0928962,1.1170011,-0.22480404,0.67212296,0.70548838,0
1.5652722,-2.3919725,-1.6154652,0.22480404,-0.67212296,-0.70548838,0
-0.65656829,-3.0583131,-1.5046612,0.22480404,-0.67212296,-0.70548838,0
-1.7656729,1.8004423,2.0016241,-0.22480404,0.67212296,0.70548838,0
4.0356064,-2.4067733,-0.38988352,0.89257836,-0.14837688,0.42577982,0
-3.9097548,2.3284032,0.18073463,-0.8939805,0.14576265,-0.4237361,0
1.9245449,-1.3052917,-2.3095641,0.22480404,-0.67212296,-0.70548838,0
1.2078619,3.4641588,-1.3374231,0.38397068,0.72654152,-0.56982809,0
1.4851027,0.3877545,4.3279004,-0.22480404,0.67212296,0.70548838,0
-0.82504606,-3.0578194,-1.5327147,0.22480404,-0.67212296,-0.70548838,0
1.6788658,-4.4945769,0.48969674,0.22480404,-0.67212296,-0.70548838,0
1.3474492,1.9410589,2.7782066,-0.22480404,0.67212296,0.70548838,0
-3.6991115,1.98201,-0.46656895,-0.85238636,0.21515906,-0.47659636,0
3.1212559,0.92220592,2.7343285,0.92867672,-0.071405917,0.3639518,0
-2.6269779,2.4506693,1.0654767,-0.22480404,0.67212296,0.70548838,0
-2.467063,0.83637863,-2.7940345,-0.70311981,0.38936135,-0.59499615,0
-0.97866392,1.6854172,2.4364185,-0.22480404,0.67212296,0.70548838,0
-3.5591145,-0.53058791,2.5743074,-0.80064905,-0.54006797,0.25939897,0
-0.30554447,2.3055744,1.8964953,-0.22480404,0.67212296,0.70548838,0
3.418673,-2.6243048,0.48695159,0.79180497,-0.295964,0.53427547,0
2.9541831,0.9883374,-3.1105423,0.65634066,0.63958168,-0.40019023,0
2.5973735,-2.2131805,-1.3528987,0.22480404,-0.67212296,-0.70548838,0
2.6366029,2.5962644,-0.91831422,0.72462851,0.59936321,-0.34011382,0
-1.5569997,1.1275048,-3.3178864,-0.51499867,0.53267699,-0.6715889,0
0.89935184,-4.493588,0.71732581,0.10049641,-0.70416659,0.70288688,0
-4.2119417,2.1699135,0.7384181,-0.9289338,0.070762634,-0.36342084,0
2.7934873,-3.1096096,-0.51537848,0.22480404,-0.67212296,-0.70548838,0
-0.51712108,-4.4506388,-0.039952725,0.22480404,-0.67212296,-0.70548838,0
2.1823258,0.60470891,-4.1123633,0.22480404,-0.67212296,-0.70548838,0
1.6477506,-3.3311412,-0.57200027,0.22480404,-0.67212296,-0.70548838,0
-2.5058894,-1.1009616,3.4375184,-0.50883919,-0.69843471,0.50326121,0
-0.97522348,3.4408014,0.702317,-0.22480404,0.67212296,0.70548838,0
-1.4194422,3.1189501,-1.8710638,-0.32307541,0.63165146,-0.70472622,0
3.0170176,-1.6388748,-1.6130399,0.22480404,-0.67212296,-0.70548838,0
3.6499295,-0.82975936,-2.3694844,0.22480404,-0.67212296,-0.70548838,0
-2.4229064,-3.4211135,0.082519412,-0.73758346,-0.59049833,0.32754013,0
-1.4723845,3.8020539,0.020380259,-0.22480404,0.67212296,0.70548838,0
3.9522123,-0.93766439,0.015159607,0.95887613,0.023853153,0.28282094,0
1.3504782,-3.5049813,-0.38794553,0.22480404,-0.67212296,-0.70548838,0
-1.3417279,1.0254768,2.8222392,-0.22480404,0.67212296,0.70548838,0
-1.9678956,3.0027292,0.64406443,-0.22480404,0.67212296,0.70548838,0
-1.1217289,0.79141426,3.1562905,-0.22480404,0.67212296,0.70548838,0
2.0870013,1.0976083,3.9734986,-0.22480404,0.67212296,0.70548838,0
-2.2051744,-3.7207141,-0.19162214,-0.72038275,-0.60217386,0.34414452,0
1.2249126,4.4643254,0.1304276,0.50361866,0.69996244,-0.5063802,0
2.6847618,2.9170187,2.2129567,-0.22480404,0.67212296,0.70548838,0
-3.0417447,3.1319885,-0.72287655,-0.65379852,0.43280378,-0.62066776,0
2.9527354,-3.3809853,0.68187118,0.61654985,-0.46253562,0.63712418,0
1.6363336,4.212152,0.20174927,0.6086579,0.66225398,-0.43698436,0
-2.1627791,-0.52381718,-4.3164659,-0.72309649,0.37023801,-0.58314282,0
3.7727058,-2.5709448,-0.60343838,0.22480404,-0.67212296,-0.70548838,0
2.9600186,2.9138737,1.0049958,0.91024476,0.40323359,-0.09411341,0
-3.3213151,-0.78595793,-1.8052444,-0.96001709,-0.028818458,-0.27845418,0
3.0174973,2.3154659,2.7690535,0.9721235,0.10519561,0.20954686,0
-3.2783675,-0.60433602,2.7467289,-0.74690485,-0.58383775,0.31822428,0
3.2560921,-1.2495713,-2.1595187,0.22480404,-0.67212296,-0.70548838,0
3.9792876,-2.409936,-0.63623047,0.22480404,-0.67212296,-0.70548838,0
-2.7652922,3.8450785,-0.16958523,-0.22480404,0.67212296,0.70548838,0
-2.2944238,3.1720409,0.52636409,-0.22480404,0.67212296,0.70548838,0
-1.3172066,0.57019269,3.2154536,-0.22480404,0.67212296,0.70548838,0
3.1442947,0.86140966,2.3029802,0.94586825,-0.023411721,0.32370549,0
-1.5290993,-3.2145848,-1.6539123,0.22480404,-0.67212296,-0.70548838,0
1.9251122,2.2485299,2.8643498,-0.22480404,0.67212296,0.70548838,0
1.2067726,-0.7068246,4.0691214,0.44065017,-0.57563233,0.68882161,0
3.0030646,-2.0183959,-1.3584878,0.22480404,-0.67212296,-0.70548838,0
-1.7322509,1.4542683,2.3603988,-0.22480404,0.67212296,0.70548838,0
-2.2491417,3.8152013,-0.82821155,-0.43020314,0.58117241,-0.69077063,0
3.9197216,0.00014233589,-2.1967266,0.89015061,0.43616229,-0.13188779,0
-2.6212978,1.3736091,2.1613495,-0.22480404,0.67212296,0.70548838,0
0.79156661,0.58966404,3.9187474,-0.22480404,0.67212296,0.70548838,0
-1.0316162,-0.71100307,-3.9133856,0.22480404,-0.67212296,-0.70548838,0
3.098218,0.81293392,-3.0730271,0.66943926,0.63263166,-0.389395,0
4.0852728,-0.224859,-2.4005523,0.90325606,0.41532496,-0.10785985,0
0.037918448,1.5478373,2.8010349,-0.22480404,0.67212296,0.70548838,0
-0.01076889,-0.20229614,4.5720105,-0.22480404,0.67212296,0.70548838,0
2.1532598,-1.7777371,-1.8510635,0.22480404,-0.67212296,-0.70548838,0
2.8872097,-0.31545901,-2.9725738,0.22480404,-0.67212296,-0.70548838,0
0.31693357,2.2028959,2.3772156,-0.22480404,0.67212296,0.70548838,0
-0.25294375,-4.3134918,-0.14531669,0.22480404,-0.67212296,-0.70548838,0
-0.54622126,-1.927035,3.3355491,-0.093903899,-0.73559415,0.67088246,0
-1.1950436,4.1310363,-0.090659618,-0.22480404,0.67212296,0.70548838,0
1.9092572,-4.374927,0.5080936,0.22480404,-0.67212296,-0.70548838,0
1.2519698,0.47019321,4.2162194,-0.22480404,0.67212296,0.70548838,0
3.2279222,1.666877,-1.2375779,0.81118786,0.53022045,-0.24665913,0
2.0416577,-3.1847684,-0.66669679,0.22480404,-0.67212296,-0.70548838,0
-0.90591526,4.1402435,0.092481732,-0.22480404,0.67212296,0.70548838,0
3.0945401,2.5005264,1.1960611,0.94367588,0.33056527,-0.014229059,0
-2.5180645,2.7438521,0.82503295,-0.22480404,0.67212296,0.70548838,0
-3.9853988,0.65907264,0.56160283,-0.9744041,-0.15503195,-0.16279417,0
0.63406086,0.96323156,-4.5023422,0.014453053,0.72624081,-0.68728852,0
-0.21817446,0.071333528,-4.4394584,0.22480404,-0.67212296,-0.70548838,0
-1.2531135,-3.9539664,0.89559793,-0.42051333,-0.72004735,0.55199677,0
2.0014064,0.080791265,3.8767519,0.6873588,-0.40379691,0.60372669,0
2.8996136,-3.5818355,0.4064362,0.6230166,-0.45754564,0.63443083,0
3.1653681,1.1848218,-1.8858315,0.79472935,0.54539603,-0.26636145,0
3.1368704,1.3429205,2.6717935,0.94925851,-0.012357295,0.31425428,0
1.7411819,1.6532873,3.1407576,-0.22480404,0.67212296,0.70548838,0
1.2060598,3.3755121,1.5525631,-0.22480404,0.67212296,0.70548838,0
3.6717641,-3.0840695,-0.14630604,0.81886041,-0.26211601,0.51064956,0
1.1096983,-0.1096127,4.555263,0.49323314,-0.545919,0.67726916,0
-2.1265891,0.35595176,-3.4984169,-0.67042905,0.41871095,-0.61254078,0
-2.1410859,-0.54984927,4.1374583,-0.22480404,0.67212296,0.70548838,0
0.89269865,-4.0398169,-0.21923947,0.22480404,-0.67212296,-0.70548838,0
1.8946133,2.2405276,2.7957435,-0.22480404,0.67212296,0.70548838,0
-3.4511263,1.8419187,1.2657983,-0.22480404,0.67212296,0.70548838,0
-2.0822649,3.1310992,-1.4605618,-0.44871885,0.57127315,-0.68723977,0
-1.5369298,0.6069622,-3.7863407,-0.53522968,0.51983935,-0.66580504,0
0.0019468069,-2.2651095,-2.105176,0.22480404,-0.67212296,-0.70548838,0
-2.3559294,-1.1043431,-4.0678835,0.22480404,-0.67212296,-0.70548838,0
-4.090239,2.6162779,0.57809782,-0.22480404,0.67212296,0.70548838,0
2.620219,0.74227417,3.3260555,0.85131186,-0.2167677,0.4777866,0
2.545311,1.5499613,-2.6229312,0.61121821,0.66113448,-0.43510199,0
1.527034,-0.013103783,4.3491659,0.58529234,-0.48571143,0.64924365,0
-3.6352806,0.97429705,2.3017023,-0.22480404,0.67212296,0.70548838,0
-2.2352755,0.9813472,-3.0732741,-0.64189196,0.44257367,-0.62618166,0
-3.916831,2.5468807,0.56134462,-0.22480404,0.67212296,0.70548838,0
-0.025996685,2.4419394,-2.9277992,-0.0069168806,0.72290146,-0.6909166,0
1.2803867,2.6492147,-2.4795692,0.32610995,0.73416507,-0.59552836,0
-1.5538532,-2.2846534,-2.5652671,0.22480404,-0.67212296,-0.70548838,0
-1.2921126,-3.4488592,1.094595,-0.43644375,-0.71678674,0.54381418,0
3.6912746,-0.46926463,0.62375164,0.94964254,-0.011059582,0.31314033,0
-2.7735491,-1.989193,-3.2719083,0.22480404,-0.67212296,-0.70548838,0
3.0609016,-1.0763252,1.9240987,0.7905252,-0.29749036,0.53532183,0
-1.4378835,-4.0257163,-0.94468057,0.22480404,-0.67212296,-0.70548838,0
3.4110634,1.8234816,0.97482109,0.95559704,0.29363549,0.024752915,0
-1.4536121,-0.086949587,3.923413,-0.22480404,0.67212296,0.70548838,0
-1.7445326,3.6899228,0.039769888,-0.22480404,0.67212296,0.70548838,0
1.7458868,-1.3883693,-2.5127063,0.22480404,-0.67212296,-0.70548838,0
-2.2891796,-1.9280155,-3.1797841,0.22480404,-0.67212296,-0.70548838,0
-1.7219112,1.6145571,-3.0552468,-0.50854325,0.53666484,-0.67333114,0
4.1882601,-0.70044231,-2.2575152,0.22480404,-0.67212296,-0.70548838,0
0.80542755,1.8859951,-3.4020665,0.12999761,0.73823571,-0.66189778,0
-0.77559018,2.3280394,-2.8003883,-0.20155936,0.67628539,-0.7085281,0
-1.6831098,4.3860393,-0.40593529,-0.22480404,0.67212296,0.70548838,0
1.2321868,-2.3822947,-1.5345391,0.22480404,-0.67212296,-0.70548838,0
-4.1342406,0.32280612,1.0614955,-0.9678117,-0.23809338,-0.081560314,0
1.5203373,1.9303176,2.9594495,-0.22480404,0.67212296,0.70548838,0
2.56077,3.6738877,1.4382194,-0.22480404,0.67212296,0.70548838,0
-3.8463237,-0.068009973,0.30965495,-0.9721266,-0.20417526,-0.11524934,0
0.17716074,-3.4603853,1.6420786,-0.045594335,-0.73048317,0.68140703,0
2.3451076,0.40321207,3.8261397,0.76994312,-0.32121742,0.5513683,0
1.4891248,0.4847942,4.2924876,-0.22480404,0.67212296,0.70548838,0
-0.94037747,3.3083787,-1.7764019,-0.17593884,0.68412179,-0.70782983,0
2.4098945,-2.9555991,-0.59371138,0.22480404,-0.67212296,-0.70548838,0
-0.68310452,-1.0370736,4.3487835,-0.030565619,-0.72852832,0.6843335,0
-0.53357625,-3.0786347,-1.3790524,0.22480404,-0.67212296,-0.70548838,0
0.1753149,-1.5420231,3.6973543,0.13455504,-0.69567126,0.70564616,0
-2.1579208,-1.7424645,2.779139,-0.52385437,-0.69385237,0.49411103,0
3.2118158,-2.308804,-1.0612538,0.22480404,-0.67212296,-0.70548838,0
2.9004979,1.1745294,3.280385,0.90811205,-0.1179741,0.40176469,0
-0.58100682,3.3499243,0.94309342,-0.22480404,0.67212296,0.70548838,0
-2.3066986,3.5871549,-0.95099545,-0.46609002,0.56164634,-0.68360347,0
2.4857347,0.18680596,-3.6073804,0.22480404,-0.67212296,-0.70548838,0
4.0090632,-1.0269959,-1.9949539,0.22480404,-0.67212296,-0.70548838,0
3.1480517,-2.4654269,0.94849253,0.75867105,-0.33360404,0.55957723,0
-1.0173404,-2.0061102,-2.6970317,0.22480404,-0.67212296,-0.70548838,0
3.10396,-0.60281062,-2.7096663,0.22480404,-0.67212296,-0.70548838,0
2.7084644,-0.013628095,2.8886194,0.82129735,-0.25890642,0.50836819,0
1.7476342,2.9502034,2.1336284,-0.22480404,0.67212296,0.70548838,0
3.2258263,1.8573904,2.2398505,0.97229838,0.10715762,0.20773333,0
-2.6059792,-2.149658,-3.1010199,0.22480404,-0.67212296,-0.70548838,0
-4.2011657,0.56381106,1.4697032,-0.95775878,-0.2856698,-0.033030629,0
-2.7927594,-2.7534738,-2.4204502,0.22480404,-0.67212296,-0.70548838,0
2.7498364,-2.6582632,-0.82185864,0.22480404,-0.67212296,-0.70548838,0
3.0930176,0.077646255,-3.2314138,0.22480404,-0.67212296,-0.70548838,0
-3.3490357,0.71233797,2.4595435,-0.22480404,0.67212296,0.70548838,0
0.70196176,-1.7870638,3.2710874,0.26548237,-0.65438104,0.70802867,0
1.1645303,-2.5758848,2.3619165,0.2719298,-0.65198052,0.70779628,0
-1.1232195,-0.79662955,4.6423297,-0.1406641,-0.73882163,0.6590572,0
0.094362974,-1.2837453,-3.0377884,0.22480404,-0.67212296,-0.70548838,0
2.3400152,-0.010646105,-3.52157,0.22480404,-0.67212296,-0.70548838,0
-0.61265635,4.0499687,0.1294266,-0.22480404,0.67212296,0.70548838,0
2.4794908,1.948202,-2.1071169,0.63795477,0.64879394,-0.41482559,0
-0.43037033,0.91410053,-4.2493534,-0.24757981,0.6608603,-0.70849693,0
-1.2744849,-2.8828063,-1.9389732,0.22480404,-0.67212296,-0.70548838,0
4.0631394,-0.13584161,-1.9090178,0.92168117,0.38160551,-0.069863975,0
-2.5786593,-1.5697047,-3.6366224,0.22480404,-0.67212296,-0.70548838,0
-2.449429,-0.08164525,3.6124024,-0.22480404,0.67212296,0.70548838,0
3.5215001,0.87955916,-1.4092858,0.87235904,0.46138778,-0.16158956,0
-2.1155539,-1.3961055,-3.6522777,0.22480404,-0.67212296,-0.70548838,0
2.2292964,-3.26478,-0.33197141,0.22480404,-0.67212296,-0.70548838,0
0.54105276,-2.7522013,-1.5660347,0.22480404,-0.67212296,-0.70548838,0
1.9360697,-0.0062773228,-3.7410078,0.22480404,-0.67212296,-0.70548838,0
-2.1492264,-2.9467914,-2.1217508,0.22480404,-0.67212296,-0.70548838,0
-1.3457496,-3.024545,-1.8740838,0.22480404,-0.67212296,-0.70548838,0
1.538245,-4.3596511,0.50131416,0.22480404,-0.67212296,-0.70548838,0
1.6868255,4.3226528,0.12412024,0.59607565,0.66760486,-0.44609153,0
-3.837131,-0.025863767,-0.4772284,-0.97267747,-0.11170843,-0.20351863,0
3.5046692,0.34239793,-2.7539277,0.80224872,0.53860354,-0.25749406,0
0.41018963,1.1129668,3.427768,-0.22480404,0.67212296,0.70548838,0
0.91046411,2.3533731,2.1902642,-0.22480404,0.67212296,0.70548838,0
-0.90679681,2.562319,1.4821911,-0.22480404,0.67212296,0.70548838,0
2.0427709,-1.6347094,-2.1752338,0.22480404,-0.67212296,-0.70548838,0
-1.8771002,-3.151473,1.3870831,-0.53405744,-0.69057548,0.48773786,0
1.7560205,-3.17048,-0.78071785,0.22480404,-0.67212296,-0.70548838,0
2.5053301,1.2619399,3.7370749,-0.22480404,0.67212296,0.70548838,0
3.7060282,-0.65222692,-2.4246621,0.22480404,-0.67212296,-0.70548838,0
0.82477039,-2.3812265,-1.7048643,0.22480404,-0.67212296,-0.70548838,0
2.3853712,-3.4741461,1.0122936,0.49621886,-0.54413652,0.67652237,0
2.8510115,0.23310041,-3.6169415,0.22480404,-0.67212296,-0.70548838,0
2.0706787,-1.1391177,-2.4234791,0.22480404,-0.67212296,-0.70548838,0
0.87248701,3.0280414,1.6789366,-0.22480404,0.67212296,0.70548838,0
-3.0842338,-0.06576705,-2.3077018,-0.89673567,0.14055616,-0.41965371,0
3.1744606,1.5943491,-1.3866088,0.81410927,0.52740419,-0.24304506,0
-3.2690747,2.9120283,-0.47152162,-0.72034568,0.37292907,-0.58483005,0
0.25282228,-3.9538467,-0.50901198,0.22480404,-0.67212296,-0.70548838,0
1.295676,-3.0315282,-0.98769832,0.22480404,-0.67212296,-0.70548838,0
-1.0112542,-1.5230677,-3.0876205,0.22480404,-0.67212296,-0.70548838,0
-1.41134,-2.2273052,2.7783871,-0.3422001,-0.73236072,0.58868235,0
1.855547,2.9522367,-1.3944836,0.53505981,0.69024622,-0.4871048,0
-2.2058387,2.9544241,0.87132192,-0.22480404,0.67212296,0.70548838,0
-3.0196609,2.5756295,0.71572495,-0.22480404,0.67212296,0.70548838,0
1.3085097,-3.1896863,-0.8818022,0.22480404,-0.67212296,-0.70548838,0
-2.1463494,0.71150732,2.7896881,-0.22480404,0.67212296,0.70548838,0
-2.0958114,3.0822847,0.50658131,-0.22480404,0.67212296,0.70548838,0
-1.715503,-3.254565,1.4156804,-0.49064273,-0.7036171,0.51399678,0
-0.200598,3.3816168,-1.9777616,0.0019078255,0.72432268,-0.68945861,0
2.5764871,-0.54551148,-2.9593937,0.22480404,-0.67212296,-0.70548838,0
0.87714744,-1.6631869,-2.317591,0.22480404,-0.67212296,-0.70548838,0
-0.91618037,-4.2150326,0.46960646,-0.37328553,-0.72818929,0.57480282,0
-1.5403428,-1.1739758,3.8148901,-0.29644108,-0.73687643,0.60756558,0
-1.975034,0.47388718,-3.5962198,-0.62404215,0.45674792,-0.63399762,0
-1.8112335,3.9968238,-0.13886929,-0.22480404,0.67212296,0.70548838,0
3.7996647,0.68471003,-0.40584826,0.9564805,0.29044253,0.028076291,0
-3.6345479,1.2759345,1.8006616,-0.22480404,0.67212296,0.70548838,0
-2.059155,-1.4568748,-3.5150297,0.22480404,-0.67212296,-0.70548838,0
2.9016972,2.8753457,2.5367985,-0.22480404,0.67212296,0.70548838,0
-1.6439542,2.1209126,1.7731273,-0.22480404,0.67212296,0.70548838,0
-0.38906288,4.5946479,-0.15427613,-0.22480404,0.67212296,0.70548838,0
4.0318193,-0.30889606,-2.5953975,0.22480404,-0.67212296,-0.70548838,0
-3.6152678,-0.66967583,1.8640841,-0.86406481,-0.47216678,0.17450178,0
-1.4067913,3.397527,0.54356766,-0.22480404,0.67212296,0.70548838,0
0.51019239,0.23318028,-4.1739626,0.22480404,-0.67212296,-0.70548838,0
2.0906539,-1.7766585,-2.0126252,0.22480404,-0.67212296,-0.70548838,0
3.5982513,-2.5534236,0.095369339,0.82519472,-0.25371265,0.50466204,0
1.7917633,2.8551426,2.077255,-0.22480404,0.67212296,0.70548838,0
2.2883577,-1.6234972,-1.9985499,0.22480404,-0.67212296,-0.70548838,0
0.75056863,-1.0550555,4.006772,0.29761076,-0.64206189,0.70652992,0
-0.68322384,3.1928577,1.1191863,-0.22480404,0.67212296,0.70548838,0
2.3103178,-2.7648506,1.4994106,0.56289673,-0.50141126,0.65706462,0
-2.8664274,-2.8453987,-0.25497842,-0.84376955,-0.49640077,0.20405668,0
0.83179545,-0.3546524,-3.5933924,0.22480404,-0.67212296,-0.70548838,0
-2.2110033,4.1349702,-0.33564591,-0.22480404,0.67212296,0.70548838,0
-3.8426414,0.04699254,2.861563,-0.8320142,-0.5092482,0.22004229,0
-2.8653183,-0.95489597,2.8930075,-0.65227997,-0.64166975,0.4034735,0
2.6810632,-0.23317671,-3.1276865,0.22480404,-0.67212296,-0.70548838,0
2.8411274,0.041976452,-3.5155852,0.22480404,-0.67212296,-0.70548838,0
-1.1158566,-0.31434762,4.2889938,-0.22480404,0.67212296,0.70548838,0
2.3324411,2.1342802,3.0392125,-0.22480404,0.67212296,0.70548838,0
0.57640064,-3.9811306,-0.26282942,0.22480404,-0.67212296,-0.70548838,0
-0.60177612,-0.56988549,-3.8576868,0.22480404,-0.67212296,-0.70548838,0
-0.025102615,4.3935714,0.060696304,-0.22480404,0.67212296,0.70548838,0
-0.7550838,-0.4576838,-4.0911126,0.22480404,-0.67212296,-0.70548838,0
1.722997,2.3513858,-2.3955119,0.43775427,0.71650648,-0.54312956,0
1.0437977,1.8155255,2.7397161,-0.22480404,0.67212296,0.70548838,0
0.28658581,-3.843339,-0.55115169,0.22480404,-0.67212296,-0.70548838,0
3.477982,0.39952379,1.1353214,0.96648574,0.061690181,0.24919826,0
-2.1238074,-2.6152868,1.6177609,-0.5574733,-0.68253654,0.47261769,0
0.77423477,1.0702236,-4.1644278,0.065949798,0.73285532,-0.67718077,0
2.9506342,-1.4295671,1.970731,0.76727307,-0.32418859,0.55334806,0
-1.3873379,-4.505517,-0.19101313,-0.52173895,-0.69451499,0.4954164,0
-2.817807,-3.2445352,-1.1015826,-0.88382423,-0.44549388,0.14279395,0
1.3861601,-2.5221343,-1.4547883,0.22480404,-0.67212296,-0.70548838,0
3.8174336,0.29836059,-1.8228135,0.89329851,0.43135297,-0.12630284,0
0.97744405,1.4253702,3.2245491,-0.22480404,0.67212296,0.70548838,0
-2.9837189,-2.7180679,-1.3238983,-0.94119996,-0.33717698,0.021316946,0
-4.0486803,1.6497872,0.43633747,-0.94821185,0.015844822,-0.31724334,0
0.64981842,2.1059673,-3.2202547,0.096735716,0.73583806,-0.67021239,0
-0.28877878,1.5295491,2.5900168,-0.22480404,0.67212296,0.70548838,0
0.15823483,-1.0370526,-3.1959214,0.22480404,-0.67212296,-0.70548838,0
2.3457484,-0.50474262,-3.1572425,0.22480404,-0.67212296,-0.70548838,0
-0.54346895,1.4444345,-3.8240459,-0.25898242,0.65676498,-0.70822871,0
-2.5432281,-3.3693607,-1.984099,0.22480404,-0.67212296,-0.70548838,0
-2.1483109,-2.8745933,1.3578843,-0.60031152,-0.66583109,0.44305196,0
-4.153172,1.8746982,1.071126,-0.22480404,0.67212296,0.70548838,0
3.3247466,0.37756664,1.8602972,0.94120002,-0.037614822,0.33574939,0
-3.1165948,-2.2435765,-0.17765164,-0.88737261,-0.44031304,0.13672739,0
-2.7848983,-3.3333414,-1.0578729,-0.87172681,-0.46222931,0.16259265,0
2.398015,-0.13164577,3.3709149,0.73507041,-0.35829711,0.57558209,0
0.57851386,4.4245291,0.12450451,-0.22480404,0.67212296,0.70548838,0
0.4764024,-3.6828351,-0.59369594,0.22480404,-0.67212296,-0.70548838,0
2.1509368,3.7375627,0.0091990232,0.6703248,0.63214958,-0.38865361,0
3.1035404,1.2492677,-2.1330013,0.76620668,0.56923413,-0.29816082,0
-2.8849232,3.2564993,-0.61097527,-0.62841845,0.45332369,-0.63212979,0
-2.9271834,-2.8568127,-2.4987552,0.22480404,-0.67212296,-0.70548838,0
-3.1182289,0.16021246,-2.243974,-0.88369429,0.16442183,-0.43823504,0
1.6741446,4.4377112,0.40784031,0.59652287,0.6674189,-0.44577178,0
-1.357342,-0.56381273,-4.2701674,0.22480404,-0.67212296,-0.70548838,0
-0.097635508,0.52782607,3.7472899,-0.22480404,0.67212296,0.70548838,0
1.9551874,-2.9568622,-0.93391287,0.22480404,-0.67212296,-0.70548838,0
-2.0047638,3.1719244,0.70413303,-0.22480404,0.67212296,0.70548838,0
-1.4543037,4.0118814,-1.1606698,-0.27149689,0.65214294,-0.70781302,0
3.0297089,-0.70594692,2.0233538,0.82449216,-0.25465441,0.50533533,0
2.5649142,1.4393609,-2.809464,0.57174212,0.67726904,-0.46305254,0
3.3094273,0.55655193,-3.0361667,0.70715928,0.61064351,-0.35642728,0
0.61011612,-1.2989597,-2.7786415,0.22480404,-0.67212296,-0.70548838,0
-2.5415692,-0.79718566,3.7064571,-0.52292061,-0.69414556,0.49468791,0
2.578464,2.2141666,-1.6957506,0.66525954,0.63488555,-0.39287424,0
-3.4638672,-1.569068,-1.3255849,-0.972027,-0.20522881,-0.11421388,0
-2.4968622,2.0937872,1.4613836,-0.22480404,0.67212296,0.70548838,0
3.1046655,2.3276834,1.313441,0.95075905,0.3098335,0.0077793002,0
-3.9847829,2.7115271,0.31504965,-0.87283713,0.18294534,-0.4524228,0
-0.54675364,4.4001293,-0.042090416,-0.22480404,0.67212296,0.70548838,0
-1.7715473,-3.1288321,-1.7066661,0.22480404,-0.67212296,-0.70548838,0
-3.9295263,2.4485717,0.55564857,-0.89567673,0.14256862,-0.42123348,0
3.1025386,0.048975468,-3.2418361,0.22480404,-0.67212296,-0.70548838,0
3.4211941,-2.9232016,0.5114429,0.74801439,-0.34495306,0.56699377,0
2.3973315,4.0080028,1.1701361,-0.22480404,0.67212296,0.70548838,0
-2.5700638,0.24873114,3.1016247,-0.22480404,0.67212296,0.70548838,0
0.8542105,1.4678829,3.1402724,-0.22480404,0.67212296,0.70548838,0
3.576499,0.88694859,-1.0611613,0.91396958,0.39646152,-0.086474717,0
2.1455793,-1.5348388,2.6757309,0.57470542,-0.49322352,0.653027,0
2.6185944,2.8998013,-0.38539004,0.74445355,0.58561301,-0.32069683,0
-0.93338633,-1.0533776,-3.5242937,0.22480404,-0.67212296,-0.70548838,0
3.4613957,1.2594174,-0.14537144,0.94121087,0.33714861,-0.021286428,0
-0.98640203,1.1908216,-3.8066213,-0.38606274,0.60333109,-0.69781613,0
-0.31132245,1.0989256,3.1168494,-0.22480404,0.67212296,0.70548838,0
2.0022559,-3.0459723,-0.77450061,0.22480404,-0.67212296,-0.70548838,0
-2.6486986,-2.8224242,0.3141973,-0.75864953,-0.57508773,0.3061457,0
2.9162431,1.8604312,2.9411187,0.95482051,0.0075212419,0.29708821,0
-1.7542391,-1.2261676,3.8043802,-0.34857267,-0.7315799,0.58590782,0
-3.1374836,-1.2862692,-2.2287014,-0.96020508,-0.02965489,-0.27771717,0
-3.0398431,0.18572807,-2.5214064,-0.84384072,0.22774601,-0.485865,0
-2.5884447,3.1530337,0.49501801,-0.22480404,0.67212296,0.70548838,0
2.4124475,2.7394195,-1.0415039,0.69669127,0.61705649,-0.36587262,0
0.058170795,-1.7340407,3.6667044,0.07892704,-0.70908111,0.70069587,0
1.8018363,1.5588241,-3.3398471,0.38857269,0.72579736,-0.5676527,0
-2.7659833,1.5570931,1.7963116,-0.22480404,0.67212296,0.70548838,0
3.7283597,-2.0426238,-0.97990012,0.22480404,-0.67212296,-0.70548838,0
-1.5462844,-3.8301992,-0.98509395,0.22480404,-0.67212296,-0.70548838,0
1.617106,3.5517423,-0.97466987,0.52193433,0.69445407,-0.49529606,0
2.3187494,1.4657594,-2.8316627,0.54626775,0.6864754,-0.47994083,0
0.11151934,1.5325842,2.9544387,-0.22480404,0.67212296,0.70548838,0
0.3005265,-2.6522329,-1.6533225,0.22480404,-0.67212296,-0.70548838,0
2.1266034,-0.16330051,-3.4298592,0.22480404,-0.67212296,-0.70548838,0
-2.3923302,-3.5254192,-0.4382236,-0.76130247,-0.5730533,0.30336216,0
-3.052983,-1.8675306,0.78533041,-0.83131456,-0.50998837,0.22097051,0
-1.1143216,2.0834935,1.9585292,-0.22480404,0.67212296,0.70548838,0
1.3729157,-0.56703866,-3.2577181,0.22480404,-0.67212296,-0.70548838,0
3.6262455,-0.75931358,1.1114151,0.9138974,-0.10572305,0.39193648,0
-1.7322797,-3.0037591,-1.8150926,0.22480404,-0.67212296,-0.70548838,0
-1.3541842,1.5306418,2.3111031,-0.22480404,0.67212296,0.70548838,0
-0.36531124,2.493999,1.8735075,-0.22480404,0.67212296,0.70548838,0
-4.2836809,1.1189072,1.7552533,-0.22480404,0.67212296,0.70548838,0
2.5362144,-1.4117452,2.5014288,0.66950285,-0.41951001,0.61300695,0
-3.3276091,-2.1711209,-0.62837362,-0.93631619,-0.34945244,0.034568071,0
1.6043587,2.5646875,-2.2874231,0.439789,0.71606779,-0.54206324,0
2.3211942,-1.5895565,2.4693875,0.62035179,-0.45961028,0.63554865,0
-0.88769269,0.43399084,-4.5423799,-0.42279458,0.58503127,-0.69208634,0
1.2300959,3.2961264,-1.639581,0.35677415,0.730519,-0.58228368,0
-0.12863159,-4.2936335,0.68210804,-0.19234872,-0.74038374,0.64407605,0
-0.18677425,-1.8178508,3.5307906,0.01162076,-0.72211963,0.69167066,0
-1.7778399,-1.7910398,-3.0349672,0.22480404,-0.67212296,-0.70548838,0
1.7471383,0.17149907,4.2730312,0.62090689,-0.45918122,0.63531679,0
3.6017332,-1.4216232,-1.8081322,0.22480404,-0.67212296,-0.70548838,0
-1.6251359,1.3088065,2.6033444,-0.22480404,0.67212296,0.70548838,0
2.3235755,0.21873856,-3.8416905,0.22480404,-0.67212296,-0.70548838,0
-3.221292,-0.27822644,-1.8536651,-0.92680532,0.07603392,-0.36776465,0
2.5986872,-2.1395347,-1.2554559,0.22480404,-0.67212296,-0.70548838,0
0.27813554,4.2402935,-1.0196812,0.18926466,0.7403506,-0.64502716,0
3.3462548,1.5071588,0.91136217,0.96546638,0.25148132,0.068058252,0
2.5573745,-1.9533861,1.9369359,0.67114556,-0.41809162,0.61217904,0
-2.6507373,0.90697789,2.5308321,-0.22480404,0.67212296,0.70548838,0
0.82342744,-0.8450191,4.2864442,0.35305691,-0.61863804,0.70188177,0
-3.3097131,0.30988151,-1.8747094,-0.89342833,0.14679509,-0.42454362,0
-3.133585,-1.4648924,1.4765364,-0.81622714,-0.52533817,0.24040186,0
-1.6450453,-2.7026694,-2.2115726,0.22480404,-0.67212296,-0.70548838,0
-1.2875372,-1.7249637,-2.9682071,0.22480404,-0.67212296,-0.70548838,0
-3.2141285,-2.1012936,0.18915892,-0.86311954,-0.47336018,0.17593992,0
-0.98852098,-1.2427613,-3.3844082,0.22480404,-0.67212296,-0.70548838,0
-1.5274194,3.3910532,0.61749971,-0.22480404,0.67212296,0.70548838,0
-2.1296771,2.2472317,-2.2142367,-0.53399312,0.520639,-0.66617286,0
1.097671,-0.071157336,-3.9539919,0.22480404,-0.67212296,-0.70548838,0
3.266315,1.4300822,1.8042905,0.97206283,0.10453236,0.21015942,0
0.54794717,4.4865847,-0.60624558,0.2810263,0.73797703,-0.61352605,0
3.196063,0.93873233,2.4885292,0.93879437,-0.044545352,0.3415857,0
-4.0286031,1.1621474,-0.097231865,-0.94949841,0.011547565,-0.31355929,0
-3.4253144,-0.71321678,-1.8128123,-0.9535256,-0.002666831,-0.30130047,0
0.472579,-0.46904784,4.6341553,0.29455173,-0.64327359,0.7067095,0
0.54049683,1.1438322,-4.0865254,0.027248263,0.72807348,-0.68495733,0
0.15408564,1.4994757,-3.9506171,-0.077037811,0.70949435,-0.70048767,0
0.30223942,4.472559,-0.01831615,-0.22480404,0.67212296,0.70548838,0
1.4101791,-2.4895918,-1.3959858,0.22480404,-0.67212296,-0.70548838,0
-2.9489017,0.28969455,2.9618025,-0.22480404,0.67212296,0.70548838,0
1.0277275,-2.6717122,-1.261863,0.22480404,-0.67212296,-0.70548838,0
-2.5171342,0.87196779,2.5415623,-0.22480404,0.67212296,0.70548838,0
-2.7544279,-1.3326762,-3.4779301,-0.9031204,0.12811023,-0.40983093,0
-1.0897413,2.8645971,1.0936785,-0.22480404,0.67212296,0.70548838,0
1.0103173,2.0640295,2.5651131,-0.22480404,0.67212296,0.70548838,0
-1.7756895,0.95439816,2.7446423,-0.22480404,0.67212296,0.70548838,0
2.2245612,-0.64244658,3.4248195,0.65894777,-0.4284972,0.61820573,0
3.2028179,-0.31747508,-2.8998876,0.22480404,-0.67212296,-0.70548838,0
0.74550343,-0.016490221,4.6029663,-0.22480404,0.67212296,0.70548838,0
2.1378818,-1.1284469,-2.5522244,0.22480404,-0.67212296,-0.70548838,0
1.446712,-0.87830007,-2.9039435,0.22480404,-0.67212296,-0.70548838,0
-1.9668043,3.8026206,-1.1313336,-0.38408953,0.60427588,-0.69808745,0
-1.593045,-0.79163617,-4.1222959,0.22480404,-0.67212296,-0.70548838,0
-0.65992677,-2.0686247,-2.6175194,0.22480404,-0.67212296,-0.70548838,0
3.021503,0.056497335,-3.2506506,0.22480404,-0.67212296,-0.70548838,0
-3.0708394,-2.8273034,-1.5559006,-0.9475199,-0.31968623,0.0026395917,0
-0.56066537,2.9918308,-2.2565823,-0.13934189,0.69440454,-0.70596468,0
2.2390213,-3.4722402,-0.11873007,0.22480404,-0.67212296,-0.70548838,0
0.87842822,2.2047827,-2.8646822,0.20174468,0.74043739,-0.64113307,0
3.4166546,1.1306192,0.93925714,0.97227323,0.20258108,0.11681485,0
-0.50764251,-4.1074743,1.0621856,-0.24002022,-0.73990774,0.6284321,0
-0.7282694,-2.7600534,-1.7673048,0.22480404,-0.67212296,-0.70548838,0
-1.6578596,1.564554,2.1009128,-0.22480404,0.67212296,0.70548838,0
-2.9292965,-0.53999043,3.5528238,-0.61648774,-0.65879679,0.43119577,0
-2.1207085,1.4618036,2.1324513,-0.22480404,0.67212296,0.70548838,0
-0.92483401,-4.4931402,0.23958001,-0.41846991,-0.72044635,0.55302811,0
1.1228936,-3.3819621,1.8642821,0.21025789,-0.6735037,0.70864975,0
3.430912,-3.1203818,0.25328064,0.74661332,-0.34642035,0.56794518,0
2.3447185,3.6538534,0.60697186,0.77686298,0.560664,-0.28660044,0
0.95612526,-4.4788146,0.43304396,0.22480404,-0.67212296,-0.70548838,0
-0.51553434,-3.5251536,-1.0050455,0.22480404,-0.67212296,-0.70548838,0
1.6434746,-0.65346551,3.752465,0.53764349,-0.5182724,0.66508132,0
3.1399333,-1.7743278,1.4737861,0.77862555,-0.31139106,0.54477328,0
-3.8930163,0.075006366,-0.29172111,-0.97259259,-0.11064973,-0.20450008,0
3.7623348,-0.34073412,0.42380834,0.96391892,0.047468662,0.26192921,0
2.3597007,-1.0139287,-2.5369287,0.22480404,-0.67212296,-0.70548838,0
-0.33427191,-3.2511616,2.0656447,-0.1128273,-0.73710555,0.66629237,0
-2.7801666,3.0048044,0.36271214,-0.22480404,0.67212296,0.70548838,0
-1.5999286,0.20563358,-4.2664771,-0.57519728,0.49287823,-0.65285474,0
-2.5952928,2.3879423,-1.6467791,-0.64071333,0.44352674,-0.62671411,0
-0.89383936,-3.7608283,-1.0215416,0.22480404,-0.67212296,-0.70548838,0
1.7725875,1.4922435,3.3156104,-0.22480404,0.67212296,0.70548838,0
-1.4619303,2.8922007,-1.9980726,-0.33091044,0.62833059,-0.704059,0
-0.75427699,4.2780104,-0.064454317,-0.22480404,0.67212296,0.70548838,0
-3.5031717,-0.96316516,1.0850105,-0.88826311,-0.4389917,0.13518482,0
-0.28925037,0.11087823,-4.4836454,0.22480404,-0.67212296,-0.70548838,0
0.86930168,-1.6383505,-2.3367918,0.22480404,-0.67212296,-0.70548838,0
-3.4491625,-0.68528068,-1.3937678,-0.96685696,-0.06392619,-0.2471863,0
3.5882907,-2.0001836,0.45341778,0.86628342,-0.19362018,0.46050441,0
-2.1260672,-3.8174536,-1.24236,0.22480404,-0.67212296,-0.70548838,0
2.5301003,-0.73451483,2.8379829,0.74518311,-0.34791213,0.56891072,0
-1.9401059,-1.6699764,-3.2814798,0.22480404,-0.67212296,-0.70548838,0
-0.91044617,1.326252,-3.6003244,-0.3368926,0.62575728,-0.70351362,0
3.7143967,0.18896747,0.23799491,0.97397316,0.13346538,0.18320352,0
3.4886057,-0.65076756,-2.551697,0.22480404,-0.67212296,-0.70548838,0
2.9434297,-3.2663851,-0.28589129,0.22480404,-0.67212296,-0.70548838,0
0.62557983,1.9152489,2.5740905,-0.22480404,0.67212296,0.70548838,0
0.94213772,-1.2971261,-2.765111,0.22480404,-0.67212296,-0.70548838,0
0.79951632,-3.0693259,-1.1295383,0.22480404,-0.67212296,-0.70548838,0
0.97550058,-0.84486055,-3.2269702,0.22480404,-0.67212296,-0.70548838,0
-1.2565191,4.0531316,-0.95450878,-0.17330176,0.68489838,-0.70772934,0
1.2374414,-1.3571339,-2.6128025,0.22480404,-0.67212296,-0.70548838,0
0.24916816,-0.13635981,-4.1133699,0.22480404,-0.67212296,-0.70548838,0
2.8513567,1.874553,3.2907453,-0.22480404,0.67212296,0.70548838,0
3.0116949,2.6248877,2.0493093,0.96793491,0.2373264,0.082330346,0
-2.8986027,3.5661693,-0.51234627,-0.62246919,0.45797074,-0.63466138,0
4.0364475,-0.79251361,-0.42889738,0.97131491,0.096967101,0.21712846,0
0.32182741,1.4772496,-4.0307512,-0.041989684,0.71666574,-0.69615173,0
2.6104622,-0.66766834,-2.7687883,0.22480404,-0.67212296,-0.70548838,0
-4.079071,2.1539755,0.89700913,-0.22480404,0.67212296,0.70548838,0
-3.9200087,-0.21280503,0.7567215,-0.95931309,-0.27959412,-0.03931427,0
-1.6923467,1.309828,2.4040973,-0.22480404,0.67212296,0.70548838,0
2.9844766,1.6396453,-1.9288864,0.74293107,0.586707,-0.32222411,0
-3.8649607,2.2236614,0.18468094,-0.89719152,0.1396856,-0.41896957,0
1.7096155,4.3816214,0.26512438,0.59583843,0.66770339,-0.44626102,0
0.11834908,0.74384665,-4.5401211,-0.13542974,0.69544119,-0.70570564,0
-1.5207291,4.3901434,-0.29875827,-0.22480404,0.67212296,0.70548838,0
2.8642292,-1.4395576,-2.074492,0.22480404,-0.67212296,-0.70548838,0
0.83374548,-0.96534121,-2.9776187,0.22480404,-0.67212296,-0.70548838,0
-2.8584406,-0.96516436,-3.213413,-0.88450283,0.16299662,-0.4371348,0
-1.2806959,-4.1568766,-0.65633893,0.22480404,-0.67212296,-0.70548838,0
-2.2571909,4.1921716,-0.3547616,-0.22480404,0.67212296,0.70548838,0
-0.92283297,4.4175687,-0.86722529,-0.093135118,0.70588422,-0.70217764,0
2.399087,0.89997703,4.047533,0.8112756,-0.27192628,0.5175789,0
-0.15132135,3.1988854,1.0361332,-0.22480404,0.67212296,0.70548838,0
4.1382489,-1.6011083,-0.54557681,0.95140296,-0.0049796999,0.30790889,0
1.0589939,-4.3864975,0.15879703,0.22480404,-0.67212296,-0.70548838,0
-3.289525,0.1227169,3.0119758,-0.22480404,0.67212296,0.70548838,0
-3.4487257,-1.500626,0.78322577,-0.87638748,-0.45594227,0.15511793,0
-2.7296996,-2.4431584,0.74920273,-0.77489674,-0.56227434,0.28876117,0
-2.0286016,3.3070579,-1.4630828,-0.43786722,0.57711935,-0.68935156,0
-2.7972376,3.1313915,-0.78334808,-0.63488126,0.44820681,-0.6293143,0
0.10177875,0.25048792,3.9976916,-0.22480404,0.67212296,0.70548838,0
-2.9713514,-1.2902074,2.5999427,-0.69204456,-0.61982405,0.36998996,0
1.2366755,3.0743041,1.6825542,-0.22480404,0.67212296,0.70548838,0
1.4038005,0.12576795,-3.9122779,0.22480404,-0.67212296,-0.70548838,0
-1.4978689,4.1811213,-0.79838133,-0.26296669,0.65530801,-0.70811021,0
2.7234368,3.5056129,1.3782011,0.88993704,0.43648434,-0.13226271,0
0.49513301,2.7713623,1.8171636,-0.22480404,0.67212296,0.70548838,0
-1.7651749,2.8282509,-1.9005387,-0.43654352,0.57782388,-0.68960094,0
-2.7993181,2.4980285,-1.1588187,-0.68019676,0.4101786,-0.60752439,0
3.9945302,-2.5929275,-0.56708002,0.22480404,-0.67212296,-0.70548838,0
0.976861,0.66861892,-4.5518498,0.22480404,-0.67212296,-0.70548838,0
-2.1595771,-2.502562,2.0334985,-0.53808975,-0.68924326,0.48518381,0
1.327853,3.1598878,-1.8481617,0.37360275,0.72814202,-0.57465672,0
-1.8745401,2.8354301,-1.74156,-0.4520539,0.5694508,-0.68656629,0
2.2256651,-2.7416224,1.7117422,0.5023576,-0.54043788,0.67495477,0
-2.5010161,-2.5452805,-2.5948234,0.22480404,-0.67212296,-0.70548838,0
-0.48143589,-3.8452404,-0.86908579,0.22480404,-0.67212296,-0.70548838,0
-0.20050335,-0.34571946,4.652247,-0.22480404,0.67212296,0.70548838,0
-1.7464793,3.8224003,-0.0082695484,-0.22480404,0.67212296,0.70548838,0
1.331409,-2.0670736,2.8598905,0.37858784,-0.60688996,0.69882476,0
-2.6677852,-1.6311378,2.165288,-0.67180187,-0.63134217,0.38741374,0
-2.5970125,0.093045831,-3.1900392,-0.77440131,0.31620401,-0.54801261,0
-1.4633615,2.5583715,-2.2889881,-0.3588146,0.61604303,-0.70124412,0
1.3276222,4.314393,0.70067203,-0.22480404,0.67212296,0.70548838,0
0.41918242,3.187881,1.2467456,-0.22480404,0.67212296,0.70548838,0
-0.9768613,3.4757147,0.56898367,-0.22480404,0.67212296,0.70548838,0
2.0093219,-3.8482389,-0.072282553,0.22480404,-0.67212296,-0.70548838,0
-1.3634502,-2.1678476,-2.5255814,0.22480404,-0.67212296,-0.70548838,0
3.7802043,-2.3421493,-0.095491886,0.87911081,-0.17237744,0.44435388,0
2.588944,3.1903346,0.1914196,0.79149985,0.54824448,-0.27010423,0
-1.3890457,-0.92184663,4.4255576,-0.18507957,-0.74029326,0.64630616,0
-1.4871905,3.3395562,-1.5653389,-0.32839334,0.62940359,-0.70427918,0
-1.3967165,3.8981371,0.020258188,-0.22480404,0.67212296,0.70548838,0
1.349643,-0.9843843,-2.8969641,0.22480404,-0.67212296,-0.70548838,0
-0.62100649,3.3318374,-1.897807,-0.12535959,0.69805413,-0.70498621,0
0.99954456,-1.8772393,-2.0243039,0.22480404,-0.67212296,-0.70548838,0
-0.20033932,4.3016009,0.16262382,-0.22480404,0.67212296,0.70548838,0
-2.4206178,-0.055589199,-3.4246004,-0.76113403,0.33093196,-0.55781633,0
-1.9210031,-1.3594904,-3.5660796,0.22480404,-0.67212296,-0.70548838,0
-2.476459,-3.2076406,0.10941219,-0.74145716,-0.58775985,0.32369688,0
-2.614362,2.9550867,-1.3380661,-0.58044839,0.48916906,-0.65099424,0
-2.5063732,0.57550693,2.9290235,-0.22480404,0.67212296,0.70548838,0
-0.42843962,3.3600225,-1.9496405,-0.070904255,0.71081746,-0.6997937,0
1.1647487,3.8235557,1.1023742,-0.22480404,0.67212296,0.70548838,0
0.61823606,1.5432382,2.9965184,-0.22480404,0.67212296,0.70548838,0
1.929163,-2.5885749,-1.2879833,0.22480404,-0.67212296,-0.70548838,0
3.6179123,-0.11765242,-3.1118455,0.22480404,-0.67212296,-0.70548838,0
-0.013198376,-4.3918939,0.61200899,-0.16645586,-0.73986745,0.65183491,0
-0.9839195,3.7049036,0.37011814,-0.22480404,0.67212296,0.70548838,0
3.9913774,-1.8709006,-1.1453495,0.22480404,-0.67212296,-0.70548838,0
-0.69483018,-3.3840013,1.5578439,-0.26085109,-0.73910606,0.62103057,0
0.017429829,-4.2162056,1.0202355,-0.13056111,-0.73826891,0.66174984,0
-2.6828768,-3.2203794,-2.1269202,0.22480404,-0.67212296,-0.70548838,0
-0.098638177,-2.0283601,-2.3885603,0.22480404,-0.67212296,-0.70548838,0
-1.9598198,-3.9013484,-0.043394566,-0.63786978,-0.64883518,0.41489184,0
1.42734,-3.5137701,1.6191878,0.26598251,-0.65419614,0.70801198,0
1.644249,-1.1615425,-2.7633123,0.22480404,-0.67212296,-0.70548838,0
-2.0226011,-1.4032423,3.44121,-0.44260901,-0.71545255,0.54057842,0
0.98242235,-0.58587289,-3.4810228,0.22480404,-0.67212296,-0.70548838,0
-0.25580817,-3.386704,-1.0166078,0.22480404,-0.67212296,-0.70548838,0
-2.57408,-0.73402053,-3.7333598,-0.82804745,0.2498623,-0.50190282,0
-0.35244346,3.3320637,-1.9970642,-0.051829338,0.71474743,-0.69745952,0
-4.1951761,1.5232141,1.5840657,-0.22480404,0.67212296,0.70548838,0
-3.5861397,-0.62568879,2.0070477,-0.8492434,-0.49013722,0.19634509,0
-2.1526742,-3.5903053,0.036353707,-0.68883365,-0.62170887,0.37280887,0
-1.3579443,2.9199502,1.1202364,-0.22480404,0.67212296,0.70548838,0
3.6315536,-1.9788132,-1.1046069,0.22480404,-0.67212296,-0.70548838,0
1.88252,-1.2079219,3.3051953,0.56423652,-0.50049233,0.65661615,0
-2.7852199,-2.2303503,1.1553202,-0.73063648,-0.59530699,0.33433509,0
1.5542824,-2.9469111,1.8616651,0.33227801,-0.62774521,0.70393711,0
3.4649746,1.1848388,-1.6753684,0.83666372,0.50426114,-0.21380955,0
-3.136833,2.9736586,-0.67036843,-0.68913436,0.40219796,-0.60276914,0
-4.0281215,1.4370315,1.6362307,-0.22480404,0.67212296,0.70548838,0
1.7604141,-2.0089245,-1.8690913,0.22480404,-0.67212296,-0.70548838,0
-2.4496651,-3.3331449,0.17090595,-0.72461414,-0.59937268,0.34012759,0
2.6100116,-1.091424,-2.286396,0.22480404,-0.67212296,-0.70548838,0
2.5058548,-2.3271713,-1.2486624,0.22480404,-0.67212296,-0.70548838,0
3.950778,-1.793519,-1.1812894,0.22480404,-0.67212296,-0.70548838,0
-1.7708371,-4.2117529,-0.84883595,0.22480404,-0.67212296,-0.70548838,0
-4.3023567,1.3284669,1.3444233,-0.97430927,-0.16515106,-0.15312338,0
2.6366353,-3.1794882,1.0956898,0.56310517,-0.50126851,0.65699506,0
-3.4948955,1.1155348,-1.1776495,-0.86731458,0.19196397,-0.45925522,0
-2.1885486,2.7229295,-1.6854744,-0.53214216,0.52183247,-0.66672015,0
-0.089069128,4.1639609,0.34790039,-0.22480404,0.67212296,0.70548838,0
-3.5649791,-0.87454641,0.097057343,-0.95982963,-0.27750212,-0.041471899,0
2.1754155,-0.5868001,-3.0508814,0.22480404,-0.67212296,-0.70548838,0
0.75590563,-0.29283953,4.7777405,0.38354468,-0.60453606,0.69816172,0
-2.9205585,3.1868119,-0.790833,-0.65325081,0.43325889,-0.62092686,0
-2.9138563,2.1402798,-1.405802,-0.71628064,0.37687129,-0.58729053,0
-0.81904745,-3.7701986,-0.90732253,0.22480404,-0.67212296,-0.70548838,0
-0.40940833,-3.5531952,1.464316,-0.19070077,-0.74036694,0.64458513,0
-1.3616107,1.9196326,2.0223241,-0.22480404,0.67212296,0.70548838,0
2.3164744,-0.25349629,3.3742213,0.70067233,-0.39163944,0.59638661,0
-0.59354138,4.1268921,0.02073288,-0.22480404,0.67212296,0.70548838,0
0.5674693,-2.1902499,-1.911034,0.22480404,-0.67212296,-0.70548838,0
-2.7477524,0.16007566,3.364548,-0.22480404,0.67212296,0.70548838,0
-3.6165559,-1.2562258,0.053706646,-0.94119495,-0.33719021,0.021331191,0
-0.074611902,4.1463804,0.40858775,-0.22480404,0.67212296,0.70548838,0
2.824296,1.6033273,3.2970452,0.93145758,-0.064348847,0.35811466,0
1.4619321,3.9091508,0.96063751,-0.22480404,0.67212296,0.70548838,0
3.0868368,-1.3388952,1.6830366,0.814744,-0.26747331,0.51444179,0
-3.2917514,0.77649271,-1.6098583,-0.86251366,0.19960383,-0.46500385,0
-0.2750988,-4.0208158,-0.63289285,0.22480404,-0.67212296,-0.70548838,0
-0.37395358,2.3625274,1.7652701,-0.22480404,0.67212296,0.70548838,0
-1.5668426,-1.5106157,3.6436906,-0.29130143,-0.73726654,0.60957497,0
0.84192264,1.6087244,3.0079045,-0.22480404,0.67212296,0.70548838,0
2.4494069,-3.5738907,0.0087404251,0.22480404,-0.67212296,-0.70548838,0
-2.7535205,-0.17946315,3.4928927,-0.22480404,0.67212296,0.70548838,0
4.0375338,-0.70638704,-0.74092054,0.97417337,0.17078194,0.14771551,0
2.5016651,-1.4124662,-2.2485526,0.22480404,-0.67212296,-0.70548838,0
-3.5425162,1.5554924,1.6328933,-0.22480404,0.67212296,0.70548838,0
1.2567358,2.2117999,2.5499287,-0.22480404,0.67212296,0.70548838,0
-0.51239455,4.2501426,0.15773475,-0.22480404,0.67212296,0.70548838,0
-3.1611583,1.8842489,-1.4598911,-0.76532841,0.32633767,-0.55477595,0
-4.1884069,1.1237483,1.4908261,-0.97328138,-0.18963251,-0.12947226,0
-3.7757494,-0.64628208,0.11002302,-0.96552956,-0.25114664,-0.068397224,0
0.91835523,-4.6420078,0.49986124,0.22480404,-0.67212296,-0.70548838,0
3.9442992,-1.4663358,-0.36612248,0.94635224,-0.021875113,0.32239586,0
2.1800542,-0.76303267,3.2887468,0.63756317,-0.44606215,0.62812573,0
-0.50416017,0.98454666,3.0622385,-0.22480404,0.67212296,0.70548838,0
-3.0183082,-2.6822689,-2.3634162,-0.96902794,-0.23016004,-0.08950609,0
-0.36710393,1.556958,2.5479169,-0.22480404,0.67212296,0.70548838,0
-1.9753269,2.0746808,-2.3108058,-0.51871032,0.53036076,-0.67056501,0
2.9174523,1.4330423,3.1126401,0.9310236,-0.065465033,0.35903972,0
2.1218033,-3.9040484,0.041103125,0.22480404,-0.67212296,-0.70548838,0
3.5084615,-1.1436584,-2.1047888,0.22480404,-0.67212296,-0.70548838,0
2.1600196,-3.5577087,1.0320263,0.44279361,-0.57448107,0.68840778,0
-2.8480937,-0.63950109,3.5222015,-0.59784114,-0.66686893,0.44482785,0
0.25077519,3.1439939,1.3711323,-0.22480404,0.67212296,0.70548838,0
-0.04858017,-1.8189497,3.4402177,0.057358265,-0.71363705,0.69816351,0
0.89939219,1.7664703,2.8255668,-0.22480404,0.67212296,0.70548838,0
-2.6077211,2.5552492,1.0376008,-0.22480404,0.67212296,0.70548838,0
1.438271,-4.1678557,0.098429203,0.22480404,-0.67212296,-0.70548838,0
2.5854928,-3.8122473,0.47725344,0.53475785,-0.5201447,0.66594559,0
-2.118772,2.1853313,1.4210869,-0.22480404,0.67212296,0.70548838,0
-0.66751575,1.4368514,2.6452672,-0.22480404,0.67212296,0.70548838,0
-3.983067,2.0284073,0.56114125,-0.92958724,0.069119722,-0.36206388,0
1.1291276,2.3048718,2.287864,-0.22480404,0.67212296,0.70548838,0
0.92149353,-0.82258904,-3.2785263,0.22480404,-0.67212296,-0.70548838,0
0.53857684,0.59674311,3.7588272,-0.22480404,0.67212296,0.70548838,0
-1.9950502,4.0816107,-0.23300576,-0.22480404,0.67212296,0.70548838,0
-1.1996908,-0.5984534,4.3249378,-0.22480404,0.67212296,0.70548838,0
-0.042798996,0.25374043,-4.5518246,0.22480404,-0.67212296,-0.70548838,0
0.98248434,-0.7500149,-3.1387453,0.22480404,-0.67212296,-0.70548838,0
-2.6551442,-0.5921129,-3.2402873,-0.85824114,0.20625558,-0.46997952,0
-2.5421097,-2.489809,-2.5546842,0.22480404,-0.67212296,-0.70548838,0
-4.2273345,1.925091,0.93795729,-0.22480404,0.67212296,0.70548838,0
3.3909426,-1.4310591,-1.8203564,0.22480404,-0.67212296,-0.70548838,0
0.76953828,2.77143,1.8905557,-0.22480404,0.67212296,0.70548838,0
-2.9780197,1.1659291,-2.0082068,-0.78969669,0.29847527,-0.53599614,0
-3.2017531,-0.095532119,-2.1817539,-0.90581262,0.12269029,-0.40552515,0
-0.70205593,-0.22540629,4.2361574,-0.22480404,0.67212296,0.70548838,0
-1.6143119,2.7604299,1.1754588,-0.22480404,0.67212296,0.70548838,0
-1.1399785,-2.1414759,-2.5681548,0.22480404,-0.67212296,-0.70548838,0
2.0475791,1.3935647,-3.6138296,0.40953857,0.72213989,-0.55748749,0
-3.0307653,1.9646454,-1.3238156,-0.74452716,0.34859437,-0.56935173,0
-1.0487838,-0.17680359,-4.4346533,0.22480404,-0.67212296,-0.70548838,0
1.7616236,-0.37043524,-3.429359,0.22480404,-0.67212296,-0.70548838,0
0.56826198,2.2018907,2.2893403,-0.22480404,0.67212296,0.70548838,0
1.9367347,1.1321892,3.7272987,-0.22480404,0.67212296,0.70548838,0
-0.24763441,1.0352687,-4.1185856,-0.19175035,0.67934829,-0.7083205,0
-0.30785561,-0.021064997,-4.3176999,0.22480404,-0.67212296,-0.70548838,0
-1.1660299,-1.6367971,3.6568646,-0.19092476,-0.74036932,0.64451611,0
-1.4380956,-2.0093155,2.9130669,-0.32526135,-0.73425364,0.59588325,0
1.9125662,1.2973678,3.7288661,-0.22480404,0.67212296,0.70548838,0
2.7581062,2.6239004,2.6123362,-0.22480404,0.67212296,0.70548838,0
-2.2669659,0.82812196,-3.0280726,-0.66499591,0.42337406,-0.61525208,0
-0.17252469,-4.7754154,0.30931711,-0.23554003,-0.74003255,0.62997854,0
-1.2787583,-3.7752318,-0.97217196,0.22480404,-0.67212296,-0.70548838,0
3.9989619,-0.07696557,-1.6626623,0.93475801,0.35318023,-0.038616121,0
-3.3521914,1.2740195,-1.1767516,-0.86644888,0.1933549,-0.46030456,0
-1.5004642,-3.7428548,-1.2329831,0.22480404,-0.67212296,-0.70548838,0
1.14158,2.9442315,1.7979368,-0.22480404,0.67212296,0.70548838,0
0.63764691,-3.1295247,2.1515822,0.13774472,-0.69482923,0.70586038,0
2.1379905,3.9045157,0.17550194,0.69185907,0.61993355,-0.37015331,0
0.75157523,3.5144837,1.2138101,-0.22480404,0.67212296,0.70548838,0
0.14990932,-3.1701968,-1.0540495,0.22480404,-0.67212296,-0.70548838,0
-2.2118998,-0.61065102,-4.0855665,-0.765266,0.32640642,-0.55482155,0
-2.9901674,-2.4726503,-0.35981655,-0.89289516,-0.4319756,0.12702459,0
-2.2357371,-3.2833221,-1.9138874,0.22480404,-0.67212296,-0.70548838,0
1.0185798,-2.4969015,-1.6125302,0.22480404,-0.67212296,-0.70548838,0
-2.1464,-2.8729367,1.3892632,-0.59943277,-0.66620141,0.44368476,0
-0.51926929,-2.5747018,-1.9484655,0.22480404,-0.67212296,-0.70548838,0
0.79143,3.1090369,1.6426774,-0.22480404,0.67212296,0.70548838,0
-1.3750287,-2.4979618,-2.2195857,0.22480404,-0.67212296,-0.70548838,0
-2.1089704,2.007684,-2.4286728,-0.54025865,0.51656616,-0.6642893,0
2.6186628,2.705018,2.429143,-0.22480404,0.67212296,0.70548838,0
-3.8175435,-0.25409913,1.1192861,-0.94083518,-0.33812746,0.022338748,0
-3.0947154,-1.8426164,0.69702864,-0.85124648,-0.48779714,0.19347745,0
-3.0417914,1.6949039,1.7228819,-0.22480404,0.67212296,0.70548838,0
-3.4675434,1.5025761,1.6020432,-0.22480404,0.67212296,0.70548838,0
2.5765274,-2.6854837,-0.76372361,0.22480404,-0.67212296,-0.70548838,0
-3.7231526,-0.11489856,-0.64006758,-0.97098613,-0.093931735,-0.21991563,0
1.1356157,3.3743193,1.336025,-0.22480404,0.67212296,0.70548838,0
1.5021876,-3.4406683,-0.53925908,0.22480404,-0.67212296,-0.70548838,0
3.3347516,1.9766626,-0.022730589,0.90967333,0.40425137,-0.09526515,0
3.981174,-0.25788164,-0.43641114,0.9742837,0.16642755,0.1518991,0
3.8303056,-1.7108378,-1.2895305,0.22480404,-0.67212296,-0.70548838,0
3.9367733,-0.34916711,-2.6823609,0.22480404,-0.67212296,-0.70548838,0
-1.6675501,-1.1531677,4.0757332,-0.2900455,-0.73735833,0.61006266,0
3.6638346,0.22281945,0.6848135,0.97257221,0.11039767,0.20473373,0
-2.7159729,3.2665801,0.37529063,-0.22480404,0.67212296,0.70548838,0
2.6160917,0.68634951,3.5302718,0.8236897,-0.25572723,0.50610173,0
0.48691583,3.0488415,-2.0656559,0.13521993,0.73853374,-0.66051769,0
