-4.6945257,-3.2882302,1.9286598,-0.99667829,-0.06856066,0.04395172,0
0.43398154,-3.5111344,-1.1239955,0.051633891,-0.94933599,-0.30999196,0
-5.2134757,1.1175015,-0.69216537,-0.99667829,-0.06856066,0.04395172,0
3.0862081,-3.4719193,-0.19832134,0.0685637,-0.99764562,-0.0014392138,0
-5.2155957,1.8055749,-2.5847278,-0.99667829,-0.06856066,0.04395172,0
4.8806658,1.0640318,0.19538438,0.99667829,0.06856066,-0.04395172,0
-2.5412133,0.39581203,3.8643808,0.033562124,0.14593786,0.98872423,0
-1.5800636,-1.743542,-3.1972284,-0.0078405738,-0.45640013,-0.88974011,0
-4.9015613,-0.3602581,2.126812,-0.99667829,-0.06856066,0.04395172,0
-5.0726709,1.5449972,1.5330622,-0.99667829,-0.06856066,0.04395172,0
2.698209,-1.4735889,-3.5598109,-0.00872159,-0.44672707,-0.89462775,0
5.1053562,-0.7178359,1.8015594,0.99667829,0.06856066,-0.04395172,0
4.9189053,-1.0865765,-3.3179293,0.99667829,0.06856066,-0.04395172,0
1.2612011,0.89484644,3.6196241,0.028448224,0.21258771,0.97672772,0
-5.1410608,2.3479965,0.28849363,-0.99667829,-0.06856066,0.04395172,0
3.9225924,-3.0867205,-1.6753616,0.044833325,-0.91246504,-0.40669101,0
-5.3528786,2.7691512,-1.7231851,-0.99667829,-0.06856066,0.04395172,0
4.951685,3.3188746,1.736258,0.99667829,0.06856066,-0.04395172,0
-3.9663749,2.4580624,2.7223182,-0.022328734,0.74906111,0.66212445,0
5.2323732,-0.82922888,1.9235618,0.99667829,0.06856066,-0.04395172,0
-4.2779522,-2.2039456,3.2825155,0.073326468,-0.52066612,0.85060561,0
-5.1502495,1.8970425,-0.29439974,-0.99667829,-0.06856066,0.04395172,0
3.732816,3.3787718,1.9743145,-0.030426174,0.81409019,0.5799408,0
-4.1139584,-3.3973761,-1.930427,0.031801015,-0.82448834,-0.56498468,0
-2.2133222,1.6267918,-3.2345085,-0.069956064,0.44444972,-0.89306784,0
-1.794482,-1.7775095,3.5051799,0.068388939,-0.41158235,0.90880305,0
4.8183832,0.83397198,-2.5628633,0.99667829,0.06856066,-0.04395172,0
-4.8315382,-3.3556066,0.5047248,-0.99667829,-0.06856066,0.04395172,0
0.81821942,3.5562439,-1.4153132,-0.079671264,0.93269217,-0.3517639,0
-4.1989594,-1.8442225,3.4907234,0.068686724,-0.4177233,0.90597415,0
5.1238627,-1.9000244,-2.3516283,0.99667829,0.06856066,-0.04395172,0
4.129446,2.2652636,-3.4565244,-0.073524714,0.52544785,-0.84764296,0
5.1860185,-1.4244714,0.47309065,0.99667829,0.06856066,-0.04395172,0
3.9500875,-3.2423155,0.85196638,0.078206122,-0.95631093,0.28169686,0
-3.7352104,0.080714226,3.9586203,0.036068916,0.1122525,0.99302483,0
0.094345152,3.4686334,1.7029617,-0.042502135,0.89826244,0.43739915,0
-4.7104359,-3.1924443,1.390696,-0.99667829,-0.06856066,0.04395172,0
-4.7031751,-0.7195034,3.8526492,-0.99667829,-0.06856066,0.04395172,0
5.0010214,2.6342289,2.3969326,0.99667829,0.06856066,-0.04395172,0
0.11441088,0.59158885,-3.7016811,-0.054849267,0.16618323,-0.98456824,0
-0.23782003,3.8256612,-0.2292099,-0.071764737,0.99451995,-0.076024532,0
3.4233029,-1.8853812,-3.2295005,0.0028412938,-0.56863487,-0.82258511,0
5.26899,-2.6288388,-0.064413548,0.99667829,0.06856066,-0.04395172,0
5.1435456,-2.9920104,1.2922602,0.080795407,-0.90015501,0.42801046,0
0.21679389,-3.7017584,-0.62683272,0.059018299,-0.97995102,-0.19029635,0
-4.7515707,-2.9474959,2.3348074,-0.99667829,-0.06856066,0.04395172,0
-4.9700317,0.54362917,3.3429918,-0.99667829,-0.06856066,0.04395172,0
-3.9991369,-1.1868544,-3.4367726,-0.027167678,-0.22886488,-0.97307903,0
5.2636771,-1.4795432,2.6850324,0.99667829,0.06856066,-0.04395172,0
4.3943634,2.7974167,-3.1138446,-0.077742934,0.64024615,-0.7642256,0
-4.4273877,1.4249035,-3.1980956,-0.070388436,0.45376819,-0.88833547,0
0.71766889,-2.367075,-2.8320541,0.012695968,-0.66389811,-0.74771523,0
4.7324357,2.7638555,0.012571633,0.99667829,0.06856066,-0.04395172,0
4.71141,1.4056668,-3.0673528,0.99667829,0.06856066,-0.04395172,0
5.2114596,-2.818296,1.4370117,0.99667829,0.06856066,-0.04395172,0
5.1400537,1.0212059,2.1244099,0.99667829,0.06856066,-0.04395172,0
-5.0563374,1.504621,1.005764,-0.99667829,-0.06856066,0.04395172,0
0.35896802,-3.3755841,1.8235414,0.081145823,-0.88180232,0.46458578,0
-5.1685648,2.2788112,-0.33323717,-0.99667829,-0.06856066,0.04395172,0
5.0310712,-0.12751722,-0.46890688,0.99667829,0.06856066,-0.04395172,0
-4.9656234,2.1682115,2.3053498,-0.99667829,-0.06856066,0.04395172,0
4.8066268,2.5567286,0.23588604,0.99667829,0.06856066,-0.04395172,0
3.9609048,2.4187155,-3.1093287,-0.075782299,0.58315897,-0.80881572,0
5.0355144,1.4861207,1.8001988,0.99667829,0.06856066,-0.04395172,0
-5.1622286,1.8380475,-2.4141858,-0.99667829,-0.06856066,0.04395172,0
-4.505631,1.8142586,3.2278588,-0.0041400194,0.58164567,0.81343174,0
-0.20406723,-0.30505729,-3.7259982,-0.038119078,-0.084177673,-0.99572134,0
-4.7003713,-4.027596,0.35380375,0.071233213,-0.99550354,0.062437892,0
5.2461467,-0.43924618,3.1479664,0.99667829,0.06856066,-0.04395172,0
1.0713105,3.0506406,2.2041516,-0.025699943,0.77689886,0.62910074,0
-4.4127707,-3.96334,0.75703359,0.074443221,-0.98583084,0.1503191,0
4.9613352,0.10593891,-0.46087027,0.99667829,0.06856066,-0.04395172,0
-4.7658625,-3.3954153,2.2605629,-0.99667829,-0.06856066,0.04395172,0
-1.3666444,1.3464211,-3.3889852,-0.065788507,0.35971597,-0.93073964,0
-2.192564,1.5617545,3.51511,0.0066819191,0.46902528,0.88315952,0
-5.2414641,2.9024506,-1.156332,-0.99667829,-0.06856066,0.04395172,0
5.0790482,0.039839268,1.1204371,0.99667829,0.06856066,-0.04395172,0
4.9394469,-0.4278245,-3.4726579,0.99667829,0.06856066,-0.04395172,0
2.4072647,-3.3119614,-1.561167,0.04705283,-0.92528117,-0.37635207,0
0.67106128,2.4593043,-2.8592398,-0.077789903,0.64173251,-0.76297307,0
-1.0783935,3.423095,-1.0046518,-0.078766704,0.94865251,-0.30635631,0
-0.30717921,-0.25319958,3.6916938,0.048927903,-0.072674543,0.99615479,0
-3.3895826,1.9088025,3.3135853,-0.00090569258,0.54898685,0.83583051,0
4.9213705,-0.43851042,-1.2573581,0.99667829,0.06856066,-0.04395172,0
3.363337,-0.71690345,3.4846134,0.060870647,-0.26861963,0.96132106,0
2.0414286,1.7278259,-3.5191195,-0.068588972,0.41570273,-0.90691054,0
4.97019,1.2183442,-0.46604884,0.99667829,0.06856066,-0.04395172,0
-0.15437269,-1.3922943,-3.4391351,-0.015235305,-0.37319192,-0.92762899,0
-4.7717361,-2.5261955,-0.016284645,-0.99667829,-0.06856066,0.04395172,0
3.3841214,-3.4485664,-1.0309191,0.057583269,-0.97491825,-0.21498513,0
-5.0021038,-2.1445563,-1.3994621,-0.99667829,-0.06856066,0.04395172,0
-3.9188271,2.7487445,2.4934471,-0.028228283,0.7970683,0.60322917,0
4.935287,1.606225,-0.50189567,0.99667829,0.06856066,-0.04395172,0
5.0235238,-0.42707062,-1.7365651,0.99667829,0.06856066,-0.04395172,0
4.8682518,2.5336556,0.83369446,0.99667829,0.06856066,-0.04395172,0
3.1357543,3.9284496,0.30123997,-0.062820762,0.99068546,0.12081289,0
4.2499366,1.1726289,-3.7235069,-0.059418201,0.24310932,-0.9681772,0
4.8722825,1.6605723,0.028406978,0.99667829,0.06856066,-0.04395172,0
5.0090318,-1.9517584,-2.2774007,0.99667829,0.06856066,-0.04395172,0
4.680604,2.0927477,-2.2256546,0.99667829,0.06856066,-0.04395172,0
-5.0122032,-1.5716846,-0.5484494,-0.99667829,-0.06856066,0.04395172,0
0.80620813,-0.76849365,3.6668239,0.056705832,-0.19687703,0.97878689,0
-0.02399087,-3.1146724,2.3386559,0.081277072,-0.80337429,0.58990145,0
-3.0518186,-0.078486621,-3.586575,-0.047602534,0.052555263,-0.99748278,0
-4.8521261,-2.2301764,1.4857371,-0.99667829,-0.06856066,0.04395172,0
-2.284411,1.305011,3.5727589,0.013429224,0.3939395,0.91903824,0
-1.3931761,0.60240555,3.7408068,0.029975533,0.19296297,0.980748,0
-4.7735229,-3.4645336,2.1116686,-0.99667829,-0.06856066,0.04395172,0
5.2139521,-1.7878239,2.1402845,0.99667829,0.06856066,-0.04395172,0
-4.9514766,-0.15464211,3.0856495,-0.99667829,-0.06856066,0.04395172,0
0.60570431,-1.4612796,3.5028546,0.067754149,-0.39863494,0.91460341,0
4.8313313,0.97104359,-2.8041949,0.99667829,0.06856066,-0.04395172,0
-3.3658147,2.0654616,-2.801857,-0.076375186,0.59955662,-0.79667974,0
4.44384,2.2418027,-3.370275,-0.073688745,0.52943313,-0.84514529,0
-4.8635812,-2.2154336,0.20438004,-0.99667829,-0.06856066,0.04395172,0
4.8655949,-0.5369463,-3.4241829,0.99667829,0.06856066,-0.04395172,0
4.8429217,0.45490503,-2.3023,0.99667829,0.06856066,-0.04395172,0
-4.9803038,-0.45873642,-0.69327235,-0.99667829,-0.06856066,0.04395172,0
-4.8051448,-2.1646371,2.5977654,-0.99667829,-0.06856066,0.04395172,0
-4.9123487,-2.096736,-1.0785911,-0.99667829,-0.06856066,0.04395172,0
-5.0266342,0.6257031,-1.0120652,-0.99667829,-0.06856066,0.04395172,0
5.1469903,-3.0560288,1.4054847,0.0807603,-0.90160406,0.42495614,0
-4.4433117,-3.5692391,-1.571393,0.038013846,-0.86894512,-0.49344635,0
0.59525764,3.6501288,0.76407385,-0.058607772,0.978562,0.19743741,0
5.2193537,-1.8927724,2.5326369,0.99667829,0.06856066,-0.04395172,0
4.5767641,-3.52178,-0.055521011,0.070619464,-0.99638891,0.047139406,0
-3.9020433,0.70785856,3.8076966,0.024828672,0.25818625,0.96577597,0
-5.207499,1.9898114,-0.77921152,-0.99667829,-0.06856066,0.04395172,0
-5.0504766,-0.97238851,-3.0209472,-0.99667829,-0.06856066,0.04395172,0
0.13574147,-2.9116838,-2.250701,0.026239604,-0.78125566,-0.62365949,0
2.2117231,3.8797195,-0.84468198,-0.075290293,0.98143858,-0.17637926,0
0.51719975,-0.15001559,3.743325,0.046140552,-0.030674219,0.99846387,0
-1.8580252,-2.6097784,-2.7305977,0.014661849,-0.68193209,-0.73126853,0
-5.0630102,0.058412313,-2.9206827,-0.99667829,-0.06856066,0.04395172,0
-0.85060459,3.2462502,1.844074,-0.040711328,0.8868655,0.46023071,0
5.1837602,-2.3128116,-0.40702772,0.99667829,0.06856066,-0.04395172,0
-5.2829528,2.6299441,-1.7961602,-0.99667829,-0.06856066,0.04395172,0
4.9483433,2.9036903,1.9710335,0.99667829,0.06856066,-0.04395172,0
-2.9987738,-3.7702298,1.3249863,0.078765631,-0.94866967,0.3063035,0
4.9409647,-0.087970734,-3.881979,0.99667829,0.06856066,-0.04395172,0
3.4000878,-2.9714329,1.9874196,0.081422925,-0.8281554,0.55455297,0
-0.3699168,2.7946432,2.3945823,-0.024441093,0.76662838,0.64162576,0
0.40207887,3.6493061,-1.1561422,-0.07889235,0.94673824,-0.31219018,0
-5.1035624,1.9255562,-0.91033602,-0.99667829,-0.06856066,0.04395172,0
-3.3307109,2.6307044,-2.4310586,-0.080179751,0.73155344,-0.67705286,0
-4.2897367,-1.0176954,3.7844641,0.056594849,-0.19502297,0.97916442,0
-5.1960573,-0.0068686008,-2.8840547,-0.99667829,-0.06856066,0.04395172,0
4.7558775,3.5882664,-0.18253207,0.99667829,0.06856066,-0.04395172,0
-4.6206059,-2.8259354,-2.5442331,0.015619218,-0.69059563,-0.72307241,0
0.15683341,3.5944951,-1.0725119,-0.078717828,0.94937593,-0.30411983,0
-0.64540362,1.9598987,-3.1019452,-0.074264765,0.54366195,-0.83601218,0
-1.2004077,-0.0099116564,-3.7889075,-0.04513061,0.015740544,-0.99885702,0
-4.8674421,-1.1795325,0.42736208,-0.99667829,-0.06856066,0.04395172,0
4.4596744,-3.381572,0.3440609,0.074824244,-0.98397362,0.16185594,0
5.1753249,-1.1749084,2.2973742,0.99667829,0.06856066,-0.04395172,0
-4.8540363,-1.9410834,1.1245145,-0.99667829,-0.06856066,0.04395172,0
1.4337885,-0.88694715,-3.7339082,-0.025045514,-0.25548914,-0.96648741,0
1.6896355,1.4945405,3.4848237,0.014142394,0.38578019,0.92248231,0
-4.7378502,-0.57320547,3.9625909,-0.99667829,-0.06856066,0.04395172,0
4.3740673,2.36061,2.8550043,-0.003123045,0.57146871,0.82061797,0
-5.0532241,0.90084195,-1.5015669,-0.99667829,-0.06856066,0.04395172,0
-0.62676108,3.7032976,0.55498028,-0.060723893,0.98526299,0.1599043,0
-4.9009619,-3.1871119,-1.0333441,-0.99667829,-0.06856066,0.04395172,0
5.0149479,1.511966,2.7378685,0.99667829,0.06856066,-0.04395172,0
1.8889426,-3.633075,-0.35862923,0.064592615,-0.99419034,-0.086100578,0
2.2461741,0.77132338,3.5879951,0.031727552,0.17015836,0.98490584,0
-4.7844191,-1.2839637,3.5587575,-0.99667829,-0.06856066,0.04395172,0
-5.0681157,0.14818525,-0.44197059,-0.99667829,-0.06856066,0.04395172,0
-4.93929,0.86024189,2.6045287,-0.99667829,-0.06856066,0.04395172,0
-5.1849179,-0.058283806,-3.4196942,-0.99667829,-0.06856066,0.04395172,0
5.0786891,-2.257925,-0.47438812,0.99667829,0.06856066,-0.04395172,0
-3.3199131,0.74279535,-3.4653955,-0.060854554,0.26833299,-0.96140224,0
3.9619331,0.70656753,3.4884739,0.034561098,0.13259673,0.99056733,0
-0.26209712,3.1509216,-2.1988413,-0.081361055,0.81465673,-0.57420802,0
-3.9840882,1.8773746,3.1956885,-0.0030412078,0.57064593,0.82119054,0
4.9796476,1.7965219,1.5512351,0.99667829,0.06856066,-0.04395172,0
-4.9917202,0.14652586,2.8849521,-0.99667829,-0.06856066,0.04395172,0
3.1162663,-3.205534,1.5956922,0.081043839,-0.88810003,0.45244926,0
-4.8037462,-2.4152925,-0.016949043,-0.99667829,-0.06856066,0.04395172,0
-0.87168598,2.2412424,3.0136659,-0.0082553625,0.62196434,0.78300202,0
2.4506917,3.7772875,-0.95485997,-0.076437652,0.97375333,-0.21438622,0
4.7283826,2.4693732,-2.8133631,0.99667829,0.06856066,-0.04395172,0
-4.8946853,-0.85860491,0.59932077,-0.99667829,-0.06856066,0.04395172,0
3.5973177,1.2732329,-3.8771973,-0.059887648,0.25129265,-0.96605653,0
-2.3674703,3.3074124,-1.2879782,-0.080090344,0.92298567,-0.37640804,0
1.3792739,2.7758412,2.5791912,-0.020635456,0.73468417,0.67809534,0
-5.2082238,0.45584631,-2.2998204,-0.99667829,-0.06856066,0.04395172,0
5.2142534,-2.0162101,0.44162989,0.99667829,0.06856066,-0.04395172,0
1.5740175,1.2740538,-3.6648338,-0.06175375,0.28441018,-0.95671165,0
2.0938909,-2.7599421,2.3229606,0.080672681,-0.75730896,0.64805484,0
-4.013423,2.2972016,-2.6527598,-0.078965485,0.68158072,-0.72746968,0
0.96732068,0.016292095,3.7813115,0.043801069,0.0037004054,0.99903333,0
5.2166967,-2.3642156,0.43334007,0.99667829,0.06856066,-0.04395172,0
-4.9003,-1.6683567,0.027549624,-0.99667829,-0.06856066,0.04395172,0
4.7854509,3.6214011,0.28898495,0.99667829,0.06856066,-0.04395172,0
-4.364521,-4.029489,1.0477363,0.076534092,-0.97299957,0.21774775,0
2.1327715,-1.3241401,3.3909822,0.06661737,-0.37592137,0.92425382,0
-2.3820295,3.218406,1.9186399,-0.038992837,0.87555057,0.48155022,0
5.1112537,-1.1620288,0.48305941,0.99667829,0.06856066,-0.04395172,0
3.4086573,-0.71058154,3.3846655,0.060579658,-0.26346436,0.96276498,0
4.9222407,1.241178,-1.2510803,0.99667829,0.06856066,-0.04395172,0
3.8904402,-0.19938421,-3.9627261,-0.034207046,-0.1373378,-0.98993337,0
-3.2097006,-4.0388179,0.05017066,0.068041354,-0.99759513,-0.013205409,0
4.7548609,0.63429356,-2.6921356,0.99667829,0.06856066,-0.04395172,0
-3.1852567,-0.091447592,-3.5786798,-0.047670484,0.053579956,-0.99742496,0
-2.1856899,3.5448945,0.032596111,-0.069740802,0.99722886,-0.025902987,0
-0.9503448,2.7472436,-2.6071715,-0.079954922,0.72121263,-0.68808383,0
1.0779386,-1.7084119,-3.3406658,-0.0064020753,-0.47205842,-0.88154405,0
-2.4482028,1.1728749,-3.4865875,-0.06571269,0.35824811,-0.93131083,0
-4.9300585,-2.4948204,-2.6997757,0.0059489608,-0.59953988,-0.80032277,0
0.86472917,-2.357796,2.8950317,0.078038931,-0.64972264,0.75615489,0
4.8047953,0.66306543,-3.0426006,0.99667829,0.06856066,-0.04395172,0
-4.7601151,-0.70603561,3.8024037,-0.99667829,-0.06856066,0.04395172,0
-0.37887847,2.407968,2.7796955,-0.013343692,0.66987574,0.74235338,0
-0.41096807,-3.5159893,1.3679869,0.079956353,-0.9263047,0.36819357,0
-4.9843445,-1.0126505,1.3666928,-0.99667829,-0.06856066,0.04395172,0
5.0250816,1.7565422,2.7607212,0.99667829,0.06856066,-0.04395172,0
2.9966612,1.8202661,3.157424,0.0077396035,0.45750511,0.88917333,0
-2.5050163,-3.1776059,-2.2924063,0.026730895,-0.78519785,-0.61866772,0
3.0524685,-1.9303324,-3.2288306,0.0014216304,-0.55425406,-0.83234632,0
4.8922133,0.84187984,-2.4703233,0.99667829,0.06856066,-0.04395172,0
4.8632054,-2.8532233,-2.0403652,0.036522478,-0.85866636,-0.51123178,0
-5.1095185,0.3223753,-2.7465787,-0.99667829,-0.06856066,0.04395172,0
-3.7724011,-2.2084532,-3.006146,-0.0028108954,-0.51040703,-0.85992831,0
-1.2820783,3.3411727,-1.2122576,-0.079898953,0.92765987,-0.36477834,0
4.8950677,-3.3645449,0.56877613,0.076161444,-0.97581315,0.20491004,0
-0.041837692,-2.8982713,2.3695729,0.080969691,-0.77637023,0.62505442,0
-2.4355679,2.1129801,-2.9989445,-0.075813413,0.58400249,-0.80820376,0
-0.85054159,-0.45789278,-3.7429199,-0.037975907,-0.086154431,-0.99555767,0
5.2272401,-2.5932977,1.5349894,0.99667829,0.06856066,-0.04395172,0
4.7015619,3.0749266,-0.91854161,0.99667829,0.06856066,-0.04395172,0
-4.9877353,0.6009984,2.8729343,-0.99667829,-0.06856066,0.04395172,0
-5.2923775,2.0495658,-2.0679684,-0.99667829,-0.06856066,0.04395172,0
-2.937628,0.14208603,3.8176289,0.037209988,0.096686274,0.99461901,0
-0.45642763,3.1028318,2.045742,-0.034364343,0.84334546,0.53627181,0
-1.4571931,-3.5861633,-1.0750074,0.050701171,-0.94471824,-0.3239395,0
5.0619555,-2.5864749,-0.84136009,0.99667829,0.06856066,-0.04395172,0
-4.8459177,0.51483679,2.7723622,-0.99667829,-0.06856066,0.04395172,0
1.7991114,0.29531497,3.5861082,0.039954066,0.058628827,0.99747998,0
4.8374801,2.7184014,-0.99391919,0.99667829,0.06856066,-0.04395172,0
-0.60646486,0.48656607,3.6431489,0.034216106,0.13721591,0.98995,0
4.718483,-1.341629,3.1622326,0.0696702,-0.43835181,0.89609915,0
3.7810073,-1.3983302,-3.523273,-0.0096248388,-0.43674225,-0.89953518,0
-0.14369702,-3.4085064,-1.3679576,0.046828918,-0.92402089,-0.3794632,0
3.8729362,-1.9193504,2.8602393,0.076275647,-0.59675825,0.79878753,0
-4.7140198,0.71915317,-3.4519184,-0.059868455,0.25095659,-0.96614522,0
2.1386869,3.355478,2.0091743,-0.034130007,0.84165084,0.53894258,0
4.1062875,3.9774613,0.58220303,-0.05702237,0.97281992,0.22443223,0
-4.9045887,0.42782593,2.6075902,-0.99667829,-0.06856066,0.04395172,0
1.0459132,-0.90880752,-3.7148118,-0.023897529,-0.26971376,-0.96264386,0
2.0384645,-0.92891371,3.5153019,0.061824322,-0.28568327,0.95632768,0
0.62789655,-3.7178316,-0.7591846,0.057897054,-0.97606039,-0.20965201,0
-4.9296303,-1.3096042,1.0827541,-0.99667829,-0.06856066,0.04395172,0
5.0379138,0.19103146,-0.16373944,0.99667829,0.06856066,-0.04395172,0
5.1877537,-0.82205129,3.2964604,0.99667829,0.06856066,-0.04395172,0
2.2021079,-0.3099404,3.6646347,0.050872803,-0.10270697,0.99340987,0
-2.9231174,3.1612828,1.7445059,-0.042498976,0.89824265,0.43744034,0
3.6789801,0.32790899,-3.9899442,-0.044248581,0.00281775,-0.99901652,0
-2.8336751,-2.5771322,-2.6426969,0.011292756,-0.65082514,-0.75914371,0
3.0737083,3.7910805,-1.4475583,-0.079864442,0.92845821,-0.36274922,0
2.2982955,-3.5988832,0.055902958,0.070927471,-0.99597692,0.054765701,0
-4.7360959,-3.4864774,-0.10698706,-0.99667829,-0.06856066,0.04395172,0
-5.0512638,1.8808665,2.6376803,-0.99667829,-0.06856066,0.04395172,0
-1.7127666,-2.3619695,3.0639911,0.076828897,-0.6125645,0.78667784,0
-4.9237309,0.20974255,2.1569109,-0.99667829,-0.06856066,0.04395172,0
-4.4200745,-1.3610358,3.8043637,0.06221652,-0.29277849,0.95415395,0
-3.0178139,1.0755954,-3.3389797,-0.064557791,0.33614838,-0.93959373,0
-4.0204806,3.5171204,0.34530592,-0.067099154,0.99717003,0.033906817,0
-3.0182076,-1.6420773,-3.3783417,-0.014343321,-0.38347274,-0.92344081,0
-5.1168613,2.0766015,0.68263054,-0.99667829,-0.06856066,0.04395172,0
-1.4793584,3.5558715,1.0410068,-0.055188689,0.96547979,0.25456405,0
4.7659373,1.9245124,-2.4792895,0.99667829,0.06856066,-0.04395172,0
-4.9952331,-2.723181,-2.4176755,-0.99667829,-0.06856066,0.04395172,0
-4.781599,-1.2075372,2.9702699,-0.99667829,-0.06856066,0.04395172,0
-1.1729264,-3.8540974,-0.44812727,0.061067611,-0.98623914,-0.153633,0
5.2373133,-2.3115094,-0.37083817,0.99667829,0.06856066,-0.04395172,0
5.3405027,-1.4664865,2.910507,0.99667829,0.06856066,-0.04395172,0
1.7643411,2.5732522,2.8355596,-0.0099682808,0.63833457,0.76969439,0
4.7691584,1.4277806,-3.5154963,0.99667829,0.06856066,-0.04395172,0
1.9972847,0.22318423,3.5834911,0.043171525,0.012822807,0.99898529,0
-0.0042700768,-2.1006112,-3.0412049,0.0036966205,-0.57721943,-0.81658065,0
5.013454,-1.1998172,-3.0757086,0.99667829,0.06856066,-0.04395172,0
-4.9678926,-2.2830782,-0.88023311,-0.99667829,-0.06856066,0.04395172,0
-3.8813004,-3.3075256,2.3912168,0.081345856,-0.81229573,0.57754523,0
-3.3017175,3.5049961,-0.50249958,-0.07518971,0.98201168,-0.17320365,0
5.2019548,-1.715374,-0.71829128,0.99667829,0.06856066,-0.04395172,0
1.3023268,-2.0442505,-3.0380561,0.0056241751,-0.59634644,-0.80270749,0
-4.8079939,3.0192049,-1.6365643,-0.081180155,0.87939632,-0.46911794,0
1.3507361,-0.45921445,-3.6879425,-0.031680942,-0.17076996,-0.98480141,0
-5.1206722,0.84367013,-1.9231851,-0.99667829,-0.06856066,0.04395172,0
3.0849652,-1.5617992,3.2944512,0.070550799,-0.4572981,0.88651061,0
-5.1806583,1.3228049,-1.888449,-0.99667829,-0.06856066,0.04395172,0
3.7557936,2.3584681,2.8236818,-0.0046766996,0.58698297,0.80958581,0
-3.9788823,2.413384,2.8464191,-0.018588513,0.71696019,0.69686627,0
-4.6384916,-2.6481981,2.7828104,-0.99667829,-0.06856066,0.04395172,0
-4.757174,-1.4436107,2.9677699,-0.99667829,-0.06856066,0.04395172,0
-1.124691,-2.9217072,2.430407,0.080630839,-0.75489879,0.65086591,0
5.145895,-1.1964493,1.9932034,0.99667829,0.06856066,-0.04395172,0
3.5023584,-3.2842488,1.2069974,0.079663754,-0.93284851,0.35135061,0
2.2504926,3.7684126,0.75083947,-0.057983287,0.97637022,0.20818049,0
4.9566641,-1.779283,-2.1283495,0.99667829,0.06856066,-0.04395172,0
1.4782236,0.57344085,3.6093998,0.036511004,0.1062392,0.99366999,0
-0.81622899,-3.8106058,-0.30774879,0.063889891,-0.99292743,-0.10006547,0
-5.0068736,-0.060207844,1.2007449,-0.99667829,-0.06856066,0.04395172,0
-4.8313994,3.3963661,-0.72128677,-0.07725352,0.96673524,-0.2438339,0
5.125371,0.35562634,2.7684746,0.99667829,0.06856066,-0.04395172,0
-5.0638232,0.056551456,-1.4290621,-0.99667829,-0.06856066,0.04395172,0
5.0784135,-0.61637735,-0.27246189,0.99667829,0.06856066,-0.04395172,0
5.3217931,-1.5481331,2.3938956,0.99667829,0.06856066,-0.04395172,0
2.9040947,-2.0915265,2.8405712,0.076001525,-0.58915043,0.80444098,0
5.0293894,-1.447742,-0.50851727,0.99667829,0.06856066,-0.04395172,0
-1.6255352,-2.9134555,2.5386138,0.080301106,-0.73744261,0.67061907,0
2.4770131,-2.6040394,2.4501908,0.080258131,-0.73532701,0.67294341,0
5.0739751,-0.63314271,1.9917407,0.99667829,0.06856066,-0.04395172,0
-0.77614546,-2.2635705,2.9565377,0.076352179,-0.59890765,0.7971698,0
0.88838887,1.2534361,3.4461901,0.020023286,0.31682244,0.94827348,0
-0.21112275,3.7414765,-0.044193268,-0.068330407,0.99764001,0.0067212582,0
4.7920265,2.9301827,1.3617299,0.99667829,0.06856066,-0.04395172,0
-5.1245432,1.6330571,1.0082619,-0.99667829,-0.06856066,0.04395172,0
-5.0191617,-1.1294799,-1.9571782,-0.99667829,-0.06856066,0.04395172,0
-4.9055691,-2.1489081,0.85477954,-0.99667829,-0.06856066,0.04395172,0
4.9080153,-0.79178095,-3.1035571,0.99667829,0.06856066,-0.04395172,0
-5.0660987,0.19137621,-3.4480214,-0.052917123,0.13497382,-0.98943508,0
2.0352037,-0.088731527,-3.9311152,-0.040208459,-0.055054069,-0.99767345,0
-4.0325375,0.46601439,3.7813354,0.029952466,0.19326061,0.98069012,0
-5.1962724,2.5113285,-2.0219541,-0.99667829,-0.06856066,0.04395172,0
-5.2709188,1.9363282,-1.3869686,-0.99667829,-0.06856066,0.04395172,0
5.0760136,-1.5620689,0.53078222,0.99667829,0.06856066,-0.04395172,0
-5.1774521,-0.101717,-2.7025752,-0.99667829,-0.06856066,0.04395172,0
4.7678967,-0.39340019,-3.8689399,-0.030425608,-0.18713462,-0.98186296,0
5.0493789,1.2946155,2.6752262,0.99667829,0.06856066,-0.04395172,0
-4.8226452,3.366231,0.2936306,-0.066731736,0.99689448,0.041810513,0
5.3450994,-2.595098,1.9643893,0.99667829,0.06856066,-0.04395172,0
-4.9812164,-0.92562103,1.3415501,-0.99667829,-0.06856066,0.04395172,0
4.857132,2.855052,-1.1386672,0.99667829,0.06856066,-0.04395172,0
4.8107429,2.4258432,-1.4841719,0.99667829,0.06856066,-0.04395172,0
-3.876492,1.3337114,-3.2340469,-0.06993711,0.44404557,-0.89327049,0
-1.9611728,-2.7095041,2.8931947,0.079086363,-0.68604177,0.7232511,0
2.4915304,1.3541389,3.5480776,0.020851314,0.306869,0.9515233,0
-4.6691914,-0.37914658,3.9881155,0.044119596,-0.00093591213,0.99902576,0
4.9569492,2.1947162,2.9780169,0.0029611588,0.50882351,0.86086583,0
-2.781548,-3.2534704,-1.9504616,0.032240123,-0.82776821,-0.56014317,0
2.0230191,2.8203013,-2.6459188,-0.080263615,0.73559511,-0.67264962,0
-1.2473528,3.2345135,-1.719666,-0.081129491,0.88289511,-0.46250844,0
5.1841383,-3.4038169,-0.085529327,0.99667829,0.06856066,-0.04395172,0
0.22826266,-0.77446985,3.6498036,0.055836201,-0.18240967,0.98163587,0
5.2928014,-2.6960192,1.1896877,0.99667829,0.06856066,-0.04395172,0
-1.045575,2.8009999,2.4036694,-0.027154088,0.7885747,0.61433923,0
4.8353095,-0.212677,-2.5588872,0.99667829,0.06856066,-0.04395172,0
5.0026846,-2.3203549,-2.6160684,0.99667829,0.06856066,-0.04395172,0
-5.2983027,2.6247082,-1.6073098,-0.99667829,-0.06856066,0.04395172,0
4.8174729,1.6862154,-2.5365365,0.99667829,0.06856066,-0.04395172,0
-0.67726541,1.8531681,3.2094719,0.0043357611,0.49425232,0.8693077,0
2.7637546,2.9519138,2.357501,-0.021390617,0.74112785,0.67102301,0
-2.7507963,-3.7223051,1.2231278,0.078897417,-0.94665849,0.31243074,0
1.7305107,2.7424655,-2.6248999,-0.079577267,0.70514774,-0.70458078,0
-2.3664339,0.28551435,3.7554457,0.033914983,0.14123687,0.98939466,0
-2.6847677,-1.2718977,-3.530776,-0.023734987,-0.2717188,-0.96208394,0
-5.0342913,-0.29635811,-0.97710156,-0.99667829,-0.06856066,0.04395172,0
-5.0406218,1.3318257,-0.11297274,-0.99667829,-0.06856066,0.04395172,0
-5.104898,1.9196243,0.42047405,-0.99667829,-0.06856066,0.04395172,0
-5.1079803,0.5952785,-2.9459181,-0.99667829,-0.06856066,0.04395172,0
2.9466372,-1.948756,2.8502553,0.075569034,-0.57740736,0.81295145,0
-5.0266085,1.3089571,3.4391322,-0.99667829,-0.06856066,0.04395172,0
4.0465317,-2.9648247,1.8355989,0.081436217,-0.83453131,0.54490858,0
3.6545479,0.90947104,-3.9322367,-0.053784847,0.14890063,-0.98738837,0
-5.0447664,1.7459521,2.2353435,-0.99667829,-0.06856066,0.04395172,0
-4.8919525,-3.6270339,-1.5507972,0.038399711,-0.87156242,-0.48877847,0
-4.3825574,-3.9531679,-1.0016081,0.051008392,-0.94625568,-0.31937164,0
4.8251557,0.86859512,-2.6189992,0.99667829,0.06856066,-0.04395172,0
0.87808895,0.41616726,-3.704695,-0.049133658,0.075821698,-0.99591005,0
-3.3494267,3.3747482,1.0541863,-0.055293523,0.96591878,0.25287044,0
5.2306261,-2.4671736,1.1126657,0.99667829,0.06856066,-0.04395172,0
2.2367384,3.9603114,-0.33520913,-0.071360439,0.99528706,-0.06566143,0
5.0806503,-1.6070957,0.25562906,0.99667829,0.06856066,-0.04395172,0
5.2669935,-2.8241973,-0.43671799,0.99667829,0.06856066,-0.04395172,0
3.2556376,1.4518976,-3.646759,-0.064256549,0.33046439,-0.94162858,0
-4.834981,3.4819198,-0.30875111,-0.072873771,0.99174511,-0.10550296,0
4.8297272,0.58533049,-2.1679626,0.99667829,0.06856066,-0.04395172,0
2.636143,-1.0889902,3.4225917,0.063285232,-0.31235236,0.94785589,0
1.708058,-3.4063396,1.3642895,0.079760611,-0.93077946,0.35677397,0
-1.2245789,-1.2550898,-3.5901604,-0.022172689,-0.29085603,-0.95650983,0
-5.1116009,0.10196686,-0.74423957,-0.99667829,-0.06856066,0.04395172,0
-2.1802418,1.0710231,-3.4919295,-0.063523173,0.31675932,-0.94637638,0
-4.7166624,-3.6085401,0.77040857,-0.99667829,-0.06856066,0.04395172,0
5.3130307,-1.9225435,2.1744208,0.99667829,0.06856066,-0.04395172,0
4.7714748,1.1559901,-3.7941914,0.99667829,0.06856066,-0.04395172,0
-5.1635184,0.3748064,-2.5786548,-0.99667829,-0.06856066,0.04395172,0
-4.9593287,0.41477394,1.9368539,-0.99667829,-0.06856066,0.04395172,0
-5.0703664,-1.3853798,-1.1048318,-0.99667829,-0.06856066,0.04395172,0
3.3609216,-3.4898305,-0.44954014,0.065542027,-0.99561214,-0.066789627,0
1.1038163,3.0473192,-2.4219408,-0.080767691,0.76299733,-0.64133584,0
3.2579787,-3.5711954,-0.27661419,0.067504525,-0.99740368,-0.025080681,0
4.9312124,-1.2336969,-2.2281919,0.99667829,0.06856066,-0.04395172,0
-5.0779028,0.73732901,1.7589748,-0.99667829,-0.06856066,0.04395172,0
-4.7483797,-0.85653639,3.8249977,-0.99667829,-0.06856066,0.04395172,0
-5.135561,1.9254239,-0.67762423,-0.99667829,-0.06856066,0.04395172,0
4.9825983,-0.2949338,-3.3360429,0.99667829,0.06856066,-0.04395172,0
5.2723799,-2.3014903,1.4740124,0.99667829,0.06856066,-0.04395172,0
-3.5593824,-0.32087147,-3.5588262,-0.043775678,-0.0040701628,-0.99903303,0
4.8566694,2.1047356,-0.41305774,0.99667829,0.06856066,-0.04395172,0
4.4918146,-1.3858175,-3.5454245,-0.0084822774,-0.44936001,-0.89331055,0
-3.0244377,3.4176233,-0.82893944,-0.078065693,0.95803165,-0.27582783,0
5.2556367,-1.073698,1.6108296,0.99667829,0.06856066,-0.04395172,0
-4.8307428,-3.6312401,0.050245762,-0.99667829,-0.06856066,0.04395172,0
4.1137047,1.3488636,-3.7809396,-0.060670972,0.26507959,-0.9623158,0
-4.7949157,-3.1734858,-1.9136534,-0.99667829,-0.06856066,0.04395172,0
2.6970372,-3.0949628,-1.9144175,0.038595885,-0.87288624,-0.48639482,0
-4.963995,-0.016209602,-0.62566519,-0.99667829,-0.06856066,0.04395172,0
4.791049,1.7076168,-1.5076081,0.99667829,0.06856066,-0.04395172,0
4.9646454,1.1799643,0.70158672,0.99667829,0.06856066,-0.04395172,0
3.9857635,3.6963191,-1.7638506,-0.0807392,0.90245688,-0.42314625,0
4.9653711,-1.1927967,-2.082994,0.99667829,0.06856066,-0.04395172,0
1.6312864,2.2185259,-3.1560214,-0.074729085,0.55541706,-0.82820737,0
4.7527499,3.8644252,0.4515003,0.99667829,0.06856066,-0.04395172,0
2.7535763,2.7988608,-2.8417211,-0.078597069,0.6684618,-0.7395817,0
-5.164403,2.6843865,0.43252563,-0.99667829,-0.06856066,0.04395172,0
-5.1153941,1.5728762,-0.55297422,-0.99667829,-0.06856066,0.04395172,0
4.7889957,2.9585643,-0.70473266,0.99667829,0.06856066,-0.04395172,0
4.1542382,-3.5057559,-0.074176311,0.06950292,-0.99737561,0.020280242,0
-4.8532934,-1.5920606,0.18235445,-0.99667829,-0.06856066,0.04395172,0
4.0182018,0.94911921,3.4976568,0.032410026,0.16118982,0.98639101,0
1.9394791,0.034776419,3.6848383,0.045888543,-0.026933342,0.99858332,0
0.76592416,3.2668252,1.9001886,-0.03392905,0.84019285,0.54122514,0
5.1505365,-3.1271017,-0.75890017,0.99667829,0.06856066,-0.04395172,0
5.1487598,-1.9355779,1.9059329,0.99667829,0.06856066,-0.04395172,0
-1.4364206,-3.9554644,-0.11131477,0.066626638,-0.99680501,-0.044053435,0
0.7007761,-1.9082248,3.2051702,0.072682142,-0.50539118,0.8598237,0
1.1262681,1.0314236,-3.6581078,-0.059305429,0.24114949,-0.96867418,0
4.6623712,-2.7952838,1.9296103,0.081435204,-0.83377779,0.54606134,0
4.2154751,-3.2770247,1.2030516,0.079860747,-0.92854309,0.36253256,0
2.0973377,3.2759702,-2.2723517,-0.081392884,0.82040244,-0.56596363,0
-5.196744,3.1073384,-0.43962002,-0.99667829,-0.06856066,0.04395172,0
-2.952997,1.588623,-3.0790048,-0.071294069,0.4736869,-0.87780279,0
-4.961525,0.0081248283,3.4741004,-0.99667829,-0.06856066,0.04395172,0
-4.9427037,1.1080866,2.3504162,-0.99667829,-0.06856066,0.04395172,0
5.2332444,-2.90081,0.83774424,0.99667829,0.06856066,-0.04395172,0
-4.6762228,-2.5865595,1.4302909,-0.99667829,-0.06856066,0.04395172,0
-4.8010902,-1.8883286,1.8615128,-0.99667829,-0.06856066,0.04395172,0
-2.5382202,2.8039317,-2.1673667,-0.081283748,0.8041575,-0.5888325,0
4.9718933,2.3899152,2.6841993,0.99667829,0.06856066,-0.04395172,0
3.1834254,-3.4875951,0.90793133,0.07782793,-0.96078825,0.26613647,0
-4.7912774,-3.3179729,-0.11181951,-0.99667829,-0.06856066,0.04395172,0
3.6116872,3.9589171,-1.188266,-0.077266574,0.96661007,-0.2443251,0
5.350677,-2.8644364,0.8813386,0.99667829,0.06856066,-0.04395172,0
2.2626309,-3.3797252,1.3010769,0.080151021,-0.9214015,0.38025653,0
5.0609207,-2.1050215,-2.0126753,0.99667829,0.06856066,-0.04395172,0
-4.7759924,-2.9650609,1.5754021,-0.99667829,-0.06856066,0.04395172,0
-4.9821801,-1.7434666,-2.8409226,-0.99667829,-0.06856066,0.04395172,0
-4.8910885,-2.4274502,-0.011149019,-0.99667829,-0.06856066,0.04395172,0
4.8269668,-0.45950508,-3.7415071,0.99667829,0.06856066,-0.04395172,0
-1.6636708,-3.4899168,-1.312929,0.046782769,-0.92376012,-0.38010341,0
4.8538628,1.9522464,0.17217267,0.99667829,0.06856066,-0.04395172,0
1.0417058,0.0066223145,-3.7509136,-0.041644573,-0.034727037,-0.99852872,0
3.9477491,4.0601563,-0.70055234,-0.073829353,0.98845589,-0.13230336,0
4.4994206,-3.4453852,-0.89292669,0.058434837,-0.97796428,-0.20042711,0
1.8371675,0.32711089,3.6305351,0.039471269,0.065389425,0.99707884,0
5.1040258,0.15998745,1.2776117,0.99667829,0.06856066,-0.04395172,0
2.0514929,1.4666567,-3.5539985,-0.064668417,0.3382431,-0.93883413,0
4.6694651,3.3463585,-2.1560509,0.99667829,0.06856066,-0.04395172,0
-3.6007776,3.0379152,1.7793436,-0.041321591,0.89079511,0.4525224,0
4.1957216,-1.8007078,-3.1762197,0.0029214025,-0.56944108,-0.82202679,0
4.6126313,3.5801473,-1.8196456,0.99667829,0.06856066,-0.04395172,0
-4.6835642,-4.0634861,0.32810283,0.070294291,-0.99675608,0.039192796,0
-4.865921,-1.3348072,0.072813153,-0.99667829,-0.06856066,0.04395172,0
3.6869841,3.9338357,0.34165323,-0.062894776,0.99085259,0.11939579,0
-2.8787093,2.4283438,2.7238283,-0.017384589,0.7063635,0.70763582,0
-1.0032699,-1.1958368,3.5664477,0.062439203,-0.29682872,0.95288718,0
-4.9977751,-1.5248799,0.24783111,-0.99667829,-0.06856066,0.04395172,0
-1.2349958,0.70661354,3.7627501,0.028440893,0.21268156,0.97670752,0
-4.8016424,-2.6436069,-0.34874123,-0.99667829,-0.06856066,0.04395172,0
-1.6231163,-3.8924873,0.14253449,0.068547308,-0.99764615,-0.001811862,0
-4.2753944,-3.0941966,2.7314496,0.080408037,-0.74283934,0.6646232,0
-4.740078,-3.2877746,0.14074117,-0.99667829,-0.06856066,0.04395172,0
-5.0774498,2.0948596,-0.039085388,-0.99667829,-0.06856066,0.04395172,0
0.059633479,-3.6763246,-0.90021515,0.05705139,-0.97293019,-0.22394615,0
2.5125899,-0.55941916,-3.7383068,-0.029920697,-0.1936717,-0.98061001,0
5.0899644,-2.3502202,-1.8409729,0.99667829,0.06856066,-0.04395172,0
-0.0018721819,-3.7502675,-0.51764345,0.060982034,-0.98599923,-0.15519845,0
-2.2039943,0.87884164,-3.5756512,-0.061439157,0.27876008,-0.95839339,0
4.9858055,2.036171,0.35320663,0.99667829,0.06856066,-0.04395172,0
0.52488846,3.5312765,1.1299925,-0.052196361,0.95204711,0.30146605,0
-2.4839311,-3.6759748,1.2311389,0.078989387,-0.94520122,0.31678873,0
-4.917737,0.058477402,2.6355009,-0.99667829,-0.06856066,0.04395172,0
5.0403566,0.20684695,3.0605164,0.99667829,0.06856066,-0.04395172,0
0.091244727,3.7418432,0.73851705,-0.059135273,0.98033941,0.18824828,0
-1.1654017,-2.01123,-3.0723381,-0.0015054941,-0.52408618,-0.85166389,0
-1.5295817,-3.860919,-0.12423491,0.065905407,-0.9960649,-0.059254646,0
5.2297716,-1.2188463,3.0614731,0.99667829,0.06856066,-0.04395172,0
-4.4612312,2.3327017,2.9152019,-0.016155958,0.69541782,0.71842402,0
-4.9098744,3.3803823,0.27263355,-0.068042487,0.99759531,0.013180375,0
5.1674881,-1.4756866,2.59499,0.99667829,0.06856066,-0.04395172,0
-5.0825968,1.7516704,-0.31890821,-0.99667829,-0.06856066,0.04395172,0
5.1495929,-1.229965,1.0907757,0.99667829,0.06856066,-0.04395172,0
2.9765213,-3.5068135,0.35346031,0.074395746,-0.98604971,0.14889991,0
-4.4195347,1.4492509,-3.1727355,-0.071219325,0.47202456,-0.87870395,0
4.0490017,3.2004046,2.1708574,-0.025658458,0.77656275,0.6295172,0
-5.091259,-0.77247143,-3.2577724,-0.99667829,-0.06856066,0.04395172,0
0.78629589,-1.0695395,3.597157,0.063005686,-0.30719724,0.94955778,0
-4.3154435,1.5810595,3.4153409,0.0020734072,0.518152,0.855286,0
5.0434508,-2.3885264,-2.6314125,0.99667829,0.06856066,-0.04395172,0
4.8318944,2.563273,-1.9501538,0.99667829,0.06856066,-0.04395172,0
4.823041,1.9863815,-3.067565,0.99667829,0.06856066,-0.04395172,0
0.69969082,-2.5167673,2.6669893,0.079086244,-0.68604034,0.72325236,0
1.4216352,3.2330613,2.012152,-0.030304343,0.8131597,0.58125114,0
-4.838614,-0.1062932,2.1994333,-0.99667829,-0.06856066,0.04395172,0
-4.317668,3.0290413,1.6850662,-0.043554604,0.90476561,0.42367691,0
-4.6915216,-2.7338052,2.6806276,-0.99667829,-0.06856066,0.04395172,0
-3.9573388,3.4454684,0.72254324,-0.060023315,0.98317349,0.17253101,0
5.0061178,1.4402049,2.7087293,0.99667829,0.06856066,-0.04395172,0
4.8990202,1.3583364,-2.0422845,0.99667829,0.06856066,-0.04395172,0
-5.2236314,-0.4653461,-3.3361163,-0.99667829,-0.06856066,0.04395172,0
-4.0153179,0.23870182,3.9874315,0.032491267,0.16011798,0.98656303,0
-4.9051075,-3.3109202,-1.9015585,-0.99667829,-0.06856066,0.04395172,0
5.1653037,-3.0569162,1.2591772,0.080284655,-0.91772044,0.38902879,0
-3.2120066,-1.8828491,-3.1999979,-0.0088297725,-0.44553441,-0.89522129,0
1.2629745,2.3461685,2.8333006,-0.008998692,0.6290977,0.77727407,0
4.9934573,0.38069415,2.151381,0.99667829,0.06856066,-0.04395172,0
4.781323,0.86367369,-2.7526062,0.99667829,0.06856066,-0.04395172,0
4.8600841,0.91969681,-2.094377,0.99667829,0.06856066,-0.04395172,0
-3.5100532,-3.9439187,0.36621511,0.071441591,-0.99514288,0.067724347,0
-4.9549012,0.22585869,0.66604471,-0.99667829,-0.06856066,0.04395172,0
3.723264,-3.5256546,-0.61388063,0.062549233,-0.99005759,-0.12599057,0
5.0118771,0.39596605,-1.5659138,0.99667829,0.06856066,-0.04395172,0
4.8911929,2.8793967,-0.16186111,0.99667829,0.06856066,-0.04395172,0
5.134201,-2.0164697,-0.14018679,0.99667829,0.06856066,-0.04395172,0
-4.9486494,-0.31514382,-1.0938656,-0.99667829,-0.06856066,0.04395172,0
-4.6208658,-0.55512381,3.8997974,0.046977878,-0.043167353,0.99796271,0
-4.6085854,-2.5363426,3.0975716,-0.99667829,-0.06856066,0.04395172,0
-5.121603,-1.2555614,-3.0225337,-0.99667829,-0.06856066,0.04395172,0
-0.42175078,1.6658612,3.2281458,0.005587697,0.48084724,0.87678653,0
-3.9672925,3.3469419,-1.1053743,-0.078975916,0.94541788,-0.31614536,0
5.125349,-1.8698626,-2.5317655,0.99667829,0.06856066,-0.04395172,0
-1.3740344,2.8123457,-2.2615736,-0.081058383,0.78302562,-0.61668491,0
-5.1022186,1.9211674,-0.44770956,-0.99667829,-0.06856066,0.04395172,0
-1.3451996,0.66423178,-3.6407533,-0.058257461,0.22311315,-0.97305012,0
5.2376027,-1.9483449,2.7367995,0.077371836,-0.62874091,0.77375603,0
-4.9332418,0.10180235,2.3484802,-0.99667829,-0.06856066,0.04395172,0
3.4332919,0.9351058,-3.8560081,-0.057232141,0.20571327,-0.97693735,0
5.0555067,-1.8376718,-0.088787079,0.99667829,0.06856066,-0.04395172,0
-4.8315229,-1.9055719,0.74171406,-0.99667829,-0.06856066,0.04395172,0
1.0298202,-0.099167347,-3.8704436,-0.04187429,-0.031449527,-0.99862778,0
5.0118303,-0.84505558,-3.6674469,0.99667829,0.06856066,-0.04395172,0
-0.12135091,3.4518461,1.2948701,-0.048105899,0.9311071,0.36155945,0
-4.867877,0.12383127,1.6445758,-0.99667829,-0.06856066,0.04395172,0
-4.80478,-3.4269047,-1.4147035,-0.99667829,-0.06856066,0.04395172,0
-3.9267106,-3.1018035,2.6420994,0.080789745,-0.76436383,0.63970369,0
-4.8924761,-1.6504474,-1.7794265,-0.99667829,-0.06856066,0.04395172,0
-3.7120018,1.4267025,3.5987754,0.0076168776,0.45884609,0.88848305,0
2.8168344,-3.3282247,-1.2718172,0.052413844,-0.95308018,-0.29814571,0
1.6931825,3.6308188,1.0607035,-0.052476782,0.95337754,0.29718244,0
-1.9111574,-3.9560935,0.086273909,0.067986012,-0.99758172,-0.014439106,0
-1.7120898,-1.9128962,3.3850408,0.070379734,-0.45358148,0.88843143,0
-3.5575759,-1.2826108,-3.5179279,-0.02146256,-0.29948071,-0.95386088,0
-0.30559969,-1.7892251,-3.2394619,-0.0056229234,-0.48046824,-0.87699407,0
4.7946291,1.2612114,-2.5858026,0.99667829,0.06856066,-0.04395172,0
-3.7456784,1.6186898,-3.2167573,-0.071274161,0.47324151,-0.87804461,0
5.050931,-0.65138674,0.12710667,0.99667829,0.06856066,-0.04395172,0
-4.0148559,-3.9380221,0.16610122,0.067777544,-0.99751818,-0.01906693,0
-3.3327065,3.4399588,-0.28867054,-0.073858798,0.98833942,-0.13315356,0
-0.93306661,-0.35861123,-3.6217616,-0.036515653,-0.10617605,-0.99367654,0
5.0505276,-0.18419456,-0.65249085,0.99667829,0.06856066,-0.04395172,0
-1.1222274,-3.7559161,0.71235943,0.075591654,-0.9796319,0.18603015,0
1.679045,3.122015,-2.2237396,-0.08136934,0.81603354,-0.57224834,0
4.0402722,-1.2894315,3.3352623,0.068168998,-0.40707135,0.91084892,0
-5.3035231,1.8067782,-1.9574628,-0.99667829,-0.06856066,0.04395172,0
-4.2303743,3.3003743,1.0757942,-0.055103637,0.96512228,0.25593483,0
5.0831041,0.3377676,-0.12496018,0.99667829,0.06856066,-0.04395172,0
-5.0240707,-1.2032256,-2.8301263,-0.99667829,-0.06856066,0.04395172,0
-2.0737925,2.655802,-2.4154913,-0.080430567,0.74400795,-0.66331214,0
5.0960002,0.18383169,3.2640553,0.99667829,0.06856066,-0.04395172,0
-4.8967595,-1.6841812,-3.2782011,-0.015858531,-0.36596701,-0.9304927,0
-1.3301368,-0.3170042,3.832633,0.047979236,-0.05824697,0.99714851,0
1.0259377,-3.3922632,-1.480875,0.046318755,-0.9211216,-0.38650954,0
1.1063743,-3.6612959,0.93355322,0.076987922,-0.96918672,0.23398674,0
2.7861445,-0.97181463,-3.6109028,-0.021232724,-0.30226263,-0.95298815,0
3.276958,4.0406227,-0.3626411,-0.07090351,0.99601126,-0.054168463,0
5.167738,-2.7674365,-0.61892891,0.99667829,0.06856066,-0.04395172,0
5.1181087,-1.4659858,2.1334305,0.99667829,0.06856066,-0.04395172,0
-5.2756681,1.2617929,-3.1412473,-0.99667829,-0.06856066,0.04395172,0
-5.1441526,0.88109422,-2.332706,-0.99667829,-0.06856066,0.04395172,0
4.9092646,0.98341942,-1.4352683,0.99667829,0.06856066,-0.04395172,0
-5.0767913,-0.82797861,-0.52747703,-0.99667829,-0.06856066,0.04395172,0
-5.0648432,-2.2263217,-2.3024521,-0.99667829,-0.06856066,0.04395172,0
-1.7782552,2.4221232,-2.6920784,-0.078376412,0.6608994,-0.74637055,0
4.9821,0.04061985,-1.2176816,0.99667829,0.06856066,-0.04395172,0
4.8039236,3.1725135,-1.6564208,0.99667829,0.06856066,-0.04395172,0
4.8032064,3.3395288,1.0984921,0.99667829,0.06856066,-0.04395172,0
1.0781474,-0.013832211,3.6054847,0.046754956,-0.039831698,0.99811184,0
-4.8994594,0.65474606,1.7622662,-0.99667829,-0.06856066,0.04395172,0
-3.3645875,3.192759,1.7317786,-0.041339576,0.89091039,0.45229375,0
-0.80047321,-2.3147755,3.0781369,0.075264573,-0.56931925,0.81866395,0
-2.1162262,-1.4081514,-3.4026432,-0.019531369,-0.32270682,-0.94629741,0
-3.0536675,1.8370063,-3.0041947,-0.074858308,0.55873185,-0.82596302,0
5.0259142,1.5297065,2.6756315,0.99667829,0.06856066,-0.04395172,0
1.0486045,2.8618479,2.3850198,-0.021948516,0.74585569,0.66574585,0
-2.2762065,-2.8683658,2.5480089,0.080274761,-0.7361424,0.67204934,0
-2.0587838,-3.33413,-1.9277638,0.036251426,-0.85677063,-0.51442188,0
-3.3308351,3.3777509,-0.73228073,-0.077310503,0.96618575,-0.2459839,0
-0.71663833,-3.6444678,1.3779695,0.080092788,-0.92292213,0.37656331,0
3.0541015,3.4922304,1.6922584,-0.039042443,0.87588227,0.48094279,0
5.1403008,-2.2990277,0.04887867,0.99667829,0.06856066,-0.04395172,0
-4.7526493,-3.0119929,1.1750361,-0.99667829,-0.06856066,0.04395172,0
4.6819115,4.0402746,0.12188029,0.99667829,0.06856066,-0.04395172,0
0.17311907,-0.047660828,-3.7433312,-0.041390181,-0.038347483,-0.99840689,0
0.80632472,-0.71011108,3.5756075,0.057589531,-0.21175244,0.97562516,0
-3.1533194,-3.0035083,-2.4418025,0.021604776,-0.74294579,-0.66900289,0
-0.18841362,2.3607972,-2.8412442,-0.077321589,0.62721443,-0.77499902,0
-4.2189178,3.0430732,-1.6119914,-0.081123352,0.88329172,-0.46175182,0
-1.164046,3.2800074,-1.7244744,-0.081303895,0.86876106,-0.48851186,0
4.8404894,0.80591679,-2.2289543,0.99667829,0.06856066,-0.04395172,0
2.4978852,-2.5153494,-2.8622119,0.016609728,-0.69947577,-0.71446323,0
1.3291295,-0.80605865,-3.8084242,-0.028345168,-0.21390438,-0.97644329,0
-4.9536567,-0.35099936,1.787563,-0.99667829,-0.06856066,0.04395172,0
5.0993361,-3.3353517,-0.072730541,0.071049213,-0.99579632,0.057808757,0
5.052237,1.8495381,1.7118909,0.99667829,0.06856066,-0.04395172,0
5.2145424,-0.12674475,2.8904188,0.99667829,0.06856066,-0.04395172,0
-4.4341002,-3.0138366,-2.2713983,0.020603418,-0.73440945,-0.67839384,0
-4.9399476,-2.2700272,-1.5234005,-0.99667829,-0.06856066,0.04395172,0
-4.8899713,-0.046522141,0.87974286,-0.99667829,-0.06856066,0.04395172,0
-3.3818426,-3.9589167,0.92690849,0.075985312,-0.9770534,0.19897932,0
-3.8104224,1.925234,-2.7885101,-0.076375902,0.59957695,-0.79666436,0
2.284626,-3.6579185,0.21998644,0.072537988,-0.99269545,0.096405387,0
4.8029232,3.8160405,0.034565926,0.99667829,0.06856066,-0.04395172,0
5.2244067,-2.0687852,2.6184902,0.99667829,0.06856066,-0.04395172,0
4.8655448,0.21721697,-1.4655707,0.99667829,0.06856066,-0.04395172,0
-5.0286036,1.8960567,1.4259171,-0.99667829,-0.06856066,0.04395172,0
-4.9566965,-0.099112511,-0.79875541,-0.99667829,-0.06856066,0.04395172,0
3.9820383,-2.9856997,-2.1036415,0.037261441,-0.86379158,-0.50246942,0
-4.1647034,3.2903106,1.2758288,-0.053373165,0.9575336,0.28333837,0
4.9497805,0.63761234,0.34819007,0.99667829,0.06856066,-0.04395172,0
-4.9934969,0.76381159,-0.52793717,-0.99667829,-0.06856066,0.04395172,0
-4.9082294,-0.88550901,2.4020844,-0.99667829,-0.06856066,0.04395172,0
4.7439303,2.7264876,-1.8175795,0.99667829,0.06856066,-0.04395172,0
-1.8552459,-3.6122985,1.2902915,0.079502761,-0.93610239,0.34262443,0
-3.9344592,-0.69260621,-3.5694599,-0.036214769,-0.11027148,-0.99324155,0
4.9628587,1.75211,1.6588302,0.99667829,0.06856066,-0.04395172,0
-4.7833505,-3.8047183,0.61341375,-0.99667829,-0.06856066,0.04395172,0
-0.12765542,3.701345,0.65504599,-0.058751971,0.97905463,0.19493657,0
4.0866361,3.4793143,1.8073325,-0.034736812,0.84602642,0.53200805,0
-3.3366082,0.091668129,3.8682704,0.03943193,0.065940559,0.99704409,0
1.6226759,-0.81682253,-3.6495874,-0.023846984,-0.27033803,-0.96247011,0
-4.9752116,0.39830542,1.4740112,-0.99667829,-0.06856066,0.04395172,0
-4.9785404,-0.47640991,2.3884101,-0.99667829,-0.06856066,0.04395172,0
-2.0580201,3.2018015,-1.8278985,-0.081265986,0.87245506,-0.48188984,0
-5.1774998,3.2576578,0.5821023,-0.99667829,-0.06856066,0.04395172,0
4.5433407,-0.94978309,3.3487384,0.06372726,-0.32055604,0.94508338,0
4.9570928,1.065001,-1.2169876,0.99667829,0.06856066,-0.04395172,0
-5.0741005,1.2053299,1.6389508,-0.99667829,-0.06856066,0.04395172,0
4.7898712,0.871171,-1.7175915,0.99667829,0.06856066,-0.04395172,0
2.3697131,2.8251607,-2.7928269,-0.079725564,0.71129203,-0.69836044,0
3.8029385,3.9786248,-0.55366242,-0.071838737,0.99436593,-0.077944279,0
3.3547471,-3.587378,-0.40378571,0.063878164,-0.99290484,-0.10029674,0
-5.1612778,0.90584517,0.20220709,-0.99667829,-0.06856066,0.04395172,0
-4.9653349,-1.5720179,-3.1827319,-0.99667829,-0.06856066,0.04395172,0
4.9132137,1.0600123,-2.7164035,0.99667829,0.06856066,-0.04395172,0
2.8898458,-3.4680538,-0.6304822,0.061284319,-0.98683774,-0.14965135,0
-5.2848463,1.3256295,-2.4349523,-0.99667829,-0.06856066,0.04395172,0
-4.0001068,3.4881845,0.56797838,-0.062366545,0.98962224,0.12945372,0
-3.0823116,1.3593451,-3.3355589,-0.0679636,0.40288368,-0.91272438,0
-2.4728055,-3.8326368,0.6429565,0.073684186,-0.9890151,0.12813926,0
-3.8030522,-3.2279077,-2.1473017,0.025013536,-0.77131695,-0.63595939,0
-5.1744928,1.1564276,-1.5870681,-0.99667829,-0.06856066,0.04395172,0
4.869833,1.8088353,1.3465339,0.99667829,0.06856066,-0.04395172,0
-4.8705955,-2.2491009,-1.6646924,-0.99667829,-0.06856066,0.04395172,0
-2.9750361,-3.3275173,2.2633758,0.081356287,-0.81389773,0.57528383,0
-5.190351,3.2784855,-0.78657103,-0.077559233,0.96368855,-0.25551695,0
-0.41066551,2.5993876,2.7220812,-0.017922521,0.71111339,0.70284885,0
4.0967836,-0.16947699,-3.9419727,-0.03588289,-0.11477652,-0.99274313,0
4.1736321,3.3099284,-2.2367015,-0.081403315,0.82270932,-0.56260359,0
4.9232054,0.42194843,-3.1528115,0.99667829,0.06856066,-0.04395172,0
4.8100548,3.235791,-0.34859937,0.99667829,0.06856066,-0.04395172,0
-5.2172699,2.5475616,1.31427,-0.99667829,-0.06856066,0.04395172,0
-3.0916572,-3.3507848,-1.9221853,0.030581981,-0.81527853,-0.57826078,0
-0.55193663,2.0259745,-3.1673551,-0.074353814,0.54589528,-0.83454764,0
5.1107159,0.1318543,3.4230003,0.99667829,0.06856066,-0.04395172,0
5.1289968,-1.9727678,-1.9313028,0.99667829,0.06856066,-0.04395172,0
4.78513,1.2030177,-2.6608284,0.99667829,0.06856066,-0.04395172,0
3.8148372,2.5819519,-3.1056366,-0.077439606,0.63081193,-0.77206171,0
4.7870483,2.8879707,-0.0097696483,0.99667829,0.06856066,-0.04395172,0
-5.1281271,2.9984903,0.31015539,-0.99667829,-0.06856066,0.04395172,0
0.17538714,2.1999011,3.0325668,-0.0036995411,0.57724875,0.81655991,0
2.5598164,-3.4690511,0.37889862,0.07399866,-0.98777485,0.13720417,0
-4.8287807,0.10128212,3.6788268,-0.99667829,-0.06856066,0.04395172,0
-4.3371358,0.17018771,-3.4376154,-0.052860856,0.13407609,-0.98956013,0
5.0572982,-1.0754762,-1.549701,0.99667829,0.06856066,-0.04395172,0
3.8792062,2.4561381,2.7663155,-0.0053504705,0.59364879,0.80470645,0
-5.0568733,-1.0742972,-0.63428152,-0.99667829,-0.06856066,0.04395172,0
-5.3685818,2.682899,-1.5962195,-0.99667829,-0.06856066,0.04395172,0
4.7370644,-3.3894205,-0.18573904,0.068661183,-0.99763978,0.00078010559,0
-0.1630404,-3.4474113,1.3089492,0.079962909,-0.92614889,0.36858368,0
0.14785779,-2.5359695,-2.681308,0.015941799,-0.69349688,-0.72028315,0
4.8322959,0.37039232,-2.3022251,0.99667829,0.06856066,-0.04395172,0
-5.0326195,1.7106171,1.0108871,-0.99667829,-0.06856066,0.04395172,0
-4.8048539,-2.6190996,0.23882426,-0.99667829,-0.06856066,0.04395172,0
4.9023795,-2.7162628,1.9535098,0.081403494,-0.82277167,0.56251228,0
