2.9734795,-1.7060971,-0.26243258,-0.29429215,-0.8614679,0.41384196,0
-0.65015054,-0.96588278,-1.2167548,-0.29429215,-0.8614679,0.41384196,0
-1.9209342,2.0679643,1.7465569,0.29429215,0.8614679,-0.41384196,0
-3.1231174,-0.38187471,-2.042927,-0.80674636,-0.0082363412,-0.59084034,0
0.43455303,1.8398423,3.0303941,0.29429215,0.8614679,-0.41384196,0
3.0269573,-0.57542336,-0.13836384,0.29429215,0.8614679,-0.41384196,0
1.2271681,-0.66821456,0.72796488,-0.29429215,-0.8614679,0.41384196,0
2.3457456,-0.26748672,2.2018495,-0.29429215,-0.8614679,0.41384196,0
-2.489249,0.13237616,-0.33085215,-0.29429215,-0.8614679,0.41384196,0
-0.85584724,-0.24683923,-2.4947214,0.29429215,0.8614679,-0.41384196,0
-1.9269186,0.05062443,-2.5985792,0.29429215,0.8614679,-0.41384196,0
-0.3872683,0.26017186,1.4074886,-0.29429215,-0.8614679,0.41384196,0
0.79504371,1.8180485,3.1046696,0.29429215,0.8614679,-0.41384196,0
-1.805443,-0.31790972,-0.899019,-0.29429215,-0.8614679,0.41384196,0
1.8604803,-1.4969271,-2.9143672,0.29429215,0.8614679,-0.41384196,0
-2.1814752,0.69414675,-1.3956559,0.29429215,0.8614679,-0.41384196,0
1.4841247,-0.36565995,-1.1132269,0.29429215,0.8614679,-0.41384196,0
1.3808148,-1.3456285,-3.113234,0.29429215,0.8614679,-0.41384196,0
0.97869945,-0.20107198,-0.72955924,0.29429215,0.8614679,-0.41384196,0
-2.3598449,0.16148311,0.021898627,-0.29429215,-0.8614679,0.41384196,0
1.0488949,0.4256703,0.52122283,0.29429215,0.8614679,-0.41384196,0
-2.0163937,0.47145706,-1.4648356,0.29429215,0.8614679,-0.41384196,0
-1.7240469,2.2750573,2.2495117,0.29429215,0.8614679,-0.41384196,0
1.345444,-0.66318947,-1.6817329,0.29429215,0.8614679,-0.41384196,0
-2.4345758,0.47031981,0.34958357,-0.29429215,-0.8614679,0.41384196,0
1.7433982,0.34893173,3.3413785,-0.29429215,-0.8614679,0.41384196,0
2.2197998,0.57122368,1.6383469,0.29429215,0.8614679,-0.41384196,0
-1.0406349,2.1313441,2.8837333,-0.30125695,0.49456027,0.81526345,0
-0.57104242,0.87980616,0.063465789,0.29429215,0.8614679,-0.41384196,0
2.5828378,-1.8901329,-1.0425161,-0.29429215,-0.8614679,0.41384196,0
-1.592416,0.094329298,0.17703748,-0.29429215,-0.8614679,0.41384196,0
-0.58504152,-0.88153708,-1.2344588,-0.29429215,-0.8614679,0.41384196,0
1.3105638,-1.103526,-2.3599858,0.29429215,0.8614679,-0.41384196,0
-1.7269211,1.1544853,0.20777112,0.29429215,0.8614679,-0.41384196,0
2.2336805,-1.9919709,-1.1917206,-0.29429215,-0.8614679,0.41384196,0
-3.5300293,1.2020093,-1.0390401,-0.94941539,0.21388429,-0.22992128,0
0.3671217,1.4237661,3.418201,0.097097516,0.40382677,0.90966797,0
-1.9727831,-0.88444841,-2.1940937,-0.29429215,-0.8614679,0.41384196,0
0.29851866,-1.0892485,-3.4283326,0.29429215,0.8614679,-0.41384196,0
2.0092981,0.60409206,1.6994643,0.29429215,0.8614679,-0.41384196,0
3.241673,-0.027662277,1.0703664,0.29429215,0.8614679,-0.41384196,0
0.75381148,0.17207593,-0.43526593,0.29429215,0.8614679,-0.41384196,0
0.25583458,-1.0607386,-0.81613624,-0.29429215,-0.8614679,0.41384196,0
-1.5911515,1.238431,2.8904216,-0.29429215,-0.8614679,0.41384196,0
-3.4720395,1.3493187,0.19897699,-0.93865669,0.34198433,0.044386923,0
0.045430154,-0.58154309,0.25944281,-0.29429215,-0.8614679,0.41384196,0
0.54593384,-0.10194689,-0.83546162,0.29429215,0.8614679,-0.41384196,0
2.04831,0.1469267,2.8675797,-0.29429215,-0.8614679,0.41384196,0
0.81780624,0.027611792,1.7731748,-0.29429215,-0.8614679,0.41384196,0
-2.6370778,1.5415223,0.16579461,0.29429215,0.8614679,-0.41384196,0
-2.4736304,0.42551783,0.19807172,-0.29429215,-0.8614679,0.41384196,0
1.9284632,-2.2652438,-1.9549356,-0.29429215,-0.8614679,0.41384196,0
-0.77050734,1.035327,2.9993949,-0.29429215,-0.8614679,0.41384196,0
1.2795701,0.86536157,1.2757366,0.29429215,0.8614679,-0.41384196,0
-1.1235774,1.3762608,3.1150434,-0.29429215,-0.8614679,0.41384196,0
-1.1897068,-0.00045925379,0.44428506,-0.29429215,-0.8614679,0.41384196,0
1.6209708,-0.76241601,0.62553704,-0.29429215,-0.8614679,0.41384196,0
-0.39074063,1.2314403,3.3294861,-0.29429215,-0.8614679,0.41384196,0
-0.46668792,2.080374,3.0091074,0.29429215,0.8614679,-0.41384196,0
-1.8377233,1.0423367,-0.37048542,0.29429215,0.8614679,-0.41384196,0
-3.1596839,1.4314537,-0.43471193,0.29429215,0.8614679,-0.41384196,0
0.14953709,1.9346151,2.8491671,0.29429215,0.8614679,-0.41384196,0
2.0982964,-1.7966856,-0.81863892,-0.29429215,-0.8614679,0.41384196,0
-0.060986489,0.14719847,-0.81604934,0.29429215,0.8614679,-0.41384196,0
-0.85502195,0.50397551,-1.0076251,0.29429215,0.8614679,-0.41384196,0
1.2084517,-0.84417182,-2.2033396,0.29429215,0.8614679,-0.41384196,0
1.9034455,-1.9414228,-1.2443475,-0.29429215,-0.8614679,0.41384196,0
0.91718245,-0.22691658,-0.89991701,0.29429215,0.8614679,-0.41384196,0
-0.6265583,1.9697778,2.3759427,0.29429215,0.8614679,-0.41384196,0
0.51291394,0.84006345,0.9471302,0.29429215,0.8614679,-0.41384196,0
0.56933594,-1.9879696,-2.5450535,-0.29429215,-0.8614679,0.41384196,0
-1.7723018,0.70383179,-1.0666627,0.29429215,0.8614679,-0.41384196,0
-0.68101394,1.0199683,0.4160341,0.29429215,0.8614679,-0.41384196,0
0.39619267,1.3590791,3.4637244,0.10311669,0.40186885,0.90987277,0
-3.2766378,1.905463,0.32453215,-0.91057366,0.38425004,0.15233922,0
-1.6047947,1.3911817,3.066906,-0.29429215,-0.8614679,0.41384196,0
-3.5882773,0.13298224,-1.2401078,-0.91612154,0.13093483,-0.37891579,0
1.754349,-1.1869045,-2.2114604,0.29429215,0.8614679,-0.41384196,0
-2.072439,1.7443856,2.7037587,-0.53006852,0.50744003,0.67936146,0
0.90450025,-1.4747999,-1.2002107,-0.29429215,-0.8614679,0.41384196,0
-1.2836962,-0.18539149,-2.493778,0.29429215,0.8614679,-0.41384196,0
-2.6063676,2.296335,1.6689458,-0.71846557,0.48496854,0.49861053,0
1.0273356,0.17723894,2.2344573,-0.29429215,-0.8614679,0.41384196,0
-0.30804092,-0.86444783,-0.69119471,-0.29429215,-0.8614679,0.41384196,0
-2.1769004,0.62892073,-1.3079617,0.29429215,0.8614679,-0.41384196,0
1.2261596,0.20924383,2.7455389,-0.29429215,-0.8614679,0.41384196,0
-2.7551219,1.0100211,-1.2876658,0.29429215,0.8614679,-0.41384196,0
-1.768113,0.11800537,0.37752694,-0.29429215,-0.8614679,0.41384196,0
0.48742032,-1.9451567,-2.6250973,-0.29429215,-0.8614679,0.41384196,0
-0.086699247,0.6040504,2.1853333,-0.29429215,-0.8614679,0.41384196,0
-3.0777326,0.57228303,0.33612669,-0.29429215,-0.8614679,0.41384196,0
2.9711437,-1.8681521,-0.5124917,-0.29429215,-0.8614679,0.41384196,0
2.1343496,-1.7218651,-0.83764243,-0.29429215,-0.8614679,0.41384196,0
3.4170783,-0.038679719,1.2010286,0.29429215,0.8614679,-0.41384196,0
-3.4144616,0.23999123,-0.62154984,-0.29429215,-0.8614679,0.41384196,0
-1.85625,0.42828196,-1.8568852,0.29429215,0.8614679,-0.41384196,0
2.4975471,-1.675944,-0.6228317,-0.29429215,-0.8614679,0.41384196,0
2.6018248,0.021273494,2.6486845,0.70792443,0.094410807,0.69994962,0
2.7378819,-0.57585764,-0.35912645,0.29429215,0.8614679,-0.41384196,0
-0.48624063,-1.9817709,-3.286273,-0.094498038,-0.40466693,-0.90956837,0
3.4052365,-0.61415422,1.4737787,0.9198302,-0.13776661,0.36733186,0
0.41374797,0.047998995,-0.77012575,0.29429215,0.8614679,-0.41384196,0
-1.4067247,-1.3057939,-2.3598592,-0.29429215,-0.8614679,0.41384196,0
-2.4471905,1.2704241,-0.30803013,0.29429215,0.8614679,-0.41384196,0
-3.0159757,0.13972023,-2.1171389,-0.82862568,0.014234982,-0.55962193,0
-1.8323134,-0.15104961,-2.8092573,0.29429215,0.8614679,-0.41384196,0
-2.1876538,0.59877187,0.76996315,-0.29429215,-0.8614679,0.41384196,0
-0.81742108,0.98189515,0.24619213,0.29429215,0.8614679,-0.41384196,0
-2.086488,2.290916,1.9993274,-0.61013913,0.5026437,0.61243713,0
0.98871994,-1.3531294,-0.8208487,-0.29429215,-0.8614679,0.41384196,0
-2.0567899,-0.091997921,-0.43697894,-0.29429215,-0.8614679,0.41384196,0
-1.1223224,-1.403214,-3.1791937,-0.27455294,-0.3385599,-0.89999866,0
-3.6588848,0.95250028,-0.34840202,-0.95568192,0.26888555,-0.11988509,0
-0.47036803,1.0357574,0.72781312,0.29429215,0.8614679,-0.41384196,0
3.5833914,-0.53657198,0.20604467,0.29429215,0.8614679,-0.41384196,0
2.4227719,-1.2753358,0.47957456,-0.29429215,-0.8614679,0.41384196,0
0.50696868,0.44386572,0.24356955,0.29429215,0.8614679,-0.41384196,0
0.22690475,0.57882077,2.6544478,-0.29429215,-0.8614679,0.41384196,0
-1.3164629,0.41574803,1.0293919,-0.29429215,-0.8614679,0.41384196,0
-2.4275458,2.0781212,1.1971118,0.29429215,0.8614679,-0.41384196,0
0.98324454,0.69807565,3.4790525,-0.29429215,-0.8614679,0.41384196,0
-3.2694142,1.5875386,1.2527362,-0.85288203,0.43212384,0.29302078,0
-0.26553249,-1.3875859,-3.5549743,-0.090749323,-0.40587282,-0.90941274,0
0.36731219,-1.6112437,-1.7642611,-0.29429215,-0.8614679,0.41384196,0
1.2328548,0.54631674,0.83598554,0.29429215,0.8614679,-0.41384196,0
0.90216279,-2.2340786,-2.7796316,0.29700649,-0.49401516,-0.81715125,0
1.8559167,-1.415472,-0.49157903,-0.29429215,-0.8614679,0.41384196,0
3.0768399,-1.6009681,-1.6895701,0.79037118,-0.46282443,-0.40138102,0
2.5122499,0.11435929,0.90061092,0.29429215,0.8614679,-0.41384196,0
3.0509162,0.050564393,1.0666482,0.29429215,0.8614679,-0.41384196,0
1.2383888,-1.6917431,-1.6064291,-0.29429215,-0.8614679,0.41384196,0
-2.3569112,0.82142603,1.3171225,-0.29429215,-0.8614679,0.41384196,0
-2.0545199,1.8278258,1.0010157,0.29429215,0.8614679,-0.41384196,0
0.16763031,1.0155845,1.001725,0.29429215,0.8614679,-0.41384196,0
-2.5163519,-0.23559093,-2.7088978,-0.69819641,-0.10189795,-0.70861721,0
-2.364912,0.91348845,-1.1155596,0.29429215,0.8614679,-0.41384196,0
0.08882618,0.35947573,1.8419287,-0.29429215,-0.8614679,0.41384196,0
2.482672,0.33625811,1.182502,0.29429215,0.8614679,-0.41384196,0
0.18937945,-0.90536207,-3.0981193,0.29429215,0.8614679,-0.41384196,0
2.7842603,-0.89440554,1.4631422,-0.29429215,-0.8614679,0.41384196,0
-2.1294222,0.7010138,-1.393086,0.29429215,0.8614679,-0.41384196,0
3.2306852,-0.032186598,1.9268341,0.84955394,-0.037454441,0.52617019,0
-2.8952279,1.1838477,1.7600236,-0.29429215,-0.8614679,0.41384196,0
3.0666192,-1.9369577,-0.72426391,-0.29429215,-0.8614679,0.41384196,0
0.2721374,-1.0338919,-3.1457536,0.29429215,0.8614679,-0.41384196,0
-1.4270787,0.87752724,2.0419188,-0.29429215,-0.8614679,0.41384196,0
0.13746798,-0.45636085,-1.8190414,0.29429215,0.8614679,-0.41384196,0
-1.7305343,1.9689661,1.4830462,0.29429215,0.8614679,-0.41384196,0
0.90988612,-1.5700409,-3.2677538,0.238536,-0.48552239,-0.841052,0
-1.6803255,0.31161758,-1.5919819,0.29429215,0.8614679,-0.41384196,0
0.29665923,1.0168595,3.4644244,-0.29429215,-0.8614679,0.41384196,0
0.83395553,-1.0844325,-2.9721684,0.29429215,0.8614679,-0.41384196,0
2.6830237,-1.9028887,-0.62819767,-0.29429215,-0.8614679,0.41384196,0
-0.76225603,-1.0103343,-1.3169895,-0.29429215,-0.8614679,0.41384196,0
-0.52284694,-0.28954431,0.087163359,-0.29429215,-0.8614679,0.41384196,0
-2.0968904,0.0055675507,-2.6999161,0.29429215,0.8614679,-0.41384196,0
-1.7176328,-0.021575689,-0.25331879,-0.29429215,-0.8614679,0.41384196,0
-2.5752654,2.222276,1.5649712,-0.74778521,0.47721118,0.46161276,0
-1.1725378,0.74572778,2.0658722,-0.29429215,-0.8614679,0.41384196,0
0.60242194,-0.1992234,1.0823083,-0.29429215,-0.8614679,0.41384196,0
-1.7317638,0.76290065,-1.0042821,0.29429215,0.8614679,-0.41384196,0
-0.50184357,0.26317206,-1.1842391,0.29429215,0.8614679,-0.41384196,0
1.4066348,-0.92990041,-1.9667826,0.29429215,0.8614679,-0.41384196,0
-0.804847,2.2455873,2.9652138,-0.22539228,0.48336411,0.84590608,0
-2.3692155,0.11493029,-0.35382557,-0.29429215,-0.8614679,0.41384196,0
0.34862578,0.62692893,2.5289555,-0.29429215,-0.8614679,0.41384196,0
-0.27621651,1.1598743,3.4566925,-0.29429215,-0.8614679,0.41384196,0
2.6001003,-1.3324339,-2.1315031,0.29429215,0.8614679,-0.41384196,0
0.57614183,0.75996506,0.83797956,0.29429215,0.8614679,-0.41384196,0
2.0558324,-0.61850566,1.2122209,-0.29429215,-0.8614679,0.41384196,0
2.0008299,0.22559403,0.85848045,0.29429215,0.8614679,-0.41384196,0
2.8321924,-1.1089975,-1.4427376,0.29429215,0.8614679,-0.41384196,0
0.32447338,-1.49701,-1.4932584,-0.29429215,-0.8614679,0.41384196,0
1.8455257,1.1960776,2.6596036,0.29429215,0.8614679,-0.41384196,0
2.2651148,-0.64548683,-1.1148988,0.29429215,0.8614679,-0.41384196,0
0.78488243,0.40697747,-0.039484143,0.29429215,0.8614679,-0.41384196,0
0.2140671,0.14691919,1.8793067,-0.29429215,-0.8614679,0.41384196,0
-1.7459445,1.9708571,1.7392712,0.29429215,0.8614679,-0.41384196,0
-1.9084904,-0.16237354,-2.7619095,0.29429215,0.8614679,-0.41384196,0
2.3976288,-0.84763372,-1.4769924,0.29429215,0.8614679,-0.41384196,0
0.37551296,0.9372375,3.3439825,-0.29429215,-0.8614679,0.41384196,0
0.64555436,0.75285494,0.93692029,0.29429215,0.8614679,-0.41384196,0
-0.54239279,-1.1527276,-1.6026382,-0.29429215,-0.8614679,0.41384196,0
3.0893667,-1.9833884,-0.57809734,-0.29429215,-0.8614679,0.41384196,0
0.62338662,-1.8382959,-2.0140448,-0.29429215,-0.8614679,0.41384196,0
-3.3672521,1.6314056,0.087367535,-0.92935705,0.35894978,0.086315989,0
2.5158949,0.5583961,1.855037,0.29429215,0.8614679,-0.41384196,0
1.2739949,-0.92954433,0.030366242,-0.29429215,-0.8614679,0.41384196,0
-1.446803,0.14166135,-2.1190965,0.29429215,0.8614679,-0.41384196,0
1.7846011,-0.1970759,2.0712814,-0.29429215,-0.8614679,0.41384196,0
0.20217502,-0.37239444,-1.8309001,0.29429215,0.8614679,-0.41384196,0
3.3242471,-1.6934072,-0.62587655,0.90603077,-0.38927984,-0.16603985,0
-2.2558267,1.0175894,1.6707581,-0.29429215,-0.8614679,0.41384196,0
0.89147621,-0.033860505,1.5518335,-0.29429215,-0.8614679,0.41384196,0
1.2338016,0.23690343,2.4065404,-0.29429215,-0.8614679,0.41384196,0
2.4803615,-0.87561619,1.0893011,-0.29429215,-0.8614679,0.41384196,0
-1.3818166,1.9477506,1.9371867,0.29429215,0.8614679,-0.41384196,0
1.1542288,1.3048078,2.5694838,0.29429215,0.8614679,-0.41384196,0
-2.0659564,1.6451738,0.69804442,0.29429215,0.8614679,-0.41384196,0
-0.51982939,1.4276116,1.4880384,0.29429215,0.8614679,-0.41384196,0
2.9207983,-0.2523728,0.11330462,0.29429215,0.8614679,-0.41384196,0
-0.26813078,0.93695039,2.915849,-0.29429215,-0.8614679,0.41384196,0
2.5180941,-1.2201071,-2.1064892,0.29429215,0.8614679,-0.41384196,0
0.23864043,-1.1434677,-0.91384643,-0.29429215,-0.8614679,0.41384196,0
-1.3413754,2.1333587,2.8039985,-0.3542406,0.50049824,0.78994614,0
1.1758144,-1.7459335,-1.5079049,-0.29429215,-0.8614679,0.41384196,0
-1.6688452,-0.61764103,-1.3332458,-0.29429215,-0.8614679,0.41384196,0
-0.92451465,0.30195904,-1.0334235,0.29429215,0.8614679,-0.41384196,0
0.69221413,1.4293975,3.4536223,0.16340977,0.38128501,0.90990037,0
1.5593792,-0.63687497,1.0745075,-0.29429215,-0.8614679,0.41384196,0
-0.46758962,1.1098449,3.2671556,-0.29429215,-0.8614679,0.41384196,0
1.4999062,1.3461127,3.0683098,0.39201313,0.28610671,0.87433887,0
-0.55676001,-0.3257561,-0.10077786,-0.29429215,-0.8614679,0.41384196,0
1.1419537,0.57571113,3.0900121,-0.29429215,-0.8614679,0.41384196,0
-3.087712,1.3723682,-0.34659672,0.29429215,0.8614679,-0.41384196,0
-2.6429174,1.8605663,1.7768903,-0.73168206,0.48166257,0.48233029,0
3.1125913,-1.8751768,-0.46218807,-0.29429215,-0.8614679,0.41384196,0
-0.74210823,-1.7042944,-3.0588596,-0.29429215,-0.8614679,0.41384196,0
1.0212915,0.72860467,0.85530233,0.29429215,0.8614679,-0.41384196,0
0.043108881,-0.060839117,-1.5448296,0.29429215,0.8614679,-0.41384196,0
-1.4755622,-0.63379568,-3.3604567,0.29429215,0.8614679,-0.41384196,0
-0.63595426,0.24978942,1.3302525,-0.29429215,-0.8614679,0.41384196,0
-0.30368459,0.76499259,2.4961448,-0.29429215,-0.8614679,0.41384196,0
0.6491859,1.8977045,3.1802351,0.29429215,0.8614679,-0.41384196,0
2.1155255,0.44310278,1.4091125,0.29429215,0.8614679,-0.41384196,0
0.29853818,-0.15523881,0.8576746,-0.29429215,-0.8614679,0.41384196,0
2.9646394,-0.40054044,0.011695981,0.29429215,0.8614679,-0.41384196,0
1.4946041,0.14488411,2.8097126,-0.29429215,-0.8614679,0.41384196,0
3.5463469,-1.0613215,0.71987915,0.95458287,-0.24388173,0.17115229,0
-0.4070375,-1.9077015,-3.0193954,-0.29429215,-0.8614679,0.41384196,0
-1.3935326,0.88026166,-0.45373452,0.29429215,0.8614679,-0.41384196,0
0.76393032,1.8787309,3.2833114,0.29429215,0.8614679,-0.41384196,0
2.6782336,-1.3897109,0.36471426,-0.29429215,-0.8614679,0.41384196,0
-0.20258987,1.4839034,1.811384,0.29429215,0.8614679,-0.41384196,0
-1.8537591,-1.1047927,-2.5693324,-0.29429215,-0.8614679,0.41384196,0
-1.0299872,-0.97259778,-3.5124896,-0.2918815,-0.33131397,-0.8972379,0
-2.9331391,0.21480107,-2.3975475,-0.80102396,-0.01385738,-0.59847188,0
-3.0152407,0.041191518,-2.2692444,-0.80792809,-0.0070632771,-0.58923864,0
-2.9497921,1.3436751,-0.64986706,0.29429215,0.8614679,-0.41384196,0
2.4238458,-1.0106498,0.7477622,-0.29429215,-0.8614679,0.41384196,0
3.1994822,-0.31073251,0.47042012,0.29429215,0.8614679,-0.41384196,0
-1.623746,0.79768133,-0.495507,0.29429215,0.8614679,-0.41384196,0
-2.0294299,1.3150806,0.049602032,0.29429215,0.8614679,-0.41384196,0
-2.7352297,1.6870629,0.33469796,0.29429215,0.8614679,-0.41384196,0
-0.46487653,0.20125079,-1.2072885,0.29429215,0.8614679,-0.41384196,0
0.085736632,0.01391381,1.0885412,-0.29429215,-0.8614679,0.41384196,0
0.57188392,-1.7446725,-2.2565145,-0.29429215,-0.8614679,0.41384196,0
-2.4723947,0.40981093,-2.301079,0.29429215,0.8614679,-0.41384196,0
-2.4088407,0.11763896,-0.48606324,-0.29429215,-0.8614679,0.41384196,0
-2.3421969,0.32460913,-2.1277223,0.29429215,0.8614679,-0.41384196,0
1.7234148,-0.93669927,0.50814652,-0.29429215,-0.8614679,0.41384196,0
-2.9578791,0.063854665,-2.1309898,-0.82196128,0.0072141215,-0.56949759,0
0.13676369,1.7071748,2.284322,0.29429215,0.8614679,-0.41384196,0
0.27989644,-0.7045362,-0.14043149,-0.29429215,-0.8614679,0.41384196,0
-2.560396,1.5509011,2.2654309,-0.66223717,0.49602303,0.56160724,0
1.1878532,-0.3572551,1.2995305,-0.29429215,-0.8614679,0.41384196,0
-3.139919,-0.45251828,-2.1758909,-0.77898788,-0.034648426,-0.62608087,0
-2.1073127,-0.21670961,-0.81666398,-0.29429215,-0.8614679,0.41384196,0
1.329627,-1.0070381,-0.070487201,-0.29429215,-0.8614679,0.41384196,0
1.2577994,-0.21094602,1.5585201,-0.29429215,-0.8614679,0.41384196,0
-0.32734227,-0.72761989,-3.0588858,0.29429215,0.8614679,-0.41384196,0
3.4775591,0.18759239,1.5828891,0.29429215,0.8614679,-0.41384196,0
-2.3528073,0.66873628,1.0913937,-0.29429215,-0.8614679,0.41384196,0
-2.3291454,2.2020831,1.9414978,0.29429215,0.8614679,-0.41384196,0
3.1353259,-1.0232052,1.2482257,-0.29429215,-0.8614679,0.41384196,0
-1.1817238,-1.5466967,-2.6713562,-0.29429215,-0.8614679,0.41384196,0
2.7847006,-2.0152845,-0.81613564,-0.29429215,-0.8614679,0.41384196,0
-1.0512152,1.2423416,3.158082,-0.29429215,-0.8614679,0.41384196,0
3.1693447,-0.37243059,0.056261063,0.29429215,0.8614679,-0.41384196,0
1.0753992,1.3700237,3.2917197,0.29849583,0.32850483,0.89609402,0
-2.9266825,0.6030935,-2.110225,0.29429215,0.8614679,-0.41384196,0
-0.069895506,0.48857307,2.3473997,-0.29429215,-0.8614679,0.41384196,0
-1.329023,-0.03248471,-2.1589606,0.29429215,0.8614679,-0.41384196,0
-1.1016445,1.4599382,1.1800289,0.29429215,0.8614679,-0.41384196,0
2.1868021,0.21366425,0.56318641,0.29429215,0.8614679,-0.41384196,0
-0.14452088,-1.0795844,-1.2944396,-0.29429215,-0.8614679,0.41384196,0
-1.2938235,0.22723895,0.72907376,-0.29429215,-0.8614679,0.41384196,0
-1.2002664,-0.47930616,-0.53836608,-0.29429215,-0.8614679,0.41384196,0
0.90032035,-0.78827965,0.4033795,-0.29429215,-0.8614679,0.41384196,0
-1.2782438,2.3285081,2.6156807,0.29429215,0.8614679,-0.41384196,0
-2.6355214,2.1935713,1.8031241,-0.71447182,0.48590976,0.50340986,0
-3.3875859,1.5169969,0.20290816,-0.92818457,0.36081377,0.091029823,0
-2.0152202,1.0163412,-0.50516999,0.29429215,0.8614679,-0.41384196,0
0.11547422,-0.33060777,-1.5727577,0.29429215,0.8614679,-0.41384196,0
-2.1331806,-1.0039903,-2.2311785,-0.29429215,-0.8614679,0.41384196,0
3.0674267,-1.2257645,0.93639731,-0.29429215,-0.8614679,0.41384196,0
-1.2059561,-0.38218755,-2.7428348,0.29429215,0.8614679,-0.41384196,0
1.5690079,-1.7533196,-1.2783227,-0.29429215,-0.8614679,0.41384196,0
-0.11760503,0.15905219,1.2933303,-0.29429215,-0.8614679,0.41384196,0
2.2093554,-2.2750254,-1.8978621,-0.29429215,-0.8614679,0.41384196,0
-0.093666136,-1.0366316,-0.87062228,-0.29429215,-0.8614679,0.41384196,0
0.23897505,1.7474504,2.598264,0.29429215,0.8614679,-0.41384196,0
0.30624545,-0.46744043,-1.8492821,0.29429215,0.8614679,-0.41384196,0
-0.90669274,1.9108424,2.0313838,0.29429215,0.8614679,-0.41384196,0
0.77836263,0.8001653,3.4469912,-0.29429215,-0.8614679,0.41384196,0
-0.37485754,0.037854016,-1.3671848,0.29429215,0.8614679,-0.41384196,0
2.1664503,-1.3168645,-0.12527001,-0.29429215,-0.8614679,0.41384196,0
0.68318439,0.025662899,-0.69459862,0.29429215,0.8614679,-0.41384196,0
-0.012918442,0.034670979,-0.92232263,0.29429215,0.8614679,-0.41384196,0
-3.1270213,0.92507827,0.76648957,-0.29429215,-0.8614679,0.41384196,0
-1.7873186,0.27766138,-1.8929465,0.29429215,0.8614679,-0.41384196,0
0.84733462,-1.8014938,-1.7848715,-0.29429215,-0.8614679,0.41384196,0
0.43260288,-1.1967502,-3.2407432,0.29429215,0.8614679,-0.41384196,0
-1.8782542,2.3208103,2.4181938,-0.51233232,0.50774592,0.69261062,0
-0.29125074,0.032008469,-1.430086,0.29429215,0.8614679,-0.41384196,0
2.5402198,-1.9838917,-0.91364789,-0.29429215,-0.8614679,0.41384196,0
0.11411726,-1.0407708,-1.0905688,-0.29429215,-0.8614679,0.41384196,0
3.5834219,-0.62010264,1.0986857,0.93963438,-0.1817068,0.28994769,0
-1.6516817,0.91627896,-0.41596377,0.29429215,0.8614679,-0.41384196,0
0.65773392,-1.3194333,-3.4437659,0.29429215,0.8614679,-0.41384196,0
0.8873229,1.4406683,2.555285,0.29429215,0.8614679,-0.41384196,0
1.6729786,-1.4038136,-0.6358735,-0.29429215,-0.8614679,0.41384196,0
1.0391674,1.493313,2.7195303,0.29429215,0.8614679,-0.41384196,0
3.2438293,-0.88443911,1.5526216,-0.29429215,-0.8614679,0.41384196,0
0.81871736,-1.1293907,-0.76031077,-0.29429215,-0.8614679,0.41384196,0
-1.2150724,0.87621969,-0.41376561,0.29429215,0.8614679,-0.41384196,0
0.88759685,-1.0542414,-2.8756106,0.29429215,0.8614679,-0.41384196,0
2.8845048,-0.98116755,-1.0400194,0.29429215,0.8614679,-0.41384196,0
-3.3175497,1.0352873,1.0822456,-0.29429215,-0.8614679,0.41384196,0
1.4488063,0.55926639,0.89246905,0.29429215,0.8614679,-0.41384196,0
-0.75413704,-0.88775426,-1.2717226,-0.29429215,-0.8614679,0.41384196,0
-1.0759461,1.6119034,1.3793602,0.29429215,0.8614679,-0.41384196,0
1.5876949,-2.0060821,-1.9062402,-0.29429215,-0.8614679,0.41384196,0
-3.5543597,0.29598925,-0.96716905,-0.93535328,0.17071036,-0.30979383,0
-1.9823267,-0.92235351,-2.3311749,-0.29429215,-0.8614679,0.41384196,0
-3.5384405,1.0866692,-0.87902856,-0.95159787,0.22397555,-0.21046692,0
1.2406737,0.69112295,1.2417945,0.29429215,0.8614679,-0.41384196,0
1.6799822,-1.857191,-1.416726,-0.29429215,-0.8614679,0.41384196,0
0.3652904,-1.8359764,-2.4239907,-0.29429215,-0.8614679,0.41384196,0
-2.52899,1.2785192,-0.45331597,0.29429215,0.8614679,-0.41384196,0
-0.30164146,1.1877669,1.0136707,0.29429215,0.8614679,-0.41384196,0
-2.4489603,0.37800109,-2.2125919,0.29429215,0.8614679,-0.41384196,0
0.68501651,-0.68488586,-1.9839884,0.29429215,0.8614679,-0.41384196,0
-2.5627208,0.61646253,0.77343434,-0.29429215,-0.8614679,0.41384196,0
2.0743778,-2.222393,-2.0865505,0.59863949,-0.50370556,-0.62282521,0
0.15492976,0.45298845,2.3051682,-0.29429215,-0.8614679,0.41384196,0
3.4290555,-1.0370269,-1.0136883,0.29429215,0.8614679,-0.41384196,0
1.2271049,-1.1696162,-0.23498309,-0.29429215,-0.8614679,0.41384196,0
3.4651046,-0.82640398,-0.39424646,0.29429215,0.8614679,-0.41384196,0
-0.51030272,0.12758783,0.91538221,-0.29429215,-0.8614679,0.41384196,0
0.44143462,0.042608827,1.3724545,-0.29429215,-0.8614679,0.41384196,0
0.13000166,-1.6311171,-1.8966988,-0.29429215,-0.8614679,0.41384196,0
0.84446323,-0.034458816,-0.51000726,0.29429215,0.8614679,-0.41384196,0
-1.8557435,-0.39783323,-1.1169376,-0.29429215,-0.8614679,0.41384196,0
-2.8475394,0.36209092,-2.2568641,-0.81812775,0.0032481998,-0.57502711,0
1.4885602,-0.86856443,-1.8556781,0.29429215,0.8614679,-0.41384196,0
-1.8918431,1.7506344,1.3093578,0.29429215,0.8614679,-0.41384196,0
-0.87735194,0.096260458,-1.5265838,0.29429215,0.8614679,-0.41384196,0
2.4909332,-0.19390368,2.3397751,-0.29429215,-0.8614679,0.41384196,0
-2.2573149,-0.6175108,-1.8734181,-0.29429215,-0.8614679,0.41384196,0
2.7526619,-0.17873353,2.5235431,0.7852484,0.028871387,0.61850727,0
-3.1746745,0.68450296,-1.9959795,-0.88222075,0.078349844,-0.46427095,0
-3.3808405,0.42179087,-0.12199402,-0.29429215,-0.8614679,0.41384196,0
1.0132163,1.3154354,2.4538429,0.29429215,0.8614679,-0.41384196,0
-3.1571085,1.2972729,1.6842885,-0.78436208,0.46511406,0.4104203,0
-1.186479,0.40513822,1.1181318,-0.29429215,-0.8614679,0.41384196,0
-2.7659576,-0.13017179,-0.9950211,-0.29429215,-0.8614679,0.41384196,0
1.0520794,0.091647863,-0.26873586,0.29429215,0.8614679,-0.41384196,0
-0.77607423,-0.66707236,-0.50061512,-0.29429215,-0.8614679,0.41384196,0
2.5174954,-0.39656514,2.0393164,-0.29429215,-0.8614679,0.41384196,0
-1.51362,-0.22974417,-0.36770964,-0.29429215,-0.8614679,0.41384196,0
-0.26175249,0.39580274,-0.54916167,0.29429215,0.8614679,-0.41384196,0
0.44663155,-1.2319081,-0.93401158,-0.29429215,-0.8614679,0.41384196,0
1.495267,0.7820518,1.5484381,0.29429215,0.8614679,-0.41384196,0
2.9819088,0.55613595,2.384593,0.74341571,0.065778881,0.66558695,0
2.3497434,0.30786568,3.0049474,0.63519835,0.1472315,0.75818586,0
-2.0797334,-0.81028497,-2.0899262,-0.29429215,-0.8614679,0.41384196,0
1.7992952,-0.6032325,-1.2197573,0.29429215,0.8614679,-0.41384196,0
2.2615948,0.085472167,0.64165473,0.29429215,0.8614679,-0.41384196,0
-1.6587434,-0.53700829,-1.0051842,-0.29429215,-0.8614679,0.41384196,0
-1.9942138,1.4118792,0.43797708,0.29429215,0.8614679,-0.41384196,0
-0.77462053,2.2329175,2.7099893,0.29429215,0.8614679,-0.41384196,0
1.579512,-0.76139903,0.63072729,-0.29429215,-0.8614679,0.41384196,0
1.3301976,-2.0206938,-2.2220542,-0.29429215,-0.8614679,0.41384196,0
-0.70619786,-1.2318366,-3.4637902,-0.20104766,-0.3675251,-0.90802246,0
2.2417901,-1.1810321,0.47506142,-0.29429215,-0.8614679,0.41384196,0
-2.9316728,0.11143512,-0.47161531,-0.29429215,-0.8614679,0.41384196,0
1.1199937,-0.12916046,-0.61821008,0.29429215,0.8614679,-0.41384196,0
1.1902785,0.0037253499,2.0781205,-0.29429215,-0.8614679,0.41384196,0
-1.2163239,2.0175326,2.8943579,-0.34127462,0.49919441,0.79645246,0
1.1610818,-0.96444774,-2.1774223,0.29429215,0.8614679,-0.41384196,0
-0.48772466,-1.4959607,-2.302331,-0.29429215,-0.8614679,0.41384196,0
-1.1587464,-0.40826857,-0.23931026,-0.29429215,-0.8614679,0.41384196,0
0.68864846,-0.93915105,-2.8978949,0.29429215,0.8614679,-0.41384196,0
-0.070119008,0.2541036,-0.84112865,0.29429215,0.8614679,-0.41384196,0
-1.6083715,1.8417993,2.867506,-0.42652428,0.50589025,0.74976784,0
2.342191,-1.1980486,0.3663913,-0.29429215,-0.8614679,0.41384196,0
0.48025376,0.94279408,1.1029763,0.29429215,0.8614679,-0.41384196,0
-1.5219839,-0.28501469,-2.9150848,0.29429215,0.8614679,-0.41384196,0
1.6527398,-0.14155602,-0.5479278,0.29429215,0.8614679,-0.41384196,0
-1.4016964,0.65678066,-0.83099842,0.29429215,0.8614679,-0.41384196,0
1.8288224,-1.0608134,-1.9032575,0.29429215,0.8614679,-0.41384196,0
1.3258113,1.0814877,2.1236811,0.29429215,0.8614679,-0.41384196,0
1.574653,-1.103008,-0.12259686,-0.29429215,-0.8614679,0.41384196,0
-0.48691022,-0.79267579,-3.0094526,0.29429215,0.8614679,-0.41384196,0
2.2830846,0.89430606,2.1657526,0.29429215,0.8614679,-0.41384196,0
1.3257692,-1.97084,-1.947753,-0.29429215,-0.8614679,0.41384196,0
2.5381875,-1.6036792,-2.3924191,0.64487433,-0.49857795,-0.57927287,0
1.8914992,-1.0584062,0.38071132,-0.29429215,-0.8614679,0.41384196,0
-2.7734618,0.68076098,0.82705939,-0.29429215,-0.8614679,0.41384196,0
1.562476,0.28926134,2.8842316,-0.29429215,-0.8614679,0.41384196,0
-0.75661415,-1.2069004,-1.7292368,-0.29429215,-0.8614679,0.41384196,0
-1.5295806,2.0184138,1.9769132,0.29429215,0.8614679,-0.41384196,0
1.7864063,-2.1417789,-2.4511428,0.50041449,-0.50781149,-0.70122218,0
1.1175584,-0.29902437,-0.87019414,0.29429215,0.8614679,-0.41384196,0
1.2232447,-1.3432944,-3.1401503,0.29429215,0.8614679,-0.41384196,0
1.7451928,0.079048097,2.7145519,-0.29429215,-0.8614679,0.41384196,0
2.6324916,-1.8601353,-0.57570636,-0.29429215,-0.8614679,0.41384196,0
-1.2421433,0.020612001,0.22770536,-0.29429215,-0.8614679,0.41384196,0
-2.7708344,1.8366432,0.49101168,0.29429215,0.8614679,-0.41384196,0
1.7959642,-1.4156482,-2.8193333,0.29429215,0.8614679,-0.41384196,0
1.3802605,0.25274712,2.6700642,-0.29429215,-0.8614679,0.41384196,0
2.567795,-0.61002302,-0.5271253,0.29429215,0.8614679,-0.41384196,0
1.4901047,1.0762872,3.2227044,0.40214157,0.28119928,0.87132585,0
-2.5067325,0.56391519,-1.8697786,0.29429215,0.8614679,-0.41384196,0
-2.0061378,-1.3036036,-2.8362479,-0.29429215,-0.8614679,0.41384196,0
-0.41097152,1.1869342,0.87817597,0.29429215,0.8614679,-0.41384196,0
-0.049832642,0.81455606,0.28865299,0.29429215,0.8614679,-0.41384196,0
0.36678123,1.8463852,3.1328635,0.29429215,0.8614679,-0.41384196,0
-0.059742689,0.99580282,3.3543763,-0.29429215,-0.8614679,0.41384196,0
0.39291653,0.95584321,0.97142792,0.29429215,0.8614679,-0.41384196,0
0.37622344,1.2319875,1.8517705,0.29429215,0.8614679,-0.41384196,0
-0.77821672,-0.76901996,-0.97628248,-0.29429215,-0.8614679,0.41384196,0
-1.045676,0.027810007,0.63354385,-0.29429215,-0.8614679,0.41384196,0
2.2477984,-1.7811403,-2.3909185,0.57225561,-0.50564921,-0.64563322,0
2.482295,-0.71613747,1.6647668,-0.29429215,-0.8614679,0.41384196,0
-2.2847672,0.46422362,-1.7436163,0.29429215,0.8614679,-0.41384196,0
-3.0481496,0.78245455,-1.5889726,0.29429215,0.8614679,-0.41384196,0
-2.3032656,-0.23531902,-2.8457496,-0.6495015,-0.13737848,-0.74784672,0
-1.0816,-1.6078542,-2.7842245,-0.29429215,-0.8614679,0.41384196,0
-1.645556,1.2094188,2.5567369,-0.29429215,-0.8614679,0.41384196,0
-0.037185907,1.8717461,2.878922,0.29429215,0.8614679,-0.41384196,0
1.4338496,-1.3587458,-0.73607016,-0.29429215,-0.8614679,0.41384196,0
2.547312,0.80577767,2.636045,0.66244131,0.12825328,0.7380532,0
1.5127169,1.0897087,2.3113885,0.29429215,0.8614679,-0.41384196,0
-3.2624841,1.6165094,-0.39092016,0.29429215,0.8614679,-0.41384196,0
-0.83846176,0.51520753,-0.81959581,0.29429215,0.8614679,-0.41384196,0
2.6823194,-1.8616055,-1.8511884,0.71799362,-0.48508117,-0.49918067,0
3.4416111,-1.4993238,0.26490879,0.9486751,-0.31577927,0.017286777,0
-0.56294423,0.54566729,-0.31489539,0.29429215,0.8614679,-0.41384196,0
0.52843142,0.3527886,0.027123451,0.29429215,0.8614679,-0.41384196,0
-0.2063905,1.5700641,1.8508008,0.29429215,0.8614679,-0.41384196,0
-3.4460499,0.80683029,-1.3527467,-0.93299687,0.1651116,-0.31977272,0
-2.7654736,0.8408376,0.76227081,-0.29429215,-0.8614679,0.41384196,0
1.8164582,0.40168542,0.85373199,0.29429215,0.8614679,-0.41384196,0
0.019776702,1.0334327,1.0573837,0.29429215,0.8614679,-0.41384196,0
2.8667598,0.246773,1.5769963,0.29429215,0.8614679,-0.41384196,0
2.8482707,-1.9116526,-0.79250592,-0.29429215,-0.8614679,0.41384196,0
-2.5204053,0.85513937,-1.2057831,0.29429215,0.8614679,-0.41384196,0
-1.3051543,-0.08300516,0.17990851,-0.29429215,-0.8614679,0.41384196,0
0.74811888,-1.5035362,-3.3097022,0.19039643,-0.47718504,-0.85792983,0
0.20101285,0.7221005,2.8681798,-0.29429215,-0.8614679,0.41384196,0
-1.7761722,1.9074464,1.5464282,0.29429215,0.8614679,-0.41384196,0
0.41202378,-1.5080698,-1.4275723,-0.29429215,-0.8614679,0.41384196,0
-1.2557306,-1.2589716,-2.2622089,-0.29429215,-0.8614679,0.41384196,0
0.77444595,0.88875055,1.1455327,0.29429215,0.8614679,-0.41384196,0
0.264979,-1.5314609,-1.7867825,-0.29429215,-0.8614679,0.41384196,0
-2.3849981,0.5039289,0.63781273,-0.29429215,-0.8614679,0.41384196,0
0.45216703,-1.2708099,-3.3980136,0.29429215,0.8614679,-0.41384196,0
-0.83203244,0.17491829,0.99146879,-0.29429215,-0.8614679,0.41384196,0
0.14630151,0.95168841,3.2595859,-0.29429215,-0.8614679,0.41384196,0
0.53525734,-0.063531399,-1.0026125,0.29429215,0.8614679,-0.41384196,0
0.41230673,1.3230202,1.9258611,0.29429215,0.8614679,-0.41384196,0
-3.2037463,-0.18029606,-2.0788195,-0.81245434,-0.0025291145,-0.58301914,0
1.2958388,-1.4109902,-3.2576468,0.30838394,-0.49545175,-0.81205088,0
2.2709987,-1.0206246,-1.7033582,0.29429215,0.8614679,-0.41384196,0
2.2413156,-1.8294404,-0.95294917,-0.29429215,-0.8614679,0.41384196,0
-0.83492994,1.3218493,1.0489854,0.29429215,0.8614679,-0.41384196,0
-1.6193957,-0.44098014,-3.190511,0.29429215,0.8614679,-0.41384196,0
3.5297635,-0.77352554,-0.36842704,0.29429215,0.8614679,-0.41384196,0
-1.3275263,0.77236485,2.093776,-0.29429215,-0.8614679,0.41384196,0
1.7296593,-1.2147062,-2.4738622,0.29429215,0.8614679,-0.41384196,0
-0.43469644,1.7258198,2.078434,0.29429215,0.8614679,-0.41384196,0
-1.1286901,0.78999388,-0.43353671,0.29429215,0.8614679,-0.41384196,0
1.8105757,-1.4267875,-0.52970278,-0.29429215,-0.8614679,0.41384196,0
-0.63392174,-0.40331307,-0.23880303,-0.29429215,-0.8614679,0.41384196,0
-3.1959245,0.79453301,0.78713107,-0.29429215,-0.8614679,0.41384196,0
-1.8374631,0.50449306,1.0165288,-0.29429215,-0.8614679,0.41384196,0
1.9445844,-0.21489906,2.3280988,-0.29429215,-0.8614679,0.41384196,0
-0.3220098,1.8197978,2.2532971,0.29429215,0.8614679,-0.41384196,0
-0.28133613,-0.060220301,0.9887498,-0.29429215,-0.8614679,0.41384196,0
3.5439382,-0.01994653,1.2846365,0.29429215,0.8614679,-0.41384196,0
-1.8666769,0.98985565,-0.58039868,0.29429215,0.8614679,-0.41384196,0
-2.079668,-0.3396154,-3.2378228,0.29429215,0.8614679,-0.41384196,0
-1.3575184,0.79981273,1.8683161,-0.29429215,-0.8614679,0.41384196,0
2.2328455,-0.29306355,-0.23547578,0.29429215,0.8614679,-0.41384196,0
-2.7502475,1.4361823,0.046229839,0.29429215,0.8614679,-0.41384196,0
-1.2803351,-1.2396566,-3.2858205,-0.33914915,-0.31070119,-0.88794285,0
0.75929952,1.6426793,2.6825168,0.29429215,0.8614679,-0.41384196,0
1.0431504,-2.0523629,-3.0428097,0.2959646,-0.49387997,-0.81761074,0
3.4203029,-0.64252132,0.010797262,0.29429215,0.8614679,-0.41384196,0
3.0991518,-1.9393742,-0.57587051,-0.29429215,-0.8614679,0.41384196,0
0.86751693,0.025167137,-0.43108588,0.29429215,0.8614679,-0.41384196,0
-2.909472,0.77132183,-1.5777476,0.29429215,0.8614679,-0.41384196,0
-1.9152292,0.07268405,-2.3924496,0.29429215,0.8614679,-0.41384196,0
-0.85223049,-1.2467341,-2.0789051,-0.29429215,-0.8614679,0.41384196,0
3.6383538,-0.2674771,0.85118794,0.94196761,-0.18827264,0.2779392,0
-2.5564182,1.5197593,0.074332356,0.29429215,0.8614679,-0.41384196,0
1.0230265,1.1547691,1.9856811,0.29429215,0.8614679,-0.41384196,0
1.8657541,-0.30911213,1.7474537,-0.29429215,-0.8614679,0.41384196,0
-0.086646438,0.45142198,2.1197531,-0.29429215,-0.8614679,0.41384196,0
-3.1521256,1.7773216,0.99946445,-0.8600539,0.42755091,0.27840149,0
0.36077321,-0.59050924,-2.2498653,0.29429215,0.8614679,-0.41384196,0
0.7273078,-1.1286166,-2.9691243,0.29429215,0.8614679,-0.41384196,0
0.95484972,0.074180365,1.827352,-0.29429215,-0.8614679,0.41384196,0
-2.1743126,0.11855006,-2.6303639,0.29429215,0.8614679,-0.41384196,0
-1.3437839,-0.52088499,-3.3016512,0.29429215,0.8614679,-0.41384196,0
3.1664605,-0.74516153,1.7839725,0.90148193,-0.10642365,0.4195286,0
1.8102913,0.49099964,0.8664763,0.29429215,0.8614679,-0.41384196,0
1.6641874,-1.2212559,-2.6254473,0.29429215,0.8614679,-0.41384196,0
-1.4173862,0.14466664,0.63592267,-0.29429215,-0.8614679,0.41384196,0
-3.3642759,-0.21048003,-1.6110127,-0.29429215,-0.8614679,0.41384196,0
2.2984648,0.34665826,1.1147091,0.29429215,0.8614679,-0.41384196,0
1.6931751,-1.4047194,-3.1482296,0.29429215,0.8614679,-0.41384196,0
0.43190217,-0.22783569,1.133888,-0.29429215,-0.8614679,0.41384196,0
-2.248136,0.030414313,-0.29691827,-0.29429215,-0.8614679,0.41384196,0
-1.137197,1.1450591,2.6277704,-0.29429215,-0.8614679,0.41384196,0
0.39413238,-1.6721287,-1.7897019,-0.29429215,-0.8614679,0.41384196,0
2.8774965,-0.68860137,-0.60410833,0.29429215,0.8614679,-0.41384196,0
-3.1277108,-0.13568224,-2.096103,-0.83389169,0.01990246,-0.5515691,0
-1.3764707,-0.51614422,-0.90454471,-0.29429215,-0.8614679,0.41384196,0
1.8344169,-0.48567635,1.4093742,-0.29429215,-0.8614679,0.41384196,0
2.6726735,-0.91500747,-1.0188787,0.29429215,0.8614679,-0.41384196,0
0.46816838,-0.92757058,-0.59654379,-0.29429215,-0.8614679,0.41384196,0
1.1413792,-1.1388299,-0.52284229,-0.29429215,-0.8614679,0.41384196,0
1.3500282,1.2901864,2.5054579,0.29429215,0.8614679,-0.41384196,0
-0.29044318,-1.4813837,-2.0322323,-0.29429215,-0.8614679,0.41384196,0
-1.0081856,1.3293586,3.1738281,-0.29429215,-0.8614679,0.41384196,0
3.1927509,-1.858443,-0.19679642,-0.29429215,-0.8614679,0.41384196,0
-3.0704293,0.83716595,-1.6688781,0.29429215,0.8614679,-0.41384196,0
-1.0990005,-0.56240517,-3.2273192,0.29429215,0.8614679,-0.41384196,0
2.5227914,0.97524559,2.5385008,0.29429215,0.8614679,-0.41384196,0
2.226537,-1.3261509,-2.3137116,0.29429215,0.8614679,-0.41384196,0
-2.4856679,-0.78352439,-2.1169834,-0.29429215,-0.8614679,0.41384196,0
1.3694506,0.8135463,1.2683232,0.29429215,0.8614679,-0.41384196,0
1.9692199,1.1422095,2.3769615,0.29429215,0.8614679,-0.41384196,0
1.1759437,1.2331759,1.9917119,0.29429215,0.8614679,-0.41384196,0
-0.64727998,1.6724972,1.6330105,0.29429215,0.8614679,-0.41384196,0
-2.0020022,0.76286632,-0.90913618,0.29429215,0.8614679,-0.41384196,0
3.2115209,-1.2639673,0.78986168,-0.29429215,-0.8614679,0.41384196,0
0.57526195,-0.29859889,-1.4959346,0.29429215,0.8614679,-0.41384196,0
-0.069999427,0.60810935,-0.085114591,0.29429215,0.8614679,-0.41384196,0
0.81315541,-0.53913522,-1.9758159,0.29429215,0.8614679,-0.41384196,0
0.55109268,1.0868934,1.5062599,0.29429215,0.8614679,-0.41384196,0
1.6090481,-0.67811847,-1.5043151,0.29429215,0.8614679,-0.41384196,0
3.2080767,-0.28867388,0.5900166,0.29429215,0.8614679,-0.41384196,0
2.3260088,-0.42439383,2.0522013,-0.29429215,-0.8614679,0.41384196,0
1.0860474,-1.6843685,-1.6659269,-0.29429215,-0.8614679,0.41384196,0
1.6452093,-0.10484508,-0.34349942,0.29429215,0.8614679,-0.41384196,0
1.6088736,-1.4339495,-0.39230675,-0.29429215,-0.8614679,0.41384196,0
2.8683281,-1.2703497,0.82006979,-0.29429215,-0.8614679,0.41384196,0
-3.0962489,-0.33031619,-1.8504553,-0.29429215,-0.8614679,0.41384196,0
0.29442811,0.75815839,2.9017544,-0.29429215,-0.8614679,0.41384196,0
-2.0421484,1.0515831,1.9684094,-0.29429215,-0.8614679,0.41384196,0
-2.6166987,0.38566288,-2.4126196,0.29429215,0.8614679,-0.41384196,0
-1.460768,1.3280905,0.50139403,0.29429215,0.8614679,-0.41384196,0
-1.9225216,1.3224738,2.4965892,-0.29429215,-0.8614679,0.41384196,0
-2.9939187,0.40045187,-2.2785249,-0.82555366,0.010978319,-0.56421661,0
0.42455029,-1.0281925,-3.0515108,0.29429215,0.8614679,-0.41384196,0
1.2307295,0.72841793,3.5146356,0.35311693,0.30436516,0.88468635,0
-0.071043849,1.2094873,1.0593604,0.29429215,0.8614679,-0.41384196,0
-2.426188,-0.2234877,-0.99222946,-0.29429215,-0.8614679,0.41384196,0
-0.26258004,-0.29930121,0.29009572,-0.29429215,-0.8614679,0.41384196,0
1.3349749,1.3145825,3.2754245,0.33436894,0.31284347,0.88900298,0
0.33402437,0.52730584,-0.020158172,0.29429215,0.8614679,-0.41384196,0
-0.54650939,-0.065649629,-1.5437096,0.29429215,0.8614679,-0.41384196,0
2.0096583,-0.98312497,-1.9325221,0.29429215,0.8614679,-0.41384196,0
-1.1806872,1.8765538,1.7107804,0.29429215,0.8614679,-0.41384196,0
1.4567323,1.0273623,3.243149,0.39838028,0.28302923,0.8724606,0
-3.2880955,1.1655197,-0.89871311,0.29429215,0.8614679,-0.41384196,0
-0.024522543,0.80104584,3.0727797,-0.29429215,-0.8614679,0.41384196,0
-1.0159883,-1.2809201,-2.3312352,-0.29429215,-0.8614679,0.41384196,0
-0.38900846,-0.26669532,-2.0598214,0.29429215,0.8614679,-0.41384196,0
1.4894855,-1.2593762,-2.7038629,0.29429215,0.8614679,-0.41384196,0
2.8929083,-0.39899516,0.034573674,0.29429215,0.8614679,-0.41384196,0
-1.6659464,0.6009174,-0.90834022,0.29429215,0.8614679,-0.41384196,0
-2.8988767,0.74304515,-1.8507922,0.29429215,0.8614679,-0.41384196,0
-0.8168236,-1.1984918,-1.839339,-0.29429215,-0.8614679,0.41384196,0
-2.0360305,1.3667673,0.14202136,0.29429215,0.8614679,-0.41384196,0
-1.0397489,0.75136399,2.1624062,-0.29429215,-0.8614679,0.41384196,0
-2.0407553,-1.0992655,-2.3905747,-0.29429215,-0.8614679,0.41384196,0
0.2933538,-0.093475133,1.1200119,-0.29429215,-0.8614679,0.41384196,0
1.7031715,-1.5185616,-0.69135916,-0.29429215,-0.8614679,0.41384196,0
2.3363194,-1.4994888,-0.05578351,-0.29429215,-0.8614679,0.41384196,0
-2.5287585,0.44702351,-2.0892987,0.29429215,0.8614679,-0.41384196,0
-2.3382664,-0.69556475,-2.9511118,-0.59385943,-0.1744417,-0.78543043,0
-3.1019886,1.2618232,-0.92348862,0.29429215,0.8614679,-0.41384196,0
-1.045827,-1.5770584,-2.6206226,-0.29429215,-0.8614679,0.41384196,0
-2.2681952,-0.9138397,-2.274889,-0.29429215,-0.8614679,0.41384196,0
1.1846784,-1.1311169,-0.17430469,-0.29429215,-0.8614679,0.41384196,0
-3.5338354,0.39963996,-0.28519106,-0.29429215,-0.8614679,0.41384196,0
-2.8978176,0.87109852,0.73783994,-0.29429215,-0.8614679,0.41384196,0
0.60219437,1.4450959,2.4191113,0.29429215,0.8614679,-0.41384196,0
2.9345119,-1.7200474,-1.6310426,0.78724504,-0.46402732,-0.40610808,0
-1.2904905,-1.3696282,-3.2207248,-0.33526888,-0.31244117,-0.88880539,0
-0.052286826,0.37870243,-0.45177802,0.29429215,0.8614679,-0.41384196,0
-2.3560719,1.1085606,-0.78829861,0.29429215,0.8614679,-0.41384196,0
-1.6523101,1.7398951,1.2921231,0.29429215,0.8614679,-0.41384196,0
-1.8698475,-1.0629181,-2.1564472,-0.29429215,-0.8614679,0.41384196,0
2.4963543,-0.46927211,-0.53566033,0.29429215,0.8614679,-0.41384196,0
0.21670169,0.11770532,-0.74768794,0.29429215,0.8614679,-0.41384196,0
0.93326211,-0.69033307,-2.1004148,0.29429215,0.8614679,-0.41384196,0
-2.2136965,0.40927178,0.33114403,-0.29429215,-0.8614679,0.41384196,0
2.6321583,-1.0339234,0.91216779,-0.29429215,-0.8614679,0.41384196,0
1.8080376,1.2114277,2.5106916,0.29429215,0.8614679,-0.41384196,0
2.4392195,-0.24802309,2.3249664,-0.29429215,-0.8614679,0.41384196,0
-0.30357242,-0.65871251,-2.6177959,0.29429215,0.8614679,-0.41384196,0
0.5056622,-2.0578194,-2.9036307,-0.29429215,-0.8614679,0.41384196,0
-0.43876529,1.2667408,0.97125745,0.29429215,0.8614679,-0.41384196,0
2.9602525,-1.7309357,-1.4177327,0.81465375,-0.45253661,-0.36269769,0
2.3013101,-0.41762388,1.9056511,-0.29429215,-0.8614679,0.41384196,0
0.14160663,0.24651533,1.9190514,-0.29429215,-0.8614679,0.41384196,0
-0.57845217,-0.098934352,-1.8222717,0.29429215,0.8614679,-0.41384196,0
1.5005211,-0.92462838,0.20719457,-0.29429215,-0.8614679,0.41384196,0
0.15034676,1.8279178,2.4867055,0.29429215,0.8614679,-0.41384196,0
3.1161218,-1.4485073,-1.3226793,0.83344483,-0.44324845,-0.33000016,0
1.119115,-0.65564251,0.82552099,-0.29429215,-0.8614679,0.41384196,0
-2.4496956,1.0109377,-0.71763229,0.29429215,0.8614679,-0.41384196,0
1.4246408,1.5338335,2.9069374,0.29429215,0.8614679,-0.41384196,0
3.5985518,-0.24125761,0.91075063,0.93719912,-0.17530698,0.30153781,0
-0.24171996,1.4147967,1.5092906,0.29429215,0.8614679,-0.41384196,0
1.576916,-1.8908068,-1.641611,-0.29429215,-0.8614679,0.41384196,0
-0.86782992,0.43276888,1.2540634,-0.29429215,-0.8614679,0.41384196,0
-1.9433433,-0.85657549,-3.1717658,-0.53057146,-0.21289431,-0.82046926,0
0.23231785,0.61946297,0.28947842,0.29429215,0.8614679,-0.41384196,0
-1.4361541,0.63324416,1.4706869,-0.29429215,-0.8614679,0.41384196,0
-2.7378564,1.0878781,1.5839543,-0.29429215,-0.8614679,0.41384196,0
-0.040224314,-1.521394,-1.8851087,-0.29429215,-0.8614679,0.41384196,0
3.0166292,-1.1145424,-1.364696,0.29429215,0.8614679,-0.41384196,0
1.2085273,-0.93701655,-2.4487743,0.29429215,0.8614679,-0.41384196,0
-0.57675713,-0.5254494,-2.8167021,0.29429215,0.8614679,-0.41384196,0
2.440907,-0.90641713,1.1717267,-0.29429215,-0.8614679,0.41384196,0
1.6082444,0.17562687,0.21828008,0.29429215,0.8614679,-0.41384196,0
-3.6073191,0.67636859,-0.6063869,-0.95276237,0.2304371,-0.19784451,0
-0.84038329,1.1934477,3.3040767,-0.29429215,-0.8614679,0.41384196,0
-0.3876965,-0.97887027,-3.5660841,0.29429215,0.8614679,-0.41384196,0
-2.8073969,1.6741676,0.34616995,0.29429215,0.8614679,-0.41384196,0
-0.35530996,-0.30549562,-1.9469332,0.29429215,0.8614679,-0.41384196,0
0.83469033,-1.9807903,-2.1764598,-0.29429215,-0.8614679,0.41384196,0
-0.11336485,0.45761675,-0.32523379,0.29429215,0.8614679,-0.41384196,0
0.38421619,-0.31117952,0.69786829,-0.29429215,-0.8614679,0.41384196,0
-1.9629657,0.95265257,1.7438105,-0.29429215,-0.8614679,0.41384196,0
-3.0206463,0.26042587,-0.61439848,-0.29429215,-0.8614679,0.41384196,0
-2.2246335,1.0580693,-0.48690641,0.29429215,0.8614679,-0.41384196,0
2.1662924,0.19602846,0.59721971,0.29429215,0.8614679,-0.41384196,0
-1.501803,0.49033523,1.0893856,-0.29429215,-0.8614679,0.41384196,0
0.070914268,1.7800499,3.3344893,-0.0047335029,0.43432647,0.90074307,0
-2.6266232,0.09785752,-0.63806367,-0.29429215,-0.8614679,0.41384196,0
-0.7492516,0.7532931,2.3335443,-0.29429215,-0.8614679,0.41384196,0
-0.48436022,1.8739574,2.4772532,0.29429215,0.8614679,-0.41384196,0
-2.990602,0.028316975,-0.69478345,-0.29429215,-0.8614679,0.41384196,0
-0.83694673,0.81379515,-0.27295107,0.29429215,0.8614679,-0.41384196,0
-0.679914,0.94152218,2.6363013,-0.29429215,-0.8614679,0.41384196,0
-0.8924157,0.45053241,-0.66607952,0.29429215,0.8614679,-0.41384196,0
3.3568101,-0.55744219,1.3957274,0.91834164,-0.13498795,0.37205756,0
-2.7050922,1.2880273,1.9367027,-0.29429215,-0.8614679,0.41384196,0
-1.3180406,0.88500625,2.2317009,-0.29429215,-0.8614679,0.41384196,0
1.869302,-1.1384288,-2.1103146,0.29429215,0.8614679,-0.41384196,0
1.6759937,-0.95358378,0.3478483,-0.29429215,-0.8614679,0.41384196,0
1.1002326,-0.16608995,1.8447678,-0.29429215,-0.8614679,0.41384196,0
2.4407053,-1.0574657,0.75469327,-0.29429215,-0.8614679,0.41384196,0
1.9264083,-1.7122495,-0.8668856,-0.29429215,-0.8614679,0.41384196,0
0.74164009,0.80791628,0.88440144,0.29429215,0.8614679,-0.41384196,0
-1.8335932,-0.87763214,-2.0052321,-0.29429215,-0.8614679,0.41384196,0
1.899904,1.2157,2.5256407,0.29429215,0.8614679,-0.41384196,0
-2.3003256,-0.25738913,-2.9054756,-0.62465411,-0.15434545,-0.76549613,0
2.0437758,0.99661148,2.4130085,0.29429215,0.8614679,-0.41384196,0
2.8841138,-0.39451146,2.358156,-0.29429215,-0.8614679,0.41384196,0
1.6752458,-1.3589139,-3.0805845,0.29429215,0.8614679,-0.41384196,0
-0.025628448,0.98453432,0.76322174,0.29429215,0.8614679,-0.41384196,0
3.4603851,-1.5577834,0.52372551,-0.29429215,-0.8614679,0.41384196,0
0.78705525,-2.0583508,-2.6886899,-0.29429215,-0.8614679,0.41384196,0
-2.5445361,-0.72000074,-2.5684192,-0.67604077,-0.11843409,-0.72728395,0
0.73516345,-0.12826002,-0.88411647,0.29429215,0.8614679,-0.41384196,0
-1.767614,-0.59511364,-1.1159222,-0.29429215,-0.8614679,0.41384196,0
1.7752345,0.073553681,2.5904236,-0.29429215,-0.8614679,0.41384196,0
0.49411327,-0.79271591,0.11804587,-0.29429215,-0.8614679,0.41384196,0
1.3204453,-0.3318893,1.5951781,-0.29429215,-0.8614679,0.41384196,0
0.52457649,-0.9251287,-0.11691036,-0.29429215,-0.8614679,0.41384196,0
-1.2383488,0.2071065,0.67218685,-0.29429215,-0.8614679,0.41384196,0
-1.7857744,0.30740839,-1.9769914,0.29429215,0.8614679,-0.41384196,0
2.0233846,1.15482,2.8293681,0.29429215,0.8614679,-0.41384196,0
1.0600932,-0.87779617,-2.2123208,0.29429215,0.8614679,-0.41384196,0
-1.8583076,-1.2717081,-2.9779947,-0.46522906,-0.24912024,-0.84941196,0
3.4666958,-0.3432335,1.4093733,0.9103297,-0.1208178,0.39585704,0
-0.7559967,-1.0609751,-3.529568,-0.2334868,-0.35508958,-0.90520436,0
-2.0733678,0.96144545,-0.78475261,0.29429215,0.8614679,-0.41384196,0
1.3439257,-1.618335,-1.1805816,-0.29429215,-0.8614679,0.41384196,0
-3.6378613,0.72577345,-0.43646836,-0.95500785,0.2484149,-0.16201806,0
-1.9676085,0.66785914,-1.0045812,0.29429215,0.8614679,-0.41384196,0
1.2730742,-0.60526943,0.69527578,-0.29429215,-0.8614679,0.41384196,0
-3.4349992,0.68174189,0.25017762,-0.29429215,-0.8614679,0.41384196,0
-1.5463394,-0.94639444,-1.9657092,-0.29429215,-0.8614679,0.41384196,0
-1.8725307,1.8721188,1.2375187,0.29429215,0.8614679,-0.41384196,0
0.58373237,0.45264786,0.24616694,0.29429215,0.8614679,-0.41384196,0
-1.3045428,0.88540173,2.1771421,-0.29429215,-0.8614679,0.41384196,0
0.35112309,-0.45299697,-1.9297127,0.29429215,0.8614679,-0.41384196,0
0.089948356,0.053858846,-1.0646194,0.29429215,0.8614679,-0.41384196,0
-1.8331916,-1.0090653,-3.1487219,-0.49609986,-0.23241097,-0.8365823,0
2.0941107,-0.97167814,-1.5085416,0.29429215,0.8614679,-0.41384196,0
-1.47715,1.4522393,0.99756467,0.29429215,0.8614679,-0.41384196,0
0.20709515,-1.1746463,-3.2953939,0.29429215,0.8614679,-0.41384196,0
0.44301403,0.16504455,-0.73873091,0.29429215,0.8614679,-0.41384196,0
-1.0510869,-0.26385087,-2.6508048,0.29429215,0.8614679,-0.41384196,0
