2.3909361,-1.2673901,1.3407917,-0.12216219,-0.56890416,0.81328005,0
2.6609256,1.6905575,2.8686242,0.67260575,0.55510974,0.48934096,0
0.68166709,1.3656032,3.0174551,-0.12216219,-0.56890416,0.81328005,0
1.1321332,-1.262583,-2.6274781,0.12216219,0.56890416,-0.81328005,0
-1.603747,-3.5373304,-1.3558526,-0.35105884,-0.74167913,-0.57155031,0
0.48719212,-3.205878,-2.2427928,0.10167674,-0.82227957,-0.55992669,0
2.9984305,0.75371981,2.9447336,-0.12216219,-0.56890416,0.81328005,0
-1.0858282,-0.23564553,-2.2374253,0.12216219,0.56890416,-0.81328005,0
3.3796656,-1.7329649,1.202419,-0.12216219,-0.56890416,0.81328005,0
3.7311077,1.4547267,-0.36949301,0.12216219,0.56890416,-0.81328005,0
3.1655138,2.6033447,0.69182038,0.76598358,0.46703362,0.44175631,0
3.9963617,0.76900953,0.098868489,0.97634184,0.078419968,0.20151176,0
0.96584427,-0.43700862,1.7469708,-0.12216219,-0.56890416,0.81328005,0
2.981807,-2.6970899,-0.25603986,0.79609227,-0.54551321,-0.26201594,0
-0.85909146,-0.45091605,1.4431295,-0.12216219,-0.56890416,0.81328005,0
3.4064279,-1.1933936,1.4527787,-0.12216219,-0.56890416,0.81328005,0
-3.1471376,2.1849666,1.3092482,-0.75764191,0.58277506,0.29385686,0
-1.5268539,3.5169249,1.2951484,-0.39225054,0.78038287,0.48697239,0
-0.22453034,1.8619339,-0.56041753,0.12216219,0.56890416,-0.81328005,0
1.2462316,3.6058826,1.3822045,0.27399313,0.76824433,0.57855701,0
2.5139384,-2.978673,-1.1531243,0.61942184,-0.68395072,-0.38539296,0
-2.5807378,3.3146863,0.15161276,-0.71169895,0.62134647,0.3277393,0
-3.9432116,-1.1357077,0.26276124,-0.96893781,-0.10916509,-0.22190635,0
-1.7365707,3.2811813,1.5221012,-0.43449664,0.76737964,0.47153068,0
-1.5001154,3.5099478,0.42769718,0.12216219,0.56890416,-0.81328005,0
-3.6294107,-1.0057073,-1.2102281,-0.92364484,-0.23474199,-0.3029463,0
0.4477942,2.8648939,0.30169797,0.12216219,0.56890416,-0.81328005,0
-3.4249709,2.1969817,-0.22036982,-0.90890771,0.39329347,0.13858962,0
2.2751393,0.085432529,2.3094881,-0.12216219,-0.56890416,0.81328005,0
-0.040840149,1.5435323,-0.66561007,0.12216219,0.56890416,-0.81328005,0
-2.5019777,-3.2203214,-1.1905537,-0.57037228,-0.63035464,-0.52661967,0
3.0309923,-2.834693,0.33674788,-0.12216219,-0.56890416,0.81328005,0
2.1804991,1.7351989,-0.18284822,0.12216219,0.56890416,-0.81328005,0
3.0421686,-2.3390815,-0.89628267,0.78265971,-0.55911863,-0.27355087,0
-3.0581574,-2.8506994,-0.52567291,-0.12216219,-0.56890416,0.81328005,0
3.8936014,-0.49113452,-1.6941729,0.12216219,0.56890416,-0.81328005,0
1.8892308,-2.2257774,0.64379215,-0.12216219,-0.56890416,0.81328005,0
1.8389562,1.3725834,-0.53795457,0.12216219,0.56890416,-0.81328005,0
1.5512731,-0.1914506,-1.8517765,0.12216219,0.56890416,-0.81328005,0
-1.1415443,-2.1645582,-3.5359125,-0.32659996,-0.75073975,-0.57421434,0
-3.8700261,0.22620273,1.4681854,-0.12216219,-0.56890416,0.81328005,0
-1.6546237,-3.6053674,-0.97608328,-0.12216219,-0.56890416,0.81328005,0
2.1108403,3.2120471,0.7528801,0.12216219,0.56890416,-0.81328005,0
-0.066197813,-1.0451388,-2.4798536,0.12216219,0.56890416,-0.81328005,0
1.2601168,2.794992,0.26585531,0.12216219,0.56890416,-0.81328005,0
0.55065757,0.8930335,-1.0349916,0.12216219,0.56890416,-0.81328005,0
3.1442149,-2.8741038,0.14164639,0.81712526,-0.52276593,-0.24294442,0
-0.092160225,-2.2419214,-3.4642169,0.12216219,0.56890416,-0.81328005,0
-0.98134667,-0.37870955,-2.2283125,0.12216219,0.56890416,-0.81328005,0
-0.49975315,3.4748273,1.9960628,-0.14101994,0.82105315,0.553159,0
1.8345152,-1.6351076,1.086704,-0.12216219,-0.56890416,0.81328005,0
2.988857,0.076141596,-1.4503968,0.12216219,0.56890416,-0.81328005,0
1.3256427,0.18570566,-1.5968215,0.12216219,0.56890416,-0.81328005,0
1.9471128,-3.2328787,-0.010670662,-0.12216219,-0.56890416,0.81328005,0
3.971873,-0.84360826,0.83737886,0.99064493,-0.12010358,0.0647894,0
-4.0123873,0.22171673,0.1803962,-0.98826802,0.14540356,-0.046734557,0
-2.2443333,1.945816,-0.78235412,0.12216219,0.56890416,-0.81328005,0
-3.5695982,1.6942153,0.32044601,-0.90776867,0.39534867,0.14019832,0
2.8193851,-2.6427128,-1.1688614,0.69091713,-0.63701695,-0.34182274,0
1.7717696,-1.0873005,-2.4157491,0.12216219,0.56890416,-0.81328005,0
0.8386839,0.34444869,-1.4122748,0.12216219,0.56890416,-0.81328005,0
-4.0764613,0.29321539,0.92718184,-0.96970999,0.24304214,0.024352983,0
-2.4761446,-0.47052622,-2.4660983,0.12216219,0.56890416,-0.81328005,0
-3.8486037,0.79605514,-0.82498246,-0.99188924,0.098959923,-0.079766668,0
-2.234719,1.455853,-1.2144207,0.12216219,0.56890416,-0.81328005,0
-1.9806033,2.7605832,2.2006056,-0.50398552,0.74146992,0.44296837,0
-2.1718812,2.0299947,3.0367615,-0.12216219,-0.56890416,0.81328005,0
-2.4933946,-2.7664895,-1.4044476,-0.61974198,-0.59631473,-0.51022393,0
-0.55748498,-1.9244183,0.36325645,-0.12216219,-0.56890416,0.81328005,0
3.4420156,-0.29513836,-1.4765327,0.12216219,0.56890416,-0.81328005,0
-2.5725288,2.0604815,2.6354449,-0.60618508,0.69159508,0.39272863,0
-1.4667791,1.7182906,2.8609281,-0.12216219,-0.56890416,0.81328005,0
-1.5704055,1.7194493,-0.85876667,0.12216219,0.56890416,-0.81328005,0
3.3232226,1.7945207,1.4573524,0.81659639,0.40813714,0.40815973,0
1.4318098,2.4392576,2.8976595,0.39153633,0.72533894,0.56620008,0
3.42365,-2.2589233,0.83830476,-0.12216219,-0.56890416,0.81328005,0
-1.6933509,-2.4014413,-0.16136861,-0.12216219,-0.56890416,0.81328005,0
1.9763043,-2.3598895,-2.8950155,0.45754394,-0.75943291,-0.46250981,0
-0.49359858,-3.581316,-0.7267704,-0.12216219,-0.56890416,0.81328005,0
-1.5152586,-1.9077458,-3.4238307,0.12216219,0.56890416,-0.81328005,0
-2.2679145,-2.6124666,-0.36828089,-0.12216219,-0.56890416,0.81328005,0
2.3857038,-1.0131832,1.393594,-0.12216219,-0.56890416,0.81328005,0
-1.7470217,-2.3150795,-0.011697054,-0.12216219,-0.56890416,0.81328005,0
0.18321428,0.20827794,2.0353744,-0.12216219,-0.56890416,0.81328005,0
1.9373314,3.2051258,1.6697059,0.47916099,0.68379378,0.55030048,0
-3.8858969,0.81875587,-0.40547603,-0.98379248,0.17777483,-0.023418017,0
1.4301834,-0.88901234,-2.2612538,0.12216219,0.56890416,-0.81328005,0
-0.41545796,0.74000001,-1.3019192,0.12216219,0.56890416,-0.81328005,0
-2.2603607,0.79085398,-1.7416611,0.12216219,0.56890416,-0.81328005,0
1.4931455,3.4744682,1.5875382,0.32568419,0.7510674,0.57430601,0
0.52177149,-2.1787105,-3.177043,0.12216219,0.56890416,-0.81328005,0
-3.7024302,1.0971968,-1.5830898,0.12216219,0.56890416,-0.81328005,0
2.1728964,-0.66454887,1.6636589,-0.12216219,-0.56890416,0.81328005,0
0.6282053,-2.5652332,-3.3097665,0.1385195,-0.82117039,-0.5536167,0
3.1942794,-1.9878439,-1.0212913,0.81742203,-0.52243137,-0.24266589,0
-1.6361384,1.1058297,2.25207,-0.12216219,-0.56890416,0.81328005,0
-2.9795556,-2.1844049,-1.6162603,-0.73875171,-0.49509978,-0.45729864,0
-2.613764,0.058020592,1.5101165,-0.12216219,-0.56890416,0.81328005,0
-0.36366069,-0.035975933,1.7788403,-0.12216219,-0.56890416,0.81328005,0
2.1748822,0.61204946,-1.1276121,0.12216219,0.56890416,-0.81328005,0
-1.4313787,1.9769151,3.0718191,-0.12216219,-0.56890416,0.81328005,0
-0.53023171,2.0731077,3.2650998,-0.12216219,-0.56890416,0.81328005,0
-2.4460168,-1.349874,-3.0724728,0.12216219,0.56890416,-0.81328005,0
-3.1915283,2.3216612,0.3029089,-0.83797902,0.49821898,0.22264099,0
1.4781147,-2.9542971,-2.2802882,0.33683032,-0.79455048,-0.50520748,0
2.138757,1.9502726,2.9015479,0.56396455,0.63449061,0.52855033,0
0.5993228,-3.3099945,-0.47060585,-0.12216219,-0.56890416,0.81328005,0
-1.8297349,0.29991746,-1.9809012,0.12216219,0.56890416,-0.81328005,0
2.4752631,2.2948859,2.1620457,0.64410096,0.57798779,0.50106287,0
2.3303246,-0.78833222,1.7096494,-0.12216219,-0.56890416,0.81328005,0
-2.9141603,-0.79007125,-2.760736,0.12216219,0.56890416,-0.81328005,0
-1.271776,-0.88994861,1.125771,-0.12216219,-0.56890416,0.81328005,0
0.12370842,1.807683,3.2326796,-0.12216219,-0.56890416,0.81328005,0
3.8914545,-0.62674201,-1.6878996,0.12216219,0.56890416,-0.81328005,0
-0.53293824,0.49497414,-1.6967615,0.12216219,0.56890416,-0.81328005,0
2.741225,1.5647166,2.7305887,0.70900792,0.52339029,0.47262049,0
0.31431127,0.46028972,-1.4326924,0.12216219,0.56890416,-0.81328005,0
-0.68881828,3.6422482,0.71976805,0.12216219,0.56890416,-0.81328005,0
0.87076926,2.5613673,0.18868995,0.12216219,0.56890416,-0.81328005,0
-3.2493696,-1.3495255,0.39587128,-0.12216219,-0.56890416,0.81328005,0
4.2320528,0.5940454,-0.8303411,0.99243617,-0.080019675,0.093097888,0
1.3748999,2.2150061,3.2681289,0.36792713,0.73507702,0.5694657,0
2.3933847,-0.54852629,1.8548791,-0.12216219,-0.56890416,0.81328005,0
-0.080959722,1.6886699,-0.71400702,0.12216219,0.56890416,-0.81328005,0
-2.5591407,3.4118922,0.43089986,-0.66265899,0.65678048,0.35989237,0
4.0393944,0.26295888,-0.68585426,0.99125737,-0.1110933,0.071184233,0
1.832816,2.8690603,2.0471821,0.45556796,0.69585663,0.55519485,0
-2.9451447,2.3420212,1.1049459,-0.75984019,0.580778,0.2921297,0
-1.6996115,1.6258515,-0.88473344,0.12216219,0.56890416,-0.81328005,0
0.22854471,3.9066453,1.2821655,0.010509703,0.8186298,0.57422495,0
-2.4281912,0.92782664,2.1201203,-0.12216219,-0.56890416,0.81328005,0
-2.14095,-2.0271022,0.21003675,-0.12216219,-0.56890416,0.81328005,0
1.6156824,3.7862525,0.97154903,0.12216219,0.56890416,-0.81328005,0
-3.5762541,-2.1746686,-0.30130863,-0.12216219,-0.56890416,0.81328005,0
1.3451852,-0.48059177,-2.0960457,0.12216219,0.56890416,-0.81328005,0
-1.5638176,0.91729748,-1.3517692,0.12216219,0.56890416,-0.81328005,0
-3.1502178,-1.5010483,-1.7550287,-0.80956727,-0.41692346,-0.41325009,0
-0.78257775,-1.1132579,1.0563859,-0.12216219,-0.56890416,0.81328005,0
-2.7395627,-1.4948657,-2.7052832,-0.70501828,-0.52701509,-0.47455692,0
1.2796075,0.94429266,-1.063596,0.12216219,0.56890416,-0.81328005,0
0.86178243,-0.28080916,-2.0222797,0.12216219,0.56890416,-0.81328005,0
-1.6389843,3.795929,0.59998274,-0.4679803,0.75562781,0.45828038,0
1.4694787,1.7217572,3.2487335,-0.12216219,-0.56890416,0.81328005,0
2.6371777,-1.7621323,-2.6028123,0.12216219,0.56890416,-0.81328005,0
-2.603925,-2.6164453,-0.30909634,-0.12216219,-0.56890416,0.81328005,0
-3.1722159,-2.445261,-0.3351779,-0.12216219,-0.56890416,0.81328005,0
3.7726145,0.32022017,1.1294633,0.96092165,0.13729049,0.2403765,0
1.5361972,1.8850389,3.4617033,0.44882858,0.69917989,0.55650723,0
-1.5511936,3.0848675,0.017956257,0.12216219,0.56890416,-0.81328005,0
1.9125719,3.2964048,1.5986795,0.44319367,0.70191759,0.55757582,0
-1.4984781,1.3641584,2.5992236,-0.12216219,-0.56890416,0.81328005,0
2.262156,-3.1562357,-1.1298628,0.56902021,-0.71152294,-0.41225111,0
-3.2777503,1.6807427,1.8696166,-0.78479165,0.55700386,0.27175128,0
1.6410714,3.3883724,1.5488234,0.38815287,0.7267707,0.56669343,0
-1.4538145,-0.94676447,-2.7595472,0.12216219,0.56890416,-0.81328005,0
-3.6549177,0.82374179,1.9307622,-0.12216219,-0.56890416,0.81328005,0
2.7503722,0.49317098,-0.97005939,0.12216219,0.56890416,-0.81328005,0
-3.8764088,-1.2323661,-0.68954396,-0.93721831,-0.20355789,-0.28317127,0
3.9230223,-0.63888407,-0.88889146,0.96238911,-0.26823795,-0.043077573,0
0.40333626,2.1269195,-0.23176527,0.12216219,0.56890416,-0.81328005,0
-2.1005659,2.1422796,2.9499416,-0.48645732,0.74856561,0.4505648,0
-0.26912317,0.38662314,-1.7342974,0.12216219,0.56890416,-0.81328005,0
-0.66831875,-3.5150044,-0.78629875,-0.12216219,-0.56890416,0.81328005,0
-0.48657036,1.9081511,3.125958,-0.12216219,-0.56890416,0.81328005,0
1.0111631,3.8079658,1.3542442,0.23656198,0.77911186,0.58053672,0
-2.8637414,-2.9947114,-0.94599676,-0.68012208,-0.548801,-0.48605686,0
0.82404864,1.4665017,3.0353739,-0.12216219,-0.56890416,0.81328005,0
0.066262856,0.790604,-1.2849853,0.12216219,0.56890416,-0.81328005,0
-1.8217287,-2.2035241,-2.7605679,-0.48970568,-0.67818123,-0.54795837,0
3.7622199,1.0290743,0.89731634,0.93551832,0.20767167,0.2857936,0
-1.0986768,0.65286827,2.0528681,-0.12216219,-0.56890416,0.81328005,0
3.1856892,1.632024,1.7132146,0.79877478,0.43000427,0.42077911,0
2.7783647,1.8307725,2.2991612,0.72506124,0.50840753,0.46455109,0
0.13342917,1.3498105,-0.92071408,0.12216219,0.56890416,-0.81328005,0
3.007596,-0.1385684,2.2121863,-0.12216219,-0.56890416,0.81328005,0
-2.7055888,-3.1048379,-1.0079579,-0.617266,-0.59811825,-0.51111364,0
-2.0020854,3.4128733,0.13060951,0.12216219,0.56890416,-0.81328005,0
3.7226901,-0.11708951,1.7585803,0.97104478,0.10098781,0.21650273,0
-1.9019182,0.63280928,1.8784504,-0.12216219,-0.56890416,0.81328005,0
-2.5961449,-1.4101367,0.51798999,-0.12216219,-0.56890416,0.81328005,0
1.0556161,-0.94704556,-2.4635963,0.12216219,0.56890416,-0.81328005,0
-0.47948045,-1.6506053,0.58085096,-0.12216219,-0.56890416,0.81328005,0
2.3449571,0.58964384,-1.0002316,0.12216219,0.56890416,-0.81328005,0
3.2125943,1.4150574,-0.289801,0.12216219,0.56890416,-0.81328005,0
1.1051909,0.12834048,-1.490469,0.12216219,0.56890416,-0.81328005,0
-2.2471559,-1.9654258,0.076140642,-0.12216219,-0.56890416,0.81328005,0
1.3265818,-2.1980996,-3.1561129,0.12216219,0.56890416,-0.81328005,0
-0.022759989,0.18993616,-1.7800789,0.12216219,0.56890416,-0.81328005,0
2.4225364,-1.1605698,1.3053379,-0.12216219,-0.56890416,0.81328005,0
-3.5548413,1.2235842,-1.6019063,0.12216219,0.56890416,-0.81328005,0
0.0016313493,-4.0792313,-1.2419114,0.042638876,-0.82166904,-0.5683676,0
0.45534164,1.5352292,2.9118073,-0.12216219,-0.56890416,0.81328005,0
2.977242,-1.7475837,-2.2873471,0.69965565,-0.63055098,-0.33598715,0
-0.28237864,-3.6580734,-1.8430924,-0.04869806,-0.81499463,-0.57741833,0
-3.15394,2.077466,1.3949673,-0.77041835,0.57095343,0.28366834,0
1.9873023,-3.047225,-1.6892676,0.49270296,-0.74608219,-0.44788945,0
-2.8290381,-0.7523756,0.8371377,-0.12216219,-0.56890416,0.81328005,0
3.8628824,0.37874633,1.0100036,0.96225536,0.13288881,0.23749778,0
-2.4474263,-3.1265879,-0.76616383,-0.12216219,-0.56890416,0.81328005,0
3.2178798,-2.4582911,-0.38359785,0.83468401,-0.50224352,-0.22595119,0
-0.20587431,-0.23724055,-2.06708,0.12216219,0.56890416,-0.81328005,0
-3.3763895,-0.85187912,-1.9892256,-0.88633448,-0.30621439,-0.34733814,0
-0.31201574,-3.4730301,-1.9460979,-0.058888517,-0.81381899,-0.57812679,0
-0.60022306,3.4915252,2.079493,-0.15028912,0.82057178,0.55142999,0
2.1998601,1.28862,3.1922958,-0.12216219,-0.56890416,0.81328005,0
-0.89709044,3.6514719,1.5359163,-0.23483552,0.81271815,0.53323662,0
2.3229084,-3.1243503,-1.1846476,0.59212083,-0.69939578,-0.400298,0
-3.8496959,0.4955653,-1.6177166,-0.9868871,-0.017475173,-0.16046375,0
2.2964435,-3.553268,-0.60211802,0.59763396,-0.69637656,-0.39735788,0
-3.0914404,-1.7426525,-1.8377247,-0.77729303,-0.45469236,-0.43482214,0
3.5508246,1.3007138,1.5470611,0.87786704,0.32036912,0.35596776,0
2.5535481,-2.7179735,-1.4314268,0.6378023,-0.67282635,-0.37485045,0
-2.8579662,-0.51091206,1.0779066,-0.12216219,-0.56890416,0.81328005,0
2.0893092,1.0794282,2.8146133,-0.12216219,-0.56890416,0.81328005,0
-0.70792955,-2.6485813,-0.14927268,-0.12216219,-0.56890416,0.81328005,0
-0.19865267,1.3276739,-0.8607145,0.12216219,0.56890416,-0.81328005,0
-2.4519372,1.5850648,2.4743028,-0.12216219,-0.56890416,0.81328005,0
2.4510686,2.8002486,0.38410592,0.12216219,0.56890416,-0.81328005,0
3.859206,1.26218,0.17468691,0.94838494,0.17469971,0.26466185,0
-0.59234923,0.11783266,1.8449965,-0.12216219,-0.56890416,0.81328005,0
3.5843577,-0.85043144,1.8152937,-0.12216219,-0.56890416,0.81328005,0
-2.8286614,1.5861635,2.446054,-0.12216219,-0.56890416,0.81328005,0
1.3737077,1.2667646,2.9741254,-0.12216219,-0.56890416,0.81328005,0
-1.5244029,-2.8709254,-0.4879241,-0.12216219,-0.56890416,0.81328005,0
0.47289526,1.7533853,3.2064152,-0.12216219,-0.56890416,0.81328005,0
1.422559,-1.9841213,-2.9548919,0.12216219,0.56890416,-0.81328005,0
-0.30116037,3.0430284,2.7400482,-0.064236768,0.82223129,0.56551671,0
-3.8600683,1.2961204,-0.64769244,-0.97895163,0.20404664,-0.0043132603,0
2.3397872,2.8183143,1.533005,0.59014988,0.61719131,0.52038246,0
0.31278801,3.0045629,0.253685,0.12216219,0.56890416,-0.81328005,0
1.4151297,0.49829316,2.4071431,-0.12216219,-0.56890416,0.81328005,0
-1.4997967,-3.5976353,-0.99725294,-0.12216219,-0.56890416,0.81328005,0
-3.3447125,0.69711971,1.7435627,-0.12216219,-0.56890416,0.81328005,0
-1.4495335,-1.5177832,0.6206938,-0.12216219,-0.56890416,0.81328005,0
-2.361191,3.3167405,0.7276125,-0.62001026,0.683604,0.38506216,0
-1.0852737,3.874455,0.89642191,-0.32370102,0.79744923,0.50920731,0
-2.8351452,2.7571049,0.69820094,-0.74120158,0.59724993,0.30645186,0
3.3059254,1.8560927,0.021229267,0.12216219,0.56890416,-0.81328005,0
-1.5969955,-0.039464474,-2.2240715,0.12216219,0.56890416,-0.81328005,0
0.6353966,-0.96976614,1.2445141,-0.12216219,-0.56890416,0.81328005,0
-1.3308406,-1.7547739,0.53586352,-0.12216219,-0.56890416,0.81328005,0
-1.8493006,0.23956966,-1.9640604,0.12216219,0.56890416,-0.81328005,0
-1.963478,1.1242807,2.3402727,-0.12216219,-0.56890416,0.81328005,0
-2.7905641,0.059233069,1.4051261,-0.12216219,-0.56890416,0.81328005,0
0.53703099,-0.29337668,1.7230484,-0.12216219,-0.56890416,0.81328005,0
0.65226591,-1.9169819,-2.9932201,0.12216219,0.56890416,-0.81328005,0
3.9014368,-1.1303272,-0.38678098,0.94537699,-0.31621331,-0.079192549,0
-3.37994,2.2243867,0.018969059,-0.886859,0.43045518,0.16789678,0
3.7720649,-1.4997082,0.42418337,0.96518874,-0.25903445,-0.036219016,0
2.6688368,-2.6273541,-1.0644798,0.6978488,-0.63190234,-0.3372038,0
1.9114237,-0.70011282,-1.9791027,0.12216219,0.56890416,-0.81328005,0
2.7155349,0.34580445,2.3870366,-0.12216219,-0.56890416,0.81328005,0
2.1452987,-3.5571947,-0.56909561,0.60018742,-0.69496143,-0.39598435,0
2.5981746,2.8346748,0.64833593,0.12216219,0.56890416,-0.81328005,0
-1.2997742,-0.4178524,1.3283079,-0.12216219,-0.56890416,0.81328005,0
-2.7847424,-0.17930198,1.3735709,-0.12216219,-0.56890416,0.81328005,0
1.5534532,-3.2901554,-0.3440156,-0.12216219,-0.56890416,0.81328005,0
1.5199568,-2.1167991,-3.0617609,0.12216219,0.56890416,-0.81328005,0
-0.019349478,-1.7085598,-2.9469643,0.12216219,0.56890416,-0.81328005,0
-0.0463835,3.4590654,0.64131546,0.12216219,0.56890416,-0.81328005,0
-0.75081593,2.229562,3.2399135,-0.12216219,-0.56890416,0.81328005,0
-2.1579509,0.33414447,1.654914,-0.12216219,-0.56890416,0.81328005,0
0.036326051,-3.1017394,-0.29293537,-0.12216219,-0.56890416,0.81328005,0
1.7944186,-3.3096645,-1.720048,0.43652213,-0.76670599,-0.4707551,0
-1.3611442,-1.297694,0.66659307,-0.12216219,-0.56890416,0.81328005,0
1.5462408,-0.81889367,-2.2627518,0.12216219,0.56890416,-0.81328005,0
-2.1932375,-2.266541,-0.1732688,-0.12216219,-0.56890416,0.81328005,0
1.0110869,2.4103882,3.0583894,0.30675989,0.75765443,0.5760712,0
1.7727729,-0.87420034,1.4176446,-0.12216219,-0.56890416,0.81328005,0
-3.7945881,1.6058292,-1.3390017,0.12216219,0.56890416,-0.81328005,0
-0.74386573,0.68265009,-1.5536087,0.12216219,0.56890416,-0.81328005,0
-1.9995582,1.4443321,2.6205306,-0.12216219,-0.56890416,0.81328005,0
3.3818212,0.91010821,2.0318913,0.86302507,0.343795,0.37012511,0
-0.1553542,2.8097558,0.1501112,0.12216219,0.56890416,-0.81328005,0
3.5012193,0.28774309,-1.2347064,0.12216219,0.56890416,-0.81328005,0
2.7718987,-0.69443917,-1.9745321,0.12216219,0.56890416,-0.81328005,0
3.6405792,-1.1073549,-1.737733,0.8669225,-0.46012676,-0.19164723,0
1.4223113,-3.2906072,-1.7106292,0.38618687,-0.78208923,-0.48907679,0
-3.2153409,1.9820355,1.0854027,-0.80499899,0.536107,0.25409824,0
-3.3668461,-2.3092406,-0.28520203,-0.12216219,-0.56890416,0.81328005,0
0.47062609,0.87490368,-1.1498094,0.12216219,0.56890416,-0.81328005,0
-0.37043011,-3.2627642,-2.4150043,-0.10065521,-0.80809116,-0.58039379,0
1.5781831,1.1338859,2.8677411,-0.12216219,-0.56890416,0.81328005,0
3.9762256,-0.711779,0.48518169,0.98989356,-0.129299,0.058244176,0
-2.6724608,2.8491876,-0.27795506,0.12216219,0.56890416,-0.81328005,0
1.2661923,2.2672198,3.1413898,0.34873489,0.74256581,0.57182139,0
3.9251008,1.2724676,0.20018005,0.95294845,0.16181184,0.25633195,0
-0.33723739,3.8604627,1.4528174,-0.10529186,0.82222176,0.55934316,0
1.0102636,-3.1023932,-2.1776865,0.24175072,-0.81179398,-0.53155142,0
1.9059973,-1.8222574,0.85026419,-0.12216219,-0.56890416,0.81328005,0
-1.4863122,0.24878645,1.6810094,-0.12216219,-0.56890416,0.81328005,0
-0.032115757,1.31774,-0.92292929,0.12216219,0.56890416,-0.81328005,0
-1.4880488,-1.9589386,-3.3271184,0.12216219,0.56890416,-0.81328005,0
-3.8632324,1.2702588,-1.3939183,-0.99084818,0.11730649,-0.066776544,0
3.8265922,-0.97129703,1.1432101,0.99141312,-0.10846295,0.073047593,0
-2.3465207,0.56820202,-1.7441661,0.12216219,0.56890416,-0.81328005,0
3.3016531,-2.3125415,0.019822598,0.87868649,-0.44301122,-0.17790753,0
1.5421721,0.32295012,2.1887131,-0.12216219,-0.56890416,0.81328005,0
-0.027693272,3.5749049,0.53975534,0.12216219,0.56890416,-0.81328005,0
0.31636748,-2.509393,-3.3956511,0.047990996,-0.82184476,-0.56768656,0
0.33175832,-2.1167889,-3.3688102,0.12216219,0.56890416,-0.81328005,0
-1.7351218,0.5091517,-1.7864566,0.12216219,0.56890416,-0.81328005,0
-0.024837166,4.0644741,1.0950098,-0.071316339,0.82233065,0.5645228,0
-2.2476482,2.0178988,2.9051435,-0.53735185,0.72684479,0.42772585,0
2.1413484,-3.114275,-1.5583644,0.52730095,-0.73140907,-0.43242848,0
2.4046052,3.3225291,0.755301,0.12216219,0.56890416,-0.81328005,0
1.8162087,-3.678925,-1.0577807,0.47271892,-0.75385672,-0.4563297,0
-1.3414381,1.5539813,2.6761599,-0.12216219,-0.56890416,0.81328005,0
-2.4771984,2.430994,2.0884316,-0.61106718,0.68881035,0.39004743,0
2.8725235,1.7010466,2.1509717,0.75425273,0.47939759,0.44864315,0
-2.2501354,-1.5584209,0.41954625,-0.12216219,-0.56890416,0.81328005,0
1.9937952,1.9295156,-0.13106775,0.12216219,0.56890416,-0.81328005,0
1.2390976,-3.3584864,-1.7321646,0.31082115,-0.80012804,-0.51301587,0
-3.573946,1.8728975,0.58485043,-0.87622839,0.44667706,0.18084109,0
1.6483277,-3.6370649,-0.40069389,-0.12216219,-0.56890416,0.81328005,0
2.7642477,-2.6539876,0.47898006,-0.12216219,-0.56890416,0.81328005,0
1.8647356,0.67972898,-1.1749393,0.12216219,0.56890416,-0.81328005,0
1.1352309,0.8980701,-1.0160429,0.12216219,0.56890416,-0.81328005,0
-0.71311575,-2.6329622,-3.1438243,-0.19913417,-0.78870577,-0.58162582,0
2.9074788,1.6323142,-0.17687535,0.12216219,0.56890416,-0.81328005,0
0.075370654,2.1151052,-0.38824511,0.12216219,0.56890416,-0.81328005,0
0.62038296,0.47557616,2.305593,-0.12216219,-0.56890416,0.81328005,0
1.0173118,3.9288571,1.3189216,0.19143653,0.79052424,0.58174151,0
2.0993614,-3.0003572,0.12099242,-0.12216219,-0.56890416,0.81328005,0
-3.5700574,1.4955409,-1.2848343,0.12216219,0.56890416,-0.81328005,0
1.9187541,-0.99220133,1.5293393,-0.12216219,-0.56890416,0.81328005,0
0.020335272,-2.2950456,-3.4077184,0.12216219,0.56890416,-0.81328005,0
-1.6861244,3.1695905,1.765902,-0.44854856,0.76260835,0.46608222,0
2.6044858,-3.0484605,-0.89953518,0.67909008,-0.64549595,-0.34953046,0
-2.408644,1.283434,2.3457446,-0.12216219,-0.56890416,0.81328005,0
-1.8913881,-3.2162123,-1.6684189,-0.44293982,-0.70204014,-0.55762351,0
-1.8539546,-0.46730006,1.2241801,-0.12216219,-0.56890416,0.81328005,0
1.9902674,2.7022734,2.1354687,0.47573885,0.68558556,0.55103981,0
-3.2455266,2.121007,-0.82117319,0.12216219,0.56890416,-0.81328005,0
2.3209326,2.6997302,1.7851708,0.56964481,0.63082743,0.52684116,0
-0.70686281,-1.1103742,-2.6592834,0.12216219,0.56890416,-0.81328005,0
-1.3275666,3.4291129,0.34829044,0.12216219,0.56890416,-0.81328005,0
-3.4544981,2.3242066,-0.15388179,-0.89062715,0.42446306,0.16313919,0
-0.76921284,-1.6098714,0.52340829,-0.12216219,-0.56890416,0.81328005,0
3.235801,1.909261,-0.027706623,0.12216219,0.56890416,-0.81328005,0
-3.2340004,0.36474943,-1.9943337,0.12216219,0.56890416,-0.81328005,0
-0.25670624,0.088195324,-1.9390577,0.12216219,0.56890416,-0.81328005,0
2.8481579,1.8142532,2.3809414,0.708386,0.52395785,0.47292411,0
-2.2443054,0.98747993,-1.5230303,0.12216219,0.56890416,-0.81328005,0
-1.1690924,-0.89053547,1.1654043,-0.12216219,-0.56890416,0.81328005,0
-3.1279297,1.0022997,-1.581275,0.12216219,0.56890416,-0.81328005,0
2.5455902,2.0637009,-0.0039513111,0.12216219,0.56890416,-0.81328005,0
-0.78065264,-0.21960449,1.6612787,-0.12216219,-0.56890416,0.81328005,0
-0.63991845,1.7532779,-0.80511844,0.12216219,0.56890416,-0.81328005,0
1.1723613,1.7565696,3.2096615,-0.12216219,-0.56890416,0.81328005,0
2.3695865,-3.5178864,-0.39923239,0.60937983,-0.68977743,-0.39097732,0
1.025821,1.5693496,-0.51196694,0.12216219,0.56890416,-0.81328005,0
-1.085119,1.257092,-1.025234,0.12216219,0.56890416,-0.81328005,0
3.5758238,1.1607633,-0.56595922,0.12216219,0.56890416,-0.81328005,0
-0.44093257,2.0348742,3.2729204,-0.12216219,-0.56890416,0.81328005,0
-3.5229309,2.3000631,-0.48584962,-0.91474247,0.38249749,0.13016114,0
3.5132191,-1.3735349,1.4248329,-0.12216219,-0.56890416,0.81328005,0
3.4301856,0.22053003,2.3861418,0.91777831,0.2471904,0.31077296,0
1.342348,0.79520309,-1.1027846,0.12216219,0.56890416,-0.81328005,0
3.8223367,1.2300529,-0.30539334,0.12216219,0.56890416,-0.81328005,0
3.1844404,-1.6537837,-2.0831456,0.7520932,-0.58775014,-0.29817051,0
0.56078374,-1.5493429,-2.8087845,0.12216219,0.56890416,-0.81328005,0
-3.3800771,0.92890239,2.0862994,-0.12216219,-0.56890416,0.81328005,0
-0.88668513,-2.6660876,-0.15561008,-0.12216219,-0.56890416,0.81328005,0
0.99758601,2.4856603,-0.051574469,0.12216219,0.56890416,-0.81328005,0
3.8930986,-0.98971188,0.78766972,0.98858005,-0.14259481,0.048746217,0
-3.3203814,-1.4601134,0.29855156,-0.12216219,-0.56890416,0.81328005,0
-0.35034823,0.42399073,2.1556678,-0.12216219,-0.56890416,0.81328005,0
1.8005078,1.9957547,-0.15895772,0.12216219,0.56890416,-0.81328005,0
3.6563582,-1.055654,-1.1960359,0.91218132,-0.38729298,-0.13390037,0
-1.4772271,-0.22141266,1.5447801,-0.12216219,-0.56890416,0.81328005,0
1.6389103,-3.4976327,-1.306179,0.42136866,-0.77163291,-0.4764778,0
1.7862304,-0.2081697,1.9913758,-0.12216219,-0.56890416,0.81328005,0
3.4993315,-2.345165,0.5919168,0.91091359,-0.3896336,-0.13572815,0
3.8484972,-1.2110281,0.67443454,0.97986883,-0.19949631,0.007634066,0
3.9386051,-0.58490205,0.51875323,0.99094087,-0.11597274,0.067723453,0
-3.5495286,-1.7102475,-0.57880235,-0.88366652,-0.31074169,-0.35010436,0
-2.2028913,3.3949943,0.65685987,-0.57945836,0.70614618,0.40692204,0
-3.0199082,-0.065051198,1.3607643,-0.12216219,-0.56890416,0.81328005,0
1.2248634,0.63462639,-1.218643,0.12216219,0.56890416,-0.81328005,0
2.7284651,2.7038605,0.40637183,0.12216219,0.56890416,-0.81328005,0
0.88168967,3.145184,0.44329405,0.12216219,0.56890416,-0.81328005,0
-2.2242997,1.2530656,2.4378467,-0.12216219,-0.56890416,0.81328005,0
-1.3256729,2.6205997,3.0545318,-0.28172129,0.80559015,0.52120775,0
-2.0691438,-0.47394168,1.0861869,-0.12216219,-0.56890416,0.81328005,0
-2.434844,-0.63166654,1.1366289,-0.12216219,-0.56890416,0.81328005,0
-1.5694079,-3.0767374,-2.1558685,-0.36259961,-0.73719382,-0.5701462,0
3.3083189,0.83802247,2.5772603,0.83977926,0.37750003,0.39021075,0
-1.1196845,0.50062418,2.1240478,-0.12216219,-0.56890416,0.81328005,0
-2.202261,-0.77123344,0.97739112,-0.12216219,-0.56890416,0.81328005,0
-1.9531574,2.3478272,2.8301711,-0.45383126,0.76075506,0.4639923,0
2.5258007,3.0527248,0.63717222,0.12216219,0.56890416,-0.81328005,0
-3.8799222,0.51340175,0.59121364,-0.97259355,0.23194975,0.016160503,0
0.2629455,-2.5357504,0.037208319,-0.12216219,-0.56890416,0.81328005,0
-1.8753492,-1.3559644,0.60950696,-0.12216219,-0.56890416,0.81328005,0
3.0435476,-1.2598153,1.5022188,-0.12216219,-0.56890416,0.81328005,0
-3.5552845,1.1003425,1.5495703,-0.87378401,0.45027414,0.18372446,0
-0.95601791,-3.3688583,-2.0482731,-0.20392659,-0.78754717,-0.58153516,0
-0.8181594,1.3888444,-0.94813585,0.12216219,0.56890416,-0.81328005,0
-3.084847,-0.64784098,-2.7915268,-0.840487,-0.37652111,-0.38963223,0
-4.1628437,-0.72283709,0.39906573,-0.98769414,-0.010941342,-0.15601449,0
-1.1673764,0.33109927,-1.7603397,0.12216219,0.56890416,-0.81328005,0
2.2067864,2.0905643,2.8556676,0.57454735,0.62762642,0.52533835,0
-0.001524359,3.7326267,0.6930542,0.12216219,0.56890416,-0.81328005,0
-1.747267,-2.7029483,-2.4088631,-0.45288512,-0.69718587,-0.5557217,0
0.44051331,2.2436125,3.4825597,-0.12216219,-0.56890416,0.81328005,0
2.6433656,-2.4462118,-1.8075805,0.66662347,-0.65410882,-0.35742795,0
-1.5424632,3.5833528,0.38692093,0.12216219,0.56890416,-0.81328005,0
-2.8327045,-1.4682211,0.27793348,-0.12216219,-0.56890416,0.81328005,0
-2.4271169,-3.3511052,-0.96859884,-0.57933301,-0.62446612,-0.52384663,0
3.4722295,-2.2458181,0.42636418,0.90823251,-0.39451367,-0.13954452,0
-3.5337293,-0.88089919,0.81410486,-0.12216219,-0.56890416,0.81328005,0
2.997122,-2.2035527,0.68233645,-0.12216219,-0.56890416,0.81328005,0
-1.3468333,0.85964656,2.134742,-0.12216219,-0.56890416,0.81328005,0
-0.64427793,-2.7508135,-0.18080497,-0.12216219,-0.56890416,0.81328005,0
3.7907336,-0.30225098,1.3234444,0.98170787,0.051305071,0.18335041,0
0.12768222,0.66541636,-1.3971833,0.12216219,0.56890416,-0.81328005,0
-2.460772,0.48079944,-1.869166,0.12216219,0.56890416,-0.81328005,0
-1.9242938,-3.018729,-1.6547894,-0.47940469,-0.68366563,-0.55024755,0
3.6718655,-1.7136515,1.0794398,-0.12216219,-0.56890416,0.81328005,0
-1.7520939,1.0784998,2.3354392,-0.12216219,-0.56890416,0.81328005,0
0.29245809,1.9479756,-0.49152899,0.12216219,0.56890416,-0.81328005,0
3.0490251,-3.0225182,0.10387111,0.79699987,-0.54456913,-0.26121926,0
-3.8170736,-0.48571938,-1.2079914,-0.95427138,-0.15793307,-0.25381741,0
-2.5777669,0.47399831,-1.8578085,0.12216219,0.56890416,-0.81328005,0
-1.8233826,1.9614106,-0.66560435,0.12216219,0.56890416,-0.81328005,0
0.47250861,0.37380135,-1.4647939,0.12216219,0.56890416,-0.81328005,0
-3.8389881,0.60822725,-1.0036913,-0.99218285,0.048957564,-0.11478832,0
0.059374195,-2.8710718,-2.7923315,0.0097809359,-0.82006758,-0.57218289,0
3.2915456,-0.51133561,1.9721555,-0.12216219,-0.56890416,0.81328005,0
-0.70544118,-0.89408135,1.0021905,-0.12216219,-0.56890416,0.81328005,0
1.4299591,2.3669086,0.074666023,0.12216219,0.56890416,-0.81328005,0
1.8932655,3.6659374,0.93230391,0.12216219,0.56890416,-0.81328005,0
0.81462848,2.8744934,2.6418006,0.23007551,0.78086478,0.58078855,0
-3.6209013,1.4128084,0.73937893,-0.9004342,0.40820378,0.15029234,0
-2.4007506,-2.7225296,-0.52899528,-0.12216219,-0.56890416,0.81328005,0
-3.5054836,2.0682652,-0.57075405,-0.9233759,0.36561596,0.11705542,0
-2.4166827,1.3252974,2.4713607,-0.12216219,-0.56890416,0.81328005,0
2.8252468,-2.0073299,-2.1924973,0.6896503,-0.63794005,-0.3426587,0
-2.6415315,0.077098846,-2.1244724,0.12216219,0.56890416,-0.81328005,0
0.31174567,2.3998408,3.3533967,0.12666968,0.80377972,0.58128548,0
-2.9676168,-0.18029809,-2.3218186,0.12216219,0.56890416,-0.81328005,0
-1.2781477,1.5469333,-1.0616038,0.12216219,0.56890416,-0.81328005,0
-3.493108,-1.8596339,-0.95737791,-0.83455348,-0.38464391,-0.39442307,0
-3.0920823,-1.039115,-2.4895573,-0.82481337,-0.3975814,-0.40201002,0
-1.7537023,-0.12669408,1.393743,-0.12216219,-0.56890416,0.81328005,0
-3.0420039,0.1763972,1.4071953,-0.12216219,-0.56890416,0.81328005,0
-0.26366746,0.00017261505,-1.8931272,0.12216219,0.56890416,-0.81328005,0
1.9721444,3.6002846,1.0705843,0.4353357,0.70567393,0.55902308,0
2.755368,1.2652184,-0.44983435,0.12216219,0.56890416,-0.81328005,0
-3.548558,-1.1019402,0.4200058,-0.12216219,-0.56890416,0.81328005,0
0.7495116,-2.194366,0.45650005,-0.12216219,-0.56890416,0.81328005,0
-3.8757484,-2.0316622,-0.19017935,-0.12216219,-0.56890416,0.81328005,0
0.14902382,1.343901,-0.77790487,0.12216219,0.56890416,-0.81328005,0
3.4233384,1.9859817,0.055066824,0.12216219,0.56890416,-0.81328005,0
-3.5426967,-0.23537338,1.0744427,-0.12216219,-0.56890416,0.81328005,0
-2.3991184,1.5723203,-1.0775715,0.12216219,0.56890416,-0.81328005,0
1.1989048,0.5424366,-1.3354889,0.12216219,0.56890416,-0.81328005,0
-0.65709198,-3.387588,-2.0739446,-0.14625871,-0.8001526,-0.58169067,0
4.0150342,0.10510814,-1.2413051,0.12216219,0.56890416,-0.81328005,0
2.3414204,2.6149652,0.45574093,0.12216219,0.56890416,-0.81328005,0
3.8338666,-1.0649762,1.7023045,-0.12216219,-0.56890416,0.81328005,0
-3.3051529,1.5903834,1.9487184,-0.78921801,0.55256015,0.26797795,0
0.74604863,-0.73722744,1.5402958,-0.12216219,-0.56890416,0.81328005,0
2.7746937,-2.7150142,0.37433028,-0.12216219,-0.56890416,0.81328005,0
1.2116909,2.4585047,2.980232,0.33688757,0.74700165,0.57314491,0
-2.2523155,1.4837642,2.6521478,-0.12216219,-0.56890416,0.81328005,0
-2.3819847,0.74578261,-1.6794046,0.12216219,0.56890416,-0.81328005,0
-3.5598042,-1.1320455,0.57039297,-0.12216219,-0.56890416,0.81328005,0
-1.4540701,-0.91288781,-2.6308379,0.12216219,0.56890416,-0.81328005,0
1.4599884,-1.7172062,0.74422371,-0.12216219,-0.56890416,0.81328005,0
3.0312867,1.0050446,-0.8045702,0.12216219,0.56890416,-0.81328005,0
2.9463356,-1.096702,1.6108027,-0.12216219,-0.56890416,0.81328005,0
1.8045835,-1.9808619,-2.9320052,0.12216219,0.56890416,-0.81328005,0
0.83219612,2.4586945,3.0979557,0.23231323,0.78026438,0.58070475,0
-3.8081214,0.6513021,-1.719017,-0.98853379,-0.0035334826,-0.15095866,0
0.96257889,-2.5192149,-3.1418359,0.22353737,-0.81413484,-0.53592461,0
-1.207881,-2.3164678,-3.1025383,-0.35578242,-0.73985976,-0.57098722,0
1.234532,-0.48779106,1.7991928,-0.12216219,-0.56890416,0.81328005,0
0.44597656,3.0345445,2.5058069,0.13487631,0.80230021,0.58148313,0
-3.5611477,1.9879522,0.30879903,-0.88453776,0.4340812,0.17078197,0
-2.5584512,0.089657545,-2.1073577,0.12216219,0.56890416,-0.81328005,0
-3.1138406,2.1285031,1.4985325,-0.74316305,0.59556437,0.30497807,0
4.0036778,-0.4916451,-0.026659988,0.98906702,-0.13797535,0.052050766,0
3.7355647,-0.30703235,-1.5653921,0.12216219,0.56890416,-0.81328005,0
-1.5743082,3.2601104,1.7826636,-0.39606583,0.77928889,0.48563397,0
-1.0545948,3.834837,1.024178,-0.29408446,0.80336845,0.51779658,0
-2.9200869,3.0497379,-0.1551609,-0.78382075,0.55796897,0.27257222,0
0.63308799,-3.5419879,-1.6328564,0.18185264,-0.81837535,-0.54515243,0
-1.4234014,0.71527028,-1.5650544,0.12216219,0.56890416,-0.81328005,0
1.0552907,2.7954838,0.18804526,0.12216219,0.56890416,-0.81328005,0
1.8479214,-0.20392179,-1.7973762,0.12216219,0.56890416,-0.81328005,0
-3.6096082,-2.0783086,-0.096726656,-0.12216219,-0.56890416,0.81328005,0
1.1382883,0.69675612,2.4761872,-0.12216219,-0.56890416,0.81328005,0
-3.06146,-2.7394915,-0.54107428,-0.12216219,-0.56890416,0.81328005,0
0.99644673,0.63974488,-1.2454487,0.12216219,0.56890416,-0.81328005,0
-0.46588033,3.0117509,0.25860643,0.12216219,0.56890416,-0.81328005,0
2.4444127,0.32723033,-1.1407479,0.12216219,0.56890416,-0.81328005,0
1.7635419,3.3085392,0.62938118,0.12216219,0.56890416,-0.81328005,0
0.78914177,0.5074892,2.3622911,-0.12216219,-0.56890416,0.81328005,0
-1.0400236,-3.0423563,-0.39927125,-0.12216219,-0.56890416,0.81328005,0
1.2893041,-1.4146153,1.0778347,-0.12216219,-0.56890416,0.81328005,0
0.096060738,-1.9200915,0.46416903,-0.12216219,-0.56890416,0.81328005,0
-0.60792744,-3.3816245,-0.7070713,-0.12216219,-0.56890416,0.81328005,0
-4.0252662,-0.80500096,-0.29571712,-0.96713787,-0.11586086,-0.22631982,0
-4.0913057,0.32160699,0.31244925,-0.98679715,0.1574131,-0.038112741,0
-1.1732754,3.9202776,0.8611989,-0.35827044,0.78944534,0.49841571,0
-1.3054777,-2.3103831,-0.043340206,-0.12216219,-0.56890416,0.81328005,0
0.49020505,1.2539227,-0.93296045,0.12216219,0.56890416,-0.81328005,0
-1.7573423,2.2196348,3.1551225,-0.12216219,-0.56890416,0.81328005,0
2.4667759,-2.4708214,-2.0408425,0.60269451,-0.69356143,-0.39462852,0
-0.40414014,2.1298027,3.1696255,-0.12216219,-0.56890416,0.81328005,0
-3.668632,0.4273876,1.5705007,-0.12216219,-0.56890416,0.81328005,0
1.8803272,-2.3246727,-2.8315907,0.43269262,-0.76797569,-0.47221857,0
-1.9273368,2.3794816,-0.46665692,0.12216219,0.56890416,-0.81328005,0
3.9851115,0.078034103,-0.34186402,0.99122351,-0.11164346,0.070794284,0
1.5855441,-1.114022,1.4216192,-0.12216219,-0.56890416,0.81328005,0
1.8478858,2.717,2.3998852,0.4651354,0.691046,0.55326682,0
-3.3560891,1.8861234,1.4975014,-0.80324507,0.53798473,0.2556752,0
2.2047324,3.4824758,0.85518265,0.12216219,0.56890416,-0.81328005,0
2.1180661,-3.1808965,-1.1660326,0.56673348,-0.71267879,-0.41340309,0
-1.3855306,-1.6258252,0.38380516,-0.12216219,-0.56890416,0.81328005,0
-1.458681,-1.1424572,-2.9011641,0.12216219,0.56890416,-0.81328005,0
2.7405548,-0.75925541,-2.0785084,0.12216219,0.56890416,-0.81328005,0
0.18107992,2.292526,-0.17648196,0.12216219,0.56890416,-0.81328005,0
-3.7603736,-0.99855775,-0.95652056,-0.93094856,-0.21841723,-0.29262388,0
-3.858752,0.33281523,-0.82149446,-0.99165457,0.03594698,-0.12381013,0
-1.1534269,2.1006885,3.0925584,-0.12216219,-0.56890416,0.81328005,0
3.159698,0.75560284,2.7190428,0.83072114,0.38979143,0.39744818,0
-0.67902935,2.0206654,-0.5642215,0.12216219,0.56890416,-0.81328005,0
-3.2697525,1.0357144,-1.7103274,0.12216219,0.56890416,-0.81328005,0
-3.0494785,-2.6613104,-0.85708547,-0.7349866,-0.49881041,-0.45932871,0
-1.4758595,2.0209782,-0.66265857,0.12216219,0.56890416,-0.81328005,0
2.4642999,-3.4596376,-0.32470274,0.66027743,-0.65837002,-0.36136204,0
1.0166686,-2.6058412,0.21443748,-0.12216219,-0.56890416,0.81328005,0
0.95881683,-2.9615066,-2.5168655,0.23220372,-0.8130585,-0.53386992,0
-0.51859397,-1.2887006,0.77191246,-0.12216219,-0.56890416,0.81328005,0
-2.5676224,-1.5319766,0.33506835,-0.12216219,-0.56890416,0.81328005,0
2.1895008,-2.4386733,0.54817939,-0.12216219,-0.56890416,0.81328005,0
-0.083072513,-3.7132688,-0.66922188,-0.12216219,-0.56890416,0.81328005,0
-0.11213901,0.64655042,2.3598485,-0.12216219,-0.56890416,0.81328005,0
-4.0320692,-0.15643859,0.43895623,-0.99112117,0.1132608,-0.06964758,0
3.8430092,-0.5315789,1.6957138,0.98338491,0.041480884,0.17673014,0
3.9141324,-0.50952291,1.3133888,0.98826712,0.0059639215,0.15261872,0
1.528437,-1.0395074,-2.2309978,0.12216219,0.56890416,-0.81328005,0
-3.6437323,-1.0027717,0.61111045,-0.12216219,-0.56890416,0.81328005,0
-0.83199537,-1.8107314,0.46461785,-0.12216219,-0.56890416,0.81328005,0
-2.0805566,-2.7234373,-2.0874357,-0.50564688,-0.66942859,-0.54423028,0
-3.2270954,1.9090997,-1.0854943,0.12216219,0.56890416,-0.81328005,0
2.4304628,1.1177468,-0.73478532,0.12216219,0.56890416,-0.81328005,0
0.2645371,0.18519211,1.9886496,-0.12216219,-0.56890416,0.81328005,0
-3.1316657,-1.3642256,-2.3083658,-0.79528987,-0.43412733,-0.42313981,0
1.6463978,0.70618415,2.5375278,-0.12216219,-0.56890416,0.81328005,0
0.74782133,3.7569952,1.0064926,0.12216219,0.56890416,-0.81328005,0
2.517174,-2.0317969,0.71535289,-0.12216219,-0.56890416,0.81328005,0
-2.1379056,0.29231358,1.7718438,-0.12216219,-0.56890416,0.81328005,0
-1.5113914,1.4478281,-1.0911543,0.12216219,0.56890416,-0.81328005,0
2.1001568,0.65155387,2.5131392,-0.12216219,-0.56890416,0.81328005,0
-2.6239674,0.55910182,1.8817323,-0.12216219,-0.56890416,0.81328005,0
-2.264487,-1.2080696,-2.9991035,0.12216219,0.56890416,-0.81328005,0
2.4264979,2.3893816,0.2644937,0.12216219,0.56890416,-0.81328005,0
-0.03336598,-3.5972219,-1.6719942,0.019671299,-0.82064414,-0.57110071,0
-3.3055716,0.95895445,-1.6243536,0.12216219,0.56890416,-0.81328005,0
-0.57693553,-0.95281875,1.2118601,-0.12216219,-0.56890416,0.81328005,0
0.61718625,-0.15026903,1.9421992,-0.12216219,-0.56890416,0.81328005,0
-3.7641671,0.98379338,-0.9662227,-0.99094212,0.11595578,-0.067735493,0
-3.5794573,-1.2158461,0.4409734,-0.12216219,-0.56890416,0.81328005,0
3.8760943,-0.74850661,0.10513297,0.98581111,-0.16459469,0.032940973,0
2.9219024,-2.7949111,-0.50546169,0.76735592,-0.5738349,-0.28614396,0
2.027029,-3.8396447,-0.48169231,0.55259246,-0.71965301,-0.42040575,0
2.1539698,2.713716,1.9493997,0.53211623,0.65415668,0.53752321,0
3.3794229,-1.5058733,-1.9481241,0.80129749,-0.54005492,-0.25741595,0
1.0626329,-2.7685926,-0.012001276,-0.12216219,-0.56890416,0.81328005,0
-3.7552879,1.260312,-0.18367314,-0.95970422,0.27664298,0.049360335,0
-2.9908948,-0.40305805,-2.6740782,0.12216219,0.56890416,-0.81328005,0
-3.6504266,1.8263974,-1.1772542,-0.9683513,0.24801183,0.028033465,0
-3.9388309,0.20807815,1.3977076,-0.12216219,-0.56890416,0.81328005,0
2.8839431,-2.8876734,-0.28976011,0.74818259,-0.59120077,-0.30117178,0
0.021499053,-1.2765307,0.86516416,-0.12216219,-0.56890416,0.81328005,0
0.50459379,-2.5885289,0.20473742,-0.12216219,-0.56890416,0.81328005,0
-1.2298714,1.3034289,2.4993072,-0.12216219,-0.56890416,0.81328005,0
2.345407,2.3426855,0.12520504,0.12216219,0.56890416,-0.81328005,0
-2.1167741,1.5439711,-1.1504657,0.12216219,0.56890416,-0.81328005,0
0.023181327,1.696444,2.9217067,-0.12216219,-0.56890416,0.81328005,0
-2.0656326,0.89769363,2.2162077,-0.12216219,-0.56890416,0.81328005,0
-2.9829359,1.950671,1.994246,-0.71221876,0.62094128,0.3273778,0
-2.6344316,2.9669578,-0.08904767,0.12216219,0.56890416,-0.81328005,0
0.61194849,-0.2891264,1.7499497,-0.12216219,-0.56890416,0.81328005,0
-3.9029863,-1.4673551,-0.012680292,-0.94405228,-0.18630686,-0.2721304,0
0.91282064,2.2953925,0.0053048134,0.12216219,0.56890416,-0.81328005,0
1.3687589,1.0072615,2.826293,-0.12216219,-0.56890416,0.81328005,0
-1.7479653,-2.4550457,-2.482023,-0.47049499,-0.68830311,-0.55215329,0
2.632539,1.0167389,2.8710995,-0.12216219,-0.56890416,0.81328005,0
-1.4145842,3.7955575,0.97008228,-0.38978109,0.78108251,0.48783273,0
-0.75517356,3.1321332,2.6037657,-0.15457886,0.82032394,0.55061233,0
3.2432668,-0.17878401,-1.3705711,0.12216219,0.56890416,-0.81328005,0
-1.843832,-3.1695485,-1.6918616,-0.44632137,-0.70040262,-0.55698591,0
-3.516005,2.3032019,-0.58516777,-0.91116923,0.38916337,0.13536084,0
-0.51456082,1.3302032,-1.0788679,0.12216219,0.56890416,-0.81328005,0
1.053381,-2.3407338,0.31065488,-0.12216219,-0.56890416,0.81328005,0
-3.4938393,1.9222922,0.88826573,-0.86180162,0.46725732,0.19740438,0
2.0836639,3.1854701,0.60840845,0.12216219,0.56890416,-0.81328005,0
-0.60070968,3.9671679,1.2273221,-0.20456645,0.81625593,0.54025793,0
0.39395273,2.9954333,2.5436354,0.13274777,0.80268937,0.58143562,0
0.77633512,0.2246896,-1.4892991,0.12216219,0.56890416,-0.81328005,0
3.5346668,-2.010509,0.7236501,0.93741739,-0.33534411,-0.093770534,0
-2.4294353,1.2221928,-1.3329736,0.12216219,0.56890416,-0.81328005,0
-2.9936209,-1.9259627,-1.7916291,-0.77078378,-0.46184763,-0.43884963,0
0.62955546,1.603415,3.0092332,-0.12216219,-0.56890416,0.81328005,0
1.4455523,3.7531424,1.1634741,0.31157458,0.75601172,0.57564521,0
-2.6541691,2.195436,1.9835925,-0.66534412,0.65497446,0.35822564,0
3.3544695,2.2755208,1.0694315,0.79229915,0.43762815,0.42513955,0
-0.081545472,0.63374507,-1.4907117,0.12216219,0.56890416,-0.81328005,0
0.74549282,-1.9242496,-3.1675837,0.12216219,0.56890416,-0.81328005,0
-3.1934566,-0.60474706,-2.7522001,0.12216219,0.56890416,-0.81328005,0
-0.44592664,-1.1785223,-2.7054212,0.12216219,0.56890416,-0.81328005,0
-1.7162405,3.5381188,1.2244601,-0.43815485,0.76615942,0.47012746,0
-1.4213877,-1.9118869,-3.2879007,0.12216219,0.56890416,-0.81328005,0
-3.98366,0.77266937,0.87638021,-0.94666415,0.31295514,0.076720089,0
-0.70236188,0.72201097,-1.3280494,0.12216219,0.56890416,-0.81328005,0
2.025594,2.7455518,1.9522214,0.50005168,0.67253786,0.54556477,0
1.6654429,-1.5243076,1.0687741,-0.12216219,-0.56890416,0.81328005,0
-1.0696934,3.7329206,1.5468497,-0.26979548,0.80759656,0.52440262,0
1.6888112,-1.6831613,-2.6935096,0.12216219,0.56890416,-0.81328005,0
2.7966638,1.0720484,3.0796254,-0.12216219,-0.56890416,0.81328005,0
3.4934928,2.2943482,0.40542388,0.12216219,0.56890416,-0.81328005,0
3.5292454,0.99391502,1.5420244,0.90926695,0.26434153,0.32149202,0
-3.5140855,-0.80293047,-1.9303306,-0.90080976,-0.28045395,-0.33149254,0
-0.45109519,2.8352289,2.7458551,-0.083940148,0.82240355,0.56267756,0
-3.6311831,2.1724768,-0.7579875,-0.93415213,0.34274223,0.099436104,0
-1.9100908,1.2161505,2.4759388,-0.12216219,-0.56890416,0.81328005,0
-0.69319648,-2.6373594,-3.2080927,-0.18033944,-0.7930541,-0.58184439,0
3.2050269,2.5656345,0.79849434,0.7684111,0.46442041,0.44029289,0
-2.3212068,-0.77535784,0.92991877,-0.12216219,-0.56890416,0.81328005,0
-3.0265133,1.9062835,1.9411561,-0.7225107,0.61278027,0.32012314,0
2.5185657,-0.5385685,-1.9135448,0.12216219,0.56890416,-0.81328005,0
-0.51107496,-3.002831,-2.6870162,-0.12350064,-0.80433565,-0.58119828,0
-3.7081211,1.1196553,0.46669602,-0.94072324,0.32759899,0.087856144,0
1.845687,0.39053154,2.2877939,-0.12216219,-0.56890416,0.81328005,0
1.2523284,1.1287985,-0.97097355,0.12216219,0.56890416,-0.81328005,0
1.5662078,-3.3778207,-1.7085547,0.38824326,-0.78151488,-0.48836613,0
-3.2089047,0.48386109,1.6952045,-0.12216219,-0.56890416,0.81328005,0
1.0172923,2.2263677,3.5668213,-0.12216219,-0.56890416,0.81328005,0
0.47206593,0.2359333,-1.7202678,0.12216219,0.56890416,-0.81328005,0
-0.77755755,-3.2018912,-2.2621641,-0.16769744,-0.7958048,-0.5818696,0
-0.24392641,1.4042908,-0.95162928,0.12216219,0.56890416,-0.81328005,0
-2.6025712,-2.294296,-1.8790753,-0.66780102,-0.55908054,-0.4913969,0
-3.8915946,0.16246665,-1.0882714,-0.98703736,-0.016295627,-0.15966123,0
3.2389519,-1.5782769,-1.8673425,0.78742242,-0.55437142,-0.26951474,0
-2.2351978,-2.5408721,-0.2072587,-0.12216219,-0.56890416,0.81328005,0
0.98948753,0.13624239,2.1902418,-0.12216219,-0.56890416,0.81328005,0
-0.66826487,-4.1238422,-1.0289559,-0.12216219,-0.56890416,0.81328005,0
-1.6744367,-2.7346904,-2.3392642,-0.4187198,-0.71338499,-0.5619213,0
-0.24956335,-3.5280185,-1.8292727,-0.071578644,-0.81223357,-0.57892382,0
1.1843588,-3.4089038,-0.24935389,-0.12216219,-0.56890416,0.81328005,0
-2.0049944,-3.2988515,-0.72716522,-0.12216219,-0.56890416,0.81328005,0
-1.0136422,-3.9455266,-1.1295981,-0.21050698,-0.78592306,-0.58138752,0
-2.9149425,0.37709808,1.7204344,-0.12216219,-0.56890416,0.81328005,0
2.8520179,2.9167194,0.65047932,0.12216219,0.56890416,-0.81328005,0
-0.022488058,4.1413445,1.1918988,-0.037670393,0.82148457,0.56898487,0
-3.8967559,1.1629744,0.70958322,-0.94196761,0.32461223,0.085579902,0
-2.1279852,3.1625569,1.1598835,-0.54805672,0.72182798,0.42260855,0
-2.3247247,0.20559859,-1.9513891,0.12216219,0.56890416,-0.81328005,0
-1.058485,3.5940752,0.44133139,0.12216219,0.56890416,-0.81328005,0
-1.0882874,-1.5328391,0.5480237,-0.12216219,-0.56890416,0.81328005,0
2.2272816,0.08589673,2.3383408,-0.12216219,-0.56890416,0.81328005,0
-3.3458102,-0.72552121,-2.1745379,-0.88105357,-0.31511474,-0.35277086,0
-3.268487,-0.56897676,0.9850862,-0.12216219,-0.56890416,0.81328005,0
-1.3053063,0.61888433,2.0307641,-0.12216219,-0.56890416,0.81328005,0
2.9763942,-1.7827147,-2.1163864,0.72829479,-0.60807437,-0.31596249,0
2.2850211,-3.3619797,-0.94344902,0.59380287,-0.69847971,-0.39940447,0
-1.5003581,1.1628413,2.4405618,-0.12216219,-0.56890416,0.81328005,0
-3.62591,-1.4320279,-1.0871558,-0.87997961,-0.31689513,-0.35385492,0
-2.6440158,-1.8262355,0.27407789,-0.12216219,-0.56890416,0.81328005,0
0.77195168,-1.9517813,0.59199131,-0.12216219,-0.56890416,0.81328005,0
0.3797425,3.2431211,2.4639866,0.09991537,0.80820537,0.58036256,0
-2.0545192,1.544452,-0.99411094,0.12216219,0.56890416,-0.81328005,0
-2.1566708,1.1656263,2.351274,-0.12216219,-0.56890416,0.81328005,0
3.4349089,0.032743454,2.311461,-0.12216219,-0.56890416,0.81328005,0
-3.9108624,0.11931187,-0.6168763,-0.99131036,0.029658735,-0.12815717,0
-2.305613,-2.8313851,-1.7401831,-0.5448041,-0.64649612,-0.53407037,0
-1.0694129,-0.78973269,1.2353505,-0.12216219,-0.56890416,0.81328005,0
0.75243872,1.3738198,2.9805787,-0.12216219,-0.56890416,0.81328005,0
-2.8282156,2.0002522,1.8822908,-0.70355713,0.62760699,0.33334166,0
-1.9409366,-0.34944701,-2.374896,0.12216219,0.56890416,-0.81328005,0
-3.1006315,-0.046223402,-2.4493978,0.12216219,0.56890416,-0.81328005,0
2.619874,2.3303688,0.17854047,0.12216219,0.56890416,-0.81328005,0
-3.6685605,1.4248,1.2179068,-0.8881824,0.42836607,0.16623664,0
-2.1019907,0.22892904,1.698632,-0.12216219,-0.56890416,0.81328005,0
1.8522377,1.648984,-0.43750644,0.12216219,0.56890416,-0.81328005,0
-3.8663473,1.2473023,0.37449145,-0.94003654,0.32923019,0.089100301,0
3.7228754,0.57728612,1.0067438,0.9543826,0.15760373,0.25360373,0
0.33283466,-2.6122911,-3.0825577,0.068383306,-0.82229459,-0.56493813,0
3.1936929,-1.4394352,1.3825927,-0.12216219,-0.56890416,0.81328005,0
-1.1067261,2.0362456,3.1966157,-0.12216219,-0.56890416,0.81328005,0
3.7498984,-1.6572391,-0.004863739,0.92513019,-0.36203867,-0.11428949,0
-1.6473215,1.1994994,-1.3588035,0.12216219,0.56890416,-0.81328005,0
-3.5303204,-0.69962323,0.81851995,-0.12216219,-0.56890416,0.81328005,0
3.0773928,1.9349065,1.7530835,0.7552467,0.47836655,0.44807118,0
1.1048812,2.6518433,2.9226787,0.32050586,0.75290465,0.57481349,0
