-2.825645,2.6134462,-2.5872624,-0.81830746,0.062886477,-0.57133019,0
-2.1796062,-1.1865156,-3.8496118,-0.81830746,0.062886477,-0.57133019,0
-1.5103221,-1.0024488,-4.870892,-0.81830746,0.062886477,-0.57133019,0
3.0378165,-0.78516555,2.7349191,0.81830746,-0.062886477,0.57133019,0
4.4287972,0.07148695,0.69604051,0.81830746,-0.062886477,0.57133019,0
-1.811079,2.706717,-4.2585931,-0.81830746,0.062886477,-0.57133019,0
-3.8768349,0.79669762,-1.4606819,-0.81830746,0.062886477,-0.57133019,0
-0.44296265,-1.7082975,4.1855621,-0.54957056,-0.37675637,0.74567199,0
-2.1158955,-2.709018,-4.4192133,-0.81830746,0.062886477,-0.57133019,0
2.6563184,-2.0772331,2.9076483,0.81830746,-0.062886477,0.57133019,0
1.2754598,1.4939293,-3.7923183,0.55335045,0.35508409,-0.75347108,0
-2.6815526,-0.64628005,-3.1295903,-0.81830746,0.062886477,-0.57133019,0
-2.2420135,3.0814285,-3.525352,-0.81830746,0.062886477,-0.57133019,0
-0.81040382,-3.5432112,1.6677493,-0.30560917,-0.88945347,0.33981705,0
0.20439816,-2.6132665,3.9690077,-0.49041551,-0.59480685,0.63694406,0
-0.45999956,-3.0249338,3.0615621,-0.441284,-0.70564759,0.55437338,0
1.7415712,-0.31274557,-3.6659851,0.56826574,-0.060719579,-0.82060176,0
4.21033,0.74470568,1.0305321,0.81830746,-0.062886477,0.57133019,0
-2.0358057,-0.48543048,3.4970341,-0.57471609,-0.10442802,0.81166261,0
-2.5231895,3.8475609,0.00055193901,-0.15367872,0.93387175,0.3229031,0
0.948627,-3.4452665,3.6294854,-0.38074905,-0.80393857,0.45685127,0
-3.1165271,0.33516788,2.6374094,-0.56472135,0.097187281,0.81953919,0
-2.8100953,-0.64443207,-2.9167762,-0.81830746,0.062886477,-0.57133019,0
-2.7702909,3.0679023,1.2817153,-0.34188706,0.7457844,0.57176822,0
2.3225679,-4.1652923,1.5798634,-0.044128537,-0.99793667,-0.046638399,0
3.2843142,2.0595088,-1.9097233,0.50899994,0.54103005,-0.66948158,0
-0.49285603,-3.3250642,2.5185175,-0.37329412,-0.81398153,0.44506824,0
3.0447307,-3.3793716,-0.80258787,0.30172741,-0.79902899,-0.52010882,0
-3.456902,-0.8672123,2.2610192,-0.56735528,-0.24763349,0.78535712,0
0.95062327,-1.5644896,-3.830451,0.49808139,-0.41849518,-0.75945818,0
-0.83953619,3.356878,2.2757192,-0.28692317,0.81659997,0.50083899,0
2.643996,1.4242718,3.457608,0.81830746,-0.062886477,0.57133019,0
-4.8695064,2.5125816,0.35558748,-0.81830746,0.062886477,-0.57133019,0
-3.78914,3.6260531,-1.1873496,-0.81830746,0.062886477,-0.57133019,0
-5.1965995,-0.26263094,0.46498895,-0.81830746,0.062886477,-0.57133019,0
-5.1481314,-0.28611279,0.4306488,-0.81830746,0.062886477,-0.57133019,0
-1.5761877,3.1214998,1.9338651,-0.32899231,0.76382136,0.55528462,0
4.0434513,0.66367197,1.1394521,0.81830746,-0.062886477,0.57133019,0
-4.588625,-0.89982414,-0.44448948,-0.81830746,0.062886477,-0.57133019,0
3.3148742,-2.0298829,1.8886795,0.81830746,-0.062886477,0.57133019,0
4.4010415,-2.3466387,-0.96404529,0.45469034,-0.53723186,-0.71037918,0
4.354579,1.4436436,0.77270401,0.81830746,-0.062886477,0.57133019,0
-3.0693974,4.171771,-1.0060002,-0.084126592,0.97018838,0.22728208,0
-3.314961,3.077934,-1.8979268,-0.81830746,0.062886477,-0.57133019,0
-2.7593298,-3.5410166,-0.4005931,-0.22695374,-0.94858044,0.22065189,0
-2.7745717,3.234715,-2.742312,-0.81830746,0.062886477,-0.57133019,0
0.29181743,-0.20381701,5.1086693,-0.573632,-0.026540309,0.81868309,0
2.9857361,0.7058692,-2.8289607,0.57216501,0.1838446,-0.79926747,0
4.8462062,2.5448661,-0.064219475,0.43631709,0.71502697,-0.54622704,0
-2.4588432,3.1380944,-3.1963449,-0.81830746,0.062886477,-0.57133019,0
-0.77322149,2.754837,-4.1839533,0.46605599,0.65434748,-0.59550071,0
3.4911509,-1.3239784,1.9826761,0.81830746,-0.062886477,0.57133019,0
1.8220129,-4.0230603,0.78268588,0.0074424744,-0.9927541,-0.11993235,0
3.127727,-1.129122,-2.5897028,0.53493804,-0.28030875,-0.79703712,0
-0.27889705,1.3529459,-4.87321,0.562621,0.29101381,-0.77380145,0
-3.3055711,-0.87198782,-2.4814305,-0.81830746,0.062886477,-0.57133019,0
0.46576476,-3.8534529,-0.98081887,0.10730726,-0.95980608,-0.25934058,0
-3.2470279,-1.6224864,-2.5955164,-0.81830746,0.062886477,-0.57133019,0
0.56843424,3.9523561,-0.2555939,0.11423528,0.99196142,-0.05443199,0
-2.7977405,-2.643508,-3.1167893,-0.81830746,0.062886477,-0.57133019,0
-2.8359373,3.2405071,-2.6896598,-0.81830746,0.062886477,-0.57133019,0
4.8259225,-1.256393,-0.038103104,0.81830746,-0.062886477,0.57133019,0
1.5211754,-2.4547653,4.6694026,0.81830746,-0.062886477,0.57133019,0
4.1723585,-0.53952956,-2.0095639,0.56619495,-0.082970619,-0.82008493,0
0.57892132,2.8090429,-3.1041136,0.44807279,0.69236881,-0.56555843,0
-0.29397202,-3.7388971,1.7152674,-0.2780652,-0.91325057,0.29774684,0
-2.6119318,1.2796412,2.7333379,-0.52150887,0.33668861,0.78400844,0
2.3442841,0.48523474,3.7190065,0.81830746,-0.062886477,0.57133019,0
2.7270975,3.6495178,3.2639632,-0.11940157,0.95371449,0.27599266,0
-1.2646544,0.81093788,-5.1959701,-0.81830746,0.062886477,-0.57133019,0
-1.9146938,-0.58560395,-4.2710757,-0.81830746,0.062886477,-0.57133019,0
-3.7221823,-0.65974903,-1.659963,-0.81830746,0.062886477,-0.57133019,0
0.55976927,-1.5059285,-4.0990844,0.49631822,-0.42402688,-0.75754166,0
-1.6279044,-1.2079916,-4.9152288,-0.81830746,0.062886477,-0.57133019,0
-0.66560054,0.061762929,-5.3452907,0.56918669,-0.049682468,-0.82070589,0
5.2576284,1.7718573,-0.34750438,0.81830746,-0.062886477,0.57133019,0
-1.7391896,2.3932238,-4.0820065,-0.81830746,0.062886477,-0.57133019,0
3.0245836,2.2358267,3.0607219,0.81830746,-0.062886477,0.57133019,0
-4.0683689,0.65170288,-1.1928686,-0.81830746,0.062886477,-0.57133019,0
0.72732258,-0.62916172,5.3166432,-0.57478046,-0.088554204,0.81350201,0
-2.0354362,-1.1188085,-4.0852895,-0.81830746,0.062886477,-0.57133019,0
2.0775099,-3.5599635,3.6746087,0.81830746,-0.062886477,0.57133019,0
-3.7671132,0.57020187,-1.5575392,-0.81830746,0.062886477,-0.57133019,0
4.9253144,-2.3907473,-0.45069933,0.81830746,-0.062886477,0.57133019,0
2.9728839,-2.823585,2.3950756,0.81830746,-0.062886477,0.57133019,0
2.3466065,2.2515874,3.8930697,0.81830746,-0.062886477,0.57133019,0
-2.6253767,2.1209986,-2.8348589,-0.81830746,0.062886477,-0.57133019,0
-4.5020905,3.1404333,-0.23272014,-0.81830746,0.062886477,-0.57133019,0
0.50060511,0.32673979,5.1868591,-0.56143433,0.12550706,0.81794828,0
-2.7532392,2.708776,-2.7544851,-0.81830746,0.062886477,-0.57133019,0
-1.8813243,-3.7831569,-1.9769616,0.042068839,-0.98477805,-0.16864932,0
3.6998477,-2.3659868,1.5726795,0.81830746,-0.062886477,0.57133019,0
1.6610161,1.6980214,4.6966372,0.81830746,-0.062886477,0.57133019,0
2.1728244,-3.1064844,3.719774,0.81830746,-0.062886477,0.57133019,0
1.8147867,-0.43067598,4.4311738,0.81830746,-0.062886477,0.57133019,0
3.0587163,-4.0038195,2.0649877,0.81830746,-0.062886477,0.57133019,0
-5.0588431,-0.49786091,1.2999797,-0.57335496,-0.15927902,0.80367553,0
-1.140985,2.8347259,2.4680882,-0.34629595,0.73939919,0.57738024,0
2.4813824,-1.882422,-2.6631269,0.48548475,-0.45649433,-0.74559879,0
-2.2236094,-1.6706668,2.9546502,-0.54005367,-0.42439038,0.7267977,0
-0.67280638,-1.5249013,-4.8785248,0.49510396,-0.42779398,-0.75621712,0
1.7436728,3.8721333,1.9249108,-0.041184306,0.98502684,0.16740982,0
3.7541637,-2.4413993,1.263677,0.81830746,-0.062886477,0.57133019,0
5.2268486,1.522727,-0.48192,0.81830746,-0.062886477,0.57133019,0
-1.7064192,1.8644872,-4.4161882,-0.81830746,0.062886477,-0.57133019,0
-2.6570928,-0.2276876,-3.3552103,-0.81830746,0.062886477,-0.57133019,0
2.7081835,-3.0806947,2.8343024,0.81830746,-0.062886477,0.57133019,0
-2.455796,-3.6238632,0.17104447,-0.27320719,-0.91708505,0.2903668,0
-2.5382771,-2.2444654,-3.5787845,-0.81830746,0.062886477,-0.57133019,0
-0.61305428,-3.511879,-2.6204095,0.21641141,-0.88714135,-0.40761051,0
-2.468431,-3.287967,-3.8598604,-0.81830746,0.062886477,-0.57133019,0
0.34802109,1.8318124,4.4141626,-0.47461054,0.48675978,0.73335516,0
-3.4601343,3.0708215,-1.8434855,-0.81830746,0.062886477,-0.57133019,0
2.1954417,-3.4311318,3.3472202,0.81830746,-0.062886477,0.57133019,0
-0.26916647,3.2278452,2.5446057,-0.28755885,0.81586671,0.50166869,0
4.974968,-0.8491888,-1.2258527,0.55903983,-0.14395237,-0.81654906,0
-4.0699158,3.517751,-0.89226079,-0.81830746,0.062886477,-0.57133019,0
-4.5624967,-0.77205992,-0.66938484,-0.81830746,0.062886477,-0.57133019,0
-3.3094206,-3.7733366,-1.9592196,-0.1019007,-0.99412376,0.036527317,0
4.2671108,3.5804789,1.4361742,0.81830746,-0.062886477,0.57133019,0
3.5346479,-0.59517193,1.8013928,0.81830746,-0.062886477,0.57133019,0
2.319541,-0.4930706,3.728725,0.81830746,-0.062886477,0.57133019,0
-2.6666901,1.1227355,-2.9289618,-0.81830746,0.062886477,-0.57133019,0
0.16533136,0.8550663,-4.6108065,0.57292819,0.16898242,-0.80199635,0
3.9035544,-0.17295504,-2.086225,0.57210147,-0.0067497492,-0.82015502,0
3.2248082,2.5315416,-1.4623744,0.46632993,0.65373331,-0.59596068,0
-3.7409482,1.2035465,2.1225183,-0.54195273,0.24669863,0.80338478,0
-3.9327545,-2.0520024,-1.4810584,-0.81830746,0.062886477,-0.57133019,0
0.48009396,-3.4914594,3.0594854,-0.36950237,-0.81894267,0.43909124,0
-1.5855625,-0.32213473,-4.6482277,-0.81830746,0.062886477,-0.57133019,0
-4.9038539,-2.6508932,-0.23264909,-0.81830746,0.062886477,-0.57133019,0
-0.88236952,4.0874538,-0.58094919,0.047821045,0.99799937,0.041356612,0
3.9451165,0.42984343,-2.0505261,0.57434392,0.12820613,-0.80851233,0
-2.7617078,3.2358196,-2.7993736,-0.81830746,0.062886477,-0.57133019,0
0.36288595,-2.3648064,4.3019586,-0.50958949,-0.53917319,0.67053032,0
-0.83223534,-2.0992439,-4.4259224,0.43252844,-0.58725423,-0.68414301,0
5.1529298,1.9890947,-0.47270918,0.50288832,0.55968904,-0.65867412,0
-1.3185258,-0.6314249,3.8509567,-0.5742991,-0.13013947,0.80823529,0
3.7614908,-0.38023639,-2.2108057,0.56820291,-0.061443895,-0.82059133,0
-4.1068554,-1.7746692,-1.4282556,-0.81830746,0.062886477,-0.57133019,0
0.89845681,-3.7297277,-1.0709717,0.15849245,-0.93077308,-0.32945669,0
-3.1466722,3.8445385,-0.033105135,-0.21077245,0.89192307,0.40006033,0
5.3461018,-1.0664968,-0.61489344,0.81830746,-0.062886477,0.57133019,0
4.2599669,-2.154299,-1.2361479,0.46997494,-0.49904057,-0.7280674,0
-4.1576629,-0.32100773,1.9828098,-0.57387084,-0.14529857,0.80595326,0
-2.139581,-3.5832195,0.50538445,-0.2919482,-0.9017027,0.31890225,0
-3.5704131,0.073198318,-1.7521832,-0.81830746,0.062886477,-0.57133019,0
-1.99266,3.827384,-3.6982822,-0.81830746,0.062886477,-0.57133019,0
5.1388712,1.089066,-0.34993076,0.81830746,-0.062886477,0.57133019,0
-3.0815463,0.58683515,-2.6848321,-0.81830746,0.062886477,-0.57133019,0
-2.0307755,1.7221808,-4.0492473,-0.81830746,0.062886477,-0.57133019,0
1.5329666,-3.5266068,-1.4483528,0.24425715,-0.86173266,-0.44469684,0
-3.9784243,-0.40720987,-1.2229749,-0.81830746,0.062886477,-0.57133019,0
-3.5422988,3.3083615,-1.5261402,-0.81830746,0.062886477,-0.57133019,0
-2.5521104,-0.60574436,2.9952388,-0.5729478,-0.16856432,0.80207044,0
-1.3171459,-0.36007738,-5.1592703,-0.81830746,0.062886477,-0.57133019,0
-1.598017,3.0657499,2.0660954,-0.32699937,0.7665267,0.55272794,0
-0.64769506,-3.8681059,0.35542682,-0.14438176,-0.9846155,0.098419003,0
2.6969576,0.30991173,3.2237248,0.81830746,-0.062886477,0.57133019,0
-4.6635504,-2.3391075,-0.50618625,-0.81830746,0.062886477,-0.57133019,0
-4.3827996,-1.5470667,1.4231958,-0.5416885,-0.41678241,0.72997683,0
-2.2667515,-1.7261627,-3.869523,-0.81830746,0.062886477,-0.57133019,0
-3.8938999,0.80163145,-1.1983755,-0.81830746,0.062886477,-0.57133019,0
-1.2175546,1.742263,3.4605036,-0.47948101,0.4734681,0.738868,0
-1.7616491,3.7462642,-3.7421639,0.33928657,0.8551954,-0.39182329,0
0.049444199,-1.9449852,4.4276175,-0.53221726,-0.45828399,0.71184313,0
3.3547566,-0.43140984,2.2157714,0.81830746,-0.062886477,0.57133019,0
1.2841154,0.0084039271,-4.1027122,0.57112867,-0.022911519,-0.82054073,0
4.2248087,-1.7856109,0.90019906,0.81830746,-0.062886477,0.57133019,0
0.69562745,3.6164005,2.1021001,-0.14553595,0.93893635,0.31179786,0
3.3292568,3.5768151,2.4995728,0.81830746,-0.062886477,0.57133019,0
-2.0911679,3.035058,-3.7491512,-0.81830746,0.062886477,-0.57133019,0
1.4333488,2.858861,3.935915,-0.31260869,0.78543538,0.53419769,0
-4.6067915,-1.2363529,-0.45198774,-0.81830746,0.062886477,-0.57133019,0
-0.22538471,-3.2441778,-2.8767364,0.26645136,-0.83923715,-0.47400922,0
-0.031667471,2.5974679,3.414084,-0.38197151,0.68325877,0.62229836,0
3.8832955,0.10742807,1.5064257,0.81830746,-0.062886477,0.57133019,0
-0.49267101,-4.0241036,-0.1345337,-0.081134081,-0.99668205,0.0065020565,0
-3.0579915,-1.5820444,-2.9113159,-0.81830746,0.062886477,-0.57133019,0
-1.6335135,0.55442262,-4.6310916,-0.81830746,0.062886477,-0.57133019,0
-2.098577,0.52520871,-3.936651,-0.81830746,0.062886477,-0.57133019,0
0.29406834,-3.8344946,2.2217193,-0.26650465,-0.92220467,0.28020322,0
3.1347048,-3.4463158,2.0147185,0.81830746,-0.062886477,0.57133019,0
5.2966714,1.2287135,-0.58111715,0.81830746,-0.062886477,0.57133019,0
0.063048661,-2.1813905,-4.0386434,0.43606514,-0.5796482,-0.68837142,0
0.22296906,-3.7961078,1.5860426,-0.21186662,-0.95700729,0.19811526,0
-2.1592412,1.9142323,-3.5886827,-0.81830746,0.062886477,-0.57133019,0
1.1592982,0.17292371,-4.1292973,0.57413286,0.042246968,-0.81767154,0
3.6138678,2.5558355,-1.0737541,0.46520543,0.65624762,-0.5940733,0
-1.792912,2.9774051,-4.2160153,-0.81830746,0.062886477,-0.57133019,0
3.0606587,-3.4973457,-0.38601923,0.26247543,-0.84341967,-0.46877491,0
0.91980124,-4.0789275,1.7988778,-0.16960275,-0.97615665,0.13547362,0
0.55369747,1.6876932,4.6546555,-0.48316795,0.46312469,0.74301028,0
5.1643586,-1.1766863,-1.1359446,0.54391009,-0.23665199,-0.80508238,0
-4.9205012,2.2703571,0.25882602,-0.81830746,0.062886477,-0.57133019,0
-4.0563641,-3.4233055,-0.56138957,-0.3144325,-0.88105357,0.35337919,0
-0.23022491,1.1291972,4.5171499,-0.52886796,0.30690348,0.79127038,0
-1.3195062,-1.452347,3.6555026,-0.55364162,-0.35333061,0.75408125,0
-2.3656483,3.3983746,-3.2758541,-0.81830746,0.062886477,-0.57133019,0
5.4684463,-1.1733484,-0.9915731,0.54643118,-0.22320396,-0.80721307,0
-0.24728891,-1.6061351,-4.659317,0.49968159,-0.41340962,-0.76119035,0
3.5292783,2.6912591,2.1768904,0.81830746,-0.062886477,0.57133019,0
4.4555807,-2.2602279,0.45708227,0.81830746,-0.062886477,0.57133019,0
-3.7834926,1.7191765,-1.3691077,-0.81830746,0.062886477,-0.57133019,0
4.3251076,-2.7973614,0.66569018,0.81830746,-0.062886477,0.57133019,0
5.0806303,-0.58474302,-1.3000009,0.5677858,-0.066161305,-0.82051325,0
-2.8210127,3.7500646,0.10986173,-0.1847499,0.91247231,0.36505038,0
3.3088546,0.34443617,2.2587757,0.81830746,-0.062886477,0.57133019,0
3.6344969,-2.8864806,1.5773902,0.81830746,-0.062886477,0.57133019,0
0.91539621,1.7763596,-3.9111946,0.54315877,0.4097569,-0.73285598,0
-3.5618339,-3.6350129,-1.1476707,-0.21281767,-0.95650154,0.19953306,0
-0.29925728,3.1966097,2.4742084,-0.27552533,0.82943416,0.48592669,0
4.8200397,1.1370296,-1.1645365,0.55873573,0.32025188,-0.7650184,0
-2.167093,3.2435431,1.3834738,-0.29589397,0.80607712,0.51252943,0
-3.1362267,-1.1970358,2.4462309,-0.55513227,-0.34414366,0.75722742,0
1.0586376,-1.9443691,5.2262745,0.81830746,-0.062886477,0.57133019,0
-1.2451347,-2.6408367,-4.2451205,0.35383117,-0.72821873,-0.58694214,0
-3.5631938,-2.3939347,-2.0270073,-0.81830746,0.062886477,-0.57133019,0
-0.0033793449,3.6441772,1.6659094,-0.15648514,0.93207467,0.32672492,0
1.9825084,0.052743196,4.1468458,0.81830746,-0.062886477,0.57133019,0
1.9454504,3.7543163,2.3508499,-0.074752092,0.97391105,0.21426475,0
3.6607871,-1.4222116,1.4769752,0.81830746,-0.062886477,0.57133019,0
-4.6573873,-1.2897968,-0.36506581,-0.81830746,0.062886477,-0.57133019,0
2.1874731,1.4732561,3.8822496,0.81830746,-0.062886477,0.57133019,0
-2.5537715,-1.3132339,2.7678778,-0.55540401,-0.34242851,0.75780553,0
-3.5983391,3.57022,0.054376364,-0.26086217,0.84509742,0.46664897,0
-1.2421403,-2.9398422,2.6066761,-0.4396953,-0.70867747,0.55176467,0
1.0933664,2.2913139,-3.211729,0.50371003,0.55724084,-0.66012043,0
1.283927,-1.6294677,4.9074564,0.81830746,-0.062886477,0.57133019,0
-3.2462707,-1.7638071,-2.4432046,-0.81830746,0.062886477,-0.57133019,0
-3.2205961,-0.95503473,2.5396938,-0.56797087,-0.24102548,0.78696626,0
2.2943425,-3.5544391,3.2987099,0.81830746,-0.062886477,0.57133019,0
2.3167033,-0.39659929,3.7703145,0.81830746,-0.062886477,0.57133019,0
-1.6124315,-3.8884912,0.016320765,-0.19329643,-0.96621156,0.17050454,0
-2.7257273,2.4793868,-2.6972537,-0.81830746,0.062886477,-0.57133019,0
-1.4827373,-0.38063264,-4.8024502,-0.81830746,0.062886477,-0.57133019,0
-4.9377232,-0.85132265,-0.075215816,-0.81830746,0.062886477,-0.57133019,0
2.6066172,3.8999519,1.9219644,0.036915421,0.99769473,0.056943189,0
-4.5738611,-1.4254599,-0.76682258,-0.81830746,0.062886477,-0.57133019,0
4.2684908,0.67306232,-1.7022099,0.57146573,0.19561502,-0.79697031,0
4.8964505,2.7926455,0.46418762,0.81830746,-0.062886477,0.57133019,0
3.0638857,3.7613959,2.1881998,0.059556484,0.99792325,0.024539687,0
-3.3121443,-0.57119942,-2.2359791,-0.81830746,0.062886477,-0.57133019,0
1.7269416,-4.1172886,0.83290154,-0.0060993433,-0.99489093,-0.10077181,0
-3.1744361,3.1626792,-2.1969864,-0.81830746,0.062886477,-0.57133019,0
5.3155484,-1.2074881,-0.7697773,0.81830746,-0.062886477,0.57133019,0
2.9606998,3.0704634,-0.9471451,0.38694674,0.79528731,-0.46668032,0
4.9062839,-2.5779903,-0.2094717,0.81830746,-0.062886477,0.57133019,0
-2.7850511,2.2944298,2.1810637,-0.44049633,0.56992573,0.69364804,0
1.8235918,-0.23978686,4.4184361,0.81830746,-0.062886477,0.57133019,0
1.5179293,3.5400279,-1.3490055,0.3114025,0.88398266,-0.34871674,0
1.4160773,0.71378374,-3.9165697,0.57377315,0.14820528,-0.80549347,0
5.1149607,2.2295775,-0.24237347,0.81830746,-0.062886477,0.57133019,0
-4.81634,0.78404808,1.4642746,-0.55606401,0.16497868,0.81460106,0
-1.1148868,-0.2654444,4.025341,-0.57453054,-0.060167432,0.81626868,0
4.7571297,-0.82246208,0.19236255,0.81830746,-0.062886477,0.57133019,0
-3.5617812,-1.8143282,-2.1826019,-0.81830746,0.062886477,-0.57133019,0
0.71200264,3.3568285,2.7347126,-0.22441602,0.88014662,0.41830555,0
0.65125072,1.8874098,4.5711246,-0.46275607,0.51749706,0.71975935,0
-2.0710578,-3.6707239,-2.6509547,0.096364319,-0.96491748,-0.24422982,0
-1.5268667,-1.4735606,3.4152861,-0.55418456,-0.35002592,0.75522274,0
-2.5481544,0.52123296,3.0526838,-0.55959576,0.13980484,0.81688881,0
-0.31629848,3.7743835,1.604833,-0.16542554,0.92617196,0.33888036,0
-1.324734,3.1064448,2.1480613,-0.33034262,0.76197612,0.55701548,0
4.0545735,-2.6585457,-0.90575218,0.41215318,-0.62862653,-0.65951371,0
-0.51418829,-3.4556217,2.2280746,-0.3576256,-0.83386827,0.42043757,0
0.92806005,0.81415242,-4.1824851,0.57117414,0.20014659,-0.79605377,0
4.5996923,3.2050543,0.89712155,0.31181401,0.88358748,-0.34934968,0
-2.3843689,3.2463753,1.4779339,-0.32213014,0.77304661,0.54647148,0
3.0818486,-0.354738,2.647903,0.81830746,-0.062886477,0.57133019,0
-2.6183374,1.1977688,2.8780751,-0.53736091,0.26908618,0.79927206,0
3.8789663,3.581269,1.8625383,0.81830746,-0.062886477,0.57133019,0
2.359313,-3.3088174,3.38061,0.81830746,-0.062886477,0.57133019,0
4.3442602,3.2508221,1.1057097,0.81830746,-0.062886477,0.57133019,0
0.65843868,-0.40293312,5.3005209,-0.5741412,-0.042555481,0.8176496,0
3.9146762,2.3503082,1.80952,0.81830746,-0.062886477,0.57133019,0
1.975719,-3.7132316,3.7880106,-0.33323973,-0.86179709,0.38243592,0
-3.6738758,2.5400324,-1.5277863,-0.81830746,0.062886477,-0.57133019,0
-2.2782986,1.4847646,-3.5719409,-0.81830746,0.062886477,-0.57133019,0
-0.67963481,3.8528786,0.6992659,-0.10131246,0.96265304,0.25106764,0
2.1065679,2.4571073,4.3183961,0.81830746,-0.062886477,0.57133019,0
-5.3241954,0.8470459,0.83185124,-0.81830746,0.062886477,-0.57133019,0
5.301898,1.9258828,-0.46662831,0.81830746,-0.062886477,0.57133019,0
2.5146608,-3.5362606,3.0721312,0.81830746,-0.062886477,0.57133019,0
-2.9804578,1.1128662,-2.7611923,-0.81830746,0.062886477,-0.57133019,0
3.4292831,0.68318105,-2.4235897,0.57155561,0.19417894,-0.79725695,0
1.0744183,-0.29396296,5.4576697,0.81830746,-0.062886477,0.57133019,0
4.022943,-3.5806246,0.2617867,0.2626617,-0.84322524,-0.46902025,0
1.6021912,-3.8283625,-0.83061838,0.18061441,-0.91551381,-0.35946208,0
-4.7601118,-2.3442945,-0.4003377,-0.81830746,0.062886477,-0.57133019,0
5.3909025,-1.1160588,-0.80662012,0.81830746,-0.062886477,0.57133019,0
2.9180052,-2.2973328,2.6238973,0.81830746,-0.062886477,0.57133019,0
1.2324667,2.1348181,-3.2520075,0.51535445,0.52043599,-0.68084967,0
-2.392725,3.5401409,1.0537895,-0.27461511,0.83043391,0.48473299,0
1.3725581,-3.9464552,2.6520753,-0.24904299,-0.93463933,0.25382453,0
-3.851613,0.013263702,-1.463903,-0.81830746,0.062886477,-0.57133019,0
-1.6570983,-0.73317957,-4.6498771,-0.81830746,0.062886477,-0.57133019,0
-1.9483147,4.1398816,-1.7615061,0.092041254,0.99550653,-0.022253517,0
-4.3396521,2.9157386,0.48677349,-0.38325092,0.68108588,0.62389171,0
3.685869,1.1409664,1.851442,0.81830746,-0.062886477,0.57133019,0
-1.9334319,-1.6299934,3.2440631,-0.54542255,-0.39857206,0.73732936,0
0.0040940642,2.3360832,3.7018499,-0.41404772,0.62494493,0.66182202,0
-1.6328909,-0.18395638,-4.7504849,-0.81830746,0.062886477,-0.57133019,0
-4.7144489,-2.0713615,-0.44731569,-0.81830746,0.062886477,-0.57133019,0
-1.203167,4.130641,-1.3046906,0.093513966,0.99531937,-0.024383744,0
0.73300123,3.7650185,-1.3151733,0.26557696,0.92289782,-0.27879828,0
1.5507569,-4.0008879,0.31917667,0.03079927,-0.98777127,-0.15283749,0
-1.9916079,2.8322139,2.0959787,-0.37439138,0.69589353,0.61283213,0
3.6479406,-0.28212667,-2.1898894,0.57033163,-0.034598798,-0.82068551,0
-3.7024469,2.4354234,1.5613437,-0.45032549,0.5475499,0.7052632,0
1.6815727,-1.690353,4.4023685,0.81830746,-0.062886477,0.57133019,0
-1.6224999,2.960052,2.0335991,-0.34475833,0.74163902,0.57542443,0
2.8276374,-3.461175,-0.70484388,0.26275891,-0.84312367,-0.46914846,0
4.3772502,1.6199784,0.98979223,0.81830746,-0.062886477,0.57133019,0
-1.2186674,2.4637773,3.0588021,-0.41234624,0.6282528,0.65974915,0
1.8274021,-3.4850752,4.1442275,0.81830746,-0.062886477,0.57133019,0
1.0173107,-1.1943736,-3.8935499,0.52278697,-0.3316862,-0.78528845,0
-4.8166203,2.4518793,0.73711872,-0.44758344,0.55390882,0.70203573,0
-0.85586452,2.5212507,-4.4367619,0.49144149,0.5920527,-0.6387167,0
0.91707492,1.3225018,-3.9734404,0.56246084,0.29230857,-0.77342969,0
-3.9906285,3.8523905,-0.9562515,-0.81830746,0.062886477,-0.57133019,0
5.2945032,-0.013803959,-0.5482707,0.81830746,-0.062886477,0.57133019,0
2.0772908,-0.90482569,4.0662656,0.81830746,-0.062886477,0.57133019,0
-2.7669506,-3.242795,-3.2829108,-0.81830746,0.062886477,-0.57133019,0
4.4872503,1.5822992,0.7143029,0.81830746,-0.062886477,0.57133019,0
-2.8170722,1.44033,-2.7755563,-0.81830746,0.062886477,-0.57133019,0
-3.5690422,-3.5144279,-0.42570508,-0.29050529,-0.90294427,0.31669909,0
-1.281976,-0.92191738,3.9993429,-0.57034826,-0.21204659,0.79356104,0
-2.5946741,0.21965981,-3.3100171,-0.81830746,0.062886477,-0.57133019,0
3.6460071,-1.5017421,1.5634198,0.81830746,-0.062886477,0.57133019,0
-4.0691309,-3.2158878,-1.3989685,-0.81830746,0.062886477,-0.57133019,0
-1.9962169,1.5284081,3.221818,-0.50833374,0.3847549,0.77042878,0
2.8976216,-2.1870821,2.7676215,0.81830746,-0.062886477,0.57133019,0
3.1516831,-3.5156565,-0.37331939,0.25417733,-0.85193235,-0.45782661,0
-5.3745155,0.46971178,0.66742682,-0.81830746,0.062886477,-0.57133019,0
0.03437829,-1.336,-4.4347696,0.50391906,-0.39962918,-0.76574284,0
0.34468746,3.9758625,0.78444111,-0.02684927,0.98872954,0.14728554,0
-3.7604604,3.2293575,-1.2552265,-0.81830746,0.062886477,-0.57133019,0
1.2658135,3.6036105,2.5999961,-0.14530379,0.9390775,0.3114807,0
-1.6527435,-1.1546144,-4.5971737,-0.81830746,0.062886477,-0.57133019,0
-2.3596134,1.1909719,-3.5994101,-0.81830746,0.062886477,-0.57133019,0
-1.6536109,-3.763134,-1.9385643,0.044929028,-0.98395705,-0.17265564,0
-3.2851579,1.2351046,-2.0494854,-0.81830746,0.062886477,-0.57133019,0
-0.62616825,3.8298721,-2.4947495,0.29168165,0.90193272,-0.31849518,0
-0.52943707,-3.3210428,-2.7432399,0.24161428,-0.86427581,-0.44119143,0
0.44860744,-3.8677206,1.6705123,-0.21974361,-0.95271587,0.20986968,0
2.2139087,-2.8858166,-1.9032528,0.36297444,-0.71418196,-0.5984928,0
0.0063064098,0.87707984,4.5794201,-0.54126418,0.25015709,0.80277926,0
1.8579881,-3.4141867,-1.4073353,0.25653893,-0.84953916,-0.46094579,0
1.5199486,3.4057369,3.4617839,-0.22847164,0.87650859,0.42371389,0
-3.9892945,3.253238,0.3966043,-0.33030421,0.76202869,0.5569663,0
-2.8899701,2.642128,1.7843384,-0.41315669,0.62668049,0.6607368,0
-2.4450068,2.2035813,-3.2367735,-0.81830746,0.062886477,-0.57133019,0
1.9081664,1.8488576,4.530179,0.81830746,-0.062886477,0.57133019,0
0.20981216,1.3631238,-4.5111384,0.56211776,0.29505482,-0.77263594,0
1.9669614,-1.9236536,-2.8126674,0.48235977,-0.46541351,-0.74210471,0
-3.6329975,3.6054401,-0.029842377,-0.24052483,0.86531585,0.4397456,0
0.78374016,1.4892324,5.0494723,-0.49929392,0.41464758,0.76077139,0
-3.1613066,-0.19456005,-2.3711479,-0.81830746,0.062886477,-0.57133019,0
4.1986423,1.836638,1.1893435,0.81830746,-0.062886477,0.57133019,0
5.1727481,1.1160131,-0.92200232,0.55362117,0.35345435,-0.75403827,0
-3.634748,2.8238347,1.1441422,-0.39315641,0.66385245,0.63618231,0
-0.3572464,3.1438518,-3.5577745,0.41699171,0.74906468,-0.51480103,0
-0.52744055,-1.9071587,-4.6179237,0.45940843,-0.52579689,-0.71587819,0
1.096817,-2.0659285,5.0621185,-0.52661866,-0.4803265,0.70139807,0
-2.2141695,-1.6773558,-4.0844355,-0.81830746,0.062886477,-0.57133019,0
1.6973882,2.0597835,4.6290364,0.81830746,-0.062886477,0.57133019,0
-1.5874025,-0.77537227,-4.8425074,-0.81830746,0.062886477,-0.57133019,0
-3.4139681,-3.0344584,-2.4057963,-0.81830746,0.062886477,-0.57133019,0
-0.68438768,4.0261741,-1.1977614,0.15082979,0.9826569,-0.1078698,0
3.7050014,3.2062426,-0.033606052,0.35746062,0.83406913,-0.42017925,0
-1.4808345,4.0341105,-1.3069235,0.079448462,0.99683064,-0.0040715653,0
-5.6229382,-0.4932394,0.97649884,-0.57222235,-0.18281147,0.79946327,0
-2.4771273,0.52859831,3.1942341,-0.56321526,0.11066747,0.8188659,0
-4.0491948,2.587146,-0.87251413,-0.81830746,0.062886477,-0.57133019,0
5.3059053,1.6047773,-0.74204946,0.53122538,0.46230799,-0.70997959,0
0.5957818,-3.5878432,2.8859229,-0.32856911,-0.86675662,0.37520045,0
-4.0043125,-1.3015127,1.7856729,-0.55657661,-0.33487606,0.76031613,0
-3.1312995,3.4048462,-2.2102327,-0.81830746,0.062886477,-0.57133019,0
4.2011256,-1.781908,0.81203985,0.81830746,-0.062886477,0.57133019,0
2.719193,-3.3475528,2.791503,0.81830746,-0.062886477,0.57133019,0
1.4460549,-0.85047317,4.7648087,0.81830746,-0.062886477,0.57133019,0
1.8413371,-0.1882453,4.2291555,0.81830746,-0.062886477,0.57133019,0
0.01416254,1.0463377,4.6979361,-0.52725941,0.31362587,0.78970647,0
-0.7164073,-2.2198508,3.734755,-0.51449275,-0.52330595,0.67929971,0
4.1654935,-3.2829196,-0.13762426,0.31381086,-0.78389698,-0.53575021,0
2.794426,-0.85371447,3.0251384,0.81830746,-0.062886477,0.57133019,0
-4.0757861,3.2808559,-0.81855917,-0.81830746,0.062886477,-0.57133019,0
3.6027906,-3.9310589,1.5406468,0.81830746,-0.062886477,0.57133019,0
1.0704122,1.9662342,-3.5356002,0.53157979,0.46087641,-0.71064478,0
4.8528867,1.6050496,-0.97488618,0.53758132,0.43551841,-0.72203189,0
5.2368808,2.0838709,-0.30385113,0.49534106,0.58137429,-0.64547747,0
-2.5555043,-2.2327654,-3.7216945,-0.81830746,0.062886477,-0.57133019,0
2.0553303,-1.788986,4.0151892,0.81830746,-0.062886477,0.57133019,0
1.1205983,3.4071651,-1.9850792,0.36521304,0.82443851,-0.43234301,0
1.6980948,-0.71247768,4.4918218,0.81830746,-0.062886477,0.57133019,0
-3.5145664,-1.1823759,-2.0867183,-0.81830746,0.062886477,-0.57133019,0
3.4148593,-2.0337913,1.8382773,0.81830746,-0.062886477,0.57133019,0
3.5274682,0.01570034,1.9590641,0.81830746,-0.062886477,0.57133019,0
-5.0183206,-2.1942043,-0.12377906,-0.81830746,0.062886477,-0.57133019,0
2.2092738,3.1306496,3.9770935,-0.24116796,0.86470246,0.44059914,0
0.90112042,1.0125145,-4.1387496,0.57134068,0.19758305,-0.79657447,0
-2.5560927,-0.051568508,-3.3723254,-0.81830746,0.062886477,-0.57133019,0
0.42924738,3.2034783,-2.6363268,0.38350499,0.80012614,-0.46121827,0
3.2106037,-1.6297758,2.1844711,0.81830746,-0.062886477,0.57133019,0
3.0040221,-1.8390279,2.5411623,0.81830746,-0.062886477,0.57133019,0
0.091799736,-0.48835999,-4.7203608,0.55389148,-0.17926237,-0.81306171,0
2.9011643,-3.1211262,2.3885424,0.81830746,-0.062886477,0.57133019,0
-3.6860211,2.7031581,-1.445142,-0.81830746,0.062886477,-0.57133019,0
1.5414274,2.2748175,4.801343,-0.41932651,0.61451435,0.66823459,0
1.6375721,3.8521471,1.5631042,0.00081956387,0.99412346,0.10824965,0
-0.94389176,-3.0583177,-3.3914294,0.2808677,-0.82349181,-0.49292445,0
-0.72082889,0.045765787,4.3573203,-0.56988674,0.040667892,0.82071626,0
0.89385343,0.71936017,-4.3360176,0.57395947,0.1425187,-0.80638641,0
-0.29619741,4.0239849,-0.94661027,0.13308096,0.9877162,-0.081891596,0
-2.6507854,0.96519804,-2.9432302,-0.81830746,0.062886477,-0.57133019,0
1.3078353,-1.5765657,-3.5094008,0.49683142,-0.42242447,-0.75810027,0
2.9477789,-1.1260363,-2.7729003,0.53596717,-0.27558771,-0.79799157,0
-0.37131381,2.093514,3.6750419,-0.44848531,0.55182737,0.70309848,0
-4.134234,0.21866465,-1.2237837,-0.81830746,0.062886477,-0.57133019,0
-4.2596068,0.61031723,-0.92730153,-0.81830746,0.062886477,-0.57133019,0
-4.001657,-2.7875421,0.35871363,-0.42149329,-0.74146515,0.52208513,0
-3.6976583,3.2996962,-1.5067248,-0.81830746,0.062886477,-0.57133019,0
-0.33222389,-3.881598,0.65291262,-0.15790427,-0.98034775,0.1182566,0
-2.0635736,4.0172796,-0.55600369,-0.059021294,0.97954905,0.19235462,0
-2.3336086,1.9507875,-3.2930713,-0.81830746,0.062886477,-0.57133019,0
-3.4602027,4.1467381,-1.4547832,-0.81830746,0.062886477,-0.57133019,0
2.2214108,0.2968924,3.6776042,0.81830746,-0.062886477,0.57133019,0
-2.0190716,4.1261263,-1.852679,0.094670534,0.99516761,-0.026056966,0
4.2782536,0.83994341,1.0855106,0.81830746,-0.062886477,0.57133019,0
-3.2928956,-2.289717,-2.4243011,-0.81830746,0.062886477,-0.57133019,0
4.7713375,-2.5864921,-0.035157681,0.81830746,-0.062886477,0.57133019,0
-4.2556658,3.266103,-0.61106586,-0.81830746,0.062886477,-0.57133019,0
4.0953894,0.40554357,-2.0057812,0.57406843,0.13889283,-0.80694139,0
-2.7350667,1.9858199,2.2836447,-0.46805775,0.50401938,0.72586942,0
0.6332984,-3.6015739,2.7262228,-0.31737834,-0.87816113,0.35791656,0
-1.0351913,0.15964293,-5.4718032,-0.81830746,0.062886477,-0.57133019,0
-2.2176547,2.643455,-3.4240448,-0.81830746,0.062886477,-0.57133019,0
-2.8916051,-3.6907849,-0.62405813,-0.22452545,-0.94999558,0.21701811,0
-5.0973911,0.41838264,1.4218864,-0.56829709,0.060356885,0.82060671,0
1.4298425,-3.6003621,-1.302407,0.21452153,-0.88875729,-0.40508151,0
3.7518456,-3.5514672,1.33864,0.81830746,-0.062886477,0.57133019,0
-1.1505206,0.36903,-5.1464272,-0.81830746,0.062886477,-0.57133019,0
3.7586555,-0.094887257,1.4473174,0.81830746,-0.062886477,0.57133019,0
0.66944402,1.838614,4.7027097,-0.46089604,0.52212816,0.71760511,0
3.1001461,2.1753309,2.7922552,0.81830746,-0.062886477,0.57133019,0
1.9446101,-3.9770691,-0.22901535,0.1260789,-0.95015031,-0.28516418,0
-3.5335834,0.60362029,-1.7211369,-0.81830746,0.062886477,-0.57133019,0
0.76917744,3.7631798,-0.77796686,0.21451354,0.95559138,-0.20206226,0
-4.6560183,-0.50202227,-0.34107375,-0.81830746,0.062886477,-0.57133019,0
-0.46651554,3.7282152,-2.5567524,0.30302429,0.8918407,-0.33585203,0
3.560168,3.0905421,2.096818,0.81830746,-0.062886477,0.57133019,0
3.4061003,3.1834986,-0.16507804,0.35210991,0.84049541,-0.41180825,0
-0.50594664,-3.6107388,1.7621595,-0.29100001,-0.90251976,0.31745422,0
0.21253157,-3.362951,2.9618139,-0.3713913,-0.81648308,0.44206768,0
-1.7058364,-0.97778058,-4.7418199,-0.81830746,0.062886477,-0.57133019,0
4.1223264,-2.6342597,0.63226867,0.81830746,-0.062886477,0.57133019,0
2.2248554,2.397656,4.1288972,0.81830746,-0.062886477,0.57133019,0
2.4307814,-3.3185096,3.2465756,0.81830746,-0.062886477,0.57133019,0
4.2127786,-0.50365877,0.94854927,0.81830746,-0.062886477,0.57133019,0
4.5481906,-2.2639029,-0.99538541,0.45548654,-0.53532302,-0.71130955,0
2.4141684,-3.9991221,3.0090256,0.81830746,-0.062886477,0.57133019,0
4.6751313,2.3604374,0.67041028,0.81830746,-0.062886477,0.57133019,0
5.1070046,2.4612265,-0.051006079,0.46020812,0.66719693,-0.58571053,0
-4.5872049,-0.25832558,-0.42550683,-0.81830746,0.062886477,-0.57133019,0
-5.0353341,-2.0529189,-0.033734798,-0.81830746,0.062886477,-0.57133019,0
-1.1906838,-3.4966469,1.2585804,-0.29344642,-0.9004029,0.32119128,0
-3.3002934,1.9046988,-2.2388558,-0.81830746,0.062886477,-0.57133019,0
2.8369775,0.93998384,-2.7498522,0.56755155,0.24555776,-0.78586686,0
-4.0699735,-0.66097307,-1.1492013,-0.81830746,0.062886477,-0.57133019,0
2.7617564,-4.3177795,2.0319052,-0.063041687,-0.99781966,-0.019536469,0
3.8471291,-3.326649,1.2599519,0.81830746,-0.062886477,0.57133019,0
5.4027705,0.39049625,-0.56920767,0.81830746,-0.062886477,0.57133019,0
-4.251524,0.89280462,1.7659464,-0.54815662,0.21363488,0.80863118,0
1.02507,2.5649478,-3.1895995,0.48341572,0.61301881,-0.62491381,0
5.3503866,-0.28200674,-0.65956664,0.81830746,-0.062886477,0.57133019,0
4.3843083,1.8982489,-1.084759,0.50920594,0.54038221,-0.66984797,0
0.53986961,1.811041,4.4956093,-0.4612608,0.52122384,0.71802795,0
-4.5804505,0.98180246,-0.23966503,-0.81830746,0.062886477,-0.57133019,0
-4.5301313,1.3703804,-0.36753106,-0.81830746,0.062886477,-0.57133019,0
-1.1373975,-0.39376688,-5.5402222,-0.81830746,0.062886477,-0.57133019,0
3.7960942,-3.9046054,0.73244977,0.1924457,-0.90665054,-0.37543222,0
-4.8123736,-2.5561008,0.2182591,-0.45487779,-0.67849112,0.57683283,0
-1.9599853,2.8888879,-3.7944765,-0.81830746,0.062886477,-0.57133019,0
3.8747802,-3.5267026,1.1618245,0.81830746,-0.062886477,0.57133019,0
-1.7015743,2.4384279,2.5531011,-0.42476624,0.60349131,0.6748125,0
3.521214,-3.5334063,-0.19036746,0.2625078,-0.84338582,-0.46881765,0
-1.3527164,3.3162234,-4.1381807,0.40781432,0.7639851,-0.50001419,0
2.8863764,-2.2869847,2.6684408,0.81830746,-0.062886477,0.57133019,0
-5.2057991,0.68291664,0.64247251,-0.81830746,0.062886477,-0.57133019,0
-2.4005408,0.34945643,3.0698352,-0.56556666,0.089171916,0.81986755,0
-2.3025689,-1.9542382,-3.9571128,-0.81830746,0.062886477,-0.57133019,0
1.9371643,-3.3193913,-1.4063441,0.27209806,-0.83317935,-0.48142999,0
-3.1246977,-2.7949057,-2.8488207,-0.81830746,0.062886477,-0.57133019,0
2.0084219,0.62466621,4.2371864,0.81830746,-0.062886477,0.57133019,0
-3.4339976,-1.2650306,-2.312429,-0.81830746,0.062886477,-0.57133019,0
-3.1399727,2.2281525,-2.1589704,-0.81830746,0.062886477,-0.57133019,0
-4.2378225,0.3880825,-0.76156425,-0.81830746,0.062886477,-0.57133019,0
-2.1757321,4.2152357,-1.1580639,0.016670585,0.99617541,0.085772224,0
-4.1776233,3.1627183,-0.6819979,-0.81830746,0.062886477,-0.57133019,0
-3.9664297,0.97838926,-1.1468781,-0.81830746,0.062886477,-0.57133019,0
-0.54013366,2.3915734,3.5750473,-0.41649032,0.62015033,0.66479278,0
-3.9990168,2.4029269,-1.0686548,-0.81830746,0.062886477,-0.57133019,0
3.8145113,-3.1829212,-0.68100524,0.35085198,-0.73268014,-0.58316612,0
-2.5016994,-3.0521195,-3.5795813,-0.81830746,0.062886477,-0.57133019,0
-2.1595457,0.83525968,-3.8257246,-0.81830746,0.062886477,-0.57133019,0
0.75755727,-3.0804534,-2.4310393,0.30380756,-0.79647577,-0.52280718,0
-3.0026188,1.4364064,-2.5576339,-0.81830746,0.062886477,-0.57133019,0
3.6296501,0.308465,-2.2870932,0.57467216,0.1088343,-0.81111467,0
3.7923651,-2.5133917,1.2287748,0.81830746,-0.062886477,0.57133019,0
0.34690142,-3.5367789,2.5689468,-0.33418173,-0.86078203,0.38389698,0
2.0853815,3.3844876,3.4329467,-0.17521822,0.91939211,0.35216001,0
-2.5700438,2.3258052,-3.2068613,-0.81830746,0.062886477,-0.57133019,0
-0.47510624,-3.8568697,-0.10225594,-0.073372722,-0.99729365,-0.004681848,0
0.77211285,3.9052267,-0.26392537,0.14698493,0.98384142,-0.10223258,0
4.4461708,-3.361692,0.16101551,0.31972882,-0.77621567,-0.54338092,0
4.2949009,2.3783736,1.0973589,0.81830746,-0.062886477,0.57133019,0
3.0905428,2.4591148,2.9555838,0.81830746,-0.062886477,0.57133019,0
3.4979839,-1.3348546,1.8009841,0.81830746,-0.062886477,0.57133019,0
-3.9747021,-0.33786535,-1.297421,-0.81830746,0.062886477,-0.57133019,0
2.1714978,-1.2039859,3.9293225,0.81830746,-0.062886477,0.57133019,0
4.0573955,0.63925123,-1.9579971,0.57169497,0.19191113,-0.79770613,0
1.0531728,3.4051945,2.8069885,-0.19881952,0.90166789,0.38401288,0
-2.0266542,3.0416164,-3.6647096,-0.81830746,0.062886477,-0.57133019,0
0.14229393,-0.31968737,5.0217991,-0.57451516,-0.059273869,0.81634498,0
3.1218581,3.0463204,2.9819946,0.81830746,-0.062886477,0.57133019,0
-4.8698082,0.17726421,0.038404226,-0.81830746,0.062886477,-0.57133019,0
4.3353529,-1.2448182,0.51138091,0.81830746,-0.062886477,0.57133019,0
3.3388989,3.7871311,2.5071318,0.040247679,0.9978261,0.052184753,0
4.7688923,-2.7953362,-0.21134233,0.81830746,-0.062886477,0.57133019,0
1.6301622,-3.2406664,-1.9000355,0.31368411,-0.78405952,-0.5355866,0
-1.8617334,-2.0149288,-4.5083647,-0.81830746,0.062886477,-0.57133019,0
3.1824896,0.60061741,-2.5529671,0.57264608,0.17478642,-0.80095333,0
2.1830993,-2.9363279,3.4017415,0.81830746,-0.062886477,0.57133019,0
-4.4875813,3.1027608,-0.24640298,-0.81830746,0.062886477,-0.57133019,0
-3.8590345,3.7384377,-1.1735314,-0.81830746,0.062886477,-0.57133019,0
2.1138792,-2.0502973,-2.7825594,0.47479364,-0.48626751,-0.73356318,0
0.63866854,0.53536671,-4.3852329,0.57461441,0.11341947,-0.81052721,0
-0.16000724,0.69131893,-4.986515,0.57469708,0.1064702,-0.81141067,0
-0.11456633,2.5812607,-3.8570423,0.48321509,0.61352658,-0.62457055,0
-0.59564257,1.6772351,-5.0868602,0.55393451,0.3515546,-0.75469601,0
-2.1652665,3.5192237,-3.4200015,-0.81830746,0.062886477,-0.57133019,0
3.6006377,-1.4904826,-1.9743686,0.51199037,-0.3720001,-0.77426207,0
2.6508353,3.0179405,3.3942535,0.81830746,-0.062886477,0.57133019,0
-2.0932741,4.0701962,-1.0701935,0.0053499937,0.99478698,0.10183386,0
5.0687404,0.59667635,-1.2478166,0.57131279,0.19801685,-0.79648674,0
-3.9865801,2.9108167,-1.0479519,-0.81830746,0.062886477,-0.57133019,0
-1.636111,-3.6354165,0.44537628,-0.24393213,-0.938039,0.24613015,0
-3.3461528,-3.2242961,0.46350014,-0.36458719,-0.82523066,0.43135923,0
-0.2562902,-3.8634989,-1.0847718,0.048425734,-0.98291969,-0.17754957,0
-3.6543002,-3.1494448,-2.2109966,-0.81830746,0.062886477,-0.57133019,0
0.52356744,0.33192384,5.1423936,-0.55902696,0.14404765,0.81654102,0
1.8953304,-3.2758443,-1.5224329,0.30280018,-0.79771483,-0.52150071,0
2.1598606,-3.6163783,3.407393,0.81830746,-0.062886477,0.57133019,0
0.81822205,-3.776639,2.4309726,-0.27764297,-0.91358811,0.29710487,0
2.3869841,3.1425171,-1.2743305,0.38864475,0.79286754,-0.46937877,0
-2.6761739,2.0265694,-3.072958,-0.81830746,0.062886477,-0.57133019,0
-0.48884368,-3.7771268,-1.0972944,0.041219592,-0.98501706,-0.16745916,0
-2.2925546,-2.4475412,2.2094233,-0.48277736,-0.61463165,0.62382203,0
4.0593324,1.7573807,-1.4359574,0.5251857,0.48572195,-0.69875193,0
-0.060708046,3.3955116,-2.7804594,0.35641694,0.83533663,-0.41854483,0
-4.0298476,-2.0859332,-1.538354,-0.81830746,0.062886477,-0.57133019,0
-2.5000844,-3.6171184,-2.6341686,0.06238997,-0.97840559,-0.19705358,0
2.4248717,3.4912217,3.4268754,-0.15898794,0.9304496,0.33013082,0
-2.0007546,-2.6042142,2.2330244,-0.46271086,-0.66175842,0.58989376,0
3.0338726,-4.0668249,1.3960047,0.040541291,-0.98520619,-0.16650851,0
-1.678297,4.1473665,-1.3880498,0.083062887,0.99650109,-0.0092845727,0
1.0947626,-1.001748,5.1504631,0.81830746,-0.062886477,0.57133019,0
2.1836483,-1.4229785,-3.0853176,0.51456106,-0.36277854,-0.77692902,0
4.0523376,1.8302011,1.3655708,0.81830746,-0.062886477,0.57133019,0
-5.1409273,0.6741581,0.42549086,-0.81830746,0.062886477,-0.57133019,0
-4.8345838,-2.2179856,-0.23506904,-0.81830746,0.062886477,-0.57133019,0
2.1593962,-4.0868845,2.0073462,-0.11194789,-0.99239892,0.051107589,0
-2.4462643,-2.2301681,-3.6590202,-0.81830746,0.062886477,-0.57133019,0
-1.6155081,3.6590223,-3.3563867,0.32395464,0.87153983,-0.36806476,0
-3.7878251,2.6262741,1.3517396,-0.43319789,0.58582467,0.68494457,0
4.089262,3.0206642,-0.19823003,0.3972038,0.78033572,-0.48301703,0
2.5877986,-4.2541428,1.0372231,0.035696983,-0.98651761,-0.15971445,0
4.6797819,2.0610681,0.35428524,0.81830746,-0.062886477,0.57133019,0
-4.5075636,-2.4929729,0.43307924,-0.45627213,-0.67557395,0.57915092,0
3.526536,0.46960068,1.8434347,0.81830746,-0.062886477,0.57133019,0
3.1997283,-1.6085773,2.2353001,0.81830746,-0.062886477,0.57133019,0
-2.7145329,1.1956401,-2.8291159,-0.81830746,0.062886477,-0.57133019,0
2.3284833,-1.8812478,3.4425654,0.81830746,-0.062886477,0.57133019,0
-1.0289402,3.6585491,-2.9736681,0.32209295,0.8734374,-0.36518928,0
1.7311991,0.97103691,4.4979262,0.81830746,-0.062886477,0.57133019,0
4.4930248,-1.3860869,0.47655153,0.81830746,-0.062886477,0.57133019,0
-0.28399968,3.3318038,2.4585922,-0.26836216,0.83720273,0.47652218,0
0.69091749,3.9029012,-0.98832178,0.21331608,0.95623529,-0.2002762,0
1.772441,0.48549509,-3.5239563,0.57476306,0.09732303,-0.81251204,0
3.721117,0.47964239,1.6728697,0.81830746,-0.062886477,0.57133019,0
3.1743951,-3.8685451,2.1183081,0.81830746,-0.062886477,0.57133019,0
2.5320363,0.07112956,-3.1217418,0.57313788,0.01417473,-0.81933641,0
-0.96177864,-3.753829,-2.0580027,0.10394055,-0.96141899,-0.25469589,0
1.181468,0.8524155,-3.9663966,0.57023847,0.21354014,-0.79323936,0
1.3699002,1.6617341,5.1182775,0.81830746,-0.062886477,0.57133019,0
5.2014422,-1.2865596,-0.55335379,0.81830746,-0.062886477,0.57133019,0
4.8875837,-0.74520397,-0.066491842,0.81830746,-0.062886477,0.57133019,0
0.76532912,-3.8366222,-1.1046069,0.15091521,-0.93561542,-0.31913692,0
-2.9572318,-0.22308278,-2.7652988,-0.81830746,0.062886477,-0.57133019,0
4.8463645,3.0854273,0.5345006,0.36395657,0.82602578,-0.43036857,0
4.8644075,2.4804115,0.38267827,0.81830746,-0.062886477,0.57133019,0
-0.55723572,-3.5553229,1.7103518,-0.30995959,-0.8853609,0.34649855,0
-2.3098001,0.61792517,-3.7776926,-0.81830746,0.062886477,-0.57133019,0
-3.4003851,-0.12473631,-2.1114416,-0.81830746,0.062886477,-0.57133019,0
-5.1868091,0.43951893,1.1418843,-0.57014436,0.037188798,0.82070243,0
-0.055877924,1.1031615,-4.7966204,0.56908882,0.22818485,-0.78998083,0
-0.038970947,3.0225694,3.020813,-0.3221803,0.77298009,0.54653597,0
-4.2823362,-1.8651719,-1.1175675,-0.81830746,0.062886477,-0.57133019,0
3.7494042,3.216295,0.29604173,0.31654608,0.87898266,-0.35663438,0
4.2569203,2.2206645,1.1663626,0.81830746,-0.062886477,0.57133019,0
1.0250733,0.98014867,-4.0656714,0.56727636,0.24845958,-0.78515315,0
3.308156,0.19672346,2.2682526,0.81830746,-0.062886477,0.57133019,0
1.4397216,0.80442643,5.0815239,0.81830746,-0.062886477,0.57133019,0
3.817167,-0.76764154,-2.1323299,0.55509055,-0.17147845,-0.81392241,0
-2.315629,2.2682323,-3.4587469,-0.81830746,0.062886477,-0.57133019,0
4.2220106,-0.0049438477,-1.9836047,0.57459223,0.064046621,-0.81593007,0
0.98945665,-4.0152788,0.65582049,-0.042780161,-0.99790347,-0.048566084,0
-1.2188807,3.5790529,-3.5337415,0.36295432,0.82728428,-0.42879459,0
2.3967872,0.57039833,3.6041896,0.81830746,-0.062886477,0.57133019,0
1.5192592,-0.63218904,4.6796551,0.81830746,-0.062886477,0.57133019,0
2.1979146,-4.2010899,1.7597216,-0.068901896,-0.99756151,-0.011114545,0
1.3036871,-3.9364505,-0.3208071,0.10042876,-0.96306306,-0.24984716,0
-0.044190884,-2.7111869,-3.407181,0.36008066,-0.71868151,-0.59484345,0
2.2031031,-1.8703363,3.5391388,0.81830746,-0.062886477,0.57133019,0
2.9061282,-2.6562302,2.6555443,0.81830746,-0.062886477,0.57133019,0
3.6351078,2.1681762,2.1923459,0.81830746,-0.062886477,0.57133019,0
5.4015398,0.99067593,-0.46424246,0.81830746,-0.062886477,0.57133019,0
3.7738228,-3.2607327,1.2244568,0.81830746,-0.062886477,0.57133019,0
1.5360799,-3.8772011,3.1847949,-0.29947662,-0.89506376,0.33041599,0
3.0650785,-0.076130629,2.4373264,0.81830746,-0.062886477,0.57133019,0
2.9014301,-0.10682034,-2.7547452,0.57155591,-0.016116142,-0.82040489,0
-1.6492518,-0.60916853,3.7448187,-0.57405192,-0.13945791,0.80685556,0
1.6545753,-1.0910473,-3.5620911,0.53019649,-0.30125409,-0.79255128,0
2.9872029,3.5859103,0.41529214,0.23594511,0.94314027,-0.23412885,0
-1.0420539,-2.7333755,2.8298395,-0.45761609,-0.67273718,0.58138824,0
0.10980415,2.2935305,-4.022666,0.50760835,0.54537201,-0.66701055,0
3.261178,-3.9852731,0.47833347,0.15094137,-0.93559909,-0.31917256,0
3.7773724,-2.4207532,1.3589903,0.81830746,-0.062886477,0.57133019,0
-4.2641377,-2.32371,-1.3069805,-0.81830746,0.062886477,-0.57133019,0
3.0441124,-1.7951028,-2.3825755,0.49903587,-0.4154695,-0.76049209,0
-4.7311869,-0.41610956,1.3927238,-0.57298517,-0.16775769,0.80221283,0
-3.9889622,2.8999949,-0.93640685,-0.81830746,0.062886477,-0.57133019,0
5.3541489,-0.55900049,-1.0725796,0.56803429,-0.063367963,-0.82056177,0
0.94171977,-3.6913698,-1.3772941,0.19114631,-0.90764832,-0.37368107,0
0.51713228,-1.4784608,-4.141829,0.5116179,-0.37331837,-0.77387381,0
4.0235252,3.0497186,1.4474545,0.81830746,-0.062886477,0.57133019,0
1.2637293,2.9796665,3.7779493,-0.29224467,0.81040359,0.50777876,0
-2.4245558,0.89784813,3.0777962,-0.54510546,0.23035073,0.80610085,0
-4.3352432,3.0719941,0.52529407,-0.36584163,0.70967031,0.60210294,0
-2.3190389,-0.77695704,3.1842093,-0.57045913,-0.21051916,0.79388803,0
1.8465633,-0.8092227,4.2819214,0.81830746,-0.062886477,0.57133019,0
-2.5687032,-3.7944264,-1.2813041,-0.097153306,-0.99482769,0.029650304,0
-1.9149928,3.3847642,-3.9002128,-0.81830746,0.062886477,-0.57133019,0
5.1851673,1.7884526,-0.51132774,0.5116787,0.53250682,-0.67425632,0
1.2920337,-2.3411117,4.9207764,0.81830746,-0.062886477,0.57133019,0
-3.0942478,0.049134731,-2.4459195,-0.81830746,0.062886477,-0.57133019,0
1.0789104,-3.9792469,2.3272514,-0.22950351,-0.94706976,0.22447032,0
-2.3079805,3.7800674,-3.2629151,-0.81830746,0.062886477,-0.57133019,0
3.9886036,2.0408583,-1.3599966,0.51254189,0.52971196,-0.67580038,0
4.4409051,0.17793036,0.78940392,0.81830746,-0.062886477,0.57133019,0
-4.7645135,0.99212217,-0.14146447,-0.81830746,0.062886477,-0.57133019,0
-3.4563301,-3.7599254,-1.9276074,-0.11614645,-0.99158305,0.057211023,0
4.610837,-0.73836851,-1.7382021,0.55998588,-0.13684776,-0.81712198,0
-3.4524891,0.63280678,-2.0247867,-0.81830746,0.062886477,-0.57133019,0
4.138854,3.2681141,0.68548465,0.31957394,0.87597567,-0.36130205,0
-4.1720204,1.5722194,1.6441264,-0.52014542,0.34195206,0.78263497,0
4.8187523,-0.099274635,-0.046512365,0.81830746,-0.062886477,0.57133019,0
-4.2985239,-0.061513424,-0.92057598,-0.81830746,0.062886477,-0.57133019,0
1.2480001,-0.6029985,5.1709456,0.81830746,-0.062886477,0.57133019,0
-1.1046526,-4.0097628,-0.53713733,-0.083028555,-0.99650443,0.0092351139,0
-5.3853149,1.4532652,0.6986413,-0.81830746,0.062886477,-0.57133019,0
-2.785677,1.4180363,2.6209769,-0.52133054,0.33738124,0.78382927,0
-4.8007574,-0.69091272,-0.32980156,-0.81830746,0.062886477,-0.57133019,0
4.1813984,3.3179581,1.5151987,0.81830746,-0.062886477,0.57133019,0
-1.6073871,1.1170583,-4.6876478,-0.81830746,0.062886477,-0.57133019,0
3.4751682,-1.3854737,-2.1459205,0.5198583,-0.34305108,-0.7823447,0
2.0815151,-2.2184849,3.8348713,0.81830746,-0.062886477,0.57133019,0
3.7773075,1.6459942,1.7918526,0.81830746,-0.062886477,0.57133019,0
-3.498101,3.7422066,-1.6202954,-0.81830746,0.062886477,-0.57133019,0
2.0896077,-2.3300095,3.6609628,0.81830746,-0.062886477,0.57133019,0
3.4429786,-0.1743536,2.0403473,0.81830746,-0.062886477,0.57133019,0
-2.5858772,0.21870136,-3.3929379,-0.81830746,0.062886477,-0.57133019,0
-2.14485,-3.7406406,-2.5086055,0.083370686,-0.97049868,-0.22623362,0
2.4682584,-3.7821946,2.9743385,0.81830746,-0.062886477,0.57133019,0
1.9738543,-2.0523849,4.0316386,0.81830746,-0.062886477,0.57133019,0
4.8158345,1.1814065,0.33595109,0.81830746,-0.062886477,0.57133019,0
1.1488258,-1.0353982,-3.795594,0.53669965,-0.27218667,-0.79866636,0
-3.8595171,2.3742287,-1.1547332,-0.81830746,0.062886477,-0.57133019,0
0.24545479,-2.9716361,3.7648158,-0.44554633,-0.69737452,0.56138885,0
-1.4001787,1.7922029,-4.660717,-0.81830746,0.062886477,-0.57133019,0
5.4254584,0.22284698,-0.74678779,0.81830746,-0.062886477,0.57133019,0
1.5256114,-3.1649501,4.4187489,-0.43989462,-0.70829916,0.55209154,0
1.8467028,1.8105514,-3.0384989,0.53247738,0.45721948,-0.71233296,0
-4.3483262,-0.035922527,1.8062778,-0.57467961,-0.070873708,0.8153038,0
0.63486099,2.6287224,4.0167761,-0.36962199,0.70363927,0.6068536,0
