-3.2671251,0.95057195,2.9542756,-0.72614294,-0.0557818,0.68527722,0
-4.0963364,-0.68684453,-1.2332944,-0.94925082,-0.09189821,-0.30079499,0
1.6025,3.1318185,3.099498,-0.091390319,0.99568993,-0.015790779,0
1.7319688,-0.86864132,-3.8744874,0.37023008,0.019252893,-0.92874056,0
-4.4116302,2.5680652,-0.028906384,-0.99573046,-0.09116441,0.014479828,0
-1.5543396,-3.0606008,3.4758556,0.091390319,-0.99568993,0.015790779,0
1.2380958,-2.8293617,-1.3948984,0.091390319,-0.99568993,0.015790779,0
-3.0715315,-3.2804317,1.4135073,0.091390319,-0.99568993,0.015790779,0
-2.3237505,2.8608739,-0.82328528,-0.091390319,0.99568993,-0.015790779,0
-2.5456233,2.7754347,3.3059154,-0.091390319,0.99568993,-0.015790779,0
0.12991171,2.9289074,-3.4427514,-0.091390319,0.99568993,-0.015790779,0
-4.3479838,1.6854534,0.015113244,-0.99577254,-0.09152168,-0.0078053493,0
-4.2940578,0.79429674,-0.80626553,-0.98229825,-0.092742294,-0.16275476,0
2.9724665,-0.63974428,-3.0009453,0.70170552,0.053139053,-0.71048266,0
-3.4992671,2.7058511,2.1999204,-0.091390319,0.99568993,-0.015790779,0
3.6110754,-1.0375189,-2.422061,0.80830526,0.06491068,-0.58517456,0
-0.6891191,-3.0016143,0.71312928,0.091390319,-0.99568993,0.015790779,0
0.8905654,3.088058,2.199672,-0.091390319,0.99568993,-0.015790779,0
0.51631224,-0.20151064,4.1080275,0.1338957,0.027999792,0.99059981,0
-2.3452485,-2.825619,-3.331847,-0.61017931,-0.068523392,-0.78929454,0
2.1869414,3.3126082,1.5567924,-0.091390319,0.99568993,-0.015790779,0
-2.6581059,-3.173358,0.45630029,0.091390319,-0.99568993,0.015790779,0
-2.3965628,1.5159278,3.6059122,-0.54180199,-0.036412612,0.83971703,0
0.10424469,-3.1092432,-3.684036,0.091390319,-0.99568993,0.015790779,0
-4.4187036,0.97397268,-0.46609285,-0.98797607,-0.09264525,-0.12377415,0
1.5480491,-0.37316293,-4.0033779,0.36173135,0.018419541,-0.93210047,0
3.9358304,1.964619,1.1709924,0.9487142,0.091875836,0.30248994,0
0.87604606,3.0672126,-4.1612616,0.27973127,0.010450285,-0.9600215,0
0.44647518,-3.0108836,-0.80583328,0.091390319,-0.99568993,0.015790779,0
-2.3532426,-3.1445839,0.071135119,0.091390319,-0.99568993,0.015790779,0
0.84610659,-1.6561544,4.2849455,0.18021803,0.032132618,0.98310167,0
2.5556445,-2.39815,-3.5752873,0.53229851,0.035443626,-0.84581447,0
-3.4699285,2.6801112,1.3802601,-0.091390319,0.99568993,-0.015790779,0
0.82492584,-0.51724315,-4.0746999,0.17893027,0.00082009332,-0.98386139,0
4.2076774,1.1047529,-0.4756884,0.98764247,0.0886015,-0.12927516,0
0.58381528,-1.4078736,-4.2003589,0.12468189,-0.0042911898,-0.9921875,0
0.080463029,-2.9413681,0.28572452,0.091390319,-0.99568993,0.015790779,0
-3.1550813,0.37465116,2.7955074,-0.75065219,-0.058462314,0.65810597,0
-2.7826445,-3.2936316,1.1407162,0.091390319,-0.99568993,0.015790779,0
0.46385726,3.0641146,-0.39699322,-0.091390319,0.99568993,-0.015790779,0
2.599025,3.2123513,-3.0764899,-0.091390319,0.99568993,-0.015790779,0
1.587492,3.0965281,0.50035405,-0.091390319,0.99568993,-0.015790779,0
-3.0005174,1.5145504,3.131321,-0.67366505,-0.050139491,0.73733401,0
-1.8321404,2.8300016,-2.8845391,-0.091390319,0.99568993,-0.015790779,0
-0.05795991,2.9565768,1.5738859,-0.091390319,0.99568993,-0.015790779,0
1.7299688,3.1870923,0.28848043,-0.091390319,0.99568993,-0.015790779,0
-0.99585927,-0.45836937,4.0651131,-0.23310387,-0.0059737051,0.97243351,0
2.9076538,-2.6699328,0.32686538,0.091390319,-0.99568993,0.015790779,0
-0.30379647,-1.3304272,4.2433395,-0.094476268,0.0071161995,0.99550164,0
2.9867294,3.3729963,0.64811754,-0.091390319,0.99568993,-0.015790779,0
1.9348105,3.0880437,-1.9623361,-0.091390319,0.99568993,-0.015790779,0
4.025764,0.1134233,-1.3994856,0.93302315,0.080075115,-0.35079306,0
3.9565265,-2.6812909,0.25140193,0.091390319,-0.99568993,0.015790779,0
-0.32645503,-2.9880209,-2.6980021,0.091390319,-0.99568993,0.015790779,0
0.14834577,-2.9534855,4.2609553,0.091390319,-0.99568993,0.015790779,0
3.3711963,3.0421433,2.0100226,0.86119533,0.086987473,0.5007751,0
-1.7560071,0.13707465,-3.8023961,-0.40851763,-0.051948134,-0.91127098,0
4.0692472,0.11599043,0.96635777,0.96818405,0.092552826,0.23249431,0
0.54059333,2.9248943,4.1493597,0.19532594,0.033472769,0.98016697,0
1.6300249,-2.9181542,-0.31206518,0.091390319,-0.99568993,0.015790779,0
-1.37576,2.9134178,-0.39577419,-0.091390319,0.99568993,-0.015790779,0
1.7615402,3.2647753,1.3341718,-0.091390319,0.99568993,-0.015790779,0
3.0783951,-2.8360624,-2.7118392,0.091390319,-0.99568993,0.015790779,0
-3.9822855,-0.93012303,-1.3731881,-0.94807178,-0.091848835,-0.30450574,0
3.58339,1.5666994,-2.2267132,0.86417162,0.071419314,-0.49810299,0
-0.77576298,-3.1202757,1.3909637,0.091390319,-0.99568993,0.015790779,0
-2.1907365,1.2572778,3.7258914,-0.48384365,-0.0305393,0.87462139,0
0.86587334,0.34057137,-4.2524209,0.19529222,0.0023713568,-0.98074222,0
-3.3021269,-3.232244,0.3893446,0.091390319,-0.99568993,0.015790779,0
1.8558787,-0.40772825,3.8557022,0.43020779,0.053778104,0.90112662,0
-3.2520251,-2.4281883,-2.4615541,-0.7938512,-0.082419507,-0.60250092,0
-3.2907257,-2.1647439,2.4111371,-0.83402401,-0.067868188,0.54753804,0
2.4134212,3.2004454,-2.8268363,-0.091390319,0.99568993,-0.015790779,0
-2.7047613,0.2885949,-3.4239092,-0.61183244,-0.068654642,-0.78800231,0
-2.5599387,-3.2811213,-1.2343769,0.091390319,-0.99568993,0.015790779,0
-0.60011393,0.4973487,4.1237688,-0.1347837,0.0033430811,0.99086934,0
2.3272431,3.222028,2.3613276,-0.091390319,0.99568993,-0.015790779,0
3.3191738,-2.7367258,2.9185305,0.091390319,-0.99568993,0.015790779,0
-1.5313052,-3.0547025,2.1285119,0.091390319,-0.99568993,0.015790779,0
-4.4253087,1.6397829,0.79491472,-0.97708511,-0.086599074,0.19443581,0
2.1563368,2.9496758,3.4735019,0.57060099,0.065355778,0.81862265,0
1.9502069,-2.7561169,2.0072579,0.091390319,-0.99568993,0.015790779,0
-1.8079107,-1.3154417,-3.8899856,-0.44110134,-0.05469333,-0.89578915,0
1.3519895,3.0814171,1.7096823,-0.091390319,0.99568993,-0.015790779,0
4.035562,-1.617312,1.9635488,0.88115406,0.088244453,0.46452165,0
-3.8320036,2.7766147,1.4733666,-0.091390319,0.99568993,-0.015790779,0
1.4258257,-1.1031674,4.0447178,0.31922552,0.044313334,0.94664216,0
2.8503082,-2.7425449,3.1741858,0.091390319,-0.99568993,0.015790779,0
1.1937032,2.6957772,-3.9774971,0.32305595,0.014645023,-0.94626653,0
1.9466569,-0.80188042,-3.8835797,0.42435706,0.024594938,-0.90516084,0
0.67490888,-3.032243,-0.14173819,0.091390319,-0.99568993,0.015790779,0
-1.3565354,2.7871895,-0.28590357,-0.091390319,0.99568993,-0.015790779,0
-2.8170986,-3.2433031,2.5793154,0.091390319,-0.99568993,0.015790779,0
4.0866556,0.56354374,1.3108133,0.94810367,0.091850184,0.30440587,0
-4.2668853,1.2982582,-0.46594426,-0.98837548,-0.092630848,-0.12055469,0
-1.377511,-0.29245132,3.990207,-0.33629984,-0.015934313,0.94162017,0
2.203738,3.1092927,-1.8217117,-0.091390319,0.99568993,-0.015790779,0
-1.4542187,-3.1918585,2.6639895,0.091390319,-0.99568993,0.015790779,0
-3.3606212,2.4286535,-2.7582419,-0.74455011,-0.078852139,-0.66289324,0
-0.36779371,2.424711,4.1991343,-0.016594803,0.014332151,0.99975967,0
4.3477826,-2.0152471,-0.71314108,0.98170906,0.087424845,-0.16912822,0
4.0338144,2.5843246,-0.13283865,0.99537009,0.090863995,-0.031336617,0
-1.675184,-3.2518702,-2.6740758,0.091390319,-0.99568993,0.015790779,0
-2.6666334,-3.3056073,0.5787552,0.091390319,-0.99568993,0.015790779,0
2.8609397,1.1480925,3.0101447,0.71109545,0.076353088,0.6989373,0
-4.3188763,0.1464376,-0.3069576,-0.9937799,-0.092205368,-0.062446874,0
1.8359687,3.2818263,2.5448587,-0.091390319,0.99568993,-0.015790779,0
3.2915468,-2.7422607,1.5632799,0.091390319,-0.99568993,0.015790779,0
-3.8865032,-2.7785282,0.81318551,-0.97665077,-0.086524285,0.19663857,0
-3.9202857,-0.38631061,1.5916466,-0.92136925,-0.078531593,0.38067231,0
1.1688615,-2.9351509,-2.4301567,0.091390319,-0.99568993,0.015790779,0
3.1867299,-2.6653912,-1.6095207,0.091390319,-0.99568993,0.015790779,0
3.187026,-1.1960891,-3.0370755,0.70643193,0.053648002,-0.70574492,0
-1.3445684,2.9086688,-0.88265282,-0.091390319,0.99568993,-0.015790779,0
-4.1844211,-0.55140203,0.45301378,-0.99247783,-0.089775443,0.083235629,0
2.3112979,-2.885205,0.51752055,0.091390319,-0.99568993,0.015790779,0
-3.5687373,-1.9700718,1.9280893,-0.89679372,-0.075398818,0.43597716,0
-3.2054541,-3.308569,1.0087,0.091390319,-0.99568993,0.015790779,0
-0.70000052,2.920378,-1.989583,-0.091390319,0.99568993,-0.015790779,0
-4.3108101,0.23889415,0.83510476,-0.97782993,-0.086728342,0.1905959,0
-0.0034174281,2.9424903,-1.435564,-0.091390319,0.99568993,-0.015790779,0
1.9753873,-1.9443126,3.8369999,0.40434885,0.051595274,0.91314834,0
-1.5128728,-3.1030016,3.2239251,0.091390319,-0.99568993,0.015790779,0
-2.8636978,-1.7735955,-2.9273584,-0.69399315,-0.075054877,-0.71605885,0
-0.7867676,-2.6914766,4.1014471,-0.24132705,-0.0067604026,0.97042036,0
1.5585923,-2.9100299,-1.1377618,0.091390319,-0.99568993,0.015790779,0
0.56762493,3.0723336,-2.3168178,-0.091390319,0.99568993,-0.015790779,0
-1.465138,0.97585881,-4.0715466,-0.3380644,-0.045937154,-0.94000113,0
-2.7804916,2.7469356,-1.7960571,-0.091390319,0.99568993,-0.015790779,0
3.1341877,-2.6968949,1.4856936,0.091390319,-0.99568993,0.015790779,0
-2.6943548,-3.2370241,2.5082791,0.091390319,-0.99568993,0.015790779,0
1.4418222,0.23076715,4.0323715,0.32996699,0.045240026,0.94290781,0
-1.3135865,-3.2077925,-2.1645675,0.091390319,-0.99568993,0.015790779,0
2.6706424,0.52147359,3.2407999,0.62362874,0.069588527,0.77861714,0
3.7192788,3.1610751,-1.359883,0.94491237,0.08170291,-0.31696248,0
4.065414,1.7376286,-0.70780945,0.98291373,0.087650716,-0.16185802,0
0.78445178,3.1014869,-1.9575818,-0.091390319,0.99568993,-0.015790779,0
-2.656312,2.7732732,0.42671409,-0.091390319,0.99568993,-0.015790779,0
-4.4061532,2.6202071,-0.68893403,-0.091390319,0.99568993,-0.015790779,0
1.9351356,3.1686807,2.5431902,-0.091390319,0.99568993,-0.015790779,0
-1.0749747,0.2456266,-4.1386151,-0.24078946,-0.037482116,-0.96985334,0
2.7710617,-2.7942774,-0.89588314,0.091390319,-0.99568993,0.015790779,0
0.22749987,2.9530649,-4.1782751,-0.091390319,0.99568993,-0.015790779,0
-0.78868294,-1.1386114,-4.242547,-0.19611479,-0.033542637,-0.98000711,0
-3.571316,2.6248186,-0.67270654,-0.091390319,0.99568993,-0.015790779,0
-4.0558376,-0.42247254,-1.3788435,-0.94630814,-0.091773555,-0.30996567,0
-2.3835261,2.7900267,2.7733545,-0.091390319,0.99568993,-0.015790779,0
3.7789357,-0.28315869,2.068315,0.87333858,0.087758981,0.47914299,0
3.9609962,-0.67707324,-1.6985201,0.90687412,0.07666675,-0.41436887,0
-4.0076756,1.3051482,1.6895939,-0.91671395,-0.07792671,0.39187098,0
0.040451542,-3.1212864,-1.01253,0.091390319,-0.99568993,0.015790779,0
-3.2534046,-1.1040704,-2.6530793,-0.78283155,-0.081635699,-0.6168552,0
0.1749521,-3.0641448,-3.4518306,0.091390319,-0.99568993,0.015790779,0
3.3894207,-2.1544712,-2.6582549,0.76362497,0.059894573,-0.64287591,0
-0.11501399,0.20168954,4.1694951,-0.018558923,0.014151363,0.99972761,0
2.649189,-1.0376378,3.4841323,0.58611876,0.06660343,0.80748296,0
-3.3303747,-2.5691466,-2.083189,-0.85058135,-0.08629775,-0.51871377,0
-0.91922486,2.3336494,-4.3079195,-0.16466196,-0.030748703,-0.98587066,0
-4.321888,1.1189412,-0.52527034,-0.9897123,-0.092571691,-0.10908764,0
4.0533876,0.81141448,-0.44634789,0.9892112,0.088949665,-0.11639991,0
2.4480009,-2.8090742,-2.4032161,0.091390319,-0.99568993,0.015790779,0
0.098768376,-1.7297636,4.217648,-0.020220308,0.013998397,0.99969751,0
1.2747647,-2.9758737,-3.0810814,0.091390319,-0.99568993,0.015790779,0
-3.1645141,2.6697855,-1.9424525,-0.091390319,0.99568993,-0.015790779,0
2.8942537,-2.1765029,3.3852236,0.6187849,0.069205612,0.78250605,0
-3.5413518,2.759939,-1.4952688,-0.091390319,0.99568993,-0.015790779,0
-4.0500135,-1.274803,-0.66793442,-0.98075843,-0.092744246,-0.17178948,0
-4.0917678,-1.2049195,0.85134953,-0.97588426,-0.086393245,0.20046464,0
-1.0069423,-1.2202967,-4.0343909,-0.26500759,-0.03960317,-0.96343273,0
-0.9582864,3.0558493,3.5251145,-0.091390319,0.99568993,-0.015790779,0
1.7928511,3.0591116,-3.656095,-0.091390319,0.99568993,-0.015790779,0
-1.2901852,-3.1062956,-0.83657867,0.091390319,-0.99568993,0.015790779,0
-3.1358643,-2.7990894,-2.699508,-0.77011418,-0.080720954,-0.63277823,0
-2.3874247,2.7105701,-3.0110168,-0.091390319,0.99568993,-0.015790779,0
2.1773698,2.1406238,-3.4257958,0.58038902,0.040372707,-0.81333804,0
-2.8336253,2.7861316,-0.058115784,-0.091390319,0.99568993,-0.015790779,0
0.1333136,-2.8634431,3.6745918,0.091390319,-0.99568993,0.015790779,0
1.1369423,3.1918771,3.9510119,-0.091390319,0.99568993,-0.015790779,0
0.76062763,1.727356,-4.0797234,0.23541489,0.0061946772,-0.97187519,0
-2.5741947,-3.2295253,2.3543413,0.091390319,-0.99568993,0.015790779,0
-2.8994966,-0.34056374,3.1247737,-0.69223863,-0.052122619,0.7197839,0
-2.1636422,2.866724,0.50923461,-0.091390319,0.99568993,-0.015790779,0
4.331903,-1.2812841,0.65270555,0.98790324,0.092647739,0.12435283,0
1.9494182,3.2249615,-1.021063,-0.091390319,0.99568993,-0.015790779,0
-3.3681419,1.2274642,-2.840667,-0.74922913,-0.079196997,-0.65755874,0
3.1464922,-0.59295648,2.8789711,0.7214784,0.077134661,0.68812728,0
-0.071177714,-3.0215483,-1.6556844,0.091390319,-0.99568993,0.015790779,0
-0.97460866,2.9280372,0.29124817,-0.091390319,0.99568993,-0.015790779,0
1.4510933,-2.9600923,-0.53567672,0.091390319,-0.99568993,0.015790779,0
-3.9863925,-2.0465686,0.23526911,-0.99489319,-0.090612024,0.044464294,0
1.8590674,-2.5716197,-3.8930986,0.38400698,0.020606868,-0.92310017,0
0.47854877,-2.8739183,3.4077997,0.091390319,-0.99568993,0.015790779,0
-0.15233189,-1.4666272,4.31703,-0.075663507,0.0088682007,0.99709398,0
-1.1686994,-1.5448231,4.150413,-0.28384259,-0.010846868,0.95880955,0
-1.8099425,0.054589823,3.8309441,-0.44001651,-0.02615203,0.89760876,0
4.0888238,1.4685928,0.83679873,0.97537374,0.092699505,0.20013227,0
-1.8714838,2.7627919,-3.5080447,-0.091390319,0.99568993,-0.015790779,0
3.1228876,3.293359,-0.33333534,-0.091390319,0.99568993,-0.015790779,0
-1.471337,2.9500134,-1.5276639,-0.091390319,0.99568993,-0.015790779,0
-3.74875,2.6264474,-0.52244997,-0.091390319,0.99568993,-0.015790779,0
0.13029341,0.94351315,4.3104811,0.032010715,0.018786335,0.99931085,0
-3.1547046,2.6538732,0.89942384,-0.091390319,0.99568993,-0.015790779,0
3.850656,-2.6960757,0.21688935,0.091390319,-0.99568993,0.015790779,0
4.1968327,-0.53956646,-0.65478307,0.98117983,0.087327212,-0.17222129,0
-3.1128688,2.7104285,1.7758929,-0.091390319,0.99568993,-0.015790779,0
-3.7436554,-0.81384242,-1.7962863,-0.90556806,-0.089693755,-0.41460991,0
2.0850637,-2.8528526,0.87925851,0.091390319,-0.99568993,0.015790779,0
0.60535175,-3.0419748,0.27720982,0.091390319,-0.99568993,0.015790779,0
-0.96953261,0.038273931,-4.195384,-0.21281908,-0.035019662,-0.97646385,0
-0.41104406,-3.1441879,-0.43535063,0.091390319,-0.99568993,0.015790779,0
-4.2068782,-0.13844262,0.073351458,-0.9955278,-0.090971582,0.025465649,0
-2.2350962,-1.597131,3.6571414,-0.54754204,-0.036999054,0.83595985,0
-3.800431,-1.5966461,1.6373563,-0.91460156,-0.077654168,0.39682972,0
-0.63307714,-2.437952,4.2474341,-0.19136864,-0.0019989535,0.98151612,0
1.1942314,3.1503701,-3.2693009,-0.091390319,0.99568993,-0.015790779,0
-3.0365431,-1.3642493,-2.7659166,-0.76189494,-0.080124304,-0.64272553,0
-4.5080361,2.0355814,0.35219258,-0.98935568,-0.088982902,0.11514009,0
-4.0513411,0.86412817,1.6984828,-0.90824604,-0.076841019,0.41132057,0
0.91596061,-0.72894961,-4.118958,0.19300082,0.0021538399,-0.98119622,0
-2.7483482,-1.5278558,3.283788,-0.65439278,-0.048096374,0.75462365,0
3.5665877,-2.5112448,-2.588737,0.77679628,0.061359163,-0.62675565,0
2.0478029,-1.0955794,3.8434546,0.45300958,0.055690795,0.88976449,0
3.5324523,-2.7426932,1.7791317,0.091390319,-0.99568993,0.015790779,0
3.6244514,3.263407,-0.42467666,-0.091390319,0.99568993,-0.015790779,0
1.6673673,-1.807855,-3.8659434,0.36180568,0.018426824,-0.93207139,0
2.9037545,-1.520049,3.2635136,0.62578255,0.069758542,0.77687198,0
-4.1836939,0.16523059,-1.2218331,-0.95128852,-0.091981612,-0.29426113,0
-1.8350979,-3.1589668,1.0948439,0.091390319,-0.99568993,0.015790779,0
-3.365144,-3.2997038,-1.7133157,0.091390319,-0.99568993,0.015790779,0
1.6875703,3.1544604,-1.7467316,-0.091390319,0.99568993,-0.015790779,0
0.20579253,0.4182007,-4.31284,0.067245074,-0.0096503422,-0.99768978,0
-2.4925501,-2.0838122,3.3985424,-0.60715961,-0.043145947,0.79340762,0
2.1530523,2.0985372,3.5195472,0.5281567,0.061908245,0.84688717,0
-3.5979147,2.7433324,0.35090256,-0.091390319,0.99568993,-0.015790779,0
3.697649,3.0337486,-1.5884424,0.93647283,0.080541238,-0.34136742,0
-1.1081218,-3.1036146,3.5084982,0.091390319,-0.99568993,0.015790779,0
2.8703921,3.188884,-1.278893,-0.091390319,0.99568993,-0.015790779,0
-0.52007878,-3.1953785,-3.6607752,0.091390319,-0.99568993,0.015790779,0
-1.8279499,-3.1974659,-2.9985373,0.091390319,-0.99568993,0.015790779,0
-3.8727748,-1.9406112,0.94451869,-0.96991253,-0.085408755,0.22798011,0
-2.2423162,-0.83273697,-3.5672188,-0.54304755,-0.06312339,-0.83732599,0
4.3757386,-1.8924313,1.1758341,0.95859128,0.092258073,0.26942766,0
3.0341496,-2.7373512,-2.346267,0.091390319,-0.99568993,0.015790779,0
-1.4776429,-2.3704295,-3.8317182,-0.37180799,-0.048828542,-0.9270246,0
-1.6841104,2.7711344,-0.35459694,-0.091390319,0.99568993,-0.015790779,0
0.7663663,1.9732788,-4.2478528,0.21712646,0.0044485247,-0.97613335,0
-0.016624011,0.74714845,-4.2188764,0.029476533,-0.013145337,-0.999479,0
3.0034444,1.6812305,-2.8235509,0.73984766,0.057276715,-0.67033195,0
1.8098344,3.1836162,0.37984732,-0.091390319,0.99568993,-0.015790779,0
1.3804799,3.1452489,2.1233556,-0.091390319,0.99568993,-0.015790779,0
1.3721843,0.34223157,-3.9939728,0.35096705,0.017366093,-0.93622673,0
-4.0027742,-1.690581,-0.84053123,-0.97872788,-0.09273579,-0.18300761,0
2.9432003,-2.8222399,0.47271931,0.091390319,-0.99568993,0.015790779,0
3.4157126,-2.8153737,-2.4986277,0.091390319,-0.99568993,0.015790779,0
-0.15361482,1.648833,4.2651448,-0.0030886845,0.015573634,0.99987388,0
3.0851583,0.7220462,2.9663312,0.7158888,0.076714538,0.69398707,0
3.537889,-2.6614048,1.4350964,0.091390319,-0.99568993,0.015790779,0
3.895859,0.39883548,-1.7190341,0.91012388,0.07708025,-0.40710342,0
1.5666041,3.198972,1.5474627,-0.091390319,0.99568993,-0.015790779,0
3.1414452,-0.083633929,3.0248837,0.71305841,0.07650125,0.69691831,0
-1.8035878,2.7353356,-2.9248986,-0.091390319,0.99568993,-0.015790779,0
3.72089,-2.7500286,-2.0872324,0.091390319,-0.99568993,0.015790779,0
0.18654482,-3.0068126,4.0131464,0.091390319,-0.99568993,0.015790779,0
1.2401302,-2.8797643,-1.3420583,0.091390319,-0.99568993,0.015790779,0
3.1760483,0.29052669,2.9743733,0.72666079,0.077522807,0.68260849,0
-2.5849977,-3.1853967,1.1349674,0.091390319,-0.99568993,0.015790779,0
-3.7040458,-2.176868,-1.788192,-0.90604699,-0.089721009,-0.41355646,0
3.6764767,2.1441643,-1.9142667,0.9004581,0.075857282,-0.42827666,0
1.9467399,-2.8387473,3.0131488,0.091390319,-0.99568993,0.015790779,0
-2.0308805,0.4766852,3.7383707,-0.46395475,-0.028542858,0.88539898,0
1.9578408,-2.7967591,-3.7547967,0.091390319,-0.99568993,0.015790779,0
-2.8999157,2.6276155,-2.3615458,-0.091390319,0.99568993,-0.015790779,0
1.5094181,-2.9223177,-1.8777403,0.091390319,-0.99568993,0.015790779,0
2.7069197,1.8868014,-3.1653826,0.66766882,0.049502265,-0.74281085,0
-2.0903547,-3.2818239,-3.4352305,0.091390319,-0.99568993,0.015790779,0
-4.1499205,-1.7944442,-0.27564716,-0.99453086,-0.092066057,-0.04931704,0
1.9746059,3.0890121,-3.0646529,-0.091390319,0.99568993,-0.015790779,0
-2.3904896,-0.40618494,-3.3821485,-0.57704973,-0.065875143,-0.81404793,0
3.5865674,2.5426576,1.8209,0.88963276,0.088760145,0.44796771,0
-0.15660439,2.6636255,4.2561145,0.023793027,0.018035926,0.99955422,0
-4.3434815,1.89591,-0.71161669,-0.98099017,-0.092744447,-0.17046082,0
2.5141449,3.2021067,-1.0424091,-0.091390319,0.99568993,-0.015790779,0
3.8501856,-2.7285807,-1.6785241,0.091390319,-0.99568993,0.015790779,0
0.62409389,0.10793397,-4.1272054,0.13873643,-0.0029716408,-0.99032491,0
1.5881952,3.040597,-2.2426348,-0.091390319,0.99568993,-0.015790779,0
-0.61603552,1.0997288,-4.232368,-0.12360661,-0.027076999,-0.99196184,0
-1.3372196,2.1255691,4.1344442,-0.24484842,-0.0070976485,0.96953541,0
-2.4556611,-2.9063711,-3.3051009,-0.61667293,-0.069038406,-0.7841863,0
2.7998664,1.3703707,3.142415,0.67263001,0.073415495,0.73632812,0
0.30144423,-3.0130315,3.2956071,0.091390319,-0.99568993,0.015790779,0
-3.7733545,-3.3704114,0.11046873,0.091390319,-0.99568993,0.015790779,0
2.4774063,-2.2102249,3.7306602,0.51464343,0.060800482,0.85524583,0
-3.1921225,-2.2117014,2.6819515,-0.77376157,-0.061020747,0.63053113,0
-1.7017043,2.9345217,2.4891243,-0.091390319,0.99568993,-0.015790779,0
-3.7605762,2.7355742,-1.5908381,-0.091390319,0.99568993,-0.015790779,0
-3.3078992,-0.50205123,-2.7018845,-0.77073711,-0.080765992,-0.63201356,0
-0.32753453,-3.1151726,0.49846414,0.091390319,-0.99568993,0.015790779,0
-1.6366441,0.65196162,-3.8877859,-0.35995609,-0.047815539,-0.93174314,0
3.9351571,2.0993602,-1.4441992,0.94141459,0.081217512,-0.32732597,0
3.2009335,-2.7527874,2.9008641,0.091390319,-0.99568993,0.015790779,0
3.4766626,-2.701431,0.75000179,0.091390319,-0.99568993,0.015790779,0
-4.2831388,2.6546195,1.5879263,-0.091390319,0.99568993,-0.015790779,0
-1.7997942,-3.1341045,-3.0086195,0.091390319,-0.99568993,0.015790779,0
4.0118809,2.6019204,0.79873395,0.98032653,0.092743427,0.17423728,0
-4.0681949,-2.4697258,-0.2924571,-0.99274558,-0.092341252,-0.077002056,0
-3.7345586,-0.12815255,2.2877595,-0.84891188,-0.069609076,0.52393049,0
3.9721043,2.2064469,1.0283809,0.96483797,0.092460632,0.24604619,0
-2.0392499,0.41508198,-3.7929652,-0.44777569,-0.055252779,-0.89243722,0
2.8775456,-2.6955452,-2.2150016,0.091390319,-0.99568993,0.015790779,0
-2.9259081,-0.88279557,3.0365531,-0.69650447,-0.052580137,0.71562344,0
4.1949162,0.25575754,0.016129199,0.99576986,0.091223389,-0.010988366,0
4.3929248,-1.4088041,0.0014434643,0.99572772,0.091581017,0.011806374,0
2.4845991,-2.7298746,-1.848399,0.091390319,-0.99568993,0.015790779,0
1.4681587,3.2197611,2.9496474,-0.091390319,0.99568993,-0.015790779,0
1.6616458,-2.8847842,-0.63041383,0.091390319,-0.99568993,0.015790779,0
0.05001374,-3.0097439,4.0045433,0.091390319,-0.99568993,0.015790779,0
-2.8592429,0.44726923,-3.2798233,-0.64534676,-0.071295492,-0.76055545,0
2.1128263,0.10959668,-3.5935419,0.51746333,0.033935778,-0.85503221,0
2.0806174,3.3111587,2.4662008,-0.091390319,0.99568993,-0.015790779,0
-2.9187768,-2.3299823,2.8796606,-0.73201406,-0.056421045,0.67894924,0
-3.4896204,1.1090404,-2.540801,-0.8118912,-0.083683275,-0.57778007,0
4.3054833,-2.2420409,1.235091,0.95166361,0.0919967,0.29304111,0
3.6157486,0.2333371,-2.0843663,0.8706792,0.072200261,-0.48652321,0
0.61736971,3.0157242,-3.3276622,-0.091390319,0.99568993,-0.015790779,0
-1.6660367,2.9236503,-0.045387015,-0.091390319,0.99568993,-0.015790779,0
-2.3001988,-3.170305,1.5582532,0.091390319,-0.99568993,0.015790779,0
3.7394855,3.3903899,-0.3464745,-0.091390319,0.99568993,-0.015790779,0
-3.1759622,-2.6297703,2.435226,-0.81648523,-0.065845057,0.57359946,0
2.1441739,3.2508647,-1.1992071,-0.091390319,0.99568993,-0.015790779,0
3.0498805,3.1382091,2.7348435,0.75871581,0.079892427,0.6465041,0
2.1495833,3.1535456,2.2286844,-0.091390319,0.99568993,-0.015790779,0
4.1372933,-2.1931782,-1.5364554,0.92911088,0.079551883,-0.36114326,0
-0.24999666,-3.0217273,-4.2121215,-0.12341815,-0.02706008,-0.99198574,0
-0.76485467,-3.0669546,0.47977287,0.091390319,-0.99568993,0.015790779,0
-4.1214819,-0.08582747,0.97639138,-0.96375871,-0.084446207,0.25305745,0
-2.0213754,-2.7297833,3.6425703,-0.51014876,-0.033194423,0.85944533,0
-2.4938834,2.7284029,-2.5827525,-0.091390319,0.99568993,-0.015790779,0
-1.8577571,-3.0443504,3.6200097,-0.50623441,-0.032798242,0.861772,0
-4.0685797,2.6521564,0.36779782,-0.091390319,0.99568993,-0.015790779,0
-1.7037201,2.7652328,-0.67563027,-0.091390319,0.99568993,-0.015790779,0
2.9057522,-2.733181,-3.1142755,0.091390319,-0.99568993,0.015790779,0
3.5331969,-0.24726065,-2.2856433,0.83005029,0.06740731,-0.55359989,0
-1.5578401,1.9432421,-4.1196656,-0.30849984,-0.043385834,-0.95023447,0
-1.3017597,-3.0222785,3.518621,0.091390319,-0.99568993,0.015790779,0
-3.532218,-3.2905407,-1.1690481,0.091390319,-0.99568993,0.015790779,0
3.5457969,1.5890734,2.1284163,0.86092222,0.086969897,0.50124764,0
0.53367615,3.2142951,3.7125897,-0.091390319,0.99568993,-0.015790779,0
-3.3527169,2.5990279,-2.2480505,-0.091390319,0.99568993,-0.015790779,0
-0.52661157,2.2676537,-4.3095746,-0.087066472,-0.02378588,-0.99591851,0
3.1345284,-2.8366902,-2.9970593,0.091390319,-0.99568993,0.015790779,0
-3.2562795,0.20288979,-2.6408846,-0.77500063,-0.081073672,-0.62673843,0
2.1953933,-2.8728595,-0.60230827,0.091390319,-0.99568993,0.015790779,0
-1.2905678,2.849833,1.1426998,-0.091390319,0.99568993,-0.015790779,0
-2.8335614,2.740356,-0.043422785,-0.091390319,0.99568993,-0.015790779,0
4.2787795,-1.0928414,0.18821812,0.99508834,0.091917872,0.036747191,0
2.0962636,3.2062054,-0.30976754,-0.091390319,0.99568993,-0.015790779,0
0.91129267,3.0787334,-3.6801946,-0.091390319,0.99568993,-0.015790779,0
-3.2878027,-1.5195973,2.542819,-0.80019087,-0.06398911,0.596322,0
-3.5579703,-2.0823715,2.204663,-0.85568076,-0.070408605,0.51269197,0
1.7731352,-2.8908908,2.6609006,0.091390319,-0.99568993,0.015790779,0
-2.8267198,-3.2444537,-2.7274117,0.091390319,-0.99568993,0.015790779,0
-1.2052377,-0.88846332,-4.0426674,-0.31579599,-0.044017002,-0.94780558,0
0.48271611,3.0628211,-2.9113374,-0.091390319,0.99568993,-0.015790779,0
1.0967902,-1.9729612,-4.1110792,0.22233443,0.004945185,-0.97495794,0
-0.61882836,-0.4295463,-4.1737461,-0.14680883,-0.029155463,-0.98873508,0
0.55574524,-0.86007303,-4.2540426,0.11092672,-0.0055794986,-0.99381292,0
0.51691407,3.0623436,0.91933692,-0.091390319,0.99568993,-0.015790779,0
-1.1625134,2.9565618,-0.38418895,-0.091390319,0.99568993,-0.015790779,0
3.1865454,-2.6607754,1.3816251,0.091390319,-0.99568993,0.015790779,0
2.7881818,0.60741341,-3.2258255,0.64406526,0.047007281,-0.76352489,0
0.62793028,-3.0472686,-0.018261988,0.091390319,-0.99568993,0.015790779,0
-2.533958,2.8191981,-0.41071567,-0.091390319,0.99568993,-0.015790779,0
4.3504639,-0.21559671,-0.085777856,0.99564153,0.091066808,-0.020118941,0
3.1038218,-2.7024679,-0.33242854,0.091390319,-0.99568993,0.015790779,0
-0.42750737,1.7909275,4.1551237,-0.087354802,0.0077800816,0.99614686,0
0.20714295,-3.0035634,-0.38677287,0.091390319,-0.99568993,0.015790779,0
-3.8355916,1.2633922,-2.0182934,-0.88890767,-0.088716522,-0.44941342,0
-2.7589746,-1.0101259,-3.242403,-0.65532708,-0.072074264,-0.75189877,0
-0.52043897,-0.75798303,4.2652788,-0.11684901,0.005025195,0.993137,0
2.3601208,-2.2185602,-3.6260278,0.51353592,0.033537552,-0.85741246,0
-0.74838632,-3.172488,0.41379961,0.091390319,-0.99568993,0.015790779,0
-4.1773477,0.70672137,1.1099502,-0.96361876,-0.084424809,0.25359684,0
-0.37977201,2.9425521,1.8135309,-0.091390319,0.99568993,-0.015790779,0
1.724349,-0.44545054,3.8850973,0.36488435,0.048237108,0.92980248,0
3.718576,2.7343264,1.2259494,0.9445774,0.091698058,0.31522217,0
-1.0212375,-3.2000568,-3.0470989,0.091390319,-0.99568993,0.015790779,0
1.8661507,-2.811322,2.9543977,0.091390319,-0.99568993,0.015790779,0
3.1528459,3.3421502,1.0927147,-0.091390319,0.99568993,-0.015790779,0
-3.50371,0.57381332,-2.634665,-0.79094845,-0.082213879,-0.60633445,0
2.9335704,3.2643483,-2.079093,-0.091390319,0.99568993,-0.015790779,0
3.9239306,-0.953493,-1.8208978,0.89727497,0.075458884,-0.43497539,0
1.2303319,0.11367568,4.1423607,0.27366662,0.040359009,0.96097749,0
-3.4013147,-0.937608,-2.2990525,-0.82321554,-0.08446309,-0.5614109,0
-3.4902563,-1.5301071,-2.1362987,-0.84822154,-0.086142607,-0.52258939,0
-2.2451031,2.2259257,-3.8334594,-0.46436435,-0.056638904,-0.88383132,0
-2.7386913,-2.7654433,3.0968461,-0.69927937,-0.052878186,0.71289003,0
-4.2783384,1.4288142,0.75994885,-0.97999829,-0.087112427,0.17892677,0
0.7562753,0.8595314,4.0957003,0.20934354,0.034712743,0.97722584,0
-2.4950912,2.8453915,3.5460672,-0.53025705,-0.035235789,0.84710443,0
1.8628982,3.1657526,1.5381413,-0.091390319,0.99568993,-0.015790779,0
0.41259941,-2.0113785,-4.2848439,0.040249728,-0.012150748,-0.99911565,0
-0.4784734,2.9803963,3.2163799,-0.091390319,0.99568993,-0.015790779,0
3.6359782,-1.9951595,2.4248724,0.82170719,0.084359862,0.56363171,0
-3.6781931,2.6128538,-0.16927388,-0.091390319,0.99568993,-0.015790779,0
-2.9153605,0.6144582,-3.1199896,-0.68651253,-0.074482985,-0.72329307,0
-0.7497707,2.6419842,4.0840826,-0.13736403,0.0031006373,0.99051583,0
-1.6067089,-1.1379077,-3.7464333,-0.4105424,-0.052119385,-0.9103508,0
-0.63413507,2.9934316,2.9362123,-0.091390319,0.99568993,-0.015790779,0
-1.9605199,-3.2592294,1.3973564,0.091390319,-0.99568993,0.015790779,0
4.227047,-1.4733223,1.1652007,0.96197867,0.092372373,0.25703001,0
-3.5559001,2.6086967,-1.6128198,-0.091390319,0.99568993,-0.015790779,0
-1.3220527,-3.2634363,-2.6496217,0.091390319,-0.99568993,0.015790779,0
-3.3465044,2.4149907,2.9801884,-0.72216105,-0.055349238,0.68950695,0
-2.5464978,-2.9618976,3.3006952,-0.66536885,-0.049258221,0.74488789,0
-1.6394346,-3.0907543,-0.52052432,0.091390319,-0.99568993,0.015790779,0
0.1145489,2.9959011,-1.423318,-0.091390319,0.99568993,-0.015790779,0
3.223295,1.7519778,2.6553345,0.775253,0.081091851,0.62642384,0
-0.10367383,-3.0127754,3.5014081,0.091390319,-0.99568993,0.015790779,0
-2.8490942,-2.7535975,-2.8394096,-0.72053456,-0.077063836,-0.68912339,0
1.58022,0.12615594,-3.9600604,0.38276812,0.020484954,-0.92361736,0
-3.6558337,-0.60041076,1.944706,-0.88069248,-0.073413655,0.46796489,0
-2.9832935,2.7412956,0.82377464,-0.091390319,0.99568993,-0.015790779,0
0.57406491,-3.0197334,0.33857918,0.091390319,-0.99568993,0.015790779,0
3.986758,-2.1530988,2.0154903,0.88360029,0.088394463,0.45982268,0
-1.5401475,-3.0752609,1.5388546,0.091390319,-0.99568993,0.015790779,0
-0.94891948,1.0467688,4.1835403,-0.22160634,-0.0048757223,0.97512406,0
-4.1282125,2.5314314,-1.2242653,-0.091390319,0.99568993,-0.015790779,0
-1.0357622,-2.1181338,4.0538368,-0.28743929,-0.01119406,0.95773351,0
1.6297349,3.1986144,2.5796931,-0.091390319,0.99568993,-0.015790779,0
0.82881767,3.1611605,0.13278277,-0.091390319,0.99568993,-0.015790779,0
-0.15152067,-3.0334792,-2.9150195,0.091390319,-0.99568993,0.015790779,0
2.7448428,3.3707662,0.72434223,-0.091390319,0.99568993,-0.015790779,0
0.89767045,-3.0423288,-2.2171111,0.091390319,-0.99568993,0.015790779,0
-3.7674913,-0.21454237,2.0468211,-0.87230581,-0.072396368,0.48357141,0
3.2707429,3.3274329,-1.3843585,-0.091390319,0.99568993,-0.015790779,0
-0.49917617,-3.0470052,2.3755631,0.091390319,-0.99568993,0.015790779,0
3.8638449,3.2807779,-0.34231007,0.99303275,0.089938961,-0.076137044,0
2.0262818,-2.7843499,-2.4515035,0.091390319,-0.99568993,0.015790779,0
1.3651191,-1.3412961,-4.0140734,0.29454616,0.011880786,-0.95556337,0
-0.86875087,2.8750553,-3.5606389,-0.091390319,0.99568993,-0.015790779,0
-2.1686926,-2.1281745,-3.4066045,-0.56543201,-0.064938627,-0.82223451,0
2.4398189,-1.7575865,3.5874705,0.55366105,0.063985817,0.83028024,0
3.480639,-1.2740871,-2.6908929,0.76822788,0.060405158,-0.6373204,0
3.6670518,2.0064476,1.8710486,0.89958686,0.089349255,0.42750454,0
-4.2923117,1.3638213,-0.60511434,-0.98614907,-0.09269587,-0.13754016,0
2.0367224,3.068377,-2.1198437,-0.091390319,0.99568993,-0.015790779,0
-4.03613,2.4320562,-1.9197793,-0.8844173,-0.088444337,-0.45823961,0
-1.5622702,2.8985283,-0.34094915,-0.091390319,0.99568993,-0.015790779,0
-2.991612,2.6270337,-3.1382251,-0.091390319,0.99568993,-0.015790779,0
0.34596705,-3.086695,-0.45411193,0.091390319,-0.99568993,0.015790779,0
-1.1416519,2.8260212,-4.1855197,-0.18942553,-0.032949831,-0.98134202,0
-1.552441,-3.2058783,-2.9950373,0.091390319,-0.99568993,0.015790779,0
-1.2218409,-3.123692,2.1833694,0.091390319,-0.99568993,0.015790779,0
-3.6334374,-1.6812832,2.0442832,-0.87027204,-0.072151229,0.48725846,0
2.8013964,-0.64595377,-3.265558,0.64125842,0.046711963,-0.7659018,0
1.8827633,2.819716,-3.7425601,0.51591587,0.033778831,-0.85597301,0
1.7003539,-0.92190343,3.9961486,0.39719054,0.050988521,0.91631871,0
0.65102535,3.1165991,2.0522692,-0.091390319,0.99568993,-0.015790779,0
-3.5044982,-1.6234231,2.1958675,-0.85394806,-0.070203424,0.5156008,0
0.9167124,-2.7837014,-4.113256,0.13782041,-0.0030577434,-0.99045259,0
3.7494156,-1.8928668,2.2515507,0.84514904,0.085939698,0.52757698,0
-2.6186397,2.8720405,2.5314007,-0.091390319,0.99568993,-0.015790779,0
3.6214194,-1.5081795,2.6441498,0.80037576,0.082879461,0.59374201,0
-2.6689925,-3.0419693,-3.055438,-0.69729656,-0.075306654,-0.71281582,0
-4.0795646,0.94509035,-1.5602059,-0.92378181,-0.090690158,-0.37202489,0
3.2961187,0.4466131,-2.6623998,0.77089906,0.060702074,-0.63405824,0
-2.7197797,2.7699344,1.2403046,-0.091390319,0.99568993,-0.015790779,0
-4.5164557,1.5640432,-0.15704243,-0.99484622,-0.091989279,-0.042650189,0
-3.1263413,1.440587,-3.0845754,-0.69682199,-0.075270504,-0.7132836,0
3.7815146,3.0335224,1.2135353,0.95000118,0.09192922,0.29840717,0
2.5765197,1.9607426,-3.2134612,0.64515388,0.047121897,-0.76259816,0
0.97456992,-3.0115333,-1.6544739,0.091390319,-0.99568993,0.015790779,0
1.1242175,3.0164492,-0.097125508,-0.091390319,0.99568993,-0.015790779,0
3.7161314,0.56088471,-2.0308232,0.888888,0.07441844,-0.45203987,0
-4.0311885,2.5653296,-1.7716764,-0.091390319,0.99568993,-0.015790779,0
1.5112305,-1.5938679,-3.9410839,0.33807257,0.016107142,-0.94098228,0
4.0881462,-2.4386113,-1.9278523,0.88292372,0.073686115,-0.46369824,0
0.45759624,-2.9367898,2.4771674,0.091390319,-0.99568993,0.015790779,0
0.20874311,1.3667006,-4.1575408,0.060654141,-0.010261899,-0.99810606,0
-3.5969048,2.7205372,0.81098616,-0.091390319,0.99568993,-0.015790779,0
-1.0693688,2.9334283,0.14889616,-0.091390319,0.99568993,-0.015790779,0
2.2958102,0.40482742,3.5478115,0.56432647,0.064849302,0.82300073,0
1.6792257,-2.908392,-1.7717757,0.091390319,-0.99568993,0.015790779,0
-0.11343967,1.6156681,4.1781721,-0.0070108338,0.015213409,0.99985963,0
3.9146657,-0.77461755,1.9016811,0.88906753,0.088726155,0.44909537,0
4.0304089,2.3619215,0.63844883,0.9836129,0.092733897,0.1546161,0
4.0870342,1.2242419,-1.13975,0.96306306,0.084340028,-0.25572684,0
4.1618023,0.37799898,0.48871335,0.98813379,0.092639737,0.12251378,0
-2.7551033,2.7784083,1.6009406,-0.091390319,0.99568993,-0.015790779,0
-0.27129117,2.4584763,-4.2992234,-0.0097162351,-0.016747974,-0.99981248,0
-2.5517304,2.6472037,-2.0548089,-0.091390319,0.99568993,-0.015790779,0
-2.440181,2.7942085,2.0741622,-0.091390319,0.99568993,-0.015790779,0
-1.7777342,-3.2119246,-3.2436664,0.091390319,-0.99568993,0.015790779,0
-1.7826225,-0.54957569,3.8838289,-0.44829983,-0.026977858,0.89347601,0
-2.6514256,-3.3225281,0.56587225,0.091390319,-0.99568993,0.015790779,0
1.7991492,3.1102509,-3.6867723,-0.091390319,0.99568993,-0.015790779,0
-2.8808451,-1.2297758,2.96398,-0.71966201,-0.055078156,0.69213659,0
-4.1841011,-0.018916236,-0.33631262,-0.99161935,-0.092447922,-0.090246297,0
-1.4545981,-2.1890123,3.9658139,-0.39123741,-0.021319006,0.92004281,0
1.3570042,-1.5401052,-3.955075,0.27391613,0.0098898746,-0.9617027,0
1.744013,-2.7449868,1.8288788,0.091390319,-0.99568993,0.015790779,0
0.0059975656,3.0203028,-4.0822597,-0.091390319,0.99568993,-0.015790779,0
-3.1651347,0.55244017,-2.9064934,-0.70947003,-0.07623028,-0.70060068,0
3.5203288,1.2744141,2.1776128,0.8391645,0.085541561,0.5371086,0
-2.7366242,1.861639,3.3211026,-0.59434187,-0.041815359,0.80312467,0
-0.42100078,2.9688923,1.2450967,-0.091390319,0.99568993,-0.015790779,0
3.8621516,-2.5780523,-0.059477154,0.091390319,-0.99568993,0.015790779,0
-1.8202868,2.7321522,-1.0112913,-0.091390319,0.99568993,-0.015790779,0
0.36690417,2.5185559,-4.1679907,0.12121756,-0.0046159495,-0.99261528,0
2.8196869,-2.8048811,-0.62207842,0.091390319,-0.99568993,0.015790779,0
-0.67346519,-2.1661749,4.1729302,-0.19006068,-0.0018748664,0.98177052,0
-3.0943503,2.83969,1.7525471,-0.091390319,0.99568993,-0.015790779,0
4.3836713,-1.6220975,1.0695845,0.97156185,0.092631646,0.21791534,0
-3.5413287,0.69930339,-2.320179,-0.82489228,-0.08457759,-0.558927,0
-1.3911146,2.9900866,2.4388905,-0.091390319,0.99568993,-0.015790779,0
0.25264102,-1.1747751,-4.2580662,0.027457867,-0.013331497,-0.99953407,0
0.10129458,2.369977,-4.3642249,0.094984517,-0.0070687896,-0.99545366,0
-2.5609765,2.80651,1.9059513,-0.091390319,0.99568993,-0.015790779,0
4.1137037,-0.44338894,1.358513,0.93896532,0.091443256,0.33163586,0
0.64944303,3.0329783,-2.5403805,-0.091390319,0.99568993,-0.015790779,0
-0.91208798,2.8911951,-1.7809086,-0.091390319,0.99568993,-0.015790779,0
-0.58098257,2.9618011,0.32481945,-0.091390319,0.99568993,-0.015790779,0
2.4288821,3.276257,1.2755439,-0.091390319,0.99568993,-0.015790779,0
1.6656656,-2.7594624,1.5229362,0.091390319,-0.99568993,0.015790779,0
1.5324796,3.1645446,0.65542239,-0.091390319,0.99568993,-0.015790779,0
-1.1887063,2.9596202,-2.7124369,-0.091390319,0.99568993,-0.015790779,0
1.2536039,-1.0088105,4.1713805,0.25856566,0.039039992,0.96520448,0
3.6877501,1.591476,1.6486139,0.90468299,0.08964327,0.41654873,0
-3.4545212,-1.1403952,-2.4138224,-0.81280798,-0.083746813,-0.57648045,0
0.65069324,-3.0473402,-0.25634217,0.091390319,-0.99568993,0.015790779,0
3.0660124,3.3328619,-0.65104628,-0.091390319,0.99568993,-0.015790779,0
-4.2533355,-0.32391542,0.23577143,-0.99529958,-0.090821348,0.033618052,0
4.130837,-2.5993977,-0.47289762,0.091390319,-0.99568993,0.015790779,0
0.71929097,-2.5764503,4.1876931,0.12503421,0.027205143,0.99177939,0
4.0398679,2.1923447,0.41804141,0.98899674,0.092605613,0.11536795,0
-4.1036472,2.6462984,1.7705026,-0.091390319,0.99568993,-0.015790779,0
-0.52004874,-3.1894028,-3.3550067,0.091390319,-0.99568993,0.015790779,0
-1.4217906,-3.1162188,-1.5871133,0.091390319,-0.99568993,0.015790779,0
2.8448911,3.2877512,2.0854366,-0.091390319,0.99568993,-0.015790779,0
3.6071262,2.0118687,-1.8243804,0.9034915,0.076238886,-0.42177096,0
1.2357596,3.2112293,3.7876887,-0.091390319,0.99568993,-0.015790779,0
2.3411674,-0.15855239,3.515986,0.55935025,0.064446822,0.82642239,0
-2.5090542,-3.1785421,2.7466686,0.091390319,-0.99568993,0.015790779,0
4.3322396,-2.160857,-1.4012418,0.94146085,0.08122389,-0.32719126,0
-1.4441953,-3.1807199,-2.491941,0.091390319,-0.99568993,0.015790779,0
1.251557,3.0410252,-0.30141956,-0.091390319,0.99568993,-0.015790779,0
3.9522026,0.50879788,1.2024881,0.95256013,0.09203238,0.29010215,0
-3.294426,2.7404439,-2.319083,-0.091390319,0.99568993,-0.015790779,0
3.5073199,-0.54437715,2.5199838,0.81487125,0.083889551,0.57353932,0
-0.62091196,2.9671094,3.3478215,-0.091390319,0.99568993,-0.015790779,0
2.474915,0.71605551,-3.2803528,0.61344558,0.043800402,-0.78852147,0
-3.3732698,-3.2312114,1.1659858,0.091390319,-0.99568993,0.015790779,0
-3.411428,2.6198423,0.93858242,-0.091390319,0.99568993,-0.015790779,0
4.4803681,-1.7012045,-0.56967402,0.98684585,0.088432282,-0.13533372,0
-3.9391477,-2.0500522,0.94627225,-0.97577226,-0.086374193,0.20101742,0
0.52235043,2.9643192,-0.6097374,-0.091390319,0.99568993,-0.015790779,0
0.0052103889,-2.9845619,1.1493193,0.091390319,-0.99568993,0.015790779,0
0.82149959,3.1555882,2.9994588,-0.091390319,0.99568993,-0.015790779,0
-2.6076684,-1.5924695,-3.1549876,-0.6399231,-0.070870765,-0.7651639,0
-1.4448402,2.884474,0.85692608,-0.091390319,0.99568993,-0.015790779,0
-0.74652517,0.65955108,4.2335134,-0.14123201,0.0027369969,0.98997271,0
-0.7278505,-3.1318655,2.3395638,0.091390319,-0.99568993,0.015790779,0
0.28607795,-0.5894711,-4.1944895,0.052018784,-0.011062097,-0.99858481,0
-2.1931784,2.5350263,-3.9072366,-0.43937209,-0.054548219,-0.89664745,0
-3.4980917,-1.5871236,1.9925863,-0.87608457,-0.072853431,0.47662169,0
1.5043073,-2.8420877,-2.1015682,0.091390319,-0.99568993,0.015790779,0
-2.4810314,-3.1724777,-3.1537642,-0.6310358,-0.070172548,-0.77257341,0
-0.63494527,2.9394057,1.2758727,-0.091390319,0.99568993,-0.015790779,0
2.3002682,2.4361799,3.3627565,0.59821683,0.067571089,0.79848021,0
3.3522506,-2.6755078,1.160571,0.091390319,-0.99568993,0.015790779,0
-3.0511115,2.034152,-3.0604022,-0.68148363,-0.074097209,-0.72807252,0
1.6057154,-2.8436968,-1.3441466,0.091390319,-0.99568993,0.015790779,0
0.49011263,3.1215825,0.97816151,-0.091390319,0.99568993,-0.015790779,0
-2.3191805,-3.002497,-3.3760862,-0.59586298,-0.06738317,-0.80025417,0
0.2033852,2.8370249,4.1031256,0.12780124,0.02745341,0.99141967,0
1.2921774,3.2436969,1.3085129,-0.091390319,0.99568993,-0.015790779,0
-4.1983271,-0.76944667,0.78116864,-0.977364,-0.086647324,0.19300734,0
-1.8363801,-2.1093092,-3.6754808,-0.4889493,-0.058681436,-0.87033617,0
-1.7154232,0.091722168,-3.8799245,-0.40827683,-0.051927764,-0.91137999,0
2.0800276,3.3231781,3.4617126,-0.091390319,0.99568993,-0.015790779,0
3.4205925,-1.5035126,2.8935328,0.75019318,0.079267904,0.65645003,0
-1.3104532,-2.756844,4.0670152,-0.37745923,-0.019962886,0.92581099,0
-1.8546544,-2.2404225,-3.6491199,-0.48167706,-0.058078747,-0.87442213,0
-0.57674593,3.046761,4.2827039,-0.084336601,0.0080612013,0.99640477,0
1.0006437,3.0966227,-2.5134954,-0.091390319,0.99568993,-0.015790779,0
-1.3462251,2.9724119,1.9840462,-0.091390319,0.99568993,-0.015790779,0
1.97481,-2.918731,-1.4098487,0.091390319,-0.99568993,0.015790779,0
-3.6614773,-3.3282278,0.42806041,0.091390319,-0.99568993,0.015790779,0
-3.1688833,-0.18182725,-2.8574462,-0.7289353,-0.07769274,-0.68015963,0
-2.0763512,-3.1882787,-1.9502569,0.091390319,-0.99568993,0.015790779,0
4.1944189,1.4171154,-0.083917059,0.99570161,0.091128953,-0.016548008,0
1.0595845,0.37579852,-4.0751987,0.25997877,0.0085491873,-0.96557653,0
4.2959595,-2.6437333,-1.0156467,0.091390319,-0.99568993,0.015790779,0
1.1483073,3.0712125,1.8547674,-0.091390319,0.99568993,-0.015790779,0
2.41414,-2.9022317,-1.0686152,0.091390319,-0.99568993,0.015790779,0
-1.0694587,2.9064746,3.7558513,-0.091390319,0.99568993,-0.015790779,0
3.3487408,-0.039225202,2.6284235,0.77536845,0.081100166,0.62628001,0
1.1082282,3.1773801,2.2990329,-0.091390319,0.99568993,-0.015790779,0
-3.507262,2.5753758,-2.2098763,-0.091390319,0.99568993,-0.015790779,0
0.018877601,2.9215732,-0.58521438,-0.091390319,0.99568993,-0.015790779,0
1.2444279,-0.89361435,3.9965348,0.28811225,0.04161695,0.95669192,0
-0.56973732,-3.089047,-3.0429134,0.091390319,-0.99568993,0.015790779,0
0.72499657,0.65894306,4.2257638,0.19460931,0.03340929,0.98031169,0
-0.39556199,-3.1440291,0.09654218,0.091390319,-0.99568993,0.015790779,0
0.70774937,3.2281222,3.7302816,-0.091390319,0.99568993,-0.015790779,0
2.4888275,-2.8865066,-1.3928502,0.091390319,-0.99568993,0.015790779,0
1.4341478,-2.8746364,-0.24838804,0.091390319,-0.99568993,0.015790779,0
2.8371253,3.1920714,-2.7541087,-0.091390319,0.99568993,-0.015790779,0
3.5174134,0.51047772,2.1612439,0.8532154,0.086470157,0.5143407,0
-3.7257707,0.4389433,2.2491744,-0.85658532,-0.070515849,0.51116437,0
-0.024970412,-2.9621413,2.7081983,0.091390319,-0.99568993,0.015790779,0
1.7831198,2.3656454,-3.8039405,0.47093955,0.029242931,-0.88168073,0
-3.5799732,-3.234395,1.3699658,0.091390319,-0.99568993,0.015790779,0
4.2782445,0.13474213,-0.52034748,0.98805869,0.088691764,-0.12599148,0
3.4848039,2.5967569,2.1117957,0.86482942,0.087220423,0.49443167,0
-1.0249141,2.9361696,-1.2021686,-0.091390319,0.99568993,-0.015790779,0
3.4172926,3.2619989,-0.46519357,-0.091390319,0.99568993,-0.015790779,0
3.7172124,2.527097,-1.477309,0.9325189,0.080007359,-0.3521468,0
0.26297718,-2.9458768,-0.84675163,0.091390319,-0.99568993,0.015790779,0
-1.6698772,-3.1855044,2.4678116,0.091390319,-0.99568993,0.015790779,0
0.694305,3.043447,-0.37135848,-0.091390319,0.99568993,-0.015790779,0
-3.8131044,2.5856757,0.58082247,-0.091390319,0.99568993,-0.015790779,0
-2.6714203,-1.0786636,3.3398919,-0.6449312,-0.04709845,0.762788,0
4.1607418,-1.5240974,-1.1366781,0.95967746,0.083829679,-0.26831275,0
-2.8575249,-2.2946784,-2.8868945,-0.73640889,-0.078249246,-0.67199636,0
4.13027,-1.1169198,1.4190531,0.94325519,0.09163937,0.31917387,0
2.6972802,-2.3667755,3.6034245,0.5564121,0.06420885,0.82842183,0
-1.8191516,-3.2488918,-1.7577475,0.091390319,-0.99568993,0.015790779,0
-2.5211041,-2.6506271,3.4143507,-0.62940174,-0.045467526,0.77574867,0
0.69276017,3.1281023,3.6315525,-0.091390319,0.99568993,-0.015790779,0
-1.2726579,2.9280825,-0.81644857,-0.091390319,0.99568993,-0.015790779,0
-2.6839378,-3.126379,2.9564085,0.091390319,-0.99568993,0.015790779,0
-0.78878146,3.0071285,-1.4963523,-0.091390319,0.99568993,-0.015790779,0
-4.1986179,-1.3143258,-0.18655136,-0.99452454,-0.09206745,-0.049441569,0
-4.0220776,-2.6943386,-0.59923083,-0.98771048,-0.092654094,-0.12586951,0
-1.4682044,3.0156124,3.2869408,-0.091390319,0.99568993,-0.015790779,0
-1.4991244,-3.1890826,3.180486,0.091390319,-0.99568993,0.015790779,0
2.1833363,-2.8381658,1.1570399,0.091390319,-0.99568993,0.015790779,0
-3.6596527,2.7381816,-0.54774797,-0.091390319,0.99568993,-0.015790779,0
-3.3403118,-3.4212093,-0.73509574,0.091390319,-0.99568993,0.015790779,0
-2.8694408,-0.20205878,-3.0994275,-0.65881932,-0.07234589,-0.74881452,0
1.030208,3.0205731,0.55469847,-0.091390319,0.99568993,-0.015790779,0
-4.1736126,2.001462,-1.3236378,-0.94262457,-0.091611065,-0.32103923,0
1.3034437,3.1638303,-1.0655299,-0.091390319,0.99568993,-0.015790779,0
3.7510777,-0.75394398,1.9998066,0.88196862,0.088294506,0.46296385,0
1.6740897,3.087554,-2.7943716,-0.091390319,0.99568993,-0.015790779,0
-3.1952717,2.6869576,-0.6265772,-0.091390319,0.99568993,-0.015790779,0
4.0742931,1.5293092,-1.0328325,0.96822947,0.085140996,-0.2351228,0
-2.3223419,-3.2172985,1.6596661,0.091390319,-0.99568993,0.015790779,0
-2.8941586,2.8709526,2.34655,-0.091390319,0.99568993,-0.015790779,0
-0.51634467,-2.9642894,1.8123069,0.091390319,-0.99568993,0.015790779,0
2.810854,0.8626771,3.1068625,0.66871369,0.073112935,0.7399165,0
3.5322175,-2.7594161,-0.35072029,0.091390319,-0.99568993,0.015790779,0
-4.2096233,2.6315856,-1.4314804,-0.93319345,-0.091166943,-0.34761846,0
-0.32680026,-2.494844,-4.2004209,-0.11891619,-0.026655758,-0.99254638,0
0.0533516,3.0265114,-3.1059241,-0.091390319,0.99568993,-0.015790779,0
4.0498223,-2.4093599,1.8898997,0.90251291,0.089518741,0.42125636,0
1.1948709,3.0492134,-1.0787953,-0.091390319,0.99568993,-0.015790779,0
-0.45918456,-3.0222325,1.3537717,0.091390319,-0.99568993,0.015790779,0
-2.8752198,-0.35720536,3.1837459,-0.66175085,-0.048874743,0.74812895,0
-0.73741758,-2.9746048,1.2550946,0.091390319,-0.99568993,0.015790779,0
0.30376303,-2.9807041,-3.8454089,0.091390319,-0.99568993,0.015790779,0
0.63891661,2.9919367,1.2532493,-0.091390319,0.99568993,-0.015790779,0
-3.4732876,-0.13506514,2.5546,-0.80935413,-0.065030187,0.58370966,0
3.4279239,1.5618787,2.3902726,0.82960314,0.084897935,0.55186135,0
0.80642468,-2.6757967,-4.0814013,0.13090645,-0.0037071817,-0.99138778,0
-0.76695704,-3.0483675,-2.0196755,0.091390319,-0.99568993,0.015790779,0
4.057158,1.026695,0.88877738,0.97029656,0.092603974,0.22349322,0
1.1148702,0.58935368,-4.1757898,0.28959706,0.011402468,-0.95708066,0
0.81321973,3.1615534,3.8375082,-0.091390319,0.99568993,-0.015790779,0
-3.7546544,2.3156157,-2.4440451,-0.82109439,-0.084317863,-0.56453037,0
-0.43275699,2.923651,-3.5904202,-0.091390319,0.99568993,-0.015790779,0
1.6706836,-1.2504604,-4.0005679,0.35146204,0.017414484,-0.93604022,0
-4.1065378,1.039506,1.5213819,-0.92343688,-0.078802258,0.37557226,0
-0.62834674,-3.2125516,-3.9268544,0.091390319,-0.99568993,0.015790779,0
-3.7847731,-1.9875542,1.3183467,-0.9439252,-0.081565306,0.31992561,0
0.00098206708,2.9883835,0.29948789,-0.091390319,0.99568993,-0.015790779,0
4.348896,-0.6719628,0.37826672,0.99225986,0.092391349,0.082971744,0
-0.14122045,-2.326319,4.2838402,-0.096627079,0.0069155358,0.99529666,0
-2.997519,2.4420817,-3.2118573,-0.63874948,-0.070778728,-0.76615232,0
3.7190914,-2.2826741,-2.1864536,0.8358627,0.06808196,-0.54470015,0
-4.1577168,0.60805482,-0.76647842,-0.9748503,-0.092691705,-0.20266974,0
-4.0139766,-0.42819741,-1.5041322,-0.9307906,-0.091048129,-0.35403261,0
1.1800855,3.0772815,1.711324,-0.091390319,0.99568993,-0.015790779,0
-1.7473173,2.5052896,-4.0677714,-0.33034852,-0.045272898,-0.94277263,0
0.19019254,-2.9808962,3.0337219,0.091390319,-0.99568993,0.015790779,0
2.5180812,-2.7568815,-0.75973535,0.091390319,-0.99568993,0.015790779,0
-0.70739841,2.9832277,-3.8372607,-0.091390319,0.99568993,-0.015790779,0
