3.0982966,0.4140048,-3.1305566,0.9223938,0.36275113,-0.1326699,0
1.96264,-2.7530675,-2.8028595,0.21404535,-0.76597321,-0.60619283,0
-2.1132565,-4.0909042,-2.4188414,0.17815298,-0.70432091,-0.68716335,0
2.6492989,2.9041681,0.0045040846,0.9223938,0.36275113,-0.1326699,0
-4.0116606,1.4577689,2.1616826,-0.9223938,-0.36275113,0.1326699,0
3.2632425,-0.15087891,-3.3573515,0.9223938,0.36275113,-0.1326699,0
-2.5700014,2.7410908,2.6293497,-0.22609818,0.78557217,0.57598251,0
-3.2986555,-1.1325281,0.43360102,-0.9223938,-0.36275113,0.1326699,0
-2.6557751,-1.7701216,2.3436561,-0.9223938,-0.36275113,0.1326699,0
-0.76384044,-1.524596,-3.9191372,-0.014139056,-0.3115401,-0.95012778,0
2.7440047,-1.6298127,-3.7577958,0.12194991,-0.59941888,-0.79109108,0
-4.0118084,2.9320402,-0.18986249,-0.37989402,0.91407716,-0.14192727,0
2.2792501,3.2762861,-1.8117412,0.9223938,0.36275113,-0.1326699,0
-1.0049796,4.171669,0.20514309,-0.35650498,0.93174279,0.06898883,0
3.7596564,-0.4240756,-1.247122,0.9223938,0.36275113,-0.1326699,0
2.4997425,2.8479235,-1.6374068,0.9223938,0.36275113,-0.1326699,0
1.2315927,-4.0148435,-0.10705793,0.36132795,-0.93176228,-0.035509884,0
-4.4975982,2.7741241,0.73464024,-0.35907787,0.93188602,0.051491916,0
3.1584096,-3.2679858,-1.337888,0.32283527,-0.91262162,-0.25079697,0
2.0125041,4.8825769,1.1866798,0.9223938,0.36275113,-0.1326699,0
2.2142088,-3.5732846,-0.432163,0.35701668,-0.93179369,-0.065569907,0
-0.64021015,-3.1730537,-3.1001563,0.14217865,-0.63823962,-0.7565946,0
-0.29864454,1.4784186,3.9927619,-0.0029366612,0.35005763,0.93672353,0
-4.0261741,-0.48816562,-2.7773833,-0.9223938,-0.36275113,0.1326699,0
-3.9286995,0.81831694,1.2837346,-0.9223938,-0.36275113,0.1326699,0
-4.6200056,2.2613316,-1.5649784,-0.37988681,0.78990829,-0.48138422,0
-4.0523224,-0.054033279,-2.5660572,-0.9223938,-0.36275113,0.1326699,0
-3.0181322,-1.1020963,1.9905584,-0.9223938,-0.36275113,0.1326699,0
-1.1225796,1.3823197,3.9962118,-0.033004463,0.41624674,0.90865248,0
-4.3317471,1.884397,1.3246399,-0.9223938,-0.36275113,0.1326699,0
-2.8071184,-2.7854085,-0.03164643,-0.9223938,-0.36275113,0.1326699,0
2.4286594,3.0207584,3.3386097,-0.061656415,0.47735855,0.87654275,0
-3.5263445,0.64904118,3.6211276,-0.9223938,-0.36275113,0.1326699,0
-1.7933803,3.5459166,1.5801276,-0.30236077,0.89186335,0.33638909,0
1.7336578,4.6613989,-1.4163909,0.9223938,0.36275113,-0.1326699,0
3.3980448,1.7611163,2.7288167,0.9223938,0.36275113,-0.1326699,0
-0.98794389,-2.0661216,4.2280049,0.25198516,-0.30482736,0.91846812,0
-1.2499399,2.5196323,-3.1934986,-0.33086124,0.56481659,-0.7559849,0
3.7589633,-0.60306454,-2.4837391,0.9223938,0.36275113,-0.1326699,0
3.1167374,2.6477122,1.9090677,0.9223938,0.36275113,-0.1326699,0
2.679275,1.9001057,-2.5645497,0.9223938,0.36275113,-0.1326699,0
4.1738997,-0.97450304,0.55958462,0.9223938,0.36275113,-0.1326699,0
-2.7435408,-0.60668468,4.6685348,0.088202119,0.13658804,0.98669356,0
-3.1737959,3.2331066,-0.6750809,-0.38494521,0.89156455,-0.23859987,0
-3.5575986,1.9697204,3.1255188,-0.19446713,0.73291796,0.65193081,0
3.1934531,2.1686759,1.6806023,0.9223938,0.36275113,-0.1326699,0
3.3497107,-3.2779493,-0.76000255,0.34663367,-0.92895049,-0.12998445,0
-4.7959456,2.0659962,-1.8090692,-0.9223938,-0.36275113,0.1326699,0
1.0627722,1.244356,-4.3943005,-0.18872768,0.12358706,-0.97422177,0
-4.7453089,1.7054005,-1.5599884,-0.9223938,-0.36275113,0.1326699,0
-1.5223169,-4.5138001,-1.724699,0.25496453,-0.82984424,-0.49633801,0
2.7636831,0.44577241,3.8331673,0.17609072,-0.089223072,0.980322,0
-3.3721213,1.33184,-3.2224588,-0.31445023,0.50577855,-0.80331123,0
-4.5609198,1.9844098,0.60784078,-0.9223938,-0.36275113,0.1326699,0
4.5900316,-1.6323004,0.68681234,0.9223938,0.36275113,-0.1326699,0
2.4488955,0.73329628,4.0593033,0.1450364,-0.0069381222,0.98940194,0
1.3430746,-2.8511739,-2.8486881,0.19289714,-0.73020607,-0.65543091,0
-3.6086409,1.4715621,-2.9995117,-0.32476467,0.54243982,-0.77478182,0
-3.6482832,1.3709927,3.7207427,-0.13029498,0.61557108,0.77723575,0
3.6738071,-0.93558359,-3.0668137,0.9223938,0.36275113,-0.1326699,0
-2.4735336,1.3899026,3.9356184,-0.08624351,0.52823466,0.84470713,0
-4.1734505,1.7981129,1.6973677,-0.9223938,-0.36275113,0.1326699,0
0.86612463,-3.948463,1.3919449,0.386235,-0.86933905,0.30833742,0
-3.7841697,0.90726042,2.2589371,-0.9223938,-0.36275113,0.1326699,0
-4.4710302,0.67398119,-2.4839482,-0.9223938,-0.36275113,0.1326699,0
4.1203189,-1.2283592,-1.4256694,0.9223938,0.36275113,-0.1326699,0
1.6817939,-3.1959934,2.1224408,0.37863368,-0.78131425,0.49616978,0
-1.8965826,-4.2085977,1.9296032,-0.9223938,-0.36275113,0.1326699,0
-3.356895,-0.6443882,1.8611237,-0.9223938,-0.36275113,0.1326699,0
4.2341185,-0.37941122,1.995904,0.9223938,0.36275113,-0.1326699,0
-2.5375116,-2.0185101,2.794765,-0.9223938,-0.36275113,0.1326699,0
-2.9990444,-1.5752017,1.4520483,-0.9223938,-0.36275113,0.1326699,0
1.8668988,4.1787868,-1.2693573,0.9223938,0.36275113,-0.1326699,0
1.6690693,4.7812395,-1.6379788,0.9223938,0.36275113,-0.1326699,0
-1.1356058,4.0270252,-0.57256281,-0.37735271,0.91962045,-0.10910133,0
0.81221032,-3.0482223,-2.9655776,0.18383574,-0.71438509,-0.67517269,0
2.1438839,3.2473083,-2.7142131,0.9223938,0.36275113,-0.1326699,0
-3.3247657,-2.3879905,-3.3980565,-0.9223938,-0.36275113,0.1326699,0
3.9869976,0.22038984,1.7444198,0.9223938,0.36275113,-0.1326699,0
-3.3040478,3.2907538,0.63853639,-0.35465413,0.93147218,0.081116289,0
3.6694617,-2.8612256,-1.9412804,0.29935062,-0.88843703,-0.34794933,0
2.8852119,0.96228886,-4.1170349,0.9223938,0.36275113,-0.1326699,0
-3.6028233,-1.5337255,-2.2016478,-0.9223938,-0.36275113,0.1326699,0
-4.0486813,0.20834255,-1.3435242,-0.9223938,-0.36275113,0.1326699,0
-1.1560557,3.4044096,-2.4540329,-0.37121648,0.73765814,-0.56396699,0
3.3303797,-0.12431526,-3.3498991,0.9223938,0.36275113,-0.1326699,0
2.7697349,1.4083447,-3.2127805,0.9223938,0.36275113,-0.1326699,0
0.54554081,2.1689935,3.7288744,-0.046402216,0.44506353,0.89429593,0
0.29546785,4.5809383,0.35470486,-0.3438009,0.92761761,0.14603521,0
3.6300893,1.316632,2.9646773,0.9223938,0.36275113,-0.1326699,0
-3.4063909,2.8438087,2.0039797,-0.2878828,0.87465632,0.38999966,0
-0.72931308,-0.44163632,4.4865284,0.13386601,0.021960914,0.99075609,0
3.7144156,1.2632859,2.3125601,0.9223938,0.36275113,-0.1326699,0
1.902122,4.9691834,0.47627532,0.9223938,0.36275113,-0.1326699,0
-2.0375686,2.9331141,2.6346588,-0.22433639,0.78274518,0.58050239,0
-3.568506,0.33389235,2.648901,-0.9223938,-0.36275113,0.1326699,0
-3.4080939,-1.3108573,-1.2835839,-0.9223938,-0.36275113,0.1326699,0
-2.4590654,-3.9992495,-2.2191932,-0.9223938,-0.36275113,0.1326699,0
0.22655272,2.2064795,3.6254535,-0.052847862,0.4587771,0.88697839,0
-1.0865228,2.2058537,3.5941319,-0.10018879,0.55642623,0.82483459,0
0.33369064,-4.1657119,-1.0960264,0.31002808,-0.9001891,-0.30584648,0
-1.9834211,-0.86384916,4.5974188,0.12559736,0.043127865,0.99114341,0
-2.5881419,-2.4928012,1.2442877,-0.9223938,-0.36275113,0.1326699,0
-3.4395549,-1.5134985,-2.2149513,-0.9223938,-0.36275113,0.1326699,0
0.78549957,2.0134871,3.7526193,-0.025872946,0.40073723,0.91582757,0
-1.083252,-2.5754859,-3.4170661,0.0701738,-0.49514955,-0.86596906,0
4.7124047,-2.3274813,-0.090253949,0.9223938,0.36275113,-0.1326699,0
1.9279613,4.895256,1.1277423,-0.29513097,0.88349581,0.36377594,0
-3.0562899,3.3799348,0.43409699,-0.35829282,0.93187284,0.05691421,0
2.1402826,4.3058858,1.0011647,0.9223938,0.36275113,-0.1326699,0
-2.0940397,-2.8029094,3.9691949,-0.9223938,-0.36275113,0.1326699,0
2.8558078,3.2370057,2.115706,0.9223938,0.36275113,-0.1326699,0
-2.6382608,-2.6777682,0.18729478,-0.9223938,-0.36275113,0.1326699,0
1.8129075,-3.1611369,2.0846539,0.37618649,-0.76580477,0.52156174,0
1.2292414,1.7158867,3.9021096,0.019817114,0.29858339,0.95417774,0
2.144443,3.9515791,-0.9778434,0.9223938,0.36275113,-0.1326699,0
-4.7196832,1.5741954,-2.3005342,-0.9223938,-0.36275113,0.1326699,0
2.4333053,4.3428912,2.0702789,0.9223938,0.36275113,-0.1326699,0
-1.3448205,-2.2511656,-3.7081032,0.016054988,-0.3791922,-0.92517865,0
-1.8786879,-4.5163288,0.76480734,-0.9223938,-0.36275113,0.1326699,0
2.4035912,1.2907759,3.9163315,0.088712007,0.13533778,0.98682004,0
0.86004508,-0.94333166,3.9953957,0.22310403,-0.21998584,0.94964767,0
-0.53714752,2.594512,3.3390226,-0.1218074,0.59914142,0.79132318,0
-0.40912771,-2.6650455,-3.3466973,0.10859829,-0.57318741,-0.81219625,0
3.9136574,1.1383967,3.691586,0.16021049,-0.046776116,0.98597395,0
0.29868627,1.4872988,3.9950151,-0.00020974874,0.34395158,0.93898737,0
2.7736146,1.8074626,3.7738512,0.070896685,0.17863998,0.98135692,0
0.49496222,-4.2397881,1.3365903,0.38545579,-0.88651872,0.2559461,0
2.6896484,1.6903832,-2.9403634,0.9223938,0.36275113,-0.1326699,0
1.6327155,3.8647373,-3.3708062,-0.34521028,0.62015402,-0.70444226,0
3.6802313,-0.30247736,-1.6869875,0.9223938,0.36275113,-0.1326699,0
-1.7983308,3.1267638,-2.2532063,-0.37624741,0.76617461,-0.5209744,0
0.042274803,-0.69161493,4.357523,0.18016639,-0.10024771,0.97851437,0
2.462163,2.6079843,-1.4310657,0.9223938,0.36275113,-0.1326699,0
3.3555295,-0.30671835,-3.4835043,0.9223938,0.36275113,-0.1326699,0
-4.5922632,1.3814096,-1.4491818,-0.9223938,-0.36275113,0.1326699,0
-2.9954996,-2.9805446,-3.1637568,-0.9223938,-0.36275113,0.1326699,0
4.720912,-2.2242765,-0.16647625,0.9223938,0.36275113,-0.1326699,0
2.3043423,3.3554182,-1.1386142,0.9223938,0.36275113,-0.1326699,0
3.2644742,0.37837744,-2.5033262,0.9223938,0.36275113,-0.1326699,0
-0.44087791,1.9189086,3.7854767,-0.05818665,0.47006133,0.88071376,0
2.6296794,2.8316305,3.4197483,-0.036481202,0.42376506,0.90503722,0
-3.0996878,-2.5196617,-1.8966957,-0.9223938,-0.36275113,0.1326699,0
1.0869045,-4.1087785,-0.92017961,0.32952189,-0.91823846,-0.2196666,0
-0.57132334,-0.82938802,4.4453502,0.16448803,-0.058131844,0.98466468,0
4.0349097,-1.720526,2.561939,0.34786984,-0.63092405,0.69348496,0
-3.536099,-0.9502964,-0.91661561,-0.9223938,-0.36275113,0.1326699,0
2.6946287,3.7592945,2.3399997,0.9223938,0.36275113,-0.1326699,0
2.519011,-0.68289661,-4.3921347,0.015932441,-0.37892187,-0.92529148,0
-4.7384362,2.0870385,-1.4761591,-0.9223938,-0.36275113,0.1326699,0
1.7254922,3.3542743,-3.7704957,-0.31271628,0.49974561,-0.80775166,0
3.1618156,1.5795305,0.17205134,0.9223938,0.36275113,-0.1326699,0
3.2619665,0.37105894,-2.7927089,0.9223938,0.36275113,-0.1326699,0
-2.7245483,1.9839708,-2.9348702,-0.333224,0.57365203,-0.7482546,0
-2.9281945,-0.50910258,-3.9193823,-0.16871172,0.069400348,-0.98321927,0
-0.48857212,4.3428421,-0.075838923,-0.36624396,0.93051648,-0.0020754933,0
-2.3151629,1.7613366,-3.2794766,-0.31874222,0.52086639,-0.79189754,0
-0.91716433,-4.0413399,2.7446771,0.36955774,-0.72894949,0.57624626,0
4.4829373,-1.8663487,-0.76354015,0.9223938,0.36275113,-0.1326699,0
-2.2334723,2.3539221,3.196579,-0.1737631,0.69647294,0.69622684,0
1.0789437,-2.9963763,2.9565454,0.35245869,-0.64998621,0.67326874,0
-2.0936842,3.8128343,-0.50561941,-0.37854964,0.91725022,-0.1239039,0
-3.6531672,-0.36634636,-0.74710685,-0.9223938,-0.36275113,0.1326699,0
-4.0607147,0.27519655,-1.0190582,-0.9223938,-0.36275113,0.1326699,0
-2.8615367,-3.0456815,-2.1330776,-0.9223938,-0.36275113,0.1326699,0
-3.3060079,-1.4151587,-0.56505346,-0.9223938,-0.36275113,0.1326699,0
1.5777278,4.5088758,-2.741271,0.9223938,0.36275113,-0.1326699,0
0.62887716,-3.2287652,-2.7860224,0.18599623,-0.7181831,-0.6705358,0
-3.069953,-0.90973377,2.5646396,-0.9223938,-0.36275113,0.1326699,0
-1.7884221,-4.6385846,1.9529585,-0.9223938,-0.36275113,0.1326699,0
2.4935169,4.0786018,1.4996988,0.9223938,0.36275113,-0.1326699,0
-0.40232408,-2.3144116,3.8401508,0.28413987,-0.40459645,0.86923313,0
1.980111,-1.4487751,-3.9695711,0.062175572,-0.47844803,-0.87591189,0
4.843092,-2.5544448,0.69587803,0.38562608,-0.88440013,0.26292351,0
-1.7042336,-4.3106375,3.0662711,-0.9223938,-0.36275113,0.1326699,0
-2.7426591,-2.5116067,0.29043961,-0.9223938,-0.36275113,0.1326699,0
0.93915176,4.873539,-0.91498613,-0.38005292,0.91365921,-0.14417493,0
0.11077249,0.53491634,4.1468678,0.078436464,0.16040882,0.98392922,0
-3.9037447,-0.56492901,-2.5463779,-0.9223938,-0.36275113,0.1326699,0
-2.0245841,-4.0959287,0.65794516,-0.9223938,-0.36275113,0.1326699,0
1.9013129,0.034735918,3.9495342,0.18007103,-0.099989042,0.97855848,0
-2.0519705,-4.4018235,0.45913589,-0.9223938,-0.36275113,0.1326699,0
1.4555039,-1.5343672,3.7181997,0.27281585,-0.36871701,0.88860524,0
-3.3207703,-1.2928088,-0.65355194,-0.9223938,-0.36275113,0.1326699,0
-3.272512,1.6001625,-3.018889,-0.32263631,0.53475928,-0.78098553,0
-1.4059882,-0.067358017,4.4028525,0.094192415,0.12185868,0.98806792,0
3.6745286,-1.006247,-3.0715575,0.9223938,0.36275113,-0.1326699,0
0.21205664,4.6067667,-0.97993386,-0.38140011,0.90966016,-0.16447586,0
1.2044549,3.8700376,2.4759443,-0.20042479,0.74312878,0.63842732,0
-0.16536093,4.3872561,0.68722934,-0.33621079,0.92312914,0.18653394,0
2.4324083,4.4052296,1.9732631,0.9223938,0.36275113,-0.1326699,0
-2.2730403,1.4043329,3.86691,-0.079535425,0.51450062,0.85379338,0
-2.96264,3.197737,-0.95438433,-0.385158,0.88964272,-0.24533445,0
-4.2422876,2.3079677,2.3220038,-0.26417416,0.84306544,0.46845773,0
0.50904655,-1.7802985,-3.8337646,0.052886128,-0.45885822,-0.8869341,0
-1.1025561,-1.1532004,-4.0179176,-0.056300908,-0.21354233,-0.97531015,0
-2.3819933,-3.1942358,1.4026999,-0.9223938,-0.36275113,0.1326699,0
3.2005153,0.2251029,-4.0164924,0.9223938,0.36275113,-0.1326699,0
0.28481531,2.9760718,-3.545866,-0.32091141,0.52858043,-0.78588706,0
2.3823676,2.3926418,-3.2856011,0.9223938,0.36275113,-0.1326699,0
-0.27634287,3.8065193,2.1595404,-0.24975455,0.82215804,0.51154542,0
-3.5044661,-0.55616808,1.1573374,-0.9223938,-0.36275113,0.1326699,0
2.2952194,-2.758431,2.3842051,0.36666334,-0.71435165,0.59603661,0
2.8796363,-3.1795073,-1.3505147,0.31302738,-0.90327686,-0.29343623,0
1.7142458,3.3742828,-3.936312,-0.31665489,0.51350057,-0.79752547,0
2.7517333,2.0583508,-1.3467555,0.9223938,0.36275113,-0.1326699,0
-3.4006107,1.9182596,3.32587,-0.17165107,0.69267493,0.70052636,0
-2.6681213,-1.9582524,1.9947591,-0.9223938,-0.36275113,0.1326699,0
1.558722,4.0179071,2.3645489,-0.1997211,0.74192929,0.64004099,0
0.58064175,-1.3222562,4.0698586,0.23994839,-0.26898795,0.93277556,0
-3.1533918,-0.013763428,3.7538171,-0.9223938,-0.36275113,0.1326699,0
1.5677836,2.5633914,3.4425406,-0.047347307,0.44708046,0.89323974,0
-1.5006502,0.58644414,-3.9266591,-0.20850345,0.17848986,-0.96159637,0
4.4788504,-1.6956801,0.031547904,0.9223938,0.36275113,-0.1326699,0
-2.1518736,3.7252183,-0.53630614,-0.37905669,0.91612446,-0.1305066,0
-2.6866374,-1.384052,4.2279968,-0.9223938,-0.36275113,0.1326699,0
0.26939034,-0.60448378,4.1854887,0.18242171,-0.10637197,0.97744948,0
2.0989833,3.7405381,-2.3063588,0.9223938,0.36275113,-0.1326699,0
3.8881528,-2.2846594,1.853492,0.37577242,-0.76331121,0.52550083,0
3.0041819,2.161737,0.66670525,0.9223938,0.36275113,-0.1326699,0
-0.69062281,-4.4865899,-1.1810501,0.30289388,-0.89246118,-0.33431759,0
2.0089614,4.1812062,-1.3093443,0.9223938,0.36275113,-0.1326699,0
1.5358274,4.1629705,-3.0122118,-0.36660588,0.71406877,-0.59641087,0
-2.8856761,-0.018924952,-3.8935223,-0.2038779,0.16551886,-0.9649027,0
2.5592825,2.1391966,-2.2808349,0.9223938,0.36275113,-0.1326699,0
1.1104693,-4.0998721,0.062375426,0.36457622,-0.93110698,-0.011134923,0
-1.1049445,0.32171094,-4.0999961,-0.17955635,0.09859404,-0.97879446,0
4.2989926,-0.53961134,2.5505455,0.9223938,0.36275113,-0.1326699,0
-3.5495455,0.051937103,2.4675269,-0.9223938,-0.36275113,0.1326699,0
0.74650884,1.9076746,3.7924919,-0.020033538,0.38794976,0.92146271,0
3.923336,-2.9432051,0.18562186,0.37813282,-0.9181186,0.11863238,0
1.5938128,-0.79164457,-4.0929384,0.00039595366,-0.34436911,-0.93883431,0
2.0673866,3.6535904,-1.4102839,0.9223938,0.36275113,-0.1326699,0
2.760355,-3.5383236,0.23350537,0.37643969,-0.92119545,0.098447472,0
-2.4274802,-3.9132061,-1.1467839,-0.9223938,-0.36275113,0.1326699,0
2.6063862,1.2566278,-4.116168,0.9223938,0.36275113,-0.1326699,0
3.381588,-1.0169277,3.2570493,0.28985068,-0.42304343,0.85849929,0
-1.4000859,-4.8428717,2.1303337,0.38511395,-0.83739281,0.38789219,0
-1.6773884,3.2495909,2.1180282,-0.26485103,0.8440178,0.46635583,0
1.7383866,4.2111483,-2.2832651,0.9223938,0.36275113,-0.1326699,0
-0.24054307,-1.1714439,4.1897449,0.20165899,-0.15932532,0.96641046,0
-2.5446117,-3.4669304,-0.31930918,-0.9223938,-0.36275113,0.1326699,0
-3.7176275,0.45501757,2.3520279,-0.9223938,-0.36275113,0.1326699,0
3.2897608,0.74901724,-1.5237486,0.9223938,0.36275113,-0.1326699,0
0.96012217,-1.1989361,3.8867991,0.24730918,-0.29081786,0.92426366,0
-2.9473817,3.0886328,-1.1981844,-0.38615,0.85820222,-0.33819693,0
2.253221,-0.44255209,-4.4101529,-0.008792758,-0.323672,-0.94612849,0
-1.1485577,3.9715767,1.0043768,-0.32122451,0.91117185,0.25803208,0
3.7644141,-0.97790289,3.2850292,0.29398352,-0.4365544,0.85029054,0
-3.0762691,-0.79447603,2.7076221,-0.9223938,-0.36275113,0.1326699,0
4.2101426,-0.083194256,2.49793,0.9223938,0.36275113,-0.1326699,0
0.67871499,3.2259355,-3.4598668,-0.33132562,0.56654584,-0.75448596,0
-3.3061149,1.8928854,-2.7196758,-0.34602579,0.62343663,-0.70113683,0
2.3095603,0.42842174,-4.6130366,-0.073823571,-0.17157926,-0.98240042,0
-1.5599663,3.6959646,-1.4530134,-0.38576144,0.84789366,-0.36368176,0
4.3325796,-2.8903193,-0.74452364,0.35160196,-0.93075323,-0.10037202,0
3.6183939,0.24768019,0.19780125,0.9223938,0.36275113,-0.1326699,0
-0.040476799,-4.4121346,1.3391513,0.38524026,-0.88883853,0.24810478,0
2.2396381,-3.6937857,-0.097399116,0.3661589,-0.93055123,0.0013886094,0
-2.5073347,-2.0845742,2.675442,-0.9223938,-0.36275113,0.1326699,0
2.2476845,2.6559553,-4.1509571,0.9223938,0.36275113,-0.1326699,0
-3.8568258,-0.98892474,-3.7155576,-0.1722776,0.078957751,-0.98187888,0
-2.0491283,-1.9582715,4.5724907,0.20684996,-0.1738438,0.96280396,0
0.90627825,-0.30411315,4.0889683,0.18242541,-0.10638199,0.97744763,0
-3.9539347,-0.40312862,-2.0259175,-0.9223938,-0.36275113,0.1326699,0
2.987792,-3.2105989,1.1183254,0.38616753,-0.87321866,0.29726055,0
-3.4144578,-1.0543585,-3.8020351,-0.13874511,-0.0093816221,-0.99028373,0
-0.95743537,3.8994701,-1.7841668,-0.384951,0.8352046,-0.39274171,0
-1.9174687,2.2168252,-3.1848495,-0.33147869,0.5671165,-0.75398988,0
0.79037666,1.2198631,4.0568671,0.039150596,0.25390598,0.96643621,0
3.9334512,-2.9358833,0.20138311,0.37772429,-0.91892427,0.11358878,0
-3.6019363,-0.42865324,0.15770727,-0.9223938,-0.36275113,0.1326699,0
-1.8424911,-4.7687607,0.49463975,-0.9223938,-0.36275113,0.1326699,0
-0.75762796,-4.7867403,0.65572989,0.37381405,-0.92484146,0.070222884,0
3.3002791,1.6182518,0.39768147,0.9223938,0.36275113,-0.1326699,0
-2.6318057,-0.089640617,4.6078482,0.047917873,0.23335865,0.97120941,0
-4.2996635,0.54659224,-1.7113868,-0.9223938,-0.36275113,0.1326699,0
-4.5361671,2.2405853,1.1675699,-0.9223938,-0.36275113,0.1326699,0
-1.410832,1.0587466,4.1831813,-0.016468167,0.38010332,0.92479742,0
0.37720084,-3.5924697,2.7846575,0.36567295,-0.70950657,0.6023984,0
-3.9477618,1.156291,2.2561729,-0.9223938,-0.36275113,0.1326699,0
-1.5544705,3.3154073,-2.3138642,-0.37551522,0.76177901,-0.52790236,0
1.8787986,-1.2246301,-3.9974849,0.05688554,-0.46731746,-0.88225758,0
2.1739829,-2.7795713,-2.578608,0.22784692,-0.78836465,-0.57146025,0
-0.48512149,-1.9421315,-3.8436179,0.023779809,-0.39616254,-0.91787243,0
-3.5153332,-0.21260452,1.5513709,-0.9223938,-0.36275113,0.1326699,0
-1.9852548,-4.7631631,-0.78150117,-0.9223938,-0.36275113,0.1326699,0
-2.4053886,-3.5472813,-0.10830331,-0.9223938,-0.36275113,0.1326699,0
4.7801461,-2.6623507,-0.80751741,0.9223938,0.36275113,-0.1326699,0
4.2725182,-1.3844891,-1.1036514,0.9223938,0.36275113,-0.1326699,0
0.40093541,-3.7193084,2.5422091,0.37335384,-0.74933213,0.5469079,0
-3.1162393,-1.4173272,0.89795089,-0.9223938,-0.36275113,0.1326699,0
2.7221456,2.4433849,-0.85150629,0.9223938,0.36275113,-0.1326699,0
1.7723881,1.3718306,4.0488009,0.06661436,0.18893321,0.97972792,0
-3.7333221,0.97392368,3.1054869,-0.9223938,-0.36275113,0.1326699,0
2.922956,-2.0223155,-3.4019201,0.16566485,-0.68183315,-0.71250165,0
-0.83167505,-2.0080719,-3.7297232,0.01631248,-0.37975997,-0.92494124,0
-0.19753838,4.3970857,-0.31430686,-0.36906713,0.92904663,-0.025722623,0
0.3042922,3.9100661,2.2684696,-0.229096,0.79035127,0.56820762,0
2.2495995,4.2452598,0.42478299,0.9223938,0.36275113,-0.1326699,0
-2.8001156,-2.5186422,0.6456787,-0.9223938,-0.36275113,0.1326699,0
0.0017895699,4.5309334,-0.17377925,-0.36593252,0.93064123,0.00043129921,0
3.289875,-1.7086115,-3.6568017,0.13634843,-0.62716776,-0.76685703,0
4.4255595,-0.94676924,1.2741306,0.9223938,0.36275113,-0.1326699,0
-2.7223001,2.3324356,3.1443353,-0.18080467,0.70903045,0.68160498,0
-1.8634999,-3.4769101,3.4215746,-0.9223938,-0.36275113,0.1326699,0
-0.028393745,-2.8319407,-3.196291,0.12678015,-0.60879111,-0.78313482,0
-2.6016598,-1.8999236,3.3772867,-0.9223938,-0.36275113,0.1326699,0
-3.611824,-1.2226589,-2.3575826,-0.9223938,-0.36275113,0.1326699,0
1.6321583,-2.116473,3.2519178,0.32043171,-0.52686918,0.78723091,0
2.5365186,0.4034909,3.8494732,0.16435932,-0.057789285,0.98470628,0
-0.24132586,3.1096373,2.7714214,-0.17379951,0.69653833,0.69615221,0
3.5497291,1.6424358,2.1047287,0.9223938,0.36275113,-0.1326699,0
2.306078,-3.0880454,1.7254733,0.38273877,-0.81218433,0.44030398,0
-3.2670023,-0.44723845,2.539259,-0.9223938,-0.36275113,0.1326699,0
2.4680803,-3.116327,-1.993315,0.27914512,-0.86346012,-0.42013627,0
2.7932615,2.4763398,0.03747803,0.9223938,0.36275113,-0.1326699,0
4.3350658,-2.1349702,-1.3411962,0.9223938,0.36275113,-0.1326699,0
-1.6235437,0.58884603,-4.030355,-0.21815346,0.20581904,-0.95396411,0
3.859189,-1.8906317,-3.2321501,0.19141859,-0.72764426,-0.65870523,0
-2.8878174,-0.90412235,3.854604,-0.9223938,-0.36275113,0.1326699,0
3.2419262,0.014928818,-3.3773639,0.9223938,0.36275113,-0.1326699,0
-0.031541705,1.2504768,-4.1733332,-0.2258649,0.22793141,-0.94711787,0
3.1139498,2.9532685,2.9779391,0.9223938,0.36275113,-0.1326699,0
1.845962,3.4061708,-3.558387,0.9223938,0.36275113,-0.1326699,0
-3.9341474,0.15840721,-0.037534639,-0.9223938,-0.36275113,0.1326699,0
-3.2302504,0.12715244,3.6453724,-0.9223938,-0.36275113,0.1326699,0
3.8930993,-0.43180752,0.21492216,0.9223938,0.36275113,-0.1326699,0
1.3624489,2.674665,3.4460905,-0.073531032,0.50211346,0.86167002,0
3.084053,0.61939716,-3.0732274,0.9223938,0.36275113,-0.1326699,0
-2.7049096,-1.6053002,3.9087069,-0.9223938,-0.36275113,0.1326699,0
2.7239285,2.8368168,0.28522384,0.9223938,0.36275113,-0.1326699,0
1.6677418,4.731916,1.547569,-0.27086914,0.85236311,0.44733316,0
-1.067842,-0.40501904,4.4239702,0.12059745,0.055836558,0.99112993,0
2.0484042,-3.7296119,0.65444601,0.38255942,-0.90536958,0.18426639,0
2.4247272,3.4083202,-0.036717415,0.9223938,0.36275113,-0.1326699,0
2.2539806,3.0118098,-2.7043157,0.9223938,0.36275113,-0.1326699,0
1.5089176,-2.0361738,3.3042057,0.31621039,-0.51193899,0.79870486,0
-3.112874,2.137059,3.2641892,-0.18626195,0.71864903,0.66996253,0
2.1619833,2.6231642,-4.3113837,0.9223938,0.36275113,-0.1326699,0
-2.2891054,-3.7335634,-0.3628037,-0.9223938,-0.36275113,0.1326699,0
-0.62108183,4.0722432,1.2010124,-0.30535281,0.89518291,0.3246645,0
-3.0854671,-2.3555081,-1.0850427,-0.9223938,-0.36275113,0.1326699,0
-4.0085182,0.090521336,-1.2233638,-0.9223938,-0.36275113,0.1326699,0
-4.03337,-0.047092915,-1.7029969,-0.9223938,-0.36275113,0.1326699,0
-0.22853708,-1.123847,-4.1895676,-0.039029479,-0.25418872,-0.96636677,0
-3.15553,-0.48098135,3.7100198,-0.9223938,-0.36275113,0.1326699,0
1.0568132,-1.7306221,-3.9036679,0.063681364,-0.4816041,-0.87407207,0
4.361558,-1.0161595,0.99618447,0.9223938,0.36275113,-0.1326699,0
-4.6796236,1.2110686,-2.3491914,-0.9223938,-0.36275113,0.1326699,0
2.0526152,2.2266974,-4.5226054,-0.22682872,0.23071283,-0.9462136,0
-4.0615234,0.63645172,-3.2068992,-0.29324001,0.43411344,-0.85179567,0
2.980653,1.634129,-1.9195815,0.9223938,0.36275113,-0.1326699,0
1.4165158,0.77325654,-4.4922853,-0.1477261,0.013950042,-0.98892993,0
-2.3218832,-3.0388832,2.5886137,-0.9223938,-0.36275113,0.1326699,0
1.2223043,-3.4621031,2.3045945,0.37608755,-0.76520622,0.52251071,0
2.5571277,2.8748348,-1.4721725,0.9223938,0.36275113,-0.1326699,0
0.029678345,4.4126759,-1.2250384,-0.38485086,0.89235222,-0.23579052,0
0.83402348,3.2442007,2.9572029,-0.14335632,0.64046419,0.75448954,0
3.9348323,0.093990803,1.4361031,0.9223938,0.36275113,-0.1326699,0
2.9595873,2.2489438,3.6570315,0.023290515,0.29062065,0.95655483,0
-2.6624835,-2.2446961,1.0474515,-0.9223938,-0.36275113,0.1326699,0
1.875489,4.2731652,-1.9920671,0.9223938,0.36275113,-0.1326699,0
1.6259631,-1.5349755,-3.9547606,0.058306456,-0.47031367,-0.88057107,0
-2.593013,-1.9084541,-3.8323879,-0.044141054,-0.24223225,-0.96921366,0
2.9191988,1.2284589,3.8165555,0.11350933,0.073738158,0.9907968,0
-3.9056449,0.75750494,1.1061054,-0.9223938,-0.36275113,0.1326699,0
1.8109109,2.6414976,3.4866009,-0.043674767,0.43923119,0.89731175,0
-1.8994014,2.5655982,-2.8304029,-0.3466391,0.6259166,-0.6986199,0
0.16522503,-1.7889645,4.0862422,0.26365101,-0.34029424,0.90260065,0
1.4303815,-4.025147,0.89655828,0.38319165,-0.90255791,0.19635001,0
3.1650019,-2.3449898,-2.9691768,0.20636171,-0.75317317,-0.62461585,0
-1.0685835,-4.5582409,2.1734219,0.38372099,-0.82135415,0.42206085,0
3.9266515,-0.043268681,0.23123309,0.9223938,0.36275113,-0.1326699,0
-0.5598588,1.508196,-4.0764856,-0.25466314,0.31290257,-0.91500747,0
1.7687933,-3.5779245,-1.3509021,0.30838656,-0.89845765,-0.31252435,0
3.5018735,-2.1633949,2.2936757,0.36534595,-0.70792234,0.60445702,0
0.3946228,-3.9218473,-1.9282978,0.26339138,-0.84196055,-0.47087935,0
-2.971771,-2.9146168,-2.9710841,-0.9223938,-0.36275113,0.1326699,0
2.1067457,3.8994625,-1.5077907,0.9223938,0.36275113,-0.1326699,0
0.95771646,-1.306802,-4.1276207,0.015195012,-0.37729445,-0.92596871,0
-3.1705496,-1.2280545,0.41785881,-0.9223938,-0.36275113,0.1326699,0
-2.1765981,-3.9729133,-0.34497583,-0.9223938,-0.36275113,0.1326699,0
1.9966929,-1.9624894,3.2992535,0.31967616,-0.52418023,0.78933024,0
-2.68313,-2.9854665,-1.0101192,-0.9223938,-0.36275113,0.1326699,0
2.5026503,3.5308428,0.42214471,0.9223938,0.36275113,-0.1326699,0
-2.1205957,-3.0755429,2.4754024,-0.9223938,-0.36275113,0.1326699,0
0.61962295,1.1892422,-4.3969436,-0.19249116,0.13392663,-0.97211671,0
1.7713661,5.0078807,-0.0085917711,0.9223938,0.36275113,-0.1326699,0
0.72994566,4.8164606,-0.86451101,-0.37680608,0.92058539,-0.10266253,0
-4.6995087,1.3249063,-2.3679986,-0.9223938,-0.36275113,0.1326699,0
1.0744061,-3.6905048,-1.6016659,0.29208744,-0.87983644,-0.37493014,0
2.6689892,2.5601718,-0.4802202,0.9223938,0.36275113,-0.1326699,0
-3.8882492,0.46307087,-0.030882418,-0.9223938,-0.36275113,0.1326699,0
-3.1048384,3.1409488,1.1462821,-0.3301174,0.91870534,0.21680145,0
0.27337599,4.4503307,-1.7231457,-0.38607424,0.85549659,-0.34506831,0
-3.1180165,-1.5724113,-0.15036735,-0.9223938,-0.36275113,0.1326699,0
-3.4349084,0.66901779,-3.4245675,-0.27532601,0.37659457,-0.88451803,0
-1.1358986,-0.84510016,-4.0350676,-0.088774055,-0.13518558,-0.98683536,0
-1.192591,2.2635648,3.4693217,-0.11474723,0.58532661,0.80263674,0
2.9238002,3.0822539,2.6217027,0.9223938,0.36275113,-0.1326699,0
-1.7052836,-5.1329103,0.21553171,0.35757405,-0.93183678,-0.06181255,0
-4.1204844,-0.30596304,-3.2868104,-0.9223938,-0.36275113,0.1326699,0
3.588145,-0.33557081,-2.12604,0.9223938,0.36275113,-0.1326699,0
-3.4003904,-0.74852347,0.25970685,-0.9223938,-0.36275113,0.1326699,0
2.8030746,3.2893562,1.5019547,0.9223938,0.36275113,-0.1326699,0
-1.3959708,3.1664581,-2.4810159,-0.37117523,0.73743844,-0.56428134,0
-1.6828506,1.3677882,-3.638736,-0.27611074,0.37906584,-0.8832168,0
-3.3851748,-1.5036631,-0.79332453,-0.9223938,-0.36275113,0.1326699,0
-2.1931982,3.6826122,-0.75978637,-0.38233763,0.9062674,-0.18026966,0
4.4465771,-0.78549623,3.0209169,0.31145513,-0.49537918,0.81092238,0
-4.655158,2.2345815,-1.6281855,-0.37896174,0.78351355,-0.49243718,0
2.1034217,-2.1686554,2.9952333,0.33786085,-0.59128559,0.73227817,0
-2.8982935,-1.2688327,2.3254199,-0.9223938,-0.36275113,0.1326699,0
-4.6220059,2.274899,-1.6196051,-0.38071072,0.7958836,-0.47077438,0
-3.3381407,-2.4554479,-2.8376119,-0.9223938,-0.36275113,0.1326699,0
3.2749341,-2.9004271,1.7244921,0.38235736,-0.80889696,0.4466413,0
-3.1372759,0.14081573,4.2318211,-0.9223938,-0.36275113,0.1326699,0
4.2166562,-0.045789719,2.6593785,0.9223938,0.36275113,-0.1326699,0
0.94310474,3.3633325,-3.6466851,-0.3270126,0.55062383,-0.76803398,0
1.283318,-1.6912301,3.6319613,0.28078228,-0.39386457,0.87523258,0
0.94730926,-1.8647875,-3.7844539,0.070634067,-0.49610573,-0.86538422,0
-3.06286,-1.2817867,0.99691826,-0.9223938,-0.36275113,0.1326699,0
-3.6158614,-0.88869381,-3.8218527,-0.15847847,0.042194173,-0.98646039,0
1.2503444,-0.56367886,4.1309161,0.19810948,-0.14945552,0.96871865,0
-2.4421797,-2.4430306,3.3251281,-0.9223938,-0.36275113,0.1326699,0
-2.8900492,0.96433783,4.1066427,-0.066565514,0.48763376,0.87050688,0
-2.0376761,2.3510764,3.2123818,-0.1638999,0.67861509,0.71597368,0
-2.1928048,-4.2210498,0.0066212416,-0.9223938,-0.36275113,0.1326699,0
-1.3253045,-5.0136919,0.88632679,0.37868738,-0.91695225,0.12567556,0
2.0681837,-2.9177566,2.2845182,0.37079906,-0.73544025,0.56712937,0
2.428333,0.26846552,-4.4919891,-0.065491349,-0.19162522,-0.97928065,0
-2.7462733,-2.6770356,-3.4740052,0.015137315,-0.37716705,-0.92602146,0
-1.9499187,-3.6743398,2.8299351,-0.9223938,-0.36275113,0.1326699,0
-2.7623672,-0.99343932,-3.9872727,-0.13022806,-0.031296939,-0.99098998,0
2.2927203,2.7969809,-2.3308692,0.9223938,0.36275113,-0.1326699,0
0.28812551,-4.3671489,-0.77548939,0.33455652,-0.92199415,-0.19493206,0
-4.5722589,1.3893027,-2.5837016,-0.34011424,0.60000885,-0.72409356,0
1.9630876,4.5803328,-0.7582339,0.9223938,0.36275113,-0.1326699,0
-4.5578308,2.0873909,0.24349332,-0.9223938,-0.36275113,0.1326699,0
3.939935,0.82276034,2.853725,0.9223938,0.36275113,-0.1326699,0
2.894825,2.4569821,1.1384265,0.9223938,0.36275113,-0.1326699,0
-0.96892917,1.0300874,4.1547613,0.0018751025,0.33927184,0.94068646,0
-4.1847572,2.4675498,2.3241234,-0.26792085,0.84830254,0.4567287,0
4.0223951,-0.48392725,0.3391965,0.9223938,0.36275113,-0.1326699,0
-2.6080227,-2.1418557,-3.7193403,-0.024414897,-0.28803721,-0.95730793,0
-4.0342093,2.9957366,1.0880862,-0.34295171,0.92717928,0.15074049,0
-0.13661671,4.394321,-0.99524736,-0.38225275,0.90660071,-0.17876786,0
-0.31398773,4.2560501,0.67948854,-0.33258349,0.92057484,0.20476861,0
4.5725479,-0.85847998,2.9518156,0.9223938,0.36275113,-0.1326699,0
4.0622854,-2.1583862,-2.946171,0.21911085,-0.77428335,-0.59369671,0
-2.0369961,-2.6335001,-3.602921,0.032129109,-0.41434926,-0.90955067,0
-1.6703281,-4.7169085,2.275846,-0.9223938,-0.36275113,0.1326699,0
3.4948039,1.0740139,0.20769954,0.9223938,0.36275113,-0.1326699,0
-4.2350168,0.47647476,-1.5292717,-0.9223938,-0.36275113,0.1326699,0
1.8859544,-3.5217071,-1.7042476,0.28993094,-0.87719721,-0.38270766,0
2.6033609,1.5735354,-3.2958474,0.9223938,0.36275113,-0.1326699,0
-0.8859973,-4.9873934,1.049155,0.38070589,-0.91183031,0.15371493,0
2.4884982,1.4089987,-4.616034,-0.16403741,0.056932915,-0.98480982,0
4.2757783,-1.6631665,-0.64550596,0.9223938,0.36275113,-0.1326699,0
-3.6268954,-1.6851983,-3.6087177,-0.9223938,-0.36275113,0.1326699,0
3.5682323,-2.6726129,1.5198214,0.38422084,-0.82655489,0.41131648,0
2.1580501,2.9127653,-3.4294524,0.9223938,0.36275113,-0.1326699,0
3.6157482,1.3760293,3.1238942,0.9223938,0.36275113,-0.1326699,0
3.3218503,1.6165905,0.79107326,0.9223938,0.36275113,-0.1326699,0
2.1715662,3.5773737,2.8912747,-0.1284945,0.61210233,0.78026909,0
3.7249632,-0.092441559,-0.88217783,0.9223938,0.36275113,-0.1326699,0
0.41096449,2.2628896,3.5797205,-0.062169611,0.47843546,0.8759191,0
4.1967692,-1.6966991,-1.6773703,0.9223938,0.36275113,-0.1326699,0
-1.7080209,-2.7067919,-3.5556819,0.05344969,-0.46005249,-0.88628143,0
-0.72995424,3.8793507,1.6005855,-0.28897965,0.87602121,0.38610563,0
-3.0435896,0.041519642,-3.7247019,-0.21674258,0.20180002,-0.95514369,0
-1.8965077,-4.7877188,-0.22990751,-0.9223938,-0.36275113,0.1326699,0
2.1164212,-3.4441054,1.235817,0.38622677,-0.86240292,0.32724589,0
-2.8830173,-2.1149616,-3.7810922,-0.043005049,-0.24489498,-0.96859539,0
-3.0548725,-2.4599278,-1.1887281,-0.9223938,-0.36275113,0.1326699,0
4.5245938,-0.83343172,2.7674141,0.9223938,0.36275113,-0.1326699,0
2.9946771,0.82576275,3.8318567,0.14715807,-0.012467511,0.98903441,0
2.2590802,3.1453364,-2.8038411,0.9223938,0.36275113,-0.1326699,0
2.7369828,1.6951501,-3.3800056,0.9223938,0.36275113,-0.1326699,0
4.1144371,-0.4956646,0.46390185,0.9223938,0.36275113,-0.1326699,0
1.1026716,-3.9528384,-1.0737872,0.32464802,-0.91420978,-0.24253637,0
-2.2541914,-3.6680431,0.69035745,-0.9223938,-0.36275113,0.1326699,0
3.7156787,-0.56835127,-1.4081194,0.9223938,0.36275113,-0.1326699,0
3.4969954,1.6444921,2.6053038,0.9223938,0.36275113,-0.1326699,0
0.89644814,-2.7233415,3.1213653,0.34108081,-0.60378373,0.72049212,0
2.2550254,4.2184215,0.21339107,0.9223938,0.36275113,-0.1326699,0
-0.53577495,1.3083352,3.9893126,-0.012827039,0.37206009,0.92812002,0
-2.3088658,-2.9379356,2.3756652,-0.9223938,-0.36275113,0.1326699,0
3.5162182,1.6238048,1.9590793,0.9223938,0.36275113,-0.1326699,0
2.7582822,2.8371143,0.32462913,0.9223938,0.36275113,-0.1326699,0
-1.6236186,-4.5379124,2.1192605,-0.9223938,-0.36275113,0.1326699,0
-3.7150517,1.239646,3.4000793,-0.9223938,-0.36275113,0.1326699,0
2.8146873,-0.94888449,-4.0451412,0.05611217,-0.46568459,-0.88317001,0
2.2285585,2.5670285,3.5046918,-0.017357528,0.38206342,0.92397302,0
1.9190958,3.9947157,-2.8330445,0.9223938,0.36275113,-0.1326699,0
2.1907825,3.9269772,-0.88462925,0.9223938,0.36275113,-0.1326699,0
-3.471776,1.267097,3.8152058,-0.120529,0.59664971,0.79339892,0
2.1615431,1.7503626,3.8976276,0.053444535,0.22031301,0.97396398,0
0.66877508,4.0205832,1.9841816,-0.23957276,0.80673611,0.54016817,0
-0.35691214,4.3550177,-0.84451675,-0.37883276,0.9166311,-0.12756526,0
2.0575142,-0.83395386,-4.2058411,0.021746993,-0.39171007,-0.91983169,0
-0.99676538,0.75494385,4.3227663,0.034323037,0.26514345,0.96359783,0
0.28022242,-3.3363762,2.9579403,0.35481188,-0.66002846,0.66217142,0
0.35186243,-4.3720031,-0.50398016,0.34393406,-0.9276849,-0.1452928,0
1.9683609,4.8943048,1.3391867,0.9223938,0.36275113,-0.1326699,0
1.0770688,-1.5756316,3.8855057,0.27154744,-0.36475199,0.89062786,0
-3.8726053,-0.65702224,-2.9534383,-0.9223938,-0.36275113,0.1326699,0
-4.0897899,1.6335306,2.3633375,-0.9223938,-0.36275113,0.1326699,0
2.4595757,4.0564046,2.3800321,0.9223938,0.36275113,-0.1326699,0
3.6718469,0.65952945,1.1593506,0.9223938,0.36275113,-0.1326699,0
3.5875568,0.31745338,-0.10306288,0.9223938,0.36275113,-0.1326699,0
3.5206726,-3.0651987,-0.94408083,0.33782536,-0.92418593,-0.17819721,0
4.2754102,-1.9306045,-2.6876624,0.9223938,0.36275113,-0.1326699,0
-2.1788731,-4.2894688,-1.1149092,-0.9223938,-0.36275113,0.1326699,0
-4.507618,2.0156813,0.58536571,-0.9223938,-0.36275113,0.1326699,0
1.6346331,4.9282026,-0.81728888,0.9223938,0.36275113,-0.1326699,0
2.7933588,2.4508054,-0.60084033,0.9223938,0.36275113,-0.1326699,0
-0.85579205,4.2069378,-0.16143203,-0.36802119,0.9296664,-0.016755283,0
3.0333686,-2.4519453,2.1475589,0.37130213,-0.73811537,0.56331205,0
3.8229847,0.81264853,2.3321805,0.9223938,0.36275113,-0.1326699,0
-2.7755437,1.203233,3.8483791,-0.08256197,0.52071095,0.84973145,0
-3.3548377,-1.2909658,-0.74309379,-0.9223938,-0.36275113,0.1326699,0
3.4670014,0.22875357,-2.05726,0.9223938,0.36275113,-0.1326699,0
2.2215729,-0.93918872,-4.1571984,0.0288046,-0.4071272,-0.91291714,0
2.9208243,1.251076,-2.8462722,0.9223938,0.36275113,-0.1326699,0
-3.8905642,-0.021360874,-1.3592154,-0.9223938,-0.36275113,0.1326699,0
2.8586385,3.3786781,3.0212927,0.9223938,0.36275113,-0.1326699,0
-3.9021039,-0.70483899,-3.0120828,-0.9223938,-0.36275113,0.1326699,0
-1.4223258,-0.87686133,-3.9487143,-0.093746871,-0.12295731,-0.98797417,0
-0.020280838,-2.5680883,-3.4913597,0.097269833,-0.55056584,-0.8291055,0
-2.1710601,2.0073781,-3.1261673,-0.3276965,0.55312878,-0.76593965,0
0.13701773,4.5131879,0.48399127,-0.33708966,0.92371076,0.18201311,0
1.8064866,4.3442736,-1.8812921,0.9223938,0.36275113,-0.1326699,0
3.3525741,-0.10684776,-2.8673074,0.9223938,0.36275113,-0.1326699,0
3.713516,0.8371973,1.2919223,0.9223938,0.36275113,-0.1326699,0
-2.6058333,3.5407386,-0.12802947,-0.37579262,0.92220706,-0.091181666,0
3.007962,0.42359161,-3.695442,0.9223938,0.36275113,-0.1326699,0
-3.7520862,-1.5263822,-3.7864892,-0.9223938,-0.36275113,0.1326699,0
-3.4123907,-2.0054903,-2.5942566,-0.9223938,-0.36275113,0.1326699,0
-1.8072596,-4.7575464,1.3645602,-0.9223938,-0.36275113,0.1326699,0
-2.1582968,-2.545186,3.8122749,-0.9223938,-0.36275113,0.1326699,0
2.6899192,1.5205243,-3.4400251,0.9223938,0.36275113,-0.1326699,0
-3.6750932,0.62572765,2.0340874,-0.9223938,-0.36275113,0.1326699,0
-2.2194228,-3.6582327,-3.010179,0.12871557,-0.61252862,-0.77989805,0
1.1045935,-1.4161221,-3.881712,0.035005391,-0.42057714,-0.90658116,0
-1.3858522,1.4191556,-3.6977661,-0.27330837,0.37025934,-0.8878122,0
3.8088341,-3.0088513,0.3024621,0.37999946,-0.91380143,0.14341351,0
-1.8047166,-4.9904718,0.17000401,-0.9223938,-0.36275113,0.1326699,0
4.445569,-1.5337715,0.25446415,0.9223938,0.36275113,-0.1326699,0
2.6562684,1.4415615,-4.0022869,0.9223938,0.36275113,-0.1326699,0
3.3484359,-2.3028038,-3.0344999,0.20544463,-0.75163031,-0.62677288,0
-3.3378129,-0.53645992,1.1052204,-0.9223938,-0.36275113,0.1326699,0
2.0977063,4.7178979,1.717369,-0.24301159,0.8120023,0.53065759,0
-1.1557846,0.46371174,-4.147377,-0.19714192,0.1467731,-0.96932596,0
0.53553367,2.6819935,-3.9045024,-0.29573971,0.44233888,-0.84668422,0
2.6897011,1.3063009,-4.0030036,0.9223938,0.36275113,-0.1326699,0
-2.0413857,-2.9364285,3.8949008,-0.9223938,-0.36275113,0.1326699,0
-3.2449927,1.205215,-3.3740699,-0.29556689,0.44176859,-0.84704232,0
2.3850315,2.9598494,-1.4762331,0.9223938,0.36275113,-0.1326699,0
-4.1434379,1.505753,2.3611462,-0.9223938,-0.36275113,0.1326699,0
-1.1917796,-1.4368658,-3.9520841,-0.03327626,-0.26757282,-0.96296287,0
3.4684155,-3.0495546,-0.99006033,0.34205967,-0.92670029,-0.15563348,0
3.3889537,-1.9105763,2.6404588,0.34919196,-0.63635093,0.68783885,0
-3.0434034,3.1113324,1.4003167,-0.31639928,0.90662467,0.27914703,0
1.9260931,-2.5915153,2.9048271,0.35147974,-0.64586473,0.67773199,0
2.9403369,1.3605018,-2.872467,0.9223938,0.36275113,-0.1326699,0
4.5813112,-1.4540491,1.5273654,0.9223938,0.36275113,-0.1326699,0
-0.45237112,-3.1129551,-2.9896667,0.14017922,-0.63445354,-0.7601437,0
3.99173,-1.235765,-2.2409122,0.9223938,0.36275113,-0.1326699,0
-3.2789898,-1.0198932,1.0704415,-0.9223938,-0.36275113,0.1326699,0
-2.2827754,-4.6439619,-1.8561834,-0.9223938,-0.36275113,0.1326699,0
-1.3646035,-4.0474329,-2.4744802,0.20007676,-0.74253565,-0.63922614,0
0.30951452,4.679903,-0.11515749,-0.35844618,0.93187761,0.055861503,0
3.0239201,-1.8134009,3.0389943,0.3318716,-0.56858313,0.75271147,0
1.3175826,5.0697594,-0.45795596,-0.36849445,0.92939758,-0.020780802,0
-4.3178363,1.8246555,1.3716912,-0.9223938,-0.36275113,0.1326699,0
-1.0061378,-3.8535113,3.0194249,0.35947093,-0.68054533,0.63846588,0
-4.152523,1.6353712,2.6038165,-0.9223938,-0.36275113,0.1326699,0
2.7820604,1.9817679,-2.2141657,0.9223938,0.36275113,-0.1326699,0
-3.6127596,0.60607624,2.1735065,-0.9223938,-0.36275113,0.1326699,0
-2.0584664,-4.8179545,-1.3555624,-0.9223938,-0.36275113,0.1326699,0
-2.4805255,-3.6159344,-1.1699457,-0.9223938,-0.36275113,0.1326699,0
-4.7042103,2.4590082,0.88786441,-0.9223938,-0.36275113,0.1326699,0
2.1654007,-3.3814921,1.261214,0.3862471,-0.86478996,0.32086018,0
-4.151794,-0.074613094,-2.3801694,-0.9223938,-0.36275113,0.1326699,0
-2.2559311,0.9853065,4.101882,-0.046277404,0.44479713,0.89443493,0
-2.2886615,-4.2658172,-0.84309155,-0.9223938,-0.36275113,0.1326699,0
2.7300301,-3.3629761,-1.0020392,0.33857387,-0.92465806,-0.17428464,0
2.0772557,-3.1850147,-2.2700391,0.25000125,-0.82252526,-0.51083422,0
2.3252707,2.5251818,-2.8050303,0.9223938,0.36275113,-0.1326699,0
-0.464674,-4.2069492,2.4500072,0.37749648,-0.77392691,0.50846195,0
-0.89359772,-2.0616179,4.253623,0.25158125,-0.30361286,0.9189809,0
-1.4429522,3.3660526,2.0934789,-0.25576997,0.8310194,0.4939518,0
-1.6350689,-5.0798531,1.3736365,-0.9223938,-0.36275113,0.1326699,0
-3.9576266,1.5417256,3.0440457,-0.9223938,-0.36275113,0.1326699,0
-2.6761272,-3.0173013,-1.0297669,-0.9223938,-0.36275113,0.1326699,0
3.7080276,0.10678005,-0.19668584,0.9223938,0.36275113,-0.1326699,0
1.6414571,4.5242653,-2.0824783,0.9223938,0.36275113,-0.1326699,0
-4.4312,0.73889637,-2.6973388,-0.9223938,-0.36275113,0.1326699,0
-1.1675074,3.2721856,-2.5914373,-0.36798435,0.72092813,-0.58723933,0
-3.8767114,-0.34351969,-0.78367329,-0.9223938,-0.36275113,0.1326699,0
-2.4869852,-4.4110379,-2.2503796,-0.9223938,-0.36275113,0.1326699,0
-2.6836047,-2.2681701,1.5634737,-0.9223938,-0.36275113,0.1326699,0
1.9972816,4.7956653,0.7514329,0.9223938,0.36275113,-0.1326699,0
2.4197407,2.1129203,-4.3821082,0.9223938,0.36275113,-0.1326699,0
3.6772647,0.54369259,0.20346901,0.9223938,0.36275113,-0.1326699,0
3.5947392,-0.69390106,-3.9577105,0.9223938,0.36275113,-0.1326699,0
-2.8411999,-2.21053,1.2337354,-0.9223938,-0.36275113,0.1326699,0
-3.43699,0.69713974,3.7294302,-0.9223938,-0.36275113,0.1326699,0
-3.1135268,0.46365118,-3.6739511,-0.25035954,0.29994401,-0.9205181,0
1.0204949,-2.507849,3.3949406,0.32595208,-0.54675353,0.77124298,0
1.9142666,4.378747,-1.1169047,0.9223938,0.36275113,-0.1326699,0
-4.3788557,1.1302032,-0.44265395,-0.9223938,-0.36275113,0.1326699,0
2.3773131,0.39387608,-4.5340562,-0.079919517,-0.15680644,-0.9843905,0
0.1586113,4.4522285,-1.6022793,-0.38612688,0.87469536,-0.29294032,0
-1.7147558,-3.9232705,3.2522359,0.35295025,-0.65206808,0.67099428,0
0.29761362,1.5865413,4.0404992,0.0012862086,0.34059471,0.94020933,0
4.1122341,-1.7901969,-2.999903,0.9223938,0.36275113,-0.1326699,0
2.3683267,-3.5947123,0.34311152,0.3758626,-0.92210138,0.091958016,0
-3.4230666,-0.91266584,-0.16310319,-0.9223938,-0.36275113,0.1326699,0
1.2766476,3.2876437,3.1381693,-0.12594008,0.60716569,0.784531,0
-1.5598478,0.83986402,4.2756324,-0.0014826655,0.34680402,0.93793643,0
0.55641341,1.263741,3.9665716,0.035039067,0.2634801,0.96402824,0
4.6151471,-2.6069503,-0.69813651,0.9223938,0.36275113,-0.1326699,0
2.7628438,3.7267578,2.6719661,0.9223938,0.36275113,-0.1326699,0
1.0987511,3.5463817,-3.2934585,-0.34652793,0.62546641,-0.69907796,0
-2.9170291,-1.9863057,1.4152094,-0.9223938,-0.36275113,0.1326699,0
-3.5989094,1.7647533,3.2738085,-0.17163938,0.69265395,0.70055014,0
-2.8288577,-3.562207,-2.6092074,-0.9223938,-0.36275113,0.1326699,0
0.20728374,1.3599446,-4.2371159,-0.21798763,0.20534618,-0.95410395,0
1.2408655,-2.9055176,-2.7829075,0.19023466,-0.72558725,-0.66131234,0
0.3201313,4.6295109,-0.41054451,-0.37128437,0.9273963,-0.045649707,0
1.7062397,0.18937349,-4.4933147,-0.074454606,-0.17005426,-0.98261791,0
-2.0456967,-4.3102283,0.60852242,-0.9223938,-0.36275113,0.1326699,0
-2.7676167,-2.1536565,1.3491912,-0.9223938,-0.36275113,0.1326699,0
-2.384285,2.622282,-2.4360595,-0.36394757,0.70122552,-0.61304551,0
-2.8047633,-0.1669364,4.6297011,0.043742001,0.243168,0.96899742,0
-2.6289203,-2.1928573,1.6891139,-0.9223938,-0.36275113,0.1326699,0
2.7932882,-0.32744217,-4.4052453,0.0008097887,-0.34529671,-0.93849319,0
-3.1535118,2.4859216,-2.0483727,-0.37329334,0.74899375,-0.54741251,0
-3.0379357,-2.5674963,-2.0946326,-0.9223938,-0.36275113,0.1326699,0
3.5177617,-0.26314545,-1.9584018,0.9223938,0.36275113,-0.1326699,0
3.4853618,1.5718834,2.396059,0.9223938,0.36275113,-0.1326699,0
-0.72943217,1.4934264,-3.8552341,-0.26047575,0.33056486,-0.90712696,0
2.1973987,3.3290036,-2.0035105,0.9223938,0.36275113,-0.1326699,0
2.0523255,3.6999974,-1.4563574,0.9223938,0.36275113,-0.1326699,0
-0.99311256,-4.9199586,-0.35699606,0.33956081,-0.92526299,-0.16907641,0
-3.7026744,-0.91058946,-1.4334581,-0.9223938,-0.36275113,0.1326699,0
2.3172169,4.5246811,1.8041835,0.9223938,0.36275113,-0.1326699,0
-2.8789048,-1.6111417,1.8927248,-0.9223938,-0.36275113,0.1326699,0
3.6544738,-2.0159245,-3.1827159,0.1878987,-0.72151417,-0.66641665,0
-2.2644792,-3.4080338,1.5213555,-0.9223938,-0.36275113,0.1326699,0
0.91992855,1.5147133,3.8962388,0.021029413,0.29580757,0.95501602,0
3.3248253,-2.8435903,1.5238569,0.38480991,-0.83340275,0.39668769,0
2.5112596,2.0255167,-3.1187286,0.9223938,0.36275113,-0.1326699,0
1.1460901,1.0172389,-4.5398998,-0.16441751,0.05794413,-0.98468745,0
-3.7355614,0.39874506,2.0575485,-0.9223938,-0.36275113,0.1326699,0
0.55694532,4.6356378,0.57289195,-0.33587152,0.92290062,0.18826778,0
-4.6348028,2.3168321,-1.5451126,-0.38152111,0.80207944,-0.45946723,0
-2.7873383,0.11740541,-3.7937553,-0.21870366,0.20738845,-0.95349818,0
-2.6810431,-1.1648794,-3.970371,-0.11060598,-0.081032455,-0.99055541,0
-2.1489239,-3.4546838,2.5663924,-0.9223938,-0.36275113,0.1326699,0
4.4651785,-0.9947114,1.5230067,0.9223938,0.36275113,-0.1326699,0
2.3820765,3.5676599,0.50263721,0.9223938,0.36275113,-0.1326699,0
1.4817591,4.6337485,-2.3688242,-0.38013202,0.79165667,-0.47830868,0
-1.8336554,2.2683556,3.2485552,-0.15457338,0.66145146,0.73388624,0
3.7776575,-0.38871908,-1.3976088,0.9223938,0.36275113,-0.1326699,0
-0.13445681,1.5671773,-4.1626949,-0.24085937,0.27167529,-0.93176138,0
3.2860265,-0.21331024,-4.4882312,0.9223938,0.36275113,-0.1326699,0
-2.1763742,-3.5366778,1.1467841,-0.9223938,-0.36275113,0.1326699,0
4.5922556,-2.7126865,-0.17916256,0.37354904,-0.92514819,0.067541897,0
-4.4011707,2.2264743,1.6698141,-0.9223938,-0.36275113,0.1326699,0
-0.12672329,-4.4778347,1.1182373,0.3831535,-0.9027397,0.19558719,0
-4.6086974,1.503685,-1.5390546,-0.9223938,-0.36275113,0.1326699,0
-0.025143623,4.3752608,-1.6080568,-0.38624078,0.86872625,-0.31005266,0
-3.7869184,3.0400796,1.3147867,-0.32778996,0.91684878,0.22790772,0
3.3320494,1.9454033,1.7429624,0.9223938,0.36275113,-0.1326699,0
-1.5968611,0.93114221,-3.8738225,-0.24462768,0.28283426,-0.92744935,0
1.3218937,4.7708035,-1.9125355,-0.38549733,0.84313983,-0.3748427,0
0.086070061,4.0100994,1.8051161,-0.26369506,0.84238964,0.4699412,0
-0.5835917,-3.5807207,3.0915568,0.3499473,-0.63947433,0.6845504,0
-1.5716233,-2.6471319,-3.5091224,0.050707638,-0.45423436,-0.88943791,0
-3.5571506,0.40661573,3.4003994,-0.9223938,-0.36275113,0.1326699,0
3.4863591,-2.8214605,-2.0225103,0.28039944,-0.86510158,-0.41590303,0
2.5519969,3.1922264,-0.035530448,0.9223938,0.36275113,-0.1326699,0
-0.84098095,0.82341343,-4.0445199,-0.2188134,0.20770165,-0.95340478,0
-4.3836126,2.880156,-0.27596653,-0.38031524,0.91294712,-0.14794502,0
3.2631662,-0.95221853,-4.1310444,0.073333144,-0.5017038,-0.86192542,0
-2.6593015,-3.4333007,-1.148211,-0.9223938,-0.36275113,0.1326699,0
-4.3935742,1.0758324,-1.3535478,-0.9223938,-0.36275113,0.1326699,0
-3.453949,-0.47240734,0.6547488,-0.9223938,-0.36275113,0.1326699,0
-2.9368691,1.7887261,-2.9911857,-0.33227053,0.57007486,-0.75140607,0
-0.41203237,2.5607674,3.4654491,-0.11533988,0.58649129,0.80170113,0
0.66896534,-4.1484203,0.92673552,0.38266778,-0.90491575,0.18626034,0
4.5292654,-1.9909296,-0.71345699,0.9223938,0.36275113,-0.1326699,0
-2.3157144,-4.219944,-1.6051286,-0.9223938,-0.36275113,0.1326699,0
3.7848473,-0.36922073,-0.33053812,0.9223938,0.36275113,-0.1326699,0
3.8324256,0.26976776,1.2075008,0.9223938,0.36275113,-0.1326699,0
1.6452465,-2.0499535,-3.5266919,0.12552512,-0.60636204,-0.78521872,0
-4.1628003,2.5070162,2.0704913,-0.29168499,0.87934679,0.37638927,0
-1.0279816,1.1826805,4.0276308,-0.017993093,0.38346276,0.92338103,0
-3.5892665,-0.61302447,-0.92058814,-0.9223938,-0.36275113,0.1326699,0
1.6651826,3.6875055,2.8406775,-0.14553767,0.64457417,0.75056171,0
2.5393965,-2.4374154,-2.9589953,0.20226932,-0.74626362,-0.63417476,0
2.6336391,3.8237748,1.650172,0.9223938,0.36275113,-0.1326699,0
0.45832384,0.53086036,4.1515241,0.099566936,0.10856641,0.98909032,0
-2.7103972,3.1207528,-1.5828375,-0.38422447,0.82659256,-0.41123751,0
1.1963053,-2.1157565,-3.5814738,0.10979819,-0.57556403,-0.81035209,0
0.55036402,3.4840217,2.7372777,-0.17126459,0.69197851,0.70130879,0
-1.2005734,4.0962477,-0.72022831,-0.38134289,0.90984929,-0.16355994,0
-4.4341483,1.3942571,-0.97865069,-0.9223938,-0.36275113,0.1326699,0
