0.9706552,4.0481687,1.0205909,0.29676747,0.93625808,0.1880157,0
3.915853,2.5421612,0.26935005,0.75462359,-0.10926712,-0.64699602,0
-1.4818695,-0.7306056,2.4037223,-0.75462359,0.10926712,0.64699602,0
-0.11805952,1.0068784,-4.0415778,0.75462359,-0.10926712,-0.64699602,0
-3.5495226,-0.99542141,-0.058530807,-0.75462359,0.10926712,0.64699602,0
0.59226155,-1.364583,4.5849695,0.57062972,-0.37748626,0.72930509,0
1.5753431,3.2701173,2.4482796,0.50869143,0.72024763,0.47167388,0
0.45602679,0.005354166,-3.3289635,0.75462359,-0.10926712,-0.64699602,0
2.4730816,-4.0666833,-0.16931772,0.75462359,-0.10926712,-0.64699602,0
1.6197776,-0.03473568,-2.0534098,0.75462359,-0.10926712,-0.64699602,0
-3.3534284,2.3092022,-0.28716993,-0.75462359,0.10926712,0.64699602,0
-2.3152864,-2.8995039,1.5055172,-0.75462359,0.10926712,0.64699602,0
-3.3626924,0.027118564,-2.8020263,-0.65212244,-0.015702009,-0.75795102,0
3.7853522,0.6569854,2.3575258,0.65476751,0.18955466,0.73167515,0
1.2962822,1.9338641,-2.6588516,0.75462359,-0.10926712,-0.64699602,0
2.6406782,2.2415428,-1.2764052,0.75462359,-0.10926712,-0.64699602,0
-2.306134,1.0690933,-3.4871855,-0.60276777,0.27415743,-0.74933881,0
2.1750557,-0.88522089,3.5857046,0.61076087,-0.24342033,0.75347048,0
1.8361177,1.0169868,3.8201818,0.65298355,0.22193068,0.72412658,0
-2.666496,-3.9072728,1.3479959,-0.75462359,0.10926712,0.64699602,0
1.4099936,0.86720777,-2.4861238,0.75462359,-0.10926712,-0.64699602,0
3.7515693,2.6888738,-0.075073361,0.75462359,-0.10926712,-0.64699602,0
0.095572948,1.3081117,-4.08249,0.75462359,-0.10926712,-0.64699602,0
1.9293282,-2.5661359,-1.2140508,0.75462359,-0.10926712,-0.64699602,0
0.32772827,-3.7749953,2.2069168,0.20110393,-0.90006936,0.38656461,0
-4.2156696,-0.82681477,-0.90682936,-0.75462359,0.10926712,0.64699602,0
-3.5172062,0.6214292,-2.6364908,-0.63452607,0.12957573,-0.76196253,0
-0.014776945,-4.3537302,-0.69138432,-0.15911818,-0.98707885,-0.018885672,0
4.0448484,2.443727,0.82699108,0.54436219,0.65478504,0.52433407,0
-4.0240946,-2.0203588,-0.33859146,-0.75462359,0.10926712,0.64699602,0
1.0473065,-1.7774649,-2.2062104,0.75462359,-0.10926712,-0.64699602,0
-0.83893013,-4.0157943,-1.3034233,-0.30363846,-0.93226117,-0.19670472,0
0.66037202,0.44124269,4.4355512,-0.75462359,0.10926712,0.64699602,0
2.2999766,-2.9978261,2.2133908,0.42488703,-0.67002076,0.60872257,0
2.4087582,3.4953837,0.61435169,0.38695437,0.87043351,0.30432194,0
-2.0074699,-4.0095582,0.74386525,-0.19645149,-0.97842968,-0.06388998,0
0.81138277,-3.7472997,-2.1394625,0.75462359,-0.10926712,-0.64699602,0
4.3111744,1.8006791,0.95745492,0.75462359,-0.10926712,-0.64699602,0
4.1509328,-0.63044256,1.1464591,0.75462359,-0.10926712,-0.64699602,0
-4.0399113,1.8111045,-1.7641664,-0.570683,0.37733477,-0.72934169,0
2.8954086,2.3298078,2.2502947,0.58920294,0.54677546,0.59487504,0
0.59048367,-0.66571975,4.5694284,-0.75462359,0.10926712,0.64699602,0
0.84551144,0.79760361,4.7155485,-0.75462359,0.10926712,0.64699602,0
-4.353693,1.6380492,-1.6129494,-0.59581196,0.29894578,-0.74541223,0
-3.7131262,-3.2769108,-0.059604466,-0.44307661,-0.81213778,-0.37962535,0
-2.914757,-3.7914023,0.67891288,-0.29868978,-0.93515533,-0.19044408,0
-0.62561423,-1.6228638,3.2916009,-0.75462359,0.10926712,0.64699602,0
-1.8688765,1.0808141,-3.8150251,-0.60551679,0.26388243,-0.75080979,0
-0.069248915,4.2844877,0.29556322,0.10446835,0.99346685,-0.045934021,0
0.82394266,-3.6713667,1.8919892,0.22108406,-0.88603961,0.40749919,0
-4.2208018,-1.0005552,-1.8960865,-0.6476841,-0.28199759,-0.70780122,0
3.97715,0.67755127,0.66226935,0.75462359,-0.10926712,-0.64699602,0
2.6076984,1.5180852,-1.1388452,0.75462359,-0.10926712,-0.64699602,0
-0.23302889,-1.5988257,-3.8246434,0.75462359,-0.10926712,-0.64699602,0
3.4774959,3.3136005,0.10564595,0.4299407,0.82721347,0.36175817,0
3.4367993,0.30607021,2.7280247,0.65599161,0.10343522,0.74764711,0
-3.7260449,-2.7807889,-0.13432068,-0.75462359,0.10926712,0.64699602,0
0.47827339,-1.0631306,4.568099,-0.75462359,0.10926712,0.64699602,0
2.3674242,3.8796988,-0.67641795,0.24407303,0.9620263,0.12220374,0
1.8732997,-2.2849269,-1.1995032,0.75462359,-0.10926712,-0.64699602,0
1.5457971,-2.5546019,2.9870028,0.45505136,-0.62323916,0.63600409,0
1.9874781,-4.237361,0.18606138,0.14225453,-0.93534148,0.32388258,0
2.4392796,-1.9944651,2.9089704,0.53152514,-0.47636902,0.70039523,0
4.4256172,0.52359605,1.3090017,0.75462359,-0.10926712,-0.64699602,0
4.3146682,1.5595745,1.3399744,0.62496901,0.4200778,0.65798807,0
0.27821088,1.2555964,3.9359667,-0.75462359,0.10926712,0.64699602,0
1.6484767,2.0247679,-2.150542,0.75462359,-0.10926712,-0.64699602,0
-2.4384484,-3.8667006,0.42652428,-0.27160972,-0.94961125,-0.15641779,0
-2.4935563,2.0493357,0.68051434,-0.75462359,0.10926712,0.64699602,0
1.1138585,0.27185941,4.4984231,0.65244436,0.020195812,0.75756747,0
3.3227754,2.6830833,1.1243652,0.52611208,0.68999755,0.4971011,0
-0.25551397,2.4144516,-4.0383673,-0.45933867,0.61615944,-0.63980877,0
0.79748654,-0.52741194,4.6902318,0.62630796,-0.17407444,0.7598924,0
-4.2667465,-0.58996916,-1.9652429,-0.65499032,-0.18423685,-0.73283309,0
0.84496284,-1.8942482,4.0088615,0.51247764,-0.51762897,0.68514729,0
2.7207146,3.7214861,0.0058902502,0.33258754,0.91368103,0.23360735,0
-1.062459,-4.2389774,0.54324841,-0.13012296,-0.99137425,0.015658259,0
0.5385763,1.905803,-3.6232266,0.75462359,-0.10926712,-0.64699602,0
1.563177,-2.8601677,2.7867727,0.41906971,-0.67847663,0.60336566,0
-2.8784318,3.3161905,0.027516365,-0.75462359,0.10926712,0.64699602,0
2.2875381,2.9550846,1.9647397,0.5253939,0.69130522,0.49604273,0
2.4753654,-3.3690429,-0.2708931,0.75462359,-0.10926712,-0.64699602,0
0.8786484,-2.0843315,3.8183284,0.49731356,-0.54799855,0.67258954,0
-0.71871936,-3.2309217,3.6682463,-0.75462359,0.10926712,0.64699602,0
0.66770601,4.1613255,0.31035256,0.19015163,0.98014182,0.056253076,0
0.26714307,3.2902019,-3.5000701,-0.31231281,0.80736792,-0.50061738,0
3.5779557,-2.7274318,0.67193365,0.75462359,-0.10926712,-0.64699602,0
-1.4873867,2.4552441,-3.0721889,-0.46968538,0.59859145,-0.64890981,0
-0.14358807,3.7755408,-2.1255639,-0.16966525,0.92000997,-0.35326385,0
-1.0036778,-0.46072936,2.8698275,-0.75462359,0.10926712,0.64699602,0
-2.0481782,0.15505624,1.4777278,-0.75462359,0.10926712,0.64699602,0
3.3439696,-1.6299431,2.2932482,0.57390922,-0.36807191,0.73154026,0
2.8259726,-0.78963482,-0.55032802,0.75462359,-0.10926712,-0.64699602,0
3.2205837,3.087666,0.67782652,0.45948285,0.79191554,0.40217593,0
1.0648376,4.1298304,-1.2619767,0.055467844,0.99313056,-0.10302883,0
-0.876652,3.0546122,2.2176774,-0.75462359,0.10926712,0.64699602,0
-1.8389798,0.7199223,-3.8448238,-0.62415946,0.1846281,-0.75916874,0
-1.730212,-3.4214277,-1.7106557,-0.43166894,-0.82528377,-0.3640998,0
-3.1554751,-3.136292,-0.89358711,-0.47212195,-0.77518851,-0.41974247,0
-0.15906954,-3.3215683,-3.5139689,0.75462359,-0.10926712,-0.64699602,0
-0.80970764,1.3215969,2.8002853,-0.75462359,0.10926712,0.64699602,0
-0.046085119,4.2965913,0.83437943,0.18047094,0.98257077,0.044551849,0
-1.5224988,-1.9923,-3.8511505,-0.62264562,-0.43033803,-0.65354538,0
2.3086948,-3.3760281,-0.53996563,0.75462359,-0.10926712,-0.64699602,0
0.62964249,2.6990373,3.9038401,0.57244045,0.59157646,0.56775808,0
-1.2466375,1.9819236,1.9462215,-0.75462359,0.10926712,0.64699602,0
-0.81625462,3.1584673,2.3781619,-0.75462359,0.10926712,0.64699602,0
-1.3446312,-3.2790785,2.7381876,-0.75462359,0.10926712,0.64699602,0
-3.5319943,3.1850367,-0.83487177,-0.75462359,0.10926712,0.64699602,0
1.7937229,1.4343845,-1.8731351,0.75462359,-0.10926712,-0.64699602,0
3.4795675,-2.1046481,0.49438429,0.75462359,-0.10926712,-0.64699602,0
-3.9700701,2.3017912,-1.0925961,-0.75462359,0.10926712,0.64699602,0
-2.7326229,-3.2645538,1.1569192,-0.75462359,0.10926712,0.64699602,0
-0.17578852,0.87779784,-4.0814443,0.75462359,-0.10926712,-0.64699602,0
-3.2250843,-1.7009609,0.37090099,-0.75462359,0.10926712,0.64699602,0
2.6027894,-3.87234,0.812994,0.27838209,-0.83958161,0.46648264,0
-2.1037502,-0.56476021,-3.8179884,-0.6560868,-0.11113918,-0.74645704,0
-1.690683,2.8152575,1.3082829,-0.75462359,0.10926712,0.64699602,0
3.4875078,-1.2204254,0.48475266,0.75462359,-0.10926712,-0.64699602,0
0.12869453,2.8646092,3.6810362,-0.75462359,0.10926712,0.64699602,0
-2.3188667,3.2506857,-1.7258501,-0.38432214,0.72559559,-0.57079542,0
-0.37424421,-4.2112994,-1.1798463,-0.26327193,-0.95360714,-0.14601818,0
1.7859566,3.0604281,-2.3970962,0.75462359,-0.10926712,-0.64699602,0
-0.17135406,-4.1212678,-1.486286,-0.25891757,-0.95561141,-0.1406011,0
-3.3844535,2.5055389,-1.7839308,-0.50350738,0.53583729,-0.67775989,0
-1.4747696,-0.7019856,-4.2456279,-0.65590739,-0.09837231,-0.74840385,0
1.4800224,-1.5227799,3.9092886,0.56798881,-0.38491774,0.72747988,0
-3.1262739,2.7711759,-0.12042093,-0.75462359,0.10926712,0.64699602,0
1.4151505,-3.130152,2.4247847,0.38109121,-0.72970068,0.56772029,0
1.9520856,3.8839886,-0.72564602,0.18437886,0.9816196,0.04927057,0
0.9204638,-1.4611206,-2.5009015,0.75462359,-0.10926712,-0.64699602,0
0.85141027,-0.32779646,-2.7510209,0.75462359,-0.10926712,-0.64699602,0
-2.6126833,0.83833885,0.74636853,-0.75462359,0.10926712,0.64699602,0
-2.5352039,-1.0210495,-3.2614172,-0.65136898,-0.24365973,-0.71857387,0
-2.7118437,0.54482102,-3.3025212,-0.63693678,0.11493051,-0.76230085,0
2.8514042,1.1291265,2.9283545,0.64700097,0.28806743,0.70597935,0
-1.9971917,-2.5962687,2.0256686,-0.75462359,0.10926712,0.64699602,0
-0.75530064,3.8384969,-1.7306371,-0.19894916,0.90151846,-0.38429618,0
2.1644258,-2.0503187,3.0672946,0.52090746,-0.49982837,0.69197321,0
0.65872908,1.961602,4.2722859,-0.75462359,0.10926712,0.64699602,0
2.5810261,2.6619613,2.0650377,0.54637676,0.65064585,0.52738261,0
0.019360065,-1.514523,3.9990358,-0.75462359,0.10926712,0.64699602,0
-0.69660878,3.8552175,2.2974212,-0.75462359,0.10926712,0.64699602,0
1.2104753,-0.28078604,-2.4312878,0.75462359,-0.10926712,-0.64699602,0
0.14895862,2.3132229,-4.02913,0.75462359,-0.10926712,-0.64699602,0
1.9547806,2.2210307,-2.0123,0.75462359,-0.10926712,-0.64699602,0
0.030852079,0.23991346,3.8973937,-0.75462359,0.10926712,0.64699602,0
-3.3441167,1.3479573,-2.5388312,-0.60377765,0.27041662,-0.74988478,0
0.17156065,-3.3463831,2.8600433,0.29767841,-0.82171714,0.48597193,0
-0.61577559,4.3946357,1.8139298,0.22353858,0.96986336,0.096929908,0
2.47088,2.2215741,-1.2749585,0.75462359,-0.10926712,-0.64699602,0
2.6912537,3.6549163,-0.034285784,0.34187424,0.90709794,0.24555069,0
2.7145741,-2.3763094,2.3018618,0.50950271,-0.52374864,0.68271101,0
0.68488181,2.8969059,-3.4646394,0.75462359,-0.10926712,-0.64699602,0
4.0958123,1.80899,0.57745206,0.75462359,-0.10926712,-0.64699602,0
0.96130681,0.30529833,-2.6922803,0.75462359,-0.10926712,-0.64699602,0
-0.10584593,1.8779373,3.3018203,-0.75462359,0.10926712,0.64699602,0
-1.1138144,-2.5515871,3.0105734,-0.75462359,0.10926712,0.64699602,0
-1.5199901,-2.8962235,2.4569893,-0.75462359,0.10926712,0.64699602,0
-3.6244767,2.602571,-0.76266575,-0.75462359,0.10926712,0.64699602,0
4.045702,-0.10546708,0.79815531,0.75462359,-0.10926712,-0.64699602,0
0.52088052,-3.440799,2.7453122,0.30346555,-0.81612706,0.49177754,0
-2.6802568,4.1446486,0.063165188,-0.75462359,0.10926712,0.64699602,0
-2.9239037,1.4043913,0.19916201,-0.75462359,0.10926712,0.64699602,0
0.19415116,-0.32871509,4.0922194,-0.75462359,0.10926712,0.64699602,0
0.92372042,0.32952929,-2.8252225,0.75462359,-0.10926712,-0.64699602,0
-0.3923378,4.2737703,2.3775973,0.31091982,0.92785609,0.20594129,0
0.53913498,-0.26158094,4.4582195,-0.75462359,0.10926712,0.64699602,0
3.7448845,0.33414984,2.3790329,0.65575105,0.090868413,0.74948877,0
1.6892536,1.8941407,3.776593,0.62972647,0.39764422,0.6673255,0
4.0153303,0.58370233,2.1184974,0.65533352,0.17491931,0.73480695,0
-2.4353702,-2.5661538,1.3310758,-0.75462359,0.10926712,0.64699602,0
3.1595116,-1.5380098,2.5941644,0.58715969,-0.32769409,0.74017572,0
-3.171839,1.5899127,-0.22693229,-0.75462359,0.10926712,0.64699602,0
4.5143304,1.47033,1.2297873,0.75462359,-0.10926712,-0.64699602,0
-2.1936722,2.0014918,0.84239292,-0.75462359,0.10926712,0.64699602,0
0.82931948,-4.2182059,0.20970535,0.025744438,-0.98034739,0.19559193,0
4.1191235,0.77033567,0.82558465,0.75462359,-0.10926712,-0.64699602,0
-0.53591871,-2.0146723,-4.1890483,0.75462359,-0.10926712,-0.64699602,0
-2.9282238,3.5660858,-0.7864995,-0.33372909,0.78506017,-0.52182889,0
1.3991984,-1.3270514,4.1465816,0.58110195,-0.34664935,0.7363115,0
1.0592732,1.9899988,4.2390046,0.62567747,0.41686448,0.65935695,0
2.7845449,1.6712964,2.7310596,0.63010865,0.39574856,0.66809136,0
-0.48606247,-2.4523916,3.6036625,-0.75462359,0.10926712,0.64699602,0
2.4287033,0.89636886,-1.1179659,0.75462359,-0.10926712,-0.64699602,0
2.8007343,-4.1125259,0.11819267,0.75462359,-0.10926712,-0.64699602,0
3.0884914,-1.6742783,2.6736803,0.56876355,-0.38275087,0.72801757,0
3.6113579,1.0015019,0.26543212,0.75462359,-0.10926712,-0.64699602,0
0.015562534,-0.82373881,-3.8186705,0.75462359,-0.10926712,-0.64699602,0
-3.2564459,-3.5108135,0.038372964,-0.37972748,-0.87686718,-0.2948063,0
0.75373077,2.6951911,3.8498549,0.57149893,0.59391296,0.56626523,0
-1.0695596,-1.4079204,2.7079866,-0.75462359,0.10926712,0.64699602,0
0.59248465,-2.1268933,4.2797165,0.49351847,-0.55529255,0.66939509,0
-4.6878119,0.25637025,-1.6680927,-0.6516515,-0.0094364583,-0.75845975,0
-1.3128719,-4.0884366,0.7190578,-0.11851609,-0.99251711,0.029388845,0
2.5648489,3.3752632,1.1035805,0.45724827,0.79476577,0.39908826,0
-0.67344809,1.425169,2.8407249,-0.75462359,0.10926712,0.64699602,0
-0.32421482,-0.89091039,3.5418186,-0.75462359,0.10926712,0.64699602,0
0.92635584,3.4946074,-3.2827919,-0.21205968,0.89250982,-0.39806628,0
1.664925,-1.7859924,-1.7516418,0.75462359,-0.10926712,-0.64699602,0
-1.8856386,3.6253345,-1.3026128,-0.28169295,0.83659959,-0.46984065,0
-0.060945034,1.0602176,-4.1011934,0.75462359,-0.10926712,-0.64699602,0
0.68015862,-4.3278494,-1.5029767,-0.18901068,-0.98044074,-0.054871917,0
2.3108351,2.4916193,-1.7396564,0.75462359,-0.10926712,-0.64699602,0
-2.3613508,-1.3506979,-3.2949834,-0.64623511,-0.29459751,-0.70398331,0
-0.083633184,-2.2827401,4.1418867,-0.75462359,0.10926712,0.64699602,0
-3.1713881,2.9019523,-1.5349927,-0.43843481,0.64963984,-0.62108195,0
-2.777051,-1.4410526,-2.8560872,-0.63705933,-0.35817513,-0.68254375,0
1.3559513,3.994133,-0.29421473,0.1776064,0.98324323,0.041097224,0
1.2649708,-4.2086964,-1.7667003,0.75462359,-0.10926712,-0.64699602,0
-3.1259575,3.7790604,-0.3312664,-0.75462359,0.10926712,0.64699602,0
1.3461828,-4.3546658,-1.4900179,0.75462359,-0.10926712,-0.64699602,0
-3.5857592,-2.0921652,-0.042016506,-0.75462359,0.10926712,0.64699602,0
-1.8829839,0.74334335,-3.8270159,-0.61963904,0.20569482,-0.75745434,0
3.8179402,2.5962734,0.86423635,0.542099,0.65937191,0.52091974,0
0.22833502,-1.3415372,4.2224565,-0.75462359,0.10926712,0.64699602,0
2.3101177,-3.3319209,-0.71024632,0.75462359,-0.10926712,-0.64699602,0
-3.6814132,-2.9582691,-0.26771188,-0.47632104,-0.76939392,-0.4256188,0
1.5827749,3.1864481,-2.6311781,0.75462359,-0.10926712,-0.64699602,0
-0.62378263,-1.3637636,3.2417996,-0.75462359,0.10926712,0.64699602,0
2.9038568,-2.9479508,1.7335544,0.4331373,-0.65772676,0.61626899,0
3.2533443,2.1237121,-0.32158029,0.75462359,-0.10926712,-0.64699602,0
3.5702944,0.48136628,0.11265731,0.75462359,-0.10926712,-0.64699602,0
1.0567247,-1.0297844,-2.575953,0.75462359,-0.10926712,-0.64699602,0
1.7001865,2.6073358,-2.3330314,0.75462359,-0.10926712,-0.64699602,0
-0.94757056,3.9441867,2.0837331,-0.75462359,0.10926712,0.64699602,0
0.33497214,3.7599306,-2.4485159,-0.19039536,0.90715021,-0.37527072,0
-1.9153405,-3.9434147,0.70879471,-0.20790613,-0.97504812,-0.077821255,0
-1.4062886,3.1084642,1.839138,-0.75462359,0.10926712,0.64699602,0
-4.078907,-1.1788651,-0.79575396,-0.75462359,0.10926712,0.64699602,0
1.0318685,0.22554445,4.791501,0.65142369,0.006523788,0.75868601,0
1.207936,1.9485183,-2.9057226,0.75462359,-0.10926712,-0.64699602,0
-1.629034,1.0849261,1.7938315,-0.75462359,0.10926712,0.64699602,0
2.5405853,1.5442461,3.1753514,0.63754416,0.35529432,0.68359596,0
3.8030877,0.24347091,0.5359447,0.75462359,-0.10926712,-0.64699602,0
-2.8133149,4.0731044,-0.12074184,-0.75462359,0.10926712,0.64699602,0
0.85734731,1.0253935,-2.9469547,0.75462359,-0.10926712,-0.64699602,0
-3.9315543,0.26277518,-0.78744507,-0.75462359,0.10926712,0.64699602,0
-3.2636349,-0.22534728,0.11616349,-0.75462359,0.10926712,0.64699602,0
-4.2801299,-1.4753892,-1.5608201,-0.62865758,-0.40286848,-0.66519654,0
-1.5872782,3.8433995,-0.98543072,-0.20895582,0.8946842,-0.3948133,0
1.6930726,2.7010798,2.9516683,0.56445301,0.61087191,0.55518311,0
0.4058817,1.5640056,-3.8036618,0.75462359,-0.10926712,-0.64699602,0
1.3021667,-0.62344527,-2.16011,0.75462359,-0.10926712,-0.64699602,0
2.127275,-3.6839285,-0.69685078,0.75462359,-0.10926712,-0.64699602,0
3.9509704,2.546802,0.35125685,0.75462359,-0.10926712,-0.64699602,0
-1.8189776,-3.498842,2.309653,-0.75462359,0.10926712,0.64699602,0
2.7209334,-1.9159944,2.711833,0.53996813,-0.45680606,0.70693886,0
-1.9152863,-3.1567626,2.1624038,-0.75462359,0.10926712,0.64699602,0
-2.4464149,3.1463954,-1.6670647,-0.37932754,0.73192281,-0.56603849,0
1.2812631,-0.0020942688,4.58922,0.6460551,-0.048634887,0.76173973,0
0.57680297,3.8468981,-2.4683535,-0.14254513,0.93518877,-0.32419586,0
-3.7761233,2.7651076,-0.98474216,-0.75462359,0.10926712,0.64699602,0
2.5450673,0.64621389,3.2948582,0.65567631,0.16334409,0.73716164,0
3.4792852,-1.1182126,2.3824663,0.61725211,-0.21627146,0.75645661,0
-2.7082539,-0.23079967,-3.2760224,-0.65489519,-0.06427902,-0.75298113,0
-0.67816347,-2.0205963,3.279942,-0.75462359,0.10926712,0.64699602,0
1.2629995,-2.9736011,-2.0382395,0.75462359,-0.10926712,-0.64699602,0
4.4759665,0.63356411,1.6469483,0.65277112,0.22507071,0.72334844,0
4.3482556,1.8210107,0.78627563,0.75462359,-0.10926712,-0.64699602,0
-2.9712572,3.373913,-1.1762938,-0.38044497,0.73051643,-0.56710422,0
0.53998512,-2.008817,4.3038826,0.504502,-0.53385401,0.67858505,0
0.13152397,2.6567798,-4.2569904,-0.4190388,0.67852116,-0.60333693,0
0.69715524,-1.4400778,-2.9557929,0.75462359,-0.10926712,-0.64699602,0
-2.1267116,0.59959006,1.3228161,-0.75462359,0.10926712,0.64699602,0
1.301563,1.3142717,4.2338147,0.65013802,0.25777182,0.7147547,0
-3.0774684,-0.32474256,0.46493888,-0.75462359,0.10926712,0.64699602,0
0.62405658,-2.7740247,-2.705606,0.75462359,-0.10926712,-0.64699602,0
-3.7802217,-2.3067126,-0.25815368,-0.75462359,0.10926712,0.64699602,0
3.0032115,-1.367949,2.6113372,0.59611887,-0.29788598,0.7455911,0
-4.2494588,1.3302051,-1.1722088,-0.75462359,0.10926712,0.64699602,0
-1.6705391,-3.8698304,-0.98396456,-0.34013474,-0.90835494,-0.24330945,0
-3.7634799,1.3808349,-0.8217907,-0.75462359,0.10926712,0.64699602,0
-4.2764144,-0.0415169,-1.0265512,-0.75462359,0.10926712,0.64699602,0
1.8971653,-1.8439075,3.477644,0.54127622,-0.45369777,0.70793951,0
0.33675742,-2.442091,-3.1273623,0.75462359,-0.10926712,-0.64699602,0
1.9357045,-0.89872646,-1.3456441,0.75462359,-0.10926712,-0.64699602,0
0.7358284,1.7199874,4.375927,-0.75462359,0.10926712,0.64699602,0
2.8692386,-1.2966511,-0.21051717,0.75462359,-0.10926712,-0.64699602,0
-1.7724216,-1.6431425,-3.6991754,-0.64098078,-0.33360726,-0.69126683,0
-1.5672247,3.096755,1.4810317,-0.75462359,0.10926712,0.64699602,0
1.4783754,2.672955,3.1033819,0.56903052,0.59995794,0.56236535,0
-0.6236186,4.2436881,2.3023739,-0.75462359,0.10926712,0.64699602,0
-2.6652129,-0.60220635,-3.195622,-0.65599215,-0.14779577,-0.74015576,0
0.27905118,1.5274427,-3.8606641,0.75462359,-0.10926712,-0.64699602,0
-0.56779933,-0.46567726,3.390425,-0.75462359,0.10926712,0.64699602,0
3.4434497,-3.2962208,0.99969387,0.39503482,-0.71166009,0.58093655,0
-1.4289653,3.9844253,-0.76674747,-0.1623157,0.92430544,-0.34541714,0
-1.8607967,-3.5480959,-1.7185273,-0.43513423,-0.82136613,-0.3688032,0
3.7087502,-2.7260303,0.97607994,0.75462359,-0.10926712,-0.64699602,0
0.0028562546,-2.4863605,-3.2949491,0.75462359,-0.10926712,-0.64699602,0
-2.881166,-2.7039843,1.1025841,-0.75462359,0.10926712,0.64699602,0
-2.13937,-0.77846277,1.4308052,-0.75462359,0.10926712,0.64699602,0
-0.19766855,1.8632205,3.2097487,-0.75462359,0.10926712,0.64699602,0
-3.0927579,-2.6727207,0.8402285,-0.75462359,0.10926712,0.64699602,0
-4.0055823,-0.71589941,-0.71303678,-0.75462359,0.10926712,0.64699602,0
0.6472528,1.2320328,4.2647152,-0.75462359,0.10926712,0.64699602,0
3.4446878,-0.35806239,0.27142906,0.75462359,-0.10926712,-0.64699602,0
-1.8071793,0.30240703,-4.0030198,-0.6378299,0.10926908,-0.76238644,0
2.965246,1.5020877,-0.76683819,0.75462359,-0.10926712,-0.64699602,0
2.6146946,3.4943004,-1.3669047,0.75462359,-0.10926712,-0.64699602,0
-3.9328928,0.020218298,-2.1215444,-0.65341675,-0.035103261,-0.75618392,0
1.2931855,4.0282726,-1.6043892,0.036678255,0.99151981,-0.12467206,0
2.316752,-0.84030032,-1.1281021,0.75462359,-0.10926712,-0.64699602,0
1.9230593,3.8514485,-2.1789157,0.75462359,-0.10926712,-0.64699602,0
2.9517045,0.9996599,-0.54629123,0.75462359,-0.10926712,-0.64699602,0
1.1499033,3.8902411,-2.5462108,-0.10981786,0.95109725,-0.28871107,0
-3.8825836,0.75967479,-2.3019986,-0.63745534,0.11165977,-0.7623533,0
3.6089323,2.2333081,1.4066341,0.58387548,0.56172299,0.586137,0
-1.0123184,-0.3564744,-4.7207599,-0.65268773,-0.02372399,-0.75725543,0
-3.9377005,-1.9354336,-0.46015382,-0.75462359,0.10926712,0.64699602,0
1.5444441,-0.65132761,-2.0848589,0.75462359,-0.10926712,-0.64699602,0
-0.43198228,3.4418404,2.6660426,-0.75462359,0.10926712,0.64699602,0
3.6439321,1.1283233,0.32493615,0.75462359,-0.10926712,-0.64699602,0
-0.78486967,3.6536889,2.4502244,-0.75462359,0.10926712,0.64699602,0
0.35045946,-2.5912781,3.8325765,0.4266395,-0.66743946,0.61033058,0
-0.19089127,-4.2832012,-0.55040717,-0.16535664,-0.98588145,-0.026364207,0
2.0865412,3.9059238,-1.7627969,0.088760555,0.99397278,-0.064339995,0
-1.4621043,-4.0623641,0.98857069,-0.12220442,-0.99218917,0.025031745,0
2.6470459,1.5748391,2.8045869,0.63528347,0.36840072,0.67874563,0
1.9130051,-3.6696944,1.4432225,0.2744267,-0.84309995,0.46246338,0
-3.9673369,-2.3810167,-1.0365139,-0.568299,-0.60172743,-0.56121325,0
1.4869752,-2.4750483,3.2140551,0.46177125,-0.61209142,0.64195907,0
-2.8270705,1.3817644,-2.7634277,-0.59343553,0.30705589,-0.74401009,0
1.5895066,4.0188842,-1.5175283,0.058548033,0.99331689,-0.099467754,0
2.0215702,-1.8467926,3.2740097,0.54264683,-0.45041749,0.70898426,0
-4.0978842,1.2067809,-1.1405544,-0.75462359,0.10926712,0.64699602,0
-1.0370171,-2.1712554,3.0301237,-0.75462359,0.10926712,0.64699602,0
-1.9725219,0.2303164,-4.0295658,-0.64024502,0.093221754,-0.76249319,0
-2.8481026,-0.40194285,0.76105869,-0.75462359,0.10926712,0.64699602,0
3.4642892,0.74306083,2.588649,0.65372717,0.20999363,0.72700989,0
-0.90142757,-1.968273,3.1292551,-0.75462359,0.10926712,0.64699602,0
3.0316668,-3.7049656,0.55027485,0.29788271,-0.82152146,0.48617709,0
-3.1867387,-0.41225851,0.32579076,-0.75462359,0.10926712,0.64699602,0
-3.3397136,2.3930168,-0.42739677,-0.75462359,0.10926712,0.64699602,0
-0.85620522,2.1105528,2.3567257,-0.75462359,0.10926712,0.64699602,0
0.047964215,4.0101194,-1.5839021,-0.11680028,0.94792044,-0.29631847,0
1.2853178,-1.3349974,4.0976591,0.57199138,-0.37360287,0.73023748,0
2.4443324,2.0589609,-1.4369709,0.75462359,-0.10926712,-0.64699602,0
-3.788343,-0.75191516,-2.2804906,-0.65390742,-0.20682934,-0.72775453,0
0.93446565,3.2576749,3.0969558,0.52040517,0.70023996,0.48871517,0
1.9880089,3.4556522,-2.1047316,0.75462359,-0.10926712,-0.64699602,0
-1.6554177,-0.64448667,-4.2280235,-0.65586841,-0.096324474,-0.7487042,0
-2.0767894,4.0602007,-0.40159321,-0.19470406,0.90433753,-0.37982106,0
-0.009408474,-4.0227919,-2.3405273,-0.34947497,-0.90147424,-0.25536561,0
2.1864324,-4.0159183,0.2851615,0.17110404,-0.91915303,0.35479724,0
0.93658257,-2.8213639,3.0621533,0.40462089,-0.69875288,0.58993745,0
4.3905792,0.071611702,1.1029158,0.75462359,-0.10926712,-0.64699602,0
0.46740228,3.56777,-2.8336909,-0.20569143,0.89694309,-0.39138746,0
-3.1974359,1.1098442,-2.5948291,-0.61059201,0.24409825,-0.75338793,0
-2.3685408,3.3455482,0.49638319,-0.75462359,0.10926712,0.64699602,0
0.66084647,-2.0735095,-2.8082094,0.75462359,-0.10926712,-0.64699602,0
-3.9291663,0.24688609,-2.2810035,-0.64813745,0.029571295,-0.76094896,0
0.54514766,-0.76074386,-3.0696275,0.75462359,-0.10926712,-0.64699602,0
2.832027,-2.9469261,-0.081458569,0.75462359,-0.10926712,-0.64699602,0
0.010380268,-2.7513468,-3.4390187,0.75462359,-0.10926712,-0.64699602,0
-4.020216,2.1245718,-1.6886559,-0.55152118,0.42857385,-0.71564567,0
0.90920353,1.6413188,-3.1208227,0.75462359,-0.10926712,-0.64699602,0
-0.24763489,-4.1294312,0.93297195,0.01542896,-0.98280954,0.18397623,0
1.1833553,4.0127888,-1.254293,0.062151492,0.99350679,-0.0952968,0
-0.60730243,0.84028554,3.1142046,-0.75462359,0.10926712,0.64699602,0
-4.3712025,0.36628777,-1.2270179,-0.75462359,0.10926712,0.64699602,0
2.9278183,-2.1166096,-0.21764684,0.75462359,-0.10926712,-0.64699602,0
-1.2634816,-0.52369666,-4.4835548,-0.65522611,-0.072957039,-0.75190145,0
-3.0917213,-3.0100498,0.88822985,-0.75462359,0.10926712,0.64699602,0
0.65143347,2.4344766,4.2109494,-0.75462359,0.10926712,0.64699602,0
0.91692555,-1.7589204,4.2487764,0.54733407,-0.43901384,0.71252537,0
-1.5140827,-0.46181011,2.3130095,-0.75462359,0.10926712,0.64699602,0
-2.6161976,-1.3632997,-3.1085539,-0.6447618,-0.30645508,-0.70026231,0
-2.4173746,1.6181628,0.8198297,-0.75462359,0.10926712,0.64699602,0
2.2225411,1.3719416,3.3261254,0.64586926,0.29762399,0.70304549,0
0.81197953,0.88953066,4.5460577,-0.75462359,0.10926712,0.64699602,0
-1.6426711,4.1481571,-0.15101051,-0.11199906,0.95011735,-0.29108965,0
-1.3043622,2.9532938,-2.6847696,-0.3816213,0.72903019,-0.56822538,0
-2.290534,1.9818985,-2.889689,-0.53249013,0.47417572,-0.70115042,0
-0.088184357,-1.5513983,-3.6260295,0.75462359,-0.10926712,-0.64699602,0
0.5031333,2.4421406,4.1445189,-0.75462359,0.10926712,0.64699602,0
-1.2112563,-2.3175209,-3.9981704,-0.60801834,-0.48715946,-0.62688857,0
2.4805264,-1.1977124,3.2390561,0.59495378,-0.30189431,0.74490917,0
-2.0518324,3.8279054,0.73506236,-0.75462359,0.10926712,0.64699602,0
0.7817471,3.7612927,2.27373,0.40611577,0.85225648,0.3297407,0
1.0577185,-0.52498269,-2.4804335,0.75462359,-0.10926712,-0.64699602,0
4.2553196,-0.9633764,1.269454,0.75462359,-0.10926712,-0.64699602,0
-1.6076214,-3.5223832,-1.8934295,-0.44874322,-0.80533457,-0.38738346,0
1.2304242,-1.264878,4.0951247,0.58078045,-0.34763089,0.73610234,0
-1.2255261,4.2023029,1.6572309,-0.75462359,0.10926712,0.64699602,0
1.8552889,-2.6751952,-1.2456224,0.75462359,-0.10926712,-0.64699602,0
2.6894722,-2.6007872,2.1884098,0.46762213,-0.60215062,0.6471045,0
1.6690743,-4.2597651,0.47995186,0.13753748,-0.93779171,0.31879479,0
4.5138707,1.1199948,1.3174396,0.75462359,-0.10926712,-0.64699602,0
-1.0144233,0.15830874,2.5277562,-0.75462359,0.10926712,0.64699602,0
-0.56907684,3.2812626,-2.7423522,-0.30837876,0.81129491,-0.49669206,0
3.0971649,2.9578655,1.1390504,0.5017975,0.73143107,0.46174437,0
1.741997,-0.73005915,-1.5773302,0.75462359,-0.10926712,-0.64699602,0
2.7598603,1.1427772,-0.88861108,0.75462359,-0.10926712,-0.64699602,0
3.8624825,2.719543,0.89149082,0.53036791,0.68213278,0.50339323,0
-2.1288543,-3.3837695,1.9198729,-0.75462359,0.10926712,0.64699602,0
-1.0338558,-2.7363319,3.1352894,-0.75462359,0.10926712,0.64699602,0
-1.4693898,0.73321939,-4.1135731,-0.61991239,0.20446071,-0.75756478,0
0.616503,4.0479579,-1.7221928,-0.052807152,0.97272533,-0.22586918,0
4.3239603,-1.1106032,1.3737364,0.75462359,-0.10926712,-0.64699602,0
0.75741231,4.1418524,-1.4776289,-0.0047581196,0.98509991,-0.17191714,0
2.71034,2.679935,-1.2927996,0.75462359,-0.10926712,-0.64699602,0
-0.1394279,0.037717819,-4.1378436,0.75462359,-0.10926712,-0.64699602,0
3.9405918,-1.7134051,0.96630239,0.75462359,-0.10926712,-0.64699602,0
-2.5131447,-1.4553971,1.0437016,-0.75462359,0.10926712,0.64699602,0
3.4651554,-2.1595569,0.52681494,0.75462359,-0.10926712,-0.64699602,0
-0.78648615,3.5577669,2.2624614,-0.75462359,0.10926712,0.64699602,0
0.50479198,-0.76661158,4.6511774,-0.75462359,0.10926712,0.64699602,0
-3.8375275,2.4416084,-1.3902707,-0.51864827,0.50466758,-0.69015551,0
3.0174885,-2.7710023,0.00052976608,0.75462359,-0.10926712,-0.64699602,0
1.6763632,3.8147659,1.078696,0.36331093,0.89067239,0.27332738,0
2.4164197,-1.1197574,3.2090588,0.60806656,-0.2540819,0.75212854,0
0.32228756,-0.37737799,4.416235,-0.75462359,0.10926712,0.64699602,0
4.5459204,1.2812388,1.4496124,0.63706833,0.35812175,0.68256342,0
0.46477008,-4.0856128,1.1678367,0.11293918,-0.94969153,0.2921142,0
2.6152763,3.7155046,-0.04880178,0.32376873,0.91964674,0.22231399,0
-2.453856,-3.8489602,0.83850884,-0.22010916,-0.97105789,-0.092728317,0
-0.83770299,-0.24317026,-4.81072,0.75462359,-0.10926712,-0.64699602,0
-0.32233191,-4.1568475,-1.3764979,-0.27767283,-0.94657326,-0.16400266,0
-2.2530088,-1.2525288,1.3826011,-0.75462359,0.10926712,0.64699602,0
2.6846035,1.7523355,-0.8963697,0.75462359,-0.10926712,-0.64699602,0
-2.2874455,0.14477181,-3.6323638,-0.64665335,0.043376714,-0.76154959,0
1.7974408,1.5508497,-1.9091532,0.75462359,-0.10926712,-0.64699602,0
3.2421806,-3.2613189,0.62195683,0.75462359,-0.10926712,-0.64699602,0
0.15051174,-3.6966307,2.1223938,0.19146231,-0.90645826,0.37639821,0
-0.0058293343,-3.97545,1.5758345,0.11118311,-0.95048535,0.2902,0
3.7165027,-1.6968137,1.9723315,0.5810166,-0.34691009,0.736256,0
-2.1883373,4.3007803,0.17481947,-0.12179545,0.94557583,-0.30174857,0
-1.0656513,2.637382,-3.4329515,-0.43394116,0.65650958,-0.61700094,0
0.025467634,-0.23848152,-3.7159266,0.75462359,-0.10926712,-0.64699602,0
-1.0431173,2.0364029,-3.7735555,-0.49976403,0.54322588,-0.67464173,0
-0.71270406,3.4878104,-2.3190241,-0.26500139,0.85129189,-0.45285368,0
-1.0886316,0.23580074,2.4336646,-0.75462359,0.10926712,0.64699602,0
2.3330107,-1.0313982,3.4314044,0.60612899,-0.26155391,0.75113058,0
-0.046905518,-3.9480953,-2.5678582,-0.38256669,-0.87436628,-0.2985402,0
-1.6272392,-2.8752885,-2.9190648,-0.55718356,-0.6274693,-0.54390138,0
3.2525697,3.1404123,-0.49008387,0.75462359,-0.10926712,-0.64699602,0
-0.34746647,-1.4349406,-3.8835223,0.75462359,-0.10926712,-0.64699602,0
-1.0936387,0.73727942,2.45818,-0.75462359,0.10926712,0.64699602,0
-2.8129354,-1.3355143,0.75733322,-0.75462359,0.10926712,0.64699602,0
0.084307194,3.9755402,2.2088511,0.33416939,0.9125818,0.23563786,0
2.2587681,-3.1373641,-0.58773804,0.75462359,-0.10926712,-0.64699602,0
3.3513625,0.0012985468,-0.058149576,0.75462359,-0.10926712,-0.64699602,0
4.4824347,-0.46136665,1.7359333,0.64600253,-0.049088925,0.76175523,0
1.8621917,-0.29977846,-1.6137228,0.75462359,-0.10926712,-0.64699602,0
-1.6571527,1.0091171,-3.9491138,-0.60352898,0.27134129,-0.74975097,0
2.0247674,-1.0293283,3.5420952,0.60922521,-0.24953708,0.75271243,0
-4.154985,-1.2392821,-1.7200313,-0.63949239,-0.3432923,-0.68789524,0
-1.5605581,-3.2679839,2.7374916,-0.75462359,0.10926712,0.64699602,0
-3.5874319,0.67673218,-0.5802381,-0.75462359,0.10926712,0.64699602,0
1.0277348,4.1534944,-1.190618,0.034600854,0.99129176,-0.1270566,0
-0.73141956,-1.8431733,-4.346035,0.75462359,-0.10926712,-0.64699602,0
-3.4901295,-1.455479,0.017525434,-0.75462359,0.10926712,0.64699602,0
2.7598534,0.95792842,-0.89207286,0.75462359,-0.10926712,-0.64699602,0
-2.7015758,-0.4068749,0.68384647,-0.75462359,0.10926712,0.64699602,0
-1.7914234,-0.72745991,1.8444226,-0.75462359,0.10926712,0.64699602,0
-1.3988672,1.7398384,-3.781801,-0.55118114,0.42943102,-0.71539402,0
0.52554035,-0.57876539,4.6008539,-0.75462359,0.10926712,0.64699602,0
-1.8740712,-4.0654693,1.4500849,-0.093106866,-0.99389112,0.059256971,0
2.2824926,1.1366131,3.4500999,0.64862853,0.2731702,0.71039355,0
-1.9460019,-3.2158952,1.9997038,-0.75462359,0.10926712,0.64699602,0
2.0720205,-4.2693262,0.028278828,0.14122224,-0.93588233,0.32276994,0
-0.32761985,2.7265241,-3.8024881,-0.42096379,0.67574239,-0.60511291,0
0.42261887,1.2196202,4.0790539,-0.75462359,0.10926712,0.64699602,0
-1.9272183,-3.9743187,0.42184949,-0.21825069,-0.97169161,-0.090453565,0
-0.64055216,-0.38354111,3.1851285,-0.75462359,0.10926712,0.64699602,0
4.4007044,-0.90940303,1.4435349,0.75462359,-0.10926712,-0.64699602,0
-2.2673056,-3.5645485,1.9760052,-0.75462359,0.10926712,0.64699602,0
0.29305005,-4.3690963,-0.62840557,-0.11327755,-0.99292654,0.035567939,0
-1.365845,-3.7277615,2.8873806,-0.75462359,0.10926712,0.64699602,0
1.7158761,-0.26257157,-1.7517233,0.75462359,-0.10926712,-0.64699602,0
1.0146856,1.6184711,-2.8944855,0.75462359,-0.10926712,-0.64699602,0
-3.0543671,-0.28450537,0.44815743,-0.75462359,0.10926712,0.64699602,0
2.6767988,0.89110625,-0.78659487,0.75462359,-0.10926712,-0.64699602,0
4.157794,-0.8254382,1.1038442,0.75462359,-0.10926712,-0.64699602,0
0.99165225,-1.3354385,4.2315969,0.5792644,-0.35222882,0.73511052,0
-2.5756688,0.87576675,-3.1890094,-0.61772406,0.21420756,-0.75665849,0
-0.14087486,4.3517175,1.4588037,0.2432521,0.96236247,0.12118942,0
-3.5933156,2.4984624,-1.7627406,-0.51555234,0.5112167,-0.68765056,0
4.0270886,0.59093928,2.0430639,0.65420091,0.20138749,0.72901589,0
-3.7698262,-2.8672099,0.087914586,-0.75462359,0.10926712,0.64699602,0
-1.8822306,0.7598896,1.4159104,-0.75462359,0.10926712,0.64699602,0
2.2768366,-0.88349986,-1.2016129,0.75462359,-0.10926712,-0.64699602,0
-2.4180918,0.87429285,1.0240101,-0.75462359,0.10926712,0.64699602,0
-1.5496221,-2.8437545,-2.9177268,-0.55221748,-0.63832986,-0.53627497,0
0.050554514,0.25694513,-3.7943735,0.75462359,-0.10926712,-0.64699602,0
-4.3410301,0.80108708,-1.3839049,-0.75462359,0.10926712,0.64699602,0
-0.41205549,4.3463149,0.1516335,0.040203035,0.99188399,-0.1206224,0
-3.1164203,-3.673048,0.25694877,-0.35998034,-0.89334065,-0.26899207,0
0.4092176,4.1476741,-0.71500468,0.038691819,0.99173146,-0.12235928,0
0.26394057,-3.7681859,2.0871809,0.18464258,-0.91083014,0.36918235,0
2.9263864,-0.30563653,-0.51759923,0.75462359,-0.10926712,-0.64699602,0
-3.0903134,0.32722485,0.1238265,-0.75462359,0.10926712,0.64699602,0
-0.72530174,-3.7524667,2.8178496,0.17650712,-0.91588783,0.36054766,0
-0.95509338,2.214293,2.32285,-0.75462359,0.10926712,0.64699602,0
1.3280803,0.083328485,-2.3420296,0.75462359,-0.10926712,-0.64699602,0
-4.242671,2.0829711,-1.4916377,-0.75462359,0.10926712,0.64699602,0
3.0108306,3.3249457,-0.86845309,0.75462359,-0.10926712,-0.64699602,0
-3.0680108,3.1193457,-1.2912879,-0.40582499,0.69710159,-0.59106314,0
-3.7757187,0.66325825,-2.2779627,-0.63876098,0.1032171,-0.7624504,0
1.6188802,0.62740517,-2.0095477,0.75462359,-0.10926712,-0.64699602,0
-1.5622026,-3.2118793,2.4541185,-0.75462359,0.10926712,0.64699602,0
-0.14933228,4.2827773,1.2909906,0.21126336,0.97399056,0.081915736,0
-3.9538078,1.2624538,-2.074966,-0.61031103,0.24522287,-0.7532503,0
1.0023628,-3.0390162,3.0817356,0.38811022,-0.72072542,0.57439113,0
-0.90196741,-2.4133797,3.1821709,-0.75462359,0.10926712,0.64699602,0
2.5598297,-0.092867851,-0.74385786,0.75462359,-0.10926712,-0.64699602,0
-3.7015741,-1.9447614,-0.26735556,-0.75462359,0.10926712,0.64699602,0
0.57833672,3.7478902,2.2307789,0.38944715,0.86816204,0.30761293,0
3.3833151,3.2822881,-0.44005537,0.75462359,-0.10926712,-0.64699602,0
1.7707027,-2.6240563,-1.4857178,0.75462359,-0.10926712,-0.64699602,0
-0.87800354,1.5628638,-4.2043419,-0.54806072,0.43721953,-0.71306968,0
4.3837676,0.92482144,1.6380248,0.64764053,0.28239217,0.70768374,0
2.8816538,2.5275071,2.1499643,0.56913376,0.59970737,0.56252801,0
2.3119102,-2.5833097,2.6401973,0.47366026,-0.59165341,0.65237415,0
-2.5794725,-3.3464417,-1.1520662,-0.4437421,-0.81134838,-0.38053483,0
-3.4145255,1.2807484,-2.5049624,-0.60950083,0.24844706,-0.75284976,0
2.3166618,-3.4365201,1.5079021,0.33230424,-0.78659427,0.52042603,0
2.6371045,1.2160798,3.1591294,0.64534295,0.30188015,0.70171273,0
-0.77953911,3.7496784,2.3217239,-0.75462359,0.10926712,0.64699602,0
0.21068156,3.5603583,-2.8295143,-0.22324735,0.88445556,-0.40975475,0
-2.4514461,4.0257998,0.25232458,-0.75462359,0.10926712,0.64699602,0
1.4364613,-1.8142388,-1.9751725,0.75462359,-0.10926712,-0.64699602,0
-2.7667508,-3.1776321,-1.0972211,-0.46902156,-0.77938926,-0.41541681,0
-1.7613419,-3.2414272,2.3860192,-0.75462359,0.10926712,0.64699602,0
-0.84192967,1.393357,2.4965692,-0.75462359,0.10926712,0.64699602,0
3.7937391,-1.7981956,1.9687448,0.57100475,-0.37642008,0.72956246,0
1.8232651,-0.25543523,4.0858641,0.6437729,-0.067382246,0.76224405,0
3.5152669,0.29596984,0.25681305,0.75462359,-0.10926712,-0.64699602,0
0.35317016,2.8114324,-4.0058069,0.75462359,-0.10926712,-0.64699602,0
4.2307377,-0.54972368,1.228261,0.75462359,-0.10926712,-0.64699602,0
-3.8215137,-0.076825738,-0.61674595,-0.75462359,0.10926712,0.64699602,0
-1.2471447,4.3439813,0.6260767,0.026601374,0.99032104,-0.13622272,0
-1.1820128,-3.7523587,-1.8686137,-0.39959431,-0.85863048,-0.32105786,0
3.6919808,1.1165067,2.2268267,0.64344096,0.31641686,0.69703937,0
-2.955678,-1.9309697,0.63652432,-0.75462359,0.10926712,0.64699602,0
3.7862406,1.456971,2.0233853,0.63463968,0.37199059,0.67738855,0
2.6737695,3.6736441,0.28469789,0.37469244,0.88121903,0.28819868,0
3.6558647,-2.2081201,0.82241201,0.75462359,-0.10926712,-0.64699602,0
-0.10731792,-4.1751904,-1.7420448,-0.28865886,-0.94077897,-0.17779469,0
-0.31943625,-3.4684367,3.0451968,0.24537426,-0.86750352,0.43269956,0
-1.9510415,4.1170959,-0.49378157,-0.18155575,0.91276926,-0.36590946,0
-2.9126644,-1.2523912,-2.7298412,-0.64355564,-0.31557453,-0.69731545,0
3.8126712,2.0439758,1.5155048,0.60179669,0.50822556,0.61607426,0
-3.5322018,-2.2522056,-1.7154593,-0.590554,-0.54286706,-0.59711087,0
2.0092809,2.9362233,-2.1344795,0.75462359,-0.10926712,-0.64699602,0
-2.3582916,-0.73115373,1.2484026,-0.75462359,0.10926712,0.64699602,0
-0.069982767,3.7973146,-1.9142923,-0.15834099,0.92657173,-0.34116399,0
-1.3084503,2.6260278,-3.1663041,-0.44698626,0.63625443,-0.62879539,0
1.5258881,0.58095193,-2.1109588,0.75462359,-0.10926712,-0.64699602,0
3.0961185,-2.7662539,0.14837217,0.75462359,-0.10926712,-0.64699602,0
-2.2907197,-2.7632465,1.5316145,-0.75462359,0.10926712,0.64699602,0
-1.0528812,-3.3908858,-2.6947083,-0.4839772,-0.75850672,-0.436387,0
-2.714709,-3.0194683,1.1654313,-0.75462359,0.10926712,0.64699602,0
3.0754876,3.7956557,-0.85773951,0.29548967,0.93698442,0.18640271,0
1.099376,-2.7819626,3.2148528,0.42090058,-0.675834,0.60505474,0
3.3776774,-2.2667117,0.55293083,0.75462359,-0.10926712,-0.64699602,0
-0.36145359,-2.8031969,3.9641583,-0.75462359,0.10926712,0.64699602,0
1.4245894,3.5257802,-2.6806951,0.75462359,-0.10926712,-0.64699602,0
1.8526843,3.8806906,0.57770145,0.33060575,0.91504574,0.2310653,0
-1.2703631,-4.0716038,1.7039917,-0.011043489,-0.98801243,0.15397882,0
1.4255748,-2.7145607,3.0677624,0.42853898,-0.66462326,0.61207056,0
2.2818472,3.3749721,1.2007893,0.44190627,0.81351978,0.37802687,0
0.1851747,-1.5808363,-3.4951439,0.75462359,-0.10926712,-0.64699602,0
-3.7593725,-2.5946558,-0.19896632,-0.75462359,0.10926712,0.64699602,0
-3.0936272,3.5826745,-0.75953484,-0.3244482,0.79492319,-0.5126698,0
2.9961081,-0.35791528,-0.30860829,0.75462359,-0.10926712,-0.64699602,0
-0.60025144,-0.6740818,-4.3060427,0.75462359,-0.10926712,-0.64699602,0
-3.8668709,-2.4360747,-0.95440209,-0.55489713,-0.63251567,-0.54038227,0
-1.3451331,-2.3205061,2.5400534,-0.75462359,0.10926712,0.64699602,0
-2.6521206,-1.1225578,-3.068372,-0.64956224,-0.26385736,-0.71305537,0
1.0240314,3.9902549,1.0494361,0.30026913,0.93424034,0.19244063,0
-0.98116994,0.11779857,2.6314723,-0.75462359,0.10926712,0.64699602,0
-2.8910522,-2.842365,-1.5064543,-0.53108054,-0.68079627,-0.50445008,0
-3.6828432,0.086449981,-0.52209496,-0.75462359,0.10926712,0.64699602,0
-1.9031366,-0.30263805,-4.0452781,-0.65392613,-0.043979019,-0.75527912,0
-2.3179364,-3.7857833,0.39740145,-0.27395278,-0.94845057,-0.15934667,0
-3.7459822,-1.8978888,-0.17873311,-0.75462359,0.10926712,0.64699602,0
-3.0797658,2.1605732,0.028275013,-0.75462359,0.10926712,0.64699602,0
-1.6105375,0.8206923,1.7584469,-0.75462359,0.10926712,0.64699602,0
-2.2108696,-3.277616,1.9139053,-0.75462359,0.10926712,0.64699602,0
3.6990204,0.42205715,2.4151893,0.6560598,0.14269572,0.74109608,0
-2.5567713,-3.1052175,1.3362328,-0.75462359,0.10926712,0.64699602,0
1.711998,-0.97242975,-1.7195585,0.75462359,-0.10926712,-0.64699602,0
-0.31115365,-1.0872405,-4.0627451,0.75462359,-0.10926712,-0.64699602,0
-0.4228791,-1.1996081,3.63411,-0.75462359,0.10926712,0.64699602,0
-1.0409868,-4.1506557,1.1949782,-0.038057268,-0.99166572,0.1230883,0
-1.8565273,4.2433448,-0.25213289,-0.12149066,0.94572055,-0.30141765,0
-3.7650962,0.047739267,-0.67890215,-0.75462359,0.10926712,0.64699602,0
-2.1994505,-0.60097837,1.4989805,-0.75462359,0.10926712,0.64699602,0
-1.9266129,2.0574107,1.3180679,-0.75462359,0.10926712,0.64699602,0
0.61401606,3.0780618,3.4259779,0.52807587,0.68639308,0.50000036,0
-2.6222994,0.16393304,-3.2440298,-0.64774334,0.033353716,-0.76112807,0
-1.8385109,1.5399555,-3.6889951,-0.56861371,0.38317084,-0.7279138,0
-2.2761388,4.0600777,-0.54455757,-0.20122811,0.89998543,-0.38669538,0
1.4260187,4.0149622,0.27549195,0.2554934,0.95714813,0.13634774,0
-1.6350935,-2.2721512,-3.5325763,-0.60169137,-0.50856942,-0.6158933,0
-2.1679373,-1.8686854,1.6569295,-0.75462359,0.10926712,0.64699602,0
-3.5029318,-2.2995548,-1.4883208,-0.56814897,-0.60208917,-0.56097722,0
-0.27797604,-1.3674076,-4.0553937,0.75462359,-0.10926712,-0.64699602,0
4.3432736,-0.54210997,1.3155346,0.75462359,-0.10926712,-0.64699602,0
-0.10235453,2.8031838,3.2084613,-0.75462359,0.10926712,0.64699602,0
-0.85899353,-4.0895896,1.5788317,0.030435383,-0.97914696,0.2008605,0
3.70242,2.6698577,0.12456059,0.75462359,-0.10926712,-0.64699602,0
0.082456827,4.0922294,-0.94373131,-0.0085180402,0.98432267,-0.1761713,0
3.1904538,0.54344881,2.7142832,0.65610385,0.13831267,0.74188781,0
-1.1651015,4.3499923,0.89052749,0.076433957,0.99396265,-0.078715444,0
-3.5365095,-3.3781235,0.25404078,-0.39915663,-0.85905135,-0.32047614,0
-1.2505808,4.3173075,1.6317544,-0.75462359,0.10926712,0.64699602,0
2.7226999,3.7381961,-0.86637819,0.2436462,0.96220124,0.12167633,0
1.5219526,-2.1648126,-1.807662,0.75462359,-0.10926712,-0.64699602,0
-2.8079758,0.81322837,-3.1092463,-0.62809974,0.16496915,-0.76044452,0
-2.2032552,-3.8311479,2.0943673,-0.75462359,0.10926712,0.64699602,0
-1.9435132,-3.67838,-1.2840924,-0.40267336,-0.85564572,-0.3251532,0
-0.77619839,-2.6617818,-3.7993689,-0.5800035,-0.57215309,-0.57985938,0
-0.4193064,0.037226677,3.4227786,-0.75462359,0.10926712,0.64699602,0
-2.4871376,-1.1627833,-3.355556,-0.64881599,-0.27135023,-0.71091962,0
-1.0572231,1.5824883,2.3690066,-0.75462359,0.10926712,0.64699602,0
-0.76801991,-0.15342951,-4.6122046,0.75462359,-0.10926712,-0.64699602,0
-3.9708505,0.79307348,-2.0171371,-0.63169289,0.14576298,-0.76139176,0
-1.9482851,0.9225421,1.2890496,-0.75462359,0.10926712,0.64699602,0
1.717062,0.71076059,-1.9549925,0.75462359,-0.10926712,-0.64699602,0
2.0568101,-3.2437453,1.8295698,0.36962092,-0.74392015,0.55674338,0
-0.31304121,-4.0383358,-2.2695735,-0.35629302,-0.89624381,-0.26420116,0
0.62605739,3.7421846,-2.2636049,-0.13271734,0.94023925,-0.31358618,0
-1.7279763,-3.7267249,2.5876029,-0.75462359,0.10926712,0.64699602,0
0.2129599,2.9523611,-3.7641845,-0.35261673,0.76402307,-0.54030561,0
-1.7901204,-3.9348485,-0.10710263,-0.27531075,-0.94777024,-0.16104555,0
-0.70610833,4.1903739,-0.59425831,-0.064164758,0.96902269,-0.23849088,0
1.1379453,3.9998629,-2.0961883,-0.049567759,0.97372651,-0.22225994,0
0.19079375,-0.29749465,-3.6156268,0.75462359,-0.10926712,-0.64699602,0
2.0035057,-4.379169,-0.83260632,0.75462359,-0.10926712,-0.64699602,0
3.5623422,-0.7473163,2.5079365,0.62838948,-0.16346896,0.7605291,0
1.3684095,3.4335537,-2.9263129,0.75462359,-0.10926712,-0.64699602,0
-2.1290913,-2.8515296,-2.4796205,-0.54785955,-0.64756411,-0.52963263,0
-4.3069911,0.55115163,-1.8602538,-0.64347786,0.06967476,-0.7622872,0
1.2373458,-0.36007762,-2.3823655,0.75462359,-0.10926712,-0.64699602,0
2.5466342,-2.3781531,-0.44960284,0.75462359,-0.10926712,-0.64699602,0
-0.26881886,-4.2396712,-1.2305104,-0.2337271,-0.96612293,-0.10944489,0
2.6793666,1.5771801,-1.0726688,0.75462359,-0.10926712,-0.64699602,0
-3.1253541,1.4804847,-2.7042708,-0.59328663,0.30755824,-0.74392128,0
-0.63963753,2.2373416,-4.114275,-0.49114329,0.55979854,-0.6673857,0
3.3114362,-2.4732175,1.9108424,0.5075829,-0.52765459,0.68113148,0
3.2364435,1.0197841,-0.36194801,0.75462359,-0.10926712,-0.64699602,0
-0.38566732,-3.701236,-2.9980698,-0.45749748,-0.79444927,-0.39943245,0
1.3917879,3.3244205,-2.68873,0.75462359,-0.10926712,-0.64699602,0
-1.8603361,1.2456193,-3.6530266,-0.58546573,0.33308494,-0.73911047,0
-3.3890173,1.5975075,-0.43136311,-0.75462359,0.10926712,0.64699602,0
-2.9776578,2.6316223,-0.12718678,-0.75462359,0.10926712,0.64699602,0
2.521111,3.4160719,0.68574017,0.40776396,0.85061407,0.33194038,0
-0.79498208,-2.4050665,3.388696,-0.75462359,0.10926712,0.64699602,0
-3.8714747,-1.392102,-0.37182045,-0.75462359,0.10926712,0.64699602,0
0.20693982,-0.86650872,4.1093674,-0.75462359,0.10926712,0.64699602,0
0.4134922,4.0173726,2.1957612,0.35830146,0.89466906,0.2668097,0
-2.7634213,4.0997701,0.098551273,-0.75462359,0.10926712,0.64699602,0
3.5438366,-0.44495976,0.40390801,0.75462359,-0.10926712,-0.64699602,0
3.8871348,2.686224,0.71517622,0.52579218,0.69058073,0.49662948,0
0.58479571,-0.81749582,4.7417192,-0.75462359,0.10926712,0.64699602,0
0.17986512,-2.9274845,-3.1909208,0.75462359,-0.10926712,-0.64699602,0
4.4110436,1.1327744,0.99056363,0.75462359,-0.10926712,-0.64699602,0
-1.8183492,-3.674408,2.4791796,-0.75462359,0.10926712,0.64699602,0
-4.0175438,1.1571279,-1.9406929,-0.61544192,0.2240676,-0.75566185,0
-3.0891171,-0.22986639,0.38104403,-0.75462359,0.10926712,0.64699602,0
0.012970805,-2.2608051,4.2762823,-0.75462359,0.10926712,0.64699602,0
3.8066535,-0.58126903,0.67571306,0.75462359,-0.10926712,-0.64699602,0
-0.070714474,-1.3430636,-3.5915496,0.75462359,-0.10926712,-0.64699602,0
-1.8179929,1.7763643,-3.4814122,-0.54258651,0.45056236,-0.70893824,0
-4.4230161,-0.3848514,-1.7849846,-0.65615374,-0.12917861,-0.74348843,0
-1.8102682,4.1375775,1.0453565,-0.75462359,0.10926712,0.64699602,0
3.431927,0.38934827,-0.016643524,0.75462359,-0.10926712,-0.64699602,0
-1.7037314,1.8102744,1.571929,-0.75462359,0.10926712,0.64699602,0
-1.9759898,-1.5765682,1.970525,-0.75462359,0.10926712,0.64699602,0
-4.2990875,-1.2758374,-1.0530705,-0.75462359,0.10926712,0.64699602,0
-3.8475351,1.21365,-2.1618147,-0.60824186,0.25339827,-0.75221747,0
1.8248008,0.37098956,4.1329441,0.65424764,0.050112695,0.75461823,0
2.0214384,-3.8264556,0.89614296,0.23945624,-0.87217283,0.42658567,0
-3.6124482,2.3685036,-0.82325268,-0.75462359,0.10926712,0.64699602,0
-3.053092,0.35014379,0.16596746,-0.75462359,0.10926712,0.64699602,0
2.9858437,-2.8743958,0.063313484,0.75462359,-0.10926712,-0.64699602,0
4.1683111,-0.15763669,2.1242743,0.65246481,0.020487756,0.75754201,0
1.2565691,2.3070762,-2.7706995,0.75462359,-0.10926712,-0.64699602,0
2.4964292,-2.1786296,2.806294,0.51998526,-0.50181007,0.69123232,0
0.46794224,-4.3220181,-0.82339692,-0.1430735,-0.98971206,0.00027263165,0
0.94391739,-3.2987447,2.3320189,0.30414778,-0.81546092,0.49246085,0
-0.615839,2.3551617,-4.0874519,-0.48262289,0.5756042,-0.66011739,0
-3.5665879,-2.2729888,-1.4986166,-0.58274418,-0.56480664,-0.58429664,0
-0.12659979,3.3208356,3.15521,-0.75462359,0.10926712,0.64699602,0
-0.17813629,-2.2406063,4.1640739,-0.75462359,0.10926712,0.64699602,0
-3.946945,-1.2480229,-1.8317907,-0.63812149,-0.3518115,-0.68485737,0
-0.62644887,3.6548328,2.63217,-0.75462359,0.10926712,0.64699602,0
-1.6966906,3.1777072,1.442826,-0.75462359,0.10926712,0.64699602,0
-1.4242479,1.5023661,1.8871545,-0.75462359,0.10926712,0.64699602,0
0.58733177,-4.3431435,-2.1043286,-0.26382518,-0.95334828,-0.14670718,0
1.2529238,-0.66698337,-2.3775535,0.75462359,-0.10926712,-0.64699602,0
0.32594442,2.8925216,3.7286439,-0.75462359,0.10926712,0.64699602,0
1.8718666,2.1515403,-1.9072847,0.75462359,-0.10926712,-0.64699602,0
-0.93832576,0.71743202,-4.6933985,-0.6129055,0.23469141,-0.75449771,0
1.871627,-0.51635289,3.9321365,0.6330452,-0.13816258,0.76168543,0
-3.6159475,-1.2395974,-0.077148318,-0.75462359,0.10926712,0.64699602,0
-3.0055413,-3.49649,-0.1232056,-0.37790745,-0.87845254,-0.29241571,0
