-1.7816129,-4.8514709,2.6170483,0.31101573,-0.59693766,0.73955035,0
4.2342305,1.8650675,-0.51544261,0.80699599,0.57689953,0.12627211,0
-4.0767617,-2.2396884,0.47324729,-0.80699599,-0.57689953,-0.12627211,0
-2.4941163,-3.8435626,-1.6571735,-0.80699599,-0.57689953,-0.12627211,0
2.4528813,-2.6724813,2.1576331,0.44796625,-0.73731661,0.50565857,0
5.0768695,0.99441957,-1.2992685,0.80699599,0.57689953,0.12627211,0
-5.2810421,0.23543358,-2.1781342,-0.80699599,-0.57689953,-0.12627211,0
-2.0193763,-5.3100824,1.7895088,-0.80699599,-0.57689953,-0.12627211,0
5.2289176,0.59624386,-0.44148743,0.80699599,0.57689953,0.12627211,0
1.6461147,5.5268917,0.11268473,0.80699599,0.57689953,0.12627211,0
-1.2056313,-1.0466812,4.0433731,-0.078231275,-0.10750347,0.99112201,0
4.72786,1.3938842,-1.5443673,0.80699599,0.57689953,0.12627211,0
4.7112699,-1.5487471,1.6222386,0.52771568,-0.80042601,0.28431392,0
1.0610267,-3.2178869,2.5421991,0.39555916,-0.68679869,0.60978734,0
2.2833319,3.9628963,2.4049554,0.80699599,0.57689953,0.12627211,0
0.020815849,1.5301039,-3.9532084,-0.076307714,0.31388909,-0.94638836,0
-2.9543872,-0.12870854,3.7246125,-0.31422925,0.23842606,0.91891944,0
-4.9609003,-1.0932875,1.5064274,-0.80699599,-0.57689953,-0.12627211,0
4.3808041,2.1516538,-2.8359659,0.80699599,0.57689953,0.12627211,0
2.6091075,-1.4672458,-3.2266743,0.44176435,-0.44781023,-0.77737391,0
-2.0477657,-1.7061939,-4.5797877,0.13239753,0.031638771,-0.99069166,0
4.5926065,-1.8682537,0.42564559,0.5811609,-0.81378007,0.003759861,0
4.7528234,0.48413038,3.2572708,0.80699599,0.57689953,0.12627211,0
2.3120222,3.6131239,-3.5123606,-0.12752807,0.37901044,-0.91656315,0
3.4613979,-2.6604607,1.1314118,0.54437006,-0.80957282,0.219666,0
2.5006704,4.2153549,0.91174984,0.80699599,0.57689953,0.12627211,0
-1.8193308,3.3110204,2.3108013,-0.55130941,0.65929389,0.51126266,0
-4.9726315,-0.45094967,-1.7138979,-0.80699599,-0.57689953,-0.12627211,0
-3.7199216,1.4247644,2.2710476,-0.52146852,0.59575069,0.61086148,0
-4.3245296,1.9834199,-1.2112811,-0.5499379,0.81203884,-0.19534898,0
-0.97904181,-5.2796917,-2.4156718,0.56333828,-0.68783307,-0.45775077,0
-1.4848976,0.62683821,3.8395116,-0.28270572,0.18965599,0.94027025,0
-1.7464213,2.8681304,2.7387297,-0.52380753,0.60048282,0.60419029,0
4.3364182,1.2791147,2.7643175,0.80699599,0.57689953,0.12627211,0
-5.013978,-0.7965889,-0.69543564,-0.80699599,-0.57689953,-0.12627211,0
5.3060188,0.15348148,0.70146167,0.80699599,0.57689953,0.12627211,0
-4.4967289,-2.0246773,2.192024,-0.80699599,-0.57689953,-0.12627211,0
0.028757572,4.1830211,-2.2529283,-0.39906889,0.69032818,-0.60348243,0
5.4168496,0.34993219,-0.028369009,0.80699599,0.57689953,0.12627211,0
1.7820333,5.0231652,1.898963,0.80699599,0.57689953,0.12627211,0
-2.9885321,2.0138512,-2.8938878,-0.39425066,0.68547797,-0.61211628,0
4.2652168,-0.46400928,3.5093215,0.33216298,-0.62019426,0.71065253,0
-0.64996469,4.552341,-0.57403755,-0.54722941,0.81088388,-0.20738196,0
-1.2576947,-6.0133133,-0.4223299,-0.80699599,-0.57689953,-0.12627211,0
-2.2393696,-4.8849082,1.2419653,-0.80699599,-0.57689953,-0.12627211,0
4.9025769,-1.4613929,-0.95681036,0.58194685,-0.74046046,-0.33623821,0
4.2591267,1.9500022,-0.053340435,0.80699599,0.57689953,0.12627211,0
-2.7573204,-3.615787,-0.81761789,-0.80699599,-0.57689953,-0.12627211,0
-6.0316253,0.16831255,1.4880382,-0.80699599,-0.57689953,-0.12627211,0
-4.1358895,-2.5174899,2.283886,-0.80699599,-0.57689953,-0.12627211,0
-2.8091853,-4.3345184,3.2183938,0.17853934,-0.44214469,0.87899494,0
5.2889967,-1.4369054,-0.38373733,0.59054208,-0.78679276,-0.17949122,0
0.96753216,-0.50254655,4.2839823,0.041370273,-0.26851833,0.96238589,0
-1.0131476,0.68331671,4.0229735,-0.24619329,0.13429016,0.95987242,0
2.9532261,4.169847,-2.8527889,0.80699599,0.57689953,0.12627211,0
0.4734211,1.1150931,-4.0987234,0.0036312342,0.20896724,-0.97791594,0
1.3567154,-3.8875444,1.3120756,0.50424612,-0.78441393,0.36115158,0
1.6590581,5.0072565,1.9267631,0.80699599,0.57689953,0.12627211,0
4.7779078,1.5548415,-1.7559814,0.80699599,0.57689953,0.12627211,0
-3.8049874,-2.5455651,-0.36194515,-0.80699599,-0.57689953,-0.12627211,0
-1.8290977,-5.6994286,1.8852696,0.42268163,-0.71356165,0.5587219,0
4.6677918,0.60681438,-3.0763717,0.40172422,-0.37953484,-0.83340931,0
1.4365518,3.942359,-3.1761518,-0.23454767,0.50932848,-0.82799286,0
4.6998873,-0.56827974,-2.4724748,0.50518787,-0.56363767,-0.65352726,0
2.2369828,-0.88764024,-3.7080379,0.36230105,-0.3147817,-0.87729728,0
4.8550997,1.1738253,-0.93492967,0.80699599,0.57689953,0.12627211,0
0.06486249,4.0992308,3.023371,-0.5199694,0.59273487,0.61505866,0
-4.2868929,-0.98127651,-4.3650694,-0.80699599,-0.57689953,-0.12627211,0
-3.5471232,-2.5490875,-1.30301,-0.80699599,-0.57689953,-0.12627211,0
5.4234786,-0.057579994,1.8772111,0.80699599,0.57689953,0.12627211,0
0.88018084,-2.8659317,-3.4490242,0.45104423,-0.46407789,-0.76235867,0
-4.4824576,-1.1098032,-2.3895283,-0.80699599,-0.57689953,-0.12627211,0
-4.0330906,-2.1849236,3.7698157,-0.1793471,0.035689801,0.98313832,0
4.5273504,1.4733024,0.12200022,0.80699599,0.57689953,0.12627211,0
1.5396082,-2.7615125,2.9355271,0.35193908,-0.64150429,0.68162388,0
5.4833422,0.12943411,-0.27503955,0.80699599,0.57689953,0.12627211,0
-0.95656371,3.5836596,2.7445004,-0.52772415,0.60848355,0.59266764,0
-3.5705547,1.6975067,2.1528029,-0.53509712,0.62383556,0.56964922,0
5.2203016,0.64869452,-0.99288547,0.80699599,0.57689953,0.12627211,0
3.9642119,0.7620883,4.3775291,0.14596128,-0.40202817,0.90391862,0
1.2329856,-2.9509902,2.7105775,0.35848054,-0.64845318,0.67156559,0
4.1553941,1.10816,3.885525,0.80699599,0.57689953,0.12627211,0
2.9828963,3.0806289,3.0826178,0.80699599,0.57689953,0.12627211,0
-1.6455965,3.9664347,-0.7801795,-0.5474174,0.81096685,-0.20656013,0
1.0282795,4.040061,3.8371105,-0.44468197,0.45290458,0.77274537,0
0.7790947,4.8822012,2.9934301,-0.53513074,0.62390661,0.56953979,0
4.6646581,2.121748,-3.1457057,0.80699599,0.57689953,0.12627211,0
-5.812233,0.0423913,1.0229636,-0.80699599,-0.57689953,-0.12627211,0
4.7759967,-0.65822577,-2.3373098,0.5098418,-0.5726825,-0.64194715,0
3.6064842,1.1646569,-3.738873,0.24915212,-0.13873476,-0.95847577,0
-3.2027025,-3.2459381,0.028246641,-0.80699599,-0.57689953,-0.12627211,0
4.1600714,1.7795787,0.35397357,0.80699599,0.57689953,0.12627211,0
-4.3896022,-1.1661289,3.4020123,-0.32494003,0.25521979,0.9106465,0
-1.3130665,-3.1819968,-4.191586,0.35431045,-0.30190662,-0.88505173,0
4.6394672,0.33885527,3.9315701,0.25109464,-0.52871436,0.81081003,0
-6.0559406,0.78488493,-0.28056455,-0.80699599,-0.57689953,-0.12627211,0
4.1567287,2.4714503,-1.5951426,0.80699599,0.57689953,0.12627211,0
-2.114615,-4.6367173,-1.5418479,-0.80699599,-0.57689953,-0.12627211,0
-1.8409653,-4.4877977,-3.076757,-0.80699599,-0.57689953,-0.12627211,0
-2.1092665,-4.8717031,0.22968197,-0.80699599,-0.57689953,-0.12627211,0
-5.3847008,0.23237395,1.9764056,-0.53013301,0.61345559,0.58534706,0
0.91325855,0.069643378,-4.0468183,0.16688031,-0.017664015,-0.98581898,0
-3.3932905,-3.9020879,3.3361835,-0.80699599,-0.57689953,-0.12627211,0
-4.4334464,-0.96560979,3.42518,-0.32778132,0.2596947,0.90836012,0
-0.226789,-1.0989746,3.9935637,0.0065746307,-0.22258183,0.9748919,0
4.5487928,-1.7415731,1.5453203,0.52602631,-0.79937893,0.29032683,0
-4.0031462,1.7597163,-2.4299564,-0.44777173,0.73713875,-0.50608987,0
5.6746316,-0.51361513,2.0174496,0.80699599,0.57689953,0.12627211,0
-0.86863637,-2.0509977,3.8843036,0.044453502,-0.27255276,0.96111345,0
-3.1934738,-0.87869167,-4.4402981,-0.066370249,0.30106145,-0.95129222,0
2.6625795,-1.9475445,-2.8247092,0.49550402,-0.54511642,-0.67625719,0
1.8439898,-1.1531956,-3.6043386,0.36659509,-0.32173303,-0.87298119,0
5.3427029,-0.813411,-1.2259005,0.57177967,-0.70977783,-0.41144073,0
5.7105312,-0.011684895,-0.66272509,0.80699599,0.57689953,0.12627211,0
1.2094223,5.4501557,2.6362305,0.80699599,0.57689953,0.12627211,0
-4.3216038,-1.6449676,0.10706717,-0.80699599,-0.57689953,-0.12627211,0
3.7993693,2.9709117,-2.0227396,0.80699599,0.57689953,0.12627211,0
1.1497477,5.2066617,-1.8725238,-0.43100974,0.72152478,-0.54187876,0
-2.0886652,-5.296524,2.2498798,-0.80699599,-0.57689953,-0.12627211,0
-0.21946332,4.886764,-0.66340637,-0.53922617,0.80700219,-0.24079609,0
4.059206,1.9805183,0.94502819,0.80699599,0.57689953,0.12627211,0
3.9790759,-0.58979416,3.6069984,0.30630314,-0.59169286,0.74570644,0
-0.44625616,-5.3946524,0.54407454,0.54611254,-0.81038249,0.21222937,0
-2.826602,-3.5890265,-0.40757942,-0.80699599,-0.57689953,-0.12627211,0
1.0860819,-3.7059102,1.9302588,0.45728809,-0.74573219,0.484532,0
-3.5870433,-2.4573989,-0.7570461,-0.80699599,-0.57689953,-0.12627211,0
3.858371,1.6419659,4.0319843,0.80699599,0.57689953,0.12627211,0
-4.3024211,0.065328598,-3.9329686,-0.25247061,0.53031623,-0.80933523,0
0.082132995,4.9249287,-1.0710993,-0.50883174,0.78776497,-0.34715545,0
-4.6857576,0.2646153,2.747963,-0.47022066,0.49833789,0.72838998,0
4.4667077,1.5428977,-0.2613669,0.80699599,0.57689953,0.12627211,0
4.7534418,0.71354485,2.1125371,0.80699599,0.57689953,0.12627211,0
-3.7405171,-2.6553974,0.43036628,-0.80699599,-0.57689953,-0.12627211,0
-4.6177235,1.3818719,-2.2844021,-0.47051805,0.75730956,-0.4528743,0
-2.6008425,-3.1400566,3.6667783,0.048164725,-0.27740127,0.95954609,0
-3.8589206,-2.8804862,1.668926,-0.80699599,-0.57689953,-0.12627211,0
2.7270002,3.9323816,-3.2786684,-0.1261037,0.37722254,-0.91749722,0
3.0415692,3.163372,1.4778967,0.80699599,0.57689953,0.12627211,0
-3.3406904,-3.3343916,1.1315744,-0.80699599,-0.57689953,-0.12627211,0
5.9186869,-0.57182169,0.64330161,0.80699599,0.57689953,0.12627211,0
-0.54146409,0.32019329,4.1499691,-0.1781854,0.034005493,0.98340923,0
2.9202111,-1.0995051,-3.1472144,0.44012684,-0.44495881,-0.77993608,0
2.6025548,4.6412053,-1.9332824,0.80699599,0.57689953,0.12627211,0
-1.6643341,1.8098618,-3.6588526,-0.24214286,0.51825428,-0.82023144,0
1.8362139,-3.1493964,2.3327961,0.42721626,-0.71791363,0.54962403,0
-1.2918289,-5.3346896,1.6861944,0.43463832,-0.72495329,0.53435218,0
2.8423615,-1.5301757,-3.0300896,0.47433209,-0.50580913,-0.72053182,0
-1.065309,-0.15350056,4.2315001,-0.16689146,0.017679989,0.98581678,0
5.0742383,-0.14395428,3.5427547,0.34441963,-0.63345385,0.69290078,0
-3.8191721,1.8457353,1.6450462,-0.56432676,0.69030154,0.45279032,0
-0.61422253,-1.6520518,3.889905,0.034982324,-0.26014096,0.96493679,0
2.4948425,-2.7010324,2.4244111,0.43862098,-0.72868633,0.52595454,0
-5.1168852,-1.3115273,2.7260299,-0.80699599,-0.57689953,-0.12627211,0
1.2208176,-0.99838161,-3.9801238,0.29755723,-0.21251476,-0.93075091,0
2.8300562,-0.89618343,-3.2887039,0.41474015,-0.40141916,-0.81661087,0
-3.553582,-2.4235201,-1.5377382,-0.80699599,-0.57689953,-0.12627211,0
-4.5075259,-2.3033211,3.3663027,-0.80699599,-0.57689953,-0.12627211,0
-1.3773302,-5.6915312,-0.96342802,-0.80699599,-0.57689953,-0.12627211,0
-4.7716784,-0.67119408,-2.1432462,-0.80699599,-0.57689953,-0.12627211,0
-4.1644249,-1.716747,3.5903816,-0.24072927,0.12610093,0.96236593,0
1.3860691,-1.9940331,-3.6013803,0.41083097,-0.39481735,-0.82178903,0
-1.2136488,3.9545956,-1.3841424,-0.50355285,0.78389919,-0.36323082,0
4.2577715,2.0332217,-1.180912,0.80699599,0.57689953,0.12627211,0
-4.1472025,0.56377363,-3.5997849,-0.31344825,0.59963626,-0.73633313,0
0.049513996,-5.1505766,-0.79443693,0.58973491,-0.79851371,-0.12078339,0
-3.0673032,-2.9848576,-2.99617,-0.80699599,-0.57689953,-0.12627211,0
-5.5113668,-0.50270176,1.2585393,-0.80699599,-0.57689953,-0.12627211,0
-2.0386314,1.4517654,3.4135654,-0.41195607,0.39671487,0.82031059,0
2.82587,3.1711664,2.5854456,0.80699599,0.57689953,0.12627211,0
4.7376475,0.3260181,-2.8860292,0.42767406,-0.42345089,-0.79861397,0
4.0381222,2.3971894,-1.6086233,0.80699599,0.57689953,0.12627211,0
-1.5896785,-4.7407956,-3.5721357,0.47640806,-0.5096001,-0.71647954,0
-2.5056486,-4.2165337,0.007062912,-0.80699599,-0.57689953,-0.12627211,0
-0.39541447,3.97891,-2.156146,-0.41166925,0.70284122,-0.58012283,0
-2.0371535,-4.7645698,-1.0012479,-0.80699599,-0.57689953,-0.12627211,0
6.0704498,-0.57317257,-0.83809513,0.80699599,0.57689953,0.12627211,0
-0.83095503,3.1513059,-2.8265381,-0.35154167,0.6410805,-0.68222749,0
-4.1839137,-0.92911196,-4.0418158,-0.80699599,-0.57689953,-0.12627211,0
1.0398583,-4.0136194,1.632607,0.49136519,-0.77453154,0.39832306,0
2.9822762,4.0572128,-2.4909925,0.80699599,0.57689953,0.12627211,0
3.4672127,0.6763916,-3.56739,0.30191934,-0.21926817,-0.92777479,0
1.3506737,5.923522,-1.0533848,-0.49968961,0.78099364,-0.37464595,0
1.7982287,-3.7589054,-1.2682242,0.58861983,-0.76844251,-0.25104356,0
3.1878417,2.4199409,4.2268362,0.80699599,0.57689953,0.12627211,0
3.442534,0.42057788,-3.4587009,0.333942,-0.2694273,-0.9032672,0
-3.6718242,-2.5430374,-1.1859004,-0.80699599,-0.57689953,-0.12627211,0
6.00669,-0.62489939,0.59313726,0.80699599,0.57689953,0.12627211,0
-5.6097178,0.29659271,-0.89770651,-0.80699599,-0.57689953,-0.12627211,0
-2.3875673,-5.0065041,1.817297,-0.80699599,-0.57689953,-0.12627211,0
5.2760501,-0.023930073,1.2963678,0.80699599,0.57689953,0.12627211,0
-2.4566927,-4.221046,3.2161055,0.16683346,-0.4278146,0.88833618,0
-5.3374348,0.25726748,-2.5571032,-0.80699599,-0.57689953,-0.12627211,0
5.3555002,-0.39908242,-1.9681125,0.53192657,-0.61718446,-0.57977366,0
3.3005426,3.7703428,-2.6680326,0.80699599,0.57689953,0.12627211,0
-3.754514,-0.59264803,-4.217876,-0.14383727,0.39938748,-0.90542835,0
3.3393447,3.4305749,-1.3219025,0.80699599,0.57689953,0.12627211,0
-3.1873863,-3.9130435,2.1467896,-0.80699599,-0.57689953,-0.12627211,0
-5.2395082,-0.60293722,0.65624821,-0.80699599,-0.57689953,-0.12627211,0
-3.8142409,1.5677099,-2.6188135,-0.42641252,0.71714497,-0.55124915,0
1.6271331,-1.8720526,3.6139367,0.25483668,-0.53306729,0.80678231,0
-0.32544708,3.9036767,2.8645473,-0.51699758,0.58679456,0.62320602,0
3.0243177,3.9329987,-1.9832282,0.80699599,0.57689953,0.12627211,0
3.6759386,2.3868756,0.70879197,0.80699599,0.57689953,0.12627211,0
-2.1470048,-0.87397337,-4.5341625,0.015818357,0.19262594,-0.98114479,0
-5.3129654,-0.84596086,2.8078485,-0.80699599,-0.57689953,-0.12627211,0
-3.651588,-3.3554056,3.0748315,-0.80699599,-0.57689953,-0.12627211,0
4.4066286,1.0600324,2.7958002,0.80699599,0.57689953,0.12627211,0
2.4579339,4.3287592,0.15070581,0.80699599,0.57689953,0.12627211,0
0.034151554,-4.5571871,-2.4757075,0.56140834,-0.68307674,-0.46714753,0
2.0789094,3.9118981,-3.2515473,-0.17484885,0.43763724,-0.88198739,0
-5.5168829,-0.29240894,1.5952028,-0.80699599,-0.57689953,-0.12627211,0
5.7773247,0.14548016,-1.1621406,0.80699599,0.57689953,0.12627211,0
1.4623663,5.1260328,2.7841542,0.80699599,0.57689953,0.12627211,0
-2.5968363,-0.43733501,-4.3221374,-0.058338821,0.29064912,-0.95504957,0
-2.4385471,-3.4921689,-3.9474277,-0.80699599,-0.57689953,-0.12627211,0
-2.7295518,-2.9115562,3.7419736,0.0047017336,-0.22008811,0.97546875,0
-3.7260661,2.3047626,1.2320095,-0.58317983,0.74479401,0.3243196,0
4.6751556,0.68470478,3.3178144,0.80699599,0.57689953,0.12627211,0
-1.9962405,-4.2991652,-2.7640944,-0.80699599,-0.57689953,-0.12627211,0
5.2562408,-0.60874176,2.9914896,0.4252688,-0.71604913,0.55355233,0
-2.7703032,-4.5201778,2.8672328,-0.80699599,-0.57689953,-0.12627211,0
5.6662431,0.047724247,-2.0675635,0.52033365,-0.5934664,-0.61404449,0
0.3147881,2.2569432,-3.746268,-0.12604696,0.37715119,-0.91753435,0
5.6423254,0.055593967,-1.4466692,0.80699599,0.57689953,0.12627211,0
3.1009367,-2.9062123,-0.042179823,0.58424532,-0.81108469,-0.028266847,0
2.8795352,3.8428521,-0.12810159,0.80699599,0.57689953,0.12627211,0
3.8030026,1.6026149,4.6312723,0.80699599,0.57689953,0.12627211,0
-0.90117526,-3.5368271,-4.0378952,0.40046316,-0.37742907,-0.83497095,0
-3.2546725,-2.8835745,-0.89734852,-0.80699599,-0.57689953,-0.12627211,0
-5.4297047,-0.45976353,0.77746546,-0.80699599,-0.57689953,-0.12627211,0
-4.9601178,-0.79889202,-0.72878265,-0.80699599,-0.57689953,-0.12627211,0
-3.2539253,-3.4430528,1.4467311,-0.80699599,-0.57689953,-0.12627211,0
-0.98627114,2.7428527,-3.1548302,-0.30333608,0.5883795,-0.74953103,0
-3.0330517,2.3582034,2.0549798,-0.55557424,0.66913605,0.49355268,0
-2.2829571,-4.6563215,0.57813311,-0.80699599,-0.57689953,-0.12627211,0
4.5614552,-0.88438869,-2.3020191,0.52513283,-0.60317898,-0.60034209,0
2.6390538,-2.6784048,-2.1797898,0.55223197,-0.66140097,-0.507532,0
-3.6939697,-3.4157941,2.9484029,-0.80699599,-0.57689953,-0.12627211,0
-4.3788142,1.9517556,0.56526303,-0.59049475,0.78514439,0.18671978,0
0.50306821,2.8161037,-3.5070543,-0.17628479,0.43939218,-0.88082814,0
2.0689473,-0.29537177,4.2061591,0.097392261,-0.34089959,0.93504137,0
-2.5902505,2.4497046,-2.5643651,-0.40895069,0.70016319,-0.58526152,0
-1.1407862,-6.0611072,-0.29455137,-0.80699599,-0.57689953,-0.12627211,0
-2.2022834,-4.4711637,-0.97844076,-0.80699599,-0.57689953,-0.12627211,0
4.3482919,-1.5518,2.3104382,0.4670817,-0.75434655,0.46129823,0
2.6462984,3.2358894,3.6944535,0.80699599,0.57689953,0.12627211,0
0.70682001,4.7132435,2.9841032,-0.52943516,0.61201096,0.58748704,0
4.8043213,0.91048479,1.0453441,0.80699599,0.57689953,0.12627211,0
1.2341888,-3.3209023,2.4202652,0.41254443,-0.70370078,0.57845694,0
-2.3006492,-4.8872976,1.8090625,-0.80699599,-0.57689953,-0.12627211,0
-1.0154699,-5.8426619,0.22116995,0.55279881,-0.81315762,0.18217635,0
-2.1628594,-4.2334089,-2.6790729,-0.80699599,-0.57689953,-0.12627211,0
-1.953178,3.5212359,-1.2018113,-0.52934456,0.80141729,-0.27843261,0
-3.7587883,-1.9549208,-2.4622772,-0.80699599,-0.57689953,-0.12627211,0
2.0907466,1.080405,-4.0828638,0.15211248,0.0035494268,-0.98835683,0
4.3444633,2.4005873,-3.4648285,0.80699599,0.57689953,0.12627211,0
-4.1823425,0.3899883,2.8962965,-0.46196863,0.48348168,0.74352562,0
5.2894754,-1.3974428,0.9894774,0.56038469,-0.81552655,0.14451838,0
-1.0585272,1.1926473,3.9025998,-0.30692697,0.22704333,0.92425495,0
-2.6041312,-4.1577945,-0.54783106,-0.80699599,-0.57689953,-0.12627211,0
1.1421008,-3.7370954,-2.2704077,0.55266309,-0.66238958,-0.50577033,0
2.8585451,3.7118094,0.28363347,0.80699599,0.57689953,0.12627211,0
1.441999,4.8783331,3.2849991,-0.5051989,0.56365919,0.65350008,0
3.3028433,2.7198281,2.2806938,0.80699599,0.57689953,0.12627211,0
3.5900626,2.1263256,3.473762,0.80699599,0.57689953,0.12627211,0
-3.7691474,-1.5591811,3.710712,-0.21365702,0.08587575,0.97312695,0
-2.1174889,-4.782361,0.41225576,-0.80699599,-0.57689953,-0.12627211,0
0.078161567,5.163208,0.029095173,-0.56893373,0.81679744,-0.09568882,0
5.4338565,0.62301826,-1.8980287,0.80699599,0.57689953,0.12627211,0
2.8799784,3.4292402,0.86615109,0.80699599,0.57689953,0.12627211,0
2.3735757,-2.5934277,-2.5338202,0.53196168,-0.61725765,-0.57966352,0
-1.6414225,-4.7177916,-3.4971044,-0.80699599,-0.57689953,-0.12627211,0
-1.7596967,-5.5016866,0.97703314,-0.80699599,-0.57689953,-0.12627211,0
-1.8162624,-5.6331139,1.3977857,-0.80699599,-0.57689953,-0.12627211,0
-4.077117,-1.5544946,3.5184326,-0.25891691,0.15345439,0.95363194,0
-0.4529767,-2.3077104,3.7903869,0.1281544,-0.37979624,0.91615039,0
-0.44713521,-3.7072728,2.8308115,0.30189329,-0.58676529,0.75137681,0
-4.2644382,-1.2378149,-2.0920429,-0.80699599,-0.57689953,-0.12627211,0
-3.8149149,-3.0574081,2.622601,-0.80699599,-0.57689953,-0.12627211,0
-4.1225133,-2.0967488,-0.076531887,-0.80699599,-0.57689953,-0.12627211,0
1.3031173,5.5426731,2.1051772,0.80699599,0.57689953,0.12627211,0
0.50743914,-2.9646401,-3.519558,0.45279723,-0.46717235,-0.75942397,0
-0.22116089,-2.5919101,-4.0469599,0.36572784,-0.32032728,-0.87386131,0
5.2073197,-0.051288128,2.7442656,0.80699599,0.57689953,0.12627211,0
4.0915208,2.5790169,-2.5844221,0.80699599,0.57689953,0.12627211,0
-4.8257127,-0.19260693,-3.7633686,-0.80699599,-0.57689953,-0.12627211,0
-3.8124213,2.4756398,0.41331315,-0.59028649,0.79444337,0.14290428,0
-0.46018887,-1.1770699,-4.3459635,0.18337899,-0.041543126,-0.9821642,0
1.6530601,5.4293184,-0.30470181,0.80699599,0.57689953,0.12627211,0
-1.6139634,1.9676797,-3.5011344,-0.26864058,0.54902279,-0.79145843,0
-1.7648895,-4.541019,-3.0550556,-0.80699599,-0.57689953,-0.12627211,0
3.5033078,3.2887084,-2.5311618,0.80699599,0.57689953,0.12627211,0
-3.8280358,-3.2946889,3.1249208,-0.80699599,-0.57689953,-0.12627211,0
-5.852046,0.14982367,1.7950808,-0.53784937,0.62967491,0.56056005,0
5.3630161,0.37392044,-0.68424278,0.80699599,0.57689953,0.12627211,0
3.8633487,3.0611773,-3.250108,0.80699599,0.57689953,0.12627211,0
0.3334831,-4.0345669,2.2361765,0.4093661,-0.70057315,0.58447993,0
2.4294677,-0.41559476,-3.62467,0.32766771,-0.25951558,-0.90845233,0
3.6250882,1.4590435,4.6881742,0.01289475,-0.23098089,0.97287285,0
-0.94020778,4.4943056,1.2778811,-0.58959812,0.77487296,0.2279166,0
-2.7080936,-3.1475339,-3.5374131,-0.80699599,-0.57689953,-0.12627211,0
-1.1168785,4.4047842,1.0811002,-0.59052563,0.78608501,0.18261969,0
0.067890644,5.1799259,0.78774166,-0.58859497,0.80312878,0.092413247,0
0.90916741,5.8567185,0.99916315,-0.58849072,0.80344558,0.090299308,0
1.506119,-3.64396,1.5770893,0.4913981,-0.77455747,0.3982321,0
4.4509177,1.3574247,0.78838265,0.80699599,0.57689953,0.12627211,0
-3.0293555,-3.6905615,1.177506,-0.80699599,-0.57689953,-0.12627211,0
0.70677042,1.7439833,-3.9259167,-0.039020121,0.26543918,-0.96333778,0
-3.721108,-2.3988476,-0.17511618,-0.80699599,-0.57689953,-0.12627211,0
4.1444516,2.2037888,-0.19004202,0.80699599,0.57689953,0.12627211,0
-1.5175123,-5.6668968,0.096345901,-0.80699599,-0.57689953,-0.12627211,0
-2.2364736,-4.214088,3.1124501,0.21296841,-0.483722,0.84891558,0
1.1714103,0.81890345,4.5778737,-0.10137343,-0.075321674,0.99199307,0
-3.7944829,-0.11571932,-4.136559,-0.2122944,0.48291647,-0.8495428,0
4.487896,1.089901,2.2313313,0.80699599,0.57689953,0.12627211,0
-3.147743,2.7835031,-1.0913804,-0.54566914,0.81017959,-0.21413577,0
-2.7570136,-3.4773884,-1.9649513,-0.80699599,-0.57689953,-0.12627211,0
4.1901665,-0.52999818,-2.8397145,0.47205877,-0.50167221,-0.72490376,0
-2.2152328,-4.1291113,-2.2861583,-0.80699599,-0.57689953,-0.12627211,0
-1.1550143,2.968574,-2.8278465,-0.3543334,0.6440537,-0.67796963,0
-1.0343387,1.0012463,-4.1031771,-0.08459723,0.32454193,-0.94208074,0
4.0880942,-1.8932381,1.9955513,0.48552731,-0.7698493,0.41424096,0
4.1798115,2.0800571,-0.86799753,0.80699599,0.57689953,0.12627211,0
-2.96981,-1.9556454,3.7929816,-0.12378615,-0.043826908,0.9913407,0
4.2832952,2.4114013,-2.6720777,0.80699599,0.57689953,0.12627211,0
0.02852726,1.8105578,-3.9174988,-0.097964585,0.34162879,-0.93471527,0
-0.43602324,2.4320407,3.8619709,-0.38116497,0.34549776,0.85752237,0
2.2517371,-0.39465764,-3.6978629,0.32637584,-0.25747997,-0.90949601,0
1.9983659,5.1033869,0.074482918,0.80699599,0.57689953,0.12627211,0
4.5999379,-1.9369302,1.0010273,0.55715352,-0.81463432,0.16109264,0
-3.4329031,0.45172948,3.2270191,-0.40190655,0.3798396,0.83318245,0
-3.6901979,-2.2546535,-2.5313537,-0.80699599,-0.57689953,-0.12627211,0
-3.3038816,-3.578531,3.5944538,0.026038647,-0.24836962,0.9683153,0
-4.0718269,2.1736255,-1.2371392,-0.54198921,0.80841517,-0.22959244,0
3.9095871,-2.0504398,-1.6027586,0.57077628,-0.70705152,-0.41748354,0
-2.9198937,-3.4013944,-1.2524773,-0.80699599,-0.57689953,-0.12627211,0
-2.1349478,-4.0040884,-3.6650405,-0.80699599,-0.57689953,-0.12627211,0
4.539937,-1.6777232,-1.2781911,0.57748342,-0.72613949,-0.3731412,0
1.7624886,3.9583859,-3.0969639,-0.21265543,0.48334789,-0.8492071,0
-0.48611999,0.67829657,-4.1602592,0.00018197298,0.21357572,-0.97692657,0
-2.3500886,2.5428481,-2.4376557,-0.42229137,0.71318537,-0.55949682,0
-2.4983196,-4.2029181,-0.20360518,-0.80699599,-0.57689953,-0.12627211,0
5.0116796,1.0622168,-1.8666761,0.80699599,0.57689953,0.12627211,0
-3.8045614,2.4226999,-0.37291431,-0.57830459,0.81530583,-0.028985023,0
-1.1507083,-6.0182819,-0.072037697,0.5697298,-0.81681424,0.090677977,0
2.310858,4.3774676,1.2192416,0.80699599,0.57689953,0.12627211,0
4.7332029,1.1859889,-0.29661325,0.80699599,0.57689953,0.12627211,0
5.2496052,0.13993502,0.93281424,0.80699599,0.57689953,0.12627211,0
-5.6044149,0.54411221,1.6213503,-0.55056536,0.65760273,0.51423383,0
-3.007503,-0.57618779,3.6832697,-0.28711981,0.19642881,0.93753827,0
-4.0995111,-1.7498946,-1.8661075,-0.80699599,-0.57689953,-0.12627211,0
4.5321021,1.9391131,-2.7869077,0.80699599,0.57689953,0.12627211,0
0.9896096,-4.4684534,-0.18281984,0.57687473,-0.81582773,0.040508032,0
0.95605588,-4.076807,-1.8640435,0.57408166,-0.71618688,-0.39687106,0
4.5781727,-2.0307689,-0.087112665,0.58894026,-0.8019855,-0.099842906,0
-3.0037682,-3.8369775,0.79434037,-0.80699599,-0.57689953,-0.12627211,0
-5.03614,-1.2375708,1.8462803,-0.80699599,-0.57689953,-0.12627211,0
-4.0112863,-1.5084558,-2.4869759,-0.80699599,-0.57689953,-0.12627211,0
-2.7902169,-3.8873608,0.69729233,-0.80699599,-0.57689953,-0.12627211,0
0.39219189,3.2670474,3.8691368,-0.41983438,0.41006124,0.80968451,0
1.2104321,3.8550248,-3.0011559,-0.25650162,0.53500026,-0.80497313,0
-5.9232187,0.28036594,1.1322953,-0.80699599,-0.57689953,-0.12627211,0
4.7040477,1.2832108,-0.74752897,0.80699599,0.57689953,0.12627211,0
-3.2750647,-3.8872941,3.191936,-0.80699599,-0.57689953,-0.12627211,0
2.3259206,4.1778474,1.4282427,0.80699599,0.57689953,0.12627211,0
4.1228838,2.3197258,-1.2958119,0.80699599,0.57689953,0.12627211,0
-4.1308856,-1.835556,-0.68772608,-0.80699599,-0.57689953,-0.12627211,0
4.3041286,0.87050343,3.7972875,0.80699599,0.57689953,0.12627211,0
-5.3126874,-0.38651371,0.56315255,-0.80699599,-0.57689953,-0.12627211,0
4.3979254,2.4467142,-3.1526093,0.80699599,0.57689953,0.12627211,0
2.7982161,2.7371836,4.7590189,0.80699599,0.57689953,0.12627211,0
1.8863206,5.4904785,-1.029098,0.80699599,0.57689953,0.12627211,0
-2.9052246,-0.59232616,-4.3665314,-0.068897605,0.30432969,-0.95007199,0
4.6365118,-0.0026345253,3.8844509,0.29013675,-0.57353747,0.76607788,0
-5.1768894,-0.69465685,1.2902594,-0.80699599,-0.57689953,-0.12627211,0
2.9195888,4.1310382,-2.1226106,0.80699599,0.57689953,0.12627211,0
0.22281623,-3.7841852,-3.1340401,0.501091,-0.55575514,-0.66335821,0
-3.8112276,2.0698309,1.4720676,-0.5764665,0.7230947,0.38055289,0
2.3785634,-2.0869305,3.0657527,0.33990294,-0.62858713,0.69953161,0
4.0315895,2.2573209,-0.23381913,0.80699599,0.57689953,0.12627211,0
1.4077716,5.4637609,2.0322118,0.80699599,0.57689953,0.12627211,0
-4.3186016,1.9956633,-0.81222558,-0.56241065,0.81598377,-0.13365948,0
3.63678,-2.3112535,-1.0856943,0.58402014,-0.74788094,-0.31558627,0
-1.7555666,-4.6923018,-2.9170115,-0.80699599,-0.57689953,-0.12627211,0
2.9743116,3.1647277,2.9115171,0.80699599,0.57689953,0.12627211,0
-3.1470942,2.8399255,-0.91058612,-0.54794407,0.81119722,-0.2042464,0
-3.8727212,-2.938751,2.3554971,-0.80699599,-0.57689953,-0.12627211,0
-4.0713997,0.61564732,-3.5198822,-0.32796031,0.61560965,-0.71656603,0
-5.5848622,-0.17808676,1.3361037,-0.80699599,-0.57689953,-0.12627211,0
-1.9644763,-5.4512873,2.0713153,-0.80699599,-0.57689953,-0.12627211,0
2.5113285,4.7821846,-2.3679991,0.80699599,0.57689953,0.12627211,0
1.6675973,5.1808176,0.69886112,0.80699599,0.57689953,0.12627211,0
-5.2360692,1.3716919,0.16912031,-0.59019446,0.79534,0.13822019,0
3.3101463,3.6280882,-2.6847522,0.80699599,0.57689953,0.12627211,0
-2.3003006,2.9756203,1.8565396,-0.56345284,0.68811816,0.45718071,0
-5.0845613,1.0873423,-2.2012775,-0.48143703,0.76650059,-0.42508292,0
0.22293472,2.1106071,-3.7565916,-0.12859046,0.38034329,-0.91586226,0
-0.1895957,-4.8727264,-2.2348268,0.57131219,-0.70850289,-0.41427764,0
-2.4599919,-4.929266,2.8179097,-0.80699599,-0.57689953,-0.12627211,0
-1.8984362,-5.3188529,0.82689238,-0.80699599,-0.57689953,-0.12627211,0
-2.2064404,2.6041653,-2.5861139,-0.41256261,0.70371866,-0.57842231,0
2.9578729,3.9806104,-2.0577888,0.80699599,0.57689953,0.12627211,0
-4.3118181,0.94604492,-3.1494615,-0.38290325,0.67392081,-0.63183546,0
-1.6467817,-3.335716,3.5229692,0.14821672,-0.40482894,0.90230006,0
-4.3900495,1.9511607,-1.3100958,-0.54662973,0.81061643,-0.20999312,0
-3.2877517,-3.5524156,1.5142658,-0.80699599,-0.57689953,-0.12627211,0
-2.7216542,-2.6206303,-4.7998176,0.16448003,-0.014205813,-0.98627812,0
3.4873664,2.1085753,4.2391472,0.80699599,0.57689953,0.12627211,0
-4.9123502,0.99406242,1.4947881,-0.5639838,0.68944257,0.45452303,0
-4.2787237,-1.828269,-0.10105598,-0.80699599,-0.57689953,-0.12627211,0
-2.5305395,-3.7725406,-2.2211237,-0.80699599,-0.57689953,-0.12627211,0
0.33803916,-4.9494419,-0.035099983,0.57478559,-0.81636429,0.056310415,0
-3.4473989,-1.5088301,3.6467679,-0.21045399,0.081153691,0.97422957,0
3.2158198,2.4956203,2.9423118,0.80699599,0.57689953,0.12627211,0
1.9553419,4.8574076,1.6880841,0.80699599,0.57689953,0.12627211,0
3.298842,2.714869,2.7210302,0.80699599,0.57689953,0.12627211,0
-0.29729176,-1.5080297,-4.3290167,0.22906291,-0.10869628,-0.96732378,0
3.072475,2.869379,2.3483508,0.80699599,0.57689953,0.12627211,0
0.9676373,3.0143404,4.2627153,-0.35013014,0.29520178,0.88896841,0
4.1539717,1.4857903,2.7659976,0.80699599,0.57689953,0.12627211,0
3.0857067,-0.1881001,-3.5804224,0.36165071,-0.31373078,-0.87794179,0
3.868959,1.2031666,-3.6033111,0.27047616,-0.17098361,-0.94742143,0
5.442874,-0.4857192,2.8843398,0.43715233,-0.7273134,0.52906823,0
0.94133902,-2.58689,3.3318834,0.28367513,-0.56621224,0.77390724,0
-4.1817427,-1.2865038,-2.2562733,-0.80699599,-0.57689953,-0.12627211,0
3.9975054,2.5562994,-1.2556367,0.80699599,0.57689953,0.12627211,0
4.6879253,1.7205153,-1.9750568,0.80699599,0.57689953,0.12627211,0
3.4119489,-1.9499779,-1.973845,0.54881465,-0.65365154,-0.52109706,0
2.6645224,1.6069682,-3.8240974,0.14427727,0.014744043,-0.98942751,0
2.359935,-3.1641788,1.6810288,0.50204372,-0.78277159,0.36772394,0
2.8196011,4.3725367,-2.9926343,0.80699599,0.57689953,0.12627211,0
0.43416047,-3.4617934,2.9135923,0.33933482,-0.62797332,0.70035809,0
-1.7517481,-5.4536934,-0.26458168,-0.80699599,-0.57689953,-0.12627211,0
2.8003039,3.7658615,0.16585612,0.80699599,0.57689953,0.12627211,0
-1.1978931,-1.7486124,-4.5840979,0.2033025,-0.070638627,-0.97656453,0
0.55965161,-2.5924931,3.3350682,0.25107956,-0.52869678,0.810826,0
4.3919749,2.237931,-3.1727934,0.80699599,0.57689953,0.12627211,0
-1.5637283,1.0123171,3.8828065,-0.33009708,0.26334816,0.90646774,0
-5.0279708,1.5192983,0.81498003,-0.58684725,0.75945187,0.28079045,0
-2.790585,2.8395588,-1.4345779,-0.5135473,0.79110789,-0.33229148,0
-4.7965484,-1.0056322,3.3330355,-0.34742755,0.29087806,0.89145052,0
-5.1581593,1.0352416,-2.425993,-0.4740248,0.76029956,-0.44412291,0
-0.71385098,-2.6672096,3.6212564,0.15850019,-0.41755497,0.89472097,0
1.3613122,4.5871272,3.478626,-0.48379275,0.52319121,0.70158082,0
-2.6829257,-4.490675,2.6948838,-0.80699599,-0.57689953,-0.12627211,0
1.6869342,-2.4412677,-3.1645784,0.47605857,-0.5089609,-0.71716595,0
3.8581679,2.1006904,1.2478323,0.80699599,0.57689953,0.12627211,0
3.6137769,3.3200326,-2.1312017,0.80699599,0.57689953,0.12627211,0
2.2429662,-1.9799918,-3.1498609,0.46377182,-0.4867126,-0.74028814,0
3.0534549,4.0498834,-2.0401502,0.80699599,0.57689953,0.12627211,0
4.887228,1.7077632,-2.7085314,0.80699599,0.57689953,0.12627211,0
-4.7365284,-0.93280554,-1.8757906,-0.80699599,-0.57689953,-0.12627211,0
2.1661649,4.8178267,0.18695021,0.80699599,0.57689953,0.12627211,0
5.6306286,-0.34005547,0.97171342,0.80699599,0.57689953,0.12627211,0
1.2571707,2.535768,4.2732468,-0.27962989,0.18494728,0.9421261,0
-3.6124835,-3.5455959,2.9347384,-0.80699599,-0.57689953,-0.12627211,0
-3.7419753,-1.7528043,-4.1852555,-0.80699599,-0.57689953,-0.12627211,0
-2.8525562,-3.6597056,-1.0108943,-0.80699599,-0.57689953,-0.12627211,0
-0.75271368,2.0813563,-3.6991489,-0.20282465,0.4715625,-0.85819054,0
-5.2209244,-0.70459795,0.40393364,-0.80699599,-0.57689953,-0.12627211,0
5.0269284,1.1470408,-1.0139428,0.80699599,0.57689953,0.12627211,0
-0.86900938,-5.2498899,1.3071003,0.4828243,-0.76764238,0.42143333,0
3.2099867,2.0545506,-3.8953285,0.12784803,0.038084,-0.99106228,0
-4.2818241,-0.96432734,-4.129168,-0.80699599,-0.57689953,-0.12627211,0
3.5370445,3.5077741,-2.8796964,0.80699599,0.57689953,0.12627211,0
4.1058688,1.152544,3.7515447,0.80699599,0.57689953,0.12627211,0
3.0053282,-2.7242846,1.8884351,0.48352584,-0.76821744,0.419577,0
0.53247046,-2.0870421,3.6717842,0.17640871,-0.43954355,0.88072783,0
1.1252882,-4.302629,-0.83023524,0.589966,-0.79710746,-0.12868494,0
-5.0645671,-0.44369173,-1.5675426,-0.80699599,-0.57689953,-0.12627211,0
1.4426419,-4.1817546,0.53812551,0.55756867,-0.81475937,0.15901065,0
4.0439334,1.1356053,3.9872217,0.80699599,0.57689953,0.12627211,0
-2.6927347,-3.8464246,-0.99181986,-0.80699599,-0.57689953,-0.12627211,0
0.28300738,-4.577424,-2.0696912,0.56917554,-0.70277673,-0.42678335,0
4.0453916,1.3225837,3.7504904,0.80699599,0.57689953,0.12627211,0
0.1158092,-3.1829324,3.0253806,0.30059969,-0.58531624,0.75302386,0
-2.2133386,-4.9901223,0.96727991,-0.80699599,-0.57689953,-0.12627211,0
2.4493053,-3.2564096,1.0213151,0.54304773,-0.80893689,0.22521162,0
2.5048847,4.2312813,0.40025783,0.80699599,0.57689953,0.12627211,0
2.148993,4.7057877,-0.36477566,0.80699599,0.57689953,0.12627211,0
-2.6219478,-3.447619,-3.7226806,-0.80699599,-0.57689953,-0.12627211,0
5.4050655,-1.2746849,-0.16893649,0.59026778,-0.79463816,-0.14189512,0
4.8133059,1.2926092,-1.6179339,0.80699599,0.57689953,0.12627211,0
3.3608389,2.4855785,3.0901833,0.80699599,0.57689953,0.12627211,0
-2.0422897,-1.4378234,4.0373049,-0.11196131,-0.060484052,0.99187016,0
-2.5504093,-4.0729847,3.3339601,0.16761273,-0.42877147,0.88772815,0
-2.2447493,-2.5834742,-4.6399002,0.20615262,-0.074824661,-0.97565484,0
0.91147733,2.6439734,4.3247581,-0.30742407,0.22781655,0.92389947,0
3.7192569,0.98947287,-3.521924,0.28766894,-0.19727263,-0.93719274,0
-0.21447539,0.40317297,4.3480954,-0.16847235,0.019959867,0.98550439,0
5.2403507,-0.14136076,2.5955534,0.80699599,0.57689953,0.12627211,0
5.2365727,-0.73389673,2.5356772,0.46301132,-0.75079596,0.47109008,0
0.25825095,1.0972073,4.3461447,-0.19156659,0.053465277,0.98002243,0
4.1579204,2.6675112,-3.7398639,0.80699599,0.57689953,0.12627211,0
-0.032850504,3.3758447,-3.0533371,-0.30088151,0.58563197,-0.75266564,0
-1.3325175,-5.7692056,-0.35178566,-0.80699599,-0.57689953,-0.12627211,0
-4.0637279,2.1981483,-1.2433407,-0.53975755,0.80727947,-0.2386663,0
1.5634211,5.6938705,-0.36008978,0.80699599,0.57689953,0.12627211,0
3.0495558,2.8305011,3.9863641,0.80699599,0.57689953,0.12627211,0
3.4592452,2.3246627,2.6606643,0.80699599,0.57689953,0.12627211,0
2.6657352,4.7053471,-2.9680419,0.80699599,0.57689953,0.12627211,0
4.5658164,0.98236132,2.4743767,0.80699599,0.57689953,0.12627211,0
-5.6222668,-0.18302822,1.1639225,-0.80699599,-0.57689953,-0.12627211,0
-4.89329,-0.59215069,-1.3079331,-0.80699599,-0.57689953,-0.12627211,0
4.3649454,1.0404153,2.6301947,0.80699599,0.57689953,0.12627211,0
4.0887461,2.1663032,-1.1077983,0.80699599,0.57689953,0.12627211,0
-3.338414,-3.4904079,2.4059532,-0.80699599,-0.57689953,-0.12627211,0
1.2985178,-4.2170978,-0.036556721,0.57943046,-0.81478995,0.019433141,0
0.7181654,4.9722195,-1.6080489,-0.46547487,0.75295013,-0.46518737,0
-5.6887951,0.65113473,1.355433,-0.56807029,0.6998741,0.43298078,0
-2.2667007,-4.6686487,-0.55830455,-0.80699599,-0.57689953,-0.12627211,0
3.1292236,2.193449,4.656889,-0.097531438,-0.080688089,0.99195623,0
-3.693038,2.1554255,1.7553346,-0.56593078,0.69435775,0.44451064,0
5.3248582,-0.73756742,-1.5144989,0.56014556,-0.68000621,-0.47310519,0
3.8388672,-1.6980621,-2.0618343,0.54921609,-0.65455407,-0.519539,0
-1.911526,2.8620186,-2.4942098,-0.41409737,0.7052229,-0.57548606,0
-3.8371046,0.54429471,2.8934536,-0.45802897,0.47645086,0.75046921,0
-4.8378501,-0.71665478,-1.2253219,-0.80699599,-0.57689953,-0.12627211,0
1.0977881,5.9307899,1.4316583,-0.59027845,0.78139383,0.20247239,0
-1.7663968,-5.1977506,-0.88873577,-0.80699599,-0.57689953,-0.12627211,0
-1.0981455,3.1999311,2.7801316,-0.51984954,0.59249431,0.61539167,0
0.43208599,3.2430506,-3.1174002,-0.24899566,0.52626753,-0.81304598,0
2.410172,3.7652531,2.3904178,0.80699599,0.57689953,0.12627211,0
-2.0743294,-4.8870654,0.65188646,-0.80699599,-0.57689953,-0.12627211,0
1.1499848,5.7941527,1.2771869,0.80699599,0.57689953,0.12627211,0
1.3439112,0.16670895,4.3769197,-0.019803345,-0.18726298,0.98211026,0
-0.97919023,-5.8400736,-1.0530348,0.58901519,-0.8017152,-0.10155725,0
-2.2652841,-4.8042526,1.4733896,-0.80699599,-0.57689953,-0.12627211,0
4.890646,1.7682502,-3.1114285,0.80699599,0.57689953,0.12627211,0
-1.1149428,3.105567,-2.7065182,-0.36544588,0.65579492,-0.66059262,0
-0.91113019,3.3302658,2.7366509,-0.52251947,0.59787279,0.60788292,0
-3.7700124,-3.018739,1.6527581,-0.80699599,-0.57689953,-0.12627211,0
-2.7595816,-3.4282136,-2.1708179,-0.80699599,-0.57689953,-0.12627211,0
-4.7660947,-1.3310351,0.88489705,-0.80699599,-0.57689953,-0.12627211,0
-0.6355412,2.7499225,3.6448345,-0.43211257,0.43108216,0.79211545,0
2.1689939,4.4810452,1.6247873,0.80699599,0.57689953,0.12627211,0
1.6965525,-2.0767155,-3.337574,0.43666768,-0.43895352,-0.78526497,0
1.8244936,3.075892,4.5522957,-0.29316628,0.20573497,0.93366313,0
3.0279241,-2.8898358,-0.65036964,0.59055305,-0.78754091,-0.17614341,0
0.49079728,0.86522812,-4.1932049,0.050520599,0.14559487,-0.98805356,0
1.5387121,5.5267086,0.25056744,0.80699599,0.57689953,0.12627211,0
0.92796755,-3.3106561,-3.0029941,0.50806391,-0.5692156,-0.64642447,0
2.1751182,4.4853725,1.4981086,0.80699599,0.57689953,0.12627211,0
4.2519789,1.9034753,0.1240617,0.80699599,0.57689953,0.12627211,0
-5.5326653,0.23673582,-1.2978172,-0.80699599,-0.57689953,-0.12627211,0
0.044767976,5.2734241,1.0853119,-0.59054154,0.78985858,0.16548163,0
-4.3976626,-2.4509616,3.5687742,-0.80699599,-0.57689953,-0.12627211,0
2.2771087,-2.6285262,-2.3790455,0.53287047,-0.61915654,-0.57679665,0
3.4193215,2.774127,1.3585327,0.80699599,0.57689953,0.12627211,0
-1.7613654,1.1301577,-3.8080709,-0.17701107,0.44027925,-0.88023943,0
-2.8401194,-3.9481704,3.3858876,0.13060099,-0.38286346,0.91452664,0
5.7426429,0.070934772,-1.6715562,0.80699599,0.57689953,0.12627211,0
-3.6877451,-2.5658035,0.098422289,-0.80699599,-0.57689953,-0.12627211,0
1.6352119,5.0052409,1.64183,0.80699599,0.57689953,0.12627211,0
4.3777323,-2.0690351,0.65233374,0.57271278,-0.81667686,0.07098645,0
2.4212937,-3.5323954,0.65814257,0.56037647,-0.81552452,0.14456201,0
-5.5769672,-0.34031582,1.3238744,-0.80699599,-0.57689953,-0.12627211,0
5.7998381,-0.17801952,-0.14200246,0.80699599,0.57689953,0.12627211,0
-2.9837866,-3.3246174,3.6903009,0.028347433,-0.25141305,0.96746463,0
4.4320121,1.2393465,2.3428245,0.80699599,0.57689953,0.12627211,0
-2.8625066,2.2040634,-2.527832,-0.429241,0.71984434,-0.54550564,0
3.6246567,-2.5206833,0.59015679,0.57182622,-0.81675315,0.077000022,0
5.2622843,-0.088234901,2.2400079,0.80699599,0.57689953,0.12627211,0
3.1273024,-2.9498363,-0.0080387592,0.58175027,-0.81336528,-0.0019012094,0
5.2995734,0.95470667,-1.8447801,0.80699599,0.57689953,0.12627211,0
-3.1627998,-3.1219182,-1.3214463,-0.80699599,-0.57689953,-0.12627211,0
-5.4084053,0.42292786,-2.8747067,-0.80699599,-0.57689953,-0.12627211,0
-3.8487594,-1.7661591,-2.5925884,-0.80699599,-0.57689953,-0.12627211,0
-1.3030908,-4.8214388,-3.2733846,0.5112462,-0.575432,-0.63836151,0
5.1220303,-1.4120643,1.6498656,0.53421998,-0.80426967,0.2603066,0
-2.3164937,-3.8309474,-3.9656613,-0.80699599,-0.57689953,-0.12627211,0
4.0269866,-1.7781699,2.0315139,0.49326003,-0.77602541,0.39303863,0
3.0603108,1.6779079,4.7274361,-0.044252515,-0.15414491,0.98705691,0
-3.1011868,-4.1112394,3.1326747,-0.80699599,-0.57689953,-0.12627211,0
-5.7411537,0.35864067,-0.55259657,-0.80699599,-0.57689953,-0.12627211,0
-1.4626229,-4.398458,-3.8024302,0.44764063,-0.45808941,-0.76796615,0
5.304492,-0.29560471,2.882103,0.80699599,0.57689953,0.12627211,0
0.38387114,-4.9236155,-1.0541739,0.59054655,-0.7895897,-0.16674209,0
2.2267075,-3.5331011,0.57331228,0.56240022,-0.81598163,0.13371658,0
2.7433803,-0.57038188,3.9969673,0.20076758,-0.46908739,0.86002892,0
-1.8419971,1.7539494,3.4319954,-0.41530007,0.40236676,0.81585956,0
3.0800371,2.6431818,3.9438186,0.80699599,0.57689953,0.12627211,0
5.6576118,-0.43798065,1.2922403,0.80699599,0.57689953,0.12627211,0
5.4408646,-1.134532,1.5766966,0.54037458,-0.80759811,0.23617911,0
-1.7832158,-4.7272959,-2.3948803,-0.80699599,-0.57689953,-0.12627211,0
-3.8630118,-1.7362018,-3.1144927,-0.80699599,-0.57689953,-0.12627211,0
-3.3406055,-2.604198,3.619786,-0.073326468,-0.11428067,0.99073875,0
0.63625145,4.3394699,3.2417481,-0.50839472,0.56985968,0.6455965,0
-1.8872211,-3.4105687,3.430294,0.13495183,-0.38830778,0.91159493,0
-3.4839182,-0.83529401,3.7285447,-0.28095484,0.18697464,0.94133151,0
-4.9993787,-0.25926304,-2.8384001,-0.80699599,-0.57689953,-0.12627211,0
-1.5703244,-5.7438722,0.24497032,-0.80699599,-0.57689953,-0.12627211,0
1.5941194,5.2798939,1.4347394,0.80699599,0.57689953,0.12627211,0
4.9264021,1.1323719,-0.73954701,0.80699599,0.57689953,0.12627211,0
-3.7559075,-2.0912685,-2.003468,-0.80699599,-0.57689953,-0.12627211,0
-5.5127139,-0.34339952,1.6766083,-0.80699599,-0.57689953,-0.12627211,0
-1.9192574,-4.3746042,-3.3225234,-0.80699599,-0.57689953,-0.12627211,0
-1.1256824,-5.3866692,-2.360122,0.56699437,-0.69708413,-0.43885219,0
-2.5829892,-4.0580754,-0.89503694,-0.80699599,-0.57689953,-0.12627211,0
2.8946619,4.3554959,-3.1707873,0.80699599,0.57689953,0.12627211,0
-1.2445366,-5.6354141,-1.4888763,-0.80699599,-0.57689953,-0.12627211,0
3.3782837,2.5034819,3.1555011,0.80699599,0.57689953,0.12627211,0
1.006813,-0.46128273,4.3387871,0.021845877,-0.2428343,0.96982181,0
-1.6471652,-4.7995152,2.6063418,0.32543749,-0.61284864,0.72007447,0
-5.1157165,-1.3180683,2.8206472,-0.80699599,-0.57689953,-0.12627211,0
1.8456044,-0.86376727,-3.6893601,0.33849561,-0.27664772,-0.89938128,0
1.2345269,6.0631194,-0.16760111,-0.55214339,0.81291103,-0.18523848,0
-4.4494572,1.9832122,-0.81054831,-0.56918401,0.81680501,-0.09412384,0
3.8690233,0.22810268,4.1059604,0.20588547,-0.47523963,0.85542881,0
1.1649864,1.9145049,-3.9389102,-0.0083044767,0.22488311,-0.97435039,0
3.0741329,0.25201315,-3.5799294,0.3254469,-0.25601748,-0.91024137,0
-1.8238051,-4.9328351,-2.1153495,-0.80699599,-0.57689953,-0.12627211,0
1.2221391,-0.9115541,4.0770493,0.11482972,-0.3630234,0.92467749,0
-3.3697834,-2.9201298,-1.1095484,-0.80699599,-0.57689953,-0.12627211,0
2.8439384,3.9118211,-0.53920937,0.80699599,0.57689953,0.12627211,0
2.8816862,3.8083265,-0.89541006,0.80699599,0.57689953,0.12627211,0
-5.1892591,-0.18935871,-2.1386342,-0.80699599,-0.57689953,-0.12627211,0
-2.2504764,-3.8149943,-3.082175,-0.80699599,-0.57689953,-0.12627211,0
2.3155596,4.1051593,1.3256898,0.80699599,0.57689953,0.12627211,0
5.0895872,0.36186218,0.78041679,0.80699599,0.57689953,0.12627211,0
-0.72301519,4.1125941,2.3259561,-0.55941945,0.67825484,0.47646645,0
-1.3705356,0.53337932,-4.1270051,-0.069672525,0.30533105,-0.94969404,0
0.28550732,-4.7134328,-1.6585047,0.58404773,-0.74798483,-0.31528854,0
1.3557137,5.6303301,0.82253551,0.80699599,0.57689953,0.12627211,0
2.3673353,4.0459089,1.237051,0.80699599,0.57689953,0.12627211,0
2.9296403,3.0738091,2.6006396,0.80699599,0.57689953,0.12627211,0
-3.2691884,-3.8394415,2.2683377,-0.80699599,-0.57689953,-0.12627211,0
4.496489,2.2838199,-3.4786277,0.80699599,0.57689953,0.12627211,0
-0.46656942,-3.4679339,2.9882588,0.27791786,-0.55965358,0.78073663,0
-3.3702717,-2.4185371,-3.7400329,-0.80699599,-0.57689953,-0.12627211,0
-0.056324959,-3.090749,3.1785183,0.26379019,-0.54343486,0.79692757,0
2.7644846,3.3770099,2.1262655,0.80699599,0.57689953,0.12627211,0
-2.1714461,-4.0849094,-3.7152371,-0.80699599,-0.57689953,-0.12627211,0
1.5277897,-3.1330926,-2.4481549,0.53707409,-0.62802374,-0.56314981,0
3.4989259,2.9017243,0.094637871,0.80699599,0.57689953,0.12627211,0
1.4875231,5.5047321,1.5824687,0.80699599,0.57689953,0.12627211,0
-2.1757088,-4.2629719,-2.2934008,-0.80699599,-0.57689953,-0.12627211,0
1.4680355,-3.9437046,-1.0287755,0.59009457,-0.77925515,-0.21106833,0
0.90398097,-2.9451952,2.9429812,0.33825287,-0.6268034,0.70192778,0
-3.7724826,-3.0462942,2.6196589,-0.80699599,-0.57689953,-0.12627211,0
3.5060604,3.2532849,-2.2817304,0.80699599,0.57689953,0.12627211,0
2.693047,3.9707744,-0.034079313,0.80699599,0.57689953,0.12627211,0
-1.2841461,1.8887172,-3.6095827,-0.21777439,0.48945594,-0.84439772,0
-3.6775315,-2.0383487,-2.5157125,-0.80699599,-0.57689953,-0.12627211,0
-6.1785884,0.68799448,0.098263383,-0.80699599,-0.57689953,-0.12627211,0
-0.0053420067,0.39959931,4.2842426,-0.15224558,-0.00335899,0.98833704,0
-3.5452702,-2.9461017,0.87420917,-0.80699599,-0.57689953,-0.12627211,0
-3.3250325,0.17493343,3.3392377,-0.36780787,0.32370061,0.87174273,0
-2.5924263,3.355407,0.71387982,-0.59051883,0.79071558,0.16142046,0
4.2790608,2.1654286,-2.3360071,0.80699599,0.57689953,0.12627211,0
-0.037591815,-4.8276839,-1.8466549,0.5799666,-0.73388398,-0.35362852,0
0.76450682,3.0413041,3.9932976,-0.36830187,0.32450253,0.87123591,0
5.4635067,0.47587967,-0.66333222,0.80699599,0.57689953,0.12627211,0
-2.19348,3.5713139,0.14068222,-0.5820123,0.81316763,0.0044792891,0
2.8784435,1.2135601,4.6209888,-0.0114308,-0.19851962,0.98003042,0
-2.2758098,-0.31439543,-4.3163166,-0.051169991,0.28132114,-0.95824844,0
-1.3798004,-5.9875121,0.56567621,-0.80699599,-0.57689953,-0.12627211,0
-1.6246858,-2.4444079,-4.5147753,0.23590672,-0.1188933,-0.96447533,0
-2.2607965,-4.1893144,3.1401515,0.19595224,-0.46328104,0.86427623,0
-2.0623441,-4.7842984,-1.3730354,-0.80699599,-0.57689953,-0.12627211,0
-4.7332563,-0.8833909,-1.1569464,-0.80699599,-0.57689953,-0.12627211,0
2.8668785,4.4316063,-2.917469,0.80699599,0.57689953,0.12627211,0
-2.7939727,-3.127624,-4.2329164,-0.80699599,-0.57689953,-0.12627211,0
-1.2313492,3.022707,-2.8439684,-0.36681387,0.65722966,-0.65840483,0
2.6294708,2.0283825,-3.8972666,0.081823349,0.10253057,-0.991359,0
1.2087033,5.819603,1.4128799,0.80699599,0.57689953,0.12627211,0
1.5480158,4.010365,-3.1549115,-0.22049713,0.49269664,-0.84180236,0
5.5988336,0.20254946,-2.2479558,0.49895546,-0.55167395,-0.66835564,0
1.1688974,-0.27199817,-3.9874549,0.22047472,-0.095952213,-0.97066176,0
-2.4219427,-3.5178246,-3.4985409,-0.80699599,-0.57689953,-0.12627211,0
2.8783944,4.3925209,-3.1111054,-0.16817534,0.42946208,-0.88728774,0
-3.2250099,-2.1413445,3.731802,-0.11248732,-0.059744924,0.9918555,0
3.9591236,2.4896653,-3.5978105,0.14471978,0.014112979,-0.98937219,0
-1.9173359,-5.387002,0.76756287,-0.80699599,-0.57689953,-0.12627211,0
-3.0122185,-1.5198879,-4.7343822,0.033908904,0.16820094,-0.98516947,0
-3.7708855,-0.49319172,3.4420092,-0.33934081,0.27799019,0.89864862,0
0.73310709,-3.3224545,-3.1417062,0.49290115,-0.54020107,-0.6820786,0
4.3790851,2.2477441,-3.5187967,0.19826031,-0.063247949,-0.97810662,0
4.4820786,1.5935597,-0.95171869,0.80699599,0.57689953,0.12627211,0
1.0149014,5.4616203,2.434001,-0.56675267,0.6964618,0.4401505,0
-4.8070703,-1.7475708,3.4225597,-0.80699599,-0.57689953,-0.12627211,0
4.4612494,0.5723381,3.9401102,0.80699599,0.57689953,0.12627211,0
-3.4264345,-3.0412362,0.54368639,-0.80699599,-0.57689953,-0.12627211,0
-2.8955774,-0.75784159,3.6905882,-0.24622428,0.13433659,0.959858,0
-3.5280819,-3.2062862,1.751771,-0.80699599,-0.57689953,-0.12627211,0
-4.2302742,-0.88863993,-3.7565529,-0.80699599,-0.57689953,-0.12627211,0
4.6064982,0.58142567,3.8073678,0.80699599,0.57689953,0.12627211,0
1.316967,4.0072217,-2.9841795,-0.27285314,0.55385929,-0.78663272,0
-4.9994497,-1.4679115,2.6808228,-0.80699599,-0.57689953,-0.12627211,0
-3.1803033,-3.8167455,3.4302707,0.07734108,-0.31521946,0.94586211,0
-5.8206816,-0.13217926,1.8835661,-0.80699599,-0.57689953,-0.12627211,0
-3.2372336,-3.9244962,2.8755398,-0.80699599,-0.57689953,-0.12627211,0
-2.1940186,-4.6715536,-0.057287693,-0.80699599,-0.57689953,-0.12627211,0
5.0367432,1.1673887,-2.6122525,0.80699599,0.57689953,0.12627211,0
1.6880517,3.4549294,-3.5282526,-0.15321678,0.41102561,-0.89865601,0
-2.4454672,2.3220878,-2.8285513,-0.37208399,0.66273463,-0.64987415,0
-2.3687391,-4.9117632,2.5225525,-0.80699599,-0.57689953,-0.12627211,0
-0.90212989,2.3358567,3.5636311,-0.4201563,0.41060895,0.80923975,0
2.6757092,4.5562267,-2.1209474,0.80699599,0.57689953,0.12627211,0
2.4239025,-3.3825836,0.49838305,0.56601238,-0.81657076,0.11332309,0
2.651345,3.7617073,1.6115078,0.80699599,0.57689953,0.12627211,0
-1.8263137,-5.5203161,0.87917519,-0.80699599,-0.57689953,-0.12627211,0
3.0189221,2.8561697,3.6942878,0.80699599,0.57689953,0.12627211,0
