-3.4928737,2.9855442,-1.8747845,-0.32827902,0.7943942,-0.51104867,0
-0.081288338,3.9229312,2.1897011,-0.084851503,0.86335617,0.49740976,0
2.2215621,3.3663011,-4.3065271,-0.33430612,0.56263953,-0.75609279,0
2.2826738,-1.9771024,-4.2627678,-0.068653584,-0.57462937,-0.81552929,0
3.3407741,5.1249475,-0.39457273,0.94165409,0.23267001,-0.24321258,0
4.5256481,-0.82889867,-1.6266644,0.94165409,0.23267001,-0.24321258,0
-4.6097369,3.3514161,0.0046601295,-0.28186214,0.94004905,-0.19199371,0
2.7398148,3.2419114,-4.3968372,0.94165409,0.23267001,-0.24321258,0
1.4133544,0.96646166,4.23066,0.20417488,0.17959368,0.96231961,0
4.6080027,2.8827062,2.9622273,0.13196516,0.40952307,0.90270507,0
3.7869503,2.7728539,-1.1567242,0.94165409,0.23267001,-0.24321258,0
4.925776,-2.8545673,-1.8618364,0.94165409,0.23267001,-0.24321258,0
3.5971813,4.5713067,-0.60697442,0.94165409,0.23267001,-0.24321258,0
-0.76228523,-3.8347964,-2.4139414,0.053587675,-0.81701434,-0.57412207,0
-3.1093159,3.6289711,1.6321731,-0.17482716,0.95558137,0.23727596,0
-5.034615,2.0449879,0.91289091,-0.94165409,-0.23267001,0.24321258,0
-4.3760166,1.4514668,2.8485148,-0.94165409,-0.23267001,0.24321258,0
-3.6509058,0.51142979,-3.5448713,-0.2997272,0.25089672,-0.92044252,0
5.2162886,-2.0726488,-0.68765879,0.94165409,0.23267001,-0.24321258,0
4.17591,4.3033247,1.7681539,0.94165409,0.23267001,-0.24321258,0
0.62841702,4.7320051,-0.25802732,-0.2285544,0.9724713,0.045416117,0
4.2264633,0.95399761,3.4977231,0.24191809,0.034537256,0.96968186,0
-0.11239815,-2.497025,4.2391005,0.326083,-0.45155919,0.83052057,0
-5.3838744,2.0256963,-0.74086428,-0.94165409,-0.23267001,0.24321258,0
-1.0876951,-1.0331409,4.8482075,0.27215129,-0.10115936,0.95692241,0
-5.6364822,-0.05681181,-3.0128224,-0.94165409,-0.23267001,0.24321258,0
-5.4384031,0.85451126,-1.7720437,-0.94165409,-0.23267001,0.24321258,0
4.872788,1.8743291,2.0943718,0.94165409,0.23267001,-0.24321258,0
4.3673143,2.0166891,0.58503306,0.94165409,0.23267001,-0.24321258,0
-4.7216759,-1.6491795,-1.1472749,-0.94165409,-0.23267001,0.24321258,0
5.4282379,-2.713582,-0.13359833,0.94165409,0.23267001,-0.24321258,0
5.3959112,-3.1500907,0.19148397,0.29964012,-0.9086259,0.29088634,0
3.4008071,3.5425012,-2.1069443,0.94165409,0.23267001,-0.24321258,0
3.0558085,4.8273568,-2.4031925,0.94165409,0.23267001,-0.24321258,0
-4.6766376,3.4154382,0.6974721,-0.25337175,0.96567833,-0.057168424,0
-4.8629389,2.6864159,-1.4204774,-0.32750127,0.8000958,-0.50258303,0
-0.48121691,-2.733356,-3.6267598,-0.062039137,-0.59023201,-0.80484629,0
-0.070207357,2.5349,-4.0099597,-0.3308033,0.50643349,-0.79630053,0
-2.6204731,-0.41433036,5.3153539,0.22924674,0.085720718,0.96958661,0
-5.5543189,1.0963197,-2.0248885,-0.94165409,-0.23267001,0.24321258,0
-5.0614347,-2.4362588,-3.1585386,-0.94165409,-0.23267001,0.24321258,0
-3.3414958,-4.012888,1.8428832,-0.94165409,-0.23267001,0.24321258,0
1.9666564,4.4210777,1.5235727,-0.092931926,0.87423277,0.47653019,0
-3.3480816,-0.35303307,4.9969187,-0.94165409,-0.23267001,0.24321258,0
3.2462883,-3.2540591,1.7724853,0.32725406,-0.80184007,0.49995738,0
1.2302192,4.0764551,-3.448451,-0.33402076,0.7349661,-0.5901314,0
3.1809423,1.8266325,-4.3446198,0.94165409,0.23267001,-0.24321258,0
-5.09834,2.6015072,1.6220355,-0.94165409,-0.23267001,0.24321258,0
-5.1712728,-1.470356,-2.9426682,-0.94165409,-0.23267001,0.24321258,0
-4.4634886,-1.6449139,-0.69538224,-0.94165409,-0.23267001,0.24321258,0
-5.082108,0.8191905,-0.39907455,-0.94165409,-0.23267001,0.24321258,0
-2.500752,-1.6392069,-3.8231764,-0.18362546,-0.25046155,-0.95055294,0
-2.1864753,2.2937496,4.1997509,0.046968937,0.62468791,0.77946079,0
-2.3546796,-5.1769948,0.51723599,0.21643355,-0.97196609,-0.091861546,0
-2.3138652,-1.3560739,-3.9441376,-0.19606221,-0.2081649,-0.95824176,0
-1.0056043,-4.6260533,-0.86343265,0.16487956,-0.94882882,-0.26933044,0
5.3097963,-3.0708323,-0.55029345,0.94165409,0.23267001,-0.24321258,0
4.7349114,-1.5448332,-1.6626298,0.94165409,0.23267001,-0.24321258,0
3.1225781,-3.7493975,-1.5170527,0.17853004,-0.95783985,-0.22509998,0
3.2870488,1.6439354,-4.0612755,0.94165409,0.23267001,-0.24321258,0
4.6043205,-2.0525527,-2.75105,0.94165409,0.23267001,-0.24321258,0
-1.7415949,-4.8724241,1.8936113,0.29055238,-0.92667633,0.23843318,0
0.42345962,-4.3587332,1.7031827,0.30274901,-0.90125346,0.3099761,0
-2.4657679,-4.8851042,-0.98012745,0.1237613,-0.91132307,-0.39264959,0
-4.9005718,-1.0869985,-1.8003542,-0.94165409,-0.23267001,0.24321258,0
-3.3153119,-1.6434056,4.4528236,-0.94165409,-0.23267001,0.24321258,0
4.9071627,2.4357424,2.9152594,0.94165409,0.23267001,-0.24321258,0
4.9488873,0.74931002,1.3608441,0.94165409,0.23267001,-0.24321258,0
2.7781987,3.7883,-4.2688775,0.94165409,0.23267001,-0.24321258,0
0.64571857,-1.5629272,-4.4239306,-0.13641095,-0.39677554,-0.90772325,0
2.7357516,3.0325515,-4.8123045,0.94165409,0.23267001,-0.24321258,0
-4.6082201,-0.057208538,0.3634007,-0.94165409,-0.23267001,0.24321258,0
4.2534184,-2.2382483,-3.9948242,0.94165409,0.23267001,-0.24321258,0
-1.961236,2.7825594,3.6834383,-0.001188159,0.72488803,0.68886578,0
3.6772265,3.1293359,-0.90917522,0.94165409,0.23267001,-0.24321258,0
1.1164802,-3.9157183,2.1333644,0.32051545,-0.84045607,0.43692499,0
5.3937316,-1.7541084,0.49004936,0.94165409,0.23267001,-0.24321258,0
0.55596578,-3.2570462,3.2555218,0.33628085,-0.68094051,0.65056539,0
-5.4250703,2.9827724,0.35561943,-0.94165409,-0.23267001,0.24321258,0
3.2716646,3.1771626,-2.9473801,0.94165409,0.23267001,-0.24321258,0
4.2920222,-2.1077192,2.5185034,0.33643609,-0.62934881,0.70052183,0
-2.5561256,-2.8338969,-3.2554579,-0.099470973,-0.49794459,-0.86148536,0
3.2500768,1.668306,-4.2396517,0.94165409,0.23267001,-0.24321258,0
-4.4040136,-0.52510214,0.92454553,-0.94165409,-0.23267001,0.24321258,0
4.7241693,1.1064239,0.49654317,0.94165409,0.23267001,-0.24321258,0
4.1538668,3.9175198,2.5325007,0.041548133,0.63671553,0.76997876,0
-4.3098421,2.7032981,3.5385675,-0.069891095,0.84201151,0.53491306,0
-2.6912389,-2.8015649,-3.3378367,-0.10263455,-0.48968852,-0.86583573,0
-2.05301,-4.0569983,-2.3490565,0.025992155,-0.77070463,-0.63666248,0
2.858417,3.148803,-4.7060852,0.94165409,0.23267001,-0.24321258,0
3.6873994,2.943553,-1.4816451,0.94165409,0.23267001,-0.24321258,0
-4.653367,-2.6279042,-1.8046196,-0.94165409,-0.23267001,0.24321258,0
5.0635638,0.10268164,1.0474503,0.94165409,0.23267001,-0.24321258,0
-0.51292801,-0.50453711,-4.458293,-0.21848941,-0.12710363,-0.96752644,0
-3.5122292,-4.161705,-2.0246449,0.01158917,-0.74457932,-0.66743356,0
3.6834192,2.063621,3.3783143,0.16911864,0.29768613,0.9395647,0
-0.34490585,0.25139332,-4.6669693,-0.24917001,-0.0039017498,-0.96845198,0
-4.0918102,3.1448865,2.8606157,-0.10578859,0.89056718,0.44237894,0
-4.843298,-1.6441536,-1.9872842,-0.94165409,-0.23267001,0.24321258,0
0.036539555,-4.4768295,-1.1225436,0.15412861,-0.94046056,-0.30294991,0
-2.6557126,-5.2607722,0.84590769,0.23554933,-0.97170317,-0.017598808,0
-4.5625725,2.9763267,-1.2198558,-0.32032639,0.84135246,-0.43533552,0
4.7407737,-2.1443155,-2.4275625,0.94165409,0.23267001,-0.24321258,0
-4.8111134,-1.0141907,-1.2944243,-0.94165409,-0.23267001,0.24321258,0
-3.2735031,-1.1694444,4.621923,-0.94165409,-0.23267001,0.24321258,0
-1.5243609,0.85174525,-4.1376095,-0.28924561,0.18987802,-0.93823421,0
2.8842907,4.2549973,-3.3861639,0.94165409,0.23267001,-0.24321258,0
0.65003419,4.8775196,-0.07585001,-0.22014174,0.97235441,0.077876031,0
-4.6456766,-0.50808954,-0.24627995,-0.94165409,-0.23267001,0.24321258,0
-3.5116143,-4.556066,-1.6972344,0.04450357,-0.80231881,-0.59523451,0
4.3596783,0.58537865,-1.1334999,0.94165409,0.23267001,-0.24321258,0
-0.90101576,-4.1308608,-2.0134282,0.077800453,-0.85348916,-0.51527029,0
-4.8010693,-0.34779501,-0.76785779,-0.94165409,-0.23267001,0.24321258,0
5.0556002,-1.1568027,-0.13510036,0.94165409,0.23267001,-0.24321258,0
3.3098879,4.9275784,-0.61132455,0.94165409,0.23267001,-0.24321258,0
-1.6064246,4.0861292,1.6834667,-0.1531027,0.93960631,0.30610454,0
-3.4052067,-5.1375928,0.65537977,-0.94165409,-0.23267001,0.24321258,0
1.1817627,-2.4761922,3.6483257,0.33322531,-0.54264259,0.77103829,0
0.69584084,0.56825888,4.4703875,0.22014785,0.12083781,0.96795321,0
-3.8150835,-4.7305484,-1.0346591,-0.94165409,-0.23267001,0.24321258,0
-3.4346609,-1.9435861,3.6529064,-0.94165409,-0.23267001,0.24321258,0
4.9522138,-0.40124083,0.4067893,0.94165409,0.23267001,-0.24321258,0
2.5724249,2.4379761,3.5517328,0.11849761,0.44716161,0.88656926,0
4.4317765,1.9396939,0.83474755,0.94165409,0.23267001,-0.24321258,0
-4.8353806,-1.7746253,-1.5555823,-0.94165409,-0.23267001,0.24321258,0
2.6578186,2.1053536,-5.1594381,-0.29722315,0.23573771,-0.92524928,0
5.4769464,0.63230371,3.1404791,0.94165409,0.23267001,-0.24321258,0
-1.637151,-5.0716619,0.53118205,0.22560278,-0.97255504,-0.056924224,0
-4.4866362,-0.49154615,0.66597819,-0.94165409,-0.23267001,0.24321258,0
-4.0282364,-1.6848798,1.2800398,-0.94165409,-0.23267001,0.24321258,0
3.3231921,3.7546368,-1.9185766,0.94165409,0.23267001,-0.24321258,0
3.8604677,4.015995,0.5886389,0.94165409,0.23267001,-0.24321258,0
3.626519,3.1778426,2.9120104,0.087542415,0.52842152,0.84445679,0
4.8970747,-1.306864,-0.88453102,0.94165409,0.23267001,-0.24321258,0
3.5199819,1.345099,-3.4968102,0.94165409,0.23267001,-0.24321258,0
-4.6387148,-2.8194451,-2.4381399,-0.94165409,-0.23267001,0.24321258,0
2.949348,3.8586402,-3.0735846,0.94165409,0.23267001,-0.24321258,0
-1.253654,-4.6775999,-1.1309536,0.13361883,-0.92162907,-0.3643434,0
-3.3320792,-2.0733171,3.5117292,-0.94165409,-0.23267001,0.24321258,0
-1.5003564,-1.8777804,4.8610544,0.29909217,-0.24701342,0.92169863,0
2.0802755,-3.8103309,-2.0775385,0.1274156,-0.91523516,-0.38224345,0
-4.2818623,0.26563454,1.7683122,-0.94165409,-0.23267001,0.24321258,0
-2.1687331,3.6243818,-1.6202433,-0.31668562,0.85721958,-0.40606022,0
0.5430789,2.9009671,3.3655536,0.046934247,0.62476552,0.77940059,0
0.51922321,2.6988032,3.5387843,0.066675425,0.57932681,0.81236386,0
-1.1650281,-0.10398746,-4.4501734,-0.2423963,-0.032549024,-0.96963131,0
-2.7911284,2.6380239,-2.812191,-0.33652258,0.63719046,-0.69335479,0
5.3216534,-2.142024,-0.3233242,0.94165409,0.23267001,-0.24321258,0
0.10592222,4.3082719,1.6749682,-0.12258261,0.91003859,0.39598417,0
-2.422678,-4.9800415,-0.76580119,0.13972688,-0.92761493,-0.34642053,0
-4.8291159,1.7385764,-2.5935414,-0.3344039,0.56464374,-0.75455385,0
-5.2568231,0.49830627,-1.3652673,-0.94165409,-0.23267001,0.24321258,0
-2.748076,-3.8223283,3.8039501,-0.94165409,-0.23267001,0.24321258,0
-5.1250424,2.9299893,1.7360358,-0.94165409,-0.23267001,0.24321258,0
4.6658936,0.93974018,0.7551496,0.94165409,0.23267001,-0.24321258,0
-5.0163879,0.015365601,-0.67546105,-0.94165409,-0.23267001,0.24321258,0
-4.0898542,-0.70970225,2.2323899,-0.94165409,-0.23267001,0.24321258,0
3.6413958,1.6648133,-2.6157212,0.94165409,0.23267001,-0.24321258,0
-3.1115091,-4.7329965,-1.5095935,0.074183702,-0.84829402,-0.52430356,0
-4.2511802,-4.0171165,-1.8468778,-0.94165409,-0.23267001,0.24321258,0
2.7809539,-3.9872932,-0.49611378,0.23449126,-0.97187251,-0.02185756,0
-4.605732,2.2994366,2.5929735,-0.94165409,-0.23267001,0.24321258,0
-3.6718554,-3.9046071,-2.4915283,-0.02473104,-0.67281234,-0.73939985,0
4.9095764,0.84472227,1.0249534,0.94165409,0.23267001,-0.24321258,0
-5.6058111,2.8345087,-0.33460283,-0.94165409,-0.23267001,0.24321258,0
-4.0821352,1.8986635,4.1064491,-0.94165409,-0.23267001,0.24321258,0
2.7162943,4.9554911,-2.9474683,-0.31626916,0.85888368,-0.40285558,0
2.1181011,-2.3086965,3.4210858,0.3321861,-0.5260272,0.78290999,0
3.0820332,2.9631252,3.0274663,0.086996555,0.52979207,0.84365416,0
5.4736443,0.49574804,2.8231611,0.94165409,0.23267001,-0.24321258,0
3.8202207,2.9294157,-0.9422828,0.94165409,0.23267001,-0.24321258,0
0.45676613,-2.85232,-3.6062591,-0.035350323,-0.65023172,-0.75891328,0
-3.1705604,-5.3183918,0.96760094,-0.94165409,-0.23267001,0.24321258,0
3.267817,-2.5992422,2.4467318,0.3364653,-0.66977656,0.66195953,0
3.5667801,4.8369164,-0.42350054,0.94165409,0.23267001,-0.24321258,0
-4.4727302,-2.4175081,-0.99158126,-0.94165409,-0.23267001,0.24321258,0
1.5925262,-0.10399485,4.2419572,0.25720423,-0.031335145,0.96584904,0
-1.6658421,4.2187014,0.67390394,-0.21718025,0.97206014,0.089060545,0
-4.9479284,1.4350486,0.57444954,-0.94165409,-0.23267001,0.24321258,0
-2.9457011,3.0663047,-2.1143064,-0.33277518,0.75195366,-0.56905752,0
-1.5362952,-4.9269543,-0.11659575,0.19377154,-0.96558356,-0.17349696,0
5.466897,-1.5747776,0.81808949,0.94165409,0.23267001,-0.24321258,0
-4.8761072,2.9575467,2.6584454,-0.94165409,-0.23267001,0.24321258,0
0.74450862,-4.5370541,0.057387829,0.2413629,-0.97041559,0.0061414242,0
-3.8935654,-4.4590368,-0.6184082,-0.94165409,-0.23267001,0.24321258,0
-0.28645951,-4.506103,1.7206817,0.29969937,-0.90849167,0.29124427,0
-3.0504944,-3.8149867,3.3267453,-0.94165409,-0.23267001,0.24321258,0
1.4685793,4.124824,-3.4670546,-0.33392641,0.73640203,-0.5883922,0
-3.8600366,1.7278928,4.5697889,0.057753682,0.60018384,0.79777449,0
3.0625069,3.5770154,-2.8361397,0.94165409,0.23267001,-0.24321258,0
4.2470493,0.84465194,-1.5256293,0.94165409,0.23267001,-0.24321258,0
0.83142042,-2.0159402,-4.0845256,-0.089707613,-0.52296543,-0.84762019,0
-4.7195973,-1.2621059,-0.77769172,-0.94165409,-0.23267001,0.24321258,0
-5.2544451,-1.0672851,-2.8392806,-0.94165409,-0.23267001,0.24321258,0
-4.3166323,-3.9350669,-2.2624638,-0.94165409,-0.23267001,0.24321258,0
4.8654604,-2.8167462,-2.4205794,0.94165409,0.23267001,-0.24321258,0
3.7867355,-0.70977044,-4.1173506,0.94165409,0.23267001,-0.24321258,0
-3.2407742,-2.8313842,3.5227833,-0.94165409,-0.23267001,0.24321258,0
-0.43403006,1.8631144,-4.2362628,-0.31714064,0.37130976,-0.87266898,0
-0.50067234,2.5125842,-3.8596168,-0.33174545,0.519521,-0.78742814,0
4.4966922,-1.6954041,-2.6047623,0.94165409,0.23267001,-0.24321258,0
3.4912486,-3.4630775,-2.3043895,0.13954026,-0.92743671,-0.3469727,0
-0.1075325,2.6675179,-3.8942215,-0.33010241,0.49729916,-0.80232537,0
3.1113539,3.099144,-3.8174362,0.94165409,0.23267001,-0.24321258,0
-2.3472505,-4.6059241,3.1403279,0.32400358,-0.8223114,0.46778828,0
-0.30678689,3.6926172,-2.9756801,-0.33393323,0.73629898,-0.58851725,0
-0.86847162,-3.2253952,4.0071726,0.33494663,-0.576621,0.74519742,0
3.44331,0.98361099,-4.028461,0.94165409,0.23267001,-0.24321258,0
3.5842502,-1.7949915,3.0268941,0.33252579,-0.53124368,0.77923483,0
2.8235126,3.5083222,2.8405995,0.036077619,0.64865875,0.76022398,0
4.6715078,-2.7879946,-3.3054829,0.94165409,0.23267001,-0.24321258,0
-4.2291007,-0.85985327,1.2480317,-0.94165409,-0.23267001,0.24321258,0
4.1617064,1.3073254,3.5919712,0.22634077,0.097076327,0.96919882,0
3.6639035,4.1017346,-0.69700098,0.94165409,0.23267001,-0.24321258,0
4.7118607,3.4059861,2.7686074,0.94165409,0.23267001,-0.24321258,0
-3.8897448,-0.40506244,3.33499,-0.94165409,-0.23267001,0.24321258,0
2.0005224,4.3677492,1.8488989,-0.06272006,0.83123678,0.55236936,0
3.7384846,-1.2422954,-4.8940415,-0.10174274,-0.49202347,-0.86461645,0
-2.9837432,-1.7627838,-3.7208548,-0.18051028,-0.26078743,-0.94837034,0
-5.1268973,0.88483953,-0.18073416,-0.94165409,-0.23267001,0.24321258,0
-5.0038681,0.66192341,-0.012551785,-0.94165409,-0.23267001,0.24321258,0
3.6044977,-1.0241938,3.4567046,0.31298476,-0.33950523,0.88700438,0
1.6735504,-4.1817989,0.72918653,0.2815457,-0.94047606,0.19036013,0
-3.0945675,3.8623824,1.2153444,-0.20429784,0.96936512,0.13635951,0
1.987051,0.54776001,4.2062206,0.23529458,0.061641812,0.96996748,0
1.9724238,4.1000843,2.1213665,-0.040566683,0.79578179,0.60422343,0
-4.5979109,2.211463,2.4548097,-0.94165409,-0.23267001,0.24321258,0
3.6444454,2.6911247,-1.9310473,0.94165409,0.23267001,-0.24321258,0
-1.5392928,2.4251511,3.8861027,0.048023939,0.62232482,0.78128463,0
3.2152548,3.3321683,-3.2431874,0.94165409,0.23267001,-0.24321258,0
-4.3386984,-2.1700528,-0.11362696,-0.94165409,-0.23267001,0.24321258,0
4.1919732,2.4760547,-0.26252079,0.94165409,0.23267001,-0.24321258,0
-4.8561244,1.5961909,1.1120749,-0.94165409,-0.23267001,0.24321258,0
-1.8503804,3.9631779,-1.0448217,-0.29302442,0.92222589,-0.252262,0
1.1388288,1.2825153,-4.8348203,-0.27826852,0.13164878,-0.95143861,0
4.3713398,-1.5824676,-3.1348438,0.94165409,0.23267001,-0.24321258,0
5.3538384,1.3042159,3.1049812,0.94165409,0.23267001,-0.24321258,0
2.7225161,-0.92089611,-5.0213051,-0.14264047,-0.37863582,-0.91448832,0
-5.2146068,0.79475117,-1.1456079,-0.94165409,-0.23267001,0.24321258,0
-3.9607575,0.6347146,3.496573,-0.94165409,-0.23267001,0.24321258,0
-3.109036,-3.1428423,3.5447602,-0.94165409,-0.23267001,0.24321258,0
-4.0968542,-1.998734,0.4604789,-0.94165409,-0.23267001,0.24321258,0
3.2830076,1.4595091,-4.168684,0.94165409,0.23267001,-0.24321258,0
3.0918381,1.5259552,3.7452867,0.1880734,0.23553452,0.95349461,0
2.5502944,-0.18476582,-5.1657286,-0.19239855,-0.22080773,-0.9561522,0
3.9628458,2.1369822,-1.2498826,0.94165409,0.23267001,-0.24321258,0
-0.024018407,-4.6280975,1.2424653,0.28345996,-0.93783271,0.20030051,0
4.7508025,-2.6214814,-2.4253759,0.94165409,0.23267001,-0.24321258,0
-4.2809067,-2.5516176,-3.2518156,-0.13983059,-0.38685858,-0.91147578,0
3.9929683,4.4438057,1.4394934,0.94165409,0.23267001,-0.24321258,0
5.0977502,-3.0507617,-1.5863338,0.94165409,0.23267001,-0.24321258,0
-1.0027335,-3.6978517,3.5859551,0.33640829,-0.67384744,0.65784431,0
-1.6586199,-2.2551875,-3.7444677,-0.11916566,-0.44532859,-0.887402,0
0.99522829,1.2335269,-4.7882404,-0.28103489,0.14586681,-0.94854748,0
-1.2549095,0.51636934,-4.249939,-0.27707839,0.12561783,-0.95260054,0
2.9255652,4.1321564,-3.5756228,0.94165409,0.23267001,-0.24321258,0
4.7857175,1.4842772,1.778145,0.94165409,0.23267001,-0.24321258,0
2.0894265,4.5813918,-2.90501,-0.3200627,0.84258991,-0.43313068,0
-3.9703369,0.8967514,-3.3064432,-0.31425035,0.34892684,-0.88289118,0
4.6057506,-1.0908055,2.9939334,0.32438183,-0.4345541,0.84020197,0
0.87058353,-4.3447628,-0.71352506,0.19552779,-0.96630728,-0.16738957,0
-4.0200233,-4.5999002,-1.336297,-0.94165409,-0.23267001,0.24321258,0
-0.41467381,0.086227536,-4.5762725,-0.24118763,-0.037565827,-0.96975124,0
0.95274568,4.8193502,-0.70423388,-0.24688098,0.96860468,-0.029238343,0
3.0135791,1.5199237,-5.3715467,0.94165409,0.23267001,-0.24321258,0
3.8965001,3.8321354,0.53755474,0.94165409,0.23267001,-0.24321258,0
-4.3329072,3.2609565,2.4603953,-0.14159179,0.9293797,0.34088874,0
-3.2394824,-1.0153787,5.3310771,-0.94165409,-0.23267001,0.24321258,0
-3.5914249,-1.911562,2.3720303,-0.94165409,-0.23267001,0.24321258,0
5.3558583,0.55899143,2.9579244,0.94165409,0.23267001,-0.24321258,0
-0.80515337,-4.7740574,1.3731282,0.2806145,-0.94171,0.18557441,0
3.7430682,1.3412426,-3.128453,0.94165409,0.23267001,-0.24321258,0
0.4474318,4.6009159,0.6783011,-0.17684144,0.95682764,0.2306692,0
-4.7377048,1.037421,1.2903028,-0.94165409,-0.23267001,0.24321258,0
4.4520569,2.5793409,1.4538829,0.94165409,0.23267001,-0.24321258,0
1.7148385,4.7241249,1.0789487,-0.12827617,0.91614091,0.37977785,0
-0.14759827,-1.8594601,4.4082255,0.31030202,-0.32019472,0.89509112,0
-4.1256185,-2.2070735,0.43733007,-0.94165409,-0.23267001,0.24321258,0
-1.3005385,3.5254016,2.5509591,-0.077688873,0.85333014,0.51555049,0
-2.9849541,-5.0973425,1.7907186,-0.94165409,-0.23267001,0.24321258,0
-3.9650929,-1.3709488,1.8906977,-0.94165409,-0.23267001,0.24321258,0
-4.6758671,0.72943759,1.1173267,-0.94165409,-0.23267001,0.24321258,0
-2.914834,-5.1865559,2.0555634,-0.94165409,-0.23267001,0.24321258,0
-4.7588506,3.4262669,1.1194892,-0.23544309,0.97172105,0.018027484,0
-5.0873489,3.0420423,1.3120894,-0.94165409,-0.23267001,0.24321258,0
1.6877661,3.6703601,2.7017944,-0.0057932138,0.73369151,0.6794582,0
-2.9520602,-4.7450728,2.4395638,-0.94165409,-0.23267001,0.24321258,0
4.4734583,2.4851046,0.87913567,0.94165409,0.23267001,-0.24321258,0
-4.9004898,-0.62295008,-0.6712811,-0.94165409,-0.23267001,0.24321258,0
0.82258701,3.1001434,-4.0456176,-0.33432534,0.56303066,-0.75579309,0
3.6417918,3.6750362,-0.53545308,0.94165409,0.23267001,-0.24321258,0
-1.2378082,-0.35365611,4.9729767,0.23940372,0.044920683,0.9698804,0
0.18813801,-4.4951987,-0.68931007,0.18358999,-0.96069324,-0.20823878,0
4.0922236,-1.7549878,-4.1464386,0.94165409,0.23267001,-0.24321258,0
5.0849633,0.31337309,3.3048177,0.279531,-0.1381025,0.95015275,0
-2.7328863,-3.2495253,4.4564738,-0.94165409,-0.23267001,0.24321258,0
-3.0677145,-0.11224699,5.3500786,0.20560575,0.17446953,0.96295732,0
-4.3948288,0.16773963,1.7705667,-0.94165409,-0.23267001,0.24321258,0
-3.652864,-4.5435538,0.13814616,-0.94165409,-0.23267001,0.24321258,0
2.6567194,4.757791,-3.1166925,-0.32280982,0.82889301,-0.45687002,0
1.0232296,0.91113758,-4.8055744,-0.26408106,0.062709093,-0.96245992,0
3.9187479,4.4151468,0.63068056,0.94165409,0.23267001,-0.24321258,0
3.6181986,-0.45689726,-5.2099957,0.94165409,0.23267001,-0.24321258,0
5.3988585,-1.6883616,0.97581339,0.94165409,0.23267001,-0.24321258,0
-2.9386272,-5.0386591,-0.84791255,0.12383378,-0.91140175,-0.39244395,0
-0.4704026,-4.126142,2.5762854,0.32178283,-0.83423245,0.44778597,0
-1.9017668,-2.1813262,-3.7848868,-0.12511265,-0.42885512,-0.8946678,0
4.0535936,-1.0250449,-4.0764508,0.94165409,0.23267001,-0.24321258,0
4.3671446,3.1321208,1.5313693,0.94165409,0.23267001,-0.24321258,0
2.9779027,2.5142491,-4.2563009,0.94165409,0.23267001,-0.24321258,0
3.950928,2.3435278,3.4308286,0.16033578,0.3252559,0.93193418,0
5.512033,-2.4446459,0.89332151,0.94165409,0.23267001,-0.24321258,0
-2.0426359,-4.5541167,2.932904,0.3230885,-0.82739466,0.45938224,0
-3.4954379,3.5425751,2.1585774,-0.15081239,0.93766475,0.31311464,0
-3.1623294,0.30420375,5.2822371,0.17590976,0.27584922,0.94496733,0
-3.5880699,-1.1034832,3.1744685,-0.94165409,-0.23267001,0.24321258,0
4.2948871,-2.36532,-4.0191708,0.94165409,0.23267001,-0.24321258,0
-1.3403473,0.087849334,5.0012555,0.21611571,0.13600254,0.96684933,0
3.0485668,2.4701805,-4.6017275,0.94165409,0.23267001,-0.24321258,0
0.32054806,-3.1635845,-3.2284346,-0.0018174648,-0.719069,-0.69493663,0
3.9011471,-0.59175682,-3.9175873,0.94165409,0.23267001,-0.24321258,0
-5.0409765,2.9721646,1.8017926,-0.94165409,-0.23267001,0.24321258,0
4.9151068,1.4748068,2.3295536,0.94165409,0.23267001,-0.24321258,0
4.7450743,-0.63292027,-0.84947085,0.94165409,0.23267001,-0.24321258,0
-2.3055849,-4.8581462,2.4359322,0.30513167,-0.89510745,0.32508051,0
2.0518587,1.2150031,-5.2163825,-0.2737121,0.108821,-0.95563585,0
2.6273437,2.0429096,3.630713,0.15805495,0.33229557,0.92983794,0
-3.5270548,-1.1464124,3.5661175,-0.94165409,-0.23267001,0.24321258,0
3.5380292,-0.74767375,3.4547396,0.30336791,-0.27370608,0.91271734,0
-3.5686984,-4.5545692,0.70724231,-0.94165409,-0.23267001,0.24321258,0
2.3347905,-2.2107148,3.234628,0.33331579,-0.54419285,0.76990569,0
-5.229094,-0.94410753,-2.8375921,-0.94165409,-0.23267001,0.24321258,0
-4.4149528,0.36888695,1.3896916,-0.94165409,-0.23267001,0.24321258,0
1.9531775,0.7270695,-5.0558305,-0.24769568,-0.01021558,-0.96878409,0
5.2071371,1.3089933,3.0787201,0.94165409,0.23267001,-0.24321258,0
-5.2960234,-1.1577334,-3.2550485,-0.24389088,-0.02630651,-0.96944606,0
3.9673359,-1.3348318,-4.6013889,0.94165409,0.23267001,-0.24321258,0
-3.5281339,-0.12267566,4.921773,-0.94165409,-0.23267001,0.24321258,0
-3.5191469,1.7852384,4.3928781,0.048651814,0.62091482,0.78236693,0
-1.1399733,-4.9458952,0.40856862,0.23399293,-0.9719457,-0.023856938,0
-3.9369392,-3.3966913,0.077178456,-0.94165409,-0.23267001,0.24321258,0
0.86351562,4.2833109,-2.7233791,-0.32618758,0.80903077,-0.48894894,0
1.9815264,2.5827243,3.5713873,0.10494554,0.48361099,0.86896896,0
4.1296825,3.6941476,0.87548524,0.94165409,0.23267001,-0.24321258,0
0.22606635,4.5199962,1.167006,-0.15012091,0.93706936,0.31522208,0
4.956665,-3.1486051,-2.3832264,0.16170663,-0.94647181,-0.27936035,0
5.5043411,-0.40732384,2.074924,0.94165409,0.23267001,-0.24321258,0
1.0977101,-4.2459192,-1.2107072,0.17579627,-0.95618618,-0.23410213,0
-5.1280169,-0.77794695,-2.054327,-0.94165409,-0.23267001,0.24321258,0
-4.7063861,1.6347458,1.8262644,-0.94165409,-0.23267001,0.24321258,0
0.57118177,4.552249,0.95701385,-0.15784234,0.94347286,0.291453,0
3.6664996,-1.1004069,3.4249139,0.31752235,-0.37436596,0.87122309,0
0.95105696,4.6358538,1.0833898,-0.14923698,0.93630207,0.31791043,0
0.60337591,-4.4572058,-0.20896959,0.21796113,-0.97215009,-0.086123526,0
-4.7087193,-3.1919065,-2.6693118,-0.94165409,-0.23267001,0.24321258,0
4.6288142,1.5991178,0.70205235,0.94165409,0.23267001,-0.24321258,0
3.1850605,3.3143382,-2.8104801,0.94165409,0.23267001,-0.24321258,0
1.1474224,3.5109811,-3.7628574,-0.33641315,0.62769711,-0.70201319,0
5.3472147,-2.0933785,0.58635044,0.94165409,0.23267001,-0.24321258,0
-5.3230906,2.7499139,0.89326048,-0.94165409,-0.23267001,0.24321258,0
-2.2890625,-4.078567,3.7438059,0.33541766,-0.70875138,0.62061799,0
5.2394185,0.3158145,3.3349786,0.28210938,-0.15146711,0.94735014,0
1.841948,-2.539788,-3.739161,-0.015358329,-0.69213945,-0.72160047,0
-3.9271269,0.011385918,3.1036966,-0.94165409,-0.23267001,0.24321258,0
2.7394218,4.119699,2.1865325,-0.015266657,0.75137627,0.65969753,0
-3.4950132,0.56924129,-3.6242218,-0.29830199,0.24221906,-0.92322582,0
4.3790789,3.5777223,2.2758455,0.94165409,0.23267001,-0.24321258,0
3.7192237,1.5078845,-2.4819877,0.94165409,0.23267001,-0.24321258,0
3.4345741,-2.0384867,-4.2348065,-0.033423901,-0.65438187,-0.75542527,0
3.3501189,2.6957493,-2.5615432,0.94165409,0.23267001,-0.24321258,0
-3.6582646,-2.5666561,1.5836781,-0.94165409,-0.23267001,0.24321258,0
0.43011475,1.3412052,4.1765833,0.15881848,0.32994461,0.93054473,0
2.0855272,-2.417264,3.2231495,0.33463252,-0.5694989,0.75079435,0
-2.868228,3.8003418,1.3701329,-0.18647736,0.96219766,0.19849914,0
0.79849619,4.0833378,-3.0786481,-0.33091515,0.77202219,-0.54265732,0
0.94073963,-2.7429945,-3.5971003,-0.018072963,-0.68659973,-0.72681117,0
5.4133682,-2.5089748,-0.21732759,0.94165409,0.23267001,-0.24321258,0
0.54705477,-0.37921679,4.5342622,0.25792968,-0.034589291,0.96554446,0
3.9366724,-1.1332339,-4.6690516,0.94165409,0.23267001,-0.24321258,0
4.8718758,-1.0721455,-0.53672552,0.94165409,0.23267001,-0.24321258,0
-3.7492032,3.680666,1.4641809,-0.20311415,0.96900785,0.1406008,0
3.9398255,1.3847506,-2.1594262,0.94165409,0.23267001,-0.24321258,0
3.8597016,3.7331669,-0.35490972,0.94165409,0.23267001,-0.24321258,0
0.49305964,4.7207975,-1.2091346,-0.27719152,0.94596934,-0.16824681,0
1.4099081,4.9196267,-0.4953742,-0.23227641,0.97216487,0.030712605,0
-0.63532567,2.8094733,-3.5808511,-0.33528784,0.58511865,-0.73838902,0
-5.3745713,0.40532112,-1.9006741,-0.94165409,-0.23267001,0.24321258,0
0.49432564,-1.4720197,-4.3656559,-0.13209045,-0.4091658,-0.9028486,0
1.6055117,1.4631683,3.965148,0.17840695,0.26770085,0.94684064,0
3.1352136,2.9454131,-3.2890458,0.94165409,0.23267001,-0.24321258,0
0.41129255,2.5714598,-4.2080317,-0.32599372,0.45063895,-0.8310551,0
-3.7868171,-3.1043704,0.78369951,-0.94165409,-0.23267001,0.24321258,0
2.3106756,-0.75330555,-4.9502425,-0.15560591,-0.33980066,-0.92753571,0
0.19243383,-3.6055667,-2.4860945,0.054964185,-0.81919372,-0.57087713,0
0.36998796,-1.5488538,4.2525434,0.30854219,-0.30796444,0.89997774,0
-3.4472954,-1.572589,3.4640031,-0.94165409,-0.23267001,0.24321258,0
4.4556694,2.5461454,3.1560996,0.15527213,0.3408193,0.92721784,0
3.9835401,-2.5572362,-3.8248508,0.030858159,-0.7792297,-0.62597835,0
3.474472,2.8303876,3.2662773,0.11083913,0.46793085,0.87678701,0
-4.5059719,3.0529444,3.0429587,-0.11238623,0.89847386,0.42439848,0
4.053854,-0.46426535,-3.4804833,0.94165409,0.23267001,-0.24321258,0
-3.148361,-1.0384454,5.1183748,-0.94165409,-0.23267001,0.24321258,0
2.7729301,-1.7415438,3.5041351,0.32551014,-0.44571069,0.83389753,0
-3.6499453,-2.6653571,1.7943029,-0.94165409,-0.23267001,0.24321258,0
3.0330675,1.8588082,-4.7723885,0.94165409,0.23267001,-0.24321258,0
-2.8485041,0.90471923,5.0885725,0.13982141,0.38688517,0.91146588,0
1.7990665,0.070980072,4.1579857,0.25754851,-0.032877713,0.96570599,0
-0.68555212,-4.8320675,1.1608496,0.27282584,-0.95081115,0.14671195,0
4.0319114,0.82098556,-2.3447165,0.94165409,0.23267001,-0.24321258,0
5.3854446,-1.7793717,0.96994019,0.94165409,0.23267001,-0.24321258,0
-1.3150215,-4.6316853,-1.1410782,0.13802308,-0.92597663,-0.35144997,0
-1.7319179,3.903959,1.7473085,-0.151429,0.93819213,0.31123167,0
-3.8685324,-0.50316525,2.6931062,-0.94165409,-0.23267001,0.24321258,0
0.49677849,0.16805297,-4.6880407,-0.23864752,-0.048020661,-0.96991837,0
0.27733612,-3.314369,3.4583664,0.33658218,-0.6499694,0.6813606,0
-3.756521,3.7703719,0.88715458,-0.22681704,0.97253734,0.052206218,0
4.4312758,-0.15131783,-1.2432296,0.94165409,0.23267001,-0.24321258,0
-2.2597809,0.71093988,4.8821545,0.16094351,0.32337171,0.93248487,0
5.4625463,-0.18207026,2.7349613,0.94165409,0.23267001,-0.24321258,0
-4.6585813,-3.0947227,-2.8830638,-0.94165409,-0.23267001,0.24321258,0
4.9571676,-2.2011797,-1.2823362,0.94165409,0.23267001,-0.24321258,0
5.7790475,-1.5344181,2.2254667,0.94165409,0.23267001,-0.24321258,0
-4.9188333,2.5706928,2.1488094,-0.94165409,-0.23267001,0.24321258,0
-1.5138865,-4.9894576,1.5601697,0.28233212,-0.93940771,0.19442701,0
-3.1240063,-4.5942807,2.2324443,-0.94165409,-0.23267001,0.24321258,0
3.8286557,4.5363913,0.75632608,0.94165409,0.23267001,-0.24321258,0
1.276762,1.2410346,4.2634802,0.18347538,0.25096071,0.95045024,0
-3.9244225,-3.2767103,0.48316717,-0.94165409,-0.23267001,0.24321258,0
3.7171288,-0.30486465,-4.6653595,0.94165409,0.23267001,-0.24321258,0
2.7920456,3.0433862,-4.5776448,0.94165409,0.23267001,-0.24321258,0
-5.2260342,2.3766515,0.33786249,-0.94165409,-0.23267001,0.24321258,0
-2.1138668,-2.5103273,-3.5936508,-0.11750042,-0.44989151,-0.88532007,0
4.6513782,1.3764725,0.43481374,0.94165409,0.23267001,-0.24321258,0
-1.1021664,-4.734786,1.6304467,0.28817275,-0.93067348,0.22539616,0
-2.3566182,-0.49140024,5.1770315,0.2273798,0.093030989,0.96935219,0
-3.0449336,-1.1740985,5.2262177,-0.94165409,-0.23267001,0.24321258,0
-0.80232131,-4.7468348,1.0547667,0.26934099,-0.9542383,0.1299414,0
4.626379,0.43539524,0.065769196,0.94165409,0.23267001,-0.24321258,0
-1.3875057,3.3699734,-2.5586913,-0.33254859,0.75467533,-0.56557637,0
5.6988692,-1.1407719,2.5035598,0.32956594,-0.49059546,0.80666125,0
-4.439064,2.5693822,3.551069,-0.94165409,-0.23267001,0.24321258,0
5.7090378,-1.9410143,1.9258356,0.33638877,-0.67507559,0.65659392,0
-4.8716631,-0.85980892,-0.81100392,-0.94165409,-0.23267001,0.24321258,0
3.9555252,-0.48837519,3.4889393,0.29967344,-0.25056612,0.92055011,0
-0.7656467,-3.6834114,3.5836549,0.33622953,-0.68334025,0.64807093,0
-4.1590681,-4.5902858,-1.8280895,0.028550506,-0.77520567,-0.63106346,0
-3.7329192,-2.3025846,1.7246944,-0.94165409,-0.23267001,0.24321258,0
-4.5946708,1.1842988,1.867805,-0.94165409,-0.23267001,0.24321258,0
2.2408268,-2.9726202,2.4764893,0.3349117,-0.71961671,0.6082648,0
-5.0910501,1.5772328,-2.5704644,-0.33409616,0.55846334,-0.75927502,0
4.0613732,2.0080931,-1.2672173,0.94165409,0.23267001,-0.24321258,0
3.3749478,3.3424764,-2.5280321,0.94165409,0.23267001,-0.24321258,0
1.1863101,-4.2240744,-1.2557361,0.17199993,-0.95376247,-0.24648196,0
4.1530762,-2.9522994,1.6373982,0.32954249,-0.78434092,0.52555799,0
-2.9189274,-2.6992919,-3.2236154,-0.10951412,-0.4714793,-0.87505102,0
0.020503044,-2.257436,4.2451072,0.3224197,-0.41614327,0.85021794,0
2.6657135,5.317626,-1.8460078,-0.27603823,0.94731045,-0.16249847,0
2.7237754,0.10561538,-5.3190994,-0.20652664,-0.17115793,-0.96335447,0
-3.4960039,-3.7948477,-2.5672803,-0.038213491,-0.64401847,-0.76405507,0
4.3254538,-2.1535542,-3.4500234,0.94165409,0.23267001,-0.24321258,0
4.6026049,3.1957564,2.1377711,0.94165409,0.23267001,-0.24321258,0
-3.7903275,0.10992622,3.7261603,-0.94165409,-0.23267001,0.24321258,0
-5.2683597,3.2240033,1.5621896,-0.94165409,-0.23267001,0.24321258,0
3.4242015,2.8077462,-2.8382339,0.94165409,0.23267001,-0.24321258,0
-4.8906293,1.578742,1.4323907,-0.94165409,-0.23267001,0.24321258,0
1.240859,4.621542,-2.2161975,-0.30720946,0.88935578,-0.33862776,0
-3.7054017,-0.72855973,3.7361259,-0.94165409,-0.23267001,0.24321258,0
3.6091359,0.47806025,-3.715785,0.94165409,0.23267001,-0.24321258,0
4.6013412,-3.051734,-2.880599,0.1165303,-0.90327126,-0.41294307,0
-2.7930298,-2.4343324,-3.565558,-0.13165998,-0.41039217,-0.90235484,0
4.9024014,-1.092159,-0.96241164,0.94165409,0.23267001,-0.24321258,0
3.0446234,0.1644206,3.8456659,0.26322466,-0.058735937,0.96294504,0
-0.81565952,-2.2595906,-3.7203283,-0.098745584,-0.49982744,-0.86047786,0
4.5702157,-2.1005723,-2.9538417,0.94165409,0.23267001,-0.24321258,0
4.3519597,3.1983564,1.0496203,0.94165409,0.23267001,-0.24321258,0
1.0123048,-2.2140343,3.8643553,0.3255868,-0.4464854,0.83345312,0
4.5309372,-1.9062073,-3.1778965,0.94165409,0.23267001,-0.24321258,0
-3.3478112,-1.3638997,4.2668591,-0.94165409,-0.23267001,0.24321258,0
5.3453522,-2.0634961,0.43109035,0.94165409,0.23267001,-0.24321258,0
-5.387969,3.2421358,0.84870434,-0.94165409,-0.23267001,0.24321258,0
-1.6247392,-3.7352107,-2.6327841,0.015856147,-0.7524578,-0.65844977,0
3.6038251,-3.691258,-0.09011364,0.26544708,-0.95764399,0.11160672,0
-4.8885374,0.17742634,-0.4364562,-0.94165409,-0.23267001,0.24321258,0
-0.0053305626,-0.47525662,-4.5148067,-0.21288383,-0.14799106,-0.96580505,0
2.1189828,3.7319031,-4.0291934,-0.33647582,0.63254869,-0.69761473,0
3.9899919,1.4706092,-1.8518585,0.94165409,0.23267001,-0.24321258,0
5.2249489,0.95467854,2.7296462,0.94165409,0.23267001,-0.24321258,0
4.8152099,2.162756,2.5769627,0.94165409,0.23267001,-0.24321258,0
5.6340179,-2.2210321,1.7412939,0.33463264,-0.72483397,0.60219336,0
5.3016253,0.93392563,2.8674121,0.94165409,0.23267001,-0.24321258,0
-3.8740282,-1.1750877,2.6611903,-0.94165409,-0.23267001,0.24321258,0
-0.19742668,3.3585114,-3.3970454,-0.33643827,0.67181242,-0.65990728,0
-0.76754141,4.2563701,1.1375794,-0.16983664,0.95231628,0.2534743,0
3.3335519,1.8837743,3.6958175,0.18106997,0.25893977,0.94876981,0
3.3492644,-3.3394256,-2.7192655,0.10382777,-0.88815451,-0.44766217,0
-3.8804822,1.0246425,4.089582,-0.94165409,-0.23267001,0.24321258,0
3.4234691,3.5153971,2.8495507,0.055984497,0.60425645,0.79482079,0
-2.6726372,3.9206002,1.3518896,-0.1825884,0.96015012,0.2115972,0
3.48704,3.4055061,2.7936337,0.061739087,0.59093308,0.80435491,0
-3.0536065,-5.3349824,0.62111175,0.21252221,-0.97134501,-0.10641116,0
-4.4691567,0.77753162,2.3266959,-0.94165409,-0.23267001,0.24321258,0
2.7088637,3.1708994,-4.6061735,0.94165409,0.23267001,-0.24321258,0
4.664454,3.0676639,2.2911952,0.94165409,0.23267001,-0.24321258,0
3.0735064,2.0153847,-4.4583144,0.94165409,0.23267001,-0.24321258,0
-4.2400522,-3.2490675,-0.70218474,-0.94165409,-0.23267001,0.24321258,0
-3.701045,-0.65597916,3.5075059,-0.94165409,-0.23267001,0.24321258,0
1.0035081,3.3006873,3.0430117,0.020498514,0.68160987,0.73142874,0
-3.4022729,-0.52956617,4.7760072,-0.94165409,-0.23267001,0.24321258,0
4.8993688,-0.36034727,0.48942041,0.94165409,0.23267001,-0.24321258,0
0.084842682,4.0853968,1.900701,-0.097409368,0.88005829,0.46476763,0
-3.6579404,2.2930036,4.0930243,0.010226488,0.70248324,0.71162695,0
-2.9307635,0.47250342,-3.8281746,-0.29082149,0.1986711,-0.93592346,0
-4.0282693,-3.49915,-0.27280349,-0.94165409,-0.23267001,0.24321258,0
-4.5133009,1.2998869,2.5346243,-0.94165409,-0.23267001,0.24321258,0
-3.2761338,-1.5859973,4.5538006,-0.94165409,-0.23267001,0.24321258,0
-5.2252827,3.0677369,1.1701603,-0.94165409,-0.23267001,0.24321258,0
2.3439279,-3.5716541,1.5956779,0.31886229,-0.8480379,0.42327112,0
3.2166305,-3.6215556,-2.1408319,0.14957762,-0.93659854,-0.31687516,0
2.5293274,-1.7098134,-4.4282103,-0.079409242,-0.54862142,-0.83229136,0
0.026877165,-4.4181724,-1.3920486,0.14640921,-0.93380094,-0.32646626,0
3.6768224,3.2110565,2.9870257,0.081230044,0.54413956,0.83505332,0
-4.8827295,0.12107134,-0.64887261,-0.94165409,-0.23267001,0.24321258,0
-2.1259956,-5.2448325,1.1286597,0.25517386,-0.96470273,0.065078974,0
-4.5243711,-0.68822885,0.58701038,-0.94165409,-0.23267001,0.24321258,0
-3.6105518,2.9729581,-1.8392367,-0.32970107,0.78299952,-0.52745521,0
-3.9756224,-0.77941036,2.325067,-0.94165409,-0.23267001,0.24321258,0
-1.6881433,-2.2931113,-3.6672406,-0.11373436,-0.46013242,-0.8805356,0
4.6000595,0.51300097,-0.54716444,0.94165409,0.23267001,-0.24321258,0
4.9361782,1.2051196,2.1535392,0.94165409,0.23267001,-0.24321258,0
-3.5913389,-4.8824797,-1.2579626,0.084903359,-0.86342746,-0.49727732,0
3.9493279,-1.2213451,-4.4982433,0.94165409,0.23267001,-0.24321258,0
-2.5735714,-5.1293616,2.1281266,0.29469258,-0.91903961,0.26176846,0
1.4565916,-2.5167232,-3.8008275,-0.028228402,-0.66545606,-0.74590331,0
-4.9282465,3.0969546,-0.76568556,-0.31088918,0.87814939,-0.36359519,0
4.4532671,-1.3338742,-2.3013511,0.94165409,0.23267001,-0.24321258,0
5.0986638,-3.1673231,0.20107841,0.29639322,-0.91562861,0.27161622,0
-4.950448,-1.9677691,-2.9280481,-0.94165409,-0.23267001,0.24321258,0
0.80147481,-4.3997583,-0.88343453,0.1818921,-0.95976627,-0.21392572,0
-3.0103073,-1.3149397,5.3707886,0.25983036,-0.043176174,0.96468866,0
-3.1352298,-4.0363507,2.3630273,-0.94165409,-0.23267001,0.24321258,0
-4.363759,0.99788284,-3.1399927,-0.32006842,0.39543962,-0.86092037,0
3.7441409,2.1692181,-1.6683249,0.94165409,0.23267001,-0.24321258,0
-2.9912813,-3.2838955,3.733429,-0.94165409,-0.23267001,0.24321258,0
-2.3935957,-3.5356932,4.4419003,0.33398831,-0.55638146,0.76084924,0
3.7972827,-0.58470201,-4.5583143,0.94165409,0.23267001,-0.24321258,0
1.4429703,3.8782177,-3.525629,-0.33588725,0.69601309,-0.63462234,0
-3.5052505,2.960876,-1.7849479,-0.32900277,0.78876615,-0.51923507,0
-2.7821498,0.82025433,-3.7437198,-0.30429447,0.27967161,-0.9105981,0
-0.58106542,2.5294366,-3.7400486,-0.3324253,0.52968127,-0.78034055,0
1.4804959,2.1601343,-4.7923708,-0.31303036,0.33984086,-0.88685983,0
5.3325806,-2.5086064,0.032296658,0.94165409,0.23267001,-0.24321258,0
0.73099911,-4.288775,1.322217,0.29389197,-0.92058802,0.25718755,0
-4.1835589,-2.2508161,-0.011803985,-0.94165409,-0.23267001,0.24321258,0
4.426033,2.705101,3.0215755,0.13291347,0.40681762,0.90378845,0
4.4217229,0.29552412,-1.3132439,0.94165409,0.23267001,-0.24321258,0
1.1338632,4.356019,-2.9515047,-0.32719591,0.80224633,-0.49934334,0
-3.5327663,-2.8058677,1.9328809,-0.94165409,-0.23267001,0.24321258,0
3.6604333,0.39723134,-4.1214089,0.94165409,0.23267001,-0.24321258,0
3.6710346,-3.1152334,-3.0219402,0.082087219,-0.85952914,-0.50445181,0
-0.35643339,-3.2736151,-3.1561847,-0.015776396,-0.69128937,-0.72240591,0
-2.1185811,-3.9200869,-2.3154864,0.016917586,-0.75439924,-0.65619802,0
-5.213583,1.7442369,-0.037328243,-0.94165409,-0.23267001,0.24321258,0
1.6544325,4.2738791,1.6901323,-0.082720816,0.86041105,0.50284219,0
-4.3290095,1.0862765,-3.075444,-0.31819409,0.37980577,-0.86861974,0
-0.55636168,-0.72421628,4.786931,0.26354408,-0.060215741,0.96276623,0
2.6502788,-1.1997044,3.7061372,0.30981612,-0.31678456,0.89647186,0
0.1594317,4.4032679,1.4086285,-0.12988394,0.917817,0.37515634,0
0.20766461,-3.12554,3.4425409,0.33633667,-0.62285244,0.70635164,0
3.4759839,-2.1214077,-4.3795772,-0.033551812,-0.65410739,-0.75565732,0
-3.4998322,-1.9536738,2.7075694,-0.94165409,-0.23267001,0.24321258,0
-0.74574518,-3.8084836,3.1889701,0.33412918,-0.73327988,0.59216404,0
4.7356749,-2.8728132,-2.7329803,0.94165409,0.23267001,-0.24321258,0
-4.848577,2.691227,2.5313573,-0.94165409,-0.23267001,0.24321258,0
-3.919548,-2.8715057,-3.1035314,-0.12157524,-0.43868703,-0.89037818,0
-3.4843571,-2.5164242,2.5275519,-0.94165409,-0.23267001,0.24321258,0
-5.378788,-0.62274408,-2.6294899,-0.94165409,-0.23267001,0.24321258,0
-3.5085354,-5.2009306,0.11197269,-0.94165409,-0.23267001,0.24321258,0
-0.58747864,-2.6994007,-3.4311819,-0.058354139,-0.59879702,-0.79877228,0
3.4533248,-3.0241055,1.9491277,0.33114484,-0.76978511,0.54568672,0
-0.34223318,-1.8904068,4.4356194,0.31315434,-0.34075537,0.88646501,0
-2.6000805,-5.2277775,0.74583983,0.2261309,-0.97255009,-0.054874957,0
-3.0677836,0.73870957,4.9802117,0.14081347,0.38398987,0.91253686,0
1.1212265,-3.0824203,3.1667805,0.33656371,-0.65851849,0.67311084,0
-4.2655268,-2.3881629,-0.49216706,-0.94165409,-0.23267001,0.24321258,0
1.5948367,3.8083076,2.4416528,-0.019829392,0.75968891,0.6499846,0
1.5081124,-0.8574416,-4.8470178,-0.16567242,-0.308593,-0.9366554,0
3.3997326,2.159121,-3.6829858,0.94165409,0.23267001,-0.24321258,0
-4.2853537,0.24066567,1.9429755,-0.94165409,-0.23267001,0.24321258,0
-5.2601147,1.2376652,-0.42248106,-0.94165409,-0.23267001,0.24321258,0
5.2911048,-1.9083781,2.0811877,0.3365733,-0.6455816,0.68552399,0
2.8433993,-3.8371935,-0.98784542,0.209804,-0.97078967,-0.116404,0
-3.8828504,1.1886979,4.3826962,-0.94165409,-0.23267001,0.24321258,0
0.6643343,3.5152173,2.8823864,-0.004848361,0.73189622,0.68139899,0
-3.0875144,2.7291803,-2.3476737,-0.33579642,0.69877476,-0.63162851,0
-3.6200452,-5.0821905,0.027957797,-0.94165409,-0.23267001,0.24321258,0
4.6528902,1.2553973,3.3328068,0.23118246,0.078080535,0.96977234,0
-4.8742986,-0.59085417,-0.89375138,-0.94165409,-0.23267001,0.24321258,0
-1.0867939,-2.2299695,-3.7902062,-0.11795962,-0.44863489,-0.88589644,0
-5.0621977,-1.826036,-2.4613531,-0.94165409,-0.23267001,0.24321258,0
4.4588032,-1.2491267,-2.0661321,0.94165409,0.23267001,-0.24321258,0
-4.4526005,-0.27981639,1.1373034,-0.94165409,-0.23267001,0.24321258,0
-2.0792775,-1.4070411,-3.9711347,-0.18230629,-0.25484666,-0.94964087,0
3.9471097,-1.0115349,-4.068419,0.94165409,0.23267001,-0.24321258,0
-4.1160421,-3.6184769,-2.5174632,-0.058567286,-0.59830403,-0.79912597,0
-1.0851446,2.9926369,-3.0828938,-0.33656996,0.65714955,-0.67444438,0
4.4301219,-0.59854269,3.2842555,0.30636257,-0.29324386,0.90562135,0
-4.6681252,-2.9738855,-2.2965138,-0.94165409,-0.23267001,0.24321258,0
-2.9572992,2.9673138,-2.424458,-0.33445811,0.72788858,-0.59859508,0
0.013113499,-0.97748744,4.5747814,0.27775729,-0.12905186,0.95194364,0
-1.3086367,1.7091691,4.3506351,0.10015786,0.49615821,0.86243576,0
-0.34247541,3.8221407,2.5149379,-0.068429112,0.83984303,0.53849912,0
-1.9701712,-5.0935192,0.86491466,0.24608982,-0.96890116,0.025891483,0
-4.8488984,-2.0661025,-2.4871535,-0.94165409,-0.23267001,0.24321258,0
-4.7648177,-0.61309767,-0.69453812,-0.94165409,-0.23267001,0.24321258,0
4.2305202,-0.82699633,3.2409108,0.31315333,-0.34074774,0.88646835,0
4.4190769,-0.72974205,-1.9974086,0.94165409,0.23267001,-0.24321258,0
1.9315195,1.5185542,-5.1549921,-0.28438407,0.16347492,-0.9446702,0
-0.92853659,4.4133892,-0.91679144,-0.27755386,0.94553846,-0.17006212,0
2.8907309,3.4116781,2.8597806,0.058787465,0.59779441,0.79949123,0
5.1040516,-0.16596413,0.72464919,0.94165409,0.23267001,-0.24321258,0
1.2826524,1.2602825,4.0343275,0.17624533,0.27475789,0.94522256,0
4.0157347,1.4456577,-1.2061037,0.94165409,0.23267001,-0.24321258,0
-3.8720655,-0.088522434,-3.6088498,-0.27668321,0.12362593,-0.95297599,0
-4.0594583,0.067652464,2.6188607,-0.94165409,-0.23267001,0.24321258,0
-1.0970424,3.328032,-2.8210282,-0.33551353,0.7064147,-0.62322462,0
-3.8163338,-3.5490365,0.275112,-0.94165409,-0.23267001,0.24321258,0
0.81024587,-3.9594026,2.095046,0.31870931,-0.84871149,0.42203462,0
-3.1340568,0.91396451,-3.6554329,-0.30638725,0.29340741,-0.90556014,0
-0.56134892,-2.4594319,4.2859011,0.32629538,-0.45376167,0.82923561,0
-3.0623436,-3.7936749,3.1667504,-0.94165409,-0.23267001,0.24321258,0
3.8492575,4.6564579,0.66737944,0.94165409,0.23267001,-0.24321258,0
3.6391263,0.3765564,-4.2864456,0.94165409,0.23267001,-0.24321258,0
5.1874323,-1.4529452,-0.18677902,0.94165409,0.23267001,-0.24321258,0
3.5487037,2.2277536,3.4932122,0.1494087,0.35854855,0.9214772,0
5.6333785,-1.3704424,1.71699,0.94165409,0.23267001,-0.24321258,0
5.0644865,-0.90876865,0.076916218,0.94165409,0.23267001,-0.24321258,0
-5.4703054,-0.02254343,-2.7757452,-0.94165409,-0.23267001,0.24321258,0
-4.0837631,-3.0916245,-2.9430053,-0.099189758,-0.49867502,-0.86109513,0
-2.7409239,-3.762351,4.0781908,-0.94165409,-0.23267001,0.24321258,0
3.8739822,-0.97080564,-4.2474623,0.94165409,0.23267001,-0.24321258,0
3.9890265,-0.4216125,-3.7993894,0.94165409,0.23267001,-0.24321258,0
5.0232277,-3.3876877,-0.64000702,0.26267371,-0.95981395,0.098793387,0
2.9901941,4.1963749,-3.2555246,0.94165409,0.23267001,-0.24321258,0
3.4522705,2.5696323,-2.5350883,0.94165409,0.23267001,-0.24321258,0
-2.1542907,-5.1214266,0.16938448,0.19920802,-0.96770501,-0.15447783,0
-5.0083976,1.1003065,0.14194775,-0.94165409,-0.23267001,0.24321258,0
-5.5007105,-0.43966293,-2.863246,-0.94165409,-0.23267001,0.24321258,0
-0.29145503,2.6002977,-3.9580076,-0.33051169,0.50257695,-0.79886079,0
2.1161909,-1.6700081,3.7152519,0.32111818,-0.40451974,0.85629845,0
3.5818577,0.36633372,-4.0159926,0.94165409,0.23267001,-0.24321258,0
-0.032951593,4.5259638,0.12963724,-0.21554726,0.97184396,0.095176458,0
1.2511756,2.188354,-4.6806297,-0.31126636,0.32703874,-0.89227742,0
2.305865,5.2768273,-0.50527573,-0.21670598,0.97200131,0.090840518,0
-5.3496399,1.4028459,-0.86633873,-0.94165409,-0.23267001,0.24321258,0
0.22399473,-0.90401119,-4.5634956,-0.17658544,-0.27365091,-0.94548023,0
1.830461,0.78218818,4.2125659,0.21319389,0.14684695,0.96591121,0
-5.0587296,3.3786156,1.0084496,-0.24522808,0.96920991,-0.02226001,0
2.993938,2.6623456,3.2912021,0.11651826,0.45257279,0.88408232,0
5.118329,-1.3958616,0.080578327,0.94165409,0.23267001,-0.24321258,0
4.2545614,-3.5083804,-1.4744134,0.199417,-0.9677794,-0.15374005,0
-3.1690226,3.7144353,-0.60122204,-0.29389551,0.92058122,-0.25720775,0
-5.4632821,2.6558635,0.23622608,-0.94165409,-0.23267001,0.24321258,0
4.1076078,1.6476231,3.4219213,0.20430934,0.17911357,0.96238047,0
-5.2921548,0.60418987,-1.1530292,-0.94165409,-0.23267001,0.24321258,0
-4.4036384,0.59652543,1.8515506,-0.94165409,-0.23267001,0.24321258,0
-3.881355,1.6271483,4.7237711,0.0702672,0.57077807,0.81809235,0
-2.460464,-0.20103252,5.1689224,0.21097326,0.15501019,0.96512288,0
-2.3716049,0.44820929,5.0317216,0.17800331,0.26902211,0.94654214,0
-4.9993477,3.3736389,1.501925,-0.21440923,0.97167122,0.099417031,0
-3.9706979,-0.083462715,-3.487942,-0.27720207,0.12624189,-0.95248216,0
4.7600679,-3.4319227,-1.5097961,0.21284229,-0.97140378,-0.1052283,0
3.5866969,2.2860041,-2.8117008,0.94165409,0.23267001,-0.24321258,0
0.43841648,-4.6170001,0.30500221,0.24202394,-0.97022974,0.0088786483,0
3.8458691,-2.781143,-3.5195007,0.050104141,-0.81144321,-0.58227968,0
1.7824612,-2.5677023,3.1304319,0.33569163,-0.59667784,0.72889423,0
3.7464936,1.6516821,-2.5109668,0.94165409,0.23267001,-0.24321258,0
-2.8485126,-3.7430508,3.4836004,-0.94165409,-0.23267001,0.24321258,0
4.2726412,-3.4495635,-1.9922318,0.17415243,-0.95515466,-0.23948008,0
5.032836,1.2601171,3.4063292,0.23662323,0.056268245,0.96997094,0
-0.077544332,-4.224144,2.3127322,0.32098424,-0.83819854,0.44089961,0
-4.2701421,0.73466635,2.8328946,-0.94165409,-0.23267001,0.24321258,0
3.6710074,0.30611205,-3.9778152,0.94165409,0.23267001,-0.24321258,0
5.1095819,2.013823,3.1523905,0.19842792,0.19991636,0.95951033,0
-0.074918747,-0.40025151,-4.6105757,-0.21929991,-0.12404615,-0.9677397,0
4.0858746,-0.44545364,-3.2718589,0.94165409,0.23267001,-0.24321258,0
5.2441468,-0.9099865,0.58479261,0.94165409,0.23267001,-0.24321258,0
4.1327767,2.1372864,-0.19879961,0.94165409,0.23267001,-0.24321258,0
2.5687129,-3.2446473,-3.018003,0.073417783,-0.84718227,-0.52620542,0
4.7274976,-2.6026645,-2.5431223,0.94165409,0.23267001,-0.24321258,0
0.58525944,-0.091427565,-4.7289681,-0.22861302,-0.08820802,-0.96951306,0
-2.3638744,1.3257117,-3.6677663,-0.31146675,0.32847396,-0.89168012,0
-3.7365589,-4.5958991,-0.73620355,-0.94165409,-0.23267001,0.24321258,0
-0.84248757,3.8082862,-2.3465664,-0.3254199,0.8139016,-0.48131716,0
5.0475831,-2.5176177,-1.5120597,0.94165409,0.23267001,-0.24321258,0
4.9499488,0.69458771,1.2524581,0.94165409,0.23267001,-0.24321258,0
4.0060802,4.3871994,0.94618404,0.94165409,0.23267001,-0.24321258,0
5.2658386,0.28426361,2.1555943,0.94165409,0.23267001,-0.24321258,0
2.5140431,1.0223663,4.0194764,0.2196753,0.12262735,0.96783555,0
-3.2751884,-2.9033227,3.1872129,-0.94165409,-0.23267001,0.24321258,0
-5.4906259,-0.14123821,-3.0320401,-0.94165409,-0.23267001,0.24321258,0
3.590173,-2.7680657,2.1482141,0.33509761,-0.71586663,0.61257207,0
-5.0797615,1.0895667,-0.34946966,-0.94165409,-0.23267001,0.24321258,0
3.9339294,4.1147499,0.78073853,0.94165409,0.23267001,-0.24321258,0
