-3.6018403,-1.9857292,1.8259902,0.25592822,-0.91871274,0.30077824,0
-1.8975201,-0.12846351,-3.6767974,-0.25592822,0.91871274,-0.30077824,0
-1.5637889,-2.8912117,-3.6612647,-0.39018089,-0.38284159,-0.83737135,0
-3.9793711,-1.9835415,-1.8961849,-0.83432937,-0.36707145,-0.41128218,0
-1.8585951,-3.0125818,-2.3267815,0.25592822,-0.91871274,0.30077824,0
2.789048,-0.82992911,0.4094885,0.25592822,-0.91871274,0.30077824,0
-1.2764555,0.048424244,-4.0702615,-0.25592822,0.91871274,-0.30077824,0
-1.422127,-2.6795478,-3.7838726,-0.34236753,-0.37711477,-0.86056304,0
2.3336947,-0.75093746,0.81345123,0.25592822,-0.91871274,0.30077824,0
-4.6691122,-0.50474596,-1.2402766,-0.92443848,-0.3235797,-0.20176613,0
0.91766453,-0.56495261,2.5009093,0.25592822,-0.91871274,0.30077824,0
-0.66712499,1.8059464,1.3545127,-0.25592822,0.91871274,-0.30077824,0
-2.258338,-3.0016499,-3.2095234,-0.5367744,-0.39382172,-0.74617517,0
0.12026995,1.9455045,0.75958526,-0.25592822,0.91871274,-0.30077824,0
0.53545332,2.5580468,2.5270429,-0.25592822,0.91871274,-0.30077824,0
-4.6031752,-1.4925575,-0.17085373,-0.95777702,-0.28314814,-0.049902692,0
-4.3464618,-2.38446,0.011954546,-0.95406532,-0.29017892,-0.074536115,0
-3.4866757,0.73679066,0.30589843,-0.25592822,0.91871274,-0.30077824,0
-4.7635341,-0.0058984756,0.80602455,-0.95131701,-0.18407765,0.24720669,0
-1.4777033,-3.2130988,-3.3805656,0.25592822,-0.91871274,0.30077824,0
-2.6995146,-1.946619,1.631478,0.25592822,-0.91871274,0.30077824,0
1.1427661,2.5166163,1.6154755,-0.25592822,0.91871274,-0.30077824,0
-0.90675092,-0.95640194,2.5736644,0.25592822,-0.91871274,0.30077824,0
-1.3356692,-2.6388683,-1.7808068,0.25592822,-0.91871274,0.30077824,0
2.4243131,0.93694985,4.1328526,0.44252843,0.38796735,0.80848616,0
3.2515497,-0.80866003,-3.5114498,0.65800774,-0.062378719,-0.75042289,0
-2.5248251,-2.7155838,-1.4487127,0.25592822,-0.91871274,0.30077824,0
2.2819407,0.98210621,-4.2259765,-0.25592822,0.91871274,-0.30077824,0
-2.3337929,2.1266069,3.2817483,-0.25592822,0.91871274,-0.30077824,0
3.0597801,-0.46227992,0.8890844,0.25592822,-0.91871274,0.30077824,0
4.043951,0.047976792,-2.5886633,0.82914758,0.04865095,-0.55690867,0
-4.2546606,-1.9054509,1.2562885,-0.95998651,-0.20494297,0.19085127,0
-1.5316532,-1.0313694,2.8875055,0.25592822,-0.91871274,0.30077824,0
-3.9049921,-1.1255687,2.4696331,-0.87525439,-0.088125691,0.47556657,0
-2.4090602,0.14074636,-2.4850519,-0.25592822,0.91871274,-0.30077824,0
0.466427,0.999367,-2.5472302,-0.25592822,0.91871274,-0.30077824,0
2.6568689,-1.7644023,-2.3847558,0.25592822,-0.91871274,0.30077824,0
0.60603082,2.1653709,1.1095383,-0.25592822,0.91871274,-0.30077824,0
1.3402812,2.8386838,3.6151273,0.35049281,0.37815526,0.85682738,0
1.553714,2.3940892,1.2170554,-0.25592822,0.91871274,-0.30077824,0
-1.721481,-2.4437671,-1.021185,0.25592822,-0.91871274,0.30077824,0
2.8305905,-1.891818,-2.8857708,0.25592822,-0.91871274,0.30077824,0
-0.023616076,2.5031197,2.7689855,-0.25592822,0.91871274,-0.30077824,0
-2.0731623,0.097849607,-2.8742132,-0.25592822,0.91871274,-0.30077824,0
-1.5619498,1.6240175,1.2563093,-0.25592822,0.91871274,-0.30077824,0
2.6555862,-0.024921536,-4.0463853,0.58999568,-0.098025508,-0.80143362,0
-3.384387,-1.7623112,-2.6583033,-0.7184639,-0.38893774,-0.57666028,0
1.3068593,2.1096995,0.088768661,-0.25592822,0.91871274,-0.30077824,0
0.17771263,1.3790329,-1.0473492,-0.25592822,0.91871274,-0.30077824,0
2.5989885,3.0050797,1.8193835,-0.25592822,0.91871274,-0.30077824,0
4.1699452,1.9256544,1.0596981,0.91335136,0.33173174,0.23610011,0
1.0042689,1.3702991,-1.4542389,-0.25592822,0.91871274,-0.30077824,0
-2.999115,0.34281504,-1.3881249,-0.25592822,0.91871274,-0.30077824,0
0.71481806,1.4126923,-1.4473257,-0.25592822,0.91871274,-0.30077824,0
-2.8699164,1.1414976,1.2084205,-0.25592822,0.91871274,-0.30077824,0
-4.4320889,-0.68599111,-2.0131991,-0.86567318,-0.35628581,-0.35166809,0
-3.9894962,-0.53306627,-2.6916747,-0.78278625,-0.37952012,-0.49316344,0
-4.5288057,-0.13005209,-1.7424667,-0.25592822,0.91871274,-0.30077824,0
0.025138855,0.45945048,-3.6385252,-0.25592822,0.91871274,-0.30077824,0
3.6979063,0.26281917,2.3689044,0.25592822,-0.91871274,0.30077824,0
-2.1194284,-2.3404355,-0.51884955,0.25592822,-0.91871274,0.30077824,0
-4.6061401,-0.55397558,0.84134817,-0.95857096,-0.20092583,0.20191693,0
3.1259112,1.6405056,-2.8404651,-0.25592822,0.91871274,-0.30077824,0
-2.962039,-1.1908855,-3.6142938,-0.58709246,-0.39490324,-0.70666373,0
-3.769351,0.42009985,-0.43769431,-0.25592822,0.91871274,-0.30077824,0
-0.27329946,2.7242453,3.6958656,-0.25592822,0.91871274,-0.30077824,0
2.2176585,0.075029373,3.3681121,0.25592822,-0.91871274,0.30077824,0
0.16854906,2.3996058,4.1474862,0.09344691,0.33319506,0.93821555,0
1.0948449,1.3133503,-1.8758719,-0.25592822,0.91871274,-0.30077824,0
2.2144227,0.11855257,-4.2607231,0.51439989,-0.13400736,-0.84701496,0
-4.5963278,-0.40613157,-1.4835622,-0.91613632,-0.32980964,-0.22785938,0
-0.13203955,-2.3015556,-4.2335515,-0.089945793,-0.33242154,-0.93883193,0
-3.5986826,-0.20896339,-2.499393,-0.25592822,0.91871274,-0.30077824,0
2.8309808,0.30529463,3.7181175,0.25592822,-0.91871274,0.30077824,0
-0.62720537,-1.6035607,0.82607704,0.25592822,-0.91871274,0.30077824,0
-2.0054603,1.7924201,1.8755088,-0.25592822,0.91871274,-0.30077824,0
-1.1578255,-1.7159811,0.83451158,0.25592822,-0.91871274,0.30077824,0
-2.4723504,0.47045422,-1.4645314,-0.25592822,0.91871274,-0.30077824,0
4.1185484,0.97166181,-2.4010608,0.87782216,0.090548843,-0.47034997,0
-3.8867216,0.12980855,-1.575093,-0.25592822,0.91871274,-0.30077824,0
1.7370443,-2.2476373,-3.9356446,0.28476816,-0.2256854,-0.93165052,0
3.761935,-0.18140459,1.5355802,0.25592822,-0.91871274,0.30077824,0
4.1483607,-0.72851026,-2.2790904,0.82588053,0.046087638,-0.56195825,0
-4.4997277,0.54964828,1.5869462,-0.89925462,-0.11207931,0.42282289,0
-0.0011422634,2.6465907,3.1920688,-0.25592822,0.91871274,-0.30077824,0
3.7566295,0.85217535,-2.8533907,0.83747125,0.055301949,-0.54367596,0
0.0057286024,-0.031411409,4.7699018,0.25592822,-0.91871274,0.30077824,0
-4.5432072,-0.42792171,1.199856,-0.94086969,-0.16528803,0.29570919,0
-0.77154613,-3.1050665,-3.7021744,0.25592822,-0.91871274,0.30077824,0
-4.3548136,1.0758539,1.749851,-0.25592822,0.91871274,-0.30077824,0
-2.3906727,-0.30010033,-3.8275423,-0.25592822,0.91871274,-0.30077824,0
-4.8792253,0.28493631,0.69695616,-0.95443755,-0.19074854,0.22948599,0
3.0119872,2.7828403,0.78186619,-0.25592822,0.91871274,-0.30077824,0
-4.1892242,-2.2902205,-0.57007068,-0.9336223,-0.31559354,-0.16955847,0
4.011466,2.6755371,0.90681356,0.90239441,0.33862796,0.26648748,0
4.3241539,-1.083137,-2.1002183,0.25592822,-0.91871274,0.30077824,0
2.2690094,0.57412863,-4.3195591,0.54542392,-0.11965532,-0.82957542,0
4.3752766,-0.16482784,-1.841373,0.89524299,0.10784952,-0.432329,0
-1.5409307,0.048959494,-3.3427899,-0.25592822,0.91871274,-0.30077824,0
2.8211167,1.6996107,-2.3650279,-0.25592822,0.91871274,-0.30077824,0
0.19961601,1.737993,0.076893985,-0.25592822,0.91871274,-0.30077824,0
3.2085011,1.8641939,-2.0080481,-0.25592822,0.91871274,-0.30077824,0
-2.3216829,-0.10042119,-3.4636328,-0.25592822,0.91871274,-0.30077824,0
-1.8175635,-2.3438125,-0.43969589,0.25592822,-0.91871274,0.30077824,0
4.4472275,-0.99684972,-1.6614437,0.25592822,-0.91871274,0.30077824,0
-0.97449768,-0.9811331,-4.6341515,-0.15312001,-0.34573829,-0.92575324,0
-3.7917271,0.27691996,-1.2201383,-0.25592822,0.91871274,-0.30077824,0
-4.9134932,0.49489993,1.0692883,-0.93968225,-0.16338815,0.30050194,0
0.96997428,2.5845728,2.054821,-0.25592822,0.91871274,-0.30077824,0
3.225481,2.9356427,1.0988986,-0.25592822,0.91871274,-0.30077824,0
1.673447,2.6963444,3.6580052,0.38492751,0.38225976,0.84006441,0
0.87111902,-1.3564925,0.19647664,0.25592822,-0.91871274,0.30077824,0
-4.7657237,0.34174359,-0.031625509,-0.25592822,0.91871274,-0.30077824,0
1.1567738,-1.2270963,0.27253097,0.25592822,-0.91871274,0.30077824,0
-2.1106055,1.5940374,1.3909988,-0.25592822,0.91871274,-0.30077824,0
2.3816216,-1.5669028,-3.8902798,0.45810625,-0.158724,-0.87461126,0
-0.93534529,2.4609027,3.4663706,-0.25592822,0.91871274,-0.30077824,0
-1.7836233,-0.18906546,-4.3143611,-0.25592822,0.91871274,-0.30077824,0
-1.7838532,-0.65662622,4.6130967,0.25592822,-0.91871274,0.30077824,0
-2.6014094,-0.037889361,3.9384818,-0.57401013,0.10592746,0.81196785,0
-1.3021104,-1.2722591,2.1086893,0.25592822,-0.91871274,0.30077824,0
-0.76222897,-1.4432518,0.96788341,0.25592822,-0.91871274,0.30077824,0
-2.7030044,1.6568782,2.3219159,-0.25592822,0.91871274,-0.30077824,0
-0.42718589,-2.5617747,-2.6769998,0.25592822,-0.91871274,0.30077824,0
-1.3137382,-1.6662828,0.68302459,0.25592822,-0.91871274,0.30077824,0
-2.3249397,-2.9123032,-1.9656007,0.25592822,-0.91871274,0.30077824,0
-2.9516106,-2.1917295,0.64629483,0.25592822,-0.91871274,0.30077824,0
4.1179585,0.1832521,2.31675,0.25592822,-0.91871274,0.30077824,0
2.231709,-0.45530957,-4.1098657,0.48049021,-0.14909106,-0.86423415,0
3.5832067,-1.4066532,-2.1073823,0.25592822,-0.91871274,0.30077824,0
-0.90579778,0.5674634,-2.5678058,-0.25592822,0.91871274,-0.30077824,0
1.8204762,-1.8103837,-1.8734026,0.25592822,-0.91871274,0.30077824,0
-1.5668459,1.429306,0.44499886,-0.25592822,0.91871274,-0.30077824,0
0.93584108,2.9684715,3.1768041,-0.25592822,0.91871274,-0.30077824,0
-2.394433,-1.7800404,1.534008,0.25592822,-0.91871274,0.30077824,0
4.356173,1.1159527,1.8409578,0.86222982,0.35762727,0.35869542,0
1.0613348,-0.24026966,3.5533895,0.25592822,-0.91871274,0.30077824,0
-3.1914208,-2.7614212,-2.3045805,-0.74073905,-0.386291,-0.54962236,0
1.7627177,2.3993948,0.85101867,-0.25592822,0.91871274,-0.30077824,0
-4.89007,0.21053505,0.49389482,-0.96193558,-0.21118799,0.17343473,0
2.3430932,-0.22603726,2.5705788,0.25592822,-0.91871274,0.30077824,0
-4.7684507,0.043599129,-0.79764271,-0.25592822,0.91871274,-0.30077824,0
-1.2110683,-2.1491232,-0.41270357,0.25592822,-0.91871274,0.30077824,0
0.011795908,-1.1905189,1.0733454,0.25592822,-0.91871274,0.30077824,0
-4.350893,-1.3157315,-1.4944049,-0.88800889,-0.34638461,-0.30242014,0
4.5291877,1.5149434,0.22100079,0.95518124,0.28820777,0.067565754,0
-4.7775507,-0.62031394,-0.69704968,-0.95252931,-0.292732,-0.083641335,0
-1.8755579,-2.4821525,-0.68140942,0.25592822,-0.91871274,0.30077824,0
2.4551921,2.6288939,1.0009594,-0.25592822,0.91871274,-0.30077824,0
-4.7164531,0.32266197,1.4573038,-0.92035627,-0.13638823,0.36652768,0
4.9421163,0.18063009,0.18071234,0.96590734,0.25559017,-0.04118979,0
2.1680288,2.3608003,0.4886606,-0.25592822,0.91871274,-0.30077824,0
4.0633764,0.95682478,-2.5169299,0.87257659,0.085629269,-0.48091322,0
2.9649255,-1.7812251,-3.4552593,0.56056172,-0.11244828,-0.82044238,0
-0.74274123,-1.2346541,1.8230251,0.25592822,-0.91871274,0.30077824,0
-2.4408376,-3.1682842,-2.7656884,0.25592822,-0.91871274,0.30077824,0
3.1466317,1.7552097,-1.9753237,-0.25592822,0.91871274,-0.30077824,0
-2.8443506,-0.16593313,-3.119164,-0.25592822,0.91871274,-0.30077824,0
-3.6814709,-1.7092266,2.8359923,0.25592822,-0.91871274,0.30077824,0
-1.3446993,1.9067277,1.8369882,-0.25592822,0.91871274,-0.30077824,0
-0.62185043,2.2024806,2.1149578,-0.25592822,0.91871274,-0.30077824,0
0.91951901,0.082112789,-4.9159765,0.24005459,-0.24099581,-0.94036937,0
-2.0867195,-2.7259002,-1.7281132,0.25592822,-0.91871274,0.30077824,0
-2.0241311,-1.7796055,1.4489831,0.25592822,-0.91871274,0.30077824,0
-4.7065072,0.1580525,1.1218574,-0.9421227,-0.16733494,0.29052317,0
1.0018973,-1.9392314,-1.552866,0.25592822,-0.91871274,0.30077824,0
4.6766324,0.38317484,-1.0751956,0.95165312,0.18476474,-0.24539393,0
-0.64741898,-0.31278968,4.8108325,0.25592822,-0.91871274,0.30077824,0
4.0255957,-1.243744,-2.3141594,0.25592822,-0.91871274,0.30077824,0
-1.3901489,1.4914695,1.0433173,-0.25592822,0.91871274,-0.30077824,0
-3.5005555,0.97156346,1.2438228,-0.25592822,0.91871274,-0.30077824,0
3.7694736,-0.73617482,-0.25512433,0.25592822,-0.91871274,0.30077824,0
-2.8430634,0.55682456,-1.1818862,-0.25592822,0.91871274,-0.30077824,0
-3.5664759,1.4588811,2.9987078,-0.66988575,0.055777341,0.74036604,0
-3.9445138,1.3505883,2.4509048,-0.25592822,0.91871274,-0.30077824,0
0.60165989,0.62947488,-3.6010246,-0.25592822,0.91871274,-0.30077824,0
1.5509311,1.0981302,4.5342379,0.27835891,0.36799878,0.88718271,0
-0.56647646,-0.47658896,4.3248129,0.25592822,-0.91871274,0.30077824,0
2.8225422,-1.4542339,-2.1567585,0.25592822,-0.91871274,0.30077824,0
2.5366621,1.8989729,3.376945,0.54408681,0.39407462,0.7407257,0
1.0963387,-0.73695123,1.8664646,0.25592822,-0.91871274,0.30077824,0
-1.4269186,-1.2284501,2.4088476,0.25592822,-0.91871274,0.30077824,0
3.6209941,1.3335791,2.6262741,0.74781603,0.38532335,0.540645,0
1.3142653,0.92455244,-3.5945463,-0.25592822,0.91871274,-0.30077824,0
2.5396686,0.6486516,-4.1625872,0.59902942,-0.093484819,-0.79525101,0
0.79700142,-1.841928,-1.6366918,0.25592822,-0.91871274,0.30077824,0
4.9340067,-0.034941077,-0.0014331341,0.96657765,0.24806023,-0.064760029,0
1.0350766,-1.8122355,-1.4330218,0.25592822,-0.91871274,0.30077824,0
-2.9027159,-0.44737804,3.9167042,-0.65320206,0.065015316,0.75438708,0
-4.4976034,-0.62229204,1.3867023,-0.94154394,-0.1663838,0.29293591,0
-4.1238852,-1.0039968,2.0743761,-0.90853703,-0.12229967,0.39950365,0
3.2656159,-0.038812757,2.0624382,0.25592822,-0.91871274,0.30077824,0
-1.4285456,-2.9644082,-2.9219983,0.25592822,-0.91871274,0.30077824,0
-0.27388567,0.61149979,-2.8828516,-0.25592822,0.91871274,-0.30077824,0
4.1133599,-0.14341116,1.1734674,0.25592822,-0.91871274,0.30077824,0
0.91593099,2.4484763,1.4931495,-0.25592822,0.91871274,-0.30077824,0
-4.2006588,-1.3672081,2.0195293,-0.91460371,-0.1293599,0.38310057,0
-2.4626107,-2.8681993,-1.4199066,0.25592822,-0.91871274,0.30077824,0
-1.1059736,1.6872094,1.0795045,-0.25592822,0.91871274,-0.30077824,0
2.202189,2.8627682,1.9880297,-0.25592822,0.91871274,-0.30077824,0
0.057888865,-0.44551921,3.5440559,0.25592822,-0.91871274,0.30077824,0
3.4433436,-0.57370925,0.083184719,0.25592822,-0.91871274,0.30077824,0
-0.091775134,-1.0950522,1.8497381,0.25592822,-0.91871274,0.30077824,0
4.7777605,-0.023757517,-0.83786416,0.95529515,0.19271255,-0.22421664,0
-2.6046278,-0.05303359,-2.9160423,-0.25592822,0.91871274,-0.30077824,0
0.94169617,1.5380702,-0.89667654,-0.25592822,0.91871274,-0.30077824,0
1.0718529,-2.4264946,-3.5871487,0.25592822,-0.91871274,0.30077824,0
4.8518653,-0.040641427,0.59130359,0.25592822,-0.91871274,0.30077824,0
1.7315135,0.84808326,-4.1060514,-0.25592822,0.91871274,-0.30077824,0
-3.1720223,0.51354158,-0.87790519,-0.25592822,0.91871274,-0.30077824,0
3.768008,0.22074342,2.7658753,0.25592822,-0.91871274,0.30077824,0
0.61476547,1.2545964,-1.3934444,-0.25592822,0.91871274,-0.30077824,0
-2.3850369,-0.9577806,4.1927133,-0.5962081,0.094908908,0.79720014,0
4.874661,-0.13310683,0.33298242,0.25592822,-0.91871274,0.30077824,0
-0.21139106,1.5387844,-0.15358853,-0.25592822,0.91871274,-0.30077824,0
-3.8654516,-0.5856117,-3.1519554,-0.73079091,-0.38754559,-0.56191909,0
-0.51228374,-1.6330024,0.6150977,0.25592822,-0.91871274,0.30077824,0
-0.056614041,2.3796198,2.1117272,-0.25592822,0.91871274,-0.30077824,0
-1.6542752,-1.6034842,-4.0652895,-0.34564114,-0.37753725,-0.85906798,0
-2.7034526,1.0232687,0.29151666,-0.25592822,0.91871274,-0.30077824,0
-3.6173151,0.08225584,-1.4651586,-0.25592822,0.91871274,-0.30077824,0
1.9566988,-1.0261137,0.40084738,0.25592822,-0.91871274,0.30077824,0
0.55636859,1.5496608,-0.45303676,-0.25592822,0.91871274,-0.30077824,0
4.6952953,-0.13397819,-1.0038247,0.94625872,0.17444317,-0.27233064,0
4.382617,-0.81931275,-1.43804,0.25592822,-0.91871274,0.30077824,0
-3.008122,-1.2749894,3.6344419,0.25592822,-0.91871274,0.30077824,0
0.39548612,2.822871,3.6242812,-0.25592822,0.91871274,-0.30077824,0
-2.3113928,0.83185184,-0.39530981,-0.25592822,0.91871274,-0.30077824,0
-0.61801112,0.16161394,-4.2538052,-0.25592822,0.91871274,-0.30077824,0
0.79506075,0.47935748,-4.3413219,-0.25592822,0.91871274,-0.30077824,0
2.5127566,0.36184514,3.9827936,0.25592822,-0.91871274,0.30077824,0
-4.7761955,0.48498321,0.25553823,-0.25592822,0.91871274,-0.30077824,0
-1.7058464,-1.5780754,1.6113414,0.25592822,-0.91871274,0.30077824,0
0.0081439614,-0.46111417,3.5699544,0.25592822,-0.91871274,0.30077824,0
4.6493645,-0.58869463,-1.3740692,0.92087865,0.13704458,-0.36496723,0
0.92920661,0.010005474,4.3000913,0.25592822,-0.91871274,0.30077824,0
-0.14055538,-2.7061865,-3.1704774,0.25592822,-0.91871274,0.30077824,0
-0.88053215,-1.3256779,-4.4344463,-0.15971145,-0.34704888,-0.92414773,0
1.0215119,0.38430595,-4.8401008,-0.25592822,0.91871274,-0.30077824,0
-2.5026379,-1.9123266,1.4991738,0.25592822,-0.91871274,0.30077824,0
-3.6196089,-1.5726261,2.893286,-0.84165573,-0.058714598,0.53681278,0
-0.88180798,0.53181875,-2.312592,-0.25592822,0.91871274,-0.30077824,0
2.3623233,2.5674689,1.0268846,-0.25592822,0.91871274,-0.30077824,0
2.0821295,2.3472741,3.5511746,0.45742202,0.38919342,0.79955828,0
0.82190299,3.0585632,3.7507341,0.25827366,0.36481303,0.89454234,0
-1.0100236,2.4641533,3.7298789,-0.25592822,0.91871274,-0.30077824,0
1.3454947,1.1060383,-3.0815132,-0.25592822,0.91871274,-0.30077824,0
1.1654009,-0.1225698,3.5409954,0.25592822,-0.91871274,0.30077824,0
3.6090283,1.2369756,2.7269588,0.74288261,0.38600472,0.54692388,0
-2.1961865,0.23050427,4.3118067,-0.49280396,0.14368367,0.85819525,0
-0.65542293,-1.978,-4.2875638,-0.15062916,-0.34523916,-0.92634797,0
4.7894454,0.21649888,-0.79834151,0.95869666,0.20126879,-0.20097637,0
-1.8950034,-1.5569437,1.5406705,0.25592822,-0.91871274,0.30077824,0
3.5609541,0.55031776,3.3525398,0.67834675,0.392349,0.62121499,0
3.7633805,2.3231845,-1.2794403,-0.25592822,0.91871274,-0.30077824,0
-4.6708794,0.94549185,1.5670364,-0.25592822,0.91871274,-0.30077824,0
0.33159387,2.3912442,2.2875566,-0.25592822,0.91871274,-0.30077824,0
0.71272349,-2.0435405,-1.8779457,0.25592822,-0.91871274,0.30077824,0
-1.9320278,2.1946909,3.9634604,-0.33334249,0.20818669,0.91953284,0
3.8000202,1.4030318,-2.5788832,0.87827975,0.090983838,-0.46941078,0
0.82784593,2.1641672,0.82415605,-0.25592822,0.91871274,-0.30077824,0
2.5377512,-1.2048974,-0.84057665,0.25592822,-0.91871274,0.30077824,0
-2.2996325,-1.7934728,1.6068778,0.25592822,-0.91871274,0.30077824,0
-2.8372307,0.1052233,-2.3719532,-0.25592822,0.91871274,-0.30077824,0
2.4539976,2.8097806,1.709834,-0.25592822,0.91871274,-0.30077824,0
-1.0566376,-2.5052853,-1.5919158,0.25592822,-0.91871274,0.30077824,0
-2.1600132,1.3046858,1.0226846,-0.25592822,0.91871274,-0.30077824,0
-0.35266423,-2.7491591,-3.9848223,-0.14279464,-0.34365514,-0.92817593,0
-4.7325583,0.45204878,0.33988118,-0.25592822,0.91871274,-0.30077824,0
-4.1647992,-1.1486597,2.0452805,-0.90838873,-0.12213103,0.39989239,0
-1.4813783,-3.0068102,-2.7749527,0.25592822,-0.91871274,0.30077824,0
2.582725,0.16314316,3.1747537,0.25592822,-0.91871274,0.30077824,0
1.7868954,2.6099644,1.5319115,-0.25592822,0.91871274,-0.30077824,0
-3.5706668,-1.9194171,1.8921974,0.25592822,-0.91871274,0.30077824,0
3.5647049,2.5084691,-0.3691501,-0.25592822,0.91871274,-0.30077824,0
-1.7029171,-0.92026258,3.6704993,0.25592822,-0.91871274,0.30077824,0
-0.60257554,-2.3577547,-1.5660833,0.25592822,-0.91871274,0.30077824,0
-2.5579977,-0.48211432,4.0356507,-0.60479045,0.090559825,0.79121876,0
-2.0995588,1.6954534,1.943305,-0.25592822,0.91871274,-0.30077824,0
1.0036654,0.2451992,-4.7976642,0.2783094,-0.22794332,-0.93305159,0
-0.15822649,-1.9608241,-4.3664889,-0.037596613,-0.32036459,-0.94654781,0
2.1159077,-1.5931973,-1.9263158,0.25592822,-0.91871274,0.30077824,0
-1.362134,-1.2127228,2.2566347,0.25592822,-0.91871274,0.30077824,0
1.1958219,-2.3159652,-4.0598073,0.18894331,-0.25760061,-0.94759804,0
-2.422045,0.18748522,-2.0288374,-0.25592822,0.91871274,-0.30077824,0
4.0627375,0.35201854,-2.4152987,0.84844387,0.064355701,-0.52535808,0
4.1665106,0.34415948,-2.3654697,0.85827142,0.072773024,-0.50800997,0
2.5229516,-1.070902,-0.10015261,0.25592822,-0.91871274,0.30077824,0
1.2786887,-0.62997496,1.9480486,0.25592822,-0.91871274,0.30077824,0
-4.1945291,-0.74793082,-2.5767589,-0.8030749,-0.37525588,-0.46287543,0
3.9711351,2.2383752,-1.5336006,-0.25592822,0.91871274,-0.30077824,0
-0.020200253,0.53601885,-3.3400817,-0.25592822,0.91871274,-0.30077824,0
-3.2196243,-1.1763849,-3.4040217,-0.61722445,-0.39475989,-0.68058693,0
4.2365141,2.5591636,-0.78967118,0.96660984,0.23905239,-0.092301339,0
0.30640411,2.4273312,2.2435191,-0.25592822,0.91871274,-0.30077824,0
1.7776111,-0.8062489,1.1968244,0.25592822,-0.91871274,0.30077824,0
0.74691129,-0.33654785,3.0143025,0.25592822,-0.91871274,0.30077824,0
-1.6427171,-1.4793165,1.9141475,0.25592822,-0.91871274,0.30077824,0
3.91203,1.2467595,2.490551,0.7852037,0.37904972,0.48966977,0
0.55807745,2.5702319,2.5709181,-0.25592822,0.91871274,-0.30077824,0
4.3198051,1.2948189,-1.2203496,0.95335978,0.18836623,-0.23584563,0
-3.2486472,-1.8198142,2.2775671,0.25592822,-0.91871274,0.30077824,0
2.3740792,2.362052,-0.077932999,-0.25592822,0.91871274,-0.30077824,0
-0.55773294,0.33275032,-3.6788752,-0.25592822,0.91871274,-0.30077824,0
-1.5531136,1.7420379,1.4385769,-0.25592822,0.91871274,-0.30077824,0
3.1411533,2.5985181,2.5783892,0.6987201,0.39081958,0.599208,0
2.928427,2.0299273,-1.5573331,-0.25592822,0.91871274,-0.30077824,0
2.4672847,2.5543227,3.1882169,0.57775116,0.3948226,0.71436578,0
-2.3761852,0.54826927,4.0569458,-0.50252098,0.13936076,0.85325909,0
3.3016152,0.75932264,-3.3060036,0.75383204,-0.005114302,-0.65704697,0
2.7928255,-1.5888544,-3.603054,0.52515262,-0.12909484,-0.8411594,0
3.9446385,1.9026787,-2.4254072,-0.25592822,0.91871274,-0.30077824,0
4.2035198,1.6678624,1.2160491,0.90778583,0.33535811,0.25191233,0
-4.1055293,-2.1727605,1.6200886,-0.95268208,-0.18691263,0.23970896,0
4.7132859,-0.44790459,-0.96669102,0.94151288,0.16633305,-0.29306448,0
4.5306191,1.2692696,0.099948287,0.96127135,0.27477527,0.021354914,0
2.5104945,1.4672861,-2.6178818,-0.25592822,0.91871274,-0.30077824,0
4.6056261,0.40852118,1.3372222,0.92559409,0.32264525,0.19792871,0
1.3538291,0.90438294,-3.1712351,-0.25592822,0.91871274,-0.30077824,0
1.402918,1.1820488,4.4040108,0.27508214,0.3674894,0.88841486,0
-4.1798863,0.59490395,0.28989649,-0.25592822,0.91871274,-0.30077824,0
1.9435203,1.2310982,-2.5622764,-0.25592822,0.91871274,-0.30077824,0
-0.98404086,2.4218547,3.5507565,-0.25592822,0.91871274,-0.30077824,0
-2.2747159,1.5061793,1.8399179,-0.25592822,0.91871274,-0.30077824,0
-3.8951175,-0.039333045,2.6702411,-0.81383675,-0.03685081,0.57992387,0
1.705156,1.6042324,-1.6174853,-0.25592822,0.91871274,-0.30077824,0
-2.2892017,-2.2715182,0.31983972,0.25592822,-0.91871274,0.30077824,0
3.2304926,1.3302515,3.4146175,0.64008904,0.39421147,0.65945673,0
-4.2556009,-1.9364716,1.0792034,-0.96361637,-0.21763507,0.15517241,0
-3.1518207,-2.7563925,-2.3420944,-0.73244071,-0.38734585,-0.55990523,0
4.2907438,0.26865375,2.2002971,0.25592822,-0.91871274,0.30077824,0
-2.3779864,0.020339727,-2.9102221,-0.25592822,0.91871274,-0.30077824,0
3.5746896,0.40809786,3.0242405,0.25592822,-0.91871274,0.30077824,0
4.531003,1.2763338,-0.58080935,0.96658778,0.23854491,-0.093832612,0
0.4527179,-1.1375439,1.2370391,0.25592822,-0.91871274,0.30077824,0
-1.8248967,0.85307491,-0.9531765,-0.25592822,0.91871274,-0.30077824,0
-1.5381653,1.7818706,1.7448866,-0.25592822,0.91871274,-0.30077824,0
-2.3910513,1.2478584,0.64301419,-0.25592822,0.91871274,-0.30077824,0
-2.5489397,0.82626009,3.9109206,-0.53673029,0.12373264,0.83463204,0
-2.3745663,0.63404596,-0.89185882,-0.25592822,0.91871274,-0.30077824,0
-4.4123545,-2.1785429,-0.24193829,-0.94827378,-0.29904249,-0.10653746,0
-3.46646,-3.0167916,-1.2851745,0.25592822,-0.91871274,0.30077824,0
4.1865935,1.9089077,0.91821682,0.91748983,0.32884708,0.22376783,0
-1.8756621,-2.0002556,0.44423577,0.25592822,-0.91871274,0.30077824,0
-4.1933813,-2.6069546,-0.48458964,-0.93151104,-0.31755179,-0.17733634,0
-0.33188292,1.3439759,-0.29078823,-0.25592822,0.91871274,-0.30077824,0
-1.3473445,-0.34946561,-4.8465452,-0.20516163,-0.35567227,-0.91181457,0
3.2119687,0.15130079,2.7471061,0.25592822,-0.91871274,0.30077824,0
-0.2510857,0.33696628,-3.5639505,-0.25592822,0.91871274,-0.30077824,0
-1.5272709,1.7083652,1.5064411,-0.25592822,0.91871274,-0.30077824,0
4.7935467,-0.30128962,-0.56621599,0.95681751,0.19637315,-0.21433085,0
4.1014433,1.9017034,1.4320606,0.87794918,0.35112235,0.32545108,0
3.0015163,1.9872558,3.1877539,0.63694298,0.39431071,0.66243672,0
-4.1826115,1.0080717,2.3621078,-0.81929636,-0.040997714,0.57190281,0
-3.8282773,0.016802192,-1.7020891,-0.25592822,0.91871274,-0.30077824,0
-3.9836984,-0.07580936,-1.5544055,-0.25592822,0.91871274,-0.30077824,0
-3.9362881,-2.7716575,-0.43923849,0.25592822,-0.91871274,0.30077824,0
-3.8048897,1.3233709,2.9060769,-0.71732372,0.028094098,0.69617319,0
-4.32623,-1.3008959,-1.8177235,-0.86290324,-0.35736835,-0.35733151,0
-3.8980858,-2.5848014,-1.4780241,-0.86369079,-0.35706347,-0.35573024,0
-3.8616259,-0.5890882,2.6376207,-0.83993351,-0.057304144,0.53965545,0
3.1233168,2.90926,1.4765799,-0.25592822,0.91871274,-0.30077824,0
-3.5007768,-1.2615125,3.3260121,-0.78472662,-0.015738189,0.6196419,0
-3.8963113,-1.2104969,-2.5937309,-0.77185452,-0.38152924,-0.50860202,0
1.7401788,-0.30749774,2.8850055,0.25592822,-0.91871274,0.30077824,0
-0.58347476,2.3572538,2.9868591,-0.25592822,0.91871274,-0.30077824,0
-3.8502889,-1.9732914,2.2581432,0.25592822,-0.91871274,0.30077824,0
4.1089816,-0.60125625,-0.36779809,0.25592822,-0.91871274,0.30077824,0
-2.6703329,-1.4061015,2.84319,0.25592822,-0.91871274,0.30077824,0
0.45384312,0.17588782,-4.8161206,-0.25592822,0.91871274,-0.30077824,0
-1.6626098,2.2117505,3.3864503,-0.25592822,0.91871274,-0.30077824,0
0.29322362,0.1097455,4.8952589,0.25592822,-0.91871274,0.30077824,0
-3.3200119,1.3081145,1.7964301,-0.25592822,0.91871274,-0.30077824,0
-2.9754007,-2.6900516,-0.81450742,0.25592822,-0.91871274,0.30077824,0
-3.2532308,0.63967234,3.4704962,-0.65101987,0.066206187,0.75616771,0
-1.3200779,-0.80282938,-4.7065458,-0.21874273,-0.35810697,-0.90769523,0
-2.8435037,-2.1432357,0.72307336,0.25592822,-0.91871274,0.30077824,0
4.0545554,-1.1865063,-2.2936258,0.25592822,-0.91871274,0.30077824,0
3.1335545,1.0622225,-3.6015258,0.71836066,-0.027463183,-0.69512844,0
-0.47124887,-1.2315428,-4.5886402,-0.09882018,-0.33437416,-0.93724501,0
-2.1207652,1.6432319,1.7467208,-0.25592822,0.91871274,-0.30077824,0
-2.9870508,0.0076416731,-2.4041393,-0.25592822,0.91871274,-0.30077824,0
-3.8806241,0.48053801,-0.48473716,-0.25592822,0.91871274,-0.30077824,0
-2.1576519,0.88128626,4.1958361,-0.4328993,0.16927978,0.88540518,0
-0.34520745,-2.604872,-2.9016631,0.25592822,-0.91871274,0.30077824,0
4.9164181,-0.28965688,-0.35680318,0.25592822,-0.91871274,0.30077824,0
-1.2863623,-1.7564172,0.85555696,0.25592822,-0.91871274,0.30077824,0
0.66553903,0.16511011,-5.013535,0.20605391,-0.25214607,-0.94549656,0
-0.65517461,2.2590721,4.2584949,-0.10140884,0.2839089,0.95347357,0
-0.011566758,-1.9918648,-0.88959455,0.25592822,-0.91871274,0.30077824,0
3.4052122,-0.18108451,1.5743862,0.25592822,-0.91871274,0.30077824,0
-0.75861931,2.3760641,2.7206666,-0.25592822,0.91871274,-0.30077824,0
-3.800771,-0.094156981,-1.8466901,-0.25592822,0.91871274,-0.30077824,0
-4.1072488,1.0070102,1.3322833,-0.25592822,0.91871274,-0.30077824,0
2.9025154,2.2868524,-0.22335905,-0.25592822,0.91871274,-0.30077824,0
3.8593707,0.30337644,2.3472495,0.25592822,-0.91871274,0.30077824,0
-1.8271637,0.046982884,-3.0021596,-0.25592822,0.91871274,-0.30077824,0
-1.0292563,-3.2107055,-3.6825075,0.25592822,-0.91871274,0.30077824,0
-3.2821071,-0.91363037,-3.52068,-0.62504774,-0.39461672,-0.67349303,0
-1.8198532,-0.35399771,-4.5787048,-0.25592822,0.91871274,-0.30077824,0
0.69066024,-0.84286791,-4.6262755,0.18225929,-0.25970325,-0.94833302,0
3.6264324,-0.95965135,-1.1877165,0.25592822,-0.91871274,0.30077824,0
0.70418859,1.7912316,4.3461962,0.16721392,0.34852225,0.9222644,0
-1.6220562,2.0513225,2.9434133,-0.25592822,0.91871274,-0.30077824,0
3.975193,-1.2156283,-2.6578913,0.77008486,0.0056765676,-0.63791603,0
1.3465631,-0.79643917,1.3307791,0.25592822,-0.91871274,0.30077824,0
-3.4052155,-3.1702452,-1.9018736,-0.79097366,-0.37788707,-0.48120901,0
1.7552607,0.86755574,4.4883876,0.30993593,0.3726967,0.87466383,0
3.5531201,1.8719083,-2.0199814,-0.25592822,0.91871274,-0.30077824,0
2.818944,-0.56348419,0.81701851,0.25592822,-0.91871274,0.30077824,0
3.6607187,1.2569842,2.9301772,0.71307218,0.38949284,0.58294356,0
-0.67255819,-0.10828543,-4.5831738,-0.25592822,0.91871274,-0.30077824,0
1.9439039,-2.0443294,-3.189888,0.25592822,-0.91871274,0.30077824,0
1.7562271,2.7312932,1.7621691,-0.25592822,0.91871274,-0.30077824,0
-2.4795423,-2.5666156,-0.82532066,0.25592822,-0.91871274,0.30077824,0
3.3615189,2.1925461,2.6821463,0.7279554,0.38788134,0.56535733,0
-1.5623844,-2.3085637,-1.0455446,0.25592822,-0.91871274,0.30077824,0
-1.3497766,-1.5535191,1.7070791,0.25592822,-0.91871274,0.30077824,0
3.2031605,-0.48386133,0.49779767,0.25592822,-0.91871274,0.30077824,0
1.1795926,1.5878819,-0.83871156,-0.25592822,0.91871274,-0.30077824,0
-4.2720814,-2.2091117,-0.32870817,-0.94291776,-0.30582705,-0.13181788,0
4.2197995,-1.1335535,-1.8790486,0.25592822,-0.91871274,0.30077824,0
-4.2344551,-1.1146969,1.8742509,-0.92379183,-0.14076544,0.35608089,0
-0.94486463,0.05775547,-4.07654,-0.25592822,0.91871274,-0.30077824,0
-2.3632522,0.6471622,-1.1081424,-0.25592822,0.91871274,-0.30077824,0
3.6772938,1.1765097,-2.9002516,0.82475394,0.045209631,-0.56368142,0
-1.5778083,-1.5014641,1.5420144,0.25592822,-0.91871274,0.30077824,0
3.9065757,1.6664116,2.1241651,0.81642497,0.37202358,0.44164306,0
-2.5876446,1.0043118,0.53036022,-0.25592822,0.91871274,-0.30077824,0
-4.9492488,0.14715779,0.54373717,-0.95906031,-0.20227522,0.19821173,0
2.5406978,-0.32231319,1.8899491,0.25592822,-0.91871274,0.30077824,0
-4.8536115,-0.26387146,0.71619391,-0.9604969,-0.20648602,0.18657231,0
-0.36836267,2.4724197,3.1772306,-0.25592822,0.91871274,-0.30077824,0
-0.23064661,2.5186143,3.0241046,-0.25592822,0.91871274,-0.30077824,0
1.6853665,0.2028482,4.0418897,0.25592822,-0.91871274,0.30077824,0
4.278975,2.5105863,-0.2941978,0.96303177,0.26936689,0.0033372343,0
2.5799246,3.0748568,2.1184876,-0.25592822,0.91871274,-0.30077824,0
4.4408798,0.24856547,-1.6970966,0.90838057,0.12212187,-0.39991349,0
-1.9472383,-2.1555285,-3.7513106,-0.43851388,-0.38761878,-0.81083733,0
1.610276,0.78290963,-3.6948571,-0.25592822,0.91871274,-0.30077824,0
-4.5010505,0.9085474,1.6764913,-0.25592822,0.91871274,-0.30077824,0
2.1820884,3.0197783,2.5482419,-0.25592822,0.91871274,-0.30077824,0
4.5432215,-0.55680752,-0.35091257,0.25592822,-0.91871274,0.30077824,0
2.1321607,-1.2829703,-0.9461267,0.25592822,-0.91871274,0.30077824,0
-1.6286135,-2.1394196,-0.14328441,0.25592822,-0.91871274,0.30077824,0
-2.356741,-0.049524307,-3.0981941,-0.25592822,0.91871274,-0.30077824,0
-2.3751607,-1.2624876,3.1102405,0.25592822,-0.91871274,0.30077824,0
2.0867815,-1.116015,-0.026566267,0.25592822,-0.91871274,0.30077824,0
-3.0049059,-1.5756266,2.7037039,0.25592822,-0.91871274,0.30077824,0
-1.7459027,0.40657401,-2.1490545,-0.25592822,0.91871274,-0.30077824,0
3.6149645,-0.68049598,-0.41204286,0.25592822,-0.91871274,0.30077824,0
-3.0603251,0.24789095,3.6764517,-0.64410067,0.069956347,0.76173496,0
2.0168688,2.0405583,-0.3436442,-0.25592822,0.91871274,-0.30077824,0
1.9457456,-0.60352623,1.3022742,0.25592822,-0.91871274,0.30077824,0
-1.208679,-2.2581401,-1.1962013,0.25592822,-0.91871274,0.30077824,0
1.1775713,-2.4123797,-3.2047291,0.25592822,-0.91871274,0.30077824,0
-1.621397,-3.1330042,-3.2513363,0.25592822,-0.91871274,0.30077824,0
3.8222435,2.0828228,-1.671905,-0.25592822,0.91871274,-0.30077824,0
-4.8371358,0.47684622,0.7629621,-0.25592822,0.91871274,-0.30077824,0
4.0338831,-0.58785295,0.0015237331,0.25592822,-0.91871274,0.30077824,0
2.6242044,-0.39552438,1.3203776,0.25592822,-0.91871274,0.30077824,0
1.4577346,0.77155447,-3.5608642,-0.25592822,0.91871274,-0.30077824,0
-4.4251657,0.16275179,-0.69745868,-0.25592822,0.91871274,-0.30077824,0
-2.3146529,1.0556734,0.023742437,-0.25592822,0.91871274,-0.30077824,0
-2.5857248,-3.073874,-2.4875951,0.25592822,-0.91871274,0.30077824,0
0.40619254,2.8095419,3.460326,-0.25592822,0.91871274,-0.30077824,0
1.6291212,-2.3550467,-3.3113375,0.25592822,-0.91871274,0.30077824,0
-1.8971145,1.5995141,1.4979715,-0.25592822,0.91871274,-0.30077824,0
-2.1857851,-2.3941534,-0.23403892,0.25592822,-0.91871274,0.30077824,0
-3.6684537,-2.6190176,0.17468852,0.25592822,-0.91871274,0.30077824,0
2.8848896,3.0965238,2.239722,-0.25592822,0.91871274,-0.30077824,0
0.078537583,0.10154414,-4.8599677,-0.25592822,0.91871274,-0.30077824,0
-1.3101714,1.2256049,-0.077119172,-0.25592822,0.91871274,-0.30077824,0
-4.3309083,-2.2135332,0.99151313,-0.96510929,-0.22500746,0.13392416,0
-2.1852238,0.96819234,4.185885,-0.44675609,0.16351455,0.87958622,0
-4.63551,-0.81136751,0.2813518,-0.96660519,-0.24746014,0.066616416,0
3.5976338,2.2637258,-1.438777,-0.25592822,0.91871274,-0.30077824,0
0.12438726,1.9511423,4.4163632,0.045602083,0.3222678,0.94554931,0
-1.5943487,0.30191827,-2.3960576,-0.25592822,0.91871274,-0.30077824,0
2.8872437,-0.79154623,-0.057430863,0.25592822,-0.91871274,0.30077824,0
0.68666291,-1.0244757,1.0863957,0.25592822,-0.91871274,0.30077824,0
-3.374027,1.514622,2.591671,-0.25592822,0.91871274,-0.30077824,0
1.1031972,1.4794117,-1.2292422,-0.25592822,0.91871274,-0.30077824,0
-4.2861381,0.34109813,1.8968892,-0.88028479,-0.092900902,0.46526122,0
4.4309683,-0.030093307,-1.8034866,0.90318453,0.11632799,-0.41318947,0
3.3450544,0.43090606,3.4599097,0.25592822,-0.91871274,0.30077824,0
1.8013738,1.4287529,-2.1690221,-0.25592822,0.91871274,-0.30077824,0
0.8245337,2.4534636,1.9655938,-0.25592822,0.91871274,-0.30077824,0
3.3122909,2.2873549,-1.124773,-0.25592822,0.91871274,-0.30077824,0
-3.7587996,-0.89171964,-3.0363674,-0.72065419,-0.38870305,-0.57407975,0
0.41605332,1.4026963,-0.83795816,-0.25592822,0.91871274,-0.30077824,0
-1.0137893,-0.78109884,3.3304245,0.25592822,-0.91871274,0.30077824,0
-2.2604446,-1.2994487,3.1184938,0.25592822,-0.91871274,0.30077824,0
-0.051348686,-2.9060929,-3.6118889,0.25592822,-0.91871274,0.30077824,0
4.4988866,1.2243071,-1.3503988,0.94872952,0.17899719,-0.26052296,0
-3.6202455,1.3268303,2.1708052,-0.25592822,0.91871274,-0.30077824,0
1.4270397,1.6095459,-1.1782835,-0.25592822,0.91871274,-0.30077824,0
0.38286436,1.5417693,4.43644,0.066823095,0.32720923,0.94258612,0
-0.86283493,-0.48158693,4.0698986,0.25592822,-0.91871274,0.30077824,0
1.1861358,-0.37516332,3.0739698,0.25592822,-0.91871274,0.30077824,0
-3.8359227,-2.7590325,-0.39968348,0.25592822,-0.91871274,0.30077824,0
-0.18579793,2.2866294,1.9639695,-0.25592822,0.91871274,-0.30077824,0
-4.8156347,-0.28929484,-0.84747463,-0.95227754,-0.29313475,-0.085085645,0
2.0546021,1.7706022,3.9123003,0.41236523,0.38516513,0.82559222,0
0.24999672,0.86380959,-2.5359683,-0.25592822,0.91871274,-0.30077824,0
-0.17382276,2.7319541,3.2640364,-0.25592822,0.91871274,-0.30077824,0
0.45512962,-1.9420373,-1.532865,0.25592822,-0.91871274,0.30077824,0
-1.0578163,-0.76378202,3.2791548,0.25592822,-0.91871274,0.30077824,0
1.5281837,0.11231661,4.2693233,0.25592822,-0.91871274,0.30077824,0
1.3532673,1.4954438,-1.5624537,-0.25592822,0.91871274,-0.30077824,0
-0.090821385,0.0068576336,-4.9099536,-0.25592822,0.91871274,-0.30077824,0
-2.4962685,-1.5116122,2.1956027,0.25592822,-0.91871274,0.30077824,0
-4.0168324,0.16448593,-0.84834313,-0.25592822,0.91871274,-0.30077824,0
2.8421099,-0.39474201,1.2323581,0.25592822,-0.91871274,0.30077824,0
-3.6511507,1.2322828,2.1491358,-0.25592822,0.91871274,-0.30077824,0
-3.1220517,-0.54012501,3.629797,-0.69623125,0.040678382,0.71666402,0
4.828836,0.44597268,0.50096166,0.95999038,0.27812138,0.032665431,0
-0.78696966,2.5167658,3.4241681,-0.25592822,0.91871274,-0.30077824,0
-1.8299692,0.35060692,-2.6716928,-0.25592822,0.91871274,-0.30077824,0
2.8730395,-1.004532,-0.4793129,0.25592822,-0.91871274,0.30077824,0
2.3269491,1.0734839,-3.4007449,-0.25592822,0.91871274,-0.30077824,0
4.0898943,1.771812,1.5541073,0.87114704,0.35406011,0.34021211,0
3.1659498,2.3239832,2.6114502,0.71679962,0.3891125,0.57861006,0
-2.4032307,1.32727,1.2632763,-0.25592822,0.91871274,-0.30077824,0
-1.4124138,1.9829521,4.1651716,-0.26729205,0.23175845,0.93533033,0
2.2785544,0.80577648,4.2646999,0.42064685,0.3859762,0.82102287,0
-1.9635091,-2.8393097,-2.1925945,0.25592822,-0.91871274,0.30077824,0
-1.4362963,2.5555243,4.1245694,-0.21587943,0.24896672,0.9441458,0
-3.9799781,0.77653444,2.6685963,-0.79015338,-0.019556418,0.61259681,0
0.035923928,-0.85680318,2.3951187,0.25592822,-0.91871274,0.30077824,0
2.0009205,-2.295949,-3.8695025,0.25592822,-0.91871274,0.30077824,0
-3.6517277,-1.4580247,2.8496654,-0.848162,-0.064118758,0.52584207,0
0.77162457,-0.85415184,1.8151593,0.25592822,-0.91871274,0.30077824,0
3.7069747,2.5212882,-0.5921911,-0.25592822,0.91871274,-0.30077824,0
1.068357,1.7679833,-0.45368534,-0.25592822,0.91871274,-0.30077824,0
2.9576092,3.1576254,2.4772191,0.69351465,0.39124867,0.60494781,0
-1.3424242,1.4810572,0.95293081,-0.25592822,0.91871274,-0.30077824,0
2.2398067,0.98504066,-4.1942616,-0.25592822,0.91871274,-0.30077824,0
-2.0239906,-1.9321141,0.70961827,0.25592822,-0.91871274,0.30077824,0
2.4032824,-0.29108799,1.9437029,0.25592822,-0.91871274,0.30077824,0
-0.90510905,2.2253866,2.8903596,-0.25592822,0.91871274,-0.30077824,0
0.78210145,-1.1206281,0.62320197,0.25592822,-0.91871274,0.30077824,0
-4.0818472,0.80179268,1.101975,-0.25592822,0.91871274,-0.30077824,0
-2.4763308,1.9043622,2.6064,-0.25592822,0.91871274,-0.30077824,0
-0.60286629,2.0512295,4.2716694,-0.10091376,0.28405023,0.95348394,0
0.18624869,-0.71453226,2.5604334,0.25592822,-0.91871274,0.30077824,0
0.39820275,-1.7439356,-0.47001004,0.25592822,-0.91871274,0.30077824,0
0.063861251,-2.6004329,-2.7972424,0.25592822,-0.91871274,0.30077824,0
-2.0190413,-0.57399011,4.5443354,-0.49311998,0.14354387,0.85803699,0
-4.2437239,-0.076185942,-1.5880487,-0.25592822,0.91871274,-0.30077824,0
-0.61041415,1.4121881,0.15249777,-0.25592822,0.91871274,-0.30077824,0
1.9615587,1.8138051,-1.1319826,-0.25592822,0.91871274,-0.30077824,0
4.6788678,-0.62829107,-1.6134324,0.90401715,0.11724247,-0.41110468,0
2.507127,-1.9758924,-3.1712885,0.25592822,-0.91871274,0.30077824,0
3.2837558,-0.27476919,1.6422541,0.25592822,-0.91871274,0.30077824,0
3.3446515,0.83801627,3.5336061,0.63242036,0.39443988,0.66667962,0
1.2808983,-1.3588288,0.044441223,0.25592822,-0.91871274,0.30077824,0
-0.30053365,-0.43288565,3.8057187,0.25592822,-0.91871274,0.30077824,0
-3.2779031,-1.1837021,-3.3869014,-0.65268993,-0.39373457,-0.64727807,0
-3.1485531,1.3920631,2.2510011,-0.25592822,0.91871274,-0.30077824,0
-1.6197157,-1.3012775,2.2536039,0.25592822,-0.91871274,0.30077824,0
-2.8995833,0.54103899,-1.1002663,-0.25592822,0.91871274,-0.30077824,0
4.6097379,1.1926188,0.56550264,0.95058417,0.29574013,0.094484642,0
4.483243,1.3678614,0.67841661,0.93755275,0.31171459,0.15436605,0
-1.9287847,-0.19339156,-4.2135496,-0.25592822,0.91871274,-0.30077824,0
2.2376738,2.9046366,3.3170567,0.51219034,0.3927477,0.76381296,0
-1.4945035,0.51502085,-2.410486,-0.25592822,0.91871274,-0.30077824,0
3.2630258,0.46993995,3.5220964,0.25592822,-0.91871274,0.30077824,0
2.2311101,1.980966,-0.69266891,-0.25592822,0.91871274,-0.30077824,0
-0.99027538,-2.8428435,-3.8570843,-0.26227349,-0.36545953,-0.89311361,0
-3.6116412,-2.4425352,-1.9652107,-0.79628664,-0.37676498,-0.47326079,0
4.252141,1.9174935,0.42019427,0.94686753,0.30093068,0.11350134,0
4.343719,-0.39267635,0.24880028,0.25592822,-0.91871274,0.30077824,0
0.40747336,-1.6427649,-0.45070863,0.25592822,-0.91871274,0.30077824,0
4.3626142,-0.62827712,-2.0679147,0.8687076,0.082074851,-0.48847806,0
-1.5028391,2.3111877,3.2323146,-0.25592822,0.91871274,-0.30077824,0
0.63280165,-0.79831612,-4.5820732,0.16187638,-0.26601842,-0.950279,0
-0.80139983,-1.8900084,-4.2376976,-0.19052663,-0.35297495,-0.91602832,0
3.2204301,0.47317326,3.5287476,0.25592822,-0.91871274,0.30077824,0
-3.0772729,-2.3614984,0.50212097,0.25592822,-0.91871274,0.30077824,0
-4.5072818,0.58979291,0.78921938,-0.25592822,0.91871274,-0.30077824,0
-3.8277545,-1.8349202,2.3556247,0.25592822,-0.91871274,0.30077824,0
1.8709641,0.59198666,-4.466156,-0.25592822,0.91871274,-0.30077824,0
1.5115139,-0.21612811,3.2944574,0.25592822,-0.91871274,0.30077824,0
-1.1998224,1.9040947,4.2948489,-0.21896012,0.24796273,0.94370049,0
4.2690506,1.9875765,-0.60524786,0.96669376,0.24385603,-0.077700317,0
2.7631006,2.3677011,-0.33480859,-0.25592822,0.91871274,-0.30077824,0
1.1446685,2.3634872,1.3291041,-0.25592822,0.91871274,-0.30077824,0
1.1359415,-2.2743363,-3.1735964,0.25592822,-0.91871274,0.30077824,0
3.3474691,0.2595973,2.8953543,0.25592822,-0.91871274,0.30077824,0
2.6735756,0.78120708,3.936409,0.49620542,0.39187109,0.77473688,0
-3.3622119,0.59863931,3.2587738,-0.68356448,0.04801932,0.7283085,0
2.3586378,0.81350243,4.0855136,0.4534198,0.38887447,0.80198938,0
1.2306834,-2.5335553,-3.829308,0.25592822,-0.91871274,0.30077824,0
2.4543278,-1.0999881,-3.9414001,0.50070763,-0.14017126,-0.85419178,0
3.823956,2.6810396,1.0846206,0.88850081,0.34613967,0.30125335,0
-4.3501754,0.022105932,-0.92823398,-0.25592822,0.91871274,-0.30077824,0
3.2501175,1.9922127,-1.5712016,-0.25592822,0.91871274,-0.30077824,0
2.9685557,2.4233346,2.348423e-05,-0.25592822,0.91871274,-0.30077824,0
2.8301551,0.079526067,2.5868645,0.25592822,-0.91871274,0.30077824,0
4.3913136,1.1717883,-0.90300846,0.96087372,0.20766371,-0.18329585,0
-1.4662194,0.31386864,-2.4566314,-0.25592822,0.91871274,-0.30077824,0
-0.47116065,0.49387121,-3.2174671,-0.25592822,0.91871274,-0.30077824,0
2.67238,2.5840867,2.9687862,0.62457192,0.39462671,0.67392838,0
1.2122433,1.661811,-1.1658119,-0.25592822,0.91871274,-0.30077824,0
-4.5257311,0.53221846,0.29242826,-0.25592822,0.91871274,-0.30077824,0
1.5958985,-1.0830482,-4.3848243,0.32462969,-0.21139383,-0.92191535,0
-0.84466034,1.9709849,2.0670767,-0.25592822,0.91871274,-0.30077824,0
1.4850944,-0.31363857,-4.6489482,0.3456572,-0.20360148,-0.91600597,0
1.0645564,-0.9402988,1.0871273,0.25592822,-0.91871274,0.30077824,0
0.09577892,-1.0763084,1.551617,0.25592822,-0.91871274,0.30077824,0
3.5131991,1.7719891,-2.737051,-0.25592822,0.91871274,-0.30077824,0
3.9997008,1.0853682,2.5228071,0.79032916,0.37801978,0.48216271,0
-0.95013314,-2.137789,-0.7210896,0.25592822,-0.91871274,0.30077824,0
3.0431671,2.2240777,-0.95482767,-0.25592822,0.91871274,-0.30077824,0
-3.8234861,0.17008078,-1.0081007,-0.25592822,0.91871274,-0.30077824,0
-2.9662035,-2.2160554,0.97526407,0.25592822,-0.91871274,0.30077824,0
3.5168009,0.72774172,-3.3379745,0.76720524,0.0037368834,-0.6413905,0
-1.4981124,-1.8232502,0.48484892,0.25592822,-0.91871274,0.30077824,0
1.8077269,0.94465137,-3.9268703,-0.25592822,0.91871274,-0.30077824,0
1.2657092,2.0405574,-0.041810647,-0.25592822,0.91871274,-0.30077824,0
-1.5239545,0.96031749,-0.98949641,-0.25592822,0.91871274,-0.30077824,0
-3.6552734,0.018331349,2.9193115,-0.78275871,-0.014365822,0.62215924,0
1.6755731,-1.1363442,0.33336037,0.25592822,-0.91871274,0.30077824,0
-0.75836515,-2.0144997,-4.3228703,-0.18847358,-0.35259047,-0.91660094,0
2.4473042,-1.3383186,-1.4965916,0.25592822,-0.91871274,0.30077824,0
3.324846,-1.4060156,-2.272824,0.25592822,-0.91871274,0.30077824,0
2.6342535,-1.5117894,-3.7226334,0.52122384,-0.13089719,-0.84332162,0
-3.6821761,-1.2336168,-2.89347,-0.7408762,-0.38627288,-0.54945028,0
2.7954879,-1.3425425,-3.6416674,0.55410814,-0.11553772,-0.82438761,0
-2.5450106,-3.0526457,-2.155941,0.25592822,-0.91871274,0.30077824,0
4.5604725,0.45517534,-1.1136944,0.9506346,0.1827026,-0.25082588,0
1.383424,2.9352267,3.652715,0.34209728,0.37707973,0.86068583,0
0.45184159,0.28792381,-4.5217857,-0.25592822,0.91871274,-0.30077824,0
1.7107965,2.4150367,1.0963235,-0.25592822,0.91871274,-0.30077824,0
-0.36524475,1.5415422,0.056270063,-0.25592822,0.91871274,-0.30077824,0
-1.1496538,0.37685919,-2.9242558,-0.25592822,0.91871274,-0.30077824,0
-0.088181198,0.7538383,-2.7413919,-0.25592822,0.91871274,-0.30077824,0
-2.3566661,2.1603267,3.4727583,-0.25592822,0.91871274,-0.30077824,0
3.2648339,-1.6996065,-3.257205,0.25592822,-0.91871274,0.30077824,0
2.1875706,2.3418221,0.28616938,-0.25592822,0.91871274,-0.30077824,0
0.90270609,-2.1518321,-2.5835359,0.25592822,-0.91871274,0.30077824,0
-0.21403337,-1.9883422,-0.63191009,0.25592822,-0.91871274,0.30077824,0
2.6462238,-1.2608109,-1.2268338,0.25592822,-0.91871274,0.30077824,0
-2.3450916,-1.5190103,2.5687437,0.25592822,-0.91871274,0.30077824,0
0.54320192,-2.2315931,-2.6103234,0.25592822,-0.91871274,0.30077824,0
4.1978798,2.1659405,0.44088107,0.93556541,0.31371614,0.16217083,0
1.2806683,1.8008224,4.2243242,0.29064679,0.36987251,0.88245022,0
-0.99161112,2.3500211,3.1751766,-0.25592822,0.91871274,-0.30077824,0
3.4175038,-0.74279785,-3.2458477,0.69804668,-0.039613277,-0.71495545,0
4.7468061,-0.45773149,-0.13505507,0.25592822,-0.91871274,0.30077824,0
0.27616444,-1.0933989,1.2166871,0.25592822,-0.91871274,0.30077824,0
-1.5862318,-1.5421953,1.7297533,0.25592822,-0.91871274,0.30077824,0
2.3022223,2.0633221,-0.66022867,-0.25592822,0.91871274,-0.30077824,0
-3.5741076,-0.24542093,-2.4733262,-0.25592822,0.91871274,-0.30077824,0
0.54977763,1.1522467,-2.1131551,-0.25592822,0.91871274,-0.30077824,0
3.1669412,2.1369765,2.8792706,0.66776866,0.39299011,0.6321739,0
2.6361823,-0.38200366,1.3932801,0.25592822,-0.91871274,0.30077824,0
-0.6963405,-2.019907,-0.32442027,0.25592822,-0.91871274,0.30077824,0
2.2022891,-0.65187836,0.83068955,0.25592822,-0.91871274,0.30077824,0
-0.47057086,-1.1383423,2.00524,0.25592822,-0.91871274,0.30077824,0
3.8992229,0.011179447,1.9424442,0.25592822,-0.91871274,0.30077824,0
-1.1241034,-0.781919,3.4554219,0.25592822,-0.91871274,0.30077824,0
-2.9252529,0.51330364,3.7482505,-0.61430168,0.085679725,0.78440565,0
-0.75322378,-2.3019929,-1.40122,0.25592822,-0.91871274,0.30077824,0
0.37395728,-0.32043028,3.4974725,0.25592822,-0.91871274,0.30077824,0
-0.76906711,-0.19485259,4.7696447,0.25592822,-0.91871274,0.30077824,0
3.4344735,2.6476688,0.27578345,-0.25592822,0.91871274,-0.30077824,0
-1.9918375,-1.4481118,-4.0404396,-0.41707894,-0.38563058,-0.82300323,0
0.20043719,2.3095002,1.7041826,-0.25592822,0.91871274,-0.30077824,0
2.5549822,-0.73085785,0.76160789,0.25592822,-0.91871274,0.30077824,0
-4.042593,-0.47576761,-2.7005582,-0.79448116,-0.37715194,-0.47597903,0
-2.4817743,-1.7101611,1.6854014,0.25592822,-0.91871274,0.30077824,0
2.1080484,-0.27071786,2.0673733,0.25592822,-0.91871274,0.30077824,0
0.33213985,1.9446886,0.46240604,-0.25592822,0.91871274,-0.30077824,0
-0.25275815,0.1419239,-4.5130424,-0.25592822,0.91871274,-0.30077824,0
-0.59100664,2.4246635,2.9177103,-0.25592822,0.91871274,-0.30077824,0
3.4919536,-0.062773466,2.0056312,0.25592822,-0.91871274,0.30077824,0
0.97389352,0.48826098,4.7928791,0.1617581,0.34745276,0.92363989,0
-0.20051031,1.3934772,-0.57242185,-0.25592822,0.91871274,-0.30077824,0
-4.4986534,-0.99786127,0.97688842,-0.95694023,-0.19667888,0.21350139,0
2.5129185,-0.1559931,2.3302145,0.25592822,-0.91871274,0.30077824,0
-0.46630758,0.64102387,-2.9418869,-0.25592822,0.91871274,-0.30077824,0
0.79703444,0.20497847,-4.8970642,0.24596858,-0.23901343,-0.93934631,0
4.4782271,0.37861621,1.849369,0.88896817,0.34590578,0.30014142,0
1.617417,0.33777332,-4.7209148,0.40428743,-0.18090329,-0.89656317,0
2.4933884,-1.8474954,-3.0907974,0.25592822,-0.91871274,0.30077824,0
1.4805334,3.1072361,3.3803203,-0.25592822,0.91871274,-0.30077824,0
-4.4291711,-1.2637506,0.56783628,-0.96620148,-0.23315221,0.10997576,0
3.2741144,-1.4216907,-1.9394372,0.25592822,-0.91871274,0.30077824,0
-1.6959431,1.2458619,0.11162519,-0.25592822,0.91871274,-0.30077824,0
0.74799418,-0.64319468,2.6306705,0.25592822,-0.91871274,0.30077824,0
4.2866211,1.2995487,1.6555802,0.88232142,0.34912437,0.31562808,0
0.52239454,1.0085391,-2.3336234,-0.25592822,0.91871274,-0.30077824,0
-1.1197199,2.4139326,3.0203598,-0.25592822,0.91871274,-0.30077824,0
-4.8212671,-0.170876,0.35615611,-0.96446204,-0.22152379,0.14401412,0
-1.2300467,1.9037302,1.9810052,-0.25592822,0.91871274,-0.30077824,0
0.93238318,1.2291442,-2.1104536,-0.25592822,0.91871274,-0.30077824,0
-3.0829511,-0.41346073,-3.6260562,-0.25592822,0.91871274,-0.30077824,0
