-4.6469493,2.7261558,-3.3853793,-0.32809404,0.88419938,-0.33248416,0
0.0041746497,-3.5841944,-3.6231463,-0.15766186,-0.39828566,-0.90361011,0
-4.5450006,2.6677501,2.0580664,-0.75875378,-0.037004799,0.65032566,0
-1.0755992,-5.5945354,1.345668,0.32809404,-0.88419938,0.33248416,0
3.0220361,5.5952759,-1.9369116,0.94355041,0.32368419,-0.070294879,0
1.0874995,4.1069083,-5.3524928,-0.32809404,0.88419938,-0.33248416,0
-1.4839408,4.8881264,-0.27579865,-0.32809404,0.88419938,-0.33248416,0
0.39480853,-3.4517038,-3.6453581,-0.043545324,-0.36574951,-0.92969418,0
1.7557366,-0.75504684,5.3621373,0.14596693,0.39519322,0.90692657,0
-1.1325797,-0.12610257,-5.0542812,-0.099597178,-0.38238418,-0.91862011,0
0.20754194,4.2340493,-3.748517,-0.32809404,0.88419938,-0.33248416,0
-2.7333758,4.3305225,-0.87624669,-0.32809404,0.88419938,-0.33248416,0
-5.5416598,3.1682165,0.9214927,-0.85945415,-0.13333502,0.49351841,0
-1.6544741,-6.3410802,-1.1165243,-0.68805742,-0.46484438,-0.55722231,0
3.1696479,-2.465332,5.1567974,0.32809404,-0.88419938,0.33248416,0
-0.63103187,3.8935275,-4.1844573,-0.32809404,0.88419938,-0.33248416,0
1.1236672,-5.5571513,-3.0083206,-0.058343135,-0.37026244,-0.92709321,0
2.9145436,-2.2790363,5.7203135,0.27600348,0.42633647,0.86142862,0
-4.8997402,3.03441,-2.0778911,-0.32809404,0.88419938,-0.33248416,0
1.3896945,-0.92560947,5.3603334,0.063822374,0.37191144,0.92607158,0
2.0697119,-4.7783031,0.44659007,0.32809404,-0.88419938,0.33248416,0
-2.2751281,4.1476045,-1.8987304,-0.32809404,0.88419938,-0.33248416,0
-3.7339823,3.634001,-1.6754963,-0.32809404,0.88419938,-0.33248416,0
-0.58835244,-2.9992182,-3.8201873,-0.22486714,-0.41495308,-0.88161707,0
-2.0684071,-6.2980123,0.27132657,0.32809404,-0.88419938,0.33248416,0
-0.80954409,-3.1576905,5.586544,-0.45036173,0.16298184,0.87784469,0
0.32184339,4.8562078,-2.1487746,-0.32809404,0.88419938,-0.33248416,0
4.3949199,1.5654954,-0.9475472,0.94192165,0.27950716,-0.18617067,0
-0.76935643,-5.2731714,-2.5764403,-0.40231264,-0.4492417,-0.79770076,0
3.3653417,2.6179137,-3.1298952,0.8570857,0.13064575,-0.49833304,0
-2.9003811,2.5164709,-5.3253698,-0.32809404,0.88419938,-0.33248416,0
-3.6041212,-3.9867377,0.89859819,-0.93783659,-0.34706873,0.0024682283,0
3.5129485,-1.1794311,4.931695,0.46848756,0.45793644,0.75552219,0
1.4218855,-2.90766,5.9326463,0.32809404,-0.88419938,0.33248416,0
-1.9069644,4.2243662,-1.7750114,-0.32809404,0.88419938,-0.33248416,0
0.1309588,-2.469455,-4.2377648,-0.032051653,-0.36218446,-0.93155515,0
2.9574304,0.13161448,-3.7162459,0.65672004,-0.039501965,-0.7530992,0
1.7428762,-3.0638466,5.4216857,0.32809404,-0.88419938,0.33248416,0
-3.8731985,3.9768813,-0.58771145,-0.32809404,0.88419938,-0.33248416,0
-3.6525726,-3.6100545,0.88092279,-0.94165635,-0.33410403,0.040715471,0
-2.3816111,-5.5075369,-0.65467459,-0.7895627,-0.44990936,-0.4173395,0
0.74633539,-6.2881422,-2.3296678,0.32809404,-0.88419938,0.33248416,0
2.9731183,3.518487,-3.4681578,0.8610003,0.13510728,-0.49033105,0
5.1913152,-3.6576865,-0.0071355402,0.32809404,-0.88419938,0.33248416,0
0.82960337,-4.0898981,3.6250527,0.32809404,-0.88419938,0.33248416,0
0.53320128,-4.5866079,2.1014476,0.32809404,-0.88419938,0.33248416,0
-3.6028836,3.4796343,-2.0689492,-0.32809404,0.88419938,-0.33248416,0
-3.8971853,-3.018445,1.2678943,-0.94463611,-0.30555972,0.11956583,0
0.12518665,-5.2017441,0.90606385,0.32809404,-0.88419938,0.33248416,0
1.9714749,3.6045198,-4.8406916,0.69133818,-0.015102722,-0.72237349,0
3.3669372,4.5764012,-0.70974207,0.92129344,0.37728378,0.094209656,0
-0.35556126,-3.6288724,5.524478,0.32809404,-0.88419938,0.33248416,0
-1.3060722,3.5944245,-4.4079022,-0.32809404,0.88419938,-0.33248416,0
-4.9532127,1.3294188,-3.4062889,-0.75836331,-0.4563995,-0.4653866,0
-1.3705659,-1.561723,-4.2144427,-0.24784878,-0.42021126,-0.8729223,0
-2.9302149,-4.294178,3.4344821,-0.88611132,-0.16610122,0.43268603,0
0.21010315,-3.7931895,4.5013294,0.32809404,-0.88419938,0.33248416,0
-2.0599146,-0.81495363,4.4677663,-0.52749699,0.12049334,0.84096867,0
4.5372124,-4.6288581,-1.468456,0.32809404,-0.88419938,0.33248416,0
1.5405093,-4.9788961,0.22483268,0.32809404,-0.88419938,0.33248416,0
-2.6878078,2.9172924,3.4500344,-0.39206314,0.19276327,0.89951587,0
-0.16187489,-5.8701982,-0.31476706,0.32809404,-0.88419938,0.33248416,0
-1.7455237,-4.0199137,-2.8308794,-0.51066905,-0.46212074,-0.72502518,0
-1.4519895,-5.6159348,1.7938565,0.32809404,-0.88419938,0.33248416,0
1.6927291,1.7179235,4.0222859,0.35128847,0.44092774,0.82594138,0
1.6836042,2.7497525,-4.9376049,0.60988104,-0.070513435,-0.78934973,0
1.7913121,4.7698364,-4.3964567,-0.32809404,0.88419938,-0.33248416,0
3.8330207,3.2309859,-0.89386845,0.94348866,0.32413381,-0.069038093,0
3.1634088,4.5149064,-0.14714637,0.89664137,0.40226665,0.18497489,0
2.4134712,-0.87129593,5.1053028,0.29757553,0.43078825,0.85198033,0
-0.99474752,-6.3920102,-1.2478406,0.32809404,-0.88419938,0.33248416,0
5.4978776,-0.94023478,1.4946302,0.92163271,0.37683406,0.092678867,0
1.4359899,-5.6224632,-1.3640476,0.32809404,-0.88419938,0.33248416,0
-0.25934154,-6.2105732,-2.2816668,-0.36017624,-0.44247097,-0.82127488,0
5.2716269,-2.0823727,-1.1725347,0.87222284,0.1484012,-0.46605188,0
1.4823476,5.7389631,-1.0054139,-0.32809404,0.88419938,-0.33248416,0
3.3890069,-0.50254703,4.5311737,0.49030608,0.46024096,0.74012035,0
-3.4702885,3.7342892,-1.5604541,-0.32809404,0.88419938,-0.33248416,0
-1.6739223,5.1243343,0.076261327,-0.32809404,0.88419938,-0.33248416,0
3.8527071,-2.5188973,4.7497363,0.32809404,-0.88419938,0.33248416,0
5.3795338,-1.7635953,3.085886,0.82587099,0.4393487,0.35342583,0
5.9686947,-2.3346024,1.9211283,0.92599165,0.37063545,0.071892999,0
-3.0679934,4.4369283,-0.18552546,-0.32809404,0.88419938,-0.33248416,0
-1.7105906,-6.0907683,0.55885053,0.32809404,-0.88419938,0.33248416,0
-0.71812582,2.0780447,-5.8390508,0.13844569,-0.30315864,-0.94282961,0
1.026286,-3.61304,4.7092652,0.32809404,-0.88419938,0.33248416,0
-1.2896619,-5.7206154,-2.090045,-0.55417365,-0.4651975,-0.69027734,0
0.18580905,-6.2671342,-2.4625614,-0.28091565,-0.42736882,-0.85932672,0
-3.0348165,2.9539132,-4.2239432,-0.32809404,0.88419938,-0.33248416,0
2.0624151,3.5048177,2.9662554,0.52130532,0.46299422,0.71685225,0
-2.1511338,2.8481996,-5.1263685,-0.32809404,0.88419938,-0.33248416,0
-0.20050129,3.1774731,3.947067,0.070618778,0.37394026,0.92476034,0
-3.4814348,4.8851614,1.6634063,-0.32809404,0.88419938,-0.33248416,0
0.52620542,2.1299775,4.2743988,0.13912404,0.39335781,0.90879822,0
2.5527987,5.1350732,0.88006562,0.78339458,0.45135859,0.42728019,0
2.927732,3.5767896,1.6793231,0.75040656,0.45774662,0.47682083,0
3.3093488,-2.6323824,4.7590575,0.32809404,-0.88419938,0.33248416,0
2.8461165,5.1952453,-3.0771978,0.92295331,0.22505467,-0.31226236,0
-2.0703621,-6.0026278,1.0701585,0.32809404,-0.88419938,0.33248416,0
-0.24675214,4.772532,-1.9988922,-0.32809404,0.88419938,-0.33248416,0
-3.5146,-3.0089231,-1.4466496,-0.80268121,-0.44651893,-0.39537776,0
-0.70627666,3.3540888,-5.1907129,-0.32809404,0.88419938,-0.33248416,0
2.1294792,6.2327719,0.70426917,0.75488859,0.45700186,0.47041738,0
-2.5029862,-0.54437137,-4.3410306,-0.39011884,-0.44737676,-0.80477405,0
-2.2590947,-0.60142261,-4.4039912,-0.36520264,-0.44332632,-0.81858957,0
-2.859705,-5.876061,1.5895056,-0.93831849,-0.34570977,0.0065577924,0
0.050937891,6.3946252,2.1383579,-0.32809404,0.88419938,-0.33248416,0
1.2022547,5.9233232,1.8087963,0.55061674,0.46499652,0.6932528,0
3.5083017,3.3710728,0.79041511,0.86531204,0.42249623,0.2696887,0
3.4008257,-2.8441,4.1146007,0.32809404,-0.88419938,0.33248416,0
-2.9210038,-5.5431705,0.84379685,-0.9160071,-0.38379768,-0.11674897,0
-4.7184715,-0.083965391,-2.3792722,-0.83253932,-0.4369632,-0.34050167,0
-4.329155,1.2797453,2.2939951,-0.79996049,-0.072869092,0.59561175,0
2.8730946,-3.5232108,-3.3583121,0.40216208,-0.18773681,-0.89611417,0
-5.3621593,2.4456351,0.97879046,-0.88341582,-0.16254008,0.43949655,0
-2.9154775,-2.6111755,-2.6924121,-0.64424926,-0.46685427,-0.60579699,0
-1.1839952,2.4603689,4.0269551,-0.17430565,0.28925753,0.94124782,0
3.4616623,1.5206664,-3.0555196,0.82460642,0.096368603,-0.55743825,0
3.9618225,-2.4717703,4.5803108,0.32809404,-0.88419938,0.33248416,0
1.2915219,-0.6396746,5.2935948,0.082124643,0.37733307,0.92242908,0
1.8313934,-4.1235394,2.4925809,0.32809404,-0.88419938,0.33248416,0
2.7585468,-5.2428074,-1.6067755,0.32809404,-0.88419938,0.33248416,0
-1.9147365,5.7986956,2.1381536,-0.32809404,0.88419938,-0.33248416,0
-0.03668803,6.2513371,1.8587401,-0.32809404,0.88419938,-0.33248416,0
2.4265797,-5.567975,-2.0857041,0.32809404,-0.88419938,0.33248416,0
4.1912775,2.3427777,-1.3035469,0.94162524,0.27799734,-0.18989336,0
-2.8275251,-1.9612529,3.8249967,-0.75357527,-0.032744341,0.65654564,0
-4.9996181,0.28068027,0.54764628,-0.93425155,-0.25165355,0.25267497,0
3.9866011,-1.2962551,-2.8019667,0.71081114,-0.00073582679,-0.70338249,0
-4.6079173,0.57667065,1.5625002,-0.88887841,-0.16982877,0.42550367,0
-4.0622411,1.0513328,-4.2955418,-0.59202349,-0.46673423,-0.65701395,0
-2.3643947,-0.12993711,-4.6030254,-0.36661619,-0.44356459,-0.8178283,0
-2.1943262,-5.7890062,-0.8101685,-0.75744569,-0.45656076,-0.46672091,0
4.0050282,-2.0770721,-2.8433461,0.67484641,-0.026898108,-0.73746789,0
0.62619209,2.5039227,3.9466887,0.18271734,0.40472105,0.89599955,0
-3.7020261,-3.2063963,-0.82650083,-0.87021548,-0.41984257,-0.25779283,0
-0.22514546,5.898222,2.7705059,0.26024741,0.42295209,0.86797625,0
4.9692998,-2.9126143,-1.6043892,0.80807102,0.08040598,-0.58357185,0
4.8836455,-2.6793706,3.0673871,0.32809404,-0.88419938,0.33248416,0
-2.9146395,-0.46279883,-4.2675738,-0.46143183,-0.45712912,-0.76033789,0
-0.041486025,-4.7611318,2.4650321,0.32809404,-0.88419938,0.33248416,0
-3.930831,4.4115524,0.39831614,-0.32809404,0.88419938,-0.33248416,0
0.40910941,-1.4480771,-4.404911,0.088995099,-0.3214699,-0.94272846,0
0.46425992,5.908329,0.51500767,-0.32809404,0.88419938,-0.33248416,0
2.8020248,5.3903079,0.16785637,0.8500905,0.42984903,0.304263,0
-0.00012376904,3.3657284,-5.9763837,0.3330172,-0.22110847,-0.91663003,0
0.90912044,-5.4849539,-0.62551653,0.32809404,-0.88419938,0.33248416,0
0.068978906,-5.8674703,-0.33451563,0.32809404,-0.88419938,0.33248416,0
-5.6736345,2.6695683,0.29204234,-0.9141776,-0.20852643,0.34755731,0
3.1745107,-1.4625462,-3.4928119,0.58404082,-0.086766481,-0.80707365,0
-3.5234487,-3.7107511,-0.37614083,-0.88489407,-0.41086569,-0.21943523,0
2.2913129,-2.724056,5.560997,0.32809404,-0.88419938,0.33248416,0
-2.0647688,-3.6869669,4.5510998,-0.72646201,-0.011188433,0.68711561,0
2.4133465,6.5127726,-0.31849617,0.86303484,0.42367786,0.27507806,0
-3.5563293,2.7178864,-4.3913841,-0.32809404,0.88419938,-0.33248416,0
-0.33272058,3.7257376,-4.9858584,-0.32809404,0.88419938,-0.33248416,0
-3.4121449,4.0709438,-0.55696392,-0.32809404,0.88419938,-0.33248416,0
0.79243332,5.8098888,2.1998901,0.46887508,0.45797992,0.75525534,0
5.5377922,-1.1543944,1.8010969,0.91355026,0.38655311,0.12650108,0
3.0054548,4.9961915,-0.14807686,0.88581514,0.41024277,0.21686973,0
-2.8878474,4.9718037,0.93682992,-0.32809404,0.88419938,-0.33248416,0
-5.4177103,3.9030285,0.80751806,-0.32809404,0.88419938,-0.33248416,0
3.0000751,0.64904857,3.9892697,0.52863622,0.46355152,0.7111004,0
-1.28017,3.8576012,-3.5652087,-0.32809404,0.88419938,-0.33248416,0
1.9933596,-2.9678247,4.9583058,0.32809404,-0.88419938,0.33248416,0
-5.3589435,2.4673426,0.95411968,-0.88328493,-0.16236882,0.43982276,0
2.6817415,3.2911913,-4.0150142,0.80241299,0.075129271,-0.59202123,0
3.4017968,-5.1407356,-1.9184136,0.32809404,-0.88419938,0.33248416,0
-0.099660039,-6.0898352,-1.0716259,0.32809404,-0.88419938,0.33248416,0
-0.5263533,5.4244118,-0.28203613,-0.32809404,0.88419938,-0.33248416,0
-1.3649806,4.4935012,3.4056504,-0.042117953,0.33792493,0.94023019,0
-1.2873659,-6.4198918,-0.52391917,0.32809404,-0.88419938,0.33248416,0
0.7677691,4.1591187,-4.7390256,-0.32809404,0.88419938,-0.33248416,0
3.6213512,-2.7715449,4.0420814,0.32809404,-0.88419938,0.33248416,0
-2.5077877,-1.582918,-3.6612983,-0.49251148,-0.46045744,-0.73851979,0
-2.3381193,-5.987638,1.4894556,0.32809404,-0.88419938,0.33248416,0
-2.6756973,-3.2214422,-2.5183618,-0.63142955,-0.4670594,-0.61899298,0
1.1690636,6.3591223,0.60183662,-0.32809404,0.88419938,-0.33248416,0
-1.19498,4.4942756,-1.7903333,-0.32809404,0.88419938,-0.33248416,0
-1.5441656,5.3342633,3.0144997,-0.026723696,0.34313866,0.93890458,0
-3.6748278,4.6962414,1.2622085,-0.32809404,0.88419938,-0.33248416,0
3.5362086,3.9215016,-1.0297024,0.94005716,0.34025526,-0.022779085,0
4.4381833,-3.3541276,-2.2386661,0.68568027,-0.019186258,-0.72764999,0
-0.1216394,1.0390608,-5.3196521,0.17682052,-0.28826272,-0.94108397,0
5.4101439,-2.0907617,3.4952192,0.79293722,0.44907844,0.41179985,0
-0.095608652,-5.0311022,-3.0697258,-0.26886821,-0.42481759,-0.86443037,0
1.1664538,-4.672586,1.74883,0.32809404,-0.88419938,0.33248416,0
3.4527671,4.1278486,-1.9772167,0.94283956,0.28476176,-0.17310259,0
3.5987134,1.4785678,-2.9052424,0.83593315,0.10783041,-0.53813422,0
-4.4375639,0.30292997,-3.340462,-0.72872394,-0.46086839,-0.50651908,0
-3.851311,4.371253,0.64787829,-0.32809404,0.88419938,-0.33248416,0
0.26872134,-0.81893396,-4.7714963,0.094093435,-0.31962752,-0.94285983,0
4.7495446,0.77904499,0.66950792,0.92995191,0.36416006,0.050764635,0
-0.49902993,-2.2732723,-4.1471167,-0.15697029,-0.39810437,-0.90381032,0
-1.2700065,-0.53402299,-4.8845959,-0.16756158,-0.40085945,-0.90068573,0
-0.43887085,-3.6680412,-3.6283967,-0.21476254,-0.41256896,-0.88524795,0
-0.70694375,-1.840328,5.4756951,-0.36129379,0.20775214,0.90901369,0
2.8518224,3.0866058,-3.7908609,0.81345731,0.085513622,-0.57530385,0
-4.7448549,3.6283789,-0.65741354,-0.32809404,0.88419938,-0.33248416,0
-0.90187269,1.9649661,4.2704601,-0.15582238,0.29648861,0.94223881,0
-1.3666501,-4.304822,4.86797,0.32809404,-0.88419938,0.33248416,0
1.2925079,5.2239466,2.3382964,0.49867201,0.46104565,0.7340048,0
-4.5475373,2.8894358,2.0902889,-0.73560405,-0.018322796,0.67716402,0
-4.2477064,3.3768206,-1.8266757,-0.32809404,0.88419938,-0.33248416,0
-3.0124106,-5.4432158,1.0502336,-0.92934781,-0.3652119,-0.054157943,0
-3.1758945,2.996305,-3.7680752,-0.32809404,0.88419938,-0.33248416,0
-0.18320459,-3.9179769,4.9030819,0.32809404,-0.88419938,0.33248416,0
1.8800381,-4.6678915,0.96435446,0.32809404,-0.88419938,0.33248416,0
-2.0338399,-3.029542,4.6632628,-0.66531551,0.033570461,0.74580717,0
-1.2251489,2.8982315,-6.1025305,-0.32809404,0.88419938,-0.33248416,0
3.4193974,-2.4724154,5.1323657,0.32809404,-0.88419938,0.33248416,0
-2.9072762,-5.8953204,2.3424926,-0.94433463,-0.29797781,0.13943157,0
-2.2650237,1.1678009,-5.321135,-0.2441282,-0.41937563,-0.87437159,0
1.0028164,-4.9897976,0.65292722,0.32809404,-0.88419938,0.33248416,0
0.27217686,-5.3969941,0.51750112,0.32809404,-0.88419938,0.33248416,0
4.7158871,-1.4256092,3.8645103,0.71390265,0.4625816,0.52570069,0
-2.6006258,-4.6009135,3.7754159,-0.86671323,-0.14177597,0.47823402,0
-4.0093403,-2.9816592,0.99412167,-0.94455838,-0.31183973,0.10278828,0
2.7928216,3.1085224,2.5076005,0.65511459,0.46655098,0.59426856,0
4.5112457,1.5297593,-0.62384325,0.94463831,0.3084287,-0.11193825,0
0.64234972,-3.4059827,5.3823934,0.32809404,-0.88419938,0.33248416,0
0.39303008,-5.0956206,1.2776203,0.32809404,-0.88419938,0.33248416,0
-2.6340621,-5.9035463,1.8519115,0.32809404,-0.88419938,0.33248416,0
-1.6124732,-5.1071191,-2.0042555,-0.57835525,-0.46630982,-0.6693731,0
-1.812726,-4.6276331,-2.4349556,-0.54936153,-0.46492338,-0.69429696,0
2.6522255,-3.4886661,3.3740013,0.32809404,-0.88419938,0.33248416,0
4.6162806,0.97454071,-0.88645327,0.93969262,0.26949659,-0.21059299,0
1.8531517,-3.5635717,3.9723482,0.32809404,-0.88419938,0.33248416,0
1.0605187,-5.0562415,0.2822741,0.32809404,-0.88419938,0.33248416,0
-0.99762183,-4.9652987,3.0792499,0.32809404,-0.88419938,0.33248416,0
-0.15763766,-5.7475605,-0.19887276,0.32809404,-0.88419938,0.33248416,0
-1.0895283,-4.2371368,4.8625827,0.32809404,-0.88419938,0.33248416,0
-2.0551119,4.3783526,-1.1380413,-0.32809404,0.88419938,-0.33248416,0
-3.000344,2.76984,-4.6112857,-0.32809404,0.88419938,-0.33248416,0
1.8826838,-4.4834895,1.0434089,0.32809404,-0.88419938,0.33248416,0
3.2715335,1.8580668,-3.3680611,0.8138569,0.085895911,-0.57468146,0
5.5111341,-1.379773,1.3594522,0.93190759,0.36056376,0.039270908,0
-0.87646377,-2.6458573,-3.9687662,-0.21671575,-0.41303322,-0.8845551,0
0.84245408,1.5330911,4.462636,0.1624485,0.39953515,0.90220952,0
-2.5502193,5.6431122,2.7926841,-0.20361267,0.27750036,0.93890119,0
4.0401053,2.4986897,0.05864203,0.92561853,0.37119994,0.073762402,0
0.8464312,5.0841351,-2.5425248,-0.32809404,0.88419938,-0.33248416,0
1.2108898,5.442246,2.2650402,0.50542521,0.46166241,0.72898102,0
1.8614343,-3.9255521,-3.5091479,0.21110986,-0.27443451,-0.93814623,0
-1.9971226,-3.0826952,-3.2770107,-0.4909192,-0.46030146,-0.73967624,0
-1.4765029,-6.2319627,0.022732586,0.32809404,-0.88419938,0.33248416,0
3.8430471,3.081892,-1.7509322,0.93687212,0.25951403,-0.23435703,0
-2.7112231,2.5427532,3.6158345,-0.42989266,0.17365253,0.88602316,0
-4.5120697,-1.314095,0.21321282,-0.94322324,-0.32594195,0.063967645,0
-5.6174908,3.6874473,0.1350202,-0.32809404,0.88419938,-0.33248416,0
-4.7995172,4.4392891,1.5322328,-0.32809404,0.88419938,-0.33248416,0
0.59773135,-3.3937044,5.273613,0.32809404,-0.88419938,0.33248416,0
0.62032843,-5.8702793,-1.0676455,0.32809404,-0.88419938,0.33248416,0
-2.7690842,-6.0336099,1.5293814,0.32809404,-0.88419938,0.33248416,0
1.6992183,1.5306624,-4.8198457,0.53316855,-0.11721595,-0.8378495,0
-3.9327309,3.7224746,-1.2759836,-0.32809404,0.88419938,-0.33248416,0
1.2334105,4.735857,-3.4830954,-0.32809404,0.88419938,-0.33248416,0
1.2919301,-3.2120092,-3.7463868,0.14757371,-0.29967025,-0.9425602,0
-2.1945982,-4.8090873,4.438621,-0.80053729,-0.073399253,0.59477103,0
-1.0871674,-4.3078756,4.5106192,0.32809404,-0.88419938,0.33248416,0
3.883961,2.1660507,-2.283443,0.90550911,0.19411758,-0.37732172,0
0.96321946,5.7586641,-0.81464636,-0.32809404,0.88419938,-0.33248416,0
-0.97492254,5.340035,0.068213254,-0.32809404,0.88419938,-0.33248416,0
-0.16155928,-6.1713357,-1.1270713,0.32809404,-0.88419938,0.33248416,0
3.2052128,4.4523821,-2.406888,0.93605435,0.25694764,-0.24037512,0
-3.5725532,2.6872888,-4.5003543,-0.32809404,0.88419938,-0.33248416,0
3.2547169,-5.0498853,-1.4801046,0.32809404,-0.88419938,0.33248416,0
-3.2284091,-1.7577363,3.4226992,-0.79153818,-0.06522505,0.60762894,0
-1.0448723,-6.3118024,-0.98065007,0.32809404,-0.88419938,0.33248416,0
3.2514877,-5.3487163,-2.330092,0.32809404,-0.88419938,0.33248416,0
0.0064749718,-6.0104117,-0.91824889,0.32809404,-0.88419938,0.33248416,0
0.40363771,-4.375463,3.2007561,0.32809404,-0.88419938,0.33248416,0
3.1609788,1.2656164,3.5459032,0.5757063,0.4662101,0.67172188,0
-3.8317137,4.4962926,0.6587044,-0.32809404,0.88419938,-0.33248416,0
-0.54134452,-4.8216662,2.9082568,0.32809404,-0.88419938,0.33248416,0
2.5058856,-0.97086781,5.20502,0.30013996,0.43130326,0.85081935,0
-1.5774931,-1.801176,4.8972673,-0.52209044,0.12359692,0.84388709,0
-0.85381198,2.913456,3.8813512,-0.063268147,0.33060879,0.94164479,0
5.8535008,-3.3604457,0.35158229,0.32809404,-0.88419938,0.33248416,0
-2.7513964,-3.1617227,3.9761958,-0.78436756,-0.058853254,0.61749804,0
-3.6904697,-3.0421131,-1.2991147,-0.83273786,-0.43688974,-0.34011039,0
-2.3185186,3.2038841,-4.2498937,-0.32809404,0.88419938,-0.33248416,0
-1.3517156,2.7527087,-6.1037135,0.074631222,-0.32660481,-0.94220984,0
-3.9451556,0.41200376,2.8425674,-0.7628355,-0.040398128,0.64532936,0
-0.99502909,-5.3064137,2.0296383,0.32809404,-0.88419938,0.33248416,0
2.0886421,-4.2247291,1.7486976,0.32809404,-0.88419938,0.33248416,0
-5.3712263,1.1418302,0.23923105,-0.93711579,-0.26030272,0.23250023,0
5.0033441,-2.1790257,-1.4767513,0.83327127,0.10509434,-0.54278368,0
2.8409488,3.7715228,1.7371606,0.7365582,0.45982882,0.4960236,0
0.46809226,6.0807948,0.91141391,-0.32809404,0.88419938,-0.33248416,0
-1.8767796,4.5800576,-1.0159132,-0.32809404,0.88419938,-0.33248416,0
-0.44482964,-5.3262515,-2.6247463,-0.35139984,-0.44094735,-0.82588351,0
-2.8340495,3.069345,3.5026457,-0.4154709,0.1810296,0.89141023,0
3.9552917,1.0906514,-2.5113671,0.86492062,0.13966233,-0.48208597,0
-0.4233169,-6.2369342,-2.3231902,-0.38601205,-0.44673118,-0.80710959,0
-4.2522616,-1.7021422,-1.2749532,-0.8797881,-0.41418228,-0.23329377,0
2.2529268,-4.2704096,-3.2648292,0.22219123,-0.26985919,-0.93691361,0
2.5160816,0.02107954,4.7521305,0.37112093,0.44431713,0.81538427,0
1.6081972,4.885488,-3.7432072,-0.32809404,0.88419938,-0.33248416,0
-0.008185029,-3.7343652,4.8238649,0.32809404,-0.88419938,0.33248416,0
4.7131963,-4.298912,-1.9283216,0.65912163,-0.037852734,-0.75108308,0
2.7398973,-3.3516965,3.5384293,0.32809404,-0.88419938,0.33248416,0
1.0257988,0.33677417,-4.9137506,0.34848306,-0.21385184,-0.91259354,0
-5.3582916,1.029181,-0.33909947,-0.94464505,-0.30713254,0.11539201,0
3.6808667,1.1107895,3.1793232,0.68435007,0.46509919,0.56155837,0
1.0936573,5.7637315,-0.73018032,-0.32809404,0.88419938,-0.33248416,0
-5.2145128,3.9343278,0.54242551,-0.32809404,0.88419938,-0.33248416,0
3.4584122,-1.5982125,5.117537,0.43052542,0.45325014,0.78052044,0
2.4837501,5.7099309,-2.2615583,-0.32809404,0.88419938,-0.33248416,0
-3.5203941,2.5584173,-4.5893884,-0.32809404,0.88419938,-0.33248416,0
-2.1654441,1.1380494,3.9470475,-0.43820596,0.16934747,0.88277799,0
-3.2945457,2.4590309,-4.9772062,-0.32809404,0.88419938,-0.33248416,0
-2.4788506,3.8913805,-2.3923664,-0.32809404,0.88419938,-0.33248416,0
3.7125461,0.90139431,3.2449067,0.67909765,0.46543193,0.56762624,0
4.6070533,-3.4740603,-2.1831498,0.69898343,-0.0095211789,-0.71507448,0
-1.0392599,-5.3179517,-2.4983552,-0.46826816,-0.45791179,-0.75567305,0
-2.2132702,4.8335996,-0.002792038,-0.32809404,0.88419938,-0.33248416,0
-1.1465305,3.7066092,-3.7699866,-0.32809404,0.88419938,-0.33248416,0
-4.130507,3.6092734,-1.4111679,-0.32809404,0.88419938,-0.33248416,0
-0.34556335,4.4599776,-2.9654708,-0.32809404,0.88419938,-0.33248416,0
-5.8036113,3.604718,0.18907031,-0.32809404,0.88419938,-0.33248416,0
-1.4728215,4.0486298,-2.6995411,-0.32809404,0.88419938,-0.33248416,0
-4.6617608,0.82363725,1.579566,-0.87235516,-0.14856285,0.46575263,0
5.8409767,-3.5464072,-0.37871042,0.89094007,0.17265633,-0.42001861,0
-0.67448461,-1.7273309,5.3725939,-0.34163049,0.21708146,0.91442013,0
0.74553043,-1.0005862,5.4686937,-0.056715749,0.3328943,0.941257,0
1.8266753,-1.9921151,5.8872576,0.089927301,0.37960383,0.9207682,0
2.431437,0.84120166,4.150929,0.41728073,0.45142245,0.78872973,0
2.3852446,-2.8808703,4.9338126,0.32809404,-0.88419938,0.33248416,0
-3.1141393,1.6481616,3.4870362,-0.56530398,0.098209485,0.81901544,0
-1.8470315,5.0115538,-0.039564189,-0.32809404,0.88419938,-0.33248416,0
3.3117642,-3.3306687,2.9683409,0.32809404,-0.88419938,0.33248416,0
-2.1383266,4.3844709,-1.3255173,-0.32809404,0.88419938,-0.33248416,0
0.86791712,5.7759318,2.1521325,0.45473984,0.45633617,0.76483262,0
4.590941,0.73333204,-1.1252167,0.93061799,0.24211079,-0.27446735,0
4.912087,0.54056388,-0.14377746,0.94463772,0.30571142,-0.11916405,0
2.7197981,-5.3564105,-1.716974,0.32809404,-0.88419938,0.33248416,0
-0.048633277,-3.8202956,4.6715446,0.32809404,-0.88419938,0.33248416,0
-0.69934046,1.4811146,-5.625144,0.073490188,-0.32700917,-0.94215924,0
-3.8381853,-3.1156104,1.3800746,-0.94437999,-0.2986764,0.13761847,0
-3.3537636,-3.8966219,-0.22741222,-0.8869518,-0.4094629,-0.21367411,0
-0.047716655,-0.2815302,-4.9506927,0.094464973,-0.31949285,-0.94286829,0
-0.1767152,5.0575809,-1.6596918,-0.32809404,0.88419938,-0.33248416,0
3.0297561,5.5273628,-2.3086498,0.94397789,0.29365802,-0.15056749,0
0.6733467,1.1449307,4.5748286,0.087182127,0.37880763,0.9213599,0
5.1967068,-3.4404645,0.91943139,0.32809404,-0.88419938,0.33248416,0
2.1199956,0.74075806,-4.5141892,0.5310396,-0.11844879,-0.83902735,0
2.707022,-0.041203797,-3.9046242,0.59154832,-0.082102329,-0.80207831,0
-2.4243906,2.7248201,3.7663603,-0.36924422,0.20392543,0.90668249,0
-0.11576176,3.971148,-4.5948677,-0.32809404,0.88419938,-0.33248416,0
-1.7009778,-3.2544436,-3.319478,-0.44260076,-0.45483106,-0.77280873,0
-0.8067773,-1.2672675,-4.4690161,-0.11232858,-0.38598761,-0.91563964,0
3.422374,1.6543792,-3.1155446,0.82788455,0.099638335,-0.55197769,0
0.59997451,-0.20805913,5.1948566,-0.025201473,0.34364909,0.93875986,0
4.0384574,-0.68148077,-2.5722415,0.7855438,0.059890233,-0.61590105,0
-0.34081262,1.1312405,-5.5278764,0.12465612,-0.30836415,-0.94306546,0
-5.0411363,0.60722685,0.82127905,-0.92430204,-0.22783598,0.30619675,0
5.6152635,-1.5220468,0.5525893,0.94446248,0.30011982,-0.13386124,0
-0.24354187,5.3817935,-0.23178126,-0.32809404,0.88419938,-0.33248416,0
3.004844,2.2161651,-3.666976,0.77234584,0.04843045,-0.63335329,0
1.4208298,0.16547579,5.0010881,0.16543506,0.40031001,0.90132302,0
-3.8006463,-0.8590678,-2.9340174,-0.7167629,-0.46227586,-0.52206516,0
-4.0671024,2.2695334,2.6097319,-0.6749953,0.026793074,0.73733538,0
4.9133434,-3.6274297,0.56499505,0.32809404,-0.88419938,0.33248416,0
1.4174721,4.3180141,-5.0544701,-0.32809404,0.88419938,-0.33248416,0
0.46823984,4.5452237,-3.254832,-0.32809404,0.88419938,-0.33248416,0
2.3894713,-4.3874378,1.2197694,0.32809404,-0.88419938,0.33248416,0
-2.2519543,-0.6453588,-4.4160852,-0.35184798,-0.44102609,-0.82565063,0
-4.4675241,3.5973842,-1.2905216,-0.32809404,0.88419938,-0.33248416,0
-1.7199306,-4.4532475,-2.3363104,-0.56363988,-0.46568638,-0.68223625,0
3.8082113,3.1738329,-0.45602813,0.93349773,0.35738781,0.029255584,0
-4.4181399,2.5964768,-4.05653,-0.32809404,0.88419938,-0.33248416,0
-1.0675224,-3.9598758,5.4577422,-0.58614266,0.085465387,0.80568761,0
-4.1702228,0.66427517,2.4241705,-0.79693907,-0.070106238,0.59997767,0
-4.8370433,2.0250351,1.6025393,-0.83680546,-0.10873299,0.53659469,0
1.7171142,-4.3474231,1.7222821,0.32809404,-0.88419938,0.33248416,0
-0.92176437,-1.7707548,5.3483043,-0.38894561,0.19430412,0.90053719,0
-1.31124,-0.5800072,-4.8817854,-0.16578767,-0.40040129,-0.9012177,0
1.3443766,6.6475978,1.1745178,-0.32809404,0.88419938,-0.33248416,0
-3.1706657,3.6860693,-1.8216485,-0.32809404,0.88419938,-0.33248416,0
1.2510371,-4.8882051,-3.3011231,0.013116146,-0.34766933,-0.93752539,0
3.7182243,-1.485459,4.8912063,0.49852899,0.46103227,0.73411041,0
-4.370266,-1.1983969,1.385043,-0.93143243,-0.24414289,0.26986673,0
-0.28139001,5.959096,1.2019699,-0.32809404,0.88419938,-0.33248416,0
-1.1180843,4.1399617,3.5920298,-0.037758313,0.33941093,0.93988001,0
5.7572632,-3.1545434,1.1508989,0.32809404,-0.88419938,0.33248416,0
3.8755951,-1.0387964,-2.7187018,0.7480455,0.028248161,-0.66304594,0
-2.004374,-2.8221359,4.6340251,-0.66227394,0.035678521,0.74841183,0
0.80508333,-0.29083222,-4.8053942,0.24287157,-0.261179,-0.93423706,0
-2.6442175,2.3106523,-5.7384644,-0.21310452,-0.41217357,-0.88583255,0
-2.7670329,2.3355861,-5.6810789,-0.24930499,-0.4205367,-0.87235081,0
-2.6953168,-4.2051373,-1.6850004,-0.72431868,-0.46141148,-0.51231039,0
-0.23273486,-6.0472703,-0.63282388,0.32809404,-0.88419938,0.33248416,0
-3.1879683,2.6704729,-4.6565437,-0.32809404,0.88419938,-0.33248416,0
-2.335958,-2.626235,-3.2533836,-0.51907551,-0.4628174,-0.71858239,0
4.6513371,-2.90732,2.8014178,0.32809404,-0.88419938,0.33248416,0
-5.4114523,0.78688926,-0.42838001,-0.94460487,-0.31033307,0.10684096,0
1.3029022,-5.9425163,-1.9437799,0.32809404,-0.88419938,0.33248416,0
0.55186164,-6.1414905,-1.9440782,0.32809404,-0.88419938,0.33248416,0
-1.1968029,2.1502633,4.198195,-0.21261497,0.2738162,0.93798709,0
-4.311161,4.1237731,0.27047816,-0.32809404,0.88419938,-0.33248416,0
2.4280777,-5.3120766,-1.7269818,0.32809404,-0.88419938,0.33248416,0
2.2153952,-3.6358247,3.1587598,0.32809404,-0.88419938,0.33248416,0
2.8286815,-5.6516495,-2.5350101,0.32809404,-0.88419938,0.33248416,0
1.4278998,-5.1908741,-0.39640445,0.32809404,-0.88419938,0.33248416,0
-3.3697581,-3.5151508,2.7401574,-0.90762681,-0.19750053,0.37041491,0
-5.7496357,2.2001221,-2.7408719,-0.8804273,-0.41377926,-0.23159119,0
-5.7074614,3.6024382,0.28162712,-0.32809404,0.88419938,-0.33248416,0
1.2418891,5.0027943,-2.8938267,-0.32809404,0.88419938,-0.33248416,0
-3.8548703,3.3798723,-2.1803193,-0.32809404,0.88419938,-0.33248416,0
-4.7514195,2.3132567,-3.9235861,-0.32809404,0.88419938,-0.33248416,0
2.5431015,0.86412811,4.1969919,0.42068985,0.45190212,0.78664124,0
4.1098948,-4.0068107,0.25046813,0.32809404,-0.88419938,0.33248416,0
-0.3969484,-4.0362597,4.955512,0.32809404,-0.88419938,0.33248416,0
-0.48843876,0.96066236,-5.4528255,0.075975992,-0.32612759,-0.94226772,0
-1.5308863,2.9194813,3.7632422,-0.19690639,0.28022259,0.93952286,0
-4.5058374,-0.79949713,1.3153462,-0.92546517,-0.23029968,0.30079263,0
3.6231544,2.0680594,2.1179399,0.77676421,0.45282057,0.43771094,0
1.2368617,-3.0981803,5.4003215,0.32809404,-0.88419938,0.33248416,0
-4.7844758,-0.19087385,-1.8339788,-0.8793962,-0.41442767,-0.23433307,0
-3.7882748,3.236289,-2.6226068,-0.32809404,0.88419938,-0.33248416,0
-0.94267303,-4.7456326,3.3908477,0.32809404,-0.88419938,0.33248416,0
-2.3934321,5.0080409,0.72105628,-0.32809404,0.88419938,-0.33248416,0
-2.2934651,-0.97362393,4.4291625,-0.57873195,0.090036988,0.81053233,0
3.4397936,-0.021921724,-3.2942932,0.72984934,0.013816804,-0.68346834,0
0.83158624,4.6247444,2.8361804,0.37478435,0.44492152,0.81337667,0
-4.6369867,1.9997941,-4.6378422,-0.62143826,-0.46710959,-0.62898576,0
-2.6465175,-3.8128347,-2.076937,-0.68458074,-0.46508381,-0.56128979,0
0.71804655,4.3375759,-4.3395929,-0.32809404,0.88419938,-0.33248416,0
-3.5079105,4.0605202,-0.78874809,-0.32809404,0.88419938,-0.33248416,0
4.7985578,0.66257298,-0.12280348,0.94415051,0.31832686,-0.085134111,0
4.3173041,-2.285135,4.7298512,0.32809404,-0.88419938,0.33248416,0
-3.2813976,1.4426435,-5.2322297,-0.39243197,-0.44773662,-0.80344832,0
-3.2962339,2.5748219,-5.2175002,-0.32809404,0.88419938,-0.33248416,0
-2.420006,4.1607351,-1.8722743,-0.32809404,0.88419938,-0.33248416,0
1.9105616,-4.2777057,2.0059824,0.32809404,-0.88419938,0.33248416,0
3.6926625,-2.6964085,4.3910747,0.32809404,-0.88419938,0.33248416,0
1.5696629,6.215498,-0.086087406,-0.32809404,0.88419938,-0.33248416,0
0.77224183,-4.6490278,1.6863036,0.32809404,-0.88419938,0.33248416,0
-1.9624147,-5.4181485,2.6274195,0.32809404,-0.88419938,0.33248416,0
1.4066243,-3.4556255,4.7036767,0.32809404,-0.88419938,0.33248416,0
-2.0145762,-1.4376429,4.6518183,-0.56073654,0.10095752,0.82181638,0
-2.0302117,-4.0674863,4.7704802,-0.73527759,-0.018065855,0.67752522,0
-0.88348061,-0.93632579,5.0139127,-0.34531111,0.21534961,0.91344666,0
4.4727964,1.6296976,0.21682245,0.93315446,0.35809499,0.03147503,0
5.7828293,-2.4407909,2.5528793,0.32809404,-0.88419938,0.33248416,0
4.6126828,1.3382523,0.15129483,0.93705165,0.34916914,0.0038921461,0
-0.85703731,-6.3237057,-0.89556062,0.32809404,-0.88419938,0.33248416,0
-2.1192994,-2.6771274,-3.3720744,-0.49800491,-0.46098316,-0.73449683,0
-2.7285297,-2.4671478,-2.9519672,-0.60703206,-0.46702048,-0.64296496,0
2.9355118,-2.0338573,5.6190734,0.31371054,0.43397781,0.8445406,0
-4.4059243,4.4768066,1.1279583,-0.32809404,0.88419938,-0.33248416,0
-5.1707673,2.842567,-2.5277708,-0.32809404,0.88419938,-0.33248416,0
4.3003106,-1.2923261,4.3574314,0.60976923,0.46705177,0.64034688,0
-6.0444117,3.2229769,-0.4908101,-0.32809404,0.88419938,-0.33248416,0
5.1101718,-2.6931233,3.0578647,0.32809404,-0.88419938,0.33248416,0
3.82196,-5.1363759,-2.288079,0.32809404,-0.88419938,0.33248416,0
4.757637,-2.4148533,3.8565252,0.32809404,-0.88419938,0.33248416,0
2.9204996,-0.87158239,-3.6545799,0.58275658,-0.08755973,-0.80791587,0
-1.7139781,-6.4571524,-0.56885028,0.32809404,-0.88419938,0.33248416,0
4.8438931,-0.98490721,3.3460751,0.77119333,0.45397598,0.44628093,0
-4.2113237,-2.2525804,1.1731008,-0.94306779,-0.28625658,0.16935255,0
-2.1257138,3.9685924,-2.5028176,-0.32809404,0.88419938,-0.33248416,0
4.6978092,-2.836381,3.1115971,0.32809404,-0.88419938,0.33248416,0
-2.6964006,-1.6482867,-3.614269,-0.53254753,-0.46383372,-0.70799112,0
-6.0314946,3.166934,-0.54957873,-0.32809404,0.88419938,-0.33248416,0
-2.1376057,-3.331913,4.5368032,-0.70665228,0.0038462952,0.70755047,0
4.7336035,-4.1979737,-0.80199981,0.32809404,-0.88419938,0.33248416,0
4.909493,-1.7563491,-1.7034229,0.84296793,0.11519711,-0.52548534,0
2.6153066,5.2775249,-3.4071379,-0.32809404,0.88419938,-0.33248416,0
4.5732331,-2.8738232,2.8477666,0.32809404,-0.88419938,0.33248416,0
-4.2899814,-1.1452428,-2.293927,-0.80478954,-0.44593233,-0.39173731,0
3.4221087,1.3235576,3.217474,0.6416018,0.46690992,0.60855758,0
-2.0083787,4.3990879,-1.3162192,-0.32809404,0.88419938,-0.33248416,0
-1.719789,-4.5437117,4.5886927,0.32809404,-0.88419938,0.33248416,0
-2.6667502,-6.2789164,1.2582735,0.32809404,-0.88419938,0.33248416,0
5.4704919,-2.3155737,3.2902496,0.32809404,-0.88419938,0.33248416,0
-1.4864883,-4.7043419,3.9525521,0.32809404,-0.88419938,0.33248416,0
2.9264235,-3.427371,2.8258185,0.32809404,-0.88419938,0.33248416,0
1.7696681,-4.3768673,1.7200875,0.32809404,-0.88419938,0.33248416,0
1.9405985,6.2769756,1.0134993,0.70461768,0.46349588,0.53729451,0
1.1500345,4.9747295,-3.0850976,-0.32809404,0.88419938,-0.33248416,0
-1.1337352,3.4891667,-4.3630004,-0.32809404,0.88419938,-0.33248416,0
-1.6704352,5.8715715,2.3411183,-0.32809404,0.88419938,-0.33248416,0
-4.6292734,1.8241132,1.8867514,-0.80443567,-0.07700555,0.58902746,0
-0.15055728,-5.860775,-0.33661124,0.32809404,-0.88419938,0.33248416,0
-3.1019416,3.2696302,3.2806537,-0.46383286,0.15582702,0.87211066,0
-0.87759584,-5.6690516,-2.3992801,-0.43475437,-0.4538132,-0.77784467,0
1.2183563,4.3876834,2.8281109,0.41691738,0.45137098,0.78895134,0
-0.84047198,-2.9524548,-3.7192233,-0.24304456,-0.41913113,-0.87479055,0
1.0787804,-4.7679734,-3.2807505,-0.0088346917,-0.35482401,-0.9348914,0
-3.7730198,-2.4668641,2.5068116,-0.89711142,-0.18140426,0.40284437,0
2.5848377,-2.7858837,5.3524027,0.32809404,-0.88419938,0.33248416,0
-1.0384544,5.6259298,1.2242064,-0.32809404,0.88419938,-0.33248416,0
2.0701804,-3.7644405,2.9543669,0.32809404,-0.88419938,0.33248416,0
-0.10958427,5.9319386,0.63436276,-0.32809404,0.88419938,-0.33248416,0
1.2678967,0.01469332,5.0901237,0.11622017,0.38707605,0.91469395,0
2.3128119,5.6455278,0.83757418,0.76499885,0.45518616,0.45561197,0
0.27961034,4.1631899,-3.9986997,-0.32809404,0.88419938,-0.33248416,0
1.5850272,5.2416043,-2.8787308,-0.32809404,0.88419938,-0.33248416,0
-3.3797722,3.1231155,-3.6301045,-0.32809404,0.88419938,-0.33248416,0
1.0447557,-5.8487978,-1.5354033,0.32809404,-0.88419938,0.33248416,0
2.1260488,-4.3518782,1.4007623,0.32809404,-0.88419938,0.33248416,0
2.0076368,6.1777697,0.98493248,0.71389866,0.46258205,0.52570575,0
-4.946701,-0.17627029,-1.8522282,-0.87644982,-0.41623384,-0.24204378,0
4.0273962,-3.4300508,2.110244,0.32809404,-0.88419938,0.33248416,0
-3.9244158,-3.2040558,0.43546921,-0.93498957,-0.35415569,-0.019187979,0
5.3833084,-2.9876306,-1.0383784,0.84742606,0.11997437,-0.51718009,0
3.3192003,3.9745975,0.95706391,0.83117598,0.437464,0.34317881,0
-4.6497459,0.46048766,-2.9974828,-0.78950334,-0.44992372,-0.41743633,0
4.2538624,-2.9042017,3.084666,0.32809404,-0.88419938,0.33248416,0
-0.89625967,4.5474401,-1.7658268,-0.32809404,0.88419938,-0.33248416,0
0.4350065,4.5925603,-3.1737237,-0.32809404,0.88419938,-0.33248416,0
5.6851282,-2.8378046,1.8900349,0.32809404,-0.88419938,0.33248416,0
-1.9617777,5.0977607,0.29059526,-0.32809404,0.88419938,-0.33248416,0
3.4410825,-5.144506,-2.1815228,0.32809404,-0.88419938,0.33248416,0
-0.95371217,-3.56812,5.5042934,-0.53279001,0.11743534,0.83805948,0
-4.3015184,3.8971314,-0.52706039,-0.32809404,0.88419938,-0.33248416,0
5.0956044,-2.7712593,2.9191642,0.32809404,-0.88419938,0.33248416,0
-0.63233,-3.1300292,-3.6827297,-0.22935703,-0.4159984,-0.87996638,0
-3.3503335,2.455857,-5.0393696,-0.32809404,0.88419938,-0.33248416,0
-0.86414063,-2.9784427,-3.8001146,-0.25182572,-0.42109784,-0.87135559,0
0.36745262,-4.971633,1.3928741,0.32809404,-0.88419938,0.33248416,0
1.7482812,5.7971268,-1.1368176,-0.32809404,0.88419938,-0.33248416,0
0.48266229,1.0013894,-5.1368732,0.28220844,-0.24414921,-0.92776597,0
-4.0644488,4.162365,-0.028017551,-0.32809404,0.88419938,-0.33248416,0
-1.3779771,0.25867805,4.543304,-0.33964264,0.21801405,0.91493869,0
4.3367333,-3.2684412,1.9134235,0.32809404,-0.88419938,0.33248416,0
-5.1481762,0.83580637,0.88554507,-0.91986138,-0.21894917,0.32544798,0
-4.7034264,4.3183641,0.91590381,-0.32809404,0.88419938,-0.33248416,0
-2.6201229,-2.7603741,4.089952,-0.75040883,-0.030163132,0.66028535,0
3.8253858,-3.4370813,-2.7601035,0.56441486,-0.098745748,-0.81956404,0
-4.4849553,1.4468817,2.0157156,-0.81225449,-0.084365577,0.57717001,0
-5.5253568,1.8127072,-2.5862689,-0.86904186,-0.42049187,-0.26067775,0
-3.8810127,4.1664791,-0.11430794,-0.32809404,0.88419938,-0.33248416,0
4.8490119,0.42279792,-0.58906472,0.94162768,0.27801022,-0.18986174,0
1.9879748,-2.7944717,5.5050521,0.32809404,-0.88419938,0.33248416,0
3.1590714,-1.5481997,5.2460127,0.36727169,0.44367474,0.81747437,0
-3.0145416,-5.4387918,0.71119374,-0.90981209,-0.39047322,-0.14061481,0
-4.9637232,3.0614016,-1.7842751,-0.32809404,0.88419938,-0.33248416,0
5.3664103,-3.4552572,0.70305169,0.32809404,-0.88419938,0.33248416,0
0.77599609,-4.354363,2.6533263,0.32809404,-0.88419938,0.33248416,0
-3.3231635,-4.4004068,-0.25624931,-0.87934428,-0.41446012,-0.23447052,0
2.7361407,-4.9510841,-1.0750651,0.32809404,-0.88419938,0.33248416,0
4.8110161,-2.5209603,3.8655849,0.32809404,-0.88419938,0.33248416,0
-3.6775763,3.0063844,-3.3422487,-0.32809404,0.88419938,-0.33248416,0
-0.63972038,-3.8126364,5.8065138,0.32809404,-0.88419938,0.33248416,0
4.1302018,-4.2530689,-0.20174226,0.32809404,-0.88419938,0.33248416,0
4.6721377,-0.63236165,-1.5812497,0.87498558,0.15180169,-0.45973501,0
1.3762811,-4.2019048,-3.550549,0.071351506,-0.32776576,-0.94206083,0
2.6792638,-2.5547528,-3.5372534,0.44099569,-0.16789401,-0.88166565,0
-3.2889733,-1.5974,3.3353391,-0.79361892,-0.067097008,0.60470402,0
1.6326869,-5.61095,-1.4385681,0.32809404,-0.88419938,0.33248416,0
-2.2807217,5.4326267,1.9217272,-0.32809404,0.88419938,-0.33248416,0
-5.1274695,1.0898639,0.6368202,-0.92311603,-0.22538629,0.31154102,0
5.1500354,-3.5195191,0.51909786,0.32809404,-0.88419938,0.33248416,0
2.1363857,1.4226203,3.9452004,0.41701078,0.45138419,0.78889441,0
5.228694,-3.5164015,0.61630863,0.32809404,-0.88419938,0.33248416,0
2.7422087,5.2874498,-3.3930211,-0.32809404,0.88419938,-0.33248416,0
5.420712,-3.7860653,-1.0413709,0.82204229,0.093836606,-0.56164151,0
0.80713785,-5.211863,0.50594026,0.32809404,-0.88419938,0.33248416,0
-1.1348395,-5.8109231,0.71186388,0.32809404,-0.88419938,0.33248416,0
0.80382788,-4.0465961,3.2071562,0.32809404,-0.88419938,0.33248416,0
1.9300637,4.6086693,2.3613296,0.57523835,0.46619192,0.67213535,0
4.5173516,-3.7994738,0.36651877,0.32809404,-0.88419938,0.33248416,0
0.87656105,2.2649565,4.1120214,0.2044075,0.41008046,0.88884848,0
4.8752728,-3.9417546,-0.31654805,0.32809404,-0.88419938,0.33248416,0
-3.4875329,-1.5759947,3.1166761,-0.82298714,-0.094767086,0.56009942,0
1.9333701,4.3624287,-4.8117719,0.73756647,0.019871458,-0.67498207,0
-2.2479405,-5.4141979,2.9004843,0.32809404,-0.88419938,0.33248416,0
4.6724539,-4.2739658,-0.77244258,0.32809404,-0.88419938,0.33248416,0
-5.0602393,0.14173821,-1.6704566,-0.89508367,-0.40349561,-0.1897804,0
3.4726803,-4.0272098,1.0466149,0.32809404,-0.88419938,0.33248416,0
-1.6689376,5.629107,1.3069307,-0.32809404,0.88419938,-0.33248416,0
-4.4585009,4.6081982,1.5989497,-0.32809404,0.88419938,-0.33248416,0
2.0517473,-0.83925462,-4.2409062,0.44297466,-0.16686034,-0.88086951,0
4.2129917,2.3143828,-0.32475668,0.94046521,0.33881512,-0.027011514,0
-3.230372,-4.7171326,2.2902446,-0.9411031,-0.27549782,0.19602528,0
-2.1674643,-3.0474145,4.4751005,-0.7162205,-0.0033457354,0.69786596,0
3.1078405,4.8288918,-0.5969727,0.91547567,0.38440686,0.11889353,0
2.4125764,-5.6643796,-2.2845163,0.32809404,-0.88419938,0.33248416,0
1.8353053,5.7093158,-1.833281,-0.32809404,0.88419938,-0.33248416,0
-1.3583652,5.3555164,0.38630092,-0.32809404,0.88419938,-0.33248416,0
-3.8504066,-1.6857476,2.4495366,-0.88267118,-0.16156785,0.44134724,0
1.8863727,-5.6247921,-1.5526403,0.32809404,-0.88419938,0.33248416,0
3.0530734,-2.9840455,3.8803132,0.32809404,-0.88419938,0.33248416,0
-0.21432698,-3.6888847,5.7206159,0.32809404,-0.88419938,0.33248416,0
-5.5416336,1.6576396,0.0059546232,-0.93521845,-0.25443631,0.24622881,0
-3.3243959,3.5408652,-2.1029429,-0.32809404,0.88419938,-0.33248416,0
-1.1923709,-3.0882506,-3.6818395,-0.30906498,-0.43307194,-0.84671575,0
3.3361859,-3.3287084,3.0925117,0.32809404,-0.88419938,0.33248416,0
1.9775968,-3.5251489,3.4945126,0.32809404,-0.88419938,0.33248416,0
2.5801973,5.1903558,-3.6410415,-0.32809404,0.88419938,-0.33248416,0
2.202472,5.0601687,-3.5561655,-0.32809404,0.88419938,-0.33248416,0
-0.67870796,2.5343406,4.0490823,-0.05322469,0.33410507,0.94103187,0
1.3598008,5.6633296,-1.3931143,-0.32809404,0.88419938,-0.33248416,0
-3.3260698,-1.4215852,-3.0921807,-0.65538913,-0.46654171,-0.5939731,0
1.1425582,4.0547543,-5.4587908,-0.32809404,0.88419938,-0.33248416,0
1.2005136,5.1741824,-2.4815338,-0.32809404,0.88419938,-0.33248416,0
2.470366,6.256525,-0.90168393,-0.32809404,0.88419938,-0.33248416,0
-1.9062724,-5.3406,2.4205763,0.32809404,-0.88419938,0.33248416,0
3.5354989,-3.6625979,1.9346399,0.32809404,-0.88419938,0.33248416,0
3.1987195,2.5332301,-3.1490195,0.84079301,0.11289784,-0.52945369,0
3.754936,3.4896371,-0.076877832,0.91613293,0.38365239,0.11623861,0
2.5754161,-3.8234758,2.1458454,0.32809404,-0.88419938,0.33248416,0
-3.632618,-2.2596371,-1.7421298,-0.80524564,-0.44580388,-0.39094555,0
3.7213826,2.0325,-2.7159059,0.87742031,0.15484482,-0.45404476,0
-5.8062191,2.022249,-1.7603834,-0.92976749,-0.36448371,-0.051807217,0
0.921956,1.9119564,4.1387863,0.1981709,0.4085598,0.89095867,0
1.3818321,4.6929421,-3.7217593,-0.32809404,0.88419938,-0.33248416,0
-1.6892132,-5.5905442,-1.7769806,-0.61726785,-0.46710306,-0.63308388,0
4.4649124,1.6686851,-0.78132904,0.94460869,0.30400139,-0.12368304,0
-0.84031701,-6.5431585,-1.7284086,0.32809404,-0.88419938,0.33248416,0
-3.8339081,-2.0751147,-1.7780828,-0.81774694,-0.4420487,-0.36862296,0
-2.0806642,-2.6781223,4.6326447,-0.64614308,0.046693433,0.76178664,0
3.2955537,3.4392636,1.5379938,0.77893627,0.45235226,0.43432218,0
0.905361,1.5356408,4.4147658,0.17886043,0.40374741,0.89721626,0
-4.1569691,3.5895617,-1.182514,-0.32809404,0.88419938,-0.33248416,0
-5.260541,0.59456772,0.068242639,-0.9440155,-0.29404709,0.14956988,0
1.8618622,-5.3560514,-1.2190492,0.32809404,-0.88419938,0.33248416,0
-5.7875896,1.8056234,-1.3491424,-0.93447244,-0.35530737,-0.022761151,0
-0.36494583,-4.204092,4.1015515,0.32809404,-0.88419938,0.33248416,0
-2.4342871,4.1223316,3.2904434,-0.28682831,0.24210356,0.92688471,0
-2.6135726,-5.4767218,-0.54830676,-0.8198334,-0.44137585,-0.36477476,0
0.37865448,1.7370512,4.3186398,0.082569003,0.37746301,0.92233628,0
1.6500546,5.610949,-1.9217589,-0.32809404,0.88419938,-0.33248416,0
3.2022645,-5.2610159,-2.7469544,0.3278791,-0.22349371,-0.91790295,0
-3.0433588,-5.496232,1.4927146,-0.93845665,-0.34530967,0.0077580586,0
2.7021718,1.4033041,3.6954885,0.49787271,0.46097073,0.73459423,0
-2.239671,-0.7682817,4.3944998,-0.57844281,0.090214469,0.81071895,0
3.3117359,4.5853295,-0.27164242,0.91037977,0.38989738,0.13852336,0
4.7512093,0.55998111,-0.48902324,0.94198853,0.2798591,-0.18530086,0
5.8227639,-2.5101349,2.6040831,0.88622946,0.40995994,0.21570872,0
0.44431406,4.9882464,-2.3746297,-0.32809404,0.88419938,-0.33248416,0
-2.5496857,-2.8127589,4.0761366,-0.76821804,-0.044922046,0.63861012,0
1.7167726,-4.9361625,0.4285863,0.32809404,-0.88419938,0.33248416,0
-3.5335166,-4.2893882,1.1865263,-0.9393425,-0.34261674,0.015793718,0
-0.90945774,-5.5878906,1.2366351,0.32809404,-0.88419938,0.33248416,0
-5.0522513,1.5274711,-3.6786168,-0.75209075,-0.45747101,-0.47442585,0
0.350703,4.647222,-3.1606278,-0.32809404,0.88419938,-0.33248416,0
-4.8741727,0.57194102,-2.4843767,-0.83705616,-0.43525374,-0.33149835,0
-2.644083,5.0733638,2.8871841,-0.25043225,0.25795907,0.93313497,0
4.4762039,1.6361446,0.83023167,0.90452778,0.39553991,0.15930367,0
3.7668276,3.153584,-1.9414424,0.9339987,0.25094575,-0.25430799,0
-0.65896058,-5.5999432,0.73779035,0.32809404,-0.88419938,0.33248416,0
-5.8742247,3.3972864,-0.41008323,-0.32809404,0.88419938,-0.33248416,0
0.8329047,-4.97861,1.2349011,0.32809404,-0.88419938,0.33248416,0
-0.34809431,3.7874746,-4.4950666,-0.32809404,0.88419938,-0.33248416,0
-0.58174014,3.6527448,-4.8987079,-0.32809404,0.88419938,-0.33248416,0
2.8585582,-3.8531322,-3.1712003,0.3589519,-0.2088733,-0.90968436,0
1.0656369,6.1268277,0.19285843,-0.32809404,0.88419938,-0.33248416,0
4.5656123,1.0992327,-0.6466074,0.94307101,0.28627771,-0.16929948,0
2.3319261,-5.4397798,-1.4404205,0.32809404,-0.88419938,0.33248416,0
4.0517335,1.8575294,-1.7529137,0.92176205,0.22266044,-0.31745401,0
-0.17419767,4.3087487,-3.3547754,-0.32809404,0.88419938,-0.33248416,0
1.561316,-4.5850062,1.0852029,0.32809404,-0.88419938,0.33248416,0
4.5498471,-2.8793259,2.7575014,0.32809404,-0.88419938,0.33248416,0
1.9067349,1.2709885,4.2582231,0.34384283,0.43960497,0.82977086,0
-1.5646555,-5.7332239,1.4965259,0.32809404,-0.88419938,0.33248416,0
-1.0895587,-1.7685707,5.145721,-0.43605244,0.17046639,0.88362861,0
-0.0046187639,-6.2450004,-1.6701244,0.32809404,-0.88419938,0.33248416,0
-0.84430313,4.4815626,-2.503855,-0.32809404,0.88419938,-0.33248416,0
-2.0691798,3.1068082,3.6618297,-0.29309091,0.23931506,0.92564899,0
5.2085228,-0.551202,0.3440612,0.9445129,0.31294385,-0.099807151,0
-2.4394341,5.1626482,1.2256174,-0.32809404,0.88419938,-0.33248416,0
-1.8394965,3.793381,-3.1736081,-0.32809404,0.88419938,-0.33248416,0
-1.1059701,-5.0351305,2.8415551,0.32809404,-0.88419938,0.33248416,0
-1.6428739,-5.1634851,3.0572565,0.32809404,-0.88419938,0.33248416,0
1.633227,6.3544106,0.040586084,-0.32809404,0.88419938,-0.33248416,0
-0.4530794,-4.4711871,3.2950423,0.32809404,-0.88419938,0.33248416,0
0.10147941,-5.9100294,-0.56165254,0.32809404,-0.88419938,0.33248416,0
3.2401459,-4.5455561,-0.1791694,0.32809404,-0.88419938,0.33248416,0
4.3242288,1.3088886,-1.7319219,0.91399497,0.20820631,-0.34822845,0
5.4594469,-1.5596178,-0.30720845,0.92749453,0.23476049,-0.29093209,0
-4.872611,2.4841011,-3.5363336,-0.32809404,0.88419938,-0.33248416,0
5.1798549,-1.012109,2.2613218,0.87579632,0.41662529,0.24372973,0
2.657701,5.1590881,0.67676318,0.79684573,0.44808102,0.40529045,0
4.6470551,-3.2671514,1.8639513,0.32809404,-0.88419938,0.33248416,0
3.9563112,2.0865576,1.7493039,0.82635939,0.4391793,0.35249349,0
-4.2162366,2.7423625,-3.8316174,-0.32809404,0.88419938,-0.33248416,0
0.98579949,-3.0975409,5.9427013,0.32809404,-0.88419938,0.33248416,0
2.752702,-4.5113935,0.22080544,0.32809404,-0.88419938,0.33248416,0
-4.2642574,-1.2009976,1.5107044,-0.92422444,-0.22767374,0.30655167,0
1.6292949,-4.1457462,2.6666462,0.32809404,-0.88419938,0.33248416,0
-1.8999541,0.77265,-5.1905727,-0.1781882,-0.40357709,-0.89742661,0
0.37112772,-5.0687313,0.92072958,0.32809404,-0.88419938,0.33248416,0
-6.0040894,2.7363615,-1.7267091,-0.32809404,0.88419938,-0.33248416,0
0.27377331,-4.3286238,3.4497464,0.32809404,-0.88419938,0.33248416,0
2.9855037,-1.3502638,5.1412492,0.35556763,0.44167569,0.82370758,0
3.4931748,3.9575007,0.50333643,0.87464106,0.41730958,0.24668953,0
-1.7468895,1.1586875,-5.4419918,-0.13344046,-0.39181888,-0.91031408,0
-0.26259434,5.6410956,2.7129915,0.21964255,0.41372582,0.88350898,0
3.1572881,0.31145328,4.2040877,0.50756222,0.46185136,0.72737467,0
-4.4113193,3.4628391,-1.4962852,-0.32809404,0.88419938,-0.33248416,0
-4.8135486,0.17498951,-2.3866801,-0.85057241,-0.4296346,-0.3032172,0
-5.4645457,3.2224724,-1.2184672,-0.32809404,0.88419938,-0.33248416,0
-5.1188612,3.9576442,0.66608226,-0.32809404,0.88419938,-0.33248416,0
-4.2024112,1.9189155,2.3227813,-0.73789895,-0.020134427,0.67461079,0
-2.9925895,2.7595778,-4.584096,-0.32809404,0.88419938,-0.33248416,0
-3.9455285,2.4719563,-4.8521228,-0.32809404,0.88419938,-0.33248416,0
-4.8074288,-0.84525114,0.18871674,-0.9438771,-0.32104051,0.077647641,0
2.1379776,3.7776897,2.5255575,0.5740695,0.46614572,0.67316592,0
2.6783912,-2.9247704,-3.4898233,0.42480081,-0.17627023,-0.88796002,0
