2.4436183,3.7205868,2.7840691,0.63778538,0.68000531,0.36169434,0
0.7492485,-0.40544987,6.4782429,0.71184075,-0.24222478,0.65924954,0
-4.7963929,1.2467289,1.6977978,-0.63091409,0.19188732,0.7517491,0
0.53057939,4.9233575,2.3386736,0.41764545,0.90056551,0.1206404,0
-0.53528261,-1.377912,5.8752184,-0.63091409,0.19188732,0.7517491,0
0.67036104,1.8746157,-5.8433762,0.63091409,-0.19188732,-0.7517491,0
-4.3711052,3.3990979,-1.0754864,-0.53902346,0.58849728,-0.60259831,0
2.382153,-2.5404005,3.5922179,0.5595299,-0.55869204,0.61220062,0
3.062901,-1.3083088,-3.0669911,0.63091409,-0.19188732,-0.7517491,0
-4.698987,-3.57212,2.8316131,-0.63091409,0.19188732,0.7517491,0
0.87416649,1.2670689,-5.5782628,0.63091409,-0.19188732,-0.7517491,0
-2.9878886,-3.9244714,-0.76147127,-0.54322153,-0.8010571,-0.25143158,0
1.2402573,-2.3724968,-4.4177566,0.63091409,-0.19188732,-0.7517491,0
-2.8232694,2.6755736,2.8821249,-0.63091409,0.19188732,0.7517491,0
-5.7509198,1.9438987,0.53388429,-0.63091409,0.19188732,0.7517491,0
-0.13000107,4.1370173,4.8503933,-0.63091409,0.19188732,0.7517491,0
-3.2006941,3.5405376,-2.1198368,-0.48324645,0.66083837,-0.57425213,0
3.125627,-5.0370817,-1.98367,0.63091409,-0.19188732,-0.7517491,0
1.7663293,-1.4635384,4.8726406,0.65727538,-0.38263071,0.6492942,0
-5.7273502,3.4308009,0.27166188,-0.63091409,0.19188732,0.7517491,0
-2.9424162,4.2919188,-0.93902105,-0.3449685,0.79850566,-0.49334103,0
-3.3702922,-1.9478776,3.5780764,-0.63091409,0.19188732,0.7517491,0
0.89962566,4.0749865,4.5068502,0.6464256,0.66583031,0.37256408,0
6.1356006,2.2236176,-1.020853,0.68889135,0.58426684,0.42902339,0
-5.3170614,-2.2779398,-0.15487385,-0.69932538,-0.56025809,-0.44390851,0
-1.4023199,-4.5682349,2.3120599,-0.04512763,-0.97636849,0.21134853,0
2.3107677,2.8929732,-4.8343039,0.63091409,-0.19188732,-0.7517491,0
-3.5140529,3.6740785,-1.6525419,-0.49296117,0.64906466,-0.5794,0
0.6834166,-4.9369707,0.98052621,0.069450796,-0.95107478,0.30105346,0
-3.7597656,2.062218,-2.5223279,-0.65858638,0.37974739,-0.64965844,0
0.82238507,-4.9704742,-3.9287739,0.63091409,-0.19188732,-0.7517491,0
0.33895016,1.9130492,5.6717663,-0.63091409,0.19188732,0.7517491,0
2.5675964,1.6137893,4.561842,0.77215457,0.24978793,0.58428007,0
-2.8153479,1.9940994,3.215157,-0.63091409,0.19188732,0.7517491,0
-2.9105659,3.256989,-2.5061636,-0.5038268,0.63550436,-0.58505785,0
2.7912679,4.2212915,0.33050299,0.45630664,0.87540936,0.15950847,0
3.0393691,-3.1648839,-2.7230844,0.63091409,-0.19188732,-0.7517491,0
0.69348383,-2.9624238,-4.5748215,0.63091409,-0.19188732,-0.7517491,0
-5.7309747,3.3389213,0.43058538,-0.63091409,0.19188732,0.7517491,0
2.7859724,1.2008805,4.4028773,0.77546865,0.18644565,0.60322988,0
-0.41301918,-0.041195869,5.7436991,-0.63091409,0.19188732,0.7517491,0
-4.5436058,-1.6574113,2.618716,-0.63091409,0.19188732,0.7517491,0
4.5822277,-3.9401436,0.25350377,0.48156065,-0.66284877,0.57335043,0
-0.57060432,0.6830759,-6.514183,0.63091409,-0.19188732,-0.7517491,0
2.1212146,-4.626349,1.1700041,0.23854172,-0.87402356,0.42329729,0
-4.7308464,4.1041603,-0.12051049,-0.48028338,0.66436577,-0.57266569,0
2.0459008,4.5040956,-0.10257244,0.35228655,0.93414158,0.057216763,0
2.7442141,-2.224844,3.6616807,0.61945778,-0.45880687,0.63699955,0
-0.82232475,-2.4621906,-6.100914,0.63091409,-0.19188732,-0.7517491,0
-3.5315945,-0.85846639,3.1285598,-0.63091409,0.19188732,0.7517491,0
-4.8463144,1.94266,1.5074416,-0.63091409,0.19188732,0.7517491,0
5.0402865,3.4739506,-1.8591046,0.49757665,0.84350258,0.2022891,0
-3.7604206,-0.36368656,-3.2791941,-0.77206892,-0.05970335,-0.63272822,0
-4.1676116,0.59313965,2.4451163,-0.63091409,0.19188732,0.7517491,0
0.17712975,3.7803183,-4.1673999,-0.28218865,0.84581697,-0.45272866,0
2.1722419,-5.166522,-2.7127371,0.63091409,-0.19188732,-0.7517491,0
-1.2480366,4.8309979,3.6965995,-0.63091409,0.19188732,0.7517491,0
-2.9855239,2.3465636,2.9132328,-0.63091409,0.19188732,0.7517491,0
0.87632227,0.13700438,6.5953655,-0.63091409,0.19188732,0.7517491,0
2.7566233,2.1623588,3.9407959,0.75423485,0.37882483,0.53630358,0
1.6461344,2.678447,-5.4161601,0.63091409,-0.19188732,-0.7517491,0
1.5713624,4.3318415,2.7191238,0.55484378,0.78885609,0.26430011,0
6.1911349,-0.80623579,-0.50766516,0.63091409,-0.19188732,-0.7517491,0
-4.9156976,-3.1031232,2.7626023,-0.63091409,0.19188732,0.7517491,0
3.685143,4.1689253,-3.8721523,0.17088091,0.97950715,-0.10660976,0
-6.3611603,0.88532037,-0.28170013,-0.76189244,0.029747218,-0.64702022,0
-6.6672583,-0.032378197,0.44278622,-0.63091409,0.19188732,0.7517491,0
-5.4908552,2.8857343,0.63040674,-0.63091409,0.19188732,0.7517491,0
1.2310874,-4.2355223,-3.8371749,0.63091409,-0.19188732,-0.7517491,0
0.7466135,-2.6646647,-4.547761,0.63091409,-0.19188732,-0.7517491,0
-3.3842232,2.2194901,-3.0750151,-0.63643366,0.42616186,-0.64291406,0
-1.78337,-0.5478282,4.6285739,-0.63091409,0.19188732,0.7517491,0
-0.25758076,-1.4402466,-5.7109241,0.63091409,-0.19188732,-0.7517491,0
1.4712672,-1.7807796,-4.3243198,0.63091409,-0.19188732,-0.7517491,0
1.0103049,0.35051584,6.6717892,-0.63091409,0.19188732,0.7517491,0
-6.1796198,2.2069848,-0.15126586,-0.69823903,0.28199056,-0.6579845,0
-0.39566159,-2.8813872,-5.6859426,0.63091409,-0.19188732,-0.7517491,0
-1.0104043,-4.3895726,3.0602031,0.074567199,-0.94945025,0.30493283,0
3.1431875,3.3669345,1.6848626,0.62462866,0.70035565,0.34545791,0
-2.9530714,-0.77475882,3.7273483,-0.63091409,0.19188732,0.7517491,0
3.42518,1.6264281,3.3917906,0.76587379,0.30893645,0.56391102,0
-3.289959,2.0449591,-3.2837682,-0.64415252,0.41052043,-0.64539963,0
-5.584146,-2.8934646,1.5350046,-0.60706276,-0.72546571,-0.32430613,0
0.64182734,-4.2220087,-4.2373238,0.63091409,-0.19188732,-0.7517491,0
3.1514895,-3.1267023,2.5418844,0.53160131,-0.59882575,0.59900552,0
-5.9660754,2.9030659,0.12256598,-0.64543909,0.4078604,-0.64580047,0
-2.0060401,5.4122682,2.8631594,-0.63091409,0.19188732,0.7517491,0
-1.2541023,2.4663279,4.2612987,-0.63091409,0.19188732,0.7517491,0
-0.35775614,-1.1652856,6.1014376,-0.63091409,0.19188732,0.7517491,0
2.3303494,-1.6042905,-3.7375956,0.63091409,-0.19188732,-0.7517491,0
0.86526585,3.3801808,-5.1171875,-0.29451692,0.83717358,-0.46086907,0
-3.3125391,-2.591157,3.7459085,-0.63091409,0.19188732,0.7517491,0
-2.4233491,-4.3186684,2.6925144,-0.13806498,-0.9812355,0.13459212,0
-2.0071225,5.8247042,2.6497402,0.15607345,0.98051512,-0.1192944,0
-5.3184552,-1.6275911,2.0281062,-0.63091409,0.19188732,0.7517491,0
1.6133103,-2.6906838,4.3066664,0.53006697,-0.60093212,0.5982554,0
-0.34859443,-2.3007722,-5.5662079,0.63091409,-0.19188732,-0.7517491,0
-1.4484819,1.6533561,4.3778286,-0.63091409,0.19188732,0.7517491,0
-1.0378897,3.9557605,-2.9907184,-0.30038297,0.8329528,-0.46471483,0
-6.3873053,-1.2945229,0.94297838,-0.63091409,0.19188732,0.7517491,0
2.4418931,-3.0999603,-3.1319733,0.63091409,-0.19188732,-0.7517491,0
3.3864069,-0.85779095,3.6433091,0.72702676,-0.19207922,0.65919471,0
-3.6423237,2.6035328,2.2218981,-0.63091409,0.19188732,0.7517491,0
1.3909593,0.8319788,5.9628329,0.76869059,0.023248583,0.63919818,0
-5.7218127,0.5037818,-1.0351453,-0.76740849,-0.01177749,-0.64105022,0
1.3265969,-5.4346237,-2.0791206,-0.1726408,-0.97936213,0.10509586,0
-3.1726592,-3.6318533,-1.6605024,-0.6169011,-0.71167481,-0.33608317,0
-2.9002728,4.3833156,-0.86883563,-0.33660394,0.80529559,-0.48805401,0
1.0027714,-2.9417584,4.3340883,0.4667002,-0.68016726,0.56529927,0
3.3947401,2.6282487,-3.9195704,0.63091409,-0.19188732,-0.7517491,0
-4.774426,2.1806135,1.2975879,-0.63091409,0.19188732,0.7517491,0
5.1370726,-4.0809712,-0.53632331,0.63091409,-0.19188732,-0.7517491,0
5.7759991,-2.865231,-0.38375497,0.63091409,-0.19188732,-0.7517491,0
0.77788669,4.954236,2.2171006,0.42062169,0.89877796,0.12359452,0
5.882761,1.9843873,-1.5987496,0.63091409,-0.19188732,-0.7517491,0
-0.53890133,-1.1783462,-6.0374627,0.63091409,-0.19188732,-0.7517491,0
-2.5358429,-2.3417721,4.5198026,-0.63091409,0.19188732,0.7517491,0
4.5738192,3.688138,-2.1025229,0.4449122,0.8832708,0.14793885,0
-4.4508324,3.1631021,-1.1066581,-0.56882727,0.54452133,-0.61638629,0
-4.4382057,0.19577742,2.1377957,-0.63091409,0.19188732,0.7517491,0
3.9273467,-1.6262176,2.828016,0.69038755,-0.30323911,0.65681887,0
-0.57604599,-2.9113421,-5.6541314,0.63091409,-0.19188732,-0.7517491,0
-0.81528717,5.4116893,1.7092896,0.17942691,0.97875249,-0.099244833,0
-1.0024023,-1.008162,5.4992623,-0.63091409,0.19188732,0.7517491,0
3.3948784,3.9411528,-4.2456541,0.10214096,0.98104209,-0.16469246,0
0.65318012,3.5105624,5.7483478,-0.63091409,0.19188732,0.7517491,0
-0.31080294,-3.7134089,-5.2416821,0.63091409,-0.19188732,-0.7517491,0
5.3903632,3.223182,-2.0241551,0.53199208,0.81227773,0.23914301,0
-3.5433822,-0.38389206,-3.6743238,-0.77104115,-0.047329754,-0.63502407,0
1.5126495,-0.16351557,5.9675364,0.73510742,-0.16202444,0.65830481,0
-4.6702914,-3.1632345,0.45380068,-0.6067673,-0.72586972,-0.32395506,0
-4.971221,1.2739569,-1.7394531,-0.72532201,0.19808224,-0.65929621,0
-3.1633887,-0.92471695,3.6597853,-0.63091409,0.19188732,0.7517491,0
-0.8604387,-4.9770355,-0.28628778,-0.24449626,-0.96873689,0.042078137,0
-2.7307048,-0.22924614,3.7388065,-0.63091409,0.19188732,0.7517491,0
-0.076756954,0.73405504,-6.2678671,0.63091409,-0.19188732,-0.7517491,0
-2.4570937,5.7645369,2.434916,-0.63091409,0.19188732,0.7517491,0
3.7562063,0.23180938,-2.9196949,0.63091409,-0.19188732,-0.7517491,0
-0.93728685,-1.0145574,5.4184361,-0.63091409,0.19188732,0.7517491,0
-0.051995877,5.2436814,2.7028306,0.37305719,0.92460072,0.077084184,0
2.6837583,3.0099893,3.3839962,0.70225674,0.55314142,0.44818527,0
5.7939248,-1.8782797,-0.59849834,0.63091409,-0.19188732,-0.7517491,0
5.4897981,2.8252933,-1.2366309,0.6167655,0.71186966,0.33591974,0
3.4477177,-2.3194768,2.9156535,0.62507594,-0.44825447,0.63902116,0
-0.76988029,0.92813063,-6.4959531,-0.67120898,0.35098121,-0.65290934,0
0.071009159,-0.12231684,5.983326,-0.63091409,0.19188732,0.7517491,0
-3.8728404,-2.6642909,-1.8645892,-0.6980055,-0.56340635,-0.44199717,0
-5.6570797,-0.75118595,-0.67784023,-0.77208066,-0.25070995,-0.58398283,0
2.1188209,4.1743093,1.5732055,0.51602459,0.82733274,0.22189927,0
-5.4359875,3.4101543,0.59176564,-0.63091409,0.19188732,0.7517491,0
-1.0501966,3.5752933,4.1026382,-0.63091409,0.19188732,0.7517491,0
-3.852735,-3.5600233,-0.019268513,-0.55586916,-0.78774959,-0.26544297,0
1.7573836,-2.8372192,3.9026904,0.50933212,-0.62847018,0.58788264,0
3.2952816,1.2585058,3.6025324,0.77408046,0.2211374,0.59320968,0
1.1248515,-4.6772575,1.3150408,0.15294695,-0.91915804,0.36298165,0
-3.5828261,-3.2639718,-1.2873731,-0.62838656,-0.69468647,-0.35005879,0
0.50230908,-1.2393317,-5.3510828,0.63091409,-0.19188732,-0.7517491,0
-5.0679927,3.9388986,0.64837778,-0.63091409,0.19188732,0.7517491,0
4.9201498,-3.3104126,-1.0678673,0.63091409,-0.19188732,-0.7517491,0
-0.66821098,1.6342554,4.9485068,-0.63091409,0.19188732,0.7517491,0
-0.63252449,-0.11501408,-6.5888281,0.63091409,-0.19188732,-0.7517491,0
3.7669811,-1.3451955,2.9180758,0.70470858,-0.26358706,0.65871668,0
-1.7487006,-3.1449964,-4.4049997,-0.71279562,-0.52598691,-0.46396154,0
-0.13632607,-5.0170627,0.47793102,-0.082016289,-0.97999889,0.18131602,0
3.0372767,-0.063287973,-3.4207649,0.63091409,-0.19188732,-0.7517491,0
0.99172497,2.8149209,-5.9373531,0.63091409,-0.19188732,-0.7517491,0
-3.4685109,3.1754689,-2.0611973,-0.54183495,0.58452314,-0.60394347,0
2.6136327,-1.789269,-3.4575067,0.63091409,-0.19188732,-0.7517491,0
-1.9620636,0.04428339,4.4533391,-0.63091409,0.19188732,0.7517491,0
1.5926993,4.7128358,0.072778225,0.32894629,0.94369286,0.035190225,0
-1.0980492,2.656481,-4.7526188,-0.51651305,0.61912358,-0.59152365,0
-1.1179688,-3.1182904,-5.544776,-0.7357769,-0.45536202,-0.50127614,0
-0.41344213,-1.0408545,-6.1265969,0.63091409,-0.19188732,-0.7517491,0
-4.6928568,4.2528787,1.0713885,-0.63091409,0.19188732,0.7517491,0
0.89961338,2.0804687,6.2692451,-0.63091409,0.19188732,0.7517491,0
5.1543059,0.54631209,-1.9131298,0.63091409,-0.19188732,-0.7517491,0
-0.41069746,-3.9388158,3.9320006,0.22338396,-0.88297534,0.41286099,0
-0.31367064,-5.2529168,-0.98605824,-0.2536152,-0.96671081,0.033907771,0
-0.74064612,-4.7844114,1.1444659,-0.10961527,-0.98125941,0.15847498,0
-2.226934,-2.3951068,4.7849116,-0.63091409,0.19188732,0.7517491,0
4.4340324,-2.7079225,-1.5179912,0.63091409,-0.19188732,-0.7517491,0
3.3913682,-5.2175183,-0.99866676,0.20100278,-0.89542514,0.39725524,0
0.075255871,0.37564993,-5.985744,0.63091409,-0.19188732,-0.7517491,0
2.5686305,-2.0926027,3.8228207,0.63135326,-0.43617421,0.64120597,0
0.17081499,-0.019034863,-5.9034958,0.63091409,-0.19188732,-0.7517491,0
-4.7326908,3.7852182,1.0468519,-0.63091409,0.19188732,0.7517491,0
-4.0623555,5.2288318,1.3600723,-0.63091409,0.19188732,0.7517491,0
-2.8920295,5.5773077,2.1221948,-0.63091409,0.19188732,0.7517491,0
4.8187995,-3.067054,1.0717713,0.59705424,-0.49867201,0.62837303,0
0.91118884,-1.6775732,-4.6849575,0.63091409,-0.19188732,-0.7517491,0
-5.2794986,1.5860218,1.1560378,-0.63091409,0.19188732,0.7517491,0
5.7301579,-2.8974807,-0.43543959,0.63091409,-0.19188732,-0.7517491,0
-6.227169,1.559711,0.33534932,-0.63091409,0.19188732,0.7517491,0
2.8443313,-5.5634656,-2.0808141,0.63091409,-0.19188732,-0.7517491,0
3.0928588,4.320302,-2.4226751,0.24134007,0.96940148,-0.044896603,0
-2.0185204,5.6138983,1.6380477,0.052773297,0.97730243,-0.20517021,0
-5.0623293,1.7969873,1.3673939,-0.63091409,0.19188732,0.7517491,0
-0.23410559,2.5500853,-5.6366897,-0.49555266,0.64586884,-0.58075917,0
-2.5909956,3.9258692,-2.0492349,-0.40686107,0.74318779,-0.53116482,0
-5.2329855,-1.2852098,-1.184566,-0.76096797,-0.3419311,-0.55137175,0
0.57959938,-0.57666826,-5.2561307,0.63091409,-0.19188732,-0.7517491,0
-5.4732652,-1.1904836,-0.76551437,-0.76139605,-0.33930719,-0.55240077,0
-2.1112261,-2.7809441,4.8429508,-0.63091409,0.19188732,0.7517491,0
4.1211443,-5.0312953,-0.87476623,0.30244565,-0.83145189,0.46606287,0
-5.8805475,-2.0645859,1.5845604,-0.63091409,0.19188732,0.7517491,0
-3.7509582,-1.2488108,3.1771729,-0.63091409,0.19188732,0.7517491,0
-5.7433701,3.4528618,0.28494489,-0.63091409,0.19188732,0.7517491,0
-1.5894951,5.3008432,3.3732595,-0.63091409,0.19188732,0.7517491,0
-4.141284,1.9932423,-2.2216241,-0.66617513,0.36267909,-0.65167069,0
0.25714409,5.2238359,1.7849908,0.32328758,0.94582844,0.029896021,0
1.7867202,3.6481335,4.0015607,0.67533851,0.61279404,0.41036725,0
5.7487297,-2.612747,-0.50496006,0.63091409,-0.19188732,-0.7517491,0
2.419183,-2.5321472,-3.3402147,0.63091409,-0.19188732,-0.7517491,0
5.0459719,3.4189756,-1.6275406,0.52390337,0.820032,0.23037505,0
4.1337528,-1.4468312,-2.2697682,0.63091409,-0.19188732,-0.7517491,0
-0.96985054,-0.13201761,-6.601449,-0.74267757,0.13093793,-0.65672326,0
-0.69079328,4.9960551,-0.83440542,-0.023082614,0.96386147,-0.26540226,0
2.5619738,3.6455331,2.2274871,0.61605597,0.71288621,0.33506477,0
-3.0762978,-0.84247661,-3.9645987,-0.77533656,-0.12059838,-0.61992693,0
2.7731946,2.981528,3.2027118,0.70859128,0.53713322,0.45758784,0
-6.3311262,-0.017392278,0.56862926,-0.63091409,0.19188732,0.7517491,0
3.7795033,4.0101943,-1.1370268,0.42922083,0.89347768,0.13216436,0
-4.1089268,-3.5337863,0.18089771,-0.57029796,-0.77163804,-0.28166509,0
4.225296,3.136976,-3.345634,0.63091409,-0.19188732,-0.7517491,0
-4.392519,-3.8509407,3.3596044,-0.63091409,0.19188732,0.7517491,0
4.7100401,-2.3479435,1.6588342,0.65441799,-0.38885155,0.64848393,0
1.6880959,-1.6416817,-4.2280321,0.63091409,-0.19188732,-0.7517491,0
-3.0880585,2.8170025,2.5780761,-0.63091409,0.19188732,0.7517491,0
0.57735002,5.1493969,0.36826563,0.22089615,0.97325796,-0.063038826,0
1.5395832,4.2284307,3.0823312,0.58729982,0.7512635,0.30113471,0
-3.9714987,-3.3273711,-0.70995569,-0.61453688,-0.71505052,-0.33323729,0
-0.17459083,3.3480778,4.8817043,-0.63091409,0.19188732,0.7517491,0
-5.1661997,-2.8380609,2.3048401,-0.63091409,0.19188732,0.7517491,0
-2.2709174,-2.5756676,4.739233,-0.63091409,0.19188732,0.7517491,0
2.6401546,-5.6442599,-1.9115841,-0.015274942,-0.97181702,0.23524094,0
1.6414851,-5.3738384,-3.2950809,0.63091409,-0.19188732,-0.7517491,0
-4.4604301,3.1602275,1.3979878,-0.63091409,0.19188732,0.7517491,0
4.0987749,-3.2775888,-1.8315117,0.63091409,-0.19188732,-0.7517491,0
5.7473402,2.1086483,-0.25193739,0.70420313,0.54831696,0.45105016,0
-5.094615,1.59174,1.318958,-0.63091409,0.19188732,0.7517491,0
-1.3901267,-2.2043309,5.4812288,-0.63091409,0.19188732,0.7517491,0
-2.6712065,-4.0703006,-1.2606673,-0.52937376,-0.81481707,-0.23629725,0
-2.1775174,5.1532154,0.2080493,-0.1177696,0.93401897,-0.33725208,0
-3.061167,-4.0365772,0.018634796,-0.46599016,-0.86841822,-0.16942,0
1.602915,4.5896411,-1.3364716,0.18025285,0.97867274,-0.098531365,0
-5.2956166,-1.6271629,2.0694671,-0.63091409,0.19188732,0.7517491,0
-6.2430558,-1.8567142,0.78949356,-0.71271676,-0.52620029,-0.46384078,0
-0.7160368,-4.4887671,2.8232448,0.083333194,-0.94656742,0.31155384,0
0.63745677,-5.335804,-3.5165837,-0.3879579,-0.91712427,-0.091498137,0
0.59890461,0.61369801,6.2263112,-0.63091409,0.19188732,0.7517491,0
-3.8702943,-0.86173809,-2.9770834,-0.77584463,-0.16045699,-0.61017931,0
3.2798018,-4.6890001,-2.0079944,0.63091409,-0.19188732,-0.7517491,0
2.8730941,4.0418644,0.6821394,0.50208098,0.83967012,0.2070477,0
-0.64767766,-2.1194382,-6.0950365,0.63091409,-0.19188732,-0.7517491,0
-1.5548446,0.53755283,4.519515,-0.63091409,0.19188732,0.7517491,0
3.6524234,-0.50971413,3.2862558,0.75028348,-0.095802516,0.65413809,0
0.025221348,4.8660421,4.7112417,0.56339961,0.77946943,0.27387655,0
6.254755,1.1664068,-1.1218648,0.63091409,-0.19188732,-0.7517491,0
-4.1701531,1.6975145,-2.4971738,-0.69888353,0.28019524,-0.65806723,0
2.9855528,2.647378,3.3011172,0.72771806,0.48233318,0.4876281,0
0.017519951,3.7191982,-4.0048876,-0.30382735,0.83044153,-0.46696448,0
-0.80013561,-3.7397146,-5.2215433,-0.68734366,-0.58766681,-0.42685664,0
-3.4939744,-1.9827253,-3.018378,-0.75104362,-0.39411718,-0.52972186,0
0.083597183,0.43885708,-6.1592374,0.63091409,-0.19188732,-0.7517491,0
-0.78331935,3.0103698,4.4392004,-0.63091409,0.19188732,0.7517491,0
-1.0385363,-4.5454264,-3.0119965,-0.5254494,-0.81857055,-0.23204577,0
0.36227059,-3.0031705,-4.8999619,0.63091409,-0.19188732,-0.7517491,0
5.5533667,-1.7286679,-0.82318568,0.63091409,-0.19188732,-0.7517491,0
1.9493383,4.5358562,-1.8079128,0.18140176,0.97855997,-0.097538233,0
-1.9514765,1.0558643,3.9756651,-0.63091409,0.19188732,0.7517491,0
4.5955925,-0.5591327,2.3235099,0.75676972,-0.061374843,0.65079391,0
-2.4283082,-3.8612304,4.9119539,-0.63091409,0.19188732,0.7517491,0
-4.69522,2.8791008,-1.1173459,-0.61536187,0.46635246,-0.63548809,0
-6.0559278,-0.13654566,0.92764235,-0.63091409,0.19188732,0.7517491,0
3.2152493,1.0770268,-3.6024182,0.63091409,-0.19188732,-0.7517491,0
-4.7806368,-2.9200132,0.05166769,-0.64207697,-0.67304945,-0.36707151,0
2.6780438,4.3881774,-2.3298907,0.20463729,0.9757787,-0.077327609,0
-2.1384501,-2.5330682,4.796833,-0.63091409,0.19188732,0.7517491,0
-2.3122478,3.8315628,3.1078386,-0.63091409,0.19188732,0.7517491,0
-6.1038647,2.179945,0.36494946,-0.63091409,0.19188732,0.7517491,0
-4.0522132,-3.7800674,3.5617962,-0.63091409,0.19188732,0.7517491,0
0.31641489,4.8758144,3.3714151,0.49491972,0.84572917,0.1994909,0
-6.0585299,0.64922476,-0.64777517,-0.7647891,0.0092312098,-0.64421445,0
-2.2687807,5.086175,2.7369785,-0.63091409,0.19188732,0.7517491,0
-6.6959853,-0.56327116,0.44173288,-0.76814842,-0.29069969,-0.5704751,0
0.16786349,4.7485876,4.1003752,0.52326047,0.82063699,0.22968113,0
-4.5511246,-3.6744826,1.703629,-0.47951755,-0.85815501,-0.18339276,0
5.0778103,-1.9135349,-1.1684687,0.63091409,-0.19188732,-0.7517491,0
-5.5382538,0.19049954,1.1621194,-0.63091409,0.19188732,0.7517491,0
-3.9433775,-0.77507472,-3.1327326,-0.7758323,-0.14899194,-0.61309528,0
-3.3980894,0.97903275,2.8593097,-0.63091409,0.19188732,0.7517491,0
-4.0155029,-2.9772396,-0.97667933,-0.65828264,-0.64520609,-0.38777959,0
-1.237169,3.4298558,3.9883831,-0.63091409,0.19188732,0.7517491,0
-3.9872546,2.679822,1.9765983,-0.63091409,0.19188732,0.7517491,0
-1.7344434,4.7662868,3.3221889,-0.63091409,0.19188732,0.7517491,0
0.74355078,0.61090469,-5.619081,0.63091409,-0.19188732,-0.7517491,0
0.77196264,3.3473446,-5.3425016,-0.33803779,0.80414271,-0.48896319,0
2.319941,-5.646811,-2.6052251,0.63091409,-0.19188732,-0.7517491,0
-3.598237,-0.030659914,3.1065149,-0.63091409,0.19188732,0.7517491,0
-2.9828,-3.723103,4.4527206,-0.63091409,0.19188732,0.7517491,0
2.3852928,-1.1374788,4.3746428,0.69468772,-0.29174024,0.65749276,0
-1.794783,-4.6956725,0.61203957,-0.26244178,-0.96459854,0.025960684,0
-5.2527423,-3.1583986,2.2517743,-0.63091409,0.19188732,0.7517491,0
-3.2806728,-0.80044389,3.4870334,-0.63091409,0.19188732,0.7517491,0
-2.4164555,5.7065425,2.4378467,0.086852849,0.98031044,-0.17733634,0
-4.9248042,-3.1945109,2.7959423,-0.63091409,0.19188732,0.7517491,0
3.5600076,-4.4785204,-1.8343233,0.63091409,-0.19188732,-0.7517491,0
-0.15564251,-5.0666366,-2.5913088,-0.3947247,-0.91354847,-0.098089933,0
5.0726395,-1.7402331,-1.2234633,0.63091409,-0.19188732,-0.7517491,0
3.8130207,1.4269292,-3.2778769,0.63091409,-0.19188732,-0.7517491,0
-0.1902473,1.8116665,5.3795252,-0.63091409,0.19188732,0.7517491,0
-4.6289868,4.7500043,0.75518566,-0.37709951,0.7709403,-0.51327103,0
-3.4244251,-1.0588269,3.3536875,-0.63091409,0.19188732,0.7517491,0
1.7665677,1.8154888,-4.8830013,0.63091409,-0.19188732,-0.7517491,0
1.2482572,3.742451,-4.603879,-0.21393198,0.88834375,-0.40629864,0
0.40795851,2.7395411,-5.9618697,-0.44809616,0.70086962,-0.55497003,0
-1.2059598,-4.5483685,2.2331243,-0.050874472,-0.97707933,0.20670688,0
0.48449063,1.8294811,5.8506942,-0.63091409,0.19188732,0.7517491,0
-1.8806098,-4.6401482,1.0943041,-0.24434495,-0.96876919,0.042213321,0
-6.628366,1.0207934,0.058411598,-0.63091409,0.19188732,0.7517491,0
3.343621,3.5862343,-4.0637102,0.63091409,-0.19188732,-0.7517491,0
-0.17847133,-4.2975035,-5.076354,0.63091409,-0.19188732,-0.7517491,0
-0.664886,3.460351,-4.2127981,-0.39464849,0.75484496,-0.52389091,0
-1.3001742,-1.6674566,5.3138843,-0.63091409,0.19188732,0.7517491,0
6.3095613,1.6733867,-1.1061072,0.63091409,-0.19188732,-0.7517491,0
0.43810105,2.9156661,5.7081141,-0.63091409,0.19188732,0.7517491,0
-5.0626316,-0.73794878,-1.5788054,-0.77433491,-0.21631312,-0.59465474,0
-0.090856813,5.1890774,2.7962925,0.38552496,0.91838187,0.089135289,0
-1.6222906,3.0283499,-3.9112978,-0.501679,0.63821864,-0.58394802,0
0.80213594,1.4060354,-5.5736055,0.63091409,-0.19188732,-0.7517491,0
-5.2420959,-3.1707489,1.7005243,-0.55125666,-0.79268789,-0.26031148,0
0.49300051,2.4687614,5.6828885,-0.63091409,0.19188732,0.7517491,0
-2.8543589,-0.02560997,3.6492474,-0.63091409,0.19188732,0.7517491,0
-6.5468311,0.10925663,0.26043558,-0.77570361,-0.13701934,-0.61604345,0
-1.8247161,-2.0932515,4.961411,-0.63091409,0.19188732,0.7517491,0
3.5646806,1.7509912,3.2228305,0.76322079,0.32763183,0.55691242,0
-2.9156394,-1.4990666,3.8793135,-0.63091409,0.19188732,0.7517491,0
-2.2163465,-4.4239793,2.4111495,-0.1489574,-0.98086572,0.12535614,0
2.9439986,-0.99778199,-3.157383,0.63091409,-0.19188732,-0.7517491,0
5.0918326,-3.2691901,0.35457754,0.58036679,-0.52631468,0.62142372,0
3.5079603,3.004245,-3.8083191,0.63091409,-0.19188732,-0.7517491,0
-1.825635,-2.6699681,5.2002101,-0.63091409,0.19188732,0.7517491,0
2.4284322,1.3886328,4.7043028,0.77495074,0.20256847,0.5986799,0
-0.12763667,5.083446,0.24902391,0.130088,0.98137909,-0.14132357,0
0.74459696,1.0891132,-5.6638069,0.63091409,-0.19188732,-0.7517491,0
-5.7047205,1.9602525,0.78992128,-0.63091409,0.19188732,0.7517491,0
0.27366018,4.0497508,-3.6131396,-0.21156669,0.88966173,-0.40464985,0
-0.96928215,-2.6364794,-6.0037498,0.63091409,-0.19188732,-0.7517491,0
-2.1891191,-4.1348829,-2.0900512,-0.5617826,-0.78127062,-0.2720598,0
4.3582964,-1.8578368,-1.7467942,0.63091409,-0.19188732,-0.7517491,0
5.0789061,1.6922233,0.96715117,0.74262136,0.42989528,0.5135209,0
-4.8308954,-3.2039857,1.0001726,-0.57349372,-0.76792723,-0.28529441,0
-1.3286326,5.457953,1.1438076,0.069334269,0.97900057,-0.19170475,0
4.8960819,3.6286511,-2.2996697,0.461052,0.87201953,0.16435635,0
-3.0652971,-4.2424974,2.0307388,-0.26932448,-0.96284723,0.019737482,0
-4.0823689,-1.678499,3.0528667,-0.63091409,0.19188732,0.7517491,0
0.035839796,-5.0541687,0.88206482,-0.02896142,-0.97408223,0.22433257,0
-3.2078235,-4.2887082,2.7204041,-0.23753196,-0.97017866,0.048290968,0
3.2059658,-5.1939726,-0.93634498,0.16634864,-0.9129433,0.37264287,0
2.0490232,-5.4989076,-2.7408197,0.63091409,-0.19188732,-0.7517491,0
-2.4080122,-1.7610428,-4.61164,-0.76877409,-0.28520456,-0.57240278,0
1.1587591,-4.7118416,-3.7427645,0.63091409,-0.19188732,-0.7517491,0
3.6896901,-3.0681446,-2.0716825,0.63091409,-0.19188732,-0.7517491,0
-3.7524164,-2.2527022,-2.5407472,-0.7397151,-0.44104072,-0.50823694,0
2.6954169,-1.9852662,-3.3103433,0.63091409,-0.19188732,-0.7517491,0
0.019646764,-5.3168449,-1.9475374,-0.31082886,-0.95028973,-0.01830101,0
2.9438527,3.6353288,2.0384769,0.62015903,0.70695698,0.34002173,0
-2.6610751,1.8127096,3.2910933,-0.63091409,0.19188732,0.7517491,0
-4.5830698,-1.7498223,-1.6158719,-0.74617958,-0.41547683,-0.52018744,0
-6.2747145,-2.2037146,1.3780828,-0.63091409,0.19188732,0.7517491,0
-1.9072527,0.21409416,4.2100964,-0.63091409,0.19188732,0.7517491,0
0.89898872,1.5742149,-5.6682987,0.63091409,-0.19188732,-0.7517491,0
-3.1476841,-1.7893507,3.9302242,-0.63091409,0.19188732,0.7517491,0
-0.92245007,4.6950278,-1.4579713,-0.1218785,0.93239045,-0.34028476,0
-0.73219872,-2.3808451,6.0643477,-0.63091409,0.19188732,0.7517491,0
-3.0854585,4.6268139,2.2025759,-0.63091409,0.19188732,0.7517491,0
-6.1431084,-0.54873788,0.96745634,-0.63091409,0.19188732,0.7517491,0
-5.1731043,-0.63923621,1.7155313,-0.63091409,0.19188732,0.7517491,0
-0.34071517,3.9477608,4.6144862,-0.63091409,0.19188732,0.7517491,0
-5.6536369,1.8029037,0.85084033,-0.63091409,0.19188732,0.7517491,0
2.1181903,-1.6856401,-3.656424,0.63091409,-0.19188732,-0.7517491,0
-0.92789268,-1.0531974,-6.5261316,0.63091409,-0.19188732,-0.7517491,0
-1.995939,-4.5942683,0.63484335,-0.30835724,-0.95113593,-0.016010642,0
1.4037874,-5.5565457,-2.6665483,-0.23087361,-0.9714725,0.054209352,0
-0.39500237,-4.5195265,-4.1995249,-0.56272072,-0.78022724,-0.27311337,0
0.79600191,1.8093457,-5.7802405,0.63091409,-0.19188732,-0.7517491,0
0.74345016,0.52091789,6.3866625,-0.63091409,0.19188732,0.7517491,0
-6.2380114,0.17683315,0.62512398,-0.63091409,0.19188732,0.7517491,0
3.1139746,-4.7200012,-2.1578228,0.63091409,-0.19188732,-0.7517491,0
3.3755641,-5.4202843,-1.3436408,0.14013922,-0.92481065,0.35367543,0
-5.3193054,-0.16978526,1.4982562,-0.63091409,0.19188732,0.7517491,0
3.3731093,0.0073981285,-3.2556372,0.63091409,-0.19188732,-0.7517491,0
5.1318374,-0.23852646,1.6598141,0.7688694,0.024927676,0.63891959,0
-0.15878582,-1.1423078,-5.9244666,0.63091409,-0.19188732,-0.7517491,0
4.8893957,-3.1401496,-0.97110045,0.63091409,-0.19188732,-0.7517491,0
-0.56054258,-2.3657045,6.0941944,-0.63091409,0.19188732,0.7517491,0
-0.14059401,2.8743963,-5.153038,-0.43805099,0.71161765,-0.54928297,0
-0.71026206,4.6848059,-1.3775084,-0.11528277,0.934991,-0.33541298,0
-5.4476299,0.33250237,1.3824687,-0.63091409,0.19188732,0.7517491,0
2.2240005,4.4779792,-2.532136,0.12218377,0.98141587,-0.14796656,0
5.7387576,-1.1631351,0.86701345,0.75144506,-0.089991659,0.65362972,0
-5.7141471,-1.3137815,-0.24851894,-0.75264609,-0.3865819,-0.53299022,0
-2.6020634,-2.7492232,-3.7792852,-0.73463738,-0.45935488,-0.4993006,0
5.7630835,-0.063741684,-1.1659255,0.63091409,-0.19188732,-0.7517491,0
-4.1630669,-2.3941998,-1.8326516,-0.72654784,-0.48602509,-0.48570359,0
-5.6508837,-3.0996547,1.8614264,-0.57189626,-0.76978862,-0.28347862,0
1.2175069,4.531147,-2.6096509,0.011380851,0.97111738,-0.2383306,0
2.1352162,1.559814,5.0089045,0.77508944,0.19885528,0.59974408,0
-1.4746144,4.5100517,-1.69644,-0.23028475,0.87895256,-0.4176257,0
-0.5928545,1.956778,-6.01017,-0.57502162,0.53483576,-0.61911285,0
-4.5404062,-0.21426296,2.3019745,-0.63091409,0.19188732,0.7517491,0
1.0799495,-5.4022727,-0.88764095,-0.076182663,-0.9795723,0.18610305,0
0.64503455,-2.0476928,-5.0023022,0.63091409,-0.19188732,-0.7517491,0
-0.30989194,1.3583241,5.4842129,-0.63091409,0.19188732,0.7517491,0
2.1824386,-5.3050804,-2.9118538,0.63091409,-0.19188732,-0.7517491,0
3.2776458,1.9651036,-3.7860703,0.63091409,-0.19188732,-0.7517491,0
3.1924398,-3.0970283,-2.6060987,0.63091409,-0.19188732,-0.7517491,0
-4.565856,2.5005565,-1.5962079,-0.64795274,0.4026188,-0.64657199,0
-2.7358918,3.8598344,2.6234877,-0.63091409,0.19188732,0.7517491,0
0.78613806,1.9769726,-5.7122855,0.63091409,-0.19188732,-0.7517491,0
6.0079188,-0.83655453,-0.76861572,0.63091409,-0.19188732,-0.7517491,0
-0.39938211,1.2337146,-6.6244898,-0.65160859,0.39488554,-0.64766639,0
1.5704784,2.1745572,-5.2474732,0.63091409,-0.19188732,-0.7517491,0
0.36169672,2.4767451,5.7240582,-0.63091409,0.19188732,0.7517491,0
-2.6256409,2.1997643,-3.6458001,-0.60895014,0.47792602,-0.63306117,0
1.1766071,3.0836859,5.3319798,0.73466372,0.45926332,0.49934608,0
-5.3446097,3.144026,-0.27447879,-0.60003763,0.49355435,-0.62957048,0
0.24625397,-3.2374055,-5.0858812,0.63091409,-0.19188732,-0.7517491,0
1.5156102,4.7394209,-1.8245282,0.11676738,0.98138082,-0.15250337,0
0.67100954,-5.2811594,-0.055150032,-0.050192118,-0.97699773,0.20725864,0
1.4222076,4.612689,1.6361713,0.44856364,0.88079357,0.15163577,0
-5.8937335,-2.5539572,1.8234787,-0.63091409,0.19188732,0.7517491,0
5.1193686,2.0521455,0.6809864,0.72285718,0.49734139,0.47971755,0
-6.105484,-2.3748746,1.4203863,-0.65931213,-0.64334631,-0.38911831,0
1.4335341,-0.96722555,5.6299658,0.69303733,-0.29619214,0.65724397,0
-1.245066,-4.4338431,-2.880981,-0.52660608,-0.81747085,-0.23329723,0
-0.086108685,-1.7572398,-5.5738649,0.63091409,-0.19188732,-0.7517491,0
-5.1284723,4.1330147,0.66714621,-0.63091409,0.19188732,0.7517491,0
3.3237035,0.75651479,3.7787902,0.7754811,0.12597966,0.61867476,0
0.60181332,-4.1170053,-4.5187612,0.63091409,-0.19188732,-0.7517491,0
3.0866265,4.2285495,-0.25749111,0.44880748,0.88062668,0.15188301,0
-2.5946779,1.3911247,-4.2932181,-0.68428403,0.31902716,-0.65572637,0
4.1777048,-4.456533,0.011836112,0.40517342,-0.74482155,0.53016549,0
-4.799087,2.1748855,-1.4699454,-0.66865194,0.35696241,-0.65229017,0
-4.478056,-3.4319041,0.41066742,-0.57137287,-0.77039576,-0.28288448,0
-0.72463918,-4.8367085,-2.9832425,-0.47123784,-0.8645069,-0.17482257,0
-2.2553244,-1.7392898,4.5407734,-0.63091409,0.19188732,0.7517491,0
0.68976712,-1.5143614,-4.9573169,0.63091409,-0.19188732,-0.7517491,0
4.5543423,3.6030824,-1.594471,0.47502708,0.86162752,0.17873764,0
-0.79757023,5.5656977,2.9969845,0.31860012,0.94754565,0.025523543,0
2.7727542,-3.4961905,2.2759175,0.46716326,-0.67963845,0.56555283,0
-0.51064253,0.32755661,-6.5634618,0.63091409,-0.19188732,-0.7517491,0
-5.0212102,-1.7061555,2.2989697,-0.63091409,0.19188732,0.7517491,0
-1.7906375,-3.0171046,5.3130569,-0.63091409,0.19188732,0.7517491,0
3.4259162,-2.5752883,-2.5773473,0.63091409,-0.19188732,-0.7517491,0
-2.585149,-0.24554062,3.9223473,-0.63091409,0.19188732,0.7517491,0
5.2579708,-2.6026864,-1.0385089,0.63091409,-0.19188732,-0.7517491,0
4.888761,-2.6086378,-1.3419418,0.63091409,-0.19188732,-0.7517491,0
2.1737845,0.69369221,5.1541266,0.77197778,0.058543086,0.63294792,0
2.9339747,-2.5086257,3.2349241,0.60552597,-0.48399198,0.63173574,0
6.437746,1.169125,-0.66513062,0.74974865,0.40001374,0.52712995,0
-1.5684013,2.1458316,-4.8299494,-0.59111387,0.50869918,-0.62594694,0
-0.4382391,0.52612782,-6.4477901,0.63091409,-0.19188732,-0.7517491,0
-1.348012,4.2734394,-2.1054566,-0.26384544,0.85811901,-0.44047409,0
6.1820097,2.052423,-1.232573,0.68525046,0.5922038,0.42394179,0
-2.2382989,-0.43567514,-5.1063604,-0.76464915,0.010281265,-0.64436489,0
2.777941,4.3630672,-2.8465028,0.17009574,0.97957003,-0.10728478,0
2.4357193,-2.58709,-3.1496909,0.63091409,-0.19188732,-0.7517491,0
-1.3248591,-0.33600235,-6.1367741,-0.75117928,0.091333568,-0.65374911,0
-3.3036659,-4.2336421,2.6647673,-0.23919082,-0.96984351,0.04681325,0
-0.19193459,2.8791728,-5.0929866,-0.43116593,0.718817,-0.54534227,0
-0.085586071,1.6467233,5.4838028,-0.63091409,0.19188732,0.7517491,0
-5.0734587,-2.9303958,0.60949469,-0.61610013,-0.71282309,-0.33511794,0
-2.3498333,-2.3374403,4.6508937,-0.63091409,0.19188732,0.7517491,0
-2.9458637,5.4775772,1.6529763,-0.063817322,0.9528144,-0.2967695,0
-2.3737526,4.9539948,2.6103575,-0.63091409,0.19188732,0.7517491,0
4.2642074,0.45182383,2.5755148,0.77530795,0.11962941,0.62015027,0
-4.7289591,3.5709238,1.1531432,-0.63091409,0.19188732,0.7517491,0
-2.8491557,-0.20240521,3.5202878,-0.63091409,0.19188732,0.7517491,0
2.2287574,2.965064,-4.7749052,0.63091409,-0.19188732,-0.7517491,0
-3.0348289,1.3211455,3.0736163,-0.63091409,0.19188732,0.7517491,0
-1.8292708,4.0566072,3.3168812,-0.63091409,0.19188732,0.7517491,0
4.0012407,-2.5642602,-2.0659211,0.63091409,-0.19188732,-0.7517491,0
-1.0881002,-0.8841095,5.3066425,-0.63091409,0.19188732,0.7517491,0
5.7015877,-0.59124589,-1.0087476,0.63091409,-0.19188732,-0.7517491,0
5.1483192,2.2695854,-2.2961597,0.63091409,-0.19188732,-0.7517491,0
-2.7316139,1.3308263,-4.1210761,-0.6869576,0.3121852,-0.65622377,0
2.014842,-4.603323,1.1672641,0.23063964,-0.87874341,0.41787019,0
-4.6884437,-2.1776044,-1.1895633,-0.72882026,-0.47880769,-0.48945302,0
3.9552958,-3.813796,-1.5872614,0.63091409,-0.19188732,-0.7517491,0
-3.9945915,4.9170537,0.7297923,-0.30678505,0.82826555,-0.46889138,0
-6.4741349,-1.2576253,0.75831938,-0.63091409,0.19188732,0.7517491,0
0.22667551,1.1038995,5.9513168,-0.63091409,0.19188732,0.7517491,0
3.1350911,0.13041115,-3.306776,0.63091409,-0.19188732,-0.7517491,0
-3.1534891,5.1434436,0.78477669,-0.20100898,0.89542186,-0.39725959,0
4.4348121,-3.4947236,0.78595388,0.52399439,-0.60917342,0.59526265,0
6.5196786,-0.85394669,-0.26254225,0.63091409,-0.19188732,-0.7517491,0
-5.8208065,0.0050508976,1.1681132,-0.63091409,0.19188732,0.7517491,0
4.7162051,0.48252141,1.9490592,0.77584565,0.15191638,0.61236018,0
-6.1935096,1.1926049,0.57408905,-0.63091409,0.19188732,0.7517491,0
3.9892547,2.8375633,1.5842338,0.69373214,0.57337242,0.43586683,0
3.530431,-1.2627457,3.3473637,0.71115446,-0.24433377,0.65921193,0
-0.41634643,4.01863,4.6364384,-0.63091409,0.19188732,0.7517491,0
-2.297739,3.3211477,-2.8574641,-0.48047072,0.66414356,-0.5727663,0
4.7096486,-2.4235535,-1.3749418,0.63091409,-0.19188732,-0.7517491,0
5.3067045,-0.93205166,-1.2885127,0.63091409,-0.19188732,-0.7517491,0
-0.84203148,-2.050097,5.7785034,-0.63091409,0.19188732,0.7517491,0
-1.8302488,-4.2809372,3.2936141,-0.0062255263,-0.97015369,0.2424112,0
-1.2510905,3.1237183,-4.2064099,-0.45613217,0.69205683,-0.55946475,0
-1.7846091,-4.3779464,3.1123364,-0.028275192,-0.97397578,0.22488141,0
5.150497,2.2367301,0.4600482,0.71348512,0.52411604,0.46501774,0
0.37150812,-0.062545776,6.4183617,-0.63091409,0.19188732,0.7517491,0
-6.3039613,-0.31784248,0.74090719,-0.63091409,0.19188732,0.7517491,0
-2.7174697,-0.98096204,4.0305228,-0.63091409,0.19188732,0.7517491,0
-3.2240698,-2.9106655,4.051054,-0.63091409,0.19188732,0.7517491,0
-3.6404634,0.50058031,-3.4573855,-0.74402094,0.12505519,-0.65634906,0
-0.40555477,-2.9138575,-5.4594111,0.63091409,-0.19188732,-0.7517491,0
3.3658941,-4.520689,-1.9273739,0.63091409,-0.19188732,-0.7517491,0
-4.4997721,3.7118835,1.2151506,-0.63091409,0.19188732,0.7517491,0
0.15507364,3.159379,5.2466884,-0.63091409,0.19188732,0.7517491,0
-4.1892247,1.5752525,2.1871138,-0.63091409,0.19188732,0.7517491,0
-1.4814219,4.6674433,-1.2483723,-0.17735034,0.9076097,-0.38051477,0
0.5655632,4.7904692,-1.0061097,0.090569317,0.98052371,-0.1742717,0
4.43822,2.9202747,0.39611912,0.63931638,0.67754263,0.36360788,0
4.2394729,3.5786569,-0.58836985,0.53461987,0.80970025,0.2420063,0
-0.7174902,-1.6280708,-6.0471087,0.63091409,-0.19188732,-0.7517491,0
0.42403388,-4.6210842,1.9909821,0.11704069,-0.93430495,0.33671325,0
4.2057462,-1.5840151,2.5274882,0.6992116,-0.27927846,0.65810859,0
-2.7083373,0.11693192,3.5928342,-0.63091409,0.19188732,0.7517491,0
-3.0351222,-0.64058852,-4.2809601,-0.77352816,-0.080625534,-0.62861252,0
2.0931931,3.7503557,-5.2440248,-0.15124983,0.91992307,-0.36175275,0
5.4111056,2.0553536,-1.8610554,0.63091409,-0.19188732,-0.7517491,0
-1.6083663,5.4734559,3.3556828,-0.63091409,0.19188732,0.7517491,0
6.4584227,0.19017124,-0.22159863,0.77475238,0.20740551,0.59727877,0
-2.7626746,-2.3885033,-3.5767233,-0.74261546,-0.42991853,-0.51351005,0
-0.40527439,2.6377349,-5.3786035,-0.49043012,0.65216351,-0.57806671,0
-1.4670458,-4.6596441,-0.93917608,-0.37719095,-0.92258048,-0.081069112,0
0.32678461,3.6695728,5.2163515,-0.63091409,0.19188732,0.7517491,0
2.3982291,-1.5516818,4.244173,0.66050524,-0.37549314,0.65018296,0
1.3096786,3.0825219,-5.5917239,0.63091409,-0.19188732,-0.7517491,0
-1.4615159,-3.2077167,5.5042272,-0.63091409,0.19188732,0.7517491,0
-4.0969944,4.7516351,0.41774005,-0.32937849,0.81103677,-0.48345548,0
2.6707547,-1.5659878,4.1816707,0.6732955,-0.34603912,0.65339905,0
-2.6000347,3.3026106,-2.6499481,-0.49906063,0.64150459,-0.58258933,0
2.7145169,1.6793056,-4.0874281,0.63091409,-0.19188732,-0.7517491,0
5.3539762,1.3506403,-1.7353702,0.63091409,-0.19188732,-0.7517491,0
1.2942119,1.8354664,-5.496747,0.63091409,-0.19188732,-0.7517491,0
1.5696043,4.1531858,3.1134,0.58573639,0.75320399,0.29932737,0
-4.8779254,-0.053172827,2.0385921,-0.63091409,0.19188732,0.7517491,0
-3.5127003,1.5160058,2.7619014,-0.63091409,0.19188732,0.7517491,0
-1.076964,5.4057403,1.2226751,0.10905373,0.98124635,-0.15894288,0
-2.6080503,-2.2102923,4.3768339,-0.63091409,0.19188732,0.7517491,0
-3.7161472,4.0166736,1.8355916,-0.63091409,0.19188732,0.7517491,0
6.2025752,-2.3090067,0.15283728,0.69042027,-0.30315283,0.65682435,0
-3.4840569,2.6574595,2.4710791,-0.63091409,0.19188732,0.7517491,0
-5.2556353,3.2797585,-0.51578081,-0.58571994,0.51762277,-0.62369776,0
4.0522203,3.0128822,0.84397936,0.64668393,0.66539598,0.37289178,0
0.501472,3.7701595,-4.489563,-0.25737494,0.86230218,-0.43611139,0
3.2513003,-1.791275,-2.9051547,0.63091409,-0.19188732,-0.7517491,0
-5.9037399,-0.3851006,-0.62048674,-0.775437,-0.18766999,-0.60289079,0
-5.4265852,1.1851354,1.0634785,-0.63091409,0.19188732,0.7517491,0
6.6235394,-1.0948434,-0.16259003,0.75977051,-0.043453395,0.64873785,0
-1.9111377,0.98917389,4.0930586,-0.63091409,0.19188732,0.7517491,0
-0.53094172,-3.0970683,-5.6623516,0.63091409,-0.19188732,-0.7517491,0
-1.0955491,-2.5881643,5.6449137,-0.63091409,0.19188732,0.7517491,0
4.6889806,1.5826581,-2.4584699,0.63091409,-0.19188732,-0.7517491,0
-4.923882,0.77128237,-1.9315689,-0.74885535,0.10276696,-0.65471721,0
-2.4961038,2.5554764,3.1716449,-0.63091409,0.19188732,0.7517491,0
-4.6043591,4.5899949,0.95925337,-0.63091409,0.19188732,0.7517491,0
-1.2871671,-0.81169319,-6.2711196,-0.76448214,0.011523634,-0.64454198,0
-1.3330644,5.3106012,0.43344188,0.029543936,0.974172,-0.22386664,0
3.4188147,-2.647768,-2.4949751,0.63091409,-0.19188732,-0.7517491,0
-3.7989092,-3.6754904,3.6118355,-0.63091409,0.19188732,0.7517491,0
-2.9461548,2.6906011,2.7055798,-0.63091409,0.19188732,0.7517491,0
3.6592505,2.1841238,-3.4612691,0.63091409,-0.19188732,-0.7517491,0
-4.9181437,0.30987918,-1.9466519,-0.76570916,0.0021670163,-0.64318335,0
-0.82625151,-1.8410459,-6.1475692,0.63091409,-0.19188732,-0.7517491,0
1.3707237,-0.21105719,5.9358077,0.72563815,-0.19697669,0.65927947,0
-3.0448003,-3.3243589,-2.1798348,-0.65922302,-0.64350772,-0.38900244,0
0.76066494,-2.9394841,-4.5001001,0.63091409,-0.19188732,-0.7517491,0
-4.0248127,3.8962522,-0.90652382,-0.46135885,0.68621987,-0.56236142,0
-2.5357065,-1.5315752,-4.4158506,-0.77310467,-0.23696595,-0.58835047,0
2.6542149,0.48292017,-3.9562051,0.63091409,-0.19188732,-0.7517491,0
-1.3901429,1.655339,-5.3021083,-0.63073254,0.43738288,-0.64099354,0
5.0746408,-2.2695308,1.1871762,0.67746615,-0.33598712,0.65433347,0
0.32724476,1.9208436,5.75175,-0.63091409,0.19188732,0.7517491,0
0.72332752,-3.7317061,-4.5102577,0.63091409,-0.19188732,-0.7517491,0
-0.39163136,4.4486914,4.4582577,-0.63091409,0.19188732,0.7517491,0
-3.8127275,1.3035069,2.5454311,-0.63091409,0.19188732,0.7517491,0
-3.4999273,-1.1494408,-3.4209533,-0.77513212,-0.19764766,-0.60008812,0
1.2956746,-5.0279512,0.37984443,0.085858762,-0.9457134,0.31345552,0
3.2316172,-0.52529097,-3.1779766,0.63091409,-0.19188732,-0.7517491,0
-6.3494153,1.1326654,0.47912073,-0.63091409,0.19188732,0.7517491,0
4.9554582,-0.26470268,1.9139135,0.76937413,0.029784292,0.6381036,0
4.5621452,2.3648567,-2.8234119,0.63091409,-0.19188732,-0.7517491,0
-3.2950664,-2.5754671,3.8989918,-0.63091409,0.19188732,0.7517491,0
0.062578678,0.64017105,5.8672366,-0.63091409,0.19188732,0.7517491,0
-1.0434127,4.5146356,-2.0081825,-0.19934857,0.89630955,-0.39609265,0
5.3627925,-3.4483204,-0.68588984,0.63091409,-0.19188732,-0.7517491,0
5.3382015,-0.70368779,1.279001,0.76074719,-0.037264019,0.64797771,0
2.4981823,-0.37398005,-3.7926655,0.63091409,-0.19188732,-0.7517491,0
1.1068331,-2.1666195,-4.4993029,0.63091409,-0.19188732,-0.7517491,0
-1.0809765,0.89154768,4.9508944,-0.63091409,0.19188732,0.7517491,0
3.6805775,-3.9006691,-1.8985,0.63091409,-0.19188732,-0.7517491,0
3.3529546,-0.62080216,-3.069577,0.63091409,-0.19188732,-0.7517491,0
-6.4829354,2.0186386,0.12147808,-0.63091409,0.19188732,0.7517491,0
4.334918,-3.5507109,-1.4779356,0.63091409,-0.19188732,-0.7517491,0
1.3855643,1.4407225,-5.22331,0.63091409,-0.19188732,-0.7517491,0
-3.0942655,1.0395217,3.0918546,-0.63091409,0.19188732,0.7517491,0
3.213269,4.236197,-1.4451432,0.35132635,0.93455851,0.056304336,0
3.36233,3.3602796,1.4086032,0.63535869,0.6838668,0.35867214,0
-0.67152309,-3.172462,-5.6706982,0.63091409,-0.19188732,-0.7517491,0
4.5570889,-1.9506654,-1.5599581,0.63091409,-0.19188732,-0.7517491,0
-1.9302408,5.2752533,0.27565384,-0.084737301,0.94609392,-0.31261146,0
-1.4777198,-3.667866,-4.126771,-0.66988349,-0.62354773,-0.4030441,0
-1.0372429,-4.5100436,2.9976876,0.053574979,-0.95584488,0.28894711,0
-4.8712177,-0.21067393,-1.840395,-0.77463853,-0.1016089,-0.62418818,0
-0.69211578,0.43324757,-6.5772257,0.63091409,-0.19188732,-0.7517491,0
4.7793984,-0.44774467,2.1679397,0.76324928,-0.020431399,0.6457811,0
2.2806656,-3.6710987,2.4576597,0.42464548,-0.72551256,0.54157901,0
1.8384333,-2.337954,4.2825871,0.57767761,-0.53062117,0.62026596,0
1.5191896,-3.8517315,2.9781675,0.36721772,-0.77967441,0.5072071,0
-3.4709237,0.054858208,-3.659657,-0.7623865,0.026409119,-0.64658284,0
2.4443307,-5.6373711,-2.0567772,-0.019352138,-0.97252339,0.23199952,0
-3.2124181,5.1148586,1.8996625,-0.63091409,0.19188732,0.7517491,0
-5.0745964,-2.2520349,2.2285638,-0.63091409,0.19188732,0.7517491,0
-3.9481478,1.0020833,2.4647298,-0.63091409,0.19188732,0.7517491,0
2.9377878,3.1917808,-4.4290051,0.63091409,-0.19188732,-0.7517491,0
5.9189148,1.8730308,-1.400238,0.63091409,-0.19188732,-0.7517491,0
-5.041296,-0.79365063,2.0364714,-0.63091409,0.19188732,0.7517491,0
3.4026818,-4.5546894,-2.0288625,0.63091409,-0.19188732,-0.7517491,0
5.6716943,2.845655,-1.3478913,0.60684425,0.72576451,0.32404649,0
1.6330007,3.5784986,3.9243519,0.66653657,0.62995875,0.39859879,0
0.14651585,4.1255407,5.1639986,-0.63091409,0.19188732,0.7517491,0
2.4727702,4.3371782,0.56046629,0.45011145,0.87973166,0.15320575,0
0.58272457,4.6495605,3.5184271,0.53289938,0.81139106,0.24013066,0
0.8732996,-4.2718167,2.4574122,0.2310549,-0.8784982,0.41815603,0
-3.8215101,0.31233835,2.804884,-0.63091409,0.19188732,0.7517491,0
5.3229246,2.6463678,-0.55112505,0.64500517,0.66820782,0.37076497,0
-0.18580198,-4.5564394,2.0575247,0.073568881,-0.94977063,0.30417681,0
-1.9092093,-1.848681,4.9613848,-0.63091409,0.19188732,0.7517491,0
-3.1656308,5.4997716,1.388212,-0.11399788,0.93548906,-0.33446175,0
5.4278326,-2.9698589,-0.72680295,0.63091409,-0.19188732,-0.7517491,0
-3.2590873,3.0492449,-2.2038212,-0.5478431,0.57591355,-0.60678804,0
-1.3098674,-1.4787073,-6.0160012,-0.77583003,-0.1486254,-0.61318702,0
-4.7163062,1.9912255,1.3972461,-0.63091409,0.19188732,0.7517491,0
1.3100324,-4.6237435,1.3479881,0.1906572,-0.90087616,0.38996392,0
-1.6338451,-1.6041942,5.0072618,-0.63091409,0.19188732,0.7517491,0
1.1831696,4.844265,0.45569515,0.31625497,0.94838715,0.023340583,0
0.71267748,-1.7620406,6.0810652,0.59953767,-0.49441579,0.62937081,0
-1.6739907,-4.6738214,-1.2629156,-0.43069193,-0.89255035,-0.13363576,0
3.5263712,-5.0351439,-1.778577,0.63091409,-0.19188732,-0.7517491,0
-1.9685302,-0.11734915,-5.3777361,-0.75162107,0.089099169,-0.65354967,0
-2.206749,3.7169528,-2.5258436,-0.42344582,0.72673172,-0.5408833,0
-1.8930626,0.7777648,4.2417002,-0.63091409,0.19188732,0.7517491,0
5.2772541,-0.10177088,-1.6595633,0.63091409,-0.19188732,-0.7517491,0
3.0239358,0.98061657,3.9526753,0.77584398,0.15144941,0.61247796,0
-2.4875889,-2.8732269,4.5520535,-0.63091409,0.19188732,0.7517491,0
4.2275348,0.083748102,-2.5005505,0.63091409,-0.19188732,-0.7517491,0
5.8923588,-2.2372184,0.55011106,0.69191766,-0.29918474,0.65706813,0
4.4175692,3.7772484,-2.1611562,0.42195076,0.89797199,0.1249156,0
-3.0668178,2.6862078,2.6326408,-0.63091409,0.19188732,0.7517491,0
2.0220103,0.58467865,-4.5166216,0.63091409,-0.19188732,-0.7517491,0
5.6121597,2.9593399,-1.9893155,0.63091409,-0.19188732,-0.7517491,0
1.6069473,-4.7567997,-3.3962393,0.63091409,-0.19188732,-0.7517491,0
-2.5914009,0.76098084,-4.5831976,-0.72441816,0.20122197,-0.65933919,0
-3.0147777,-0.15891838,-4.1204095,-0.76484907,0.0087803006,-0.64414972,0
-2.6726322,-3.7596085,-2.2859769,-0.62407887,-0.70117575,-0.34478724,0
0.12483597,-1.2989597,6.3575907,-0.63091409,0.19188732,0.7517491,0
-0.10372496,1.0926986,-6.2797751,0.63091409,-0.19188732,-0.7517491,0
-0.47711921,-4.7768717,-3.7230749,-0.51235461,-0.83065099,-0.21797216,0
-0.89415073,-1.3142681,5.508749,-0.63091409,0.19188732,0.7517491,0
2.1619081,-1.835758,4.3799233,0.62636775,-0.44579408,0.63947731,0
-4.3605242,4.1256585,1.2510886,-0.63091409,0.19188732,0.7517491,0
-5.7706575,2.8856304,-0.20177341,-0.64387786,0.41108608,-0.64531356,0
5.5155687,2.0723262,-1.9459186,0.63091409,-0.19188732,-0.7517491,0
1.2550933,-0.36074972,-4.7575336,0.63091409,-0.19188732,-0.7517491,0
6.0398388,-2.484962,-0.34251761,0.63091409,-0.19188732,-0.7517491,0
5.6134472,-0.79476857,-1.0512836,0.63091409,-0.19188732,-0.7517491,0
-1.2486091,5.5628862,1.8288202,0.17228946,0.97939146,-0.10539818,0
-4.9594269,0.61380601,1.5851276,-0.63091409,0.19188732,0.7517491,0
4.8128324,2.5586143,-2.5214324,0.63091409,-0.19188732,-0.7517491,0
-1.7353241,-0.17977381,4.6317596,-0.63091409,0.19188732,0.7517491,0
-0.36285001,-4.9009199,-3.5244844,-0.49879441,-0.84247375,-0.20357394,0
2.2357008,2.8131166,-4.7203016,0.63091409,-0.19188732,-0.7517491,0
-0.24200726,0.64273691,-6.3330345,0.63091409,-0.19188732,-0.7517491,0
3.3913782,-4.9873037,-0.51622272,0.23100537,-0.87852758,0.41812205,0
3.9196513,-1.0663638,-2.5336909,0.63091409,-0.19188732,-0.7517491,0
2.5525217,1.2507527,-4.2927961,0.63091409,-0.19188732,-0.7517491,0
4.3590846,3.9225254,-3.3022327,0.63091409,-0.19188732,-0.7517491,0
0.26215672,-1.9548459,-5.269383,0.63091409,-0.19188732,-0.7517491,0
-6.0074048,-2.2405167,0.88814878,-0.68170214,-0.59973949,-0.4190402,0
-2.8551207,-4.2829409,0.85313702,-0.38285089,-0.91974759,-0.086542249,0
1.455853,-5.5010772,-1.3129759,-0.07904619,-0.97978866,0.18375498,0
-6.1470633,-0.54331231,0.85825443,-0.63091409,0.19188732,0.7517491,0
-4.2953181,-0.22043943,2.5103743,-0.63091409,0.19188732,0.7517491,0
5.1382608,0.59319043,1.5352464,0.77568454,0.17617983,0.60603154,0
-3.4066117,-3.1937561,-1.9825015,-0.66577613,-0.63139665,-0.3975935,0
2.456264,-2.4388614,-3.3195767,0.63091409,-0.19188732,-0.7517491,0
0.09664917,-5.2096052,-0.7084651,-0.17196873,-0.97941804,0.10567415,0
3.6699984,-1.8872385,2.9234538,0.66970271,-0.35451454,0.65254718,0
-1.208832,-1.3149538,5.307157,-0.63091409,0.19188732,0.7517491,0
-3.0713344,5.1750426,1.9619796,-0.63091409,0.19188732,0.7517491,0
-3.5335557,4.1788816,1.8287792,-0.63091409,0.19188732,0.7517491,0
-3.5531483,2.2961764,-2.6165974,-0.62961686,0.43954724,-0.64060968,0
2.654824,1.4720306,4.5389271,0.77506101,0.19964388,0.59951878,0
-5.0728679,4.2859178,0.62096786,-0.46134418,0.68623644,-0.56235337,0
-2.3045988,-1.3805881,4.4355016,-0.63091409,0.19188732,0.7517491,0
