-1.9522197,2.2920208,4.3178,-0.087047309,-0.45290411,0.88729954,0
0.42944512,-0.99067736,-3.8269346,0.087047309,0.45290411,-0.88729954,0
2.0879025,-4.2403846,-1.8913064,0.41413781,-0.82652074,-0.38125235,0
3.859571,4.3170571,-0.83739138,0.72176158,0.58524072,0.36953175,0
1.7195061,4.909729,0.6347146,0.30641618,0.83532876,0.45643735,0
-3.8455448,0.74468517,-3.4440727,0.087047309,0.45290411,-0.88729954,0
3.6556253,3.1981409,-1.3840981,0.087047309,0.45290411,-0.88729954,0
-5.1197138,-0.9659456,0.70230913,-0.99167967,-0.045396358,-0.12045902,0
-0.32245839,-4.3507814,-2.5975094,-0.071807027,-0.88551104,-0.45903575,0
2.3941576,3.2636251,3.3452406,0.50617027,0.74703425,0.4309656,0
-0.053291798,4.5628796,2.1459866,-0.023698837,0.89136982,0.45265675,0
1.8763667,4.6286559,1.2441611,0.3460986,0.82145172,0.45324695,0
1.9872712,-2.2506223,-4.3899736,0.087047309,0.45290411,-0.88729954,0
-1.7214768,-3.3974116,-3.6952684,-0.35015631,-0.81993747,-0.45287216,0
5.0072474,0.77257836,-0.49951243,0.99132669,0.048648864,0.12208459,0
-4.5512328,2.0102282,0.25662255,-0.91388381,0.39083487,0.10983844,0
-2.8937802,-3.790643,-1.6340756,-0.56789672,-0.70922571,-0.4177227,0
-4.9657631,0.49473631,1.3852426,-0.97207737,0.23345046,0.023795754,0
5.0187783,0.89244843,-0.034921885,0.98057985,0.11817414,0.15651804,0
-3.6855366,3.7661092,-0.56054711,-0.77818215,0.58700681,0.22328332,0
-0.27998316,2.9052382,4.7798662,-0.087047309,-0.45290411,0.88729954,0
-3.6293819,0.70101476,3.4945731,-0.087047309,-0.45290411,0.88729954,0
-4.7197771,1.8271438,-0.74428332,-0.9627955,0.26697591,0.041818723,0
-5.1176252,-1.0871787,1.9934509,-0.99614561,0.02992031,-0.082453281,0
4.9303637,-0.37219405,-2.4264038,0.9510355,-0.30293638,-0.061327733,0
-4.62813,-0.68437028,2.6178231,-0.087047309,-0.45290411,0.88729954,0
3.8024709,-3.5112402,0.27365446,0.79074848,-0.5731504,-0.21497774,0
-3.2347784,-2.7106647,1.7700815,-0.087047309,-0.45290411,0.88729954,0
1.7935936,1.701777,4.4059515,-0.087047309,-0.45290411,0.88729954,0
-5.2978706,-1.3566471,1.6452575,-0.99254298,-0.036862314,-0.11618769,0
1.6875248,0.57279444,3.9360702,-0.087047309,-0.45290411,0.88729954,0
4.4249678,1.0861044,-2.4230924,0.087047309,0.45290411,-0.88729954,0
-4.5617075,2.1139569,-0.75334096,-0.94288105,0.32495075,0.073364511,0
0.57482195,2.1373496,4.5409288,-0.087047309,-0.45290411,0.88729954,0
-4.1419134,-3.9692767,0.80598021,-0.76806879,-0.5367099,-0.34930313,0
-4.8820786,-0.51827264,-0.98861861,-0.98244524,-0.10849211,-0.15175909,0
3.7053974,1.1072891,-2.485167,0.087047309,0.45290411,-0.88729954,0
2.8177991,-3.6892304,1.8154018,-0.087047309,-0.45290411,0.88729954,0
1.6275327,3.4115143,3.5023313,0.35361299,0.81863326,0.45254564,0
-2.5016263,3.7524352,1.9347889,-0.50405216,0.78827959,0.35291207,0
-5.0283995,0.18465561,1.414408,-0.97947121,0.20147124,0.0067472905,0
2.0653486,-0.51864004,3.2563133,-0.087047309,-0.45290411,0.88729954,0
-3.28092,2.8939483,-2.2297301,0.087047309,0.45290411,-0.88729954,0
-2.2900796,1.1863105,3.6855102,-0.087047309,-0.45290411,0.88729954,0
4.0678501,0.95143819,-2.5156898,0.087047309,0.45290411,-0.88729954,0
1.8114548,-3.4897537,-3.4264147,0.32207298,-0.8556422,-0.4051488,0
2.0241876,2.526794,-1.8549623,0.087047309,0.45290411,-0.88729954,0
1.5389409,1.820972,4.435195,-0.087047309,-0.45290411,0.88729954,0
1.7376218,-4.3567119,-1.730299,0.34972751,-0.84788424,-0.39847589,0
-2.2395279,-4.5855036,-0.92719746,-0.43648052,-0.78329784,-0.44263887,0
4.369082,-1.8285661,-2.3276224,0.84948099,-0.49901217,-0.17137352,0
-2.1056988,2.0869539,4.2817411,-0.087047309,-0.45290411,0.88729954,0
2.483187,-2.5274713,-4.3814011,0.087047309,0.45290411,-0.88729954,0
-1.6909624,-3.6186805,1.3514633,-0.087047309,-0.45290411,0.88729954,0
-0.16069198,2.9289083,-1.9723582,0.087047309,0.45290411,-0.88729954,0
-1.8829869,-1.3999557,2.4650388,-0.087047309,-0.45290411,0.88729954,0
-1.1760912,5.414454,-0.070933342,-0.26616257,0.86887532,0.41738832,0
-2.5938919,4.9637876,-1.1227541,0.087047309,0.45290411,-0.88729954,0
-3.4116008,-2.7370207,1.645278,-0.087047309,-0.45290411,0.88729954,0
4.8753715,-0.75671959,-2.8673711,0.91931742,-0.37963751,-0.10358992,0
5.013669,-0.35556096,0.20835841,0.9945038,-0.091522932,0.050848395,0
2.0096803,-4.1608987,-1.8429003,0.39761129,-0.83245647,-0.38590348,0
1.9593202,3.2311873,-1.5744426,0.087047309,0.45290411,-0.88729954,0
0.34252167,4.0965466,3.0701275,0.067349195,0.88596714,0.45883119,0
-1.5151244,-1.3902526,2.4460349,-0.087047309,-0.45290411,0.88729954,0
3.3866215,3.2949769,1.7953758,0.66096199,0.64014471,0.39159179,0
4.7451906,-1.8199654,0.27878758,0.94669437,-0.31490394,-0.067862213,0
1.7149718,-3.3167872,-3.9960277,0.30493394,-0.86004192,-0.40907586,0
-3.8429172,-1.8417397,-2.8967819,-0.78684235,-0.51500791,-0.34006739,0
-2.2176855,0.69984651,3.496664,-0.087047309,-0.45290411,0.88729954,0
-2.9585202,2.9854517,3.2223973,-0.57376415,0.7509104,0.32699871,0
1.1221762,3.3612976,-1.55161,0.087047309,0.45290411,-0.88729954,0
0.36757195,0.79245853,3.718956,-0.087047309,-0.45290411,0.88729954,0
-1.9951544,-1.6445017,2.4059496,-0.087047309,-0.45290411,0.88729954,0
3.9376407,-2.4714649,-1.9679286,0.78443491,-0.5801878,-0.21918926,0
-3.9115069,-1.6891184,-3.0632362,-0.79879141,-0.50049001,-0.33382934,0
-4.8177691,1.3357403,0.72150874,-0.95606369,0.28826433,0.05334539,0
-4.2593937,-0.36039114,-3.6569123,-0.91284788,-0.32039469,-0.25309271,0
-0.54437751,-3.3456051,-4.4093275,-0.13411522,-0.87724435,-0.46092886,0
-2.2724667,-4.1198668,-1.5522146,-0.44293883,-0.78020102,-0.44169188,0
-2.1248546,-3.4714503,1.509485,-0.087047309,-0.45290411,0.88729954,0
1.3576831,-4.1002445,1.3536072,-0.087047309,-0.45290411,0.88729954,0
2.6381412,-1.5230334,2.8589563,-0.087047309,-0.45290411,0.88729954,0
4.5292931,-2.3881321,0.99325818,0.93617594,-0.34169707,-0.082570113,0
3.9868577,-2.5068479,2.5843606,-0.087047309,-0.45290411,0.88729954,0
2.0402269,-5.2258539,0.70739603,0.47156408,-0.80330539,-0.36376888,0
2.0641627,-4.7172599,-0.35061693,0.4500688,-0.81247956,-0.37056047,0
-1.2785665,3.1845107,-1.8437598,0.087047309,0.45290411,-0.88729954,0
1.8965976,-4.361022,-1.5167546,0.4046751,-0.82995868,-0.38393557,0
1.1443726,-3.8624675,-3.1518919,0.19946998,-0.88056719,-0.4298991,0
-5.0839834,-0.62705898,1.9243982,-0.9943375,0.094000146,-0.04956764,0
2.3247266,2.3457017,4.7181005,0.52219284,0.73776466,0.42780602,0
3.7126839,-2.3755603,-3.3510444,0.69787306,-0.66333115,-0.27012011,0
3.164712,-3.1460717,2.1515691,-0.087047309,-0.45290411,0.88729954,0
1.3638959,0.50951552,-3.0206614,0.087047309,0.45290411,-0.88729954,0
-3.778564,3.7062192,-0.1051476,-0.7699374,0.59577882,0.22856957,0
2.0977116,-4.897109,-0.20977259,0.43539777,-0.81840444,-0.3750239,0
1.1114402,2.7778463,-1.9017234,0.087047309,0.45290411,-0.88729954,0
-0.55806601,-0.94525862,-3.8711534,0.087047309,0.45290411,-0.88729954,0
-2.5891161,0.035531998,-3.58549,0.087047309,0.45290411,-0.88729954,0
2.2537603,4.893404,0.27052832,0.4017325,0.7990886,0.44729006,0
4.2518716,1.6001508,2.3834682,0.87341887,0.39367795,0.28663051,0
1.2838848,2.8293123,4.9623623,0.30981189,0.83420652,0.45619762,0
2.4858589,2.9224403,3.6658652,0.52829903,0.73413444,0.42655212,0
-3.0853605,-4.1455297,-0.57526779,-0.58771622,-0.69582003,-0.41282439,0
-3.2456071,0.33606386,-3.6385679,0.087047309,0.45290411,-0.88729954,0
-3.4563305,-2.8063986,-2.5261393,-0.68680799,-0.6178872,-0.38276637,0
1.5596195,0.62944841,3.8522663,-0.087047309,-0.45290411,0.88729954,0
-2.0044949,-4.3651023,1.0477848,-0.087047309,-0.45290411,0.88729954,0
4.990984,-0.82915092,-1.046502,0.9711113,-0.23722613,-0.025817737,0
0.1521076,2.5431955,-2.1393569,0.087047309,0.45290411,-0.88729954,0
-2.2032006,-0.53307772,-3.9798636,0.087047309,0.45290411,-0.88729954,0
-0.62448943,1.9730725,-2.4937186,0.087047309,0.45290411,-0.88729954,0
0.66106892,-2.4640119,-4.4713974,0.087047309,0.45290411,-0.88729954,0
-4.7500615,1.4233544,-2.8400171,-0.99618316,0.045365229,-0.074573427,0
2.6461496,-0.34446216,-3.3769982,0.087047309,0.45290411,-0.88729954,0
1.4289837,-4.6325331,-1.4761691,0.2984322,-0.86163086,-0.41052485,0
-3.7163405,3.6412251,-0.21475887,-0.76097161,0.60504699,0.23417997,0
-2.7407763,4.6924844,-0.37597799,-0.60732007,0.73015302,0.3131116,0
2.6675057,-3.8198588,-1.4582825,0.54582238,-0.76677489,-0.33783758,0
-1.8753806,-3.8048563,-2.7719455,-0.38913617,-0.80445957,-0.4487958,0
-3.0233231,-4.6696258,-0.15488768,-0.55577886,-0.71710664,-0.4205566,0
-1.5854743,2.2997248,-2.2885077,0.087047309,0.45290411,-0.88729954,0
1.7274318,0.42240715,-2.9238234,0.087047309,0.45290411,-0.88729954,0
0.53878641,3.2994819,-1.6572659,0.087047309,0.45290411,-0.88729954,0
1.4582922,-4.4165812,-2.0058222,0.30083397,-0.86104894,-0.40999222,0
1.2724839,2.5974946,4.8680124,-0.087047309,-0.45290411,0.88729954,0
4.6915531,2.1593621,-0.022789001,0.91425478,0.31744653,0.25172585,0
3.6398587,-2.1819289,-3.8671298,0.66628349,-0.68861991,-0.28612733,0
2.09936,-1.0298979,3.0894253,-0.087047309,-0.45290411,0.88729954,0
1.4827764,0.98773861,-2.7396176,0.087047309,0.45290411,-0.88729954,0
-3.7455611,3.2875962,0.57054114,-0.75718915,0.60887581,0.23650539,0
0.60691905,-2.381202,2.2967207,-0.087047309,-0.45290411,0.88729954,0
-0.33939177,0.37493324,3.4445069,-0.087047309,-0.45290411,0.88729954,0
-3.7077644,3.0596004,1.7003256,-0.70994902,0.65302896,0.26367685,0
2.6130338,-1.1985173,3.1317539,-0.087047309,-0.45290411,0.88729954,0
-1.9344199,4.2204742,1.633311,-0.39418006,0.83364868,0.38684875,0
-0.25911149,1.5657601,4.1975813,-0.087047309,-0.45290411,0.88729954,0
-3.5477779,-2.1897962,-3.0627673,-0.74988323,-0.55656111,-0.35765159,0
0.46746635,3.4903083,-1.6484022,0.087047309,0.45290411,-0.88729954,0
-2.4627118,-3.8270328,1.1838145,-0.087047309,-0.45290411,0.88729954,0
0.75894475,2.9527345,4.9122143,0.21627162,0.86084664,0.46061885,0
-0.38775522,-2.389564,-4.715107,0.087047309,0.45290411,-0.88729954,0
-1.5977974,-4.5688877,0.86609888,-0.087047309,-0.45290411,0.88729954,0
3.9720688,-0.6076622,3.3979805,-0.087047309,-0.45290411,0.88729954,0
-3.0029516,0.77527094,-3.3401694,0.087047309,0.45290411,-0.88729954,0
4.2847118,-0.96900654,3.3464489,-0.087047309,-0.45290411,0.88729954,0
-2.2610426,-1.2331986,-4.3278146,0.087047309,0.45290411,-0.88729954,0
-3.1864655,0.80437088,-3.2035053,0.087047309,0.45290411,-0.88729954,0
0.61279988,-4.5800114,1.2114134,-0.087047309,-0.45290411,0.88729954,0
-3.9197674,-3.2543256,-0.74595594,-0.76426148,-0.54095733,-0.35109752,0
-4.7201185,1.0549722,1.8960495,-0.92842418,0.35980397,0.092572927,0
-0.69702458,3.7772059,-1.4249759,0.087047309,0.45290411,-0.88729954,0
4.2179446,-0.30774021,3.6698234,-0.087047309,-0.45290411,0.88729954,0
1.2013623,4.6680007,-0.85728788,0.087047309,0.45290411,-0.88729954,0
-0.83219624,5.5002637,-0.66662693,0.087047309,0.45290411,-0.88729954,0
4.3287392,-0.65379143,3.5165384,-0.087047309,-0.45290411,0.88729954,0
-1.817139,1.643774,4.0317855,-0.087047309,-0.45290411,0.88729954,0
2.4878881,-3.0285771,-3.9562218,0.45232308,-0.81154525,-0.36986238,0
0.67412484,5.5863104,0.19568825,0.099436909,0.88228226,0.46009827,0
4.8040996,1.6195681,-1.9894917,0.087047309,0.45290411,-0.88729954,0
-3.7281153,3.348516,0.23227811,-0.78812444,0.57609421,0.21673781,0
1.5503258,-3.4338646,1.8634701,-0.087047309,-0.45290411,0.88729954,0
2.0941014,1.5510826,4.3435278,-0.087047309,-0.45290411,0.88729954,0
-3.9294944,-3.5152812,1.1847816,-0.087047309,-0.45290411,0.88729954,0
-2.3113744,0.70718479,3.5246549,-0.087047309,-0.45290411,0.88729954,0
0.98124379,-3.294965,-4.6528978,0.1474773,-0.88672507,-0.4381429,0
-0.24625012,1.2405515,3.9981155,-0.087047309,-0.45290411,0.88729954,0
4.267694,1.0521431,2.7596943,0.88710821,0.37002456,0.27590013,0
4.6085138,1.4160117,1.2481737,0.93164015,0.27842182,0.23351204,0
0.69381166,-3.0550287,-4.87888,0.087047309,0.45290411,-0.88729954,0
4.7947097,1.7180977,0.33413363,0.94251651,0.25100708,0.22058582,0
3.7805173,2.9252963,1.4918685,0.74036753,0.56652719,0.36180514,0
1.0523553,-1.7774198,2.5155203,-0.087047309,-0.45290411,0.88729954,0
-1.4192474,5.3719816,-0.44623709,-0.33981335,0.85076022,0.4009164,0
-0.85280287,3.1532593,-1.7704635,0.087047309,0.45290411,-0.88729954,0
3.1423936,-3.3116388,-1.9609623,0.63688171,-0.7101894,-0.30002147,0
1.6243076,5.3263779,-0.55028868,0.087047309,0.45290411,-0.88729954,0
-3.7067058,3.9749537,-0.88087559,-0.7781564,0.5870347,0.22330007,0
0.91744059,3.8169658,3.418663,0.21192698,0.86187404,0.46071708,0
0.070901632,-5.4992323,-0.17741394,0.035288781,-0.8915233,-0.45159817,0
2.7956841,-4.2027249,1.5270329,-0.087047309,-0.45290411,0.88729954,0
-3.4777007,-2.1710839,1.9403183,-0.087047309,-0.45290411,0.88729954,0
0.9728803,4.0444765,2.7529554,0.19307779,0.86612165,0.46103597,0
0.65977728,1.7077076,-2.4534411,0.087047309,0.45290411,-0.88729954,0
3.19959,-2.1396604,-4.2666583,0.087047309,0.45290411,-0.88729954,0
-4.8250504,0.52733874,-2.007674,-0.9932009,-0.029654264,-0.11257303,0
-2.2126174,4.283854,1.3904178,-0.4391017,0.81693393,0.37390995,0
0.65943599,3.8939798,-1.3887711,0.087047309,0.45290411,-0.88729954,0
-1.1338888,-4.8207674,0.88447809,-0.087047309,-0.45290411,0.88729954,0
-4.7013779,-1.1796321,-1.5529993,-0.93167317,-0.27834263,-0.23347491,0
-2.972369,4.6130462,-0.69449258,-0.65495932,0.69714057,0.29158741,0
-1.761704,3.4462903,3.9587038,-0.31281778,0.85805637,0.40728897,0
-1.6839509,-2.4847441,-4.7693081,0.087047309,0.45290411,-0.88729954,0
4.8421063,-1.2242098,-0.49116051,0.96134931,-0.2717303,-0.044387393,0
-1.0183434,5.0752778,-0.81439972,0.087047309,0.45290411,-0.88729954,0
-1.4970565,0.21314168,3.2308741,-0.087047309,-0.45290411,0.88729954,0
-4.7301688,0.59173799,-2.6312389,-0.98529065,-0.092336744,-0.143792,0
0.1053437,3.6100705,4.0206265,0.057956189,0.88686955,0.45837039,0
3.5471425,-1.6183584,-3.7791243,0.087047309,0.45290411,-0.88729954,0
2.6856534,1.5937073,-2.4043791,0.087047309,0.45290411,-0.88729954,0
-0.85206878,1.513618,4.1733265,-0.087047309,-0.45290411,0.88729954,0
4.9105501,-0.94195604,1.3107409,0.99594349,-0.059939444,0.067110777,0
-4.6182475,-3.1566494,0.57861519,-0.86400652,-0.40904737,-0.29355216,0
1.7746371,4.2311144,-0.99563265,0.087047309,0.45290411,-0.88729954,0
-1.8156892,0.31873155,3.4443393,-0.087047309,-0.45290411,0.88729954,0
-2.3361497,1.1044555,-2.9987364,0.087047309,0.45290411,-0.88729954,0
-0.71792412,-4.7574878,-1.6689987,-0.10700953,-0.88127607,-0.46032768,0
-3.4363325,-3.9638069,-0.27115774,-0.67389673,-0.62919343,-0.38727075,0
-1.7435532,0.22550082,3.2546074,-0.087047309,-0.45290411,0.88729954,0
2.6311846,-1.9821095,-4.2152953,0.087047309,0.45290411,-0.88729954,0
0.84724098,0.74568558,3.928925,-0.087047309,-0.45290411,0.88729954,0
-0.6343236,4.0277252,3.230233,-0.095193923,0.89038628,0.44514078,0
1.8293519,-0.59576511,-3.4116175,0.087047309,0.45290411,-0.88729954,0
-2.5286629,-4.5473576,-0.60236263,-0.48319322,-0.75970089,-0.43517697,0
4.6849709,2.2628069,0.31808662,0.89965034,0.3467871,0.26526946,0
3.4736941,3.9874091,0.61252546,0.66507745,0.63670003,0.39023709,0
-3.0267692,-4.5723724,0.1447463,-0.57968104,-0.70133364,-0.41485047,0
2.5681,-4.4692154,-0.24560404,0.54489207,-0.76728201,-0.33818769,0
4.4059858,-2.2968051,-0.045661688,0.9030664,-0.41191074,-0.12165746,0
0.16217676,-0.33546972,3.2224264,-0.087047309,-0.45290411,0.88729954,0
-1.4161371,1.9650819,-2.5122759,0.087047309,0.45290411,-0.88729954,0
4.5912981,-1.4958795,-2.5514708,0.8770591,-0.45722866,-0.14734046,0
2.1682916,-4.7521939,-0.48421717,0.4658626,-0.80579698,-0.36559993,0
4.8415256,-0.52045369,1.9035527,0.99380678,0.022275358,0.10886607,0
-3.1292706,1.6313057,-2.8548899,0.087047309,0.45290411,-0.88729954,0
-4.0470934,-1.5637277,2.2406325,-0.087047309,-0.45290411,0.88729954,0
-0.82697201,-3.2580853,-4.3191853,-0.19167024,-0.86642534,-0.46105289,0
2.1552351,4.4075494,-0.94571161,0.087047309,0.45290411,-0.88729954,0
2.5150044,5.2066898,-0.27632093,0.43644521,0.78331459,0.44264388,0
-4.8279819,1.3591938,0.79859078,-0.94855118,0.30985796,0.06510444,0
1.6664507,-5.1662121,0.87785292,-0.087047309,-0.45290411,0.88729954,0
2.2811406,0.091508389,3.6612294,-0.087047309,-0.45290411,0.88729954,0
0.39702129,3.3851342,-1.7203212,0.087047309,0.45290411,-0.88729954,0
4.7487478,0.27718234,1.8530163,0.97064304,0.16191062,0.17786759,0
-1.9122832,-1.7019,-4.3947821,0.087047309,0.45290411,-0.88729954,0
-4.5116205,-2.1373248,1.881695,-0.087047309,-0.45290411,0.88729954,0
0.10693717,-1.1152267,2.8163095,-0.087047309,-0.45290411,0.88729954,0
-1.2050576,0.80775952,-3.1014137,0.087047309,0.45290411,-0.88729954,0
3.9345345,-0.40761948,3.6128552,-0.087047309,-0.45290411,0.88729954,0
-4.3706474,3.2616329,-1.7342215,-0.89806914,0.4211604,0.12686899,0
3.777626,0.0083599091,-3.1109974,0.087047309,0.45290411,-0.88729954,0
3.4183564,4.4495969,-0.717875,0.087047309,0.45290411,-0.88729954,0
-4.3029776,-0.61041117,-3.2691216,-0.90984058,-0.32660508,-0.25596762,0
-4.0230613,3.4414198,-2.1120265,0.087047309,0.45290411,-0.88729954,0
-4.8809466,1.0126122,1.4107186,-0.95159602,0.30134639,0.06046116,0
-3.4965115,-3.0326872,1.5315847,-0.087047309,-0.45290411,0.88729954,0
-1.9906331,2.2496233,-2.5133004,0.087047309,0.45290411,-0.88729954,0
-4.9419994,0.28094715,-0.20279741,-0.99609232,0.05291827,-0.070709199,0
2.3224802,0.72777319,3.9102573,-0.087047309,-0.45290411,0.88729954,0
-2.599205,-4.6648769,-0.46495342,-0.50115097,-0.74986333,-0.43191731,0
-3.3787408,-3.127403,-1.8919187,-0.6747086,-0.62849385,-0.38699335,0
1.8765484,0.61405277,-2.9269936,0.087047309,0.45290411,-0.88729954,0
-2.9325421,-2.9808576,-3.1226554,-0.59676325,-0.6894803,-0.41047591,0
0.1222707,-3.8624139,-3.5803678,-0.013368309,-0.89006913,-0.45562929,0
-4.3861423,-1.1883125,-2.6027372,-0.89514601,-0.35532188,-0.26918399,0
2.2490568,-4.931251,1.0726504,-0.087047309,-0.45290411,0.88729954,0
4.4506574,2.0373068,1.2231665,0.88538593,0.37309271,0.27729726,0
0.75759482,1.517756,4.1979899,-0.087047309,-0.45290411,0.88729954,0
2.9323294,4.5631361,0.35170269,0.55966628,0.71460384,0.41966039,0
-3.8603771,-1.1813731,-3.9669399,-0.82471997,-0.46684837,-0.31920135,0
0.17319208,-2.8606908,-4.754878,0.087047309,0.45290411,-0.88729954,0
-3.4133849,-1.0706782,-4.3480988,0.087047309,0.45290411,-0.88729954,0
-4.1847515,2.7026324,0.035500526,-0.85959601,0.48431855,0.16288114,0
-1.2074971,5.1388435,-0.89278126,0.087047309,0.45290411,-0.88729954,0
-4.6226387,1.9138426,-0.64646846,-0.95828563,0.28146535,0.049657002,0
-3.9181776,2.1599019,2.9533398,-0.75944662,0.60659647,0.23512045,0
1.2773244,-3.161422,1.8225087,-0.087047309,-0.45290411,0.88729954,0
3.5777421,-3.2533972,-1.4213643,0.69589186,-0.66498637,-0.27115941,0
2.6625733,-0.54424524,3.4471588,-0.087047309,-0.45290411,0.88729954,0
-3.137064,0.10699034,-3.6566954,0.087047309,0.45290411,-0.88729954,0
-4.5778146,2.4966781,-2.1799111,-0.96272016,0.26722616,0.041953884,0
3.9895051,-3.0245328,0.0031019449,0.82793748,-0.52822816,-0.18839973,0
1.5076669,1.9162612,4.6055188,-0.087047309,-0.45290411,0.88729954,0
-3.4070945,1.3715718,3.7648108,-0.087047309,-0.45290411,0.88729954,0
-4.9670134,0.37863648,2.3554025,-0.95908272,0.27897444,0.048307378,0
-4.5010695,-3.4006116,1.2514262,-0.86001688,-0.41536373,-0.29638487,0
-2.0135362,-2.5764635,1.8934085,-0.087047309,-0.45290411,0.88729954,0
0.54022795,2.1541147,-2.2365193,0.087047309,0.45290411,-0.88729954,0
1.4222038,2.9012542,4.8768187,0.31885949,0.83115715,0.45552874,0
0.84522521,-3.0326166,-4.7876625,0.087047309,0.45290411,-0.88729954,0
-2.9942195,-3.9610507,1.1550097,-0.087047309,-0.45290411,0.88729954,0
-2.5531976,3.8506041,1.955452,-0.49581856,0.79222345,0.3557328,0
2.2165086,4.2653823,1.5476065,0.43983895,0.78169382,0.44214964,0
-1.7697278,-0.7971561,2.7171192,-0.087047309,-0.45290411,0.88729954,0
-4.9929585,-0.28723875,0.21250486,-0.99567956,0.010650277,-0.092243552,0
-0.25982895,0.43560743,3.6650355,-0.087047309,-0.45290411,0.88729954,0
2.229455,2.3572769,-2.0356879,0.087047309,0.45290411,-0.88729954,0
-0.98862773,0.82889605,-2.9812589,0.087047309,0.45290411,-0.88729954,0
-0.87341106,-4.761301,-1.3730688,-0.16766097,-0.87131536,-0.46119344,0
-3.9830132,-2.0978699,2.0199726,-0.087047309,-0.45290411,0.88729954,0
3.1525321,-3.8721836,-0.44606996,0.65588051,-0.69645774,-0.29114851,0
-1.5976615,-5.4954123,0.38265514,-0.2588422,-0.84980726,-0.45916033,0
-3.2422962,-4.2075853,0.91857243,-0.087047309,-0.45290411,0.88729954,0
-4.5142059,1.9871249,-2.8747215,0.087047309,0.45290411,-0.88729954,0
-0.019187212,-4.8545237,1.0088811,-0.087047309,-0.45290411,0.88729954,0
5.0367742,-0.6548782,-0.9278751,0.9769038,-0.21328194,-0.013027668,0
4.9076071,2.3267274,-0.86392212,0.94197041,0.25245124,0.22126937,0
1.1968265,-2.1590612,-4.2598734,0.087047309,0.45290411,-0.88729954,0
-0.79885089,-3.6932225,1.4211493,-0.087047309,-0.45290411,0.88729954,0
2.9935594,-1.9784405,-4.2048144,0.087047309,0.45290411,-0.88729954,0
4.0240006,0.70430589,-2.6821153,0.087047309,0.45290411,-0.88729954,0
1.6892457,4.1783009,2.0719247,0.34531051,0.82174373,0.45331872,0
5.0685987,0.10623572,-0.52491271,0.99496585,-0.083920881,0.054774046,0
4.357965,0.67999649,3.0795507,0.90566885,0.33502173,0.25985444,0
2.9737291,3.0240178,2.7663922,0.61953318,0.67288214,0.40423751,0
-4.4479098,-1.4637003,-2.0270147,-0.89352751,-0.35833514,-0.2705633,0
3.7891362,2.4514835,2.4169118,0.75842273,0.54737556,0.35380077,0
-3.9832292,3.4061723,-0.095864296,-0.8067528,0.55458307,0.20393035,0
-4.684979,0.96992683,2.3098445,-0.92297381,0.37184417,0.099253297,0
2.6278501,3.6174905,2.1595874,0.52313995,0.73720503,0.42761338,0
-2.095511,-2.2417409,2.0725303,-0.087047309,-0.45290411,0.88729954,0
4.3244629,-3.1438882,0.98748696,0.89020759,-0.43515885,-0.13478547,0
2.8363154,2.2868166,4.3382802,0.62195456,0.67106134,0.40354568,0
-0.45651519,-2.0893521,-4.4535894,0.087047309,0.45290411,-0.88729954,0
4.8165069,-1.5255023,0.57706672,0.9727326,-0.23084514,-0.022401646,0
-2.2256334,0.87205672,-3.0437903,0.087047309,0.45290411,-0.88729954,0
-4.2891994,-1.8132406,1.9646752,-0.087047309,-0.45290411,0.88729954,0
3.8752427,1.686035,-2.0990431,0.087047309,0.45290411,-0.88729954,0
-3.259304,3.1381218,2.0878849,-0.66446626,0.69000584,0.28701305,0
-0.96015072,-2.63975,1.9449482,-0.087047309,-0.45290411,0.88729954,0
-2.2389736,-2.859839,-4.1433907,-0.47790647,-0.76251376,-0.43609405,0
0.78567636,2.542521,-2.009882,0.087047309,0.45290411,-0.88729954,0
1.7935293,0.45866656,-2.9888377,0.087047309,0.45290411,-0.88729954,0
4.2047544,-0.56352329,3.5570545,-0.087047309,-0.45290411,0.88729954,0
3.2853389,4.3463693,-0.75015068,0.087047309,0.45290411,-0.88729954,0
-3.3793259,-3.9399559,-0.65151596,-0.64275002,-0.6549595,-0.397367,0
2.2666802,-1.003468,3.1823087,-0.087047309,-0.45290411,0.88729954,0
5.1081858,1.286239,-0.37783527,0.97904158,0.12572461,0.1602211,0
-3.3942809,-2.1514027,-3.7289202,-0.70729786,-0.59912753,-0.37520105,0
-3.7316899,0.54523683,3.3456433,-0.087047309,-0.45290411,0.88729954,0
-2.7210813,4.3725662,-1.4789782,0.087047309,0.45290411,-0.88729954,0
-0.47452351,1.6844749,4.1883378,-0.087047309,-0.45290411,0.88729954,0
-3.928076,-3.4893494,-0.13542604,-0.76495755,-0.54018456,-0.35077143,0
4.9884057,1.3358877,-0.52956343,0.97496122,0.14422399,0.16926342,0
-1.5996937,3.1814566,-2.0053277,0.087047309,0.45290411,-0.88729954,0
1.5918064,0.65907621,3.9622247,-0.087047309,-0.45290411,0.88729954,0
-1.1688237,1.7562912,-2.6846471,0.087047309,0.45290411,-0.88729954,0
-3.7899623,-4.2582693,0.86634684,-0.087047309,-0.45290411,0.88729954,0
-0.00018954277,-4.7367249,-1.695457,-0.0047999322,-0.89047945,-0.45499814,0
1.1037973,-1.5032873,-4.1365805,0.087047309,0.45290411,-0.88729954,0
4.2741609,-2.8137112,0.84128577,0.9032799,-0.41150916,-0.12143154,0
-1.1429524,4.5279822,-1.2131324,0.087047309,0.45290411,-0.88729954,0
1.7438153,-4.5730143,-1.0709352,0.3680017,-0.84230059,-0.39383298,0
1.2163527,-5.1000156,-0.39606857,0.28589511,-0.86457139,-0.41325569,0
-3.4392729,-4.3954835,0.11039877,-0.65360504,-0.64621234,-0.39396709,0
2.5906723,-3.8919954,-1.4952314,0.52501881,-0.7778042,-0.34550822,0
-4.5646706,2.3796158,-1.2752737,-0.94682807,0.31454408,0.067665443,0
4.7288313,1.079726,1.0021205,0.95938683,0.20179284,0.19712037,0
-2.5847321,-3.7956185,-1.766789,-0.51447946,-0.74227285,-0.4293505,0
-0.87749398,-3.6542499,-3.5956116,-0.19822919,-0.86499453,-0.46096587,0
3.7516718,-3.6569655,0.2030766,0.78189486,-0.58297575,-0.22086152,0
0.85347068,2.1814973,-2.1668832,0.087047309,0.45290411,-0.88729954,0
0.44690418,-3.2975888,1.701304,-0.087047309,-0.45290411,0.88729954,0
2.7206612,-3.0668499,-3.25811,0.5238685,-0.77839524,-0.34592277,0
2.0142183,-3.1203964,2.0462058,-0.087047309,-0.45290411,0.88729954,0
3.9380441,2.0678015,2.6543932,0.8019489,0.49655515,0.33213073,0
-4.6010981,0.55220938,-3.509527,0.087047309,0.45290411,-0.88729954,0
4.8338132,-1.4876125,0.99504524,0.98239809,-0.18679678,0.001030162,0
3.2207599,4.6179948,-0.016290188,0.58042169,0.70083004,0.41466606,0
-4.7418766,1.4509094,-1.7297063,-0.9920609,0.12055826,-0.035788208,0
3.9278784,3.3614881,-1.282445,0.087047309,0.45290411,-0.88729954,0
-0.63943386,4.5452538,1.8330994,-0.13925838,0.88746715,0.43932796,0
1.6447046,-3.3753262,-3.5976243,0.30587775,-0.85980767,-0.40886378,0
-4.4731464,-1.9642565,1.9482436,-0.087047309,-0.45290411,0.88729954,0
-5.204916,-1.0056907,2.0202918,-0.99614024,0.049659476,-0.072377264,0
-5.0148811,-1.0799098,0.67425919,-0.98801559,-0.074716598,-0.13506553,0
-1.8301846,1.851788,-2.692471,0.087047309,0.45290411,-0.88729954,0
3.6379414,2.0622973,3.2394545,0.76117575,0.54436356,0.35253352,0
-3.7618518,3.5220115,-2.0181909,0.087047309,0.45290411,-0.88729954,0
-4.3581147,2.4807422,-0.31325871,-0.9052965,0.40768832,0.1192834,0
-4.3555632,1.5947847,3.4165006,-0.81618768,0.54311132,0.19714922,0
1.9624984,-1.3978348,2.9041877,-0.087047309,-0.45290411,0.88729954,0
4.8074603,-1.1244493,3.027092,0.99381858,0.022123188,0.10878956,0
2.5491037,-5.0343404,1.0501313,0.57443303,-0.7505154,-0.3267315,0
-4.7349887,-0.7187376,-1.5276904,-0.95949203,-0.20145211,-0.19695675,0
-5.0053248,0.83061457,0.73038769,-0.97336221,0.22830494,0.021043308,0
2.3520532,0.20437527,-3.1535544,0.087047309,0.45290411,-0.88729954,0
-1.1831952,2.6862652,4.6199918,-0.087047309,-0.45290411,0.88729954,0
-1.3240831,-4.0251007,-2.9199109,-0.27192938,-0.84605342,-0.45852816,0
-0.56178689,2.9541237,4.897068,-0.087047309,-0.45290411,0.88729954,0
-2.7769904,-4.8874159,-0.08527422,-0.49688435,-0.75224078,-0.43271232,0
-1.1106443,-3.4719489,1.472611,-0.087047309,-0.45290411,0.88729954,0
3.6289072,-3.6827023,0.27115583,0.75497818,-0.61109209,-0.23785359,0
4.3456259,-1.824515,-2.6272123,0.82383907,-0.53349805,-0.19149172,0
-3.3497438,-2.5752215,-3.0033834,-0.6872946,-0.61745358,-0.38259292,0
-3.9174986,-1.8401484,-2.647023,-0.8160131,-0.47849488,-0.32429183,0
-3.7323227,-4.0409536,-0.011792183,-0.69772625,-0.60801977,-0.37880087,0
2.6682317,2.1937695,4.3524523,0.60578763,0.6830138,0.40806061,0
-4.8538008,0.76903796,-1.053266,-0.99486744,0.085646749,-0.053883463,0
5.0779305,1.6297104,-0.8998158,0.97540015,0.14232653,0.168338,0
3.1723633,-2.7061453,2.3549802,-0.087047309,-0.45290411,0.88729954,0
-4.5755877,1.7839143,0.15485151,-0.94242382,0.32612839,0.074010439,0
-0.0330621,4.6525373,1.7041931,-0.0099574029,0.8910315,0.45383221,0
-2.7210073,-3.8975372,-1.7757726,-0.51800883,-0.74022067,-0.42864925,0
-4.3534732,1.8532529,-2.9457531,0.087047309,0.45290411,-0.88729954,0
-4.2084303,-2.393126,-1.0014877,-0.85150766,-0.42846927,-0.30223948,0
-2.501431,-0.14867449,-3.7657256,0.087047309,0.45290411,-0.88729954,0
0.81117111,3.5407133,-1.4046032,0.087047309,0.45290411,-0.88729954,0
0.7612431,3.8543081,3.1977534,0.15637043,0.87342781,0.46116418,0
-4.7023177,1.5935705,-0.61303365,-0.96553701,0.25765231,0.036790743,0
1.8773674,-1.3566723,-3.9387903,0.087047309,0.45290411,-0.88729954,0
3.5691168,1.8121696,3.8788967,0.74092382,0.56595218,0.36156619,0
-0.40064389,-1.8233685,2.4437652,-0.087047309,-0.45290411,0.88729954,0
2.0757012,-3.7959585,-2.7905059,0.38048029,-0.83827364,-0.39055336,0
-3.5091214,2.489481,3.5898497,-0.66120595,0.69247448,0.28859293,0
1.3495677,3.0221505,4.7117414,0.30434707,0.83600664,0.45658028,0
4.7758932,-1.4877019,3.0295782,0.99583197,-0.01521197,0.089930087,0
1.3297954,5.0935616,0.47398329,0.22759594,0.85808295,0.46031916,0
-2.7370358,-2.8754547,1.7313294,-0.087047309,-0.45290411,0.88729954,0
-0.18747053,-1.9742293,-4.4543557,0.087047309,0.45290411,-0.88729954,0
4.8019285,-1.292901,0.08997485,0.96917784,-0.24455938,-0.029750571,0
-0.53103638,-0.90101719,-3.8253284,0.087047309,0.45290411,-0.88729954,0
1.9943004,-1.5777218,2.7075269,-0.087047309,-0.45290411,0.88729954,0
0.95602417,5.2166967,0.56767082,0.14053477,0.87619048,0.46102077,0
-0.78748548,4.2819014,2.6365042,-0.15397733,0.88609374,0.4371829,0
4.5204148,-1.9024671,-1.4351212,0.87989378,-0.45260215,-0.14470087,0
4.2568893,-2.9069974,2.3539901,-0.087047309,-0.45290411,0.88729954,0
2.1177406,-3.9091487,-2.1219504,0.41493562,-0.826226,-0.38102376,0
0.28635544,-0.7387476,2.995038,-0.087047309,-0.45290411,0.88729954,0
3.2423391,2.0106158,4.2340088,0.67634815,0.62707621,0.38643062,0
-2.0135295,-0.57182813,2.7851014,-0.087047309,-0.45290411,0.88729954,0
-1.3350053,-2.0645771,-4.6383324,0.087047309,0.45290411,-0.88729954,0
2.7256484,3.8646076,1.7837596,0.53164721,0.73212069,0.42585278,0
-3.8654408,3.5703175,-1.994158,0.087047309,0.45290411,-0.88729954,0
5.2473307,0.94673812,-1.9618212,0.99612623,-0.028429791,0.083212137,0
-4.1157517,-0.62336993,2.6390476,-0.087047309,-0.45290411,0.88729954,0
0.87465024,-4.364645,1.2712333,-0.087047309,-0.45290411,0.88729954,0
-4.4930401,2.7244301,-1.4020395,-0.93093073,0.35408282,0.089406766,0
4.7884212,-0.041887999,1.7634782,0.98469996,0.095851868,0.14552823,0
2.2756295,-3.4393723,-2.9740326,0.43714228,-0.81771392,-0.37450027,0
4.7608604,-1.0628638,1.9792216,0.99620372,-0.038746253,0.077953994,0
0.31717545,3.1175017,4.7969179,0.11548252,0.88008815,0.46055257,0
-3.3160415,-4.6272001,0.46884012,-0.60221756,-0.68558919,-0.40902495,0
-1.9931684,4.7319822,-1.2061486,0.087047309,0.45290411,-0.88729954,0
2.1241226,-2.4924967,2.347482,-0.087047309,-0.45290411,0.88729954,0
1.8686105,4.6282701,1.2435927,0.3420499,0.82294482,0.45361197,0
-4.8520269,0.72384071,0.14283061,-0.98640406,0.16381052,-0.013156027,0
-3.7746887,2.5726702,2.0787141,-0.73874527,0.62689227,0.24751091,0
3.03213,1.559406,-2.3175261,0.087047309,0.45290411,-0.88729954,0
4.2501349,-0.058116436,3.7338133,-0.087047309,-0.45290411,0.88729954,0
-2.777375,-0.092906952,-3.6145639,0.087047309,0.45290411,-0.88729954,0
-3.63627,3.3070178,1.2012887,-0.71072483,0.65235436,0.2632564,0
-4.861546,-0.29607868,-0.8097198,-0.98893756,-0.068097234,-0.1317772,0
1.2992606,0.46946692,-2.9412961,0.087047309,0.45290411,-0.88729954,0
1.1595225,3.5775323,-1.4869399,0.087047309,0.45290411,-0.88729954,0
3.476161,0.66553068,4.0506334,-0.087047309,-0.45290411,0.88729954,0
-0.17924881,-0.91605997,-3.9731822,0.087047309,0.45290411,-0.88729954,0
2.4023857,2.2778487,-2.0118458,0.087047309,0.45290411,-0.88729954,0
-3.8914218,0.049550533,-3.7248013,0.087047309,0.45290411,-0.88729954,0
2.7346263,4.2019401,0.94594669,0.51898968,0.73964721,0.42845273,0
-2.1910186,0.33302283,3.3036325,-0.087047309,-0.45290411,0.88729954,0
-1.1441,-3.0513797,1.6676219,-0.087047309,-0.45290411,0.88729954,0
3.5217061,-0.95314169,-3.591249,0.087047309,0.45290411,-0.88729954,0
0.21562171,-4.3251691,1.2504578,-0.087047309,-0.45290411,0.88729954,0
-3.4045281,-0.90798998,-4.0986438,0.087047309,0.45290411,-0.88729954,0
-3.7229214,1.3748157,3.779748,-0.087047309,-0.45290411,0.88729954,0
-4.8778381,0.88191652,-1.3610997,-0.99522179,0.079081267,-0.057269424,0
-5.1875839,-1.8110942,1.6520467,-0.97933376,-0.12431791,-0.15953171,0
2.8528395,3.7093563,2.0021095,0.55539191,0.7173546,0.42064518,0
-2.5846472,5.1224155,-0.99709034,-0.55812597,0.75994176,0.33314276,0
0.028413057,-4.7771559,0.87872982,-0.087047309,-0.45290411,0.88729954,0
4.9490881,-0.2688446,0.059181809,0.99541557,-0.074975818,0.059383988,0
-4.8149519,-1.2805097,-0.30475807,-0.96553248,-0.18095636,-0.18708783,0
-0.68434769,0.85959244,3.8104248,-0.087047309,-0.45290411,0.88729954,0
1.9220545,-5.1806078,0.32270908,0.43227997,-0.81962919,-0.37595499,0
-4.8543091,1.0090843,-0.46438307,-0.98339987,0.18140996,-0.0038780719,0
-5.0818391,0.51021248,-0.051118731,-0.99278754,0.11314204,-0.039644986,0
3.7596259,0.55852747,-2.7646334,0.087047309,0.45290411,-0.88729954,0
0.10967585,1.0533185,3.9686096,-0.087047309,-0.45290411,0.88729954,0
4.0465612,4.0603242,-0.98210287,0.087047309,0.45290411,-0.88729954,0
5.1841598,0.85222936,-2.4526274,0.99207199,-0.12045023,0.035844475,0
-2.0680435,5.0750346,-0.2429471,-0.47542566,0.80159366,0.36251634,0
0.81235874,3.9772615,3.0927277,0.15821803,0.87309009,0.46117294,0
2.5252068,-3.3472266,-3.3546653,0.47010139,-0.80394864,-0.36424065,0
2.0470228,-4.5016961,1.3313529,-0.087047309,-0.45290411,0.88729954,0
4.1800394,2.3216949,1.2355833,0.84506887,0.43807489,0.30651087,0
-1.1444819,4.5318732,1.6422191,-0.23795351,0.87435156,0.42295098,0
-2.7167263,2.7029772,-2.2171209,0.087047309,0.45290411,-0.88729954,0
2.1397505,-3.2627349,1.9266146,-0.087047309,-0.45290411,0.88729954,0
-4.8593507,0.91073883,1.4115012,-0.9542405,0.29369348,0.056295477,0
-1.9386235,1.6596937,3.9793582,-0.087047309,-0.45290411,0.88729954,0
3.7989755,4.0483274,-0.16856766,0.7138623,0.5928936,0.37266308,0
3.9015439,1.936013,2.4736521,0.81139714,0.48452145,0.32691514,0
1.2468892,-2.8456256,-4.691412,0.087047309,0.45290411,-0.88729954,0
3.3773439,1.0703669,4.2270083,-0.087047309,-0.45290411,0.88729954,0
-1.3523591,3.7387152,-1.5041032,0.087047309,0.45290411,-0.88729954,0
0.852054,0.43401384,3.6375818,-0.087047309,-0.45290411,0.88729954,0
4.9186926,-0.83389711,-1.4397537,0.95465535,-0.29246941,-0.055629954,0
-2.5145817,-2.2974186,1.9441493,-0.087047309,-0.45290411,0.88729954,0
-2.8935571,0.21669579,-3.4757168,0.087047309,0.45290411,-0.88729954,0
-1.6593924,-3.9720657,-2.7608848,-0.33194938,-0.82659227,-0.45448279,0
-2.8412497,2.7910545,3.923311,-0.53519529,0.77248991,0.34179729,0
2.7297857,2.6156569,3.7233031,0.59256124,0.69244248,0.41157573,0
-0.67160195,-3.270272,1.718477,-0.087047309,-0.45290411,0.88729954,0
4.1235013,3.6588755,-0.3170166,0.7766487,0.52695203,0.34516406,0
5.0925875,-0.22402701,-0.81367171,0.98931247,-0.14388646,0.023611203,0
-2.8953233,3.8570266,1.4036982,-0.58705306,0.74292076,0.32161695,0
-3.4231069,-2.3023736,-3.0503564,-0.7027936,-0.60334092,-0.37690979,0
4.9054933,0.66666186,1.1118941,0.97425205,0.14724755,0.17073721,0
0.72537291,-0.34904146,-3.5811872,0.087047309,0.45290411,-0.88729954,0
-0.44374394,-3.5462272,1.5581238,-0.087047309,-0.45290411,0.88729954,0
3.4720731,-3.3545728,-1.0515702,0.70638698,-0.65610647,-0.26559716,0
4.9565067,-0.89036453,0.1173898,0.98800892,-0.15326022,0.018698648,0
-0.1415242,-4.4323487,1.0789428,-0.087047309,-0.45290411,0.88729954,0
-0.1675576,-2.1205735,-4.5330353,0.087047309,0.45290411,-0.88729954,0
2.3637817,-3.1991105,1.9011344,-0.087047309,-0.45290411,0.88729954,0
4.9513292,0.64764452,-2.524817,0.087047309,0.45290411,-0.88729954,0
3.3368402,-1.1252646,3.0737166,-0.087047309,-0.45290411,0.88729954,0
-1.5793393,-3.8346999,1.2704825,-0.087047309,-0.45290411,0.88729954,0
-3.1340227,3.1428251,2.5673766,-0.59264767,0.73946792,0.31930554,0
-1.151088,0.1494112,3.39224,-0.087047309,-0.45290411,0.88729954,0
-1.0421592,-4.5980954,0.98640823,-0.087047309,-0.45290411,0.88729954,0
-4.1000338,-2.6760383,1.7247214,-0.087047309,-0.45290411,0.88729954,0
-1.6560979,2.2070723,4.2782674,-0.087047309,-0.45290411,0.88729954,0
4.5808058,0.17771387,2.8694115,0.95114326,0.22706288,0.20921028,0
-1.5448656,-2.9989107,-4.5867872,-0.34024063,-0.82360625,-0.45377207,0
3.426537,4.0252724,0.61950254,0.64464438,0.65345031,0.39678246,0
-4.9712234,-0.92556882,-0.61429954,-0.97361493,-0.14992157,-0.17203957,0
-1.8545983,1.9848707,-2.4953153,0.087047309,0.45290411,-0.88729954,0
-1.2178109,5.4509048,-0.70644188,0.087047309,0.45290411,-0.88729954,0
-1.0276051,-0.94927144,2.7015376,-0.087047309,-0.45290411,0.88729954,0
2.971338,-0.98795152,-3.5010047,0.087047309,0.45290411,-0.88729954,0
0.013223186,-0.30086422,-3.5415115,0.087047309,0.45290411,-0.88729954,0
3.7188749,3.2925801,1.1586909,0.73161852,0.57545024,0.36550134,0
1.3309914,-2.6031196,-4.4919019,0.087047309,0.45290411,-0.88729954,0
-0.4974322,-1.5319281,-4.3113632,0.087047309,0.45290411,-0.88729954,0
-3.1539366,-2.3095191,-3.5387392,-0.68245351,-0.62174338,-0.38430756,0
4.4535098,2.5456047,0.1617527,0.87894225,0.38433063,0.2824012,0
3.1990685,-2.6172771,-3.9419787,0.58074003,-0.74675322,-0.3241924,0
-0.93376124,1.109277,3.8328662,-0.087047309,-0.45290411,0.88729954,0
3.1247115,-3.0140462,2.2331181,-0.087047309,-0.45290411,0.88729954,0
1.1441152,5.3882937,0.38294792,0.18557625,0.86771798,0.46111488,0
0.36804473,-3.7799377,1.5228512,-0.087047309,-0.45290411,0.88729954,0
-2.8557539,2.9473548,-2.0705595,0.087047309,0.45290411,-0.88729954,0
3.6491995,-0.30106783,3.6180437,-0.087047309,-0.45290411,0.88729954,0
0.69562656,0.96001601,-2.8867993,0.087047309,0.45290411,-0.88729954,0
-4.3044844,1.5258756,2.909349,-0.82863063,0.52732831,0.18787242,0
-0.93480515,3.0466466,-1.8463191,0.087047309,0.45290411,-0.88729954,0
3.8806348,4.0248222,-0.32320547,0.71781874,0.58908153,0.37110531,0
-2.5349715,-4.546556,-0.55284214,-0.48959845,-0.75624251,-0.43404007,0
4.9787683,-0.65540266,-1.3422214,0.96460271,-0.26087734,-0.038528532,0
-3.1843367,1.7741141,4.0137658,-0.087047309,-0.45290411,0.88729954,0
4.316762,3.3033242,-0.10065317,0.80959964,0.48684168,0.32792318,0
-5.0848355,0.0019692779,1.0523201,-0.99231189,0.11807676,-0.037079483,0
-3.3375697,3.3774719,-2.0693171,0.087047309,0.45290411,-0.88729954,0
3.0375907,-0.66174364,3.2755067,-0.087047309,-0.45290411,0.88729954,0
3.2716255,1.1772432,4.2789421,-0.087047309,-0.45290411,0.88729954,0
4.9163814,-0.73303938,-0.54995382,0.9762693,-0.21607287,-0.014514476,0
-3.9727147,-2.6669562,1.5992448,-0.087047309,-0.45290411,0.88729954,0
2.0726874,3.9040375,2.265275,0.41738823,0.7921536,0.44528615,0
-2.5593686,0.62221479,-3.4028697,0.087047309,0.45290411,-0.88729954,0
0.84979248,5.0188398,1.1483841,0.15242326,0.87413818,0.46113938,0
-0.93877101,0.46947765,-3.2329607,0.087047309,0.45290411,-0.88729954,0
-0.029713154,5.3120241,0.51520014,-0.049442887,0.89154685,0.45022154,0
2.5372086,2.5714107,3.9690254,0.54001951,0.72701204,0.42406654,0
1.3145373,-3.2057846,-4.4219737,0.23934636,-0.87409955,-0.42268568,0
-1.0979723,3.150161,-1.9705744,0.087047309,0.45290411,-0.88729954,0
2.3162413,-3.8229022,-2.1408298,0.45369589,-0.81097305,-0.36943561,0
0.76705396,0.34426284,-3.1653905,0.087047309,0.45290411,-0.88729954,0
0.011253893,2.8783522,4.8509703,-0.087047309,-0.45290411,0.88729954,0
-4.9760227,-0.53279972,-0.66674972,-0.98596495,-0.088205427,-0.14174944,0
0.50298977,-1.7233403,2.4597208,-0.087047309,-0.45290411,0.88729954,0
-4.2080364,-1.9556289,-1.9515688,-0.85301143,-0.42618826,-0.30122268,0
-3.3800402,-1.7964563,-4.0404215,-0.7292459,-0.5778318,-0.36648417,0
0.93612123,4.2400784,-1.0688901,0.087047309,0.45290411,-0.88729954,0
-1.8229678,-5.3431473,-0.14418602,-0.30579454,-0.83553296,-0.4564805,0
-3.2958963,1.2401433,3.7005215,-0.087047309,-0.45290411,0.88729954,0
-0.83813524,5.3224912,0.46948433,-0.18426839,0.882631,0.43244374,0
0.77873194,-2.2204876,-4.4551959,0.087047309,0.45290411,-0.88729954,0
0.29291248,4.3152885,2.4936934,0.078566611,0.88478512,0.45932835,0
-0.24517232,2.2620478,4.4972849,-0.087047309,-0.45290411,0.88729954,0
-4.8334856,0.84355348,-0.070893645,-0.98730499,0.15800729,-0.016206563,0
0.053832352,2.1501184,4.4050364,-0.087047309,-0.45290411,0.88729954,0
1.985772,-2.672873,2.1370311,-0.087047309,-0.45290411,0.88729954,0
-0.95744932,3.2880754,-1.8736575,0.087047309,0.45290411,-0.88729954,0
-2.315083,-3.3057659,1.3705003,-0.087047309,-0.45290411,0.88729954,0
1.5788469,-0.35828972,-3.317071,0.087047309,0.45290411,-0.88729954,0
2.0057344,-3.3114707,-3.8863468,0.35819516,-0.84534276,-0.39634788,0
5.0247493,0.80508357,-0.16815448,0.98762012,0.077439934,0.13641682,0
-3.6691422,3.9934123,-0.94954252,-0.78280818,0.58197612,0.22026163,0
3.3159013,-3.6424484,-0.71407199,0.68535876,-0.67362738,-0.27660331,0
1.6160918,-4.3399777,-2.2220709,0.31474993,-0.85755986,-0.40684599,0
0.35375166,4.8096156,-0.82962894,0.087047309,0.45290411,-0.88729954,0
-3.3700984,-1.138669,-4.3087358,0.087047309,0.45290411,-0.88729954,0
1.6152104,0.10146523,3.5360548,-0.087047309,-0.45290411,0.88729954,0
2.5854132,-3.2497437,-3.0004234,0.49903503,-0.79069388,-0.35463655,0
-2.8484585,4.4816775,-0.026821613,-0.60451508,0.73196328,0.31431079,0
4.7903075,0.14320993,2.1130929,0.97470546,0.14532015,0.1697979,0
3.729291,-4.0879164,1.5588517,-0.087047309,-0.45290411,0.88729954,0
-3.1431367,2.7587636,3.3761716,-0.60855937,0.72934866,0.31257945,0
-5.0302916,0.86695427,0.26889038,-0.98059583,0.19600236,0.0038454533,0
4.5839581,0.529634,2.2253542,0.94716394,0.23838539,0.21459919,0
-3.2181554,3.6413414,1.0888915,-0.649261,0.70132571,0.29428267,0
1.8186758,1.8705187,4.4998264,-0.087047309,-0.45290411,0.88729954,0
1.9161043,-5.2192702,0.16095924,0.40272853,-0.83065283,-0.38448089,0
1.1463287,-5.5609403,0.6131134,-0.087047309,-0.45290411,0.88729954,0
-4.2450576,2.40481,0.90182203,-0.85410869,0.49237362,0.16753104,0
1.7331004,2.0430427,4.6083403,-0.087047309,-0.45290411,0.88729954,0
3.3595858,-3.6911907,1.8231637,-0.087047309,-0.45290411,0.88729954,0
-3.2062919,-3.2862382,-1.8699608,-0.64555955,-0.65271854,-0.39649868,0
4.5944748,-1.9961033,-0.58339751,0.91027439,-0.39803827,-0.11386938,0
3.9914842,-2.626199,-1.5632001,0.79306108,-0.57053322,-0.213415,0
-3.3871107,-1.2116547,-4.2648678,0.087047309,0.45290411,-0.88729954,0
4.689044,2.1847532,-1.7537005,0.087047309,0.45290411,-0.88729954,0
0.2121366,-1.4338946,-4.0586262,0.087047309,0.45290411,-0.88729954,0
2.5299108,5.1410747,-0.46271372,0.44929999,0.77709979,0.44073296,0
3.6012366,-3.7632418,-0.25000167,0.73689491,-0.6286422,-0.24858567,0
-4.2640762,-1.3905852,-2.5881674,-0.8639226,-0.40918148,-0.29361236,0
2.3321738,3.705956,-1.1838117,0.087047309,0.45290411,-0.88729954,0
1.8771026,-5.4322457,0.51671791,0.42417654,-0.82275659,-0.3783462,0
-4.9712358,0.18022108,1.9121413,-0.97666448,0.21434027,0.013591334,0
-3.3556385,-1.8019605,-4.1060228,-0.70308977,-0.60306531,-0.37679815,0
-1.5176904,4.7246971,-1.0143728,0.087047309,0.45290411,-0.88729954,0
-2.262166,4.8348274,0.30179453,-0.47874275,0.80010748,0.36143231,0
2.5675447,-4.9333963,0.19427443,0.54633248,-0.76649624,-0.33764535,0
4.1474495,-1.1770411,3.2401302,-0.087047309,-0.45290411,0.88729954,0
-3.2778659,3.1427109,2.2801285,-0.64269316,0.70606679,0.29734701,0
4.1501932,-0.73979568,3.5091455,-0.087047309,-0.45290411,0.88729954,0
0.3059665,-1.5230525,-4.0435591,0.087047309,0.45290411,-0.88729954,0
-0.70067048,4.115922,2.7526095,-0.10947695,0.88963485,0.44335604,0
-3.9586821,0.55304003,-3.5616553,0.087047309,0.45290411,-0.88729954,0
0.91745543,-4.8059449,0.92513895,-0.087047309,-0.45290411,0.88729954,0
-4.8745227,0.26113892,-1.9422649,-0.9895032,-0.063825339,-0.12965223,0
5.1309071,0.31788707,-2.3957882,0.98145032,-0.19171017,-0.0015707612,0
0.29567552,3.0706751,-1.8220377,0.087047309,0.45290411,-0.88729954,0
-3.321167,2.1527226,-2.5417514,0.087047309,0.45290411,-0.88729954,0
-1.2414594,0.40599036,3.3665526,-0.087047309,-0.45290411,0.88729954,0
3.184607,-3.4840698,-1.7235873,0.626845,-0.71715295,-0.30456048,0
1.4619415,-5.4260225,0.20134878,0.34421456,-0.8494966,-0.39983964,0
4.7652059,-1.4439222,0.6100589,0.97461283,-0.22314861,-0.018288657,0
-0.85539109,-3.1953657,1.7457314,-0.087047309,-0.45290411,0.88729954,0
3.7616007,-2.1522791,-3.59395,0.70307851,-0.65893567,-0.26736581,0
-1.5643216,-2.0627651,2.0676475,-0.087047309,-0.45290411,0.88729954,0
1.3006978,-1.7272499,-4.0405436,0.087047309,0.45290411,-0.88729954,0
0.27213597,4.0543728,3.0367818,0.058843464,0.88678771,0.45841563,0
4.4765949,1.4858553,1.5800338,0.9002763,0.34558317,0.26471627,0
-4.8047071,0.89931822,-0.53486204,-0.99019587,0.13701017,-0.027207717,0
-2.4653006,-0.9784379,2.5657957,-0.087047309,-0.45290411,0.88729954,0
4.2997446,-2.9570808,0.36929941,0.86850893,-0.47078329,-0.15509795,0
-4.0147152,-2.8136413,-0.98719358,-0.8024019,-0.49598724,-0.33188516,0
-4.4683065,1.2323258,3.0391998,-0.85794938,0.48675722,0.16428746,0
-1.6402583,3.9681692,2.5531602,-0.32744166,0.85420018,0.40388602,0
-0.0074228644,3.1702273,4.9620924,0.046605438,0.8878538,0.4577592,0
-2.8748212,-4.7573028,0.03264904,-0.51593935,-0.74142617,-0.42906159,0
-2.9257545,1.3443499,-3.0816917,0.087047309,0.45290411,-0.88729954,0
-1.1672843,2.248471,4.3491488,-0.087047309,-0.45290411,0.88729954,0
3.8956563,-1.4980471,-3.7162282,0.087047309,0.45290411,-0.88729954,0
-3.1797538,3.4297287,1.6285827,-0.6453476,0.70416117,0.29611388,0
2.3046975,-4.9557395,1.0403132,-0.087047309,-0.45290411,0.88729954,0
1.8407679,-1.0198462,-3.6574154,0.087047309,0.45290411,-0.88729954,0
-1.2929993,2.0372472,4.2776012,-0.087047309,-0.45290411,0.88729954,0
1.4810536,-0.3226757,-3.3345461,0.087047309,0.45290411,-0.88729954,0
1.285252,2.7979169,-1.789283,0.087047309,0.45290411,-0.88729954,0
0.36581755,5.7969613,-0.35524082,0.087047309,0.45290411,-0.88729954,0
4.5396056,3.0124447,-1.3476,0.087047309,0.45290411,-0.88729954,0
-3.4771872,-3.6966083,1.1081257,-0.087047309,-0.45290411,0.88729954,0
-1.982076,-3.9125142,1.2044749,-0.087047309,-0.45290411,0.88729954,0
-2.9387758,-4.222888,-0.63483763,-0.57888603,-0.7018733,-0.41504788,0
-1.3484005,-2.7853303,-4.9908533,-0.33210832,-0.82653582,-0.45446956,0
4.5928369,-0.79624844,3.407299,0.98311085,0.10487735,0.14997923,0
4.2880917,-3.1726456,1.8136148,0.90333849,-0.41139865,-0.12136936,0
-0.53700405,-1.4298601,-4.0694485,0.087047309,0.45290411,-0.88729954,0
0.93858004,5.1003332,1.0980291,0.16391793,0.87202877,0.4611904,0
-0.59014821,-4.4168372,1.1693144,-0.087047309,-0.45290411,0.88729954,0
0.9027319,3.8160036,3.09904,0.19346733,0.86603731,0.46103108,0
-2.5802913,-3.0838401,1.5637615,-0.087047309,-0.45290411,0.88729954,0
1.2337334,-2.937052,1.8985156,-0.087047309,-0.45290411,0.88729954,0
-0.6751703,3.7888508,-1.4938335,0.087047309,0.45290411,-0.88729954,0
-0.47775549,3.0004582,4.9234219,-0.087047309,-0.45290411,0.88729954,0
4.5404863,-2.6007636,1.662109,0.94585127,-0.3171607,-0.069096833,0
-2.6408238,-0.98987317,2.7200418,-0.087047309,-0.45290411,0.88729954,0
1.8406866,-5.1781039,0.080901146,0.3977595,-0.83240467,-0.38586253,0
-0.94828284,-2.0377336,-4.4800186,0.087047309,0.45290411,-0.88729954,0
-0.39128888,-1.9309955,-4.5043278,0.087047309,0.45290411,-0.88729954,0
2.3816218,-5.0837727,0.78175402,0.54475152,-0.76735842,-0.3382405,0
-2.7588778,-4.2670159,-0.87228012,-0.52196717,-0.73789763,-0.42785186,0
3.9423153,-1.9463809,-3.3285186,0.75818205,-0.60787541,-0.2358973,0
-0.10091364,-4.7952204,-1.5321212,-0.032153398,-0.88893908,-0.45689529,0
-4.9873328,-0.99746537,2.3890831,-0.087047309,-0.45290411,0.88729954,0
4.1202564,3.9936264,-0.86277342,0.77506739,0.52877021,0.34593689,0
4.7917285,-0.59212685,2.1578512,0.99405974,0.018920273,0.10717833,0
2.53654,-4.6245785,1.238205,-0.087047309,-0.45290411,0.88729954,0
-4.3105526,-2.8120933,1.5307479,-0.087047309,-0.45290411,0.88729954,0
1.7765936,3.9022784,-1.1732769,0.087047309,0.45290411,-0.88729954,0
-0.62441832,0.57326365,3.6589265,-0.087047309,-0.45290411,0.88729954,0
-3.0237985,-2.972295,1.5902402,-0.087047309,-0.45290411,0.88729954,0
-2.6169138,-3.5118709,1.3397465,-0.087047309,-0.45290411,0.88729954,0
-2.5299778,3.6517181,2.4701509,-0.48238659,0.7984581,0.36023301,0
-4.9500465,-1.4104472,2.2588851,-0.087047309,-0.45290411,0.88729954,0
-0.58813345,4.5729508,1.9492407,-0.1127286,0.88943774,0.44293636,0
-2.0558167,-3.7396297,1.2271161,-0.087047309,-0.45290411,0.88729954,0
-4.4518929,1.5157843,2.467494,-0.86891657,0.47015005,0.15473473,0
-0.58641815,-3.7293081,1.3817635,-0.087047309,-0.45290411,0.88729954,0
-3.6172905,-1.9226172,-3.5429571,-0.75369555,-0.55248946,-0.35594732,0
0.3453238,-5.5026083,0.5049367,-0.087047309,-0.45290411,0.88729954,0
0.313357,-0.63307428,2.9835854,-0.087047309,-0.45290411,0.88729954,0
