-1.162425,2.2048676,2.7016497,-0.98309207,0.089672446,-0.15965214,0
-1.0060196,3.3397126,2.1010437,-0.98309207,0.089672446,-0.15965214,0
-1.1704667,3.970119,2.6170573,-0.98309207,0.089672446,-0.15965214,0
-0.98991203,-0.38114774,-0.2090801,-0.98309207,0.089672446,-0.15965214,0
-0.34688702,4.8146114,-1.1168666,-0.98309207,0.089672446,-0.15965214,0
-1.0882201,1.9886869,1.8893676,-0.98309207,0.089672446,-0.15965214,0
-1.584693,-2.8838339,1.7261271,-0.98309207,0.089672446,-0.15965214,0
-1.4828095,-4.8921399,0.11842871,-0.98309207,0.089672446,-0.15965214,0
0.49855304,4.7267518,-1.3958588,0.13339584,0.94800746,-0.28894186,0
-1.158483,3.6223006,3.1401138,-0.98309207,0.089672446,-0.15965214,0
-0.25980759,4.536006,-2.4485717,0.15351111,0.87890571,-0.45161843,0
0.4946363,4.4804325,2.3680725,0.0056137443,0.88623261,0.46320638,0
-1.4035988,-1.1237347,4.6692877,-0.17723316,-0.24682729,0.95271438,0
-1.3475778,-3.3025415,-0.22263074,-0.98309207,0.089672446,-0.15965214,0
-0.62437558,1.2892231,-1.7970594,-0.98309207,0.089672446,-0.15965214,0
-1.5638649,-1.2590721,2.607336,-0.98309207,0.089672446,-0.15965214,0
-0.80775046,-0.34243026,-0.89522475,-0.98309207,0.089672446,-0.15965214,0
-1.3335747,-4.2823944,-0.32750201,-0.98309207,0.089672446,-0.15965214,0
-1.4138303,-3.3211803,1.1886423,-0.98309207,0.089672446,-0.15965214,0
-1.1114576,-4.3038917,-1.6431165,-0.98309207,0.089672446,-0.15965214,0
1.3674341,4.6419406,-1.6665301,0.14296019,0.92068481,-0.36318254,0
-1.0757978,2.6752949,1.6686602,-0.98309207,0.089672446,-0.15965214,0
-0.66414571,-1.4342307,-3.5404229,-0.98309207,0.089672446,-0.15965214,0
0.97745979,-0.84373653,-0.6688292,0.98309207,-0.089672446,0.15965214,0
1.077513,-1.5733393,-0.76540446,0.98309207,-0.089672446,0.15965214,0
-1.3160466,-1.267418,1.2477995,-0.98309207,0.089672446,-0.15965214,0
0.0032846928,-4.4278564,2.2641339,-0.15186822,-0.88640457,0.43729043,0
-0.3492856,3.7040548,-1.4991212,-0.98309207,0.089672446,-0.15965214,0
0.28167319,-2.7899828,2.557085,0.98309207,-0.089672446,0.15965214,0
-1.4932708,-4.5293903,0.71394396,-0.98309207,0.089672446,-0.15965214,0
-1.1569474,-2.7657142,-0.86396873,-0.98309207,0.089672446,-0.15965214,0
-1.5455029,-0.50866783,3.2348189,-0.98309207,0.089672446,-0.15965214,0
1.5019245,0.59458184,-2.6194553,0.98309207,-0.089672446,0.15965214,0
-1.1923721,2.5231023,2.8581429,-0.98309207,0.089672446,-0.15965214,0
-1.7449455,0.49726391,4.7524462,-0.98309207,0.089672446,-0.15965214,0
-0.45908928,-2.3371239,4.3987041,-0.18311173,-0.48030478,0.85777467,0
-0.53036189,-0.20106211,-3.4492311,-0.98309207,0.089672446,-0.15965214,0
0.57256985,1.3164563,4.0611033,0.98309207,-0.089672446,0.15965214,0
0.41526961,-2.6805415,2.4146416,0.98309207,-0.089672446,0.15965214,0
-1.1247005,-4.5488634,1.5947075,-0.14159903,-0.92510641,0.35231781,0
1.5862744,0.76139712,-2.6647797,0.98309207,-0.089672446,0.15965214,0
-0.97610974,-3.263083,-2.5385695,-0.98309207,0.089672446,-0.15965214,0
0.84490287,-1.3974257,0.80166817,0.98309207,-0.089672446,0.15965214,0
-1.065485,2.8570056,3.9240549,-0.083179176,0.5580436,0.82563215,0
-1.1911429,-0.41994417,1.2295225,-0.98309207,0.089672446,-0.15965214,0
-0.14840984,2.2623789,-4.4737153,-0.98309207,0.089672446,-0.15965214,0
-0.34358549,-1.3567322,-4.9128346,-0.98309207,0.089672446,-0.15965214,0
-0.71726751,-1.5812496,-3.1484299,-0.98309207,0.089672446,-0.15965214,0
0.018584251,-0.10062551,-5.1214128,0.15586221,-0.047830522,-0.98662007,0
-1.8271198,-1.2521503,4.4239955,-0.98309207,0.089672446,-0.15965214,0
-1.6347102,-2.9085457,1.6333232,-0.98309207,0.089672446,-0.15965214,0
-0.79523325,-3.5425756,-2.9672103,-0.98309207,0.089672446,-0.15965214,0
-0.87172043,2.9795833,0.46796823,-0.98309207,0.089672446,-0.15965214,0
-0.20870876,-2.3908522,4.508698,-0.18296939,-0.44667065,0.87578958,0
-1.0597416,-2.8134947,-0.98337579,-0.98309207,0.089672446,-0.15965214,0
0.78507316,-4.0407128,-0.85976028,0.98309207,-0.089672446,0.15965214,0
0.29375982,-2.2177358,-4.4195776,0.10157973,-0.45835543,-0.882945,0
-0.35710168,-4.2931414,-2.5405221,0.0058549643,-0.85604346,-0.51687074,0
0.97433776,1.6328883,1.3814875,0.98309207,-0.089672446,0.15965214,0
-1.3923908,-4.729866,0.14746904,-0.98309207,0.089672446,-0.15965214,0
0.77941841,4.9128933,0.94370985,0.062396631,0.98375404,0.16832888,0
-0.70519161,-0.71554863,-2.9263496,-0.98309207,0.089672446,-0.15965214,0
-0.9376595,-1.8584433,-1.6852201,-0.98309207,0.089672446,-0.15965214,0
-0.19924402,4.0466223,-3.0188975,-0.98309207,0.089672446,-0.15965214,0
0.055879325,4.9622889,-0.12959146,0.091274343,0.99582207,-0.0027134418,0
-0.62266016,4.84196,-0.25063562,-0.98309207,0.089672446,-0.15965214,0
-0.50113267,4.9361176,0.07115221,-0.98309207,0.089672446,-0.15965214,0
0.34641874,4.8969374,1.0387855,0.054859132,0.97606933,0.21042603,0
0.95543456,1.4266109,1.0635989,0.98309207,-0.089672446,0.15965214,0
0.91891336,0.04399848,-4.8849077,0.16234314,0.02351594,-0.98645407,0
-1.3634665,0.21277511,2.385138,-0.98309207,0.089672446,-0.15965214,0
1.2490945,1.7565129,0.0096638203,0.98309207,-0.089672446,0.15965214,0
-1.0877575,3.0333521,1.6423912,-0.98309207,0.089672446,-0.15965214,0
0.61919713,2.9285028,3.7118859,0.98309207,-0.089672446,0.15965214,0
-1.6860814,-2.0978308,4.1799412,-0.18285304,-0.434407,0.88196111,0
-1.5589335,-1.6634064,2.218199,-0.98309207,0.089672446,-0.15965214,0
0.42919111,-4.6126952,-2.0143285,-0.011862516,-0.90124017,-0.43315747,0
1.4785581,-0.69862795,-2.7396157,0.98309207,-0.089672446,0.15965214,0
-0.19054747,0.81671244,-4.3189783,-0.98309207,0.089672446,-0.15965214,0
-1.0071696,-0.27772719,-0.016274799,-0.98309207,0.089672446,-0.15965214,0
-1.221113,-0.21878481,0.74874789,-0.98309207,0.089672446,-0.15965214,0
-1.0631657,0.98565197,4.7577257,-0.14103436,0.18527535,0.97251338,0
0.55013466,-2.0650787,1.1617069,0.98309207,-0.089672446,0.15965214,0
-0.69232583,0.5165748,-2.246217,-0.98309207,0.089672446,-0.15965214,0
0.021257877,3.2227173,-4.0429277,0.18061149,0.61845362,-0.76478404,0
1.6236479,-1.063318,-3.7093706,0.98309207,-0.089672446,0.15965214,0
1.3952127,0.39016318,-2.436708,0.98309207,-0.089672446,0.15965214,0
0.28365415,-4.7887397,1.4789629,-0.13199197,-0.95134604,0.27842224,0
-0.6729967,4.7522311,0.48438454,-0.98309207,0.089672446,-0.15965214,0
0.78286409,2.3412237,3.336236,0.98309207,-0.089672446,0.15965214,0
0.90046257,0.31556553,0.60074586,0.98309207,-0.089672446,0.15965214,0
-0.36546564,3.0985296,-2.7491341,-0.98309207,0.089672446,-0.15965214,0
-1.6809278,1.8109612,4.586545,-0.11943734,0.34685841,0.93028164,0
-1.2853212,-0.29324222,1.8669066,-0.98309207,0.089672446,-0.15965214,0
0.96513176,-2.0105705,-4.4253173,0.11405563,-0.38222066,-0.9170053,0
-0.54157186,-1.8351561,-3.8032589,-0.98309207,0.089672446,-0.15965214,0
1.363986,1.9854997,-0.6919595,0.98309207,-0.089672446,0.15965214,0
-1.2224636,-4.2814217,-0.83251524,-0.98309207,0.089672446,-0.15965214,0
-0.4335894,4.0154214,-0.96935558,-0.98309207,0.089672446,-0.15965214,0
-1.767246,-3.6399326,2.4273667,-0.98309207,0.089672446,-0.15965214,0
-1.7618458,-4.2683668,1.6883173,-0.98309207,0.089672446,-0.15965214,0
-0.97897339,2.1421199,1.4937923,-0.98309207,0.089672446,-0.15965214,0
-0.63394761,-0.11004288,-2.980927,-0.98309207,0.089672446,-0.15965214,0
-0.30399561,-0.67369235,-4.7382946,-0.98309207,0.089672446,-0.15965214,0
1.3670542,0.78686082,-1.2493601,0.98309207,-0.089672446,0.15965214,0
-1.0651762,-1.3418795,-0.84862483,-0.98309207,0.089672446,-0.15965214,0
-1.8235106,-2.4769557,4.0738039,-0.98309207,0.089672446,-0.15965214,0
-0.12663341,3.0311635,-3.7029901,-0.98309207,0.089672446,-0.15965214,0
-1.1422296,1.8989098,1.2117875,-0.98309207,0.089672446,-0.15965214,0
-1.7010884,0.78023171,4.107336,-0.98309207,0.089672446,-0.15965214,0
0.52246428,-2.7918899,0.89881921,0.98309207,-0.089672446,0.15965214,0
-0.68489265,1.554572,-1.1266241,-0.98309207,0.089672446,-0.15965214,0
1.3067408,0.79698372,-4.7884188,0.17317331,0.17196545,-0.96976233,0
1.8161001,0.3685534,-4.461122,0.98309207,-0.089672446,0.15965214,0
1.2149943,0.38423777,-0.74745095,0.98309207,-0.089672446,0.15965214,0
1.0428195,1.1750805,0.18393666,0.98309207,-0.089672446,0.15965214,0
0.62861085,-4.6942463,-0.49755144,0.98309207,-0.089672446,0.15965214,0
0.31658453,5.024395,0.39724445,0.079326876,0.99438447,0.070048332,0
-1.7813026,-4.2849026,2.1011567,-0.98309207,0.089672446,-0.15965214,0
-0.4704783,1.4655654,-2.1435981,-0.98309207,0.089672446,-0.15965214,0
-0.4428668,-0.12722439,-3.8448451,-0.98309207,0.089672446,-0.15965214,0
1.334692,-2.7748716,-3.889256,0.98309207,-0.089672446,0.15965214,0
1.4252572,0.32704949,-4.7215014,0.16708708,0.082609564,-0.98247528,0
-1.1649175,-4.6890736,1.629252,-0.13707986,-0.93847281,0.31698227,0
-1.7854788,-3.0677037,2.3908973,-0.98309207,0.089672446,-0.15965214,0
-1.1700196,0.8787266,1.8380249,-0.98309207,0.089672446,-0.15965214,0
0.014777899,4.0957475,-3.0006022,0.16587049,0.80544591,-0.56898499,0
1.1910117,-0.78170192,-2.03088,0.98309207,-0.089672446,0.15965214,0
-1.7525885,-2.0312815,3.4951277,-0.98309207,0.089672446,-0.15965214,0
1.3552723,-2.8256876,-3.772161,0.98309207,-0.089672446,0.15965214,0
-0.045604706,-2.2947254,4.534584,-0.18276507,-0.42688438,0.88564473,0
0.30703497,-0.64131641,4.2560301,0.98309207,-0.089672446,0.15965214,0
0.32120812,-4.173286,1.9751024,0.98309207,-0.089672446,0.15965214,0
-1.5093415,-0.75151432,3.1621265,-0.98309207,0.089672446,-0.15965214,0
0.60081762,-3.9338715,0.31228733,0.98309207,-0.089672446,0.15965214,0
-0.72152591,-1.9203205,-3.410284,-0.98309207,0.089672446,-0.15965214,0
1.1772993,-2.4606752,-2.4831808,0.98309207,-0.089672446,0.15965214,0
-1.0813122,0.16836512,0.26710564,-0.98309207,0.089672446,-0.15965214,0
-1.2517744,-0.68380624,0.87300718,-0.98309207,0.089672446,-0.15965214,0
-0.79199982,-3.0972757,-3.1970134,-0.98309207,0.089672446,-0.15965214,0
-1.0706975,0.73775315,0.60254169,-0.98309207,0.089672446,-0.15965214,0
-1.2051969,-2.3949981,-0.12585592,-0.98309207,0.089672446,-0.15965214,0
0.86702847,3.8004079,3.2186308,-0.026027381,0.79460007,0.60657519,0
-0.32846618,2.7925675,-2.0890293,-0.98309207,0.089672446,-0.15965214,0
-0.44349623,-0.92595553,-4.4417219,-0.98309207,0.089672446,-0.15965214,0
-0.31500149,0.30896091,-4.7259254,-0.98309207,0.089672446,-0.15965214,0
-1.0579994,-3.8296096,-2.0122881,-0.98309207,0.089672446,-0.15965214,0
1.5103569,1.3644845,-2.5185735,0.98309207,-0.089672446,0.15965214,0
-0.67309642,-1.9490323,-3.2313704,-0.98309207,0.089672446,-0.15965214,0
0.26706171,-1.6201968,3.2076643,0.98309207,-0.089672446,0.15965214,0
-0.91287744,-1.5895908,-1.979367,-0.98309207,0.089672446,-0.15965214,0
1.8534625,1.6965889,-3.5794315,0.98309207,-0.089672446,0.15965214,0
-0.43210799,4.5938296,-1.4678988,-0.98309207,0.089672446,-0.15965214,0
0.98660839,-2.3282776,-1.676438,0.98309207,-0.089672446,0.15965214,0
0.5990243,-3.0013397,1.2131202,0.98309207,-0.089672446,0.15965214,0
1.853864,1.16953,-3.9483476,0.98309207,-0.089672446,0.15965214,0
-0.026780814,-5.0419054,0.20690775,-0.092480019,-0.99566209,0.010227561,0
-0.78166401,-2.0467725,-2.1389425,-0.98309207,0.089672446,-0.15965214,0
-0.6778698,1.5650246,4.6934361,-0.12215912,0.32832503,0.93663216,0
-0.31833315,-1.1832426,4.9831347,-0.17554784,-0.21354201,0.96103203,0
-1.7494776,-1.886425,3.7073579,-0.98309207,0.089672446,-0.15965214,0
-0.6050843,2.2649384,-1.5750103,-0.98309207,0.089672446,-0.15965214,0
1.7227845,1.3901188,-3.3577328,0.98309207,-0.089672446,0.15965214,0
1.7001673,3.912962,-1.5678763,0.98309207,-0.089672446,0.15965214,0
1.7989359,0.67410946,-4.5429745,0.98309207,-0.089672446,0.15965214,0
-1.5519977,2.0670667,4.2220788,-0.98309207,0.089672446,-0.15965214,0
0.5635457,-0.43045112,2.7589426,0.98309207,-0.089672446,0.15965214,0
-1.8141446,-2.4788928,4.1650019,-0.18302661,-0.50781792,0.84179711,0
-0.4259491,0.96026516,-3.7189584,-0.98309207,0.089672446,-0.15965214,0
1.610855,3.7902942,-1.726954,0.98309207,-0.089672446,0.15965214,0
-0.59876943,0.17191222,-2.3278656,-0.98309207,0.089672446,-0.15965214,0
-1.6786823,-0.62329578,4.2489858,-0.98309207,0.089672446,-0.15965214,0
-0.59676588,1.4886514,-2.1672521,-0.98309207,0.089672446,-0.15965214,0
0.55561799,-2.031774,1.1212091,0.98309207,-0.089672446,0.15965214,0
0.51700354,-4.7452731,0.77302027,0.98309207,-0.089672446,0.15965214,0
-1.1418935,1.3439242,1.1444319,-0.98309207,0.089672446,-0.15965214,0
0.72393584,-3.8277068,0.27850676,0.98309207,-0.089672446,0.15965214,0
-0.83151466,1.1587498,-0.67894673,-0.98309207,0.089672446,-0.15965214,0
-0.58997393,0.4505167,5.0292974,-0.15272307,0.079480946,0.98506761,0
-0.55829108,-4.4775944,1.9239736,-0.14636835,-0.90872711,0.39088547,0
-0.016925335,4.0122137,-3.2175169,0.1696859,0.77383661,-0.61023235,0
-0.77671838,2.2360229,-0.38289642,-0.98309207,0.089672446,-0.15965214,0
-1.4087558,2.2614717,3.6335199,-0.98309207,0.089672446,-0.15965214,0
-1.7874823,0.20103335,4.7096143,-0.98309207,0.089672446,-0.15965214,0
1.4902383,4.1004362,-0.39721012,0.98309207,-0.089672446,0.15965214,0
-0.26691699,3.1992342,-3.4187579,-0.98309207,0.089672446,-0.15965214,0
0.88201177,-1.7371855,-0.31663454,0.98309207,-0.089672446,0.15965214,0
-0.55480433,3.5635836,-0.43421316,-0.98309207,0.089672446,-0.15965214,0
1.0104501,-1.3121203,-0.23022223,0.98309207,-0.089672446,0.15965214,0
1.5494237,2.8177483,-1.8136582,0.98309207,-0.089672446,0.15965214,0
1.759197,3.8542564,-2.038795,0.98309207,-0.089672446,0.15965214,0
-0.62722909,1.3527688,-1.7838125,-0.98309207,0.089672446,-0.15965214,0
0.48772812,2.4454303,4.2895288,0.98309207,-0.089672446,0.15965214,0
-0.33901405,0.90224242,-3.2399662,-0.98309207,0.089672446,-0.15965214,0
-1.2505131,2.9737535,3.0477471,-0.98309207,0.089672446,-0.15965214,0
-1.3753322,-0.79562485,1.99369,-0.98309207,0.089672446,-0.15965214,0
1.2038097,-0.14064598,-4.8536496,0.15766954,-0.028819978,-0.98707128,0
1.3730971,3.0707302,-0.44606018,0.98309207,-0.089672446,0.15965214,0
-1.0756602,-3.5207233,-1.0339265,-0.98309207,0.089672446,-0.15965214,0
-1.8674538,-2.0896289,3.4867346,-0.98309207,0.089672446,-0.15965214,0
-0.17935705,0.78072566,-4.749156,-0.98309207,0.089672446,-0.15965214,0
-1.3277566,-1.9121964,0.58951652,-0.98309207,0.089672446,-0.15965214,0
0.13869429,-0.014933348,5.0171108,0.98309207,-0.089672446,0.15965214,0
-1.5144662,-3.4871809,0.48950076,-0.98309207,0.089672446,-0.15965214,0
-1.3528833,-0.79113925,1.153759,-0.98309207,0.089672446,-0.15965214,0
0.82603395,2.6553407,2.1834903,0.98309207,-0.089672446,0.15965214,0
-0.10185242,-3.1836755,-3.9141726,0.062250733,-0.65628541,-0.75194043,0
-1.5133486,-2.3329978,1.7742288,-0.98309207,0.089672446,-0.15965214,0
0.14693594,-0.28985518,5.0489912,-0.16171896,-0.016229451,0.98670334,0
-1.2969453,2.8924432,2.9229698,-0.98309207,0.089672446,-0.15965214,0
0.51115227,-0.20868087,2.9253922,0.98309207,-0.089672446,0.15965214,0
-0.6481384,3.4520316,-0.9293046,-0.98309207,0.089672446,-0.15965214,0
-1.532027,-2.9556568,1.3207326,-0.98309207,0.089672446,-0.15965214,0
1.0356011,-4.5071049,-2.1358385,0.98309207,-0.089672446,0.15965214,0
-0.95358527,-2.6570144,-1.9657758,-0.98309207,0.089672446,-0.15965214,0
-1.1266587,2.8846211,2.7528389,-0.98309207,0.089672446,-0.15965214,0
-1.271245,2.9478576,3.5460968,-0.98309207,0.089672446,-0.15965214,0
1.28878,4.3480816,0.25342369,0.98309207,-0.089672446,0.15965214,0
-1.2922263,0.95859921,1.7928789,-0.98309207,0.089672446,-0.15965214,0
0.38441777,-3.4388599,1.5765634,0.98309207,-0.089672446,0.15965214,0
1.6601174,2.4811125,-2.5143857,0.98309207,-0.089672446,0.15965214,0
-0.44061661,1.3479742,-3.2780859,-0.98309207,0.089672446,-0.15965214,0
1.1528883,-2.5586843,-1.9212539,0.98309207,-0.089672446,0.15965214,0
-1.0654778,1.1218826,0.87635994,-0.98309207,0.089672446,-0.15965214,0
-0.55867624,-2.133652,-4.0928636,-0.98309207,0.089672446,-0.15965214,0
-1.7256072,-3.1089664,2.300993,-0.98309207,0.089672446,-0.15965214,0
1.322366,-2.8332632,-3.4451776,0.98309207,-0.089672446,0.15965214,0
1.1920314,1.0506276,-4.6954155,0.17531705,0.20926133,-0.96201533,0
-1.3409221,-0.3148433,2.2743008,-0.98309207,0.089672446,-0.15965214,0
-1.1771524,0.039571881,0.4394666,-0.98309207,0.089672446,-0.15965214,0
-0.33090925,2.2711151,-2.8572733,-0.98309207,0.089672446,-0.15965214,0
-1.2775242,-2.4327145,0.67979026,-0.98309207,0.089672446,-0.15965214,0
-1.2120204,-4.5431037,-1.2446389,-0.98309207,0.089672446,-0.15965214,0
1.0701294,0.41171789,-0.69832647,0.98309207,-0.089672446,0.15965214,0
1.1648651,0.41766393,-0.80195737,0.98309207,-0.089672446,0.15965214,0
-0.97632766,3.7880952,1.7106133,-0.98309207,0.089672446,-0.15965214,0
1.3837934,-1.7135742,-2.9000533,0.98309207,-0.089672446,0.15965214,0
-1.867609,-2.0737839,3.9754331,-0.98309207,0.089672446,-0.15965214,0
-1.1213371,-4.7198715,-1.5420563,-0.98309207,0.089672446,-0.15965214,0
-0.64423013,-0.43496519,-2.4042253,-0.98309207,0.089672446,-0.15965214,0
-0.82058859,0.41672182,-1.5152191,-0.98309207,0.089672446,-0.15965214,0
1.3653969,1.0593226,-1.9278706,0.98309207,-0.089672446,0.15965214,0
0.50150347,-0.96895707,2.1290307,0.98309207,-0.089672446,0.15965214,0
-1.4891872,1.2757638,3.707226,-0.98309207,0.089672446,-0.15965214,0
1.5859942,2.273339,-2.2324374,0.98309207,-0.089672446,0.15965214,0
-0.59370208,-2.3374774,-3.6780555,-0.98309207,0.089672446,-0.15965214,0
1.5974998,-0.40183043,-4.1351309,0.98309207,-0.089672446,0.15965214,0
-0.17132217,5.0217481,0.21819115,0.08202529,0.99517304,0.053874731,0
0.51525056,-4.741312,0.38497782,0.98309207,-0.089672446,0.15965214,0
1.04216,-2.8361325,-3.9192121,0.079944074,-0.57421303,-0.81479347,0
-1.4646204,-3.5458751,0.93642139,-0.98309207,0.089672446,-0.15965214,0
1.177127,0.99836272,0.10249269,0.98309207,-0.089672446,0.15965214,0
-0.10431814,-1.7954006,-4.8016324,0.11844611,-0.35349679,-0.92790663,0
-0.50269079,4.8989663,1.1978154,0.040832937,0.95728582,0.28624541,0
1.0722607,-0.14726615,-0.041808099,0.98309207,-0.089672446,0.15965214,0
-0.46721047,3.8982387,-0.57534599,-0.98309207,0.089672446,-0.15965214,0
1.0868659,0.44641334,-0.5633195,0.98309207,-0.089672446,0.15965214,0
-1.0187383,3.1237278,1.8665226,-0.98309207,0.089672446,-0.15965214,0
-1.2503548,-0.86916155,0.48078418,-0.98309207,0.089672446,-0.15965214,0
-0.94523156,2.5285344,1.1060674,-0.98309207,0.089672446,-0.15965214,0
-0.62315369,3.8350646,-0.099128246,-0.98309207,0.089672446,-0.15965214,0
-0.28035986,4.207788,-2.1103845,-0.98309207,0.089672446,-0.15965214,0
0.9391973,-3.9719675,-1.126183,0.98309207,-0.089672446,0.15965214,0
1.4979591,1.7152679,-2.4877856,0.98309207,-0.089672446,0.15965214,0
-0.55572915,-1.0941873,-3.4680507,-0.98309207,0.089672446,-0.15965214,0
-0.81603837,-2.3150415,-2.6109707,-0.98309207,0.089672446,-0.15965214,0
-0.63776219,2.0928216,-0.56138992,-0.98309207,0.089672446,-0.15965214,0
-0.12133503,-3.4301822,3.715106,-0.17838597,-0.66581464,0.7244786,0
1.0382695,-3.4570892,-2.0347488,0.98309207,-0.089672446,0.15965214,0
-0.83451009,-1.3147529,-1.7479477,-0.98309207,0.089672446,-0.15965214,0
0.62690902,-4.8128185,-0.53329325,0.98309207,-0.089672446,0.15965214,0
1.1006372,1.9034985,0.16355383,0.98309207,-0.089672446,0.15965214,0
-1.7646937,-2.4248619,4.1332264,-0.18310595,-0.48847458,0.85314995,0
0.62081146,1.0644742,3.5968139,0.98309207,-0.089672446,0.15965214,0
0.90794712,-3.0338278,-0.72863722,0.98309207,-0.089672446,0.15965214,0
0.84711266,3.4029973,-3.5064974,0.17661488,0.6945405,-0.69743854,0
0.91619933,-2.8014522,-1.4189234,0.98309207,-0.089672446,0.15965214,0
0.93322229,-3.0954928,-1.6741666,0.98309207,-0.089672446,0.15965214,0
0.42143083,-2.0266051,2.4321842,0.98309207,-0.089672446,0.15965214,0
-0.38875961,0.47893435,-4.2168779,-0.98309207,0.089672446,-0.15965214,0
-1.1209369,0.66235554,0.70658475,-0.98309207,0.089672446,-0.15965214,0
-1.5417237,2.5497179,4.0781636,-0.0956918,0.49176437,0.86545408,0
-0.81113178,1.7936739,0.25960422,-0.98309207,0.089672446,-0.15965214,0
-0.89506036,-0.39854914,-0.7876702,-0.98309207,0.089672446,-0.15965214,0
1.1368052,0.17811263,-0.18283875,0.98309207,-0.089672446,0.15965214,0
1.6868314,4.1996646,-1.7459869,0.98309207,-0.089672446,0.15965214,0
0.9043386,2.0187249,1.5501281,0.98309207,-0.089672446,0.15965214,0
-1.3861148,-3.7915959,0.60359073,-0.98309207,0.089672446,-0.15965214,0
0.77024293,3.3542113,3.5663731,0.98309207,-0.089672446,0.15965214,0
-1.633028,1.1315167,4.3805423,-0.98309207,0.089672446,-0.15965214,0
-0.64263177,-2.7176471,-3.850333,-0.98309207,0.089672446,-0.15965214,0
-0.21421242,2.9698758,3.9696751,-0.073597789,0.60485655,0.79292625,0
-1.3792057,-4.4802008,-0.85933065,-0.98309207,0.089672446,-0.15965214,0
-1.0938225,3.187762,3.7333055,-0.065876305,0.64030558,0.76529026,0
0.19514251,4.2298493,-2.6562433,0.16134205,0.83651805,-0.52364719,0
-0.81282687,-2.9613132,-2.7642198,-0.98309207,0.089672446,-0.15965214,0
-1.1862917,-2.3073728,-0.45399868,-0.98309207,0.089672446,-0.15965214,0
-1.7361224,-2.3191848,2.6000776,-0.98309207,0.089672446,-0.15965214,0
-0.065834045,-3.2050869,-3.9961379,0.06904608,-0.62598979,-0.77676851,0
-1.512084,0.13152933,4.8784413,-0.15826225,0.022449374,0.98714197,0
-0.48313427,0.76567793,-2.9051895,-0.98309207,0.089672446,-0.15965214,0
0.96207237,-3.5115979,-3.48806,0.05634588,-0.68143511,-0.72970635,0
-0.39836776,4.9567389,0.76604033,0.061533526,0.98296273,0.17319906,0
0.91798609,1.4730364,1.3299099,0.98309207,-0.089672446,0.15965214,0
1.1461303,-2.6947451,-2.8962445,0.98309207,-0.089672446,0.15965214,0
-0.75888872,-4.380085,-2.3897805,-0.0045558214,-0.88359123,-0.46823686,0
-1.0162191,-1.6840584,-1.3583398,-0.98309207,0.089672446,-0.15965214,0
-0.049525738,2.1845019,-4.420795,-0.98309207,0.089672446,-0.15965214,0
0.43272972,-2.1572559,2.7332797,0.98309207,-0.089672446,0.15965214,0
-0.47116941,4.7862568,-0.85002851,-0.98309207,0.089672446,-0.15965214,0
-1.5580466,0.42948771,3.0795543,-0.98309207,0.089672446,-0.15965214,0
-0.24956131,-0.85331655,-4.8825068,-0.98309207,0.089672446,-0.15965214,0
-0.25174177,-5.052937,0.35940838,-0.10017214,-0.9932214,0.058964491,0
0.49992824,-4.3237038,-2.3077681,0.00010919571,-0.87159586,-0.49022517,0
0.74150157,4.2334509,-2.6471682,0.16083291,0.83966458,-0.51874465,0
0.19422507,3.7284372,3.4578168,-0.041274309,0.74092764,0.67031533,0
-0.94819015,-1.172796,-1.3181819,-0.98309207,0.089672446,-0.15965214,0
0.25735986,-4.4294143,1.8241582,0.98309207,-0.089672446,0.15965214,0
-1.4264338,-1.1028254,1.885762,-0.98309207,0.089672446,-0.15965214,0
-1.0243591,0.63037252,0.39958325,-0.98309207,0.089672446,-0.15965214,0
-1.0703852,1.0462695,0.3295114,-0.98309207,0.089672446,-0.15965214,0
-1.3113253,-2.7420235,0.57229352,-0.98309207,0.089672446,-0.15965214,0
-1.6549875,-3.5563931,1.6595469,-0.98309207,0.089672446,-0.15965214,0
-1.0727043,-1.0726043,4.9085889,-0.17536485,-0.21014334,0.96181428,0
-0.65993118,1.0441248,-1.8899264,-0.98309207,0.089672446,-0.15965214,0
0.30424428,-1.8613596,2.9288242,0.98309207,-0.089672446,0.15965214,0
-0.65589875,4.1192384,-0.28873873,-0.98309207,0.089672446,-0.15965214,0
-1.1365541,-0.75596941,-0.15071601,-0.98309207,0.089672446,-0.15965214,0
1.1497185,1.6604222,0.25647116,0.98309207,-0.089672446,0.15965214,0
0.87826407,-0.1254701,0.17412859,0.98309207,-0.089672446,0.15965214,0
1.5354011,2.2556553,-2.267308,0.98309207,-0.089672446,0.15965214,0
0.63119078,1.3770753,2.7448907,0.98309207,-0.089672446,0.15965214,0
0.96622419,-3.9176457,-2.0086925,0.98309207,-0.089672446,0.15965214,0
1.730196,4.1694489,-2.0201473,0.98309207,-0.089672446,0.15965214,0
1.024668,0.33683753,-0.44106936,0.98309207,-0.089672446,0.15965214,0
-0.28072691,0.21764815,-4.8799148,-0.98309207,0.089672446,-0.15965214,0
1.14748,1.4478881,0.094759345,0.98309207,-0.089672446,0.15965214,0
-1.435205,-0.075658321,2.3706176,-0.98309207,0.089672446,-0.15965214,0
-0.76608205,4.4278755,0.72798347,-0.98309207,0.089672446,-0.15965214,0
-1.0164106,-0.83872139,-0.23654789,-0.98309207,0.089672446,-0.15965214,0
0.31227303,-1.361788,3.140775,0.98309207,-0.089672446,0.15965214,0
-1.6842351,-3.9362288,1.8972082,-0.98309207,0.089672446,-0.15965214,0
0.10652018,-3.3209801,3.509007,0.98309207,-0.089672446,0.15965214,0
-0.49872673,2.9618382,-1.8211746,-0.98309207,0.089672446,-0.15965214,0
-0.13702047,5.1069722,0.018773556,0.089118265,0.99596423,0.010642648,0
0.85152245,2.0848093,2.4250815,0.98309207,-0.089672446,0.15965214,0
0.59311938,0.58138525,3.3011482,0.98309207,-0.089672446,0.15965214,0
-1.8422234,-2.2254295,3.4459062,-0.98309207,0.089672446,-0.15965214,0
0.62492013,0.030071363,3.0529337,0.98309207,-0.089672446,0.15965214,0
0.95989263,1.1394331,1.3917725,0.98309207,-0.089672446,0.15965214,0
-1.1529295,0.89379585,0.85225987,-0.98309207,0.089672446,-0.15965214,0
-0.72806382,4.2710872,1.154948,-0.98309207,0.089672446,-0.15965214,0
-0.34098649,3.1990407,-2.6555502,-0.98309207,0.089672446,-0.15965214,0
0.78177595,1.4269283,-4.7001266,0.17968196,0.30445236,-0.93542671,0
-0.90868956,1.4644938,0.63894784,-0.98309207,0.089672446,-0.15965214,0
-1.1036545,-4.7020559,1.5614371,-0.13674913,-0.93937671,0.31443787,0
0.25503111,-4.3024082,2.7404799,-0.16204381,-0.83207595,0.53046358,0
-1.1003267,-1.2333714,0.24332297,-0.98309207,0.089672446,-0.15965214,0
0.78983974,3.6544871,3.0314493,0.98309207,-0.089672446,0.15965214,0
1.5029124,3.7984285,-0.54947114,0.98309207,-0.089672446,0.15965214,0
-0.14891386,1.3626345,-4.9655676,0.17745554,0.25152874,-0.95144254,0
1.304198,4.0000072,-2.8357902,0.16680545,0.79823148,-0.578794,0
-0.37601089,0.16449845,-4.3758593,-0.98309207,0.089672446,-0.15965214,0
1.6389501,1.5548171,-2.7055969,0.98309207,-0.089672446,0.15965214,0
0.56577754,1.0787797,3.3960066,0.98309207,-0.089672446,0.15965214,0
0.85438728,3.7470541,2.8775487,0.98309207,-0.089672446,0.15965214,0
-0.10951471,-2.0184512,-4.6848741,0.10951066,-0.41085324,-0.90510058,0
-0.42917722,4.3670325,-1.3793736,-0.98309207,0.089672446,-0.15965214,0
0.54886627,-2.3201032,2.0926325,0.98309207,-0.089672446,0.15965214,0
1.4305177,2.7505054,-0.80688834,0.98309207,-0.089672446,0.15965214,0
-1.3446651,-3.7669492,0.35803461,-0.98309207,0.089672446,-0.15965214,0
0.02635169,-4.019248,3.0304356,-0.16677064,-0.79850537,0.57842618,0
1.0803761,0.39781106,-0.52654517,0.98309207,-0.089672446,0.15965214,0
1.4302483,-1.8780866,-3.8436506,0.98309207,-0.089672446,0.15965214,0
-0.51683331,0.18452199,-3.0409837,-0.98309207,0.089672446,-0.15965214,0
1.307328,-1.2410897,-2.349844,0.98309207,-0.089672446,0.15965214,0
0.90672243,2.9740121,2.0090952,0.98309207,-0.089672446,0.15965214,0
-0.94108194,0.94593632,-0.32553399,-0.98309207,0.089672446,-0.15965214,0
1.6502563,2.2952361,-2.0658314,0.98309207,-0.089672446,0.15965214,0
0.87900138,-1.2125133,0.64416206,0.98309207,-0.089672446,0.15965214,0
1.6451477,4.2896566,-1.582798,0.98309207,-0.089672446,0.15965214,0
1.5259905,0.1194253,-3.5658841,0.98309207,-0.089672446,0.15965214,0
0.59987044,2.5072417,3.4514718,0.98309207,-0.089672446,0.15965214,0
0.71586376,-0.92172867,1.1420147,0.98309207,-0.089672446,0.15965214,0
1.8043654,1.4916739,-3.6826026,0.98309207,-0.089672446,0.15965214,0
-0.53622651,4.4986067,-0.71776295,-0.98309207,0.089672446,-0.15965214,0
0.79266095,3.3410711,3.5018167,0.98309207,-0.089672446,0.15965214,0
1.4997523,4.3885403,-0.39201164,0.98309207,-0.089672446,0.15965214,0
-1.4429135,0.2776525,2.5360019,-0.98309207,0.089672446,-0.15965214,0
1.1318505,4.3304515,1.7273188,0.98309207,-0.089672446,0.15965214,0
-0.40964371,3.6129234,-1.542644,-0.98309207,0.089672446,-0.15965214,0
-1.050915,-3.7243152,-2.0295036,-0.98309207,0.089672446,-0.15965214,0
-1.0998472,-0.023553729,0.36616904,-0.98309207,0.089672446,-0.15965214,0
0.34782875,4.9338894,0.069020748,0.090259492,0.99591184,0.0035858154,0
-1.0760345,-3.1494794,-1.7237525,-0.98309207,0.089672446,-0.15965214,0
-1.2515299,2.8707378,2.5401382,-0.98309207,0.089672446,-0.15965214,0
0.85167885,3.8305938,2.9630628,0.98309207,-0.089672446,0.15965214,0
1.1847925,4.4014993,-2.2767487,0.15605888,0.86640561,-0.4743278,0
0.56631184,-4.7812409,0.50685692,0.98309207,-0.089672446,0.15965214,0
-1.2017175,0.99161506,1.1178484,-0.98309207,0.089672446,-0.15965214,0
0.83289814,-3.1946144,-0.75003743,0.98309207,-0.089672446,0.15965214,0
-0.077823162,-1.6757574,-4.8401289,0.11938965,-0.34717858,-0.93016839,0
-1.4020647,-0.91181338,2.0055304,-0.98309207,0.089672446,-0.15965214,0
0.68439531,-1.8307097,-4.5877562,0.1193769,-0.34726435,-0.93013799,0
1.5628364,2.6264172,-2.0959897,0.98309207,-0.089672446,0.15965214,0
-0.96546626,0.33788085,0.022582769,-0.98309207,0.089672446,-0.15965214,0
-1.378456,-1.6115206,1.8572677,-0.98309207,0.089672446,-0.15965214,0
-1.6309152,1.8162427,4.2261906,-0.98309207,0.089672446,-0.15965214,0
0.80616117,-4.4424706,-2.1661103,-0.0028506517,-0.87927222,-0.47631109,0
-0.48444486,0.35086977,-2.8248496,-0.98309207,0.089672446,-0.15965214,0
0.59909308,-1.346415,1.6528909,0.98309207,-0.089672446,0.15965214,0
0.88939118,1.834971,2.0318313,0.98309207,-0.089672446,0.15965214,0
-1.4662697,-0.33398104,3.1139245,-0.98309207,0.089672446,-0.15965214,0
0.88687921,-2.0371995,-0.35854173,0.98309207,-0.089672446,0.15965214,0
0.44527078,3.4273288,3.6392317,-0.054480433,0.68916017,0.72255814,0
0.84991193,2.138905,2.7393701,0.98309207,-0.089672446,0.15965214,0
1.8945756,1.2586126,-4.3009844,0.98309207,-0.089672446,0.15965214,0
-0.9566977,-4.2897472,-2.3647242,-0.98309207,0.089672446,-0.15965214,0
0.050367832,-3.0360544,3.7742999,0.98309207,-0.089672446,0.15965214,0
0.25860381,-3.7010436,3.1975203,0.98309207,-0.089672446,0.15965214,0
1.140805,2.1145706,0.003292799,0.98309207,-0.089672446,0.15965214,0
-1.281615,1.876491,3.0270429,-0.98309207,0.089672446,-0.15965214,0
1.6857414,-0.10867691,-4.0744262,0.98309207,-0.089672446,0.15965214,0
-1.4757415,-2.1327064,2.0959849,-0.98309207,0.089672446,-0.15965214,0
0.8837806,-2.8327298,-0.78659272,0.98309207,-0.089672446,0.15965214,0
-0.57338047,-3.361006,-3.7544177,0.054019392,-0.69105303,-0.72078264,0
1.09341,2.3089087,0.41443276,0.98309207,-0.089672446,0.15965214,0
1.6869984,3.4666562,-3.1923265,0.17407459,0.72819918,-0.66289067,0
0.31480527,-2.6751721,2.5063138,0.98309207,-0.089672446,0.15965214,0
-0.71414024,1.0804999,-0.85213089,-0.98309207,0.089672446,-0.15965214,0
0.81143665,2.5866101,2.8487985,0.98309207,-0.089672446,0.15965214,0
-0.06158638,-1.609199,4.8495483,-0.17975396,-0.30639914,0.9347769,0
-0.88118428,-0.10424113,-0.8765046,-0.98309207,0.089672446,-0.15965214,0
-1.0782727,-3.3340211,-1.484957,-0.98309207,0.089672446,-0.15965214,0
-1.0294302,-2.6577802,-1.9393573,-0.98309207,0.089672446,-0.15965214,0
-1.2985276,-1.5531914,0.538252,-0.98309207,0.089672446,-0.15965214,0
1.402359,2.6525903,-1.0477655,0.98309207,-0.089672446,0.15965214,0
0.48610401,-4.4039793,1.2038655,0.98309207,-0.089672446,0.15965214,0
0.6342423,-2.9751065,0.80546546,0.98309207,-0.089672446,0.15965214,0
-0.90141076,2.2445526,0.7922914,-0.98309207,0.089672446,-0.15965214,0
1.4847753,3.8680303,-0.76714873,0.98309207,-0.089672446,0.15965214,0
0.92412376,-2.9898319,-3.9857564,0.08073926,-0.57027328,-0.81747758,0
-1.3409015,-0.10550845,1.7560534,-0.98309207,0.089672446,-0.15965214,0
0.40264964,0.3630594,3.3662381,0.98309207,-0.089672446,0.15965214,0
-0.96082163,-4.4017739,-2.2770844,-0.98309207,0.089672446,-0.15965214,0
-1.0567584,3.1390288,2.0026875,-0.98309207,0.089672446,-0.15965214,0
0.37432837,-4.0507202,-2.8477931,0.024563432,-0.79942083,-0.60026896,0
0.67250901,-0.21617734,1.3854513,0.98309207,-0.089672446,0.15965214,0
1.3073184,0.97991437,-1.8090217,0.98309207,-0.089672446,0.15965214,0
0.21628046,0.55939972,4.7303715,0.98309207,-0.089672446,0.15965214,0
0.77477551,-1.9451048,-0.1376996,0.98309207,-0.089672446,0.15965214,0
0.84257269,-4.4982071,-1.7510338,0.98309207,-0.089672446,0.15965214,0
0.90528119,0.042823493,0.62473571,0.98309207,-0.089672446,0.15965214,0
-1.5461409,-3.2183809,1.1688752,-0.98309207,0.089672446,-0.15965214,0
1.0565064,-1.8409686,-1.8752155,0.98309207,-0.089672446,0.15965214,0
-0.81313574,0.062239587,-1.3144913,-0.98309207,0.089672446,-0.15965214,0
1.1120043,-3.7390351,-3.3395581,0.04716754,-0.718449,-0.69397855,0
0.19110537,0.024136126,4.7032051,0.98309207,-0.089672446,0.15965214,0
-0.16546917,2.5428882,-3.2076991,-0.98309207,0.089672446,-0.15965214,0
-1.3836865,-1.0616606,2.1160784,-0.98309207,0.089672446,-0.15965214,0
-1.1757133,-4.0267234,2.6516719,-0.16267991,-0.82794011,0.53670329,0
0.71540117,-2.1300461,1.0402658,0.98309207,-0.089672446,0.15965214,0
-0.47761655,-3.4575484,3.5224199,-0.17625272,-0.69979936,0.69225419,0
1.1721232,-1.9039249,-2.3105645,0.98309207,-0.089672446,0.15965214,0
-0.86052698,-1.8993192,-1.4411284,-0.98309207,0.089672446,-0.15965214,0
-0.62193322,0.08892633,-2.7529659,-0.98309207,0.089672446,-0.15965214,0
-0.67206246,2.0406699,-0.81089473,-0.98309207,0.089672446,-0.15965214,0
0.90760273,-0.017137349,0.52658111,0.98309207,-0.089672446,0.15965214,0
-1.6699536,-1.2386097,2.959435,-0.98309207,0.089672446,-0.15965214,0
-0.82895398,-3.0483799,-3.4940162,-0.98309207,0.089672446,-0.15965214,0
-0.66619444,0.51677799,4.9988809,-0.15046597,0.10128099,0.98341352,0
-0.20634413,4.2435007,-2.6107631,-0.98309207,0.089672446,-0.15965214,0
0.43768206,-4.2298961,1.0055614,0.98309207,-0.089672446,0.15965214,0
-1.4833012,0.11458278,2.4885421,-0.98309207,0.089672446,-0.15965214,0
-1.2134118,3.6241217,3.2326877,-0.98309207,0.089672446,-0.15965214,0
-1.3527579,1.5000701,3.41277,-0.98309207,0.089672446,-0.15965214,0
0.74194741,2.4308603,3.6551335,0.98309207,-0.089672446,0.15965214,0
-0.87095177,-0.50327939,-1.1482873,-0.98309207,0.089672446,-0.15965214,0
-1.4901397,-0.37925112,2.9397297,-0.98309207,0.089672446,-0.15965214,0
0.48030448,-0.53262228,2.6850183,0.98309207,-0.089672446,0.15965214,0
-0.30143452,4.5330377,-1.5481758,-0.98309207,0.089672446,-0.15965214,0
1.0328099,0.26222306,0.10583317,0.98309207,-0.089672446,0.15965214,0
-0.083661079,2.3972402,-4.4084063,-0.98309207,0.089672446,-0.15965214,0
-0.74318767,-2.0810125,-2.3846109,-0.98309207,0.089672446,-0.15965214,0
-0.84755778,-3.5066667,-3.5428908,0.044577777,-0.72844899,-0.68364823,0
-1.4396071,2.092031,3.5960627,-0.98309207,0.089672446,-0.15965214,0
1.3477445,0.49962711,-4.7387881,0.16844332,0.10093987,-0.98052955,0
0.89362967,-3.5939398,-1.0409374,0.98309207,-0.089672446,0.15965214,0
-0.27172136,-0.46907389,-4.3829827,-0.98309207,0.089672446,-0.15965214,0
-0.87612033,4.6908679,1.4126015,-0.98309207,0.089672446,-0.15965214,0
1.0178406,-4.1396513,-2.5816383,0.014965832,-0.82961822,-0.5581305,0
-1.0903485,1.5915281,1.4117444,-0.98309207,0.089672446,-0.15965214,0
-1.674787,-1.7648436,2.9573431,-0.98309207,0.089672446,-0.15965214,0
0.040568352,-1.9242945,-4.6316304,0.11401188,-0.38250092,-0.91689384,0
0.1243546,4.5603967,2.1407194,0.014691412,0.90769857,0.41936547,0
-1.7046542,-1.0483147,4.198071,-0.98309207,0.089672446,-0.15965214,0
0.18633175,-0.85139424,4.8899984,0.98309207,-0.089672446,0.15965214,0
-0.092618704,4.706243,1.786556,0.026465774,0.93231148,0.36068672,0
0.092980385,-2.8492131,3.9331715,0.98309207,-0.089672446,0.15965214,0
0.390172,-4.930594,-0.56918478,-0.068400398,-0.98860639,-0.1340847,0
1.7053301,0.71482038,-3.8890245,0.98309207,-0.089672446,0.15965214,0
-0.87497252,-4.8851357,-0.25683689,-0.082414672,-0.99526519,-0.05152905,0
1.3790628,0.47327936,-1.9142071,0.98309207,-0.089672446,0.15965214,0
-1.6980464,-2.9006388,2.4795012,-0.98309207,0.089672446,-0.15965214,0
-0.41694725,4.312387,-0.94974184,-0.98309207,0.089672446,-0.15965214,0
-0.80322814,-1.7254217,-2.4864216,-0.98309207,0.089672446,-0.15965214,0
0.91400218,3.1316087,2.687885,0.98309207,-0.089672446,0.15965214,0
-0.38168001,1.4372888,-3.3499501,-0.98309207,0.089672446,-0.15965214,0
-0.72982287,3.1423776,0.18413234,-0.98309207,0.089672446,-0.15965214,0
1.6311536,-2.0355308,-4.47577,0.11312926,-0.38814494,-0.91462851,0
-0.22582006,2.1980147,-3.4479527,-0.98309207,0.089672446,-0.15965214,0
-0.66380358,-4.1549296,-2.7459061,0.0090319514,-0.84707522,-0.53139639,0
1.8458154,3.0718966,-2.9154396,0.98309207,-0.089672446,0.15965214,0
-0.58416986,1.7106181,-2.0388772,-0.98309207,0.089672446,-0.15965214,0
0.9700678,-0.79289889,0.17519367,0.98309207,-0.089672446,0.15965214,0
-0.81833804,4.6741829,0.81415606,-0.98309207,0.089672446,-0.15965214,0
-0.91356564,-4.256835,2.6279082,-0.16063315,-0.8408823,0.51683074,0
-1.6722057,-1.4678462,2.6349986,-0.98309207,0.089672446,-0.15965214,0
-0.4115839,-0.20016849,-4.4198599,-0.98309207,0.089672446,-0.15965214,0
0.46407318,-0.58666754,2.9656513,0.98309207,-0.089672446,0.15965214,0
-1.0776916,-3.9044044,-1.5918183,-0.98309207,0.089672446,-0.15965214,0
-0.14816928,2.8969426,-3.4856765,-0.98309207,0.089672446,-0.15965214,0
-1.1823103,-1.3879803,-0.025441408,-0.98309207,0.089672446,-0.15965214,0
-0.3532874,-4.8496885,-0.5374217,-0.071222484,-0.99048448,-0.11776209,0
0.87139416,0.97455108,-4.860527,0.17540872,0.21095641,-0.96162832,0
-0.33995271,4.7665954,-1.5710659,-0.98309207,0.089672446,-0.15965214,0
0.61531878,0.4857147,2.8883238,0.98309207,-0.089672446,0.15965214,0
-0.75393701,4.0919213,0.66429663,-0.98309207,0.089672446,-0.15965214,0
-0.74322683,3.1658747,-0.14612746,-0.98309207,0.089672446,-0.15965214,0
-0.89991426,4.2470484,1.6442695,-0.98309207,0.089672446,-0.15965214,0
-0.43848419,-1.5252882,-4.028132,-0.98309207,0.089672446,-0.15965214,0
0.76369053,-3.2898188,-0.027223825,0.98309207,-0.089672446,0.15965214,0
1.9190829,2.8770685,-3.5106971,0.98309207,-0.089672446,0.15965214,0
-0.80063677,-2.1611369,-2.3270071,-0.98309207,0.089672446,-0.15965214,0
1.6356866,4.4692583,-0.81600571,0.98309207,-0.089672446,0.15965214,0
0.34673637,-4.6366549,1.4118395,0.98309207,-0.089672446,0.15965214,0
1.235033,-0.91618943,-4.7492275,0.1432091,-0.16681081,-0.97553337,0
1.7855389,3.3836217,-2.7513242,0.98309207,-0.089672446,0.15965214,0
0.75733531,-0.034315765,2.1071458,0.98309207,-0.089672446,0.15965214,0
1.4866006,0.59204876,-2.001127,0.98309207,-0.089672446,0.15965214,0
0.19442272,-2.6597676,2.9753194,0.98309207,-0.089672446,0.15965214,0
0.50434375,4.3551517,2.3025713,0.0056102872,0.88622409,0.46322277,0
1.8519483,0.87585354,-4.4306979,0.98309207,-0.089672446,0.15965214,0
0.66409612,1.643979,2.9891858,0.98309207,-0.089672446,0.15965214,0
0.66135752,-2.0548475,1.596736,0.98309207,-0.089672446,0.15965214,0
1.1938455,-0.13871217,-0.91231084,0.98309207,-0.089672446,0.15965214,0
-0.50376725,-3.5494084,-3.6450441,0.047739029,-0.71621621,-0.6962437,0
0.57640374,-0.51283115,2.281137,0.98309207,-0.089672446,0.15965214,0
1.1843855,-1.6713662,-2.1534553,0.98309207,-0.089672446,0.15965214,0
1.3875513,-0.72805643,-3.0685894,0.98309207,-0.089672446,0.15965214,0
1.3568693,-0.44672501,-1.7934887,0.98309207,-0.089672446,0.15965214,0
0.27530146,-2.1231742,-4.6183686,0.10982227,-0.40892389,-0.90593612,0
-1.0109646,1.9113592,1.2598886,-0.98309207,0.089672446,-0.15965214,0
-0.097750187,1.8355086,-4.2437835,-0.98309207,0.089672446,-0.15965214,0
-1.5247836,-2.4061391,4.2569647,-0.18310565,-0.48861653,0.85306871,0
-1.2440559,0.5755887,1.7806797,-0.98309207,0.089672446,-0.15965214,0
-1.4404655,-0.27474201,2.7869811,-0.98309207,0.089672446,-0.15965214,0
-1.8317237,-0.70159578,4.7292533,-0.98309207,0.089672446,-0.15965214,0
0.57162476,2.2193956,4.5219646,0.98309207,-0.089672446,0.15965214,0
0.38614464,-2.410234,-4.4676704,0.098808825,-0.47426581,-0.8748194,0
1.2933104,4.1855516,0.968611,0.98309207,-0.089672446,0.15965214,0
1.1187655,3.2368369,1.6338605,0.98309207,-0.089672446,0.15965214,0
1.8300266,2.8913488,-3.7948806,0.18178219,0.58282012,-0.79200763,0
1.7219045,2.5073504,-3.1252828,0.98309207,-0.089672446,0.15965214,0
0.94134986,-1.8969395,-1.1062608,0.98309207,-0.089672446,0.15965214,0
0.71487904,3.8673599,-3.1853094,0.17120469,0.75940168,-0.62769258,0
-0.55591059,3.0785973,-0.72448277,-0.98309207,0.089672446,-0.15965214,0
1.3117064,1.1253433,-0.67360568,0.98309207,-0.089672446,0.15965214,0
-0.28976488,3.609086,-2.7206326,-0.98309207,0.089672446,-0.15965214,0
-0.98375678,3.8146303,2.2343059,-0.98309207,0.089672446,-0.15965214,0
0.95714736,-2.27687,-0.46343231,0.98309207,-0.089672446,0.15965214,0
0.5882526,-1.7171175,1.2738206,0.98309207,-0.089672446,0.15965214,0
0.93581712,2.6206551,1.9713072,0.98309207,-0.089672446,0.15965214,0
-1.5496407,0.73352265,3.7903132,-0.98309207,0.089672446,-0.15965214,0
1.5027553,3.7611067,-0.33193493,0.98309207,-0.089672446,0.15965214,0
0.41138554,1.3575208,4.4597087,0.98309207,-0.089672446,0.15965214,0
0.75866419,-1.489396,0.90567052,0.98309207,-0.089672446,0.15965214,0
1.3435324,2.7039068,-0.28484988,0.98309207,-0.089672446,0.15965214,0
0.46836519,-2.1019704,2.4617989,0.98309207,-0.089672446,0.15965214,0
-0.97009838,-1.8488796,-1.8211718,-0.98309207,0.089672446,-0.15965214,0
0.48066032,-2.2244041,2.1013653,0.98309207,-0.089672446,0.15965214,0
0.73460424,1.2334356,1.8734355,0.98309207,-0.089672446,0.15965214,0
1.3144379,-1.9161158,-4.5685735,0.11617208,-0.36851025,-0.92233628,0
0.26375866,-3.7828407,2.4317813,0.98309207,-0.089672446,0.15965214,0
0.47986174,-2.4972241,1.7498038,0.98309207,-0.089672446,0.15965214,0
-0.45382839,3.9369802,-1.3793344,-0.98309207,0.089672446,-0.15965214,0
0.79388642,2.2709863,3.0556581,0.98309207,-0.089672446,0.15965214,0
-1.1285826,0.24098933,0.83666962,-0.98309207,0.089672446,-0.15965214,0
-1.4308133,-0.073726177,2.459532,-0.98309207,0.089672446,-0.15965214,0
1.066694,1.4796281,0.053655744,0.98309207,-0.089672446,0.15965214,0
-1.1500273,-3.4545877,-1.2627673,-0.98309207,0.089672446,-0.15965214,0
1.3297629,-0.38605857,-2.3261013,0.98309207,-0.089672446,0.15965214,0
1.0892925,0.21915281,-0.63475716,0.98309207,-0.089672446,0.15965214,0
0.54878378,-1.5533066,1.6850746,0.98309207,-0.089672446,0.15965214,0
-0.77090102,-0.084592462,-1.2770944,-0.98309207,0.089672446,-0.15965214,0
-0.93495405,-0.71237785,-1.1200776,-0.98309207,0.089672446,-0.15965214,0
-1.3858857,2.9302959,3.9770634,-0.98309207,0.089672446,-0.15965214,0
0.69768524,3.1791821,3.4257686,0.98309207,-0.089672446,0.15965214,0
-0.041392624,4.9164143,-0.9009099,0.11881199,0.9758088,-0.18352354,0
-0.41601324,-0.40052167,-3.5758095,-0.98309207,0.089672446,-0.15965214,0
-1.2256794,-4.629355,-0.88529181,-0.98309207,0.089672446,-0.15965214,0
-1.2902739,-1.4024842,1.0503107,-0.98309207,0.089672446,-0.15965214,0
0.41583204,3.2220623,3.7400072,-0.058157325,0.67383343,0.73659098,0
-1.1620991,2.3421814,2.677705,-0.98309207,0.089672446,-0.15965214,0
-0.82812679,3.2601457,0.34797382,-0.98309207,0.089672446,-0.15965214,0
1.0860409,2.9690926,1.8627596,0.98309207,-0.089672446,0.15965214,0
-0.55518156,4.5098839,0.13774633,-0.98309207,0.089672446,-0.15965214,0
0.56492519,-2.4634037,-4.3421965,0.096199334,-0.48894373,-0.86699474,0
-1.2093837,0.43876195,1.2064393,-0.98309207,0.089672446,-0.15965214,0
1.0556893,-1.9527309,-1.7201848,0.98309207,-0.089672446,0.15965214,0
-1.7150714,-2.5856721,3.2082117,-0.98309207,0.089672446,-0.15965214,0
1.274689,1.4217384,-1.2879453,0.98309207,-0.089672446,0.15965214,0
-1.2345978,-0.46362424,0.60333049,-0.98309207,0.089672446,-0.15965214,0
-0.29723468,-4.8811831,0.8200736,-0.11414956,-0.98185688,0.15141642,0
0.5299983,2.7849503,4.2744231,-0.079124928,0.57824785,0.81201518,0
-0.9771083,-0.34658444,-0.70248592,-0.98309207,0.089672446,-0.15965214,0
1.2738695,0.39364803,-1.8892128,0.98309207,-0.089672446,0.15965214,0
-0.82979798,2.0725939,0.29176736,-0.98309207,0.089672446,-0.15965214,0
-0.90652806,0.94575107,0.31842619,-0.98309207,0.089672446,-0.15965214,0
-1.7218802,-2.2220566,3.2329335,-0.98309207,0.089672446,-0.15965214,0
0.3070426,3.8564072,-3.3131237,0.17150342,0.75641119,-0.63121217,0
-1.5685203,-1.1173193,2.4425664,-0.98309207,0.089672446,-0.15965214,0
-1.088675,3.2008581,3.7661569,-0.065885723,0.6402635,0.76532459,0
1.3910414,2.0936859,-0.72950101,0.98309207,-0.089672446,0.15965214,0
1.0049844,-4.0090532,-2.7933121,0.025087595,-0.79770136,-0.60253048,0
-1.0199852,1.1311314,4.6676674,-0.13795078,0.21065176,0.96777862,0
-0.92629862,-2.6873767,-1.824221,-0.98309207,0.089672446,-0.15965214,0
1.3259395,1.5318644,-1.0702269,0.98309207,-0.089672446,0.15965214,0
-0.50827265,-4.2485986,-2.7264824,0.01047349,-0.84291893,-0.53793859,0
-1.431215,-1.7221085,2.0186906,-0.98309207,0.089672446,-0.15965214,0
-0.97225124,1.4436257,0.56392229,-0.98309207,0.089672446,-0.15965214,0
1.2431812,-0.17950606,-4.8164644,0.15626132,-0.043685377,-0.98674917,0
1.2943411,2.16078,-0.52724695,0.98309207,-0.089672446,0.15965214,0
-0.82450879,4.6932983,1.187346,-0.98309207,0.089672446,-0.15965214,0
0.17456198,-3.1568089,3.7896895,0.98309207,-0.089672446,0.15965214,0
0.67144752,4.4438171,2.2691412,0.0071530342,0.8900243,0.45585701,0
-0.40428132,-5.012311,-0.6016469,-0.072823733,-0.99143267,-0.1084345,0
-1.160121,-0.19021022,0.15687846,-0.98309207,0.089672446,-0.15965214,0
-0.47449446,1.2694503,-3.1765139,-0.98309207,0.089672446,-0.15965214,0
1.5582349,3.8729613,-2.7301598,0.16607475,0.80389678,-0.57111239,0
1.2706201,1.3631811,-0.60516453,0.98309207,-0.089672446,0.15965214,0
0.75229633,-1.4794576,0.94371831,0.98309207,-0.089672446,0.15965214,0
-0.35001945,0.24688113,-4.5213661,-0.98309207,0.089672446,-0.15965214,0
0.42942491,-5.0687947,0.59705877,-0.101267,-0.99266648,0.066017747,0
-0.98524475,0.63345313,4.899076,-0.14928806,0.11236915,0.98238808,0
0.96069574,4.0648899,3.1238236,-0.020213604,0.81340915,0.58134055,0
1.7989941,2.6793056,-3.034122,0.98309207,-0.089672446,0.15965214,0
-1.5423799,-1.3092322,2.892777,-0.98309207,0.089672446,-0.15965214,0
-0.35468674,-0.66482389,-4.2916846,-0.98309207,0.089672446,-0.15965214,0
-0.20775127,1.6059384,-4.619523,-0.98309207,0.089672446,-0.15965214,0
0.41451311,3.0204642,-4.1219511,0.18185806,0.57999593,-0.79406065,0
-1.5917137,-4.6888299,0.80149555,-0.98309207,0.089672446,-0.15965214,0
-0.93710244,2.094974,1.0802957,-0.98309207,0.089672446,-0.15965214,0
-0.19421577,1.595305,-4.7365985,-0.98309207,0.089672446,-0.15965214,0
1.4451485,3.1100962,-0.7149756,0.98309207,-0.089672446,0.15965214,0
-0.41123343,-0.67993057,-4.2975121,-0.98309207,0.089672446,-0.15965214,0
0.51839602,-2.975122,1.9097419,0.98309207,-0.089672446,0.15965214,0
-1.1084704,1.7285967,4.500453,-0.11713791,0.36216968,0.92472255,0
0.47377038,0.10198414,3.6209681,0.98309207,-0.089672446,0.15965214,0
0.98983049,2.8579991,-3.9847054,0.18188822,0.5788433,-0.7948944,0
0.84190089,0.60033125,1.34268,0.98309207,-0.089672446,0.15965214,0
1.024586,-3.5292382,-1.6917403,0.98309207,-0.089672446,0.15965214,0
-1.1877174,2.3449571,1.7996036,-0.98309207,0.089672446,-0.15965214,0
-1.0229605,1.7852626,0.84705281,-0.98309207,0.089672446,-0.15965214,0
-0.92972648,3.9006579,1.3198099,-0.98309207,0.089672446,-0.15965214,0
-0.76035547,-1.5607799,-1.9644501,-0.98309207,0.089672446,-0.15965214,0
0.65101326,4.7279415,1.6244681,0.032599002,0.94366384,0.32929623,0
-1.4682064,-0.55111301,2.1040077,-0.98309207,0.089672446,-0.15965214,0
-1.4949856,-0.11373329,4.7219558,-0.16391468,-0.042326093,0.98556602,0
1.8113186,2.8723783,-3.5941181,0.98309207,-0.089672446,0.15965214,0
-0.75294399,-1.9494658,-2.3245912,-0.98309207,0.089672446,-0.15965214,0
-0.024384975,2.6905918,-4.3181496,0.18293202,0.51959074,-0.83460236,0
-1.3559088,-0.46248996,1.9858578,-0.98309207,0.089672446,-0.15965214,0
-0.74162024,3.7933197,0.3008821,-0.98309207,0.089672446,-0.15965214,0
0.99467158,-0.04434526,0.36919448,0.98309207,-0.089672446,0.15965214,0
-0.71402371,3.9670267,0.41637135,-0.98309207,0.089672446,-0.15965214,0
0.27020836,0.21816599,4.7574587,0.98309207,-0.089672446,0.15965214,0
-1.0954789,-2.8617134,-1.6674864,-0.98309207,0.089672446,-0.15965214,0
1.6502233,-0.22868729,-4.4906969,0.98309207,-0.089672446,0.15965214,0
-1.6648824,-0.30523109,3.4469926,-0.98309207,0.089672446,-0.15965214,0
1.5081823,3.0697808,-1.394479,0.98309207,-0.089672446,0.15965214,0
-1.0323297,0.013319016,-0.032298148,-0.98309207,0.089672446,-0.15965214,0
1.7192945,4.4910369,-1.4356289,0.98309207,-0.089672446,0.15965214,0
0.37303162,1.8826526,4.6226082,0.98309207,-0.089672446,0.15965214,0
-0.63387108,-3.5981884,-3.6536713,0.04747802,-0.71723735,-0.69520962,0
1.5212799,4.4866123,-1.0834441,0.98309207,-0.089672446,0.15965214,0
-0.36898637,0.77293694,-3.5231438,-0.98309207,0.089672446,-0.15965214,0
1.5015697,-2.674849,-4.1909351,0.090840161,-0.51819515,-0.85042441,0
