-1.1703352,0,-0.76831996,-0.83595371,0,-0.54879999,0
-1.3600323,0.25500607,0.21280004,-0.9714517,0.1821472,0.15200002,0
0.98326492,-0.10350163,0.99119997,0.70233208,-0.073929735,0.708,0
-0.88356858,0.58129513,-0.91727996,-0.63112044,0.41521081,-0.6552,0
1.3170738,-0.42486247,0.21168,0.94076705,-0.3034732,0.1512,0
1.1355109,0.79906332,0.17920013,0.81107926,0.57075953,0.1280001,0
0.043923382,1.3616261,0.32255998,0.031373844,0.97259015,0.2304,0
0.16295135,-0.63822609,-1.23536,0.11639383,-0.45587578,-0.88240004,0
1.2313318,-0.28415352,0.60256004,0.87952274,-0.20296681,0.43040004,0
0.30262804,1.34021,0.26879999,0.21616289,0.95729285,0.192,0
1.2423016,-0.09556172,0.63840002,0.88735831,-0.068258375,0.45600003,0
-0.65906549,-0.87875402,-0.86799997,-0.47076106,-0.62768143,-0.62,0
-1.3257403,-0.38489237,0.23295997,-0.94695741,-0.27492312,0.16639999,0
-0.43791869,0.60995811,-1.1815999,-0.31279907,0.43568438,-0.84399992,0
-0.3641775,-1.274621,0.45023996,-0.2601268,-0.9104436,0.32159996,0
0.80520457,0.75487906,0.86127996,0.57514614,0.53919935,0.61519998,0
-0.91092557,0.41208535,-0.98000014,-0.65066111,0.29434669,-0.70000011,0
-0.89680314,-0.17546149,-1.0606401,-0.64057368,-0.12532963,-0.75760007,0
0.56322759,-0.87044239,0.94080001,0.40230542,-0.62174457,0.67199999,0
-0.97019666,-0.67374766,-0.7515201,-0.69299763,-0.48124835,-0.53680009,0
0.85385579,1.033615,0.40319991,0.60989702,0.73829645,0.28799993,0
-1.2351137,-0.23752193,0.61488003,-0.88222414,-0.16965853,0.43920001,0
0.74492049,1.0553039,-0.53983986,0.53208607,0.75378853,-0.38559991,0
-1.3991709,-0.039976276,0.026880048,-0.99940777,-0.028554484,0.019200034,0
0.053043507,-0.84869695,1.11216,0.037888221,-0.60621214,0.79439998,0
0.78198904,0.4386768,-1.0752003,0.55856359,0.31334057,-0.76800025,0
0.71386266,0.99940777,-0.67200017,0.50990188,0.71386272,-0.48000014,0
-0.39635184,-0.43238387,-1.2711999,-0.28310847,-0.30884561,-0.90799999,0
-0.23399699,1.2635833,0.55552012,-0.16714071,0.90255952,0.3968001,0
-0.8011328,-0.053408802,1.1468799,-0.57223773,-0.038149145,0.81919998,0
-0.64187628,1.2436353,0.036959995,-0.45848307,0.88831097,0.026399996,0
-1.3109336,-0.063948013,-0.48719996,-0.93638116,-0.045677152,-0.34799999,0
0.84047377,-0.45098591,-1.0248002,0.6003384,-0.3221328,-0.73200011,0
0.052651864,0.89508259,1.0752,0.037608474,0.63934469,0.76800001,0
-0.94787341,1.0237032,-0.11647988,-0.67705244,0.73121661,-0.083199918,0
0.054857086,-0.54857135,1.28688,0.039183635,-0.39183667,0.9192,0
-1.033615,0.85385585,0.40320006,-0.73829645,0.60989702,0.28800005,0
0.19049232,-1.2381994,0.62496001,0.13606595,-0.88442814,0.44640002,0
1.1288177,0.77606225,-0.2889601,0.80629838,0.55433017,-0.20640008,0
-0.57447159,-1.1010704,0.64624006,-0.41033685,-0.78647888,0.46160004,0
-0.82313824,-1.1224613,-0.15008007,-0.58795589,-0.80175811,-0.10720005,0
-1.2433755,0.53287524,0.36063996,-0.88812542,0.38062519,0.25759998,0
0.20821169,-0.93695211,1.0192,0.14872263,-0.6692515,0.72799999,0
-1.2950218,0.33205694,-0.41551992,-0.92501557,0.23718353,-0.29679996,0
-1.3012468,0.12695096,-0.50063998,-0.92946202,0.090679258,-0.35759997,0
-0.34629557,-1.3159232,-0.32927993,-0.24735399,-0.93994516,-0.23519996,0
-1.2165917,0.67122304,0.17135976,-0.86899412,0.47944504,0.12239983,0
0.97181857,0.54820544,-0.84560001,0.69415611,0.39157531,-0.60400003,0
-0.76344246,0.31231737,-1.1312,-0.54531604,0.22308384,-0.80799997,0
-1.0564741,-0.78087211,0.48384011,-0.75462437,-0.55776578,0.34560007,0
-0.16082047,-0.58142787,-1.2633599,-0.11487176,-0.41530564,-0.90239996,0
1.1524681,0.79480547,0.010079914,0.82319152,0.56771821,0.0071999384,0
-1.1939157,0.66718823,-0.29904002,-0.85279697,0.47656304,-0.21360002,0
0,-1.3883388,0.18032011,0,-0.99167061,0.12880008,0
1.1943291,-0.16665058,-0.71120006,0.85309225,-0.11903613,-0.50800008,0
0.32367808,0.64735615,1.1984,0.23119862,0.46239725,0.85600001,0
1.0894842,-0.82800806,0.29568002,0.77820301,-0.59143436,0.21120001,0
0.49909163,-1.3053166,-0.084000014,0.35649401,-0.93236899,-0.06000001,0
0.68119591,0.64112562,-1.0415998,0.48656851,0.45794687,-0.74399984,0
0.24403414,1.1713637,0.72687989,0.1743101,0.8366884,0.51919991,0
-0.25469601,0.88164008,-1.0572798,-0.18192573,0.62974292,-0.75519991,0
0.59108847,-1.2560629,-0.18144011,0.42220607,-0.89718777,-0.12960008,0
-1.2560964,-0.60901642,-0.10639986,-0.89721173,-0.43501174,-0.075999901,0
1.2309049,0.59786808,-0.29568025,0.8792178,0.42704865,-0.21120019,0
0.052233271,-0.94019985,1.036,0.037309475,-0.67157125,0.73999995,0
-0.032032747,1.313344,-0.48384023,-0.022880534,0.9381029,-0.34560016,0
-0.70296305,0,1.2107199,-0.5021165,0,0.86479998,0
-0.16715789,-0.22287713,1.372,-0.1193985,-0.15919796,0.98000002,0
-1.3505677,0.24878876,-0.27215993,-0.96469122,0.17770626,-0.19439995,0
-0.37843734,-0.59468734,1.2096,-0.2703124,-0.42477667,0.86400002,0
1.3404711,0.28220439,-0.28895992,0.95747942,0.20157456,-0.20639995,0
-1.2329506,-0.20549172,-0.63056016,-0.88067901,-0.14677981,-0.45040011,0
1.3085047,-0.2707251,0.41775984,0.93464625,-0.19337508,0.2983999,0
0.64268869,0.82631421,-0.92959994,0.45906335,0.59022444,-0.66399997,0
-0.56781244,-0.62104487,-1.1188799,-0.40558031,-0.44360349,-0.79919994,0
-0.85468179,-0.70385557,0.85680008,-0.61048698,-0.50275397,0.61200005,0
-0.94019985,0.052233271,1.036,-0.67157125,0.037309475,0.73999995,0
0.93410951,0.88740408,0.54768008,0.66722107,0.63386005,0.39120007,0
0.87446105,1.0493534,0.30688,0.62461507,0.74953812,0.2192,0
-1.3320609,0.23908785,-0.35839987,-0.9514721,0.17077704,-0.25599992,0
0.20848256,-1.3759845,0.1523201,0.14891613,-0.98284614,0.10880008,0
0.89528507,0,1.0763199,0.63948935,0,0.76879996,0
-0.68634158,-0.16063316,-1.2096,-0.490244,-0.11473797,-0.86400002,0
0.46392617,1.3074281,0.18815994,0.33137584,0.93387723,0.13439997,0
0.92764121,0.96077144,-0.41999996,0.66260087,0.68626535,-0.29999998,0
0.72013819,1.2002304,0.02911989,0.51438445,0.85730743,0.020799922,0
-1.312724,-0.43757468,-0.21280013,-0.93766004,-0.31255335,-0.1520001,0
0.74854547,0.26733774,1.15248,0.53467536,0.19095553,0.82320005,0
0.40814734,0.9693501,0.92400002,0.29153383,0.69239295,0.66000003,0
1.0844023,0.3026239,-0.83216006,0.77457309,0.21615992,-0.59440005,0
1.3213414,-0.091127031,0.45359984,0.94381529,-0.065090738,0.32399988,0
0.52673781,-0.10973703,-1.2924801,0.3762413,-0.078383595,-0.92320007,0
-1.166554,0.30552605,-0.71120018,-0.83325285,0.2182329,-0.50800014,0
-0.38130042,1.1915636,0.62831998,-0.27235743,0.8511169,0.4488,0
0.095627174,1.306906,-0.49280021,0.068305127,0.93350428,-0.35200015,0
-0.48315769,-1.2737793,0.32255983,-0.34511265,-0.90984237,0.23039989,0
-1.2693597,0.14103985,0.57344013,-0.90668553,0.10074275,0.40960011,0
-0.82183439,-0.5268169,-1.0035199,-0.58702457,-0.3762978,-0.71679991,0
-0.55087608,1.1935648,0.48160005,-0.39348292,0.85254627,0.34400004,0
0.30031878,1.2313068,-0.5947203,0.21451342,0.87950486,-0.42480022,0
0.79972225,0.15994433,1.13792,0.57123017,0.11424595,0.81280005,0
0.065066077,0.99768072,-0.97999972,0.046475768,0.71262908,-0.69999981,0
0.16190861,-0.70160466,1.20064,0.11564901,-0.5011462,0.85759997,0
1.0972857,0.024384106,-0.86911988,0.78377557,0.017417219,-0.6207999,0
-1.1707349,-0.37120861,-0.67199993,-0.83623922,-0.265149,-0.47999996,0
0.28937426,-0.97942066,-0.95759994,0.2066959,-0.69958621,-0.68399996,0
-1.3212749,0.27103069,-0.37519982,-0.94376779,0.19359335,-0.26799989,0
-0.81096661,0.70959574,0.89376003,-0.5792619,0.50685412,0.63840002,0
0.95939946,-0.71269667,-0.72912014,0.68528533,-0.50906909,-0.52080011,0
0,-1.3883388,0.18032011,0,-0.99167061,0.12880008,0
-0.78946894,1.0020183,-0.57679981,-0.56390637,0.71572739,-0.41199988,0
-1.2671428,-0.47945938,-0.35279998,-0.90510201,-0.34247097,-0.252,0
1.0493534,-0.87446105,0.30688,0.74953812,-0.62461507,0.2192,0
-0.4004184,1.2902371,0.36735985,-0.28601316,0.9215979,0.26239988,0
-0.90113723,-0.74211299,-0.77280003,-0.64366949,-0.53008074,-0.55200005,0
-0.27718592,-0.27718592,1.344,-0.19798994,-0.19798994,0.95999998,0
1.2381994,0.19049232,0.62496001,0.88442814,0.13606595,0.44640002,0
-0.40945145,1.1191673,-0.73472023,-0.29246533,0.79940528,-0.52480018,0
-1.3837485,-0.1495944,-0.15120003,-0.98839182,-0.10685314,-0.10800002,0
-0.055887833,-0.16766366,1.3888,-0.039919883,-0.11975976,0.99200004,0
-1.3402146,-0.13402146,0.38191992,-0.95729619,-0.095729619,0.27279994,0
0.29388028,-0.13714413,-1.3619199,0.20991449,-0.0979601,-0.97279996,0
-0.75910467,-0.65066117,-0.98000002,-0.54221761,-0.46475798,-0.70000005,0
-1.0178871,-0.58930308,-0.75935996,-0.72706223,-0.42093077,-0.5424,0
0.22966282,1.3779769,-0.091840118,0.16404487,0.9842692,-0.065600082,0
0.77097166,-0.66817552,0.95872009,0.55069405,-0.47726825,0.68480009,0
-0.25500607,1.3600323,0.21280004,-0.1821472,0.9714517,0.15200002,0
0.55311435,0.7056976,-1.0752002,0.3950817,0.50406975,-0.76800019,0
1.2524384,0.49202946,0.38640013,0.8945989,0.35144961,0.27600011,0
0.4337742,1.3013223,0.27999985,0.30983871,0.92951596,0.1999999,0
0.45023453,-1.2606564,0.40991992,0.32159609,-0.90046883,0.29279995,0
1.2164499,-0.6842531,-0.10975998,0.86889279,-0.48875222,-0.078399986,0
0.45541188,-0.98273093,-0.88703996,0.3252942,-0.70195067,-0.6336,0
-0.9309848,0.73498791,0.74368006,-0.66498917,0.52499139,0.53120005,0
-0.65014046,-0.21671344,1.2207999,-0.46438605,-0.15479532,0.87199998,0
-0.70296305,0,1.2107199,-0.5021165,0,0.86479998,0
-1.1363634,-0.24703561,0.77952003,-0.81168813,-0.17645401,0.55680001,0
1.079784,0.09598086,-0.88591987,0.77127433,0.068557762,-0.63279992,0
-1.1479995,-0.47833306,0.64287996,-0.81999969,-0.34166646,0.45919999,0
1.2675451,-0.43363383,-0.40655994,0.90538937,-0.30973846,-0.29039997,0
0.81333905,-0.7879222,-0.82319993,0.58095646,-0.5628016,-0.58799994,0
1.0988702,-0.8452847,0.19488011,0.78490722,-0.60377473,0.13920008,0
-0.84414423,0.26379514,1.0852799,-0.60296017,0.18842511,0.77519995,0
1.2622156,-0.12021098,-0.59360015,0.9015826,-0.085864983,-0.42400011,0
-0.80060416,0.10674712,1.14352,-0.57186013,0.076247945,0.8168,0
-1.1701819,0.76667082,0.053759869,-0.83584422,0.54762203,0.038399909,0
-0.39365894,1.2112582,-0.58127975,-0.28118497,0.86518443,-0.41519985,0
-0.9065879,0.85887283,0.63279998,-0.6475628,0.61348063,0.45199999,0
-0.82013518,0.3623853,-1.0752001,-0.58581084,0.25884664,-0.76800007,0
0.84204942,-0.31576851,1.0729599,0.60146385,-0.22554894,0.76639992,0
0.31841883,0.62236398,-1.2129602,0.22744203,0.44454572,-0.86640018,0
-0.28220448,-1.340471,-0.28895998,-0.20157464,-0.9574793,-0.20639999,0
1.3025451,-0.51312381,-0.0089598624,0.93038934,-0.36651701,-0.006399902,0
0.82568246,0.5676567,0.97775984,0.58977318,0.40546909,0.6983999,0
0.055073891,0.49566534,1.3081601,0.039338496,0.35404667,0.93440008,0
-1.0039599,-0.96212816,0.16240001,-0.71711421,-0.6872344,0.116,0
-0.79899889,-0.79899889,0.82656002,-0.57071352,-0.57071352,0.59040004,0
-0.34411484,-0.24948326,-1.3339201,-0.24579632,-0.17820233,-0.9528001,0
-0.60030329,-0.95048016,0.8344,-0.42878807,-0.67891443,0.59600002,0
0.63959128,0.38999465,-1.1827202,0.45685092,0.27856761,-0.84480017,0
-0.95737922,-0.95737922,-0.35616001,-0.6838423,-0.6838423,-0.25440001,0
-0.30262804,1.34021,0.26879999,-0.21616289,0.95729285,0.192,0
-0.37656489,0.64553988,1.18384,-0.26897493,0.46109992,0.84560007,0
0.69489121,-0.86861414,-0.85007977,0.49635088,-0.62043869,-0.60719985,0
0.22224316,-1.3334587,0.3639999,0.15874511,-0.95247048,0.25999993,0
-0.50255948,0.91374445,-0.93407977,-0.35897106,0.65267462,-0.66719985,0
0.38687038,-0.22106877,1.3272001,0.27633598,-0.15790626,0.94800007,0
-1.0691456,0.11879398,-0.89599985,-0.76367539,0.084852844,-0.63999993,0
-0.16732661,1.3804449,0.16240013,-0.11951901,0.98603207,0.11600009,0
-0.50685412,1.2037786,-0.50399995,-0.36203867,0.85984188,-0.35999995,0
0.53812498,0.22720833,-1.2723198,0.38437501,0.16229166,-0.90879989,0
-0.65794444,-0.86038888,0.88704002,-0.46996033,-0.61456347,0.6336,0
-0.33205685,-1.2950218,-0.41551986,-0.23718347,-0.92501557,-0.2967999,0
0.26733774,-0.74854547,1.15248,0.19095553,-0.53467536,0.82320005,0
-0.053338308,0.43559617,-1.3294401,-0.038098793,0.31114012,-0.9496001,0
0.26519182,-0.74585187,-1.1547199,0.18942274,-0.53275132,-0.82479995,0
1.1536152,-0.10487409,-0.78623998,0.82401091,-0.074910067,-0.56159997,0
-0.043665655,-1.0043095,-0.9744001,-0.031189755,-0.71736395,-0.6960001,0
-0.27837133,0.1113484,1.36752,-0.19883667,0.079534568,0.97680002,0
1.3141465,0,-0.48272023,0.93867612,0,-0.34480017,0
0.47813624,-0.6906414,1.12,0.34152588,-0.49331531,0.80000001,0
1.1700263,-0.75215989,0.15904015,0.83573312,-0.53725708,0.11360011,0
-1.3967258,0.0775958,-0.056000106,-0.99766129,0.055425573,-0.040000077,0
-0.25469601,-0.88164008,-1.0572798,-0.18192573,-0.62974292,-0.75519991,0
-1.0680097,-0.77673435,-0.46479991,-0.76286411,-0.55481029,-0.33199993,0
-0.3695389,-1.2317963,-0.55328006,-0.26395637,-0.8798545,-0.39520004,0
1.3554883,-0.13902442,-0.32143986,0.96820593,-0.099303164,-0.22959991,0
-0.1544138,1.3897246,-0.069440104,-0.11029558,0.99266046,-0.049600076,0
-0.1061049,0.97616482,-0.9979198,-0.075789221,0.69726062,-0.71279985,0
0.52901489,0.68771917,1.09872,0.37786779,0.49122798,0.78479999,0
-0.47209528,0.048172999,-1.3171201,-0.33721092,0.034409285,-0.94080007,0
0.24065663,-1.1498042,-0.76160002,0.17189759,-0.82128876,-0.54400003,0
0.16769716,0,1.38992,0.11978369,0,0.9928,0
-1.1461618,0.39137226,-0.70223993,-0.81868702,0.27955163,-0.50159997,0
-0.25930604,1.0372239,-0.90384001,-0.1852186,0.74087423,-0.64560002,0
-1.0400935,0.49404439,-0.79632002,-0.74292397,0.35288885,-0.56880003,0
-0.94959098,-1.0287235,-0.0022399956,-0.67827928,-0.73480248,-0.0015999969,0
0.71066982,-1.0363934,-0.61711997,0.50762129,-0.74028099,-0.44079998,0
-0.45728093,0.89278656,-0.97664028,-0.32662925,0.63770467,-0.69760019,0
0.12580934,1.383904,0.17024013,0.089863814,0.98850286,0.1216001,0
-1.3764613,0.043014374,0.25200006,-0.98318666,0.030724553,0.18000005,0
-1.2537448,0.56202352,0.26879987,-0.89553207,0.40144539,0.19199991,0
-0.12869284,1.3727235,0.24304004,-0.091923453,0.98051679,0.17360003,0
-0.68771917,-0.52901477,1.09872,-0.49122798,-0.3778677,0.78479999,0
-0.74492055,-0.031038374,-1.1849599,-0.53208613,-0.022170268,-0.84639996,0
-0.090595461,-1.2683365,-0.58576018,-0.064711042,-0.90595466,-0.41840014,0
0,0.33357203,1.3596799,0,0.23826574,0.97119999,0
1.0838801,-0.44340545,0.76719981,0.77420008,-0.31671819,0.54799986,0
-0.97181869,-0.54820544,-0.84559983,-0.69415623,-0.39157531,-0.60399991,0
0.34830728,1.3545288,-0.062720135,0.24879092,0.96752059,-0.044800095,0
0.86823076,-0.18874581,-1.0819198,0.62016481,-0.13481843,-0.77279985,0
-0.50255948,0.91374445,-0.93407977,-0.35897106,0.65267462,-0.66719985,0
-0.24075602,0.20274191,-1.3641599,-0.17196859,0.14481565,-0.97439998,0
-1.0753604,-0.86028826,0.25200006,-0.76811463,-0.61449164,0.18000005,0
-0.89346093,-0.15766959,1.0662401,-0.6381864,-0.11262114,0.76160008,0
0.9163065,-0.36226067,-0.99456,0.65450466,-0.25875762,-0.71039999,0
-0.87467843,-1.0829351,0.14896001,-0.62477034,-0.77352506,0.10640001,0
-0.62591869,-1.2518374,-0.033599935,-0.44708478,-0.89416957,-0.023999954,0
0.45982784,1.2481042,-0.43679991,0.32844847,0.89150304,-0.31199995,0
-1.2822508,0.56098467,0.033600096,-0.91589344,0.40070334,0.024000069,0
0.39907274,0.15615891,-1.3327998,0.28505197,0.11154208,-0.95199984,0
0.84461665,-1.1133583,-0.084000282,0.60329759,-0.7952559,-0.060000204,0
0.5159713,1.1726619,0.56447995,0.36855093,0.83761567,0.40319997,0
0.24987553,1.0994523,0.82991982,0.17848252,0.78532308,0.5927999,0
0.19228482,-1.3844504,-0.079520129,0.1373463,-0.98889321,-0.056800094,0
0.38806015,0.055437118,1.344,0.27718583,0.039597943,0.95999998,0
-0.84935588,-0.87766767,-0.68432009,-0.60668278,-0.6269055,-0.48880008,0
0,0.16769716,1.38992,0,0.11978369,0.9928,0
-1.127732,0.80032605,-0.21840015,-0.80552292,0.57166147,-0.15600011,0
0.93801117,-0.6911661,0.77616006,0.670008,-0.49369007,0.55440003,0
0.39153576,1.3169837,-0.26880008,0.27966839,0.94070268,-0.19200006,0
-0.62236398,0.31841883,-1.2129602,-0.44454572,0.22744203,-0.86640018,0
-0.94399452,0.84959513,0.58912003,-0.67428184,0.60685366,0.42080003,0
-0.4931995,0.27399978,1.2812799,-0.35228536,0.19571413,0.91519994,0
-1.0095816,0,-0.9699201,-0.72112972,0,-0.6928001,0
0.27103069,-1.3212749,-0.37519982,0.19359335,-0.94376779,-0.26799989,0
-0.21499328,-0.70640659,-1.18944,-0.15356663,-0.50457615,-0.84960002,0
-0.41208535,-0.91092557,-0.98000014,-0.29434669,-0.65066111,-0.70000011,0
-1.1641418,-0.73297817,0.25984016,-0.83152986,-0.52355582,0.18560012,0
0.3026239,1.0844023,-0.83216006,0.21615992,0.77457309,-0.59440005,0
1.2726905,-0.060604341,-0.58016014,0.90906471,-0.043288816,-0.4144001,0
1.1079795,0.52990329,0.67199987,0.79141396,0.37850237,0.47999993,0
-0.70959574,-0.81096661,0.89376003,-0.50685412,-0.5792619,0.63840002,0
-0.38167191,0.49072093,1.2544,-0.27262279,0.35051495,0.89600003,0
0.4783332,-1.1479994,0.6428799,0.34166658,-0.81999958,0.45919994,0
1.282446,0.44222283,0.3460798,0.91603291,0.31587344,0.24719986,0
0.66893154,1.0511785,0.6383999,0.47780827,0.7508418,0.45599994,0
0.82709026,0.87574261,0.71343988,0.59077877,0.62553042,0.50959992,0
-0.97614795,0.97614795,-0.23295976,-0.69724852,0.69724852,-0.16639984,0
-0.51595426,-1.1179008,-0.6663999,-0.36853877,-0.7985006,-0.47599992,0
1.285109,0.53891671,0.1344,0.91793507,0.38494051,0.096000001,0
-1.328794,0.26575878,0.35167992,-0.94913858,0.18982771,0.25119996,0
0.5828827,-0.20274182,-1.2566397,0.41634479,-0.14481558,-0.89759982,0
-0.047820151,1.2433251,0.64176005,-0.03415725,0.88808936,0.45840004,0
-0.35615292,0.95716101,-0.95760006,-0.25439495,0.68368644,-0.68400007,0
1.2157382,0.42083234,0.55216008,0.86838442,0.30059454,0.39440006,0
-0.27497089,0.43995324,1.30032,-0.19640778,0.31425232,0.92880005,0
-1.3274764,0.44249222,0.044800088,-0.94819742,0.31606588,0.032000065,0
0.026924435,0.074438147,-1.3977604,0.01923174,0.053170107,-0.99840027,0
0.76503301,1.0976559,-0.41215998,0.54645216,0.78403991,-0.29439998,0
-0.8405934,-0.1073098,-1.1144,-0.60042387,-0.076649852,-0.79600006,0
0.9309848,-0.73498803,0.74368,0.66498917,-0.52499145,0.53119999,0
-1.2752959,0.030364158,-0.57680017,-0.91092563,0.021688685,-0.41200012,0
0,-1.1063333,0.85791999,0,-0.79023808,0.6128,0
0.10809586,0.57651144,-1.2712002,0.077211328,0.41179389,-0.90800017,0
1.2111416,-0.096891381,0.69551998,0.86510116,-0.06920813,0.49680001,0
0.22323722,0.055809222,1.38096,0.15945515,0.039863732,0.98640001,0
0.53467548,0.58814299,1.1524799,0.38191107,0.42010215,0.82319993,0
0.70677495,-1.1443025,-0.38863993,0.50483924,-0.81735891,-0.27759996,0
-0.13902442,1.3554883,-0.32143986,-0.099303164,0.96820593,-0.22959991,0
-1.0072494,0.71946371,0.65408003,-0.71946383,0.51390266,0.46720004,0
-0.096917309,-0.38766921,-1.3417599,-0.069226652,-0.27690658,-0.95839995,0
-0.11007959,0.49535775,1.3048,-0.078628279,0.35382697,0.93200004,0
-0.22310215,0.11155099,1.3776,-0.15935868,0.079679281,0.98399997,0
0.24303742,-1.377212,0.064959966,0.17359816,-0.98372293,0.046399977,0
-0.57562232,0.73261005,1.04496,-0.4111588,0.5232929,0.7464,0
-0.27543807,1.2853774,0.48160017,-0.19674148,0.9181267,0.34400013,0
-0.54132044,0.43305627,1.21632,-0.38665748,0.3093259,0.86880004,0
-0.41851753,-1.3316466,-0.10751998,-0.29894111,-0.95117611,-0.076799989,0
-1.2436353,0.64187634,0.03695989,-0.88831097,0.4584831,0.026399922,0
-0.9390918,1.0113297,-0.23519976,-0.67077988,0.72237831,-0.16799983,0
-0.6152398,0.69462562,-1.0483202,-0.439457,0.49616116,-0.74880016,0
-0.39137226,-1.1461618,-0.70223993,-0.27955163,-0.81868702,-0.50159997,0
-0.57562232,-0.73261005,1.04496,-0.4111588,-0.5232929,0.7464,0
0.61785328,1.1706694,-0.45584011,0.44132379,0.83619249,-0.32560009,0
0.76961863,0.54683429,-1.0337598,0.54972762,0.39059594,-0.73839986,0
-0.43821922,1.1198937,0.71679986,-0.31301373,0.79992408,0.51199991,0
0.66260082,1.1595516,-0.42000014,0.4732863,0.82825118,-0.3000001,0
0.033581294,-1.3432531,-0.39312005,0.023986639,-0.95946652,-0.28080004,0
1.0402443,-0.16181578,-0.92287987,0.74303168,-0.1155827,-0.65919989,0
1.2956651,0.13882115,0.51184016,0.92547512,0.099157967,0.36560011,0
-0.70281225,-0.05406243,1.2096,-0.50200874,-0.03861602,0.86400002,0
-0.21499343,0.70640707,-1.1894397,-0.15356673,0.5045765,-0.84959978,0
-0.41901752,0.71582162,-1.1278403,-0.29929823,0.51130116,-0.80560023,0
-1.3694445,-0.17118053,0.23520005,-0.97817463,-0.12227181,0.16800004,0
1.2381994,0.19049232,0.62496001,0.88442814,0.13606595,0.44640002,0
0.20338106,-1.382991,0.077279955,0.1452722,-0.98785073,0.05519997,0
-0.33030504,1.2268474,0.58800006,-0.23593217,0.87631959,0.42000005,0
0.16732675,1.3804448,0.1624001,0.11951911,0.98603201,0.11600007,0
0.090595372,-1.2683365,-0.58576012,0.064710982,-0.90595466,-0.41840008,0
0.70054632,-0.21555267,1.1928,0.50039023,-0.1539662,0.85200006,0
0.6152398,0.69462562,-1.0483202,0.439457,0.49616116,-0.74880016,0
0.59020418,0.60808915,-1.1143997,0.42157441,0.43434939,-0.79599977,0
-0.96212816,-1.0039599,0.16240001,-0.6872344,-0.71711421,0.116,0
-0.64385879,-1.2161776,-0.25760004,-0.45989916,-0.8686983,-0.18400003,0
-1.2675451,0.43363383,-0.40655994,-0.90538937,0.30973846,-0.29039997,0
0.063947909,1.3109335,-0.48720023,0.045677077,0.93638104,-0.34800017,0
-0.63109207,0.28685999,-1.2163199,-0.45078006,0.2049,-0.86879998,0
-0.51312381,1.3025451,-0.0089598624,-0.36651701,0.93038934,-0.006399902,0
1.2595967,-0.27991039,0.54320008,0.89971197,-0.19993599,0.38800007,0
0.044785954,-1.3435799,0.39087993,0.031989969,-0.95969993,0.27919996,0
1.1293344,0.34371042,0.75263989,0.80666751,0.24550745,0.53759992,0
0.60898542,-1.2585701,0.071680062,0.4349896,-0.89897865,0.051200043,0
1.3750608,0.085941218,0.24864006,0.98218632,0.061386585,0.17760004,0
-0.91237044,0.95798892,0.45808014,-0.65169317,0.68427783,0.32720011,0
1.2803946,0.32009864,0.46704018,0.91456753,0.22864188,0.33360013,0
-0.43867683,0.78198922,-1.0752002,-0.3133406,0.55856371,-0.76800019,0
-0.92567837,0.89482248,-0.5499202,-0.66119885,0.6391589,-0.39280015,0
-0.67122298,1.2165917,0.17135987,-0.47944501,0.86899412,0.1223999,0
-0.82631421,0.64268869,-0.92959994,-0.59022444,0.45906335,-0.66399997,0
0.84850931,0.74868447,0.82432002,0.60607809,0.5347746,0.58880001,0
0,-0.54868567,1.288,0,-0.39191833,0.92000002,0
-1.3074281,-0.46392617,0.18815994,-0.93387723,-0.33137584,0.13439997,0
-1.2007397,-0.28817755,0.65968001,-0.85767126,-0.20584111,0.47120002,0
-0.53891671,1.285109,0.1344,-0.38494051,0.91793507,0.096000001,0
-0.42519888,1.0895722,-0.76944023,-0.3037135,0.77826589,-0.54960018,0
1.2723826,0.57462436,0.10416003,0.90884477,0.41044599,0.074400023,0
-1.3396922,0.3721368,-0.16352017,-0.95692307,0.26581201,-0.11680012,0
1.058947,-0.62574124,0.66863984,0.75639069,-0.44695804,0.47759989,0
0.96212828,-1.0039599,0.16239984,0.68723452,-0.71711421,0.11599989,0
0.53467548,-0.58814299,1.1524799,0.38191107,-0.42010215,0.82319993,0
-1.1639382,-0.77595872,-0.056000024,-0.83138442,-0.55425626,-0.040000018,0
0.49404451,1.0400937,-0.79631978,0.35288894,0.74292403,-0.56879985,0
-0.7899574,0.42131051,1.0763199,-0.5642553,0.30093607,0.76879996,0
1.0354143,-0.54236001,0.77056003,0.7395817,-0.3874,0.55040002,0
-0.19398987,-0.43647724,-1.3159997,-0.1385642,-0.31176946,-0.93999982,0
1.3025451,0.51312381,-0.0089598624,0.93038934,0.36651701,-0.006399902,0
-1.2986978,-0.046382021,0.52079999,-0.92764133,-0.033130016,0.37200001,0
-1.2595967,-0.27991039,0.54320008,-0.89971197,-0.19993599,0.38800007,0
-0.32009864,1.2803946,0.46704018,-0.22864188,0.91456753,0.33360013,0
1.107385,0.47063869,-0.71567982,0.79098934,0.33617049,-0.51119989,0
0.61843377,-1.2368674,-0.21840009,0.44173843,-0.88347673,-0.15600006,0
0.27859655,0,1.372,0.19899754,0,0.98000002,0
0.31474781,-1.3289356,-0.30799991,0.22481987,-0.94923973,-0.21999994,0
0.35841745,-0.97284746,0.94080001,0.25601247,-0.69489104,0.67199999,0
-0.3641775,-1.274621,0.45023996,-0.2601268,-0.9104436,0.32159996,0
-1.2226379,0.61131889,0.30240002,-0.87331277,0.43665636,0.21600002,0
-0.78525347,0.92547721,-0.69775987,-0.56089532,0.66105515,-0.49839991,0
-0.47214875,-0.78691459,1.0572799,-0.3372491,-0.56208187,0.75519997,0
0.90315902,0.65228146,0.84783995,0.64511359,0.46591535,0.6056,0
1.3725599,-0.27451193,-0.026880175,0.98039997,-0.19607995,-0.019200126,0
0.39286134,1.3095382,0.30127996,0.28061524,0.93538445,0.21519998,0
-1.2986978,-0.046382021,0.52079999,-0.92764133,-0.033130016,0.37200001,0
0.23283547,-0.042765699,-1.3798401,0.16631106,-0.030546928,-0.98560011,0
-1.3759845,-0.20848256,0.1523201,-0.98284614,-0.14891613,0.10880008,0
-1.0444226,-0.90036428,-0.24192013,-0.74601614,-0.64311737,-0.17280009,0
0.6193257,-0.2477303,-1.2308799,0.44237551,-0.17695022,-0.87919992,0
-0.21349147,-0.75543135,-1.1592001,-0.15249391,-0.53959382,-0.82800007,0
0.64624095,-0.94450599,0.8064,0.46160069,-0.67464715,0.57600003,0
-0.7106697,1.0363933,-0.61712021,-0.50762123,0.74028093,-0.44080016,0
-0.20451576,1.022579,0.93408006,-0.14608268,0.73041356,0.66720003,0
1.1389883,-0.19808486,0.7895999,0.81356305,-0.14148919,0.56399995,0
1.0978103,0.73187357,0.46815985,0.78415018,0.52276683,0.33439991,0
-0.83669317,-0.41834667,1.0416,-0.59763801,-0.29881907,0.74400002,0
-0.77936065,-1.1504848,-0.17024006,-0.55668616,-0.8217749,-0.12160005,0
0.054857083,0.54857147,1.2868799,0.039183632,0.39183676,0.91919994,0
1.344,0,-0.39199978,0.95999998,0,-0.27999985,0
-0.23283583,0.042765751,-1.37984,-0.16631131,0.030546965,-0.98560005,0
1.3623915,-0.32056278,0.033600174,0.97313678,-0.22897342,0.024000125,0
-0.29154414,0.15239808,-1.3608,-0.20824581,0.10885578,-0.97200006,0
-0.20642054,0.98049778,0.97776002,-0.14744325,0.70035559,0.69840002,0
-1.1661776,0.053008024,-0.77279997,-0.83298403,0.037862875,-0.55199999,0
0.84812933,0.10601605,1.1087999,0.60580665,0.075725749,0.792,0
0.3400079,0.59501386,-1.2208002,0.24286279,0.42500991,-0.87200016,0
0.055977542,-0.055977542,1.39776,0.039983958,-0.039983958,0.99840003,0
0.31180277,1.3641374,-0.043680158,0.22271627,0.97438389,-0.031200113,0
-0.24878876,1.3505677,-0.27215993,-0.17770626,0.96469122,-0.19439995,0
0.26052463,1.3460438,0.28335997,0.18608902,0.96145988,0.20239998,0
-0.31841892,-0.62236428,-1.21296,-0.22744209,-0.44454592,-0.8664,0
-0.45292753,1.0065055,0.86128002,-0.32351968,0.71893251,0.61520004,0
-0.19398987,-0.43647724,-1.3159997,-0.1385642,-0.31176946,-0.93999982,0
0.92341465,0.77761245,0.70895988,0.6595819,0.55543745,0.50639993,0
-0.10973703,0.52673781,-1.2924801,-0.078383595,0.3762413,-0.92320007,0
-1.2853775,0.27543804,0.48159999,-0.91812682,0.19674146,0.34399998,0
-0.055073891,-0.49566549,1.3081599,-0.039338496,-0.35404679,0.93439996,0
0.46503618,-1.2090938,0.53087997,0.3321687,-0.86363846,0.37919998,0
-0.50013989,-1.1473798,-0.62719983,-0.35724279,-0.81955701,-0.44799989,0
-0.38999465,0.63959128,-1.1827202,-0.27856761,0.45685092,-0.84480017,0
-0.10439463,0.93955117,1.03264,-0.074567594,0.67110801,0.73759997,0
-0.9758684,0.30816898,0.95536,-0.69704884,0.2201207,0.68239999,0
0,-1.3830363,-0.21727996,0,-0.98788303,-0.15519997,0
-1.3725599,-0.27451196,-0.026879942,-0.98039997,-0.19607998,-0.019199958,0
1.045521,-0.81681335,-0.44687995,0.74680072,-0.5834381,-0.31919998,0
1.1886784,0.41603744,-0.61151975,0.84905601,0.2971696,-0.43679982,0
1.3294659,0.4154582,0.14112,0.94961852,0.29675585,0.1008,0
-0.73037225,1.1916599,-0.080640003,-0.52169448,0.85118568,-0.057600003,0
0.76961863,-0.54683429,-1.0337598,0.54972762,-0.39059594,-0.73839986,0
1.2537448,-0.56202352,0.26879987,0.89553207,-0.40144539,0.19199991,0
-1.3372631,0.17830184,0.37407988,-0.95518798,0.12735847,0.26719993,0
1.079784,0.09598086,-0.88591987,0.77127433,0.068557762,-0.63279992,0
-0.92547721,-0.78525347,-0.69775987,-0.66105515,-0.56089532,-0.49839991,0
0.9987002,0.76091462,0.61935997,0.71335727,0.54351044,0.44239998,0
-0.38615477,0.27582493,1.31712,-0.27582484,0.19701782,0.94080001,0
1.1713637,-0.24403414,0.72687989,0.8366884,-0.1743101,0.51919991,0
0.47063869,1.107385,-0.71567982,0.33617049,0.79098934,-0.51119989,0
-1.1851114,-0.64334619,-0.37631994,-0.84650815,-0.45953301,-0.26879996,0
-1.3764613,-0.043014374,0.25200006,-0.98318666,-0.030724553,0.18000005,0
1.1967555,-0.71057355,-0.15119994,0.85482538,-0.50755256,-0.10799996,0
-1.1935648,0.55087608,0.48160005,-0.85254627,0.39348292,0.34400004,0
0.59804219,-1.1960844,-0.41440013,0.42717299,-0.85434598,-0.29600009,0
-0.50406736,-0.53461695,-1.1916798,-0.36004812,-0.38186926,-0.85119992,0
0.62169993,-1.2088609,-0.33487996,0.44407138,-0.86347204,-0.23919998,0
0.88164008,-0.25469601,-1.0572798,0.62974292,-0.18192573,-0.75519991,0
0.88750595,1.0804418,-0.070559919,0.63393283,0.77174419,-0.050399944,0
0.0800073,0.12445582,-1.3921601,0.057148073,0.088897012,-0.99440008,0
-0.8064,-0.86015993,-0.75488001,-0.57600003,-0.61439997,-0.53920001,0
-0.1495944,1.3837485,-0.15120003,-0.10685314,0.98839182,-0.10800002,0
-0.05374828,0.75247657,1.17936,-0.038391627,0.53748327,0.84240001,0
-0.3643702,1.0931108,-0.79520011,-0.26026443,0.78079343,-0.56800008,0
0.59420717,-1.2676421,0.0011201313,0.42443371,-0.90545869,0.00080009381,0
1.1859578,-0.42694482,0.60927999,0.84711272,-0.30496058,0.43520001,0
-0.2477303,0.6193257,-1.2308799,-0.17695022,0.44237551,-0.87919992,0
0.80103886,-0.98951858,0.5823999,0.57217062,-0.70679897,0.41599995,0
1.1010705,0.57447159,0.64623988,0.78647894,0.41033685,0.46159992,0
0.86038899,0.65794444,0.88703996,0.61456358,0.46996033,0.6336,0
0.95401055,-0.86168694,-0.55440003,0.68143612,-0.61549067,-0.39600003,0
0.096891232,-1.2111416,0.69551998,0.069208026,-0.86510116,0.49680001,0
0.050275352,1.106059,0.85679984,0.035910968,0.7900421,0.61199987,0
0.49206495,-0.3280434,1.26896,0.35147497,-0.23431672,0.90640002,0
-1.3880854,-0.11254746,-0.14336003,-0.99148959,-0.080391049,-0.10240003,0
0.70191771,0.5172025,-1.0953598,0.50136977,0.36943036,-0.78239989,0
0.81629497,0.66323954,0.92399991,0.58306783,0.47374254,0.65999997,0
-1.3620688,0,0.32367998,-0.97290629,0,0.23119999,0
0.23226967,-1.2194161,-0.64736009,0.16590691,-0.87101156,-0.46240008,0
-1.1432693,0.63514954,-0.49952006,-0.81662095,0.45367825,-0.35680005,0
-0.036378421,1.3823813,-0.21839996,-0.025984587,0.98741525,-0.15599997,0
-0.82709014,0.87574261,0.71344,-0.59077871,0.62553042,0.50959998,0
-0.31142211,0.10601605,-1.3608,-0.22244437,0.075725757,-0.97200006,0
-0.38813934,0,1.34512,-0.27724239,0,0.96079999,0
0.98994946,0.98994946,0,0.70710677,0.70710677,0,0
-1.1639382,0.77595872,-0.056000024,-0.83138442,0.55425626,-0.040000018,0
-1.1138161,-0.81394261,0.23856007,-0.79558295,-0.58138758,0.17040005,0
0.81629497,-0.66323954,0.92399991,0.58306783,-0.47374254,0.65999997,0
1.3165423,0.18159212,0.44015983,0.94038737,0.12970866,0.31439987,0
0.026924435,0.074438147,-1.3977604,0.01923174,0.053170107,-0.99840027,0
-1.3155891,-0.47839606,0.01904011,-0.9397065,-0.34171146,0.013600078,0
-0.15052651,-1.103861,0.84784001,-0.10751893,-0.78847212,0.6056,0
-0.22328199,0,1.38208,-0.15948714,0,0.98719996,0
-0.10916416,0.60040259,1.26,-0.077974401,0.428859,0.90000004,0
-1.3225384,-0.045604724,0.45695984,-0.94467026,-0.032574803,0.32639989,0
-1.2017072,0.50841469,0.50736004,-0.85836232,0.36315334,0.36240003,0
-1.1661776,-0.053008102,-0.77279997,-0.83298403,-0.03786293,-0.55199999,0
1.065967,-0.90197212,0.10080006,0.76140499,-0.64426583,0.072000042,0
-1.0043097,0.043665592,-0.97440004,-0.71736407,0.031189708,-0.69600004,0
-0.76961863,-0.54683429,-1.0337598,-0.54972762,-0.39059594,-0.73839986,0
0.28688201,-0.43563569,-1.2991998,0.20491573,-0.31116834,-0.92799991,0
-0.54765588,-0.16429679,1.27792,-0.39118278,-0.11735485,0.91280001,0
-0.075198673,1.3911748,-0.13776004,-0.05371334,0.99369627,-0.098400034,0
-0.54211706,-1.2197633,0.42224011,-0.38722649,-0.87125951,0.30160007,0
1.0785456,0.49024802,0.74591976,0.77038974,0.35017717,0.53279984,0
-1.3564874,-0.3288455,0.1086401,-0.96891958,-0.23488964,0.077600069,0
-1.353314,-0.3582302,0.014559966,-0.96665293,-0.25587872,0.010399976,0
0.23399699,-1.2635833,0.55552012,0.16714071,-0.90255952,0.3968001,0
-0.47525892,0.73929155,1.0897601,-0.33947065,0.52806538,0.77840006,0
0.2893374,-1.3640193,0.12544014,0.20666957,-0.97429949,0.089600101,0
-0.32527855,0.59634405,1.22416,-0.23234183,0.42596003,0.87439996,0
-1.2853775,0.27543804,0.48159999,-0.91812682,0.19674146,0.34399998,0
-0.45982784,-1.2481042,-0.43679991,-0.32844847,-0.89150304,-0.31199995,0
-1.2737793,-0.48315769,0.32255983,-0.90984237,-0.34511265,0.23039989,0
-1.1499133,0.590496,-0.53760004,-0.82136667,0.42178288,-0.38400003,0
1.282446,-0.44222268,0.34607986,0.91603291,-0.31587335,0.24719991,0
-0.60808891,-0.59020394,-1.1143999,-0.43434924,-0.42157426,-0.79599994,0
0.58276385,-1.2103558,0.39424011,0.41625991,-0.86453986,0.28160009,0
0.51067567,0.62983334,-1.1412801,0.36476833,0.44988096,-0.81520003,0
-0.75247657,-0.05374828,1.17936,-0.53748327,-0.038391627,0.84240001,0
1.3750608,0.085941218,0.24864006,0.98218632,0.061386585,0.17760004,0
-0.42661276,-0.69324559,1.13904,-0.30472341,-0.49517542,0.8136,0
0.78499943,1.0361992,-0.51967984,0.56071389,0.74014229,-0.37119991,0
0.045947243,0.73515666,-1.1905602,0.032819461,0.52511191,-0.85040015,0
-0.19316019,1.2072514,0.68207997,-0.13797157,0.86232245,0.48719999,0
0.17118065,1.3694445,0.23520003,0.1222719,0.97817463,0.16800003,0
-0.25930604,-1.0372239,-0.90384001,-0.1852186,-0.74087423,-0.64560002,0
-0.072653428,-1.3804144,-0.22175996,-0.051895306,-0.98601025,-0.15839997,0
0.68634105,0.16063303,-1.2096003,0.49024361,0.11473788,-0.86400026,0
1.0137084,0.82363796,-0.50399989,0.7240774,0.58831286,-0.35999992,0
-0.54604882,0,-1.2891201,-0.39003488,0,-0.92080009,0
-0.20338106,-1.382991,0.077279955,-0.1452722,-0.98785073,0.05519997,0
-0.98994946,-0.98994946,0,-0.70710677,-0.70710677,0,0
0.32527855,0.59634405,1.22416,0.23234183,0.42596003,0.87439996,0
0.48384011,0.80640012,-1.0371199,0.34560007,0.57600009,-0.7407999,0
-0.2793448,-0.26382563,-1.3462402,-0.199532,-0.18844688,-0.96160012,0
-0.54645216,0.92659283,-0.89599979,-0.39032298,0.661852,-0.63999987,0
0.087761045,1.3602976,0.31919998,0.062686458,0.97164112,0.22799999,0
0.89482248,-0.92567837,-0.5499202,0.6391589,-0.66119885,-0.39280015,0
-0.62169981,1.2088609,-0.3348802,-0.44407129,0.86347204,-0.23920015,0
1.313344,0.032032747,-0.48384023,0.9381029,0.022880534,-0.34560016,0
0.5465554,-1.2883092,-0.039199833,0.39039671,-0.92022091,-0.027999882,0
0.59420717,-1.2676421,0.0011201313,0.42443371,-0.90545869,0.00080009381,0
-0.14730488,-0.18531904,-1.3798399,-0.10521777,-0.13237074,-0.98559994,0
1.3844504,-0.19228482,-0.079520129,0.98889321,-0.1373463,-0.056800094,0
1.340471,-0.28220448,-0.28895998,0.9574793,-0.20157464,-0.20639999,0
-0.82925999,1.01354,0.49503982,-0.59232855,0.72395718,0.35359988,0
-0.56100148,-1.122003,-0.62159991,-0.40071538,-0.80143076,-0.44399998,0
-1.2615714,-0.52565479,-0.30352014,-0.90112245,-0.37546772,-0.21680011,0
-0.46503606,-1.2090938,0.53088003,-0.33216861,-0.86363846,0.37920004,0
-0.36437002,-0.22556236,-1.3328,-0.26026431,-0.16111597,-0.95200002,0
-0.16739412,0.16739395,1.37984,-0.11956723,0.11956711,0.98560005,0
-1.1499133,-0.590496,-0.53760004,-0.82136667,-0.42178288,-0.38400003,0
-0.40429369,-1.010734,0.88032001,-0.2887812,-0.72195286,0.62880003,0
-0.10047597,1.1052352,0.85343987,-0.071768552,0.78945374,0.60959989,0
-1.1982639,-0.68472219,0.2352,-0.85590279,-0.48908728,0.168,0
-1.3025451,0.51312381,-0.0089598624,-0.93038934,0.36651701,-0.006399902,0
-0.89065987,1.0603094,0.20607996,-0.63618565,0.75736386,0.14719997,0
0.58417213,-0.77194178,-1.0113598,0.4172658,-0.55138701,-0.72239989,0
-0.063948013,-1.3109336,-0.48719996,-0.045677152,-0.93638116,-0.34799999,0
1.2197633,0.54211706,0.42224011,0.87125951,0.38722649,0.30160007,0
-0.27934575,-0.075656138,-1.3697598,-0.19953269,-0.0540401,-0.97839987,0
-1.3779769,0.22966282,-0.091840118,-0.9842692,0.16404487,-0.065600082,0
1.0726186,0.5363093,0.72239983,0.76615614,0.38307807,0.51599991,0
-0.1073098,-0.8405934,-1.1144,-0.076649852,-0.60042387,-0.79600006,0
0.46557525,-1.3191298,-0.056000039,0.33255374,-0.94223559,-0.040000029,0
0.94450599,-0.64624095,0.8064,0.67464715,-0.46160069,0.57600003,0
-0.77194178,0.58417213,-1.0113598,-0.55138701,0.4172658,-0.72239989,0
-0.037649292,-1.3930252,-0.13440004,-0.026892353,-0.99501801,-0.096000031,0
-0.52312875,-1.1413717,0.61935991,-0.3736634,-0.81526554,0.44239995,0
-1.085288,-0.66061008,0.58800012,-0.77520579,-0.47186434,0.42000011,0
-1.1639382,-0.33948192,0.69999993,-0.83138442,-0.24248709,0.49999997,0
-0.30552605,1.166554,-0.71120018,-0.2182329,0.83325285,-0.50800014,0
0.16429663,0.54765606,1.2779199,0.11735474,0.3911829,0.91279995,0
0,0,1.4,0,0,1,0
0.5263797,-1.295704,0.063840061,0.3759855,-0.9255029,0.045600045,0
-0.13882129,1.2956651,0.51184016,-0.099158064,0.92547512,0.36560011,0
0.2793448,-0.26382563,-1.3462402,0.199532,-0.18844688,-0.96160012,0
0.87480468,-0.51459092,0.96431994,0.62486047,-0.36756495,0.68879998,0
0.17483492,-1.35497,0.30575997,0.12488209,-0.96783572,0.21839999,0
-1.1408947,0.74596965,0.31919998,-0.81492478,0.53283548,0.22799999,0
-0.049710795,1.1433494,0.80639988,-0.035507713,0.81667817,0.57599992,0
-0.52730829,1.1786892,-0.54095989,-0.37664878,0.84192091,-0.38639992,0
1.2711594,-0.09416002,0.57904011,0.90797102,-0.067257158,0.41360009,0
1.3252019,0.16565029,-0.41999978,0.94657278,0.11832164,-0.29999983,0
-0.26052463,1.3460438,0.28335997,-0.18608902,0.96145988,0.20239998,0
-0.072532438,1.0879866,-0.87807989,-0.051808886,0.77713329,-0.62719995,0
-0.27837133,0.1113484,1.36752,-0.19883667,0.079534568,0.97680002,0
0.14079966,1.0559974,-0.90831989,0.10057119,0.75428385,-0.64879996,0
-0.019072894,-0.89642692,-1.0752,-0.013623496,-0.64030492,-0.76800001,0
-0.59020394,-0.60808891,-1.1143999,-0.42157426,-0.43434924,-0.79599994,0
-0.27991039,-1.2595967,0.54320008,-0.19993599,-0.89971197,0.38800007,0
-0.7420581,0.89046973,0.78511995,-0.53004152,0.63604981,0.56079996,0
-0.37229678,-0.74459356,1.1256,-0.26592627,-0.53185254,0.80400002,0
-0.29499811,0.49559686,-1.2756802,-0.21071294,0.35399777,-0.91120017,0
-0.75002205,0.21429214,1.16256,-0.53573006,0.15306582,0.83039999,0
0.41707754,-0.23278746,-1.3160001,0.29791254,-0.16627675,-0.94000012,0
0.57917112,-0.68447483,1.0752,0.41369367,-0.48891059,0.76800001,0
-1.1863035,0.28245327,-0.68768018,-0.84735966,0.20175233,-0.49120015,0
1.3913537,0.1227664,0.095200218,0.99382412,0.087690286,0.06800016,0
-1.3159232,-0.34629557,-0.32927993,-0.93994516,-0.24735399,-0.23519996,0
-0.24075602,-0.20274191,-1.3641599,-0.17196859,-0.14481565,-0.97439998,0
0.57270014,-1.1772169,-0.49616006,0.40907153,-0.84086925,-0.35440004,0
1.1340685,-0.56703424,0.59359992,0.81004894,-0.40502447,0.42399994,0
0.76196891,-0.76196891,-0.89375991,0.54426354,-0.54426354,-0.63839996,0
-1.1499133,0.590496,-0.53760004,-0.82136667,0.42178288,-0.38400003,0
-0.64735615,0.32367808,1.1984,-0.46239725,0.23119862,0.85600001,0
-0.70213199,-0.30319333,-1.17264,-0.50152284,-0.21656667,-0.83759999,0
-0.66466886,1.2185595,-0.18255991,-0.47476348,0.87039965,-0.13039994,0
1.0894842,0.82800806,0.29568002,0.77820301,0.59143436,0.21120001,0
0.3882364,-0.29864341,-1.31152,0.27731171,-0.21331672,-0.9368,0
-0.16769733,0,1.38992,-0.1197838,0,0.9928,0
-0.97626162,0.63325077,-0.77840006,-0.69732976,0.45232198,-0.55600005,0
-0.79899889,0.79899901,0.8265599,-0.57071352,0.57071358,0.59039992,0
0.26382616,-0.27934539,-1.3462399,0.18844727,-0.19953243,-0.96159995,0
0.74211299,0.42406452,1.1088001,0.53008074,0.30290323,0.79200006,0
-0.98832488,-0.08594127,-0.98784006,-0.70594633,-0.061386622,-0.70560002,0
-0.75020611,-1.1253091,-0.36175987,-0.53586149,-0.80379224,-0.2583999,0
0.65598261,-1.2347907,-0.070560008,0.46855903,-0.88199335,-0.050400008,0
1.0039599,0.96212828,0.16239984,0.71711421,0.68723452,0.11599989,0
-0.055267151,0.44213754,1.3272001,-0.039476536,0.31581253,0.94800007,0
-0.12445582,0.0800073,-1.3921601,-0.088897012,0.057148073,-0.99440008,0
-0.049710795,-1.1433494,0.80640006,-0.035507713,-0.81667817,0.57600003,0
-0.16494828,0.4948447,1.2992001,-0.1178202,0.35346052,0.92800003,0
0.031875715,0.52063715,-1.2992001,0.022768367,0.37188369,-0.92800003,0
1.3317115,-0.43084794,-0.030239835,0.95122254,-0.30774853,-0.021599883,0
0.71946371,-1.0072494,0.65408003,0.51390266,-0.71946383,0.46720004,0
-0.096917309,-0.38766921,-1.3417599,-0.069226652,-0.27690658,-0.95839995,0
-0.38687038,0.22106893,1.3271999,-0.27633598,0.15790638,0.94799995,0
-1.238022,0.63776904,-0.14335994,-0.88430142,0.45554933,-0.10239996,0
-1.3320609,-0.23908785,-0.35839987,-0.9514721,-0.17077704,-0.25599992,0
0.10973703,0.52673763,-1.2924802,0.078383595,0.37624118,-0.92320019,0
0,-0.22328199,1.38208,0,-0.15948714,0.98719996,0
-1.2543019,0.14932169,-0.60368013,-0.89592993,0.10665835,-0.43120012,0
-0.22165811,-0.33248726,1.34176,-0.15832722,-0.23749091,0.95840007,0
0.88164008,0.25469601,-1.0572798,0.62974292,0.18192573,-0.75519991,0
-0.71386266,0.99940777,-0.67200017,-0.50990188,0.71386272,-0.48000014,0
-1.1976409,0.68955082,-0.22399986,-0.85545778,0.49253631,-0.15999991,0
-0.54806697,-0.99648529,0.81647998,-0.39147642,-0.71177524,0.58319998,0
-1.2103558,-0.58276385,0.39424011,-0.86453986,-0.41625991,0.28160009,0
-1.1368965,-0.45475858,-0.67872006,-0.81206894,-0.32482755,-0.48480004,0
0.23908785,1.3320609,-0.35839987,0.17077704,0.9514721,-0.25599992,0
-0.75826061,1.1150892,0.37632003,-0.54161471,0.79649228,0.26880002,0
1.0667875,0.74211311,0.52079982,0.76199108,0.5300808,0.37199986,0
-0.46392617,-1.3074281,0.18815994,-0.33137584,-0.93387723,0.13439997,0
0.61589819,-0.82119751,0.95199996,0.43992728,-0.58656967,0.68000001,0
-0.4842948,1.2268801,-0.46927997,-0.34592485,0.87634295,-0.33519998,0
1.0662111,0.10154383,0.90160012,0.76157939,0.072531305,0.64400011,0
-0.7609145,-0.99870032,0.61935997,-0.54351038,-0.71335739,0.44239998,0
0.095627189,-1.3069061,-0.49279994,0.068305135,-0.9335044,-0.35199997,0
-1.285109,0.53891671,0.1344,-0.91793507,0.38494051,0.096000001,0
1.1024891,-0.69299304,-0.51408017,0.78749222,-0.49499503,-0.36720014,0
-0.70235962,0.10805523,1.2062401,-0.50168544,0.077182308,0.86160004,0
-0.68419439,0.97742057,0.73248011,-0.48871028,0.69815755,0.52320009,0
0.16739395,0.16739395,1.37984,0.11956711,0.11956711,0.98560005,0
-1.3712821,-0.22237007,-0.17360003,-0.97948724,-0.15883577,-0.12400003,0
-1.0083259,0.96954423,-0.057119943,-0.72023284,0.69253159,-0.04079996,0
-1.0065055,0.45292738,0.86128008,-0.71893251,0.32351956,0.61520004,0
0.63266414,1.1749477,0.42336008,0.45190296,0.83924842,0.30240005,0
0.075655736,0.27934429,-1.3697602,0.054039814,0.19953164,-0.97840011,0
-0.76344246,0.31231737,-1.1312,-0.54531604,0.22308384,-0.80799997,0
-0.49559686,-0.29499811,-1.2756802,-0.35399777,-0.21071294,-0.91120017,0
-0.93260431,0.31086811,0.99679995,-0.66614592,0.22204866,0.71199995,0
0.054351691,0.6522209,1.2376,0.038822636,0.46587208,0.884,0
-0.56100148,1.122003,-0.62159991,-0.40071538,0.80143076,-0.44399998,0
-0.62852645,-0.5412311,-1.1278402,-0.44894746,-0.38659364,-0.80560011,0
-1.3319998,-0.13319995,-0.40992004,-0.95142841,-0.095142819,-0.29280004,0
0.76601356,0.71494603,0.92848009,0.54715258,0.51067573,0.66320008,0
0.45783222,-1.2361466,0.47152007,0.32702303,-0.88296187,0.33680004,0
1.0976559,0.76503301,-0.41215998,0.78403991,0.54645216,-0.29439998,0
-0.33296227,-0.16648114,1.3496,-0.23783021,-0.1189151,0.96399999,0
0,0.54868579,1.2879999,0,0.39191845,0.92000002,0
-1.0928055,0.34771082,0.80304003,-0.78057539,0.24836488,0.57360005,0
-1.3169837,0.39153576,-0.26880008,-0.94070268,0.27966839,-0.19200006,0
-1.2702252,0.54438215,-0.22399987,-0.90730369,0.3888444,-0.15999991,0
-1.0217661,-0.18164733,-0.93967986,-0.72983289,-0.12974809,-0.67119992,0
-0.59020394,-0.60808891,-1.1143999,-0.42157426,-0.43434924,-0.79599994,0
1.2268801,-0.4842948,-0.46927997,0.87634295,-0.34592485,-0.33519998,0
-0.57270014,1.1772169,-0.49616006,-0.40907153,0.84086925,-0.35440004,0
0.37976909,1.0633537,-0.82768005,0.27126363,0.75953835,-0.59120005,0
0.54211706,-1.2197633,0.42224011,0.38722649,-0.87125951,0.30160007,0
-0.79689395,-0.26563138,1.12,-0.56920999,-0.18973671,0.80000001,0
-0.053338308,0.43559617,-1.3294401,-0.038098793,0.31114012,-0.9496001,0
1.219416,-0.23226975,-0.64736015,0.87101144,-0.16590697,-0.46240011,0
-0.62236398,0.31841883,-1.2129602,-0.44454572,0.22744203,-0.86640018,0
-0.95325089,-0.81026322,0.6283201,-0.68089348,-0.57875943,0.44880009,0
-1.0454245,0.81815833,0.44464001,-0.74673176,0.58439881,0.31760001,0
0.18623687,1.3781526,-0.16128005,0.13302635,0.98439473,-0.11520004,0
0.18159212,-1.3165423,0.44015983,0.12970866,-0.94038737,0.31439987,0
-0.86758298,0.86758298,0.67423993,-0.61970216,0.61970216,0.48159996,0
-0.26052463,-1.3460438,0.28335997,-0.18608902,-0.96145988,0.20239998,0
0.033581294,-1.3432531,-0.39312005,0.023986639,-0.95946652,-0.28080004,0
-1.0082662,0.021918809,-0.97104007,-0.72019017,0.015656292,-0.69360006,0
0.15615855,-0.39907187,-1.3328001,0.11154182,-0.28505135,-0.95200014,0
-0.38742608,0.1660396,1.33504,-0.27673292,0.11859972,0.95359999,0
-1.0972857,0.024384106,-0.86911988,-0.78377557,0.017417219,-0.6207999,0
-0.8420493,0.31576851,1.07296,-0.60146379,0.22554894,0.76640004,0
-0.63538659,0.58243775,1.1032,-0.45384756,0.41602698,0.78799999,0
-0.82313824,1.1224613,-0.15008007,-0.58795589,0.80175811,-0.10720005,0
-0.84186083,-0.79233962,0.78960007,-0.60132915,-0.56595689,0.56400007,0
0.15994433,0.79972225,1.13792,0.11424595,0.57123017,0.81280005,0
1.2088609,0.62169981,-0.3348802,0.86347204,0.44407129,-0.23920015,0
-0.66718829,1.1939158,-0.29903978,-0.47656307,0.85279703,-0.21359985,0
1.2738315,-0.56198454,-0.14671981,0.90987962,-0.40141752,-0.10479987,0
-0.80060416,0.10674712,1.14352,-0.57186013,0.076247945,0.8168,0
-0.55344099,-0.95594341,0.86015993,-0.39531499,-0.68281674,0.61439997,0
-0.97599185,0.21688713,-0.9799999,-0.69713706,0.15491939,-0.69999993,0
1.3191298,0.46557531,-0.055999812,0.94223559,0.3325538,-0.039999865,0
0.5263797,-1.295704,0.063840061,0.3759855,-0.9255029,0.045600045,0
-0.9758684,-0.30816898,0.95536,-0.69704884,-0.2201207,0.68239999,0
-0.069944017,-1.3639076,-0.30799988,-0.049960013,-0.97421974,-0.21999992,0
1.1408947,-0.74596953,0.3192001,0.81492478,-0.53283536,0.22800007,0
0.54328406,0.011087419,-1.29024,0.38806006,0.0079195844,-0.92160004,0
1.2589916,-0.58752936,0.17247996,0.89927971,-0.41966385,0.12319997,0
0.97786981,0.93342096,0.36399996,0.69847846,0.66672927,0.25999999,0
-1.1304783,0.26290199,-0.78288013,-0.80748451,0.18778715,-0.55920011,0
-0.24451941,0.91694772,-1.0292798,-0.17465672,0.65496266,-0.73519987,0
0.68419439,-0.97742057,0.73248011,0.48871028,-0.69815755,0.52320009,0
0.92764121,-0.96077144,-0.41999996,0.66260087,-0.68626535,-0.29999998,0
-0.42895859,0.6434378,1.16704,-0.30639899,0.45959845,0.83359998,0
0.38391674,-1.3437083,-0.084000006,0.27422625,-0.95979166,-0.060000006,0
1.0358298,0.92484814,-0.17807981,0.73987842,0.66060585,-0.12719987,0
0.53194457,-0.28452846,-1.26336,0.37996042,-0.20323463,-0.90240002,0
0.38527831,-0.33023861,1.3048,0.27519879,-0.23588473,0.93200004,0
1.233449,-0.57267278,0.3326402,0.88103503,-0.40905198,0.23760015,0
-0.94041592,0,1.03712,-0.67172569,0,0.74080002,0
0.32549062,-1.2131921,-0.61824,0.23249331,-0.86656582,-0.44159999,0
-1.3085047,-0.2707251,0.41775984,-0.93464625,-0.19337508,0.2983999,0
0.57594031,1.2196382,-0.37520018,0.41138595,0.87117016,-0.26800013,0
-1.1713637,-0.24403414,0.72687989,-0.8366884,-0.1743101,0.51919991,0
-0.87088394,0.36455607,-1.0337601,-0.62205994,0.2603972,-0.73840004,0
0.49072093,-0.38167191,1.2544,0.35051495,-0.27262279,0.89600003,0
0.41901752,0.71582162,-1.1278403,0.29929823,0.51130116,-0.80560023,0
-0.21146354,-0.84585434,1.09536,-0.15104538,-0.60418171,0.78240007,0
0.43995324,-0.27497089,1.30032,0.31425232,-0.19640778,0.92880005,0
0.94535434,-0.30079454,-0.98783994,0.67525309,-0.21485324,-0.70559996,0
0.59135896,0.97702771,-0.80976003,0.42239925,0.69787693,-0.57840002,0
-1.1595516,-0.66260093,-0.4199999,-0.82825118,-0.47328639,-0.29999992,0
-0.31231737,0.76344246,-1.1312,-0.22308384,0.54531604,-0.80799997,0
-1.2459214,0.62296057,0.14,-0.88994384,0.44497183,0.1,0
0.50215542,-0.18557918,-1.2935997,0.35868245,-0.13255656,-0.92399985,0
0.16739395,-0.16739412,1.37984,0.11956711,-0.11956723,0.98560005,0
-0.74596953,-1.1408947,0.3192001,-0.53283536,-0.81492478,0.22800007,0
