0.08487051,-0.58196926,-1.1029999,0.067896411,-0.4655754,-0.88239992,0
-0.67938799,0.89169663,0.55300009,-0.54351038,0.71335733,0.44240007,0
0.09395735,0.79863828,0.95699996,0.075165883,0.63891065,0.76559997,0
-0.6847102,1.0270652,0.19700007,-0.54776818,0.82165211,0.15760006,0
0.32001558,-0.86861384,0.84000003,0.25601247,-0.6948911,0.67200005,0
1.0720891,0.25730139,0.58899999,0.85767126,0.20584111,0.47119999,0
0.099839777,-0.099839926,1.242,0.079871818,-0.079871938,0.99360001,0
0.47233474,0.61403501,0.98099995,0.37786779,0.49122801,0.78479993,0
-0.84330893,-0.57700086,0.72000003,-0.67464715,-0.46160069,0.57600003,0
0.66982692,-1.0047402,-0.32300001,0.53586155,-0.80379218,-0.25840002,0
0.18614516,-1.2285577,0.1360001,0.14891613,-0.98284614,0.10880008,0
0.66510761,0.94223565,-0.48199987,0.53208607,0.75378853,-0.38559991,0
-1.0663652,-0.14879516,-0.63500005,-0.85309219,-0.11903612,-0.50800002,0
-1.1629866,-0.45814627,-0.0079998774,-0.93038929,-0.36651701,-0.006399902,0
0.26986665,-0.94453323,0.77299994,0.21589331,-0.75562656,0.61839998,0
0.03361544,-1.2437725,-0.12000003,0.026892353,-0.99501801,-0.096000031,0
0.42708322,-1.0249995,0.57399988,0.34166658,-0.81999958,0.45919991,0
-1.1092263,0.53548849,0.21299991,-0.88738108,0.4283908,0.17039993,0
0.7558108,0.93720543,-0.33600003,0.60464865,0.74976432,-0.26880002,0
1.1581861,0.31949952,0.34499991,0.92654884,0.25559962,0.27599993,0
-1.2157376,0.039217304,0.28799999,-0.97259009,0.031373844,0.2304,0
-0.5903219,-0.96598136,-0.53000009,-0.47225752,-0.77278507,-0.42400008,0
0,1.2395883,0.1610001,0,0.99167061,0.12880008,0
-0.71344936,1.013849,0.16000012,-0.57075948,0.8110792,0.1280001,0
-0.70770758,0.3302635,0.97600001,-0.56616604,0.26421079,0.78079998,0
-1.1313775,-0.42808872,-0.315,-0.90510195,-0.34247097,-0.252,0
-0.98474765,0.70778745,-0.30300003,-0.78779811,0.56622994,-0.24240002,0
-0.49329299,1.0736377,-0.40799999,-0.3946344,0.8589102,-0.32639998,0
-0.89442718,-0.44721356,-0.75,-0.71554172,-0.35777086,-0.60000002,0
-0.97283238,0.37964198,-0.68700004,-0.77826589,0.30371359,-0.54960001,0
0.43340385,0.48156008,1.069,0.34672308,0.38524806,0.85519999,0
-0.62742335,-1.0805624,-0.035000041,-0.5019387,-0.86444986,-0.028000033,0
-0.58135015,0.1453374,1.097,-0.46508011,0.11626992,0.87760001,0
-0.67915392,0.6791538,0.80000007,-0.54332316,0.54332304,0.64000005,0
-0.46933463,-1.1264031,-0.27100012,-0.37546772,-0.90112245,-0.21680009,0
0.18914276,-0.58003795,-1.091,0.15131421,-0.46403036,-0.87279999,0
0.90494651,0.74041069,0.44199985,0.72395718,0.59232855,0.35359988,0
-0.5336985,0.24259025,1.104,-0.4269588,0.1940722,0.88319999,0
0.57126087,-0.87886286,0.68100005,0.45700869,-0.70309031,0.54480004,0
-0.19195843,0.63072062,-1.0619998,-0.15356675,0.5045765,-0.84959984,0
-1.2227182,-0.15283975,0.21000005,-0.97817457,-0.1222718,0.16800004,0
-0.78981513,0.95436001,-0.16700017,-0.63185209,0.76348799,-0.13360015,0
0.45987383,1.1496848,-0.17100012,0.36789906,0.91974783,-0.1368001,0
0.26986665,-0.94453323,0.77299994,0.21589331,-0.75562656,0.61839998,0
0,1.1733451,-0.4310002,0,0.93867606,-0.34480017,0
-0.14456141,-0.62643272,1.072,-0.11564913,-0.5011462,0.85760003,0
0.29047889,-1.1204187,0.47200012,0.2323831,-0.89633495,0.3776001,0
-0.73095143,-0.98519546,-0.23999996,-0.58476114,-0.78815639,-0.19199997,0
1.0249995,-0.4270831,0.57399994,0.81999958,-0.34166649,0.45919997,0
0.96821636,-0.27019992,-0.74300009,0.77457309,-0.21615994,-0.59440005,0
0.049628574,0.29777172,1.2129999,0.039702863,0.2382174,0.97040004,0
-0.49385211,0.63008714,-0.96000016,-0.3950817,0.50406969,-0.76800013,0
1.035314,-0.59160793,-0.37500012,0.82825118,-0.47328633,-0.3000001,0
0.91629684,-0.045814801,0.84900004,0.73303747,-0.036651842,0.67920005,0
0.49329305,-1.0736377,-0.40800008,0.39463443,-0.8589102,-0.32640007,0
0.74412912,-0.41857257,0.91299993,0.5953033,-0.33485806,0.73039997,0
0.61664438,-0.42690763,-0.99999976,0.49331552,-0.34152609,-0.79999983,0
0.47435006,1.151993,-0.10199978,0.37948006,0.92159444,-0.081599824,0
0.73114806,-0.10889438,-1.0080003,0.58491844,-0.087115504,-0.80640018,0
-0.64955294,-0.13820276,-1.059,-0.51964235,-0.11056221,-0.84720004,0
0.52512854,-0.918975,0.66499996,0.42010283,-0.73518002,0.53199995,0
1.1905881,0.19843139,0.32499993,0.95247048,0.15874511,0.25999993,0
0.73119771,-0.81722087,0.59999996,0.5849582,-0.65377671,0.47999996,0
0.61403501,-0.47233459,0.98100001,0.49122801,-0.37786767,0.78479999,0
0.85111684,0.72344947,0.56099999,0.68089348,0.57875955,0.4488,0
-0.3235583,-0.73226357,-0.96000004,-0.25884664,-0.58581084,-0.76800001,0
0.3908554,0.34199852,1.1370001,0.31268433,0.27359882,0.90960008,0
-0.65639031,-0.041024394,-1.0629998,-0.52511227,-0.032819517,-0.85039985,0
-0.78191304,0.73847347,0.63699991,-0.62553042,0.59077877,0.50959992,0
1.0277791,-0.65404135,-0.27999991,0.82222331,-0.52323306,-0.22399993,0
-1.0998181,-0.32994545,-0.49400005,-0.8798545,-0.26395637,-0.39520004,0
0.72673446,-0.99447876,0.21300006,0.58138758,-0.79558301,0.17040005,0
-1.2157376,-0.039217304,0.28799999,-0.97259009,-0.031373844,0.2304,0
0.49385211,0.63008714,-0.96000016,0.3950817,0.50406969,-0.76800013,0
-0.27885482,0.68164504,-1.01,-0.22308385,0.54531604,-0.80799997,0
-1.0169537,0.17686163,0.70500004,-0.81356299,0.1414893,0.56400001,0
0.32220808,-1.1423738,-0.39199993,0.25776646,-0.91389906,-0.31359994,0
0.30701631,-1.1164228,-0.47100008,0.24561305,-0.89313823,-0.37680006,0
0.54582042,-1.0916409,0.27000004,0.43665633,-0.87331277,0.21600004,0
-0.94883507,-0.7511611,0.31299996,-0.75906807,-0.6009289,0.25039998,0
0.6781593,-0.7459752,-0.73899996,0.54252744,-0.59678018,-0.59119999,0
-0.47738871,-0.52512765,1.0289999,-0.38191098,-0.42010212,0.82319993,0
-0.57449806,0.38299862,1.0420001,-0.45959845,0.3063989,0.83360004,0
0.43931201,-1.1182486,0.34499997,0.35144961,-0.89459884,0.27599996,0
-0.41521078,-1.079548,0.47400007,-0.33216864,-0.8636384,0.37920004,0
-1.1619552,0.33635551,-0.315,-0.92956418,0.26908439,-0.252,0
-0.09320949,-0.83888501,0.92199999,-0.074567594,-0.67110801,0.73759997,0
-0.34663966,0.26664591,-1.171,-0.27731174,0.21331672,-0.9368,0
0.12245033,0.26239359,-1.2159998,0.097960263,0.20991488,-0.9727999,0
1.0527222,0,0.67399997,0.84217775,0,0.53919995,0
-0.00057409913,-0.00016744557,-1.2499999,-0.00045927931,-0.00013395646,-0.99999988,0
0.51711708,0.61113828,0.95999998,0.41369367,0.48891062,0.76800001,0
-0.53694874,-1.0325938,0.456,-0.42955899,-0.82607508,0.36480001,0
0.26442954,-1.2088209,0.17700006,0.21154363,-0.96705675,0.14160004,0
1.0440153,-0.0237276,-0.68699998,0.83521223,-0.018982079,-0.54960001,0
0.2808736,-1.1636194,0.3599999,0.22469887,-0.93089551,0.28799993,0
-0.14447838,0.92878962,-0.82399988,-0.1155827,0.74303168,-0.65919989,0
-0.86861384,0.32001558,0.84000003,-0.6948911,0.25601247,0.67200005,0
0.78292912,0.86534262,0.4480001,0.62634331,0.69227409,0.35840008,0
0.703502,0.72619557,-0.73499995,0.5628016,0.58095646,-0.58799994,0
-0.71521318,-0.88349879,0.51999998,-0.57217056,-0.70679903,0.41599998,0
0.18101944,0.5204308,-1.1219999,0.14481555,0.41634464,-0.89759988,0
0.51711708,-0.61113828,0.95999998,0.41369367,-0.48891062,0.76800001,0
-0.33240786,-0.66481572,1.005,-0.2659263,-0.5318526,0.80400002,0
1.2304934,-0.16628292,-0.14400005,0.98439473,-0.13302633,-0.11520004,0
-1.1101117,-0.042696565,0.57300007,-0.88808936,-0.034157254,0.45840007,0
0.43931201,-1.1182486,0.34499997,0.35144961,-0.89459884,0.27599996,0
-0.6770184,-0.99561542,0.33600006,-0.54161471,-0.79649234,0.26880005,0
0.70647228,-0.91425812,0.47699994,0.5651778,-0.73140651,0.38159996,0
1.2179799,-0.27839541,-0.039000187,0.97438395,-0.22271633,-0.03120015,0
-1.0698785,0.61135924,0.2099999,-0.85590279,0.4890874,0.16799992,0
-0.098630674,-0.39452255,1.1819999,-0.078904539,-0.31561804,0.94559991,0
0.14089006,-1.1552982,-0.45599997,0.11271205,-0.92423856,-0.36479998,0
0.066462629,0.024039675,-1.2480004,0.053170104,0.01923174,-0.99840033,0
-0.24171884,-1.1683078,0.37299988,-0.19337508,-0.93464625,0.2983999,0
0.83014941,0.32283583,0.87699997,0.66411954,0.25826865,0.70159996,0
-0.12571397,0.94285482,-0.81099987,-0.10057118,0.75428385,-0.6487999,0
0.10606606,0.95459425,-0.79999989,0.084852844,0.76367539,-0.63999993,0
-0.77295208,0.8949973,0.40499988,-0.61836165,0.71599782,0.32399991,0
1.0913035,0.39174992,-0.46699986,0.87304276,0.31339994,-0.37359989,0
0.76987267,0.366606,-0.91400009,0.61589813,0.2932848,-0.7312001,0
0.40439945,-0.89866567,0.76900011,0.32351956,-0.71893251,0.6152001,0
0.6684683,-0.75759751,0.73600012,0.53477466,-0.60607803,0.58880007,0
-0.098285355,-0.44228387,1.165,-0.078628287,-0.35382709,0.93199998,0
-0.4894895,-0.097897962,1.146,-0.39159161,-0.078318372,0.91680002,0
1.2422801,-0.10961296,0.08500018,0.99382412,-0.087690368,0.068000145,0
-0.12509999,-1.0758597,-0.62400007,-0.10007999,-0.86068773,-0.49920005,0
-0.744129,-0.4185726,0.91299999,-0.59530318,-0.33485809,0.73039997,0
0,-1.0825318,0.625,0,-0.86602545,0.5,0
-0.0237276,-1.0440153,-0.68699998,-0.018982079,-0.83521223,-0.54960001,0
-0.79372537,0.79372537,-0.55000013,-0.63498032,0.63498032,-0.44000012,0
-0.8845337,0.53072029,0.70600003,-0.70762694,0.42457622,0.56480002,0
-1.1321838,-0.36391622,0.38499999,-0.90574706,-0.29113299,0.308,0
0,1.2161328,0.28899997,0,0.97290623,0.23119998,0
0.88349867,0.71521336,0.52000004,0.70679891,0.57217067,0.41600004,0
-0.56118435,-0.48324206,-1.0070001,-0.44894749,-0.38659364,-0.80560005,0
0.83268243,-0.2775608,0.88999999,0.66614592,-0.22204864,0.71200001,0
0.13718224,-0.91454905,0.84100008,0.10974579,-0.73163927,0.67280006,0
0.48979598,0.048979539,1.1489999,0.39183679,0.039183632,0.91919994,0
-0.6254878,-0.19245775,1.0650001,-0.50039023,-0.1539662,0.85200006,0
-0.22768401,-1.2143146,0.19000004,-0.1821472,-0.97145164,0.15200004,0
0.98075235,0,-0.77499992,0.78460187,0,-0.61999995,0
0.10961285,-1.2422801,0.084999993,0.087690279,-0.99382412,0.067999996,0
0.59216398,0.59216398,-0.92799979,0.47373119,0.47373119,-0.74239981,0
-0.70964772,1.0289893,0.0089999232,-0.56771815,0.82319146,0.0071999384,0
0.58196908,0.09699475,1.102,0.46557528,0.0775958,0.88160002,0
-0.37469986,-0.47461978,-1.094,-0.29975989,-0.37969583,-0.87519997,0
1.2234704,-0.23789701,-0.095000096,0.97877634,-0.1903176,-0.07600008,0
1.179769,0.081363305,0.40499988,0.94381523,0.065090641,0.32399991,0
-1.1997396,-0.34278271,-0.074999943,-0.95979166,-0.27422616,-0.059999954,0
0.42156127,-0.70260233,0.94400001,0.33724901,-0.56208187,0.75520003,0
-0.64278138,0.64278138,0.8580001,-0.51422513,0.51422513,0.68640006,0
0.18914293,0.58003837,-1.0909997,0.15131435,0.46403068,-0.87279975,0
0.75164837,0.23384614,-0.97099984,0.60131872,0.18707691,-0.77679986,0
-0.99812579,0.46067348,-0.59499991,-0.79850066,0.3685388,-0.47599992,0
-0.19133213,0.66966254,1.038,-0.15306571,0.53573,0.83039999,0
-0.60427469,-0.90641218,0.61299998,-0.48341975,-0.72512972,0.49039999,0
-0.14182736,0.75641268,0.9849999,-0.11346189,0.60513014,0.78799993,0
0.29061663,-1.0832072,-0.55199999,0.23249331,-0.86656582,-0.44159999,0
0.88349867,-0.71521324,0.52000016,0.70679891,-0.57217062,0.41600013,0
1.0392305,0.30310887,0.62499994,0.83138436,0.2424871,0.49999994,0
0.27279112,1.041566,-0.63500017,0.2182329,0.83325279,-0.50800014,0
-0.95248884,-0.66260093,0.46500006,-0.76199108,-0.53008074,0.37200004,0
-0.62278003,-0.28743696,1.045,-0.49822402,-0.22994956,0.83599997,0
-0.16757084,1.1311034,0.50500011,-0.13405667,0.90488273,0.4040001,0
0.62742335,-1.0805624,-0.035000041,0.5019387,-0.86444986,-0.028000033,0
0.92287058,-0.7623713,0.35999992,0.73829645,-0.60989702,0.28799993,0
-0.43772134,0.96298712,0.66599989,-0.35017708,0.77038968,0.5327999,0
0.14779364,-0.39411679,1.177,0.11823491,-0.31529343,0.94160002,0
-0.23789701,-1.2234704,-0.095000096,-0.1903176,-0.97877634,-0.07600008,0
-0.52043027,0.18101925,-1.1220002,-0.41634423,0.1448154,-0.89760017,0
-0.091564238,-0.91564178,0.84600002,-0.073251389,-0.73251343,0.67680001,0
0.88388348,-0.88388348,0,0.70710677,-0.70710677,0,0
-0.68394083,-0.63834465,0.829,-0.54715264,-0.51067573,0.66320002,0
0.81722093,-0.7311976,0.60000002,0.65377676,-0.58495808,0.48000002,0
-1.1704764,-0.05709644,-0.43499997,-0.93638116,-0.045677152,-0.34799999,0
0.79646415,-0.18740326,0.94499993,0.63717133,-0.14992261,0.75599992,0
1.1386571,-0.027110854,-0.51500016,0.91092569,-0.021688683,-0.41200012,0
-0.89964992,0.82141948,0.28000015,-0.71971995,0.65713561,0.22400013,0
0.58196908,0.09699475,1.102,0.46557528,0.0775958,0.88160002,0
-1.1104161,0,0.57400006,-0.88833284,0,0.45920005,0
0.85480297,0.85480297,-0.31799969,0.68384236,0.68384236,-0.25439975,0
-0.26393181,1.0117387,0.68499988,-0.21114545,0.8093909,0.54799992,0
1.1363308,-0.054111023,-0.51800013,0.90906465,-0.043288819,-0.4144001,0
-0.27279112,1.041566,-0.63500017,-0.2182329,0.83325279,-0.50800014,0
1.0698785,0.61135924,0.21000008,0.85590279,0.4890874,0.16800007,0
-1.1215146,0.54376477,-0.094999976,-0.89721167,0.4350118,-0.075999983,0
-0.56984472,-0.14549227,-1.103,-0.45587578,-0.11639382,-0.88240004,0
0.032480732,-1.234269,-0.19499996,0.025984585,-0.98741519,-0.15599997,0
0.48299062,-0.42932498,-1.0700001,0.3863925,-0.34345999,-0.85600007,0
-0.4308134,0.30156934,-1.1339999,-0.34465072,0.24125548,-0.90719998,0
-0.30215067,-0.37037823,-1.155,-0.24172053,-0.29630259,-0.92399997,0
-0.51657528,1.1364655,-0.063999906,-0.41326022,0.90917242,-0.051199924,0
0.029983303,1.1993332,-0.3509998,0.023986641,0.95946658,-0.28079984,0
0.89232838,0.63737738,-0.60000014,0.71386272,0.50990188,-0.48000011,0
-0.47233459,0.61403501,0.98100001,-0.37786767,0.49122801,0.78479999,0
-0.62764555,0,1.081,-0.50211644,0,0.86479998,0
0.98436522,-0.61874384,-0.45900017,0.78749216,-0.49499506,-0.36720014,0
-0.27839544,-1.2179799,-0.038999978,-0.22271636,-0.97438395,-0.031199982,0
0.87142128,0.19364923,-0.87499994,0.697137,0.15491939,-0.69999993,0
1.2161328,0,0.28899997,0.97290623,0,0.23119998,0
0,-0.83965713,0.926,0,-0.67172569,0.74080002,0
-1.1581709,-0.41822836,-0.21500009,-0.92653674,-0.33458269,-0.17200008,0
0.6873973,0.97044319,0.3849999,0.54991782,0.77635455,0.30799991,0
-0.41056058,1.1143788,-0.38999993,-0.32844847,0.89150304,-0.31199995,0
0.8053323,-0.95175624,0.089999922,0.64426583,-0.76140499,0.071999937,0
0.795232,0.94670486,0.18400009,0.63618559,0.75736392,0.14720008,0
-1.2303365,0.20505609,-0.082000107,-0.98426926,0.16404487,-0.065600082,0
0.049829662,0.19931895,1.233,0.039863728,0.15945515,0.98640001,0
0.34044671,1.0638962,0.56100005,0.27235737,0.85111696,0.44880003,0
-0.32283583,-0.83014941,0.87699997,-0.25826865,-0.66411954,0.70159996,0
-0.78923702,-0.55459893,-0.79499996,-0.63138962,-0.44367915,-0.63599998,0
1.1568786,0.46998191,0.05700006,0.9255029,0.37598553,0.045600049,0
-1.1704764,-0.05709644,-0.43499997,-0.93638116,-0.045677152,-0.34799999,0
0.73494494,-1.0021975,-0.1340002,0.58795595,-0.80175799,-0.10720016,0
-0.61113828,0.51711708,0.95999998,-0.48891062,0.41369367,0.76800001,0
0.67777193,0.58094734,-0.87500024,0.54221755,0.46475786,-0.70000017,0
-0.87142128,0.19364923,-0.87499994,-0.697137,0.15491939,-0.69999993,0
-0.021771522,0.97971946,-0.7759999,-0.017417219,0.78377557,-0.6207999,0
0.3235583,-0.73226357,-0.96000004,0.25884664,-0.58581084,-0.76800001,0
-1.1099595,0.36998639,0.44000015,-0.88796759,0.2959891,0.35200012,0
-0.9201737,0.35054243,-0.77000022,-0.73613894,0.28043395,-0.61600018,0
-0.2808736,-1.1636194,0.3599999,-0.22469887,-0.93089551,0.28799993,0
-0.32515848,1.1380544,0.40200013,-0.26012677,0.91044348,0.32160011,0
-0.14358971,-0.51913202,-1.128,-0.11487176,-0.41530561,-0.90240002,0
-1.0054253,-0.54460531,0.505,-0.80434024,-0.43568426,0.40399998,0
-1.1472676,0.16789283,-0.46699998,-0.91781408,0.13431427,-0.37359998,0
0.37094483,-1.1870232,0.126,0.29675585,-0.94961852,0.1008,0
-1.2189438,-0.19046001,0.20100003,-0.97515506,-0.15236801,0.16080002,0
0,0.29783219,1.214,0,0.23826575,0.97119999,0
-0.047623489,-0.38892516,-1.1870002,-0.038098786,-0.31114009,-0.94960004,0
0.025495073,1.0962892,-0.60000008,0.020396058,0.87703133,-0.48000008,0
-0.079899982,-1.1984991,0.34599993,-0.063919984,-0.95879924,0.27679995,0
0.12592843,-1.1333569,0.51200014,0.10074274,-0.90668553,0.40960011,0
-0.85352093,0.49414375,0.76800001,-0.68281674,0.39531499,0.61440003,0
-0.38120076,1.0588909,0.54399997,-0.30496061,0.84711277,0.43519998,0
-0.68394083,-0.63834465,0.829,-0.54715264,-0.51067573,0.66320002,0
0.13439853,0.98559028,0.75699991,0.10751883,0.78847224,0.60559994,0
-0.43139082,1.137303,0.28799984,-0.34511265,0.90984237,0.23039988,0
0.52925897,0.3849155,1.0649999,0.42340717,0.30793241,0.85199994,0
0.99979997,0.74984998,0.02500025,0.79983997,0.59987998,0.020000201,0
0.42021313,0.98873663,-0.63899988,0.33617049,0.79098928,-0.51119989,0
-0.31098872,1.2094007,-0.056000173,-0.24879098,0.96752053,-0.04480014,0
1.2170694,-0.23025635,-0.16800003,0.97365552,-0.18420509,-0.13440003,0
-0.32822251,1.2034824,0.080000103,-0.26257801,0.9627859,0.064000085,0
-0.77289259,-0.54557127,0.81700003,-0.61831409,-0.43645701,0.65360004,0
-0.47435006,1.151993,-0.10199978,-0.37948006,0.92159444,-0.081599824,0
1.1629866,-0.45814627,-0.0079998774,0.93038929,-0.36651701,-0.006399902,0
0.33240786,-0.66481572,1.005,0.2659263,-0.5318526,0.80400002,0
0.30919257,1.1749314,-0.294,0.24735406,0.9399451,-0.2352,0
0,0.19935907,1.234,0,0.15948726,0.98719996,0
0.43233547,1.1639802,-0.14400016,0.34586838,0.93118417,-0.11520012,0
0.9600001,0.43200007,-0.67399985,0.76800007,0.34560007,-0.53919989,0
-0.091564238,0.91564178,0.84600002,-0.073251389,0.73251343,0.67680001,0
-0.40199503,1.125586,0.36600018,-0.32159603,0.90046883,0.29280013,0
1.026611,0.21487199,-0.68000001,0.82128876,0.17189759,-0.54400003,0
0.55165476,1.0452406,-0.40700009,0.44132382,0.83619249,-0.32560009,0
-0.15874507,-1.1112155,-0.55000013,-0.12699606,-0.8889724,-0.44000012,0
-0.58007151,0.99440831,-0.48700014,-0.46405721,0.79552662,-0.3896001,0
1.0000939,0.30955285,-0.68300015,0.80007517,0.24764228,-0.54640013,0
0.79033154,0.91192108,-0.32600003,0.63226521,0.72953689,-0.26080003,0
0.20788912,0.038183708,-1.232,0.16631129,0.030546967,-0.98559999,0
-1.2236727,0.22248597,0.1250001,-0.97893822,0.17798878,0.10000008,0
-0.091564238,-0.91564178,0.84600002,-0.073251389,-0.73251343,0.67680001,0
-0.61828393,0.9892543,0.44899994,-0.49462715,0.79140341,0.35919994,0
0.2254995,-0.94709772,0.78399998,0.1803996,-0.75767815,0.62720001,0
0.75641268,-0.14182736,0.9849999,0.60513014,-0.11346189,0.78799993,0
0.28102484,-1.1865497,-0.27499992,0.22481987,-0.94923973,-0.21999994,0
-0.39354801,-0.19677401,-1.17,-0.31483841,-0.1574192,-0.93599999,0
-0.49177125,1.1348568,0.18099993,-0.393417,0.90788543,0.14479995,0
-0.34365392,1.1836967,0.20799997,-0.27492315,0.94695741,0.16639999,0
-0.25833696,-1.2178744,0.11200012,-0.20666957,-0.97429955,0.089600101,0
-1.2086037,-0.26131976,-0.18300006,-0.966883,-0.20905581,-0.14640005,0
-0.89499718,-0.77295214,0.405,-0.71599776,-0.61836171,0.324,0
0.044888709,-0.98755252,0.76499999,0.035910968,-0.79004204,0.61199999,0
-1.1281995,-0.20892587,0.49600008,-0.90255958,-0.16714069,0.39680007,0
-0.83924913,-0.40938979,-0.83099991,-0.6713993,-0.32751185,-0.66479993,0
0.91073596,-0.83484131,0.18999995,0.72858876,-0.66787302,0.15199997,0
-0.85883641,-0.68706912,0.59400004,-0.68706912,-0.54965532,0.47520003,0
-1.2154999,-0.27011111,-0.11000013,-0.97239989,-0.21608889,-0.088000104,0
-1.0446664,-0.67157131,0.14199997,-0.83573312,-0.53725708,0.11359998,0
-0.63834471,0.68394071,0.82900012,-0.51067579,0.54715258,0.66320008,0
-0.48754361,0,-1.1510001,-0.39003488,0,-0.92080009,0
0.37094483,1.1870232,0.126,0.29675585,0.94961852,0.1008,0
-0.4465535,-1.0244462,-0.55999982,-0.35724279,-0.81955701,-0.44799986,0
-1.1892855,-0.11892852,-0.36600003,-0.95142841,-0.095142819,-0.29280001,0
0.3699865,1.1099595,-0.43999988,0.29598922,0.88796759,-0.35199991,0
0.18260349,0.91301692,0.83400005,0.14608279,0.73041356,0.66720003,0
-0.65040213,-0.7625404,-0.74700016,-0.52032173,-0.61003232,-0.5976001,0
-0.78107548,-0.45945618,0.86100006,-0.62486041,-0.36756495,0.68880004,0
1.1678904,0.43795893,0.082000032,0.93431234,0.35036713,0.065600023,0
-0.14669356,-0.48897851,1.141,-0.11735485,-0.39118281,0.91280001,0
0.93350095,0.72929764,-0.39899996,0.74680078,0.5834381,-0.31919998,0
-0.24748743,-0.24748743,1.1999999,-0.19798994,-0.19798994,0.95999992,0
1.0679326,0.5339663,-0.37000012,0.85434598,0.42717299,-0.29600006,0
-0.65725482,-0.46946776,0.95400006,-0.52580386,-0.3755742,0.76320004,0
-0.57637489,0.33621866,1.057,-0.46109992,0.26897493,0.84560001,0
-1.021904,-0.29197258,-0.65800017,-0.81752318,-0.23357806,-0.52640015,0
0.29564846,0.29564846,1.178,0.23651877,0.23651877,0.94239998,0
-0.22275336,0.30724597,-1.191,-0.17820269,0.24579677,-0.95279998,0
0.85811907,-0.11192858,-0.90199983,0.68649524,-0.089542866,-0.72159988,0
0.30724597,0.22275336,-1.191,0.24579677,0.17820269,-0.95279998,0
0.39281541,-0.24550973,1.161,0.31425232,-0.19640778,0.92879999,0
-0.25836989,-0.87448275,-0.85499996,-0.20669591,-0.69958621,-0.68399996,0
-0.433404,-0.48155993,1.069,-0.3467232,-0.38524795,0.85519999,0
0.13786957,1.2408255,-0.062000122,0.11029565,0.9926604,-0.049600098,0
0.89232838,0.63737738,-0.60000014,0.71386272,0.50990188,-0.48000011,0
-0.13583079,0.95081538,0.80000007,-0.10866463,0.7606523,0.64000005,0
0.62844247,-0.76310873,0.7650001,0.50275397,-0.61048698,0.61200011,0
-0.43772134,0.96298712,0.66599989,-0.35017708,0.77038968,0.5327999,0
-0.48403308,1.0890744,0.37700009,-0.38722646,0.87125951,0.30160007,0
-0.35076916,1.1692306,0.26899993,-0.28061533,0.93538445,0.21519995,0
0.047623489,0.38892516,-1.1870002,0.038098786,0.31114009,-0.94960004,0
-0.3035785,0.53126234,-1.0900002,-0.24286279,0.42500988,-0.8720001,0
0.33439195,0.62101364,1.0320001,0.26751357,0.49681091,0.82560003,0
0.048270028,0.62751091,1.08,0.038616024,0.50200874,0.86400002,0
-0.18347476,1.1008487,-0.56300014,-0.14677981,0.88067895,-0.45040011,0
0.081547506,0.76654643,-0.98400027,0.065238006,0.61323714,-0.78720021,0
-0.89866561,-0.40439957,0.76900005,-0.71893251,-0.32351965,0.61520004,0
-0.84631556,0.91402078,-0.1039999,-0.67705244,0.73121661,-0.083199918,0
-0.47461978,-0.37469986,-1.094,-0.37969583,-0.29975989,-0.87519997,0
-0.74075645,0.50683331,-0.86999989,-0.59260517,0.40546665,-0.69599992,0
-1.0412301,0.047328595,-0.69,-0.83298409,0.037862875,-0.55199999,0
-0.39167577,0.6982047,-0.96000016,-0.3133406,0.55856377,-0.76800013,0
0.35076904,-1.1692306,0.26899996,0.28061524,-0.93538445,0.21519998,0
0.90494651,0.74041069,0.44199985,0.72395718,0.59232855,0.35359988,0
0.95290023,0,0.80900007,0.76232016,0,0.64720005,0
-0.90882784,-0.52616352,-0.67799997,-0.72706228,-0.4209308,-0.5424,0
0.68836755,0.59658527,0.85600007,0.55069405,0.47726822,0.68480003,0
-0.33940974,0.48487124,1.101,-0.2715278,0.38789698,0.88079995,0
-0.46636891,-0.69955343,0.92500001,-0.37309512,-0.55964273,0.74000001,0
0.1656954,-0.44835225,-1.1550001,0.13255632,-0.3586818,-0.92400008,0
-0.75759751,0.6684683,0.73600012,-0.60607803,0.53477466,0.58880007,0
0.23555908,0.24941552,-1.2019999,0.18844727,0.19953242,-0.96159995,0
0.78717864,-0.22740716,-0.94399989,0.62974292,-0.18192573,-0.75519991,0
0.72000003,0.96000004,0.34999993,0.57600003,0.76800001,0.27999994,0
0.81901032,0.76617098,-0.55200016,0.65520823,0.61293679,-0.44160014,0
-0.085697137,-0.96409291,-0.79099989,-0.068557709,-0.77127433,-0.63279992,0
0.16054599,-1.2201492,-0.21899998,0.12843679,-0.97611934,-0.17519999,0
-0.15919796,-1.193985,0.33399993,-0.12735836,-0.95518798,0.26719993,0
-0.4430114,0.77045459,-0.87899977,-0.35440913,0.61636364,-0.7031998,0
0.40419048,0.48242092,-1.08,0.3233524,0.38593674,-0.86400002,0
0.76843345,0.88227552,-0.43999991,0.61474675,0.70582044,-0.35199994,0
1.1639802,-0.43233547,-0.14400016,0.93118417,-0.34586838,-0.11520012,0
-0.88438904,0.80399001,0.36600006,-0.70751125,0.64319199,0.29280004,0
-0.38183004,0.12186063,-1.1839999,-0.30546403,0.097488508,-0.94719994,0
0.29783219,0,1.214,0.23826575,0,0.97119999,0
1.0616186,-0.58978814,0.29600009,0.84929484,-0.47183052,0.23680007,0
0.24992001,-1.1246399,0.4850001,0.199936,-0.89971191,0.38800007,0
-0.23473386,-1.0093557,-0.69900006,-0.18778709,-0.80748451,-0.55920005,0
-0.17864493,0.8932246,-0.85599989,-0.14291593,0.7145797,-0.68479991,0
0.92947239,-0.44260591,0.70900011,0.7435779,-0.35408473,0.56720006,0
-0.5251286,0.91897488,0.66500008,-0.42010289,0.7351799,0.53200006,0
-0.2111966,-1.2319801,-0.010999961,-0.16895728,-0.98558408,-0.0087999683,0
0.3699865,1.1099595,-0.43999988,0.29598922,0.88796759,-0.35199991,0
0.30955285,1.0000939,-0.68300015,0.24764228,0.80007517,-0.54640013,0
0.37094483,-1.1870232,0.126,0.29675585,-0.94961852,0.1008,0
0.32283583,0.83014941,0.87699997,0.25826865,0.66411954,0.70159996,0
0.47233254,-0.96952468,-0.63199985,0.37786603,-0.77561975,-0.50559986,0
-0.065383464,0.62768114,-1.0790002,-0.052306771,0.50214493,-0.86320019,0
-0.028460486,-0.46485457,-1.1600001,-0.022768389,-0.37188366,-0.92800009,0
-1.137303,-0.43139082,0.28799984,-0.90984237,-0.34511265,0.23039988,0
-0.66255188,-0.7950623,0.70099998,-0.53004152,-0.63604987,0.56079996,0
-1.0758597,0.12509999,-0.62400007,-0.86068773,0.10007999,-0.49920005,0
-0.47233254,0.96952468,-0.63199985,-0.37786603,0.77561975,-0.50559986,0
0.24171884,-1.1683078,0.37299988,0.19337508,-0.93464625,0.2983999,0
-1.2325128,0.064869039,-0.19799995,-0.98601025,0.051895231,-0.15839997,0
-0.47435004,-1.151993,-0.10199998,-0.37948003,-0.92159444,-0.081599988,0
-1.0524486,0.043851983,0.67299998,-0.84195888,0.035081588,0.53839999,0
0.21347131,1.1893402,-0.31999987,0.17077705,0.95147216,-0.25599989,0
-0.32001558,0.86861384,0.84000003,-0.25601247,0.6948911,0.67200005,0
-1.1363308,0.054110941,-0.51800013,-0.90906465,0.043288752,-0.4144001,0
-0.52512854,-0.918975,0.66499996,-0.42010283,-0.73518002,0.53199995,0
-0.54293656,0.52696782,-0.99499989,-0.43434924,0.42157426,-0.79599988,0
-0.62819904,-0.95595509,-0.50399989,-0.50255924,-0.76476407,-0.40319991,0
0.076733366,0.88243318,-0.88199979,0.061386693,0.70594656,-0.70559984,0
0.78458273,-0.41536731,0.87999994,0.62766618,-0.33229384,0.70399994,0
-0.83484131,0.91073596,0.18999995,-0.66787302,0.72858876,0.15199997,0
-0.73049849,-0.93341464,0.39700001,-0.58439881,-0.7467317,0.31760001,0
0.2775608,0.83268243,0.88999999,0.22204864,0.66614592,0.71200001,0
-0.32795575,-0.74961323,0.94499999,-0.2623646,-0.59969056,0.75599998,0
-1.1966202,0.1196619,0.34099993,-0.95729619,0.095729522,0.27279994,0
0.63633639,-0.85660672,-0.6509999,0.50906909,-0.68528539,-0.52079993,0
-0.66260105,0.80458689,-0.68999982,-0.53008085,0.64366949,-0.55199987,0
-1.161895,0.38729841,0.24999988,-0.92951602,0.30983871,0.1999999,0
0.68394071,-0.63834471,0.82900012,0.54715258,-0.51067579,0.66320008,0
-0.34399852,-0.29485592,1.165,-0.27519882,-0.23588474,0.93199998,0
0.046238467,-0.87853169,0.88800001,0.036990773,-0.70282537,0.71039999,0
-0.29485592,0.34399852,1.165,-0.23588474,0.27519882,0.93199998,0
-0.93855208,0.59726036,0.57000005,-0.75084168,0.4778083,0.45600003,0
0.38892516,0.047623489,-1.1870002,0.31114009,0.038098786,-0.94960004,0
0.27885482,-0.68164504,-1.01,0.22308385,-0.54531604,-0.80799997,0
1.1997396,0.34278277,-0.075000212,0.95979166,0.27422622,-0.06000017,0
-0.76617098,0.81901032,-0.55200016,-0.61293679,0.65520823,-0.44160014,0
-0.67938799,0.89169663,0.55300009,-0.54351038,0.71335733,0.44240007,0
0.48620993,0.2917259,1.114,0.38896793,0.23338072,0.89119995,0
-1.0047402,0.66982692,-0.32300001,-0.80379218,0.53586155,-0.25840002,0
0.62742335,-1.0805624,-0.035000041,0.5019387,-0.86444986,-0.028000033,0
-0.78096288,-0.96690637,0.13300002,-0.62477028,-0.77352512,0.10640001,0
-0.86109698,-0.86109698,0.28200001,-0.68887758,-0.68887758,0.2256,0
0.75835347,-0.78363186,-0.61100006,0.60668278,-0.6269055,-0.48880005,0
0.95153457,-0.81056648,-0.0079998476,0.76122767,-0.64845318,-0.0063998783,0
0.1453374,0.58135015,1.097,0.11626992,0.46508011,0.87760001,0
-0.4270831,1.0249995,0.57399994,-0.34166649,0.81999958,0.45919997,0
-0.3302635,-0.70770758,0.97600001,-0.26421079,-0.56616604,0.78079998,0
0.65444487,1.0394123,0.23200005,0.52355587,0.8315298,0.18560004,0
0.31949952,1.1581861,0.34499991,0.25559962,0.92654884,0.27599993,0
1.1264031,0.46933454,-0.27100003,0.90112245,0.37546763,-0.21680002,0
0.48733982,0.24366991,1.1249999,0.38987187,0.19493593,0.89999992,0
0.86769527,-0.48946914,-0.75499988,0.69415623,-0.39157531,-0.60399991,0
0.79045439,0.32548115,0.91199994,0.6323635,0.26038492,0.72959995,0
-1.0120958,-0.73289698,-0.032000158,-0.80967665,-0.5863176,-0.025600126,0
-0.53652501,0,1.1289999,-0.42922002,0,0.90319997,0
0.31045607,0.97571933,0.71699989,0.24836485,0.78057545,0.57359993,0
-0.65040225,0.76254046,-0.74699992,-0.52032179,0.61003238,-0.59759992,0
0.57365841,-1.0243901,0.42900005,0.45892674,-0.81951207,0.34320003,0
0.168523,-0.77520561,-0.96600014,0.1348184,-0.62016451,-0.77280009,0
0.019570366,-0.90023768,-0.8670001,0.015656292,-0.72019017,-0.69360006,0
0.83924896,0.40938967,-0.83100015,0.67139918,0.32751173,-0.66480011,0
-0.79918081,-0.047010593,0.96000004,-0.63934463,-0.037608474,0.76800001,0
0,-1.2161328,0.28899997,0,-0.97290623,0.23119998,0
1.0458604,0.21788764,0.64899993,0.83668834,0.17431012,0.51919997,0
0.37146199,1.0613201,-0.54599977,0.2971696,0.84905607,-0.43679982,0
-1.2157376,-0.039217304,0.28799999,-0.97259009,-0.031373844,0.2304,0
0.94113922,-0.55959624,-0.60300004,0.75291139,-0.44767699,-0.48240003,0
0.33091223,-0.60427445,-1.0430002,0.2647298,-0.48341957,-0.83440018,0
0.12186038,0.38182926,-1.1840003,0.097488299,0.3054634,-0.94720018,0
-0.48798358,-0.23290126,-1.127,-0.39038688,-0.18632101,-0.9016,0
0.99561536,0.67701852,0.33599994,0.79649228,0.54161483,0.26879996,0
0.9253512,-0.63452655,-0.55100024,0.74028099,-0.50762123,-0.44080019,0
-0.89345115,0.86036044,-0.15499985,-0.7147609,0.68828833,-0.12399988,0
-0.40266597,0.75042301,-0.9150002,-0.32213277,0.6003384,-0.73200017,0
0.53471774,0.1944429,1.1129999,0.42777419,0.15555432,0.89039993,0
-0.1993188,0.049829662,1.233,-0.15945503,0.039863728,0.98640001,0
-0.23130934,-1.1565466,-0.41400006,-0.18504748,-0.9252373,-0.33120006,0
-0.1004888,-1.2393619,-0.12800004,-0.080391042,-0.99148953,-0.10240003,0
-1.0709034,-0.41188595,-0.4959999,-0.85672271,-0.32950875,-0.39679992,0
0.89322466,0.17864488,-0.85599983,0.7145797,0.1429159,-0.68479985,0
-0.25219035,-1.0591997,-0.61400014,-0.20175228,-0.84735978,-0.49120012,0
-0.93252027,-0.80389673,-0.21600012,-0.7460162,-0.64311737,-0.17280009,0
-0.18914291,0.58003825,-1.0909998,-0.15131433,0.46403059,-0.87279987,0
0.526968,0.54293674,-0.99499971,0.42157441,0.43434939,-0.79599977,0
0.87131107,-0.27515087,0.85299999,0.69704884,-0.2201207,0.68239999,0
0.94389069,0.39136934,-0.72000027,0.75511253,0.31309548,-0.57600021,0
-0.085381486,1.1668804,-0.44000021,-0.068305187,0.93350428,-0.35200018,0
-0.48709142,0.9045983,-0.71199995,-0.38967314,0.72367865,-0.56959999,0
0.23869443,0.66834414,1.029,0.19095555,0.5346753,0.82320005,0
-1.0748023,-0.45254835,-0.44999996,-0.85984182,-0.36203867,-0.35999995,0
-1.2421204,0.067141578,-0.12300003,-0.99369633,0.053713262,-0.098400019,0
-0.37352383,-0.74704748,0.93000001,-0.29881907,-0.59763801,0.74400002,0
0.98466742,-0.76585251,0.080000065,0.78773391,-0.61268198,0.064000055,0
1.0496781,-0.65604877,-0.17399991,0.83974248,-0.52483904,-0.13919993,0
-1.1363308,-0.054111023,-0.51800013,-0.90906465,-0.043288819,-0.4144001,0
-0.87156069,0.87156069,-0.2079998,-0.69724858,0.69724858,-0.16639984,0
-0.20505609,-1.2303365,-0.082000107,-0.16404487,-0.98426926,-0.065600082,0
-0.15874507,1.1112155,-0.55000013,-0.12699606,0.8889724,-0.44000012,0
-0.78458267,0.41536719,0.88000011,-0.62766612,0.33229375,0.70400012,0
-0.70510858,-0.86179936,-0.56799978,-0.56408685,-0.68943948,-0.45439982,0
-0.37574327,-1.0854806,0.49300003,-0.30059463,-0.86838448,0.39440003,0
-0.98559016,0.13439853,0.75700003,-0.78847212,0.10751883,0.6056,0
-1.144727,-0.25756359,-0.43100005,-0.91578162,-0.20605087,-0.34480006,0
-0.97661412,0.043405034,-0.77899987,-0.78129131,0.034724027,-0.62319988,0
-0.95248884,-0.66260093,0.46500006,-0.76199108,-0.53008074,0.37200004,0
-0.37964195,-0.9728325,-0.68699998,-0.30371356,-0.77826601,-0.54960001,0
-0.076733343,-1.2277329,0.22200005,-0.061386675,-0.98218632,0.17760004,0
0.14864373,-0.29728776,1.205,0.11891498,-0.23783021,0.96400005,0
1.2459968,-0.036646932,0.093000181,0.99679744,-0.029317547,0.074400142,0
-0.37146199,1.0613201,-0.54599977,-0.2971696,0.84905607,-0.43679982,0
0.81033325,-0.94538879,-0.11000005,0.64826661,-0.75631106,-0.088000044,0
-0.044888709,-0.98755252,0.76499999,-0.035910968,-0.79004204,0.61199999,0
0.49185365,-1.0656829,0.43000004,0.39348292,-0.85254633,0.34400004,0
-0.094736487,-0.87157547,-0.89100009,-0.075789191,-0.69726038,-0.71280009,0
-0.088701792,1.0200702,0.71699989,-0.070961431,0.81605613,0.57359993,0
0.20420331,-1.1668762,-0.39900005,0.16336265,-0.93350095,-0.31920004,0
0.51074857,-1.1172622,-0.23100004,0.40859884,-0.8938098,-0.18480003,0
0.28540847,0.9440434,-0.76800007,0.22832677,0.75523472,-0.61440003,0
-0.049979948,-0.049979948,1.248,-0.039983958,-0.039983958,0.99840003,0
-0.033882152,0.79623014,-0.9630003,-0.027105723,0.63698411,-0.77040023,0
-0.39452255,-0.098630674,1.1819999,-0.31561804,-0.078904539,0.94559991,0
0.83888501,-0.09320949,0.92199999,0.67110801,-0.074567594,0.73759997,0
1.0937563,0.050872337,-0.60300004,0.87500507,0.040697869,-0.48240003,0
0.10606606,0.95459425,-0.79999989,0.084852844,0.76367539,-0.63999993,0
0.076733232,-1.2277329,0.22200005,0.061386585,-0.98218632,0.17760004,0
-1.199625,-0.03998746,0.34899992,-0.95969999,-0.031989969,0.27919993,0
-0.79983997,-0.85697138,-0.43400007,-0.63987195,-0.68557709,-0.34720007,0
-1.0306891,-0.69939613,0.105,-0.82455128,-0.55951691,0.084000006,0
-0.85795045,-0.45155284,0.78900003,-0.68636036,-0.36124226,0.63120002,0
-0.19871584,-0.19871584,1.2180001,-0.15897267,-0.15897267,0.97440004,0
-0.1656957,0.44835308,-1.1549997,-0.13255656,0.35868245,-0.92399979,0
0.71151257,-0.23717088,-0.99999994,0.56921005,-0.18973669,-0.79999995,0
-1.2234704,-0.23789701,-0.095000096,-0.97877634,-0.1903176,-0.07600008,0
-0.29759035,0.09919668,1.21,-0.23807228,0.079357341,0.96800005,0
0.18424985,1.197624,-0.30699989,0.14739987,0.95809919,-0.24559991,0
0.34542,0.19738299,1.1849999,0.27633601,0.15790638,0.94799995,0
-0.78076881,-0.93692267,0.27399999,-0.62461507,-0.74953812,0.21919999,0
-0.63444072,-1.0685318,-0.13499995,-0.50755256,-0.85482538,-0.10799996,0
-0.041412517,-1.1595516,0.465,-0.033130012,-0.92764127,0.37200001,0
-0.094736524,0.87157577,-0.89099979,-0.075789221,0.69726062,-0.71279985,0
0.67157137,1.0446664,0.14200014,0.53725708,0.83573312,0.11360011,0
-0.2111966,-1.2319801,-0.010999961,-0.16895728,-0.98558408,-0.0087999683,0
0.38971138,-1.0392305,-0.57499999,0.3117691,-0.83138436,-0.45999998,0
-1.2196467,-0.031272963,-0.2719999,-0.97571737,-0.02501837,-0.21759991,0
-1.2189438,0.19046001,0.20100003,-0.97515506,0.15236801,0.16080002,0
0.17246458,1.077903,0.60899997,0.13797167,0.86232245,0.48719996,0
-0.18424985,-1.197624,-0.30699989,-0.14739987,-0.95809919,-0.24559991,0
1.1103886,0.5731039,0.032999903,0.88831091,0.45848313,0.026399922,0
-0.28390846,0.70977098,0.98900008,-0.22712676,0.56781679,0.79120004,0
1.0093557,-0.23473386,-0.69900006,0.80748451,-0.18778709,-0.55920005,0
-0.5648787,1.0490605,0.37800008,-0.45190296,0.83924836,0.30240005,0
-0.81584311,-0.44871369,-0.83400005,-0.6526745,-0.35897094,-0.66720003,0
-0.47081098,-1.0524011,-0.48299992,-0.37664878,-0.84192085,-0.38639992,0
0,-0.91651511,0.85000002,0,-0.73321211,0.68000001,0
0.44260603,0.92947233,0.70900005,0.35408482,0.74357784,0.56720006,0
-1.1112155,0.15874507,-0.55000013,-0.8889724,0.12699606,-0.44000012,0
-0.51292104,0.98309875,0.5769999,-0.41033682,0.786479,0.46159992,0
0.75776523,-0.047360275,0.99299991,0.6062122,-0.037888221,0.79439992,0
0.66510761,0.94223565,-0.48199987,0.53208607,0.75378853,-0.38559991,0
0.26698315,-0.97893822,0.73000002,0.21358652,-0.78315055,0.58399999,0
-1.2177746,0.062449925,-0.27499989,-0.97421968,0.049959939,-0.21999991,0
-0.27279112,1.041566,-0.63500017,-0.2182329,0.83325279,-0.50800014,0
0.23290135,-0.48798382,-1.1269999,0.18632108,-0.39038706,-0.90159988,0
0.17677674,-1.2374369,2.9802321e-08,0.14142139,-0.98994952,2.3841856e-08,0
-1.0591996,0.25219044,-0.6140002,-0.84735966,0.20175235,-0.49120015,0
-0.88438904,0.80399001,0.36600006,-0.70751125,0.64319199,0.29280004,0
1.1619552,0.33635551,-0.315,0.92956418,0.26908439,-0.252,0
-0.40603453,1.0150863,-0.60599983,-0.32482761,0.81206906,-0.48479986,0
-1.2437725,0.03361544,-0.12000003,-0.99501801,0.026892353,-0.096000031,0
0,0.09991987,1.2460001,0,0.079935893,0.99680007,0
1.0069757,0.69713706,0.25000003,0.8055805,0.55770963,0.20000002,0
0.14969955,0.049899854,1.24,0.11975964,0.039919883,0.99199998,0
-0.81870335,0.21832091,-0.91899991,-0.65496266,0.17465672,-0.73519993,0
0.65040213,-0.7625404,-0.74700016,0.52032173,-0.61003232,-0.5976001,0
-0.99440837,0.58007151,-0.48700002,-0.79552668,0.46405721,-0.38960001,0
0.37367636,1.1889701,-0.096000202,0.29894108,0.95117605,-0.07680016,0
-0.87471998,0.74975997,0.48499992,-0.69977599,0.59980798,0.38799995,0
0.14960936,0.099739566,1.237,0.11968748,0.07979165,0.9896,0
0.52722859,-1.0267084,-0.48000002,0.42178288,-0.82136667,-0.384,0
0.13645494,0.4580988,-1.1550002,0.10916395,0.36647904,-0.92400014,0
-0.71482515,0.095309928,1.021,-0.57186013,0.076247945,0.8168,0
0.40439945,0.89866567,0.76900011,0.32351956,0.71893251,0.6152001,0
0.32533053,-0.97599173,-0.7100001,0.26026443,-0.78079337,-0.56800008,0
0.18740341,0.79646415,0.94499993,0.14992273,0.63717133,0.75599992,0
-0.97327495,-0.51224995,-0.59399992,-0.77861995,-0.40979996,-0.47519994,0
-0.53054219,-1.1318233,0.0010000279,-0.42443377,-0.90545863,0.00080002227,0
0.45596042,-0.56235117,-1.0190001,0.36476833,-0.44988093,-0.81520003,0
0.53471774,-0.19444275,1.1129999,0.42777419,-0.15555421,0.89039993,0
0.80458689,-0.66260105,-0.68999982,0.64366949,-0.53008085,-0.55199987,0
-0.51133943,-1.0510865,-0.44300005,-0.40907153,-0.84086925,-0.35440004,0
1.0814805,-0.3514812,-0.51899981,0.86518443,-0.28118497,-0.41519985,0
0.51711708,-0.61113828,0.95999998,0.41369367,-0.48891062,0.76800001,0
0.62768131,-0.52306777,-0.94600016,0.50214505,-0.41845423,-0.75680012,0
0.84784907,-0.91850311,-0.0019999961,0.67827928,-0.73480248,-0.0015999969,0
-0.35345161,-0.97199178,0.70199996,-0.28276128,-0.77759343,0.56159997,0
1.1618273,0.11334907,-0.44700024,0.92946184,0.090679251,-0.35760018,0
-0.54460573,0.39099896,-1.0549997,-0.43568459,0.31279916,-0.84399974,0
-1.0994035,-0.25370851,0.53800005,-0.8795228,-0.20296681,0.43040004,0
0.32283583,-0.83014941,0.87699997,0.25826865,-0.66411954,0.70159996,0
0.049173117,-0.4425585,1.168,0.039338492,-0.35404679,0.93439996,0
-0.81012589,-0.27617931,-0.91100001,-0.64810073,-0.22094345,-0.7288,0
-1.0412301,-0.047328666,-0.69,-0.83298409,-0.037862934,-0.55199999,0
-0.88093585,-0.88093585,-0.1019999,-0.70474869,-0.70474869,-0.081599921,0
-0.83253825,-0.5258137,-0.76999998,-0.66603059,-0.42065096,-0.616,0
-0.26030725,0.13606972,-1.215,-0.2082458,0.10885577,-0.972,0
-1.2319801,-0.2111966,-0.010999961,-0.98558408,-0.16895728,-0.0087999683,0
-0.20892587,-1.1281995,0.49600008,-0.16714069,-0.90255958,0.39680007,0
-0.74477381,-0.96199948,-0.28700006,-0.59581906,-0.76959956,-0.22960004,0
-0.11966202,-1.1966202,0.34099993,-0.095729619,-0.95729619,0.27279994,0
-0.48179668,-0.78291959,-0.84699994,-0.38543734,-0.62633568,-0.67759997,0
0.83946413,0.04663685,0.92499995,0.67157131,0.037309479,0.73999995,0
0.14089005,1.1552981,-0.45600024,0.11271204,0.9242385,-0.36480018,0
0.16628292,-1.2304934,-0.14400005,0.13302633,-0.98439473,-0.11520004,0
1.0638962,0.34044671,0.56100005,0.85111696,0.27235737,0.44880003,0
-0.72965753,-0.28191313,-0.97499996,-0.58372605,-0.22553051,-0.77999997,0
-0.69429678,0.82447743,0.63300002,-0.55543745,0.65958196,0.50639999,0
-0.6254878,-0.19245775,1.0650001,-0.50039023,-0.1539662,0.85200006,0
-0.13152222,-0.16546343,-1.2319999,-0.10521778,-0.13237074,-0.98559988,0
-0.38468564,-1.1890281,-0.027000057,-0.3077485,-0.95122254,-0.021600045,0
0.38605702,-0.35388556,-1.135,0.30884561,-0.28310844,-0.90799999,0
-0.48605552,1.1341296,-0.20000018,-0.38884443,0.90730369,-0.16000015,0
-0.59658527,-0.68836766,0.85600001,-0.47726822,-0.55069411,0.68480003,0
1.0243901,0.57365841,0.42900005,0.81951207,0.45892674,0.34320003,0
0.79646415,0.18740341,0.94499993,0.63717133,0.14992273,0.75599992,0
-0.43931201,-1.1182486,0.34499997,-0.35144961,-0.89459884,0.27599996,0
-0.48324206,-0.56118435,-1.0070001,-0.38659364,-0.44894749,-0.80560005,0
-0.6770184,-0.99561542,0.33600006,-0.54161471,-0.79649234,0.26880005,0
-0.3906917,1.172075,-0.19000012,-0.31255335,0.93766004,-0.1520001,0
-0.0887018,-1.0200701,0.71700007,-0.070961438,-0.81605607,0.57360005,0
-0.22118777,0.5529694,-1.099,-0.17695022,0.44237551,-0.87919998,0
0.37352368,0.74704766,0.92999995,0.29881895,0.59763813,0.74399996,0
-1.2018249,-0.23261127,0.25299999,-0.96145993,-0.18608901,0.2024,0
-0.82141948,0.89964998,0.27999988,-0.65713561,0.71972001,0.2239999,0
1.0110431,0.13786951,-0.722,0.80883443,0.11029561,-0.5776,0
0.09919668,0.29759035,1.21,0.079357341,0.23807228,0.96800005,0
-0.63592452,-1.0492755,-0.23899984,-0.50873959,-0.83942044,-0.19119987,0
0.33439195,0.62101364,1.0320001,0.26751357,0.49681091,0.82560003,0
-0.37068591,-0.78770739,0.89700001,-0.29654872,-0.63016593,0.71759999,0
0.91229117,-0.16218512,-0.83899993,0.72983295,-0.12974809,-0.67119992,0
-0.63008714,0.49385211,-0.96000016,-0.50406969,0.3950817,-0.76800013,0
-0.61113828,-0.51711708,0.95999998,-0.48891062,-0.41369367,0.76800001,0
1.2277329,-0.076733343,0.22200005,0.98218632,-0.061386675,0.17760004,0
-0.97141659,0.06476105,-0.78399986,-0.77713329,0.051808842,-0.62719989,0
1.0749046,-0.2303367,-0.59500015,0.85992366,-0.18426935,-0.47600013,0
-0.83253825,0.5258137,-0.76999998,-0.66603059,0.42065096,-0.616,0
0.28079888,-0.77219677,-0.94200009,0.2246391,-0.61775744,-0.75360006,0
1.2189438,0.19046001,0.20100003,0.97515506,0.15236801,0.16080002,0
0.14358954,0.51913148,-1.1280003,0.11487164,0.4153052,-0.9024002,0
0.47328642,1.0944747,-0.37500012,0.37862915,0.87557971,-0.3000001,0
-1.0832072,0.29061663,-0.55199999,-0.86656582,0.23249331,-0.44159999,0
0.90023792,0.019570373,-0.8669998,0.72019035,0.015656298,-0.69359982,0
-0.24366991,0.48733982,1.1249999,-0.19493593,0.38987187,0.89999992,0
0.67559969,1.0294853,-0.21499987,0.54047978,0.82358825,-0.1719999,0
-0.90575933,0.31701574,0.80100006,-0.72460747,0.25361258,0.64080006,0
-0.73378068,0.47037226,-0.89599991,-0.58702457,0.3762978,-0.71679991,0
-0.89932978,-0.64237839,0.58399993,-0.71946383,-0.51390272,0.46719995,0
0.71492583,1.0213227,-0.090999983,0.57194066,0.81705821,-0.072799988,0
0.85883641,-0.68706912,0.59400004,0.68706912,-0.54965532,0.47520003,0
1.1636194,-0.2808736,0.3599999,0.93089551,-0.22469887,0.28799993,0
-0.71151257,-0.23717088,-0.99999994,-0.56921005,-0.18973669,-0.79999995,0
1.1704763,0.057096347,-0.43500021,0.93638104,0.045677077,-0.34800017,0
-0.96900719,-0.58983046,0.5250001,-0.77520573,-0.47186437,0.42000008,0
0.67199993,0,1.054,0.53759992,0,0.84320003,0
0.60646021,-1.0107671,-0.41599986,0.48516816,-0.80861366,-0.33279988,0
-1.1324433,0.080888726,-0.52300012,-0.90595466,0.064710982,-0.41840011,0
0.86109704,0.86109704,0.28199974,0.68887764,0.68887764,0.2255998,0
0.85697138,-0.79983997,-0.43400007,0.68557709,-0.63987195,-0.34720007,0
0.61371839,-0.23184916,-1.0639999,0.49097472,-0.18547933,-0.85119992,0
-0.48403308,1.0890744,0.37700009,-0.38722646,0.87125951,0.30160007,0
0.40661776,-0.87743837,-0.79199994,0.3252942,-0.70195067,-0.63359994,0
0.19424208,1.1377038,-0.4800002,0.15539366,0.91016304,-0.38400015,0
0.66593933,-0.23677844,-1.0309999,0.53275144,-0.18942276,-0.8247999,0
0.77045459,-0.4430114,-0.87899977,0.61636364,-0.35440913,-0.7031998,0
-0.84471178,-0.84471178,0.36799994,-0.67576945,-0.67576945,0.29439995,0
0.51423246,1.0889628,-0.33500016,0.41138595,0.87117022,-0.26800013,0
0.66008174,0.42433819,0.97300011,0.52806538,0.33947057,0.77840006,0
-0.57637489,-0.33621866,1.057,-0.46109992,-0.26897493,0.84560001,0
-0.14924812,0.19899759,1.225,-0.1193985,0.15919808,0.98000002,0
-0.2277609,0.91104329,0.82500005,-0.18220872,0.72883463,0.66000003,0
0.256125,-0.56347507,-1.086,0.2049,-0.45078006,-0.86879998,0
-1.0907612,-0.33561888,0.51000005,-0.87260896,-0.26849511,0.40800005,0
1.1476585,0.24592684,0.43000016,0.91812676,0.19674148,0.34400013,0
0.62677735,0.96105886,0.49599999,0.50142187,0.76884711,0.39679998,0
1.183216,0.14790204,-0.37499982,0.94657278,0.11832163,-0.29999986,0
0,0.44264984,1.169,0,0.35411987,0.93520004,0
0,-1.2348539,-0.19399996,0,-0.98788309,-0.15519997,0
0.57106364,0.3482095,-1.0560002,0.45685092,0.27856761,-0.84480017,0
0.99990505,0.39126706,0.63999999,0.79992402,0.31301364,0.51199996,0
0.51711708,-0.61113828,0.95999998,0.41369367,-0.48891062,0.76800001,0
0.91564178,0.091564097,0.84600008,0.73251343,0.073251277,0.67680007,0
-0.76685071,0.80945349,0.565,-0.61348057,0.6475628,0.45199999,0
-0.41521078,1.079548,0.47400007,-0.33216864,0.8636384,0.37920004,0
-0.47435004,-1.151993,-0.10199998,-0.37948003,-0.92159444,-0.081599988,0
-0.48324206,-0.56118435,-1.0070001,-0.38659364,-0.44894749,-0.80560005,0
0.9385522,-0.59726036,0.56999993,0.75084174,-0.4778083,0.45599994,0
1.1624125,0.37699869,-0.26300004,0.92993003,0.30159897,-0.21040003,0
-0.20420334,1.1668762,-0.39899981,-0.16336267,0.93350095,-0.31919986,0
0.99486637,0.43255067,0.62099987,0.79589307,0.34604055,0.49679989,0
-0.04328968,1.0822431,0.62400001,-0.034631744,0.86579448,0.49920002,0
0.57487392,-1.0858729,-0.23000005,0.45989913,-0.8686983,-0.18400005,0
0.89866561,-0.40439957,0.76900005,0.71893251,-0.32351965,0.61520004,0
0.97275382,-0.73929292,0.264,0.77820307,-0.59143436,0.2112,0
1.1629866,0.45814627,-0.0079998774,0.93038929,0.36651701,-0.006399902,0
0.42021313,0.98873663,-0.63899988,0.33617049,0.79098928,-0.51119989,0
-1.0294853,-0.67559975,-0.21499999,-0.82358825,-0.54047978,-0.17199999,0
0.47037226,0.73378068,-0.89599991,0.3762978,0.58702457,-0.71679991,0
-0.34591615,-0.14824979,1.192,-0.27673292,-0.11859983,0.95360005,0
0.70510858,0.86179936,-0.56799978,0.56408685,0.68943948,-0.45439982,0
0.467076,-1.128767,0.26499987,0.3736608,-0.90301359,0.21199989,0
-1.0155048,-0.60930288,0.39999998,-0.81240386,-0.48744231,0.31999999,0
0.96199948,0.74477381,-0.28700006,0.76959956,0.59581906,-0.22960004,0
-0.82942021,0.82942021,-0.43200025,-0.66353619,0.66353619,-0.34560019,0
-0.25614432,0.38895994,-1.1600001,-0.20491545,0.31116796,-0.92800009,0
0.98779768,0,0.76599985,0.79023814,0,0.61279988,0
-1.0960155,0.60104078,-7.1525577e-08,-0.87681234,0.48083264,-5.7220461e-08,0
-0.92423379,0.80870444,0.23300004,-0.73938704,0.64696354,0.18640003,0
0.29647943,1.1562694,-0.37099993,0.23718354,0.92501557,-0.29679996,0
-1.0656829,0.49185365,0.43000004,-0.85254633,0.39348292,0.34400004,0
0.44255835,-0.049173117,1.1680001,0.35404667,-0.039338492,0.93440008,0
1.0729529,0.45394167,0.45300001,0.85836232,0.36315334,0.3624,0
0.53126234,0.3035785,-1.0900002,0.42500988,0.24286279,-0.8720001,0
-0.42433834,0.66008174,0.97300005,-0.33947068,0.52806538,0.77840006,0
-0.67198807,-0.87875366,-0.58199996,-0.53759044,-0.70300293,-0.46559995,0
-0.91192108,-0.79033154,-0.32600003,-0.72953689,-0.63226521,-0.26080003,0
1.019082,-0.46707928,0.55299991,0.81526554,-0.37366343,0.44239992,0
-0.30688432,-1.0083343,0.67200005,-0.24550745,-0.80666745,0.53760004,0
0.67028326,-0.01396422,-1.0550002,0.53622663,-0.011171376,-0.84400016,0
-0.30156916,-0.4308131,-1.1340001,-0.24125533,-0.34465048,-0.90720004,0
0.57106364,0.3482095,-1.0560002,0.45685092,0.27856761,-0.84480017,0
-0.071302213,-1.2477881,0.021000037,-0.057041772,-0.99823046,0.016800029,0
-0.61664414,0.42690736,1,-0.49331531,0.34152588,0.80000001,0
-0.21386462,0.23978762,-1.2079999,-0.17109171,0.1918301,-0.96639997,0
0.099418215,-0.24854583,1.221,0.079534575,-0.19883665,0.97679996,0
-0.033882167,-0.79623049,-0.963,-0.027105734,-0.63698441,-0.77039999,0
-0.38665754,-0.48332182,1.086,-0.30932602,-0.38665745,0.86879998,0
0.70510858,0.86179936,-0.56799978,0.56408685,0.68943948,-0.45439982,0
0.34591615,0.14824966,1.192,0.27673292,0.11859973,0.95360005,0
