0.32261327,0.67748791,-0.8043201,0.29328477,0.61589807,-0.7312001,0
-0.14128047,-1.0737313,-0.19271998,-0.12843679,-0.97611934,-0.17519999,0
0.29587242,-0.5072099,0.93016005,0.26897493,-0.46109989,0.84560001,0
0.71165991,0.81332576,0.20504004,0.64696354,0.73938704,0.18640003,0
0.13979264,0.87869668,-0.64679998,0.12708421,0.79881513,-0.588,0
0.53368491,0.88947505,-0.36608008,0.4851681,0.80861366,-0.33280006,0
-0.20726761,-0.66325617,0.85272002,-0.18842509,-0.60296017,0.77520001,0
-1.0381968,-0.071599811,0.35639989,-0.94381523,-0.065090738,0.32399988,0
-0.33601022,-0.10723731,-1.0419201,-0.30546382,-0.097488463,-0.94720006,0
0.5125069,0.70962495,0.66615999,0.46591535,0.64511359,0.6056,0
-0.59355325,-0.1677433,-0.9108001,-0.53959388,-0.15249391,-0.82800007,0
-0.6336,-0.84480006,0.30799994,-0.57599998,-0.76800001,0.27999994,0
0.90395236,-0.61235482,-0.13376005,0.82177484,-0.55668616,-0.12160004,0
-0.49665692,-0.49665692,0.84656,-0.45150629,-0.45150629,0.76959997,0
0.71806061,0.43881488,0.70839995,0.65278238,0.39892262,0.64399993,0
0.53176177,-0.79764277,0.53944004,0.48341978,-0.72512978,0.49040002,0
-0.55372208,-0.94458485,0.10559993,-0.5033837,-0.85871351,0.095999934,0
-0.062862881,0.097786717,-1.09384,-0.057148073,0.088897012,-0.99439996,0
1.0646193,-0.1373702,0.24023999,0.96783572,-0.124882,0.21839999,0
0.72458255,0.77825546,-0.28160003,0.65871137,0.70750493,-0.25600001,0
1.056,0,0.30799994,0.95999998,0,0.27999994,0
-0.85272634,-0.51905078,0.4620001,-0.77520573,-0.47186434,0.42000008,0
-0.54469299,-0.33519575,0.89495999,-0.49517545,-0.30472341,0.81359994,0
0.36580864,-0.083831154,-1.0340002,0.3325533,-0.076210141,-0.94000012,0
0.72988981,0.72988981,-0.38016021,0.66353619,0.66353619,-0.34560019,0
-0.92926502,0.58853447,-0.0096800551,-0.84478635,0.53503132,-0.0088000502,0
0.7870959,-0.39354795,0.66000009,0.71554172,-0.35777086,0.60000008,0
0.98358655,-0.49179327,-0.02639995,0.89416957,-0.44708478,-0.023999954,0
0.52421933,-0.93807673,-0.23496002,0.47656301,-0.85279703,-0.21360001,0
-0.97786963,-0.13969566,-0.48400015,-0.88897234,-0.12699606,-0.44000012,0
-0.29426491,-0.54649204,0.90816003,-0.26751354,-0.49681094,0.82560003,0
0.60254496,-0.90381742,0.17336006,0.54776812,-0.82165217,0.15760006,0
1.0906385,-0.088430151,-0.11264003,0.99148953,-0.080391042,-0.10240003,0
0.330654,0.9552229,0.4338401,0.30059454,0.86838442,0.39440009,0
0.22996132,1.0635713,-0.16104001,0.20905574,0.966883,-0.1464,0
-0.89364427,0.53618646,0.35200006,-0.81240386,0.48744223,0.32000005,0
-0.35972524,-0.9712581,0.37048012,-0.32702294,-0.88296187,0.3368001,0
0.20469792,-1.0576059,0.22263999,0.18608901,-0.96145988,0.20239998,0
0.14967254,0.97287095,0.49104005,0.13606595,0.88442808,0.44640005,0
-0.3653855,-0.95000231,0.41712007,-0.33216864,-0.86363846,0.37920004,0
0.61546862,-0.90700644,0.092400007,0.55951691,-0.82455128,0.084000006,0
0.37775981,-0.50367993,0.90200007,0.343418,-0.45789084,0.82000005,0
-0.48010272,0.68014556,0.71895993,-0.43645701,0.61831415,0.65359992,0
-0.51901358,0.93422431,0.26048008,-0.47183052,0.84929478,0.23680006,0
0.11552817,0.92422628,0.58520001,0.10502561,0.84020567,0.53200001,0
-0.91491395,0.52783489,0.30712011,-0.83173996,0.4798499,0.27920011,0
1.027265,0.36451343,0.14783996,0.93387723,0.33137584,0.13439997,0
0.13005841,0.34682268,1.03576,0.11823491,0.31529334,0.94160002,0
-0.92035723,-0.19174112,0.57111996,-0.8366884,-0.1743101,0.51919997,0
-0.66146207,-0.62255257,0.62040007,-0.60132915,-0.56595689,0.56400007,0
0.54804647,0.25294453,0.91960001,0.49822405,0.22994956,0.83599997,0
-0.90473586,-0.42855912,-0.45583999,-0.82248712,-0.3895992,-0.41439998,0
0.77825546,-0.72458255,-0.28160003,0.70750493,-0.65871137,-0.25600001,0
-0.90700644,0.61546862,0.092400007,-0.82455128,0.55951691,0.084000006,0
1.0268511,0.17969894,-0.35111982,0.93350095,0.16336267,-0.31919983,0
1.0828342,0.14632899,-0.12672004,0.98439473,0.13302635,-0.11520004,0
-0.87991637,-0.34431514,0.56320006,-0.79992396,-0.31301376,0.51200002,0
1.080405,0.067525245,0.19536005,0.98218632,0.061386585,0.17760004,0
0.24498789,1.0718223,-0.034320123,0.22271626,0.97438389,-0.031200111,0
-1.0365788,-0.35632399,0.092400014,-0.94234431,-0.32393089,0.084000014,0
-0.14967243,-0.97287095,0.49104005,-0.13606584,-0.88442808,0.44640005,0
0.55830783,0.94030792,-0.11879995,0.50755256,0.85482538,-0.10799996,0
0.26540858,1.0616347,-0.11176005,0.24128051,0.9651224,-0.10160004,0
0.66102177,0.83497488,0.27543998,0.60092884,0.75906807,0.25039998,0
-0.27037638,1.0477083,0.19799997,-0.24579671,0.95246202,0.17999996,0
-0.2290704,0.11974135,-1.0692,-0.20824581,0.10885577,-0.972,0
-0.30396959,-0.17369691,1.0428001,-0.27633598,-0.15790628,0.94800001,0
-0.49384236,0.53499585,0.82456005,-0.44894758,0.48635986,0.74960005,0
0.66415226,-0.86339796,0.15312009,0.60377479,-0.78490722,0.13920008,0
-1.0688052,0.068955109,0.25080001,-0.97164106,0.062686458,0.228,0
0.75711721,0.78623706,-0.13639987,0.68828833,0.71476096,-0.12399987,0
-0.55126083,-0.12721404,0.94336003,-0.5011462,-0.11564913,0.85760003,0
-1.0137539,-0.41742805,-0.089759991,-0.92159444,-0.37948003,-0.081599988,0
0.79141015,0.56529295,0.51392013,0.71946377,0.51390266,0.4672001,0
-1.0454752,-0.28256086,-0.19272003,-0.950432,-0.25687349,-0.17520002,0
-0.11247145,-0.97475243,0.49720004,-0.10224677,-0.88613856,0.45200002,0
0.91930646,0.59098279,0.12496012,0.83573312,0.53725708,0.11360011,0
0,-0.86306208,-0.68199992,0,-0.78460187,-0.61999995,0
-0.082401074,-0.90641201,-0.61776,-0.074910067,-0.82401091,-0.56159997,0
-0.65483356,-0.36834389,0.80344003,-0.59530324,-0.33485806,0.73040003,0
0.039058484,-0.89834595,0.63360006,0.035507713,-0.81667811,0.57600003,0
-0.71309328,-0.83194214,-0.096800052,-0.64826661,-0.756311,-0.088000044,0
1.031589,0.17786022,0.33791989,0.93780822,0.1616911,0.3071999,0
0.53522539,-0.50374156,-0.81839985,0.48656854,-0.45794687,-0.74399984,0
0.45458621,1.0000898,-0.05631984,0.41326019,0.90917248,-0.051199853,0
-0.34488821,-0.25866613,1.012,-0.31353474,-0.23515102,0.91999996,0
0.043272343,-0.38945147,1.02784,0.039338492,-0.35404679,0.93440002,0
-1.0873532,0.098850198,0.13376011,-0.98850292,0.089863814,0.1216001,0
0.30164886,1.0557708,-0.066000193,0.27422622,0.9597916,-0.060000174,0
-0.98245209,0.27017435,-0.41448009,-0.89313823,0.24561304,-0.37680006,0
-0.35568765,-0.42453042,-0.95040005,-0.3233524,-0.38593674,-0.86400002,0
1.0737313,-0.14128047,-0.19271998,0.97611934,-0.12843679,-0.17519999,0
-0.58304566,0.69965482,0.61688,-0.53004152,0.63604981,0.56080002,0
-0.059444111,-0.21948595,-1.0762399,-0.0540401,-0.19953269,-0.97839993,0
0.062194221,0.91218275,-0.61159998,0.056540199,0.82925701,-0.55599999,0
-0.85918742,-0.48562765,0.48576006,-0.78107947,-0.44147968,0.44160005,0
0.59740478,-0.39826986,-0.8333599,0.54309523,-0.3620635,-0.75759989,0
0.41565266,0.85318172,-0.55615991,0.37786606,0.77561975,-0.50559992,0
-0.51213276,-0.87794197,0.42063999,-0.46557522,-0.79812902,0.38239998,0
-0.91218275,-0.06219428,-0.61159998,-0.82925701,-0.056540255,-0.55599999,0
0.69423246,-0.45673189,-0.72071999,0.63112038,-0.41521078,-0.6552,0
-0.65186566,0.44601336,-0.76559997,-0.59260511,0.40546668,-0.69599998,0
-0.99876821,-0.073982872,0.45496011,-0.90797108,-0.067257158,0.41360009,0
-0.44945863,0.98319083,-0.20328014,-0.40859875,0.89380985,-0.18480012,0
0.40637341,0.55150682,-0.86063987,0.36943036,0.50136983,-0.78239989,0
1.0239851,0.24716878,0.31679991,0.93089557,0.22469889,0.2879999,0
0.98596841,-0.25562143,0.41536012,0.89633489,-0.23238312,0.3776001,0
0,0,1.1,0,0,1,0
0,1.0325438,-0.37928021,0,0.93867612,-0.34480017,0
0.70433515,0.014985839,-0.84480023,0.64030468,0.01362349,-0.76800019,0
0.12388313,0.70200515,0.83775997,0.11262102,0.63818645,0.76159996,0
-0.23733588,1.0284554,-0.30975991,-0.21575989,0.93495941,-0.28159991,0
0.95877928,-0.066891581,-0.53504008,0.8716175,-0.060810525,-0.48640007,0
0.92611301,-0.41431367,-0.42503995,0.84192091,-0.37664878,-0.38639995,0
-1.0536507,-0.052682564,-0.31152004,-0.95786428,-0.047893237,-0.28320003,0
-0.043424193,0.34739381,1.0428001,-0.039476536,0.31581256,0.94800001,0
0.79141015,-0.56529301,0.51392007,0.71946377,-0.51390272,0.46720004,0
-0.04190867,-0.34225413,-1.0445601,-0.03809879,-0.31114012,-0.94960004,0
-0.76697344,-0.76697344,-0.18303983,-0.69724858,-0.69724858,-0.16639984,0
0.38880658,0.1296021,1.0208001,0.35346052,0.11782009,0.92800009,0
-1.027265,0.36451343,0.14783996,-0.93387723,0.33137584,0.13439997,0
0.11081702,0.99735409,0.45056012,0.10074274,0.90668553,0.40960011,0
-0.75776535,-0.75776535,0.24816002,-0.68887758,-0.68887758,0.22560002,0
0.60238427,-0.91942865,0.042239901,0.54762203,-0.83584422,0.038399909,0
0.50548631,-0.93115896,-0.29567996,0.45953301,-0.84650815,-0.26879996,0
-1.0192038,0.28115958,0.30359992,-0.9265489,0.25559962,0.27599993,0
-0.087647341,-0.17529455,1.0824001,-0.0796794,-0.15935868,0.98400003,0
-0.60928172,-0.69332045,-0.5984,-0.55389243,-0.63029128,-0.54399997,0
-0.12567067,0.62835318,0.8940801,-0.11424606,0.57123017,0.81280005,0
-0.77640247,-0.67622143,-0.38719994,-0.70582044,-0.61474675,-0.35199994,0
-0.39354795,-0.7870959,0.66000009,-0.35777086,-0.71554172,0.60000008,0
0.39826986,-0.59740478,-0.8333599,0.3620635,-0.54309523,-0.75759989,0
-0.24716878,1.0239851,0.31679991,-0.22469889,0.93089557,0.2879999,0
-0.73821884,-0.082024351,0.81136,-0.67110801,-0.074567594,0.73759997,0
0.028583046,1.0861567,-0.17159997,0.025984587,0.98741519,-0.15599997,0
-0.55862677,0.81931931,0.47607988,-0.50784248,0.74483573,0.43279988,0
0.90350336,-0.46396115,-0.42240003,0.82136667,-0.42178285,-0.384,0
0.82135403,-0.73009253,-0.048399951,0.74668545,-0.66372049,-0.043999955,0
0,-0.99989802,0.45848009,0,-0.90899819,0.41680008,0
-0.46211317,0.80869794,0.58520007,-0.42010286,0.7351799,0.53200006,0
-0.30164877,1.0557709,-0.066000141,-0.27422616,0.95979166,-0.060000125,0
-0.37341774,-0.58087194,0.85624003,-0.33947065,-0.52806538,0.7784,0
0.59577632,-0.87614155,0.29567996,0.54161483,-0.79649228,0.26879996,0
0.78524899,0.56089211,-0.52800018,0.71386272,0.50990188,-0.48000014,0
-0.70483553,-0.54820538,0.64240003,-0.64075959,-0.4983685,0.58399999,0
0.4616302,-0.98920774,0.13551998,0.41966382,-0.89927977,0.12319998,0
-0.56243151,-0.32922822,-0.88616002,-0.51130134,-0.29929838,-0.80559999,0
-0.95161128,-0.076128945,0.54648,-0.86510116,-0.06920813,0.49679998,0
0.29868057,-0.42668656,0.96888006,0.2715278,-0.38789687,0.88080001,0
-1.0365788,-0.35632399,0.092400014,-0.94234431,-0.32393089,0.084000014,0
-1.0095955,0.1477457,-0.41095999,-0.91781408,0.13431427,-0.37359998,0
0.51245934,-0.042704903,0.97240001,0.46587211,-0.03882264,0.884,0
0.08383131,-0.36580929,-1.0339999,0.076210283,-0.33255389,-0.93999988,0
1.0903367,0.12827498,0.068640143,0.99121517,0.11661361,0.062400129,0
0.71794212,-0.39486817,-0.73391986,0.65267462,-0.35897106,-0.66719985,0
0.99137962,0.19343987,-0.43560016,0.90125418,0.17585443,-0.39600015,0
0.11081702,0.99735409,0.45056012,0.10074274,0.90668553,0.40960011,0
-0.68014544,-0.48010275,0.71896005,-0.61831403,-0.43645704,0.65360004,0
-1.0945199,-0.029581588,-0.10560003,-0.99501801,-0.026892353,-0.096000023,0
-0.63359994,0.38015997,-0.81488007,-0.57599992,0.34559998,-0.74080002,0
0.89364421,-0.53618658,0.352,0.8124038,-0.48744234,0.31999999,0
-0.58922893,0.741992,-0.55879974,-0.53566265,0.67453814,-0.50799978,0
-0.85918742,0.48562765,0.48576006,-0.78107947,0.44147968,0.44160005,0
0.80171812,-0.20042959,0.72600007,0.72883463,-0.18220872,0.66000003,0
0.1621877,-0.77039111,0.76824003,0.14744335,-0.70035553,0.69840002,0
0.098850198,-1.0873532,0.13376011,0.089863814,-0.98850292,0.1216001,0
1.0646193,-0.1373702,0.24023999,0.96783572,-0.124882,0.21839999,0
0.17316101,0.346322,-1.0296001,0.1574191,0.31483817,-0.93600011,0
-0.05024486,1.0300192,-0.38280019,-0.045677144,0.93638104,-0.34800017,0
-0.28629088,0.85887277,-0.62480009,-0.26026443,0.78079343,-0.56800008,0
-0.25510097,-0.04164914,-1.0692002,-0.23190996,-0.037862856,-0.97200012,0
0.72554016,-0.61098117,0.55704004,0.65958196,-0.55543739,0.50640005,0
0.96784002,-0.51618129,0.082719952,0.87985456,-0.46925572,0.075199954,0
0.58922893,0.741992,-0.55879974,0.53566265,0.67453814,-0.50799978,0
0.75514477,0.09849716,-0.79375982,0.68649524,0.089542873,-0.72159982,0
-0.12480808,0.66564322,0.86679995,-0.11346189,0.6051302,0.78799993,0
0.13133822,0.17511788,1.0780001,0.11939839,0.15919808,0.98000002,0
0.76150155,-0.68897766,0.39424008,0.69227409,-0.62634331,0.35840008,0
-0.085771836,-0.47174492,0.99000001,-0.077974394,-0.42885903,0.89999998,0
-1.090451,-0.03304394,0.1408001,-0.99131906,-0.030039944,0.1280001,0
1.0188998,-0.39441285,0.12759998,0.92627251,-0.35855713,0.11599998,0
0.18820088,-0.21101311,-1.0630399,0.17109171,-0.1918301,-0.96639991,0
0.64323729,-0.86697197,-0.21120009,0.58476114,-0.78815633,-0.19200008,0
-0.24468914,-0.08329843,-1.0692,-0.22244467,-0.075725846,-0.972,0
0.9574396,-0.5222398,-0.14343993,0.87039959,-0.47476345,-0.13039994,0
0.62449002,0.90551066,0.0079199327,0.56771821,0.82319152,0.0071999389,0
-0.39736652,0.75499642,0.69432002,-0.36124229,0.68636036,0.63120002,0
0.043850105,-0.17540054,1.08504,0.039863732,-0.15945503,0.98639995,0
1.0099394,0.21641563,0.37840015,0.91812676,0.19674148,0.34400013,0
-0.38751391,0.21528554,1.0067199,-0.35228536,0.19571412,0.91519994,0
0.46855608,-0.25557601,0.96183997,0.42596006,-0.23234183,0.87439996,0
-0.68391907,0.44253597,0.73920006,-0.62174457,0.40230542,0.67200005,0
-0.59135997,0,0.92752004,-0.53759998,0,0.84320003,0
-0.38751391,-0.21528554,1.0067199,-0.35228536,-0.19571412,0.91519994,0
-0.7255401,0.61098129,0.55703992,-0.6595819,0.55543751,0.50639993,0
-0.31141931,0.33973017,-0.99880004,-0.28310844,0.30884561,-0.90799999,0
0.65986794,-0.87982404,0.022000074,0.59987992,-0.79984003,0.020000067,0
0.29979214,-0.40316868,-0.97856003,0.2725383,-0.36651698,-0.88959998,0
0.43145382,0.27360484,-0.97416019,0.39223075,0.24873167,-0.88560015,0
0.28642341,0.69559985,0.80255997,0.26038492,0.6323635,0.72959995,0
-0.17722759,-0.28629074,-1.0472001,-0.16111599,-0.26026431,-0.95200008,0
0.26279455,-0.80715477,-0.69960004,0.23890413,-0.73377705,-0.63600004,0
0.29086357,0.98166472,0.40216011,0.26442143,0.89242244,0.36560008,0
-0.49923232,-0.45762968,0.86680001,-0.45384756,-0.41602698,0.78799999,0
0.20934936,1.0766541,-0.083600082,0.1903176,0.9787764,-0.076000072,0
-0.17186826,-0.42967075,0.99792004,-0.15624388,-0.39060977,0.90720004,0
0.084900543,0.55185401,0.94776005,0.077182308,0.50168544,0.86160004,0
0.55220962,-0.042477626,0.95040005,0.50200874,-0.038616024,0.86400002,0
0.4306241,0.78295273,0.64152002,0.39147645,0.71177518,0.58320004,0
0.5773229,-0.92371672,-0.15311992,0.52483898,-0.83974248,-0.13919993,0
1.0650265,-0.10923348,-0.2525599,0.96820593,-0.099303156,-0.22959991,0
-0.019158941,0.86215311,-0.68287992,-0.017417219,0.78377557,-0.6207999,0
0.46403468,0.37966457,0.92224002,0.4218497,0.34514961,0.83840001,0
0.81931931,0.55862665,0.47607997,0.74483573,0.50784242,0.43279997,0
-0.21948595,0.059444111,-1.0762399,-0.19953269,0.0540401,-0.97839993,0
0.35482445,-1.0098851,-0.25344002,0.32256767,-0.91807729,-0.23040001,0
-0.64875042,0.44601598,0.76823997,-0.58977312,0.40546906,0.69839996,0
0.091261469,1.0951387,-0.048400078,0.082964972,0.99558061,-0.044000071,0
-0.88613856,-0.61348063,0.22000003,-0.8055805,-0.55770963,0.20000002,0
0.95322233,-0.25574258,-0.48576024,0.86656576,-0.23249325,-0.4416002,0
0.93630433,0.57386392,-0.063360006,0.85118574,0.52169448,-0.057600003,0
-0.69318253,-0.32620361,0.78936005,-0.63016593,-0.29654872,0.71760005,0
1.0095955,0.14774567,-0.4109602,0.91781408,0.13431424,-0.37360018,0
-0.41766542,0.32973588,-0.96272004,-0.37969583,0.29975989,-0.87520003,0
-0.512133,-0.07468605,-0.97063994,-0.46557546,-0.067896411,-0.88239992,0
-0.10723731,-0.33601022,-1.0419201,-0.097488463,-0.30546382,-0.94720006,0
-0.16359489,0.6271137,-0.88879985,-0.14872262,0.57010335,-0.80799985,0
0.49665692,0.49665692,0.84656,0.45150629,0.45150629,0.76959997,0
0.45227471,0.5756222,0.82104003,0.41115883,0.5232929,0.7464,0
-0.64178193,-0.82148087,-0.35111997,-0.5834381,-0.74680078,-0.31919995,0
-1.0441637,-0.24730194,-0.24199998,-0.94923973,-0.22481994,-0.21999998,0
-0.77039111,-0.16218758,0.76824003,-0.70035553,-0.14744325,0.69840002,0
0.67103565,0.57235402,-0.65735996,0.61003238,0.52032185,-0.59759992,0
0.65057778,0.85602337,0.23232001,0.59143436,0.77820307,0.2112,0
-1.0818719,0,0.19888005,-0.98351985,0,0.18080004,0
-0.14128047,1.0737313,-0.19271998,-0.12843679,0.97611934,-0.17519999,0
0.4854562,-0.91981179,-0.35816008,0.44132382,-0.83619249,-0.32560006,0
0.087293081,0.2618795,1.0648,0.079357341,0.23807228,0.96799999,0
0.39354804,0.78709608,-0.65999979,0.35777095,0.7155419,-0.59999979,0
0.082024232,-0.73821884,0.81136,0.074567482,-0.67110801,0.73759997,0
0.12480796,0.66564322,0.86679995,0.11346178,0.6051302,0.78799993,0
-0.036443017,1.0204054,0.40920016,-0.033130016,0.92764127,0.37200013,0
-0.3767181,-0.9956122,-0.27720001,-0.342471,-0.90510195,-0.252,0
0.77747881,0.62938774,0.45760003,0.70679891,0.57217067,0.41600001,0
-0.68896925,0.4239811,-0.74535996,-0.62633568,0.38543737,-0.67759997,0
0.11693729,0.89652014,0.62655997,0.10630662,0.8150183,0.56959999,0
-0.76697344,-0.76697344,-0.18303983,-0.69724858,-0.69724858,-0.16639984,0
-0.69549179,-0.80249059,-0.28688002,-0.63226527,-0.72953689,-0.2608,0
0.72988981,-0.72988981,-0.38016021,0.66353619,-0.66353619,-0.34560019,0
-0.7168625,-0.75270569,0.35992002,-0.65169317,-0.68427789,0.32720003,0
0.25837851,1.0658115,0.085360125,0.23488955,0.96891952,0.077600114,0
-0.49165389,-0.83202964,0.52536005,-0.44695807,-0.75639057,0.47760004,0
0.38985002,0.67799997,-0.77351993,0.3544091,0.61636358,-0.70319992,0
-0.55150682,0.40637341,-0.86063987,-0.50136983,0.36943036,-0.78239989,0
-1.0095955,-0.1477457,-0.41095999,-0.91781408,-0.13431427,-0.37359998,0
-0.67584002,0.8448,-0.19888011,-0.61440003,0.76800001,-0.1808001,0
0.53192925,-0.53192925,0.80256003,0.48357204,-0.48357204,0.72960001,0
-0.57749063,0.73148805,0.58432001,-0.52499145,0.66498911,0.53119999,0
-0.51948327,-0.85006362,-0.46640009,-0.47225749,-0.77278507,-0.42400008,0
0.30743119,0.88386494,0.57815999,0.2794829,0.80351359,0.52559996,0
0.54075265,-0.91927958,-0.26927999,0.4915933,-0.83570868,-0.24479999,0
0.13093974,-0.93840146,-0.55880004,0.11903612,-0.85309219,-0.50800002,0
-0.023857553,-1.0020182,-0.45320013,-0.021688683,-0.91092563,-0.41200012,0
0.2359648,-0.96745545,-0.46728003,0.21451345,-0.87950492,-0.42480001,0
-0.90700644,0.61546862,0.092400007,-0.82455128,0.55951691,0.084000006,0
-0.040689852,0.77310795,0.78144002,-0.036990773,0.70282537,0.71039999,0
1.0346645,0.15519969,-0.33967984,0.94060409,0.14109063,-0.30879983,0
0.64572704,0.41392761,-0.78847992,0.58702457,0.37629783,-0.71679991,0
0.66146219,-0.62255257,0.62039995,0.60132927,-0.56595689,0.56399995,0
-0.62738204,0.16730195,0.88791996,-0.57034731,0.15209268,0.80719995,0
0.25294453,0.54804647,0.91960001,0.22994956,0.49822405,0.83599997,0
0.69980419,-0.83310026,0.16192009,0.63618559,-0.75736386,0.14720008,0
-0.11693741,-0.89652002,0.62656003,-0.10630673,-0.81501818,0.56960005,0
-0.69559973,-0.28642341,0.80256009,-0.63236338,-0.26038492,0.72960007,0
0.44601598,-0.64875042,0.76823997,0.40546906,-0.58977312,0.69839996,0
0.035832286,-1.0391374,0.3590399,0.032574806,-0.94467032,0.32639989,0
-0.22642523,-0.94343841,0.51832002,-0.20584111,-0.85767126,0.47120002,0
1.0554132,-0.026385307,-0.30887982,0.95946658,-0.023986643,-0.28079984,0
0.14577208,0.21345201,-1.0692,0.13252008,0.19404727,-0.972,0
0.74171001,0.66753906,0.46288002,0.67428184,0.60685366,0.4208,0
-0.12960224,0.38880655,1.0208001,-0.11782021,0.35346049,0.92800009,0
0.54007208,0.20402725,-0.93631995,0.49097461,0.18547931,-0.85119992,0
-0.16069096,-0.80345494,0.73392004,-0.14608268,-0.73041356,0.66720003,0
-0.10215207,0.898938,-0.62568003,-0.092865519,0.81721634,-0.56880003,0
-0.76178479,-0.79225612,-0.044879958,-0.69253159,-0.72023284,-0.04079996,0
-0.80144763,0.73466039,0.16719985,-0.72858876,0.66787308,0.15199986,0
0.027520208,-1.0732892,-0.2393599,0.02501837,-0.97571737,-0.2175999,0
-0.17120472,-1.061469,0.23231998,-0.15564065,-0.96497178,0.21119998,0
1.0642726,-0.27367011,-0.049280155,0.96752053,-0.24879099,-0.04480014,0
-0.22642523,0.94343841,0.51832002,-0.20584111,0.85767126,0.47120002,0
0.56243128,0.32922807,-0.88616025,0.51130116,0.29929826,-0.80560023,0
0.68391919,0.44253594,0.73919994,0.62174469,0.40230539,0.67199993,0
-0.32870096,0.65740192,0.81839991,-0.29881904,0.59763807,0.7439999,0
0.42935529,0.72803718,-0.704,0.39032298,0.66185194,-0.63999999,0
0.88947505,0.53368491,-0.36608008,0.80861366,0.4851681,-0.33280006,0
0.26780063,-0.54835373,-0.9152,0.24345511,-0.49850339,-0.83199996,0
0.57781571,-0.85416228,-0.3828001,0.52528697,-0.77651113,-0.34800008,0
0.11404056,-0.9503389,0.54208004,0.10367323,-0.86394441,0.49280003,0
-0.69332045,0.60928172,-0.5984,-0.63029128,0.55389243,-0.54399997,0
-0.019158941,0.86215311,-0.68287992,-0.017417219,0.78377557,-0.6207999,0
0.043911871,0.13173561,1.0912,0.039919883,0.11975964,0.99199998,0
0.62946141,0.041964062,0.90112007,0.57223761,0.038149145,0.81920004,0
-0.12803321,-0.50146335,-0.97064,-0.11639382,-0.45587575,-0.88239998,0
0.75205511,-0.27983445,-0.75240004,0.68368644,-0.25439495,-0.68400002,0
0.96064407,-0.48032203,0.23760018,0.87331277,-0.43665639,0.21600015,0
-0.043982357,0.043982357,1.09824,-0.039983958,0.039983958,0.99839997,0
0.51213276,0.87794197,0.42063999,0.46557522,0.79812902,0.38239998,0
0.96473449,-0.022435663,-0.52800006,0.87703133,-0.020396058,-0.48000005,0
-0.2100511,0.58814287,0.90552002,-0.19095555,0.5346753,0.82319999,0
-0.45252451,-0.9582873,-0.29480004,-0.41138592,-0.87117028,-0.26800004,0
0.94675648,-0.11008798,-0.54912007,0.86068767,-0.10007998,-0.49920005,0
-0.33598837,-0.32638869,-0.99528003,-0.30544397,-0.29671699,-0.9048,0
-0.91218275,0.062194221,-0.61159998,-0.82925701,0.056540199,-0.55599999,0
-1.0698491,0.034511231,0.25343999,-0.97259009,0.031373847,0.23039998,0
1.0861567,-0.028583046,-0.17159997,0.98741519,-0.025984587,-0.15599997,0
-0.082222342,1.0688903,-0.24639991,-0.074747585,0.97171849,-0.22399992,0
0.54935825,-0.2112917,0.92928004,0.49941659,-0.19208336,0.8448,0
0.3075068,-0.90055573,-0.55175996,0.27955163,-0.81868702,-0.50159997,0
-0.58372593,-0.36482871,-0.85800004,-0.53065991,-0.33166245,-0.78000003,0
-0.40540603,0.92137724,0.44351998,-0.36855093,0.83761567,0.40319997,0
-1.0344261,-0.14267942,0.34583992,-0.94038731,-0.12970856,0.31439993,0
0.66735107,-0.68959606,-0.53768009,0.60668278,-0.6269055,-0.48880008,0
-0.043955937,-0.087912008,1.0956,-0.039959941,-0.079920009,0.99599999,0
0.38295463,-0.38295475,0.95744008,0.34814057,-0.34814066,0.87040007,0
-0.99174082,-0.094451487,-0.46640012,-0.90158254,-0.085864983,-0.42400008,0
1.0412301,0.13015381,-0.32999986,0.94657278,0.11832163,-0.29999986,0
-0.62278271,-0.29063189,0.85887998,-0.5661661,-0.26421079,0.78079998,0
0.80634123,0.040317025,0.74712008,0.73303747,0.036651839,0.67920005,0
-0.40746945,-0.65195113,0.78672004,-0.37042677,-0.59268284,0.71520001,0
0.08622209,-0.41386589,-1.01552,0.078383714,-0.37624171,-0.92319995,0
-1.005289,-0.28354311,-0.34495994,-0.913899,-0.25776646,-0.31359994,0
-1.0928576,-0.12489799,0.0079200426,-0.99350691,-0.11354363,0.0072000385,0
0.38295463,-0.38295475,0.95744008,0.34814057,-0.34814066,0.87040007,0
0.70200515,-0.12388325,0.83775997,0.63818645,-0.11262114,0.76159996,0
-0.035188965,-1.05567,0.30711994,-0.031989969,-0.95969999,0.27919993,0
-0.76685077,0.17041132,-0.76999998,-0.69713706,0.15491937,-0.69999999,0
-0.88971788,0.12132517,-0.63536,-0.80883443,0.11029561,-0.5776,0
0.57160622,-0.12161833,-0.93192023,0.519642,-0.11056212,-0.84720021,0
0.98596841,0.25562143,0.41536012,0.89633489,0.23238312,0.3776001,0
-0.34025863,-0.42532319,0.95568001,-0.30932602,-0.38665745,0.86879998,0
-0.0476177,0.99997121,-0.45584014,-0.043288816,0.90906471,-0.41440013,0
-0.29426491,0.54649204,0.90816003,-0.26751354,0.49681094,0.82560003,0
-0.46211314,-0.808698,0.58519995,-0.42010283,-0.73517996,0.53199995,0
-0.08490067,0.55185401,0.94776005,-0.077182427,0.50168544,0.86160004,0
-0.89641726,0.58611906,0.25080001,-0.81492478,0.53283548,0.228,0
-0.58372593,-0.36482871,-0.85800004,-0.53065991,-0.33166245,-0.78000003,0
0.92611295,0.41431373,-0.42504004,0.84192085,0.37664884,-0.38640001,0
1.0928576,0.12489808,0.0079198387,0.99350691,0.1135437,0.0071998532,0
1.0576059,-0.20469792,0.22263999,0.96145988,-0.18608901,0.20239998,0
-1.0507067,0.078802928,-0.31592003,-0.95518792,0.071639024,-0.2872,0
0.96784008,0.29035205,-0.43471986,0.87985462,0.2639564,-0.39519987,0
0.15176883,-0.94855469,0.53592002,0.13797167,-0.86232245,0.48720002,0
0.6245985,-0.24983944,0.87032008,0.56781679,-0.22712676,0.79120004,0
-0.22192752,-0.93209571,-0.5403201,-0.20175229,-0.84735972,-0.49120009,0
0.34746081,1.0076362,0.27191985,0.31587344,0.91603285,0.24719985,0
-0.49384236,0.53499585,0.82456005,-0.44894758,0.48635986,0.74960005,0
0.49665692,-0.49665692,0.84656,0.45150629,-0.45150629,0.76959997,0
-0.52926564,0.79389846,-0.54736012,-0.48115057,0.72172588,-0.49760011,0
0.58930308,-0.16837229,0.91344005,0.53573006,-0.15306571,0.83040005,0
0.26203912,-0.043673147,1.06744,0.23821738,-0.039702859,0.97040004,0
-0.13015379,-1.0412301,-0.33000007,-0.11832163,-0.94657278,-0.30000007,0
-0.3310298,-0.62068081,0.84568,-0.30093619,-0.5642553,0.76879996,0
0.39486817,0.717942,-0.73391998,0.35897106,0.65267456,-0.66719997,0
0.71309334,0.83194214,-0.096799903,0.64826667,0.756311,-0.08799991,0
-0.91107637,0.52061504,-0.32999992,-0.82825124,0.47328639,-0.29999992,0
0.66511351,0.82474077,-0.29568002,0.60464865,0.74976432,-0.26880002,0
-0.9671396,0.46975359,-0.23232003,-0.8792178,0.42704871,-0.21120001,0
0.64572704,0.41392761,-0.78847992,0.58702457,0.37629783,-0.71679991,0
-0.14267942,1.0344261,0.34583992,-0.12970856,0.94038731,0.31439993,0
-0.50157225,0.41797695,0.88527995,-0.45597476,0.37997904,0.80479991,0
-0.55397254,-0.57128412,-0.75943989,-0.50361139,-0.51934916,-0.69039989,0
-0.11247145,0.97475243,0.49720004,-0.10224677,0.88613856,0.45200002,0
-0.69271719,0.2001183,-0.83071989,-0.62974286,0.18192573,-0.75519991,0
-0.9840588,0.38659459,0.30359998,-0.8945989,0.35144961,0.27599999,0
-0.73263371,0.46271604,-0.67760003,-0.66603065,0.42065093,-0.616,0
0,0.34746513,1.0436801,0,0.31587738,0.94880003,0
-0.58814287,-0.2100511,0.90552002,-0.5346753,-0.19095555,0.82319999,0
-0.21347941,0.46965468,0.97152001,-0.19407219,0.4269588,0.88319999,0
-0.48946911,-0.97893822,0.10999992,-0.44497192,-0.88994384,0.099999927,0
-0.12621178,-0.53926837,-0.95040005,-0.11473798,-0.49024397,-0.86400002,0
0.89327592,0.35731044,-0.5332799,0.812069,0.32482767,-0.48479989,0
-0.58308882,0.83819026,0.40919995,-0.53008074,0.76199114,0.37199995,0
-0.68167239,-0.68167239,0.52975994,-0.61970216,-0.61970216,0.48159993,0
0.11081702,-0.99735409,0.45056012,0.10074274,-0.90668553,0.40960011,0
-0.22192752,0.93209571,-0.5403201,-0.20175229,0.84735972,-0.49120009,0
0.37093201,-0.037850212,-1.0348802,0.33721092,-0.034409285,-0.94080013,0
0.1940994,0.89285713,0.61247993,0.17645399,0.8116883,0.55679995,0
0.30241534,-1.0416532,0.18304004,0.27492303,-0.94695741,0.16640003,0
-0.12852219,0.47124809,0.98559999,-0.11683835,0.42840734,0.89599997,0
-0.5755564,0.90444565,-0.24639994,-0.52323306,0.82222331,-0.22399993,0
0.29959309,0.93622863,0.49368003,0.27235734,0.8511169,0.44880003,0
-0.26123998,-0.17415994,1.05424,-0.23749088,-0.15832722,0.95839995,0
-0.096459411,1.0932065,0.074800156,-0.087690368,0.99382406,0.068000138,0
-0.042477626,-0.55220962,0.95040005,-0.038616024,-0.50200874,0.86400002,0
0,-0.70343822,0.84568006,0,-0.63948929,0.76880002,0
0.66145056,-0.2057846,-0.85447991,0.60131866,-0.18707691,-0.77679992,0
0.28115958,1.0192038,0.30359992,0.25559962,0.9265489,0.27599993,0
0.74211192,0.50776076,0.63360006,0.67464721,0.46160069,0.57600003,0
-0.30459723,0.076149315,-1.05424,-0.27690658,0.069226645,-0.95839995,0
-0.76954484,-0.22736551,-0.75239998,-0.69958621,-0.20669591,-0.68399996,0
-1.0554131,0.026385304,-0.30888006,-0.95946646,0.023986639,-0.28080004,0
-0.35241777,-0.80272931,-0.66439998,-0.32037979,-0.72975391,-0.60399997,0
0.39114782,-1.0058088,-0.21296006,0.35558891,-0.91437167,-0.19360006,0
-0.37419662,0.49032655,-0.9108001,-0.34017873,0.4457514,-0.82800007,0
0.80222952,0.69759077,0.28247997,0.72929955,0.63417339,0.25679997,0
0.78623706,0.75711721,-0.13639987,0.71476096,0.68828833,-0.12399987,0
0.18662438,-0.97044653,0.48312005,0.16965853,-0.88222408,0.43920004,0
-0.39455017,-0.145812,-1.0164001,-0.35868198,-0.13255636,-0.92400008,0
0.98166472,0.29086357,0.40216011,0.89242244,0.26442143,0.36560008,0
-0.093933567,-1.0958916,0.014080036,-0.085394152,-0.99626505,0.012800033,0
-0.8548466,0.056989722,-0.68991989,-0.77713323,0.051808838,-0.62719989,0
0.44945872,-0.98319077,-0.20328005,0.40859884,-0.8938098,-0.18480004,0
-0.58991188,-0.80228013,-0.46728003,-0.53628349,-0.72934556,-0.42480001,0
0.57157671,0.76210237,0.55000013,0.51961517,0.69282031,0.50000012,0
0.24730186,-1.0441637,-0.24199994,0.22481987,-0.94923973,-0.21999994,0
0.76964951,-0.64939171,-0.44263989,0.69968134,-0.59035611,-0.4023999,0
-1.0098851,-0.35482445,-0.25344002,-0.91807729,-0.32256767,-0.23040001,0
-0.073982872,0.99876821,0.45496011,-0.067257158,0.90797108,0.41360009,0
-0.87835068,-0.40539265,-0.52359992,-0.7985006,-0.36853877,-0.47599992,0
0.50555831,0.33703879,0.91696006,0.45959845,0.3063989,0.83360004,0
-0.10326418,-1.0670631,0.2464,-0.093876518,-0.97005731,0.22399999,0
-1.0846114,0.057084754,-0.17423996,-0.98601037,0.051895231,-0.15839997,0
-0.91927958,-0.54075265,-0.26927999,-0.83570868,-0.4915933,-0.24479999,0
-0.94303817,0.5658229,0.022879915,-0.85730743,0.51438445,0.020799922,0
1.0928576,-0.12489798,0.0079198591,0.99350691,-0.11354361,0.0071998718,0
0.58611906,0.89641726,0.25080001,0.53283548,0.81492478,0.228,0
-0.71969271,-0.55519146,-0.61951989,-0.65426606,-0.5047195,-0.56319988,0
-0.86486053,-0.67953324,-0.015840001,-0.78623682,-0.6177575,-0.014400001,0
0.38659459,-0.9840588,0.30359998,0.35144961,-0.8945989,0.27599999,0
0.33319357,0.58308876,0.87120008,0.30290323,0.53008068,0.79200006,0
-0.83497488,0.66102177,0.27543998,-0.75906807,0.60092884,0.25039998,0
0.6821813,-0.14830029,-0.85007983,0.62016481,-0.13481845,-0.77279985,0
0.23596476,0.96745533,-0.46728024,0.21451342,0.8795048,-0.42480022,0
0.67584002,-0.8448,-0.19888011,0.61440003,-0.76800001,-0.1808001,0
0.6745609,0.071761809,-0.86592025,0.6132372,0.065238006,-0.78720021,0
0.55830783,0.94030792,-0.11879995,0.50755256,0.85482538,-0.10799996,0
0.11351665,1.0784076,-0.18479998,0.10319696,0.98037058,-0.16799998,0
0.34287035,0.34287035,0.98736006,0.31170031,0.31170031,0.89760005,0
-0.85609263,-0.33408493,-0.60455996,-0.77826601,-0.30371356,-0.54959995,0
-0.62049556,0.75838345,-0.49983981,-0.56408685,0.68943948,-0.45439982,0
-1.0058088,-0.39114782,-0.21296006,-0.91437167,-0.35558891,-0.19360006,0
0.27320135,0.85863304,0.63095993,0.24836485,0.78057545,0.57359993,0
0.96250558,-0.044767726,-0.53064007,0.87500507,-0.040697932,-0.48240006,0
-0.83735037,0.71329856,-0.0070399866,-0.76122761,0.64845324,-0.0063999877,0
0.62613106,-0.20871037,-0.87999994,0.56921005,-0.18973669,-0.79999995,0
0.2057846,0.66145056,-0.85447991,0.18707691,0.60131866,-0.77679992,0
0.32688656,0.93396163,-0.48047981,0.2971696,0.84905601,-0.43679982,0
0.68391919,0.44253594,0.73919994,0.62174469,0.40230539,0.67199993,0
-0.16837229,-0.58930308,0.91344005,-0.15306571,-0.53573006,0.83040005,0
0.85942048,0.03819643,-0.68551993,0.78129131,0.034724027,-0.62319994,0
0.5072099,-0.29587242,0.93016005,0.46109989,-0.26897493,0.84560001,0
-0.73340231,-0.76832616,0.28599998,-0.66672933,-0.69847834,0.25999999,0
0.34395275,-0.30095869,1.00056,0.3126843,-0.27359882,0.90960002,0
0.40468901,-1.0117226,-0.15047993,0.36789909,-0.91974777,-0.13679993,0
-0.41024232,-0.41024232,-0.93456006,-0.37294754,-0.37294754,-0.84960002,0
-0.82916737,0.5852946,-0.42416006,-0.75378847,0.53208601,-0.38560006,0
-0.37859234,-0.92281884,-0.4637599,-0.34417486,-0.8389262,-0.42159989,0
0.33545655,-0.93182403,0.47872004,0.30496049,-0.84711272,0.43520004,0
0.68896925,-0.4239811,-0.74535996,0.62633568,-0.38543737,-0.67759997,0
-0.33175886,1.0229231,-0.23144005,-0.30159897,0.92993009,-0.21040004,0
-0.96713966,-0.46975353,-0.23231994,-0.87921786,-0.42704865,-0.21119994,0
-0.47055164,0.17110975,0.97943997,-0.42777422,0.15555431,0.89039993,0
1.0826962,-0.18044937,-0.072160095,0.98426926,-0.16404487,-0.065600082,0
-0.53368503,-0.88947499,-0.36608002,-0.48516819,-0.8086136,-0.3328,0
-0.44601336,0.65186566,-0.76559997,-0.40546668,0.59260511,-0.69599998,0
0.3813954,-0.42377275,0.94072008,0.34672308,-0.38524795,0.85520005,0
0.19409941,-0.89285702,0.61248004,0.17645401,-0.81168818,0.55680001,0
0.26123998,0.17416008,1.05424,0.23749088,0.15832734,0.95839995,0
0.65186566,-0.44601336,-0.76559997,0.59260511,-0.40546668,-0.69599998,0
0.77913558,-0.70122194,-0.33351997,0.70830506,-0.63747448,-0.30319998,0
-0.27244493,0.78100878,-0.72512007,-0.24767721,0.71000797,-0.65920007,0
-0.48340288,-0.54577744,-0.82367998,-0.43945715,-0.49616131,-0.74879998,0
0.88733423,0.27005818,0.59135997,0.80666745,0.24550743,0.53759998,0
0.14128047,1.0737313,-0.19271998,0.12843679,0.97611934,-0.17519999,0
-0.30396959,-0.17369691,1.0428001,-0.27633598,-0.15790628,0.94800001,0
-0.55830783,0.94030792,-0.11879995,-0.50755256,0.85482538,-0.10799996,0
0.067525245,-1.080405,0.19536005,0.061386585,-0.98218632,0.17760004,0
0.64817727,0.74077404,-0.49103984,0.58925205,0.67343092,-0.44639984,0
-0.29086369,0.98166472,0.40216008,-0.26442152,0.89242244,0.36560005,0
-0.99989802,0,0.45848009,-0.90899819,0,0.41680008,0
1.0122429,0.42943639,-0.030799868,0.92022079,0.39039671,-0.02799988,0
0.55838346,-0.81430912,-0.48488,0.50762135,-0.74028099,-0.44079998,0
-0.45997834,0.45997834,0.88703996,-0.41816211,0.41816211,0.80639994,0
-0.87934601,0.3217119,-0.57727993,-0.79940546,0.29246536,-0.52479994,0
0.23494518,-0.86146563,0.64240003,0.21358652,-0.78315055,0.58399999,0
0.89876395,-0.62913477,-0.080080092,0.81705815,-0.57194072,-0.072800085,0
-0.52499503,-0.60576355,0.75327998,-0.47726819,-0.55069411,0.68479997,0
0.58853447,0.92926502,-0.0096800551,0.53503132,0.84478635,-0.0088000502,0
0.32261327,0.67748791,-0.8043201,0.29328477,0.61589807,-0.7312001,0
-1.0440525,0.20881049,0.27631995,-0.94913858,0.18982771,0.25119996,0
0.86580551,-0.15741922,-0.66000003,0.7870959,-0.14310838,-0.60000002,0
0.057084754,1.0846114,-0.17423996,0.051895231,0.98601037,-0.15839997,0
-0.88193393,-0.64675152,-0.11792006,-0.80175811,-0.58795589,-0.10720006,0
1.0412301,0.13015381,-0.32999986,0.94657278,0.11832163,-0.29999986,0
0.57555634,0.90444571,-0.24639983,0.523233,0.82222337,-0.22399984,0
0.70385915,0.75413495,-0.38191992,0.63987195,0.68557721,-0.34719992,0
-0.06096822,1.0974274,-0.044000097,-0.055425655,0.99766123,-0.040000089,0
0.3851949,-0.84742856,0.58607996,0.35017717,-0.77038956,0.53279996,0
0.7032792,-0.041369323,0.8448,0.63934469,-0.037608474,0.76800001,0
-1.0137539,-0.41742805,-0.089759991,-0.92159444,-0.37948003,-0.081599988,0
-0.80653328,0,0.74800009,-0.73321205,0,0.68000007,0
1.067988,-0.16862969,-0.20239997,0.97089821,-0.15329972,-0.18399997,0
-0.58087194,0.37341762,0.85624009,-0.52806538,0.33947057,0.77840006,0
1.0466194,0.18785475,-0.28159991,0.95147216,0.17077704,-0.25599992,0
-0.99803406,-0.42772892,-0.17599998,-0.90730369,-0.38884446,-0.15999998,0
0.041369323,0.7032792,0.8448,0.037608474,0.63934469,0.76800001,0
-0.85087764,0.68724728,0.11704013,-0.77352512,0.62477022,0.10640012,0
-0.12480808,0.66564322,0.86679995,-0.11346189,0.6051302,0.78799993,0
1.0008266,-0.37962392,0.25343987,0.90984231,-0.34511265,0.23039988,0
1.0908377,0,0.14168011,0.99167061,0,0.12880009,0
-0.45899233,-0.6065256,-0.79464006,-0.41726574,-0.55138689,-0.72240007,0
0.74077398,-0.64817721,-0.49103996,0.67343086,-0.589252,-0.44639996,0
0.043424193,-0.34739393,1.0427999,0.039476536,-0.31581265,0.94799995,0
0.033797011,-1.0815053,0.19800004,0.030724555,-0.9831866,0.18000004,0
0.83062387,0.34440503,-0.63360023,0.75511259,0.31309548,-0.57600021,0
0.15563823,0.8949194,0.62039989,0.1414893,0.81356305,0.56399989,0
0.23822334,0.55167514,-0.92136002,0.21656667,0.50152284,-0.83759999,0
0.15242063,-0.34294641,-1.0339999,0.1385642,-0.31176946,-0.93999988,0
0.1296021,0.38880658,1.0208001,0.11782009,0.35346052,0.92800009,0
-0.55235952,-0.46029961,-0.83248019,-0.50214499,-0.41845417,-0.75680017,0
-0.16614993,0.66459996,0.86063993,-0.15104538,0.60418177,0.78239989,0
-0.39354795,0.7870959,0.66000009,-0.35777086,0.71554172,0.60000008,0
0.87835068,0.40539265,-0.52359992,0.7985006,0.36853877,-0.47599992,0
-0.72835886,-0.82336217,0.039600089,-0.66214442,-0.74851108,0.03600008,0
1.0716417,0.054955933,-0.24199989,0.97421968,0.049959939,-0.21999989,0
-0.95000231,-0.3653855,0.41712007,-0.86363846,-0.33216864,0.37920004,0
-0.15563811,-0.89491934,0.62040007,-0.14148919,-0.81356299,0.56400007,0
0.20355219,1.0177611,-0.36431983,0.18504743,0.92523736,-0.33119982,0
-0.16837229,0.58930308,0.91344005,-0.15306571,0.53573006,0.83040005,0
0.38045526,-1.0243026,-0.12671995,0.34586841,-0.93118417,-0.11519995,0
0.24498789,1.0718223,-0.034320123,0.22271626,0.97438389,-0.031200111,0
0.4630239,-0.79976845,-0.59664011,0.4209308,-0.72706223,-0.54240006,0
1.0767044,-0.22167443,0.039600167,0.97882217,-0.2015222,0.036000151,0
0.24303778,0.71291089,-0.80167991,0.22094342,0.64810079,-0.72879988,0
-0.52061498,0.91107631,-0.3300001,-0.47328633,0.82825118,-0.3000001,0
-0.47602066,0.71403098,0.68816,-0.43274605,0.64911908,0.62559998,0
0.37341762,-0.58087194,0.85624009,0.33947057,-0.52806538,0.77840006,0
-0.12184109,0.77166015,0.7744,-0.11076462,0.70150924,0.704,0
-0.18290445,0.3277038,-1.0340002,-0.16627677,0.29791254,-0.94000012,0
-0.69318253,-0.32620361,0.78936005,-0.63016593,-0.29654872,0.71760005,0
0.22192758,0.93209565,-0.54032016,0.20175235,0.84735966,-0.49120012,0
0.94458485,-0.55372208,0.10559993,0.85871351,-0.5033837,0.095999934,0
0.22326349,0.96747506,0.47344005,0.20296681,0.87952274,0.43040004,0
0.84742868,-0.38519478,0.5860799,0.77038968,-0.35017705,0.5327999,0
0.67395014,0.86650741,0.070400171,0.61268193,0.78773397,0.064000152,0
0.3805173,0.96397734,-0.36871991,0.34592482,0.87634301,-0.33519989,0
-0.86650735,-0.67395025,0.070400059,-0.78773391,-0.61268204,0.064000055,0
0.72045898,-0.1921224,-0.80871993,0.65496272,-0.17465672,-0.73519993,0
-0.77913558,0.70122194,-0.33351997,-0.70830506,0.63747448,-0.30319998,0
-0.92317331,0.49709326,0.33264008,-0.83924842,0.45190296,0.30240008,0
-0.030522145,-1.0987984,-0.041360091,-0.027747404,-0.99890763,-0.037600081,0
0,-0.73889828,0.81488001,0,-0.67172569,0.74080002,0
0.87982398,-0.65986806,0.02200011,0.79983997,-0.59988004,0.0200001,0
0.9691385,0.44995719,0.26136017,0.88103497,0.40905198,0.23760015,0
0.80869794,-0.46211317,0.58520007,0.7351799,-0.42010286,0.53200006,0
0.2188973,0,1.0780001,0.19899754,0,0.98000002,0
0.80340189,0.49734405,0.56320012,0.73036534,0.45213094,0.51200008,0
1.0060244,-0.25150609,0.36696017,0.91456759,-0.2286419,0.33360013,0
0.04190867,-0.34225413,-1.0445601,0.03809879,-0.31114012,-0.94960004,0
0.66362739,-0.87478149,-0.066000223,0.60329759,-0.7952559,-0.0600002,0
-0.12593541,0.72412843,-0.81839985,-0.11448673,0.65829855,-0.74399984,0
-0.53799605,-0.94149309,0.18480001,-0.48908731,-0.85590279,0.16800001,0
0.35731038,-0.8932758,-0.53328013,0.32482761,-0.81206888,-0.4848001,0
-0.85087764,0.68724728,0.11704013,-0.77352512,0.62477022,0.10640012,0
0.82336217,-0.72835886,0.039600089,0.74851108,-0.66214442,0.03600008,0
0.12132517,-0.88971788,-0.63536,0.11029561,-0.80883443,-0.5776,0
-0.80975294,-0.30847731,-0.67760015,-0.736139,-0.28043392,-0.61600012,0
0.60238427,0.91942865,0.042239901,0.54762203,0.83584422,0.038399909,0
0.69453591,0.85238481,0.03255998,0.63139629,0.77489525,0.029599981,0
1.0576059,-0.20469792,0.22263999,0.96145988,-0.18608901,0.20239998,0
-0.27208939,-1.0339397,-0.25871995,-0.24735399,-0.93994516,-0.23519994,0
-0.15698329,0.65647548,-0.8685599,-0.14271207,0.59679586,-0.7895999,0
0.3805173,-0.96397734,-0.36871991,0.34592482,-0.87634301,-0.33519989,0
0.28473133,-0.64439195,-0.84480006,0.25884667,-0.58581084,-0.76800001,0
-0.63480884,0.31740436,-0.84040004,-0.57709891,0.28854942,-0.764,0
-0.2112917,0.54935825,0.92928004,-0.19208336,0.49941659,0.8448,0
-0.48661307,-0.19464524,-0.96711993,-0.44237551,-0.17695022,-0.87919992,0
-0.59398371,0.9206748,-0.097679973,-0.53998518,0.83697706,-0.088799976,0
0.21604857,0.34567755,1.02168,0.19640778,0.31425232,0.92879999,0
0.2609019,-1.0175171,-0.32647994,0.23718354,-0.92501551,-0.29679993,0
0.54820538,0.70483553,0.64240003,0.4983685,0.64075959,0.58399999,0
0.51695639,-0.67601985,0.69696009,0.46996033,-0.61456347,0.63360006,0
0.66325629,0.20726761,0.85271996,0.60296023,0.18842509,0.77519995,0
0.64341033,0.095827051,-0.88704026,0.58491844,0.087115496,-0.80640024,0
-0.6271134,0.1635948,-0.88880008,-0.57010311,0.14872254,-0.80800009,0
0.65057778,-0.85602337,0.23232001,0.59143436,-0.77820307,0.2112,0
-0.87982398,-0.659868,0.021999964,-0.79983997,-0.59987998,0.019999968,0
-0.033797011,-1.0815053,0.19800004,-0.030724555,-0.9831866,0.18000004,0
-0.52891582,0.96449369,2.6226044e-08,-0.48083255,0.8768124,2.3841856e-08,0
0.58308887,-0.70803654,-0.60719991,0.5300808,-0.64366955,-0.55199993,0
0.78882569,-0.7559579,0.1276,0.71711427,-0.68723446,0.116,0
-0.025168588,1.0319132,-0.38016018,-0.022880534,0.93810284,-0.34560016,0
0.8548466,-0.056989778,-0.68991995,0.77713323,-0.051808886,-0.62719995,0
0.99735409,-0.11081713,0.45056009,0.90668553,-0.10074285,0.40960008,0
-0.69965482,-0.58304566,0.61688,-0.63604981,-0.53004152,0.56080002,0
0.98552293,0.11732418,-0.47432014,0.89592993,0.10665835,-0.43120012,0
-0.29587242,0.5072099,0.93016005,-0.26897493,0.46109989,0.84560001,0
-0.66668582,0.58825213,0.6476801,-0.60607803,0.53477466,0.58880007,0
-0.23269801,1.0637624,0.15576005,-0.21154363,0.96705675,0.14160004,0
-0.53176177,0.79764265,0.53944016,-0.48341978,0.72512966,0.49040014,0
-0.78759754,0.68019789,0.35640001,-0.71599776,0.61836171,0.324,0
-0.70463109,0.13786256,-0.83336002,-0.64057368,0.1253296,-0.75760001,0
0.54577726,-0.4834027,-0.82368016,0.49616113,-0.439457,-0.74880016,0
-0.14128047,-1.0737313,-0.19271998,-0.12843679,-0.97611934,-0.17519999,0
-0.082401074,0.90641201,-0.61776,-0.074910067,0.82401091,-0.56159997,0
-0.36250767,-0.72501534,0.74360001,-0.32955241,-0.65910482,0.676,0
-0.77522361,0.77522361,-0.089759916,-0.70474875,0.70474875,-0.081599921,0
-0.1892512,0.9462558,0.528,-0.17204654,0.86023253,0.47999999,0
-0.72045898,-0.1921224,-0.80871993,-0.65496272,-0.17465672,-0.73519993,0
0.084406555,0.59084642,0.92400008,0.076733232,0.5371331,0.84000003,0
0.66564322,-0.12480808,0.86679995,0.6051302,-0.11346189,0.78799993,0
-0.84655952,-0.65540093,-0.25256005,-0.76959956,-0.595819,-0.22960004,0
-0.75711721,-0.78623706,-0.13639987,-0.68828833,-0.71476096,-0.12399987,0
0.29120275,0.53176153,-0.91784024,0.26472977,0.48341957,-0.83440018,0
0.78623706,0.75711721,-0.13639987,0.71476096,0.68828833,-0.12399987,0
-0.46703386,0.77838969,0.62128007,-0.42457622,0.707627,0.56480008,0
-0.67748791,-0.32261327,-0.8043201,-0.61589807,-0.29328477,-0.7312001,0
-0.48591223,0.97182447,-0.17159981,-0.4417384,0.88347679,-0.15599982,0
-0.59949833,-0.27883643,-0.87912005,-0.54499847,-0.25348765,-0.79920006,0
0.41313174,0.57838428,0.83952004,0.37557429,0.52580386,0.76320004,0
0.73053151,-0.28409556,0.77175999,0.66411954,-0.25826868,0.70159996,0
0.55862665,0.81931931,0.47607997,0.50784242,0.74483573,0.43279997,0
0.28146654,1.0633183,0.011440199,0.25587866,0.96665293,0.010400181,0
0.85863304,0.27320135,0.63095993,0.78057545,0.24836485,0.57359993,0
-0.27435681,0.9373858,-0.50600022,-0.24941528,0.85216892,-0.46000019,0
-0.60934842,0.48747873,0.77528,-0.55395311,0.44316247,0.70480001,0
0.52738959,-0.95589352,0.13463981,0.47944507,-0.86899412,0.12239983,0
-0.94419855,0.39946869,0.39864004,-0.85836232,0.36315334,0.36240003,0
0.071761809,0.6745609,-0.86592025,0.065238006,0.6132372,-0.78720021,0
-0.48661307,-0.19464524,-0.96711993,-0.44237551,-0.17695022,-0.87919992,0
-0.91452289,-0.26673579,0.54999995,-0.83138442,-0.24248707,0.49999994,0
0.15108094,1.0877825,-0.062480103,0.1373463,0.98889315,-0.056800094,0
-0.46271604,0.73263371,-0.67760003,-0.42065093,0.66603065,-0.616,0
0.77747887,-0.62938768,0.45760012,0.70679897,-0.57217062,0.4160001,0
0.55961359,0.92336243,-0.21031986,0.50873959,0.83942038,-0.19119987,0
-0.042912934,-0.47204277,0.99264002,-0.039011758,-0.42912978,0.90240002,0
0.93079203,0.56512386,0.15576009,0.84617454,0.51374894,0.14160009,0
0.53192925,-0.53192925,0.80256003,0.48357204,-0.48357204,0.72960001,0
0.041964058,-0.62946153,0.90112001,0.038149145,-0.57223773,0.81919998,0
-0.1725518,-0.38824162,1.01464,-0.15686527,-0.35294691,0.92239994,0
0.6770398,0.74957985,-0.43559989,0.61549073,0.68143618,-0.39599991,0
-0.76698643,-0.083368108,-0.78408009,-0.69726038,-0.075789191,-0.71280009,0
0.14009431,1.0507067,0.29391992,0.12735847,0.95518792,0.26719993,0
0.20355216,-1.017761,-0.36432004,0.18504742,-0.92523724,-0.33120003,0
0.95099378,0.45788592,0.30976009,0.8645398,0.41625991,0.28160009,0
0.898938,0.10215207,-0.62568003,0.81721634,0.092865519,-0.56880003,0
-0.32620361,-0.69318253,0.78936005,-0.29654872,-0.63016593,0.71760005,0
-0.25663733,-1.0550646,-0.17600004,-0.23330666,-0.9591496,-0.16000004,0
-0.15929721,-0.18916544,-1.0718399,-0.14481564,-0.17196858,-0.97439992,0
-0.068955213,-1.0688052,0.25079998,-0.062686555,-0.97164106,0.22799999,0
0.97541475,0.43351772,-0.26576018,0.88674068,0.39410701,-0.24160016,0
0.11753855,-1.087231,-0.11880005,0.10685322,-0.98839182,-0.10800005,0
-0.71231908,-0.67482865,0.49719998,-0.6475628,-0.61348057,0.45199996,0
0.71291083,-0.24303779,-0.80168003,0.64810073,-0.22094344,-0.7288,0
0.54804647,-0.25294453,0.91960001,0.49822405,-0.22994956,0.83599997,0
-0.64341062,0.09582711,-0.88704002,-0.58491874,0.087115556,-0.8064,0
-1.0381446,-0.21295278,-0.29479992,-0.94376779,-0.19359343,-0.26799992,0
0.85942048,0.03819643,-0.68551993,0.78129131,0.034724027,-0.62319994,0
-0.78100884,0.2724449,-0.72512001,-0.71000803,0.24767718,-0.65920001,0
0.26279455,-0.80715477,-0.69960004,0.23890413,-0.73377705,-0.63600004,0
0.97182447,0.48591232,-0.17159989,0.88347679,0.44173846,-0.1559999,0
0.71969265,-0.5551914,-0.61952007,0.654266,-0.50471944,-0.56320006,0
1.0974274,0.060968131,-0.044000085,0.99766123,0.055425573,-0.040000077,0
-1.0339397,-0.27208939,-0.25871995,-0.93994516,-0.24735399,-0.23519994,0
0.62278259,-0.29063189,0.8588801,0.56616598,-0.26421079,0.7808001,0
0.43073288,-0.7635718,-0.66440004,0.39157534,-0.69415617,-0.60400003,0
0.72803724,-0.42935529,-0.70399988,0.661852,-0.39032298,-0.63999987,0
-0.55042928,-0.16936283,0.93720001,-0.50039023,-0.1539662,0.852,0
0.17529468,-0.087647341,1.0824,0.1593588,-0.0796794,0.98399997,0
-0.55397254,-0.57128412,-0.75943989,-0.50361139,-0.51934916,-0.69039989,0
-0.898938,0.10215207,-0.62568003,-0.81721634,0.092865519,-0.56880003,0
0.89385825,0.63847017,0.058080185,0.81259841,0.58042741,0.052800167,0
-0.17969894,1.0268511,-0.35111982,-0.16336267,0.93350095,-0.31919983,0
0.99123478,-0.41301447,-0.23848011,0.90112251,-0.37546769,-0.21680009,0
0.76975352,0.65978885,0.42680007,0.69977593,0.59980804,0.38800007,0
-0.52859735,-0.56925863,0.77880007,-0.48054305,-0.51750785,0.70800006,0
-0.74077404,0.64817727,-0.49103984,-0.67343092,0.58925205,-0.44639984,0
0.34071231,-0.99592835,-0.31943998,0.30973846,-0.90538937,-0.29039997,0
-0.46029982,0.31070235,-0.94951999,-0.41845438,0.28245667,-0.86319995,0
-0.77166015,0.12184096,0.77440006,-0.70150924,0.11076451,0.70400006,0
0.70433515,-0.014985839,-0.84480023,0.64030468,-0.01362349,-0.76800019,0
0.80171812,0.20042959,0.72600007,0.72883463,0.18220872,0.66000003,0
-0.77654099,0.067525335,-0.77616012,-0.70594633,0.061386667,-0.70560008,0
-0.13449898,1.0759921,0.18480004,-0.1222718,0.97817463,0.16800004,0
0.97676432,-0.32558814,0.38720009,0.88796753,-0.29598922,0.35200006,0
-0.92137724,-0.40540603,0.44351998,-0.83761567,-0.36855093,0.40319997,0
-0.042477626,0.55220962,0.95040005,-0.038616024,0.50200874,0.86400002,0
