0.78596479,-0.60458827,1.2556801,0.49122798,-0.37786767,0.78480005,0
-0.46386185,1.4688958,-0.43263999,-0.28991365,0.91805989,-0.27039999,0
1.4948997,0.56058741,0.10496005,0.93431234,0.35036713,0.06560003,0
-0.35350952,-1.0369612,-1.16608,-0.22094345,-0.64810073,-0.7288,0
0.67694336,-1.3538867,0.51840007,0.42308959,-0.84617919,0.32400003,0
-0.63250405,-1.0925068,0.98303998,-0.39531502,-0.68281674,0.61439997,0
0.11353813,-1.3056897,0.91776007,0.070961334,-0.81605607,0.57360005,0
-0.034701895,1.457481,-0.65920019,-0.021688685,0.91092563,-0.41200012,0
1.151552,-1.051417,0.35839984,0.71971995,-0.65713561,0.2239999,0
-0.26742512,-1.4440953,0.63488013,-0.16714069,-0.90255952,0.39680007,0
0.80440634,-0.97677916,0.97920012,0.50275397,-0.61048698,0.61200005,0
-1.1511421,-0.82224441,0.74751997,-0.71946383,-0.51390272,0.46719998,0
0.8313843,1.1085125,0.80000019,0.51961517,0.69282031,0.50000012,0
-1.5186217,0.30372435,0.4019199,-0.94913852,0.18982771,0.25119993,0
0.56471491,0.25098461,1.4758401,0.35294682,0.15686537,0.92240006,0
-1.5650795,-0.19563489,0.26880008,-0.97817463,-0.12227181,0.16800004,0
0.58810407,0.99977678,1.1020799,0.36756504,0.62486047,0.68879992,0
-0.58968151,1.340185,0.64511997,-0.36855093,0.83761567,0.40319997,0
0.14223522,-0.091436915,-1.59104,0.088897012,-0.057148073,-0.99440002,0
0.90225029,1.1451638,-0.65919983,0.56390643,0.71572733,-0.41199988,0
0.22897349,-1.2593535,0.95999998,0.14310843,-0.78709596,0.59999996,0
1.1917372,-0.81254798,0.69247985,0.74483573,-0.50784248,0.43279991,0
-0.93593293,1.0460428,0.76800007,-0.58495808,0.65377676,0.48000005,0
-1.5351465,-0.038378622,-0.44928005,-0.95946652,-0.023986639,-0.28080001,0
-0.78439039,-0.18358076,-1.3824,-0.490244,-0.11473797,-0.86400002,0
1.5075771,0.53208607,-0.063999787,0.94223565,0.3325538,-0.039999865,0
-1.0625913,-0.41322988,1.12256,-0.66411954,-0.25826868,0.70160002,0
0.50029492,-0.43775809,1.4553601,0.31268433,-0.27359879,0.90960002,0
-0.057457548,-1.2640673,0.97920001,-0.035910968,-0.79004204,0.61199999,0
-0.83726865,-0.65785408,1.19424,-0.5232929,-0.4111588,0.7464,0
0.55295998,-0.92159986,-1.1852801,0.34559998,-0.57599992,-0.74080002,0
0.66121632,-1.454676,-0.081919767,0.41326019,-0.90917253,-0.051199853,0
0.61822802,0.54953599,-1.3696001,0.3863925,0.34345999,-0.85600001,0
1.2403294,-0.75498295,0.67199993,0.77520585,-0.47186434,0.41999996,0
0.063666269,-0.31833172,1.56672,0.039791416,-0.19895732,0.97920001,0
-0.71386832,-0.83284628,1.1648,-0.44616771,-0.52052891,0.72800004,0
-0.62654656,-0.12530939,1.4668801,-0.39159161,-0.078318372,0.91680002,0
0.2851243,0.39327487,-1.52448,0.17820269,0.2457968,-0.95279998,0
1.0434221,-1.1638172,-0.3417601,0.65213883,-0.7273857,-0.21360005,0
0.054651603,-1.420943,0.7334401,0.03415725,-0.88808936,0.45840007,0
0.79228067,0.48755726,1.3017601,0.49517542,0.30472329,0.81360006,0
0.07662908,1.532583,-0.45311975,0.047893174,0.95786434,-0.28319985,0
1.2546403,-0.83642685,0.53503996,0.78415018,-0.52276677,0.33439997,0
-1.5882567,-0.17647292,-0.079360127,-0.99266046,-0.11029557,-0.04960008,0
1.4388475,-0.67146212,0.19711997,0.89927971,-0.41966382,0.12319998,0
-0.50446951,0.18917586,1.50656,-0.31529343,0.11823491,0.94159997,0
1.2987013,-0.2823264,0.89087987,0.8116883,-0.17645399,0.55679989,0
0,0.80338633,1.38368,0,0.50211644,0.86479998,0
1.5052272,-0.48555714,0.24191999,0.94076699,-0.3034732,0.1512,0
0.31925187,0.30151561,-1.5385599,0.19953242,0.18844725,-0.96159995,0
0.84490466,-0.54315305,1.24544,0.52806538,-0.33947065,0.7784,0
0.9407295,1.2828128,-0.17152025,0.58795595,0.80175799,-0.10720015,0
0.88680995,-1.3302151,-0.064000033,0.5542562,-0.83138442,-0.040000021,0
-1.2131699,-0.27572045,-1.00608,-0.75823122,-0.17232528,-0.62880003,0
1.2593535,-0.2289734,-0.96000004,0.78709596,-0.14310837,-0.60000002,0
0.6800158,0.38858047,-1.3952003,0.42500988,0.24286279,-0.87200016,0
1.3903906,-0.76711196,0.19583985,0.86899412,-0.47944498,0.1223999,0
-0.97096592,-1.0788509,0.67328006,-0.60685366,-0.67428178,0.42080003,0
-1.4383658,0.69598335,0.081920072,-0.89897865,0.4349896,0.051200043,0
-1.3373507,-0.87619525,0.061439853,-0.83584422,-0.54762203,0.038399909,0
-1.1686617,0.23373248,1.06752,-0.73041356,0.14608279,0.66720003,0
0.85737848,-1.2860675,-0.41344002,0.53586155,-0.80379218,-0.25839999,0
0.48755726,0.79228067,1.3017601,0.30472329,0.49517542,0.81360006,0
0.51260769,-1.1676064,-0.96640003,0.32037979,-0.72975397,-0.60400003,0
-0.86476773,-1.3177412,-0.27519998,-0.54047984,-0.82358819,-0.17199999,0
0.39327458,1.5239394,0.28800002,0.24579661,0.95246208,0.18000001,0
-1.17286,0.058642946,1.0867201,-0.73303753,0.036651842,0.67920005,0
0.37174693,0.68153608,1.39904,0.23234183,0.42596003,0.87439996,0
-0.76886886,-0.82801253,1.1328001,-0.48054305,-0.51750779,0.70800006,0
-1.3687325,0.7880581,-0.25599986,-0.85545778,0.49253631,-0.15999991,0
-1.4654295,-0.64112538,0.03840011,-0.91589344,-0.40070337,0.024000069,0
-0.43402189,1.2152613,-0.94592023,-0.27126369,0.75953835,-0.59120011,0
1.0176798,0.84806633,0.8972801,0.63604981,0.5300414,0.56080002,0
-0.5506798,1.3422819,-0.67455983,-0.34417486,0.8389262,-0.42159989,0
-0.33067134,1.5588793,0.14336015,-0.20666958,0.97429955,0.089600094,0
0.97096592,-1.0788509,0.67328006,0.60685366,-0.67428178,0.42080003,0
1.0351417,-1.1830193,0.29824007,0.64696354,-0.73938704,0.18640004,0
0.85847831,0.18395948,1.3376001,0.53654891,0.11497468,0.83600008,0
-1.066767,1.1175655,0.4159998,-0.66672927,0.6984784,0.25999984,0
0.73357302,-1.4212974,0.042239875,0.45848313,-0.88831091,0.026399922,0
0.80219173,0.59108859,-1.2518398,0.50136983,0.36943036,-0.78239983,0
1.017897,1.2117822,0.23552012,0.63618565,0.75736386,0.14720008,0
1.1388403,-0.62636232,0.93312001,0.71177518,-0.39147645,0.58319998,0
0.93729734,0.41415465,-1.2288001,0.58581084,0.25884664,-0.76800001,0
1.254464,-0.87432343,-0.4710398,0.78404003,-0.54645211,-0.29439986,0
0.3663573,-1.5570189,0.038400002,0.22897331,-0.97313678,0.024,0
1.2102251,0.71513289,0.76415986,0.75639069,0.44695807,0.47759992,0
0.96148622,-1.2145089,0.40063995,0.6009289,-0.75906807,0.25039998,0
-0.41322988,-1.0625913,1.12256,-0.25826868,-0.66411954,0.70160002,0
0.27503616,-1.314062,-0.87040001,0.17189759,-0.82128876,-0.54399997,0
-0.78930449,-0.54644161,1.28,-0.49331531,-0.341526,0.79999995,0
0.6110577,-0.67216343,1.31712,0.38191107,-0.42010215,0.82319999,0
1.1078287,0.46645412,1.0560001,0.69239295,0.29153383,0.66000009,0
-1.2326235,-0.56028336,0.85248005,-0.77038962,-0.35017708,0.53279996,0
-0.052119687,-1.5114725,0.52223986,-0.032574803,-0.94467026,0.32639992,0
0.47830573,1.5218818,-0.12288026,0.29894108,0.95117611,-0.07680016,0
0.17203012,1.2615556,0.96895987,0.10751882,0.78847224,0.60559988,0
-0.74137866,-1.3839067,0.30847996,-0.46336165,-0.86494172,0.19279997,0
0.85133725,-0.035472404,-1.3542403,0.53208578,-0.022170253,-0.8464002,0
-0.94829255,0.59268302,1.14432,-0.59268284,0.37042689,0.71520001,0
1.3148397,-0.89069796,-0.19456007,0.82177484,-0.55668622,-0.12160004,0
1.3557756,-0.32280368,-0.7859202,0.84735972,-0.20175229,-0.49120012,0
1.2457919,-0.65567994,-0.76031989,0.77861995,-0.40979996,-0.47519994,0
0.95397192,-0.95397192,-0.86016005,0.59623241,-0.59623241,-0.53760004,0
1.5480329,-0.3980656,-0.071680225,0.96752053,-0.24879099,-0.04480014,0
-0.76629144,-0.49808943,-1.31328,-0.47893214,-0.31130588,-0.82080001,0
-0.47059464,-1.0588379,1.1033599,-0.29412165,-0.66177368,0.68959993,0
-0.87944853,1.0993106,0.76032007,-0.54965532,0.68706912,0.47520003,0
0.85737848,1.2860675,-0.41344002,0.53586155,0.80379218,-0.25839999,0
-0.31372792,1.5686399,-0.0307202,-0.19607994,0.98039991,-0.019200126,0
-1.5122972,-0.3528693,0.38527992,-0.94518572,-0.22054331,0.24079995,0
0.51260751,1.1676061,-0.96640033,0.3203797,0.72975379,-0.60400021,0
-0.18153903,0.96820825,1.2607999,-0.11346189,0.60513014,0.78799993,0
1.2452254,-0.48594159,-0.87936026,0.77826589,-0.3037135,-0.54960012,0
1.2579788,0.98841214,-0.023039956,0.78623676,0.61775756,-0.014399972,0
-1.0468258,-0.80755126,-0.90111983,-0.65426612,-0.50471956,-0.56319988,0
0.090464316,1.3268113,-0.88959998,0.056540199,0.82925707,-0.55599999,0
0.53066015,0.84905618,-1.2479998,0.3316626,0.53066009,-0.77999985,0
1.4688958,-0.46386185,-0.43263999,0.91805989,-0.28991365,-0.27039999,0
-0.61822802,0.54953599,-1.3696001,-0.3863925,0.34345999,-0.85600001,0
1.1720215,-0.11720222,1.08288,0.73251343,-0.073251389,0.67680001,0
1.5901186,-0.1403046,0.10880023,0.99382412,-0.087690368,0.068000145,0
-0.48149791,-0.90280849,1.23008,-0.30093619,-0.5642553,0.76880002,0
-0.57243335,-1.1448668,-0.96000004,-0.35777083,-0.71554178,-0.60000002,0
-1.0375251,1.2179642,-0.010239805,-0.64845318,0.76122767,-0.0063998788,0
-0.86476773,-1.3177412,-0.27519998,-0.54047984,-0.82358819,-0.17199999,0
0.36532283,-1.2083756,-0.98304009,0.22832677,-0.75523472,-0.61440003,0
-0.869317,-0.869317,1.0239999,-0.5433231,-0.5433231,0.63999993,0
0,-1.536,-0.44800007,0,-0.95999998,-0.28000003,0
-0.55296016,0.92160016,-1.1852798,-0.3456001,0.57600009,-0.7407999,0
1.1320181,1.0291072,0.4684799,0.70751131,0.64319199,0.29279992,0
-0.4809514,1.389415,0.63104004,-0.30059463,0.86838436,0.39440003,0
0.73428273,-1.3112193,0.54912007,0.45892671,-0.81951207,0.34320003,0
0.90048254,-0.92953032,-0.94079995,0.5628016,-0.58095646,-0.58799994,0
-1.0794355,0.73856109,0.92160004,-0.67464715,0.46160069,0.57600003,0
1.5049666,0.4013243,0.36607996,0.94060415,0.25082767,0.22879997,0
1.2671158,0.32414597,-0.9216001,0.79194736,0.20259123,-0.57600003,0
-1.2530409,0.34173843,0.93440002,-0.78315055,0.21358652,0.58399999,0
0.83471113,-1.3618971,-0.092160009,0.52169442,-0.85118568,-0.057600006,0
-0.91558039,0.061038632,1.31072,-0.57223773,0.038149145,0.81919998,0
1.2289834,0.9831866,0.28800008,0.76811463,0.61449164,0.18000005,0
0.88221925,0.66762531,-1.1558398,0.55138701,0.4172658,-0.72239989,0
-0.96972477,0.85563946,0.94208014,-0.60607797,0.53477466,0.58880007,0
1.0008488,-0.94524592,0.81536001,0.62553048,-0.59077871,0.50959998,0
0.43619648,-0.5608241,1.4336001,0.27262279,-0.35051507,0.89600003,0
0.3812252,0,1.55392,0.23826575,0,0.97119999,0
0.98937869,1.1455965,0.51839983,0.61836165,0.71599782,0.32399988,0
1.3763721,-0.27527449,0.76800001,0.86023253,-0.17204656,0.47999999,0
0.51260769,-1.1676064,-0.96640003,0.32037979,-0.72975397,-0.60400003,0
1.2615556,-0.17203029,0.96895987,0.78847224,-0.10751893,0.60559988,0
-1.2790487,0.46794459,-0.8396799,-0.7994054,0.29246536,-0.52479994,0
-1.3379828,-0.42423841,-0.76799995,-0.83623922,-0.265149,-0.47999996,0
1.1992611,-0.99938411,0.35072002,0.74953818,-0.62461507,0.21920002,0
1.4541516,-0.65671355,0.11904003,0.90884477,-0.41044596,0.074400023,0
-0.82301515,-1.3716919,0.033279877,-0.51438445,-0.85730737,0.020799922,0
-0.49415299,-0.45297354,-1.4528,-0.30884561,-0.28310847,-0.90799999,0
1.4516859,-0.62215108,-0.25600025,0.90730369,-0.38884443,-0.16000016,0
0,1.255363,-0.99199986,0,0.78460187,-0.61999989,0
1.3961743,0.42959204,0.65280008,0.87260896,0.26849502,0.40800005,0
-0.10438081,0.98117948,-1.2595204,-0.065238006,0.61323714,-0.78720027,0
-0.97583526,1.1812744,0.4607999,-0.60989702,0.73829651,0.28799993,0
-0.48594168,-1.2452255,-0.87935996,-0.30371353,-0.77826595,-0.54959995,0
0,-1.337526,-0.87808001,0,-0.83595371,-0.54879999,0
-0.94130057,-1.1585238,-0.57599992,-0.58831286,-0.72407734,-0.35999995,0
0.43987688,1.515132,0.26624006,0.27492303,0.94695741,0.16640003,0
0.74492002,-0.10863415,-1.4118402,0.46557501,-0.067896344,-0.8824001,0
-0.00073484692,0.00021433033,-1.5999998,-0.00045927931,0.00013395645,-0.99999988,0
0.6110577,-0.67216343,1.31712,0.38191107,-0.42010215,0.82319999,0
1.1087962,0.76999736,-0.85888016,0.69299763,0.48124835,-0.53680009,0
-0.83251494,0.97605181,-0.95615995,-0.52032185,0.61003238,-0.59759998,0
-1.3841618,0.11073285,0.79488003,-0.86510116,0.069208026,0.49680001,0
-0.93586999,-0.13938488,-1.29024,-0.58491874,-0.087115549,-0.8064,0
-1.0792609,0.85706013,-0.81279993,-0.67453808,0.53566259,-0.50799996,0
0.46345913,-1.5294147,0.07808008,0.28966194,-0.95588416,0.048800051,0
-1.2734288,0.55366486,0.79488003,-0.79589301,0.34604055,0.49680001,0
-0.69214749,1.2804729,-0.66431999,-0.43259218,0.80029553,-0.4152,0
0.71127343,-0.36390734,-1.3862401,0.44454589,-0.22744209,-0.86640006,0
1.3504443,-0.21983974,-0.82944006,0.8440277,-0.13739984,-0.51840001,0
0.43577179,-1.3617871,0.71808004,0.27235737,-0.8511169,0.44880003,0
-1.0579182,1.0226543,-0.62848026,-0.66119885,0.6391589,-0.39280015,0
-1.4787817,-0.18033928,-0.58367997,-0.92423862,-0.11271206,-0.36480001,0
0.77850968,-0.73271501,-1.1903998,0.48656854,-0.45794687,-0.74399984,0
0.54795361,1.4481633,-0.4032,0.342471,0.90510201,-0.252,0
-1.5750315,-0.21284215,-0.18432006,-0.98439467,-0.13302635,-0.11520004,0
1.5051243,0.44746944,-0.3072001,0.94070268,0.27966839,-0.19200006,0
1.4495275,-0.10353768,-0.66944021,0.90595466,-0.064711049,-0.41840014,0
-0.88680995,-1.3302151,-0.064000033,-0.5542562,-0.83138442,-0.040000021,0
0.55223936,0.67495954,1.3414401,0.34514961,0.4218497,0.83840007,0
0.5655368,0.18851215,1.4848001,0.35346049,0.11782009,0.92800003,0
1.4959351,-0.34521583,-0.45055988,0.93495941,-0.21575989,-0.28159991,0
-0.83726865,-0.65785408,1.19424,-0.5232929,-0.4111588,0.7464,0
-1.1278884,1.1278884,0.12543988,-0.70493031,0.70493031,0.078399934,0
-0.20549886,-1.5617909,-0.28031996,-0.12843679,-0.97611934,-0.17519997,0
0.9064014,0.15428105,-1.3094404,0.56650084,0.096425653,-0.8184002,0
-1.4803796,-0.29607597,-0.5299201,-0.92523724,-0.18504748,-0.33120006,0
0.29143554,-1.5543227,0.24320006,0.1821472,-0.9714517,0.15200004,0
-0.19161563,-0.063871808,1.5872,-0.11975977,-0.039919879,0.99200004,0
0.41242632,1.4622386,-0.50175989,0.25776646,0.91389906,-0.31359991,0
-0.34574223,-1.5558399,-0.14080016,-0.21608889,-0.97239995,-0.088000104,0
-1.2977269,-0.91321522,0.20480014,-0.81107926,-0.57075948,0.12800008,0
0.1910374,0.25471693,1.5680001,0.11939838,0.15919808,0.98000002,0
-0.93350101,-1.1948812,-0.51071995,-0.5834381,-0.74680072,-0.31919998,0
0.064484507,-1.0102583,-1.23904,0.040302813,-0.63141137,-0.77439994,0
-0.055054855,-0.53953749,-1.5052801,-0.034409285,-0.33721092,-0.94080007,0
-1.5470128,-0.33448932,-0.23424007,-0.966883,-0.20905583,-0.14640003,0
-1.4824588,0.53533232,-0.27520013,-0.92653674,0.33458269,-0.17200008,0
0.38797933,-1.3302151,0.79999995,0.24248707,-0.83138442,0.49999997,0
-0.71982217,-1.0653368,-0.95232004,-0.44988886,-0.6658355,-0.5952,0
-0.90850705,-0.36340281,1.26592,-0.56781691,-0.22712676,0.79120004,0
1.2062328,-0.66660237,-0.81279999,0.75389546,-0.41662648,-0.50799996,0
0.48464516,0.84812915,1.2672001,0.30290321,0.53008074,0.79200006,0
0.60091889,0.84128618,1.22112,0.37557429,0.52580386,0.76319999,0
-1.4948997,-0.56058741,0.10496005,-0.93431234,-0.35036713,0.06560003,0
-0.81096661,-1.3178208,0.40704009,-0.50685412,-0.82363796,0.25440004,0
-0.45762104,1.4745567,0.41983983,-0.28601316,0.9215979,0.26239988,0
-0.16316843,-0.28064972,-1.5667201,-0.10198027,-0.17540607,-0.97920007,0
0.99938411,1.1992611,0.35072002,0.62461507,0.74953818,0.21920002,0
-1.2610502,-0.9356178,-0.30719995,-0.78815639,-0.58476114,-0.19199997,0
0.12725532,-0.31813866,1.56288,0.079534575,-0.19883665,0.97680002,0
-0.56612337,-0.12580526,1.4912,-0.35382709,-0.078628287,0.93199998,0
1.0042659,-0.53167015,1.1264,0.62766618,-0.33229384,0.704,0
-0.97015554,0,1.27232,-0.6063472,0,0.79519999,0
-0.50539738,-1.4656526,0.39551985,-0.31587335,-0.91603285,0.24719991,0
0,-1.255363,-0.99199986,0,-0.78460187,-0.61999989,0
-0.30733338,0.7990666,1.35168,-0.19208336,0.49941662,0.8448,0
0.7352528,-1.354413,-0.43007994,0.45953301,-0.84650815,-0.26879996,0
-0.49782419,0.060958065,-1.5193602,-0.31114012,0.03809879,-0.9496001,0
-0.29634976,1.1853988,-1.0329601,-0.1852186,0.74087423,-0.64560002,0
-0.66121638,-1.4546759,-0.081919886,-0.41326022,-0.90917242,-0.051199928,0
0.56653571,1.1897246,0.90752006,0.35408482,0.74357784,0.56720001,0
-0.71195507,1.4239101,0.15999989,-0.44497192,0.88994384,0.099999934,0
0.043027762,1.5920289,-0.15360005,0.026892351,0.99501801,-0.096000031,0
-0.33714071,0.56639642,-1.4579202,-0.21071294,0.35399777,-0.91120011,0
-0.90850705,-0.36340281,1.26592,-0.56781691,-0.22712676,0.79120004,0
0.93330324,-0.7733084,-1.0444804,0.58331454,-0.48331773,-0.65280026,0
-0.16118856,1.4506968,0.65536016,-0.10074285,0.90668553,0.40960011,0
-0.2289734,1.2593535,-0.96000004,-0.14310837,0.78709596,-0.60000002,0
0.5016554,-0.37624165,1.472,0.31353462,-0.23515104,0.92000002,0
0.063666269,0.31833172,1.56672,0.039791416,0.19895732,0.97920001,0
-0.60793632,0.32517526,-1.4438403,-0.37996021,0.20323454,-0.90240014,0
1.1897246,0.56653571,0.90752006,0.74357784,0.35408482,0.56720001,0
-1.176288,0.67216456,0.85119992,-0.73518002,0.42010283,0.53199995,0
0.30552888,0.85548055,1.3171201,0.19095555,0.53467536,0.82320005,0
1.495434,0.30940011,0.47743985,0.93464625,0.19337507,0.2983999,0
-0.33714071,0.56639642,-1.4579202,-0.21071294,0.35399777,-0.91120011,0
0.47961581,-0.60751331,-1.4003201,0.29975986,-0.3796958,-0.87520003,0
1.1455965,-0.98937869,0.51839983,0.71599782,-0.61836165,0.32399988,0
0.62089604,-0.012671336,-1.4745601,0.38806003,-0.0079195844,-0.9216001,0
-0.7532177,1.0042903,-0.99200004,-0.47076106,0.62768143,-0.62,0
-0.17065336,-1.4334879,-0.68992019,-0.10665835,-0.89592993,-0.43120012,0
0.29483089,1.375878,-0.76160014,0.18426931,0.85992372,-0.47600007,0
-0.80183393,0.18503843,1.3721601,-0.5011462,0.11564902,0.85760003,0
-0.2379562,0.91216534,-1.2927998,-0.14872262,0.57010335,-0.80799991,0
0.063356705,0.44349733,1.536,0.03959794,0.27718583,0.95999998,0
0.69709486,1.2869444,0.64639997,0.43568429,0.80434024,0.40399998,0
-0.70636749,1.2497272,0.7065599,-0.44147968,0.78107953,0.44159994,0
-0.74249154,1.2728426,-0.62336016,-0.46405721,0.79552662,-0.3896001,0
-0.62706935,0,1.472,-0.39191833,0,0.92000002,0
-0.68327785,-1.4067487,-0.33791989,-0.42704865,-0.87921792,-0.21119992,0
1.2822891,-0.64114457,-0.71039993,0.80143076,-0.40071538,-0.44399998,0
1.3841618,-0.11073301,0.79488003,0.86510116,-0.06920813,0.49680001,0
0.71982217,-1.0653368,-0.95232004,0.44988886,-0.6658355,-0.5952,0
0.13274395,-1.592929,-0.070400111,0.082964972,-0.99558061,-0.044000071,0
0.68660766,0.062418811,1.44384,0.42912978,0.039011758,0.90240002,0
1.1620102,-0.72233063,-0.82944,0.72625637,-0.45145664,-0.51840001,0
-0.86895239,-0.5793016,-1.2121598,-0.54309529,-0.36206353,-0.75759989,0
0.11605009,1.218527,1.0304002,0.072531305,0.76157933,0.64400011,0
1.136614,-0.460058,-1.0278401,0.71038371,-0.28753623,-0.64240009,0
0.44277266,0.18975955,1.5257601,0.27673289,0.11859972,0.95360005,0
-0.44031811,0.37741557,1.4912001,-0.27519882,0.23588473,0.93200004,0
-0.76362914,-0.88111061,1.09568,-0.47726822,-0.55069411,0.68479997,0
0.45737386,1.2006065,0.95360017,0.28585866,0.75037903,0.59600008,0
-0.99764079,-0.08490558,-1.248,-0.6235255,-0.053065985,-0.78000003,0
-0.23142169,-1.2149642,1.0150399,-0.14463855,-0.75935256,0.63439995,0
-0.16399489,-1.0776808,-1.1712002,-0.10249681,-0.67355049,-0.73200011,0
0.012671336,0.62089604,-1.4745601,0.0079195844,0.38806003,-0.9216001,0
0.64114457,-1.2822891,-0.71039993,0.40071538,-0.80143076,-0.44399998,0
-1.5543227,0.29143554,0.24320006,-0.9714517,0.1821472,0.15200004,0
-1.0625913,-0.41322988,1.12256,-0.66411954,-0.25826868,0.70160002,0
0.16359466,1.4178218,0.72320008,0.10224666,0.88613862,0.45200005,0
0.4519307,-0.66952699,-1.38112,0.2824567,-0.41845438,-0.86319995,0
-1.066767,1.1175655,0.4159998,-0.66672927,0.6984784,0.25999984,0
-1.4111894,0.74969447,-0.080640018,-0.88199341,0.46855903,-0.050400011,0
0.48095125,1.3894151,0.63104016,0.30059454,0.86838448,0.39440009,0
1.4077674,0.42233026,-0.63231981,0.87985456,0.2639564,-0.39519984,0
-1.4395391,-0.31989762,0.62080014,-0.89971191,-0.19993602,0.38800007,0
0.93729734,0.41415465,-1.2288001,0.58581084,0.25884664,-0.76800001,0
0.67583883,1.1166031,-0.92544007,0.42239925,0.69787693,-0.57840002,0
0.7880581,-1.3687325,-0.25599986,0.49253631,-0.85545778,-0.15999991,0
0.60793632,0.32517526,-1.4438403,0.37996021,0.20323454,-0.90240014,0
1.0385906,0.69239366,1.00096,0.64911908,0.43274602,0.62559998,0
-0.51610827,1.4689237,-0.36864004,-0.32256767,0.91807729,-0.23040003,0
1.042709,-1.0948446,0.52352005,0.65169311,-0.68427783,0.32720003,0
-1.5283008,0.20377353,0.42751989,-0.95518798,0.12735845,0.26719993,0
-1.1976177,1.0594311,0.057599951,-0.74851102,0.66214442,0.035999969,0
-1.1706228,0.17559326,1.0764802,-0.73163921,0.10974578,0.6728,0
1.5349671,0.45146105,-0.0076798331,0.9593544,0.28216314,-0.0047998955,0
1.4328513,-0.64231259,0.30719987,0.89553207,-0.40144536,0.19199991,0
-0.87619525,-1.3373507,0.061439853,-0.54762203,-0.83584422,0.038399909,0
0.063781969,0.25512826,1.57824,0.039863732,0.15945517,0.98640001,0
0.24210295,0.74244916,-1.3964797,0.15131435,0.46403071,-0.87279981,0
1.3313693,-0.63905728,0.61567998,0.83210582,-0.39941078,0.38479999,0
1.5839192,-0.22627421,-2.2888185e-07,0.98994946,-0.14142138,-1.4305115e-07,0
-0.87199759,-0.40558025,-1.27872,-0.54499847,-0.25348765,-0.7992,0
0.96603966,1.2558516,0.22272013,0.60377479,0.78490728,0.13920008,0
1.4021487,-0.55347979,-0.53631997,0.87634295,-0.34592485,-0.33519998,0
0.65451449,-1.3453908,-0.56704009,0.40907156,-0.84086925,-0.35440004,0
0.12193622,0.5320853,-1.5040003,0.076210134,0.3325533,-0.94000018,0
0.062941588,-0.56647485,1.4950401,0.039338492,-0.35404679,0.93440002,0
0.70976537,0.64892828,-1.2787201,0.44360337,0.40558016,-0.79920006,0
0.46386185,1.4688958,-0.43263999,0.28991365,0.91805989,-0.27039999,0
-0.75498295,-1.2403293,0.67200011,-0.47186434,-0.77520579,0.42000008,0
-0.49558157,-1.4486231,-0.46463993,-0.30973849,-0.90538943,-0.29039994,0
-1.2287999,0.92160004,-0.44800001,-0.76799995,0.57600003,-0.28,0
-0.49786937,0.32786518,-1.4847999,-0.31116834,0.20491573,-0.92799991,0
-0.28237817,-0.11663445,-1.5705601,-0.17648636,-0.072896533,-0.98160005,0
-1.2500662,-0.055558525,-0.9971199,-0.78129137,-0.034724079,-0.62319994,0
-0.58610028,-1.4652506,0.26367989,-0.36631268,-0.91578162,0.16479993,0
0.5978573,1.4448218,0.33919984,0.3736608,0.90301365,0.21199989,0
-0.98543698,-0.46925566,-1.1699201,-0.61589807,-0.29328477,-0.73120004,0
-1.5472908,-0.33846983,0.22656007,-0.96705675,-0.21154365,0.14160004,0
0.46645412,1.1078287,1.0560001,0.29153383,0.69239295,0.66000009,0
1.5661155,-0.32243553,0.057600241,0.97882217,-0.2015222,0.036000151,0
0.12766665,-0.19150016,1.5833601,0.079791658,-0.11968759,0.98960006,0
1.5349672,-0.45146093,-0.0076797567,0.95935446,-0.28216308,-0.004799848,0
-1.0109634,-1.2215809,-0.21376023,-0.63185209,-0.76348799,-0.13360013,0
0.049903553,1.1477828,-1.1135998,0.031189721,0.71736425,-0.69599986,0
-0.30940011,1.495434,0.47743985,-0.19337507,0.93464625,0.2983999,0
-0.18279369,-0.91396844,1.30048,-0.11424606,-0.57123029,0.81279999,0
0.12475885,0.68617439,1.4399999,0.077974275,0.428859,0.89999998,0
-0.43775809,0.50029492,1.4553601,-0.27359879,0.31268433,0.90960002,0
-0.83768934,-1.3304478,0.2969602,-0.52355582,-0.83152986,0.18560013,0
-1.53552,0.05118395,0.44671991,-0.95969999,0.031989969,0.27919993,0
-1.0321594,0.93539459,-0.78720009,-0.64509964,0.58462161,-0.49200004,0
1.165742,1.068597,0.24319978,0.72858876,0.66787308,0.15199986,0
0.71195495,1.4239101,0.16,0.44497183,0.88994384,0.099999994,0
-0.7880581,-1.3687325,-0.25599986,-0.49253631,-0.85545778,-0.15999991,0
1.0857563,1.1259694,-0.33663967,0.67859769,0.70373088,-0.21039979,0
1.5861106,0.048063915,0.20480014,0.99131912,0.030039947,0.12800008,0
1.0539383,1.132008,-0.40960002,0.65871143,0.70750499,-0.25600001,0
1.1585238,0.94130057,-0.57599992,0.72407734,0.58831286,-0.35999995,0
0.91314179,-0.91314161,0.94463992,0.57071358,-0.57071352,0.59039992,0
0.44369876,0.34130678,-1.49888,0.27731171,0.21331674,-0.9368,0
-0.23795605,-1.0708025,1.1648,-0.14872253,-0.6692515,0.72800004,0
0.39327487,0.2851243,-1.52448,0.2457968,0.17820269,-0.95279998,0
-1.2801203,0.39622766,-0.87424016,-0.80007517,0.24764228,-0.54640007,0
1.2287999,-0.92160004,-0.44800001,0.76799995,-0.57600003,-0.28,0
-0.15428118,-0.90640181,-1.30944,-0.096425742,-0.56650114,-0.81840003,0
1.3831198,0.80310184,-0.044800054,0.86444986,0.50193864,-0.028000034,0
-1.2301552,-0.80227524,0.63488007,-0.76884699,-0.50142199,0.39680004,0
-1.5075771,0.53208601,-0.064000048,-0.94223565,0.33255374,-0.040000029,0
0.74158746,-0.30899483,1.38368,0.46349216,-0.19312176,0.86479998,0
-0.16694055,0.87180072,-1.3312004,-0.10433785,0.54487544,-0.8320002,0
1.0732478,1.1558052,-0.26879972,0.67077988,0.72237831,-0.16799983,0
0.44349703,-0.063356712,-1.5360001,0.27718565,-0.039597943,-0.9600001,0
0.55347973,1.4021488,-0.53631985,0.34592482,0.87634301,-0.33519989,0
0.60207653,-0.93923932,-1.1468799,0.37629783,-0.58702457,-0.71679991,0
0.90596795,-1.2604769,-0.38784006,0.56622994,-0.78779811,-0.24240004,0
-0.3458606,1.5316685,0.30719998,-0.21616288,0.95729285,0.19199999,0
1.199623,-0.96743786,-0.43008003,0.74976438,-0.60464865,-0.26880002,0
0.48793682,1.3553804,0.69632006,0.30496052,0.84711277,0.43520004,0
-0.23484769,-1.4090863,-0.72064018,-0.14677981,-0.88067895,-0.45040011,0
-1.0685968,1.165742,0.24319994,-0.66787302,0.72858876,0.15199997,0
0.12697175,-0.38091564,1.5488,0.079357341,-0.23807228,0.96799999,0
1.3422818,0.55067986,-0.67455995,0.83892614,0.34417492,-0.42159995,0
1.2011961,-0.61599797,-0.8588798,0.75074756,-0.38499874,-0.53679985,0
0.77371526,-0.77371526,1.1673601,0.48357204,-0.48357204,0.72960001,0
1.0745142,0.059695169,1.184,0.67157131,0.037309479,0.74000001,0
-0.85563958,-0.96972477,0.94208002,-0.53477472,-0.60607797,0.58880001,0
-0.6079663,0.7295596,1.28768,-0.37997892,0.45597476,0.80480003,0
1.1853988,0.29634976,-1.0329601,0.74087423,0.1852186,-0.64560002,0
0.39281192,-1.2906679,0.86016011,0.24550745,-0.80666745,0.53760004,0
0.29607585,-1.4803797,-0.52992004,0.1850474,-0.9252373,-0.33120003,0
-1.4506968,-0.16118856,0.65536016,-0.90668553,-0.10074285,0.40960011,0
1.330784,0.76775986,0.44672015,0.83173996,0.4798499,0.27920008,0
-0.46167904,0.92335808,-1.2224002,-0.28854939,0.57709879,-0.76400012,0
-0.85961127,-1.3371731,0.18175997,-0.53725702,-0.83573318,0.11359998,0
-0.76933211,-1.4028999,3.8146972e-08,-0.48083258,-0.8768124,2.3841856e-08,0
-0.60793632,0.32517526,-1.4438403,-0.37996021,0.20323454,-0.90240014,0
-0.50008535,-1.5002561,-0.24320015,-0.31255335,-0.93766004,-0.1520001,0
1.3112193,0.73428273,0.54912007,0.81951207,0.45892671,0.34320003,0
1.3584896,0.47547138,-0.69887972,0.84905601,0.2971696,-0.43679982,0
0.7295596,-0.6079663,1.28768,0.45597476,-0.37997892,0.80480003,0
-0.11605027,1.218527,1.0304002,-0.072531417,0.76157933,0.64400011,0
1.0082656,0.4744778,1.14816,0.63016599,0.2965486,0.71759999,0
-1.0117815,-0.41661587,1.1673601,-0.63236338,-0.26038492,0.72960001,0
0.29607585,-1.4803797,-0.52992004,0.1850474,-0.9252373,-0.33120003,0
-1.3332045,-0.34917265,-0.81280023,-0.83325279,-0.2182329,-0.50800014,0
-0.44305053,0.11076264,-1.5334399,-0.27690658,0.069226652,-0.95839989,0
-0.70723081,0.87794167,-1.1353604,-0.44201925,0.54871351,-0.70960021,0
0.44031811,-0.37741557,1.4912001,0.27519882,-0.23588473,0.93200004,0
1.4652506,-0.58610028,0.26367989,0.91578162,-0.36631268,0.16479993,0
-0.11605027,1.218527,1.0304002,-0.072531417,0.76157933,0.64400011,0
0.049903553,1.1477828,-1.1135998,0.031189721,0.71736425,-0.69599986,0
0.25399217,1.5239528,0.41599989,0.15874511,0.95247054,0.25999993,0
0.17689942,0.8314271,-1.3555204,0.11056214,0.51964194,-0.84720021,0
-0.2379562,0.91216534,-1.2927998,-0.14872262,0.57010335,-0.80799991,0
-0.10969234,-1.2340389,-1.0124799,-0.068557709,-0.77127433,-0.63279992,0
-0.29483098,-1.3758779,-0.7616002,-0.18426935,-0.85992366,-0.47600013,0
0.1609139,1.2068541,-1.0380799,0.10057119,0.75428379,-0.6487999,0
-1.1155977,1.1155977,-0.26623973,-0.69724858,0.69724858,-0.16639984,0
-0.9997766,0.58810407,1.10208,-0.62486035,0.36756504,0.68879998,0
-0.15673617,-0.33586317,-1.5564799,-0.0979601,-0.20991448,-0.97279996,0
-0.58810389,-0.99977666,1.1020801,-0.36756492,-0.62486041,0.68880004,0
1.2671158,0.32414597,-0.9216001,0.79194736,0.20259123,-0.57600003,0
-0.57798767,-1.0981766,1.00992,-0.36124229,-0.68636036,0.63120002,0
0.30450818,1.5660422,-0.12160012,0.19031762,0.97877634,-0.076000072,0
0.34130678,-0.44369876,-1.49888,0.21331674,-0.27731171,-0.9368,0
-0.041575339,1.5798644,-0.24959995,-0.025984587,0.98741525,-0.15599996,0
-0.50374109,0.25187057,-1.4976002,-0.31483817,0.1574191,-0.93600011,0
0.44869429,1.1778224,-0.98560029,0.28043392,0.73613894,-0.61600018,0
1.1685846,0.72340953,0.81920016,0.73036534,0.45213094,0.51200008,0
1.1193379,0.33071348,-1.0943999,0.69958621,0.20669593,-0.68399996,0
1.0102578,-0.064484537,-1.2390404,0.63141114,-0.040302835,-0.77440023,0
0.54946882,0.73262537,1.312,0.343418,0.45789084,0.81999999,0
1.4197733,0.10921323,0.72960007,0.88735831,0.068258271,0.45600003,0
-0.63905728,1.3313693,0.61567998,-0.39941078,0.83210582,0.38479999,0
-1.4355005,-0.6755296,-0.20736001,-0.89718783,-0.42220598,-0.1296,0
-1.4212974,0.73357302,0.042239875,-0.88831091,0.45848313,0.026399922,0
-1.1259694,1.0857562,-0.33663988,-0.70373088,0.67859763,-0.21039993,0
1.4481548,-0.3620387,-0.57599974,0.90509677,-0.22627419,-0.35999984,0
0.9462949,1.2451249,0.33792001,0.5914343,0.77820307,0.2112,0
-0.44322571,0.12663582,1.53216,-0.27701607,0.079147384,0.9576,0
-1.4355004,0.67552972,-0.20736015,-0.89718771,0.42220607,-0.12960009,0
0.98930264,0.69833124,1.0457599,0.61831415,0.43645701,0.65359992,0
-0.78654927,-1.3371339,-0.39167997,-0.4915933,-0.83570868,-0.24479999,0
-1.4256799,-0.31295413,-0.65535998,-0.89104992,-0.19559632,-0.40959999,0
-0.87619525,-1.3373507,0.061439853,-0.54762203,-0.83584422,0.038399909,0
-0.16012798,-1.3771003,-0.79872012,-0.10007999,-0.86068773,-0.49920008,0
-1.2288001,-0.92160004,0.44799992,-0.76800001,-0.57600003,0.27999994,0
1.2492695,0.41642308,-0.90880013,0.78079343,0.26026443,-0.56800008,0
0.253178,1.2377595,-0.98175991,0.15823625,0.77359968,-0.61359996,0
-1.1275979,1.1275979,-0.13055988,-0.70474869,0.70474869,-0.081599921,0
1.5122972,-0.3528693,0.38527992,0.94518572,-0.22054331,0.24079995,0
1.2403294,-0.75498295,0.67199993,0.77520585,-0.47186434,0.41999996,0
-0.43775809,-0.5002951,1.4553601,-0.27359879,-0.31268445,0.90960002,0
0.77817577,-0.71831614,1.19936,0.48635986,-0.44894758,0.74959999,0
-0.2075337,1.5046198,0.50303984,-0.12970856,0.94038737,0.3143999,0
0.2624718,-1.5748308,-0.10496014,0.16404487,-0.9842692,-0.065600082,0
-0.38604894,1.5441958,-0.16256014,-0.24128059,0.96512234,-0.10160008,0
0.63213068,-0.80651152,-1.2288002,0.39508167,-0.50406969,-0.76800013,0
-1.1275979,1.1275979,-0.13055988,-0.70474869,0.70474869,-0.081599921,0
-1.536,0,0.44799992,-0.95999998,0,0.27999994,0
0.59695244,0.89542824,1.184,0.37309527,0.55964261,0.74000001,0
0.75080931,-1.4077673,0.12031981,0.46925581,-0.87985456,0.07519988,0
-1.5223554,-0.27324328,-0.40959984,-0.95147216,-0.17077705,-0.25599989,0
-0.073083438,1.4982097,-0.55680031,-0.045677148,0.93638104,-0.3480002,0
1.314062,0.27503616,-0.87040001,0.82128876,0.17189759,-0.54399997,0
-0.65567994,1.2457919,-0.76031989,-0.40979996,0.77861995,-0.47519994,0
0.11985619,1.3184174,-0.89855999,0.074910119,0.82401091,-0.56159997,0
-0.89714223,1.1842277,-0.59391987,-0.56071389,0.74014229,-0.37119991,0
0.90553117,0.96212679,0.90239984,0.56595695,0.60132921,0.56399989,0
-1.5114725,-0.052119687,0.52223986,-0.94467026,-0.032574803,0.32639992,0
-1.5822291,-0.21975408,-0.090880148,-0.98889321,-0.1373463,-0.056800094,0
0.69292587,0.94956517,-1.0854399,0.43307868,0.5934782,-0.67839992,0
-0.11462257,1.5283008,-0.45951977,-0.071639106,0.95518798,-0.28719985,0
-0.66615075,0.23170465,-1.4361602,-0.41634423,0.1448154,-0.89760011,0
0.50446934,-0.18917604,1.5065601,0.31529334,-0.11823502,0.94160002,0
0.38604882,1.5441958,-0.16256008,0.24128051,0.96512234,-0.10160004,0
-0.78200358,-1.3902285,-0.12543997,-0.48875225,-0.86889279,-0.078399979,0
0.90280831,0.48149773,1.2300801,0.56425518,0.30093607,0.76880008,0
0.14030446,1.5901186,0.10880025,0.087690286,0.99382412,0.06800016,0
1.1699466,1.083284,-0.13311987,0.73121661,0.6770525,-0.083199918,0
1.5896111,-0.18166979,0.011519795,0.99350691,-0.11354361,0.0071998718,0
-0.1609139,-1.2068541,-1.0380799,-0.10057119,-0.75428379,-0.6487999,0
1.1677327,-0.20759696,-1.0739199,0.72983295,-0.12974809,-0.67119992,0
-1.4562609,0.2486299,-0.61439997,-0.91016304,0.15539369,-0.38399997,0
0.33846983,-1.5472908,0.22656007,0.21154365,-0.96705675,0.14160004,0
0.95397198,0.95397198,0.86015987,0.59623247,0.59623247,0.53759992,0
-1.1194901,-0.94456977,-0.64383984,-0.69968134,-0.59035611,-0.4023999,0
0.98029113,1.2603743,0.10240025,0.61268193,0.78773391,0.064000152,0
0.71831614,0.77817577,1.19936,0.44894758,0.48635986,0.74959999,0
-0.41401219,-1.0472075,-1.1366401,-0.25875762,-0.65450466,-0.71040004,0
-1.0588378,0.76471615,-0.92416006,-0.66177362,0.47794759,-0.5776,0
-1.2441494,-0.45241806,0.89855999,-0.77759337,-0.28276128,0.56159997,0
1.1275979,-1.1275979,-0.13055988,0.70474869,-0.70474869,-0.081599921,0
1.0210984,-0.18019383,1.21856,0.63818645,-0.11262114,0.76159996,0
0.371813,1.4341359,0.60416013,0.23238312,0.89633495,0.37760007,0
-0.66615075,0.23170465,-1.4361602,-0.41634423,0.1448154,-0.89760011,0
-0.16359483,-1.4178218,0.72320008,-0.10224677,-0.88613862,0.45200005,0
-0.92023367,0.86271894,0.9843201,-0.57514602,0.53919935,0.61520004,0
0.44349703,0.063356712,-1.5360001,0.27718565,0.039597943,-0.9600001,0
-0.49269202,0.67745149,1.3631999,-0.3079325,0.42340717,0.85199994,0
0.82581347,1.2762569,-0.49919993,0.51613343,0.79766059,-0.31199995,0
-1.4090863,0.23484769,-0.72064018,-0.88067895,0.14677981,-0.45040011,0
-0.28478205,1.5663011,0.16000015,-0.17798878,0.97893816,0.10000009,0
1.2593535,0.22897333,-0.95999998,0.78709596,0.14310832,-0.59999996,0
-1.065649,0.67304152,-0.98560005,-0.66603065,0.42065096,-0.616,0
0.1253092,-0.62654656,1.4668801,0.078318246,-0.39159161,0.91680002,0
0.85133725,0.035472352,-1.3542403,0.53208578,0.02217022,-0.8464002,0
0.2433483,0.91255552,1.2915201,0.15209268,0.57034719,0.80720007,0
-0.50280392,0.31425247,1.4860799,-0.31425244,0.19640779,0.92879993,0
1.539137,-0.38478434,0.20736003,0.96196061,-0.24049021,0.12960002,0
1.3562777,0.84182751,0.10879981,0.84767354,0.52614218,0.067999877,0
-0.93729734,-0.41415465,-1.2288001,-0.58581084,-0.25884664,-0.76800001,0
1.457481,-0.034701895,-0.65920019,0.91092563,-0.021688685,-0.41200012,0
-0.72124809,-0.32784,-1.39008,-0.45078006,-0.2049,-0.86879998,0
0.15598162,-0.48874247,-1.5155199,0.097488508,-0.30546403,-0.94719988,0
0.95248532,0.53577274,1.16864,0.5953033,0.33485797,0.73040003,0
-0.88221925,0.66762531,-1.1558398,-0.55138701,0.4172658,-0.72239989,0
-0.96212661,0.90553117,0.90239996,-0.60132915,0.56595695,0.56399995,0
-1.3677206,-0.81208414,-0.17279993,-0.85482538,-0.50755256,-0.10799996,0
-1.1585238,-0.94130057,-0.57599992,-0.72407734,-0.58831286,-0.35999995,0
-0.096025653,-1.5844223,0.20096014,-0.060016032,-0.99026394,0.12560008,0
-0.62063503,-0.43444449,1.4092801,-0.3878969,-0.2715278,0.88080001,0
0.98841208,-1.2579788,-0.02304017,0.61775756,-0.78623676,-0.014400106,0
1.5049666,-0.22574501,-0.49407977,0.94060415,-0.14109063,-0.30879986,0
-0.85563958,0.96972489,0.9420799,-0.53477472,0.60607803,0.58879995,0
-0.2075337,1.5046198,0.50303984,-0.12970856,0.94038737,0.3143999,0
0.71051413,1.3815553,-0.38272026,0.44407132,0.86347204,-0.23920016,0
-0.92160004,1.2288001,0.44799992,-0.57600003,0.76800001,0.27999994,0
0.98359483,1.1293126,-0.56319988,0.61474675,0.70582038,-0.35199991,0
0.21490279,1.4685025,-0.59776026,0.13431424,0.91781408,-0.37360016,0
-1.4959351,-0.34521583,-0.45055988,-0.93495941,-0.21575989,-0.28159991,0
0.40170386,-1.2051117,0.97279996,0.2510649,-0.75319481,0.60799998,0
-1.1976177,-1.0594311,0.057600126,-0.74851102,-0.66214442,0.036000077,0
0.22897348,1.2593536,0.95999986,0.14310843,0.78709602,0.5999999,0
-0.17647298,1.2941351,-0.92416,-0.11029561,0.80883443,-0.5776,0
-1.3815553,0.71051419,-0.38271999,-0.86347204,0.44407135,-0.2392,0
1.0737728,0.11930797,1.18016,0.67110801,0.074567482,0.73760003,0
-0.49808943,-0.76629144,-1.31328,-0.31130588,-0.47893214,-0.82080001,0
0.87180084,0.16694053,-1.3312004,0.5448755,0.10433783,-0.8320002,0
-0.15673617,0.33586317,-1.5564799,-0.0979601,0.20991448,-0.97279996,0
1.1332881,-1.0199592,-0.48511997,0.70830506,-0.63747448,-0.30319998,0
1.218527,-0.11605027,1.0304002,0.76157933,-0.072531417,0.64400011,0
1.0030488,0.97069246,-0.78208011,0.6269055,0.60668278,-0.48880008,0
-1.4738042,-0.26317939,0.56448001,-0.92112762,-0.16448712,0.35280001,0
-1.1022041,-1.1022041,0.36096001,-0.68887758,-0.68887758,0.22560002,0
0.93022013,-1.2729328,0.27264008,0.58138758,-0.79558295,0.17040005,0
-1.409656,-0.65448314,0.38016,-0.88103503,-0.40905195,0.2376,0
-0.37624165,-0.50165558,1.472,-0.23515104,-0.31353474,0.92000002,0
1.2409916,0.60458565,-0.80895984,0.77561975,0.37786603,-0.50559992,0
0.12415329,-0.74492043,1.41056,0.0775958,-0.46557528,0.88160002,0
0.97069246,1.0030488,-0.78208011,0.60668278,0.6269055,-0.48880008,0
-0.86961663,1.1413717,0.70784014,-0.54351038,0.71335733,0.4424001,0
1.3694444,0.78253984,0.26880011,0.85590273,0.4890874,0.16800007,0
-0.068692014,-0.82430434,-1.3695999,-0.042932507,-0.51519018,-0.85599995,0
-0.61822802,-0.54953599,-1.3696001,-0.3863925,-0.34345999,-0.85600001,0
0,-0.1916541,1.58848,0,-0.11978381,0.9928,0
1.1578859,0.62347704,-0.91135973,0.72367871,0.38967314,-0.56959981,0
0.82301515,1.3716919,0.033279877,0.51438445,0.85730737,0.020799922,0
-0.66615075,0.23170465,-1.4361602,-0.41634423,0.1448154,-0.89760011,0
-1.1676064,0.51260769,-0.96640003,-0.72975397,0.32037979,-0.60400003,0
1.0925068,0.63250405,0.98303998,0.68281674,0.39531502,0.61439997,0
-0.21983974,1.3504443,-0.82944006,-0.13739984,0.8440277,-0.51840001,0
-1.1740119,1.080091,0.12287989,-0.73375744,0.67505687,0.076799929,0
0.50674891,1.2387201,0.87679994,0.31671807,0.77420002,0.54799998,0
1.1533326,1.1071993,0.062719941,0.72083288,0.69199955,0.039199963,0
-0.46204993,-1.1551247,1.00608,-0.2887812,-0.72195292,0.62880003,0
0.40558025,0.87199759,-1.27872,0.25348765,0.54499847,-0.7992,0
0.54644179,-0.78930485,-1.2799997,0.34152612,-0.49331552,-0.79999983,0
-1.0792609,0.85706013,-0.81279993,-0.67453808,0.53566259,-0.50799996,0
1.2869444,-0.69709486,0.64639997,0.80434024,-0.43568429,0.40399998,0
-1.2452255,0.48594174,-0.87936008,-0.77826595,0.30371359,-0.54960006,0
-1.2301552,0.80227506,0.63488019,-0.76884699,0.50142193,0.3968001,0
1.5896111,0.18166992,0.011519765,0.99350691,0.1135437,0.0071998527,0
0.35942256,0.9884119,-1.2057601,0.2246391,0.61775744,-0.75360006,0
-0.66762519,0.88221902,-1.15584,-0.41726574,0.55138689,-0.72240001,0
0.24902505,1.5439548,0.33791998,0.15564065,0.96497178,0.21119998,0
1.5619457,0,-0.34687987,0.97621602,0,-0.21679991,0
0.81219411,-1.1844497,-0.70528001,0.50762129,-0.74028105,-0.44080001,0
1.3178208,-0.81096661,0.40704009,0.82363796,-0.50685412,0.25440004,0
-0.18358076,-0.78439039,-1.3824,-0.11473797,-0.490244,-0.86400002,0
0.48555729,1.5052272,0.24191992,0.30347329,0.94076699,0.15119995,0
-0.87944853,-1.0993106,0.76032007,-0.54965532,-0.68706912,0.47520003,0
-1.2869444,0.69709486,0.64639997,-0.80434024,0.43568429,0.40399998,0
1.0472072,0.41401222,-1.1366402,0.65450454,0.25875762,-0.7104001,0
1.5441958,0.38604882,-0.16256008,0.96512234,0.24128051,-0.10160004,0
0.95969284,1.1196414,0.62080008,0.59980804,0.69977587,0.38800004,0
0.86271894,-0.92023367,0.9843201,0.53919935,-0.57514602,0.61520004,0
-1.517116,-0.50570542,0.051200103,-0.94819748,-0.31606588,0.032000065,0
-1.1638172,-1.0434221,-0.3417601,-0.7273857,-0.65213883,-0.21360005,0
-1.4328513,0.64231259,0.30719987,-0.89553207,0.40144536,0.19199991,0
-1.3040291,-0.17009078,0.91136009,-0.81501818,-0.10630674,0.56960005,0
-0.93593293,1.0460428,0.76800007,-0.58495808,0.65377676,0.48000005,0
1.2117822,-1.017897,0.23551996,0.75736386,-0.63618565,0.14719997,0
0.35527784,1.0658336,1.1392,0.22204864,0.66614598,0.71199995,0
1.420943,-0.054651603,0.7334401,0.88808936,-0.03415725,0.45840007,0
0.056130536,-1.3471342,0.86143994,0.035081584,-0.84195888,0.53839993,0
-1.3148398,0.89069784,-0.1945599,-0.8217749,0.55668616,-0.12159993,0
-0.85240221,0.30307639,-1.31968,-0.53275138,0.18942274,-0.82479995,0
-1.0539383,1.132008,-0.40960002,-0.65871143,0.70750499,-0.25600001,0
1.1175655,-1.066767,0.4159998,0.6984784,-0.66672927,0.25999984,0
0.93729734,-0.41415465,-1.2288001,0.58581084,-0.25884664,-0.76800001,0
-1.4506968,-0.16118856,0.65536016,-0.90668553,-0.10074285,0.40960011,0
-1.1455964,-0.98937875,0.51840001,-0.71599776,-0.61836171,0.324,0
-0.7288788,1.4148824,-0.1638398,-0.45554924,0.88430148,-0.10239988,0
0.24378882,1.5602481,0.25728005,0.15236801,0.97515506,0.16080002,0
0.63141507,-1.3742563,-0.5222401,0.39463443,-0.85891014,-0.32640007,0
-0.22574501,1.5049666,-0.49407977,-0.14109063,0.94060415,-0.30879986,0
0.41099769,1.5206912,-0.28032011,0.25687355,0.95043194,-0.17520006,0
-1.3669537,-0.68347687,-0.47360018,-0.8543461,-0.42717305,-0.29600009,0
-1.5404576,0.42012468,0.10240021,-0.96278602,0.26257792,0.06400013,0
0.39622766,1.2801203,-0.87424016,0.24764228,0.80007517,-0.54640007,0
-0.33448932,1.5470128,-0.23424007,-0.20905583,0.966883,-0.14640003,0
-1.5077509,0.51828945,0.13440003,-0.94234431,0.32393089,0.084000014,0
1.5009646,0.036608856,-0.55296028,0.9381029,0.022880536,-0.34560016,0
-1.5186217,0.30372435,0.4019199,-0.94913852,0.18982771,0.25119993,0
-0.29634976,1.1853988,-1.0329601,-0.1852186,0.74087423,-0.64560002,0
-0.67495954,0.55223936,1.3414401,-0.4218497,0.34514961,0.83840007,0
0.55223936,-0.67495954,1.3414401,0.34514961,-0.4218497,0.83840007,0
0.25389227,0.31736523,1.54752,0.15868267,0.19835326,0.96720004,0
1.5602481,-0.24378882,0.25728005,0.97515506,-0.15236801,0.16080002,0
-0.31425247,-0.50280392,1.4860799,-0.19640779,-0.31425244,0.92879993,0
1.34187,0.22364509,0.84223992,0.8386687,0.13977818,0.52639991,0
-1.4210006,-0.60900033,0.41215998,-0.88812536,-0.38062519,0.25759998,0
1.412739,-0.52323669,0.53888017,0.88296187,-0.32702294,0.3368001,0
1.0725362,-0.17875603,1.1737599,0.67033511,-0.11172251,0.73359996,0
0.25098461,0.56471491,1.4758401,0.15686537,0.35294682,0.92240006,0
0,1.3474845,0.86271995,0,0.84217781,0.53919995,0
0.98330176,-0.7519365,1.01376,0.61456358,-0.4699603,0.6336,0
-0.41663554,-0.995296,-1.1814401,-0.2603972,-0.62206,-0.73840004,0
-0.95969284,1.1196414,0.62080008,-0.59980804,0.69977587,0.38800004,0
-1.5472908,-0.33846983,0.22656007,-0.96705675,-0.21154365,0.14160004,0
-1.1106498,0.62652051,-0.96640003,-0.69415611,0.39157531,-0.60400003,0
1.1152782,-0.35219312,1.09184,0.6970489,-0.2201207,0.68239999,0
-1.3332045,0.34917265,-0.81280023,-0.83325279,0.2182329,-0.50800014,0
0.57243353,-1.1448667,0.96000004,0.35777095,-0.71554166,0.60000002,0
0.038378622,-1.5351465,-0.44928005,0.023986639,-0.95946652,-0.28080001,0
-0.44369876,0.34130678,-1.49888,-0.27731171,0.21331674,-0.9368,0
0.05918524,-1.1245207,1.1366401,0.036990773,-0.70282543,0.71040004,0
1.0742387,-0.52401882,-1.0636802,0.67139918,-0.32751176,-0.66480011,0
-0.56462216,-1.1886783,-0.91008008,-0.35288885,-0.74292392,-0.56880003,0
1.0321817,0.74546456,0.96895999,0.64511359,0.46591535,0.6056,0
1.1237314,0.11828741,1.1328,0.70233208,0.07392963,0.708,0
-0.5779168,1.4255282,-0.44032007,-0.36119801,0.89095509,-0.27520004,0
-0.052511189,0.84017903,-1.3606403,-0.032819491,0.52511185,-0.85040015,0
-1.5491296,-0.15888506,-0.36735985,-0.96820599,-0.099303164,-0.22959991,0
-0.41661587,-1.0117815,1.1673601,-0.26038492,-0.63236338,0.72960001,0
-0.40578017,-1.159372,1.0252801,-0.25361261,-0.72460747,0.64080006,0
-0.68660766,0.062418811,1.44384,-0.42912978,0.039011758,0.90240002,0
-0.44322571,0.12663582,1.53216,-0.27701607,0.079147384,0.9576,0
0.74158746,-0.30899483,1.38368,0.46349216,-0.19312176,0.86479998,0
1.2998462,0.77990758,0.51200008,0.81240386,0.48744223,0.32000005,0
1.4115585,0.27145365,0.70272005,0.88222408,0.16965853,0.43920001,0
0.86397624,-1.3391633,-0.14207996,0.53998512,-0.83697706,-0.088799976,0
1.5882567,0.17647305,-0.079360157,0.99266046,0.11029565,-0.049600098,0
-0.32784,-0.72124809,-1.39008,-0.2049,-0.45078006,-0.86879998,0
-0.67964274,0.43249983,1.3824,-0.4247767,0.2703124,0.86400002,0
-0.86016023,0,-1.3491199,-0.53760016,0,-0.84319991,0
0.12263971,0.96067774,-1.2736003,0.076649815,0.60042357,-0.79600018,0
-1.117945,-1.117945,0.24576013,-0.69871557,-0.69871557,0.15360008,0
0,1.2197123,1.0355201,0,0.76232022,0.64720011,0
0.88622791,1.0084661,-0.87040001,0.55389243,0.63029134,-0.54399997,0
-0.36390734,0.71127343,-1.3862401,-0.22744209,0.44454589,-0.86640006,0
0.56082392,0.43619648,1.4336001,0.35051495,0.27262279,0.89600003,0
1.3733797,-0.58104539,0.57984,0.85836232,-0.36315337,0.3624,0
-0.35350952,-1.0369612,-1.16608,-0.22094345,-0.64810073,-0.7288,0
-0.13576455,-1.2218807,-1.0239999,-0.084852844,-0.76367539,-0.63999993,0
0.24809551,-1.3335137,-0.84864008,0.1550597,-0.83344609,-0.53040004,0
0.62347704,1.1578859,-0.91135973,0.38967314,0.72367871,-0.56959981,0
-1.1971934,0.76487362,-0.73600024,-0.74824584,0.478046,-0.46000016,0
-1.5617909,-0.20549886,-0.28031996,-0.97611934,-0.12843679,-0.17519997,0
0.40578017,-1.159372,1.0252801,0.25361261,-0.72460747,0.64080006,0
-0.51656204,1.5066394,-0.15232024,-0.32285127,0.94164962,-0.095200144,0
1.3852711,-0.055410791,0.79872,0.86579442,-0.034631744,0.49919999,0
-0.45241806,-1.2441494,0.89855999,-0.28276128,-0.77759337,0.56159997,0
1.3155574,0.83717287,-0.35839975,0.82222337,0.52323306,-0.22399984,0
0.92601532,1.0894296,0.71807998,0.57875955,0.68089348,0.4488,0
-0.66660237,-1.2062328,-0.81279999,-0.41662648,-0.75389546,-0.50799996,0
0.71982217,1.0653368,-0.95232004,0.44988886,0.6658355,-0.5952,0
0.77626896,1.2937819,-0.53248012,0.4851681,0.80861366,-0.33280006,0
-0.52551752,1.4264048,-0.4991999,-0.32844844,0.89150304,-0.31199992,0
-1.531967,0.3225193,-0.33023992,-0.95747942,0.20157456,-0.20639995,0
0.85805374,1.166953,-0.67967981,0.53628355,0.72934562,-0.42479989,0
0.27324328,-1.5223554,-0.40959984,0.17077705,-0.95147216,-0.25599989,0
-0.91314161,0.91314179,0.94463992,-0.57071352,0.57071358,0.59039992,0
-0.03660886,-1.5009648,-0.55295998,-0.022880537,-0.93810296,-0.34559998,0
0.7880581,-1.3687325,-0.25599986,0.49253631,-0.85545778,-0.15999991,0
-0.74412823,0.18603188,1.40416,-0.46508014,0.11626992,0.87760001,0
0.77347159,-0.42356774,-1.3350401,0.48341975,-0.26472983,-0.83440006,0
1.314062,-0.27503622,-0.87040007,0.82128876,-0.17189763,-0.54400003,0
0.03837863,1.5351465,-0.44927976,0.023986643,0.95946652,-0.28079984,0
-0.56647485,0.062941588,1.4950401,-0.35404679,0.039338492,0.93440002,0
-1.1245207,0.05918524,1.1366401,-0.70282543,0.036990773,0.71040004,0
-0.49415299,-0.45297354,-1.4528,-0.30884561,-0.28310847,-0.90799999,0
-1.5294147,0.46345913,0.07808008,-0.95588416,0.28966194,0.048800051,0
0.95397192,-0.95397192,-0.86016005,0.59623241,-0.59623241,-0.53760004,0
-0.92160004,0.98303998,-0.86272007,-0.57600003,0.61439997,-0.53920001,0
1.4966151,-0.44898453,0.34431991,0.93538439,-0.28061533,0.21519995,0
-0.48555714,1.5052272,0.24191999,-0.3034732,0.94076699,0.1512,0
1.1076386,-1.0021493,0.57344013,0.69227409,-0.62634331,0.35840008,0
1.4824588,0.53533232,-0.27520013,0.92653674,0.33458269,-0.17200008,0
0.40895942,1.4824783,0.44159988,0.25559962,0.9265489,0.2759999,0
-0.38224661,-1.1740433,-1.0176001,-0.23890413,-0.73377705,-0.63600004,0
-0.99270189,0.79416144,-0.97151977,-0.62043869,0.49635088,-0.60719985,0
0.50374132,-0.25187066,1.4976001,0.31483832,-0.15741916,0.93600005,0
-1.017897,-1.2117822,0.23551996,-0.63618565,-0.75736386,0.14719997,0
-1.5896111,-0.1816698,0.011520063,-0.99350691,-0.11354362,0.007200039,0
-0.92160004,-0.98303998,-0.86272007,-0.57600003,-0.61439997,-0.53920001,0
1.4872257,-0.49574184,0.31999993,0.92951602,-0.30983865,0.19999996,0
1.5546257,0.10029834,0.36480001,0.97164106,0.062686458,0.228,0
1.175684,1.0852468,-0.002559995,0.73480248,0.67827922,-0.0015999969,0
-1.0210983,-0.18019383,1.2185601,-0.6381864,-0.11262114,0.76160008,0
-0.3358638,0.15673643,-1.5564798,-0.20991488,0.097960271,-0.9727999,0
0.71831614,0.77817577,1.19936,0.44894758,0.48635986,0.74959999,0
1.4688958,-0.46386185,-0.43263999,0.91805989,-0.28991365,-0.27039999,0
-1.4745512,-0.60716808,-0.13055998,-0.9215945,-0.37948003,-0.081599988,0
