1.2154557,0.38673583,-1.2700799,0.67525315,0.21485324,-0.70559996,0
1.4180367,-1.0192138,-0.43631986,0.78779817,-0.56622988,-0.24239993,0
-1.5641893,0.86300105,0.22031969,-0.86899406,0.47944504,0.12239983,0
0.34932995,-0.76852578,1.5897599,0.1940722,-0.42695877,0.88319999,0
-0.56811249,0.14202796,1.7020799,-0.31561807,0.078904428,0.94559997,0
1.5551,-0.186612,0.88703996,0.86394447,-0.10367333,0.4928,0
0.49893448,-0.071276292,1.7279999,0.27718583,-0.03959794,0.95999998,0
1.1365012,-0.79862243,-1.1447999,0.63138956,-0.44367915,-0.63599998,0
-0.34807512,1.6823632,0.53711981,-0.19337507,0.93464625,0.2983999,0
-1.1577456,-1.2735202,0.52704006,-0.64319199,-0.70751125,0.29280004,0
-1.1793748,1.1032861,-0.79488015,-0.65520823,0.61293674,-0.44160008,0
0.64398766,1.2879753,-1.0799997,0.35777092,0.71554184,-0.59999985,0
1.3072613,0.81262195,-0.93312013,0.72625631,0.45145667,-0.51840007,0
-0.43425959,-0.62037081,-1.6329601,-0.24125534,-0.34465045,-0.9072001,0
1.7571889,0,-0.39023983,0.97621608,0,-0.21679991,0
1.3601277,-0.38860798,1.1131201,0.7556265,-0.21589333,0.61840004,0
-0.60704839,1.0117471,1.3593601,-0.33724913,0.56208175,0.75520009,0
-1.7679353,0.11049585,0.31968006,-0.98218632,0.061386585,0.17760004,0
-0.33537781,0.70269632,-1.62288,-0.18632101,0.39038685,-0.9016,0
-1.1094542,0.63793617,-1.2657602,-0.61636341,0.35440901,-0.7032001,0
1.4326075,-0.62287277,0.89423984,0.79589307,-0.34604043,0.49679992,0
0.21404697,-0.42809436,1.7351999,0.11891498,-0.23783021,0.96399999,0
-1.7506622,-0.05647292,0.41471997,-0.97259015,-0.031373844,0.2304,0
-1.7045233,-0.4948616,0.29951996,-0.94695741,-0.27492312,0.16639999,0
1.2546879,-0.39621726,1.22832,0.69704884,-0.2201207,0.68240005,0
-1.7144318,0.44243389,0.324,-0.95246214,0.24579662,0.18000001,0
-0.28335446,-0.56670916,1.6847999,-0.15741915,-0.31483844,0.93599999,0
0.1923358,1.7791052,-0.19440007,0.10685322,0.98839182,-0.10800004,0
0.13898057,-0.74122989,-1.6343998,0.077211425,-0.41179439,-0.90799987,0
0.36534023,-1.583141,0.77472007,0.20296679,-0.8795228,0.43040004,0
-0.3157309,0.18356448,-1.76256,-0.17540605,0.10198027,-0.97920001,0
-0.74992764,1.3570118,-0.91439998,-0.41662648,0.75389546,-0.50800002,0
-1.6377163,-0.62120277,0.41471976,-0.90984243,-0.34511265,0.23039988,0
-1.7846811,-0.14470388,-0.18432005,-0.99148953,-0.080391049,-0.10240003,0
1.5641741,0.88636535,0.087839812,0.86898559,0.4924252,0.048799898,0
-0.49893448,0.071276292,1.7279999,-0.27718583,0.03959794,0.95999998,0
1.1612045,0.8386476,1.0900799,0.64511359,0.46591535,0.60559994,0
1.4534721,0.33801684,-1.0065601,0.80748457,0.18778713,-0.55920005,0
1.2879751,0.64398772,1.0799999,0.71554172,0.35777095,0.59999996,0
0.53873682,0.92034203,-1.4500804,0.29929823,0.51130116,-0.80560023,0
0.42669705,-0.35558096,1.71216,0.23705392,-0.19754498,0.95120001,0
1.7719104,0.23944741,-0.20736006,0.98439473,0.13302635,-0.11520004,0
0.12221342,0.83803499,-1.5883203,0.067896344,0.46557501,-0.88240016,0
-0.96419263,-1.2141685,-0.91439986,-0.53566259,-0.67453808,-0.50799996,0
-1.5571821,0.12457445,0.89423996,-0.86510116,0.069208026,0.49680001,0
-1.2707034,-0.11049592,-1.2700801,-0.70594639,-0.061386626,-0.70560008,0
-0.30085325,-1.6246071,0.71424013,-0.16714071,-0.90255952,0.39680007,0
-0.56411988,1.5714768,-0.67247975,-0.31339994,0.8730427,-0.37359986,0
0.1291832,1.4210167,1.0972798,0.071768448,0.78945374,0.60959989,0
-1.3731552,0.99865848,-0.59759986,-0.76286405,0.55481029,-0.33199993,0
-1.1954151,-0.4648836,1.26288,-0.66411954,-0.25826868,0.70160002,0
0.30954346,-0.26066816,-1.7539198,0.17196859,-0.14481565,-0.97439992,0
-0.5030694,-1.4463242,0.94608003,-0.27948302,-0.80351347,0.52560002,0
0.98361391,1.4112719,-0.52991998,0.54645216,0.78403997,-0.29440001,0
-1.0501885,1.3442413,-0.57455993,-0.5834381,0.74680072,-0.31919998,0
-1.2707033,0.110496,-1.2700801,-0.70594633,0.061386667,-0.70560008,0
-1.6361967,0,0.75024015,-0.90899819,0,0.41680008,0
1.3384402,0.63735265,1.0209601,0.7435779,0.35408482,0.56720006,0
-0.13717824,0.59859592,-1.6920003,-0.076210134,0.3325533,-0.94000018,0
-1.753739,-0.37200522,0.16128017,-0.97429949,-0.20666957,0.089600094,0
-0.82631397,1.0624037,-1.1952001,-0.45906335,0.59022433,-0.66400009,0
1.26064,0.26539803,1.25712,0.70035553,0.14744334,0.69839996,0
-1.323324,-0.75618511,0.95759988,-0.73518002,-0.42010286,0.53199995,0
0.41146725,-0.9600901,1.46592,0.22859293,-0.53338343,0.81440002,0
1.2216327,1.2771615,0.34127969,0.67868489,0.70953417,0.18959983,0
0.90206313,0.20816822,1.54368,0.5011462,0.11564901,0.85759997,0
0.81417954,-1.2551935,-1.0008001,0.45232198,-0.6973297,-0.55600011,0
-0.90246564,0.66497463,-1.4083197,-0.50136983,0.36943036,-0.78239983,0
0.81998873,-1.5917426,-0.18431991,0.4555493,-0.88430148,-0.10239995,0
-0.53873682,0.92034203,-1.4500804,-0.29929823,0.51130116,-0.80560023,0
1.1510808,0,1.3838398,0.63948935,0,0.76879996,0
-0.98077649,0.18780822,-1.4975998,-0.54487586,0.1043379,-0.83199996,0
0.24130219,-1.6287888,0.72720009,0.13405678,-0.90488273,0.40400007,0
0.483291,1.5706961,0.73440009,0.26849499,0.87260896,0.40800005,0
-0.79433978,1.399551,-0.80640006,-0.44129989,0.77752835,-0.44800004,0
-1.1911925,-0.86030561,-1.03968,-0.66177362,-0.47794756,-0.5776,0
0.38860798,1.3601277,1.1131201,0.21589333,0.7556265,0.61840004,0
-1.7748185,0.093411416,-0.28511992,-0.98601031,0.051895231,-0.15839995,0
0.10542522,1.7922302,0.12960027,0.058569565,0.99568349,0.072000153,0
-1.4177785,1.0208006,0.43343994,-0.78765476,0.56711143,0.24079998,0
1.7270398,0.043175954,-0.5054397,0.95946658,0.023986641,-0.28079984,0
1.7697359,-0.055304196,0.32400006,0.98318666,-0.030724553,0.18000004,0
0.51938897,-1.0387781,-1.3752,0.28854942,-0.57709897,-0.76400006,0
0.51756525,-1.2786906,-1.1563202,0.28753626,-0.71038365,-0.64240015,0
1.2473958,-0.866247,-0.96624011,0.69299763,-0.48124835,-0.53680009,0
0.534091,-0.54979956,-1.6286397,0.29671723,-0.30544421,-0.90479988,0
0.96767986,0,1.51776,0.53759992,0,0.84320003,0
-0.60917109,-1.6613756,0.32975984,-0.33842841,-0.92298651,0.18319991,0
-1.2074038,1.3002809,-0.30239969,-0.67077988,0.72237831,-0.16799983,0
-0.22008924,1.7607143,0.30240008,-0.12227181,0.97817463,0.16800006,0
0.17547905,1.6962992,0.57599986,0.097488366,0.94238847,0.31999993,0
-0.19353406,1.41925,1.0900798,-0.10751893,0.78847224,0.60559988,0
0.79412788,0.13235462,-1.6099201,0.44118217,0.073530346,-0.89440012,0
-1.7506622,0.05647292,0.41471997,-0.97259015,0.031373844,0.2304,0
-1.6254245,-0.67258942,0.38159978,-0.90301365,-0.3736608,0.21199988,0
0.30941567,-1.4783198,-0.97920001,0.17189761,-0.82128876,-0.54400003,0
-1.1926816,1.2352774,-0.5400002,-0.66260087,0.68626523,-0.30000013,0
0.065325804,1.3718431,1.1635201,0.036292113,0.76213509,0.64640009,0
1.1060849,1.3826063,0.32400006,0.61449164,0.76811463,0.18000004,0
1.457418,-1.0553716,-0.046080228,0.80967665,-0.5863176,-0.025600128,0
0.68015885,-1.3961155,-0.91007978,0.37786603,-0.77561975,-0.50559992,0
-0.64168924,-1.6782643,-0.10800002,-0.35649404,-0.93236905,-0.06000001,0
1.506039,0.31375819,0.93455988,0.83668834,0.17431012,0.51919997,0
-0.31438211,1.1789328,-1.3233598,-0.17465673,0.65496266,-0.73519993,0
-0.28707686,0,1.77696,-0.15948714,0,0.98720002,0
0.27999777,0.76999354,1.6027199,0.15555432,0.42777419,0.89039999,0
-0.30085325,1.6246071,0.71424013,-0.16714071,0.90255952,0.39680007,0
1.5192498,-0.2473197,-0.93312007,0.84402764,-0.13739982,-0.51840001,0
1.6520652,-0.24176563,-0.67248029,0.91781402,-0.13431424,-0.37360016,0
1.1191404,0.7241497,1.2095999,0.62174469,0.40230539,0.67199993,0
-1.1429645,-1.1429645,-0.79200017,-0.63498026,-0.63498026,-0.44000012,0
-1.6357347,-0.060582712,0.74880016,-0.90874153,-0.033657063,0.4160001,0
-1.5431533,0.925892,0.03743986,-0.85730737,0.51438445,0.020799924,0
0.95775437,0.039906394,-1.5235202,0.53208578,0.02217022,-0.84640014,0
0.54287809,1.673874,-0.37872005,0.30159894,0.92993003,-0.21040003,0
1.2046528,-0.26770055,1.3103999,0.66925156,-0.14872253,0.72799999,0
0.20990449,-1.7841872,0.11231994,0.11661361,-0.99121511,0.062399969,0
-0.56811249,0.14202796,1.7020799,-0.31561807,0.078904428,0.94559997,0
0.13630581,0.40039828,-1.7496004,0.075725451,0.22244349,-0.97200024,0
-1.6291835,0.61644775,-0.45359999,-0.90510201,0.34247097,-0.252,0
-1.4904939,0.49683118,0.87839997,-0.82805216,0.27601734,0.48800001,0
0.58793265,1.2411914,1.1635201,0.32662925,0.68955082,0.64640009,0
1.3442413,1.0501885,-0.57455993,0.74680072,0.5834381,-0.31919998,0
-1.0998696,-1.3113831,-0.55727994,-0.61103868,-0.7285462,-0.30959997,0
0.29929817,-0.53624254,-1.6920002,0.16627677,-0.29791254,-0.94000012,0
1.0867946,-1.412833,0.25056013,0.60377479,-0.78490722,0.13920008,0
0.59319419,-1.1863887,1.2168,0.32955232,-0.65910488,0.676,0
-1.1913337,-0.70258135,-1.1519997,-0.66185206,-0.39032298,-0.63999987,0
-1.2143649,-0.83088118,1.0368,-0.67464715,-0.46160066,0.57600003,0
1.4478124,-0.78423166,0.72719991,0.80434024,-0.43568426,0.40399995,0
0.16175486,-1.7793051,0.21888018,0.089863814,-0.98850286,0.1216001,0
1.2494811,0.70483559,-1.0872,0.69415611,0.39157531,-0.60399997,0
1.0875272,0.27188191,1.4083198,0.60418177,0.1510455,0.78239995,0
-1.7846811,-0.14470388,-0.18432005,-0.99148953,-0.080391049,-0.10240003,0
0.55394727,-1.7122005,-0.03888008,0.3077485,-0.95122254,-0.021600045,0
-1.4964919,-0.43647674,0.89999992,-0.83138442,-0.24248709,0.49999997,0
0.56010228,0.36884779,-1.6704001,0.31116796,0.20491545,-0.92800009,0
-0.13529877,1.1500391,1.3780799,-0.075165987,0.63891059,0.76559997,0
1.0368,-1.3823999,-0.50400001,0.57600003,-0.76799995,-0.28,0
-1.5154575,-0.67796779,-0.69551986,-0.84192085,-0.37664878,-0.38639992,0
0.26531976,-1.7245784,-0.44207984,0.14739987,-0.95809913,-0.24559993,0
1.2074037,-1.3002809,-0.30239993,0.67077982,-0.72237831,-0.16799997,0
1.0426716,0.9123373,1.1491199,0.57926202,0.50685406,0.63839996,0
-0.98768437,0.79563463,-1.2772803,-0.54871356,0.44201925,-0.70960021,0
0.77320623,1.486935,0.65663999,0.42955902,0.82607502,0.36480001,0
-0.21207637,-0.6362291,1.6703999,-0.1178202,-0.35346061,0.92799997,0
0.64398766,1.2879753,-1.0799997,0.35777092,0.71554184,-0.59999985,0
-0.97967428,-0.97967428,-1.1491199,-0.54426348,-0.54426348,-0.63839996,0
0.47225627,1.0794432,1.3607999,0.2623646,0.59969068,0.75599998,0
0.73632872,1.5135646,-0.63792008,0.40907153,0.84086925,-0.35440007,0
0.20110032,-1.2066032,1.32048,0.1117224,-0.67033511,0.73360002,0
1.4220757,0.06463974,1.1015998,0.7900421,0.035910968,0.61199993,0
0.17632848,0.37784675,-1.7510396,0.097960271,0.20991486,-0.97279984,0
0.31761721,-1.4610387,1.0022401,0.17645401,-0.81168818,0.55680007,0
0.2545585,-1.781909,4.2915339e-08,0.14142139,-0.98994946,2.3841855e-08,0
-0.13235478,-0.79412854,-1.6099198,-0.073530436,-0.44118252,-0.89439988,0
0.27593949,-1.7476166,-0.33119994,0.15329972,-0.97089815,-0.18399997,0
0.87015551,-0.47651368,-1.5019201,0.48341975,-0.26472983,-0.83440006,0
-0.87967843,-1.2566836,0.94176012,-0.48871025,-0.69815755,0.52320009,0
-1.7306278,0.33496022,0.36431995,-0.96145988,0.18608902,0.20239998,0
1.0464976,-1.4320494,0.30672008,0.58138758,-0.79558301,0.17040005,0
1.6829269,-0.3883678,-0.50687981,0.93495941,-0.21575989,-0.28159991,0
-1.3867012,0.63031888,0.95903993,-0.77038962,0.35017717,0.53279996,0
1.5774173,-0.62266475,-0.60335994,0.87634295,-0.34592488,-0.33519998,0
-0.70412904,-0.21123873,1.6430399,-0.39118281,-0.11735485,0.91280001,0
-1.7045233,-0.4948616,0.29951996,-0.94695741,-0.27492312,0.16639999,0
1.2316999,1.1730477,0.58896017,0.68427777,0.65169317,0.32720011,0
-1.0054151,-0.5640133,-1.3823998,-0.55856395,-0.31334072,-0.76799989,0
1.7989341,0.051398061,0.03455976,0.99940789,0.028554479,0.019199867,0
-1.3568193,-0.95775479,-0.69408005,-0.75378853,-0.53208601,-0.38560003,0
-0.86048275,-1.3468426,-0.82800007,-0.478046,-0.74824595,-0.46000004,0
-0.94551647,-1.3977201,-0.62639993,-0.52528691,-0.77651119,-0.34799996,0
-0.10928825,0.87430602,-1.5696002,-0.060715698,0.48572558,-0.87200016,0
1.3407043,0.91411632,0.77903992,0.74483573,0.50784242,0.43279997,0
-1.5793129,0.64342391,0.57600009,-0.87739611,0.35745773,0.32000005,0
0.63728398,0.07080929,1.6819201,0.35404667,0.039338496,0.93440008,0
1.5123702,-0.18904628,0.95759988,0.84020573,-0.10502572,0.53199995,0
1.5961332,0.70939261,-0.43488026,0.88674068,0.39410701,-0.24160016,0
1.4378672,0.22875158,-1.0583999,0.79881513,0.12708421,-0.58799994,0
-0.92903996,-1.435789,-0.56160003,-0.51613331,-0.79766059,-0.31200004,0
0.54983413,0.17547894,-1.7049602,0.3054634,0.097488299,-0.94720018,0
-1.2340389,1.1517695,-0.62495983,-0.68557721,0.63987195,-0.34719992,0
0.61104697,-0.95051771,1.4011201,0.33947054,-0.52806538,0.77840006,0
-0.72255152,1.6377833,-0.18863976,-0.40141752,0.90987962,-0.10479987,0
-0.1493371,-1.7920451,-0.079200149,-0.082965054,-0.99558067,-0.044000085,0
-1.0666893,-0.72983998,-1.2527999,-0.59260517,-0.40546668,-0.69599992,0
-1.4389297,-0.5264377,-0.94463998,-0.7994054,-0.29246539,-0.5248,0
-0.77894282,1.1684142,1.1260799,-0.43274602,0.64911902,0.62559998,0
-0.80310184,0.93695199,1.3104,-0.44616771,0.52052891,0.72800004,0
-1.2849529,-0.91782349,-0.8639999,-0.71386272,-0.50990194,-0.47999996,0
-1.2737285,0.76423723,1.0166401,-0.70762694,0.42457625,0.56480002,0
-1.0495219,-0.85273653,1.188,-0.58306777,-0.47374254,0.66000003,0
-0.76891142,-1.5378228,-0.5328002,-0.42717302,-0.85434604,-0.29600012,0
-0.70269632,-0.33537781,-1.62288,-0.39038685,-0.18632101,-0.9016,0
1.2340389,1.1517695,-0.62495983,0.68557721,0.63987195,-0.34719992,0
0.62126929,-0.75932944,1.50912,0.34514961,-0.4218497,0.83840001,0
-0.35915759,-0.33920437,-1.7308801,-0.199532,-0.18844688,-0.96160012,0
1.1500391,0.13529858,1.3780799,0.63891059,0.075165883,0.76559997,0
0.67258942,1.6254245,0.38159978,0.3736608,0.90301365,0.21199988,0
-1.257261,1.2001127,0.46800011,-0.6984784,0.66672927,0.26000008,0
1.0823926,1.0187225,1.0151998,0.60132921,0.56595695,0.56399989,0
-1.2940785,0.58233517,1.1073601,-0.71893251,0.32351956,0.6152001,0
1.7093133,0.53416055,0.18144,0.94961852,0.29675588,0.1008,0
0.98361391,-1.4112719,-0.52991998,0.54645216,-0.78403997,-0.29440001,0
0,-1.4122833,-1.1159998,0,-0.78460187,-0.61999989,0
1.6677661,0.60224885,-0.30960011,0.92653674,0.33458272,-0.17200007,0
1.7800077,-0.24722335,-0.10224016,0.98889321,-0.13734631,-0.05680009,0
0.35790598,0.14316222,1.75824,0.19883667,0.079534568,0.97680002,0
0.68130422,-1.4245449,0.86400002,0.37850234,-0.79141384,0.48000002,0
0.071754709,-0.28701907,1.77552,0.039863728,-0.15945505,0.98640001,0
0.87582332,-0.82430434,-1.3391997,0.48656851,-0.45794687,-0.74399984,0
-1.2561786,-0.76031864,-1.0411198,-0.69787705,-0.42239925,-0.5783999,0
-1.4783198,0.30941567,-0.97920001,-0.82128876,0.17189761,-0.54400003,0
1.6756119,0.40445796,0.51839983,0.93089551,0.22469887,0.28799993,0
-1.6782643,0.64168924,-0.10800002,-0.93236905,0.35649404,-0.06000001,0
-1.4255053,0.3646642,-1.0368001,-0.79194742,0.20259123,-0.57600009,0
-0.63793623,-1.1094544,-1.2657599,-0.35440904,-0.61636358,-0.70319998,0
1.7707012,-0.31247669,0.083520249,0.98372293,-0.17359817,0.046400141,0
-0.70307261,0.98950964,-1.3291198,-0.39059591,0.54972762,-0.73839992,0
1.648407,0.37089151,-0.62063962,0.91578168,0.20605084,-0.34479979,0
0.56565416,0.35353401,1.67184,0.31425232,0.19640779,0.92879999,0
-0.7918691,-1.0558254,1.224,-0.43992728,-0.58656967,0.68000001,0
0,-1.5588456,0.89999998,0,-0.86602539,0.5,0
-0.35463205,0.4964847,1.69344,-0.1970178,0.27582484,0.94080001,0
-0.8134253,-1.5106471,0.54432011,-0.45190296,-0.83924836,0.30240005,0
1.1487356,0.20271784,1.3708799,0.63818651,0.11262102,0.76159996,0
-0.55394733,1.7122005,-0.038879786,-0.30774853,0.95122254,-0.021599881,0
-1.2306354,0.45791093,-1.2312002,-0.68368638,0.25439498,-0.68400013,0
-0.33801675,-1.4534721,-1.0065601,-0.18778709,-0.80748457,-0.55920005,0
0.071855783,-0.21556757,1.7855999,0.039919879,-0.11975977,0.99199998,0
-1.5972859,0.77110338,0.30671987,-0.88738108,0.42839077,0.17039993,0
0.70486504,-0.14097306,1.6502398,0.39159173,-0.078318372,0.91679996,0
1.6396661,-0.03903963,-0.74160016,0.91092563,-0.021688685,-0.41200009,0
1.6377833,-0.72255152,-0.18863976,0.90987962,-0.40141752,-0.10479987,0
0.69821453,-0.48875001,1.5854399,0.38789698,-0.2715278,0.88080001,0
1.5893314,-0.58864123,0.60624015,0.88296193,-0.32702291,0.3368001,0
1.3226445,1.2209027,-0.0028799945,0.73480248,0.67827922,-0.0015999968,0
-0.046772253,-1.7773473,-0.28079993,-0.025984585,-0.98741519,-0.15599996,0
0.052771576,-1.7942353,0.13391997,0.029317543,-0.99679744,0.074399985,0
-1.5478625,-0.33168483,-0.8568002,-0.85992366,-0.18426935,-0.47600013,0
1.7268379,0.50789368,-0.0086398115,0.9593544,0.28216317,-0.0047998955,0
-0.27885482,-1.2548467,-1.2599998,-0.15491936,-0.69713712,-0.69999993,0
0.059075072,-0.94520205,-1.5307198,0.032819487,-0.52511227,-0.85039991,0
0.13529858,-1.150039,1.37808,0.075165883,-0.63891053,0.76560003,0
-1.0988766,0.90495712,1.1016001,-0.61048698,0.50275397,0.61200005,0
1.238919,-1.2865697,-0.22319977,0.68828833,-0.7147609,-0.12399986,0
0.37205264,-1.2592551,-1.2311999,0.20669593,-0.69958621,-0.68400002,0
-1.712117,-0.53809398,-0.13823998,-0.95117611,-0.29894111,-0.076799989,0
1.6187035,0.75539488,0.22175995,0.89927971,0.41966382,0.12319997,0
1.4186813,1.0525701,-0.34560013,0.78815627,0.5847612,-0.19200008,0
1.4114703,-0.9409802,0.60191995,0.78415018,-0.52276677,0.33439997,0
0,-1.0914249,1.43136,0,-0.6063472,0.79520005,0
-1.3839246,-0.90255958,0.71424001,-0.76884705,-0.50142199,0.39680001,0
1.0507066,0.40595487,-1.404,0.58372593,0.22553049,-0.78000003,0
-0.64398754,1.2879751,1.08,-0.35777086,0.71554172,0.60000002,0
1.3289336,1.0978146,0.51839989,0.73829645,0.60989702,0.28799996,0
0.16001461,0.10286653,-1.78992,0.088897012,0.057148073,-0.99440002,0
-0.51482368,1.6588763,0.47231981,-0.28601316,0.92159796,0.26239991,0
-0.84592855,1.1062144,1.1404799,-0.46996033,0.61456358,0.6336,0
-0.10802886,-1.7824751,0.22608015,-0.060016036,-0.990264,0.12560008,0
-1.2641977,0.13307333,1.2744,-0.70233208,0.07392963,0.708,0
1.3891395,-1.1410789,-0.090719692,0.77174419,-0.63393277,-0.050399829,0
0,-1.4224284,1.10304,0,-0.79023802,0.6128,0
0.64342391,1.5793129,0.57600009,0.35745773,0.87739611,0.32000005,0
0.44575611,-1.4401352,-0.98352015,0.24764229,-0.80007517,-0.54640007,0
1.0096116,-1.1898994,-0.89711958,0.56089532,-0.66105527,-0.49839979,0
0,-1.1545343,-1.38096,0,-0.64140797,-0.76719999,0
-0.35413462,1.2984936,-1.1952,-0.19674146,0.72138536,-0.66399997,0
1.1645343,1.3308966,0.33552006,0.64696354,0.73938704,0.18640004,0
-1.2550473,-1.2550473,-0.29951969,-0.69724858,-0.69724858,-0.16639984,0
-1.2354486,0.65023625,1.1361599,-0.68636036,0.36124238,0.63119996,0
-0.46007949,1.6677879,0.49679977,-0.25559974,0.92654884,0.27599987,0
1.3317811,-1.1890905,-0.22895977,0.73987842,-0.66060585,-0.12719987,0
1.5350345,-0.85781348,-0.38447973,0.85279697,-0.47656307,-0.21359986,0
1.5837382,0.4751215,-0.71135974,0.87985456,0.2639564,-0.39519987,0
1.2340391,0.64787048,-1.1390395,0.68557733,0.35992807,-0.6327998,0
0.36882001,-0.81140405,-1.5638399,0.20490001,-0.45078003,-0.86879998,0
1.1032861,-1.1793748,-0.79488015,0.61293674,-0.65520823,-0.44160008,0
0.47512144,-1.5837381,-0.71136004,0.26395637,-0.8798545,-0.39520004,0
-1.2551935,-0.81417954,-1.0008001,-0.6973297,-0.45232198,-0.55600011,0
0.56670892,-0.28335446,1.6848,0.31483829,-0.15741915,0.93600005,0
-1.0457217,1.0130428,-1.0583999,-0.58095646,0.5628016,-0.58799994,0
-1.6930873,-0.45148998,0.41183984,-0.94060409,-0.25082779,0.22879992,0
0.077278502,0.92734158,-1.5408002,0.042932503,0.51518977,-0.85600013,0
0.82430434,0.87582332,-1.3391997,0.45794687,0.48656851,-0.74399984,0
-1.062641,-1.2594264,-0.72431976,-0.59035611,-0.69968134,-0.40239987,0
-0.98598266,1.4789739,0.28368011,-0.54776818,0.82165217,0.15760006,0
0.49024323,1.5320104,0.80783999,0.27235734,0.85111696,0.4488,0
-0.06463974,-1.4220756,1.1015999,-0.035910968,-0.79004204,0.61199999,0
1.1284299,1.092029,-0.87984008,0.6269055,0.60668278,-0.48880005,0
0.49893412,-0.071276292,-1.728,0.27718562,-0.03959794,-0.96000004,0
-0.37630045,1.7403893,-0.26352006,-0.20905581,0.966883,-0.14640003,0
-1.535566,0.21426502,-0.91440004,-0.85309225,0.11903612,-0.50800002,0
-0.34529418,-0.30796504,-1.7395198,-0.1918301,-0.17109169,-0.96639991,0
0.21513438,1.7748576,0.20880012,0.11951911,0.98603207,0.11600007,0
1.6287888,0.24130219,0.72720009,0.90488273,0.13405678,0.40400007,0
-1.2595967,-1.0796543,0.6983999,-0.69977599,-0.59980798,0.38799995,0
0.13892815,0.90303379,1.55088,0.077182308,0.50168544,0.86159998,0
-1.312822,0.96531028,-0.76464003,-0.72934556,0.53628349,-0.42480004,0
0.82430434,0.87582332,-1.3391997,0.45794687,0.48656851,-0.74399984,0
-0.43430504,-1.7372202,-0.18288015,-0.24128059,-0.96512234,-0.10160009,0
-0.61815262,0.82420349,1.476,-0.34341812,0.45789084,0.81999999,0
1.2352774,-1.1926816,-0.5400002,0.68626523,-0.66260087,-0.30000013,0
-1.6747007,-0.65973061,-0.011519823,-0.93038934,-0.36651701,-0.006399902,0
0.86372983,1.4971319,0.50256014,0.47984993,0.83173996,0.27920008,0
-0.32797569,-1.3119023,1.188,-0.18220873,-0.72883469,0.66000003,0
1.5786563,0.036712904,-0.86400008,0.87703133,0.020396058,-0.48000005,0
1.6134027,-0.4182896,0.67968017,0.89633489,-0.23238312,0.3776001,0
-0.16715793,-1.4709893,-1.02384,-0.092865519,-0.81721634,-0.56879997,0
-1.4700205,-0.063913882,1.0368,-0.81667811,-0.035507713,0.57600003,0
-1.5438082,0.37051401,0.84815997,-0.85767126,0.20584112,0.47119999,0
-1.1872474,0.99978745,0.91151989,-0.6595819,0.55543751,0.50639993,0
-1.6580298,-0.2960768,0.63503999,-0.92112762,-0.16448711,0.35279998,0
-1.6563975,0.70271403,-0.050399784,-0.92022085,0.39039668,-0.027999882,0
0.22559339,1.1530331,-1.3636796,0.12532966,0.64057398,-0.75759983,0
1.7867887,0.19853218,-0.089280173,0.9926604,0.11029566,-0.049600098,0
-1.5016707,0.37541768,0.91871989,-0.8342616,0.2085654,0.5104,0
-0.24176563,1.6520652,-0.67248029,-0.13431424,0.91781402,-0.37360016,0
-1.1863887,-0.59319437,1.2168,-0.65910488,-0.32955244,0.676,0
-1.2352775,1.1926816,-0.53999996,-0.68626529,0.66260087,-0.29999998,0
-1.2352774,-1.1926816,-0.5400002,-0.68626523,-0.66260087,-0.30000013,0
1.5782622,0.86549872,-1.0299683e-07,0.87681234,0.48083264,-5.7220461e-08,0
0.60704821,-1.0117474,1.35936,0.33724901,-0.56208187,0.75520003,0
-0.23826733,0.18939199,-1.7740798,-0.13237074,0.10521777,-0.98559994,0
1.1429645,1.1429645,-0.79200017,0.63498026,0.63498026,-0.44000012,0
-0.35088468,-0.70176911,1.62,-0.19493593,-0.38987175,0.90000004,0
0.96766299,1.2654054,-0.83807963,0.53759056,0.70300305,-0.46559981,0
-0.077278517,-0.92734236,-1.5407999,-0.04293251,-0.51519018,-0.85599995,0
1.5678207,-0.29863253,-0.83232021,0.8710115,-0.16590697,-0.46240014,0
-0.30538532,1.5880033,0.79056001,-0.16965851,0.88222408,0.43920001,0
0.87582332,-0.82430434,-1.3391997,0.48656851,-0.45794687,-0.74399984,0
0.26034957,-1.3668346,1.1419199,0.14463866,-0.75935262,0.63439995,0
0.049945328,1.7980336,-0.067680143,0.027747406,0.99890757,-0.037600081,0
-0.20816843,0.90206313,1.54368,-0.11564913,0.5011462,0.85759997,0
1.7910323,0.048406232,-0.17280005,0.99501801,0.026892351,-0.096000031,0
-0.74764711,1.3706864,0.89567977,-0.41535953,0.76149249,0.4975999,0
1.092029,-1.1284299,-0.87984008,0.60668278,-0.6269055,-0.48880005,0
0.18133694,1.6320339,0.73728013,0.10074275,0.90668553,0.40960008,0
-0.23826733,0.18939199,-1.7740798,-0.13237074,0.10521777,-0.98559994,0
-1.0668291,-0.66676813,1.28736,-0.59268284,-0.37042674,0.71520001,0
1.2508038,0.46082243,1.2096,0.69489104,0.25601247,0.67199999,0
-1.4357889,0.92903996,-0.56160021,-0.79766053,0.51613331,-0.31200013,0
-0.48152441,0.89425963,1.4860801,-0.26751357,0.49681091,0.82560003,0
0.49247783,-0.56283194,1.63728,0.27359879,-0.31268442,0.90960002,0
0.79627591,-0.31851038,-1.5825598,0.44237551,-0.17695022,-0.87919992,0
0.62287295,-1.4326074,0.89423996,0.34604055,-0.79589301,0.49680001,0
-0.54983526,0.17547931,-1.7049599,-0.30546403,0.097488508,-0.94719994,0
-0.74941957,0.26066771,-1.6156802,-0.41634423,0.1448154,-0.89760017,0
-0.19754261,1.3169506,1.21104,-0.1097459,0.73163921,0.6728,0
-0.98361385,1.411272,-0.52991974,-0.54645216,0.78404003,-0.29439986,0
-1.3289335,-1.0978147,0.51840007,-0.73829639,-0.60989708,0.28800005,0
0.94192719,0.74008584,1.3435199,0.5232929,0.4111588,0.7464,0
0.90871066,-1.471246,-0.49967989,0.50483924,-0.81735891,-0.27759996,0
1.0192139,-1.4180366,-0.43632004,0.56622994,-0.78779811,-0.24240002,0
0.94498444,1.1969805,0.95616007,0.52499139,0.66498917,0.53120005,0
-0.9409802,1.4114703,0.60191995,-0.52276677,0.78415018,0.33439997,0
0.16175486,-1.7793051,0.21888018,0.089863814,-0.98850286,0.1216001,0
1.5421009,0.59311569,-0.71423972,0.85672277,0.32950872,-0.39679986,0
-0.42573375,-0.42573375,1.6963199,-0.23651876,-0.23651876,0.94239998,0
-0.62037128,0.43425983,-1.6329598,-0.34465072,0.24125546,-0.90719992,0
1.3146576,-0.81383568,0.9216001,0.73036534,-0.45213094,0.51200008,0
0.13717824,0.59859592,-1.6920003,0.076210134,0.3325533,-0.94000018,0
-1.2735089,1.1856805,-0.46080002,-0.70750499,0.65871143,-0.25600001,0
1.582592,0.76868755,-0.3801603,0.8792178,0.42704865,-0.21120018,0
0.30954346,-0.26066816,-1.7539198,0.17196859,-0.14481565,-0.97439992,0
1.785007,0,0.23184015,0.99167061,0,0.12880008,0
0.47866729,-0.95733458,1.4472001,0.26592627,-0.53185254,0.80400008,0
1.2046528,-0.26770055,1.3103999,0.66925156,-0.14872253,0.72799999,0
-0.00082670274,0.00024112161,-1.7999997,-0.00045927931,0.00013395645,-0.99999988,0
1.4237808,-0.60510683,-0.92015964,0.79098934,-0.33617046,-0.51119983,0
1.029348,0.1372463,1.4702401,0.57186002,0.076247945,0.81680006,0
0.55752921,1.6297009,-0.52271992,0.30973846,0.90538943,-0.29039997,0
0.97757143,0.65171427,-1.3636798,0.54309523,0.3620635,-0.75759989,0
-0.44210348,-1.6076488,-0.67824012,-0.24561305,-0.89313829,-0.37680009,0
0.21556735,0.071855783,1.7855999,0.11975964,0.039919879,0.99199998,0
0.06193671,0.60697961,-1.6934401,0.034409285,0.33721089,-0.94080007,0
1.2021716,1.3114598,0.27359974,0.66787308,0.72858876,0.15199985,0
-1.5492378,0.18014397,-0.89856011,-0.86068773,0.10007998,-0.49920008,0
-1.5106471,0.8134253,0.54432011,-0.83924836,0.45190296,0.30240005,0
-0.42573375,-0.42573375,1.6963199,-0.23651876,-0.23651876,0.94239998,0
0.83589488,-0.27863157,1.5696,0.46438605,-0.15479532,0.87200004,0
0.77194619,0.14035369,1.6199999,0.428859,0.077974275,0.89999998,0
-1.081672,-1.3663225,0.45071992,-0.6009289,-0.75906807,0.25039998,0
1.1469083,-0.26986068,1.3607999,0.63717127,-0.14992261,0.75599998,0
0.36882001,-0.81140405,-1.5638399,0.20490001,-0.45078003,-0.86879998,0
-0.63719594,0.37928328,-1.6401602,-0.35399777,0.21071294,-0.91120017,0
1.1890905,1.3317811,-0.22895977,0.66060585,0.73987842,-0.12719987,0
-1.2627165,0.19937611,1.2672,-0.70150918,0.1107645,0.704,0
-0.5640133,-1.0054151,-1.3823998,-0.31334072,-0.55856395,-0.76799989,0
-1.5484185,0.30968377,0.86399996,-0.86023253,0.17204654,0.47999999,0
1.2276096,-0.52611846,-1.2067202,0.68200535,-0.29228804,-0.67040014,0
-0.70530599,-0.070530534,1.65456,-0.39183667,-0.039183632,0.9192,0
1.6303445,0.52403921,0.55440027,0.905747,0.2911329,0.30800015,0
1.4063243,-0.062503338,-1.1217598,0.78129131,-0.034724079,-0.62319994,0
-1.769123,0.26804903,0.19584014,-0.98284614,0.14891613,0.10880008,0
1.2974991,-1.2455992,0.070559934,0.72083282,-0.69199955,0.039199963,0
1.3721763,0,1.1649601,0.76232016,0,0.64720011,0
-0.28590438,1.7630769,-0.22320005,-0.15883577,0.97948718,-0.12400004,0
1.5052304,0.47726813,-0.86400026,0.83623916,0.26514897,-0.48000017,0
-1.5603348,0.14514749,-0.88560009,-0.8668527,0.080637492,-0.49200007,0
-1.5560098,-0.90348953,-0.050400056,-0.86444992,-0.50193864,-0.028000033,0
-1.0806092,0.57983917,-1.3176001,-0.60033846,0.32213289,-0.73200011,0
1.3706864,0.74764711,0.89567977,0.76149249,0.41535953,0.4975999,0
-1.0909404,0.96259433,1.0598401,-0.60607797,0.53477466,0.58880007,0
-0.2483488,-1.5521804,0.87695998,-0.13797157,-0.86232245,0.48719999,0
-1.1911925,-0.86030561,-1.03968,-0.66177362,-0.47794756,-0.5776,0
1.7122005,0.55394733,-0.038879786,0.95122254,0.30774853,-0.021599881,0
1.6377163,-0.62120277,0.41471976,0.90984243,-0.34511265,0.23039988,0
-1.6624361,-0.23749083,0.648,-0.92357564,-0.13193935,0.36000001,0
-0.40598807,1.082635,1.3795198,-0.22554894,0.60146391,0.76639992,0
0.53334463,0.43509695,-1.6631999,0.29630259,0.24172053,-0.92399997,0
1.0073568,0.67157143,1.332,0.55964267,0.37309524,0.74000001,0
-0.12221342,0.83803499,-1.5883203,-0.067896344,0.46557501,-0.88240016,0
1.5983415,-0.53278059,0.63360012,0.88796753,-0.29598922,0.35200009,0
-0.44771698,0.70601535,-1.5940802,-0.24873166,0.39223075,-0.88560015,0
-1.7205914,0.52139151,0.087840088,-0.95588416,0.28966194,0.048800051,0
0.14153069,-0.63688874,1.6775999,0.078628168,-0.35382709,0.93199998,0
0.67258942,-1.6254245,0.38159978,0.3736608,-0.90301365,0.21199988,0
-1.2840433,-0.97831863,0.79631996,-0.71335739,-0.54351032,0.44239995,0
1.5750091,0.073256165,-0.86832005,0.87500507,0.040697869,-0.48240003,0
-0.42693025,1.665028,-0.53423983,-0.23718348,0.92501557,-0.2967999,0
-0.61822796,-0.69550645,-1.5408001,-0.34345999,-0.38639247,-0.85600007,0
-0.21297894,1.703831,-0.53999972,-0.11832164,0.94657278,-0.29999986,0
-1.1781083,-0.46576372,-1.27872,-0.65450466,-0.25875762,-0.71040004,0
1.2001126,1.2572612,0.46799994,0.66672921,0.69847846,0.25999996,0
-0.24722335,-1.7800077,-0.10224016,-0.13734631,-0.98889321,-0.05680009,0
-1.2667155,-1.2214756,-0.37871984,-0.70373094,-0.67859763,-0.21039993,0
-1.1911925,-0.86030561,-1.03968,-0.66177362,-0.47794756,-0.5776,0
0.49486145,-1.7045233,0.29952005,0.27492303,-0.94695741,0.16640003,0
-1.4112719,0.98361391,-0.52991998,-0.78403997,0.54645216,-0.29440001,0
-0.3861241,-1.5831089,-0.76463991,-0.21451339,-0.87950498,-0.42479995,0
1.090452,0.13630635,1.4255998,0.60580665,0.075725749,0.79199994,0
0.42809436,-0.21404718,1.7351999,0.23783021,-0.1189151,0.96399999,0
0.058634646,1.7004066,0.58751982,0.032574803,0.94467032,0.32639992,0
1.3372632,0.63520008,-1.0238397,0.74292403,0.35288894,-0.56879985,0
-0.34152606,-1.024578,1.4399999,-0.18973671,-0.56920999,0.80000001,0
-1.7535955,0.089927889,-0.39599982,-0.97421974,0.049959939,-0.21999991,0
-1.0368,1.10592,-0.97056001,-0.57600003,0.61439997,-0.53920001,0
1.0589631,-1.3033392,-0.64799982,0.5883128,-0.7240774,-0.35999992,0
-0.028070768,0.68773347,-1.6632001,-0.015594872,0.38207415,-0.92400008,0
-0.63411361,0.35228541,1.64736,-0.35228536,0.19571413,0.9152,0
-0.036712904,-1.5786563,-0.86400008,-0.020396058,-0.87703133,-0.48000005,0
-0.84340614,-1.5875881,-0.090719864,-0.46855897,-0.88199341,-0.050399926,0
0.56811225,0.14202796,1.70208,0.31561792,0.078904428,0.94560003,0
-0.84736985,-1.1298267,-1.1159999,-0.47076103,-0.62768149,-0.62,0
1.1508205,0.067695253,1.3823999,0.63934475,0.037608474,0.76799995,0
1.5192498,0.2473197,-0.93312007,0.84402764,0.13739982,-0.51840001,0
0.57983899,1.080609,-1.3176005,0.3221328,0.60033834,-0.73200029,0
-0.26148996,1.7781311,0.099360235,-0.1452722,0.98785067,0.055200133,0
-0.37200522,-1.753739,0.16128017,-0.20666957,-0.97429949,0.089600094,0
0.9665823,1.3290507,0.73439968,0.53699017,0.73836148,0.40799984,0
-0.96259451,1.0909405,1.0598398,-0.53477472,0.60607803,0.58879995,0
-1.2865697,1.238919,-0.22319977,-0.7147609,0.68828833,-0.12399986,0
-1.4152261,1.1119635,-0.02592019,-0.78623676,0.6177575,-0.014400106,0
-0.00024112161,-0.00082670274,-1.7999997,-0.00013395645,-0.00045927931,-0.99999988,0
-0.74049461,-1.5681064,-0.48240006,-0.41138589,-0.87117022,-0.26800004,0
0,1.0914252,1.4313599,0,0.60634732,0.79519993,0
-0.51756519,-1.2786907,-1.1563201,-0.28753623,-0.71038371,-0.64240009,0
1.0368,-1.3823999,-0.50400001,0.57600003,-0.76799995,-0.28,0
-1.6303445,-0.52403933,0.55439997,-0.905747,-0.29113296,0.308,0
-0.86997211,-1.0499662,-1.1750401,-0.48331785,-0.5833146,-0.65280008,0
0.036712904,1.5786563,-0.86400008,0.020396058,0.87703133,-0.48000005,0
-1.4993713,-0.068153277,-0.99359995,-0.83298409,-0.037862934,-0.55199999,0
1.029348,-0.1372465,1.4702401,0.57186002,-0.076248057,0.81680006,0
-1.798934,-0.051398069,0.034560062,-0.99940777,-0.028554484,0.019200034,0
-0.7014116,1.3026215,-1.0252799,-0.38967311,0.72367865,-0.56959993,0
-0.99700636,-1.1345243,-0.97920001,-0.55389243,-0.63029134,-0.54400003,0
-0.49740478,0.28423148,1.7063999,-0.27633598,0.15790638,0.94799995,0
-0.40155092,0.98156887,-1.4543999,-0.22308385,0.54531604,-0.80799997,0
0.98361391,-1.4112719,-0.52991998,0.54645216,-0.78403997,-0.29440001,0
0.16322264,1.6730313,-0.64368033,0.090679251,0.9294619,-0.35760018,0
1.1065441,1.2704767,-0.63359988,0.61474675,0.70582038,-0.35199994,0
1.4114703,-0.9409802,0.60191995,0.78415018,-0.52276677,0.33439997,0
0.92705595,-1.4485247,0.53135985,0.5150311,-0.80473596,0.29519993,0
-1.1815408,-1.3426601,0.20304,-0.65641153,-0.74592221,0.11279999,0
-0.50142199,-0.82233208,-1.5206399,-0.27856779,-0.45685118,-0.84479994,0
0.20804885,-1.3374571,-1.1865598,0.1155827,-0.74303174,-0.65919989,0
-0.36534023,-1.583141,0.77472007,-0.20296679,-0.8795228,0.43040004,0
-0.98768437,0.79563463,-1.2772803,-0.54871356,0.44201925,-0.70960021,0
-0.49402279,0.49402279,1.65888,-0.2744571,0.2744571,0.92160004,0
1.2473958,0.866247,-0.96624011,0.69299763,0.48124835,-0.53680009,0
-0.98077649,0.18780822,-1.4975998,-0.54487586,0.1043379,-0.83199996,0
-0.42327183,0.56436229,1.656,-0.23515102,0.31353462,0.92000002,0
1.4736364,0.50319284,-0.90288025,0.8186869,0.2795516,-0.50160015,0
-1.6018989,0.80094928,0.17999999,-0.88994384,0.44497183,0.1,0
0.49843049,-0.12460762,-1.7251202,0.27690583,-0.069226459,-0.95840013,0
-0.41155538,1.6462215,0.60048026,-0.22864188,0.91456753,0.33360016,0
0.8386476,1.1612045,1.0900799,0.46591535,0.64511359,0.60559994,0
-0.69598341,-0.55678684,1.5638399,-0.38665745,-0.30932602,0.86879998,0
-1.7562912,-0.045033067,-0.39167982,-0.97571731,-0.025018372,-0.21759991,0
0.60697961,0.06193671,-1.6934401,0.33721089,0.034409285,-0.94080007,0
-1.1247487,-0.66161686,1.23984,-0.62486041,-0.36756495,0.68880004,0
1.2335136,0.91632426,-0.93744016,0.68528533,0.50906903,-0.52080011,0
-1.1365405,0.072545066,-1.3939199,-0.63141143,0.040302817,-0.7744,0
-1.3169506,-0.19754261,1.21104,-0.73163921,-0.1097459,0.6728,0
0.8386476,-1.1612045,1.0900799,0.46591535,-0.64511359,0.60559994,0
1.2046528,0.26770073,1.3103999,0.66925156,0.14872263,0.72799999,0
-0.14097306,-0.70486486,1.6502399,-0.078318372,-0.39159161,0.91680002,0
0.82631403,-1.0624039,-1.1951998,0.45906335,-0.59022439,-0.66399992,0
1.6063604,-0.47595873,0.6580801,0.8924225,-0.26442152,0.36560008,0
-0.94498456,1.1969804,0.95615995,-0.52499145,0.66498911,0.53119999,0
-1.6359205,-0.73880273,0.13392003,-0.90884477,-0.41044596,0.074400015,0
1.4255053,-0.3646642,-1.0368001,0.79194742,-0.20259123,-0.57600009,0
-0.92474794,1.5231142,0.25488028,-0.51374888,0.84617466,0.14160016,0
-0.79848629,0.7300446,-1.4385599,-0.44360352,0.40558034,-0.79919994,0
-0.94498456,-1.1969804,0.95615995,-0.52499145,-0.66498911,0.53119999,0
-1.6782643,-0.64168924,-0.10800002,-0.93236905,-0.35649404,-0.06000001,0
-1.1245866,1.3923452,0.19152002,-0.62477034,0.77352512,0.10640001,0
-0.56565434,-0.35353401,1.67184,-0.31425241,-0.19640779,0.92879999,0
-1.3165318,-1.0173199,0.68688005,-0.73140657,-0.56517774,0.38160005,0
1.540625,-0.88035715,0.30240023,0.85590279,-0.48908731,0.16800013,0
1.4397119,1.0797839,0.03600036,0.79983997,0.59987998,0.020000201,0
1.405943,0.79466337,0.79487985,0.78107947,0.44147965,0.44159994,0
0,-0.70545298,1.656,0,-0.39191833,0.92000002,0
0.96520782,0.020108476,-1.5192002,0.53622657,0.011171376,-0.84400016,0
-0.81795293,1.5813757,0.26495978,-0.4544183,0.87854207,0.14719988,0
1.1809967,-0.65610921,1.1894399,0.65610927,-0.36450514,0.66079998,0
1.1448897,-0.95407474,1.0094399,0.63604981,-0.53004152,0.56079996,0
0.26531976,-1.7245784,-0.44207984,0.14739987,-0.95809913,-0.24559993,0
-0.62207997,-1.3823999,-0.97056007,-0.34559998,-0.76799995,-0.53920007,0
-0.70309752,-0.28123897,1.63296,-0.39060974,-0.15624388,0.90719998,0
-0.96706271,1.5043195,0.20448019,-0.53725708,0.83573312,0.11360011,0
0.1712572,-1.712571,-0.52704006,0.095142893,-0.95142835,-0.29280004,0
-0.063913882,-1.4700205,1.0368,-0.035507713,-0.81667811,0.57600003,0
1.5155259,0.063146852,0.96911991,0.84195888,0.035081584,0.53839993,0
-1.4499412,1.0289906,-0.28080019,-0.80552286,0.57166147,-0.15600011,0
0.32471928,-1.3638207,1.1289599,0.18039961,-0.75767815,0.62719995,0
0.29405278,1.6803018,-0.57455969,0.16336267,0.93350101,-0.31919983,0
0.33801684,1.4534721,-1.0065601,0.18778713,0.80748457,-0.55920005,0
0.80018258,-0.40939575,-1.55952,0.44454589,-0.22744209,-0.8664,0
1.6458689,0.64006007,-0.34848008,0.91437161,0.35558894,-0.19360004,0
-1.5521804,0.248349,0.87695998,-0.86232239,0.13797165,0.48719996,0
0.068198793,-1.0911818,1.42992,0.037888218,-0.60621208,0.79439998,0
0.74386829,1.6365104,-0.092159733,0.41326016,0.90917248,-0.051199853,0
-0.42327183,0.56436229,1.656,-0.23515102,0.31353462,0.92000002,0
-1.3084204,-0.39252615,1.17216,-0.72690028,-0.21807009,0.65120006,0
1.5986255,0.68512535,0.46368021,0.8881253,0.38062522,0.25760013,0
-0.89343137,1.1167892,-1.0929602,-0.49635077,0.62043846,-0.60720015,0
1.1365132,-1.3948114,0.053279966,0.63139623,-0.77489525,0.029599981,0
0.96531039,1.3128221,-0.76463974,0.53628355,0.72934562,-0.42479986,0
-1.4626771,-1.0447693,0.095040053,-0.81259841,-0.58042741,0.05280003,0
0.95407456,-1.1448897,1.0094401,0.53004146,-0.63604987,0.56080008,0
1.2021716,-1.3114598,0.27359974,0.66787308,-0.72858876,0.15199985,0
1.0153563,-1.2409911,-0.81791967,0.56408685,-0.68943954,-0.45439982,0
0.27713937,0.90070242,1.5336,0.15396632,0.50039023,0.852,0
1.5560098,-0.90348953,-0.050400056,0.86444992,-0.50193864,-0.028000033,0
-1.5875881,-0.84340614,-0.090719864,-0.88199341,-0.46855897,-0.050399926,0
1.0352629,-0.97055894,1.1073598,0.57514608,-0.53919941,0.61519986,0
-1.6960241,0.59859675,-0.072000049,-0.94223559,0.33255377,-0.040000029,0
-0.094152182,0.90386081,-1.5537603,-0.052306768,0.50214493,-0.86320019,0
0.55770969,1.6731287,0.35999981,0.30983871,0.92951596,0.1999999,0
1.5109566,-0.91573131,-0.34415975,0.83942038,-0.50873965,-0.19119987,0
0.49247783,0.56283176,1.63728,0.27359879,0.31268433,0.90960002,0
0.6066829,1.5167069,0.75599992,0.33704606,0.84261501,0.41999996,0
1.3824,-0.62208009,-0.97055972,0.76800007,-0.34560007,-0.53919983,0
0.85271615,0.85271615,-1.3363197,0.47373122,0.47373122,-0.74239987,0
1.6803077,0.12294922,-0.63360029,0.93350434,0.068305127,-0.35200018,0
-1.7618798,0.36273992,0.064799979,-0.97882211,0.20152219,0.035999991,0
-1.5989597,-0.82526946,0.047519993,-0.88831097,-0.45848304,0.026399996,0
1.2409911,1.0153563,-0.81791967,0.68943954,0.56408685,-0.45439982,0
0.45191684,1.3557504,1.0944002,0.25106493,0.75319469,0.6080001,0
0.65658301,-0.80978566,-1.4673601,0.36476836,-0.44988093,-0.81520009,0
-0.22875158,-1.4378672,-1.0583999,-0.12708421,-0.79881513,-0.58799994,0
1.5016707,0.37541768,0.91871989,0.8342616,0.2085654,0.5104,0
0.87362194,-0.958166,-1.2484801,0.48534554,-0.53231448,-0.69360006,0
-0.53416038,1.7093133,0.18144009,-0.29675576,0.94961852,0.10080005,0
-1.0156595,-0.5416851,1.38384,-0.56425524,-0.30093616,0.76880002,0
-0.48405212,-1.7210741,0.20880005,-0.26891786,-0.95615232,0.11600003,0
-1.4336861,-0.9749065,0.48384005,-0.79649234,-0.54161471,0.26880002,0
-0.36283433,-1.7234628,-0.37151998,-0.20157464,-0.95747936,-0.20639999,0
-0.83530295,-1.4319479,-0.70128018,-0.46405721,-0.79552668,-0.3896001,0
1.5831087,0.38612413,-0.76464033,0.87950486,0.21451341,-0.42480019,0
1.7205914,-0.52139133,0.087840177,0.95588416,-0.28966185,0.0488001,0
0.86300105,1.5641893,0.22031969,0.47944504,0.86899406,0.12239983,0
0.24176568,-1.6520654,-0.67247993,0.13431427,-0.91781414,-0.37359998,0
-0.67677391,1.6659051,0.082080081,-0.3759855,0.9255029,0.045600045,0
-0.93482858,-0.90650046,-1.2427198,-0.51934922,-0.50361139,-0.69039989,0
0,0.56857926,1.70784,0,0.31587738,0.94880003,0
0.099766023,1.7957902,-0.072000138,0.055425569,0.99766123,-0.040000077,0
0.3598848,1.6194814,0.69840014,0.199936,0.89971197,0.3880001,0
1.150486,1.1901579,-0.70704025,0.6391589,0.66119885,-0.39280015,0
1.0218927,-1.4817446,0.012959889,0.56771815,-0.82319146,0.0071999384,0
-0.42879128,0.071465142,1.74672,-0.23821738,0.039702859,0.97039998,0
-0.39769819,1.1665813,-1.3118399,-0.22094345,0.64810073,-0.7288,0
0.77110338,1.5972859,0.30671987,0.42839077,0.88738108,0.17039993,0
0.24491869,-1.5919706,0.80352002,0.13606595,-0.88442814,0.44640002,0
1.6341938,-0.70815063,0.26063991,0.90788543,-0.39341703,0.14479995,0
1.0519178,1.3441172,0.57167983,0.58439881,0.74673176,0.31759992,0
-0.3157309,-0.18356448,-1.76256,-0.17540605,-0.10198027,-0.97920001,0
-1.5706961,0.483291,0.73440009,-0.87260896,0.26849499,0.40800005,0
-0.92502487,-1.2950349,0.84095991,-0.51390272,-0.71946383,0.46719995,0
0.83525503,-0.27236581,-1.5710397,0.46403059,-0.15131435,-0.87279981,0
-1.7646669,0.18575451,-0.30239996,-0.98037052,0.10319695,-0.16799998,0
1.614938,-0.75997084,-0.23327972,0.89718783,-0.42220604,-0.12959985,0
1.1240996,1.3489195,-0.39600009,0.6244998,0.74939972,-0.22000006,0
-0.87042964,0.87042964,1.31328,-0.48357204,0.48357204,0.72960001,0
-0.45148998,1.6930873,0.41183984,-0.25082779,0.94060409,0.22879992,0
1.3440337,1.1946968,-0.079199918,0.74668545,0.66372043,-0.043999955,0
1.3706864,-0.74764711,0.89567977,0.76149249,-0.41535953,0.4975999,0
1.0529246,-1.176798,0.8639999,0.58495814,-0.65377671,0.47999996,0
-0.37541768,-1.5016707,0.91871989,-0.2085654,-0.8342616,0.5104,0
1.7618798,-0.36273995,0.06480027,0.97882211,-0.2015222,0.036000151,0
-1.0867946,1.412833,0.25056013,-0.60377479,0.78490722,0.13920008,0
-1.0218927,-1.4817446,0.012959889,-0.56771815,-0.82319146,0.0071999384,0
1.6930873,0.45148984,0.41183993,0.94060409,0.2508277,0.22879997,0
-1.4314606,-1.0859356,-0.10800017,-0.7952559,-0.60329759,-0.060000096,0
-0.79102284,-0.89309025,-1.34784,-0.43945715,-0.49616125,-0.74879998,0
-1.6885853,-0.041184969,-0.62207991,-0.93810296,-0.022880539,-0.34559995,0
-0.52403939,1.6303444,0.55440021,-0.29113299,0.90574694,0.30800012,0
-0.33156914,-1.7525799,-0.24192002,-0.18420509,-0.97365552,-0.13440001,0
-1.6960241,0.59859675,-0.072000049,-0.94223559,0.33255377,-0.040000029,0
1.2849528,-0.91782337,-0.8640002,0.71386266,-0.50990188,-0.48000014,0
-0.099766172,1.7957902,-0.072000153,-0.055425651,0.99766123,-0.040000085,0
-0.69187498,-0.29212499,-1.6358398,-0.38437501,-0.16229166,-0.90879995,0
-1.753891,-0.40088943,-0.056159969,-0.97438389,-0.22271636,-0.031199984,0
-0.98099726,0.45627776,-1.43856,-0.54499847,0.25348765,-0.7992,0
-1.3705289,-1.1596783,0.12960008,-0.76140505,-0.64426583,0.072000049,0
1.2862434,0.25724861,-1.2326398,0.7145797,0.1429159,-0.68479991,0
-0.41146725,-0.9600901,1.46592,-0.22859293,-0.53338343,0.81440002,0
-0.81692559,-0.74884856,1.4183999,-0.45384756,-0.41602698,0.78799999,0
1.3506823,-0.51454574,1.0728,0.75037903,-0.28585875,0.59600002,0
-1.0807629,0.13796975,-1.4327999,-0.60042381,0.07664986,-0.796,0
0.034619555,-0.095712878,-1.79712,0.019233087,-0.053173821,-0.99840003,0
-1.0615915,0.72984427,1.2571199,-0.58977306,0.40546906,0.69839996,0
1.1247488,0.66161704,1.2398398,0.62486047,0.36756504,0.68879992,0
0.60704821,-1.0117474,1.35936,0.33724901,-0.56208187,0.75520003,0
1.0272844,1.0272844,1.0627197,0.57071358,0.57071358,0.59039986,0
-1.3136992,-0.23354657,-1.2081598,-0.72983295,-0.12974809,-0.67119992,0
-0.21452618,0.35754371,1.75104,-0.11918122,0.1986354,0.97280002,0
-0.89131576,-0.54850209,1.4644799,-0.49517542,-0.30472338,0.8136,0
-0.79848629,0.7300446,-1.4385599,-0.44360352,0.40558034,-0.79919994,0
-0.29212499,-0.69187498,-1.6358398,-0.16229166,-0.38437501,-0.90879995,0
-1.5258123,-0.94705588,0.12239978,-0.84767348,-0.52614218,0.067999877,0
-1.0566442,0.67733604,-1.2902398,-0.58702457,0.3762978,-0.71679991,0
-1.2367244,-0.98937953,0.85536009,-0.68706912,-0.54965532,0.47520006,0
-0.64808625,0.68736428,-1.53216,-0.36004794,0.38186905,-0.85120004,0
-0.41215214,1.7516462,0.043200225,-0.22897342,0.97313678,0.024000125,0
1.5983416,-0.53278053,-0.63359982,0.88796759,-0.29598919,-0.35199991,0
-0.63719594,0.37928328,-1.6401602,-0.35399777,0.21071294,-0.91120017,0
0,-1.4703937,1.0382401,0,-0.81688541,0.57680005,0
-1.0024821,0.73515356,1.3017598,-0.55693448,0.40841866,0.7231999,0
0.83714426,0.20928586,1.57968,0.46508014,0.11626992,0.87760001,0
-1.0289905,-1.4499413,-0.28080001,-0.57166141,-0.80552298,-0.15600002,0
-1.3583238,-1.0039784,0.62208015,-0.75462437,-0.55776578,0.3456001,0
1.1500391,0.13529858,1.3780799,0.63891059,0.075165883,0.76559997,0
-0.87544769,0.80810565,1.34928,-0.48635983,0.44894761,0.74959999,0
-1.582592,0.76868767,-0.38016,-0.8792178,0.42704871,-0.21120001,0
-1.2192048,-0.29802787,-1.2902398,-0.67733604,-0.16557105,-0.71679991,0
-1.7841873,-0.20990434,0.11231997,-0.99121523,-0.11661353,0.062399983,0
-1.1365131,1.3948115,0.053280156,-0.63139617,0.77489531,0.029600088,0
-1.5045196,-0.98571962,0.069119833,-0.83584422,-0.54762203,0.038399909,0
0.74764711,1.3706864,0.89567977,0.41535953,0.76149249,0.4975999,0
-1.6228199,0.49932924,-0.59759986,-0.90156662,0.27740514,-0.33199993,0
-1.4977903,0.71893936,0.69263995,-0.83210576,0.39941075,0.38479999,0
-1.0501885,-1.3442413,-0.57455993,-0.5834381,-0.74680072,-0.31919998,0
-0.9409802,1.4114703,0.60191995,-0.52276677,0.78415018,0.33439997,0
-0.59859699,-0.13717851,-1.6919998,-0.33255392,-0.07621029,-0.94,0
0.78298128,-1.6181616,0.092160076,0.4349896,-0.89897865,0.051200043,0
1.7883124,-0.2043785,0.012959769,0.99350691,-0.11354361,0.0071998718,0
-0.068153277,-1.4993713,-0.99359995,-0.037862934,-0.83298409,-0.55199999,0
1.6343479,0.1210627,0.74448013,0.90797108,0.067257054,0.41360009,0
1.0529246,1.176798,0.8639999,0.58495814,0.65377671,0.47999996,0
-1.4396104,-1.0663781,0.17424022,-0.79978353,-0.59243232,0.096800126,0
-0.38896,-1.7503198,-0.15840018,-0.21608889,-0.97239995,-0.088000104,0
0.30796504,0.34529418,-1.7395198,0.17109169,0.1918301,-0.96639991,0
0.34096092,0.95895243,-1.4846399,0.18942274,0.53275138,-0.82479995,0
-0.56005222,-0.068577826,-1.7092801,-0.31114012,-0.038098793,-0.9496001,0
0.4964847,0.35463205,1.69344,0.27582484,0.1970178,0.94080001,0
0.5378741,-1.0757484,1.3392,0.29881895,-0.59763801,0.74400002,0
-0.37928328,0.63719594,-1.6401602,-0.21071294,0.35399777,-0.91120017,0
-0.96008998,-0.50290424,-1.4371202,-0.53338331,-0.27939126,-0.7984001,0
1.3731552,-0.99865848,-0.59759986,0.76286405,-0.55481029,-0.33199993,0
1.41925,-0.19353406,1.0900798,0.78847224,-0.10751893,0.60559988,0
-1.4700205,-0.063913882,1.0368,-0.81667811,-0.035507713,0.57600003,0
0.03416774,1.5033821,-0.98927993,0.018982079,0.83521229,-0.54959995,0
-1.3442413,1.0501885,-0.57455993,-0.74680072,0.5834381,-0.31919998,0
0.72983998,-1.0666893,-1.2527999,0.40546668,-0.59260517,-0.69599992,0
0.49916109,-0.38397011,-1.6862398,0.27731171,-0.21331674,-0.93679994,0
-0.56670868,0.28335437,-1.6848001,-0.31483817,0.1574191,-0.93600011,0
-0.80018228,0.40939564,-1.5595202,-0.44454572,0.22744203,-0.86640018,0
-1.6933806,0.54625189,0.2721599,-0.94076705,0.30347329,0.15119995,0
-1.4712459,-0.90871072,-0.49968007,-0.81735885,-0.5048393,-0.27760005,0
1.0519178,-1.344117,0.57168001,0.58439881,-0.7467317,0.31760001,0
0.41098815,1.3594224,-1.1059201,0.22832675,0.75523472,-0.61440003,0
-1.3113831,-1.0998696,-0.55727994,-0.7285462,-0.61103868,-0.30959997,0
0,-1.5989991,0.82656002,0,-0.8883329,0.45920002,0
-1.2214756,-1.2667155,-0.37871984,-0.67859763,-0.70373094,-0.21039993,0
-1.3161899,1.2186944,-0.14975984,-0.73121661,0.6770525,-0.083199918,0
-0.036712904,1.5786563,-0.86400008,-0.020396058,0.87703133,-0.48000005,0
0,-1.5588456,0.89999998,0,-0.86602539,0.5,0
-0.91921628,-0.98487473,1.19376,-0.51067573,-0.54715264,0.66320002,0
-0.33920437,0.35915759,-1.7308801,-0.18844688,0.199532,-0.96160012,0
-0.94705588,1.5258123,0.12239978,-0.52614218,0.84767348,0.067999877,0
-1.2650857,0.066583395,1.27872,-0.70282537,0.036990773,0.71039999,0
0.15273511,-1.3746157,-1.1519998,0.084852844,-0.76367539,-0.63999993,0
-1.4378672,0.22875158,-1.0583999,-0.79881513,0.12708421,-0.58799994,0
-0.97286361,1.4824588,-0.30959997,-0.54047978,0.82358825,-0.17199999,0
-1.2627165,0.19937611,1.2672,-0.70150918,0.1107645,0.704,0
-0.96431404,0.27551848,1.49472,-0.53573006,0.15306583,0.83039999,0
-0.89099109,1.417486,-0.6609602,-0.49499506,0.78749222,-0.36720011,0
