-0.97666824,-0.24416706,1.8429599,-0.46508014,-0.11627004,0.87759995,0
-1.5545901,1.0660046,-0.92567998,-0.74028105,0.50762129,-0.44080001,0
0.80569983,0.80569983,1.7639997,0.3836666,0.3836666,0.83999991,0
2.0744863,0.30507162,0.11592028,0.98785067,0.14527221,0.055200133,0
-0.82302845,0,1.9319999,-0.39191833,0,0.92000002,0
-1.7254695,1.1503131,0.33096012,-0.82165217,0.54776818,0.15760006,0
-0.86875665,1.0267122,1.6127999,-0.41369367,0.48891059,0.76800001,0
1.8056678,0.76028126,-0.75600004,0.85984182,0.3620387,-0.36000004,0
-1.4695295,1.2595967,0.81479985,-0.69977599,0.59980798,0.38799995,0
-0.81967825,-1.3898892,-1.3439996,-0.39032298,-0.66185206,-0.63999987,0
0.46847606,-1.1451637,-1.6967999,0.22308385,-0.54531604,-0.80799997,0
0.23218064,-1.0912488,-1.77912,0.11056221,-0.51964229,-0.84720004,0
-1.7393274,0.99390137,-0.62999982,-0.82825118,0.47328639,-0.29999992,0
1.2627913,1.1885096,1.1843997,0.60132921,0.56595695,0.56399989,0
-1.3401914,0.23650415,1.59936,-0.6381864,0.11262103,0.76160002,0
-1.5527127,1.3586234,0.39144006,-0.73938704,0.64696354,0.18640004,0
0.79010648,0.16460554,-1.9387203,0.37624121,0.078383595,-0.92320019,0
0.25677097,2.0541666,0.35280004,0.1222719,0.97817457,0.16800003,0
1.3380597,-0.31483749,1.5875999,0.63717127,-0.14992262,0.75599998,0
-0.67279738,1.5324829,-1.2684003,-0.32037973,0.72975379,-0.60400015,0
-1.3739587,-1.0599109,-1.1827197,-0.65426606,-0.5047195,-0.56319988,0
0.33323357,0.41654184,2.0311198,0.15868266,0.19835328,0.96719998,0
1.8333896,-0.65813982,-0.78455973,0.8730427,-0.31339994,-0.37359989,0
-1.1845824,-1.4478229,-0.95423961,-0.56408685,-0.68943954,-0.45439982,0
-0.24972171,-0.49944341,2.0244,-0.1189151,-0.23783021,0.96400005,0
1.7789367,0.64041704,0.91392004,0.84711277,0.30496052,0.43520004,0
-0.24905965,-0.58113909,2.0025599,-0.11859984,-0.27673292,0.95359999,0
-1.4980505,1.1413718,0.92903978,-0.71335739,0.54351044,0.44239992,0
0.87491548,1.5831805,-1.0667998,0.41662642,0.75389552,-0.5079999,0
-0.88221598,1.5438777,1.1172001,-0.42010286,0.7351799,0.53200006,0
1.9085739,-0.86193651,0.15624003,0.90884477,-0.41044599,0.074400015,0
0.35929254,0.40284318,-2.0294397,0.17109169,0.1918301,-0.96639991,0
1.5393786,0.076968864,1.4263201,0.73303747,0.036651842,0.67920005,0
0.4700999,1.3319498,1.5539998,0.2238571,0.63426185,0.73999995,0
-1.0465738,-1.345595,1.2264,-0.49836847,-0.64075953,0.58400005,0
-1.072419,-1.1490206,1.39272,-0.51067579,-0.5471527,0.66320002,0
0.7603333,-1.1404999,-1.5909597,0.3620635,-0.54309523,-0.75759989,0
-0.48084411,-2.0435872,0.050399922,-0.2289734,-0.97313678,0.023999963,0
-0.38683066,-2.0446765,-0.28224003,-0.18420509,-0.97365552,-0.13440003,0
-1.0155013,-1.0155013,1.5321599,-0.48357204,-0.48357204,0.72960001,0
1.2985594,1.5035954,0.68039978,0.61836165,0.71599782,0.32399991,0
-1.7589928,-0.77395695,0.84671992,-0.83761567,-0.36855096,0.40319997,0
0.79022539,-1.2327515,-1.5052798,0.37629783,-0.58702457,-0.71679991,0
-0.68592161,1.4480566,1.35744,-0.32662934,0.68955076,0.64640003,0
-0.36113402,-0.30411285,-2.0462399,-0.17196859,-0.14481565,-0.97439998,0
1.163938,-1.7459072,-0.084000036,0.55425626,-0.83138442,-0.040000018,0
2.0462062,0.46770412,-0.065520234,0.97438395,0.22271626,-0.031200113,0
0.13669035,-1.982012,0.68039978,0.065090641,-0.94381529,0.32399991,0
-0.26745254,2.0058947,0.56111985,-0.12735836,0.95518798,0.26719993,0
0.28205991,1.9274094,-0.78456032,0.13431425,0.91781408,-0.37360018,0
1.0155013,1.0155013,1.5321599,0.48357204,0.48357204,0.72960001,0
0.17422643,-2.0907192,-0.092400141,0.082964972,-0.99558061,-0.044000071,0
-1.3872722,1.5537447,-0.26711971,-0.66060585,0.73987848,-0.12719986,0
-0.74118853,-0.32941702,1.93704,-0.35294694,-0.15686525,0.92240006,0
0.29098481,-0.65471584,-1.9739996,0.1385642,-0.31176946,-0.93999988,0
1.8634523,-0.14334257,0.95760006,0.88735831,-0.068258367,0.45600006,0
0.63335776,-1.952853,-0.44184005,0.30159894,-0.92993003,-0.21040003,0
-0.56472743,-2.0079198,0.24360006,-0.26891783,-0.95615232,0.11600003,0
-1.133147,0.32023719,-1.7388,-0.53959382,0.15249391,-0.82800007,0
1.345595,1.0465738,1.2264,0.64075953,0.49836847,0.58400005,0
-1.1031027,1.6306735,-0.73079956,-0.52528703,0.77651125,-0.34799981,0
1.5666339,-1.3505464,-0.3628802,0.7460162,-0.64311737,-0.17280011,0
-1.0465738,-1.345595,1.2264,-0.49836847,-0.64075953,0.58400005,0
1.819788,0.48823583,-0.92736036,0.86656576,0.23249327,-0.4416002,0
0.24442677,0.95733821,-1.8530403,0.11639371,0.45587537,-0.88240021,0
0.24442701,-0.95733905,-1.8530399,0.11639382,-0.45587575,-0.88239998,0
0.51944351,-1.9738848,-0.49392,0.24735406,-0.93994522,-0.2352,0
-1.599134,-0.87225497,1.0449599,-0.76149237,-0.41535953,0.49759999,0
1.215395,-1.4298762,0.94247997,0.57875955,-0.68089348,0.4488,0
0.37159544,0.92898852,-1.8463198,0.17695022,0.44237551,-0.87919992,0
-1.0658604,1.7951332,-0.22679989,-0.50755256,0.85482538,-0.10799995,0
-0.54655498,-0.33834353,-1.9992001,-0.26026428,-0.16111597,-0.95200008,0
0.24144679,1.1267527,1.7556,0.11497467,0.53654897,0.83600003,0
-0.79485488,1.6619693,1.0079998,-0.37850234,0.79141396,0.47999993,0
1.2740338,-1.3165015,-1.0264801,0.60668278,-0.6269055,-0.48880005,0
0.57020837,0.8145836,1.8496798,0.2715278,0.38789696,0.88079995,0
-0.23162077,1.6985523,-1.2129599,-0.11029561,0.80883443,-0.57759994,0
-0.47696617,-1.1924155,1.6615199,-0.22712676,-0.56781691,0.79119998,0
-1.2883092,1.3598819,0.94919991,-0.61348063,0.6475628,0.45199999,0
0.87225497,-1.599134,1.0449599,0.41535953,-0.76149237,0.49759999,0
1.4918058,-0.60382611,-1.3490402,0.71038371,-0.28753626,-0.64240009,0
0.88588434,0.72481412,1.7606399,0.4218497,0.34514961,0.83840001,0
-1.1178603,1.0192256,-1.45656,-0.53231448,0.48534554,-0.69360006,0
0.70262361,-1.9457271,-0.36120012,0.33458269,-0.92653674,-0.17200007,0
1.6540749,1.1909339,0.50567991,0.78765476,0.56711143,0.24079996,0
-0.96501923,-1.777667,-0.56447989,-0.45953298,-0.84650815,-0.26879996,0
-0.40654618,-1.9819123,-0.56279981,-0.19359343,-0.94376779,-0.26799992,0
-1.2730453,0.079565257,1.66824,-0.60621208,0.037888218,0.79440004,0
-1.425055,1.4778348,-0.44183955,-0.67859769,0.70373088,-0.21039979,0
-1.7309446,-0.64910424,0.99623984,-0.8242594,-0.30909726,0.47439995,0
1.7550395,-1.1282399,0.23856021,0.83573312,-0.53725713,0.11360011,0
1.0262915,1.4661307,1.0987201,0.48871025,0.69815755,0.52320004,0
-1.4478229,1.1845824,-0.95423961,-0.68943954,0.56408685,-0.45439982,0
0.85171831,0.93156701,-1.6783202,0.40558016,0.44360337,-0.79920012,0
1.5829558,1.1173807,-0.80975974,0.75378853,0.53208607,-0.38559988,0
0.40936545,0.81873089,1.8899999,0.19493593,0.38987187,0.89999998,0
1.7209753,-0.96374601,0.72072005,0.81951207,-0.45892671,0.34320003,0
-0.081924684,0.90117252,1.8950399,-0.039011758,0.42912978,0.90240002,0
1.4655416,0.88703841,-1.21464,0.69787699,0.42239925,-0.57840002,0
-0.62777621,1.9974697,-0.16128032,-0.29894108,0.95117605,-0.076800153,0
-0.59379864,1.6329463,1.1793597,-0.28276128,0.77759349,0.56159985,0
0.30963102,1.4707466,1.4666399,0.14744335,0.70035559,0.69839996,0
1.1130869,-1.3357046,1.17768,0.5300414,-0.63604981,0.56080002,0
0.71720433,-1.0359621,1.6800001,0.34152588,-0.49331531,0.80000007,0
0.45794716,1.5264904,1.36752,0.21807009,0.72690022,0.6512,0
-1.7694914,-0.70779651,0.88199997,-0.84261501,-0.33704597,0.42000002,0
0.59860909,-0.23423837,-1.9991996,0.28505197,-0.11154208,-0.95199984,0
0.10057566,2.0115151,-0.59471965,0.047893174,0.9578644,-0.28319985,0
-1.3547091,1.2277052,-1.0332001,-0.64509964,0.58462155,-0.4920001,0
1.3422337,-1.3885175,-0.8248803,0.6391589,-0.66119885,-0.39280015,0
-0.6372937,-1.9756106,0.31751999,-0.3034732,-0.94076699,0.1512,0
-0.38621742,-1.4676259,1.45152,-0.18391307,-0.69886947,0.69120002,0
-1.1972164,-0.31231731,-1.6968001,-0.57010305,-0.14872253,-0.80800009,0
2.065695,-0.1630812,-0.34103993,0.98366433,-0.077657714,-0.16239998,0
0.96515667,-0.64343786,1.7505598,0.45959845,-0.30639899,0.83359993,0
1.2272375,-1.5681366,0.66696,0.58439881,-0.74673176,0.31760001,0
1.3505464,-1.5666339,-0.3628802,0.64311737,-0.7460162,-0.17280011,0
-1.4099385,-0.68777484,-1.3960798,-0.6713993,-0.32751185,-0.66479993,0
1.9274094,-0.28205991,-0.78456032,0.91781408,-0.13431425,-0.37360018,0
-0.80201298,-0.88221443,1.7287198,-0.38191095,-0.42010212,0.82319993,0
1.8893949,-0.41986558,0.81480014,0.89971191,-0.199936,0.38800007,0
-1.5973699,-0.2281957,1.3439999,-0.76065236,-0.10866462,0.63999999,0
-0.33834353,-0.54655498,-1.9992001,-0.16111597,-0.26026428,-0.95200008,0
1.2820228,1.0557833,1.2851999,0.6104871,0.50275397,0.61199999,0
-0.88703841,-1.4655417,-1.2146398,-0.42239925,-0.69787705,-0.5783999,0
0.88530588,-0.9121334,-1.6715997,0.42157423,-0.43434927,-0.79599994,0
1.9480466,0.06957303,0.78120023,0.92764127,0.033130016,0.37200013,0
-0.49944341,0.24972145,2.0244,-0.23783021,0.11891498,0.96400005,0
-0.81657332,-1.9053377,-0.33599994,-0.38884446,-0.90730369,-0.15999998,0
-1.7612041,0.29353416,1.1054399,-0.83866864,0.13977818,0.52639997,0
1.2284122,1.372931,1.0079999,0.5849582,0.65377671,0.47999996,0
0.34925371,0.06414862,-2.0697601,0.16631129,0.030546963,-0.98560011,0
-1.120105,-0.5867216,-1.6766402,-0.53338337,-0.27939126,-0.7984001,0
-0.95733905,-0.24442701,-1.8530399,-0.45587575,-0.11639382,-0.88239998,0
1.5408906,-1.4176193,0.16128008,0.73375744,-0.67505687,0.076800041,0
0.97770745,-0.14258231,-1.8530402,0.46557501,-0.067896344,-0.88240016,0
-0.41315708,1.928066,0.72240025,-0.19674148,0.9181267,0.34400013,0
-1.6957175,-0.39435288,-1.17432,-0.80748457,-0.1877871,-0.55919999,0
1.9395087,0.27707285,0.75600022,0.92357558,0.13193946,0.36000013,0
0.69755429,-1.8136406,0.79631996,0.33216873,-0.8636384,0.37920001,0
2.0103219,-0.20103219,0.57287985,0.95729619,-0.095729619,0.27279994,0
1.8926337,0.36929429,-0.83160031,0.90125418,0.17585443,-0.39600018,0
-0.92648345,0.15441388,-1.8782398,-0.44118261,0.073530421,-0.89439994,0
-1.9324636,-0.81983304,-0.058799744,-0.92022085,-0.39039671,-0.02799988,0
1.3759372,-1.2871672,-0.92736018,0.65520823,-0.61293679,-0.44160011,0
-1.7519492,0.4379873,1.0718399,-0.83426154,0.20856538,0.5104,0
0.083375998,-0.50025648,2.0378399,0.039702859,-0.23821738,0.97039998,0
0.25944993,-2.0237091,-0.49727982,0.12354759,-0.96367103,-0.23679993,0
-1.0367491,1.4070168,1.16424,-0.49369007,0.670008,0.55440003,0
1.6279322,0.99091506,0.88199985,0.77520585,0.47186434,0.41999996,0
-2.0646918,0.064521559,0.37800005,-0.9831866,0.030724553,0.18000004,0
1.1350075,-1.7295353,-0.36119977,0.54047978,-0.82358831,-0.1719999,0
-1.5940429,-1.2619506,0.52583992,-0.75906807,-0.6009289,0.25039998,0
-1.4764895,-0.95971823,1.14408,-0.70309031,-0.45700869,0.54480004,0
-1.8242664,-0.96578813,-0.38640007,-0.86869836,-0.45989913,-0.18400005,0
1.44164,-0.18804002,-1.5153596,0.6864953,-0.089542873,-0.72159988,0
1.9053377,0.81657314,-0.33600014,0.90730369,0.38884437,-0.16000007,0
-1.2627912,1.1885096,1.1843998,-0.60132915,0.56595695,0.56399995,0
-0.96157074,0.72117782,1.722,-0.45789084,0.34341803,0.82000005,0
0.58499193,0.95938689,-1.7740803,0.27856761,0.45685092,-0.84480017,0
-0.91697836,1.8339567,0.45360032,-0.43665639,0.87331277,0.21600015,0
-1.1889488,-0.55484265,1.6396799,-0.5661661,-0.26421079,0.78079998,0
1.1404999,-0.7603333,-1.5909597,0.54309523,-0.3620635,-0.75759989,0
1.0931107,0.93695211,1.5288,0.52052891,0.44616771,0.72800004,0
0.36113402,0.30411285,-2.0462399,0.17196859,0.14481565,-0.97439998,0
0.090906374,1.9090358,-0.87024021,0.043288752,0.90906471,-0.41440013,0
1.7304227,-0.15731113,-1.1793599,0.82401085,-0.074910067,-0.56159997,0
0,-1.8186532,1.05,0,-0.86602539,0.5,0
-1.0643935,1.2164501,1.3406398,-0.50685406,0.57926196,0.63839996,0
0.54236418,-1.3946509,1.4733599,0.25826865,-0.66411954,0.70160002,0
-1.9980915,-0.35863176,-0.53759974,-0.95147216,-0.17077704,-0.25599989,0
-0.032878224,1.5123997,-1.4565597,-0.015656298,0.72019035,-0.69359988,0
0.88221443,-0.80201298,1.7287198,0.42010212,-0.38191095,0.82319993,0
-1.5409318,-0.50169867,-1.3356,-0.73377711,-0.23890413,-0.63600004,0
-0.15308362,0.3706235,-2.0613596,-0.072896965,0.17648739,-0.98159987,0
-0.93156731,-0.85171866,-1.6783198,-0.44360352,-0.40558034,-0.79919994,0
-0.29969519,-1.2532707,-1.6581601,-0.142712,-0.59679562,-0.78960007,0
-0.24042203,-1.3824264,-1.5624001,-0.11448669,-0.65829831,-0.74400008,0
-1.1047837,1.17606,-1.3439997,-0.52608746,0.56002855,-0.63999993,0
-0.67798769,1.9774641,-0.1999203,-0.3228513,0.94164962,-0.095200144,0
1.8647317,-0.62157732,0.73920012,0.88796753,-0.29598922,0.35200006,0
1.3898892,-0.81967825,-1.3439996,0.66185206,-0.39032298,-0.63999987,0
1.0815653,-1.6899455,0.61991984,0.5150311,-0.80473596,0.29519993,0
-1.9274095,0.28205994,-0.78455991,-0.91781408,0.13431427,-0.37359998,0
-2.0079198,0.56472725,0.24360014,-0.95615232,0.26891774,0.11600007,0
1.0263796,1.8246748,-0.16463996,0.48875222,0.86889285,-0.078399986,0
-1.5950303,-0.56965369,-1.2415202,-0.75953829,-0.27126369,-0.59120011,0
1.8494258,-0.30823758,-0.94584018,0.88067901,-0.14677981,-0.45040011,0
1.9119313,-0.54626626,0.6753602,0.91044348,-0.2601268,0.32160011,0
1.4991115,-1.0707939,-1.0080003,0.71386266,-0.50990188,-0.48000014,0
1.0387168,1.6619471,0.75432003,0.49462706,0.79140341,0.35920003,0
0.1552522,-1.4748974,1.4868,0.073929623,-0.70233214,0.708,0
0.72575992,-1.6127999,-1.13232,0.34559998,-0.76800001,-0.53920007,0
1.36136,1.588253,-0.18479981,0.64826667,0.756311,-0.08799991,0
1.197729,0.31939462,1.69512,0.57034719,0.15209268,0.80720001,0
2.0308189,0.44424164,0.29736009,0.96705669,0.21154365,0.14160006,0
-0.059964407,2.0987563,0.040319722,-0.028554481,0.99940783,0.019199869,0
1.2272375,-1.5681366,0.66696,0.58439881,-0.74673176,0.31760001,0
1.0926756,-1.2810678,-1.2549602,0.52032173,-0.61003232,-0.5976001,0
-0.76960707,0.22924463,-1.9403999,-0.36647958,0.10916412,-0.92399997,0
1.2302027,0.54357791,-1.6128,0.58581084,0.25884664,-0.76800001,0
-0.24094953,1.0295116,-1.8144004,-0.11473788,0.49024361,-0.86400026,0
0.095921859,1.9664001,-0.73080033,0.045677077,0.93638104,-0.34800017,0
0.76968563,-0.57233042,-1.8681599,0.36651698,-0.2725383,-0.88959998,0
-2.0995798,0,0.042000066,-0.99979997,0,0.020000033,0
-0.47517577,1.9007031,-0.75599962,-0.22627419,0.90509677,-0.35999984,0
-0.33058032,0.66116065,-1.9655999,-0.1574192,0.31483841,-0.93599999,0
-1.857299,-0.28573826,0.93744004,-0.88442814,-0.13606584,0.44640005,0
-0.079512149,-1.7492664,-1.1592,-0.03786293,-0.83298403,-0.55199999,0
-0.42623028,-1.8469977,0.90384007,-0.20296681,-0.8795228,0.43040004,0
1.5124888,1.4543163,-0.085679911,0.72023284,0.69253159,-0.04079996,0
-0.66333401,1.923669,0.5191198,-0.31587335,0.91603291,0.24719992,0
1.5458919,-0.58891118,-1.2936002,0.736139,-0.28043389,-0.61600012,0
-1.4731693,0.23260546,1.4784,-0.70150924,0.11076451,0.70400006,0
1.36136,1.588253,-0.18479981,0.64826667,0.756311,-0.08799991,0
-1.5829557,1.1173806,-0.80976009,-0.75378847,0.53208601,-0.38560006,0
1.6459286,0.036576156,-1.3036797,0.78377557,0.017417219,-0.6207999,0
0.3219294,2.0388861,-0.38639992,0.15329972,0.97089815,-0.18399997,0
1.5409318,-0.50169867,-1.3356,0.73377711,-0.23890413,-0.63600004,0
-0.91352463,-1.8841444,-0.15959978,-0.43501174,-0.89721167,-0.075999901,0
1.877756,-0.938878,-0.050399903,0.89416957,-0.44708478,-0.023999956,0
-1.7903471,-0.82631409,0.72240001,-0.85254627,-0.39348292,0.34400001,0
1.2532383,-1.1393076,-1.2415199,0.59678018,-0.54252744,-0.59119999,0
0.96157074,0.72117782,1.722,0.45789084,0.34341803,0.82000005,0
1.619676,0.14397128,-1.3288798,0.77127433,0.068557754,-0.63279992,0
-0.45047805,1.8469602,-0.89208031,-0.21451336,0.87950492,-0.42480016,0
1.3507031,1.4857737,0.61487985,0.64319199,0.70751131,0.29279995,0
1.44164,-0.18804002,-1.5153596,0.6864953,-0.089542873,-0.72159988,0
1.5438777,-0.88221598,1.1172001,0.7351799,-0.42010286,0.53200006,0
1.442845,1.1542763,0.99791992,0.68706906,0.54965538,0.47519997,0
-0.61137927,1.9020685,0.64680022,-0.29113299,0.90574694,0.30800012,0
-1.2972907,-0.47174206,-1.5825598,-0.6177575,-0.22463909,-0.75359994,0
0.58891124,1.5458918,-1.2936003,0.28043392,0.73613894,-0.61600018,0
0.016631126,-0.81492603,-1.9353601,0.0079195844,-0.38806003,-0.9216001,0
-1.5059398,-1.4431922,0.2436,-0.71711427,-0.68723446,0.116,0
-0.48823589,-1.8197881,-0.92735994,-0.2324933,-0.86656582,-0.44159999,0
-0.047813613,-0.78095567,-1.9488001,-0.022768388,-0.37188366,-0.92800009,0
0.25944993,-2.0237091,-0.49727982,0.12354759,-0.96367103,-0.23679993,0
0.14397128,-1.619676,-1.3288798,0.068557754,-0.77127433,-0.63279992,0
-2.016,0,0.58799988,-0.96000004,0,0.27999994,0
-0.073671326,1.7681136,1.1306399,-0.035081584,0.84195888,0.53839999,0
-1.6228484,0.99174082,-0.89040035,-0.77278501,0.47225755,-0.42400017,0
1.0798727,-1.0798727,1.4414401,0.51422513,-0.51422513,0.68640006,0
-0.65663725,-0.57455748,1.9101599,-0.31268442,-0.27359882,0.90960002,0
-1.1778225,1.3250504,1.1256,-0.56086785,0.63097638,0.53600001,0
-1.6206627,1.3312588,-0.10584015,-0.77174419,0.63393277,-0.050400075,0
-1.2188975,-1.7064565,0.11088006,-0.58042741,-0.81259841,0.052800033,0
-1.7685733,0,1.1323199,-0.84217781,0,0.53920001,0
-1.857033,-0.95665336,-0.21503973,-0.88430148,-0.45554924,-0.10239988,0
-2.0895376,0.056473937,-0.20160004,-0.99501795,0.026892353,-0.096000023,0
1.841306,1.0097485,-1.2016297e-07,0.8768124,0.48083261,-5.7220461e-08,0
0.74106658,-1.5601403,-1.1944801,0.35288885,-0.74292397,-0.56880003,0
-1.0838801,1.6750872,-0.65519965,-0.51613337,0.79766059,-0.31199986,0
2.0400484,-0.38250911,0.31920007,0.97145164,-0.1821472,0.15200004,0
-1.6493971,1.2645378,-0.30072024,-0.78542727,0.60216087,-0.14320013,0
-1.8688821,0.93444079,0.20999999,-0.8899439,0.44497183,0.1,0
2.058778,0.21671359,-0.35279995,0.98037052,0.10319696,-0.16799998,0
-0.75020981,-1.7210697,-0.94079971,-0.35724279,-0.81955701,-0.44799989,0
1.0149674,-1.2249606,-1.3708801,0.48331785,-0.5833146,-0.65280008,0
1.2687817,0.31719553,1.6430397,0.60418177,0.1510455,0.78239989,0
-0.90045494,-1.4257202,1.2515999,-0.4287881,-0.67891443,0.59599996,0
0.4631409,-1.9848899,0.50567985,0.2205433,-0.94518572,0.24079993,0
0.079565257,1.2730455,1.6682398,0.037888218,0.6062122,0.79439998,0
1.2645378,-1.6493971,-0.30072024,0.60216087,-0.78542727,-0.14320013,0
1.8608909,0.21471798,0.94920009,0.88613856,0.10224666,0.45200005,0
0.29629028,-1.9752684,-0.64848006,0.14109062,-0.94060403,-0.30880004,0
2.0909352,0.12299608,0.15120031,0.99568349,0.058569565,0.072000153,0
1.3841202,0.69205987,1.4196,0.65910488,0.32955232,0.67600006,0
-0.26971725,2.0498505,-0.36791995,-0.12843679,0.97611934,-0.17519999,0
-1.7296396,-1.0643936,0.53424007,-0.82363796,-0.50685412,0.25440004,0
-1.22522,1.5682815,-0.67031991,-0.5834381,0.74680078,-0.31919998,0
1.9205918,-0.48014796,0.70056027,0.91456759,-0.2286419,0.33360013,0
-0.79690802,-1.9353483,-0.17135997,-0.37948003,-0.92159444,-0.081599988,0
0.34918121,0.62561631,-1.9740001,0.16627677,0.29791254,-0.94000012,0
1.1544279,0.82025135,-1.5506397,0.54972762,0.39059588,-0.73839992,0
0.69836187,-0.16004127,-1.9740002,0.3325533,-0.076210134,-0.94000012,0
0.47361401,-1.2258244,-1.638,0.22553049,-0.58372593,-0.78000003,0
0,-2.0825081,0.27048019,0,-0.99167055,0.12880009,0
1.4676259,0.38621742,1.45152,0.69886947,0.18391307,0.69120002,0
-0.29698491,-2.0788939,5.0067896e-08,-0.14142139,-0.98994952,2.3841856e-08,0
-0.47186762,-1.9548805,0.60479981,-0.22469887,-0.93089551,0.28799993,0
-1.9878026,0.24847539,-0.63000005,-0.94657272,0.11832162,-0.30000004,0
-1.3778294,-0.76546073,1.3876799,-0.65610927,-0.36450511,0.66079998,0
0,1.4106239,1.5556799,0,0.67172569,0.74080002,0
-0.65345353,0.430323,-1.9487997,-0.31116837,0.20491573,-0.92799991,0
0.28151923,1.9002537,0.84840012,0.13405679,0.90488273,0.40400007,0
-1.7908736,-1.0007823,-0.44856,-0.85279703,-0.47656301,-0.21360001,0
-0.046557527,1.11738,-1.7774402,-0.022170251,0.53208578,-0.84640014,0
0.45794716,1.5264904,1.36752,0.21807009,0.72690022,0.6512,0
-1.0542183,-0.081093639,1.8144,-0.50200874,-0.03861602,0.86400002,0
1.7011026,-0.85055131,0.89039987,0.81004888,-0.40502444,0.42399997,0
-0.3476992,-1.4224056,-1.5052798,-0.16557105,-0.67733604,-0.71679991,0
-0.7973612,-0.62949574,-1.83792,-0.37969583,-0.29975989,-0.87520003,0
-0.46770433,-2.046206,-0.065519959,-0.22271636,-0.97438383,-0.031199982,0
-0.23218061,-1.0912489,-1.7791198,-0.1105622,-0.51964235,-0.84719998,0
1.9233762,0.84147698,0.050400142,0.9158935,0.40070334,0.024000069,0
-1.3446403,0.028609341,-1.6127999,-0.64030492,0.013623497,-0.76800001,0
1.1187779,0.39778775,-1.7320799,0.53275138,0.18942274,-0.82479995,0
0.3408125,0.8071875,-1.9084797,0.16229168,0.38437501,-0.90879989,0
-1.351706,1.1131696,-1.1591997,-0.64366955,0.53008074,-0.55199987,0
0.97305924,-1.8163775,0.40488008,0.46336156,-0.86494172,0.19280005,0
1.6801577,0.5200488,-1.1474402,0.80007511,0.24764229,-0.54640013,0
-0.58235461,0.44796512,-1.9672798,-0.27731174,0.21331674,-0.93679994,0
-1.5316256,1.1261953,-0.89208001,-0.72934556,0.53628349,-0.42480004,0
-0.64298803,0.55609775,-1.9202399,-0.3061848,0.26480848,-0.91439998,0
1.8153447,-1.0540711,-0.058800064,0.86444992,-0.50193864,-0.028000033,0
-1.032346,1.7549882,-0.51407957,-0.49159336,0.83570868,-0.24479981,0
1.4478229,1.1845824,-0.95423961,0.68943954,0.56408685,-0.45439982,0
-1.2354569,-1.5205624,-0.7559998,-0.58831286,-0.72407734,-0.35999992,0
-0.50668919,-2.0267568,-0.21336018,-0.24128057,-0.96512228,-0.10160009,0
-0.47696617,1.1924152,1.66152,-0.22712676,0.56781679,0.79120004,0
-0.44796512,0.58235461,-1.9672798,-0.21331674,0.27731174,-0.93679994,0
1.1393076,1.2532383,-1.2415199,0.54252744,0.59678018,-0.59119999,0
0.15308362,0.3706235,-2.0613596,0.072896965,0.17648739,-0.98159987,0
0.61137903,-1.9020686,0.64680004,0.2911329,-0.905747,0.30800003,0
0.74349797,-0.082610831,1.96224,0.35404667,-0.039338492,0.93440002,0
1.1276793,1.550559,0.8567996,0.53699017,0.73836148,0.40799984,0
1.9353483,0.79690808,-0.17135963,0.92159444,0.37948006,-0.081599824,0
-0.71759409,-1.9733835,0.028560165,-0.34171149,-0.9397065,0.013600079,0
0.23461704,-1.4077036,1.5405599,0.1117224,-0.67033511,0.73359996,0
1.2877979,0.1369998,-1.6531204,0.61323714,0.065238006,-0.78720021,0
0.9149372,-0.65687799,-1.7723998,0.43568441,-0.31279907,-0.84399992,0
1.4900217,1.4252383,0.39815962,0.70953417,0.67868489,0.18959983,0
0.74673671,-1.9201804,-0.40656009,0.35558891,-0.91437167,-0.19360006,0
-0.88221443,0.80201322,1.7287198,-0.42010212,0.38191107,0.82319993,0
-0.79351866,-1.6288013,-1.0617597,-0.37786606,-0.77561975,-0.50559986,0
-0.052538577,-2.0490065,-0.45695978,-0.025018372,-0.97571743,-0.21759991,0
-0.22819571,1.5973698,1.3440001,-0.10866463,0.7606523,0.6400001,0
0.36188313,-1.5922854,-1.32048,0.17232531,-0.75823116,-0.62880003,0
1.0468571,0.51125574,-1.7471999,0.49850342,0.24345513,-0.83199996,0
-0.57635993,-0.57635993,1.93536,-0.27445713,-0.27445713,0.92160004,0
1.7296396,-1.0643936,0.53424007,0.82363796,-0.50685412,0.25440004,0
0.70779669,-1.7694913,0.88199985,0.33704606,-0.84261495,0.41999996,0
0.22439176,-2.0756228,-0.22680008,0.10685322,-0.98839188,-0.10800005,0
0.5817337,0.16620949,2.0109599,0.27701607,0.079147376,0.9576,0
1.4077036,-0.23461728,1.5405599,0.67033511,-0.11172252,0.73359996,0
0.75584888,1.4397123,-1.3288795,0.35992807,0.68557733,-0.6327998,0
-1.7167987,0.49051389,-1.1054403,-0.81752318,0.23357806,-0.52640015,0
0,1.9142447,-0.86352021,0,0.9115451,-0.41120011,0
1.7667339,0.14722767,1.1255999,0.84130186,0.070108421,0.53599995,0
0.33955127,-1.9693971,0.64511973,0.16169108,-0.93780816,0.3071999,0
-1.7462126,1.0994674,0.38976005,-0.83152986,0.52355593,0.18560003,0
1.7801143,1.1048986,0.14279974,0.84767354,0.52614218,0.067999877,0
-0.94816315,-0.94816315,1.6161599,-0.45150629,-0.45150629,0.76959997,0
1.2277052,1.3547091,-1.0332001,0.58462155,0.64509964,-0.4920001,0
-2.0435872,-0.48084411,0.050399922,-0.97313678,-0.2289734,0.023999963,0
-1.1282398,-1.7550396,0.23855993,-0.53725708,-0.83573318,0.11359997,0
-1.829124,-0.34840462,-0.97104025,-0.87101144,-0.16590697,-0.46240014,0
1.5300364,-1.4025333,0.31919992,0.72858882,-0.66787302,0.15199997,0
-0.74303687,0.16511914,1.9571999,-0.35382709,0.078628168,0.93199998,0
-0.77580357,-1.0528762,-1.6430398,-0.36943027,-0.50136966,-0.78239995,0
-0.064521559,2.0646918,0.37800005,-0.030724553,0.9831866,0.18000004,0
-1.6510972,1.2972908,-0.030240221,-0.78623676,0.61775756,-0.014400106,0
0,0.25154573,2.0848799,0,0.11978368,0.9928,0
0.65345263,-0.43032244,-1.9488001,0.31116793,-0.20491545,-0.92800009,0
-1.6206627,1.3312588,-0.10584015,-0.77174419,0.63393277,-0.050400075,0
-0.74106675,1.5601404,-1.1944796,-0.35288894,0.74292403,-0.56879985,0
1.3547385,0.97842216,1.2717599,0.64511359,0.46591535,0.60559994,0
-1.5811138,-0.94012171,-1.0130399,-0.75291139,-0.44767702,-0.4824,0
0.12750296,1.0200237,-1.8312002,0.060715698,0.48572558,-0.87200016,0
1.3663883,-0.618128,-1.4700001,0.65066111,-0.29434669,-0.70000011,0
-1.9690861,-0.656362,-0.31920019,-0.93766004,-0.31255335,-0.1520001,0
2.0218503,-0.55141377,0.13440017,0.9627859,-0.26257801,0.064000085,0
-0.83773744,-1.3708429,1.3523998,-0.39892262,-0.65278238,0.64399993,0
-0.90946513,-1.2463042,-1.4246398,-0.43307865,-0.5934782,-0.67839992,0
0.44340542,1.6997209,1.1507998,0.21114545,0.8093909,0.54799992,0
0.52377218,-1.7895548,-0.9659999,0.24941534,-0.85216904,-0.45999998,0
-1.1289401,1.4763062,-0.9777596,-0.53759056,0.70300299,-0.46559983,0
-1.195341,0.39844707,1.6799998,-0.56920999,0.18973671,0.79999995,0
1.8064883,0.36129773,1.0079999,0.86023253,0.17204654,0.47999996,0
-0.30411285,0.36113402,-2.0462399,-0.14481565,0.17196859,-0.97439998,0
1.5030274,1.1842034,-0.86519969,0.71572739,0.56390637,-0.41199988,0
-0.65801525,1.1729838,-1.6128002,-0.3133406,0.55856371,-0.76800013,0
1.5527127,1.3586234,0.39144006,0.73938704,0.64696354,0.18640004,0
-1.8501735,-0.85900909,0.49895999,-0.88103503,-0.40905195,0.2376,0
0.63609678,-1.1131694,1.6632,0.30290323,-0.53008068,0.79200006,0
-1.6798402,-0.65732884,1.0752001,-0.79992396,-0.31301376,0.51200008,0
1.7655472,1.0462503,0.44520003,0.84073681,0.49821448,0.21200003,0
-1.764432,0.22055377,1.1171999,-0.84020573,0.10502561,0.53200001,0
-1.3851219,-1.1664186,1.06344,-0.6595819,-0.55543745,0.50639999,0
-1.7681136,-0.073671326,1.1306399,-0.84195888,-0.035081584,0.53839999,0
-0.72644216,1.8403201,-0.70391995,-0.34592485,0.87634295,-0.33519998,0
-1.9634148,0.45309561,-0.59135973,-0.93495947,0.21575983,-0.28159988,0
-1.8108771,-0.28974026,1.0231199,-0.86232245,-0.13797157,0.48719999,0
-2.0950885,0.11639369,-0.084000155,-0.99766123,0.055425569,-0.040000077,0
0.18414959,2.0870306,0.14280032,0.087690286,0.99382418,0.068000153,0
-1.5831805,0.87491548,-1.0667998,-0.75389552,0.41662642,-0.5079999,0
1.910669,-0.72473651,0.48383972,0.90984243,-0.34511265,0.23039988,0
-0.58030558,0.33160341,1.9907999,-0.27633601,0.1579064,0.94800001,0
1.8608909,0.21471798,0.94920009,0.88613856,0.10224666,0.45200005,0
-0.24042203,-1.3824264,-1.5624001,-0.11448669,-0.65829831,-0.74400008,0
-0.26745254,-2.0058947,0.56111985,-0.12735836,-0.95518798,0.26719993,0
-1.6510972,1.2972908,-0.030240221,-0.78623676,0.61775756,-0.014400106,0
0.22859712,-0.43731618,-2.0411999,0.10885578,-0.20824581,-0.972,0
-1.8417658,0.042831719,-1.008,-0.87703133,0.020396058,-0.48000002,0
0.41245633,-0.65993005,1.9504799,0.19640778,-0.31425241,0.92879999,0
1.0557833,1.2820228,1.2851999,0.50275397,0.6104871,0.61199999,0
-1.7552727,1.1500062,0.080639802,-0.83584422,0.54762203,0.038399909,0
0.080113202,1.201699,1.72032,0.038149145,0.57223767,0.81920004,0
0.42319658,-2.0555265,0.075599976,0.20152219,-0.97882217,0.035999991,0
-0.65813982,1.8333896,-0.78455973,-0.31339994,0.8730427,-0.37359989,0
0.38621742,-1.4676259,1.45152,0.18391307,-0.69886947,0.69120002,0
-0.43400609,2.0460289,0.1881602,-0.20666958,0.97429949,0.089600094,0
-0.77258801,1.9314703,-0.2872802,-0.36789906,0.91974777,-0.1368001,0
-0.66373831,1.9912145,0.067200132,-0.31606588,0.94819742,0.032000065,0
0.56484729,0.96830976,1.7757599,0.2689749,0.46109989,0.84560001,0
0.31997281,2.0478256,0.33768004,0.15236801,0.97515506,0.16080002,0
-0.87875378,-1.0545045,-1.5892802,-0.4184542,-0.50214505,-0.75680017,0
-1.0815651,1.6899455,0.61992002,-0.51503104,0.80473596,0.29520002,0
0.41315708,1.928066,0.72240025,0.19674148,0.9181267,0.34400013,0
-0.15044209,-2.0058947,-0.60312003,-0.071639098,-0.95518798,-0.28720003,0
-1.5203099,1.2438899,0.74255991,-0.72395712,0.59232855,0.35359997,0
-1.0802073,1.8003455,0.043679833,-0.51438445,0.85730743,0.020799922,0
-0.149019,1.7137178,1.2045598,-0.070961431,0.81605613,0.57359993,0
0.51556563,1.6940016,1.1289598,0.24550745,0.80666745,0.53759992,0
-0.91493756,0.65687823,-1.7723994,-0.43568456,0.31279919,-0.84399974,0
1.6917191,1.1711901,0.42000002,0.80558056,0.55770963,0.20000002,0
1.4322113,-0.61380482,-1.4078403,0.68200541,-0.29228804,-0.67040014,0
-0.20853662,2.0332325,-0.48215979,-0.099303156,0.96820599,-0.22959991,0
-0.89661342,0.40755159,1.8547199,-0.4269588,0.19407219,0.88319999,0
0.89680213,1.8463572,-0.44352037,0.42704865,0.87921774,-0.21120018,0
-0.39573842,-0.41901717,-2.0193601,-0.18844688,-0.19953199,-0.96160007,0
1.4642472,-0.15915735,-1.4968796,0.69726062,-0.075789221,-0.71279985,0
-0.98543698,1.8476945,0.1579199,-0.46925572,0.87985456,0.075199954,0
1.6542412,1.2866321,0.13440032,0.78773397,0.61268198,0.06400016,0
1.242012,-1.6342263,0.44352001,0.5914343,-0.77820307,0.21120001,0
-1.6899455,1.0815653,0.61991984,-0.80473596,0.5150311,0.29519993,0
1.2627692,-0.39286149,-1.6312797,0.60131872,-0.18707691,-0.77679992,0
0.37318313,2.0258515,-0.4082399,0.17770626,0.96469122,-0.19439997,0
-1.6957175,0.39435297,-1.1743201,-0.80748457,0.18778715,-0.55920005,0
-0.082285628,-0.82285696,1.9303199,-0.039183635,-0.39183667,0.9192,0
0.83773744,1.3708429,1.3523998,0.39892262,0.65278238,0.64399993,0
-1.590464,-1.3359898,0.30911994,-0.75736386,-0.63618565,0.14719997,0
1.6543759,1.1890829,-0.50904006,0.78779811,0.56622994,-0.24240004,0
1.6128,1.2096,0.58799988,0.76800001,0.57600003,0.27999994,0
0.084635913,-1.3259639,-1.6262399,0.040302817,-0.63141137,-0.7744,0
-0.77395695,1.7589928,0.84671992,-0.36855096,0.83761567,0.40319997,0
-1.1253091,1.6879636,-0.54263979,-0.53586149,0.80379224,-0.2583999,0
1.7694913,0.70779669,0.88199985,0.84261495,0.33704606,0.41999996,0
-1.1031027,1.6306735,-0.73079956,-0.52528703,0.77651125,-0.34799981,0
1.0359625,-0.71720481,-1.6799996,0.49331549,-0.34152612,-0.79999983,0
-1.8203906,-0.16933861,-1.0332,-0.8668527,-0.08063744,-0.49200004,0
-1.4180315,0.45119181,-1.4817598,-0.67525309,0.21485326,-0.7055999,0
-0.87432313,-0.30411237,-1.8849601,-0.41634437,-0.14481543,-0.89760005,0
1.22522,1.5682815,-0.67031991,0.5834381,0.74680078,-0.31919998,0
1.0433029,0.56177843,1.73376,0.49681091,0.26751354,0.82560003,0
0.24847542,1.9878027,-0.6299997,0.11832163,0.94657278,-0.29999986,0
1.8425317,0.75066125,0.67200011,0.87739611,0.35745776,0.32000005,0
-0.97770792,1.6760709,0.80303997,-0.46557522,0.79812902,0.38240001,0
0.081093639,1.0542183,1.8144,0.03861602,0.50200874,0.86400002,0
-0.76028121,1.8056679,-0.75599986,-0.36203867,0.85984188,-0.35999995,0
1.6768513,-0.77393138,-0.99959981,0.79850066,-0.36853877,-0.47599992,0
0,0.25154573,2.0848799,0,0.11978368,0.9928,0
-1.2532383,-1.1393076,-1.2415199,-0.59678018,-0.54252744,-0.59119999,0
-1.5545901,1.0660046,-0.92567998,-0.74028105,0.50762129,-0.44080001,0
-1.6529014,-0.30052757,-1.26,-0.78709596,-0.14310837,-0.60000002,0
-1.3663883,0.618128,-1.4700001,-0.65066111,0.29434669,-0.70000011,0
0.081093639,1.0542183,1.8144,0.03861602,0.50200874,0.86400002,0
-1.457728,-0.82230812,-1.2683997,-0.69415623,-0.39157531,-0.60399991,0
1.840271,0.49545753,0.88200009,0.87631959,0.23593217,0.42000005,0
-1.4748974,-0.15525244,1.4868,-0.70233214,-0.073929735,0.708,0
-1.1475495,-1.646484,-0.6182397,-0.54645216,-0.78404003,-0.29439986,0
2.0258515,-0.37318313,-0.4082399,0.96469122,-0.17770626,-0.19439997,0
0.35929254,-0.40284318,-2.0294397,0.17109169,-0.1918301,-0.96639991,0
1.9067391,-0.14124002,0.86856014,0.90797102,-0.067257151,0.41360009,0
0.97521067,-0.32507014,1.8311999,0.46438605,-0.15479532,0.87199998,0
1.1282399,1.7550395,0.23856021,0.53725713,0.83573312,0.11360011,0
-1.6127999,-1.2902399,-0.37968019,-0.76800001,-0.61439997,-0.1808001,0
1.2347075,1.6836917,-0.22512032,0.58795595,0.80175799,-0.10720016,0
-0.21471819,-1.8608909,0.94920003,-0.10224676,-0.88613856,0.45200002,0
-0.4920651,0.73809737,1.90344,-0.23431672,0.35147494,0.90640002,0
0.15071373,1.6578529,1.2801597,0.071768448,0.7894538,0.60959989,0
-2.0932746,-0.061566837,0.15623996,-0.99679744,-0.029317543,0.074399985,0
-0.08062242,1.1287148,1.76904,-0.038391631,0.53748327,0.84240001,0
-1.9579749,-0.74863744,-0.12600002,-0.93236905,-0.35649404,-0.06000001,0
0.74349797,0.082610831,1.96224,0.35404667,0.039338492,0.93440002,0
-0.86476815,0.16214399,-1.9067997,-0.41179436,0.077211425,-0.90799987,0
1.8181683,0.072726659,1.0483199,0.86579448,0.034631744,0.49919999,0
-2.0867622,0.11279784,-0.20664003,-0.99369633,0.053713262,-0.098400019,0
0.065885067,-2.0424392,0.48383996,0.031373844,-0.97259015,0.2304,0
-0.34542295,1.9343679,0.74088019,-0.16448712,0.92112762,0.3528001,0
-1.4642467,-0.15915729,-1.4968801,-0.69726038,-0.075789191,-0.71280009,0
-1.1173809,-0.046557561,-1.7774397,-0.53208613,-0.022170268,-0.8463999,0
1.2347075,-1.6836917,-0.22512032,0.58795595,-0.80175799,-0.10720016,0
0.23669529,-1.9409009,-0.76607996,0.11271205,-0.92423856,-0.36480001,0
1.5868156,0.45337597,1.2986401,0.7556265,0.21589333,0.6184001,0
1.7120576,-0.78469312,0.92903984,0.81526554,-0.3736634,0.44239995,0
-0.31483749,-1.3380594,1.5876,-0.14992262,-0.63717121,0.75600004,0
1.9664001,-0.095922001,-0.73080033,0.93638104,-0.045677144,-0.34800017,0
-0.47365275,1.2630742,1.6094397,-0.22554894,0.60146391,0.76639992,0
0.16620949,0.5817337,2.0109599,0.079147376,0.27701607,0.9576,0
1.3029208,-1.0423366,-1.2751203,0.62043852,-0.49635077,-0.60720015,0
0.69649142,1.1143862,-1.6379997,0.3316626,0.53066009,-0.77999985,0
-0.37481329,1.6491783,1.2448797,-0.17848253,0.78532302,0.5927999,0
1.4102997,-0.078349903,1.5539999,0.67157131,-0.037309479,0.74000001,0
-1.3882158,-1.1778802,-1.0466398,-0.66105515,-0.56089532,-0.49839991,0
-0.068407089,-1.9838076,0.68543977,-0.032574806,-0.94467032,0.32639989,0
-1.259748,-1.6796639,0.041999929,-0.59988004,-0.79983997,0.019999966,0
-1.4070168,1.0367491,1.16424,-0.670008,0.49369007,0.55440003,0
-0.7360816,0.57250786,1.8815999,-0.35051507,0.27262279,0.89599997,0
0.60644031,1.516101,1.3204801,0.28878111,0.72195292,0.62880009,0
-2.0788939,0.29698491,5.0067896e-08,-0.98994952,0.14142139,2.3841856e-08,0
-1.3319496,-0.4700999,1.554,-0.63426173,-0.2238571,0.74000007,0
-1.3799847,-1.5114118,0.47040001,-0.65713561,-0.71971995,0.22400001,0
0.50761306,-0.62223536,-1.9403999,0.24172051,-0.29630256,-0.92399997,0
-0.50922287,1.7459072,1.0499998,-0.24248709,0.83138442,0.49999994,0
1.5364423,-0.23046637,1.4128801,0.73163921,-0.10974589,0.67280006,0
0.58730364,-1.9754755,-0.40320009,0.27966842,-0.94070268,-0.19200005,0
-0.50025648,-0.083375998,2.0378399,-0.23821738,-0.039702859,0.97039998,0
1.2532712,-0.29969534,-1.6581596,0.59679586,-0.14271207,-0.78959984,0
-1.4676259,0.38621742,1.45152,-0.69886947,0.18391307,0.69120002,0
0.29969519,-1.2532707,-1.6581601,0.142712,-0.59679562,-0.78960007,0
-2.0237091,0.25944993,-0.49727982,-0.96367103,0.12354759,-0.23679993,0
1.2820228,1.0557833,1.2851999,0.6104871,0.50275397,0.61199999,0
-1.9040395,0.21155976,0.86016017,-0.90668553,0.10074275,0.40960011,0
-0.7257601,1.6128,-1.1323197,-0.34560007,0.76800001,-0.53919989,0
-1.5542986,1.1774991,-0.7795198,-0.74014223,0.56071389,-0.37119991,0
0.71918905,1.9007142,-0.52919996,0.342471,0.90510201,-0.252,0
1.4218102,1.5355548,-0.17471983,0.6770525,0.73121661,-0.083199918,0
0.13669035,-1.982012,0.68039978,0.065090641,-0.94381529,0.32399991,0
-1.5993167,0.15231574,1.3523999,-0.76157939,0.072531305,0.64399999,0
1.6551281,1.2279984,-0.40320015,0.78815627,0.58476114,-0.19200008,0
0.77258801,1.9314703,-0.2872802,0.36789906,0.91974777,-0.1368001,0
-1.1373909,-1.6726338,0.56448007,-0.54161471,-0.79649228,0.26880005,0
-0.26319233,1.3452052,-1.5909595,-0.12532969,0.64057392,-0.75759983,0
-0.70595795,1.6610776,-1.0735196,-0.33617046,0.7909894,-0.51119983,0
1.1279794,0.16113979,1.7640001,0.5371331,0.076733232,0.84000009,0
0.26971725,2.0498505,-0.36791995,0.12843679,0.97611934,-0.17519999,0
0.55844516,1.1168903,1.6884,0.26592627,0.53185254,0.80400008,0
-0.30953974,2.0120082,-0.51575977,-0.14739989,0.95809919,-0.2455999,0
-1.555836,0.38895902,-1.35576,-0.74087429,0.18521859,-0.64560002,0
-1.3882158,-1.1778802,-1.0466398,-0.66105515,-0.56089532,-0.49839991,0
0.083915874,0.16783175,2.0915999,0.039959941,0.079919882,0.99599999,0
-0.94474995,0.7660135,-1.7119201,-0.44988096,0.36476836,-0.81520009,0
0.58113909,-0.24905965,2.0025599,0.27673292,-0.11859984,0.95359999,0
-1.6245592,0.3322961,-1.2885598,-0.77359962,0.15823625,-0.61359996,0
-1.6130406,1.2904323,0.37800005,-0.76811457,0.61449164,0.18000004,0
-0.16295142,-0.97770804,1.8513598,-0.077595919,-0.46557528,0.88159996,0
-1.2258246,-0.47361401,-1.6379998,-0.58372605,-0.22553049,-0.77999991,0
-1.4857736,1.3507031,0.61488008,-0.70751125,0.64319199,0.29280004,0
0.801925,0.75610059,-1.7875201,0.38186908,0.36004791,-0.85120004,0
-1.9603518,-0.34306154,-0.67032003,-0.93350089,-0.16336264,-0.31920004,0
0.70814288,0.072259493,-1.9756801,0.33721092,0.034409285,-0.94080007,0
1.163174,-1.3236117,-1.1424,0.55389243,-0.63029134,-0.54400003,0
-0.38263828,-1.5305527,1.386,-0.18220872,-0.72883469,0.66000003,0
-0.57233042,-0.76968563,-1.8681599,-0.2725383,-0.36651698,-0.88959998,0
0.85900915,1.8501734,0.49896026,0.40905198,0.88103497,0.23760013,0
0.612221,1.4540251,1.386,0.29153383,0.69239295,0.66000003,0
-1.0022632,-1.1564577,1.43808,-0.47726822,-0.55069417,0.68480003,0
-0.60815769,1.990334,-0.28056023,-0.28959891,0.94777817,-0.13360012,0
-0.40755159,-0.89661342,1.8547199,-0.19407219,-0.4269588,0.88319999,0
1.6578529,0.15071373,1.2801597,0.7894538,0.071768448,0.60959989,0
0.74425888,-1.2943631,-1.4767202,0.35440901,-0.61636341,-0.70320016,0
1.8721563,-0.68974173,-0.65519983,0.89150304,-0.32844844,-0.31199992,0
0.16882102,2.082128,-0.21504003,0.080390967,0.99148959,-0.10240002,0
-0.41099966,0.73979896,1.9219199,-0.19571413,0.35228524,0.9152,0
-0.49545753,-1.840271,0.88200009,-0.23593217,-0.87631959,0.42000005,0
-0.88395464,1.5268307,-1.1390399,-0.4209308,0.72706228,-0.54239994,0
-1.8431818,0,-1.00632,-0.87770569,0,-0.47920004,0
0.076968864,1.5393786,1.4263201,0.036651842,0.73303747,0.67920005,0
-0.6764791,-1.260711,-1.5371999,-0.32213292,-0.60033858,-0.73199999,0
0.49206507,-0.73809761,1.9034399,0.23431671,-0.35147506,0.90639997,0
-1.343731,1.4397119,-0.72912008,-0.63987195,0.68557715,-0.34720007,0
-0.49873087,-0.33248717,2.01264,-0.23749091,-0.15832722,0.95840007,0
1.7549882,1.032346,-0.51407957,0.83570868,0.49159336,-0.24479981,0
0.44853166,1.6446162,1.2263998,0.21358651,0.78315061,0.58399993,0
-1.555836,0.38895902,-1.35576,-0.74087429,0.18521859,-0.64560002,0
0.8228572,-0.082285628,1.9303198,0.39183679,-0.039183635,0.91919994,0
0.083155677,0.5820902,2.016,0.039597943,0.27718583,0.96000004,0
0.36188313,1.5922854,-1.32048,0.17232531,0.75823116,-0.62880003,0
-1.3180988,-0.69781709,1.4784,-0.62766612,-0.33229387,0.70400006,0
-1.2446339,-0.77789617,1.50192,-0.59268284,-0.37042677,0.71520001,0
-0.39966694,2.0554304,-0.15960015,-0.1903176,0.97877645,-0.07600008,0
0.81317556,-1.8296448,0.63336015,0.38722646,-0.87125945,0.3016001,0
-0.10879866,-1.6319798,-1.3171197,-0.05180889,-0.77713329,-0.62719989,0
-0.73809761,-0.49206507,1.9034399,-0.35147506,-0.23431671,0.90639997,0
2.0735719,-0.054567628,-0.32759991,0.98741525,-0.025984585,-0.15599996,0
-1.0213556,0.94278991,1.57416,-0.48635983,0.44894761,0.74960005,0
-1.4980505,-1.1413717,0.9290399,-0.71335739,-0.54351038,0.44239998,0
-0.9744637,0.31775984,-1.8328799,-0.46403036,0.15131421,-0.87279999,0
1.9690861,0.656362,-0.31920019,0.93766004,0.31255335,-0.1520001,0
0.94947493,-1.5337673,1.0752,0.45213094,-0.73036546,0.51200002,0
0.35099545,-1.8953749,0.83328009,0.16714069,-0.90255952,0.39680007,0
0.79022539,1.2327515,-1.5052798,0.37629783,0.58702457,-0.71679991,0
-1.9786948,0.69836289,-0.084000058,-0.94223565,0.33255377,-0.040000029,0
1.9886105,0.57733834,0.34944004,0.94695741,0.27492303,0.16640003,0
-0.35863176,1.9980915,-0.53759974,-0.17077704,0.95147216,-0.25599989,0
-1.6303445,-1.1548272,0.64679998,-0.77635455,-0.54991776,0.308,0
0.042831719,-1.8417658,-1.008,0.020396058,-0.87703133,-0.48000002,0
0.79096252,-1.7680336,-0.81143999,0.37664884,-0.84192079,-0.38640001,0
-1.4857603,-1.3832939,-0.53760004,-0.70750493,-0.65871137,-0.25600004,0
-1.5615137,0.74357808,1.1911198,-0.74357796,0.35408482,0.56719995,0
-2.0115149,-0.1005758,-0.59472007,-0.95786428,-0.047893237,-0.28320006,0
1.7617449,0.72276723,-0.88535994,0.83892614,0.34417489,-0.42159998,0
-1.8001691,0.93342096,0.54600024,-0.85722345,0.4444862,0.26000014,0
-1.6957175,-0.39435288,-1.17432,-0.80748457,-0.1877871,-0.55919999,0
0.77580374,1.0528766,-1.6430396,0.36943036,0.50136983,-0.78239983,0
0.06957303,1.9480466,0.78120023,0.033130016,0.92764127,0.37200013,0
-0.74673671,1.9201804,-0.40656009,-0.35558891,0.91437167,-0.19360006,0
1.8650632,-0.79931289,0.54096025,0.88812536,-0.38062519,0.25760013,0
-1.6060042,1.0553744,-0.84672004,-0.76476395,0.50255924,-0.40320003,0
-0.14334257,-1.8634523,0.95760006,-0.068258367,-0.88735831,0.45600006,0
-1.1885093,-1.2627912,1.1844001,-0.56595683,-0.60132915,0.56400007,0
-1.4638026,-0.46225345,1.4330399,-0.6970489,-0.2201207,0.68239999,0
-1.0340928,-1.8248698,0.10247995,-0.49242514,-0.86898565,0.048799977,0
0.96830976,0.56484729,1.7757599,0.46109989,0.2689749,0.84560001,0
-0.96936136,1.416759,1.2096,-0.46160066,0.67464715,0.57600003,0
-0.078977793,1.3426238,1.6127999,-0.037608474,0.63934469,0.76800001,0
-2.0115149,0.10057565,-0.59472007,-0.95786428,0.047893167,-0.28320006,0
-0.090158194,1.0818986,-1.7976003,-0.042932477,0.51518983,-0.85600019,0
-0.762622,1.8025608,0.76103997,-0.36315334,0.85836232,0.3624,0
-1.125033,0.32143819,1.74384,-0.53573006,0.15306582,0.83040005,0
-0.24644518,0.82148409,1.9168798,-0.11735485,0.39118293,0.91279995,0
0.78095567,-0.047813613,-1.9488001,0.37188366,-0.022768388,-0.92800009,0
1.0038966,1.5713162,-0.96600026,0.47804603,0.74824584,-0.46000016,0
0.53232402,-1.1444968,-1.6783199,0.25348765,-0.54499853,-0.7992,0
-2.0371203,0.19714049,0.47039998,-0.97005737,0.093876429,0.22399999,0
-1.6467153,1.0978104,0.70223975,-0.78415018,0.52276689,0.33439991,0
1.9013176,0.65045077,-0.60983992,0.90538937,0.30973849,-0.29039997,0
2.0653915,0,0.37968007,0.98351985,0,0.18080004,0
-1.138657,0.97599179,-1.47,-0.54221761,0.46475801,-0.70000005,0
-0.079512149,-1.7492664,-1.1592,-0.03786293,-0.83298403,-0.55199999,0
-1.6801577,-0.5200488,-1.1474402,-0.80007511,-0.24764229,-0.54640013,0
0.47517583,-1.9007028,-0.7560001,0.22627421,-0.90509665,-0.36000007,0
0.24742217,0.74226701,1.9488,0.11782009,0.35346049,0.92800003,0
0.73979896,0.41099966,1.9219199,0.35228524,0.19571413,0.9152,0
0,-1.4106239,1.5556799,0,-0.67172569,0.74080002,0
-0.58929217,-1.9643072,0.45191985,-0.28061533,-0.93538439,0.21519995,0
-0.41901806,0.39573923,-2.0193598,-0.19953242,0.18844727,-0.96159995,0
-0.25149548,-0.08383175,2.0832,-0.11975976,-0.039919883,0.99200004,0
-0.20571621,-0.4408204,-2.0428798,-0.097960107,-0.20991449,-0.97279996,0
-1.8963286,-0.78468764,0.44519976,-0.90301365,-0.3736608,0.21199989,0
-0.62275231,-1.3233483,1.5069599,-0.29654872,-0.63016587,0.71759999,0
-0.38263828,1.5305527,1.386,-0.18220872,0.72883469,0.66000003,0
1.9083571,-0.070679829,0.87360013,0.90874153,-0.033657063,0.41600007,0
-1.0151815,1.5227723,1.0298402,-0.48341981,0.72512972,0.49040014,0
-1.3422337,1.3885175,-0.8248803,-0.6391589,0.66119885,-0.39280015,0
-0.45119181,1.4180315,-1.4817598,-0.21485326,0.67525309,-0.7055999,0
-0.19042628,1.9518698,-0.75096029,-0.090679184,0.9294619,-0.35760015,0
-0.25944993,2.0237091,-0.49727982,-0.12354759,0.96367103,-0.23679993,0
0.17819096,1.6037183,-1.3439997,0.084852844,0.76367539,-0.63999993,0
2.0987563,-0.059964407,0.040319722,0.99940783,-0.028554481,0.019199869,0
0.67798769,1.9774641,-0.1999203,0.3228513,0.94164962,-0.095200144,0
-0.24997586,-1.7914937,-1.0668001,-0.11903613,-0.85309225,-0.50800008,0
0.17819096,1.6037183,-1.3439997,0.084852844,0.76367539,-0.63999993,0
0.7486375,1.9579749,-0.12599967,0.35649407,0.93236905,-0.059999846,0
0.31272385,-2.0639768,0.22848016,0.14891613,-0.98284614,0.10880008,0
0.5200488,-1.6801577,-1.1474402,0.24764229,-0.80007511,-0.54640013,0
-0.04804913,-1.9700161,-0.72575992,-0.022880539,-0.93810296,-0.34559998,0
0.081924684,-0.90117252,1.8950399,0.039011758,-0.42912978,0.90240002,0
0.7660135,0.94474995,-1.7119201,0.36476836,0.44988096,-0.81520009,0
-0.47174206,-1.2972907,-1.5825598,-0.22463909,-0.6177575,-0.75359994,0
-0.62223536,-0.50761306,-1.9403999,-0.29630256,-0.24172051,-0.92399997,0
0.3660512,-1.7570455,1.0903199,0.1743101,-0.8366884,0.51919997,0
-1.5123992,0.032878213,-1.45656,-0.72019011,0.015656292,-0.69360006,0
-0.75020981,-1.7210697,-0.94079971,-0.35724279,-0.81955701,-0.44799989,0
-0.056922037,-1.3376672,-1.6178399,-0.027105734,-0.63698441,-0.77039999,0
-0.58235461,0.44796512,-1.9672798,-0.27731174,0.21331674,-0.93679994,0
-0.2831187,1.3023461,-1.6228796,-0.13481843,0.62016487,-0.77279985,0
-0.54655528,1.6396661,-1.1928002,-0.26026443,0.78079343,-0.56800008,0
-1.0931107,0.93695211,1.5288,-0.52052891,0.44616771,0.72800004,0
-0.082285628,-0.82285696,1.9303199,-0.039183635,-0.39183667,0.9192,0
0.12299608,2.0909352,0.15120031,0.058569565,0.99568349,0.072000153,0
0.17819096,-1.6037183,-1.3439997,0.084852844,-0.76367539,-0.63999993,0
1.4639877,0.3253307,-1.4699998,0.69713706,0.15491939,-0.69999993,0
0.39078692,2.0190656,0.42503995,0.18608901,0.96145988,0.20239998,0
-1.9002537,0.28151923,0.84840012,-0.90488273,0.13405679,0.40400007,0
-1.1690409,-1.7257271,-0.25536007,-0.55668616,-0.82177484,-0.12160004,0
-0.71720481,-1.0359625,-1.6799996,-0.34152612,-0.49331549,-0.79999983,0
-1.4099385,0.68777484,-1.3960798,-0.6713993,0.32751185,-0.66479993,0
-1.0544446,0,1.81608,-0.5021165,0,0.86480004,0
1.1131697,1.6001812,0.78119969,0.5300808,0.76199108,0.37199986,0
1.7304227,0.15731125,-1.1793599,0.82401085,0.074910119,-0.56159997,0
-1.1409785,-1.1409785,1.3439999,-0.5433231,-0.5433231,0.63999999,0
-1.8155335,-0.87414581,0.59136015,-0.8645398,-0.41625991,0.28160009,0
1.5408906,-1.4176193,0.16128008,0.73375744,-0.67505687,0.076800041,0
1.4176193,-1.5408906,0.16127984,0.67505687,-0.73375744,0.076799929,0
-0.61589801,1.293386,-1.5355201,-0.29328477,0.61589813,-0.7312001,0
-0.79795569,-0.95754695,1.6900799,-0.37997892,-0.45597476,0.80479997,0
1.1031026,-1.6306733,-0.73080015,0.52528697,-0.77651113,-0.34800008,0
-0.12750307,-1.0200245,-1.8311998,-0.06071575,-0.485726,-0.87199992,0
2.0569232,-0.3335551,-0.26040006,0.97948724,-0.15883577,-0.12400004,0
-1.36315,0.90876663,1.3137599,-0.64911908,0.43274602,0.62559998,0
0.21016796,1.8074441,-1.0483201,0.10007998,0.86068773,-0.49920005,0
-1.3989065,-0.46630216,1.4951999,-0.66614598,-0.22204866,0.71200001,0
1.6459286,0.036576156,-1.3036797,0.78377557,0.017417219,-0.6207999,0
0.80849731,1.5765698,-1.1272796,0.38499874,0.75074756,-0.53679985,0
0.24272366,-1.5603665,-1.3843198,0.1155827,-0.74303168,-0.65919995,0
-1.3277569,1.5320274,-0.54768002,-0.63226521,0.72953689,-0.26080003,0
1.7539457,0.039862365,-1.1541599,0.83521229,0.018982079,-0.54960001,0
0.63729388,-1.9756106,0.31751987,0.30347329,-0.94076699,0.15119995,0
1.8469977,0.42623028,0.90384007,0.8795228,0.20296681,0.43040004,0
-1.7794553,-0.4236798,-1.0315201,-0.84735972,-0.20175229,-0.49120009,0
-1.6578526,-0.15071397,1.28016,-0.78945369,-0.07176856,0.60960001,0
-1.1041881,0.788706,1.6027199,-0.52580386,0.37557429,0.76319999,0
-1.9603518,-0.34306154,-0.67032003,-0.93350089,-0.16336264,-0.31920004,0
0.24905939,-0.58113909,2.0025599,0.11859972,-0.27673292,0.95359999,0
-0.3305802,0.66116041,1.9656,-0.15741915,0.31483829,0.93600005,0
1.9878027,0.24847542,-0.6299997,0.94657278,0.11832163,-0.29999986,0
-0.41577911,-0.41577911,-2.0159998,-0.19799006,-0.19799006,-0.95999992,0
-1.0931107,0.93695211,1.5288,-0.52052891,0.44616771,0.72800004,0
-2.0625911,-0.12891202,0.37296006,-0.98218626,-0.061386678,0.17760004,0
