-0.73093587,-0.52209723,2.4931202,-0.27582484,-0.19701782,0.94080001,0
0.95940262,2.2785809,-0.95400012,0.3620387,0.85984182,-0.36000004,0
2.4330359,0.52136493,0.91160035,0.9181267,0.19674148,0.34400013,0
0.19485563,-1.169134,-2.3701599,0.073530421,-0.44118264,-0.89439994,0
-0.18100876,2.4737866,-0.93280047,-0.068305187,0.93350434,-0.35200018,0
-0.5833199,-1.8471795,1.8083601,-0.22012071,-0.69704884,0.68239999,0
0.76827121,-2.4328587,-0.71655995,0.28991365,-0.91805989,-0.27039996,0
0.65059477,-2.1376686,1.4246402,0.24550745,-0.80666739,0.53760004,0
-1.6250793,-0.17288081,-2.0860801,-0.61323744,-0.065238044,-0.78719997,0
-1.4997858,-1.5935223,1.4946002,-0.56595689,-0.60132915,0.56400007,0
-2.5956411,0.4209148,-0.32860008,-0.97948718,0.15883577,-0.12400003,0
-2.3124137,-0.71151209,1.0812001,-0.8726089,-0.26849511,0.40800002,0
-1.385332,2.0779982,0.88615996,-0.52276677,0.78415024,0.33439997,0
-1.8611802,0.19591352,1.8762001,-0.70233214,0.07392963,0.708,0
1.0873927,2.0841694,1.2232398,0.41033685,0.786479,0.46159989,0
-0.3889665,2.3337994,-1.1935604,-0.14677981,0.88067895,-0.45040011,0
-0.28492519,-2.0894513,1.60484,-0.10751893,-0.78847218,0.6056,0
0.70440185,-2.5358462,-0.30952033,0.26581201,-0.95692307,-0.11680012,0
-0.46192181,2.2172241,1.3758799,-0.17431012,0.83668834,0.51919991,0
-2.155942,0.37494665,1.4946002,-0.81356299,0.1414893,0.56400007,0
-2.4422255,1.0056221,-0.21623997,-0.9215945,0.37948003,-0.081599988,0
-0.4477368,-2.611798,-0.023319919,-0.16895728,-0.98558414,-0.0087999692,0
0.33749992,-2.5312481,0.70807981,0.12735845,-0.95518792,0.26719993,0
-0.51833028,-2.3612823,-1.08544,-0.19559632,-0.89104992,-0.40959999,0
1.5350443,-1.3431634,1.6917599,0.57926196,-0.50685406,0.63839996,0
-0.98549175,-0.060336232,-2.4592004,-0.37188366,-0.022768389,-0.92800009,0
2.5383406,-0.12691711,-0.75047964,0.95786434,-0.047893248,-0.28319985,0
1.4858918,1.9613771,-0.98367983,0.56071389,0.74014229,-0.37119994,0
-0.066298686,2.5856512,-0.57663977,-0.025018372,0.97571737,-0.2175999,0
-1.6731825,1.1757498,-1.6854,-0.63138962,0.44367915,-0.63599998,0
-0.69526619,1.5891804,2.0033998,-0.2623646,0.59969068,0.75599992,0
0.41932607,2.0500391,-1.6260399,0.15823625,0.77359962,-0.6135999,0
0.37494665,-2.155942,1.4946002,0.1414893,-0.81356299,0.56400007,0
0.83707511,0,2.5143201,0.31587738,0,0.94880003,0
0.30468288,1.4218547,2.2154002,0.11497467,0.53654891,0.83600003,0
-0.21115042,-0.42230052,2.6076002,-0.0796794,-0.15935868,0.98400003,0
1.266822,-1.9828516,-1.2190005,0.478046,-0.74824589,-0.46000016,0
-1.404714,-2.0192764,0.98580015,-0.53008074,-0.76199108,0.37200004,0
-1.6731825,-1.1757498,-1.6854,-0.63138962,-0.44367915,-0.63599998,0
-2.1197987,-0.82948649,1.3568002,-0.79992402,-0.31301376,0.51200008,0
-1.3210341,0.64515609,-2.2048001,-0.49850342,0.24345511,-0.83200002,0
2.5047421,0.58443975,0.63811988,0.94518566,0.2205433,0.24079995,0
0.45666209,2.0093126,-1.6663201,0.17232531,0.75823116,-0.62880003,0
2.6233664,0.37476668,-3.7908558e-07,0.98994952,0.14142138,-1.4305115e-07,0
0.35726893,1.6434367,-2.0479198,0.13481846,0.62016475,-0.77279985,0
2.2329297,0.89317209,1.1129999,0.84261495,0.33704606,0.41999996,0
-2.259912,1.262892,-0.56604004,-0.85279703,0.47656304,-0.21360002,0
-1.2665612,1.7537001,-1.5306401,-0.47794759,0.66177362,-0.5776,0
1.907258,-1.7414094,0.59359974,0.71972001,-0.65713561,0.22399989,0
-1.8802655,-1.798515,0.50244015,-0.70953411,-0.67868489,0.18960005,0
2.4328587,0.76827121,-0.71655995,0.91805989,0.28991365,-0.27039996,0
0.52638382,0.3158299,2.5779202,0.1986354,0.11918109,0.97280002,0
0.81844091,0.75023741,-2.4062002,0.30884561,0.28310844,-0.90800005,0
2.183629,-0.19851168,-1.48824,0.82401091,-0.074910067,-0.56159997,0
0.41244772,-2.5571754,0.55967999,0.15564065,-0.96497184,0.21119998,0
-2.4274871,-0.83706445,0.65507978,-0.91603285,-0.31587335,0.24719991,0
2.0573397,-1.4572822,0.81620002,0.77635455,-0.54991776,0.308,0
1.8395141,-1.0376747,-1.6005998,0.69415623,-0.39157534,-0.60399991,0
-1.535044,1.3431634,1.6917602,-0.57926184,0.50685406,0.63840002,0
0.51864243,0.9335559,2.4252801,0.19571412,0.35228524,0.9152,0
-0.25212848,-2.5212853,-0.77592009,-0.095142819,-0.95142835,-0.29280004,0
-1.5486568,1.9788393,0.84163982,-0.58439881,0.74673176,0.31759992,0
-1.1007028,2.0179553,1.3186398,-0.41535953,0.76149255,0.4975999,0
-1.8680654,1.8680654,0.20775981,-0.70493031,0.70493031,0.078399926,0
-1.7668328,1.8509679,0.68899971,-0.66672933,0.6984784,0.25999987,0
1.9738147,-1.3457826,1.1469197,0.74483573,-0.50784248,0.43279988,0
0.33749992,-2.5312481,0.70807981,0.12735845,-0.95518792,0.26719993,0
-1.580016,1.580016,-1.4246401,-0.59623241,0.59623241,-0.53759998,0
0.41404659,1.0351162,2.4040799,0.15624399,0.39060986,0.90719992,0
-2.2943554,-0.091774128,1.32288,-0.86579448,-0.034631744,0.49919999,0
1.021409,-1.6597896,-1.7956399,0.38543737,-0.62633568,-0.67759991,0
1.1527225,2.3822935,0.13568012,0.4349896,0.89897865,0.051200043,0
1.0202466,-1.9894811,-1.4225197,0.38499871,-0.75074756,-0.53679985,0
2.463074,0.24030003,-0.94764054,0.92946184,0.090679251,-0.35760018,0
-1.211073,-1.8631893,1.4437202,-0.45700869,-0.70309031,0.54480004,0
-1.7546827,-1.9835544,0.095400214,-0.66214436,-0.74851108,0.03600008,0
0,-2.079195,-1.6429999,0,-0.78460187,-0.61999995,0
1.7982837,-1.8648869,-0.55755979,0.67859757,-0.70373088,-0.21039991,0
0.23557709,0.15144239,-2.6351602,0.088897012,0.057148073,-0.99440002,0
-0.98549175,-0.060336232,-2.4592004,-0.37188366,-0.022768389,-0.92800009,0
-0.086323239,-2.5033765,0.86495978,-0.032574806,-0.94467032,0.32639989,0
2.5240469,0.42067456,0.68899983,0.95247048,0.15874511,0.25999993,0
2.5094373,-0.72854632,0.44095996,0.94695747,-0.27492312,0.16639999,0
1.1220291,0.81602091,2.2578001,0.42340717,0.30793241,0.852,0
2.2499986,-0.78749949,-1.1575196,0.84905601,-0.2971696,-0.43679982,0
0.68594366,-1.5523988,-2.0352001,0.25884667,-0.58581084,-0.76800001,0
1.9598914,1.02661,1.4585602,0.73958164,0.3874,0.55040008,0
-0.22754222,-2.3891938,-1.1236004,-0.085864983,-0.90158254,-0.42400011,0
1.210655,-0.73820418,-2.2387207,0.45685092,-0.27856761,-0.84480023,0
2.3412135,1.170607,-0.41339976,0.88347673,0.44173846,-0.1559999,0
-1.8359739,-1.3769805,1.3250002,-0.69282031,-0.51961529,0.50000006,0
-2.3012187,0.79657555,1.0451603,-0.86838442,0.30059454,0.39440009,0
-0.83050984,-2.3135633,-0.99003971,-0.31339994,-0.87304276,-0.37359989,0
0.88664418,2.4553225,-0.45580021,0.33458269,0.92653674,-0.17200007,0
-0.8937102,1.4895167,2.0012803,-0.33724913,0.56208175,0.75520009,0
-1.4168897,0.50603217,2.1814802,-0.5346753,0.19095553,0.82320005,0
1.9472266,-1.7974401,-0.0042399922,0.73480248,-0.67827922,-0.001599997,0
-0.73093587,-0.52209723,2.4931202,-0.27582484,-0.19701782,0.94080001,0
2.5214014,0.45255917,-0.67839974,0.95147222,0.17077704,-0.25599989,0
1.1963602,1.9245793,-1.3737603,0.45145667,0.72625631,-0.51840013,0
1.4499543,1.3532908,1.7574803,0.54715252,0.51067573,0.66320008,0
-2.6166503,-0.06885916,-0.41339993,-0.98741519,-0.025984587,-0.15599997,0
-0.63309598,-1.9445093,-1.6854001,-0.23890413,-0.73377705,-0.63600004,0
0.31640571,-0.42187461,2.5970001,0.11939838,-0.15919796,0.98000002,0
-0.82496107,1.2691709,-2.1751196,-0.31130606,0.47893238,-0.82079983,0
-2.2963996,-0.61610729,-1.17024,-0.86656582,-0.23249331,-0.44159999,0
-0.60272157,1.1780467,-2.2959602,-0.2274421,0.44454592,-0.86640006,0
-1.2042085,-2.3281367,0.39007971,-0.45441827,-0.87854213,0.14719988,0
-1.1089041,-0.74851024,-2.2874799,-0.41845438,-0.2824567,-0.86319995,0
1.2665612,1.7537001,-1.5306401,0.47794759,0.66177362,-0.5776,0
0,-2.5782015,0.61268002,0,-0.97290623,0.23119999,0
-1.5486568,1.9788393,0.84163982,-0.58439881,0.74673176,0.31759992,0
-0.52209723,0.73093587,2.4931202,-0.19701782,0.27582484,0.94080001,0
-2.4328587,0.76827121,-0.71655995,-0.91805989,0.28991365,-0.27039996,0
-1.9143026,-1.7775667,-0.44519994,-0.72237831,-0.67077982,-0.16799997,0
1.3165491,0.70891094,2.1878402,0.49681094,0.26751354,0.82560003,0
-1.8270147,-1.4948303,-1.2041596,-0.68943948,-0.56408685,-0.45439985,0
1.0912536,-0.20461005,-2.4062004,0.4117938,-0.077211335,-0.90800011,0
-0.69005263,1.6484591,-1.9567603,-0.2603972,0.62206,-0.7384001,0
0.16611913,-2.5748489,0.60420001,0.062686458,-0.97164106,0.228,0
-0.72731137,-0.72731137,2.4422402,-0.2744571,-0.2744571,0.92160004,0
-0.89360899,-0.091184609,-2.4931204,-0.33721089,-0.034409281,-0.94080007,0
-2.4676383,-0.91655129,-0.30527991,-0.93118423,-0.34586841,-0.11519996,0
1.1251271,-1.8752116,1.4967201,0.42457625,-0.707627,0.56480002,0
0.55269831,2.2107933,1.3525599,0.2085654,0.8342616,0.51039994,0
1.63213,-0.77720469,-1.9376802,0.61589807,-0.29328477,-0.73120004,0
0,0.52734351,2.5970001,0,0.19899754,0.98000002,0
2.1795909,1.0324379,-1.09816,0.82248712,0.3895992,-0.41439998,0
0.22486004,-2.0237398,-1.6959999,0.084852844,-0.76367539,-0.63999993,0
-0.30629417,-1.9690341,-1.7468798,-0.1155827,-0.74303168,-0.65919989,0
1.2337738,0.17992532,-2.3383605,0.46557501,0.067896344,-0.88240016,0
1.0618639,2.4271178,0.063600183,0.40070334,0.9158935,0.024000067,0
0.83432186,-0.41716093,-2.4804001,0.31483844,-0.15741922,-0.93599999,0
1.6390905,2.0666792,-0.25440046,0.61852473,0.77987891,-0.096000172,0
-1.1963601,1.9245795,-1.37376,-0.45145664,0.72625637,-0.51839995,0
-2.1184244,-0.77503335,-1.39072,-0.7994054,-0.29246542,-0.5248,0
0.91206354,-2.2231543,-1.11724,0.34417492,-0.83892614,-0.42159995,0
0.6293509,0.41956747,2.5397601,0.23749089,0.15832734,0.95840001,0
-1.7755213,1.3082787,1.4691602,-0.670008,0.49369004,0.55440003,0
-1.6597896,1.021409,-1.7956399,-0.62633568,0.38543737,-0.67759991,0
0.86202967,-1.8601694,-1.67904,0.3252942,-0.70195067,-0.63359994,0
0.75023741,0.81844091,-2.4062002,0.28310844,0.30884561,-0.90800005,0
-0.50434166,2.5937574,-0.20140021,-0.1903176,0.97877634,-0.076000072,0
-1.330685,-0.13861306,-2.2874799,-0.50214529,-0.052306812,-0.86319995,0
0.37476668,2.6233664,-3.7908558e-07,0.14142138,0.98994952,-1.4305115e-07,0
-0.9014737,1.1812413,-2.1942003,-0.34017873,0.4457514,-0.82800007,0
1.333967,2.2755907,0.25439963,0.50338376,0.85871345,0.095999859,0
-1.4120139,2.1595507,0.60420024,-0.53283542,0.81492478,0.22800009,0
-1.4752185,2.1777034,-0.32224011,-0.55668622,0.82177484,-0.12160004,0
0.71278358,-1.2219149,2.2408402,0.2689749,-0.46109989,0.84559995,0
2.5186448,-0.68071479,-0.46428007,0.95043194,-0.25687349,-0.17520002,0
1.3874232,-2.2035542,0.49184012,0.52355587,-0.83152986,0.18560004,0
-2.4874921,0,-0.91371995,-0.93867624,0,-0.34479997,0
-0.99527168,1.3933803,2.0224802,-0.3755742,0.52580386,0.76320004,0
-0.21166065,-0.21166065,2.6330402,-0.079871945,-0.079871945,0.99360001,0
1.5028454,2.087285,0.63812,0.56711143,0.7876547,0.24079999,0
2.2669632,1.3052213,-0.42399976,0.85545778,0.49253634,-0.15999991,0
-1.2177625,-2.2432466,-0.71231991,-0.45953301,-0.84650809,-0.26879996,0
0.10589385,0.2117877,2.6394,0.039959941,0.079919882,0.99599999,0
2.2179892,1.4309608,-0.23531994,0.83697701,0.53998518,-0.088799976,0
-2.0415325,-0.92796928,1.4119201,-0.77038962,-0.35017708,0.53280002,0
1.034356,1.7539077,-1.696,0.39032301,0.66185194,-0.63999999,0
-0.48814347,-2.5801873,-0.35616007,-0.18420509,-0.97365558,-0.13440003,0
0.31428927,-0.73334223,2.5270402,0.11859972,-0.27673292,0.95360005,0
0.53686678,-2.0986607,-1.5264002,0.20259123,-0.79194742,-0.57600003,0
-1.211073,-1.8631893,1.4437202,-0.45700869,-0.70309031,0.54480004,0
2.1366906,1.4689751,-0.54696018,0.80629832,0.55433017,-0.20640005,0
0.10544726,0.52723694,2.5948801,0.03979142,0.19895732,0.97920001,0
-2.1641972,0.094095439,1.5264002,-0.81667817,0.035507713,0.57600003,0
1.2179359,0.81195712,2.2090402,0.45959845,0.3063989,0.83360004,0
1.6177908,1.332298,1.6218001,0.6104871,0.50275397,0.61199999,0
1.2542089,-2.1948657,-0.79499984,0.47328636,-0.82825118,-0.29999992,0
2.0622382,1.567301,0.55968004,0.77820307,0.59143436,0.21120001,0
0.08779455,2.4582493,0.98580039,0.033130016,0.92764121,0.37200013,0
1.3920107,2.0577545,-0.92219985,0.52528703,0.77651113,-0.34799993,0
-0.0209869,-1.0283591,-2.4422402,-0.0079195844,-0.38806,-0.92160004,0
1.7982837,-1.8648869,-0.55755979,0.67859757,-0.70373088,-0.21039991,0
1.5908966,0.85365188,-1.9398007,0.60033834,0.32213277,-0.73200023,0
-0.40098301,1.2296811,-2.3129196,-0.15131433,0.46403059,-0.87279981,0
0.20084137,-1.8477401,-1.8889203,0.075789191,-0.69726038,-0.71280009,0
0.7222265,0.97127002,-2.35744,0.2725383,0.36651698,-0.88959998,0
1.5644437,1.8541557,-1.0663598,0.59035611,0.69968134,-0.4023999,0
-0.52349418,0.6281929,2.52068,-0.19754496,0.23705392,0.95119995,0
-0.68570775,-1.7344373,-1.8825601,-0.25875762,-0.65450466,-0.71040004,0
-2.6438024,0.14687777,-0.10600021,-0.99766123,0.055425569,-0.040000077,0
-1.4195061,1.7875262,-1.3461994,-0.53566265,0.6745382,-0.50799978,0
-2.5440001,0,0.74199986,-0.96000004,0,0.27999994,0
-0.55627441,0.25959471,-2.5779197,-0.20991486,0.097960263,-0.97279984,0
-1.8345267,-1.6598097,0.94975996,-0.69227421,-0.62634325,0.35839996,0
-1.4442461,-0.67174232,-2.1178801,-0.54499847,-0.25348765,-0.7992,0
-1.2187328,2.3020506,-0.4875997,-0.45989916,0.8686983,-0.18399988,0
0.18340127,2.2925181,1.3165201,0.069208026,0.86510116,0.49680001,0
0.61570585,-1.1287942,2.3171601,0.23234183,-0.42596006,0.87440002,0
1.6732001,-2.0534725,0.078439951,0.63139623,-0.77489525,0.02959998,0
1.8493743,-1.1193581,-1.5327599,0.69787705,-0.42239925,-0.57839996,0
-1.5149028,-2.1346359,-0.41340002,-0.57166141,-0.80552298,-0.156,0
-2.5818937,0.54767442,0.23744026,-0.97429949,0.20666958,0.089600094,0
-2.3610311,-0.95717478,-0.72928011,-0.89095509,-0.36119801,-0.27520004,0
-1.7583709,1.7583709,-0.91584057,-0.66353613,0.66353613,-0.34560019,0
-0.30405539,1.2991456,-2.2896006,-0.11473788,0.49024358,-0.8640002,0
-2.5639296,0.65929598,-0.11871982,-0.96752053,0.24879092,-0.044799928,0
-0.25834444,-2.4973295,0.84799975,-0.097488463,-0.94238847,0.3199999,0
2.1366909,-1.4689749,-0.54695994,0.80629843,-0.55433017,-0.20639996,0
0.12691692,2.5383406,-0.75047958,0.047893174,0.95786434,-0.28319982,0
0.80269361,-1.4047139,2.0988002,0.30290323,-0.53008068,0.79200006,0
2.1466296,1.0733148,1.1235999,0.81004894,0.40502447,0.42399999,0
-0.0012170902,-0.00035498463,-2.6499999,-0.00045927928,-0.00013395646,-0.99999988,0
-2.0858042,-0.3792372,-1.59,-0.7870959,-0.14310837,-0.59999996,0
1.2554177,-1.5451295,1.7490001,0.47374251,-0.58306772,0.66000003,0
1.146777,-1.7201656,1.65784,0.43274602,-0.64911908,0.62559998,0
-0.70891094,1.3165491,2.1878402,-0.26751354,0.49681094,0.82560003,0
-0.41956717,0.6293509,2.5397601,-0.15832722,0.23749089,0.95840001,0
0,-2.5440001,0.74199986,0,-0.96000004,0.27999994,0
-1.4952766,-0.79748094,2.0373199,-0.5642553,-0.30093619,0.76879996,0
1.8624873,0.098025553,1.8825601,0.70282537,0.036990773,0.71040004,0
-2.2240083,-1.1975429,0.80136019,-0.83924842,-0.45190296,0.30240005,0
-0.47297874,-2.0811059,1.57092,-0.17848253,-0.78532296,0.59279996,0
1.4234027,0.20334308,2.2260001,0.53713304,0.076733232,0.83999997,0
1.4230241,-1.9566578,1.0811999,0.53699017,-0.73836142,0.40799993,0
-1.1791756,-2.3583512,0.26499981,-0.44497192,-0.88994384,0.099999927,0
1.4047139,-0.80269384,2.0988002,0.53008068,-0.30290332,0.79200006,0
0.97072858,2.4268215,0.43671983,0.36631265,0.91578168,0.16479993,0
-1.7073044,2.0177233,0.19080013,-0.64426577,0.76140499,0.072000049,0
1.266192,1.9897307,1.2083999,0.47780827,0.75084174,0.45599994,0
2.1201992,0.65625209,-1.4479604,0.80007511,0.24764229,-0.54640013,0
-2.0606227,-0.74931747,1.48824,-0.77759343,-0.28276131,0.56159997,0
1.1171718,-1.1510255,-2.1093998,0.42157423,-0.43434924,-0.79599988,0
-0.40695158,-1.3371269,-2.25144,-0.15356663,-0.50457615,-0.84960002,0
0.89085186,2.0961218,-1.3546798,0.33617049,0.79098934,-0.51119989,0
-2.5047421,-0.58443975,0.63811988,-0.94518566,-0.2205433,0.24079995,0
-1.4702473,-2.0215898,-0.8797999,-0.55481029,-0.76286405,-0.33199996,0
2.0181854,0.19220796,1.7066003,0.76157933,0.072531305,0.64400011,0
-1.0469666,1.3357848,-2.0352004,-0.3950817,0.50406969,-0.76800013,0
-1.5815084,-0.37818682,-2.0924404,-0.59679562,-0.142712,-0.78960013,0
1.7386897,-0.96593863,1.7511201,0.65610927,-0.36450514,0.66080004,0
-1.404714,2.0192766,0.98579985,-0.53008074,0.76199114,0.37199992,0
-2.4969246,0.88126749,-0.10600008,-0.94223571,0.33255374,-0.040000029,0
0,2.5782015,0.61268002,0,0.97290623,0.23119999,0
-0.59529364,1.6370575,-1.99704,-0.2246391,0.61775756,-0.7536,0
-0.60936636,1.3202937,2.2154002,-0.22994956,0.49822402,0.83600003,0
1.1812413,0.9014737,-2.1942003,0.4457514,0.34017873,-0.82800007,0
-1.567301,-2.0622382,0.55968004,-0.59143436,-0.77820307,0.21120001,0
2.6279271,0,0.34132025,0.99167055,0,0.12880009,0
-2.6233664,0.37476671,6.318092e-08,-0.98994952,0.14142139,2.3841856e-08,0
2.1764152,-0.45552877,-1.4416002,0.8212887,-0.17189763,-0.54400003,0
1.3920106,-2.0577545,-0.92220026,0.52528697,-0.77651113,-0.34800008,0
2.2971597,-0.21368922,-1.3038001,0.8668527,-0.08063744,-0.49200001,0
0.52723694,-0.10544726,2.5948801,0.19895732,-0.03979142,0.97920001,0
1.7338049,-1.3375065,-1.4924802,0.654266,-0.50471944,-0.56320006,0
0.866611,-2.339849,0.89252013,0.327023,-0.88296187,0.33680004,0
-1.9275721,1.728168,-0.56604016,-0.7273857,0.65213883,-0.21360005,0
-1.0261502,-2.3088377,0.79924023,-0.38722649,-0.87125945,0.30160007,0
0.65816689,2.0685251,1.5200398,0.24836485,0.78057545,0.57359987,0
-2.6195326,0.23813912,0.32224029,-0.9885028,0.089863814,0.12160011,0
1.2894067,-1.2135593,-1.9715996,0.48656854,-0.45794687,-0.74399984,0
-1.7325083,1.5501392,1.272,-0.65377671,0.58495814,0.47999996,0
1.1922055,-1.7644641,-1.5772802,0.44988886,-0.6658355,-0.59520006,0
-1.1364764,-0.20663215,2.385,-0.428859,-0.077974394,0.89999998,0
-1.3378243,2.1660011,-0.73563975,-0.50483936,0.81735885,-0.2775999,0
1.8539034,-0.54774421,-1.8126,0.69958615,-0.20669593,-0.68399996,0
-1.550139,-1.7325084,1.2720002,-0.58495808,-0.65377676,0.48000005,0
0.89317209,2.2329297,1.1129999,0.33704606,0.84261495,0.41999996,0
-1.5957264,-2.0813825,-0.37948006,-0.60216087,-0.78542733,-0.14320002,0
0,-0.21183045,2.64152,0,-0.07993602,0.99679995,0
-0.06885916,2.6166503,-0.41339993,-0.025984587,0.98741519,-0.15599997,0
1.1179017,-0.9146468,2.22176,0.42184967,-0.34514973,0.83840001,0
-2.6129274,-0.13752256,-0.41975996,-0.98601031,-0.051895306,-0.15839998,0
-1.4914242,1.5395347,-1.5582,-0.56280154,0.58095646,-0.588,0
-2.5207398,-0.81553358,-0.057240121,-0.95122254,-0.3077485,-0.021600045,0
0.24877253,-2.570652,0.59360003,0.093876421,-0.97005731,0.22400001,0
2.0624046,-0.80484074,-1.4564404,0.77826589,-0.30371347,-0.54960012,0
1.0326338,1.9177487,-1.5094396,0.38967311,0.72367871,-0.56959981,0
-0.98831159,0.98831153,-2.2514398,-0.37294775,0.37294772,-0.8495999,0
0.49575382,1.5934947,-2.0585198,0.18707691,0.60131872,-0.77679992,0
0.43471894,-2.6083136,-0.17384022,0.16404487,-0.98426926,-0.065600082,0
1.0056221,-2.4422255,-0.21623997,0.37948003,-0.9215945,-0.081599988,0
-1.6731825,1.1757498,-1.6854,-0.63138962,0.44367915,-0.63599998,0
-2.2041109,-1.2716025,0.73988008,-0.8317399,-0.47984999,0.27920002,0
1.8474134,-0.41053629,-1.8549998,0.69713712,-0.15491936,-0.69999987,0
1.9444574,-1.7889007,0.20352012,0.7337575,-0.67505687,0.076800041,0
2.1300495,-1.4200331,-0.6847598,0.80379224,-0.53586155,-0.2583999,0
-0.27831817,2.2265453,1.4097999,-0.10502572,0.84020573,0.53199995,0
0.91005778,-1.2134107,2.1730001,0.34341803,-0.45789084,0.81999999,0
-0.65059477,-2.1376686,1.4246402,-0.24550745,-0.80666739,0.53760004,0
-2.1533859,-1.5381327,0.13992009,-0.81259841,-0.58042741,0.05280003,0
1.5264001,-2.0352001,-0.74200004,0.57600003,-0.76800001,-0.28,0
-1.2810625,-1.9215939,1.2995601,-0.48341978,-0.72512972,0.49040002,0
-0.13861306,-1.330685,-2.2874799,-0.052306812,-0.50214529,-0.86319995,0
-2.0303137,1.015157,1.3674001,-0.76615608,0.3830781,0.51599997,0
1.6931132,0.19918959,2.0288401,0.63891065,0.075165883,0.76560003,0
-0.073530622,-2.6471052,-0.09964022,-0.027747404,-0.99890757,-0.037600081,0
-0.44959509,-2.337894,1.1638801,-0.16965853,-0.88222408,0.43920001,0
-0.8393032,-2.05163,1.4522001,-0.31671816,-0.77419996,0.54799998,0
0.48285311,1.9314119,1.7490002,0.18220872,0.72883463,0.66000003,0
-0.69526619,1.5891804,2.0033998,-0.2623646,0.59969068,0.75599992,0
1.1945672,-0.54298502,-2.30232,0.45078006,-0.2049,-0.86879998,0
-0.3941147,1.7735167,1.9292001,-0.14872253,0.66925156,0.72799999,0
1.015157,2.030314,1.3673997,0.3830781,0.7661562,0.51599985,0
2.6471052,-0.073530622,-0.09964022,0.99890757,-0.027747404,-0.037600081,0
-1.7269869,-1.8133364,0.86708003,-0.65169317,-0.68427783,0.3272,0
-1.6558801,0.97404742,1.82532,-0.62486041,0.36756507,0.68879998,0
-1.1545641,0.8289178,-2.2365994,-0.43568456,0.31279916,-0.84399974,0
-1.4218547,0.30468288,2.2154002,-0.53654891,0.11497467,0.83600003,0
0.82080698,2.399282,-0.76955992,0.30973846,0.90538937,-0.29039997,0
2.1652043,1.5156428,-0.19291997,0.81705821,0.57194066,-0.072799988,0
-1.8211713,1.9003528,0.30740002,-0.6872344,0.71711427,0.116,0
-0.51961195,-2.5980599,-0.050879892,-0.19607997,-0.98039991,-0.019199958,0
-0.11471537,2.4090216,-1.0981604,-0.043288816,0.90906471,-0.41440013,0
2.0553925,-1.001345,-1.3398398,0.7756198,-0.37786603,-0.50559992,0
-2.3482673,0.27095369,1.1978002,-0.88613856,0.10224667,0.45200005,0
-2.3985062,0.59962666,-0.95400023,-0.90509665,0.22627421,-0.36000007,0
0.77256465,1.8348414,1.7490002,0.29153383,0.69239295,0.66000003,0
0.10680247,-1.6732403,-2.05216,0.040302817,-0.63141143,-0.7744,0
1.1171718,-1.1510255,-2.1093998,0.42157423,-0.43434924,-0.79599988,0
2.1201992,0.65625209,-1.4479604,0.80007511,0.24764229,-0.54640013,0
1.0227324,-0.85688388,-2.2896001,0.38593674,-0.3233524,-0.86400002,0
2.4268215,-0.54603487,-0.91371965,0.91578168,-0.20605089,-0.34479985,0
-0.59322137,-1.6807936,1.9610002,-0.2238571,-0.63426173,0.74000007,0
-2.2787979,-0.48831379,-1.2614003,-0.85992372,-0.18426935,-0.4760001,0
1.3431637,-2.1826406,0.67415994,0.50685424,-0.8236379,0.25439996,0
1.0394115,0.65913898,-2.3468404,0.39223075,0.24873169,-0.88560009,0
-0.51833022,2.3612821,-1.0854405,-0.19559631,0.8910498,-0.40960017,0
1.7298733,-1.0571449,1.7066,0.65278238,-0.39892259,0.64399993,0
-1.9787165,-1.7588593,-0.11659988,-0.74668545,-0.66372043,-0.043999951,0
-2.3086011,-1.0901726,-0.71020013,-0.87117028,-0.41138592,-0.26800007,0
1.6731825,-1.1757498,-1.6854,0.63138962,-0.44367915,-0.63599998,0
0.22754239,2.3891938,-1.1236004,0.085865051,0.90158254,-0.42400011,0
-2.0044351,-1.1844389,1.2656401,-0.75639057,-0.44695807,0.47760004,0
-1.4134655,0.74038678,-2.1157606,-0.53338319,0.27939123,-0.79840016,0
0.21144789,-0.31717214,2.6224401,0.079791658,-0.11968759,0.9896,0
2.3883235,-0.46601442,-1.0494006,0.90125412,-0.17585449,-0.39600021,0
-0.61826271,2.5417466,-0.42400011,-0.23330668,0.95914966,-0.16000004,0
-2.1641972,-0.094095439,1.5264002,-0.81667817,-0.035507713,0.57600003,0
-1.9593757,1.7144535,0.49396011,-0.73938704,0.64696354,0.18640004,0
-1.6310503,-1.8058058,-1.0494001,-0.61549067,-0.68143612,-0.39600003,0
1.2179359,-0.81195736,2.2090399,0.45959845,-0.30639899,0.83359993,0
-0.58947837,-0.20067349,-2.5757999,-0.22244467,-0.075725846,-0.97199994,0
-0.56059068,-2.5627005,0.37524012,-0.21154365,-0.96705675,0.14160004,0
-1.4914242,1.5395347,-1.5582,-0.56280154,0.58095646,-0.588,0
-0.74062997,2.1293108,1.3928398,-0.27948299,0.80351353,0.5255999,0
1.7179066,-2.0042243,-0.23320012,0.64826661,-0.75631106,-0.088000044,0
1.1658074,-1.5544097,1.802,0.43992728,-0.58656967,0.68000001,0
1.6370572,0.59529364,-1.9970402,0.61775738,0.2246391,-0.7536,0
-1.6285933,-1.2453949,1.6790402,-0.61456352,-0.46996033,0.63360006,0
-1.3549486,0.79314071,-2.13484,-0.51130134,0.29929838,-0.80559999,0
-1.0744867,1.5704037,-1.8443999,-0.40546668,0.59260517,-0.69599992,0
-2.1448858,0.5595355,1.4522002,-0.80939084,0.21114546,0.54800004,0
-0.7222265,0.97127002,-2.35744,-0.2725383,0.36651698,-0.88959998,0
0,-1.7800732,1.96312,0,-0.67172569,0.74079996,0
-2.1836288,0.19851182,-1.48824,-0.82401085,0.074910119,-0.56159997,0
-1.349033,1.8160062,-1.3801203,-0.50906903,0.68528533,-0.52080011,0
2.3776109,1.1527814,-0.20139995,0.89721161,0.43501183,-0.075999983,0
-0.8393032,2.0516303,1.4521998,-0.31671816,0.77420008,0.54799992,0
1.5084068,-0.50280225,-2.1199999,0.56921005,-0.18973669,-0.79999995,0
-1.015157,-2.0303137,1.3674001,-0.3830781,-0.76615608,0.51599997,0
0.52723694,-0.10544726,2.5948801,0.19895732,-0.03979142,0.97920001,0
2.1237915,-1.0618957,-1.1766,0.8014307,-0.40071535,-0.44399998,0
-1.5800159,-1.5800159,1.4246403,-0.59623241,-0.59623241,0.5376001,0
-1.8559422,0.3907249,1.8507601,-0.70035553,0.14744335,0.69840002,0
1.546111,1.979022,-0.84587991,0.5834381,0.74680072,-0.31919995,0
-1.0661094,-1.6476232,1.7808001,-0.40230542,-0.62174457,0.67199999,0
-1.4094093,0.70470464,2.1306002,-0.53185254,0.26592627,0.80400008,0
-1.5706096,0.98163122,1.89528,-0.59268284,0.37042686,0.71519995,0
-0.67843306,1.8414614,1.7808001,-0.25601247,0.6948911,0.67199999,0
-1.726987,1.8133363,0.86708033,-0.65169317,0.68427783,0.32720011,0
1.960678,-1.7506055,-0.33707967,0.73987848,-0.66060579,-0.12719987,0
-1.5523988,0.68594366,-2.0352001,-0.58581084,0.25884667,-0.76800001,0
-1.1722952,-0.46891809,-2.32988,-0.44237554,-0.17695022,-0.87919998,0
1.818855,0.95729238,1.67268,0.68636036,0.36124238,0.63119996,0
-0.82970315,-2.0010488,-1.5263999,-0.31309551,-0.75511271,-0.57599992,0
-0.71632785,-1.1256583,2.2896001,-0.2703124,-0.4247767,0.86400002,0
1.862958,1.424615,-1.2338395,0.70300299,0.53759056,-0.46559981,0
1.3920106,-2.0577545,-0.92220026,0.52528697,-0.77651113,-0.34800008,0
-1.0901726,2.3086011,-0.71020013,-0.41138592,0.87117028,-0.26800007,0
-1.3824904,-2.2556422,-0.15264001,-0.52169448,-0.85118568,-0.057600003,0
1.9267151,-1.1154666,-1.4373599,0.72706228,-0.42093077,-0.54239994,0
1.5264001,-1.62816,-1.4288801,0.57600003,-0.61439997,-0.53920001,0
1.8936363,0.37872717,-1.8147198,0.7145797,0.1429159,-0.68479991,0
0.96235639,2.2746603,0.96036005,0.36315334,0.85836238,0.3624,0
-1.6633153,-0.88057876,1.8656001,-0.62766612,-0.33229387,0.704,0
1.146777,1.7201656,1.65784,0.43274602,0.64911908,0.62559998,0
-0.59577286,-2.5154853,-0.58299994,-0.22481994,-0.94923967,-0.21999997,0
-0.73144621,2.1943383,1.2931999,-0.27601743,0.82805216,0.48799995,0
2.3187635,-0.10784952,-1.2783601,0.87500507,-0.040697932,-0.48240003,0
1.6755029,1.9332727,-0.69112009,0.63226521,0.72953683,-0.26080003,0
-0.19485545,1.1691326,-2.3701606,-0.073530354,0.44118211,-0.89440018,0
-1.3287683,2.0374448,1.0515199,-0.50142199,0.76884705,0.39679995,0
1.034356,-1.7539077,-1.696,0.39032301,-0.66185194,-0.63999999,0
0.49932653,-1.5978445,2.05428,0.18842509,-0.60296017,0.77520001,0
1.4515857,-2.1773782,0.41764018,0.54776818,-0.82165211,0.15760006,0
2.536835,0.25368324,0.72291988,0.95729619,0.095729522,0.27279994,0
0.56936115,1.7894208,-1.8698399,0.21485326,0.67525315,-0.70559996,0
-2.4668732,0.59545207,0.76319981,-0.93089551,0.22469889,0.28799993,0
-1.8539034,0.54774421,-1.8126,-0.69958615,0.20669593,-0.68399996,0
2.5941863,0.47167027,0.26500022,0.97893822,0.17798877,0.10000008,0
-1.266192,-1.9897305,1.2084001,-0.47780827,-0.75084168,0.45600003,0
-1.3371269,-0.40695158,-2.25144,-0.50457615,-0.15356663,-0.84960002,0
0.87814599,2.4747748,0.35615993,0.33137584,0.93387729,0.13439997,0
1.6980129,1.3206766,1.5476,0.64075959,0.4983685,0.58399999,0
-2.2582479,0.66095066,-1.219,-0.85216898,0.24941534,-0.45999998,0
0.30844334,1.2080698,-2.3383608,0.11639371,0.45587537,-0.88240027,0
-0.9167009,-2.3223088,-0.88827997,-0.34592485,-0.87634289,-0.33519998,0
2.2329297,0.89317209,1.1129999,0.84261495,0.33704606,0.41999996,0
-1.5590291,1.9188051,-0.95399982,-0.58831286,0.7240774,-0.35999992,0
-0.17148428,2.40078,-1.1087604,-0.064711042,0.90595466,-0.41840011,0
-0.42848143,-2.4851918,0.81407976,-0.1616911,-0.93780822,0.3071999,0
1.5264001,-2.0352001,-0.74200004,0.57600003,-0.76800001,-0.28,0
1.6956607,1.8167796,-0.92007983,0.63987195,0.68557721,-0.34719992,0
2.4747748,0.87814599,0.35615993,0.93387729,0.33137584,0.13439997,0
-1.2232418,1.7878151,1.5264001,-0.46160066,0.67464715,0.57600003,0
1.8680654,-1.8680654,0.20775981,0.70493031,-0.70493031,0.078399926,0
1.1188462,2.3775477,-0.34343982,0.4222061,0.89718777,-0.12959993,0
0.7348761,0.56528938,-2.4825201,0.27731171,0.21331674,-0.9368,0
1.9306475,1.6192527,-0.82043993,0.7285462,0.61103874,-0.30959997,0
-1.2232418,1.7878151,1.5264001,-0.46160066,0.67464715,0.57600003,0
2.1695204,-0.74081171,-1.3292404,0.8186869,-0.27955157,-0.50160015,0
-2.6332953,-0.14234036,-0.2607601,-0.99369633,-0.053713344,-0.098400034,0
-0.82891756,1.1545637,-2.2365999,-0.31279907,0.43568438,-0.84399992,0
-2.0920522,0.1901864,1.6154401,-0.78945363,0.071768448,0.60960001,0
-0.35117862,-0.51422584,-2.5757999,-0.13252023,-0.19404748,-0.97199994,0
-1.9314119,0.48285311,1.7490002,-0.72883463,0.18220872,0.66000003,0
-1.9687485,-0.93515551,-1.5073202,-0.74292392,-0.35288885,-0.56880003,0
-2.0868545,-1.3117372,-0.97307992,-0.78749222,-0.49499515,-0.36719996,0
-2.611798,0.4477368,-0.023319919,-0.98558414,0.16895728,-0.0087999692,0
-2.48141,-0.12104446,-0.92219996,-0.9363811,-0.045677152,-0.34799996,0
-1.7735167,0.394115,1.9291999,-0.66925156,0.14872263,0.72799993,0
0.5833199,1.8471795,1.8083601,0.22012071,0.69704884,0.68239999,0
0.70470464,-1.4094093,2.1306002,0.26592627,-0.53185254,0.80400008,0
-1.9125737,-1.2750491,-1.3186404,-0.72172588,-0.4811506,-0.49760011,0
1.114725,1.7649812,-1.6324,0.42065093,0.66603059,-0.616,0
2.5186448,-0.68071479,-0.46428007,0.95043194,-0.25687349,-0.17520002,0
0.079605862,-2.6269958,0.33920026,0.030039947,-0.99131912,0.1280001,0
-0.11471537,-2.4090216,-1.0981604,-0.043288816,-0.90906471,-0.41440013,0
-2.0858045,0.37923709,-1.5899999,-0.78709602,0.14310832,-0.59999996,0
-1.0030313,2.0972471,1.2719998,-0.37850234,0.79141396,0.47999993,0
-0.52136493,-1.9116712,-1.7596,-0.19674148,-0.7213853,-0.66399997,0
-2.015729,-0.28796127,1.696,-0.76065242,-0.10866462,0.63999999,0
0.41221896,1.1336017,2.35956,0.15555432,0.42777419,0.89039999,0
0.3081153,1.2324624,2.3256402,0.11626992,0.46508014,0.87760007,0
1.8966776,1.4943521,-1.0917997,0.71572739,0.56390643,-0.41199988,0
-2.5358462,-0.70440167,-0.30952021,-0.95692307,-0.26581195,-0.11680008,0
0.94231069,-2.423085,-0.51304013,0.35558891,-0.91437167,-0.19360004,0
-2.4643147,0.79923725,-0.55756015,-0.92993003,0.30159897,-0.21040004,0
1.006194,0.79436374,-2.3192801,0.37969583,0.29975989,-0.87520003,0
-0.70440167,-2.5358462,-0.30952021,-0.26581195,-0.95692307,-0.11680008,0
1.5486568,-1.9788392,0.84164006,0.58439881,-0.74673176,0.31760001,0
-1.4840759,-1.3941319,-1.6959999,-0.56002861,-0.52608746,-0.63999993,0
2.337894,0.44959509,1.1638801,0.88222408,0.16965853,0.43920001,0
0.48736966,-1.8520042,1.8316801,0.18391307,-0.69886947,0.69120002,0
-0.091184609,-0.89360899,-2.4931204,-0.034409281,-0.33721089,-0.94080007,0
-1.3072855,0.90504366,2.1200001,-0.49331528,0.34152591,0.80000001,0
2.1975312,0.14983153,-1.4734,0.82925701,0.056540199,-0.55599999,0
-2.244849,0.80814534,1.1532801,-0.84711277,0.30496049,0.43520004,0
-2.4111812,1.0637562,-0.27771991,-0.90987968,0.40141743,-0.10479996,0
-0.57831722,-2.2081201,-1.3462005,-0.2182329,-0.83325285,-0.50800014,0
2.4632175,0.82107264,0.52999979,0.92951602,0.30983871,0.19999991,0
-1.3867263,-1.0895709,1.9779601,-0.5232929,-0.4111588,0.7464,0
2.3028121,-1.3049266,0.12931995,0.86898565,-0.49242511,0.04879998,0
-0.27347174,-2.5979822,-0.44519994,-0.10319688,-0.98037058,-0.16799997,0
2.399282,0.82080698,-0.76955992,0.90538937,0.30973846,-0.29039997,0
-1.262892,-2.259912,-0.56604004,-0.47656304,-0.85279703,-0.21360002,0
0.77720469,-1.63213,-1.9376802,0.29328477,-0.61589807,-0.73120004,0
1.7889009,-1.9444573,0.20351982,0.67505687,-0.73375744,0.076799929,0
-0.9594025,2.2785809,-0.95399994,-0.36203867,0.85984182,-0.35999995,0
-0.44292289,-2.3917828,1.0515202,-0.16714071,-0.90255952,0.39680007,0
-0.20663215,-1.1364764,2.385,-0.077974394,-0.428859,0.89999998,0
1.9086171,-1.8352088,-0.1081199,0.72023284,-0.69253159,-0.04079996,0
1.2871728,-0.1608966,-2.3108006,0.48572555,-0.060715694,-0.87200016,0
2.2582476,-0.66095054,-1.2190006,0.85216886,-0.24941529,-0.46000019,0
0.26696828,-2.4027166,1.0854403,0.10074274,-0.90668547,0.40960008,0
1.0912536,-0.20461005,-2.4062004,0.4117938,-0.077211335,-0.90800011,0
-2.1640456,-1.2022474,-0.94552016,-0.81662095,-0.45367825,-0.35680005,0
-1.114725,-1.7649812,-1.6324,-0.42065093,-0.66603059,-0.616,0
-0.57263559,-2.57686,-0.23320027,-0.21608889,-0.97239995,-0.088000096,0
1.8738331,-1.8738331,0,0.70710677,-0.70710677,0,0
2.6233664,0.37476668,-3.7908558e-07,0.98994952,0.14142138,-1.4305115e-07,0
-1.8941165,1.8239641,-0.32859969,-0.7147609,0.68828833,-0.12399988,0
1.4094093,-0.70470464,2.1306002,0.53185254,-0.26592627,0.80400008,0
-1.6980129,1.3206766,1.5476,-0.64075959,0.4983685,0.58399999,0
-0.78585416,-1.6699398,1.9016402,-0.29654872,-0.63016593,0.71760005,0
0.22629426,2.6401024,0.033919685,0.085394062,0.99626499,0.01279988,0
1.9885045,0.75752544,1.5794003,0.75037903,0.28585866,0.59600008,0
-2.0451221,1.6799219,-0.13356021,-0.77174419,0.63393277,-0.050400078,0
1.2316084,1.4368765,-1.8550006,0.46475786,0.54221755,-0.70000023,0
-1.2279085,2.2920954,0.51092035,-0.46336168,0.86494166,0.19280012,0
2.2133126,0.050302513,-1.45644,0.83521229,0.018982079,-0.54959995,0
-2.0042243,-1.7179066,-0.23320012,-0.75631106,-0.64826661,-0.088000044,0
-2.6068656,0.46003515,0.12295995,-0.98372287,0.17359816,0.046399981,0
2.5622401,0.5539977,-0.38796005,0.966883,0.20905572,-0.14640002,0
-0.47092161,-2.5564318,-0.5151599,-0.17770626,-0.96469122,-0.19439995,0
0,-1.6997311,-2.0330801,0,-0.64140797,-0.76719999,0
-1.6942633,-0.09966246,2.0352001,-0.63934463,-0.037608474,0.76800001,0
-1.1040602,1.9978231,-1.3462,-0.41662645,0.75389546,-0.50799996,0
-1.3451965,-1.9617448,-1.16812,-0.50762129,-0.74028105,-0.44079998,0
2.2432466,1.2177624,-0.71232039,0.84650809,0.45953295,-0.26880014,0
-0.49037591,2.451879,-0.87767965,-0.18504751,0.92523736,-0.33119985,0
1.3853322,2.0779982,0.88615978,0.52276689,0.78415024,0.33439991,0
0.17543544,-2.4560986,0.97944003,0.066202052,-0.92682964,0.3696,0
0.27831787,-2.2265453,1.4097999,0.1050256,-0.84020573,0.53199995,0
-1.5406772,-2.108295,0.45156014,-0.58138758,-0.79558295,0.17040005,0
2.0352001,-1.62816,-0.47912025,0.76800001,-0.61439997,-0.1808001,0
-1.211073,-1.8631893,1.4437202,-0.45700869,-0.70309031,0.54480004,0
1.8058058,-1.6310503,-1.0494001,0.68143612,-0.61549067,-0.39600003,0
-0.93515551,-1.9687485,-1.5073202,-0.35288885,-0.74292392,-0.56880003,0
2.4236042,0.60590106,0.88404042,0.91456759,0.2286419,0.33360013,0
0.50304347,-2.5152173,0.66567987,0.18982773,-0.94913858,0.25119993,0
-0.36562467,2.2851546,1.2910801,-0.13797157,0.86232245,0.48720002,0
0,2.5782015,0.61268002,0,0.97290623,0.23119999,0
2.408165,0.089191221,1.1024003,0.90874147,0.033657063,0.4160001,0
0.41404659,1.0351162,2.4040799,0.15624399,0.39060986,0.90719992,0
-0.79219389,2.5206168,-0.20352043,-0.29894108,0.95117611,-0.07680016,0
2.1660013,1.3378242,-0.73563945,0.81735897,0.5048393,-0.27759978,0
-1.7539077,1.034356,-1.696,-0.66185194,0.39032301,-0.63999999,0
-0.82452136,-0.1009618,-2.5164404,-0.31114012,-0.03809879,-0.9496001,0
-0.15520959,2.6385612,0.19080037,-0.058569655,0.99568343,0.072000138,0
0.41569325,0.93530905,2.4443603,0.15686537,0.35294679,0.92240006,0
1.5523988,-0.68594366,-2.0352001,0.58581084,-0.25884667,-0.76800001,0
-1.3210341,0.64515609,-2.2048001,-0.49850342,0.24345511,-0.83200002,0
-0.72669941,-2.543448,-0.15899989,-0.27422619,-0.95979166,-0.059999958,0
-0.71632785,-1.1256583,2.2896001,-0.2703124,-0.4247767,0.86400002,0
1.2416815,-2.3372824,-0.13356003,0.46855903,-0.88199335,-0.050400011,0
-0.8375746,-2.5127232,0.084800169,-0.31606588,-0.94819742,0.032000061,0
0.46891809,-1.1722952,-2.32988,0.17695022,-0.44237554,-0.87919998,0
-2.05163,0.83930296,1.4522002,-0.77419996,0.31671807,0.54800004,0
2.2031691,0.82618827,-1.2189995,0.83138454,0.31176916,-0.4599998,0
-1.938844,0.29082635,1.7829202,-0.73163921,0.10974579,0.67280006,0
-0.90553546,2.4902222,0.036040209,-0.34171149,0.93970644,0.013600078,0
0.050967682,-0.14091064,-2.6457603,0.019233087,-0.053173825,-0.99840009,0
2.0215898,-1.4702473,-0.8797999,0.76286405,-0.55481029,-0.33199996,0
1.6370577,2.0835273,-0.038159929,0.61775756,0.7862367,-0.014399973,0
1.4679755,1.1743807,1.8677202,0.55395299,0.4431625,0.70480007,0
-2.2907922,-1.3301375,-0.074200086,-0.86444986,-0.50193864,-0.028000031,0
2.4926009,0.66469342,0.6063199,0.94060409,0.2508277,0.22879995,0
2.0622382,1.567301,0.55968004,0.77820307,0.59143436,0.21120001,0
-1.4168897,0.50603217,2.1814802,-0.5346753,0.19095553,0.82320005,0
-1.6370575,2.0835276,-0.03815965,-0.61775756,0.78623676,-0.014399868,0
-1.8273097,0.86556751,1.7129601,-0.68955082,0.32662922,0.64640003,0
-2.108295,1.5406772,0.45156014,-0.79558295,0.58138758,0.17040005,0
0.20836465,0.9376415,2.4698002,0.078628168,0.35382697,0.93200004,0
-0.8548044,-2.432905,-0.61056006,-0.32256767,-0.91807729,-0.23040001,0
-0.57831722,-2.2081201,-1.3462005,-0.2182329,-0.83325285,-0.50800014,0
0.84900624,1.9338477,-1.6006006,0.3203797,0.72975379,-0.60400021,0
-0.10595749,-0.10595749,2.6457601,-0.039983958,-0.039983958,0.99839997,0
1.7481968,1.7481968,0.95400023,0.65969688,0.65969688,0.36000007,0
0.93667036,0.31222326,2.4592001,0.35346049,0.11782009,0.92800003,0
-1.4565866,-1.8207332,1.2592802,-0.54965532,-0.68706912,0.47520006,0
-2.2669632,1.3052213,-0.42399976,-0.85545778,0.49253634,-0.15999991,0
1.6899176,-0.86556751,-1.8486406,0.63770473,-0.32662922,-0.69760019,0
0.3081153,-1.2324624,2.3256402,0.11626992,-0.46508014,0.87760007,0
0.41845194,-0.73229045,2.5122001,0.15790638,-0.27633601,0.94800001,0
0.10544726,-0.52723694,2.5948801,0.03979142,-0.19895732,0.97920001,0
-1.6968081,-0.036102265,-2.0352001,-0.64030492,-0.013623496,-0.76800001,0
-2.214628,1.3027223,-0.64871997,-0.83570862,0.49159333,-0.24479997,0
-0.19220825,2.0181854,1.7066002,-0.07253141,0.76157933,0.64400005,0
-2.3020506,1.2187327,-0.48760012,-0.8686983,0.45989913,-0.18400005,0
0.99636167,-2.4525826,0.12084012,0.37598553,-0.92550284,0.045600045,0
1.2177624,2.2432466,-0.71232039,0.45953295,0.84650809,-0.26880014,0
-0.80420405,2.4930327,0.40068001,-0.3034732,0.94076705,0.1512,0
0.65136153,-0.47223717,-2.52492,0.2457968,-0.1782027,-0.95279998,0
1.7537001,1.2665612,-1.5306401,0.66177362,0.47794759,-0.5776,0
0.10544726,0.52723694,2.5948801,0.03979142,0.19895732,0.97920001,0
-0.38329217,-2.0122845,1.68116,-0.14463855,-0.75935262,0.63439995,0
0.41090819,-2.208632,-1.4055601,0.1550597,-0.83344603,-0.53040004,0
2.1717072,1.2161558,0.90948009,0.81951213,0.45892668,0.34320003,0
0.43876329,-1.7949405,-1.8995199,0.16557105,-0.67733598,-0.71679991,0
-1.6370575,2.0835276,-0.03815965,-0.61775756,0.78623676,-0.014399868,0
2.0177233,-1.7073044,0.19080013,0.76140499,-0.64426577,0.072000049,0
-0.10521258,-0.63127613,2.5715601,-0.039702859,-0.2382174,0.97040004,0
-0.20334338,1.4234027,2.2260001,-0.076733343,0.53713304,0.83999997,0
1.1251271,1.8752116,1.4967201,0.42457625,0.707627,0.56480002,0
-0.02960417,-1.4210014,-2.2365999,-0.011171385,-0.53622693,-0.84399992,0
0.057475016,2.4139531,-1.0918003,0.021688685,0.91092563,-0.41200012,0
0.99718922,1.5556152,-1.8995198,0.3762978,0.58702457,-0.71679991,0
1.3942769,2.246335,0.18019968,0.52614218,0.84767359,0.067999877,0
-1.0185938,-0.43007293,-2.40832,-0.38437501,-0.16229166,-0.90879995,0
-1.489517,0.8937099,2.0012801,-0.56208187,0.33724901,0.75520003,0
0.78749949,2.2499986,-1.1575196,0.2971696,0.84905601,-0.43679982,0
-0.6435864,1.1262763,-2.3108006,-0.24286278,0.42500991,-0.87200016,0
1.6000032,2.0800042,0.36888021,0.60377479,0.78490722,0.13920008,0
-0.99636167,-2.4525826,0.12084012,-0.37598553,-0.92550284,0.045600045,0
-0.45666197,2.0093129,-1.66632,-0.17232527,0.75823122,-0.62879997,0
0.24030003,2.463074,-0.94764054,0.090679251,0.92946184,-0.35760018,0
2.1081457,-1.2297517,-1.0324403,0.79552668,-0.46405724,-0.3896001,0
-1.7735167,0.394115,1.9291999,-0.66925156,0.14872263,0.72799993,0
-1.5293119,-0.76465595,-2.0246005,-0.57709879,-0.28854939,-0.76400018,0
-2.246335,1.3942769,0.18019968,-0.84767359,0.52614218,0.067999877,0
1.9275721,-1.728168,-0.56604016,0.7273857,-0.65213883,-0.21360005,0
-1.0895709,-1.3867263,1.9779601,-0.4111588,-0.5232929,0.7464,0
0.46192181,2.2172241,1.3758799,0.17431012,0.83668834,0.51919991,0
1.508407,0.50280225,-2.1199996,0.56921017,0.18973669,-0.79999983,0
-2.4002297,0.77150214,0.81620014,-0.905747,0.29113287,0.30800003,0
-2.3241332,-0.054049555,-1.2720002,-0.87703133,-0.020396058,-0.48000005,0
2.3531141,-0.78437144,0.93280023,0.88796759,-0.29598922,0.35200009,0
-0.19591381,1.8611802,1.8762001,-0.073929735,0.70233214,0.708,0
1.3260342,-0.40801045,2.2578001,0.50039023,-0.1539662,0.852,0
-1.779664,-0.098870128,1.961,-0.67157131,-0.037309483,0.73999995,0
-1.9897305,1.266192,1.2084001,-0.75084168,0.47780827,0.45600003,0
-0.45592335,-2.2796164,1.2720001,-0.17204654,-0.86023253,0.48000002,0
0.6252203,2.322247,1.1130002,0.23593219,0.87631959,0.42000005,0
-2.5564318,0.47092161,-0.5151599,-0.96469122,0.17770626,-0.19439995,0
-2.4002297,0.77150214,0.81620014,-0.905747,0.29113287,0.30800003,0
2.2107933,-0.55269831,1.3525599,0.8342616,-0.2085654,0.51039994,0
1.4322715,2.1825089,-0.45579973,0.54047978,0.82358825,-0.17199989,0
-0.45592335,2.2796164,1.2720001,-0.17204654,0.86023253,0.48000002,0
-1.1545637,-0.82891756,-2.2365999,-0.43568438,-0.31279907,-0.84399992,0
-2.5616305,0.67807847,0.02756005,-0.96665299,0.25587866,0.010400019,0
2.2455032,0.53464371,-1.3016804,0.84735966,0.20175233,-0.49120015,0
-0.10784952,-2.3187635,-1.2783601,-0.040697932,-0.87500507,-0.48240003,0
0.87331372,-1.746628,1.7914001,0.32955232,-0.65910488,0.676,0
0.48814347,2.5801873,-0.35616007,0.18420509,0.97365558,-0.13440003,0
0.86790615,1.7792078,-1.7617204,0.32751176,0.67139918,-0.66480011,0
-1.6855321,-1.40461,1.48612,-0.63604981,-0.53004152,0.56079996,0
-0.37494639,-2.155942,1.4946002,-0.14148919,-0.81356299,0.56400007,0
0.079605862,-2.6269958,0.33920026,0.030039947,-0.99131912,0.1280001,0
0.37818703,1.5815091,-2.0924397,0.14271209,0.59679586,-0.78959984,0
1.4134655,0.74038678,-2.1157606,0.53338319,0.27939123,-0.79840016,0
1.9704814,0.93832481,1.5030801,0.74357784,0.35408482,0.56720001,0
-1.7095511,1.2346756,1.60484,-0.64511359,0.46591532,0.6056,0
1.9788393,-1.5486568,0.84163982,0.74673176,-0.58439881,0.31759992,0
-2.2146928,-1.4237312,0.30103993,-0.83573312,-0.53725702,0.11359997,0
1.1352357,2.3515599,0.45155984,0.4283908,0.88738108,0.17039993,0
-0.64055943,-0.78520185,-2.4486001,-0.24172053,-0.29630259,-0.92399997,0
-0.6293509,-0.41956717,2.5397601,-0.23749089,-0.15832722,0.95840001,0
2.1788919,-1.3865677,-0.59359986,0.82222331,-0.52323306,-0.22399993,0
-1.2542089,-2.1948657,-0.79499984,-0.47328636,-0.82825118,-0.29999992,0
-1.2894063,1.2135589,-1.9716001,-0.48656839,0.45794675,-0.74400002,0
-2.3535323,1.0086567,0.68263996,-0.88812536,0.38062516,0.25759998,0
-1.4801942,0.8303529,-2.0352001,-0.55856383,0.31334069,-0.76800001,0
2.2031689,1.4687791,-0.10600005,0.83138442,0.55425626,-0.040000018,0
-1.9275721,-1.728168,-0.56604016,-0.7273857,-0.65213883,-0.21360005,0
-0.7292769,-0.62509453,2.4698,-0.27519882,-0.23588473,0.93199998,0
-1.1383314,2.1890991,0.96672004,-0.42955902,0.82607508,0.36480001,0
0.71263212,2.5338037,0.3074002,0.26891777,0.95615232,0.11600007,0
-0.70071709,-2.3649197,0.96884018,-0.26442152,-0.8924225,0.36560005,0
-1.4952766,0.79748064,2.0373201,-0.5642553,0.30093607,0.76880002,0
-1.9787165,-1.7588593,-0.11659988,-0.74668545,-0.66372043,-0.043999951,0
-2.3668165,-0.65087461,-0.9985202,-0.89313829,-0.24561305,-0.37680006,0
0.24359691,-2.5983696,0.46004015,0.091923356,-0.98051679,0.17360005,0
-0.8573271,-1.9051712,1.6302801,-0.32351965,-0.71893251,0.61520004,0
0.88126761,2.4969244,-0.10599965,0.3325538,0.94223559,-0.039999865,0
-2.2231545,-0.91206342,-1.1172398,-0.8389262,-0.34417486,-0.42159992,0
1.0374126,1.8862044,1.5454801,0.39147645,0.71177518,0.58320004,0
-0.40377524,2.584161,0.42612007,-0.15236801,0.97515506,0.16080002,0
1.3631189,2.2718647,0.055119798,0.51438445,0.85730737,0.020799924,0
-0.83706445,2.4274871,0.65507978,-0.31587335,0.91603285,0.24719991,0
2.115042,-1.2337743,1.01336,0.79812902,-0.46557519,0.38240001,0
-2.2311912,-0.092966206,1.42676,-0.84195888,-0.035081588,0.53839999,0
-0.88024688,-2.2886419,1.0048802,-0.33216861,-0.86363846,0.37920007,0
0.41716063,0.83432114,-2.4804003,0.1574191,0.31483814,-0.93600011,0
2.3281367,-1.2042085,0.39007971,0.87854213,-0.45441827,0.14719988,0
1.3072855,-0.90504396,2.1200001,0.49331528,-0.341526,0.80000001,0
1.9482268,-1.1132727,1.4098002,0.7351799,-0.42010286,0.53200006,0
1.9507686,-0.74314988,-1.6324003,0.73613906,-0.28043389,-0.61600006,0
-2.2894528,0.27473408,1.3059201,-0.86394441,0.10367323,0.49280003,0
0.31544575,2.2606945,-1.3462002,0.11903613,0.85309225,-0.50800008,0
1.976694,-1.7394907,0.29892004,0.74592221,-0.65641159,0.11280001,0
-1.4997858,1.5935225,1.4945999,-0.56595689,0.60132927,0.56399995,0
-2.2455032,0.53464371,-1.3016804,-0.84735966,0.20175233,-0.49120015,0
0.43471894,2.6083136,-0.17384022,0.16404487,0.98426926,-0.065600082,0
1.1132727,1.9482268,1.4098002,0.42010286,0.7351799,0.53200006,0
-0.31640604,-0.42187461,2.5970001,-0.1193985,-0.15919796,0.98000002,0
-0.10784952,2.3187635,-1.2783601,-0.040697932,0.87500507,-0.48240003,0
-1.5957264,2.0813825,-0.37948006,-0.60216087,0.78542733,-0.14320002,0
-1.9885048,-0.75752574,1.5793999,-0.75037915,-0.28585875,0.59599996,0
2.1625488,0.18804753,1.5200399,0.81605613,0.070961326,0.57359993,0
-1.5935223,1.499786,1.4945999,-0.60132915,0.56595695,0.56399995,0
-1.1220291,0.81602091,2.2578001,-0.42340717,0.30793241,0.852,0
0.25959471,0.55627441,-2.5779197,0.097960263,0.20991486,-0.97279984,0
-0.098025553,-1.8624873,1.8825601,-0.036990773,-0.70282537,0.71040004,0
-2.0127766,-0.71884876,-1.5666804,-0.75953829,-0.27126369,-0.59120011,0
0.41845194,0.73229045,2.5122001,0.15790638,0.27633601,0.94800001,0
-1.5156429,2.165204,-0.19292024,-0.57194066,0.81705809,-0.072800085,0
-1.5704037,1.0744867,-1.8443999,-0.59260517,0.40546668,-0.69599992,0
-2.1729991,0.90541649,1.2168798,-0.81999964,0.34166658,0.45919994,0
0.36719513,-0.8261891,-2.4909997,0.1385642,-0.31176946,-0.93999988,0
-1.0383673,0.10383663,2.4358802,-0.3918367,0.039183635,0.91920006,0
-0.20067354,1.6053877,2.0987999,-0.075725861,0.60580665,0.79199994,0
0.41244772,2.5571754,0.55967999,0.15564065,0.96497184,0.21119998,0
-0.59117222,1.4450876,-2.1412001,-0.22308385,0.54531604,-0.80799997,0
2.5212855,-0.25212851,-0.77591962,0.95142847,-0.095142834,-0.29279983,0
-0.77503318,2.1184239,-1.3907205,-0.29246533,0.79940522,-0.52480018,0
2.3842366,-0.52983046,1.0282003,0.89971191,-0.19993602,0.3880001,0
-1.9307604,-1.7698636,0.40279993,-0.72858882,-0.66787302,0.15199997,0
1.1352357,-2.3515599,0.45155984,0.4283908,-0.88738108,0.17039993,0
-1.4403025,1.890397,1.1723603,-0.54351038,0.71335733,0.4424001,0
-1.262892,-2.259912,-0.56604004,-0.47656304,-0.85279703,-0.21360002,0
0.046155632,2.0770054,-1.6451198,0.017417219,0.78377557,-0.6207999,0
1.63213,-0.77720469,-1.9376802,0.61589807,-0.29328477,-0.73120004,0
0.36396772,-2.6205671,-0.15052025,0.1373463,-0.98889321,-0.056800094,0
2.6332953,-0.14234036,-0.2607601,0.99369633,-0.053713344,-0.098400034,0
0.9571746,2.3610311,-0.72927994,0.36119795,0.89095509,-0.27519998,0
-1.454091,-1.1713511,-1.8804406,-0.54871356,-0.44201925,-0.70960021,0
0.94669354,-2.1718261,-1.1872,0.35724282,-0.81955701,-0.44799995,0
0.18100861,-2.4737866,-0.93279994,0.068305135,-0.93350434,-0.35199997,0
1.6441623,1.3153297,-1.6090801,0.62043858,0.4963508,-0.60720003,0
0.21115011,0.42230085,2.6076,0.079679281,0.1593588,0.98399997,0
1.4200331,2.1300492,-0.68476003,0.53586155,0.80379212,-0.25839999,0
1.6000032,-2.0800042,0.36888021,0.60377479,-0.78490722,0.13920008,0
1.216518,-1.5640948,-1.7595999,0.45906341,-0.59022444,-0.66399997,0
0.3008908,2.6327934,0.019079611,0.1135437,0.99350691,0.0071998527,0
-0.64515597,1.3210337,-2.2048004,-0.24345507,0.49850327,-0.83200014,0
2.577364,0.083140694,0.61056,0.97259015,0.031373847,0.2304,0
1.5084063,0.50280231,2.1200001,0.56920987,0.18973671,0.80000001,0
1.9085045,-0.041489191,-1.8380396,0.72019035,-0.015656298,-0.69359982,0
-1.1897109,1.0244732,-2.1348403,-0.44894749,0.38659364,-0.80560005,0
