-2.3039999,1.0368,-1.6176002,-0.76799995,0.34560001,-0.53920007,0
-0.091640785,-0.49893317,-2.9568002,-0.030546928,-0.16631106,-0.98560005,0
0.97055864,2.1567976,1.8456002,0.32351956,0.71893257,0.6152001,0
0.89373761,0.49883029,-2.8200002,0.29791254,0.16627677,-0.94000006,0
0.32923734,2.1949177,2.0184002,0.10974578,0.73163921,0.67280006,0
-0.82267845,2.879375,-0.18000036,-0.27422616,0.95979166,-0.060000122,0
0.35579917,0.83019876,2.8608,0.11859972,0.27673292,0.95359999,0
2.5258768,0.10524476,1.6151999,0.84195894,0.035081584,0.53839999,0
-1.4890523,1.8613155,-1.8216004,-0.49635077,0.62043852,-0.60720015,0
-1.4334248,-2.2525251,1.3680001,-0.47780827,-0.75084168,0.45600006,0
0.61752331,2.5730138,1.4136,0.20584111,0.85767126,0.47119999,0
-2.6978393,1.2589915,0.36959994,-0.89927977,0.41966382,0.12319998,0
1.371026,-2.1092708,1.6344001,0.45700869,-0.70309025,0.54480004,0
2.9364665,0.60456657,0.10800045,0.97882217,0.20152219,0.036000151,0
-0.53085065,1.3271265,-2.6375997,-0.17695022,0.44237551,-0.87919992,0
-1.9453596,2.2836828,-0.019199634,-0.64845318,0.76122761,-0.0063998778,0
2.0228455,-1.8205611,1.2624,0.67428184,-0.60685366,0.4208,0
-0.33516756,2.0110054,2.2007999,-0.11172252,0.67033511,0.73359996,0
1.6708032,-1.225256,2.1696,0.55693442,-0.40841866,0.72320002,0
0.22424252,-2.9151554,-0.67199969,0.07474751,-0.97171849,-0.2239999,0
0.60777366,-2.3758423,-1.7280002,0.20259123,-0.79194742,-0.57600003,0
-0.17112531,-2.9946914,0.050400089,-0.057041768,-0.99823046,0.016800029,0
1.3900847,-2.5948253,0.57840014,0.46336159,-0.86494178,0.19280005,0
-2.8270328,-0.9717927,0.25200003,-0.94234425,-0.32393089,0.084000014,0
0.47470874,-2.3207989,-1.8407998,0.15823625,-0.77359962,-0.61359996,0
1.281146,-2.6376534,-0.63360006,0.42704868,-0.8792178,-0.21120001,0
-1.1299464,2.5257626,-1.1591998,-0.37664878,0.84192085,-0.38639995,0
2.8763978,-0.19175994,0.83039981,0.9587993,-0.063919984,0.27679995,0
1.47478,-2.5071261,-0.73439991,0.49159333,-0.83570868,-0.24479997,0
-2.313823,0.20567326,-1.8983998,-0.77127433,0.068557754,-0.63279992,0
-1.5226578,2.564476,-0.32399988,-0.50755256,0.85482532,-0.10799996,0
-1.9831657,1.6826861,-1.4951993,-0.66105527,0.56089538,-0.49839976,0
-2.9254651,0.45710403,0.48240009,-0.97515506,0.15236801,0.16080002,0
-0.44232973,-2.1010666,2.0952001,-0.14744325,-0.70035553,0.69840002,0
0.59022439,2.164156,-1.992,0.19674146,0.7213853,-0.66399997,0
1.429689,-2.5583911,-0.64080006,0.47656301,-0.85279703,-0.21360002,0
1.929576,-2.1225338,0.87840015,0.64319199,-0.70751125,0.29280004,0
2.4301467,-1.2150733,1.2719998,0.81004888,-0.40502444,0.42399994,0
1.9217219,0.37598899,-2.2727995,0.64057398,0.12532966,-0.75759983,0
2.3587103,-1.8532726,-0.043199603,0.78623676,-0.6177575,-0.014399868,0
-2.7271941,-0.12986645,-1.2432003,-0.90906471,-0.043288816,-0.4144001,0
-0.47650731,-2.9384615,-0.3720001,-0.15883577,-0.97948718,-0.12400004,0
-1.8012716,0.22994958,-2.388,-0.60042387,0.07664986,-0.796,0
0.81379092,2.278615,-1.7736002,0.27126363,0.75953835,-0.59120005,0
0,2.9750118,0.38640025,0,0.99167061,0.12880008,0
1.1462225,-0.046784613,-2.7720003,0.38207415,-0.015594871,-0.92400008,0
-0.55261523,-2.9209666,-0.40320006,-0.18420507,-0.97365552,-0.13440003,0
-0.38531035,-2.9283581,-0.52559996,-0.12843679,-0.97611934,-0.17519999,0
1.4560367,-1.5969434,-2.0808001,0.48534557,-0.53231448,-0.6936,0
0.30959088,2.9411116,-0.50399995,0.10319696,0.98037052,-0.16799998,0
1.3252153,2.6504302,-0.4679997,0.44173846,0.88347673,-0.1559999,0
-2.1880367,1.6088505,-1.2744001,-0.72934556,0.53628349,-0.42480004,0
-1.2272146,-2.5226078,-1.0632001,-0.40907153,-0.84086925,-0.35440004,0
2.0484502,-1.185945,1.8432,0.68281674,-0.39531502,0.61439997,0
1.2619528,-1.9980918,-1.848,0.42065093,-0.66603059,-0.616,0
-2.3758423,-0.60777366,-1.7280002,-0.79194742,-0.20259123,-0.57600003,0
2.5027847,0.62569618,1.5311999,0.8342616,0.2085654,0.5104,0
0.92797774,-1.1599723,2.6064,0.3093259,-0.38665745,0.86879998,0
2.1949177,0.32923734,2.0184002,0.73163921,0.10974578,0.67280006,0
1.6708032,-1.225256,2.1696,0.55693442,-0.40841866,0.72320002,0
-1.0586666,-2.2287719,-1.7064,-0.35288885,-0.74292397,-0.56880003,0
-0.3469474,-1.5034386,2.5727999,-0.11564913,-0.5011462,0.85759997,0
-2.5761404,1.5101513,0.28799957,-0.85871345,0.50338376,0.095999859,0
-0.42932513,-2.3612878,-1.8,-0.14310838,-0.78709596,-0.59999996,0
1.6275824,1.7903404,-1.7735999,0.5425275,0.59678012,-0.59119993,0
-1.846472,-2.0443084,-1.1880001,-0.61549067,-0.68143612,-0.39600003,0
-2.4008868,-1.2977765,-1.2456,-0.80029559,-0.43259215,-0.4152,0
-2.1466253,1.0733125,-1.8,-0.71554178,0.35777083,-0.59999996,0
-0.84648925,2.8780634,-0.014399543,-0.28216308,0.95935446,-0.004799848,0
-2.5265334,0,1.6175998,-0.84217781,0,0.53919995,0
2.7239132,-0.20177147,1.2408003,0.90797108,-0.067257158,0.41360009,0
-1.2490331,-0.43444628,-2.6928,-0.41634437,-0.14481543,-0.8976,0
1.204336,-2.6865962,0.57599974,0.40144536,-0.89553207,0.19199991,0
2.4450548,-0.3189202,1.7087998,0.81501824,-0.10630673,0.56959993,0
-1.855085,2.1479936,0.9719997,-0.61836165,0.71599787,0.32399991,0
1.4597056,1.3738406,-2.2319994,0.48656854,0.45794687,-0.74399978,0
-1.2702216,0.92379719,2.556,-0.4234072,0.30793241,0.852,0
-0.094121531,2.9177704,0.69119996,-0.031373844,0.97259015,0.23039998,0
1.2313379,2.7265341,0.22320007,0.41044596,0.90884471,0.074400023,0
0.83865488,-2.4560609,-1.5047998,0.27955163,-0.81868696,-0.50159997,0
1.0303799,1.1591775,-2.5680001,0.34345996,0.3863925,-0.85600001,0
-2.2847383,-0.21759424,1.9319999,-0.76157945,-0.07253141,0.64399999,0
1.9583471,-1.1967678,1.9319999,0.65278238,-0.39892259,0.64399999,0
2.146625,1.0733129,1.8,0.71554166,0.35777095,0.59999996,0
2.6620748,-0.20477511,1.3680001,0.88735825,-0.068258367,0.45600006,0
-0.77329934,-2.7416973,-0.94079983,-0.25776646,-0.91389912,-0.31359994,0
-1.027413,-2.715306,-0.75599998,-0.342471,-0.90510201,-0.252,0
0.75248307,-2.8218122,0.68639988,0.2508277,-0.94060403,0.22879995,0
-0.5457772,1.8892287,-2.2655997,-0.18192573,0.62974292,-0.75519991,0
0.12090845,-1.8942342,-2.3232,0.040302817,-0.63141137,-0.7744,0
0.76803744,2.0846732,2.016,0.25601247,0.69489104,0.67199999,0
2.3295336,1.5758611,-1.0439998,0.77651119,0.52528703,-0.34799993,0
1.7677561,-2.0202928,-1.3391995,0.58925205,-0.67343092,-0.44639984,0
1.4077674,2.6395636,0.22559963,0.46925581,0.8798545,0.07519988,0
0.52621818,0.30594081,-2.9376001,0.17540605,0.10198027,-0.97920007,0
-0.46069989,-1.5137284,-2.5488,-0.15356663,-0.50457615,-0.84960002,0
1.5171344,1.7194188,-1.9343997,0.5057115,0.57313961,-0.64479989,0
2.0273082,2.0273082,0.88320041,0.67576939,0.67576939,0.29440013,0
1.9217219,0.37598899,-2.2727995,0.64057398,0.12532966,-0.75759983,0
2.9736454,0.34984085,0.18720038,0.99121517,0.11661362,0.062400129,0
2.2904639,1.8955563,-0.40080041,0.76348799,0.63185209,-0.13360013,0
0,0.4784618,2.9616001,0,0.15948726,0.98720002,0
-1.5774115,1.1267229,2.2895999,-0.52580386,0.37557432,0.76319999,0
-1.9124235,-2.1249151,-0.9095999,-0.63747448,-0.70830506,-0.30319998,0
-1.2808764,-0.58221656,2.6495998,-0.4269588,-0.19407219,0.88319993,0
1.2743301,0.81093717,2.592,0.4247767,0.2703124,0.86400002,0
2.7014065,0.96478832,0.87840027,0.90046883,0.32159612,0.2928001,0
-0.43391567,2.2780576,1.9032003,-0.14463855,0.75935251,0.63440007,0
2.6267395,-1.1358873,-0.90000004,0.87557983,-0.37862909,-0.30000001,0
-1.7542834,-2.3644691,-0.57599992,-0.58476114,-0.78815633,-0.19199997,0
-1.6756918,-0.94002223,-2.3039999,-0.55856395,-0.31334075,-0.76799995,0
-2.7647939,-0.85803944,0.78719968,-0.92159796,-0.28601316,0.26239988,0
2.5239055,0.21032526,1.6079999,0.84130186,0.070108421,0.53599995,0
-1.1690195,-2.1710358,-1.7087998,-0.38967314,-0.72367859,-0.56959993,0
-2.9509931,0.23297292,-0.48719987,-0.98366433,0.07765764,-0.16239996,0
-0.89373761,0.49883029,-2.8200002,-0.29791254,0.16627677,-0.94000006,0
-0.66162992,-2.8355572,0.72239983,-0.22054331,-0.94518572,0.24079995,0
-1.7531964,2.2401953,0.95279974,-0.58439881,0.74673176,0.31759992,0
-1.7362784,-2.0426805,1.3464003,-0.57875949,-0.68089348,0.44880009,0
-0.56948316,-2.8474157,0.75359982,-0.18982773,-0.94913858,0.25119993,0
1.3334585,-2.5716703,0.78000033,0.44448617,-0.85722345,0.26000011,0
-1.1192855,-1.6789283,2.22,-0.37309515,-0.55964273,0.74000001,0
2.2148893,-1.8296911,0.86399978,0.73829645,-0.60989702,0.28799993,0
0,2.9505596,0.54240012,0,0.98351985,0.18080004,0
0.80548507,-2.6178269,1.2240002,0.26849502,-0.87260896,0.40800008,0
-2.6488857,0.98106903,1.0104002,-0.88296193,0.327023,0.33680007,0
-0.35935143,0,2.9784,-0.11978381,0,0.9928,0
1.3557088,2.5177453,0.90720022,0.45190296,0.83924842,0.30240008,0
1.1492343,-2.2984684,1.548,0.3830781,-0.76615614,0.51599997,0
-2.5278449,-1.011138,1.26,-0.84261495,-0.337046,0.41999999,0
1.715822,-2.4511745,-0.21839996,0.57194066,-0.81705815,-0.072799988,0
2.600558,-0.24191232,-1.4760002,0.8668527,-0.08063744,-0.49200007,0
-2.8724382,0.60472369,-0.61919987,-0.95747942,0.20157456,-0.20639996,0
-1.4507161,-1.4507161,2.1888001,-0.48357204,-0.48357204,0.72960001,0
-1.0354491,-1.2655491,2.5151999,-0.34514973,-0.4218497,0.83839995,0
-2.8763978,0.19175966,0.83039987,-0.9587993,0.063919887,0.27679995,0
0.5457772,1.8892287,-2.2655997,0.18192573,0.62974292,-0.75519991,0
1.5615867,1.3385031,2.184,0.52052891,0.44616771,0.72799999,0
-0.5354476,-2.355969,1.7783999,-0.17848253,-0.78532296,0.59279996,0
2.7037625,0.52756327,-1.1880004,0.90125418,0.17585443,-0.39600015,0
-0.78079289,-0.48334795,-2.8560002,-0.26026431,-0.16111599,-0.95200008,0
0.56105626,-1.9075907,2.2464001,0.18701875,-0.6358636,0.74880004,0
1.4838811,-2.3742104,1.0776,0.49462703,-0.79140347,0.3592,0
0.4382484,-2.1912405,2.0016,0.1460828,-0.7304135,0.66720003,0
1.7649386,-2.1722322,-1.0799998,0.58831286,-0.7240774,-0.35999992,0
-1.0588408,-0.47059578,2.7672,-0.35294691,-0.15686525,0.9224,0
0.44033942,-2.6420369,-1.3512003,0.14677981,-0.88067895,-0.45040011,0
-0.20368904,1.3967251,-2.6472003,-0.067896344,0.46557501,-0.8824001,0
-0.23154727,1.5050564,2.5848,-0.07718242,0.50168544,0.86159998,0
-2.4362066,0.97448283,-1.4544003,-0.81206888,0.32482761,-0.4848001,0
-0.7285884,-1.2750297,-2.6160004,-0.24286281,-0.42500988,-0.87200016,0
-0.35855705,-2.958096,0.34800029,-0.11951902,-0.98603201,0.11600009,0
1.8125453,0.4531365,2.3471997,0.60418177,0.1510455,0.78239989,0
-0.9390412,2.3997722,1.5359998,-0.31301373,0.79992408,0.51199991,0
-1.1599723,0.92797774,2.6064,-0.38665745,0.3093259,0.86879998,0
0.11959119,-0.47836512,2.9591999,0.039863732,-0.15945505,0.98639995,0
-0.43581659,-2.963552,0.16559991,-0.1452722,-0.98785067,0.05519997,0
1.3070529,2.4130208,1.2119999,0.43568429,0.8043403,0.40399995,0
0.79442543,0.91855443,-2.7432001,0.26480848,0.3061848,-0.91440004,0
1.9790907,-1.9790907,1.0800003,0.65969688,-0.65969688,0.3600001,0
1.0769131,1.9580235,-2.0015998,0.35897103,0.6526745,-0.66719991,0
1.5426754,-1.5426754,2.0592003,0.51422513,-0.51422513,0.68640012,0
-0.9886573,1.9773146,2.0279999,-0.32955244,0.65910488,0.67599994,0
1.7428694,1.6884048,-1.7639999,0.58095646,0.5628016,-0.588,0
-0.79442543,-0.91855443,-2.7432001,-0.26480848,-0.3061848,-0.91440004,0
-1.8549422,1.3093711,1.9608001,-0.61831409,0.43645704,0.65360004,0
0.59396899,-0.59396893,-2.8800004,0.19798966,-0.19798964,-0.9600001,0
-0.11937425,0.59687197,2.9375999,-0.039791416,0.19895732,0.97919995,0
1.6086798,0.033514127,-2.5320005,0.53622657,0.011171375,-0.84400016,0
2.8474157,-0.56948316,0.75359982,0.94913858,-0.18982773,0.25119993,0
-2.1090088,-1.6127714,-1.3967999,-0.70300293,-0.53759044,-0.46559998,0
0.53460699,-0.73738891,-2.8584003,0.17820233,-0.24579631,-0.9528001,0
-0.32255679,-2.3654165,1.8168,-0.10751893,-0.78847218,0.6056,0
1.2313379,2.7265341,0.22320007,0.41044596,0.90884471,0.074400023,0
-2.8512959,0.7706207,-0.52560019,-0.950432,0.25687358,-0.17520006,0
2.5430207,-1.5784265,0.20399964,0.84767359,-0.52614218,0.067999877,0
-1.2456324,-1.8933612,-1.9655999,-0.41521081,-0.63112038,-0.65519994,0
-0.28542846,-2.8542852,-0.87840009,-0.095142819,-0.95142841,-0.29280004,0
-1.9831657,1.6826861,-1.4951993,-0.66105527,0.56089538,-0.49839976,0
1.1701047,0,-2.7624002,0.39003491,0,-0.92080003,0
1.5228639,-2.2208431,-1.3224,0.50762129,-0.74028105,-0.44079998,0
2.4841566,-0.82805228,1.4639999,0.82805222,-0.27601743,0.48799995,0
0.45989916,2.9126945,-0.55199993,0.15329972,0.97089815,-0.18399997,0
-0.34273815,-1.7136908,2.4384,-0.11424605,-0.57123023,0.81279999,0
-1.8790299,-2.0768225,1.0752,-0.62634331,-0.69227415,0.35839999,0
-2.8474157,-0.56948316,0.75359982,-0.94913858,-0.18982773,0.25119993,0
-0.091640785,0.49893317,-2.9568002,-0.030546928,0.16631106,-0.98560005,0
-2.2150843,1.6109706,1.2239999,-0.73836142,0.53699023,0.40799996,0
-1.8933612,1.2456324,-1.9655999,-0.63112038,0.41521081,-0.65519994,0
0.48334795,0.78079289,-2.8560002,0.16111599,0.26026431,-0.95200008,0
2.2730343,-0.54119879,1.8816001,0.75767809,-0.1803996,0.62720007,0
-2.051527,-2.051527,-0.76320004,-0.68384236,-0.68384236,-0.25440001,0
2.343874,-0.10417223,-1.8695997,0.78129131,-0.034724075,-0.62319988,0
-1.2863642,2.0367432,1.788,-0.42878807,0.67891437,0.59600002,0
2.8542852,-0.28542849,-0.87839955,0.95142841,-0.095142834,-0.29279986,0
-1.8745811,1.1026951,2.0664001,-0.62486035,0.36756504,0.68880004,0
1.6821417,-2.2204268,-1.1135998,0.56071389,-0.74014229,-0.37119994,0
-2.8780634,-0.84648919,-0.01440003,-0.95935446,-0.28216305,-0.00480001,0
2.4585361,-1.3767802,1.0296001,0.81951207,-0.45892671,0.34320006,0
-1.0694821,-2.797107,-0.18000002,-0.35649404,-0.93236899,-0.060000006,0
-1.5320272,1.6414577,1.9896003,-0.51067573,0.54715258,0.66320008,0
-0.67882246,-2.7152901,-1.08,-0.22627415,-0.90509671,-0.36000001,0
-0.68984872,1.4946721,2.5080001,-0.22994958,0.49822402,0.83600003,0
0.54644161,-2.914355,0.45600009,0.1821472,-0.9714517,0.15200002,0
-2.1722322,1.7649386,-1.0799998,-0.7240774,0.58831286,-0.35999992,0
0.79418933,-1.4502587,-2.5032005,0.26472977,-0.48341957,-0.83440018,0
-1.7677561,2.0202925,-1.3391999,-0.58925205,0.67343086,-0.44639996,0
1.8397114,0.19571403,-2.3616006,0.61323714,0.065238006,-0.78720021,0
-0.80548531,-2.6178267,1.2240001,-0.26849511,-0.8726089,0.40800002,0
2.2415254,-0.96065384,1.7472003,0.74717516,-0.32021794,0.58240008,0
-0.71247268,-0.47498167,2.8752,-0.23749089,-0.15832722,0.95840001,0
-1.6700586,2.4653246,-0.36480013,-0.55668622,0.8217749,-0.12160004,0
1.0995511,-2.791168,-0.019199707,0.36651704,-0.93038934,-0.006399902,0
-0.12090851,1.8942333,-2.3232007,-0.040302835,0.63141114,-0.77440023,0
-2.8445923,-0.9481976,0.096000187,-0.94819742,-0.31606588,0.032000061,0
2.8883579,-0.78773403,0.19200025,0.96278596,-0.26257801,0.064000085,0
-2.4105403,0.8384487,1.5768002,-0.80351347,0.2794829,0.52560008,0
-1.4154916,-2.5478845,0.71040022,-0.47183052,-0.84929484,0.23680007,0
-2.5533507,0.81707209,1.3464,-0.8511169,0.27235737,0.4488,0
-2.5071261,1.47478,-0.73439991,-0.83570868,0.49159333,-0.24479997,0
-2.0917811,-0.22736757,-2.1384003,-0.69726038,-0.075789191,-0.71280009,0
0.1621203,-0.598598,-2.9351997,0.0540401,-0.19953267,-0.97839993,0
-2.6111989,-1.4242904,-0.3911998,-0.87039965,-0.47476348,-0.13039993,0
-0.81707239,-2.5533507,1.3463999,-0.27235746,-0.8511169,0.44879997,0
-0.82476938,2.8408723,0.49919996,-0.27492312,0.94695741,0.16639999,0
-1.3679242,1.139937,2.4143999,-0.45597473,0.37997901,0.80479997,0
-0.74303156,-2.1300237,-1.9776002,-0.24767719,-0.71000791,-0.65920007,0
0,2.9915054,0.22560042,0,0.99716848,0.07520014,0
-2.6250153,-0.1220938,-1.4472002,-0.87500507,-0.040697932,-0.48240006,0
-2.1894987,-0.38924429,-2.0135999,-0.72983289,-0.12974809,-0.67119998,0
-2.4332378,-1.7122785,0.38400027,-0.81107926,-0.57075948,0.1280001,0
0.23392284,-1.286577,2.7,0.077974282,-0.428859,0.90000004,0
0.35674495,0.71349061,2.892,0.11891498,0.23783021,0.96399999,0
-0.74292684,-2.4002254,-1.6392003,-0.24764228,-0.80007511,-0.54640013,0
2.662075,0.20477481,1.3680001,0.88735837,0.068258271,0.45600006,0
-2.8910129,-0.37064278,-0.71039975,-0.96367097,-0.12354759,-0.23679991,0
-0.56123072,-1.803956,-2.3303998,-0.18707691,-0.60131866,-0.77679992,0
2.0612073,-1.648966,1.4256002,0.68706912,-0.54965532,0.47520006,0
-0.598598,0.1621203,-2.9351997,-0.19953267,0.0540401,-0.97839993,0
1.9683279,-1.0935154,1.9823999,0.65610927,-0.36450514,0.66079998,0
2.5806975,0.51613963,1.4399999,0.86023253,0.17204654,0.47999999,0
-0.33516756,-2.0110054,2.2007999,-0.11172252,-0.67033511,0.73359996,0
0.040870469,1.9209141,-2.3040006,0.01362349,0.64030468,-0.76800019,0
-2.9194105,0.68691993,0.072000004,-0.97313684,0.22897331,0.024000002,0
0.19527192,-2.8314459,0.9719997,0.065090641,-0.94381529,0.32399991,0
-2.8684568,-0.80675352,0.34800011,-0.95615226,-0.26891783,0.11600003,0
0.28162926,2.910172,0.67199999,0.093876421,0.97005731,0.22399999,0
1.2164,1.7778155,-2.0879998,0.40546668,0.59260517,-0.69599992,0
0.10652313,-2.4500344,1.7280002,0.035507713,-0.81667811,0.57600003,0
2.6584158,-0.30674028,1.3560001,0.88613862,-0.10224676,0.45200002,0
-2.0919893,1.356966,-1.6680002,-0.69732976,0.45232201,-0.55600005,0
1.9787457,1.6663125,1.5191998,0.6595819,0.55543751,0.50639993,0
-0.31507716,-2.5206172,1.5959998,-0.10502572,-0.84020573,0.53199995,0
2.1567976,0.97055864,1.8456002,0.71893257,0.32351956,0.6152001,0
-1.5320272,-1.6414579,1.9896001,-0.51067573,-0.54715264,0.66320002,0
0.60777366,-2.3758423,-1.7280002,0.20259123,-0.79194742,-0.57600003,0
2.4709139,1.5205626,0.76319993,0.82363796,0.50685424,0.25439999,0
-1.1399368,1.3679242,2.4144001,-0.37997892,0.45597473,0.80480003,0
-1.4502592,-0.79418951,-2.5032003,-0.48341975,-0.26472983,-0.83440012,0
2.1092708,-1.371026,1.6344001,0.70309025,-0.45700869,0.54480004,0
0.77627289,1.9635136,-2.1312003,0.25875762,0.65450454,-0.7104001,0
-1.9167316,-0.22549798,2.2968001,-0.63891053,-0.075165994,0.76560003,0
2.4002254,-0.74292684,-1.6392003,0.80007511,-0.24764228,-0.54640013,0
2.0311575,-2.1936498,-0.24959975,0.6770525,-0.73121661,-0.083199918,0
-0.40445513,-1.8604937,-2.3184001,-0.13481838,-0.62016457,-0.77280003,0
2.7543802,-0.59022444,1.0320004,0.91812676,-0.19674148,0.34400013,0
1.9085568,-2.2720916,0.4416002,0.63618559,-0.75736386,0.14720006,0
0.61470002,1.3523401,-2.6063998,0.20490001,0.45078003,-0.86879992,0
-1.5841962,1.0184116,2.3352003,-0.52806538,0.33947054,0.77840012,0
-2.2864053,-0.10887634,1.9391999,-0.76213509,-0.036292113,0.64639997,0
-2.8858819,0.72147036,0.38880017,-0.96196061,0.24049012,0.12960006,0
1.9853209,0.88236463,2.0688,0.66177362,0.29412153,0.68959999,0
-2.1886106,1.8967957,-0.78240007,-0.72953683,0.63226527,-0.26080003,0
-0.79544687,2.5087173,-1.4400005,-0.26514897,0.8362391,-0.48000017,0
0.32255647,-2.3654165,1.8168,0.10751882,-0.78847218,0.6056,0
-1.2589915,2.6978393,0.36959994,-0.41966382,0.89927977,0.12319998,0
2.2613657,-1.5962583,-1.1567997,0.75378853,-0.53208607,-0.38559988,0
-1.8549422,1.3093711,1.9608001,-0.61831409,0.43645704,0.65360004,0
-2.7437029,0.68592566,1.0008,-0.91456765,0.22864188,0.33360001,0
-0.65469873,2.4997585,-1.5240004,-0.21823291,0.83325285,-0.50800014,0
0.1077329,-2.370126,1.836,0.035910968,-0.79004198,0.61199999,0
-1.7589527,-2.4290299,-0.076800384,-0.5863176,-0.80967665,-0.025600128,0
2.7236564,1.180251,0.43439984,0.90788549,0.393417,0.14479995,0
-1.6644309,-2.2885921,-0.99599987,-0.55481029,-0.76286405,-0.33199996,0
-2.2226229,-0.55565578,-1.9368,-0.74087429,-0.18521859,-0.64560002,0
-2.7313306,-0.78038031,0.96479994,-0.91044354,-0.26012677,0.32159999,0
-1.2310106,-2.3594368,1.3848001,-0.41033685,-0.78647894,0.46160004,0
-2.2400563,-1.9911613,-0.13199987,-0.74668545,-0.66372043,-0.043999955,0
-1.2750297,-0.7285884,-2.6160004,-0.42500988,-0.24286281,-0.87200016,0
0.25759515,2.7047477,-1.2720004,0.085865051,0.90158254,-0.42400014,0
-0.89373761,-0.49883029,-2.8200002,-0.29791254,-0.16627677,-0.94000006,0
-0.15692031,1.5064347,-2.5896006,-0.052306771,0.50214487,-0.86320019,0
2.2847381,-0.21759424,1.9320002,0.76157933,-0.07253141,0.64400005,0
-2.1147909,2.1147909,0.23519978,-0.70493031,0.70493031,0.078399926,0
-1.9984379,0.66614598,2.1359999,-0.66614598,0.22204866,0.71199995,0
-1.2863642,-2.0367432,1.788,-0.42878807,-0.67891437,0.59600002,0
-0.59263492,-0.71116179,2.8536,-0.19754498,-0.23705393,0.95120001,0
-1.9124235,-2.1249151,-0.9095999,-0.63747448,-0.70830506,-0.30319998,0
-0.56336129,-2.4224536,-1.6776001,-0.1877871,-0.80748457,-0.55920005,0
0.23807204,-0.71421683,2.904,0.079357348,-0.23807228,0.96799999,0
2.8684568,0.80675328,0.34800023,0.95615226,0.26891777,0.11600008,0
1.7589526,2.4290302,-0.076800086,0.58631754,0.80967671,-0.025600029,0
0.38125265,2.3964455,-1.7639999,0.12708421,0.79881519,-0.588,0
-2.3256173,-1.415593,1.2600002,-0.77520579,-0.47186434,0.42000008,0
1.9683279,1.0935156,1.9823998,0.65610927,0.3645052,0.66079992,0
-0.52079451,-2.9511688,0.13919993,-0.17359817,-0.98372293,0.046399977,0
-1.7167132,-0.11444743,2.4575999,-0.57223773,-0.038149145,0.81919998,0
-0.61752331,-2.5730138,1.4136,-0.20584111,-0.85767126,0.47119999,0
-1.8904977,-0.88964617,2.1528001,-0.63016587,-0.29654872,0.71760005,0
2.0911465,0.66036212,2.0472,0.69704884,0.22012071,0.68239999,0
-2.9666796,0.41203892,-0.17040028,-0.98889321,0.13734631,-0.056800094,0
1.2653486,-2.4640999,-1.1520001,0.42178285,-0.82136661,-0.38400003,0
-0.11646791,-1.3976163,2.652,-0.038822636,-0.46587208,0.884,0
2.3929815,1.5484002,-0.93599987,0.79766053,0.51613337,-0.31199995,0
2.1567974,-0.970559,1.8456001,0.71893245,-0.32351968,0.61520004,0
0.22717635,0.6673305,-2.9160008,0.075725451,0.22244351,-0.9720003,0
-1.3238996,2.3325851,-1.3440002,-0.44129989,0.77752835,-0.44800007,0
-1.6756915,0.94002211,-2.3040001,-0.55856383,0.31334069,-0.76800007,0
-2.7239132,-0.20177147,1.2408003,-0.90797108,-0.067257158,0.41360009,0
-2.8039386,0.58012521,0.89519972,-0.93464619,0.19337507,0.2983999,0
-0.93510127,-0.93510127,2.6927998,-0.31170043,-0.31170043,0.89759994,0
1.6001502,0.6857788,2.4432001,0.53338343,0.22859293,0.81440002,0
1.9613301,1.7548745,1.4399999,0.65377671,0.58495814,0.47999999,0
2.1894987,-0.38924429,-2.0135999,0.72983289,-0.12974809,-0.67119998,0
-2.664268,0.10247175,1.3752002,-0.88808936,0.03415725,0.45840004,0
-2.1415882,-1.5297059,-1.4399999,-0.71386272,-0.50990194,-0.47999999,0
-1.0621403,0.11801548,2.8032,-0.35404679,0.039338496,0.93440002,0
1.0543488,-2.6837966,0.82799989,0.35144961,-0.8945989,0.27599996,0
-0.23588485,1.0614809,2.796,-0.078628279,0.35382697,0.93199998,0
-2.4653246,1.6700585,-0.36479983,-0.8217749,0.55668616,-0.12159994,0
0.55280793,2.579771,-1.4280002,0.18426931,0.85992366,-0.47600007,0
-1.6984982,-0.7926324,2.3424001,-0.5661661,-0.26421079,0.78080004,0
0.58823985,2.9411998,-0.057600375,0.19607995,0.98039991,-0.019200126,0
-1.8532726,2.3587103,-0.043199603,-0.6177575,0.78623676,-0.014399868,0
-2.3857679,-1.8098927,-0.18000029,-0.79525596,-0.60329753,-0.060000096,0
-1.2619528,1.9980918,-1.848,-0.42065093,0.66603059,-0.616,0
0.33516723,2.0110054,2.2007999,0.11172241,0.67033511,0.73359996,0
-0.33168659,-1.5589271,-2.5416,-0.1105622,-0.51964235,-0.84719998,0
1.4499532,1.7499435,-1.9584007,0.48331773,0.58331448,-0.65280026,0
-2.788548,-0.92951596,0.59999985,-0.92951602,-0.30983865,0.19999994,0
0.91488153,2.5413382,1.3056002,0.30496052,0.84711272,0.43520007,0
0.68498027,-2.2657042,-1.8432001,0.22832675,-0.75523472,-0.61440003,0
-1.3412544,2.6825087,-0.071999863,-0.44708478,0.89416957,-0.023999954,0
-0.76046294,1.6349955,-2.3975999,-0.25348765,0.54499847,-0.7992,0
-0.89789516,-1.5339041,-2.4168,-0.29929838,-0.51130134,-0.80559999,0
2.2226229,0.55565578,-1.9368,0.74087429,0.18521859,-0.64560002,0
1.1696156,0.58480781,2.6999998,0.38987187,0.19493593,0.89999992,0
-1.2977765,2.4008868,-1.2456,-0.43259215,0.80029559,-0.4152,0
1.803956,-0.56123072,-2.3303998,0.60131866,-0.18707691,-0.77679992,0
0.56921011,-1.70763,2.3999999,0.18973671,-0.56920999,0.79999995,0
-0.86879677,2.8433344,-0.40080032,-0.28959891,0.94777817,-0.1336001,0
-2.8061533,0.84184569,0.64559996,-0.93538445,0.28061524,0.21519999,0
-2.2401953,-1.7531964,0.95280004,-0.74673176,-0.58439881,0.31760001,0
-1.6927658,-0.90280855,2.3063998,-0.5642553,-0.30093619,0.76879996,0
-1.0353379,-2.7295272,0.6911996,-0.34511265,-0.90984243,0.23039986,0
2.3547218,1.8113244,0.41760024,0.78490728,0.60377479,0.13920008,0
-2.0484502,1.185945,1.8432,-0.68281674,0.39531502,0.61439997,0
-0.84932536,-0.92653686,-2.724,-0.28310844,-0.30884561,-0.90799999,0
2.4500346,0.10652313,1.7279998,0.81667823,0.035507713,0.57599992,0
1.9613302,-1.7548742,1.4400002,0.65377671,-0.58495808,0.48000005,0
0.94743764,0.11842962,2.8440001,0.31581256,0.03947654,0.94800001,0
2.3654168,0.32255647,1.8167998,0.78847224,0.10751882,0.60559994,0
1.5122091,1.185245,-2.3040004,0.50406969,0.39508167,-0.76800013,0
1.9855561,-1.170969,-1.9199996,0.66185206,-0.39032301,-0.63999987,0
1.7693195,1.2164072,2.0951998,0.58977318,0.40546906,0.69839996,0
-1.3904765,-0.57936531,2.5943999,-0.46349216,-0.19312178,0.86479998,0
1.1398805,0.6097036,-2.7072003,0.37996018,0.20323454,-0.90240008,0
-0.3469474,1.5034386,2.5727999,-0.11564913,0.5011462,0.85759997,0
0.57936531,1.3904765,2.5943999,0.19312178,0.46349216,0.86479998,0
1.6618589,-1.3294874,2.1144001,0.55395299,-0.44316247,0.70480007,0
2.389477,-1.6248442,0.80640012,0.79649234,-0.54161471,0.26880005,0
-0.7285884,1.2750297,-2.6160004,-0.24286281,0.42500988,-0.87200016,0
1.153125,0.486875,-2.7263997,0.38437501,0.16229166,-0.90879989,0
-1.5034386,0.34694704,2.5728002,-0.5011462,0.11564901,0.85760003,0
-1.0614812,-0.23588485,2.796,-0.35382709,-0.078628279,0.93199998,0
-0.74303156,-2.1300237,-1.9776002,-0.24767719,-0.71000791,-0.65920007,0
1.1056528,-2.5128469,1.2096,0.36855093,-0.83761567,0.4032,0
-2.0917811,0.22736757,-2.1384003,-0.69726038,0.075789191,-0.71280009,0
0.068641603,2.8143086,-1.0368005,0.022880534,0.9381029,-0.34560016,0
-0.23515078,1.1287239,-2.7696004,-0.078383595,0.3762413,-0.92320013,0
-2.487771,-0.16962077,-1.668,-0.82925701,-0.056540255,-0.55599999,0
-1.6491828,-1.1717877,-2.2151997,-0.54972762,-0.39059591,-0.73839992,0
-0.96770304,2.7542319,-0.69120008,-0.32256767,0.91807729,-0.23040003,0
0.79777884,1.5955577,2.4120002,0.26592627,0.53185254,0.80400008,0
-1.9923586,0.77480602,2.1048,-0.66411954,0.25826868,0.70160002,0
1.6732976,-2.2638729,1.0368,0.5577659,-0.75462431,0.34560001,0
0.8413018,2.2084169,-1.8480005,0.28043392,0.736139,-0.61600018,0
0.46517909,-2.5003381,-1.5912001,0.1550597,-0.83344603,-0.53040004,0
-0.56336129,2.4224536,-1.6776001,-0.1877871,0.80748457,-0.55920005,0
1.7996398,-2.3995202,0.0600002,0.59987992,-0.79984003,0.020000067,0
-2.4511745,1.715822,-0.21839996,-0.81705815,0.57194066,-0.072799988,0
-0.33516756,-2.0110054,2.2007999,-0.11172252,-0.67033511,0.73359996,0
2.0987585,-0.62008774,-2.0519998,0.69958621,-0.20669593,-0.68400002,0
-1.1390874,-0.89927965,-2.6256001,-0.3796958,-0.29975989,-0.87520003,0
1.6069877,-2.0236144,-1.5239998,0.53566259,-0.67453814,-0.50799996,0
2.8544164,-0.51233113,-0.76799971,0.9514721,-0.17077704,-0.25599989,0
1.1735487,-0.35206455,2.7384,0.3911829,-0.11735485,0.91280001,0
0.26307085,-2.9814725,0.20399998,0.087690286,-0.99382418,0.067999996,0
-0.64826667,-2.9171996,-0.2640003,-0.21608889,-0.97239989,-0.088000096,0
-0.64847982,-2.3237193,-1.7832001,-0.21615994,-0.77457309,-0.59440005,0
-2.9171999,0.64826643,-0.26400018,-0.97239995,0.21608882,-0.088000059,0
-1.3610348,-2.4498627,-1.0704001,-0.45367825,-0.81662089,-0.35680005,0
1.4367971,0.93391818,-2.4623995,0.47893238,0.31130606,-0.82079983,0
0.080677055,-2.985054,-0.28800008,0.026892351,-0.99501801,-0.096000023,0
-2.9368145,-0.53396636,0.30000025,-0.97893816,-0.17798878,0.10000008,0
-2.662075,0.20477481,1.3680001,-0.88735837,0.068258271,0.45600006,0
-2.1886106,1.8967957,-0.78240007,-0.72953683,0.63226527,-0.26080003,0
2.5980761,0,1.5,0.86602539,0,0.5,0
-1.5431533,-2.5719223,0.062399767,-0.51438445,-0.85730743,0.020799922,0
-1.4890523,1.8613155,-1.8216004,-0.49635077,0.62043852,-0.60720015,0
-1.1384401,-2.7647834,-0.24479996,-0.37948003,-0.92159444,-0.081599988,0
-2.5222104,1.4946434,0.63600004,-0.84073681,0.49821448,0.21200001,0
2.3039999,-1.8432,-0.5424003,0.76799995,-0.61439997,-0.1808001,0
2.564476,-1.5226578,-0.32399988,0.85482532,-0.50755256,-0.10799996,0
-0.79743582,-2.8707693,-0.35040021,-0.26581195,-0.95692307,-0.11680007,0
-0.87739617,-2.3982162,-1.5743999,-0.29246539,-0.7994054,-0.5248,0
0.58078009,-2.8313034,-0.80399966,0.19359337,-0.94376779,-0.26799989,0
1.2808764,-0.58221656,2.6495998,0.4269588,-0.19407219,0.88319993,0
1.3049688,2.6969359,0.15360014,0.4349896,0.89897865,0.051200047,0
2.3742418,1.135507,1.4399997,0.79141396,0.37850234,0.4799999,0
1.604026,-0.57286662,2.4696,0.5346753,-0.19095553,0.82319999,0
-2.7090409,-1.1209824,0.63599968,-0.90301365,-0.3736608,0.21199989,0
0.45710403,2.9254651,0.48240009,0.15236801,0.97515506,0.16080002,0
-1.4661307,-2.0944726,1.5696002,-0.48871025,-0.69815755,0.52320009,0
-0.21288431,2.4481683,1.7207998,-0.070961438,0.81605607,0.57359993,0
-1.4334248,-2.2525251,1.3680001,-0.47780827,-0.75084168,0.45600006,0
-2.0077546,-0.44616759,2.184,-0.6692515,-0.14872253,0.72799999,0
-1.0249995,2.4599988,1.3776,-0.34166649,0.81999964,0.45919999,0
-1.5841962,1.0184116,2.3352003,-0.52806538,0.33947054,0.77840012,0
-2.9929838,0.16627671,-0.12000023,-0.99766129,0.055425569,-0.040000077,0
1.5064347,-0.15692031,-2.5896006,0.50214487,-0.052306771,-0.86320019,0
-1.3260578,1.6461407,-2.1288006,-0.44201925,0.54871356,-0.70960021,0
2.386749,1.7441628,0.51120013,0.79558301,0.58138758,0.17040004,0
1.0184116,1.5841962,2.3352003,0.33947054,0.52806538,0.77840012,0
-0.075055115,-2.9271522,-0.65279973,-0.025018372,-0.97571737,-0.21759991,0
0.43444696,-0.51590574,-2.9231999,0.14481565,-0.17196858,-0.97439998,0
0.91041988,-2.8223009,0.45359984,0.30347329,-0.94076699,0.15119995,0
2.0987585,0.62008774,-2.0519998,0.69958621,0.20669593,-0.68400002,0
-1.1591775,1.0303799,-2.5680001,-0.3863925,0.34345996,-0.85600001,0
-1.9196159,2.0567315,-1.0416002,-0.63987195,0.68557715,-0.34720007,0
-1.4383349,2.6069822,0.36719972,-0.47944498,0.86899406,0.1223999,0
1.6731288,2.4167416,0.60000008,0.55770963,0.80558056,0.20000003,0
1.7121408,1.7121408,1.7711996,0.57071358,0.57071358,0.59039986,0
1.356966,2.0919893,-1.6680002,0.45232201,0.69732976,-0.55600005,0
-2.3423803,0.78079331,-1.7040002,-0.78079343,0.26026443,-0.56800008,0
0.91114074,-2.3347979,-1.6488001,0.30371359,-0.77826595,-0.54960006,0
-2.4695745,-1.7031546,0.021599816,-0.82319146,-0.56771821,0.0071999389,0
-1.5108341,1.5580477,-2.0711997,-0.50361139,0.51934922,-0.69039989,0
1.8613157,1.4890524,-1.8216,0.62043858,0.4963508,-0.60719997,0
-1.5753368,0.098458454,-2.5511997,-0.52511227,0.032819483,-0.85039991,0
-2.963552,-0.43581659,0.16559991,-0.98785067,-0.1452722,0.05519997,0
-0.98253524,2.0141976,-1.9944004,-0.32751176,0.67139918,-0.66480011,0
-2.4585361,1.3767802,1.0296001,-0.81951207,0.45892671,0.34320006,0
-2.5257626,1.1299465,-1.1592001,-0.84192085,0.37664881,-0.38640001,0
-2.2148893,1.8296912,0.86400014,-0.73829645,0.60989708,0.28800005,0
1.9949673,-1.5749743,1.5936,0.66498911,-0.52499145,0.53119999,0
2.4640999,1.2653486,-1.1520001,0.82136661,0.42178285,-0.38400003,0
-0.34674811,-2.2290952,-1.9775997,-0.1155827,-0.74303174,-0.65919989,0
0.21530534,-2.368361,1.8288001,0.071768448,-0.78945369,0.60960001,0
-1.7110418,0.45627806,2.4215999,-0.57034725,0.15209268,0.80719995,0
-1.7121404,1.7121408,1.7711998,-0.57071346,0.57071358,0.59039992,0
-1.9242239,0,-2.3016,-0.64140797,0,-0.76719999,0
1.409881,-1.8436904,1.9008001,0.46996033,-0.61456347,0.63360006,0
0,-2.9993999,0.060000099,0,-0.99979997,0.020000033,0
-1.6984982,-0.7926324,2.3424001,-0.5661661,-0.26421079,0.78080004,0
0.10322785,1.0116328,-2.8224003,0.034409285,0.33721092,-0.94080013,0
1.0511014,2.802937,0.19680008,0.35036716,0.93431234,0.06560003,0
1.4776089,2.5663733,-0.47999972,0.49253631,0.85545778,-0.15999991,0
2.0966084,0.55173922,2.0736001,0.69886947,0.18391307,0.69120002,0
2.0784609,1.5588455,1.5000002,0.69282031,0.51961517,0.50000006,0
-1.266618,-2.6915634,-0.38880002,-0.42220601,-0.89718777,-0.1296,0
1.1823211,2.6602221,-0.72480047,0.39410701,0.88674068,-0.24160016,0
-0.11429638,-0.93342036,-2.8488002,-0.038098793,-0.31114012,-0.94960004,0
-0.87339896,2.7172408,0.92400038,-0.29113299,0.90574694,0.30800012,0
0.33462626,0.85515589,-2.8559995,0.11154208,0.28505197,-0.95199984,0
2.5535572,-1.5650834,-0.17280002,0.85118574,-0.52169448,-0.057600006,0
-1.9408909,-2.2181611,0.55919981,-0.64696366,-0.73938704,0.18639994,0
1.8098929,2.3857677,-0.1800006,0.60329765,0.7952559,-0.0600002,0
2.3207989,0.47470874,-1.8407998,0.77359962,0.15823625,-0.61359996,0
-2.7829239,-0.099390045,1.1159999,-0.92764133,-0.033130016,0.37199998,0
1.0184116,-1.5841962,2.3352003,0.33947054,-0.52806538,0.77840012,0
1.7194188,1.5171344,-1.9343997,0.57313961,0.5057115,-0.64479989,0
-2.910172,0.28162926,0.67199999,-0.97005731,0.093876421,0.22399999,0
2.8774488,-0.69992,-0.48000011,0.9591496,-0.23330666,-0.16000004,0
0.73036534,-1.4955102,-2.4959998,0.24345511,-0.49850342,-0.83199996,0
0,-2.3538055,-1.8599998,0,-0.78460187,-0.61999995,0
-1.6069877,-2.0236144,-1.5239998,-0.53566259,-0.67453814,-0.50799996,0
-0.56948316,-2.8474157,0.75359982,-0.18982773,-0.94913858,0.25119993,0
2.1092708,-1.371026,1.6344001,0.70309025,-0.45700869,0.54480004,0
0,-1.397913,2.6543999,0,-0.46597099,0.88479996,0
-1.3666477,2.6529045,-0.30719963,-0.45554924,0.88430148,-0.10239988,0
-2.7090409,1.1209824,0.63599968,-0.90301365,0.3736608,0.21199989,0
1.3931582,-0.46438596,2.6159999,0.46438608,-0.15479532,0.87199998,0
-0.94060421,0.7054531,2.76,-0.31353474,0.23515104,0.92000002,0
0.60456657,-2.9364665,0.10799997,0.20152219,-0.97882217,0.035999987,0
0.35346028,-1.0603819,2.7839999,0.11782009,-0.35346064,0.92799997,0
-0.34273815,-1.7136908,2.4384,-0.11424605,-0.57123023,0.81279999,0
-1.1591775,-1.0303799,-2.5680001,-0.3863925,-0.34345996,-0.85600001,0
-0.60456657,-2.9364665,0.10799997,-0.20152219,-0.97882217,0.035999987,0
-1.7710683,-2.0990441,-1.2071997,-0.59035611,-0.69968134,-0.4023999,0
-1.4424977,-2.6304374,7.1525569e-08,-0.48083258,-0.87681246,2.3841856e-08,0
0.70295018,-1.0544252,2.7191999,0.23431672,-0.35147509,0.90639997,0
2.4709139,1.5205626,0.76319993,0.82363796,0.50685424,0.25439999,0
0.2327874,-1.3967258,2.6447999,0.0775958,-0.46557525,0.88159996,0
1.6071901,-0.45919713,2.4912002,0.53573006,-0.15306571,0.83040005,0
-0.43824807,2.1912405,2.0016,-0.1460827,0.73041356,0.66720009,0
0.44616762,-1.7103091,-2.4240003,0.14872254,-0.57010305,-0.80800009,0
-0.96855396,-2.8249488,-0.28559992,-0.32285133,-0.94164962,-0.095199972,0
-1.1669035,-0.7001422,2.6736,-0.38896784,-0.23338073,0.89120001,0
1.0251344,-2.8191195,0.040800236,0.34171149,-0.9397065,0.013600078,0
2.4301467,-1.2150733,1.2719998,0.81004888,-0.40502444,0.42399994,0
0.68592566,2.7437027,1.0008004,0.22864188,0.91456753,0.33360013,0
0.93766004,-2.8129802,-0.45600027,0.31255335,-0.93766004,-0.15200008,0
0.73036534,-1.4955102,-2.4959998,0.24345511,-0.49850342,-0.83199996,0
0.59650999,-0.23860407,2.9303999,0.19883667,-0.079534687,0.97679996,0
0.49883029,-0.89373761,-2.8200002,0.16627677,-0.29791254,-0.94000006,0
2.8129802,-0.93766004,-0.45600027,0.93766004,-0.31255335,-0.15200008,0
0.33786309,-1.9145591,2.2848001,0.11262103,-0.6381864,0.76160002,0
1.0935156,1.9683279,1.9823998,0.3645052,0.65610927,0.66079992,0
2.9271522,0.075055115,-0.65279973,0.97571737,0.025018372,-0.21759991,0
-1.1264031,2.7033675,-0.65040028,-0.37546769,0.90112251,-0.21680009,0
-1.2310106,-2.3594368,1.3848001,-0.41033685,-0.78647894,0.46160004,0
-0.057696674,0.15951435,-2.9952006,-0.019232225,0.053171452,-0.99840021,0
2.8488555,0.89026761,0.30239999,0.94961852,0.29675588,0.1008,0
2.4008868,1.2977765,-1.2456,0.80029559,0.43259215,-0.4152,0
0.057695221,0.15951031,-2.9952009,0.01923174,0.053170104,-0.99840027,0
-0.18416004,2.946559,0.53280008,-0.061386678,0.98218632,0.17760003,0
1.3408741,2.269172,1.4327997,0.44695804,0.75639063,0.47759989,0
-1.394274,-1.626653,-2.1000001,-0.46475801,-0.54221767,-0.70000005,0
2.7313306,0.78038007,0.96480048,0.91044354,0.26012668,0.32160017,0
-1.5045685,-0.64970005,-2.5128,-0.50152284,-0.21656668,-0.83759999,0
2.3347974,0.91114056,-1.6488007,0.77826577,0.30371353,-0.54960024,0
0.11192844,-2.014714,2.22,0.037309479,-0.67157131,0.74000001,0
1.2653486,2.4640999,-1.1520001,0.42178285,0.82136661,-0.38400003,0
0.73036534,-1.4955102,-2.4959998,0.24345511,-0.49850342,-0.83199996,0
1.8125453,0.4531365,2.3471997,0.60418177,0.1510455,0.78239989,0
2.3683612,0.21530534,1.8287997,0.78945374,0.071768448,0.60959989,0
0.11959119,0.47836548,2.9591999,0.039863732,0.15945517,0.98639995,0
1.9564165,2.182157,-0.64080018,0.65213883,0.7273857,-0.21360005,0
1.7778155,1.2164,-2.0879998,0.59260517,0.40546668,-0.69599992,0
-2.985054,0.080677055,-0.28800008,-0.99501801,0.026892351,-0.096000023,0
-0.081317201,-1.9109532,-2.3111999,-0.027105734,-0.63698441,-0.77039999,0
1.9426885,1.8404417,1.3559999,0.6475628,0.61348057,0.45199999,0
2.1949177,-0.32923767,2.0184002,0.73163921,-0.10974589,0.67280006,0
-1.9864331,2.2455332,0.10800023,-0.66214436,0.74851108,0.036000077,0
-1.9015801,2.0016632,1.1736001,-0.63386005,0.66722107,0.39120004,0
-1.0994387,0.32749236,-2.7719998,-0.36647955,0.10916412,-0.92399997,0
-2.2904639,1.8955563,-0.40080041,-0.76348799,0.63185209,-0.13360013,0
-1.2164,1.7778155,-2.0879998,-0.40546668,0.59260517,-0.69599992,0
-0.86898559,2.8676524,0.14640029,-0.28966185,0.95588416,0.048800096,0
-1.5962584,0.066510707,-2.5391998,-0.53208613,0.022170236,-0.84639996,0
1.9448,2.2689331,-0.26399973,0.64826667,0.756311,-0.08799991,0
2.8191195,1.0251344,0.040800236,0.9397065,0.34171149,0.013600078,0
0.15919799,1.8705755,-2.3400006,0.053065997,0.6235252,-0.78000021,0
0.18004782,2.9707918,0.37680027,0.060015943,0.99026394,0.12560008,0
-2.0357928,-2.1111927,-0.63119978,-0.67859763,-0.70373088,-0.21039993,0
2.9505596,0,0.54240012,0.98351985,0,0.18080004,0
0.080677055,-2.985054,-0.28800008,0.026892351,-0.99501801,-0.096000023,0
2.4406893,-0.42446756,1.6919998,0.81356311,-0.14148919,0.56399995,0
-0.21530567,-2.368361,1.8288,-0.07176856,-0.78945369,0.60960001,0
1.2863642,2.0367432,1.788,0.42878807,0.67891437,0.59600002,0
0.33088696,2.9779813,-0.14880028,0.11029565,0.99266046,-0.049600095,0
-2.3347979,-0.91114068,-1.6487999,-0.77826595,-0.30371356,-0.54959995,0
-1.8186363,-0.11366466,2.3831999,-0.60621208,-0.037888221,0.79439998,0
2.0100241,-1.4810702,1.6632001,0.670008,-0.49369004,0.55440003,0
0.35674495,-0.71349061,2.892,0.11891498,-0.23783021,0.96399999,0
1.7492036,-1.4212276,1.9799998,0.58306783,-0.47374251,0.65999991,0
-0.62473744,0.32656732,-2.9160001,-0.20824581,0.10885578,-0.97200006,0
2.3183551,1.4167726,-1.2720006,0.77278501,0.47225752,-0.42400017,0
0.93391818,1.4367971,-2.4623995,0.31130606,0.47893238,-0.82079983,0
0.59687197,0.11937425,2.9375999,0.19895732,0.039791416,0.97919995,0
1.5525235,-1.4416291,2.1240001,0.51750785,-0.48054302,0.708,0
0.34063113,-2.9805207,0.021600058,0.11354371,-0.99350691,0.0072000194,0
-2.985054,0.080677055,-0.28800008,-0.99501801,0.026892351,-0.096000023,0
0.50897557,2.6466722,1.3176001,0.16965853,0.88222408,0.43920004,0
2.2984686,1.1492343,1.5479996,0.7661562,0.3830781,0.51599985,0
-1.1591775,1.0303799,-2.5680001,-0.3863925,0.34345996,-0.85600001,0
-0.3592793,-0.11975965,2.9760001,-0.11975977,-0.039919883,0.99200004,0
-1.429689,-2.5583911,-0.64080006,-0.47656301,-0.85279703,-0.21360002,0
-1.4507161,-1.4507161,2.1888001,-0.48357204,-0.48357204,0.72960001,0
1.1669039,0.7001422,2.6736,0.38896796,0.23338073,0.89120001,0
-1.7874571,-2.3087988,-0.68880016,-0.59581906,-0.76959962,-0.22960006,0
-1.2498794,-2.2616863,-1.524,-0.41662645,-0.75389546,-0.50800002,0
2.730489,0.46618098,-1.1520005,0.91016299,0.15539366,-0.38400018,0
-2.2084169,0.8413018,-1.8480005,-0.736139,0.28043392,-0.61600018,0
2.7897902,0.90479684,-0.63120013,0.92993003,0.30159894,-0.21040004,0
-0.97448289,2.4362071,-1.4543995,-0.32482764,0.812069,-0.48479983,0
-1.0603819,-0.35346061,2.7839999,-0.35346064,-0.1178202,0.92799997,0
2.6250153,-0.1220938,-1.4472002,0.87500507,-0.040697932,-0.48240006,0
2.4142079,1.5450933,0.88559979,0.80473596,0.5150311,0.29519993,0
-0.23807238,0.71421683,2.904,-0.07935746,0.23807228,0.96799999,0
2.1058517,-0.97588241,-1.9008005,0.70195055,-0.32529414,-0.63360018,0
2.1286025,-2.0360544,0.56879979,0.70953423,-0.67868483,0.18959995,0
1.8765913,-1.7723361,1.5288,0.62553042,-0.59077871,0.50959998,0
-1.392091,0.45394266,-2.6184001,-0.46403036,0.15131421,-0.87280005,0
0.38924417,2.1894989,-2.0135996,0.12974806,0.72983295,-0.67119986,0
-1.1082909,-1.504109,-2.3471999,-0.3694303,-0.50136966,-0.78239995,0
1.7574326,-0.77653992,-2.3040001,0.58581084,-0.25884664,-0.76800007,0
-1.9613302,-1.7548742,1.4400002,-0.65377671,-0.58495808,0.48000005,0
-0.56921011,1.7076297,2.4000001,-0.18973671,0.56920987,0.80000001,0
-1.2992359,1.7804346,-2.0351999,-0.43307865,0.5934782,-0.67839998,0
1.4810702,2.0100241,1.6632001,0.49369004,0.670008,0.55440003,0
-1.6789283,-1.1192855,2.22,-0.55964273,-0.37309515,0.74000001,0
-1.70763,-0.56921011,2.3999999,-0.56920999,-0.18973671,0.79999995,0
-1.5262189,2.5182612,-0.57359964,-0.50873965,0.83942038,-0.19119988,0
0.29246509,-2.8271654,0.95999974,0.097488366,-0.94238847,0.3199999,0
1.5683006,-2.3524506,1.0031997,0.52276689,-0.78415018,0.33439991,0
-2.7541797,-0.86974096,-0.81119996,-0.91805989,-0.28991365,-0.27039999,0
-1.3252151,-2.6504304,-0.46799996,-0.44173837,-0.88347679,-0.15599999,0
1.3099691,2.6199381,0.64800048,0.43665636,0.87331271,0.21600015,0
0.40294281,-2.7534423,-1.1207999,0.13431427,-0.91781408,-0.37359998,0
1.2544863,-1.2544863,2.4191999,0.41816211,-0.41816211,0.8064,0
-0.42932513,-2.3612878,-1.8,-0.14310838,-0.78709596,-0.59999996,0
-0.4850733,-2.8134246,0.92159969,-0.1616911,-0.93780822,0.3071999,0
2.5767307,-1.1839031,-0.97920001,0.85891026,-0.39463437,-0.32640001,0
1.0543488,-2.6837966,0.82799989,0.35144961,-0.8945989,0.27599996,0
-2.1738224,-0.76083779,1.9224001,-0.72460747,-0.25361261,0.64080006,0
0.62000877,2.9228985,0.26880029,0.20666958,0.97429949,0.089600094,0
-2.1880367,1.6088505,-1.2744001,-0.72934556,0.53628349,-0.42480004,0
1.0251344,-2.8191195,0.040800236,0.34171149,-0.9397065,0.013600078,0
1.2150733,2.4301467,1.2719998,0.40502444,0.81004888,0.42399994,0
-0.91417021,1.4855263,2.4408,-0.30472341,0.49517545,0.8136,0
-0.51697582,-2.2746937,-1.8863999,-0.17232527,-0.75823122,-0.62879997,0
-1.0614812,-0.23588485,2.796,-0.35382709,-0.078628279,0.93199998,0
0.60525703,2.542079,-1.4736005,0.20175235,0.84735966,-0.49120018,0
-2.3327804,0.84828353,1.6848,-0.77759343,0.28276119,0.56160003,0
1.1665332,-2.7219112,-0.47999972,0.3888444,-0.90730375,-0.15999991,0
1.5339035,-0.89789468,-2.4168007,0.51130116,-0.29929823,-0.80560023,0
1.099551,-0.81761491,-2.6688001,0.36651698,-0.2725383,-0.88960004,0
0.68984872,-1.4946721,2.5080001,0.22994958,-0.49822402,0.83600003,0
-1.728,-2.3039999,-0.83999997,-0.57600003,-0.76799995,-0.28,0
0.38531035,2.9283581,-0.52559996,0.12843679,0.97611934,-0.17519999,0
-0.4921346,-2.9528077,-0.19680025,-0.16404487,-0.9842692,-0.065600082,0
-1.027413,2.715306,-0.75599998,-0.342471,0.90510201,-0.252,0
2.1442828,2.0648651,-0.37199962,0.71476096,0.68828839,-0.12399987,0
-0.45710403,-2.9254651,0.48240009,-0.15236801,-0.97515506,0.16080002,0
-1.3496666,-1.9975066,-1.7856001,-0.44988886,-0.66583556,-0.5952,0
1.343031,-2.2587337,-1.4472004,0.44767702,-0.75291127,-0.48240015,0
-1.5272071,2.055856,-1.5624003,-0.50906903,0.68528533,-0.52080011,0
0.83104819,0.23744215,2.8728001,0.27701607,0.079147384,0.95760006,0
-0.69714934,-2.6890047,1.1328002,-0.23238312,-0.89633489,0.37760007,0
-1.2553626,1.5064352,-2.2704005,-0.41845417,0.50214499,-0.75680012,0
0.88796735,-2.6639025,1.0560004,0.29598913,-0.88796753,0.35200012,0
1.139937,-1.3679242,2.4143999,0.37997901,-0.45597473,0.80479997,0
2.6135106,1.2341579,-0.80400038,0.87117022,0.41138598,-0.26800013,0
-2.2486143,-1.8738451,0.65759999,-0.74953812,-0.62461501,0.2192,0
2.7765086,1.1279566,0.13680014,0.92550284,0.37598553,0.045600045,0
2.0686524,0.97988772,1.9392002,0.68955082,0.32662925,0.64640003,0
-1.47478,-2.5071261,-0.73439991,-0.49159333,-0.83570868,-0.24479997,0
2.8655639,0.38207537,0.8015998,0.95518798,0.12735845,0.26719993,0
0.57095283,2.9363291,-0.22800022,0.19031762,0.9787764,-0.076000072,0
-2.38658,-1.3921716,-1.1688004,-0.79552668,-0.46405721,-0.38960013,0
1.4849855,-2.3624766,-1.1016002,0.49499515,-0.78749222,-0.36720005,0
2.2287722,-1.0586668,-1.7063996,0.74292403,-0.35288894,-0.56879985,0
-1.3931582,0.46438628,2.6159999,-0.46438608,0.15479542,0.87199998,0
1.16418,0.023758754,-2.7648003,0.38806,0.0079195844,-0.9216001,0
-2.4707649,1.6214393,-0.51599967,-0.82358831,0.54047978,-0.17199989,0
1.9167318,0.22549763,2.2967999,0.63891059,0.075165875,0.76559997,0
2.7796104,-1.0037481,-0.51600021,0.9265368,-0.33458269,-0.17200007,0
-1.6491828,1.1717877,-2.2151997,-0.54972762,0.39059591,-0.73839992,0
-0.34984061,2.9736454,0.18720044,-0.11661354,0.99121517,0.062400147,0
1.5902425,1.9310089,-1.6559992,0.53008085,0.64366966,-0.55199975,0
0.22178888,2.1069963,2.1240001,0.07392963,0.70233208,0.708,0
-1.792914,-0.8964572,2.2319999,-0.59763801,-0.29881907,0.74399996,0
-1.5272071,2.055856,-1.5624003,-0.50906903,0.68528533,-0.52080011,0
1.8661799,0.78119165,-2.2152002,0.62206,0.26039723,-0.73840004,0
2.0944726,1.4661307,1.5696002,0.69815755,0.48871025,0.52320009,0
-0.73683923,2.679415,-1.1303996,-0.24561308,0.89313835,-0.37679985,0
-2.1880367,-1.6088505,-1.2744001,-0.72934556,-0.53628349,-0.42480004,0
-1.8064827,2.356282,-0.42960006,-0.60216087,0.78542733,-0.14320002,0
0.44674838,2.9485383,0.32640025,0.14891613,0.98284608,0.10880008,0
-2.3644691,-1.7542834,-0.57599992,-0.78815633,-0.58476114,-0.19199997,0
2.788548,0.9295162,0.59999973,0.92951602,0.30983874,0.19999991,0
2.2864051,0.10887634,1.9392002,0.76213503,0.036292113,0.64640003,0
0.1135886,-0.69573033,-2.9160001,0.037862867,-0.23191011,-0.97200006,0
2.7542319,-0.96770304,-0.69120008,0.91807729,-0.32256767,-0.23040003,0
-1.7903868,-0.42813602,-2.3688002,-0.59679562,-0.14271201,-0.78960007,0
0.58678871,2.6731496,-1.2288004,0.19559623,0.89104986,-0.40960014,0
-1.7254381,-1.6175983,1.8456,-0.57514602,-0.53919941,0.61519998,0
2.2455332,-1.9864331,0.10800023,0.74851108,-0.66214436,0.036000077,0
0.10322785,1.0116328,-2.8224003,0.034409285,0.33721092,-0.94080013,0
-0.34674811,2.2290952,-1.9775997,-0.1155827,0.74303174,-0.65919989,0
2.7750466,0.71155059,-0.89039987,0.92501551,0.23718353,-0.29679996,0
2.1718717,1.7769856,1.0607996,0.72395724,0.59232855,0.35359988,0
-1.0381213,-2.3876791,1.4904002,-0.34604046,-0.79589301,0.49680007,0
0.11282542,1.9180342,2.3039999,0.037608474,0.63934475,0.76799995,0
2.4941533,1.6627686,-0.12000006,0.83138442,0.5542562,-0.040000018,0
2.2226229,0.55565578,-1.9368,0.74087429,0.18521859,-0.64560002,0
-1.4776089,-2.5663733,-0.47999972,-0.49253631,-0.85545778,-0.15999991,0
1.5841962,-1.018412,2.3352001,0.52806538,-0.33947065,0.7784,0
-1.7122785,-2.4332378,0.38400027,-0.57075948,-0.81107926,0.1280001,0
2.1894987,-0.38924429,-2.0135999,0.72983289,-0.12974809,-0.67119998,0
-2.38658,-1.3921716,-1.1688004,-0.79552668,-0.46405721,-0.38960013,0
-2.2511373,-0.85757625,1.7879999,-0.75037909,-0.28585875,0.59599996,0
-1.0614812,0.23588449,2.796,-0.35382709,0.07862816,0.93199998,0
-1.9015801,-2.0016632,1.1736001,-0.63386005,-0.66722107,0.39120004,0
2.1753891,1.4502593,1.4712003,0.72512966,0.48341978,0.49040011,0
1.6075846,-2.4113765,-0.77520001,0.53586155,-0.80379218,-0.25839999,0
2.7076786,0.50142211,1.1904002,0.90255952,0.16714071,0.39680007,0
2.8953669,-0.72384173,-0.30480027,0.96512228,-0.24128057,-0.10160009,0
-0.10417223,-2.343874,-1.8695997,-0.034724075,-0.78129131,-0.62319988,0
0.52946216,-0.2186909,-2.9447994,0.17648739,-0.072896965,-0.98159981,0
-0.96639836,1.8010153,-2.1960006,-0.3221328,0.6003384,-0.73200017,0
0.32656732,0.62473744,-2.9160001,0.10885578,0.20824581,-0.97200006,0
-1.2313379,2.7265341,0.22320007,-0.41044596,0.90884471,0.074400023,0
-1.0543489,2.6837966,0.82800031,-0.35144964,0.8945989,0.27600011,0
-1.7362784,2.0426805,1.3464003,-0.57875949,0.68089348,0.44880009,0
0.33168641,1.5589259,-2.5416007,0.11056214,0.51964194,-0.84720021,0
1.1563121,-1.879007,-2.0328,0.38543737,-0.62633568,-0.67759997,0
