1.0231827,1.9184676,2.6139205,0.3009361,0.56425518,0.76880014,0
-1.1735091,-1.434289,2.8505599,-0.34514973,-0.4218497,0.83839995,0
0.12873378,-2.8321459,-1.8767999,0.037862878,-0.83298409,-0.55199999,0
1.060015,-2.8267071,-1.564,0.3117691,-0.83138442,-0.45999998,0
3.1650448,-0.76397622,0.97919971,0.93089551,-0.22469889,0.2879999,0
-1.2704557,2.771903,1.5041598,-0.37366343,0.8152656,0.44239992,0
2.8447404,0.59265441,1.7652799,0.83668834,0.17431012,0.51919997,0
-0.50130707,-2.3812089,2.3745601,-0.14744325,-0.70035553,0.69840002,0
0.11264206,-3.1539805,1.2648001,0.033130016,-0.92764127,0.37200001,0
-2.3866324,1.1060003,-2.1542399,-0.70195067,0.3252942,-0.63359994,0
1.3399639,-3.0149183,-0.82144052,0.39410701,-0.88674068,-0.24160014,0
-2.3902102,1.8278077,-1.58304,-0.70300299,0.5375905,-0.46559998,0
1.0129026,0.565341,-3.1960003,0.29791254,0.16627675,-0.94000006,0
-0.5640837,2.9614391,-1.5721605,-0.16590697,0.8710115,-0.46240014,0
-1.886355,2.5937378,-1.1287999,-0.55481029,0.76286405,-0.33199996,0
-1.3246373,2.7964563,-1.40896,-0.3895992,0.82248712,-0.41439998,0
3.0311103,-1.1167247,-1.0607998,0.89150298,-0.32844844,-0.31199995,0
2.6422532,0.17615005,-2.1324797,0.77713329,0.051808838,-0.62719989,0
-0.47524548,-2.8514736,1.78976,-0.13977808,-0.83866864,0.52639997,0
1.8346202,-0.51847965,-2.8151996,0.53959417,-0.15249401,-0.82799989,0
-0.74143833,2.4714608,2.2140801,-0.21807009,0.72690022,0.6512,0
0.3909139,1.8242664,2.8424003,0.11497468,0.53654891,0.83600008,0
-1.9677823,-2.315038,1.5259203,-0.57875949,-0.68089348,0.44880006,0
-1.2918646,0.69099742,-3.0681605,-0.37996018,0.20323452,-0.90240014,0
3.0195038,-0.11613466,1.5585601,0.88808936,-0.03415725,0.45840004,0
-3.3257937,0.41572446,0.57120007,-0.97817463,0.1222719,0.16800001,0
-0.80216944,-2.9794865,1.4280002,-0.23593219,-0.87631953,0.42000005,0
-1.5351214,-1.5351214,2.6166401,-0.45150629,-0.45150629,0.76960003,0
-2.4654412,-1.6436273,1.6673601,-0.72512972,-0.48341978,0.49040002,0
-2.2934296,1.8212528,-1.7271998,-0.67453808,0.53566259,-0.5079999,0
1.886355,-2.5937378,-1.1287999,0.55481029,-0.76286405,-0.33199996,0
-1.39794,1.7791959,2.53776,-0.41115883,0.5232929,0.7464,0
1.4482642,-0.78996223,2.97296,0.42596006,-0.23234183,0.87439996,0
-2.2317994,-2.5361357,0.38352004,-0.65641159,-0.74592221,0.11280001,0
0.73470199,-3.3061597,-0.29920021,0.21608882,-0.97239989,-0.088000059,0
0.78996223,-1.4482642,2.97296,0.23234183,-0.42596006,0.87439996,0
-0.67316622,-0.67316622,-3.2639999,-0.19799006,-0.19799006,-0.95999998,0
1.8082987,-0.90414935,2.7336001,0.53185254,-0.26592627,0.80400002,0
1.3623915,3.1140378,0.081600234,0.40070337,0.91589344,0.024000067,0
-0.8122741,2.4948421,-2.1624,-0.23890413,0.73377705,-0.63599998,0
2.5387306,2.2566497,-0.14959985,0.74668545,0.66372049,-0.043999955,0
2.1785827,-1.6944529,1.9856001,0.64075959,-0.49836847,0.58399999,0
0.58445185,-2.7923818,-1.8496001,0.17189761,-0.8212887,-0.54400003,0
-0.52630407,1.5789126,2.9648001,-0.1547953,0.46438605,0.87200004,0
-0.4059549,0.54127347,3.332,-0.1193985,0.15919808,0.97999996,0
0.28208092,-3.3849742,-0.14960024,0.082964972,-0.99558061,-0.044000067,0
1.6746235,-2.9085565,-0.54399967,0.49253631,-0.85545778,-0.15999989,0
0.26628205,1.3314118,3.11712,0.078318246,0.3915917,0.91679996,0
-2.2268732,0.59383285,-2.4996798,-0.65496266,0.17465672,-0.73519993,0
-2.798851,-1.9302419,0.024479792,-0.82319146,-0.56771821,0.0071999384,0
3.3104289,0.6262973,-0.45696008,0.97365552,0.18420509,-0.13440003,0
-0.61950964,-2.4780378,2.2440002,-0.18220872,-0.72883463,0.66000003,0
2.1619365,-0.63586378,2.5459199,0.63586366,-0.18701875,0.74879992,0
3.1539803,-0.11264206,1.2648004,0.92764127,-0.03313002,0.37200013,0
-1.7800899,2.8272016,0.63104039,-0.52355582,0.83152986,0.18560012,0
0.8848986,-0.54779434,-3.2368004,0.26026428,-0.16111597,-0.95200008,0
0.6744011,0.53952104,3.28848,0.19835326,0.15868266,0.96719998,0
-3.3750455,-0.37500498,-0.16864027,-0.9926604,-0.11029558,-0.04960008,0
-0.21313429,-3.3035798,0.77519995,-0.062686555,-0.97164106,0.22799999,0
1.0163997,-3.2339988,-0.26111999,0.29894111,-0.95117611,-0.076799996,0
0.91432041,3.2509179,0.39440027,0.26891777,0.95615232,0.11600008,0
-0.17784302,1.7072927,-2.9348805,-0.052306768,0.50214487,-0.86320013,0
-2.2958608,-0.73050106,-2.39904,-0.67525315,-0.21485324,-0.70559996,0
-0.43668509,-3.3188059,-0.59567994,-0.12843679,-0.97611934,-0.17519997,0
3.2350054,0.58064198,-0.87039971,0.95147216,0.17077705,-0.25599992,0
2.1268036,-2.0086477,1.7326401,0.62553048,-0.59077871,0.50960004,0
2.3997896,-2.0901392,-1.1967998,0.70582044,-0.61474681,-0.35199991,0
3.3609099,0.30553699,0.41344035,0.98850292,0.089863814,0.1216001,0
-1.2461579,3.1633239,-0.021759667,-0.36651701,0.93038934,-0.0063999016,0
-0.60163075,1.5040768,-2.9892797,-0.17695022,0.44237554,-0.87919992,0
-1.6939291,-2.8585052,0.72080034,-0.49821442,-0.84073681,0.21200009,0
-3.1450531,-0.80642384,-1.0091197,-0.92501563,-0.23718348,-0.29679993,0
0.66502732,-3.0295699,-1.3926399,0.19559626,-0.89104992,-0.40959996,0
0.95347542,2.5028725,-2.0944006,0.28043395,0.73613894,-0.61600018,0
1.6441449,1.6441449,2.4806402,0.48357201,0.48357201,0.72960001,0
0.77223098,1.9305772,2.6900802,0.22712675,0.56781679,0.79120004,0
-1.4724675,-2.0178261,-2.3065598,-0.43307868,-0.59347826,-0.67839992,0
-1.4152838,-2.9394355,0.95744032,-0.41625991,-0.8645398,0.28160009,0
1.8278079,2.3902102,-1.5830394,0.53759056,0.70300299,-0.46559981,0
0.67536032,0.40521574,3.3075202,0.19863538,0.1191811,0.97280002,0
-2.0574422,0.38577005,2.6792002,-0.60513002,0.11346178,0.78800005,0
2.9234622,1.2309316,-1.2240002,0.85984176,0.3620387,-0.36000004,0
-0.73358363,-3.1788621,-0.95743972,-0.21575989,-0.93495941,-0.28159991,0
1.7057307,0.26241985,2.92944,0.5016855,0.077182308,0.86159998,0
1.9436491,2.7387779,-0.5304004,0.57166147,0.80552286,-0.15600011,0
-0.77223098,-1.9305775,2.6900799,-0.22712675,-0.56781691,0.79119998,0
-0.67536032,0.40521574,3.3075202,-0.19863538,0.1191811,0.97280002,0
0.39531773,-1.5812725,2.98384,0.11626992,-0.46508014,0.87759995,0
3.1803071,-0.95409214,0.7316798,0.93538445,-0.28061533,0.21519993,0
-1.8991175,-1.0653585,-2.6111999,-0.55856395,-0.31334072,-0.76799995,0
1.27659,3.0638165,-0.73712009,0.37546763,0.90112251,-0.21680002,0
1.3376179,-3.0868106,0.49231985,0.393417,-0.90788543,0.14479995,0
-2.186599,2.5364552,-0.58752036,-0.64311737,0.7460162,-0.17280009,0
1.4605007,-2.8086553,1.2403201,0.42955902,-0.82607508,0.36480001,0
-1.6514684,0.20643356,-2.9647999,-0.485726,0.060715754,-0.87199992,0
-0.2691015,-0.94185466,3.2558401,-0.079147495,-0.27701607,0.9576,0
1.0719973,0.4019987,3.2014401,0.31529334,0.11823492,0.94160008,0
-2.0052285,1.3785949,2.3745601,-0.58977306,0.40546906,0.69840002,0
-2.4996121,-1.4283497,1.8088,-0.73518002,-0.42010286,0.53200001,0
-0.2322377,-3.1739149,-1.1968,-0.068305202,-0.93350434,-0.352,0
-1.1060003,-2.3866324,-2.1542399,-0.3252942,-0.70195067,-0.63359994,0
-0.40693784,0.27129161,3.36464,-0.11968759,0.07979165,0.98959994,0
2.2070048,-1.4713366,2.1270399,0.64911902,-0.43274605,0.62559998,0
0,2.9841995,-1.6292802,0,0.87770569,-0.47920004,0
-3.0911865,1.4050846,-0.17407951,-0.90917248,0.41326016,-0.051199853,0
-2.8002002,1.8376312,-0.58479965,-0.82358825,0.54047978,-0.17199989,0
-3.0955083,0.88443077,1.0934401,-0.9104436,0.26012668,0.32160002,0
-1.216421,-2.432842,2.0400002,-0.35777086,-0.71554172,0.60000002,0
2.4200358,-1.3310199,1.9828801,0.71177524,-0.39147642,0.58320004,0
-1.4430748,-3.0785594,0.0027200759,-0.42443377,-0.90545863,0.00080002227,0
-2.0500646,-0.64064533,2.63568,-0.60296017,-0.18842509,0.77519995,0
-2.1674132,-2.4082372,-1.03088,-0.63747448,-0.70830506,-0.30319998,0
1.073101,0.26827505,3.2150402,0.31561795,0.078904428,0.94560003,0
-3.1458068,0.62916124,-1.12608,-0.92523724,0.18504742,-0.3312,0
-3.2814159,-0.82035398,-0.3454403,-0.96512228,-0.24128057,-0.10160009,0
0.065392502,-0.18079101,-3.3945603,0.019233089,-0.053173825,-0.99840009,0
-2.869694,0.46715945,-1.7625602,-0.84402764,0.13739984,-0.51840007,0
-2.290072,0.34848917,-2.4888003,-0.67355055,0.10249681,-0.73200005,0
2.1232994,-2.5479593,-0.7480002,0.6244998,-0.74939978,-0.22000006,0
-0.67645496,-0.13529083,3.3292801,-0.19895734,-0.03979142,0.97920001,0
1.6875927,2.1094913,-2.0644801,0.4963508,0.62043864,-0.60720003,0
-2.3896062,-0.12576863,2.4153602,-0.70282537,-0.036990773,0.71040004,0
2.0775316,-2.4770572,-1.05264,0.61103868,-0.7285462,-0.30959997,0
-3.1209793,1.3087977,0.32640001,-0.91793507,0.38494051,0.096000001,0
1.8082987,-0.90414935,2.7336001,0.53185254,-0.26592627,0.80400002,0
2.5164838,1.9064273,-1.2620797,0.74014229,0.56071389,-0.37119991,0
-0.19223687,2.819474,-1.8904001,-0.056540255,0.82925701,-0.55599999,0
-2.1139317,1.3678384,2.2848001,-0.62174457,0.40230539,0.67199999,0
3.3785675,0.1826251,-0.3345601,0.99369627,0.053713262,-0.098400027,0
-2.7790201,-1.7164537,-0.94384021,-0.81735879,-0.5048393,-0.27760005,0
1.7233044,-2.800369,0.86495996,0.50685424,-0.8236379,0.25439999,0
2.7765112,1.5425061,-1.2131202,0.81662089,0.45367825,-0.35680005,0
-1.2146255,2.786494,-1.5231997,-0.35724276,0.81955701,-0.44799989,0
-0.49905136,-2.9943085,-1.5313604,-0.14677981,-0.88067895,-0.45040011,0
1.4283473,-1.2984973,2.7988801,0.42010215,-0.38191098,0.82319999,0
-2.8024821,-1.0509307,1.6129599,-0.8242594,-0.30909726,0.47439995,0
2.947299,0.27416751,-1.6728003,0.86685264,0.0806375,-0.49200007,0
1.2769527,1.7877332,2.5948801,0.37557432,0.52580386,0.76319999,0
-2.4334731,1.9172819,-1.4007996,-0.71572739,0.56390643,-0.41199988,0
1.2017658,0.40058833,3.1552002,0.35346052,0.11782009,0.92800003,0
0.13375089,1.2037587,3.1769602,0.039338496,0.35404667,0.93440002,0
-3.1136577,-1.245463,0.56031978,-0.91578168,-0.36631265,0.16479993,0
-1.0655599,2.9683454,-1.2702396,-0.31339994,0.87304276,-0.37359986,0
2.1663826,0.50973725,2.5703998,0.63717133,0.14992271,0.75599992,0
-0.36556438,2.6808057,2.0590398,-0.10751893,0.78847224,0.60559994,0
-2.7964563,1.3246373,-1.40896,-0.82248712,0.3895992,-0.41439998,0
0.26382574,-1.582956,2.9974401,0.077595808,-0.46557528,0.88160002,0
-0.62530446,2.3761563,2.35008,-0.18391307,0.69886947,0.69119996,0
-3.1880443,1.0626814,-0.51680034,-0.93766004,0.31255335,-0.1520001,0
-0.48106325,2.7661145,1.9175998,-0.14148919,0.81356305,0.56399995,0
-3.3979867,-0.097085245,0.065280117,-0.99940783,-0.028554482,0.019200034,0
-2.1453197,1.9069512,1.8223997,-0.63097638,0.56086797,0.53599989,0
1.0704498,0.53522497,-3.1824005,0.31483817,0.1574191,-0.93600011,0
-2.5403957,1.0887407,1.9801601,-0.74717522,0.32021785,0.58240002,0
0.81361192,-2.9057572,1.5667201,0.23929761,-0.85463446,0.46080002,0
1.8212528,-2.2934296,-1.7271998,0.53566259,-0.67453808,-0.5079999,0
3.3061597,-0.73470229,-0.29920036,0.97239989,-0.21608891,-0.088000104,0
2.1458094,-1.4117168,-2.22768,0.63112038,-0.41521081,-0.65519994,0
-3.3701317,0.39648628,0.21215989,-0.99121517,0.11661361,0.062399965,0
-0.90376061,-3.2535386,-0.39712027,-0.26581195,-0.95692307,-0.11680008,0
1.6338463,1.7595266,2.4072001,0.48054302,0.51750779,0.708,0
2.8626602,-0.1192774,1.83056,0.84195882,-0.035081588,0.53839999,0
1.861915,2.8418705,0.13055968,0.54762203,0.83584422,0.038399901,0
-1.7308351,-2.3299704,-1.7707198,-0.50906914,-0.68528539,-0.52079993,0
1.9584001,2.6112001,-0.95200002,0.57600003,0.76800001,-0.28,0
1.4578795,-2.3083091,2.0264001,0.4287881,-0.67891443,0.59600002,0
0.62651563,2.9237406,-1.6184003,0.18426929,0.85992366,-0.47600007,0
-1.3892357,3.0389535,-0.62832046,-0.40859872,0.89380985,-0.18480013,0
-2.1024299,-2.4343925,1.1016001,-0.61836171,-0.71599776,0.324,0
3.080246,-0.22001757,-1.4225605,0.90595466,-0.064711049,-0.41840011,0
1.5570194,1.654333,-2.5295994,0.45794687,0.48656851,-0.74399984,0
-3.1983893,0.9508726,-0.6528002,-0.94070268,0.27966839,-0.19200006,0
1.057971,0.69671255,-3.1552005,0.31116793,0.20491545,-0.92800009,0
-2.7621732,1.6573037,1.0880002,-0.81240386,0.48744226,0.32000005,0
3.1401572,-0.44859383,1.2240005,0.92357564,-0.13193935,0.36000013,0
2.4002182,0.20871475,-2.3990395,0.70594651,0.06138669,-0.70559984,0
0.79324245,3.2611089,-0.54399997,0.2333066,0.95914966,-0.15999998,0
-1.7774071,2.6661108,1.1369599,-0.52276677,0.78415018,0.33439997,0
0.82774746,1.6949116,-2.8288,0.24345513,0.49850339,-0.83199996,0
1.8479356,2.4254148,1.50416,0.54351044,0.71335727,0.44240001,0
0.7484104,-2.3699663,2.3201602,0.2201207,-0.6970489,0.68240005,0
1.2873391,2.9769711,-1.0200003,0.37862915,0.87557971,-0.3000001,0
1.1879735,1.0559765,3.0056002,0.34940395,0.31058133,0.88400006,0
0.37500525,3.3750455,-0.16864033,0.11029566,0.9926604,-0.049600095,0
-2.3792384,-2.0393472,1.3191999,-0.69977599,-0.59980798,0.38799995,0
-1.7667838,0.37591153,-2.8804803,-0.51964229,0.11056221,-0.84720004,0
3.1512206,0.22508699,1.2566404,0.92682958,0.066202052,0.36960012,0
0.95347542,2.5028725,-2.0944006,0.28043395,0.73613894,-0.61600018,0
0.22508699,3.1512206,1.2566404,0.066202052,0.92682958,0.36960012,0
3.0702465,-1.2704468,0.72079962,0.90301365,-0.3736608,0.21199988,0
0.27178207,0,3.3891201,0.079935901,0,0.99680001,0
-1.7256788,-2.9064064,-0.36719987,-0.50755256,-0.85482538,-0.10799996,0
-2.5958593,2.1482973,-0.45424047,-0.76348799,0.63185215,-0.13360013,0
-2.8002,-1.8376315,-0.5848,-0.82358819,-0.54047984,-0.17199999,0
0.68517548,3.3279953,0.12240051,0.2015222,0.97882211,0.036000151,0
1.6203144,-2.8995099,-0.72624004,0.47656304,-0.85279703,-0.21360001,0
2.5645652,0.34194204,-2.2059197,0.75428385,0.10057119,-0.6487999,0
-3.0295699,-0.66502756,-1.39264,-0.89104992,-0.19559634,-0.40959999,0
-1.2049911,2.0956366,-2.3908794,-0.35440913,0.6163637,-0.7031998,0
-0.20405452,3.3668976,0.42704031,-0.060016032,0.99026394,0.12560008,0
-1.8021412,2.1625695,1.9067199,-0.53004152,0.63604987,0.56079996,0
-0.90034878,1.0410284,-3.1089602,-0.26480845,0.3061848,-0.91440004,0
-0.5422563,0,3.3564801,-0.15948714,0,0.98720002,0
1.9584001,2.6112001,0.95199984,0.57600003,0.76800001,0.27999994,0
-1.2765902,3.0638165,-0.73712033,-0.37546772,0.90112251,-0.21680009,0
-2.6346438,2.1467474,0.10063994,-0.77489519,0.63139623,0.029599981,0
1.3310199,2.4200358,1.9828801,0.39147642,0.71177524,0.58320004,0
2.3309622,-2.1755648,-1.1804802,0.68557709,-0.63987195,-0.34720007,0
-3.1788621,-0.73358363,-0.95743972,-0.93495941,-0.21575989,-0.28159991,0
-0.84801197,2.8973744,-1.5640006,-0.24941528,0.85216892,-0.46000016,0
-2.3083091,-1.4578795,2.0264001,-0.67891443,-0.4287881,0.59600002,0
2.6396058,-1.8697205,1.0472001,0.77635461,-0.54991776,0.30800003,0
0.27332929,3.3710647,-0.34816006,0.080390967,0.99148959,-0.10240001,0
-0.2715646,0.27156419,3.3782401,-0.079871938,0.079871818,0.99360001,0
-1.4605007,-2.8086553,1.2403201,-0.42955902,-0.82607508,0.36480001,0
0,-1.5843015,3.0083201,0,-0.46597102,0.88480002,0
2.7492864,1.6495717,-1.1315203,0.80861366,0.48516813,-0.33280006,0
1.6245482,2.5528619,1.5503998,0.47780827,0.75084174,0.45599991,0
0.88530874,2.1500359,2.4806399,0.26038492,0.6323635,0.72959995,0
1.802141,-2.1625695,1.9067202,0.53004146,-0.63604987,0.56080002,0
-1.0934265,3.061594,0.99552047,-0.321596,0.90046883,0.29280013,0
0.93567598,-0.80200809,3.1688001,0.27519882,-0.23588473,0.93199998,0
-2.3537323,-2.1295671,1.21856,-0.69227421,-0.62634325,0.35839999,0
-2.5817988,-0.4917711,2.15696,-0.75935256,-0.14463855,0.63440001,0
2.5824304,-0.92229652,-2.0100806,0.75953829,-0.27126369,-0.59120017,0
-2.0151217,-1.259451,2.4316802,-0.59268284,-0.37042677,0.71520007,0
2.0178261,-1.4724675,-2.3065598,0.59347826,-0.43307868,-0.67839992,0
1.1118783,3.0020704,1.1451201,0.327023,0.88296187,0.33680004,0
2.6115897,2.0892715,0.61200017,0.76811457,0.61449164,0.18000004,0
-0.36263838,3.0461619,-1.4660804,-0.10665835,0.89592993,-0.43120012,0
-0.67841113,-0.18373634,-3.3265598,-0.19953267,-0.054040097,-0.97839993,0
-3.10953,0.77738243,1.13424,-0.91456759,0.22864188,0.33360001,0
-0.65976143,-0.4505688,-3.3048,-0.19404748,-0.13252023,-0.972,0
-2.370645,-2.370645,-0.56575948,-0.69724858,-0.69724858,-0.16639985,0
1.802141,-2.1625695,1.9067202,0.53004146,-0.63604987,0.56080002,0
1.5155548,1.1566077,-2.8152003,0.4457514,0.34017873,-0.82800007,0
-1.2680217,-1.2680217,-2.8886402,-0.37294754,-0.37294754,-0.84960002,0
2.0142698,2.7192643,0.32912043,0.59243226,0.79978359,0.096800126,0
-0.10385957,-0.56545758,-3.3510404,-0.03054693,-0.16631106,-0.98560005,0
-2.571728,1.5196575,1.6238401,-0.75639057,0.44695807,0.47760001,0
-2.941627,-0.9560287,-1.4116801,-0.86518437,-0.28118491,-0.41520002,0
-1.0976944,3.2016087,-0.32368049,-0.32285127,0.94164956,-0.095200144,0
-3.3188059,0.43668509,-0.59567994,-0.97611934,0.12843679,-0.17519997,0
-1.4333531,1.4767879,-2.7063992,-0.42157441,0.43434939,-0.79599977,0
-0.51847965,1.8346202,-2.8151996,-0.15249401,0.53959417,-0.82799989,0
1.5532931,-0.94712991,-2.8723207,0.45685092,-0.27856761,-0.84480017,0
-2.7319458,-0.95024222,1.7870401,-0.80351341,-0.27948299,0.52560002,0
0.24905436,-2.4905457,2.3011203,0.073251277,-0.73251343,0.67680007,0
-2.6111999,1.17504,-1.8332802,-0.76799995,0.34559998,-0.53920007,0
2.3902102,-1.8278079,-1.5830394,0.70300299,-0.53759056,-0.46559981,0
0,1.8278399,2.8668802,0,0.53759992,0.84320003,0
-0.91488701,-3.1605184,-0.85680002,-0.26908439,-0.92956424,-0.252,0
2.9893405,1.4519655,-0.71808064,0.8792178,0.42704865,-0.21120018,0
0,3.384558,-0.3236801,0,0.99545819,-0.095200025,0
0.26511255,-1.4581207,3.0599999,0.077974275,-0.42885903,0.89999998,0
1.7595266,1.6338463,2.4072001,0.51750779,0.48054302,0.708,0
-1.1306828,-3.2036014,-0.1360001,-0.33255377,-0.94223565,-0.040000029,0
-2.0445192,-1.9242535,1.9176002,-0.60132915,-0.56595689,0.56400001,0
-1.2120798,-3.1700549,-0.20400004,-0.35649401,-0.93236899,-0.060000006,0
-2.1561897,2.4796185,0.87311989,-0.63417339,0.72929955,0.25679997,0
2.3188183,-0.9937793,-2.2793605,0.68200535,-0.29228804,-0.67040014,0
-1.5694424,-2.2938004,1.9584001,-0.46160069,-0.67464715,0.57600003,0
-0.65984547,-1.4516599,3.0028799,-0.19407219,-0.4269588,0.88319993,0
-3.3104289,-0.6262973,-0.45696008,-0.97365552,-0.18420509,-0.13440003,0
0.23084758,1.582955,-3.0001605,0.067896344,0.46557498,-0.8824001,0
1.5568289,1.1676213,2.7880001,0.45789084,0.343418,0.81999999,0
1.0626814,-3.1880443,-0.51680034,0.31255335,-0.93766004,-0.1520001,0
3.385324,0.19913653,0.24480051,0.99568349,0.058569565,0.072000146,0
-2.2157567,-2.3265448,1.11248,-0.65169311,-0.68427783,0.3272,0
0.25746754,2.0597427,2.6927998,0.075725742,0.60580665,0.79199994,0
2.7541664,-1.3770832,1.4415998,0.81004894,-0.40502447,0.42399994,0
3.3993201,0,0.067999549,0.99980003,0,0.019999867,0
-2.1094911,-1.687593,-2.0644801,-0.62043852,-0.49635085,-0.60720003,0
-2.1245253,1.2497212,2.3419201,-0.62486035,0.36756504,0.68880004,0
-3.3605323,-0.36330071,-0.36720008,-0.98839182,-0.10685315,-0.10800002,0
0.5592562,-3.131834,1.19952,0.16448711,-0.92112762,0.35279998,0
-0.61930048,-3.3029358,0.51680011,-0.18214719,-0.9714517,0.15200002,0
1.9135255,1.975252,-1.9992,0.5628016,0.58095646,-0.588,0
2.8995099,-1.6203145,-0.7262395,0.85279703,-0.47656307,-0.21359985,0
0.17784302,1.7072927,-2.9348805,0.052306768,0.50214487,-0.86320013,0
-0.38322091,3.142411,-1.2403207,-0.11271203,0.9242385,-0.36480018,0
0,2.9444864,1.7,0,0.86602539,0.5,0
-3.2383997,0.53973341,0.88399982,-0.95247048,0.15874511,0.25999993,0
2.9472992,-0.2741673,-1.6728002,0.8668527,-0.08063744,-0.49200004,0
-2.8397219,0.064539067,-1.8686399,-0.83521229,0.018982079,-0.54959995,0
-2.5608625,-0.85362071,2.0671999,-0.75319487,-0.2510649,0.60799998,0
-0.96256876,1.0500752,-3.0872002,-0.28310844,0.30884564,-0.90800005,0
-2.3866324,-1.1060003,-2.1542399,-0.70195067,-0.3252942,-0.63359994,0
-2.0606651,1.8182338,2.0019205,-0.60607797,0.53477466,0.58880013,0
-0.71370929,-0.33306435,-3.3075199,-0.20991449,-0.0979601,-0.97279996,0
-1.2280732,3.0292473,-0.93568015,-0.36119801,0.89095503,-0.27520004,0
-2.4605076,1.3248887,-1.9366395,-0.72367871,0.38967314,-0.56959987,0
1.7844527,-2.8551245,-0.47327974,0.52483898,-0.83974248,-0.13919993,0
1.6714172,-2.8414097,-0.83231997,0.4915933,-0.83570868,-0.24479999,0
-0.86228287,-2.4636655,2.1787202,-0.25361261,-0.72460747,0.64080006,0
2.8086553,-1.4605007,1.2403201,0.82607508,-0.42955902,0.36480001,0
2.1497018,-2.4804254,-0.88672006,0.63226521,-0.72953683,-0.2608,0
3.0504386,-1.4355006,-0.4406395,0.89718783,-0.42220604,-0.12959985,0
-2.8876026,1.6042235,0.80512047,-0.84929484,0.47183043,0.23680013,0
2.4301872,2.3401804,-0.4215996,0.7147609,0.68828833,-0.12399988,0
1.5812725,-0.39531812,2.98384,0.46508014,-0.11627004,0.87759995,0
1.5196574,2.5717282,1.6238397,0.44695804,0.75639063,0.47759992,0
2.9128573,-1.1203299,-1.3491198,0.85672271,-0.32950878,-0.39679992,0
2.4301872,2.3401804,-0.4215996,0.7147609,0.68828833,-0.12399988,0
2.8024821,-1.0509307,1.6129599,0.8242594,-0.30909726,0.47439995,0
-0.40521613,-0.67536032,3.3075202,-0.11918121,-0.19863538,0.97280002,0
0.89276499,-3.2734723,0.21760044,0.26257792,-0.96278596,0.06400013,0
1.344071,2.3215771,2.0889599,0.39531499,0.68281674,0.61439997,0
0.1297071,1.945608,2.7852802,0.038149145,0.57223761,0.81920004,0
-1.4435593,-2.4059317,1.9203202,-0.42457625,-0.70762694,0.56480002,0
-3.222446,0.98463637,-0.45424038,-0.94777822,0.28959891,-0.13360012,0
2.5263078,-0.3929812,-2.2412798,0.74303168,-0.1155827,-0.65919995,0
-0.89745164,-2.9915054,-1.3436801,-0.26395637,-0.8798545,-0.39520004,0
3.2476392,0.24357273,-0.97647947,0.95518798,0.071639039,-0.28719983,0
-1.8257664,2.5104291,1.3871998,-0.53699011,0.73836148,0.4079999,0
-0.11443402,-3.0897212,1.4144003,-0.033657063,-0.90874153,0.4160001,0
-1.4450337,-0.82573354,-2.9648006,-0.42500988,-0.24286281,-0.87200016,0
0.10446349,3.3428347,0.61200017,0.030724555,0.98318666,0.18000004,0
-2.102984,2.6515887,-0.32640022,-0.61852467,0.77987897,-0.09600006,0
2.2307715,-1.2393174,2.2467201,0.65610927,-0.36450511,0.66079998,0
-0.67645496,0.13529083,3.3292801,-0.19895734,0.03979142,0.97920001,0
0.94712991,1.5532931,-2.8723207,0.27856761,0.45685092,-0.84480017,0
0.90034878,-1.0410284,-3.1089602,0.26480845,-0.3061848,-0.91440004,0
-2.538888,1.986956,1.0798401,-0.74673176,0.58439881,0.31760001,0
2.9100695,-1.662897,0.57120049,0.85590273,-0.48908734,0.16800015,0
2.3737357,1.6616149,1.7788802,0.69815755,0.48871025,0.52320004,0
-1.6949116,0.82774746,-2.8288,-0.49850339,0.24345513,-0.83199996,0
-1.0163997,-3.2339988,-0.26111999,-0.29894111,-0.95117611,-0.076799996,0
-0.081554584,3.2621865,-0.95471948,-0.023986641,0.95946658,-0.28079984,0
-0.12576863,2.3896062,2.4153602,-0.036990773,0.70282537,0.71040004,0
1.6772728,1.1611888,-2.7199996,0.49331552,0.34152612,-0.79999983,0
-0.2691015,0.94185466,3.2558401,-0.079147495,0.27701607,0.9576,0
-3.3668976,-0.20405452,0.42704031,-0.99026394,-0.060016032,0.12560008,0
1.3987123,-2.9619787,-0.91120046,0.41138595,-0.87117016,-0.26800013,0
0.13422023,-1.073763,3.2232001,0.039476536,-0.31581265,0.94800001,0
-1.6693141,-0.63062978,-2.8940797,-0.49097472,-0.18547934,-0.85119987,0
0.90034878,1.0410284,-3.1089602,0.26480845,0.3061848,-0.91440004,0
-0.35708743,2.8566995,1.8088,-0.10502572,0.84020573,0.53200001,0
0.6998598,-2.9160824,1.60208,0.20584111,-0.85767126,0.47119999,0
-0.75723565,-3.3129053,-0.10607994,-0.22271636,-0.97438389,-0.031199982,0
-0.10667107,3.3068066,0.78336,-0.031373844,0.97259015,0.2304,0
3.3439677,0,0.61472017,0.98351985,0,0.18080005,0
2.4614544,-2.0139172,1.2022396,0.72395718,-0.59232855,0.35359988,0
-1.0993981,-1.3121849,-2.9376001,-0.3233524,-0.38593674,-0.86400002,0
1.1266779,-3.1751828,0.45695987,0.33137584,-0.93387729,0.13439997,0
-2.7628348,-1.9734533,0.17952012,-0.81259847,-0.58042741,0.052800033,0
1.2146256,2.7864938,-1.5231999,0.35724282,0.81955695,-0.44799995,0
-0.61950964,2.4780378,2.2440002,-0.18220872,0.72883463,0.66000003,0
3.1493268,-1.2190943,0.39439994,0.92627251,-0.35855711,0.11599997,0
-2.1868529,-2.4055383,0.99552017,-0.64319199,-0.70751125,0.29280004,0
1.8242664,-0.39091429,2.8424001,0.53654891,-0.11497479,0.83600003,0
-1.2685236,1.9027851,2.5160003,-0.37309515,0.55964267,0.74000007,0
2.3168828,-2.0926683,-1.3464001,0.68143612,-0.61549067,-0.39600003,0
-3.3790021,0.29814696,0.23119998,-0.99382412,0.087690279,0.067999989,0
1.9242537,2.0445194,1.9175997,0.56595695,0.60132921,0.56399989,0
-2.7454476,-0.63847613,-1.9012802,-0.80748457,-0.18778709,-0.55920005,0
-0.33306435,0.71370929,-3.3075199,-0.0979601,0.20991449,-0.97279996,0
-0.1357276,0.40718281,3.3728001,-0.039919879,0.11975965,0.99199998,0
0.74143833,-2.4714608,2.2140801,0.21807009,-0.72690022,0.6512,0
-0.64707989,3.3278399,-0.25840026,-0.1903176,0.9787764,-0.076000072,0
-3.2183475,0.40229353,-1.0200002,-0.94657272,0.11832161,-0.30000004,0
1.7859758,-2.6401379,-1.1832004,0.52528697,-0.77651113,-0.34800011,0
-1.3270983,2.2502971,-2.1759996,-0.39032301,0.66185206,-0.63999987,0
-1.6869484,-1.4941543,-2.5459199,-0.49616128,-0.43945715,-0.74879992,0
0.25768334,2.3706861,-2.4235196,0.075789213,0.69726056,-0.71279985,0
-0.89903325,-3.0342364,1.2430402,-0.26442152,-0.89242244,0.36560005,0
-1.2990521,-0.053022563,-3.1416004,-0.38207415,-0.015594871,-0.92400008,0
1.6141958,-2.9593587,-0.44335979,0.47476345,-0.87039959,-0.13039994,0
0.91432041,-3.2509179,0.39440027,0.26891777,-0.95615232,0.11600008,0
0.84210241,2.4140275,-2.2412801,0.24767718,0.71000803,-0.65920001,0
0.28208092,-3.3849742,-0.14960024,0.082964972,-0.99558061,-0.044000067,0
-0.66542804,-1.1977702,3.11168,-0.19571413,-0.35228536,0.9152,0
-0.40521613,0.67536032,3.3075202,-0.11918121,0.19863538,0.97280002,0
-0.24401309,2.6841428,2.0726397,-0.071768552,0.78945374,0.60959989,0
-2.5881741,-2.204741,-0.021759586,-0.76122761,-0.64845318,-0.0063998778,0
1.5430818,-1.4144918,2.6791999,0.45384756,-0.41602698,0.78799999,0
-0.37659973,2.3851314,2.3936,-0.11076462,0.70150918,0.704,0
3.2611089,-0.79324269,-0.54400015,0.95914966,-0.23330666,-0.16000004,0
-0.26251888,-1.4001006,-3.0871999,-0.077211432,-0.41179428,-0.90799993,0
2.4614544,2.0139172,1.2022396,0.72395718,0.59232855,0.35359988,0
2.8820901,1.7888834,0.23119959,0.84767354,0.52614218,0.067999877,0
-3.0225062,-0.4317866,-1.4960004,-0.8889724,-0.12699606,-0.44000012,0
1.1611881,1.6772721,2.7200003,0.34152591,0.49331531,0.80000007,0
2.8364894,0.70912236,1.7353599,0.8342616,0.2085654,0.51039994,0
0.66892099,-3.1216311,1.1696,0.19674146,-0.91812676,0.34399998,0
-0.36330071,3.3605323,-0.36720008,-0.10685315,0.98839182,-0.10800002,0
3.2500062,0.98485065,0.16592017,0.95588416,0.28966194,0.048800047,0
-2.5484297,-2.1236913,0.74528003,-0.74953812,-0.62461507,0.2192,0
-2.446177,1.747269,1.5884801,-0.71946383,0.51390266,0.46720001,0
2.2342608,2.4470482,0.76160002,0.65713549,0.71972001,0.22399999,0
0.36330098,-3.3605323,-0.36720017,0.10685322,-0.98839182,-0.10800005,0
-1.6829835,-2.6774738,-1.24848,-0.49499512,-0.78749222,-0.36719996,0
-3.2136316,-0.74984723,0.81871986,-0.94518572,-0.2205433,0.24079995,0
0,3.3993201,0.067999549,0,0.99980003,0.019999867,0
0.91906214,1.4442408,2.9376001,0.2703124,0.4247767,0.86400002,0
-0.2513611,-2.3879292,2.4072001,-0.073929735,-0.70233208,0.708,0
-3.3283899,0.60516185,0.3400003,-0.97893816,0.17798877,0.10000008,0
-3.3524351,0.17644379,-0.53855991,-0.98601031,0.051895231,-0.15839997,0
0.60163075,1.5040768,-2.9892797,0.17695022,0.44237554,-0.87919992,0
-3.3332601,-0.35086939,-0.57119989,-0.98037058,-0.10319687,-0.16799997,0
-3.3174391,-0.085062467,-0.73983973,-0.97571737,-0.025018372,-0.21759991,0
1.5931008,-2.9987774,-0.17136003,0.46855906,-0.88199335,-0.050400008,0
-2.1340649,-1.1297991,2.3936002,-0.62766612,-0.33229384,0.70400006,0
-0.37985656,2.2791395,2.49424,-0.11172251,0.67033511,0.73360002,0
-0.31918016,-3.2981949,0.76159996,-0.093876518,-0.97005731,0.22399998,0
-3.3174391,-0.085062467,-0.73983973,-0.97571737,-0.025018372,-0.21759991,0
0.21732762,3.2599175,0.94111985,0.063919887,0.95879924,0.27679995,0
0.72934574,-2.9903169,-1.4443201,0.21451345,-0.87950492,-0.42480001,0
1.3024656,2.6049311,1.7543997,0.3830781,0.7661562,0.51599991,0
-1.3121849,1.0993981,-2.9376001,-0.38593674,0.3233524,-0.86400002,0
1.9584001,-2.6112001,0.95199984,0.57600003,-0.76800001,0.27999994,0
3.1973171,-0.44100913,1.0689597,0.94038737,-0.12970856,0.3143999,0
1.0952514,2.0411503,-2.488801,0.32213277,0.60033834,-0.73200029,0
-0.39725041,-1.4565849,3.0464001,-0.11683835,-0.42840731,0.89599997,0
0.98463637,-3.222446,-0.45424038,0.28959891,-0.94777822,-0.13360012,0
0.46697745,3.362237,-0.19312032,0.1373463,0.98889321,-0.05680009,0
1.5789126,0.52630448,2.9648001,0.46438605,0.15479544,0.87200004,0
-0.70803577,0.37010965,-3.3048003,-0.20824581,0.10885578,-0.97200006,0
-0.51355433,2.0542181,2.6601598,-0.15104538,0.60418177,0.78239995,0
2.174264,0,2.61392,0.63948935,0,0.76879996,0
1.1788585,1.3098434,2.90768,0.34672308,0.38524806,0.85519999,0
0.24126853,2.774591,1.9502398,0.070961334,0.81605613,0.57359993,0
1.0704498,0.53522497,-3.1824005,0.31483817,0.1574191,-0.93600011,0
0.12072622,2.776706,1.9583998,0.035507713,0.81667823,0.57599992,0
-2.3789167,-2.0072107,-1.3681597,-0.6996814,-0.59035605,-0.4023999,0
-1.4767874,-1.4333525,-2.7063999,-0.43434924,-0.42157423,-0.79599994,0
-2.1341171,1.6005876,-2.108,-0.62768149,0.47076106,-0.62,0
-2.3851314,0.37659934,2.3936002,-0.70150918,0.11076451,0.70400006,0
-2.9622822,-1.31657,1.0254403,-0.87125945,-0.38722646,0.3016001,0
-0.93236893,3.2632916,-0.20400043,-0.27422616,0.9597916,-0.060000125,0
3.0653808,-0.29194096,-1.4416004,0.90158254,-0.085864983,-0.42400011,0
-3.3123472,-0.16986404,-0.74799973,-0.97421974,-0.04996001,-0.21999991,0
-2.9943085,0.49905136,-1.5313604,-0.88067895,0.14677981,-0.45040011,0
1.7511058,2.7361023,1.0036798,0.5150311,0.80473596,0.29519993,0
1.1466467,1.9110781,2.5676804,0.33724904,0.56208175,0.75520009,0
0.51805127,-3.3155272,0.54672009,0.15236801,-0.97515506,0.16080002,0
-0.84444052,2.6539567,1.9502398,-0.24836485,0.78057545,0.57359993,0
3.1973171,-0.44100913,1.0689597,0.94038737,-0.12970856,0.3143999,0
2.177036,-0.046319868,-2.6112008,0.64030468,-0.01362349,-0.76800025,0
-2.9545801,1.6301132,0.41615945,-0.86899412,0.47944507,0.12239984,0
-3.1140378,-1.3623915,0.081600234,-0.91589344,-0.40070337,0.024000067,0
2.6676464,0,-2.1079998,0.78460187,0,-0.61999995,0
-0.93473864,-3.2196553,0.56575996,-0.27492312,-0.94695741,0.16639999,0
-1.031809,3.1986079,0.51407999,-0.3034732,0.94076699,0.1512,0
0.76111418,-2.1564898,2.5160003,0.2238571,-0.63426173,0.74000007,0
-1.9881879,-2.6797316,-0.6527999,-0.58476114,-0.78815633,-0.19199997,0
-2.0756557,-1.7093636,2.0808003,-0.61048692,-0.50275397,0.61200005,0
1.0967301,3.1214628,-0.78336006,0.32256767,0.91807729,-0.23040001,0
-1.7657874,-1.7122787,-2.3473597,-0.51934922,-0.50361139,-0.69039989,0
0.44114339,2.4814322,-2.2820797,0.12974805,0.72983301,-0.67119992,0
-3.2689638,0.63270265,0.68815994,-0.96145993,0.18608901,0.20239998,0
0.76397622,-3.1650448,0.97919971,0.22469889,-0.93089551,0.2879999,0
-1.7233042,2.8003693,0.86496019,-0.50685418,0.82363802,0.25440004,0
3.1539803,0.11264206,1.2648004,0.92764127,0.03313002,0.37200013,0
-1.0892913,-2.4811635,-2.0536001,-0.32037979,-0.72975397,-0.60400003,0
-1.41653,2.5632446,-1.7272,-0.41662645,0.75389546,-0.50800002,0
-1.2847501,1.6701752,2.6683202,-0.37786767,0.49122798,0.78480005,0
1.9887228,0.29619271,-2.7417607,0.58491844,0.087115496,-0.80640018,0
3.3155272,0.51805127,0.54672009,0.97515506,0.15236801,0.16080002,0
0.16986381,-3.3123472,-0.74799967,0.049959943,-0.97421974,-0.21999989,0
-0.30224985,-0.19430345,-3.3809602,-0.088897012,-0.057148073,-0.99440002,0
-3.1603546,1.0534517,0.67999971,-0.92951602,0.30983871,0.19999991,0
1.057971,0.69671255,-3.1552005,0.31116793,0.20491545,-0.92800009,0
2.2896652,2.0034571,-1.5177594,0.67343092,0.58925205,-0.44639984,0
-2.5263078,-0.3929812,-2.2412798,-0.74303168,-0.1155827,-0.65919995,0
1.2685238,-1.9027854,2.5159998,0.37309521,-0.55964273,0.73999989,0
-3.0416362,1.1949288,0.93839991,-0.89459884,0.35144964,0.27599996,0
0,3.1914988,-1.1723206,0,0.93867606,-0.34480017,0
-2.4527102,0.66892099,-2.2576001,-0.7213853,0.19674146,-0.66399997,0
-0.39900652,-1.3300215,3.1035202,-0.11735485,-0.39118278,0.91280001,0
2.3896062,0.12576863,2.4153602,0.70282537,0.036990773,0.71040004,0
0.24660644,-2.5893703,2.1896,0.072531305,-0.76157945,0.64399999,0
-2.4772019,2.2707686,0.51679957,-0.72858876,0.66787308,0.15199986,0
2.5259418,1.1998224,-1.9339195,0.74292403,0.35288894,-0.56879985,0
-0.12209728,2.6861432,2.0807998,-0.035910964,0.7900421,0.61199993,0
-0.20675579,-2.9634995,-1.6537602,-0.060810525,-0.8716175,-0.48640004,0
-3.2895701,0.84588921,-0.15231976,-0.96752059,0.24879093,-0.044799928,0
2.4527102,0.66892099,-2.2576001,0.7213853,0.19674146,-0.66399997,0
2.9634995,-0.20675579,-1.6537602,0.8716175,-0.060810525,-0.48640004,0
1.1306829,3.2036011,-0.13599955,0.3325538,0.94223559,-0.039999865,0
0,1.8278399,2.8668802,0,0.53759992,0.84320003,0
-1.7087014,-2.6001978,-1.3708798,-0.50255919,-0.76476401,-0.40319991,0
0.50973731,-2.1663821,2.5704002,0.14992273,-0.63717121,0.75600004,0
3.082731,0.34252536,1.3926404,0.90668559,0.10074275,0.40960008,0
-2.8514736,-0.47524548,1.78976,-0.83866864,-0.13977808,0.52639997,0
0.66892099,3.1216309,1.1696005,0.19674146,0.9181267,0.34400013,0
2.0002637,2.461863,-1.2239997,0.58831286,0.7240774,-0.35999992,0
0,2.0615809,2.7036798,0,0.60634732,0.79519993,0
0.13594547,0.13594547,3.3945601,0.039983962,0.039983962,0.99839997,0
3.2621865,0.081554584,-0.95471948,0.95946658,0.023986641,-0.28079984,0
1.0631267,0.93023598,3.0926402,0.3126843,0.27359882,0.90960002,0
1.7789923,2.7955596,-0.76159948,0.523233,0.82222342,-0.22399984,0
-2.0444837,0.63606155,-2.6411197,-0.60131872,0.18707693,-0.77679992,0
-1.8359495,-2.845722,-0.30191991,-0.53998518,-0.83697706,-0.088799976,0
2.6657362,-1.8579373,-1.0009596,0.78404003,-0.54645216,-0.29439989,0
-0.26242024,-1.7057307,2.92944,-0.07718242,-0.5016855,0.86159998,0
-2.2638409,-1.5296222,-2.0236802,-0.66583556,-0.44988886,-0.59520006,0
-1.0469706,-1.4395845,2.8968,-0.30793253,-0.4234072,0.852,0
-1.7065915,-2.9391296,-0.095200114,-0.50193864,-0.86444986,-0.028000033,0
-3.1140378,-1.3623915,0.081600234,-0.91589344,-0.40070337,0.024000067,0
0.9971683,-2.0940537,-2.4860804,0.29328477,-0.61589807,-0.73120004,0
1.3121849,1.0993981,-2.9376001,0.38593674,0.3233524,-0.86400002,0
0.33146024,1.0385756,-3.2204807,0.097488299,0.3054634,-0.94720018,0
3.1502252,-1.1375812,-0.58480024,0.9265368,-0.33458272,-0.17200007,0
0.39531773,1.5812725,2.98384,0.11626992,0.46508014,0.87759995,0
1.7013268,0.52348548,2.8968,0.50039023,0.15396631,0.852,0
2.6223328,-0.23309621,-2.1515198,0.77127433,-0.068557709,-0.63279992,0
3.2547958,-0.73495382,0.65280002,0.95729285,-0.21616288,0.192,0
-1.8214822,-0.52042341,2.8233602,-0.53573006,-0.15306571,0.83040005,0
-2.3309624,2.1755648,-1.1804798,-0.68557715,0.63987195,-0.34719992,0
-1.6939617,-0.78182858,2.8424001,-0.49822402,-0.22994958,0.83600003,0
-2.5817988,0.49177146,2.15696,-0.75935256,0.14463866,0.63440001,0
-0.78996223,1.4482642,2.97296,-0.23234183,0.42596006,0.87439996,0
2.6740286,1.3951453,1.5694398,0.786479,0.41033685,0.46159992,0
-2.9692636,-1.4846317,0.73440009,-0.87331277,-0.43665636,0.21600002,0
3.0020704,-1.111878,1.1451204,0.88296187,-0.32702294,0.3368001,0
-1.9824303,1.6107247,2.2440002,-0.58306772,0.47374254,0.66000003,0
-2.425415,1.8479356,1.5041597,-0.71335733,0.54351044,0.44239989,0
-2.3537323,2.1295671,1.21856,-0.69227421,0.62634325,0.35839999,0
-1.5364702,2.8534448,1.0281602,-0.45190299,0.83924848,0.30240005,0
2.0633025,2.2925582,1.4307201,0.60685366,0.67428178,0.4208,0
2.21946,-1.3563368,2.1896,0.65278232,-0.39892259,0.64399999,0
-0.76377296,-2.1003757,-2.5622399,-0.2246391,-0.6177575,-0.75359994,0
-1.250857,-3.1271427,-0.46511978,-0.36789912,-0.91974783,-0.13679993,0
1.2393178,-2.2307715,2.2467198,0.36450523,-0.65610927,0.66079992,0
-1.5777946,2.7047906,-1.3246404,-0.46405721,0.79552662,-0.3896001,0
-1.8884872,2.2425785,1.7217602,-0.55543739,0.6595819,0.50640005,0
-3.1895502,-0.077793829,-1.17504,-0.93810296,-0.022880537,-0.34559998,0
-1.1750404,1.9584004,-2.5187197,-0.3456001,0.57600009,-0.7407999,0
-1.0385103,1.0088385,-3.0763195,-0.30544421,0.2967172,-0.90479982,0
-2.5189726,0.62974322,-2.19504,-0.74087429,0.18521859,-0.64559996,0
2.2707686,2.4772019,0.51679957,0.66787308,0.72858876,0.15199986,0
3.3126185,-0.70267659,0.30464032,0.97429955,-0.20666958,0.089600094,0
-2.4905457,0.24905436,2.3011203,-0.73251343,0.073251277,0.67680007,0
-1.3648195,-3.0935907,-0.35632011,-0.40141749,-0.90987962,-0.10480003,0
0.97191948,2.5512888,2.0264003,0.28585866,0.75037903,0.59600008,0
-2.0633025,2.2925582,1.4307201,-0.60685366,0.67428178,0.4208,0
-1.6668296,0.39010912,-2.9376001,-0.49024397,0.11473797,-0.86400002,0
-3.0992534,0,-1.3980805,-0.9115451,0,-0.41120014,0
3.0642643,-0.59790528,-1.3464007,0.90125418,-0.17585449,-0.39600021,0
0.53522497,-1.0704498,-3.1824005,0.1574191,-0.31483817,-0.93600011,0
-1.6693141,-0.63062978,-2.8940797,-0.49097472,-0.18547934,-0.85119987,0
-1.9917569,-0.88007861,-2.6112003,-0.58581084,-0.25884664,-0.76800007,0
-2.4487917,2.3546076,-0.13871987,-0.72023284,0.69253165,-0.04079996,0
-3.3891113,-0.099679649,0.25295994,-0.99679738,-0.029317543,0.074399978,0
2.0395918,-2.7194562,0.068000227,0.59987992,-0.79984003,0.020000067,0
0.50565696,1.9383514,-2.7471995,0.14872263,0.57010335,-0.80799985,0
-0.27090997,-0.54181951,3.3456001,-0.0796794,-0.15935868,0.98400003,0
0.65976077,0.45056826,-3.3048003,0.19404729,0.13252008,-0.97200006,0
0,-2.8634045,1.83328,0,-0.84217775,0.53919995,0
-0.5312292,1.3280736,3.08448,-0.15624388,0.39060989,0.90719998,0
-0.11264206,3.1539803,1.2648004,-0.03313002,0.92764127,0.37200013,0
-2.4875734,0.37313569,2.2875202,-0.73163921,0.10974579,0.6728,0
0.50631481,3.341677,0.36992028,0.14891611,0.98284614,0.10880008,0
2.6001978,-1.7087011,-1.3708804,0.76476401,-0.50255913,-0.40320009,0
-0.66502744,3.0295694,-1.3926406,-0.19559631,0.8910498,-0.40960017,0
1.4590412,-0.13263997,3.0681601,0.42912975,-0.039011758,0.90240002,0
2.7347569,-1.4813266,1.3736,0.80434024,-0.43568426,0.40399998,0
-2.9668705,-0.9128834,1.3872001,-0.87260896,-0.26849511,0.40800002,0
3.3849742,-0.28208119,-0.14960028,0.99558061,-0.082965054,-0.044000082,0
2.0444837,0.63606155,-2.6411197,0.60131872,0.18707693,-0.77679992,0
2.8321459,-0.12873398,-1.8768001,0.83298403,-0.03786293,-0.55199999,0
-3.2611089,-0.79324269,-0.54400015,-0.95914966,-0.23330666,-0.16000004,0
0.93236929,-3.2632916,-0.20400003,0.27422625,-0.9597916,-0.060000006,0
2.5608621,-0.85362071,2.0672004,0.75319469,-0.2510649,0.6080001,0
1.5098426,-2.9358051,-0.81327999,0.44407135,-0.86347204,-0.2392,0
-1.7511055,2.7361023,1.0036801,-0.51503104,0.80473596,0.29520002,0
1.1306828,-3.2036014,-0.1360001,0.33255377,-0.94223565,-0.040000029,0
-1.2847501,-1.6701752,2.6683202,-0.37786767,-0.49122798,0.78480005,0
-0.58064198,-3.2350054,-0.87039971,-0.17077705,-0.95147216,-0.25599992,0
-3.25543,-0.68535376,-0.70175999,-0.95747936,-0.20157462,-0.20639999,0
0,-2.9841995,-1.6292802,0,-0.87770569,-0.47920004,0
-1.0298713,1.8022745,2.6928,-0.30290332,0.53008074,0.792,0
2.7529008,1.9934796,-0.087040097,0.80967671,0.58631754,-0.025600027,0
2.9047766,-1.4523883,-1.0064003,0.85434604,-0.42717302,-0.29600009,0
-2.7136388,-1.5829557,1.3001601,-0.79812902,-0.46557519,0.38240001,0
-2.5104289,1.8257668,1.3871999,-0.73836142,0.53699023,0.40799996,0
0.17784317,-1.707294,-2.9348798,0.052306812,-0.50214529,-0.86319989,0
-1.1375812,3.1502252,-0.58480024,-0.33458272,0.9265368,-0.17200007,0
-0.28849968,-2.5964963,-2.1759999,-0.084852844,-0.76367539,-0.63999993,0
3.2509179,-0.91432071,0.39440012,0.95615232,-0.26891786,0.11600003,0
-3.3790021,-0.29814726,0.23119994,-0.99382412,-0.087690368,0.067999981,0
3.0066252,1.5488677,-0.34815985,0.88430148,0.4555493,-0.10239995,0
0.45579305,3.0766013,1.3736002,0.13405678,0.90488273,0.40400007,0
3.352509,0.40636498,0.39440027,0.98603201,0.11951911,0.11600008,0
-1.4523883,-2.9047766,-1.0064003,-0.42717302,-0.85434604,-0.29600009,0
-2.6115897,-2.0892715,0.61200017,-0.76811457,-0.61449164,0.18000004,0
1.8603188,1.7362976,2.2548804,0.54715258,0.51067573,0.66320008,0
2.0473471,2.6704526,-0.48688045,0.60216093,0.78542727,-0.14320014,0
-1.4846317,-2.9692636,0.73440009,-0.43665636,-0.87331277,0.21600002,0
-0.94243115,-0.134633,-3.2640004,-0.27718562,-0.03959794,-0.9600001,0
-1.1276529,1.8042444,-2.6519995,-0.3316626,0.53066009,-0.77999985,0
-2.039592,-2.719456,0.067999892,-0.59987998,-0.79983997,0.019999968,0
2.0444837,0.63606155,-2.6411197,0.60131872,0.18707693,-0.77679992,0
1.6441449,1.6441449,2.4806402,0.48357201,0.48357201,0.72960001,0
1.7122787,-1.7657874,-2.3473597,0.50361139,-0.51934922,-0.69039989,0
-2.5324414,1.7266643,1.4715203,-0.74483567,0.50784242,0.43280008,0
1.41653,-2.5632451,-1.7271997,0.41662645,-0.75389558,-0.5079999,0
-2.3879292,-0.2513611,2.4072001,-0.70233208,-0.073929735,0.708,0
0.95047557,-2.7835357,-1.7054398,0.27955163,-0.81868696,-0.50159991,0
-1.2685236,1.9027851,2.5160003,-0.37309515,0.55964267,0.74000007,0
1.3432778,-1.713837,-2.6112006,0.3950817,-0.50406969,-0.76800013,0
-0.63586378,2.1619365,2.5459199,-0.18701875,0.63586366,0.74879992,0
0.65222234,0.58171177,-3.2857599,0.1918301,0.17109169,-0.96639997,0
-0.36945975,2.5862179,2.1760004,-0.10866463,0.7606523,0.6400001,0
0.36945936,-2.5862181,2.1760001,0.10866451,-0.76065236,0.64000005,0
1.0074288,0.82184982,-3.1416001,0.29630256,0.24172053,-0.92400002,0
-0.25414178,-3.303843,-0.76159972,-0.074747577,-0.97171849,-0.22399992,0
-0.55925626,3.131834,1.1995205,-0.16448712,0.92112762,0.35280013,0
-3.1450531,-0.80642384,-1.0091197,-0.92501563,-0.23718348,-0.29679993,0
-2.251291,2.5449376,0.12240027,-0.66214442,0.74851102,0.036000077,0
0,2.174264,2.61392,0,0.63948935,0.76879996,0
1.6949111,-0.82774729,-2.8288004,0.49850327,-0.24345508,-0.83200008,0
-1.1750402,2.6112003,-1.8332796,-0.34560007,0.76800007,-0.53919989,0
-0.12786882,2.1737721,2.6111999,-0.037608474,0.63934469,0.76799995,0
3.1788623,0.73358339,-0.9574396,0.93495947,0.21575981,-0.28159988,0
-1.8624119,2.7936175,0.53584021,-0.54776818,0.82165217,0.15760006,0
-3.1214628,1.0967301,-0.78336006,-0.91807729,0.32256767,-0.23040001,0
-3.1145117,1.0739697,0.84047955,-0.91603285,0.31587344,0.24719986,0
-1.7774071,2.6661108,1.1369599,-0.52276677,0.78415018,0.33439997,0
-1.0509307,2.8024821,1.6129599,-0.30909726,0.8242594,0.47439995,0
-2.7454476,-0.63847613,-1.9012802,-0.80748457,-0.18778709,-0.55920005,0
3.3873012,0.2903398,0.043519594,0.99626505,0.085394055,0.01279988,0
2.5912592,-0.12339319,2.1977603,0.76213503,-0.036292113,0.64640009,0
-1.7657874,-1.7122787,-2.3473597,-0.51934922,-0.50361139,-0.69039989,0
-2.9437013,-0.11774793,1.69728,-0.86579448,-0.034631744,0.49919999,0
-1.4450337,-0.82573354,-2.9648006,-0.42500988,-0.24286281,-0.87200016,0
-2.7197416,-1.0642468,1.7408001,-0.79992396,-0.31301376,0.51200002,0
-3.1986079,-1.031809,0.51407999,-0.94076699,-0.3034732,0.1512,0
-2.1779506,-0.42612076,-2.5758402,-0.64057368,-0.12532963,-0.75760007,0
0.15530208,3.1836958,-1.1832006,0.045677081,0.9363811,-0.34800017,0
2.1619365,-0.63586378,2.5459199,0.63586366,-0.18701875,0.74879992,0
1.6573037,2.7621732,1.0880002,0.48744226,0.81240386,0.32000005,0
0.24126853,2.774591,1.9502398,0.070961334,0.81605613,0.57359993,0
1.0887407,-2.5403957,1.9801601,0.32021785,-0.74717522,0.58240002,0
-2.4731114,2.217272,-0.72624022,-0.7273857,0.65213883,-0.21360005,0
-0.4059549,-0.54127306,3.332,-0.1193985,-0.15919796,0.97999996,0
-2.999562,-0.57683897,1.4932802,-0.88222408,-0.16965851,0.43920004,0
0.91906214,1.4442408,2.9376001,0.2703124,0.4247767,0.86400002,0
-0.52042341,-1.8214822,2.8233602,-0.15306571,-0.53573006,0.83040005,0
2.952507,1.0220214,1.3409603,0.86838442,0.30059454,0.39440006,0
0,3.1548998,1.2675204,0,0.9279117,0.37280011,0
-2.7080739,1.8414904,0.91391987,-0.79649228,0.54161483,0.26879996,0
-2.1411259,0.6185475,-2.5676796,-0.62974292,0.18192573,-0.75519985,0
2.390507,-1.5538297,1.8523202,0.70309025,-0.45700872,0.54480004,0
2.2707686,2.4772019,0.51679957,0.66787308,0.72858876,0.15199986,0
-2.5259414,-1.1998222,-1.9339201,-0.74292392,-0.35288888,-0.56880003,0
1.2040076,0,3.1796801,0.35411987,0,0.93520004,0
-2.4654412,-1.6436273,1.6673601,-0.72512972,-0.48341978,0.49040002,0
1.975252,-1.9135255,-1.9992,0.58095646,-0.5628016,-0.588,0
1.6742457,2.9545512,0.16591966,0.4924252,0.86898565,0.048799898,0
0.54974973,-3.1885478,1.0444796,0.1616911,-0.93780822,0.3071999,0
-0.10213582,3.3704851,0.4352003,-0.030039947,0.99131912,0.12800008,0
3.1603546,1.0534517,0.67999971,0.92951602,0.30983871,0.19999991,0
1.2783508,3.1467097,0.15504016,0.37598553,0.92550284,0.045600045,0
-1.7853817,-0.11158636,-2.8913598,-0.52511227,-0.032819517,-0.85039991,0
2.3902102,1.8278079,-1.5830394,0.70300299,0.53759056,-0.46559981,0
-0.4059549,-0.54127306,3.332,-0.1193985,-0.15919796,0.97999996,0
-3.0992534,0,-1.3980805,-0.9115451,0,-0.41120014,0
-2.315038,1.9677825,1.52592,-0.68089348,0.57875955,0.4488,0
0.25414154,-3.303843,-0.76159966,0.07474751,-0.97171849,-0.22399989,0
0.57445478,-3.350986,-0.029919894,0.16895728,-0.98558408,-0.0087999683,0
-3.1950021,-1.1618191,0.04624027,-0.93970644,-0.34171149,0.013600079,0
0.67841023,0.64072073,-3.2694399,0.19953242,0.18844727,-0.96159995,0
2.4443705,-1.0999669,2.0916803,0.71893251,-0.32351968,0.61520004,0
-2.8986573,-1.337842,1.1696001,-0.85254627,-0.39348292,0.34400004,0
-2.3215771,-1.344071,2.0889599,-0.68281674,-0.39531499,0.61439997,0
2.0512121,-2.7038701,-0.20400068,0.60329765,-0.7952559,-0.0600002,0
2.5958593,2.1482973,-0.45424047,0.76348799,0.63185215,-0.13360013,0
1.6141958,2.9593587,-0.44335979,0.47476345,0.87039959,-0.13039994,0
1.2990522,0.053022489,-3.1416004,0.38207418,0.015594849,-0.92400008,0
0.26650423,1.2792201,-3.1388807,0.078383595,0.37624121,-0.92320019,0
-1.4565849,0.39725003,3.0464001,-0.42840731,0.11683824,0.89599997,0
-0.52672583,2.3702662,-2.3799996,-0.15491936,0.69713712,-0.69999987,0
-3.2136316,0.74984723,0.81871986,-0.94518572,0.2205433,0.24079995,0
-2.2951932,2.4947755,0.26112014,-0.67505682,0.7337575,0.076800041,0
-3.222446,0.98463637,-0.45424038,-0.94777822,0.28959891,-0.13360012,0
-0.75848508,1.8540746,-2.7472,-0.22308384,0.54531604,-0.80799997,0
-1.8262526,0.26089299,2.8560002,-0.5371331,0.076733232,0.84000003,0
-1.5004197,2.6435964,-1.5232003,-0.44129992,0.77752835,-0.44800007,0
-2.4295709,-0.48591423,-2.3283198,-0.71457964,-0.14291595,-0.68479991,0
3.350986,0.57445472,-0.029920463,0.98558408,0.16895726,-0.0088001359,0
1.0163997,3.2339988,-0.26112056,0.29894111,0.95117611,-0.07680016,0
-1.7038971,0.39320666,2.9158401,-0.5011462,0.11564901,0.85760003,0
1.057971,0.69671255,-3.1552005,0.31116793,0.20491545,-0.92800009,0
-0.16986404,-3.3123472,-0.74799973,-0.04996001,-0.97421974,-0.21999991,0
1.8844712,2.8267071,-0.13600007,0.5542562,0.83138442,-0.040000018,0
1.9917569,0.88007861,-2.6112003,0.58581084,0.25884664,-0.76800007,0
-2.1024299,2.4343927,1.1015997,-0.61836171,0.71599782,0.32399991,0
-0.60684061,2.6700983,2.0155196,-0.17848255,0.78532308,0.5927999,0
-1.9242535,2.0445194,1.9175999,-0.56595689,0.60132921,0.56399995,0
0.77738243,-3.10953,1.13424,0.22864188,-0.91456759,0.33360001,0
-1.0993981,1.3121849,-2.9376001,-0.3233524,0.38593674,-0.86400002,0
-1.3335856,-0.8456884,-3.01104,-0.39223105,-0.24873188,-0.88559997,0
3.2476392,-0.43301845,0.90847987,0.95518798,-0.12735836,0.26719996,0
-0.75848508,1.8540746,-2.7472,-0.22308384,0.54531604,-0.80799997,0
-2.1791563,2.1791563,1.4361601,-0.64092833,0.64092833,0.42240003,0
-0.3371374,-3.1466157,1.24304,-0.099158056,-0.92547518,0.36559999,0
1.2644045,-0.077412523,-3.1552002,0.37188369,-0.022768389,-0.92800003,0
3.1880443,-1.0626814,-0.51680034,0.93766004,-0.31255335,-0.1520001,0
-2.1564898,0.76111418,2.5160003,-0.63426173,0.2238571,0.74000007,0
-2.6785138,-1.9251817,-0.82415974,-0.78779817,-0.56622988,-0.24239992,0
0.1192774,2.8626602,1.83056,0.035081588,0.84195882,0.53839999,0
2.6661108,-1.7774071,1.1369599,0.78415018,-0.52276677,0.33439997,0
3.2535384,0.90376085,-0.39712042,0.95692301,0.26581201,-0.11680012,0
2.1933389,-1.9877135,-1.6728003,0.64509964,-0.58462161,-0.49200007,0
3.287993,-0.71924841,0.48144016,0.96705675,-0.21154365,0.14160004,0
1.4120376,0.39056355,-3.0681608,0.41530517,0.11487163,-0.9024002,0
0.13498972,0.80993915,3.29936,0.039702859,0.23821738,0.97039998,0
-0.80642384,3.1450531,-1.0091197,-0.23718348,0.92501563,-0.29679993,0
