-0.24768294,1.0807981,-3.0550005,-0.076210134,0.33255327,-0.94000018,0
3.1810231,0.61853218,-0.24700025,0.97877634,0.1903176,-0.07600008,0
0.5862987,2.4624538,2.0384002,0.1803996,0.75767809,0.62720007,0
-2.6488092,0.34549654,1.8512002,-0.81501824,0.10630663,0.56960005,0
-1.1610391,-2.6635604,-1.4559996,-0.35724279,-0.81955707,-0.44799989,0
2.009521,1.4184853,2.1241999,0.61831415,0.43645701,0.65359998,0
2.7019994,-1.8013327,-0.13000005,0.83138442,-0.5542562,-0.040000018,0
2.0778704,-0.12222753,2.4959998,0.63934475,-0.037608471,0.76799995,0
1.0628248,-2.869626,1.0946002,0.32702303,-0.88296187,0.33680007,0
0.67167616,-3.1664734,0.29120031,0.20666958,-0.97429949,0.089600094,0
-0.55139017,-2.8672283,1.4274001,-0.16965851,-0.88222408,0.43920004,0
1.3181355,1.4417108,-2.5974004,0.40558016,0.44360334,-0.79920012,0
-1.8153324,1.0183573,-2.4960001,-0.55856383,0.31334069,-0.76800001,0
-1.8585454,-0.24780619,2.6545999,-0.57186013,-0.076248057,0.8168,0
-1.0644132,2.1820474,-2.1606004,-0.32751176,0.67139918,-0.66480011,0
-1.8127388,2.4525294,1.1231999,-0.55776578,0.75462443,0.34559998,0
3.0913224,0.97155851,-0.24960051,0.95117611,0.29894108,-0.07680016,0
1.9150691,-2.1886506,-1.4507995,0.58925205,-0.67343098,-0.44639984,0
2.5580621,-0.46510202,1.9499997,0.78709602,-0.14310831,0.5999999,0
-0.43080822,-1.1657164,-3.003,-0.13255638,-0.35868198,-0.92400002,0
-2.5657244,0.23324746,1.9812,-0.78945363,0.071768448,0.60960001,0
0.38140288,-1.2713441,2.9666002,0.11735474,-0.39118278,0.91280007,0
1.0779029,-1.7246448,-2.5350001,0.33166245,-0.53065991,-0.78000003,0
0.90831941,2.611419,1.7081999,0.2794829,0.80351353,0.52559996,0
0,-3.1200001,0.90999979,0,-0.96000004,0.27999994,0
-1.1268504,1.2520562,2.7793999,-0.3467232,0.38524806,0.85519993,0
-1.1504927,0.68481708,-2.9614003,-0.35399774,0.21071294,-0.91120011,0
-2.7455556,-1.7388519,-0.028600162,-0.84478635,-0.53503138,-0.0088000502,0
1.4137883,2.9159379,-0.24699993,0.4350118,0.89721167,-0.075999983,0
0.57915878,0.79883957,-3.0965998,0.1782027,0.24579678,-0.95279992,0
0.78559172,-0.96298337,-3.003,0.24172053,-0.29630259,-0.92400002,0
-0.29470739,-3.0207515,-1.1621999,-0.090679199,-0.92946202,-0.35759994,0
-3.2359715,0.19035107,0.23399995,-0.99568355,0.058569558,0.071999982,0
-2.8712995,1.4356499,-0.50700021,-0.88347679,0.44173843,-0.15600006,0
2.6216693,0.79789919,1.7471998,0.80666745,0.24550745,0.53759992,0
-1.9004737,-2.5615082,-0.62399989,-0.58476114,-0.78815639,-0.19199997,0
-0.24345772,-2.6780355,-1.8252,-0.074910067,-0.82401091,-0.56159997,0
-2.7291629,1.7057267,-0.45239976,-0.83974242,0.52483898,-0.13919993,0
-2.0511413,1.3494351,-2.1294,-0.63112038,0.41521078,-0.6552,0
2.6753724,-1.8450841,0.0233998,0.82319152,-0.56771815,0.0071999384,0
1.013026,1.013026,2.9172001,0.31170031,0.31170031,0.89760005,0
2.5720954,-1.2301326,1.5599997,0.79141396,-0.37850234,0.4799999,0
-1.997927,-2.2939165,-1.1439998,-0.61474675,-0.70582044,-0.35199994,0
2.47212,0.3531597,2.0800002,0.7606523,0.10866452,0.64000005,0
0.92010248,1.0037483,-2.951,0.28310844,0.30884564,-0.90799999,0
-1.0769714,3.0351009,0.43679988,-0.33137581,0.93387723,0.13439997,0
1.2661974,-2.6730833,-1.3468,0.3895992,-0.82248718,-0.41439998,0
3.1043611,-0.2328271,-0.9333995,0.95518804,-0.071639106,-0.28719985,0
2.2406783,1.8332822,-1.4767995,0.68943948,0.56408685,-0.45439985,0
-1.6887497,-2.2516658,1.6250001,-0.51961529,-0.69282025,0.50000006,0
-0.61664426,-1.8499327,-2.5999997,-0.18973669,-0.56921005,-0.79999989,0
-1.7099621,2.7549391,0.22099961,-0.52614218,0.84767354,0.067999884,0
-1.1627556,2.3255112,-1.9499993,-0.35777095,0.7155419,-0.59999979,0
2.9537454,1.3339493,0.24180007,0.90884471,0.41044596,0.074400023,0
2.5231524,-1.7872328,1.001,0.77635455,-0.54991776,0.30800003,0
-2.2943256,-0.19950654,-2.2932003,-0.70594633,-0.061386626,-0.70560008,0
-2.1811011,0.24234432,2.3971999,-0.67110801,0.074567482,0.73759997,0
-1.0628245,-2.869626,1.0946003,-0.32702291,-0.88296187,0.3368001,0
-1.5841875,2.6403124,1.04,-0.48744231,0.8124038,0.31999999,0
0.50583208,-3.1361582,0.68639994,0.15564063,-0.96497178,0.21119998,0
-2.1394696,-0.37208173,-2.4180002,-0.65829837,-0.11448669,-0.74400008,0
-0.12734681,-1.2734692,2.9874001,-0.039183635,-0.39183667,0.9192,0
-1.2964984,-2.1215427,2.0929999,-0.39892259,-0.65278238,0.64399999,0
2.1488962,-2.0772665,-1.2766005,0.66119885,-0.6391589,-0.39280015,0
-2.1408122,-2.299391,-0.83200008,-0.65871143,-0.70750493,-0.25600001,0
2.858449,0.6596421,1.3988001,0.87952274,0.20296679,0.43040004,0
3.2464495,0.090179063,-0.12220027,0.99890751,0.027747404,-0.037600081,0
-0.10938545,2.9534099,1.3520002,-0.033657063,0.90874153,0.41600007,0
-1.8092302,2.6707683,-0.39520013,-0.55668622,0.82177484,-0.12160004,0
2.7663536,1.695507,-0.18720001,0.85118574,0.52169448,-0.057600003,0
-1.3531187,0.47065005,-2.9172003,-0.4163442,0.1448154,-0.89760011,0
-1.061545,2.0725403,-2.2672007,-0.32662922,0.63770473,-0.69760025,0
0.22498599,0.89994395,-3.1148005,0.069226459,0.27690583,-0.95840013,0
2.9104791,1.3046974,0.62399971,0.89553201,0.40144536,0.19199991,0
-1.2143977,2.9347944,0.68899965,-0.37366083,0.90301365,0.21199989,0
1.5711143,-2.3566718,1.5938001,0.48341975,-0.72512972,0.49039999,0
0.49909192,1.6398735,-2.7611995,0.15356675,0.50457644,-0.84959984,0
-1.593293,-0.3728984,-2.8080001,-0.49024397,-0.11473797,-0.86400002,0
-2.0965738,1.9000201,-1.5990002,-0.64509964,0.58462155,-0.49200007,0
2.4514225,0.32685634,-2.1085997,0.75428385,0.10057119,-0.6487999,0
1.3181355,1.4417108,-2.5974004,0.40558016,0.44360334,-0.79920012,0
-0.47919056,-2.2761555,2.2697999,-0.14744326,-0.70035559,0.69840002,0
-2.4317994,-1.5536494,-1.4950001,-0.74824595,-0.47804597,-0.46000004,0
0.60799998,1.9542857,-2.5245996,0.18707691,0.60131872,-0.77679986,0
-0.10396739,-3.119025,0.90739983,-0.031989966,-0.95969999,0.27919996,0
-1.7920078,1.3561138,-2.3477998,-0.55138701,0.41726577,-0.72239995,0
0.77643842,-2.3847754,-2.0670002,0.23890413,-0.73377705,-0.63600004,0
-2.4059134,-1.6497692,-1.4326,-0.74028105,-0.50762129,-0.44080001,0
-2.5256832,-0.16837889,-2.0383997,-0.77713329,-0.05180889,-0.62719989,0
-0.42168131,2.3719571,-2.1813998,-0.12974809,0.72983295,-0.67119992,0
2.835979,-0.87260914,1.3260001,0.8726089,-0.26849511,0.40800002,0
0.52549607,3.0478766,0.99839967,0.1616911,0.93780816,0.3071999,0
2.5615079,1.9004738,-0.62400025,0.78815627,0.5847612,-0.19200008,0
-2.3519557,-1.2664376,-1.8511997,-0.72367865,-0.38967311,-0.56959993,0
-2.4624541,-0.5862987,2.0383999,-0.75767815,-0.1803996,0.62720001,0
1.7227627,-2.4764709,1.2089999,0.53008085,-0.76199108,0.37199995,0
1.997927,2.2939165,-1.1439998,0.61474675,0.70582044,-0.35199994,0
-0.73918676,-1.4447742,-2.8158002,-0.22744209,-0.44454589,-0.86640006,0
-3.1602998,-0.70228893,-0.28600031,-0.97239995,-0.21608891,-0.088000096,0
-1.2370319,2.8864074,0.8372004,-0.38062522,0.88812536,0.25760013,0
0.35846072,-2.6287119,-1.8772,0.11029561,-0.80883443,-0.5776,0
0.072053209,1.7292788,-2.7508004,0.022170218,0.53208578,-0.84640014,0
0.35998467,-2.2799051,2.2880001,0.11076451,-0.70150924,0.70400006,0
0.70252937,3.1112018,0.62400001,0.21616289,0.95729285,0.192,0
-1.3494351,-2.0511413,-2.1294,-0.41521078,-0.63112038,-0.6552,0
-1.3750411,2.7500823,1.0530002,-0.42308956,0.84617913,0.32400006,0
0.55889791,-0.47065085,-3.1667998,0.17196859,-0.14481565,-0.97439992,0
-3.0562589,0.42155313,1.0217997,-0.94038737,0.12970866,0.3143999,0
2.0845749,0,-2.4934008,0.64140767,0,-0.76720023,0
3.1992829,0.43233562,-0.37440011,0.98439473,0.13302635,-0.11520004,0
-0.56419402,-3.1970994,0.15079993,-0.17359816,-0.98372293,0.046399977,0
0.91385096,-2.8118491,-1.3494,0.28118491,-0.86518437,-0.41520002,0
1.0247033,0.38426346,3.0602002,0.31529331,0.11823491,0.94160008,0
-0.77084631,-3.0063007,-0.96459967,-0.23718348,-0.92501557,-0.2967999,0
0.37208176,2.1394706,-2.4179995,0.11448669,0.65829861,-0.74399978,0
-3.0237653,1.1911803,-0.020799682,-0.93038934,0.36651704,-0.006399902,0
-0.32226369,-3.0077944,1.1882,-0.099158056,-0.92547518,0.36559999,0
0.50583208,-3.1361582,0.68639994,0.15564063,-0.96497178,0.21119998,0
2.0140319,2.0140319,1.5651999,0.6197021,0.6197021,0.48159996,0
-0.73303401,1.9547577,2.4907997,-0.22554892,0.60146391,0.76639992,0
1.8961738,-2.4271026,-1.0373999,0.5834381,-0.74680078,-0.31919998,0
-2.5845816,1.9607173,-0.19500065,-0.7952559,0.60329765,-0.0600002,0
0.94993609,-2.2165174,-2.1788003,0.29228804,-0.68200541,-0.67040014,0
-2.5194187,1.5335591,1.3650002,-0.77520573,0.47186434,0.42000008,0
2.835979,-0.87260914,1.3260001,0.8726089,-0.26849511,0.40800002,0
1.5637394,2.3456092,-1.6172004,0.4811506,0.72172588,-0.49760011,0
1.731442,0.61562389,-2.6805999,0.53275138,0.18942274,-0.82479995,0
1.5396632,1.8949704,2.1449997,0.47374251,0.58306783,0.65999991,0
2.2064719,1.3935612,1.937,0.67891443,0.42878807,0.59600002,0
2.9425156,1.00665,-0.94379985,0.90538943,0.30973846,-0.29039997,0
1.9547577,-0.73303401,2.4907997,0.60146391,-0.22554892,0.76639992,0
-1.2808477,2.8819072,-0.78520024,-0.39410698,0.88674068,-0.24160007,0
1.6596962,1.7782458,2.1554003,0.51067579,0.54715258,0.66320008,0
2.8163385,0.75560308,-1.4352007,0.8665657,0.23249325,-0.4416002,0
-1.6495458,-2.7781825,-0.35099986,-0.50755256,-0.85482538,-0.10799996,0
3.1043611,-0.2328271,-0.9333995,0.95518804,-0.071639106,-0.28719985,0
1.7062219,2.1612148,1.7264003,0.52499139,0.66498917,0.53120005,0
-3.0850291,-0.73066479,-0.71499991,-0.94923973,-0.22481993,-0.21999997,0
1.6917189,-1.450045,2.3660002,0.52052891,-0.44616768,0.72800004,0
-1.2726198,-2.2560077,-1.9629997,-0.39157534,-0.69415623,-0.60399991,0
0.77771723,-2.7775619,1.4976001,0.23929761,-0.8546344,0.46080002,0
-2.6123245,1.74155,-0.83980006,-0.80379212,0.53586155,-0.25840002,0
-1.8228207,-2.0506732,1.742,-0.56086791,-0.63097638,0.53600001,0
-1.2417411,0.05068326,-3.0030003,-0.38207418,0.015594849,-0.92400008,0
-1.3680251,2.3629525,-1.7627999,-0.4209308,0.72706228,-0.54239994,0
-1.5063494,-0.62764573,2.8106,-0.46349213,-0.19312176,0.86480004,0
0.30509838,3.1526864,0.72799999,0.093876429,0.97005737,0.22399999,0
-2.1945727,-0.69827306,-2.2931998,-0.67525315,-0.21485326,-0.7055999,0
-1.1314572,-1.1314572,2.8288,-0.34814069,-0.34814069,0.87040001,0
0.48334852,1.8528359,-2.6259995,0.14872262,0.57010335,-0.80799985,0
2.3603332,-1.4672341,-1.6847999,0.72625637,-0.45145667,-0.51839995,0
3.0569634,-0.45854455,-1.0035995,0.94060415,-0.14109063,-0.30879986,0
2.1826067,-0.12125582,2.405,0.67157131,-0.037309483,0.74000001,0
-0.13953066,-1.6743681,-2.7819998,-0.04293251,-0.51519018,-0.85599995,0
0.35846087,-3.2261465,-0.16120031,0.11029565,-0.99266046,-0.049600098,0
-1.3843702,-0.75511092,2.8418,-0.42596006,-0.23234183,0.87440002,0
0.59887522,2.7947519,-1.5470003,0.18426929,0.85992366,-0.4760001,0
-2.6403124,1.5841873,1.0400002,-0.8124038,0.48744223,0.32000005,0
2.3677752,1.9858758,-1.0062,0.7285462,0.61103874,-0.3096,0
1.4343023,2.7176256,-1.0582002,0.44132379,0.83619249,-0.32560009,0
2.7455556,-1.7388519,-0.028600162,0.84478635,-0.53503138,-0.0088000502,0
-1.7062222,-2.1612146,1.7264,-0.52499145,-0.66498911,0.53119999,0
-1.1201141,-0.78407979,-2.9484003,-0.34465048,-0.2412553,-0.90720004,0
-1.4883269,-1.5813473,-2.418,-0.45794675,-0.48656842,-0.74400002,0
0.78416163,3.1366477,-0.33020014,0.2412805,0.96512234,-0.10160004,0
-0.25474706,-1.2227859,-3.0003996,-0.078383714,-0.37624183,-0.92319989,0
0.89809197,-0.5131954,3.0810001,0.27633598,-0.15790628,0.94800001,0
2.0031819,-1.1518297,-2.2853994,0.61636364,-0.35440916,-0.7031998,0
-1.079955,2.0399151,2.2879999,-0.33229384,0.62766618,0.70399994,0
1.6398735,0.49909192,-2.7611995,0.50457644,0.15356675,-0.84959984,0
2.6179495,-1.8578997,-0.50700003,0.80552292,-0.57166141,-0.156,0
1.4377204,0.5750882,-2.8573997,0.44237551,0.17695022,-0.87919992,0
0.4644767,-2.3223841,-2.2255995,0.1429159,-0.7145797,-0.68479985,0
2.3255112,1.1627556,-1.9499993,0.7155419,0.35777095,-0.59999979,0
0.88246536,1.2606652,2.8625998,0.2715278,0.38789698,0.88079995,0
-1.1105623,-3.0540462,0.044200256,-0.34171149,-0.9397065,0.013600079,0
1.1232003,1.8720003,-2.4075997,0.3456001,0.57600009,-0.7407999,0
-2.4145029,-1.1468889,-1.8486001,-0.74292397,-0.35288888,-0.56880003,0
-1.5131195,-2.5939193,1.2428,-0.46557522,-0.79812902,0.38240001,0
2.2281258,2.0795839,-1.1283997,0.68557715,0.63987195,-0.34719992,0
0.42155313,-3.0562589,1.0217997,0.12970866,-0.94038737,0.3143999,0
-0.16999701,1.6319709,-2.8054006,-0.052306771,0.50214487,-0.86320019,0
2.2656956,-0.50348788,-2.2749996,0.69713712,-0.15491936,-0.69999987,0
-0.6403079,-0.89643073,3.0576,-0.19701782,-0.27582484,0.94080001,0
0.63940978,2.983912,1.1180004,0.19674148,0.91812676,0.34400013,0
2.476939,0.11794937,2.1008003,0.76213509,0.036292113,0.64640009,0
-0.39738336,3.1790676,0.54600012,-0.12227181,0.97817463,0.16800004,0
0.36875078,1.966673,2.5609999,0.11346178,0.60513014,0.78799999,0
-1.8601815,0,2.665,-0.5723635,0,0.81999999,0
0.07795658,-3.1182661,-0.9126001,0.023986639,-0.95946652,-0.28080004,0
-0.83483887,-3.0889039,-0.56940007,-0.25687349,-0.95043194,-0.17520002,0
1.4447742,-0.73918676,-2.8158002,0.44454589,-0.22744209,-0.86640006,0
1.8153317,1.0183568,-2.4960008,0.55856359,0.31334054,-0.76800025,0
-0.17246446,-2.0264578,-2.5349998,-0.053065989,-0.6235255,-0.77999997,0
-1.7468207,0.12477279,2.7378001,-0.53748327,0.038391627,0.84240001,0
-2.8858945,0.96196461,1.1440004,-0.88796753,0.2959891,0.35200012,0
0.47919092,2.2761555,2.2697999,0.14744335,0.70035553,0.69839996,0
-0.7238282,-3.1667476,-0.10139994,-0.22271636,-0.97438389,-0.031199982,0
-3.0338893,-0.22199191,-1.1439999,-0.9335044,-0.068305202,-0.35199997,0
-0.98706907,-2.5293646,-1.7861999,-0.30371356,-0.77826601,-0.54960001,0
2.4145031,1.1468891,-1.8485994,0.74292403,0.35288894,-0.56879985,0
0.55866718,2.6691885,-1.768,0.17189759,0.82128876,-0.54400003,0
3.0701785,0.10586812,1.0607997,0.94467032,0.032574806,0.32639992,0
0.64847779,-0.17562939,-3.1798005,0.19953163,-0.054039814,-0.97840017,0
-1.2606648,-0.88246536,2.8626001,-0.38789687,-0.2715278,0.88080001,0
2.7019994,-1.0132499,-1.4949995,0.83138442,-0.31176919,-0.45999986,0
1.4486921,1.1055809,-2.6910002,0.4457514,0.34017876,-0.82800007,0
-0.90156674,-2.9300916,-1.0789998,-0.27740514,-0.90156662,-0.33199993,0
-0.75912869,2.6569505,-1.7108004,-0.23357806,0.81752324,-0.52640015,0
2.0636859,2.0636859,-1.4300004,0.63498026,0.63498026,-0.44000012,0
3.0112839,-0.83069909,0.8969996,0.9265489,-0.25559971,0.27599987,0
0,2.3829393,2.21,0,0.73321211,0.68000001,0
1.5889595,1.3445044,2.4960001,0.48891062,0.41369364,0.76800001,0
-3.1862998,-0.6372599,-0.062399864,-0.98039997,-0.19607997,-0.019199958,0
1.4191332,-2.8382666,0.70200008,0.43665636,-0.87331283,0.21600002,0
0.5750882,1.4377204,-2.8573997,0.17695022,0.44237551,-0.87919992,0
1.8015732,-2.6204696,-0.67080021,0.55433023,-0.80629832,-0.20640007,0
-1.6313006,-2.8094621,-0.091000102,-0.50193864,-0.86444986,-0.028000031,0
1.8368279,2.3770714,1.2401996,0.5651778,0.73140657,0.38159987,0
1.6093202,0.99035066,2.6442001,0.49517542,0.30472329,0.8136,0
0.33909816,-1.7708465,-2.7039998,0.10433789,-0.54487586,-0.8319999,0
3.1710813,-0.081309706,-0.70719969,0.97571731,-0.025018372,-0.2175999,0
-2.4854832,-1.6333175,-1.3103998,-0.76476407,-0.50255924,-0.40319994,0
-1.0247036,-0.38426384,3.0602,-0.31529343,-0.11823503,0.94159997,0
0.25474706,-1.2227856,-3.0003998,0.078383714,-0.37624171,-0.92319995,0
-1.5889595,-1.3445044,2.4960001,-0.48891062,-0.41369364,0.76800001,0
1.9395866,-0.46381426,-2.5661995,0.59679592,-0.14271209,-0.78959984,0
1.3710115,1.1217362,2.7248001,0.4218497,0.34514958,0.83840001,0
0.32741395,2.946728,1.3312004,0.10074275,0.90668553,0.40960011,0
0.38843709,-3.2046041,0.37700024,0.11951911,-0.98603207,0.11600007,0
0.11401515,2.7363663,1.7497998,0.035081588,0.84195888,0.53839993,0
-2.1639655,1.4621388,-1.9344001,-0.6658355,0.44988886,-0.5952,0
-0.64346731,-0.64346731,3.1199999,-0.19798994,-0.19798994,0.95999998,0
1.0644134,-2.1820478,-2.1605997,0.32751182,-0.67139935,-0.66479993,0
1.7549517,2.7201755,-0.28859991,0.53998512,0.83697706,-0.088799968,0
-2.0096755,-2.3269928,1.0530001,-0.61836171,-0.71599776,0.32400003,0
-1.1977905,-2.7222509,1.3103999,-0.36855093,-0.83761567,0.40319997,0
2.8138318,0.11255317,1.6224,0.86579442,0.034631744,0.49920002,0
2.8839886,1.3922701,0.55379981,0.88738114,0.4283908,0.17039993,0
-0.88516176,2.76613,1.4585999,-0.27235746,0.8511169,0.44879997,0
0.29101419,-2.2311089,-2.3452003,0.089542829,-0.68649507,-0.72160012,0
-2.0399148,-1.0799551,2.2880001,-0.62766612,-0.33229387,0.70400006,0
-2.5939193,-1.5131195,1.2428,-0.79812902,-0.46557522,0.38240001,0
-0.59125865,-2.0466645,-2.4543996,-0.18192574,-0.62974292,-0.75519985,0
-2.7531164,0.99112165,1.4144001,-0.84711272,0.30496052,0.43520004,0
2.074106,-0.36601871,2.4751999,0.63818645,-0.11262114,0.76159996,0
0.96196461,-2.8858945,1.1440004,0.2959891,-0.88796753,0.35200012,0
0.25474668,1.2227838,-3.0004005,0.078383595,0.37624118,-0.92320019,0
-2.1890392,-0.33311462,-2.3790002,-0.67355055,-0.10249681,-0.73200005,0
0.50779295,1.269482,2.9483998,0.15624398,0.39060986,0.90719992,0
-0.38291568,-1.148747,3.016,-0.11782021,-0.35346061,0.92800003,0
-2.7549391,-1.7099621,0.22099961,-0.84767354,-0.52614218,0.067999884,0
-1.9666727,-0.36875114,2.5610001,-0.60513008,-0.11346189,0.78800005,0
-2.5115514,-1.5348369,-1.3780003,-0.77278507,-0.47225749,-0.42400008,0
-1.5889595,-1.3445044,2.4960001,-0.48891062,-0.41369364,0.76800001,0
-0.46381402,-1.9395857,-2.5662003,-0.14271201,-0.59679562,-0.78960007,0
2.7176256,-1.4343023,-1.0582002,0.83619249,-0.44132379,-0.32560009,0
-1.7376949,-0.62060553,2.6754,-0.53467536,-0.19095555,0.82319999,0
-1.3590269,-1.3590269,2.6207998,-0.41816214,-0.41816214,0.80639994,0
2.9117723,-0.34663963,-1.4014004,0.89592993,-0.10665835,-0.43120015,0
-1.1905161,-2.9762902,0.53559977,-0.36631265,-0.91578162,0.16479993,0
-2.4745662,2.093864,0.2339998,-0.76140499,0.64426583,0.071999937,0
-3.0847003,-0.61694008,0.81639981,-0.94913858,-0.18982771,0.25119993,0
1.2526714,-2.0355909,-2.2021999,0.38543734,-0.62633568,-0.67759997,0
-2.8068249,-1.079548,1.2324002,-0.86363846,-0.33216861,0.37920004,0
1.9000201,2.0965738,-1.5990002,0.58462155,0.64509964,-0.49200007,0
1.6007431,-2.7802377,-0.51999968,0.49253634,-0.85545772,-0.15999991,0
-2.5593495,1.6087343,-1.1934003,-0.78749216,0.49499515,-0.36720008,0
0.23282683,-3.1043608,-0.93340009,0.071639024,-0.95518792,-0.28720003,0
-1.2661974,2.6730833,-1.3468,-0.3895992,0.82248718,-0.41439998,0
1.0407079,2.4283192,1.8928003,0.32021782,0.74717516,0.58240008,0
-2.5676365,0.11671064,1.989,-0.79004198,0.035910968,0.61199999,0
-2.5236614,-1.7071826,-1.1309999,-0.77651119,-0.52528697,-0.34799999,0
-1.0213205,0.63832527,3.0186,-0.31425244,0.19640778,0.92879999,0
-2.3059859,2.2057259,0.61619979,-0.70953411,0.67868489,0.18959993,0
1.6287252,0.37585929,2.7872,0.5011462,0.11564901,0.85759997,0
3.0816417,-1.0272141,0.1040002,0.94819742,-0.31606585,0.032000061,0
0.9682157,-0.54039949,-3.0550003,0.29791254,-0.16627677,-0.94000012,0
0.22183937,-2.8839145,1.4820001,0.068258271,-0.88735831,0.45600003,0
-0.90831971,2.611419,1.7081997,-0.27948299,0.80351353,0.5255999,0
2.9723446,0.74308616,1.0842005,0.91456759,0.2286419,0.33360016,0
-0.47919056,-2.2761555,2.2697999,-0.14744326,-0.70035559,0.69840002,0
-2.2146676,2.0003448,-1.2869996,-0.68143618,0.61549067,-0.39599988,0
-2.2146676,2.0003448,-1.2869996,-0.68143618,0.61549067,-0.39599988,0
-0.12973961,-0.38921922,3.224,-0.039919879,-0.11975976,0.99199998,0
1.7097844,-1.8200929,-2.0799997,0.52608752,-0.56002861,-0.63999993,0
-2.1519692,-2.4326608,0.11700026,-0.66214442,-0.74851108,0.036000084,0
2.2057259,-2.3059859,0.61619979,0.67868489,-0.70953411,0.18959993,0
-1.0257586,0.25643939,3.0732,-0.31561804,0.078904428,0.94559997,0
0.85268497,-1.9489944,2.457,0.2623646,-0.59969056,0.75599998,0
-0.24911204,-1.9513775,-2.5869999,-0.07664986,-0.60042387,-0.79599994,0
-3.2045336,-0.16865975,-0.51479989,-0.98601031,-0.051895306,-0.15839997,0
-1.9570228,-2.5526388,-0.46540007,-0.60216087,-0.78542733,-0.14320002,0
-2.1564925,-2.1564925,-1.1232007,-0.66353613,-0.66353613,-0.34560019,0
-1.0644132,2.1820474,-2.1606004,-0.32751176,0.67139918,-0.66480011,0
-2.3829393,0,2.21,-0.73321211,0,0.68000001,0
2.2847166,0,2.3113999,0.7029897,0,0.7112,0
2.7019994,1.8013327,-0.13000005,0.83138442,0.5542562,-0.040000018,0
-0.12617357,1.5140843,2.8729999,-0.038822636,0.46587211,0.88399994,0
1.9259667,1.3177667,-2.2619998,0.59260517,0.40546668,-0.69599998,0
-0.94221938,-2.9836946,-0.87879992,-0.28991365,-0.91805989,-0.27039999,0
0.60292548,-2.1705315,2.3425999,0.18551554,-0.66785586,0.72079998,0
1.8720003,1.1232003,-2.4075997,0.57600009,0.3456001,-0.7407999,0
-1.8454049,0.73816198,2.5713999,-0.56781685,0.22712676,0.79119998,0
-2.858449,0.6596421,1.3988001,-0.87952274,0.20296679,0.43040004,0
2.6409447,1.8863891,0.17160054,0.81259835,0.58042741,0.052800164,0
1.3520876,-1.4750046,2.5609999,0.41602695,-0.45384756,0.78799999,0
-1.2606648,-0.88246536,2.8626001,-0.38789687,-0.2715278,0.88080001,0
0.23282686,3.1043611,-0.93339944,0.071639031,0.95518804,-0.28719983,0
0.89705634,2.6911697,1.586,0.27601734,0.82805222,0.48799998,0
-2.2335119,2.3306212,0.377,-0.68723446,0.71711421,0.116,0
-1.9938118,2.1045792,1.469,-0.61348057,0.64756286,0.45199999,0
0.64979202,2.9240637,1.2610003,0.199936,0.89971191,0.38800007,0
-1.061545,2.0725403,-2.2672007,-0.32662922,0.63770473,-0.69760025,0
-2.7500823,-1.3750411,1.0530002,-0.84617913,-0.42308956,0.32400006,0
-0.34727272,3.2122734,-0.35100007,-0.10685314,0.98839182,-0.10800003,0
-2.9762902,-1.1905161,0.53559977,-0.91578162,-0.36631265,0.16479993,0
-2.0299988,-2.4359989,0.71240002,-0.62461501,-0.74953812,0.2192,0
1.1854972,1.4621131,-2.6494002,0.36476836,0.44988096,-0.81520009,0
-1.7664087,-2.3184116,1.4377999,-0.54351038,-0.71335739,0.44239998,0
-2.7222509,1.1977905,1.3103999,-0.83761567,0.36855093,0.40319997,0
-2.1890392,0.33311462,-2.3790002,-0.67355055,0.10249681,-0.73200005,0
3.1815491,0.57846355,0.32500029,0.97893816,0.17798878,0.10000009,0
3.062619,-1.0527754,0.27300003,0.94234431,-0.32393089,0.084000006,0
-1.882601,1.6472758,2.0748003,-0.57926184,0.50685412,0.63840008,0
-1.8013327,-2.7019994,-0.13000005,-0.5542562,-0.83138442,-0.040000018,0
1.7549517,2.7201755,-0.28859991,0.53998512,0.83697706,-0.088799968,0
-1.9651082,2.4367342,-0.87360007,-0.60464865,0.74976438,-0.26880002,0
3.1602998,0.70228869,-0.28600019,0.97239995,0.21608883,-0.088000059,0
2.1583884,0.83937317,2.2802,0.66411948,0.25826865,0.70160002,0
0.22066334,-1.5131202,-2.8677998,0.067896411,-0.46557543,-0.88239992,0
-1.0527754,3.062619,0.27300003,-0.32393089,0.94234431,0.084000006,0
-3.1811719,-0.6549471,0.11699996,-0.97882211,-0.20152219,0.035999987,0
0.0011355032,-0.00085162744,-3.2499998,0.00034938561,-0.00026203922,-0.99999994,0
0.57754534,-3.1352465,-0.63179988,0.17770626,-0.96469122,-0.19439997,0
0.38733855,-0.64556503,3.1616001,0.11918109,-0.1986354,0.97280002,0
-3.007021,-0.60140431,-1.0764002,-0.92523724,-0.18504748,-0.33120006,0
0.31338337,1.8411278,-2.6598005,0.096425653,0.56650084,-0.81840014,0
0.44654948,-2.7430899,-1.6848001,0.13739984,-0.84402764,-0.51840007,0
2.9580297,-0.50502938,-1.2480005,0.91016299,-0.15539366,-0.38400015,0
1.0709033,-2.784349,-1.2895995,0.32950872,-0.85672277,-0.39679986,0
0.34133324,2.7306685,1.729,0.10502561,0.84020573,0.53200001,0
0.91141027,2.3924518,-2.0020006,0.28043392,0.736139,-0.61600018,0
-2.392452,-0.91141021,-2.0020003,-0.73613906,-0.28043392,-0.61600012,0
3.0603611,-1.0492667,-0.30940047,0.94164956,-0.3228513,-0.095200144,0
-2.2980971,2.2980971,0,-0.70710677,0.70710677,0,0
2.6485054,1.7317153,0.741,0.81492478,0.53283548,0.228,0
-0.36601871,-2.0741057,2.4752002,-0.11262114,-0.6381864,0.76160008,0
2.9951932,-0.92954272,0.85279965,0.9215979,-0.28601316,0.26239988,0
-0.5550254,3.0922844,-0.83199966,-0.17077705,0.95147216,-0.25599989,0
-1.1802484,-2.7896776,1.1778001,-0.36315334,-0.85836232,0.36240003,0
1.7292788,-0.072053321,-2.7508004,0.53208578,-0.022170253,-0.84640014,0
3.1290543,-0.85337853,0.20800027,0.96278596,-0.26257801,0.064000085,0
-2.4030077,2.1026316,0.60580009,-0.73938698,0.64696354,0.18640003,0
-1.0882888,-1.9347354,2.3738,-0.33485809,-0.59530318,0.73040003,0
-1.0556898,2.6392243,-1.5755994,-0.32482764,0.812069,-0.48479983,0
1.1185684,-2.72651,-1.3701999,0.34417489,-0.8389262,-0.42159998,0
2.8839886,1.3922701,0.55379981,0.88738114,0.4283908,0.17039993,0
-1.1666555,-2.121192,-2.1684,-0.35897094,-0.65267444,-0.66720003,0
1.7162126,1.1032794,2.5298002,0.52806544,0.33947057,0.77840006,0
0.25554153,1.1499376,3.029,0.078628168,0.35382697,0.93200004,0
-1.7471999,0,2.7404001,-0.53759998,0,0.84320003,0
2.0725408,1.061545,-2.2672002,0.63770485,0.32662922,-0.69760007,0
2.4684994,-0.88160694,-1.9214004,0.75953829,-0.27126366,-0.59120011,0
3.2407975,0,0.24440046,0.99716848,0,0.07520014,0
-2.4355493,-2.0296242,-0.71500021,-0.74939978,-0.62449974,-0.22000006,0
-1.3960668,-2.6847439,1.1856,-0.42955902,-0.82607502,0.36480001,0
1.7317153,-2.6485054,0.741,0.53283548,-0.81492478,0.228,0
-1.882601,-1.6472758,2.0748003,-0.57926184,-0.50685412,0.63840008,0
-2.9427407,1.3794096,0.002600305,-0.90545869,0.42443371,0.00080009387,0
1.747169,-2.2847595,-1.5131999,0.53759044,-0.70300293,-0.46559998,0
-1.9511005,-1.046932,-2.3789999,-0.60033858,-0.32213292,-0.73199999,0
-1.046932,-1.9511005,-2.3789999,-0.32213292,-0.60033858,-0.73199999,0
-1.7409034,-2.1922488,-1.6509998,-0.53566259,-0.67453808,-0.50799996,0
-1.3843702,0.75511092,2.8418,-0.42596006,0.23234183,0.87440002,0
-0.64848119,0.17563032,-3.1797998,-0.19953267,0.054040097,-0.97839993,0
-2.1286287,-0.56763434,-2.3893998,-0.65496266,-0.17465672,-0.73519993,0
1.673851,-2.615392,0.95939976,0.5150311,-0.80473602,0.29519993,0
-3.2105148,0.47213462,0.17939991,-0.98785073,0.1452722,0.055199973,0
2.1534529,-2.2303622,-0.9749999,0.66260087,-0.68626529,-0.29999998,0
1.1910568,0.35478285,-3.0030005,0.36647904,0.10916395,-0.92400014,0
0.6549471,-3.1811719,0.11699996,0.20152219,-0.97882211,0.035999987,0
-1.0644134,-2.1820478,-2.1605997,-0.32751182,-0.67139935,-0.66479993,0
0.73007709,-2.0077116,-2.4492002,0.2246391,-0.61775744,-0.75360006,0
2.322973,2.236937,-0.40299961,0.7147609,0.68828833,-0.12399988,0
3.1810231,0.61853218,-0.24700025,0.97877634,0.1903176,-0.07600008,0
-1.5889595,1.3445044,2.4960001,-0.48891062,0.41369364,0.76800001,0
-1.4672341,-2.3603332,-1.6847999,-0.45145667,-0.72625637,-0.51839995,0
0.81596094,-2.4478831,1.976,0.2510649,-0.75319481,0.60799998,0
-2.4748504,1.3499185,1.6172,-0.76149243,0.41535953,0.49760002,0
-3.1043608,-0.41391468,0.86839986,-0.95518792,-0.12735836,0.26719996,0
1.1216161,2.9569879,0.74879962,0.34511262,0.90984237,0.23039986,0
1.4881452,1.1161085,2.6650002,0.45789084,0.343418,0.82000005,0
-0.60478932,-3.1247447,0.65779996,-0.18608902,-0.96145988,0.20239998,0
-2.2335119,2.3306212,0.377,-0.68723446,0.71711421,0.116,0
-2.1507642,0.95589501,2.2412,-0.66177362,0.29412153,0.68959999,0
-2.6753724,1.8450841,0.0233998,-0.82319152,0.56771815,0.0071999384,0
-1.2280647,2.5207641,-1.6431997,-0.37786606,0.77561975,-0.50559992,0
-3.1118081,0.65511733,-0.67079985,-0.95747942,0.20157456,-0.20639995,0
0.42880321,-3.0016208,1.17,0.13193944,-0.92357564,0.35999998,0
-1.203887,-1.9262192,2.3243999,-0.37042677,-0.59268284,0.71520001,0
3.1179018,0.91703027,-0.015599661,0.9593544,0.28216317,-0.0047998955,0
2.6179495,1.8578998,-0.50700039,0.80552292,0.57166147,-0.15600012,0
-3.0572839,0.90892231,-0.62400019,-0.94070274,0.27966839,-0.19200006,0
-2.1507642,1.5533296,-1.8772001,-0.66177362,0.47794756,-0.57760006,0
-3.0569632,0.81519002,0.74359989,-0.94060409,0.2508277,0.22879997,0
-0.38859347,-0.38859347,3.2032001,-0.11956722,-0.11956722,0.98560005,0
2.592397,-1.6774335,-1.0139996,0.79766059,-0.51613337,-0.31199986,0
2.8819072,1.2808478,-0.78520048,0.88674068,0.39410701,-0.24160014,0
-1.5115105,0.37787724,2.8522,-0.46508014,0.11626992,0.87760001,0
-2.249891,2.0356157,1.1647999,-0.69227415,0.62634331,0.35839999,0
2.5580618,-0.46510223,-1.95,0.78709596,-0.14310838,-0.60000002,0
3.0673997,-0.2115449,1.0529996,0.94381529,-0.065090738,0.32399988,0
1.3339493,-2.9537454,0.24180007,0.41044596,-0.90884471,0.074400023,0
-1.5488298,-2.7715902,-0.69420004,-0.47656301,-0.85279697,-0.21360001,0
-2.5856447,-1.8895097,0.55380017,-0.79558301,-0.58138758,0.17040005,0
0,-1.5144057,2.8755999,0,-0.46597099,0.88479996,0
2.3847754,0.77643842,-2.0670002,0.73377705,0.23890413,-0.63600004,0
1.8692249,1.7523978,1.9994,0.57514614,0.53919929,0.61519998,0
-2.8110607,1.5059251,0.62660015,-0.86494172,0.46336156,0.19280005,0
1.8338294,0.97804224,2.4986002,0.56425518,0.30093607,0.76880008,0
-0.63832533,1.02132,3.0186,-0.19640779,0.31425232,0.92879999,0
-1.8031334,2.4793081,-1.0789999,-0.55481029,0.76286405,-0.33199996,0
2.7275574,1.4686847,0.98280025,0.83924842,0.45190299,0.30240008,0
-0.67176169,-2.2736552,-2.2229998,-0.2066959,-0.69958621,-0.68399996,0
2.7511513,-1.493482,-0.87360042,0.84650809,-0.45953292,-0.26880014,0
-0.24780619,1.8585452,2.6546001,-0.076248057,0.57186007,0.81680006,0
-2.0824685,1.6196976,1.898,-0.64075953,0.49836847,0.58399999,0
2.8712995,1.43565,-0.50699967,0.88347679,0.44173846,-0.1559999,0
1.6196976,2.0824685,1.898,0.49836847,0.64075953,0.58399999,0
-1.826766,-1.0960597,2.4543998,-0.56208187,-0.33724913,0.75519997,0
-2.2654088,-0.71539229,2.2177999,-0.69704884,-0.2201207,0.68239999,0
0,2.0845749,-2.4934008,0,0.64140767,-0.76720023,0
-1.5565295,-1.0117441,-2.6675999,-0.47893217,-0.31130588,-0.82079995,0
-2.2522423,1.5640571,-1.7446003,-0.69299763,0.48124835,-0.53680009,0
3.1066234,0.9414013,0.15860017,0.9558841,0.28966194,0.048800051,0
-0.87851524,1.3805243,2.8079998,-0.27031237,0.4247767,0.86399996,0
2.4960001,-1.872,0.90999979,0.76800001,-0.57599998,0.27999994,0
2.0399151,1.0799546,2.2879999,0.62766623,0.33229375,0.704,0
1.6339504,1.9840831,1.989,0.50275397,0.6104871,0.61199999,0
-2.8839145,-0.2218397,1.4820001,-0.88735831,-0.068258367,0.45600003,0
3.0816417,1.0272141,0.1040002,0.94819742,0.31606585,0.032000061,0
-2.477541,0,2.1034,-0.76232022,0,0.64719993,0
-1.0293341,-2.51615,1.781,-0.31671816,-0.77420002,0.54799998,0
-1.6504881,2.420716,1.4065996,-0.50784248,0.74483573,0.43279988,0
-2.6847439,-1.3960668,1.1856,-0.82607502,-0.42955902,0.36480001,0
-2.8552618,-1.4768595,0.47839963,-0.87854207,-0.4544183,0.14719988,0
1.4402781,-1.8003476,2.2905998,0.44316247,-0.55395311,0.70479995,0
1.5063494,-0.62764573,2.8106,0.46349213,-0.19312176,0.86480004,0
-0.38859347,-0.38859347,3.2032001,-0.11956722,-0.11956722,0.98560005,0
0.29470757,3.020751,-1.1622006,0.090679251,0.92946184,-0.35760018,0
2.2507277,2.3407567,-0.13259988,0.69253159,0.72023284,-0.04079996,0
-1.2412106,-1.3653319,2.6754,-0.38191095,-0.42010212,0.82319999,0
-1.1216161,2.9569879,0.74879962,-0.34511262,0.90984237,0.23039986,0
2.9408689,0.43568453,1.3130002,0.90488273,0.13405678,0.40400007,0
3.0112839,0.83069879,0.89699972,0.9265489,0.25559962,0.2759999,0
0.61694008,-3.0847003,0.81639981,0.18982771,-0.94913858,0.25119993,0
-1.3843702,-0.75511092,2.8418,-0.42596006,-0.23234183,0.87440002,0
-0.74292701,1.7334961,2.6468,-0.22859293,0.53338343,0.81440002,0
2.9216807,1.4137162,0.16640015,0.89897865,0.4349896,0.051200047,0
0.1745681,-3.2295129,-0.31980008,0.053713262,-0.99369627,-0.098400027,0
1.2713444,-0.38140327,2.9665999,0.3911829,-0.11735485,0.91279995,0
-0.83937317,2.1583884,2.2802,-0.25826865,0.66411948,0.70160002,0
-1.8402473,-2.560344,-0.78779978,-0.56622994,-0.78779817,-0.24239993,0
-3.0569632,-0.45854449,-1.0036001,-0.94060409,-0.14109062,-0.30880004,0
3.2090995,-0.08444991,-0.50699991,0.98741525,-0.025984587,-0.15599997,0
-2.7602084,1.5334489,0.76960045,-0.8492949,0.47183043,0.23680013,0
0.7718454,0.51456386,3.1148,0.23749089,0.15832734,0.95840001,0
1.3177667,-1.9259667,-2.2619998,0.40546668,-0.59260517,-0.69599998,0
-1.6497692,-2.4059134,-1.4326,-0.50762129,-0.74028105,-0.44080001,0
-2.0016689,0.95317554,-2.3764002,-0.61589813,0.29328477,-0.7312001,0
3.0112839,-0.83069909,0.8969996,0.9265489,-0.25559971,0.27599987,0
2.6009605,-1.4059246,-1.3493999,0.80029553,-0.43259218,-0.41519997,0
-1.5889595,-1.3445044,2.4960001,-0.48891062,-0.41369364,0.76800001,0
-0.82424092,-2.3549743,2.0826001,-0.25361258,-0.72460747,0.64080006,0
3.0037751,0.36631411,-1.1856006,0.9242385,0.11271203,-0.36480018,0
-2.3184116,-1.7664087,1.4377999,-0.71335739,-0.54351038,0.44239998,0
-2.9240637,0.64979202,1.2610003,-0.89971191,0.199936,0.38800007,0
-1.6087341,-2.5593498,-1.1933999,-0.49499512,-0.78749222,-0.36719996,0
1.4946722,-2.8232696,-0.59800011,0.45989913,-0.86869836,-0.18400003,0
-1.8368276,2.3770714,1.2401998,-0.56517774,0.73140657,0.38159993,0
-1.3528447,-2.8097544,0.91520029,-0.41625991,-0.8645398,0.28160009,0
-2.8672283,-0.55139017,1.4274001,-0.88222408,-0.16965851,0.43920004,0
-0.64346731,0.64346731,3.1199999,-0.19798994,0.19798994,0.95999998,0
-1.2964984,-2.1215427,2.0929999,-0.39892259,-0.65278238,0.64399999,0
2.6279941,-1.5767964,-1.0816005,0.80861354,-0.48516813,-0.33280018,0
1.8588071,2.6554391,-0.23659995,0.57194066,0.81705821,-0.072799988,0
0.8085705,-3.1444418,-0.14559977,0.24879092,-0.96752059,-0.044799928,0
-1.1242558,2.8481145,-1.0893999,-0.34592485,0.87634289,-0.33519998,0
-0.081309706,-3.1710813,-0.70719969,-0.025018372,-0.97571731,-0.2175999,0
2.2943263,0.19950674,-2.2931995,0.70594656,0.06138669,-0.70559984,0
-1.5595125,-2.7031548,0.90740007,-0.47984999,-0.83173996,0.27920002,0
2.6569505,-0.75912869,-1.7108004,0.81752324,-0.23357806,-0.52640015,0
-0.45427877,-2.7256732,1.7107999,-0.13977808,-0.8386687,0.52639997,0
-3.0338781,-0.53092861,-1.0374001,-0.93350095,-0.16336265,-0.31920004,0
-1.8564984,-0.37129968,2.6415999,-0.57123029,-0.11424606,0.81279999,0
1.1766258,-2.7944858,-1.1700001,0.36203873,-0.85984176,-0.36000001,0
-0.4015297,-3.1319308,-0.76959974,-0.1235476,-0.96367103,-0.23679993,0
1.9840831,-1.6339504,1.989,0.6104871,-0.50275397,0.61199999,0
1.3794096,-2.9427407,0.002600305,0.42443371,-0.90545869,0.00080009387,0
-1.3750411,-2.7500823,1.0530002,-0.42308956,-0.84617913,0.32400006,0
-1.8127388,2.4525294,1.1231999,-0.55776578,0.75462443,0.34559998,0
1.2687893,2.9907179,-0.090999611,0.39039671,0.92022091,-0.02799988,0
-1.1130307,-2.9415815,-0.81900001,-0.34247097,-0.90510201,-0.252,0
2.3519559,1.2664376,-1.8511995,0.72367871,0.38967311,-0.56959987,0
-0.96196491,-2.8858948,-1.1439997,-0.29598922,-0.88796765,-0.35199991,0
-2.4359989,-2.0299988,0.71240002,-0.74953812,-0.62461501,0.2192,0
-2.6635604,-1.1610391,-1.4559996,-0.81955707,-0.35724279,-0.44799989,0
-0.43652129,2.9828956,-1.2142006,-0.13431424,0.91781402,-0.37360018,0
-1.1231999,-2.4959998,-1.7524002,-0.34559998,-0.76799995,-0.53920007,0
1.2847738,2.2191544,1.9967999,0.39531502,0.68281674,0.61439997,0
-2.1440148,-2.1440148,1.1700002,-0.65969688,-0.65969688,0.36000007,0
-2.6564164,1.6407276,-0.9021998,-0.81735891,0.5048393,-0.27759993,0
0.38859311,0.38859311,3.2032001,0.11956711,0.11956711,0.98560005,0
-1.5581962,2.8242309,0.3977997,-0.47944498,0.86899412,0.12239991,0
-1.7658001,-1.7658001,2.0799999,-0.5433231,-0.5433231,0.63999999,0
2.7323945,1.6191971,0.68900007,0.84073675,0.49821451,0.21200003,0
-1.0007807,1.3760734,2.7689998,-0.30793253,0.4234072,0.85199994,0
1.1701564,-1.241075,-2.7663996,0.36004812,-0.38186926,-0.85119987,0
0.10938545,2.9534099,1.3520002,0.033657063,0.90874153,0.41600007,0
-2.8664784,-1.5228167,-0.16379976,-0.88199335,-0.46855897,-0.050399926,0
1.2038873,-1.9262192,2.3243999,0.37042686,-0.59268284,0.71520001,0
-1.5080986,0.49177119,-2.8366001,-0.46403033,0.15131421,-0.87279999,0
-1.3590269,-1.3590269,2.6207998,-0.41816214,-0.41816214,0.80639994,0
-2.5081687,2.0602815,-0.16380024,-0.77174419,0.63393277,-0.050400075,0
2.3382573,1.6701837,1.5184004,0.71946377,0.51390266,0.46720013,0
-1.6075382,2.5720611,1.1673999,-0.49462715,0.79140341,0.35919997,0
-3.1811719,0.6549471,0.11699996,-0.97882211,0.20152219,0.035999987,0
-0.54039949,0.9682157,-3.0550003,-0.16627677,0.29791254,-0.94000012,0
-2.054862,-2.3709948,-0.84760004,-0.63226521,-0.72953689,-0.2608,0
2.7707753,-1.2788196,1.1180001,0.85254627,-0.39348295,0.34400004,0
1.8127391,-2.452529,1.1231999,0.5577659,-0.75462431,0.34559998,0
1.3879081,2.8574579,-0.68640059,0.42704865,0.8792178,-0.21120018,0
1.0265887,2.9771068,0.80339956,0.31587344,0.91603285,0.24719986,0
1.7005073,-2.672226,-0.72799951,0.523233,-0.82222337,-0.22399984,0
0.35846072,2.6287119,-1.8772,0.11029561,0.80883443,-0.5776,0
-0.49746355,1.7411226,2.6988001,-0.15306571,0.53573,0.83040005,0
-0.45033365,1.0132507,-3.0549996,-0.1385642,0.31176946,-0.93999988,0
-0.7718454,-0.5145635,3.1148,-0.23749089,-0.15832724,0.95840001,0
0.32226336,-3.0077944,1.1882,0.099157959,-0.92547518,0.36559999,0
1.0112958,0.66597521,-3.0160003,0.31116793,0.20491545,-0.92800009,0
-1.0232248,-0.51161224,3.0420001,-0.31483841,-0.15741915,0.93599999,0
-2.1962507,2.1962504,0.95680016,-0.67576945,0.67576939,0.29440004,0
-0.35478285,1.1910568,-3.0030005,-0.10916395,0.36647904,-0.92400014,0
1.5786082,0.19732602,-2.8340006,0.48572558,0.060715698,-0.87200016,0
-1.1185683,-2.7265103,-1.3701997,-0.34417486,-0.83892626,-0.42159989,0
-0.71806616,-2.1063273,-2.3685999,-0.22094345,-0.64810073,-0.7288,0
2.7862492,-1.6717495,0.067599744,0.85730743,-0.51438445,0.020799922,0
1.3023249,2.6046498,-1.4429998,0.40071538,0.80143076,-0.44399998,0
1.0165973,-1.4159749,-2.7429993,0.31279916,-0.43568456,-0.8439998,0
1.9970978,-2.4963725,0.5850001,0.61449164,-0.76811463,0.18000004,0
2.1469688,2.4046049,-0.41339958,0.66060585,0.73987848,-0.12719987,0
-0.42168131,-2.3719571,-2.1813998,-0.12974809,-0.72983295,-0.67119992,0
-2.632659,-1.3163295,1.3779999,-0.81004894,-0.40502447,0.42399997,0
0.503488,2.2656953,-2.2749999,0.15491939,0.697137,-0.69999993,0
0.77042526,0.64202118,3.0913999,0.23705393,0.19754498,0.95119995,0
-1.1099595,-1.6032747,2.5999999,-0.341526,-0.49331528,0.79999995,0
-2.4359989,-2.0299988,0.71240002,-0.74953812,-0.62461501,0.2192,0
2.1507642,1.5533296,-1.8772001,0.66177362,0.47794756,-0.57760006,0
1.783319,-1.4365625,-2.3062005,0.54871356,-0.44201925,-0.70960015,0
-1.1216161,-2.9569879,0.74879962,-0.34511262,-0.90984237,0.23039986,0
2.6314495,1.905532,-0.08320009,0.80967677,0.58631754,-0.025600027,0
0.83160567,3.1416221,0.033800587,0.25587866,0.96665293,0.010400181,0
-2.4399295,-1.2512459,-1.7445996,-0.75074756,-0.38499874,-0.53679985,0
0.43815979,-2.0155346,-2.5116003,0.1348184,-0.62016451,-0.77280009,0
2.0031817,1.1518296,-2.2853997,0.61636358,0.3544091,-0.70319992,0
1.0807998,3.0622659,-0.12999956,0.3325538,0.94223565,-0.039999865,0
1.596491,-1.22807,2.5506001,0.49122798,-0.3778677,0.78479999,0
-3.2464495,-0.090179063,-0.12220027,-0.99890751,-0.027747404,-0.037600081,0
2.1811011,0.24234432,2.3971999,0.67110801,0.074567482,0.73759997,0
-2.9265237,1.0451874,0.95159984,-0.90046883,0.32159612,0.29279995,0
-2.0830171,-2.0830171,1.3728,-0.64092833,-0.64092833,0.4224,0
1.2661974,-2.6730833,-1.3468,0.3895992,-0.82248718,-0.41439998,0
2.1074729,2.4739897,-0.020799961,0.64845318,0.76122761,-0.0063999882,0
-2.055181,-0.84625101,2.3712001,-0.63236338,-0.26038492,0.72960001,0
2.2388523,-2.238852,0.73319972,0.68887764,-0.68887752,0.22559991,0
-1.7380179,-1.9697534,1.9136001,-0.53477472,-0.60607797,0.58880001,0
-3.2480755,-0.09280207,0.062400114,-0.99940783,-0.028554482,0.019200034,0
-2.1484296,1.8229098,-1.6197993,-0.66105527,0.56089532,-0.49839976,0
-0.85337853,3.1290543,0.20800027,-0.26257801,0.96278596,0.064000085,0
2.9569879,1.1216161,0.74879962,0.90984237,0.34511262,0.23039986,0
-2.9771068,1.0265887,0.80339956,-0.91603285,0.31587344,0.24719986,0
-0.76662534,0.89439613,3.029,-0.23588473,0.27519882,0.93200004,0
1.7797716,-2.7164936,0.1247997,0.54762203,-0.83584416,0.038399909,0
-0.91199982,-3.0399995,0.69939977,-0.28061533,-0.93538445,0.21519993,0
0.45984021,-2.6440797,1.8330001,0.1414893,-0.81356299,0.56400001,0
-2.0164256,1.6131405,-1.9733995,-0.62043864,0.49635091,-0.60719985,0
0.72502249,1.7722771,-2.6259999,0.22308384,0.54531604,-0.80799997,0
-1.0272141,3.0816417,0.1040002,-0.31606585,0.94819742,0.032000061,0
-2.9415815,-1.1130307,-0.81900001,-0.90510201,-0.34247097,-0.252,0
-0.47703436,2.8622067,-1.4638003,-0.14677981,0.88067901,-0.45040008,0
-0.10767256,3.0148342,1.2090005,-0.033130016,0.92764127,0.37200016,0
3.1200001,0,-0.90999949,0.96000004,0,-0.27999985,0
-1.5348369,2.5115514,-1.3780003,-0.47225749,0.77278507,-0.42400008,0
0,-2.5682735,1.9916,0,-0.79023802,0.6128,0
1.6407276,-2.6564164,-0.9021998,0.5048393,-0.81735891,-0.27759993,0
2.1886506,1.9150691,-1.4507995,0.67343098,0.58925205,-0.44639984,0
2.7370777,0,1.7523999,0.84217775,0,0.53919995,0
1.4549503,-2.4469616,-1.5678004,0.44767702,-0.75291127,-0.48240012,0
2.8574579,1.3879081,-0.68640059,0.8792178,0.42704865,-0.21120018,0
0.47213462,-3.2105148,0.17939991,0.1452722,-0.98785073,0.055199973,0
-0.37208173,-2.1394696,-2.4180002,-0.11448669,-0.65829837,-0.74400008,0
-0.32273525,3.1466694,-0.74619967,-0.099303156,0.96820599,-0.22959989,0
-2.5385082,-1.434809,1.4352002,-0.78107941,-0.44147968,0.44160005,0
-0.65842146,-2.5738292,-1.8720002,-0.20259121,-0.79194742,-0.57600009,0
2.4793081,-1.8031334,-1.0789999,0.76286405,-0.55481029,-0.33199996,0
2.7161326,-1.7460855,0.36920035,0.83573312,-0.53725708,0.11360011,0
2.1684685,-2.0600452,1.2714001,0.66722107,-0.63386005,0.39120004,0
-1.7162125,-1.1032797,2.5298002,-0.52806538,-0.33947068,0.77840006,0
-0.23806702,2.3806686,2.1996002,-0.073251389,0.73251343,0.67680007,0
-2.2146673,-2.0003448,-1.2870001,-0.68143612,-0.61549067,-0.39600003,0
-3.0718536,-0.71676576,0.78259987,-0.94518572,-0.22054331,0.24079996,0
3.1352465,0.57754534,-0.63179988,0.96469122,0.17770626,-0.19439997,0
-2.9026992,0.79824239,-1.2246002,-0.89313823,0.24561304,-0.37680006,0
-2.3823719,-0.11911848,2.2074001,-0.73303753,-0.036651842,0.67920005,0
-2.3640034,2.1194513,-0.69420022,-0.72738564,0.65213883,-0.21360007,0
1.6701835,-2.3382576,1.5184001,0.5139026,-0.71946388,0.46720001,0
-2.7947519,-0.5988754,-1.5470004,-0.85992366,-0.18426935,-0.47600013,0
3.0376003,-0.62846899,0.9697997,0.93464625,-0.19337508,0.2983999,0
1.1767064,1.7650596,-2.4621997,0.36206353,0.54309523,-0.75759989,0
-1.1032797,1.7162125,2.5298002,-0.33947068,0.52806538,0.77840006,0
-1.2512459,2.4399295,-1.7445996,-0.38499874,0.75074756,-0.53679985,0
0.69827306,-2.1945727,-2.2931998,0.21485326,-0.67525315,-0.7055999,0
-0.29101419,-2.2311089,-2.3452003,-0.089542829,-0.68649507,-0.72160012,0
-3.2288976,0.36901706,0.023400065,-0.99350697,0.11354371,0.0072000199,0
-2.1484294,-1.8229098,-1.6197997,-0.66105521,-0.56089532,-0.49839991,0
-2.946728,-0.32741424,1.3312002,-0.90668553,-0.10074285,0.40960008,0
-2.858449,-0.6596421,1.3988001,-0.87952274,-0.20296679,0.43040004,0
1.5533296,-2.1507642,-1.8772001,0.47794756,-0.66177362,-0.57760006,0
1.7708452,-0.33909801,-2.7040007,0.54487544,-0.10433785,-0.8320002,0
-0.76424086,1.0189875,2.99,-0.23515104,0.31353462,0.92000002,0
-1.6738508,2.615392,0.95940006,-0.51503098,0.80473602,0.29520002,0
-1.7066149,0.10666333,-2.7637997,-0.52511227,0.032819487,-0.85039991,0
2.6918163,-1.5381806,-0.97500032,0.82825118,-0.47328633,-0.3000001,0
-0.90831977,-2.6114187,1.7082001,-0.27948302,-0.80351347,0.52560002,0
-0.34943652,2.5625348,1.9681997,-0.10751893,0.78847224,0.60559994,0
2.032974,-1.9200307,1.6562001,0.62553048,-0.59077871,0.50960004,0
-2.5598779,-1.8431121,0.78259993,-0.78765476,-0.56711143,0.24079998,0
-1.1740375,2.2306712,2.0513999,-0.36124229,0.68636036,0.63119996,0
3.1723878,0.41741955,-0.56939995,0.97611934,0.12843679,-0.17519999,0
-2.5066416,0.22281271,-2.0565999,-0.77127433,0.068557754,-0.63279998,0
0.94993609,2.2165174,-2.1788003,0.29228804,0.68200541,-0.67040014,0
2.6634142,1.4915118,1.1154001,0.81951207,0.45892671,0.34320003,0
0,-3.0506976,-1.1205999,0,-0.93867618,-0.34479997,0
-0.4381597,-2.0155349,-2.5116003,-0.13481838,-0.62016457,-0.77280009,0
-2.3200538,-1.6571814,-1.5599999,-0.71386272,-0.50990194,-0.47999999,0
3.1643806,0.59866649,-0.43680006,0.97365558,0.18420507,-0.13440003,0
-1.3531193,-0.47065014,-2.9172001,-0.41634437,-0.14481543,-0.89760005,0
2.560344,1.8402474,-0.78780013,0.78779811,0.56622994,-0.24240002,0
0.84096229,-2.1271398,-2.3088002,0.25875762,-0.65450454,-0.71040004,0
0.88602406,1.1391736,2.9120002,0.27262279,0.35051495,0.89600003,0
-2.467896,-0.47007531,2.0618,-0.75935262,-0.14463855,0.63440001,0
-1.593293,0.3728984,-2.8080001,-0.49024397,0.11473797,-0.86400002,0
0.036306974,1.7427365,-2.7430005,0.011171376,0.53622663,-0.84400016,0
0.68222332,0.31837088,-3.1615994,0.20991486,0.097960271,-0.97279984,0
-0.93853897,2.3463469,2.0436001,-0.28878123,0.72195286,0.62880003,0
-1.7376949,-0.62060553,2.6754,-0.53467536,-0.19095555,0.82319999,0
-2.0096755,-2.3269928,1.0530001,-0.61836171,-0.71599776,0.32400003,0
-0.036306974,1.7427365,-2.7430005,-0.011171376,0.53622663,-0.84400016,0
0.37366769,-1.743784,2.7170002,0.11497467,-0.53654891,0.83600008,0
0.45854449,-3.0569632,-1.0036001,0.14109062,-0.94060409,-0.30880004,0
-0.78408062,1.1201152,-2.9483995,-0.24125558,0.3446508,-0.90719986,0
-0.070488222,2.9605083,-1.3390003,-0.021688683,0.91092563,-0.41200012,0
-0.11911848,-2.3823719,2.2074001,-0.036651842,-0.73303753,0.67920005,0
-1.0807997,-3.0622659,-0.1300001,-0.33255374,-0.94223565,-0.040000029,0
-0.71806616,2.1063273,-2.3685999,-0.22094345,0.64810073,-0.7288,0
-0.35932714,-1.6888376,-2.7533998,-0.1105622,-0.51964235,-0.84719998,0
0.55889791,0.47065085,-3.1667998,0.17196859,0.14481565,-0.97439992,0
-2.2507277,-2.3407567,-0.13259988,-0.69253159,-0.72023284,-0.04079996,0
-2.6305203,0.68622273,1.7810001,-0.8093909,0.21114546,0.54800004,0
0.23572673,-2.4751332,2.0929999,0.072531298,-0.76157945,0.64399999,0
0.6403079,0.89643073,3.0576,0.19701782,0.27582484,0.94080001,0
1.7897556,1.5511217,2.2256002,0.55069405,0.47726822,0.68480009,0
2.0307965,-1.194586,2.2385998,0.62486047,-0.36756495,0.68879992,0
-0.66592503,-1.4650351,-2.8235998,-0.20490001,-0.45078003,-0.86879992,0
1.2492187,-0.52744794,-2.9535997,0.38437498,-0.16229168,-0.90879989,0
-1.1240722,3.0263486,-0.37440041,-0.34586838,0.93118417,-0.11520012,0
-2.067162,1.7226347,1.8226001,-0.63604987,0.53004146,0.56080002,0
-3.1099999,-0.8638888,-0.37960023,-0.95692307,-0.26581195,-0.11680007,0
3.1790676,0.39738366,0.54600006,0.97817463,0.1222719,0.16800001,0
-0.82424092,2.3549743,2.0826001,-0.25361258,0.72460747,0.64080006,0
2.6730833,1.2661974,-1.3468,0.82248718,0.3895992,-0.41439998,0
-0.37899396,-3.2214494,0.20279996,-0.11661352,-0.99121517,0.062399987,0
2.8870819,0,1.4924002,0.8883329,0,0.45920005,0
-2.5173626,0.70251977,-1.9318002,-0.77457309,0.21615992,-0.59440005,0
-1.6319722,0.16999714,-2.8053997,-0.50214529,0.052306812,-0.86319989,0
1.5773734,1.7300223,-2.2541995,0.48534566,0.53231454,-0.69359982,0
1.2788196,2.7707753,1.1180001,0.39348295,0.85254627,0.34400004,0
2.1826067,0.12125582,2.405,0.67157131,0.037309483,0.74000001,0
1.4064246,2.109637,2.0331998,0.43274605,0.64911908,0.62559992,0
-1.1610391,2.6635604,-1.4559996,-0.35724279,0.81955707,-0.44799989,0
2.8313031,1.3370043,-0.87100041,0.87117016,0.41138595,-0.26800013,0
0.68222207,-0.31837031,-3.1615999,0.20991448,-0.0979601,-0.97279996,0
-0.12398472,-1.8597727,2.6624,-0.038149145,-0.57223773,0.81919998,0
0.11255317,-2.8138318,1.6224,0.034631744,-0.86579442,0.49920002,0
3.2442489,-0.18538573,0.054599553,0.9982304,-0.057041764,0.016799863,0
-3.0037754,-0.36631417,-1.1855999,-0.92423856,-0.11271206,-0.36479998,0
1.6032747,1.1099591,2.6000001,0.49331528,0.34152588,0.80000007,0
1.74155,-2.6123245,-0.83980006,0.53586155,-0.80379212,-0.25840002,0
-3.2378614,0.2775307,0.041600153,-0.99626505,0.085394062,0.012800047,0
2.1886504,-1.9150691,-1.4507999,0.67343086,-0.58925205,-0.44639999,0
-0.88516176,2.76613,1.4585999,-0.27235746,0.8511169,0.44879997,0
-0.2332478,-2.5657244,1.9812,-0.071768552,-0.78945363,0.60960001,0
-0.8919856,-0.8919856,2.9952002,-0.2744571,-0.2744571,0.92160004,0
0.83937317,-2.1583884,2.2802,0.25826865,-0.66411948,0.70160002,0
2.9589415,0.84541178,1.0452005,0.91044354,0.26012671,0.32160014,0
-2.7019994,-1.8013327,-0.13000005,-0.83138442,-0.5542562,-0.040000018,0
-2.3624258,-0.70872778,2.1164,-0.72690022,-0.21807009,0.6512,0
1.4694256,2.3736873,1.6640003,0.45213094,0.73036534,0.51200008,0
