0.2989819,-3.7871077,-0.62523985,0.07765764,-0.98366433,-0.16239996,0
-0.30020142,1.6511071,3.4649999,-0.077974394,0.428859,0.89999998,0
-3.3300254,-1.7839423,0.74227989,-0.86494172,-0.46336165,0.19279997,0
-0.19946422,-2.9919629,-2.4147196,-0.05180889,-0.77713323,-0.62719989,0
-0.93730205,-1.9192375,-3.2032001,-0.24345508,-0.49850327,-0.83200008,0
-1.7893177,2.0875375,-2.6950006,-0.46475786,0.54221755,-0.70000017,0
-0.7505033,-1.5010062,3.4649999,-0.19493593,-0.38987178,0.89999998,0
0.11565379,3.8165784,0.49280033,0.030039946,0.99131906,0.12800008,0
0.1336875,-3.0079715,-2.3993196,0.034724027,-0.78129131,-0.62319994,0
2.6836381,0.84746468,2.6272399,0.6970489,0.2201207,0.68239999,0
-1.5829613,-2.0146775,2.8736401,-0.4111588,-0.5232929,0.74640006,0
2.4165149,-1.2793313,2.7103996,0.62766623,-0.33229387,0.70399994,0
-0.1207893,3.7444718,0.88703996,-0.031373844,0.97259009,0.2304,0
0.57258213,2.5766184,2.8027997,0.14872263,0.66925156,0.72799993,0
3.1619616,0.66180569,-2.0943999,0.82128876,0.17189759,-0.54399997,0
3.6457858,-1.058454,0.6406399,0.94695735,-0.27492315,0.16639999,0
2.4542768,-2.7269745,-1.1673199,0.63747448,-0.70830506,-0.30319995,0
-3.4698288,0.67703962,-1.5245998,-0.9012543,0.17585446,-0.39599997,0
-3.0935266,-1.0760095,2.02356,-0.80351341,-0.27948299,0.52560002,0
-1.2161124,3.5267265,0.95171964,-0.31587335,0.91603285,0.24719991,0
3.8072386,-0.52878326,-0.21868035,0.98889315,-0.13734631,-0.056800094,0
-0.879058,-2.9076536,-2.3654401,-0.22832675,-0.75523472,-0.61440003,0
-0.74449402,-3.598388,1.1488396,-0.19337508,-0.93464625,0.2983999,0
1.6511071,-0.30020142,3.4649999,0.428859,-0.077974394,0.89999998,0
3.6886816,0.5674895,-0.94555962,0.95809913,0.14739987,-0.24559991,0
-0.87565202,-1.7115017,-3.3356402,-0.22744209,-0.44454592,-0.86640006,0
3.3861625,0.7814222,1.6570401,0.87952274,0.20296681,0.43040004,0
-0.10353556,3.8308191,-0.36960009,-0.026892353,0.99501801,-0.096000023,0
-2.2218304,-1.1109152,-2.9414005,-0.57709879,-0.28854939,-0.76400018,0
1.2757969,3.5954273,0.51743984,0.33137584,0.93387723,0.13439997,0
-0.20138106,1.9332578,-3.3233206,-0.052306771,0.50214487,-0.86320019,0
-2.0485313,2.9020858,-1.4845595,-0.53208607,0.75378853,-0.38559988,0
-3.6541834,-0.73083669,0.96711975,-0.94913858,-0.18982771,0.25119993,0
-2.4908099,2.8466399,0.71763974,-0.64696366,0.73938698,0.18639994,0
-3.6855774,-0.83222705,0.7392,-0.95729285,-0.21616288,0.192,0
-3.5557661,0.50796688,1.3859999,-0.92357564,0.13193946,0.35999998,0
-1.8500905,1.9924051,2.7258,-0.48054299,0.51750779,0.708,0
-3.2008297,-1.2003112,-1.7710001,-0.83138436,-0.31176916,-0.46000004,0
-0.74533468,-3.6335058,-1.0317997,-0.19359343,-0.94376779,-0.26799992,0
1.1978894,-0.14668034,-3.6559603,0.31114012,-0.03809879,-0.9496001,0
-3.2440677,-1.297627,1.617,-0.84261501,-0.33704597,0.42000002,0
-2.0040362,1.7177457,2.8027999,-0.52052891,0.44616771,0.72799999,0
-0.52385348,3.4050481,1.7186401,-0.13606584,0.88442808,0.44640005,0
1.1572889,3.3432798,1.5184402,0.30059454,0.86838442,0.39440006,0
0,-2.8228664,2.618,0,-0.73321205,0.68000001,0
-3.0344017,2.2513304,-0.73920029,-0.78815627,0.58476114,-0.19200008,0
3.7944987,0.65048546,-0.033880521,0.98558408,0.16895726,-0.008800135,0
-1.9294127,-0.44524914,3.30176,-0.5011462,-0.11564913,0.85760003,0
-0.83118927,2.909162,2.3808403,-0.21589333,0.7556265,0.6184001,0
-1.7382993,-1.7382993,2.9629598,-0.45150632,-0.45150632,0.76959997,0
3.5631859,-1.4475442,0.17556018,0.92550284,-0.37598553,0.045600045,0
-2.1593413,-2.4292591,2.0635998,-0.56086791,-0.63097638,0.53599995,0
-0.89851576,1.4975265,3.4311197,-0.23338072,0.38896793,0.89119995,0
1.0767233,3.6217053,-0.73920017,0.27966842,0.94070268,-0.19200005,0
1.1151985,-3.6801538,0.18788019,0.28966194,-0.95588416,0.048800051,0
-1.5854083,0.29726398,-3.4957995,-0.41179439,0.077211425,-0.90799993,0
3.7485738,-0.70918953,-0.51744008,0.97365552,-0.18420509,-0.13440003,0
-0.4892742,-3.0754383,-2.2637999,-0.12708421,-0.79881513,-0.588,0
2.2804649,-2.7872348,1.36136,0.59232855,-0.72395712,0.3536,0
-3.7682889,0.73272276,-0.29260027,-0.97877634,0.1903176,-0.076000072,0
1.1985276,-1.8438888,-3.16008,0.31130588,-0.47893217,-0.82080001,0
-2.7464259,2.0925152,1.7032396,-0.71335739,0.54351044,0.44239989,0
-0.14867169,1.9327337,3.3264,-0.038616024,0.50200874,0.86400002,0
0.42463809,3.1140125,-2.2237599,0.11029561,0.80883443,-0.5776,0
-2.1717343,-2.6543419,-1.7494394,-0.56408685,-0.68943948,-0.45439985,0
1.8685808,2.0494111,-2.6703594,0.48534569,0.5323146,-0.69359988,0
-2.2143121,-2.0759177,2.36852,-0.57514602,-0.53919941,0.61520004,0
-0.2363387,3.7814171,0.68376011,-0.061386678,0.98218632,0.17760003,0
-0.78892446,1.1979966,-3.5728002,-0.20491545,0.31116796,-0.92800009,0
3.0303195,0.5509674,2.3099995,0.78709596,0.14310841,0.5999999,0
2.0005183,-2.6673582,1.9250003,0.51961517,-0.69282031,0.50000012,0
2.1972473,2.1972473,2.2730393,0.57071358,0.57071358,0.59039986,0
-0.63327539,-3.5463414,1.3582799,-0.16448712,-0.92112768,0.35279998,0
-2.4836335,2.250793,-1.8942002,-0.64509964,0.58462155,-0.49200007,0
3.4698284,-0.67703974,-1.5246007,0.90125412,-0.17585449,-0.39600021,0
-0.13150541,-3.4191439,1.7648401,-0.03415725,-0.88808936,0.45840004,0
2.159447,2.5450628,-1.9188391,0.56089532,0.66105527,-0.49839976,0
-2.5481298,1.5027435,-2.4639997,-0.66185194,0.39032301,-0.63999999,0
1.8992639,1.3148746,3.0800002,0.49331531,0.34152588,0.80000007,0
0.52878326,3.8072386,-0.21868035,0.13734631,0.98889315,-0.056800094,0
-2.4908099,2.8466399,0.71763974,-0.64696366,0.73938698,0.18639994,0
-2.2176001,-2.9567997,-1.0779999,-0.57600003,-0.76799995,-0.28,0
0.7229805,3.1088154,-2.1529202,0.18778715,0.80748457,-0.55920005,0
0.092348576,3.6939461,-1.0810794,0.023986643,0.95946658,-0.28079984,0
3.2317684,1.9586475,-0.73611951,0.83942038,0.50873959,-0.19119988,0
-2.9117975,-2.4958265,-0.33880016,-0.756311,-0.64826661,-0.088000037,0
1.8611661,2.7917492,1.8880403,0.48341978,0.72512966,0.49040011,0
-1.6985527,-0.28309217,-3.4434397,-0.44118252,-0.073530436,-0.89439994,0
-2.2457612,-1.8607737,-2.5132802,-0.5833146,-0.48331785,-0.65280008,0
-2.5825024,-2.7811565,-0.64679986,-0.67077982,-0.72237831,-0.16799995,0
-1.1469632,-0.64016551,-3.6190002,-0.29791254,-0.16627675,-0.94000006,0
0.35390493,-3.7749894,0.66836017,0.091923364,-0.98051673,0.17360005,0
-3.277065,-2.0085237,-0.22176,-0.85118568,-0.52169442,-0.057599999,0
-1.793774,-2.4836872,2.3315599,-0.46591535,-0.64511359,0.6056,0
2.8817673,2.5492561,0.13859987,0.74851102,0.66214448,0.035999969,0
-1.7802293,-0.89011467,3.2955999,-0.46239725,-0.23119862,0.85600001,0
1.3403411,-1.3403416,3.3510401,0.34814054,-0.34814069,0.87040007,0
-0.86486048,2.3783665,-2.9013598,-0.22463909,0.61775756,-0.75359994,0
0.95342278,-3.0802891,-2.1036403,0.24764229,-0.80007511,-0.54640007,0
2.612937,-2.7317061,0.72995973,0.67868495,-0.70953411,0.18959993,0
2.9394288,2.4326305,-0.51436049,0.76348799,0.63185209,-0.13360013,0
2.6138206,-1.6508341,2.2946,0.67891443,-0.42878807,0.59599996,0
-1.5829613,-2.0146775,2.8736401,-0.4111588,-0.5232929,0.74640006,0
1.3148746,1.8992639,3.0800002,0.34152588,0.49331531,0.80000007,0
0.94631696,-3.6669788,0.69300002,0.24579662,-0.95246208,0.18000001,0
-1.0485762,3.2767999,1.7278799,-0.27235746,0.8511169,0.44879997,0
1.5060542,-0.45181617,3.5142798,0.3911829,-0.11735485,0.91279995,0
-0.49937797,3.6204913,1.2104396,-0.12970857,0.94038737,0.3143999,0
-2.6673579,-2.0005188,1.9250001,-0.69282025,-0.51961529,0.50000006,0
0.1436415,2.5855496,2.8489997,0.037309483,0.67157131,0.73999995,0
2.4245102,-0.70041406,-2.9075196,0.62974292,-0.18192573,-0.75519991,0
-3.7437396,0.8319419,-0.33880022,-0.97239995,0.21608882,-0.088000059,0
-0.41138461,3.8053083,-0.41580006,-0.10685315,0.98839182,-0.10800002,0
2.4165735,1.81243,-2.3869998,0.62768143,0.47076106,-0.62,0
1.6437913,0.74717796,3.4003198,0.4269588,0.1940722,0.88319999,0
-3.8356202,0.32876715,0.049280182,-0.99626499,0.08539407,0.012800047,0
-0.81291002,-3.1161547,2.1098001,-0.21114546,-0.80939084,0.54800004,0
1.0660874,0.26652184,-3.6898406,0.2769058,0.069226451,-0.95840019,0
-2.7795186,1.1118072,2.4208801,-0.72195292,0.28878111,0.62880003,0
1.3981403,3.3046949,1.3952401,0.36315334,0.85836232,0.36240003,0
0.16529027,-1.9834821,-3.2955997,0.042932536,-0.51519018,-0.85599995,0
3.611696,-0.088090055,-1.3305606,0.9381029,-0.022880534,-0.34560016,0
-0.71309155,-2.852366,-2.4855599,-0.18521859,-0.74087429,-0.64560002,0
3.3373828,-0.31045413,-1.8942001,0.8668527,-0.08063744,-0.49200004,0
0.79577923,-2.6934068,-2.6333997,0.20669591,-0.69958621,-0.68399996,0
-3.7101333,-0.47565824,-0.91167969,-0.96367103,-0.1235476,-0.23679993,0
-1.1118076,-2.7795184,2.4208801,-0.2887812,-0.72195286,0.62880003,0
-3.7689118,0.68525678,0.38500032,-0.97893816,0.17798878,0.10000008,0
0.5969798,-3.2087672,-2.0420401,0.1550597,-0.83344603,-0.53040004,0
-0.25059932,-3.6336887,1.2473996,-0.065090738,-0.94381529,0.32399988,0
-0.86836338,2.3156359,2.9506397,-0.22554894,0.60146391,0.76639992,0
-3.6935146,-1.0863278,-0.018480038,-0.95935446,-0.28216308,-0.00480001,0
1.6064733,2.1228399,-2.7812395,0.4172658,0.55138701,-0.72239989,0
-0.66237921,3.3118951,1.8479999,-0.17204656,0.86023253,0.47999999,0
-0.78892553,-1.1979982,-3.5727994,-0.20491573,-0.31116837,-0.92799985,0
2.905304,-2.1473982,1.3305598,0.75462443,-0.55776578,0.34559998,0
2.2600446,-1.4487466,-2.7596796,0.58702457,-0.37629783,-0.71679991,0
0.45553821,-3.644305,-1.1550002,0.11832162,-0.94657272,-0.30000007,0
-1.5724118,2.1441972,2.7843201,-0.40841866,0.55693436,0.72320002,0
2.6288445,-1.5219628,2.3654399,0.68281674,-0.39531502,0.61439997,0
-1.617396,-2.8304429,2.0481999,-0.42010286,-0.73518002,0.53200001,0
2.7068975,1.7594835,2.0974801,0.70309025,0.45700869,0.54480004,0
3.5481386,1.4609982,-0.31415933,0.92159444,0.37948006,-0.081599832,0
-1.6017038,1.7473131,3.0337999,-0.41602695,0.45384759,0.78799999,0
-1.2455506,-2.76789,2.36852,-0.32351965,-0.71893245,0.61520004,0
-1.6173931,1.4703575,3.1693196,-0.42010212,0.38191107,0.82319993,0
-2.3260994,-0.58152473,3.0122399,-0.60418165,-0.15104538,0.78240001,0
-2.9117975,-2.4958265,-0.33880016,-0.756311,-0.64826661,-0.088000037,0
1.0208235,3.2195206,-1.8480005,0.26514897,0.83623916,-0.48000014,0
-1.4970511,-3.4931192,-0.61599994,-0.38884446,-0.90730375,-0.15999998,0
0.89285392,0.14577204,-3.7422001,0.23191011,0.037862867,-0.97200006,0
-2.5602081,-2.0212171,2.04512,-0.66498911,-0.52499145,0.53119999,0
-3.1285038,2.2346454,0.20328012,-0.81259841,0.58042741,0.052800033,0
-0.1350641,-3.2415416,2.0728397,-0.035081584,-0.84195888,0.53839993,0
-2.0535262,0.88008273,3.1354401,-0.53338343,0.22859292,0.81440008,0
2.7238941,2.5360389,-0.98560005,0.70750499,0.65871143,-0.25600001,0
-0.99240083,3.5185113,-1.2073597,-0.25776646,0.91389906,-0.31359991,0
-0.4892742,-3.0754383,-2.2637999,-0.12708421,-0.79881513,-0.588,0
-1.4261431,-2.2818289,2.75352,-0.37042677,-0.59268284,0.71520001,0
2.0126524,-3.0189781,1.2874396,0.52276689,-0.78415018,0.33439991,0
1.1540755,1.4618289,-3.3695199,0.29975986,0.37969583,-0.87520003,0
0.1336875,3.0079715,-2.3993196,0.034724027,0.78129131,-0.62319994,0
3.1692872,2.185715,0.027719762,0.82319152,0.56771821,0.0071999384,0
-0.30769199,0.15384577,3.8346,-0.079920001,0.039959941,0.99599999,0
-1.9586475,3.2317684,-0.73611951,-0.50873959,0.83942038,-0.19119988,0
-2.2954948,2.2954948,-2.0697601,-0.59623241,0.59623241,-0.53760004,0
3.3791668,0,-1.8449202,0.87770569,0,-0.47920007,0
-1.6230608,-1.6722445,-3.0645998,-0.42157426,-0.43434924,-0.79599994,0
2.1341712,-3.1042485,-0.79464024,0.55433023,-0.80629832,-0.20640007,0
2.824966,2.598969,0.29567972,0.73375744,0.67505687,0.076799929,0
-1.8239087,2.2448111,2.5409997,-0.47374251,0.58306783,0.65999991,0
-3.2892323,-1.6446161,-1.1396004,-0.85434604,-0.42717302,-0.29600012,0
3.0303195,0.5509674,2.3099995,0.78709596,0.14310841,0.5999999,0
1.169297,2.9963233,-2.1159608,0.3037135,0.77826583,-0.54960024,0
1.8607732,2.2457609,-2.5132809,0.48331773,0.58331454,-0.65280026,0
-3.1619616,-0.66180593,-2.0944002,-0.82128876,-0.17189765,-0.54400003,0
-3.5671666,-1.2881434,-0.66220027,-0.9265368,-0.33458272,-0.17200008,0
3.2013898,-2.0156898,0.71456045,0.83152986,-0.52355582,0.18560012,0
-3.2330084,2.0206301,-0.53591973,-0.83974248,0.52483898,-0.13919993,0
-1.3906124,3.430177,-1.0595201,-0.36119804,0.89095509,-0.27520004,0
-0.89927548,-3.1474643,-2.0266404,-0.23357806,-0.81752318,-0.52640015,0
2.4082923,-2.274498,1.96196,0.62553048,-0.59077871,0.50959998,0
1.0533553,1.2038345,3.50196,0.27359879,0.3126843,0.90960002,0
0.12957969,-3.4986548,1.6016003,0.033657063,-0.90874153,0.4160001,0
2.0430415,1.276901,-3.0029993,0.53066015,0.3316626,-0.77999985,0
3.4508893,0.89467496,1.4537603,0.89633495,0.23238312,0.37760007,0
1.2505863,-3.1264651,-1.8664804,0.32482761,-0.81206888,-0.4848001,0
0.20138106,1.9332578,-3.3233206,0.052306771,0.50214487,-0.86320019,0
0.29340959,-1.2803326,-3.6189997,0.076210283,-0.33255392,-0.93999994,0
-1.0485762,3.2767999,1.7278799,-0.27235746,0.8511169,0.44879997,0
2.4551635,1.2575226,-2.6857603,0.63770479,0.32662925,-0.69760007,0
1.6099241,1.6099241,3.1046398,0.41816211,0.41816211,0.80639994,0
-0.1436415,-2.5855496,2.8489997,-0.037309483,-0.67157131,0.73999995,0
-2.8495476,-2.1587484,-1.4291196,-0.74014229,-0.56071389,-0.37119991,0
1.636288,-0.93502176,-3.3572004,0.42500991,-0.24286281,-0.8720001,0
0,3.1450088,2.2206798,0,0.81688541,0.57679993,0
2.185715,3.1692872,0.027719762,0.56771821,0.82319152,0.0071999384,0
-2.7068975,-1.7594835,2.0974801,-0.70309025,-0.45700869,0.54480004,0
3.4710314,-1.0680097,-1.2781997,0.90156662,-0.27740514,-0.33199993,0
-2.1065376,-1.9661015,2.5533199,-0.54715264,-0.51067573,0.66320002,0
-1.6511071,-0.30020142,3.4649999,-0.428859,-0.077974394,0.89999998,0
3.0453091,-1.2942563,-1.9681193,0.79098934,-0.33617046,-0.51119977,0
-2.366775,2.7174087,-1.3551997,-0.61474675,0.70582044,-0.35199994,0
-0.15245208,1.0671647,-3.6960001,-0.039597943,0.27718562,-0.96000004,0
3.7016206,-0.7164427,0.77923995,0.96145993,-0.18608902,0.2024,0
-2.5973916,-1.7771626,2.2176001,-0.67464721,-0.46160066,0.57600003,0
1.7905585,-0.44763961,3.3787599,0.46508014,-0.11627004,0.87760001,0
-3.1249995,-0.67934787,2.1436801,-0.81168818,-0.17645399,0.55680007,0
-1.1005561,-2.8889596,2.2945998,-0.28585875,-0.75037915,0.59599996,0
-0.93062401,-1.140765,-3.5573997,-0.24172053,-0.29630259,-0.92399997,0
-1.5016344,0,-3.5450802,-0.39003491,0,-0.92080009,0
-1.5829613,-2.0146775,2.8736401,-0.4111588,-0.5232929,0.74640006,0
-1.6346184,-2.7243638,2.17448,-0.42457622,-0.707627,0.56480002,0
3.1468315,-1.9436315,-1.0687596,0.81735885,-0.50483936,-0.2775999,0
2.0243449,1.4459611,2.9383199,0.52580386,0.37557432,0.76319999,0
1.6508341,2.6138206,2.2946,0.42878807,0.67891443,0.59599996,0
-0.38719904,-2.9039927,-2.4978795,-0.10057119,-0.75428385,-0.6487999,0
2.1089075,3.1633606,0.6067602,0.54776818,0.82165211,0.15760006,0
-1.4940311,0.0304904,-3.5481601,-0.38806003,0.0079195844,-0.92160004,0
-3.7944987,0.65048552,-0.03387988,-0.98558408,0.16895728,-0.0087999692,0
-3.1249995,-0.67934787,2.1436801,-0.81168818,-0.17645399,0.55680007,0
-2.5127962,1.3820381,-2.5687206,-0.65267432,0.35897094,-0.66720015,0
1.1522982,1.9685094,-3.1015608,0.29929826,0.51130116,-0.80560023,0
-3.4164171,-1.6493045,0.65603971,-0.88738108,-0.4283908,0.17039993,0
2.6430066,0.34474003,-2.7781594,0.68649524,0.089542866,-0.72159988,0
0.31045437,3.3373826,-1.8942002,0.0806375,0.86685264,-0.49200007,0
-2.7786446,1.8524297,-1.9157604,-0.72172588,0.4811506,-0.49760011,0
-3.2577722,1.9779333,0.54515982,-0.8461746,0.51374894,0.14159995,0
1.2042768,1.6773856,-3.2493992,0.31279919,0.43568456,-0.8439998,0
-2.2650044,2.7876978,-1.3859997,-0.58831286,0.72407734,-0.35999992,0
-3.0344019,-2.2513304,-0.73919988,-0.78815633,-0.58476114,-0.19199997,0
-3.7962232,-0.46014822,0.44660035,-0.98603201,-0.11951902,0.11600009,0
-2.9158506,-2.4493146,0.56671989,-0.7573638,-0.63618565,0.14719997,0
-0.87443799,-2.186095,3.0461199,-0.22712676,-0.56781691,0.79119998,0
0.19946402,2.9919631,-2.4147196,0.051808838,0.77713329,-0.62719989,0
-0.7505033,1.5010066,3.4649997,-0.19493593,0.38987187,0.89999992,0
-1.1259915,3.0777102,-2.0204806,-0.29246533,0.79940528,-0.52480018,0
-0.57332706,3.7839575,0.41888028,-0.14891613,0.98284614,0.10880008,0
-0.46079725,0.30719787,3.8099599,-0.1196876,0.079791658,0.9896,0
-1.7235565,-2.8987086,-1.8572401,-0.44767702,-0.75291133,-0.48240003,0
3.5714188,0.12755056,1.4322004,0.92764127,0.033130016,0.37200013,0
3.7016206,0.7164427,0.77923995,0.96145993,0.18608902,0.2024,0
-0.59643948,-2.6839778,-2.6949995,-0.15491936,-0.69713712,-0.69999987,0
-1.0025293,-2.3949308,-2.8428402,-0.26039723,-0.62206,-0.73840004,0
-0.42463809,3.1140125,-2.2237599,-0.11029561,0.80883443,-0.5776,0
-1.0671647,-0.15245208,-3.6960001,-0.27718562,-0.039597943,-0.96000004,0
3.1387722,-1.4386041,1.7032397,0.81526554,-0.37366343,0.44239992,0
1.9192381,0.93730217,-3.2031999,0.49850342,0.24345511,-0.83199996,0
0.44811577,1.7551202,-3.3972409,0.11639371,0.45587537,-0.88240027,0
2.0146775,1.5829613,2.8736401,0.5232929,0.4111588,0.74640006,0
-0.083501428,3.5070636,-1.5862004,-0.021688683,0.91092563,-0.41200009,0
2.4760017,2.8721623,-0.66528034,0.64311737,0.7460162,-0.17280009,0
2.9039927,0.38719904,-2.4978795,0.75428385,0.10057119,-0.6487999,0
-2.1228399,1.6064733,-2.7812395,-0.55138701,0.4172658,-0.72239989,0
0.052450433,2.465173,-2.9568007,0.013623489,0.64030468,-0.76800019,0
-1.7473131,1.6017038,3.0337999,-0.45384759,0.41602695,0.78799999,0
2.3339169,0.14586964,3.0584397,0.6062122,0.037888221,0.79439998,0
2.2008967,-3.101263,-0.60060042,0.57166153,-0.80552292,-0.15600011,0
-0.16529003,1.9834808,-3.2956004,-0.042932477,0.51518983,-0.85600013,0
-3.5613098,-0.91315633,-1.1426796,-0.92501557,-0.23718347,-0.2967999,0
-0.68607897,-0.94631577,-3.6682804,-0.17820233,-0.24579631,-0.9528001,0
-3.4262836,-1.7131418,0.38499972,-0.88994384,-0.44497192,0.099999927,0
1.3069617,-2.0330517,2.9968402,0.33947057,-0.52806538,0.77840006,0
2.0006213,0.42566422,-3.2617209,0.51964194,0.11056214,-0.84720027,0
2.8049028,-2.352499,-1.1919599,0.7285462,-0.61103874,-0.30959997,0
-1.2788491,3.3250079,1.4599202,-0.33216861,0.86363846,0.37920004,0
-2.2804649,-2.7872348,1.36136,-0.59232855,-0.72395712,0.3536,0
-3.803225,-0.55929792,0.21251988,-0.98785067,-0.1452722,0.05519997,0
1.132368,2.5478284,2.6549599,0.29412156,0.66177362,0.68959999,0
-1.2151295,-0.30378246,3.6405599,-0.31561807,-0.078904539,0.94559997,0
3.7444718,-0.1207893,0.88703996,0.97259009,-0.031373844,0.2304,0
0.46107462,0.15369155,3.8192,0.11975964,0.039919883,0.99200004,0
-3.7444718,0.1207893,0.88703996,-0.97259009,0.031373844,0.2304,0
0,3.7865515,0.69608015,0,0.98351991,0.18080004,0
-0.89467496,-3.4508893,1.4537603,-0.23238312,-0.89633495,0.37760007,0
-0.88008273,2.0535262,3.1354401,-0.22859292,0.53338343,0.81440008,0
0.48251897,-2.4662087,-2.91676,0.1253296,-0.64057368,-0.75760001,0
0.30552578,0.91657823,3.7268,0.079357348,0.23807228,0.96799999,0
1.9356028,-2.3503749,2.3562002,0.50275397,-0.61048698,0.61200005,0
1.7177457,2.0040362,2.8027999,0.44616771,0.52052891,0.72799999,0
2.478128,2.0408113,-2.1251988,0.64366961,0.53008085,-0.55199969,0
-3.5041277,-0.59826565,-1.4783999,-0.91016304,-0.15539367,-0.38399997,0
-0.20430404,-2.400573,-3.0029998,-0.053065985,-0.6235255,-0.77999997,0
0.68607897,-0.94631577,-3.6682804,0.17820233,-0.24579631,-0.9528001,0
-3.5724599,0,1.43528,-0.9279117,0,0.37279999,0
1.4748507,2.9497013,1.9865994,0.3830781,0.7661562,0.51599985,0
-0.68125832,-1.7031457,-3.3849196,-0.17695022,-0.44237554,-0.87919992,0
-0.39365003,3.4116335,1.7402002,-0.10224676,0.88613862,0.45200005,0
3.0238948,2.3183196,-0.55132049,0.78542721,0.60216093,-0.14320013,0
-3.3373828,-0.31045413,-1.8942001,-0.8668527,-0.08063744,-0.49200004,0
0.42644337,2.7008104,2.7104001,0.11076451,0.70150924,0.70400006,0
-3.3874397,-1.016232,-1.5215201,-0.8798545,-0.26395637,-0.39520004,0
2.6662467,-2.7728963,-0.15707985,0.69253159,-0.72023284,-0.04079996,0
2.4542768,2.7269745,-1.1673199,0.63747448,0.70830506,-0.30319995,0
2.9039927,0.38719904,-2.4978795,0.75428385,0.10057119,-0.6487999,0
-0.79329592,3.5257595,-1.3274794,-0.20605089,0.91578168,-0.34479985,0
0.95231307,3.6187887,-0.90552002,0.24735405,0.93994516,-0.23520002,0
1.8512056,3.3757277,-2.2029877e-07,0.48083264,0.8768124,-5.7220461e-08,0
-3.0489974,0.77997619,-2.2176003,-0.79194742,0.20259123,-0.57600009,0
1.6029269,0.55753988,-3.4557595,0.41634464,0.14481556,-0.89759988,0
-3.5094485,0,-1.5831203,-0.9115451,0,-0.41120011,0
1.1788114,-1.0195125,-3.5204399,0.3061848,-0.26480845,-0.91439998,0
0.94631761,-0.68608034,-3.6682796,0.24579678,-0.17820269,-0.95279992,0
1.672245,-1.6230614,-3.064599,0.43434936,-0.42157441,-0.79599977,0
2.7403345,-1.5071843,2.2453201,0.71177524,-0.39147645,0.58320004,0
1.4914899,-2.8473897,2.1190398,0.38739997,-0.73958176,0.55039996,0
2.9170606,0.69453847,2.4147203,0.75767803,0.1803996,0.62720007,0
3.2808502,-0.96024883,-1.7710006,0.85216892,-0.24941529,-0.46000019,0
3.5345304,-1.1161675,-1.0410399,0.91805989,-0.28991365,-0.27039999,0
-3.6927261,0.89823037,-0.61599994,-0.95914966,0.2333066,-0.15999998,0
-2.4762893,-2.7239182,1.1272801,-0.64319205,-0.70751125,0.29280004,0
1.7320416,-1.4043581,-3.1385202,0.44988096,-0.36476836,-0.81520009,0
-0.12957969,-3.4986548,1.6016003,-0.033657063,-0.90874153,0.4160001,0
-1.2881434,3.5671666,-0.66220027,-0.33458272,0.9265368,-0.17200008,0
3.3860936,0.82587665,-1.6354808,0.87950486,0.21451342,-0.42480022,0
3.4907391,0.38785958,1.5769603,0.90668553,0.10074275,0.40960011,0
-1.1395584,-3.4186749,1.3552003,-0.29598922,-0.88796753,0.35200009,0
0.49448162,-3.7580593,-0.6745199,0.12843679,-0.97611934,-0.17519997,0
2.2818294,-1.4261429,2.7535198,0.59268296,-0.37042674,0.71519995,0
-2.0598707,3.2524276,-0.033880193,-0.53503132,0.84478635,-0.0088000493,0
3.1456738,-2.2019715,-0.28028032,0.81705815,-0.57194066,-0.072800085,0
-0.24134323,-3.740818,0.87779993,-0.062686555,-0.97164106,0.22799999,0
-1.5016344,0,-3.5450802,-0.39003491,0,-0.92080009,0
-0.11287255,3.8376701,0.28644055,-0.029317547,0.99679744,0.074400142,0
-2.9659998,-1.3481817,2.05128,-0.77038962,-0.35017708,0.53280002,0
-0.90815616,1.0595154,3.5881999,-0.23588473,0.27519879,0.93199998,0
-0.73952091,-1.9227538,3.25248,-0.19208336,-0.49941659,0.84480006,0
3.7347207,0.36142424,0.8624,0.97005737,0.093876429,0.22400001,0
-1.1291465,2.3712077,-2.8151202,-0.2932848,0.61589813,-0.7312001,0
0,2.4694195,-2.9537208,0,0.64140767,-0.76720023,0
-1.9324638,3.3281319,-0.10780012,-0.50193864,0.86444986,-0.028000031,0
2.1717343,2.6543419,-1.7494394,0.56408685,0.68943948,-0.45439985,0
2.2035992,0,3.1570001,0.57236344,0,0.82000005,0
3.419997,1.76516,0.1016397,0.88831091,0.45848313,0.026399922,0
1.4547909,-1.8912277,3.0214798,0.37786779,-0.49122798,0.78479999,0
-1.349483,1.0495977,3.4496,-0.35051507,0.27262279,0.89600003,0
-0.44982764,-1.6493682,3.4495997,-0.11683835,-0.42840734,0.89599997,0
1.2121279,-0.60606396,-3.6035998,0.31483844,-0.15741922,-0.93599999,0
-1.6493682,-0.44982764,3.4495997,-0.42840734,-0.11683835,0.89599997,0
0.38175815,-3.5630794,1.40756,0.099157967,-0.92547518,0.36560002,0
-0.44174117,-1.8874394,-3.3264,-0.11473797,-0.490244,-0.86400002,0
-2.7174087,-2.366775,-1.3551997,-0.70582044,-0.61474675,-0.35199994,0
3.8431871,-0.2196108,0.064679474,0.99823046,-0.057041768,0.016799863,0
-2.9821062,-0.83221573,-2.2884402,-0.77457309,-0.21615994,-0.59440005,0
-2.3113031,1.2402116,-2.8182001,-0.60033852,0.32213289,-0.73200005,0
3.4846225,-0.87115562,-1.3859993,0.90509677,-0.22627419,-0.35999984,0
-1.1011506,3.548152,1.0102396,-0.28601316,0.92159796,0.26239991,0
3.2983823,-1.2686087,-1.5276797,0.85672271,-0.32950875,-0.39679992,0
-1.9797667,-1.9797667,2.6426401,-0.51422513,-0.51422513,0.68640006,0
-2.2176001,2.9567997,-1.0779999,-0.57600003,0.76799995,-0.28,0
-3.2174783,1.8926342,-0.94247991,-0.83570868,0.4915933,-0.24479999,0
-0.99655956,-2.2553718,-2.9568,-0.25884664,-0.5858109,-0.76800001,0
-1.6230614,1.672245,-3.064599,-0.42157441,0.43434936,-0.79599977,0
-2.8998001,0.96659988,2.3407998,-0.75319487,0.2510649,0.60799998,0
3.7961395,-0.19979693,-0.60983992,0.98601025,-0.051895309,-0.15839998,0
-2.1833789,-3.0324707,0.92707992,-0.56711143,-0.78765476,0.24079998,0
-0.17585701,3.605067,-1.3398006,-0.045677144,0.93638104,-0.34800017,0
1.9064254,1.1731846,3.13236,0.49517542,0.30472329,0.8136,0
-0.14577228,-3.2069886,-2.1251998,-0.03786293,-0.83298409,-0.55199999,0
-0.86184984,2.4419079,2.8489997,-0.2238571,0.63426179,0.73999995,0
1.0355535,-1.7752347,3.2555599,0.26897493,-0.46109992,0.84560001,0
-0.16529003,1.9834808,-3.2956004,-0.042932477,0.51518983,-0.85600013,0
-3.0982335,-1.9828694,1.13652,-0.80473596,-0.51503104,0.29520002,0
2.6257207,-1.1253089,-2.5810404,0.68200541,-0.29228804,-0.67040014,0
-0.15085699,-1.5085711,3.5389199,-0.039183635,-0.39183667,0.9192,0
-1.5037942,-2.1164513,-2.8428395,-0.39059591,-0.54972762,-0.73839986,0
-0.10353556,-3.8308191,-0.36960009,-0.026892353,-0.99501801,-0.096000023,0
0.86486053,-2.378366,-2.90136,0.2246391,-0.61775744,-0.7536,0
-1.4109462,0.42028183,-3.5573997,-0.36647955,0.10916411,-0.92399997,0
0,3.613903,-1.3274807,0,0.93867612,-0.34480017,0
-1.9540774,-3.2910776,-0.41579983,-0.50755256,-0.85482538,-0.10799996,0
-0.60955977,0.9143399,3.6898398,-0.15832722,0.23749089,0.95840001,0
-0.16529016,-1.9834822,-3.2955997,-0.04293251,-0.51519018,-0.85599995,0
1.3749459,-0.11224046,-3.5943601,0.3571288,-0.029153366,-0.93360007,0
-1.1522982,1.9685094,-3.1015608,-0.29929826,0.51130116,-0.80560023,0
-2.3657928,2.9572411,0.69300014,-0.61449164,0.76811457,0.18000004,0
-0.68125832,-1.7031457,-3.3849196,-0.17695022,-0.44237554,-0.87919992,0
-1.247134,3.6280255,0.32340005,-0.32393092,0.94234431,0.084000014,0
2.6430066,0.34474003,-2.7781594,0.68649524,0.089542866,-0.72159988,0
3.7151413,-0.59921646,0.81311989,0.96497178,-0.15564065,0.21119997,0
1.8823057,1.5927205,2.9568,0.48891059,0.41369364,0.76800001,0
3.8390985,0,0.28952053,0.99716848,0,0.07520014,0
-0.26140118,-1.7924653,-3.3972397,-0.067896411,-0.46557543,-0.88239992,0
1.1957381,-1.3452057,3.4033999,0.31058133,-0.34940407,0.884,0
0.90533143,1.2071083,3.5420001,0.23515102,0.31353462,0.92000002,0
-1.247134,3.6280255,0.32340005,-0.32393092,0.94234431,0.084000014,0
2.1833789,3.0324707,0.92707992,0.56711143,0.78765476,0.24079998,0
2.7709219,-2.5299721,0.86239958,0.71972001,-0.65713561,0.2239999,0
-2.3150768,0.72024608,-2.9906795,-0.60131866,0.18707691,-0.77679992,0
-0.96024901,-3.2808506,-1.7709999,-0.24941534,-0.85216904,-0.45999998,0
-2.7795184,-1.1118076,2.4208801,-0.72195286,-0.2887812,0.62880003,0
-0.29154456,2.3323555,3.0491996,-0.075725861,0.60580665,0.79199994,0
-0.4339413,3.5583181,-1.4044807,-0.11271203,0.9242385,-0.36480018,0
2.5712447,0.71423483,2.7750797,0.6678558,0.18551555,0.72079998,0
2.6383483,-1.9599158,-2.0050802,0.68528533,-0.50906903,-0.52080005,0
1.8474221,-3.2021987,1.0749203,0.4798499,-0.83173996,0.27920008,0
1.1417122,2.4261391,2.7627599,0.29654863,0.63016599,0.71759999,0
-0.48079568,-3.7261674,0.84083998,-0.124882,-0.96783572,0.2184,0
0.26645088,-3.3306394,1.91268,0.069208026,-0.86510116,0.49680001,0
-3.101263,2.2008967,-0.60060042,-0.80552292,0.57166153,-0.15600011,0
2.7608895,2.6458528,0.44659957,0.71711421,0.68723452,0.11599989,0
1.4189211,3.2248201,1.5523199,0.36855096,0.83761567,0.40319997,0
-2.6129365,2.7317066,0.72995973,-0.67868483,0.70953423,0.18959993,0
2.2848911,1.6673528,-2.6118398,0.5934782,0.43307865,-0.67839998,0
-1.535852,-2.513212,2.4793997,-0.39892259,-0.65278232,0.64399993,0
3.8057358,0.34597567,0.46816039,0.98850286,0.089863814,0.12160011,0
3.6811862,-1.0353336,0.44660011,0.95615226,-0.26891783,0.11600003,0
2.2636304,3.0867684,-0.41272059,0.58795595,0.80175805,-0.10720015,0
-2.2815299,-1.5610467,-2.6795998,-0.59260517,-0.40546668,-0.69599992,0
2.251936,0.33539468,-3.1046407,0.58491844,0.087115504,-0.80640018,0
1.8611661,2.7917492,1.8880403,0.48341978,0.72512966,0.49040011,0
2.8495476,-2.1587484,-1.4291196,0.74014229,-0.56071389,-0.37119991,0
-0.5674895,3.6886816,-0.94555962,-0.14739987,0.95809913,-0.24559991,0
2.971215,2.4406412,-0.19403978,0.77174419,0.63393277,-0.050399944,0
1.8374826,2.120172,2.6364801,0.47726822,0.55069405,0.68480003,0
0,-2.0697606,-3.2463195,0,-0.53760016,-0.84319991,0
-0.12755056,-3.571419,1.4322,-0.033130016,-0.92764133,0.37200001,0
1.7177457,-2.0040362,2.8027999,0.44616771,-0.52052891,0.72799999,0
-3.0234933,-0.68715775,2.28228,-0.78532296,-0.17848253,0.59280002,0
-1.3221598,1.7628796,3.1569998,-0.34341812,0.45789081,0.81999999,0
-1.0767233,-3.6217053,-0.73920017,-0.27966842,-0.94070268,-0.19200005,0
-1.2158787,0.15198466,3.6497998,-0.31581268,0.039476536,0.94799995,0
0.91713691,0.15285601,3.7360399,0.23821738,0.039702859,0.97039998,0
-3.4385822,-0.94561023,-1.4506803,-0.89313823,-0.24561305,-0.37680009,0
-1.1109152,-2.2218304,-2.9414005,-0.28854939,-0.57709879,-0.76400018,0
2.9307261,2.4965448,-0.024639953,0.76122755,0.64845324,-0.0063999877,0
-0.15319696,0.76598567,3.7699199,-0.03979142,0.19895732,0.97920001,0
-0.39730799,-3.7744265,-0.64679986,-0.10319688,-0.98037052,-0.16799997,0
3.039397,-0.27630892,2.3469596,0.7894538,-0.071768552,0.60959989,0
1.9380275,-3.3060467,0.36959943,0.50338376,-0.85871345,0.095999852,0
2.601712,-2.6017125,1.1334401,0.67576939,-0.67576951,0.29440004,0
1.0671654,0.15245207,3.6959999,0.27718583,0.03959794,0.95999998,0
3.2415416,0.1350641,2.0728397,0.84195888,0.035081584,0.53839993,0
2.0917935,2.0917935,2.4640005,0.54332298,0.54332298,0.64000016,0
0.91978091,-2.8250418,-2.4486001,0.23890413,-0.73377711,-0.63600004,0
-3.7962232,0.46014854,0.44660029,-0.98603201,0.11951911,0.11600008,0
0.44077358,-2.5344486,-2.8644001,0.11448665,-0.65829837,-0.74400008,0
2.6321924,0.9794206,-2.6334004,0.68368638,0.25439498,-0.68400013,0
-2.6934068,-0.79577923,-2.6333997,-0.69958621,-0.20669591,-0.68399996,0
1.4110905,3.5819988,-0.024639621,0.36651701,0.93038934,-0.0063999016,0
1.1611559,-3.5802307,-0.81004012,0.30159897,-0.92993009,-0.21040003,0
3.4385824,0.94561034,-1.4506794,0.89313829,0.24561308,-0.37679985,0
3.3543489,1.4908218,1.1611602,0.87125945,0.38722646,0.30160007,0
-3.5335841,-0.51710993,-1.4383599,-0.91781408,-0.13431427,-0.37359998,0
3.3510385,-1.8278394,-0.50203973,0.87039959,-0.47476348,-0.13039993,0
-0.81124479,1.3628913,-3.5081203,-0.21071294,0.35399777,-0.91120011,0
3.8125162,0.23106137,0.48356035,0.990264,0.060015943,0.1256001,0
-3.6801538,1.1151985,0.18788019,-0.95588416,0.28966194,0.048800051,0
-1.1890556,-1.0899675,-3.4957998,-0.30884561,-0.28310844,-0.90799999,0
-0.56510222,-3.390614,-1.7340404,-0.14677981,-0.88067901,-0.45040011,0
3.8376701,0.11287255,0.28644055,0.99679744,0.029317547,0.074400142,0
1.9064254,-1.1731851,3.13236,0.49517542,-0.30472341,0.8136,0
-1.2161124,3.5267265,0.95171964,-0.31587335,0.91603285,0.24719991,0
2.734977,1.1070145,-2.4732406,0.71038365,0.28753626,-0.64240021,0
-2.2457612,-1.8607737,-2.5132802,-0.5833146,-0.48331785,-0.65280008,0
2.8865926,-2.3278973,-1.03488,0.74976432,-0.60464865,-0.26880002,0
-1.7630949,-1.8732884,-2.8643999,-0.45794675,-0.48656842,-0.74400002,0
-3.5041277,-0.59826565,-1.4783999,-0.91016304,-0.15539367,-0.38399997,0
1.5010066,-0.7505033,3.4649997,0.38987187,-0.19493593,0.89999992,0
-0.45782313,0.91564626,3.7113998,-0.1189151,0.23783021,0.96399999,0
-0.73048633,2.191458,3.0800002,-0.18973671,0.56920987,0.80000007,0
-3.5557661,-0.50796652,1.3859999,-0.92357564,-0.13193935,0.35999998,0
3.5621636,0.71243262,-1.2751193,0.9252373,0.18504743,-0.33119982,0
2.518924,1.9431697,-2.1683202,0.654266,0.50471944,-0.56320006,0
-0.83118922,-2.9091623,2.3808398,-0.21589331,-0.75562656,0.61839998,0
2.4662097,0.48251918,-2.9167593,0.64057398,0.12532966,-0.75759983,0
0,3.4996428,1.6046803,0,0.90899819,0.41680008,0
-1.6157056,-3.4622269,0.47431991,-0.41966382,-0.89927971,0.12319998,0
-0.76366007,-0.61092776,3.7237198,-0.19835328,-0.15868254,0.96719998,0
0.82718498,-2.5997245,-2.7165596,0.21485324,-0.67525315,-0.7055999,0
3.2195206,1.0208235,-1.8480005,0.83623916,0.26514897,-0.48000014,0
1.7177457,-2.0040362,2.8027999,0.44616771,-0.52052891,0.72799999,0
-2.7239182,-2.4762893,1.1272801,-0.70751125,-0.64319205,0.29280004,0
2.3949308,-1.0025293,-2.8428402,0.62206,-0.26039723,-0.73840004,0
3.5463412,0.63327545,1.3582804,0.92112762,0.16448714,0.35280013,0
2.8050668,-2.571311,0.58519983,0.72858882,-0.66787302,0.15199997,0
1.4189211,3.2248201,1.5523199,0.36855096,0.83761567,0.40319997,0
-2.9158506,-2.4493146,0.56671989,-0.7573638,-0.63618565,0.14719997,0
-2.7403345,1.5071843,2.2453201,-0.71177524,0.39147645,0.58320004,0
0,-3.0424163,2.3592799,0,-0.79023802,0.6128,0
1.2892032,2.2919178,2.8120399,0.33485797,0.59530336,0.73039997,0
-2.3344367,0,3.0615199,-0.6063472,0,0.79519999,0
-2.9320807,-0.27924591,2.4793999,-0.76157945,-0.07253141,0.64399999,0
-1.6301177,1.1855397,3.2802,-0.4234072,0.30793241,0.852,0
3.2175725,-2.0684397,0.43736041,0.83573312,-0.53725708,0.11360011,0
-0.71243286,3.5621636,-1.2751194,-0.18504751,0.9252373,-0.33119985,0
-0.67934787,-3.1249995,2.1436801,-0.17645399,-0.81168818,0.55680007,0
0.30378202,1.215129,3.6405599,0.07890442,0.31561795,0.94559997,0
0.50796688,-3.5557661,1.3859999,0.13193946,-0.92357564,0.35999998,0
0.90533143,1.2071083,3.5420001,0.23515102,0.31353462,0.92000002,0
3.430177,-1.3906124,-1.0595201,0.89095509,-0.36119804,-0.27520004,0
0.85063219,2.495188,-2.8058796,0.22094344,0.64810079,-0.72879994,0
-1.9543419,-2.8500819,-1.69708,-0.50762129,-0.74028105,-0.44080001,0
-1.9109504,2.3886881,-2.3377204,-0.49635077,0.62043846,-0.60720015,0
3.7016206,0.7164427,0.77923995,0.96145993,0.18608902,0.2024,0
-3.38744,-1.8066345,0.28951982,-0.87985456,-0.46925575,0.075199954,0
1.2881434,-3.5671666,-0.66220027,0.33458272,-0.9265368,-0.17200008,0
-2.0697231,-2.7065613,-1.7925599,-0.53759044,-0.70300293,-0.46559998,0
2.1228395,-1.6064731,-2.78124,0.55138689,-0.41726574,-0.72240001,0
-0.59826559,3.5041275,-1.4784006,-0.15539366,0.91016299,-0.38400015,0
1.2686086,3.2983825,-1.5276794,0.32950872,0.85672277,-0.39679986,0
-3.3557274,0.23412028,-1.8726401,-0.87161756,0.060810465,-0.48640004,0
-2.352499,-2.8049028,-1.1919599,-0.61103874,-0.7285462,-0.30959997,0
-3.7067258,-1.0109253,0.24640031,-0.96278596,-0.26257801,0.064000085,0
2.179739,-1.0172116,3.0060802,0.56616598,-0.26421079,0.78080004,0
0.40508842,0.50962734,-3.7945597,0.10521778,0.13237074,-0.98559994,0
0.30769154,0.15384577,3.8346,0.079919882,0.039959941,0.99599999,0
0.26279432,-3.4163294,1.7556001,0.068258263,-0.88735831,0.45600003,0
0.7622602,-0.76226014,-3.6960003,0.19798967,-0.19798966,-0.9600001,0
-1.6099241,1.6099241,3.1046398,-0.41816211,0.41816211,0.80639994,0
-2.1541402,3.1745222,0.32340053,-0.55951697,0.82455122,0.08400014,0
2.9370265,2.1360195,-1.2781998,0.76286405,0.55481029,-0.33199996,0
-2.0032384,-2.3486242,-2.3007605,-0.52032167,-0.61003226,-0.59760016,0
-1.6673528,2.2848911,-2.6118398,-0.43307865,0.5934782,-0.67839998,0
0.98564798,-2.6753306,2.5871999,0.25601247,-0.6948911,0.67199999,0
-1.1683718,3.621953,0.58212,-0.3034732,0.94076705,0.15120001,0
3.0664952,2.085217,1.0348798,0.79649228,0.54161483,0.26879996,0
0.34597567,3.8057358,0.46816039,0.089863814,0.98850286,0.12160011,0
1.2328386,-2.8766243,2.24224,0.32021785,-0.74717516,0.58240002,0
0.19234577,-3.7507458,-0.84699959,0.049959943,-0.97421968,-0.21999989,0
0.2877779,3.741116,-0.86239958,0.07474751,0.97171849,-0.2239999,0
-3.2119069,-0.80297673,1.9650398,-0.83426154,-0.20856538,0.5104,0
0,-3.6959999,-1.0780001,0,-0.95999998,-0.28000003,0
1.8524297,2.7786446,-1.9157604,0.4811506,0.72172588,-0.49760011,0
-0.59123194,1.9426193,-3.2709591,-0.15356675,0.50457644,-0.84959978,0
-1.4485306,0.30177727,-3.5543199,-0.37624171,0.078383707,-0.92320001,0
3.7067258,1.0109251,0.24640048,0.96278596,0.26257795,0.064000122,0
-0.92129582,3.2903426,1.77408,-0.23929761,0.8546344,0.46079999,0
3.4493301,-0.41063464,-1.6601204,0.89592993,-0.10665835,-0.43120012,0
3.4013853,1.700693,-0.60059959,0.88347673,0.44173846,-0.1559999,0
1.2065897,3.3612144,-1.4383595,0.31339994,0.8730427,-0.37359989,0
-2.7317064,-2.6129367,0.72996014,-0.70953417,-0.67868489,0.18960004,0
-1.81243,2.4165735,-2.3869998,-0.47076106,0.62768143,-0.62,0
0.92129582,3.2903426,1.77408,0.23929761,0.8546344,0.46079999,0
1.7551202,0.44811577,-3.3972409,0.45587537,0.11639371,-0.88240027,0
-2.7065613,2.0697231,-1.7925599,-0.70300293,0.53759044,-0.46559998,0
-2.6321924,0.9794206,-2.6334004,-0.68368638,0.25439498,-0.68400013,0
3.3540053,-1.5838357,-1.0318002,0.87117022,-0.41138592,-0.26800004,0
0.2548779,-3.5682938,1.4229599,0.066202052,-0.92682958,0.3696,0
3.7261672,0.48079604,0.84083986,0.96783566,0.12488209,0.21839997,0
-2.2301581,1.9513882,2.4578402,-0.57926184,0.50685412,0.63840008,0
1.8165472,3.2697852,0.91168052,0.47183043,0.84929484,0.23680013,0
2.8050668,-2.571311,0.58519983,0.72858882,-0.66787302,0.15199997,0
-1.385723,2.6394722,-2.4362795,-0.35992807,0.68557721,-0.63279992,0
2.4931166,-2.3619001,1.7401999,0.6475628,-0.61348057,0.45200002,0
0.42566422,2.0006213,-3.2617209,0.11056214,0.51964194,-0.84720027,0
1.1151985,3.6801538,0.18788019,0.28966194,0.95588416,0.048800051,0
-2.0212171,2.5602081,2.04512,-0.52499145,0.66498911,0.53119999,0
-3.0453086,-1.2942561,-1.96812,-0.79098928,-0.33617043,-0.51120001,0
-2.2175999,-2.9568,1.0779997,-0.57599998,-0.76800001,0.27999994,0
-0.76474625,-0.45884764,3.7452798,-0.1986354,-0.11918121,0.97279996,0
0.83378166,-1.9308629,-3.2247598,0.21656667,-0.50152284,-0.83759999,0
-2.5510135,-2.6421211,-1.1550003,-0.66260093,-0.68626523,-0.3000001,0
-2.3151171,2.1789343,2.1713998,-0.60132915,0.56595701,0.56399995,0
-1.1332347,-2.5050452,-2.6950004,-0.29434669,-0.65066111,-0.70000011,0
2.852366,0.71309155,-2.4855599,0.74087429,0.18521859,-0.64560002,0
0,1.9331484,3.3294799,0,0.5021165,0.86479998,0
-0.61353093,-0.30676568,3.7883999,-0.1593587,-0.0796794,0.98400003,0
1.0724859,-1.7588769,-3.2524798,0.27856779,-0.45685115,-0.8448,0
-2.4165144,1.279331,2.7104001,-0.62766612,0.33229378,0.70400012,0
0,-2.5861437,2.8520799,0,-0.67172569,0.74079996,0
-1.2051029,-3.0797071,1.9712001,-0.31301376,-0.79992396,0.51200002,0
-1.3774178,-2.7548356,-2.3099999,-0.35777086,-0.71554172,-0.60000002,0
-1.5838357,3.3540053,-1.0318002,-0.41138592,0.87117022,-0.26800004,0
0.9794206,-2.6321924,-2.6334004,0.25439498,-0.68368638,-0.68400013,0
-3.3687694,0.1566868,-1.8572401,-0.87500507,0.040697869,-0.48240003,0
1.2063612,2.1504698,-2.9568009,0.31334057,0.55856359,-0.76800025,0
-1.140765,-0.93062401,-3.5573997,-0.29630259,-0.24172053,-0.92399997,0
0.29874384,1.7924647,3.3941598,0.077595808,0.46557528,0.88159996,0
-0.37532976,1.1760333,-3.6467209,-0.097488254,0.30546319,-0.94720024,0
-0.42644379,-2.7008104,2.7103999,-0.11076462,-0.70150924,0.704,0
3.3281319,-1.9324638,-0.10780012,0.86444986,-0.50193864,-0.028000031,0
2.9568002,1.3305602,-2.0759194,0.76800007,0.34560007,-0.53919983,0
-0.64016551,1.1469632,-3.6190002,-0.16627675,0.29791254,-0.94000006,0
0.43359095,2.4570179,2.9321599,0.11262103,0.63818645,0.76160002,0
-3.4262836,-1.7131418,0.38499972,-0.88994384,-0.44497192,0.099999927,0
-0.53347218,-1.2003124,-3.6189995,-0.1385642,-0.31176946,-0.93999988,0
1.6157056,3.4622269,0.47431991,0.41966382,0.89927971,0.12319998,0
1.6040118,-2.9024978,-1.9557996,0.41662645,-0.75389552,-0.5079999,0
-1.7588769,1.0724859,-3.2524798,-0.45685115,0.27856779,-0.8448,0
3.3020344,-0.79248828,1.8141199,0.85767126,-0.20584111,0.47119999,0
3.1418159,-0.27320153,2.2083597,0.81605607,-0.070961438,0.57359993,0
-0.82230812,-3.0151296,2.2484,-0.21358652,-0.78315055,0.58399999,0
3.0052154,-0.95620471,2.2083595,0.78057545,-0.24836487,0.57359987,0
1.3608229,0.45360735,3.5728002,0.35346052,0.11782009,0.92800009,0
3.2288744,0.53814602,2.0266397,0.8386687,0.1397782,0.52639991,0
-0.4092809,-3.13782,2.19296,-0.10630673,-0.81501818,0.56960005,0
-3.2577722,1.9779333,0.54515982,-0.8461746,0.51374894,0.14159995,0
1.7924647,0.29874384,3.3941598,0.46557528,0.077595808,0.88159996,0
-3.2021987,-1.8474225,1.0749201,-0.83173996,-0.47984999,0.27920002,0
3.4442055,-1.353081,1.0626004,0.89459884,-0.35144961,0.27600011,0
1.393849,3.3103909,-1.3860002,0.3620387,0.85984182,-0.36000004,0
-2.513212,-1.535852,2.4793997,-0.65278232,-0.39892259,0.64399993,0
2.6725013,-1.5075649,-2.3253996,0.69415623,-0.39157531,-0.60399991,0
-1.4043581,-1.7320416,-3.1385202,-0.36476836,-0.44988096,-0.81520009,0
-3.0629945,-2.238342,0.65604019,-0.79558301,-0.58138758,0.17040005,0
2.459806,0.28938863,2.9475598,0.63891065,0.075165875,0.76559997,0
-0.99621683,2.5198429,-2.7350399,-0.25875762,0.65450466,-0.71039999,0
2.6521788,-2.6521785,0.8685596,0.68887764,-0.68887758,0.2255999,0
-2.1089075,-3.1633606,0.6067602,-0.54776818,-0.82165211,0.15760006,0
-1.8607732,2.2457609,-2.5132809,-0.48331773,0.58331454,-0.65280026,0
-1.0162321,3.38744,-1.5215194,-0.2639564,0.87985456,-0.39519987,0
-2.8120921,-0.56241834,2.5687201,-0.73041356,-0.14608268,0.66720003,0
-0.88530582,1.9181625,3.2186,-0.22994956,0.49822402,0.83600003,0
-1.3315933,3.5850589,-0.44352046,-0.34586838,0.93118417,-0.11520012,0
-1.0566598,1.0566598,3.5481601,-0.2744571,0.2744571,0.92160004,0
2.4908097,2.8466401,0.7176401,0.6469636,0.73938704,0.18640003,0
-1.3269053,0.92883354,-3.4927197,-0.34465072,0.24125548,-0.90719992,0
0.72543663,-2.3213966,2.98452,0.18842511,-0.60296017,0.77520001,0
0.55096704,-3.0303195,-2.3099997,0.14310832,-0.78709596,-0.59999996,0
-3.6389649,-0.84909171,0.9270798,-0.94518572,-0.22054331,0.24079995,0
-0.97592741,2.0982442,-3.07692,-0.25348765,0.54499853,-0.79920006,0
2.0954144,-2.0954144,-2.4578397,0.54426348,-0.54426348,-0.63839996,0
-1.3185133,-3.4846425,-0.97019994,-0.342471,-0.90510195,-0.252,0
2.9053037,2.1473985,1.3305595,0.75462437,0.55776584,0.34559989,0
1.0109251,-3.7067258,0.24640048,0.26257795,-0.96278596,0.064000122,0
3.7852685,-0.11828953,0.69300014,0.98318666,-0.030724553,0.18000004,0
0.51611859,3.4837983,1.5554003,0.13405678,0.90488267,0.40400007,0
-3.1926396,0.21767977,-2.1405997,-0.82925707,0.056540202,-0.55599993,0
2.4309328,-0.15516591,-2.9814408,0.63141114,-0.040302835,-0.77440023,0
2.5959849,2.3363867,1.62008,0.67428184,0.60685372,0.4208,0
-3.2577724,-1.977933,0.54516011,-0.84617466,-0.51374888,0.14160003,0
-3.6855774,0.83222705,0.7392,-0.95729285,0.21616288,0.192,0
-2.1546247,-1.4364163,2.849,-0.55964279,-0.37309515,0.74000001,0
0.23106137,-3.8125162,0.48356035,0.060015943,-0.990264,0.1256001,0
-2.274498,-2.4082923,1.96196,-0.59077871,-0.62553048,0.50959998,0
-3.1552942,1.3753848,-1.7247998,-0.81955695,0.35724282,-0.44799995,0
2.8865926,2.3278973,-1.03488,0.74976432,0.60464865,-0.26880002,0
1.1070145,2.734977,-2.4732406,0.28753626,0.71038365,-0.64240021,0
-0.76598567,-0.15319696,3.7699199,-0.19895732,-0.03979142,0.97920001,0
-0.11760568,0.64029753,-3.7945602,-0.03054693,0.16631106,-0.98560005,0
-3.2390122,-0.26991782,2.0635998,-0.84130192,-0.070108525,0.53599995,0
-0.84746468,2.6836381,2.6272399,-0.2201207,0.6970489,0.68239999,0
1.4886316,-1.1909052,3.3448796,0.38665757,-0.30932602,0.86879992,0
0.1068275,3.845794,-0.14476031,0.027747404,0.99890757,-0.037600081,0
2.9170606,0.69453847,2.4147203,0.75767803,0.1803996,0.62720007,0
3.3068039,1.5193425,-1.2566402,0.85891014,0.39463443,-0.32640007,0
-3.3432798,-1.1572893,1.5184401,-0.86838442,-0.30059463,0.39440003,0
0.71409535,-1.8902521,-3.2771199,0.18547931,-0.49097458,-0.85119998,0
2.5393903,-2.1384339,1.94964,0.6595819,-0.55543739,0.50640005,0
-2.1441977,-1.5724118,2.7843199,-0.55693448,-0.40841866,0.72319996,0
2.1441972,1.5724118,2.7843201,0.55693436,0.40841866,0.72320002,0
-1.353081,-3.4442058,1.0625999,-0.35144961,-0.8945989,0.27599999,0
-1.2418855,3.5345974,-0.88704002,-0.32256767,0.91807729,-0.23040001,0
-0.14479262,-2.4614768,2.9568,-0.037608474,-0.63934463,0.76800001,0
0.51710993,-3.5335841,-1.4383599,0.13431427,-0.91781408,-0.37359998,0
0.39262402,-0.67531335,-3.7699201,0.10198027,-0.17540607,-0.97920007,0
-1.2161124,3.5267265,0.95171964,-0.31587335,0.91603285,0.24719991,0
2.8250418,0.91978091,-2.4486001,0.73377711,0.23890413,-0.63600004,0
-2.3323553,-0.29154456,3.0492001,-0.60580653,-0.075725853,0.792,0
-2.9394288,2.4326305,-0.51436049,-0.76348799,0.63185209,-0.13360013,0
-3.8113055,-0.54447234,9.1791144e-08,-0.98994952,-0.14142139,2.3841856e-08,0
-1.7078735,1.5614842,-3.0769196,-0.44360352,0.40558031,-0.79919988,0
0.14780778,-2.0693104,3.2432401,0.038391631,-0.53748322,0.84240007,0
0,-2.4694207,-2.9537199,0,-0.64140797,-0.76719999,0
2.6257207,1.1253089,-2.5810404,0.68200541,0.29228804,-0.67040014,0
-3.3510385,-1.8278394,-0.50203973,-0.87039959,-0.47476348,-0.13039993,0
2.8473892,-1.49149,2.11904,0.73958164,-0.3874,0.55040002,0
-1.457234,-3.0469434,1.848,-0.37850234,-0.7914139,0.48000002,0
-0.70806527,-2.6906474,2.6611199,-0.18391307,-0.69886947,0.69120002,0
0.85488731,-2.5646617,2.7411997,0.22204867,-0.66614598,0.71200001,0
3.1456738,-2.2019715,-0.28028032,0.81705815,-0.57194066,-0.072800085,0
0.49953002,2.8098569,-2.5841196,0.12974806,0.72983295,-0.67119992,0
2.7223611,-2.7223611,0,0.70710677,-0.70710677,0,0
-2.2346456,3.1285038,0.20328064,-0.58042747,0.81259841,0.052800167,0
0.26652184,1.0660874,-3.6898406,0.069226451,0.2769058,-0.95840019,0
3.4164171,1.6493045,0.65603971,0.88738108,0.4283908,0.17039993,0
0.51611859,-3.4837983,1.5554003,0.13405678,-0.90488267,0.40400007,0
3.1468318,1.9436314,-1.0687592,0.81735891,0.50483936,-0.27759981,0
0.67109388,3.2212501,1.9989197,0.1743101,0.83668834,0.51919997,0
2.8747389,-2.5553238,-0.16939981,0.74668545,-0.66372049,-0.043999951,0
2.0406594,2.4487917,2.15908,0.5300414,0.63604981,0.56080002,0
-2.3156357,-0.86836338,2.95064,-0.60146385,-0.22554894,0.76640004,0
-2.9567997,-1.33056,-2.0759201,-0.76799995,-0.34560001,-0.53920007,0
2.2650044,-2.7876978,-1.3859997,0.58831286,-0.72407734,-0.35999992,0
-3.787333,0.6683529,0.17863992,-0.98372287,0.17359816,0.046399981,0
-0.26991782,3.2390122,2.0635998,-0.070108525,0.84130192,0.53599995,0
0.10993475,3.8477201,0.07391949,0.028554481,0.99940783,0.019199869,0
0.30950522,-3.8172348,-0.39424005,0.080390967,-0.99148959,-0.10240001,0
1.4358495,1.4358495,-3.2709589,0.37294793,0.37294793,-0.84959972,0
-1.377418,2.7548361,-2.3099992,-0.35777092,0.71554184,-0.59999979,0
1.1509233,-3.6620278,-0.29567996,0.29894111,-0.95117611,-0.076799989,0
-0.60920972,-2.9783583,-2.36236,-0.15823629,-0.77359957,-0.61360002,0
-2.6521785,2.6521788,0.8685596,-0.68887758,0.68887764,0.2255999,0
-3.3300254,-1.7839423,0.74227989,-0.86494172,-0.46336165,0.19279997,0
2.9394288,2.4326305,-0.51436049,0.76348799,0.63185209,-0.13360013,0
-3.2635431,-2.0256474,0.26179954,-0.84767354,-0.52614218,0.067999884,0
-1.6353903,1.0407027,3.3263998,-0.4247767,0.2703124,0.86399996,0
-3.2832685,1.8347676,-0.82236004,-0.85279703,0.47656301,-0.21360001,0
-0.39365003,3.4116335,1.7402002,-0.10224676,0.88613862,0.45200005,0
3.6935143,1.0863281,-0.018479597,0.9593544,0.28216317,-0.0047998955,0
1.758876,-1.0724853,-3.2524805,0.45685092,-0.27856761,-0.84480017,0
-1.5427542,-3.0855083,-1.7093998,-0.40071538,-0.80143076,-0.44399998,0
-2.0585001,0.73517883,3.1693201,-0.5346753,0.19095553,0.82319999,0
-2.6257207,-1.1253089,-2.5810404,-0.68200541,-0.29228804,-0.67040014,0
-0.83067554,3.5995939,-1.0841596,-0.21575989,0.93495947,-0.28159991,0
0.23375544,1.8700435,-3.3572004,0.060715701,0.48572561,-0.8720001,0
3.541029,-1.4164113,-0.52668035,0.91974783,-0.36789903,-0.1368001,0
2.080847,3.1708148,-0.66219956,0.54047978,0.82358825,-0.17199989,0
-2.3156357,-0.86836338,2.95064,-0.60146385,-0.22554894,0.76640004,0
2.0408111,2.9336658,1.4321995,0.5300808,0.76199114,0.37199986,0
-1.0665119,-0.30471787,3.6867599,-0.27701607,-0.079147503,0.9576,0
-2.5481303,-1.5027435,-2.4639995,-0.66185206,-0.39032298,-0.63999987,0
3.4693215,-1.4455506,-0.83468038,0.90112251,-0.37546769,-0.21680011,0
2.4958265,-2.9117975,-0.33880016,0.64826661,-0.756311,-0.088000037,0
-3.2823031,1.5149093,1.3244001,-0.85254627,0.39348292,0.34400001,0
2.1541402,-3.1745224,0.32339999,0.55951697,-0.82455128,0.083999999,0
2.2448111,-1.8239087,2.5409997,0.58306783,-0.47374251,0.65999991,0
-2.2019715,-3.1456738,-0.28028032,-0.57194066,-0.81705815,-0.072800085,0
2.6521788,2.6521788,0.86855918,0.68887764,0.68887764,0.2255998,0
