0.2770068,-0.6706481,-3.7300801,0.072896525,-0.17648634,-0.98160005,0
2.2170649,-2.8378429,-1.2129599,0.5834381,-0.74680072,-0.31919995,0
1.3677267,2.6051936,-2.404639,0.35992807,0.68557727,-0.63279974,0
3.3877115,1.2481041,-1.1855998,0.89150304,0.32844844,-0.31199995,0
2.8988833,-2.108279,-1.2615998,0.76286405,-0.55481029,-0.33199996,0
-3.1701939,-0.79254848,1.9395199,-0.83426154,-0.20856538,0.5104,0
-0.48805979,-3.7092535,-0.66575992,-0.12843679,-0.97611934,-0.17519999,0
-0.51039422,-3.4876935,-1.4196799,-0.13431427,-0.91781408,-0.37359998,0
-2.2215621,-2.4513786,-1.8696002,-0.58462161,-0.64509964,-0.49200004,0
-2.3744695,-1.3967468,2.6174402,-0.62486041,-0.36756495,0.6888001,0
2.2850511,-2.1506362,2.1431999,0.60132927,-0.56595689,0.56400001,0
0.59049588,3.4586194,-1.4592006,0.15539366,0.91016299,-0.38400018,0
-2.1163509,1.5519909,2.7481599,-0.55693448,0.40841866,0.72319996,0
2.99247,1.8809813,-1.3953608,0.7874921,0.49499509,-0.36720023,0
2.7368848,2.6316202,-0.15503985,0.72023278,0.69253159,-0.040799957,0
-0.65014845,-0.72895437,-3.6723197,-0.17109171,-0.1918301,-0.96639991,0
-2.1514311,-1.004001,2.9670398,-0.5661661,-0.26421079,0.78079998,0
1.4606251,-0.61670834,-3.4534397,0.38437501,-0.16229166,-0.90879989,0
0.22256432,-3.7835972,0.27359995,0.058569562,-0.99568349,0.071999989,0
0,3.7992399,0.075999491,0,0.99979997,0.019999865,0
-2.4725122,1.1185174,-2.6600003,-0.65066111,0.29434669,-0.70000011,0
2.7339623,1.9528301,1.7753605,0.71946377,0.51390266,0.46720013,0
0.65483618,-2.8812785,-2.3894401,0.17232531,-0.75823122,-0.62880003,0
3.0878737,-2.2056243,0.20064063,0.81259835,-0.58042747,0.052800167,0
0.41912332,-3.0735707,-2.19488,0.11029562,-0.80883443,-0.5776,0
1.0048014,-3.3912053,1.3892803,0.26442143,-0.89242244,0.36560008,0
-0.50136954,-3.5095875,1.368,-0.13193935,-0.9235757,0.36000001,0
1.182963,1.819943,-3.1190393,0.31130606,0.47893235,-0.82079983,0
1.7691858,-3.0328903,1.45312,0.46557522,-0.79812902,0.38240001,0
-3.6468599,0.12156188,1.0609598,-0.95969999,0.031989969,0.27919996,0
1.7462254,-3.2167308,-1.0214398,0.45953301,-0.84650815,-0.26879996,0
2.9936328,2.1516738,-0.92112011,0.78779811,0.56622994,-0.24240004,0
1.6019827,1.6505276,-3.0247991,0.42157441,0.43434936,-0.79599977,0
0.47455195,3.6777756,0.82991987,0.12488209,0.96783572,0.21839997,0
-2.9574106,1.1541116,-2.0884802,-0.77826589,0.30371356,-0.54960001,0
-0.97611928,3.6116414,-0.66576004,-0.25687349,0.95043194,-0.17520002,0
1.8570989,2.6529987,1.9881603,0.48871025,0.69815755,0.52320009,0
-2.4513786,-2.2215621,-1.8696002,-0.64509964,-0.58462161,-0.49200004,0
2.7160916,2.6154957,-0.47119954,0.71476096,0.68828833,-0.12399988,0
0.40604225,3.7558889,-0.41040015,0.10685322,0.98839182,-0.10800004,0
0.15169555,0.45508665,3.7695999,0.039919883,0.11975965,0.99199998,0
1.2860279,3.5073485,0.69615966,0.33842841,0.92298645,0.18319991,0
-0.9093309,-3.2476108,1.75104,-0.23929761,-0.8546344,0.46079999,0
-2.5790024,-2.6962297,0.72048014,-0.67868483,-0.70953417,0.18960004,0
0.28775784,2.3020654,3.0095997,0.075725749,0.60580671,0.79199994,0
2.4888582,0.66369551,-2.7937596,0.65496272,0.17465672,-0.73519993,0
-3.6459727,-0.091149226,-1.0670401,-0.95946652,-0.023986639,-0.28080001,0
-3.4477539,-1.4776089,-0.60799992,-0.90730369,-0.38884446,-0.15999998,0
1.1176618,-2.5147398,2.6204801,0.29412153,-0.66177362,0.68960005,0
-1.196386,-0.59819299,-3.5567999,-0.31483841,-0.1574192,-0.93599999,0
-2.1629982,-0.72099948,-3.0399997,-0.56921005,-0.18973671,-0.79999995,0
1.4835075,3.4968393,-0.10639954,0.39039671,0.92022085,-0.02799988,0
-1.4639422,1.3175477,3.2497602,-0.38524795,0.34672308,0.85520005,0
0.29785767,1.4297165,-3.5081606,0.078383602,0.37624118,-0.92320019,0
1.577801,2.3982575,-2.4897599,0.41521078,0.63112038,-0.6552,0
-1.2603173,-2.0165076,-2.9640002,-0.33166245,-0.53065991,-0.78000009,0
0,3.4541931,1.5838403,0,0.90899819,0.41680008,0
-2.9842272,-0.67823362,2.25264,-0.78532296,-0.17848253,0.59280002,0
3.2382419,-0.94777805,-1.7480006,0.85216892,-0.24941528,-0.46000016,0
-0.58822221,-1.764667,3.3135998,-0.15479532,-0.46438608,0.87199998,0
-2.9184,2.1888001,1.0639998,-0.76800001,0.57600003,0.27999994,0
2.6495903,0.28799903,-2.7086394,0.69726062,0.075789221,-0.71279985,0
-3.6862178,0.3567304,0.85119998,-0.97005731,0.093876421,0.22399999,0
0.96670085,2.5980082,-2.5992005,0.25439498,0.68368638,-0.68400013,0
-3.1211932,-1.6027749,-1.4592,-0.82136661,-0.42178285,-0.384,0
3.3673265,0.38853732,1.7176002,0.88613856,0.10224666,0.45200005,0
-0.76598358,3.6384215,-0.78431994,-0.20157462,0.95747936,-0.20639999,0
0.14056495,2.6707363,2.6995201,0.036990777,0.70282537,0.71040004,0
-2.6177347,-2.6177347,0.85728002,-0.68887758,-0.68887758,0.22560002,0
2.6078081,2.5178833,-1.1399999,0.68626529,0.66260087,-0.29999998,0
0.55776328,-3.34658,-1.7115204,0.14677981,-0.88067895,-0.45040011,0
-0.88759661,-3.1065881,-2.0003204,-0.23357806,-0.81752318,-0.52640015,0
3.3877115,1.2481041,-1.1855998,0.89150304,0.32844844,-0.31199995,0
3.2396758,-1.4952351,1.3072001,0.85254627,-0.39348292,0.34400001,0
-0.2593818,-3.3719616,1.7328001,-0.068258367,-0.88735831,0.45600003,0
2.4871173,0.98327899,-2.6995203,0.65450454,0.25875762,-0.7104001,0
-2.8255961,1.3455223,2.1553597,-0.74357796,0.35408482,0.56719995,0
1.4692987,-1.1754389,3.3014398,0.38665757,-0.30932602,0.86879992,0
-0.67528379,3.6658266,-0.73871982,-0.17770626,0.96469122,-0.19439995,0
-0.43946669,-1.9043555,3.2588799,-0.11564913,-0.5011462,0.85759997,0
-3.2417505,0.45233727,-1.9304001,-0.85309225,0.11903612,-0.50800002,0
1.7444408,2.2428527,-2.5231998,0.45906338,0.59022439,-0.66399997,0
3.3856292,-1.3725524,-1.0457602,0.89095503,-0.36119801,-0.27520004,0
-0.58507156,1.9014828,3.2376001,-0.1539662,0.50039023,0.85200006,0
3.7406998,-0.50550008,-0.43776014,0.98439467,-0.13302633,-0.11520004,0
-1.6556002,-3.0564928,1.5351999,-0.43568426,-0.80434024,0.40399998,0
0.37680027,3.5168054,1.3892806,0.099157967,0.92547512,0.36560014,0
-0.93402743,3.6193559,0.6839999,-0.2457967,0.95246208,0.17999998,0
-3.7195241,-0.76578432,0.13679996,-0.97882217,-0.20152219,0.035999991,0
-2.4888582,0.66369551,-2.7937596,-0.65496272,0.17465672,-0.73519993,0
-3.1592605,-1.1847228,-1.7480001,-0.83138436,-0.31176916,-0.46000004,0
2.5221376,-2.8374047,-0.16719982,0.66372043,-0.74668545,-0.043999955,0
-2.6306419,2.3801045,1.3619199,-0.69227421,0.62634331,0.35839999,0
1.5817877,3.2852511,1.0700803,0.41625991,0.8645398,0.28160009,0
-3.0735707,-0.41912332,-2.19488,-0.80883443,-0.11029562,-0.5776,0
-1.7155353,-2.7597742,-1.9699199,-0.45145667,-0.72625637,-0.51840001,0
0.20411038,3.7760458,-0.37392008,0.053713258,0.99369627,-0.098400027,0
-0.19876572,1.9081506,-3.2801607,-0.052306771,0.50214487,-0.86320019,0
2.6491208,-0.5886935,-2.6599996,0.69713706,-0.15491934,-0.69999993,0
-3.702035,-0.18984805,-0.83599967,-0.97421974,-0.049960013,-0.21999991,0
2.7802291,0.41703397,2.5566401,0.73163927,0.10974579,0.67280006,0
3.5198355,-1.362517,0.44079992,0.92627251,-0.35855711,0.11599998,0
2.2678242,-0.54230589,-3.0004795,0.59679586,-0.14271207,-0.7895999,0
-2.678735,-2.678735,0.29791972,-0.70493031,-0.70493031,0.078399926,0
-2.2912486,0.71601534,2.94576,-0.60296017,0.18842509,0.77520001,0
2.9783471,-0.06618543,-2.3590395,0.78377557,-0.017417219,-0.6207999,0
2.7883527,0.90783572,-2.4168,0.73377705,0.23890413,-0.63600004,0
-2.3388646,-2.5894573,-1.5048001,-0.61549067,-0.68143612,-0.39600003,0
-2.2656829,2.2656834,2.0428798,-0.59623241,0.59623253,0.53759998,0
-3.4803951,-1.5226728,0.091200262,-0.91589344,-0.40070337,0.024000069,0
-1.4879862,-2.6377935,-2.2951996,-0.39157534,-0.69415623,-0.60399991,0
-3.797426,0,-0.1398403,-0.99932265,0,-0.036800079,0
-3.7563107,-0.34148282,0.46208033,-0.9885028,-0.089863904,0.12160009,0
3.3301034,1.3145143,-1.2737596,0.87634301,0.34592482,-0.33519989,0
3.6674647,-0.91686618,-0.38608032,0.96512228,-0.24128057,-0.10160009,0
-1.5407734,-2.2518995,-2.6447997,-0.40546668,-0.59260511,-0.69599992,0
1.2774477,-3.005759,-1.9425603,0.33617046,-0.79098922,-0.51120007,0
-3.4499648,1.4949846,0.5502398,-0.90788549,0.393417,0.14479995,0
0.51230991,-2.3566251,-2.9366403,0.1348184,-0.62016451,-0.77280009,0
2.1706746,0.43413457,3.0886402,0.57123017,0.11424594,0.81280005,0
2.3548682,-2.3548682,1.8300798,0.61970216,-0.61970216,0.48159996,0
-1.3096718,-0.91677022,-3.44736,-0.34465048,-0.24125533,-0.90720004,0
1.3467542,-2.342181,-2.6721604,0.35440901,-0.61636341,-0.7032001,0
-1.6279478,0.44398531,3.4047999,-0.42840731,0.11683824,0.89599997,0
3.1927817,0.39909732,2.0215998,0.84020573,0.10502561,0.53199995,0
-2.2226913,-0.3310391,-3.0643198,-0.5849188,-0.087115556,-0.80639994,0
0.25955948,3.5473163,-1.3376006,0.068305127,0.93350428,-0.35200015,0
-3.1663606,-0.82928503,-1.9304005,-0.83325279,-0.2182329,-0.50800014,0
-2.3770158,-2.2449591,1.93648,-0.62553042,-0.59077871,0.50959998,0
1.897783,0.72991675,3.2102399,0.49941659,0.19208336,0.8448,0
2.412925,2.412925,-1.6720004,0.63498026,0.63498026,-0.44000012,0
1.2481041,-3.3877115,-1.1855998,0.32844844,-0.89150304,-0.31199995,0
-0.98142093,2.5236542,2.66608,-0.25826868,0.66411954,0.70160002,0
2.3993623,0.15315063,-2.9427207,0.63141114,0.040302798,-0.77440017,0
-0.98848176,-3.4596856,1.2220799,-0.26012677,-0.9104436,0.32159996,0
-1.8489599,1.7401975,-2.8271999,-0.48656842,0.45794672,-0.74400002,0
3.2342441,-1.0349584,1.7054399,0.8511169,-0.27235746,0.4488,0
2.0952706,1.58561,-2.7451196,0.55138701,0.4172658,-0.72239989,0
3.6472082,-1.0420593,-0.22800046,0.95979166,-0.27422613,-0.060000122,0
0.96325308,2.0709941,-3.0369599,0.25348768,0.54499853,-0.79920006,0
-2.5431559,0.56514603,2.7663999,-0.66925156,0.14872263,0.72799999,0
3.3185885,-1.6592942,0.8208006,0.87331271,-0.43665636,0.21600015,0
0.53115708,3.1869409,2.0003197,0.13977818,0.83866864,0.52639991,0
-3.0454369,1.5227184,-1.6871998,-0.80143076,0.40071538,-0.44399998,0
3.6535475,-0.70713824,0.76911992,0.96145988,-0.18608901,0.20239998,0
-0.88125783,-0.14387885,-3.6936004,-0.23190996,-0.037862856,-0.97200012,0
0.84528524,0.28775671,-3.6936011,0.22244349,0.075725451,-0.9720003,0
-3.1208971,-0.653211,-2.0672002,-0.8212887,-0.17189763,-0.54400003,0
-0.55029863,-1.5821086,-3.4108801,-0.14481543,-0.41634437,-0.89760005,0
-0.54962647,-2.8855398,2.4107199,-0.14463855,-0.75935256,0.63439995,0
3.4314518,1.419911,0.80559957,0.90301365,0.3736608,0.21199989,0
-3.6791825,0.37735227,-0.87247968,-0.96820593,0.099303231,-0.22959992,0
0.90540981,0,3.6905599,0.23826574,0,0.97119999,0
-2.3851311,-1.2627167,2.6752,-0.62766612,-0.33229387,0.704,0
-1.8522809,3.0871346,1.216,-0.48744234,0.81240386,0.31999999,0
1.004001,2.1514306,2.9670403,0.26421079,0.56616598,0.7808001,0
1.8260634,1.9665297,2.6904001,0.48054302,0.51750785,0.70800006,0
2.1225421,-1.1906943,-2.9184005,0.55856371,-0.3133406,-0.76800013,0
2.9061029,1.9097248,-1.5321608,0.76476395,0.50255919,-0.40320021,0
1.6769395,2.954608,-1.7023998,0.44129989,0.77752841,-0.44799995,0
2.222841,2.4843514,1.8239999,0.5849582,0.65377671,0.47999999,0
0.39909732,3.1927817,2.0215998,0.10502561,0.84020573,0.53199995,0
1.7246207,-1.5809025,2.9943998,0.45384756,-0.41602698,0.78799993,0
-1.1185174,-2.4725122,-2.6600003,-0.29434669,-0.65066111,-0.70000011,0
-2.1435299,2.6198699,-1.7267194,-0.56408679,0.68943948,-0.45439985,0
-2.3181226,1.9772224,-2.2708805,-0.61003226,0.52032173,-0.5976001,0
-2.303606,-0.14397524,3.0187199,-0.60621214,-0.037888221,0.79439998,0
2.4641223,2.8926649,-0.024319954,0.64845324,0.76122761,-0.0063999882,0
0.21061717,-3.7911127,-0.15200029,0.055425573,-0.99766123,-0.040000077,0
-3.0266707,2.0581362,1.0214398,-0.79649228,0.54161483,0.26879996,0
2.1314023,-2.5120099,-1.8939191,0.56089538,-0.66105527,-0.49839979,0
2.6584275,0.78544444,-2.5991998,0.69958621,0.20669591,-0.68399996,0
-0.89258063,-3.6818943,0.29488027,-0.23488964,-0.96891958,0.077600069,0
-1.2637048,0.28959906,-3.5719998,-0.33255389,0.076210283,-0.93999994,0
-1.7612702,0.7338627,3.2862399,-0.46349216,0.19312176,0.86479998,0
-0.35673076,-3.6862178,0.85119992,-0.093876518,-0.97005731,0.22399998,0
1.2592281,-3.5487335,0.51071984,0.33137584,-0.93387723,0.13439997,0
1.8443135,2.0227954,-2.6356795,0.48534566,0.5323146,-0.69359988,0
-3.5384998,-1.3142999,-0.43775982,-0.93118417,-0.34586841,-0.11519995,0
-0.23326936,-3.7323079,0.67488015,-0.061386675,-0.98218632,0.17760004,0
-2.8988833,2.108279,-1.2615998,-0.76286405,0.55481029,-0.33199996,0
3.7858071,-0.32449773,0.048639491,0.99626505,-0.085394144,0.012799866,0
-0.9728474,-2.6405859,2.5536001,-0.25601247,-0.69489104,0.67200005,0
1.3142998,3.5384998,-0.43776047,0.34586838,0.93118417,-0.11520012,0
-0.28974262,2.173068,3.1038401,-0.076248057,0.57186002,0.81680006,0
-0.40604195,3.7558889,-0.41040009,-0.10685314,0.98839182,-0.10800003,0
2.8955662,-2.0143068,1.4135997,0.76199114,-0.53008074,0.37199992,0
2.8610628,1.7011727,-1.8331205,0.75291127,0.44767705,-0.48240012,0
3.2382419,-0.94777805,-1.7480006,0.85216892,-0.24941528,-0.46000016,0
3.746839,0.19720188,-0.60191983,0.98601031,0.051895231,-0.15839995,0
0.65014845,0.72895437,-3.6723197,0.17109171,0.1918301,-0.96639991,0
-1.4889793,-0.1488978,3.49296,-0.39183667,-0.039183632,0.9192,0
-0.73565501,3.5863175,-1.0183997,-0.19359343,0.94376779,-0.26799992,0
1.4312656,-3.1992991,-1.46832,0.37664884,-0.84192085,-0.38640001,0
1.3277351,1.180209,3.3592002,0.34940398,0.31058133,0.88400006,0
-1.7607743,-3.2867785,0.73263991,-0.46336165,-0.86494172,0.19279999,0
2.2850111,-0.71089226,-2.9518394,0.60131872,-0.18707691,-0.77679986,0
-1.6456989,-2.2552171,-2.5779197,-0.43307868,-0.5934782,-0.67839992,0
3.4799702,1.391988,0.62623972,0.91578168,0.36631265,0.16479993,0
3.5384998,-1.3142998,-0.43776047,0.93118417,-0.34586838,-0.11520012,0
1.6077404,3.2154808,1.2312002,0.42308959,0.84617919,0.32400006,0
-2.0355177,-2.5632448,-1.9303998,-0.53566253,-0.67453814,-0.50799996,0
0.072131902,-3.1738067,-2.08848,0.018982079,-0.83521229,-0.54960001,0
0.40530172,3.4045336,-1.6385604,0.10665835,0.89592993,-0.43120012,0
0.2912693,2.2816095,-3.0248008,0.076649815,0.60042357,-0.79600024,0
-2.058136,3.0266707,1.0214401,-0.54161471,0.79649228,0.26880005,0
2.5125556,-2.4288039,-1.4926406,0.66119885,-0.63915896,-0.39280015,0
1.1268847,2.3946307,2.7268798,0.2965486,0.63016599,0.71759999,0
-1.1607625,-0.37045613,-3.59936,-0.30546382,-0.097488455,-0.9472,0
0,3.5260644,1.4166405,0,0.9279117,0.37280014,0
-0.27835527,-2.783551,2.57184,-0.073251389,-0.73251343,0.67680001,0
-1.2627167,-2.3851311,2.6752,-0.33229387,-0.62766612,0.704,0
-3.6067266,0.72134531,0.95455974,-0.94913858,0.18982771,0.25119993,0
1.769186,-0.29486448,3.35008,0.46557528,-0.077595912,0.88160002,0
0.53740126,3.7618079,-5.4359435e-07,0.14142139,0.98994946,-1.4305115e-07,0
2.4232783,1.2411911,-2.6508803,0.63770485,0.32662925,-0.69760013,0
0.15169555,-0.4550871,3.7695999,0.039919883,-0.11975976,0.99199998,0
-1.9217036,2.1779304,-2.4502397,-0.5057115,0.57313955,-0.64479995,0
-2.2433531,2.6587892,-1.5291195,-0.59035611,0.69968134,-0.40239987,0
3.7538326,0.55203438,0.2097605,0.98785067,0.14527221,0.055200133,0
0.35288897,3.105422,-2.1614399,0.092865519,0.81721634,-0.56879997,0
3.2002754,0,2.0489597,0.84217775,0,0.53919995,0
0.12589405,3.5250368,1.4136004,0.033130016,0.92764127,0.37200013,0
0.62337053,3.7402229,-0.24928032,0.16404487,0.9842692,-0.065600082,0
3.7878301,-0.11140667,0.28272054,0.99679738,-0.029317545,0.074400142,0
-3.6067266,0.72134531,0.95455974,-0.94913858,0.18982771,0.25119993,0
-2.0244555,-0.71980643,-3.1342397,-0.53275144,-0.18942274,-0.8247999,0
-2.2678232,0.54230565,-3.0004802,-0.59679562,0.14271201,-0.78960007,0
-2.3822408,-2.3053944,-1.8574402,-0.6269055,-0.60668278,-0.48880011,0
-0.95404667,2.8621399,2.3104002,-0.25106493,0.75319475,0.6080001,0
-3.2877007,1.0685027,-1.5777601,-0.86518437,0.28118491,-0.41520002,0
2.2226901,-0.33103889,-3.0643208,0.58491844,-0.087115496,-0.80640024,0
3.4544458,0.16449726,-1.5747204,0.90906471,0.043288752,-0.4144001,0
-1.8002216,2.2156577,2.5079997,-0.47374251,0.58306783,0.65999991,0
0.74075651,-1.4815127,3.4199998,0.19493593,-0.38987175,0.89999998,0
-0.89040351,-1.3356053,3.44432,-0.23431672,-0.35147506,0.90640002,0
3.3121464,0.23107977,-1.8483201,0.8716175,0.060810465,-0.48640004,0
-2.7349358,-2.4971154,0.85120004,-0.71971995,-0.65713561,0.22400002,0
3.6472082,1.0420597,-0.22800066,0.95979166,0.27422622,-0.060000174,0
-1.3575226,3.1143167,-1.7023995,-0.35724279,0.81955701,-0.44799986,0
0.76984662,3.0094001,-2.1888003,0.20259121,0.79194742,-0.57600009,0
0.50371403,-1.3629907,-3.5112004,0.13255632,-0.35868177,-0.92400014,0
-2.5632448,2.0355177,-1.9303998,-0.67453814,0.53566253,-0.50799996,0
2.0815189,-3.1222782,0.59888023,0.54776812,-0.82165217,0.15760006,0
-1.1736133,-1.0758121,-3.4503999,-0.30884561,-0.28310844,-0.90799999,0
0.85362858,-2.3474782,-2.8636801,0.2246391,-0.61775744,-0.75360006,0
2.7695715,0.69239312,2.5080001,0.72883463,0.18220872,0.66000003,0
-2.7368848,-2.6316202,-0.15503985,-0.72023278,-0.69253159,-0.040799957,0
-0.42090556,2.665735,2.6752,-0.11076462,0.70150924,0.704,0
-3.6085503,-1.127672,0.38304016,-0.94961852,-0.29675579,0.10080004,0
2.4441297,-2.6885426,1.1126401,0.64319205,-0.70751125,0.29280004,0
-0.15120739,0.75603783,3.7209599,-0.03979142,0.19895732,0.97920001,0
-1.4076216,-2.2521946,2.7177601,-0.37042674,-0.59268278,0.71520001,0
-1.6089473,1.1701431,3.2375998,-0.4234072,0.30793241,0.852,0
1.6556002,3.0564928,1.5351999,0.43568426,0.80434024,0.40399998,0
-1.5703889,3.4548552,-0.19455972,-0.41326025,0.90917242,-0.051199928,0
1.1063049,-3.4418385,1.1704001,0.29113287,-0.905747,0.30800003,0
-2.1314023,2.5120096,-1.8939197,-0.56089532,0.66105515,-0.49839994,0
1.4463757,3.3748763,0.97888047,0.38062519,0.88812536,0.25760013,0
1.6786062,3.3572116,-0.5927996,0.44173846,0.88347673,-0.1559999,0
0.97233886,-3.6732812,0.03952007,0.25587866,-0.96665293,0.010400019,0
0,-1.4892896,3.4960001,0,-0.39191833,0.92000002,0
-3.6447685,-0.88656533,-0.6080001,-0.9591496,-0.23330666,-0.16000003,0
-0.57397246,-2.2958903,2.97312,-0.15104538,-0.60418165,0.78240001,0
-0.06618543,2.9783471,-2.3590395,-0.017417219,0.78377557,-0.6207999,0
1.9014828,-0.58507156,3.2376001,0.50039023,-0.1539662,0.85200006,0
3.2154808,-1.6077404,1.2312002,0.84617919,-0.42308959,0.32400006,0
-2.3350682,2.9188354,0.68400013,-0.61449164,0.76811457,0.18000004,0
0.91686594,3.667465,-0.38608018,0.24128051,0.9651224,-0.10160005,0
-0.67052519,3.0844154,2.1158397,-0.17645401,0.8116883,0.55679995,0
0.89654225,3.3300142,1.5960002,0.23593217,0.87631953,0.42000005,0
-2.1516736,2.993633,-0.92111969,-0.56622988,0.78779817,-0.24239992,0
-0.70022357,3.2677097,-1.8088005,-0.18426937,0.8599236,-0.47600013,0
-0.61224073,0.98900431,-3.6176002,-0.16111599,0.26026431,-0.95200008,0
1.6890476,-3.2574489,0.98800039,0.4444862,-0.85722339,0.26000011,0
1.1643158,1.7464741,3.16768,0.3063989,0.45959845,0.83360004,0
-3.4799702,0.78299308,-1.31024,-0.91578168,0.20605081,-0.34480003,0
1.3306732,2.9274807,2.0246394,0.35017717,0.77038968,0.53279984,0
-1.3096727,0.91677082,-3.4473596,-0.34465072,0.24125548,-0.90719992,0
1.627885,-3.3720481,0.64751971,0.4283908,-0.88738108,0.17039992,0
1.988513,1.5624034,2.8363199,0.5232929,0.4111588,0.7464,0
0.43921426,-2.8235204,-2.5049596,0.1155827,-0.74303168,-0.65919989,0
-2.7753885,1.7180976,1.9455999,-0.7303654,0.45213094,0.51199996,0
-0.28959852,1.2637025,-3.5720005,-0.076210141,0.3325533,-0.94000012,0
-3.3327191,-0.077505015,-1.8240001,-0.87703133,-0.020396058,-0.48000005,0
0.78534436,-3.702338,0.34048036,0.20666957,-0.97429949,0.089600094,0
-0.60129791,2.9396784,-2.3316798,-0.15823629,0.77359962,-0.61359996,0
0.36641771,-2.1527045,-3.1099198,0.096425712,-0.5665012,-0.81839997,0
2.5379176,2.7686372,0.57759947,0.66787308,0.72858876,0.15199986,0
-3.2154808,-1.6077404,1.2312002,-0.84617919,-0.42308959,0.32400006,0
1.1635022,-1.0062722,-3.47472,0.3061848,-0.26480848,-0.91440004,0
1.5572398,-2.9587557,-1.8057597,0.40979993,-0.77861995,-0.47519991,0
-3.0219727,-2.2925308,-0.22800036,-0.79525596,-0.60329759,-0.060000096,0
-2.6198699,2.1435299,-1.7267194,-0.68943948,0.56408679,-0.45439985,0
2.1514306,1.004001,2.9670403,0.56616598,0.26421079,0.7808001,0
0.41365194,0.79133409,-3.6936002,0.10885578,0.20824581,-0.97200006,0
-1.5901259,-1.9081511,-2.8758404,-0.4184542,-0.50214505,-0.75680012,0
-1.4639422,1.3175477,3.2497602,-0.38524795,0.34672308,0.85520005,0
1.2220651,-3.4217815,1.1126398,0.32159609,-0.90046883,0.29279995,0
-0.53614432,-3.5742953,-1.1734401,-0.14109062,-0.94060403,-0.30880004,0
1.0500767,0.60004425,3.6023998,0.27633598,0.15790638,0.94799995,0
-3.0411232,-1.6438502,-1.57776,-0.80029559,-0.43259215,-0.4152,0
-3.2849095,1.9073669,-0.10640012,-0.86444986,0.50193864,-0.028000033,0
-3.2677097,-0.70022357,-1.8088005,-0.8599236,-0.18426937,-0.47600013,0
2.1386459,2.2076344,-2.2343998,0.5628016,0.58095646,-0.588,0
2.671361,0,2.7025599,0.70298976,0,0.7112,0
-2.7883527,-0.90783572,-2.4168,-0.73377705,-0.23890413,-0.63600004,0
-1.8712155,3.3021455,0.18543991,-0.49242511,0.86898565,0.048799977,0
0,-3.2908964,1.9,0,-0.86602539,0.5,0
-0.75236064,0.7523607,-3.6480002,-0.19798964,0.19798966,-0.9600001,0
2.7730644,1.2174429,-2.2952006,0.72975379,0.3203797,-0.60400015,0
0.54381198,2.9909649,2.2799995,0.14310841,0.78709602,0.59999985,0
1.0349579,-3.2342443,1.70544,0.27235734,-0.85111696,0.44880003,0
2.0896878,-2.9501474,1.1703997,0.54991788,-0.77635461,0.30799991,0
0.29509902,3.7379246,-0.61711985,0.07765764,0.98366439,-0.16239996,0
3.1891439,1.7172313,1.1491202,0.83924842,0.45190299,0.30240005,0
-2.9457819,-1.7930845,1.5960002,-0.77520579,-0.47186434,0.42000005,0
2.7047458,1.4876105,2.2161601,0.71177518,0.39147645,0.58320004,0
0.4646332,3.7170634,0.63840008,0.1222719,0.97817463,0.16800003,0
2.5594928,0.38948804,-2.7815993,0.67355072,0.10249685,-0.73199981,0
0.50550008,3.7406998,-0.43776014,0.13302633,0.98439467,-0.11520004,0
3.3994756,1.3355086,1.0488003,0.89459884,0.35144964,0.27600008,0
-3.3877115,-1.2481041,-1.1855998,-0.89150304,-0.32844844,-0.31199995,0
-0.62917,-2.5738769,-2.7238398,-0.16557105,-0.67733604,-0.71679997,0
3.6323597,1.1007154,0.18544018,0.95588416,0.28966194,0.048800047,0
-0.59608799,1.3411978,3.50512,-0.15686527,0.35294682,0.9224,0
-2.8443418,2.5161488,0.13679989,-0.74851102,0.66214442,0.035999972,0
-0.38282281,3.445405,1.5564803,-0.10074285,0.90668553,0.40960008,0
-2.2656829,2.2656834,2.0428798,-0.59623241,0.59623253,0.53759998,0
3.1592607,2.1061735,-0.15200007,0.83138442,0.5542562,-0.040000018,0
3.5908296,0,1.2433596,0.94495517,0,0.32719988,0
-0.8477186,2.072201,-3.0704,-0.22308384,0.54531604,-0.80800003,0
1.1004759,3.601557,-0.50768042,0.28959891,0.94777817,-0.13360012,0
0.77867979,-1.1824397,-3.5263996,0.20491573,-0.31116834,-0.92799991,0
-0.74075651,1.481513,3.4199998,-0.19493593,0.38987187,0.89999998,0
1.2637044,3.5804954,-0.15199949,0.3325538,0.94223565,-0.039999865,0
-3.1897974,1.9332106,-0.72655952,-0.83942038,0.50873965,-0.19119987,0
1.7399851,1.3049884,3.1160002,0.45789084,0.343418,0.82000005,0
-2.0411057,-0.2915867,3.1920002,-0.5371331,-0.076733343,0.84000003,0
-1.9960904,-2.9507425,-1.3223999,-0.52528697,-0.77651119,-0.34799996,0
-3.6554506,0.91386247,0.49248022,-0.96196067,0.24049012,0.12960006,0
-3.7373755,0,0.68704015,-0.98351985,0,0.18080004,0
0.24734443,3.586498,1.2311996,0.065090641,0.94381529,0.32399991,0
0.50300878,0.39982754,-3.7452796,0.13237074,0.10521778,-0.98559988,0
-1.0420593,3.6472082,-0.22800046,-0.27422613,0.95979166,-0.060000122,0
-0.13160063,-3.2900188,1.89696,-0.034631748,-0.86579442,0.49920002,0
0.14397523,2.3036063,3.0187197,0.037888218,0.6062122,0.79439992,0
-0.21485296,3.1511767,-2.1127999,-0.056540255,0.82925701,-0.55599999,0
2.1992862,-2.5873952,1.7054399,0.57875955,-0.68089348,0.4488,0
-1.7267896,3.33846,0.55935955,-0.45441833,0.87854213,0.14719988,0
2.0165083,-1.2603178,-2.9639993,0.53066015,-0.3316626,-0.77999985,0
-0.69886965,2.655704,2.62656,-0.18391307,0.69886947,0.69120002,0
-0.97233915,-3.6732812,0.039519906,-0.25587872,-0.96665293,0.010399976,0
-1.4832274,-2.5150378,-2.4319994,-0.39032298,-0.66185206,-0.63999987,0
2.1312983,-2.3977103,2.0367997,0.56086797,-0.63097644,0.53599989,0
1.612848,3.440743,0.0030403566,0.42443371,0.90545869,0.00080009387,0
2.7695715,0.69239312,2.5080001,0.72883463,0.18220872,0.66000003,0
3.6958423,-0.11922061,0.87551993,0.97259009,-0.031373844,0.23039998,0
-1.391988,3.4799702,0.62623972,-0.36631265,0.91578168,0.16479993,0
-2.7190588,-1.3595293,-2.28,-0.71554178,-0.35777086,-0.60000002,0
2.6051934,2.4315133,-1.3193597,0.68557721,0.63987195,-0.34719992,0
2.7368848,-2.6316202,-0.15503985,0.72023278,-0.69253159,-0.040799957,0
-0.28093299,2.6688619,2.6903999,-0.073929742,0.70233214,0.708,0
1.4438496,-0.77229154,-3.4291201,0.37996042,-0.20323461,-0.90240002,0
1.1390876,-1.4428442,-3.3257601,0.29975989,-0.37969583,-0.87520003,0
-1.6556007,-1.1886364,-3.2071996,-0.43568438,-0.31279907,-0.84399992,0
-2.6821175,2.3360376,-1.3375998,-0.70582038,0.61474675,-0.35199994,0
-1.9173893,0.58355319,-3.2284801,-0.50457615,0.15356663,-0.84960002,0
-2.3982575,1.577801,-2.4897599,-0.63112038,0.41521078,-0.6552,0
3.1653395,0.14387892,-2.0976,0.83298403,0.037862871,-0.55199999,0
-3.0343022,-1.4004474,-1.8087997,-0.7985006,-0.3685388,-0.47599995,0
1.8745989,1.2977992,-3.0399992,0.49331549,0.34152612,-0.79999983,0
-0.42090556,2.665735,2.6752,-0.11076462,0.70150924,0.704,0
0.7597568,-3.4189053,1.4744003,0.199936,-0.89971191,0.38800007,0
2.8662786,0.3821705,-2.4654396,0.75428385,0.10057119,-0.6487999,0
3.0684414,-0.71359092,-2.1249602,0.80748457,-0.18778709,-0.55920005,0
-1.9054035,2.9216189,1.5078397,-0.50142199,0.76884711,0.39679992,0
0.30320829,-0.45481285,3.7604799,0.079791658,-0.11968759,0.9896,0
-0.27272049,2.9999242,2.3164797,-0.071768552,0.78945374,0.60959995,0
3.3719616,0.25938141,1.7328001,0.88735831,0.068258271,0.45600003,0
-1.2481041,3.3877115,-1.1855998,-0.32844844,0.89150304,-0.31199995,0
-0.77229154,-1.4438496,-3.4291201,-0.20323461,-0.37996042,-0.90240002,0
-3.5323439,1.0225208,-0.9576,-0.92956418,0.26908442,-0.252,0
0.36641747,2.1527033,-3.1099207,0.096425653,0.56650084,-0.8184002,0
-3.6434371,-0.24289593,1.0518397,-0.95879924,-0.063919984,0.27679992,0
-0.53614432,-3.5742953,-1.1734401,-0.14109062,-0.94060403,-0.30880004,0
0.77867872,1.1824381,-3.5264003,0.20491545,0.31116793,-0.92800009,0
1.8366073,2.2165952,-2.4806409,0.48331773,0.58331454,-0.65280026,0
2.0896878,-2.9501474,1.1703997,0.54991788,-0.77635461,0.30799991,0
-0.85431576,-3.6071107,-0.83599991,-0.22481994,-0.94923967,-0.21999998,0
1.9895124,3.1598132,0.70528013,0.52355593,0.8315298,0.18560004,0
-1.4627739,-3.4881532,0.36479998,-0.38494051,-0.91793507,0.095999993,0
1.9344623,2.6040843,-1.9790404,0.50906903,0.68528533,-0.52080011,0
-1.0526611,0.30076006,3.63888,-0.27701607,0.079147384,0.9576,0
-1.6293947,-2.5798748,2.2648001,-0.42878807,-0.67891443,0.59600002,0
-1.100715,-3.6323597,0.18544036,-0.28966185,-0.95588416,0.048800096,0
3.5121062,0.42830572,-1.3862407,0.9242385,0.11271203,-0.36480018,0
0.042451259,-2.0376623,-3.2071996,0.011171385,-0.53622693,-0.84399992,0
0.2727201,2.9999242,2.3164797,0.071768448,0.78945374,0.60959995,0
0,-0.30375686,3.7878399,0,-0.07993602,0.99680001,0
2.4513786,2.2215621,-1.8696002,0.64509964,0.58462161,-0.49200004,0
2.1359107,1.2815462,2.8697603,0.56208175,0.33724901,0.75520009,0
-0.654836,-2.8812785,-2.3894398,-0.17232528,-0.75823122,-0.62879997,0
0.92512947,-1.8943129,-3.1615999,0.24345513,-0.49850339,-0.83199996,0
-2.1266425,1.4177619,2.8119998,-0.55964273,0.37309524,0.73999995,0
1.1886368,-1.6556014,-3.2071991,0.31279916,-0.43568459,-0.84399974,0
-0.50136954,-3.5095875,1.368,-0.13193935,-0.9235757,0.36000001,0
-3.4950416,-1.3980166,-0.51983976,-0.91974783,-0.36789909,-0.13679995,0
-2.9019663,0.3224408,-2.4319997,-0.76367533,0.084852844,-0.63999993,0
0.17660792,2.7079906,-2.6599994,0.046475768,0.71262914,-0.69999987,0
-0.24790442,2.330301,-2.9913609,-0.065238006,0.61323714,-0.78720027,0
0.15193903,-0.15193903,3.79392,0.039983958,-0.039983958,0.99840003,0
1.2814015,0.13075528,-3.5750403,0.33721092,0.034409285,-0.94080013,0
3.6434371,-0.24289593,1.0518397,0.95879924,-0.063919984,0.27679992,0
-3.6193879,-0.60323143,0.98799974,-0.95247048,-0.15874511,0.25999993,0
-3.0684412,0.7135911,-2.1249604,-0.80748451,0.18778713,-0.55920011,0
0.48805979,3.7092535,-0.66575992,0.12843679,0.97611934,-0.17519999,0
2.6885431,2.4441295,1.1126398,0.70751137,0.64319199,0.29279995,0
-2.6154957,2.7160916,-0.47119954,-0.68828833,0.71476096,-0.12399988,0
-2.4634132,2.8739817,-0.33439964,-0.64826667,0.756311,-0.08799991,0
-2.5221376,-2.8374047,-0.16719982,-0.66372043,-0.74668545,-0.043999955,0
-2.4641221,2.8926649,-0.024319537,-0.64845318,0.76122761,-0.0063998783,0
-2.7922494,-2.5774612,-0.0060799886,-0.73480248,-0.67827928,-0.001599997,0
-0.073082455,0.20205151,-3.7939205,-0.019232225,0.053171448,-0.99840015,0
-1.4832274,2.5150378,-2.4319994,-0.39032298,0.66185206,-0.63999987,0
-2.43418,0.4762525,-2.87888,-0.64057368,0.1253296,-0.75760001,0
-1.5817877,3.2852511,1.0700803,-0.41625991,0.8645398,0.28160009,0
-1.8578603,1.5720359,2.9183998,-0.48891062,0.41369367,0.76799995,0
0.50357801,-0.73738217,-3.6935995,0.13252053,-0.19404794,-0.97199988,0
0.24289557,-3.6434371,1.0518398,0.063919887,-0.95879924,0.27679995,0
0.65321082,-3.1208973,-2.0671999,0.17189759,-0.82128876,-0.54399997,0
-2.6674125,-1.236118,-2.4076798,-0.70195067,-0.3252942,-0.63359994,0
3.2154634,-1.9522457,0.53808063,0.8461746,-0.51374888,0.14160016,0
1.4780782,0.88684672,3.3865597,0.38896796,0.23338072,0.89119995,0
1.2714143,3.5208397,-0.65360028,0.33458272,0.9265368,-0.17200008,0
0.67717022,0.93402779,-3.6206398,0.17820269,0.24579678,-0.95279998,0
-3.738147,0.65967304,0.17631991,-0.98372293,0.17359817,0.046399977,0
2.551971,-0.14177603,2.8119998,0.67157131,-0.037309479,0.73999995,0
0.19687358,2.9531064,-2.3833597,0.051808838,0.77713329,-0.62719995,0
-1.4438496,-0.77229154,-3.4291201,-0.37996042,-0.20323461,-0.90240002,0
-2.7160916,2.6154957,-0.47119954,-0.71476096,0.68828833,-0.12399988,0
2.4862108,1.9179338,-2.1401601,0.654266,0.50471944,-0.56320006,0
-1.428745,3.5169108,0.17328018,-0.37598553,0.92550284,0.045600049,0
1.8366078,-2.2165954,-2.4806402,0.48331785,-0.5833146,-0.65280008,0
2.4932153,-1.3851194,2.51104,0.65610933,-0.36450511,0.66079998,0
2.6306417,-2.3801045,1.3619202,0.69227415,-0.62634331,0.35840008,0
1.1844611,-1.1844616,3.4108801,0.31170028,-0.31170043,0.89760005,0
2.2850111,0.71089226,-2.9518394,0.60131872,0.18707691,-0.77679986,0
1.06274,3.5746703,-0.72960019,0.27966842,0.94070274,-0.19200005,0
3.4259531,-1.0541395,-1.2615997,0.90156662,-0.27740514,-0.33199993,0
-1.3149537,-3.0243936,1.8878402,-0.34604046,-0.79589307,0.49680004,0
-3.45029,0.25557682,1.5716803,-0.90797108,0.067257062,0.41360009,0
2.6495903,0.28799903,-2.7086394,0.69726062,0.075789221,-0.71279985,0
-1.844313,-2.022795,-2.6356802,-0.48534554,-0.53231448,-0.69360006,0
2.773365,-0.49304277,-2.5505598,0.72983289,-0.12974809,-0.67119992,0
-0.26299089,-3.2873843,1.8878399,-0.06920813,-0.86510116,0.49679998,0
1.6874712,-3.2811937,-0.90895993,0.44407135,-0.86347204,-0.23919998,0
1.3677263,-2.6051931,-2.40464,0.35992798,-0.68557715,-0.63279998,0
1.2815462,2.1359107,2.8697603,0.33724901,0.56208175,0.75520009,0
1.5783662,2.8936715,1.8908795,0.41535953,0.76149249,0.49759987,0
-2.9689069,0.1319513,-2.3681595,-0.78129131,0.034724027,-0.62319988,0
-2.2835298,-2.8844588,0.95151985,-0.60092884,-0.75906807,0.25039995,0
-2.7190585,1.3595296,2.28,-0.71554172,0.35777095,0.60000002,0
1.6310359,0,3.4321599,0.42921999,0,0.90319997,0
0.61224073,-0.98900431,-3.6176002,0.16111599,-0.26026431,-0.95200008,0
-0.77127385,3.3421865,1.6355201,-0.20296681,0.87952274,0.43040004,0
-2.2621522,-1.2724607,2.7755201,-0.59530324,-0.33485809,0.73040003,0
-1.9577227,0.16314365,-3.2527997,-0.51519018,0.04293254,-0.85599995,0
-0.13791004,2.8961132,2.4563203,-0.036292117,0.76213503,0.64640009,0
-3.0219724,2.292531,-0.22800076,-0.7952559,0.60329765,-0.0600002,0
2.9244783,2.2641122,-0.87248015,0.76959956,0.595819,-0.22960004,0
-3.4418385,-1.1063052,1.1703999,-0.905747,-0.29113296,0.30799997,0
0.37045553,1.1607609,-3.5993605,0.097488299,0.3054634,-0.94720012,0
2.2518995,1.5407734,-2.6447997,0.59260511,0.40546668,-0.69599992,0
-0.54962653,2.8855395,2.4107203,-0.14463857,0.75935251,0.63440013,0
-1.6764939,0.27941561,-3.3987195,-0.44118261,0.073530421,-0.89439988,0
2.0143073,2.4459445,-2.097599,0.53008085,0.64366961,-0.55199975,0
1.2445446,2.5513167,-2.5262406,0.32751176,0.67139918,-0.66480017,0
-1.8165747,2.8433347,-1.7480001,-0.47804597,0.74824595,-0.46000004,0
-2.9393954,-2.3741271,0.40432003,-0.77352512,-0.62477028,0.10640001,0
1.3451915,-0.80070919,-3.4625604,0.35399777,-0.21071294,-0.91120011,0
0,-2.3041193,3.02176,0,-0.6063472,0.79519999,0
-1.3306729,2.9274807,2.0246396,-0.35017708,0.77038968,0.5327999,0
-2.8375804,-2.2207153,1.2068801,-0.74673176,-0.58439881,0.31760004,0
0.48258501,3.3780949,-1.6720004,0.12699606,0.88897234,-0.44000012,0
2.2207153,-2.8375804,1.2068801,0.58439881,-0.74673176,0.31760004,0
2.0415769,-3.175786,0.4316799,0.53725708,-0.83573318,0.11359998,0
-1.9014828,-0.58507156,3.2376001,-0.50039023,-0.1539662,0.85200006,0
1.3229342,1.3229342,3.3075202,0.34814057,0.34814057,0.87040007,0
3.5969765,-0.44962221,-1.1399994,0.94657278,-0.11832163,-0.29999983,0
-3.5159016,-0.70318037,-1.2585602,-0.92523724,-0.18504746,-0.33120006,0
-2.8742843,-1.6984406,1.81488,-0.75639063,-0.44695804,0.47760001,0
2.0405626,2.8057735,1.5503993,0.53699017,0.73836148,0.40799981,0
-2.0519435,-3.1805127,-0.33743989,-0.53998512,-0.83697701,-0.088799976,0
2.0604267,1.7660799,-2.6600008,0.54221755,0.46475786,-0.70000017,0
0.22256434,3.7835972,0.27360055,0.058569565,0.99568349,0.072000146,0
1.5890161,1.5890161,3.0643198,0.41816214,0.41816214,0.80639994,0
0.36641747,2.1527033,-3.1099207,0.096425653,0.56650084,-0.8184002,0
-2.873982,-2.4634132,-0.33440015,-0.75631106,-0.64826667,-0.088000037,0
1.4807578,-2.749979,-2.1644793,0.38967311,-0.72367871,-0.56959981,0
-2.9188354,-2.3350682,0.68400013,-0.76811457,-0.61449164,0.18000004,0
-3.1598132,1.9895124,0.70528013,-0.8315298,0.52355593,0.18560004,0
-2.7793448,-2.1476753,1.4500802,-0.73140651,-0.56517774,0.38160005,0
2.6717432,-1.7366331,2.0702403,0.70309025,-0.45700869,0.54480004,0
-3.4876935,-0.51039422,-1.4196799,-0.91781408,-0.13431427,-0.37359998,0
-3.2940402,-0.30642226,-1.8696002,-0.8668527,-0.08063744,-0.49200004,0
3.1891439,1.7172313,1.1491202,0.83924842,0.45190299,0.30240005,0
2.3219471,2.7684755,-1.1764799,0.61103874,0.7285462,-0.3096,0
-0.29329321,-1.9064047,3.27408,-0.077182427,-0.50168544,0.86160004,0
-1.0048018,3.3912053,1.3892802,-0.26442152,0.89242244,0.36560005,0
3.7835972,0.22256434,0.27360055,0.99568349,0.058569565,0.072000146,0
2.655704,0.69886965,2.62656,0.69886947,0.18391307,0.69120002,0
-3.4217815,1.2220651,1.1126398,-0.90046883,0.32159609,0.29279995,0
2.1435299,2.6198699,-1.7267194,0.56408679,0.68943948,-0.45439985,0
2.5472734,-0.42454556,2.7876799,0.67033511,-0.11172251,0.73359996,0
2.1064548,3.0639336,-0.78432024,0.55433023,0.80629832,-0.20640007,0
-1.9104651,-2.3198504,2.3256001,-0.50275397,-0.61048698,0.61200005,0
-2.1266425,1.4177619,2.8119998,-0.55964273,0.37309524,0.73999995,0
-1.4627739,3.4881532,0.36479998,-0.38494051,0.91793507,0.095999993,0
3.4881532,1.4627739,0.36479998,0.91793507,0.38494051,0.095999993,0
-1.0225208,-3.5323439,-0.9576,-0.26908442,-0.92956418,-0.252,0
-3.5746703,1.06274,-0.72960019,-0.94070274,0.27966842,-0.19200005,0
-3.6668928,-0.59143448,0.80255991,-0.96497178,-0.15564065,0.21119998,0
0.21485275,3.1511767,-2.1127999,0.056540199,0.82925701,-0.55599999,0
2.8926649,2.4641223,-0.024319954,0.76122761,0.64845324,-0.0063999882,0
-2.7862058,0,2.5840001,-0.73321205,0,0.68000007,0
0.57899845,-3.7055891,0.61104012,0.15236801,-0.97515506,0.16080004,0
3.3603456,-1.7310871,-0.38911954,0.88430148,-0.45554924,-0.10239988,0
1.5526756,-3.3964772,-0.70224011,0.40859884,-0.8938098,-0.18480003,0
1.9052052,1.4038353,-2.9731193,0.50136983,0.36943036,-0.78239989,0
2.5727994,-2.7786231,-0.3161597,0.6770525,-0.73121661,-0.083199918,0
-1.55928,2.98862,1.7540797,-0.41033685,0.786479,0.46159992,0
0.40857154,-2.9961941,2.30128,0.10751883,-0.78847218,0.6056,0
-2.3474786,-0.85362858,-2.8636799,-0.61775756,-0.2246391,-0.7536,0
-1.0500768,-0.60004383,3.6024001,-0.27633601,-0.15790628,0.94800001,0
-0.32628694,-3.4260137,-1.6112003,-0.085864983,-0.90158254,-0.42400008,0
0.29509902,-3.7379246,-0.61711985,0.07765764,-0.98366439,-0.16239996,0
-3.6384215,0.76598334,-0.78431982,-0.95747936,0.20157456,-0.20639995,0
2.4459445,2.0143073,-2.097599,0.64366961,0.53008085,-0.55199975,0
3.2929497,-0.88347435,-1.6780807,0.8665657,-0.23249325,-0.44160017,0
-3.1620018,1.517761,1.46224,-0.83210576,0.39941078,0.38479999,0
-1.1435575,2.1441696,2.9214401,-0.30093619,0.56425518,0.76880002,0
-1.127672,-3.6085503,0.38304016,-0.29675579,-0.94961852,0.10080004,0
3.0454369,-1.5227184,-1.6871998,0.80143076,-0.40071538,-0.44399998,0
-0.52211934,3.207305,-1.9699202,-0.13739982,0.84402764,-0.51840007,0
1.3453773,-0.14948627,3.5507202,0.35404667,-0.039338492,0.93440008,0
-2.9909644,0.54381204,2.28,-0.7870959,0.14310843,0.60000002,0
-0.39909771,-3.1927817,2.0215998,-0.10502572,-0.84020573,0.53199995,0
0.78544444,-2.6584275,-2.5991998,0.20669591,-0.69958621,-0.68399996,0
-0.65967304,-3.738147,0.17631991,-0.17359817,-0.98372293,0.046399977,0
-3.6535475,0.70713824,0.76911992,-0.96145988,0.18608901,0.20239998,0
-2.895566,2.014307,1.4135998,-0.76199108,0.5300808,0.37199998,0
-0.56011951,3.6407766,-0.93327963,-0.14739987,0.95809913,-0.24559991,0
-2.9507425,-1.9960904,-1.3223999,-0.77651119,-0.52528697,-0.34799996,0
0.74371368,1.3386838,3.4777601,0.19571413,0.35228524,0.91520005,0
3.4544458,-0.16449749,-1.5747204,0.90906471,-0.043288816,-0.4144001,0
-2.6858363,-2.1742482,1.5808001,-0.70679897,-0.57217056,0.41600001,0
2.7640657,-2.4781275,-0.8116802,0.72738576,-0.65213883,-0.21360005,0
-1.3132803,2.1888003,-2.8150396,-0.3456001,0.57600009,-0.7407999,0
-2.3851311,1.2627163,2.6752002,-0.62766612,0.33229378,0.70400006,0
3.0767713,-2.2280068,-0.09728048,0.80967665,-0.5863176,-0.025600126,0
-3.0029044,0,2.32864,-0.79023802,0,0.6128,0
3.7577941,0.52191597,-0.21584034,0.98889321,0.13734631,-0.05680009,0
-3.4968393,-1.4835075,-0.10639954,-0.92022085,-0.39039671,-0.02799988,0
-1.0062722,-1.1635022,-3.47472,-0.26480848,-0.3061848,-0.91440004,0
-2.3730991,-2.847719,-0.8360002,-0.62449974,-0.74939972,-0.22000006,0
-2.9909644,-0.5438118,-2.28,-0.7870959,-0.14310837,-0.60000002,0
0.45187694,-0.90375477,3.6631999,0.11891498,-0.23783021,0.96399999,0
-3.3696146,-1.4976064,-0.91808027,-0.88674068,-0.39410695,-0.24160008,0
-2.8791769,-0.68551844,2.3833599,-0.75767815,-0.1803996,0.62720001,0
-3.5742953,0.53614432,-1.1734401,-0.94060403,0.14109062,-0.30880004,0
-2.0646279,-2.0646279,2.4319999,-0.54332316,-0.54332316,0.63999999,0
1.2985036,3.5708847,0.0516803,0.34171149,0.9397065,0.013600079,0
-3.4426277,-0.24590197,-1.5899204,-0.90595466,-0.064711049,-0.41840011,0
-1.0318056,-1.4740081,3.3470399,-0.2715278,-0.38789687,0.88080001,0
2.6495445,-2.6495445,-0.63231939,0.69724858,-0.69724858,-0.16639984,0
-2.7319436,1.2293743,2.3377602,-0.71893251,0.32351956,0.61520004,0
0.15184778,-0.30369601,3.7848001,0.039959941,-0.079920001,0.99600005,0
-2.6316202,2.7368848,-0.15503985,-0.69253159,0.72023278,-0.040799957,0
-2.0616043,2.2677646,-2.2465599,-0.54252744,0.59678018,-0.59119999,0
2.4441295,2.6885431,1.1126398,0.64319199,0.70751137,0.29279995,0
-3.5354795,1.3927647,-0.024319626,-0.93038934,0.36651704,-0.0063999016,0
1.6255419,-0.59110594,3.3835199,0.42777419,-0.15555419,0.89039999,0
-2.192976,1.0964878,-2.9032001,-0.57709897,0.28854942,-0.76400006,0
0.26051947,2.9308424,-2.4046397,0.068557754,0.77127433,-0.63279992,0
-2.2260811,0.98361725,-2.9184,-0.58581084,0.25884664,-0.76800001,0
3.2631111,1.9128582,0.36479944,0.85871345,0.50338376,0.095999852,0
-2.8643961,2.0219269,-1.4652802,-0.75378847,0.53208601,-0.38560006,0
2.4373493,0,-2.9153607,0.64140773,0,-0.76720017,0
-1.836995,-1.0059733,-3.1707203,-0.48341975,-0.26472983,-0.83440012,0
0.97951251,-3.4728165,-1.1916797,0.25776646,-0.91389906,-0.31359994,0
-1.8165747,2.8433347,-1.7480001,-0.47804597,0.74824595,-0.46000004,0
-1.4864947,-0.44594842,3.4686401,-0.39118281,-0.11735485,0.91280001,0
-3.3748765,1.4463757,0.97887993,-0.88812542,0.38062519,0.25759998,0
-2.3053944,-2.3822408,-1.8574402,-0.60668278,-0.6269055,-0.48880011,0
-1.0541395,3.4259531,-1.2615997,-0.27740514,0.90156662,-0.33199993,0
-2.1745033,0.14496675,3.1129599,-0.57223773,0.038149145,0.81919998,0
3.6998911,-0.69997931,-0.51072007,0.97365558,-0.18420509,-0.13440003,0
3.2342441,-1.0349584,1.7054399,0.8511169,-0.27235746,0.4488,0
-1.6556007,-1.1886364,-3.2071996,-0.43568438,-0.31279907,-0.84399992,0
2.2678242,0.54230589,-3.0004795,0.59679586,0.14271207,-0.7895999,0
0.77229124,1.4438487,-3.4291203,0.20323454,0.37996021,-0.90240008,0
1.7858492,-2.3353412,2.40768,0.46996033,-0.61456347,0.6336,0
2.4482102,-2.8933389,0.27359977,0.64426589,-0.76140499,0.071999945,0
-0.13075528,1.2814015,-3.5750403,-0.034409285,0.33721092,-0.94080013,0
1.8375736,-1.8375736,2.77248,0.48357201,-0.48357201,0.72960001,0
0.56011951,3.6407766,-0.93327963,0.14739987,0.95809913,-0.24559991,0
0.74326569,3.3859894,-1.5564805,0.19559623,0.89104986,-0.40960014,0
-0.11607833,0.63198203,-3.7452803,-0.03054693,0.16631106,-0.98560005,0
-1.2293746,-2.7319436,2.3377602,-0.32351962,-0.71893251,0.61520004,0
0,-2.7402928,-2.6326401,0,-0.72112972,-0.6928001,0
0.30369556,0.15184778,3.7848001,0.079919882,0.039959941,0.99600005,0
-2.1730685,-0.28974262,3.1038399,-0.57186013,-0.076248057,0.8168,0
0.98900485,-2.9670148,-2.1584003,0.26026443,-0.78079337,-0.56800008,0
1.4438496,-0.77229154,-3.4291201,0.37996042,-0.20323461,-0.90240002,0
2.4627831,0.83958501,-2.7694397,0.64810085,0.22094342,-0.72879994,0
1.910465,2.3198509,2.3255999,0.50275397,0.6104871,0.61199999,0
-2.8936713,1.5783662,1.89088,-0.76149243,0.41535953,0.49759999,0
-2.3744695,1.3967471,2.61744,-0.62486041,0.36756504,0.68879998,0
2.6487856,-0.83645868,2.5931201,0.69704884,-0.22012071,0.68240005,0
-2.1663916,0.56514561,-3.0704002,-0.57010305,0.14872253,-0.80800009,0
-1.042937,-1.042937,3.50208,-0.27445713,-0.27445713,0.92159998,0
-2.6529987,-1.8570989,1.9881603,-0.69815755,-0.48871025,0.52320009,0
2.2882113,2.9846234,-0.54416049,0.60216087,0.78542721,-0.14320013,0
1.3451915,-0.80070919,-3.4625604,0.35399777,-0.21071294,-0.91120011,0
3.0544105,-2.0362737,-0.98191965,0.80379224,-0.53586149,-0.2583999,0
-3.2873843,-0.26299089,1.8878399,-0.86510116,-0.06920813,0.49679998,0
0.65348065,-0.55029947,-3.7027197,0.17196859,-0.14481565,-0.97439992,0
-2.895566,-2.0143068,1.4136002,-0.76199108,-0.53008074,0.37200007,0
3.2507396,-1.8716379,-0.60799962,0.85545778,-0.49253631,-0.15999991,0
1.7691849,0.2580061,-3.3531206,0.46557498,0.067896344,-0.88240016,0
-1.9014828,-0.58507156,3.2376001,-0.50039023,-0.1539662,0.85200006,0
-3.7026589,0.84632188,-0.11855979,-0.97438395,0.22271629,-0.031199945,0
-0.82141894,-3.6377127,0.72959995,-0.21616288,-0.95729285,0.19199999,0
-3.4799702,-1.391988,0.62623972,-0.91578168,-0.36631265,0.16479993,0
1.7706898,0,3.3622398,0.46597102,0,0.88479996,0
1.7095777,2.530175,-2.26176,0.44988886,0.6658355,-0.5952,0
2.2076344,-2.1386459,-2.2343998,0.58095646,-0.5628016,-0.588,0
1.3145143,3.3301034,-1.2737596,0.34592482,0.87634301,-0.33519989,0
-3.2706132,-0.38030395,-1.8969603,-0.86068767,-0.10007999,-0.49920008,0
1.3132803,2.1888003,-2.8150396,0.3456001,0.57600009,-0.7407999,0
3.3719616,0.25938141,1.7328001,0.88735831,0.068258271,0.45600003,0
2.5150378,-1.4832274,-2.4319994,0.66185206,-0.39032298,-0.63999987,0
0.34026289,2.6086819,-2.7420793,0.089542866,0.68649524,-0.72159982,0
-2.6040845,1.9344627,-1.9790397,-0.68528539,0.50906914,-0.52079993,0
-2.0653393,-2.710758,1.6811199,-0.54351038,-0.71335739,0.44239998,0
3.3994756,1.3355086,1.0488003,0.89459884,0.35144964,0.27600008,0
2.4932153,1.3851198,2.5110397,0.65610933,0.3645052,0.66079992,0
2.3822408,2.3053944,-1.8574402,0.6269055,0.60668278,-0.48880011,0
-2.1061735,3.1592607,-0.15200007,-0.5542562,0.83138442,-0.040000018,0
0.61670834,1.4606251,-3.4534397,0.16229166,0.38437501,-0.90879989,0
-2.7722399,2.4026079,-0.99104005,-0.72953683,0.63226527,-0.2608,0
-3.2483363,1.9286997,-0.41039982,-0.85482538,0.50755256,-0.10799996,0
2.356626,0.51231015,-2.9366395,0.62016475,0.13481846,-0.77279991,0
1.4714606,3.310786,1.1460803,0.38722646,0.87125951,0.30160007,0
0.94540554,-3.676578,-0.17023973,0.24879093,-0.96752053,-0.044799931,0
1.9289609,-2.8130679,-1.67504,0.50762129,-0.74028105,-0.44080001,0
-3.5528457,-0.81988758,-1.0700797,-0.93495941,-0.21575989,-0.28159991,0
-0.2912693,2.2816095,-3.0248008,-0.076649815,0.60042357,-0.79600024,0
-2.5786707,-2.6741774,-0.79951972,-0.67859757,-0.70373088,-0.21039993,0
0.74326569,3.3859894,-1.5564805,0.19559623,0.89104986,-0.40960014,0
-1.030802,2.8862455,-2.2465603,-0.27126369,0.75953829,-0.59120011,0
-3.1606119,1.8234297,1.0609604,-0.83173996,0.47984993,0.27920011,0
0.86427969,1.6892737,-3.2923205,0.22744203,0.44454572,-0.86640012,0
-3.7092535,-0.48805979,-0.66575992,-0.97611934,-0.12843679,-0.17519999,0
3.2199669,-0.76665872,-1.8665603,0.84735972,-0.20175231,-0.49120009,0
-3.1592607,-0.92145091,1.8999999,-0.83138442,-0.24248709,0.49999997,0
0.14752601,1.770314,3.3592,0.038822636,0.46587211,0.884,0
2.6821175,2.3360376,-1.3375998,0.70582038,0.61474675,-0.35199994,0
-1.1144822,2.3404129,-2.7785602,-0.29328477,0.61589813,-0.73120004,0
2.4584615,2.8096707,0.70832014,0.6469636,0.73938704,0.18640004,0
-1.3411983,-0.59608799,3.50512,-0.35294694,-0.15686527,0.9224,0
-1.8136191,-2.0926378,2.6022398,-0.47726819,-0.55069417,0.68479997,0
1.2815462,2.1359107,2.8697603,0.33724901,0.56208175,0.75520009,0
-1.7060004,1.4690559,-3.0612803,-0.44894749,0.38659367,-0.80560005,0
-0.13160063,-3.2900188,1.89696,-0.034631748,-0.86579442,0.49920002,0
-1.3583394,3.3341053,1.2160002,-0.35745776,0.87739611,0.32000005,0
1.8712158,-3.3021452,0.1854396,0.49242523,-0.86898559,0.048799895,0
0.24790442,2.330301,-2.9913609,0.065238006,0.61323714,-0.78720027,0
1.6592942,3.3185885,0.8208006,0.43665636,0.87331271,0.21600015,0
0.70802009,-1.4834708,-3.4260795,0.18632108,-0.39038706,-0.90159988,0
-2.9393954,2.3741269,0.40432042,-0.77352512,0.62477022,0.10640011,0
0.79441178,-3.6741555,-0.55632001,0.20905574,-0.966883,-0.1464,0
3.5020721,1.0868496,0.99711972,0.92159802,0.28601307,0.26239994,0
-3.4799702,-1.391988,0.62623972,-0.91578168,-0.36631265,0.16479993,0
3.1298242,-1.9260457,0.96672016,0.82363796,-0.50685412,0.25440004,0
3.3780949,-0.48258501,-1.6720004,0.88897234,-0.12699606,-0.44000012,0
0,3.3352816,-1.8209602,0,0.87770569,-0.47920004,0
2.2943442,-2.9826474,0.52896029,0.60377479,-0.78490722,0.13920008,0
1.8629258,0.43600392,-3.283201,0.49024364,0.11473788,-0.86400026,0
-1.1541115,-2.9574108,-2.0884798,-0.30371356,-0.77826601,-0.54959995,0
-3.7827411,0,-0.36176011,-0.99545819,0,-0.095200032,0
-1.5624034,-1.988513,2.8363199,-0.4111588,-0.5232929,0.7464,0
-3.0402856,0.94104069,-2.0763204,-0.80007517,0.24764229,-0.54640013,0
1.3967471,2.3744698,2.6174397,0.36756504,0.62486047,0.68879992,0
-2.7793448,2.1476758,1.4500798,-0.73140651,0.56517786,0.38159996,0
0.96325308,-2.0709941,-3.0369599,0.25348768,-0.54499853,-0.79920006,0
-3.1465983,-1.0488663,1.8543998,-0.82805222,-0.27601746,0.48799995,0
3.0612059,2.1192966,0.76000005,0.8055805,0.55770963,0.20000002,0
0.36377218,-3.6377256,1.0366398,0.095729522,-0.95729619,0.27279994,0
0.57499403,-1.7633153,-3.3166399,0.15131421,-0.46403036,-0.87279999,0
1.3725523,3.3856294,-1.0457599,0.36119798,0.89095515,-0.27519998,0
-2.8936713,1.5783662,1.89088,-0.76149243,0.41535953,0.49759999,0
3.3021777,-1.821891,0.46511966,0.86899412,-0.47944498,0.12239991,0
-1.0457555,-0.89636195,3.5416,-0.27519882,-0.23588473,0.93199998,0
1.6856927,1.5412046,-3.0369604,0.44360334,0.40558016,-0.79920012,0
-0.98327893,2.4871175,-2.6995201,-0.25875762,0.6545046,-0.71040004,0
-2.5309162,-1.5984735,-2.3408,-0.66603059,-0.42065093,-0.616,0
1.1276723,3.6085503,0.38303998,0.29675588,0.94961852,0.10079999,0
3.5782685,-1.2268349,-0.36176053,0.94164962,-0.3228513,-0.095200136,0
