-1.5676733,0,3.6800001,-0.39191833,0,0.92000002,0
1.5039421,-3.7020113,0.18240018,0.37598553,-0.92550284,0.045600045,0
-0.21485336,3.9747851,-0.39360014,-0.05371334,0.99369627,-0.098400034,0
1.6641079,1.8153902,3.152,0.41602698,0.45384756,0.78799999,0
-0.41278753,-3.9214821,-0.67199987,-0.10319688,-0.98037052,-0.16799997,0
3.824609,-1.0756714,0.46400014,0.95615226,-0.26891786,0.11600003,0
2.7353694,2.7353694,-1.017599,0.68384236,0.68384236,-0.25439975,0
1.8362535,2.3608978,-2.6559999,0.45906338,0.59022444,-0.66399997,0
3.4735377,-1.2023785,1.5776001,0.86838442,-0.30059463,0.39440003,0
-1.444792,3.5638204,-1.1008002,-0.36119801,0.89095509,-0.27520004,0
2.7257445,-2.4619627,-1.5840001,0.68143612,-0.61549067,-0.39600003,0
1.7798873,-3.5597754,0.40000001,0.44497183,-0.88994384,0.1,0
-2.4058552,-0.90219575,3.0655999,-0.60146379,-0.22554894,0.76639998,0
-1.8623009,3.1925161,1.5296,-0.46557522,0.79812902,0.38240001,0
2.8554509,-2.0396075,-1.9200006,0.71386272,-0.50990188,-0.48000014,0
2.4441547,-2.9141848,-1.2383999,0.61103868,-0.7285462,-0.30959997,0
-3.3761106,0.54959935,-2.0736001,-0.84402764,0.13739984,-0.51840001,0
3.9823225,0.33185989,-0.17600027,0.99558061,0.082964972,-0.044000067,0
-2.5566356,-2.6447954,-1.5712006,-0.6391589,-0.66119885,-0.39280015,0
-0.63782018,0.15945493,3.9456,-0.15945505,0.039863732,0.98640001,0
0,3.5533316,1.8368002,0,0.8883329,0.45920005,0
1.7427384,1.2511966,-3.3759992,0.43568459,0.31279916,-0.8439998,0
-2.8629096,2.2556257,-1.6479995,-0.71572739,0.56390643,-0.41199988,0
2.4253893,0,3.1807997,0.60634732,0,0.79519993,0
-3.3846986,-2.0549955,0.56640011,-0.84617466,-0.51374888,0.14160003,0
-3.2140539,1.1179316,2.1024003,-0.80351347,0.2794829,0.52560008,0
1.0274942,-3.8017278,-0.70080024,0.25687355,-0.95043194,-0.17520006,0
3.6863778,1.5179203,-0.3263993,0.92159444,0.37948006,-0.081599824,0
3.6203868,0.90509695,-1.4399996,0.90509671,0.22627424,-0.3599999,0
3.758826,-1.366846,0.054400317,0.9397065,-0.34171149,0.013600079,0
-2.1203227,-1.2116133,3.168,-0.53008074,-0.30290335,0.79200006,0
-0.2804341,3.3652074,2.1439998,-0.070108525,0.84130186,0.53599995,0
-0.29571894,2.8093283,2.832,-0.073929735,0.70233208,0.708,0
3.0850973,-0.27423084,-2.5311997,0.77127433,-0.068557709,-0.63279992,0
-3.4850378,1.5489058,1.2064003,-0.87125945,0.38722646,0.30160007,0
0.6444639,1.0410572,-3.8080003,0.16111597,0.26026431,-0.95200008,0
-0.74087441,2.9634972,-2.5824001,-0.1852186,0.74087429,-0.64560002,0
-1.0758997,-1.8443997,3.3824,-0.26897493,-0.46109992,0.84560001,0
-3.2496154,1.9497689,1.2800002,-0.81240386,0.48744223,0.32000005,0
-3.6267421,0.402971,1.6384004,-0.90668553,0.10074275,0.40960011,0
2.2556257,2.8629096,-1.6479995,0.56390643,0.71572739,-0.41199988,0
-3.7984741,1.1870234,0.4032,-0.94961852,0.29675585,0.1008,0
2.9793429,-2.0313699,1.7311995,0.74483573,-0.50784248,0.43279988,0
0.086754739,-3.6437025,-1.6480005,0.021688685,-0.91092563,-0.41200012,0
2.7987254,2.3614244,-1.6095995,0.69968134,0.59035611,-0.40239987,0
-3.2682326,-2.2877629,-0.29120034,-0.81705815,-0.57194072,-0.072800085,0
-3.5837197,0.42663339,-1.7248005,-0.89592993,0.10665835,-0.43120012,0
-0.15155289,-2.4248483,3.1776001,-0.037888221,-0.60621208,0.79440004,0
-1.7427371,-3.217361,1.6159999,-0.43568426,-0.80434024,0.40399998,0
0.20758092,-3.9440413,-0.63359988,0.051895231,-0.98601031,-0.15839997,0
-2.1401253,3.3791456,-0.035200201,-0.53503132,0.84478641,-0.0088000502,0
-0.062379487,-1.5282966,-3.6960003,-0.015594872,-0.38207415,-0.92400008,0
3.6238186,-0.2588442,-1.6736004,0.90595466,-0.064711049,-0.41840011,0
-3.6574867,1.4223558,-0.77440017,-0.91437167,0.35558894,-0.19360004,0
3.6218348,1.6977347,0.0032003755,0.90545869,0.42443368,0.00080009387,0
-1.6218667,-2.3704207,-2.7839997,-0.40546668,-0.59260517,-0.69599992,0
2.1203227,1.2116129,3.1680002,0.53008068,0.30290323,0.79200006,0
-1.3578826,-2.1122615,3.1136,-0.33947065,-0.52806538,0.7784,0
-1.4923806,2.2385707,2.9600003,-0.37309515,0.55964267,0.74000007,0
2.3238258,-2.2512064,-2.352,0.58095646,-0.5628016,-0.588,0
1.1886784,3.396224,-1.7471993,0.2971696,0.84905601,-0.43679982,0
3.3370461,0.83426154,2.0415998,0.8342616,0.2085654,0.5104,0
2.3480983,1.5051912,-2.8671997,0.58702457,0.3762978,-0.71679991,0
-1.0405072,3.6417742,1.2864004,-0.2601268,0.91044354,0.32160011,0
-1.4285153,-0.11661346,-3.7344003,-0.35712883,-0.029153366,-0.93360007,0
-0.89086539,3.8975356,-0.1248006,-0.22271635,0.97438389,-0.03120015,0
0.96502292,1.3786042,-3.628799,0.24125573,0.34465104,-0.90719974,0
3.2664838,1.814713,-1.4272002,0.81662095,0.45367825,-0.35680005,0
2.6470945,-1.9117903,-2.3104002,0.66177362,-0.47794756,-0.57760006,0
-1.6417838,3.6353788,0.29760009,-0.41044596,0.90884471,0.074400023,0
-3.2927659,-2.2708728,0.028799754,-0.82319146,-0.56771821,0.0071999384,0
2.8471007,1.5659058,2.3328001,0.71177518,0.39147645,0.58320004,0
3.1251652,0.13889611,-2.4927995,0.78129131,0.034724027,-0.62319988,0
1.1990396,-1.5187833,-3.5008001,0.29975989,-0.37969583,-0.87520003,0
3.2960434,0.29964048,-2.2463999,0.82401091,0.074910127,-0.56160003,0
-3.5597754,-1.7798877,0.39999971,-0.88994384,-0.44497192,0.099999927,0
-1.8562288,-3.1821065,-1.5584004,-0.46405724,-0.79552668,-0.38960013,0
1.6977347,3.6218348,0.0032003755,0.42443368,0.90545869,0.00080009387,0
1.2523818,3.0204504,-2.3040009,0.31309545,0.75511259,-0.57600021,0
1.1596546,3.6722395,-1.0816,0.28991365,0.91805989,-0.27039999,0
-3.3319361,-0.15145172,-2.2079999,-0.83298403,-0.03786293,-0.55199999,0
-2.3704207,-1.6218667,-2.7839997,-0.59260517,-0.40546668,-0.69599992,0
1.0330747,-2.6564782,2.8064001,0.25826868,-0.66411954,0.70160002,0
-2.1904881,3.3433769,0.15359963,-0.54762203,0.83584422,0.038399909,0
-2.3657372,-3.1128123,0.84480006,-0.5914343,-0.77820307,0.21120001,0
-1.0576861,3.5696898,1.4624003,-0.26442152,0.89242244,0.36560008,0
3.6120546,1.4946432,0.84799957,0.90301365,0.3736608,0.21199989,0
-3.7597806,0.98941624,-0.94080001,-0.93994516,0.24735406,-0.2352,0
-2.4507279,3.1509356,0.25600022,-0.61268204,0.78773397,0.064000063,0
3.1483836,-0.57243347,-2.4000001,0.7870959,-0.14310837,-0.60000002,0
-1.9454393,1.7957903,2.9984,-0.48635983,0.44894758,0.74959999,0
-1.5785376,3.4356408,-1.3055999,-0.3946344,0.8589102,-0.32639998,0
2.6813405,-0.44689006,2.9343998,0.67033511,-0.11172251,0.73359996,0
2.8833313,-2.7679982,0.15679985,0.72083282,-0.69199955,0.039199963,0
-0.31189758,-1.715436,3.5999999,-0.077974394,-0.428859,0.89999998,0
-1.6471776,0.3088457,-3.6319995,-0.41179439,0.077211425,-0.90799987,0
3.3894386,0.80700934,-1.9648006,0.84735966,0.20175233,-0.49120015,0
-0.95719045,3.4185376,1.8432001,-0.23929761,0.8546344,0.46080002,0
-1.6446352,-2.0931716,2.9856,-0.4111588,-0.5232929,0.7464,0
0.53622711,-3.6195309,1.6160003,0.13405678,-0.90488273,0.40400007,0
0.17315501,3.6362588,-1.6576004,0.043288752,0.90906471,-0.4144001,0
-0.17172991,2.0607593,-3.4240005,-0.042932477,0.51518983,-0.85600013,0
-1.740047,3.5888467,-0.3039996,-0.43501174,0.89721167,-0.075999901,0
-1.1852103,-0.96688211,-3.6959999,-0.29630259,-0.24172053,-0.92399997,0
2.6971271,-2.4274147,1.6832001,0.67428178,-0.60685366,0.42080003,0
1.329175,2.5106649,2.816,0.33229375,0.62766623,0.704,0
-1.9556425,1.6547747,3.072,-0.48891062,0.41369367,0.76800001,0
2.4619627,2.7257447,-1.5839995,0.61549067,0.68143618,-0.39599988,0
2.4740987,-3.1195159,-0.38400069,0.61852467,-0.77987897,-0.096000172,0
1.0568432,2.2646639,3.1232002,0.26421079,0.56616598,0.78080004,0
-3.3449569,1.0605961,-1.9199998,-0.83623922,0.26514903,-0.47999996,0
-1.286384,-3.6018755,1.1712,-0.321596,-0.90046889,0.29280001,0
2.0910676,3.1366007,1.3375996,0.52276689,0.78415018,0.33439991,0
-2.6855972,1.3100474,-2.6591997,-0.6713993,0.32751185,-0.66479993,0
2.4058557,0.90219575,3.0655997,0.60146391,0.22554894,0.76639992,0
-1.1957643,3.8047044,-0.30720064,-0.29894108,0.95117611,-0.07680016,0
3.04597,1.661438,1.9903996,0.76149249,0.4153595,0.4975999,0
1.2668723,-3.0967999,2.1920002,0.31671807,-0.77419996,0.54800004,0
-3.8314571,-0.19157295,-1.1328002,-0.95786428,-0.047893237,-0.28320006,0
-1.8931456,-3.3130047,-1.1999997,-0.47328639,-0.82825118,-0.29999992,0
-3.4662633,-0.92997319,-1.7664,-0.86656582,-0.2324933,-0.44159999,0
2.3040001,-2.4575999,-2.1568,0.57600003,-0.61439997,-0.53920001,0
-3.867532,0.83622295,-0.58560002,-0.966883,0.20905574,-0.1464,0
2.6641223,1.6826037,-2.464,0.66603059,0.42065093,-0.616,0
3.8207519,0.50943381,1.0687997,0.95518798,0.12735845,0.26719993,0
-1.6057814,3.5821283,0.76799965,-0.40144536,0.89553207,0.19199991,0
3.9514027,0.58108878,0.22080053,0.98785067,0.1452722,0.055200133,0
-3.6582704,-0.91456753,1.3344001,-0.91456759,-0.22864188,0.33360001,0
3.4815984,-1.8990539,-0.52159971,0.87039959,-0.47476348,-0.13039993,0
1.4159911,-0.84285176,-3.6448004,0.35399777,-0.21071294,-0.91120011,0
-2.7423084,-2.5594878,-1.3888003,-0.68557709,-0.63987195,-0.34720007,0
-1.2808717,-2.9887006,2.3295999,-0.32021794,-0.74717516,0.58239996,0
-2.0162787,-1.5803268,-3.0720005,-0.50406969,-0.3950817,-0.76800013,0
-3.0967999,1.2668723,2.1920002,-0.77419996,0.31671807,0.54800004,0
-1.9233303,3.5072496,9.5367426e-08,-0.48083258,0.8768124,2.3841856e-08,0
3.2780483,1.8357068,1.3728001,0.81951207,0.45892671,0.34320003,0
-1.8742359,3.5279737,-0.20159972,-0.46855897,0.88199341,-0.050399929,0
3.182107,1.8562287,-1.5584,0.79552674,0.46405718,-0.38960001,0
-3.2011824,1.7303686,-1.6608,-0.80029559,0.43259215,-0.4152,0
-3.1656137,-1.9785086,1.4367998,-0.79140341,-0.49462715,0.35919994,0
-3.7628107,1.1186736,-0.76800019,-0.94070268,0.27966839,-0.19200005,0
2.529454,1.0415397,2.9183998,0.6323635,0.26038492,0.72959995,0
3.7628107,-1.1186736,-0.76800019,0.94070268,-0.27966839,-0.19200005,0
-2.1401253,3.3791456,-0.035200201,-0.53503132,0.84478641,-0.0088000502,0
-3.7965543,-0.75931084,1.0047997,-0.94913858,-0.18982771,0.25119993,0
0.37550572,-3.8802292,0.89600003,0.093876429,-0.97005731,0.22400001,0
1.4138421,-0.47128084,3.7120001,0.35346052,-0.11782021,0.92800003,0
1.823899,-1.5199157,3.2191999,0.45597476,-0.37997892,0.80479997,0
-2.7983449,0.82678366,-2.7359998,-0.69958621,0.20669591,-0.68399996,0
1.5346664,-1.5346659,3.3599999,0.3836666,-0.38366649,0.83999997,0
-0.90850705,-2.2712677,3.1647999,-0.22712676,-0.56781691,0.79119998,0
0.86357325,-3.0225065,2.4735999,0.21589331,-0.75562662,0.61839998,0
0.86626673,2.0060914,-3.3504,0.21656668,0.50152284,-0.83759999,0
1.7466255,3.4932511,0.86400062,0.43665639,0.87331277,0.21600015,0
-3.2888932,-2.0929322,-0.89599979,-0.82222331,-0.52323306,-0.22399995,0
-1.5022968,-2.1032155,3.0528002,-0.3755742,-0.52580386,0.76320004,0
-1.3804506,3.6393695,0.92159951,-0.34511265,0.90984237,0.23039988,0
3.0724583,2.4579666,0.72000015,0.76811457,0.61449164,0.18000004,0
1.7669536,-3.5339069,-0.62400025,0.4417384,-0.88347673,-0.15600006,0
2.0910676,-3.1366007,1.3375996,0.52276689,-0.78415018,0.33439991,0
1.9112332,-3.0033667,1.8240001,0.4778083,-0.75084168,0.45600003,0
-2.6937234,-2.357008,-1.7855998,-0.67343086,-0.589252,-0.44639996,0
-0.89879549,3.723582,1.1519996,-0.22469887,0.93089551,0.2879999,0
-3.7911127,-1.1583956,-0.5344004,-0.94777817,-0.28959891,-0.1336001,0
1.9563495,-3.4236112,0.67199969,0.48908737,-0.85590279,0.16799992,0
2.680032,-1.9747603,2.2176001,0.670008,-0.49369007,0.55440003,0
-2.4401293,-2.0812869,-2.3904004,-0.61003232,-0.52032173,-0.5976001,0
-3.4755712,-1.9550089,-0.31359994,-0.86889279,-0.48875222,-0.078399986,0
0.93431222,3.270093,-2.1056006,0.23357806,0.81752324,-0.52640015,0
-3.6318843,0.26902822,1.6544003,-0.90797108,0.067257054,0.41360009,0
-3.3629472,-1.9928577,0.84800035,-0.84073681,-0.49821442,0.21200009,0
-0.28655642,3.8207519,-1.1487994,-0.071639106,0.95518798,-0.28719985,0
0,2.4253893,3.1807997,0,0.60634732,0.79519993,0
2.6383276,2.22175,2.0255997,0.6595819,0.55543751,0.50639993,0
-0.62221682,-1.7110968,3.5616,-0.15555421,-0.42777419,0.89039999,0
-0.82420361,3.6631267,-1.3791994,-0.2060509,0.91578168,-0.34479985,0
1.0139506,-2.1799939,-3.1968,0.25348765,-0.54499847,-0.7992,0
3.6717403,-1.539762,0.384,0.91793507,-0.38494051,0.096000001,0
-2.9328482,0,2.7200003,-0.73321205,0,0.68000007,0
3.1223018,-0.99345946,2.2943997,0.78057545,-0.24836487,0.57359993,0
-2.3255503,-3.182332,0.68160021,-0.58138758,-0.79558301,0.17040005,0
-0.62221682,-1.7110968,3.5616,-0.15555421,-0.42777419,0.89039999,0
-1.7830056,-1.3607149,-3.3120003,-0.4457514,-0.34017873,-0.82800007,0
-1.5051912,-2.3480983,-2.8671997,-0.3762978,-0.58702457,-0.71679991,0
1.8874574,-3.1008232,1.6800003,0.47186434,-0.77520579,0.42000008,0
3.3261194,-2.0942233,0.74240047,0.83152986,-0.52355582,0.18560012,0
-0.54426336,-3.5377123,1.7856002,-0.13606584,-0.88442808,0.44640005,0
3.0646248,-1.5323124,2.0639994,0.7661562,-0.3830781,0.51599985,0
0.75769097,2.1310055,-3.2991998,0.18942274,0.53275138,-0.82479995,0
-0.63679183,-0.47759399,3.9200001,-0.15919796,-0.1193985,0.98000002,0
-2.3693142,-2.8958285,1.4144,-0.59232855,-0.72395712,0.3536,0
0,1.1089696,3.8432,0,0.27724239,0.96079999,0
-2.7489376,2.8684571,0.46400002,-0.6872344,0.71711427,0.116,0
0.31561771,1.2624717,3.7824001,0.078904428,0.31561792,0.94560003,0
-2.357008,2.6937234,-1.7855998,-0.589252,0.67343086,-0.44639996,0
1.8562287,3.182107,-1.5584,0.46405718,0.79552674,-0.38960001,0
1.7165191,-0.15604702,3.6095998,0.42912978,-0.039011754,0.90239996,0
0.97382051,-1.9940137,-3.3279998,0.24345513,-0.49850342,-0.83199996,0
-3.430685,-0.82336444,1.8848,-0.85767126,-0.20584111,0.47119999,0
-1.7078352,-0.77628881,3.5328,-0.4269588,-0.1940722,0.88319999,0
1.6738186,-1.1298275,-3.4527991,0.41845465,-0.28245687,-0.86319977,0
-3.37046,-1.3481839,1.6800001,-0.84261501,-0.33704597,0.42000002,0
-2.684432,0.29826993,2.9503999,-0.67110801,0.074567482,0.73759997,0
-3.6574867,-1.4223558,-0.77440017,-0.91437167,-0.35558894,-0.19360004,0
1.7846708,2.0821157,2.9120002,0.44616771,0.52052891,0.72800004,0
-3.3269598,1.9193996,1.1168004,-0.83173996,0.4798499,0.27920011,0
2.5594878,-2.7423089,-1.3887997,0.63987195,-0.68557721,-0.34719992,0
2.3005846,-2.1567976,2.4607997,0.57514614,-0.53919941,0.61519992,0
3.7415378,-1.1224613,0.86079973,0.93538445,-0.28061533,0.21519993,0
-3.9610558,0.24006377,0.5024004,-0.99026394,0.060015943,0.1256001,0
-2.9531856,-2.4395881,1.1520002,-0.73829639,-0.60989702,0.28800005,0
0.4790386,0.15967953,3.9680002,0.11975965,0.039919883,0.99200004,0
-1.6983049,-2.830508,2.2592001,-0.42457622,-0.707627,0.56480002,0
-1.768077,2.1948543,-2.8384008,-0.44201925,0.54871356,-0.70960021,0
-2.3322709,1.8949702,2.6400001,-0.58306772,0.47374254,0.66000003,0
1.0310658,-3.6555963,-1.2543998,0.25776646,-0.91389906,-0.31359994,0
0.47614452,3.412369,-2.0320003,0.11903613,0.85309225,-0.50800008,0
1.7466254,-3.4932511,0.86400008,0.43665636,-0.87331277,0.21600002,0
3.0783982,-2.3832762,-0.91840017,0.76959956,-0.59581906,-0.22960004,0
-0.71195513,-3.9157526,0.40000033,-0.17798878,-0.97893816,0.10000008,0
-3.2401955,1.6200978,1.6959999,-0.81004888,0.40502444,0.42399997,0
0.47128037,1.4138421,3.7120001,0.11782009,0.35346052,0.92800003,0
1.466068,3.7215574,-0.025599608,0.36651701,0.93038934,-0.006399902,0
0.44688964,2.6813405,2.9344001,0.11172241,0.67033511,0.73360002,0
-2.4058552,-0.90219575,3.0655999,-0.60146379,-0.22554894,0.76639998,0
-2.2886822,2.8271956,1.6640004,-0.57217062,0.70679897,0.41600013,0
-2.3849297,-2.3849297,-2.1504002,-0.59623241,-0.59623241,-0.53760004,0
-2.2434716,-2.5239058,2.1440001,-0.56086791,-0.63097644,0.53600001,0
-2.8878114,-1.1551249,2.5152001,-0.72195286,-0.28878123,0.62880003,0
3.6195309,-0.53622675,1.6160003,0.90488273,-0.13405669,0.40400007,0
2.2570207,1.2037443,3.0752003,0.56425518,0.30093607,0.76880008,0
1.9747603,2.680032,2.2176001,0.49369007,0.670008,0.55440003,0
3.2266698,-0.9820298,2.1503997,0.80666745,-0.24550745,0.53759992,0
3.0514562,-2.2192411,-1.3279998,0.76286405,-0.55481029,-0.33199996,0
3.9423363,0.67582905,-0.035200544,0.98558408,0.16895726,-0.0088001359,0
3.4268909,-1.318035,-1.5871997,0.85672271,-0.32950875,-0.39679992,0
0.62497598,1.5624394,3.6287997,0.15624399,0.39060986,0.90719992,0
-3.0329249,-0.68930107,-2.5151999,-0.75823122,-0.17232527,-0.62879997,0
3.4218311,1.9701452,-0.63999963,0.85545778,0.49253631,-0.15999991,0
-3.1835721,1.3841622,1.9872,-0.79589301,0.34604055,0.49680001,0
0.50798422,3.5558896,-1.7600005,0.12699606,0.8889724,-0.44000012,0
3.2870994,-2.2267449,-0.48640016,0.82177484,-0.55668622,-0.12160004,0
-1.653041,-3.6366899,-0.20479971,-0.41326025,-0.90917248,-0.051199928,0
0.53725708,-3.6712565,-1.4943999,0.13431427,-0.91781414,-0.37359998,0
2.529454,-1.0415397,2.9183998,0.6323635,-0.26038492,0.72959995,0
3.2664838,1.814713,-1.4272002,0.81662095,0.45367825,-0.35680005,0
2.9595139,2.6424234,-0.50879949,0.73987848,0.66060585,-0.12719987,0
0.80608881,3.9152887,0.1440006,0.2015222,0.97882217,0.036000151,0
3.6204081,1.3698839,-1.008,0.90510201,0.34247097,-0.252,0
-2.6085553,2.9095428,-0.85440022,-0.65213883,0.7273857,-0.21360005,0
0.47128037,1.4138421,3.7120001,0.11782009,0.35346052,0.92800003,0
-0.20758124,3.9440413,-0.63359988,-0.051895309,0.98601031,-0.15839997,0
-2.3480983,1.5051912,-2.8671997,-0.58702457,0.3762978,-0.71679991,0
2.4053171,-2.2638276,2.2559998,0.60132927,-0.56595689,0.56399995,0
-0.15945493,0.6378206,3.9456,-0.039863732,0.15945515,0.98640001,0
-2.3396749,0.34846219,-3.2256,-0.58491874,0.087115549,-0.8064,0
-1.0904912,1.4020598,3.5840001,-0.27262279,0.35051495,0.89600003,0
-1.3834735,3.7247367,-0.4608005,-0.34586838,0.93118417,-0.11520012,0
-1.1916502,0.66510707,-3.7600002,-0.29791254,0.16627677,-0.94000006,0
0,2.2894537,3.2800002,0,0.57236344,0.82000005,0
1.2188932,-1.9807017,3.2544,0.30472329,-0.49517542,0.8136,0
-2.8778553,-2.0556109,1.8687998,-0.71946383,-0.51390272,0.46719995,0
-1.9462737,1.8317869,-2.9759998,-0.48656842,0.45794672,-0.74399996,0
-0.46645409,-3.9648607,0.24959995,-0.11661352,-0.99121517,0.062399987,0
-3.6417744,1.0405067,1.2864001,-0.9104436,0.26012668,0.32160002,0
1.4159911,0.84285176,-3.6448004,0.35399777,0.21071294,-0.91120011,0
1.3661045,-1.9732621,-3.1999993,0.34152612,-0.49331552,-0.79999983,0
1.5225008,3.5525014,1.0304005,0.38062519,0.88812536,0.25760013,0
2.3005846,2.1567972,2.4607999,0.57514614,0.53919929,0.61519998,0
-2.2277379,1.6336746,2.8927999,-0.55693448,0.40841866,0.72319996,0
-3.7665985,1.2914052,-0.38079989,-0.94164962,0.3228513,-0.095199972,0
-0.68310815,-3.8058887,-1.0239996,-0.17077704,-0.95147216,-0.25599989,0
-1.863884,0,3.5392001,-0.46597099,0,0.88480002,0
-1.823899,-1.5199157,3.2191999,-0.45597476,-0.37997892,0.80479997,0
-3.9929218,-0.22816709,0.067200117,-0.99823046,-0.057041772,0.016800029,0
-2.6387875,-2.6387875,1.4400003,-0.65969688,-0.65969688,0.36000007,0
-3.9850602,0.34157625,0.051200189,-0.99626505,0.085394062,0.012800047,0
-1.5409918,1.3868923,3.4208002,-0.38524795,0.34672308,0.85520005,0
3.3791456,2.1401253,-0.035200201,0.84478641,0.53503132,-0.0088000502,0
2.8878114,-1.1551249,2.5152001,0.72195286,-0.28878123,0.62880003,0
-0.20758124,3.9440413,-0.63359988,-0.051895309,0.98601031,-0.15839997,0
1.492381,-2.2385709,2.9599998,0.37309524,-0.55964273,0.73999995,0
0,3.9991999,0.079999469,0,0.99979997,0.019999867,0
0.85326689,1.1092469,-3.7471998,0.21331672,0.27731171,-0.93679994,0
-1.4014685,-3.7372494,0.26240012,-0.35036713,-0.93431234,0.06560003,0
3.9126985,0.48908758,0.67200011,0.97817463,0.1222719,0.16800003,0
1.5065954,-3.3676834,-1.5456001,0.37664884,-0.84192085,-0.38640001,0
1.7458282,-2.4732561,2.6144001,0.43645704,-0.61831403,0.65360004,0
2.6981528,2.1426506,-2.0319991,0.6745382,0.53566265,-0.50799978,0
-1.5739317,-3.4101851,1.3760002,-0.39348292,-0.85254627,0.34400004,0
-1.6028134,-3.6635737,0.096000277,-0.40070334,-0.91589344,0.024000069,0
3.0943985,0.632945,-2.4543998,0.77359962,0.15823625,-0.61359996,0
-0.41469336,-3.4557779,1.9712,-0.10367334,-0.86394447,0.4928,0
-3.0485406,-0.14516845,2.5855999,-0.76213515,-0.036292113,0.64639997,0
-1.3786019,-0.96502131,-3.6288002,-0.34465048,-0.24125533,-0.90720004,0
-3.7693772,1.2957236,0.33600006,-0.94234431,0.32393089,0.084000014,0
-2.5612197,-0.054493986,-3.072,-0.64030492,-0.013623497,-0.76800001,0
1.8381318,3.3860323,-1.0752006,0.45953295,0.84650809,-0.26880014,0
0.51374716,3.9044774,-0.70079994,0.12843679,0.97611934,-0.17519999,0
-0.15839177,1.1087433,3.8400002,-0.039597943,0.27718583,0.96000004,0
2.4654548,-1.4176365,-2.8127992,0.6163637,-0.35440913,-0.7031998,0
-1.1224613,3.7415378,0.86079973,-0.28061533,0.93538445,0.21519993,0
0.29012522,-3.0463178,2.576,0.072531305,-0.76157945,0.64399999,0
0.044685505,2.1449063,-3.3760006,0.011171376,0.53622657,-0.84400016,0
3.5660121,1.3137938,-1.2479998,0.89150304,0.32844844,-0.31199995,0
-1.1440526,-3.6863918,1.0495995,-0.28601316,-0.92159796,0.26239988,0
-0.45948705,-1.6612225,-3.6095998,-0.11487176,-0.41530561,-0.90239996,0
2.745981,0.35817146,-2.8863993,0.68649524,0.089542866,-0.72159982,0
0.85941297,-2.7010126,-2.8223999,0.21485324,-0.67525315,-0.70559996,0
-2.6180182,1.0350305,-2.8416004,-0.65450454,0.25875762,-0.7104001,0
0.71393013,-3.1412919,2.3712001,0.17848253,-0.78532296,0.59280002,0
-3.9540114,0.35945526,0.4864004,-0.98850286,0.089863814,0.1216001,0
-3.7180641,1.239355,0.79999959,-0.92951602,0.30983874,0.1999999,0
-3.758826,1.366846,0.054400317,-0.9397065,0.34171149,0.013600079,0
3.867532,0.83622295,-0.58560002,0.966883,0.20905574,-0.1464,0
-0.62157464,3.6406519,-1.5360006,-0.15539366,0.91016299,-0.38400015,0
2.7766249,-1.5663013,-2.4159997,0.69415623,-0.39157534,-0.60399991,0
-3.9871898,0.11727017,0.29759994,-0.99679744,0.029317543,0.074399985,0
0.33941138,-3.0547016,-2.5599997,0.084852844,-0.76367539,-0.63999993,0
0.6378206,0.15945493,3.9456,0.15945515,0.039863732,0.98640001,0
-3.2011824,1.7303686,-1.6608,-0.80029559,0.43259215,-0.4152,0
-2.4013538,1.2885315,-2.9280002,-0.60033852,0.32213292,-0.73200011,0
3.3255379,1.2470766,-1.8399992,0.83138448,0.31176916,-0.4599998,0
-2.2649198,-3.1511927,-0.96959972,-0.56622994,-0.78779817,-0.24239993,0
-2.0349586,-3.3576815,-0.76479948,-0.50873965,-0.83942038,-0.19119987,0
1.5601395,0,-3.6832004,0.39003488,0,-0.92080009,0
-2.5964763,1.7309841,2.5023999,-0.64911908,0.43274602,0.62559998,0
-3.519418,1.8770232,0.30079949,-0.8798545,0.46925581,0.075199872,0
3.1639574,-1.3446819,-2.0447993,0.79098934,-0.33617046,-0.51119983,0
1.1040694,-3.3122089,1.9519999,0.27601734,-0.82805222,0.48799998,0
-3.866612,1.0235146,0.041600075,-0.96665299,0.25587866,0.010400019,0
-2.6285424,2.87888,0.89599961,-0.65713561,0.71972001,0.2239999,0
2.8583188,0.57166362,-2.7391994,0.71457976,0.14291592,-0.68479991,0
-2.143446,-3.215169,-1.0335996,-0.53586149,-0.80379224,-0.2583999,0
3.7927897,1.2642635,0.12800024,0.94819742,0.31606588,0.032000061,0
-1.2863841,3.6018753,1.1712005,-0.32159603,0.90046883,0.29280013,0
-3.1449471,2.4710302,-0.057600424,-0.78623676,0.61775756,-0.014400106,0
2.9445562,-1.1217356,-2.4640005,0.73613906,-0.28043389,-0.61600012,0
0.3191666,0.47874993,3.9584,0.07979165,0.11968748,0.9896,0
0.31742936,0.95228904,3.872,0.079357341,0.23807226,0.96799999,0
2.013535,-3.4348538,0.38399941,0.50338376,-0.85871345,0.095999852,0
-3.9157526,-0.71195513,0.40000033,-0.97893816,-0.17798878,0.10000008,0
2.1886103,2.0427029,2.6528003,0.54715258,0.51067573,0.66320008,0
2.0349586,3.3576815,-0.76479948,0.50873965,0.83942038,-0.19119987,0
3.222322,-2.2308385,0.80000007,0.8055805,-0.55770963,0.20000002,0
1.689597,-2.791508,-2.3136001,0.42239925,-0.69787699,-0.57840002,0
-0.4274126,-3.9535673,-0.4320001,-0.10685315,-0.98839182,-0.10800003,0
-1.1764866,2.6470945,2.7584,-0.29412165,0.66177362,0.68959999,0
3.5752392,-1.634395,-0.73920047,0.8938098,-0.40859875,-0.18480012,0
-2.5479376,-0.10842294,-3.0816,-0.63698441,-0.027105734,-0.77039999,0
1.3488437,0.13763714,-3.7632003,0.33721092,0.034409285,-0.94080007,0
0.35076112,-3.9752965,0.27199998,0.087690279,-0.99382412,0.067999996,0
2.5594878,-2.7423089,-1.3887997,0.63987195,-0.68557721,-0.34719992,0
1.5647316,-0.46941939,3.6511998,0.3911829,-0.11735485,0.91279995,0
1.7466255,3.4932511,0.86400062,0.43665639,0.87331277,0.21600015,0
-1.1852103,-0.96688211,-3.6959999,-0.29630259,-0.24172053,-0.92399997,0
-1.8949702,-2.3322709,2.6400001,-0.47374254,-0.58306772,0.66000003,0
2.0601244,3.2189438,1.1807997,0.5150311,0.80473596,0.29519993,0
3.4932511,1.7466255,0.86400062,0.87331277,0.43665639,0.21600015,0
1.5187833,-1.1990396,-3.5008001,0.37969583,-0.29975989,-0.87520003,0
-2.1664588,-3.1859694,1.0752002,-0.54161471,-0.79649234,0.26880005,0
0.41278782,3.9214821,-0.67199993,0.10319696,0.98037052,-0.16799998,0
-1.942904,-0.24286301,-3.4879997,-0.485726,-0.060715754,-0.87199992,0
3.9514027,0.58108878,0.22080053,0.98785067,0.1452722,0.055200133,0
1.5199162,1.823899,3.2191999,0.37997904,0.45597476,0.80479997,0
2.4979992,-2.9975991,-0.88000023,0.6244998,-0.74939978,-0.22000006,0
0,-3.7116468,1.4912,0,-0.9279117,0.37279999,0
0.90850705,2.2712672,3.1648002,0.22712676,0.56781679,0.79120004,0
-1.2393546,3.7180641,0.79999983,-0.30983865,0.92951602,0.19999996,0
-1.3255033,3.7355089,0.53759986,-0.33137584,0.93387723,0.13439997,0
0.27303308,-3.5494332,1.8240002,0.068258271,-0.88735831,0.45600006,0
1.2468013,1.2468013,3.5904002,0.31170031,0.31170031,0.89760005,0
0.95561653,-2.9351082,-2.5440001,0.23890413,-0.73377705,-0.63600004,0
1.7597091,2.3462791,2.7199998,0.43992728,0.58656979,0.67999995,0
0.15945493,-0.63782018,3.9456,0.039863732,-0.15945505,0.98640001,0
3.217361,1.7427371,1.6159999,0.80434024,0.43568426,0.40399998,0
-1.9336791,2.9005187,1.9616004,-0.48341978,0.72512966,0.49040011,0
-0.54938519,3.9555728,-0.22720037,-0.1373463,0.98889321,-0.056800094,0
-0.40031993,-3.4427507,-1.9968002,-0.10007998,-0.86068767,-0.49920005,0
3.3608229,0.42010245,2.128,0.84020573,0.10502561,0.53200001,0
2.7555106,-2.7555101,0.9023996,0.68887764,-0.68887752,0.2255999,0
-3.0753882,2.0056877,1.5872004,-0.76884705,0.50142193,0.3968001,0
1.1870234,-3.7984741,0.4032,0.29675585,-0.94961852,0.1008,0
-0.41278753,-3.9214821,-0.67199987,-0.10319688,-0.98037052,-0.16799997,0
-1.2541389,0.94060409,3.6799998,-0.31353474,0.23515102,0.91999996,0
-1.027494,3.801728,-0.70080006,-0.25687349,0.950432,-0.17520002,0
-3.9555728,0.54938519,-0.22720037,-0.98889321,0.1373463,-0.056800094,0
0.38995346,3.7695539,1.2799996,0.097488366,0.94238847,0.3199999,0
-1.6455436,-3.4846811,-1.0720001,-0.41138589,-0.87117028,-0.26800004,0
-2.0135348,-3.434854,0.38399974,-0.5033837,-0.85871351,0.095999934,0
-1.6362079,3.5241399,0.95040053,-0.40905198,0.88103497,0.23760013,0
-2.7347457,-1.0175798,-2.7360001,-0.68368644,-0.25439495,-0.68400002,0
3.5752392,-1.634395,-0.73920047,0.8938098,-0.40859875,-0.18480012,0
3.867532,0.83622295,-0.58560002,0.966883,0.20905574,-0.1464,0
2.8284271,2.8284271,0,0.70710677,0.70710677,0,0
3.0590558,2.0102367,-1.6128008,0.76476395,0.50255919,-0.40320021,0
-1.5323124,-3.0646245,2.0639999,-0.3830781,-0.76615614,0.51599997,0
-2.9407201,1.6804115,2.1279998,-0.73518002,0.42010286,0.53199995,0
-1.9563493,-3.4236112,0.67199999,-0.48908731,-0.85590279,0.168,0
2.0993562,3.3589699,-0.55679971,0.52483904,0.83974248,-0.13919993,0
-1.8539686,0.77248704,3.4591999,-0.46349216,0.19312176,0.86479998,0
-0.14516845,3.0485401,2.5856004,-0.036292113,0.76213503,0.64640009,0
1.9117903,2.6470945,-2.3104002,0.47794756,0.66177362,-0.57760006,0
-1.5803268,2.0162787,-3.0720005,-0.3950817,0.50406969,-0.76800013,0
2.7454414,1.4449695,2.5247998,0.68636036,0.36124238,0.63119996,0
2.7701263,-2.8809314,-0.16319984,0.69253159,-0.72023284,-0.04079996,0
0.93322641,-3.8365986,-0.63999999,0.2333066,-0.95914966,-0.16,0
2.5656307,0,-3.0688009,0.64140767,0,-0.76720023,0
-1.236389,-3.2970376,1.8975998,-0.30909726,-0.8242594,0.47439995,0
-2.9050255,-1.8058265,-2.0736001,-0.72625637,-0.45145664,-0.51840001,0
-0.22170261,-3.9906449,-0.16000034,-0.055425651,-0.99766123,-0.040000085,0
2.8332202,2.5498979,-1.2127999,0.70830506,0.63747448,-0.30319998,0
-3.7798207,0,1.3087996,-0.94495517,0,0.32719991,0
-2.7093441,0.6622842,-2.8671997,-0.67733604,0.16557105,-0.71679991,0
3.5372059,-1.822197,-0.40959951,0.88430148,-0.45554924,-0.10239988,0
-0.46259651,-2.0045848,3.4304001,-0.11564913,-0.5011462,0.85760003,0
-2.292558,-2.0228453,-2.5792003,-0.57313955,-0.50571138,-0.64480013,0
-3.4101851,-1.5739317,1.3760002,-0.85254627,-0.39348292,0.34400004,0
3.1526251,2.3390446,-0.7680003,0.78815633,0.5847612,-0.19200009,0
0.21268581,-0.076928899,-3.9936006,0.053171452,-0.019232225,-0.99840015,0
-3.7615495,-0.51883423,1.2575996,-0.94038737,-0.12970856,0.3143999,0
1.1324338,-1.2353824,-3.632,0.28310844,-0.30884561,-0.90799999,0
3.157815,-0.28707421,2.4383996,0.78945374,-0.071768552,0.60959989,0
-1.117932,3.2140541,2.1023996,-0.27948299,0.80351353,0.5255999,0
1.7427371,3.217361,1.6159999,0.43568426,0.80434024,0.40399998,0
-0.0018371172,-0.00053582585,-3.9999995,-0.00045927931,-0.00013395646,-0.99999988,0
-1.9117903,-2.6470945,-2.3104002,-0.47794756,-0.66177362,-0.57760006,0
-0.25074622,3.8865643,0.91199994,-0.062686555,0.97164106,0.22799999,0
2.1451342,2.9173825,-1.6991994,0.53628355,0.72934562,-0.42479986,0
-2.7719905,1.9249933,-2.1472003,-0.69299763,0.48124832,-0.53680009,0
-2.3384864,2.5803986,-1.9680003,-0.58462161,0.64509964,-0.49200007,0
-0.16121134,2.5256445,-3.0976009,-0.040302835,0.63141114,-0.77440023,0
2.3518238,3.2070322,-0.42880064,0.58795595,0.80175805,-0.10720016,0
2.8947148,1.5586925,-2.2783995,0.72367871,0.38967311,-0.56959987,0
-3.1459157,1.6413474,1.8464001,-0.78647894,0.41033685,0.46160004,0
-3.7215574,1.466068,-0.025599608,-0.93038934,0.36651701,-0.006399902,0
-2.9887006,-1.2808717,2.3295999,-0.74717516,-0.32021794,0.58239996,0
-1.9732621,-1.3661045,-3.1999993,-0.49331552,-0.34152612,-0.79999983,0
-2.8869035,-1.9246024,-1.9904004,-0.72172588,-0.4811506,-0.49760011,0
-3.0590558,2.010237,-1.6128001,-0.76476395,0.50255924,-0.40320003,0
1.4401925,-1.5274769,-3.4047995,0.36004812,-0.38186923,-0.85119987,0
0.39721292,-3.8728237,-0.91839969,0.099303231,-0.96820593,-0.22959992,0
0.12795986,-3.8388,1.1167998,0.031989966,-0.95969999,0.27919996,0
3.09114,1.8890302,-1.6960007,0.77278501,0.47225755,-0.42400017,0
0.59969091,-2.5486848,3.0240002,0.14992273,-0.63717121,0.75600004,0
-3.1195159,-2.4740987,-0.38400024,-0.77987897,-0.61852467,-0.09600006,0
2.3987627,-1.0494584,3.0239997,0.59969068,-0.2623646,0.75599992,0
3.246753,0.70581597,2.2271998,0.81168824,0.17645399,0.55679995,0
2.4205205,0.45384711,3.1519997,0.60513014,0.11346178,0.78799993,0
1.9701452,3.4218311,-0.63999963,0.49253631,0.85545778,-0.15999991,0
2.6348457,2.8300197,-1.024,0.65871143,0.70750493,-0.25600001,0
-3.723582,-0.89879549,1.1519996,-0.93089551,-0.22469887,0.2879999,0
0.96196049,-3.8478427,0.51840025,0.24049012,-0.96196067,0.12960006,0
-2.791508,1.689597,-2.3136001,-0.69787699,0.42239925,-0.57840002,0
3.7455242,-0.18270859,-1.3920007,0.93638104,-0.045677148,-0.34800017,0
-0.44224846,2.078568,-3.3888009,-0.11056212,0.519642,-0.84720021,0
0.73707718,3.4396949,-1.9040003,0.18426929,0.85992372,-0.47600007,0
1.8076118,3.3569937,1.2096003,0.45190296,0.83924842,0.30240008,0
3.7372494,-1.4014685,0.26240012,0.93431234,-0.35036713,0.06560003,0
-2.5479376,-0.10842294,-3.0816,-0.63698441,-0.027105734,-0.77039999,0
2.9141848,2.4441547,-1.2383999,0.7285462,0.61103868,-0.30959997,0
2.9990573,-2.4185946,-1.0752001,0.74976432,-0.60464865,-0.26880002,0
-0.38995302,1.2218528,-3.788801,-0.097488254,0.30546319,-0.94720024,0
1.6608433,-2.5244818,-2.6207998,0.41521081,-0.63112044,-0.65519994,0
-3.0485406,-0.14516845,2.5855999,-0.76213515,-0.036292113,0.64639997,0
0.63534307,3.9179487,-0.49600011,0.15883577,0.97948718,-0.12400003,0
-2.507622,-2.4267311,-1.9552003,-0.6269055,-0.60668278,-0.48880008,0
-3.6215575,1.2389538,-1.1615999,-0.90538937,0.30973846,-0.29039997,0
2.684432,0.29826993,2.9503999,0.67110801,0.074567482,0.73759997,0
1.2634938,3.6641314,0.98879945,0.31587344,0.91603285,0.24719986,0
-0.72858882,3.8858068,0.60800016,-0.1821472,0.9714517,0.15200004,0
0.99492753,-1.5689242,-3.5423996,0.24873188,-0.39223105,-0.88559991,0
1.2423253,1.3976159,3.5360003,0.31058133,0.34940398,0.88400006,0
3.5518703,1.1839569,-1.4079996,0.88796759,0.29598922,-0.35199991,0
-2.1910727,-3.2866087,0.63040024,-0.54776818,-0.82165217,0.15760006,0
-1.4580204,2.6244371,2.6431999,-0.36450511,0.65610927,0.66079998,0
-1.859032,-2.1688704,-2.8000002,-0.46475801,-0.54221761,-0.70000005,0
3.5660121,-1.3137938,-1.2479998,0.89150304,-0.32844844,-0.31199995,0
-3.7524118,-0.09152215,-1.3823999,-0.93810296,-0.022880537,-0.34559998,0
-3.8378661,0.095946558,-1.1232002,-0.95946652,0.023986639,-0.28080004,0
0.61426651,-2.0183046,-3.3984001,0.15356663,-0.50457615,-0.84960002,0
-0.57243347,-3.1483836,-2.4000001,-0.14310837,-0.7870959,-0.60000002,0
-3.0783982,2.3832762,-0.91840017,-0.76959956,0.59581906,-0.22960004,0
-1.5586926,-2.8947146,-2.2783997,-0.38967314,-0.72367865,-0.56959993,0
-0.15145142,-0.92763978,-3.8880002,-0.03786286,-0.23190996,-0.97200012,0
-2.7679982,2.8833313,0.15679985,-0.69199955,0.72083282,0.039199963,0
0.78807127,-1.1032994,3.7632,0.19701782,-0.27582484,0.94080001,0
-3.9215996,-0.78431988,-0.076799832,-0.98039991,-0.19607997,-0.019199958,0
-2.3255503,3.182332,0.68160021,-0.58138758,0.79558301,0.17040005,0
-1.3291755,2.5106649,2.8159997,-0.33229387,0.62766623,0.70399994,0
-3.6845107,0.65794849,1.4111999,-0.92112768,0.16448712,0.35279998,0
1.0637051,2.1274102,3.2160001,0.26592627,0.53185254,0.80400002,0
-3.0116453,-1.7907081,-1.9296001,-0.75291133,-0.44767702,-0.48240003,0
3.6050167,-0.70341796,-1.5840007,0.90125418,-0.17585449,-0.39600018,0
-1.1957643,3.8047044,-0.30720064,-0.29894108,0.95117611,-0.07680016,0
1.5676738,0,3.6799998,0.39191845,0,0.91999996,0
-2.9082491,-1.6837232,-2.1695998,-0.72706228,-0.4209308,-0.54239994,0
-0.63162506,-1.1053441,3.7920001,-0.15790626,-0.27633601,0.94800001,0
3.145916,1.6413474,1.8463997,0.786479,0.41033685,0.46159992,0
-0.45048454,2.5527461,3.0463998,-0.11262114,0.63818651,0.76159996,0
3.8903604,-0.12549537,0.92159998,0.97259009,-0.031373844,0.2304,0
-1.6547747,-1.9556425,3.072,-0.41369367,-0.48891062,0.76800001,0
-0.47875038,-0.31916708,3.9584,-0.11968759,-0.079791769,0.9896,0
0.46941894,1.5647316,3.6511998,0.11735474,0.3911829,0.91279995,0
0.59969091,2.5486853,3.0239997,0.14992273,0.63717133,0.75599992,0
-2.1203227,-1.2116133,3.168,-0.53008074,-0.30290335,0.79200006,0
-2.8807607,-0.06262517,-2.7744002,-0.72019017,-0.015656292,-0.69360006,0
-3.7116468,0,1.4912,-0.9279117,0,0.37279999,0
-0.84458184,-3.2375634,2.1920002,-0.21114546,-0.80939084,0.54800004,0
3.8058887,-0.68310815,-1.0239996,0.95147216,-0.17077704,-0.25599989,0
-1.8085238,2.9214613,2.0480003,-0.45213094,0.73036534,0.51200008,0
-0.45084813,3.696954,-1.4592007,-0.11271203,0.9242385,-0.36480018,0
-3.5641997,0.78238511,-1.6383997,-0.89104992,0.19559628,-0.40959993,0
3.9610558,-0.24006413,0.50240034,0.99026394,-0.060016032,0.12560008,0
-0.24006413,3.9610558,0.50240034,-0.060016032,0.99026394,0.12560008,0
-0.088681072,-2.1283445,-3.3855996,-0.022170268,-0.53208613,-0.8463999,0
-0.94372869,3.5052783,1.6800002,-0.23593217,0.87631959,0.42000005,0
2.150399,0,-3.3728006,0.53759974,0,-0.84320015,0
-1.0330747,-2.6564782,2.8064001,-0.25826868,-0.66411954,0.70160002,0
0.26036257,3.7752612,1.2959996,0.065090641,0.94381529,0.32399991,0
3.430685,0.82336444,1.8848,0.85767126,0.20584111,0.47119999,0
3.8388,-0.12795986,1.1167998,0.95969999,-0.031989966,0.27919996,0
1.219842,-3.3884511,1.7408001,0.30496049,-0.84711277,0.43520004,0
-0.36769381,-3.9220669,0.69440013,-0.091923453,-0.98051673,0.17360003,0
-1.4153084,-0.31451312,3.7279999,-0.35382709,-0.078628279,0.93199998,0
3.4641016,0,2,0.86602539,0,0.5,0
1.3976159,1.2423253,3.5360003,0.34940398,0.31058133,0.88400006,0
0,-3.6461804,-1.6448004,0,-0.9115451,-0.41120011,0
-1.4164799,0,3.7407999,-0.35411999,0,0.93519998,0
1.7957903,-1.9454393,2.9984,0.44894758,-0.48635983,0.74959999,0
-1.6826037,-2.6641223,-2.464,-0.42065093,-0.66603059,-0.616,0
-1.5812601,2.731267,2.4575999,-0.39531502,0.68281674,0.61439997,0
-0.45084813,3.696954,-1.4592007,-0.11271203,0.9242385,-0.36480018,0
-0.71280932,-0.98318523,-3.8112006,-0.17820233,-0.24579631,-0.95280015,0
-3.868227,0.8461746,0.56640017,-0.96705675,0.21154365,0.14160004,0
2.1045687,-3.3906941,0.27199951,0.52614218,-0.84767354,0.067999877,0
-0.78238529,-3.5641997,-1.6384,-0.19559632,-0.89104992,-0.40959999,0
-3.3906941,2.1045687,0.27199951,-0.84767354,0.52614218,0.067999877,0
-1.1092469,0.85326689,-3.7471998,-0.27731171,0.21331672,-0.93679994,0
1.6690632,-2.205548,-2.8895996,0.4172658,-0.55138701,-0.72239989,0
-1.2393546,-3.7180641,0.79999983,-0.30983865,-0.92951602,0.19999996,0
0.2161604,-0.79813069,-3.9135997,0.0540401,-0.19953267,-0.97839993,0
-3.9929218,-0.22816709,0.067200117,-0.99823046,-0.057041772,0.016800029,0
3.4086757,0.99766111,-1.8400007,0.85216892,0.24941528,-0.46000019,0
3.8925471,-0.91589367,0.0960005,0.97313678,-0.22897342,0.024000125,0
-0.20723554,-3.1085331,-2.5087996,-0.051808886,-0.77713329,-0.62719989,0
0.47439888,1.1069317,3.8144002,0.11859972,0.27673292,0.95360005,0
0.66856283,-3.6102381,1.5872003,0.16714071,-0.90255952,0.39680007,0
-2.510726,-1.8830442,-2.48,-0.62768149,-0.47076106,-0.62,0
3.4111881,1.9062523,-0.85439938,0.85279703,0.47656307,-0.21359985,0
3.4557779,-0.41469336,1.9712,0.86394447,-0.10367334,0.4928,0
-1.4285151,0.11661354,-3.7344003,-0.35712877,0.029153384,-0.93360007,0
1.5466303,-1.2373041,3.4751997,0.38665757,-0.30932602,0.86879992,0
-2.7679982,2.8833313,0.15679985,-0.69199955,0.72083282,0.039199963,0
-0.63534307,3.9179487,-0.49600011,-0.15883577,0.97948718,-0.12400003,0
2.205548,1.6690632,-2.8895996,0.55138701,0.4172658,-0.72239989,0
2.6424234,2.9595139,-0.50879949,0.66060585,0.73987848,-0.12719987,0
3.2851551,0.68759036,-2.1760001,0.82128876,0.17189759,-0.54400003,0
-3.7180641,-1.2393546,0.79999983,-0.92951602,-0.30983865,0.19999996,0
-2.9605691,-2.2428555,-1.4847996,-0.74014229,-0.56071389,-0.37119991,0
-0.30693337,2.1485324,3.3600001,-0.076733343,0.5371331,0.84000003,0
-0.12475906,2.8694568,-2.7839994,-0.031189766,0.71736419,-0.69599986,0
-3.222322,-2.2308385,0.80000007,-0.8055805,-0.55770963,0.20000002,0
2.2889504,0.15259658,3.2768002,0.57223761,0.038149145,0.81920004,0
-2.5021217,2.3631151,2.0383997,-0.62553042,0.59077877,0.50959992,0
0.58711922,3.5227158,-1.8016005,0.14677981,0.88067895,-0.45040011,0
1.2642635,3.7927897,0.12800024,0.31606588,0.94819742,0.032000061,0
-3.7807429,0.88217318,0.96319979,-0.94518572,0.2205433,0.24079995,0
-3.4932511,-1.7466254,0.86400008,-0.87331277,-0.43665636,0.21600002,0
1.3011769,-2.8078027,-2.5344,0.32529423,-0.70195067,-0.6336,0
-3.9423363,-0.67582911,-0.035199877,-0.98558408,-0.16895728,-0.0087999692,0
0.93352288,1.5558718,3.5647998,0.23338072,0.38896796,0.89119995,0
-3.9597979,-0.56568557,9.5367426e-08,-0.98994946,-0.14142139,2.3841856e-08,0
-2.3590925,-1.6218762,2.7935998,-0.58977312,-0.40546906,0.69839996,0
-1.2255961,1.8383938,3.3343999,-0.30639902,0.45959845,0.83359998,0
-1.9785086,-3.1656137,1.4367998,-0.49462715,-0.79140341,0.35919994,0
-1.9807017,1.2188932,3.2544,-0.49517542,0.30472329,0.8136,0
-3.8975356,0.89086515,-0.12479978,-0.97438389,0.22271629,-0.031199945,0
1.8742361,3.5279734,-0.20160003,0.46855903,0.88199335,-0.050400008,0
0.40031993,-3.4427507,-1.9968002,0.10007998,-0.86068767,-0.49920005,0
-0.77437371,-3.7750711,-1.0719997,-0.19359343,-0.94376779,-0.26799992,0
-3.8098483,-0.98318678,0.71999991,-0.95246208,-0.2457967,0.17999998,0
-0.61426651,-2.0183046,-3.3984001,-0.15356663,-0.50457615,-0.84960002,0
2.6180186,-1.0350305,-2.8415999,0.65450466,-0.25875762,-0.71039999,0
-0.66362786,-3.484046,-1.8496006,-0.16590697,-0.8710115,-0.46240014,0
-2.2830381,3.2443171,0.51200038,-0.57075953,0.81107926,0.1280001,0
-2.9887006,-1.2808717,2.3295999,-0.74717516,-0.32021794,0.58239996,0
2.6180186,-1.0350305,-2.8415999,0.65450466,-0.25875762,-0.71039999,0
3.2682326,-2.2877629,-0.29120034,0.81705815,-0.57194072,-0.072800085,0
-3.205723,1.6028615,-1.7759999,-0.80143076,0.40071538,-0.44399998,0
-1.3804506,3.6393695,0.92159951,-0.34511265,0.90984237,0.23039988,0
-3.1103737,1.1310447,2.2464001,-0.77759343,0.28276119,0.56160003,0
1.2642635,3.7927897,0.12800024,0.31606588,0.94819742,0.032000061,0
0.38995403,-1.2218561,-3.7887998,0.097488508,-0.30546403,-0.94719994,0
-0.46645415,3.9648607,0.24960059,-0.11661354,0.99121517,0.062400147,0
-0.82420361,3.6631267,-1.3791994,-0.2060509,0.91578168,-0.34479985,0
2.4243124,-2.1390989,2.3551998,0.60607809,-0.53477472,0.58879995,0
0,2.150399,-3.3728006,0,0.53759974,-0.84320015,0
2.1499331,-0.15356652,3.3696001,0.53748327,-0.038391631,0.84240001,0
-0.65345067,3.734004,-1.2767993,-0.16336267,0.93350101,-0.31919983,0
-2.8809314,-2.7701263,-0.16319984,-0.72023284,-0.69253159,-0.04079996,0
3.0171354,0.40228474,-2.5951996,0.75428385,0.10057119,-0.6487999,0
2.1664593,3.1859691,1.0751998,0.54161483,0.79649228,0.26879996,0
1.9697008,3.4759424,0.19519959,0.4924252,0.86898559,0.048799898,0
-3.0719998,-1.3823999,-2.1568003,-0.76799995,-0.34559998,-0.53920007,0
-1.0850548,-3.0381532,-2.3648005,-0.27126369,-0.75953829,-0.59120011,0
2.5902512,-2.4539223,1.808,0.6475628,-0.61348057,0.45199999,0
-1.2255961,1.8383938,3.3343999,-0.30639902,0.45959845,0.83359998,0
-0.81966293,-1.2446734,-3.7119997,-0.20491573,-0.31116834,-0.92799991,0
1.5199162,1.823899,3.2191999,0.37997904,0.45597476,0.80479997,0
2.7082098,-2.9248664,-0.33279967,0.67705244,-0.73121661,-0.083199918,0
-2.1799939,1.0139506,-3.1968,-0.54499847,0.25348765,-0.7992,0
-3.9823225,0.33185989,-0.17600027,-0.99558061,0.082964972,-0.044000067,0
0.74018973,3.7009494,-1.3247993,0.18504743,0.92523736,-0.33119982,0
2.8895133,2.6831195,-0.67199934,0.72237831,0.67077988,-0.16799983,0
2.9595139,-2.6424234,-0.50879949,0.73987848,-0.66060585,-0.12719987,0
0.10842278,-2.5479376,-3.0816,0.027105695,-0.63698441,-0.77039999,0
-2.9407201,1.6804115,2.1279998,-0.73518002,0.42010286,0.53199995,0
-2.0569005,2.0569005,2.7456002,-0.51422513,0.51422513,0.68640006,0
2.8984299,1.0144504,2.5632002,0.72460747,0.25361261,0.64080006,0
-3.2870996,2.2267447,-0.48639977,-0.8217749,0.55668616,-0.12159994,0
3.072,2.3040001,1.1199998,0.76800001,0.57600003,0.27999994,0
0.88977516,-0.30290216,-3.8880007,0.22244379,-0.075725541,-0.97200018,0
-2.4150991,-3.1396289,0.55680031,-0.60377479,-0.78490722,0.13920008,0
-3.4086759,-0.99766129,-1.8399999,-0.85216898,-0.24941532,-0.45999998,0
-1.1080643,0.31658953,3.8304,-0.27701607,0.079147384,0.9576,0
-2.0162787,-1.5803268,-3.0720005,-0.50406969,-0.3950817,-0.76800013,0
3.7807429,-0.88217318,0.96319979,0.94518572,-0.2205433,0.24079995,0
-1.5673467,0.15673453,3.6768,-0.39183667,0.039183632,0.9192,0
-2.6447954,-2.5566356,-1.5712006,-0.66119885,-0.6391589,-0.39280015,0
1.1217357,-2.944556,-2.4640007,0.28043392,-0.736139,-0.61600018,0
3.6789913,-1.4715962,-0.54720038,0.91974783,-0.36789906,-0.1368001,0
2.1567974,-2.3005841,2.4608002,0.53919935,-0.57514602,0.61520004,0
-3.0850973,0.27423102,-2.5311997,-0.77127433,0.068557754,-0.63279992,0
1.1186736,3.7628107,-0.76800019,0.27966839,0.94070268,-0.19200005,0
3.2503936,2.3217099,0.21120067,0.81259841,0.58042747,0.052800167,0
3.099581,2.5255849,0.11839993,0.77489525,0.63139623,0.029599981,0
-0.50943345,-3.8207519,1.0687997,-0.12735836,-0.95518798,0.26719993,0
1.3661045,-1.9732621,-3.1999993,0.34152612,-0.49331552,-0.79999983,0
3.1952605,0.50833684,-2.352,0.79881513,0.12708421,-0.588,0
0.40031993,3.4427507,-1.9968002,0.10007998,0.86068767,-0.49920005,0
3.3608229,-0.42010286,2.1279998,0.84020573,-0.10502572,0.53199995,0
2.8505163,-0.18590325,-2.7999995,0.71262908,-0.046475813,-0.69999987,0
2.7156577,1.7151523,2.3840001,0.67891443,0.42878807,0.59600002,0
0.79341304,0.63473064,3.8687999,0.19835326,0.15868266,0.96719998,0
0.14203085,3.2667129,2.3039997,0.035507713,0.81667823,0.57599992,0
-1.5663664,0.31327301,3.6672001,-0.39159161,0.078318253,0.91680002,0
3.4759762,1.9177803,0.48959935,0.86899406,0.47944507,0.12239984,0
0.17315501,3.6362588,-1.6576004,0.043288752,0.90906471,-0.4144001,0
0.58977342,-2.8014221,2.7936001,0.14744335,-0.70035553,0.69840002,0
-3.34477,-1.7652951,-1.3024004,-0.83619249,-0.44132379,-0.32560009,0
0.51374716,-3.9044774,-0.70079994,0.12843679,-0.97611934,-0.17519999,0
-1.1402054,-0.44616732,-3.8080003,-0.28505135,-0.11154183,-0.95200008,0
-1.0223988,3.7061956,1.1039995,-0.25559971,0.9265489,0.27599987,0
-1.0330747,2.6564782,2.8064001,-0.25826868,0.66411954,0.70160002,0
3.5783954,-1.4057986,1.1040004,0.89459884,-0.35144964,0.27600011,0
-3.317028,0.22616079,-2.224,-0.82925701,0.056540199,-0.55599999,0
2.8237863,-0.24554659,-2.8223994,0.70594656,-0.061386649,-0.70559984,0
1.0978284,1.0978284,3.6864002,0.2744571,0.2744571,0.92160004,0
-0.61319888,3.8835926,-0.73599988,-0.15329972,0.97089815,-0.18399997,0
3.3255377,-2.2170248,-0.16000007,0.83138442,-0.5542562,-0.040000018,0
3.8207519,-0.50943345,1.0687997,0.95518798,-0.12735836,0.26719993,0
1.0503117,-3.8511438,0.25600049,0.26257792,-0.96278596,0.064000122,0
-3.5597754,-1.7798877,0.39999971,-0.88994384,-0.44497192,0.099999927,0
-3.7665985,1.2914052,-0.38079989,-0.94164962,0.3228513,-0.095199972,0
3.8858068,-0.72858882,0.60800016,0.9714517,-0.1821472,0.15200004,0
0,2.150399,-3.3728006,0,0.53759974,-0.84320015,0
-0.95228904,0.31742936,3.872,-0.23807226,0.079357341,0.96799999,0
-3.7798207,0,1.3087996,-0.94495517,0,0.32719991,0
1.0240499,2.7795641,2.688,0.2560125,0.6948911,0.67200005,0
-0.22170261,-3.9906449,-0.16000034,-0.055425651,-0.99766123,-0.040000085,0
0.63589114,0.63589114,3.8975999,0.15897278,0.15897278,0.97439998,0
-1.1952763,-2.390552,2.9760001,-0.29881907,-0.59763801,0.74400002,0
3.0151541,2.1283443,-1.5423995,0.75378853,0.53208607,-0.38559988,0
-2.6869028,0,2.9631999,-0.67172569,0,0.74079996,0
1.6991068,-1.0812495,3.4559999,0.4247767,-0.27031237,0.86399996,0
2.3849299,-2.3849297,2.1503999,0.59623247,-0.59623241,0.53759998,0
3.4597666,-1.8534467,0.77120048,0.86494166,-0.46336168,0.19280012,0
-0.47566041,-0.95132083,3.8559999,-0.1189151,-0.23783021,0.96399999,0
-0.72883487,-2.9153385,2.6400001,-0.18220872,-0.72883463,0.66000003,0
3.886874,-0.29899034,-0.89599967,0.97171849,-0.074747585,-0.22399992,0
1.8590314,2.1688702,-2.8000007,0.46475786,0.54221755,-0.70000017,0
-1.0850548,-3.0381532,-2.3648005,-0.27126369,-0.75953829,-0.59120011,0
-3.4597669,-1.8534466,0.77119994,-0.86494172,-0.46336165,0.19279999,0
-2.7555103,-2.7555103,0.90240002,-0.68887758,-0.68887758,0.2256,0
0.65794849,-3.6845107,1.4111999,0.16448712,-0.92112768,0.35279998,0
-3.7911127,-1.1583956,-0.5344004,-0.94777817,-0.28959891,-0.1336001,0
2.8505163,-0.18590325,-2.7999995,0.71262908,-0.046475813,-0.69999987,0
-0.82420349,-3.6631265,-1.3792002,-0.20605087,-0.91578162,-0.34480006,0
-0.89879549,-3.723582,1.1519996,-0.22469887,-0.93089551,0.2879999,0
2.6942031,-0.40998739,-2.9279993,0.67355078,-0.10249685,-0.73199981,0
0.99070871,2.8400321,-2.6368001,0.24767718,0.71000803,-0.65920001,0
3.2542522,0.56595719,2.2559996,0.81356311,0.14148931,0.56399995,0
-1.4138424,0.47128037,3.7120001,-0.35346061,0.11782009,0.92800003,0
0.43007532,-3.1538885,2.4224,0.10751884,-0.78847218,0.60560006,0
-2.9929838,-1.9121839,-1.8400002,-0.74824595,-0.47804597,-0.46000004,0
-3.1103737,-1.1310451,2.2463999,-0.77759343,-0.28276128,0.56159997,0
0.71195513,3.9157526,0.40000033,0.17798878,0.97893816,0.10000008,0
2.0784607,2.7712812,2.0000005,0.51961517,0.69282031,0.50000012,0
1.7995554,-2.663342,-2.3808,0.44988889,-0.66583556,-0.59520006,0
1.906252,-3.4111879,-0.85440004,0.47656304,-0.85279703,-0.21360002,0
-1.5623837,-2.1989105,-2.9535995,-0.39059591,-0.54972762,-0.73839986,0
3.3261192,2.0942235,0.74240017,0.83152986,0.52355593,0.18560006,0
-2.1664588,-3.1859694,1.0752002,-0.54161471,-0.79649234,0.26880005,0
-3.5959144,-1.7399586,0.20479989,-0.89897859,-0.43498966,0.051199973,0
-0.53927374,2.4806592,-3.0911994,-0.13481843,0.62016481,-0.77279985,0
0.94996357,-0.63330889,3.8336,0.23749089,-0.15832722,0.95840001,0
1.1142712,-1.8274046,-3.3792,0.27856779,-0.45685115,-0.8448,0
3.2970376,-1.236389,1.8975998,0.8242594,-0.30909726,0.47439995,0
-2.0015609,0.61586523,3.408,-0.50039023,0.15396631,0.852,0
3.9313846,-0.5956645,0.4352003,0.98284614,-0.14891613,0.10880008,0
2.4243124,2.1390986,2.3552001,0.60607809,0.53477466,0.58880001,0
1.3766996,3.3557045,-1.6863999,0.34417489,0.83892614,-0.42159998,0
