-3.1489398,-1.8893641,2.51336,-0.70762694,-0.42457622,0.56480002,0
-2.1384163,-2.3029099,3.1506,-0.48054302,-0.51750785,0.708,0
3.5217919,-1.6843354,2.1359994,0.79141396,-0.37850234,0.4799999,0
1.387374,0.61661065,-4.1829991,0.31176946,0.1385642,-0.93999982,0
4.0689535,1.5823706,-0.86152017,0.91437161,0.35558891,-0.19360004,0
-1.1828631,-4.2583075,-0.51976031,-0.26581195,-0.95692307,-0.11680008,0
-1.8608214,-1.8608214,3.5884795,-0.41816214,-0.41816214,0.80639994,0
-2.14112,3.2116799,-2.2143204,-0.48115057,0.72172588,-0.49760011,0
-3.3655839,2.8847864,-0.39160016,-0.756311,0.64826661,-0.088000037,0
-3.4515078,-1.6815038,-2.2499194,-0.77561975,-0.37786603,-0.50559992,0
-0.3485167,1.742583,4.0797596,-0.078318365,0.3915917,0.91679996,0
4.1163192,-1.0554664,-1.3207595,0.92501557,-0.23718347,-0.2967999,0
1.3593121,0.4338229,-4.2150407,0.3054634,0.097488299,-0.94720018,0
-1.2340372,-0.9492594,-4.1687598,-0.27731174,-0.21331672,-0.9368,0
-0.96191168,3.4468501,-2.6450801,-0.21615994,0.77457309,-0.59440005,0
-2.6122591,1.6745251,-3.1897595,-0.58702457,0.3762978,-0.71679991,0
4.0443587,-1.8264844,0.33108008,0.90884471,-0.41044596,0.074400023,0
-2.9448924,2.1268666,-2.5703201,-0.66177362,0.47794756,-0.57760006,0
-3.7067788,0.16848978,-2.4563997,-0.83298403,0.037862875,-0.55199993,0
-1.5197906,2.1952529,3.5599999,-0.341526,0.49331528,0.80000001,0
3.9125192,-1.9003662,-0.93984038,0.87921786,-0.42704859,-0.21120009,0
-2.7802279,3.4421866,0.47348005,-0.62477034,0.77352512,0.10640001,0
-3.9258969,0.75498039,1.95444,-0.88222408,0.16965853,0.43920001,0
2.0665178,-0.68883914,3.8803997,0.46438605,-0.15479532,0.87199998,0
-2.9242532,3.2027538,0.99679953,-0.65713561,0.71972001,0.2239999,0
-2.669466,3.5592875,0.089000441,-0.59988004,0.79983991,0.0200001,0
1.9740348,-1.8048316,-3.5564404,0.44360334,-0.40558016,-0.79920012,0
-2.4219725,2.4219725,-2.8408794,-0.54426348,0.54426348,-0.6383999,0
-1.8264844,4.0443587,0.33108008,-0.41044596,0.90884471,0.074400023,0
0.77567995,3.723263,2.3104396,0.1743101,0.83668834,0.51919991,0
-3.4894681,2.3263123,1.4880794,-0.78415018,0.52276683,0.33439988,0
0,-3.9057903,-2.1324401,0,-0.87770575,-0.47920004,0
-1.2071233,-3.3799453,-2.6308405,-0.27126366,-0.75953829,-0.59120017,0
-3.2368662,2.9020176,-0.95052022,-0.7273857,0.65213883,-0.21360005,0
0.82912874,-1.7372223,-4.0121193,0.18632108,-0.39038706,-0.90159988,0
1.2598326,1.3743629,-4.0405998,0.28310847,0.30884561,-0.90799999,0
-2.8707554,-2.0733232,2.6949198,-0.64511359,-0.46591535,0.6056,0
-3.8771045,1.7231578,1.3421203,-0.87125945,0.38722649,0.30160007,0
2.7806289,1.6356643,3.0651596,0.62486047,0.36756504,0.68879992,0
-2.8707554,-2.0733232,2.6949198,-0.64511359,-0.46591535,0.6056,0
1.9685709,0.78742844,-3.9124396,0.44237551,0.17695022,-0.87919992,0
3.2627935,0,3.026,0.73321205,0,0.68000001,0
-1.2327214,-0.35220635,4.2613196,-0.27701607,-0.079147495,0.95759994,0
-4.3959355,-0.64646125,0.24563986,-0.98785073,-0.1452722,0.05519997,0
-2.4252431,1.12802,-3.5564399,-0.54499847,0.25348768,-0.7992,0
-4.302629,-0.93029833,-0.6514802,-0.96688294,-0.20905581,-0.14640005,0
3.8087671,-2.1764386,0.74760056,0.85590273,-0.48908734,0.16800013,0
0.47845876,-3.5087008,2.6949201,0.10751883,-0.78847212,0.60560006,0
2.637439,1.6483995,3.1826394,0.59268296,0.37042686,0.71519989,0
4.0438995,0.14977393,1.8512003,0.90874153,0.033657063,0.4160001,0
-3.741868,1.8203683,-1.5770801,-0.84086925,0.40907153,-0.35440004,0
-4.3805561,-0.59196723,-0.51264012,-0.98439467,-0.13302635,-0.11520004,0
2.3588595,-3.3908598,1.6553998,0.5300808,-0.76199102,0.37199998,0
0.7825523,-4.0105815,-1.7621998,0.17585446,-0.9012543,-0.39599997,0
3.207706,-3.0793979,0.17443983,0.72083282,-0.69199955,0.039199963,0
3.3227501,2.9535561,-0.19579978,0.74668545,0.66372049,-0.043999951,0
-3.6342175,0.15800931,2.5632,-0.81667811,0.035507709,0.57600003,0
-2.6164036,3.5678232,-0.4770402,-0.58795589,0.80175805,-0.10720005,0
4.1936288,-0.43382365,1.4239995,0.94238853,-0.097488463,0.3199999,0
1.9632602,-0.32721007,-3.9800806,0.44118208,-0.073530354,-0.89440018,0
-3.7212644,1.179913,-2.1359997,-0.83623922,0.265149,-0.47999996,0
1.693782,-3.9521577,1.1463199,0.38062519,-0.88812536,0.25759998,0
1.3787823,-4.1363459,0.88999951,0.30983871,-0.92951596,0.1999999,0
3.4175997,-2.5632,-1.2459999,0.76799995,-0.57600003,-0.28,0
-0.52222908,-1.7407634,4.0619597,-0.11735485,-0.39118281,0.91279995,0
2.9629679,2.0020053,-2.6486399,0.6658355,0.44988886,-0.5952,0
1.1320575,3.0424042,-3.0438004,0.25439498,0.68368638,-0.68400013,0
-1.2598326,1.3743629,-4.0405998,-0.28310847,0.30884561,-0.90799999,0
-1.4552519,-3.9291801,1.4987603,-0.32702291,-0.88296187,0.3368001,0
-2.518508,2.675915,2.5097997,-0.56595689,0.60132927,0.56399995,0
-3.579314,1.938795,1.7977998,-0.80434024,0.43568429,0.40399998,0
1.233476,0.17621084,-4.2720003,0.27718565,0.039597943,-0.9600001,0
2.0518947,-1.1969383,3.7629199,0.46109995,-0.2689749,0.84560001,0
1.5393654,-3.8997262,-1.4916395,0.34592482,-0.87634301,-0.33519989,0
-1.938795,-3.579314,1.7977998,-0.43568429,-0.80434024,0.40399998,0
-2.5632,2.7340798,-2.3994401,-0.57600003,0.61439997,-0.53920001,0
-1.9978162,-1.7203417,-3.5849202,-0.44894749,-0.38659364,-0.80560005,0
3.3741288,-0.76684743,-2.7981598,0.75823122,-0.17232527,-0.62879997,0
-0.20681728,-3.1711984,-3.1150002,-0.046475798,-0.7126289,-0.70000011,0
-3.0048764,0.95609689,-3.1399198,-0.67525315,0.21485324,-0.70559996,0
-1.4010309,-0.70051521,4.1651998,-0.31483841,-0.15741916,0.93599999,0
-1.5906869,3.9044125,1.4240001,-0.35745776,0.87739611,0.32000005,0
2.4177873,2.4177873,2.8480003,0.54332304,0.54332304,0.6400001,0
3.4745305,1.1581767,-2.5276003,0.78079337,0.26026443,-0.56800008,0
3.7320755,0.62201291,2.3424797,0.8386687,0.13977818,0.52639997,0
1.6995041,-1.8694544,3.6632395,0.38191107,-0.42010212,0.82319993,0
2.6831729,-0.83849162,3.4496396,0.60296023,-0.18842509,0.77519995,0
0.98987347,0.33697826,-4.3254013,0.22244349,0.075725451,-0.97200036,0
-2.1126974,-3.8732781,-0.58027965,-0.47476348,-0.87039959,-0.13039993,0
-1.5892231,-0.12973247,-4.15452,-0.3571288,-0.029153366,-0.93360007,0
-1.9115375,3.676034,1.6233599,-0.42955902,0.82607508,0.36480001,0
-1.6628021,3.6279316,1.9686797,-0.3736634,0.81526554,0.44239995,0
1.6731355,4.1184874,0.2029202,0.37598553,0.92550284,0.045600045,0
-4.1847234,0.57720351,1.3990794,-0.94038731,0.12970866,0.3143999,0
1.0736982,4.2947941,-0.45212018,0.2412805,0.96512228,-0.10160004,0
3.3915007,0.1614999,2.8764801,0.76213503,0.036292113,0.64640003,0
-2.7289064,-0.29030928,-3.5030398,-0.61323744,-0.065238044,-0.78719997,0
1.1904353,2.2108085,3.6739199,0.26751357,0.49681091,0.82560003,0
-2.0422237,3.6468284,1.52724,-0.45892668,0.81951201,0.34320003,0
0.34880751,-1.6742756,-4.1082397,0.078383714,-0.37624174,-0.92319995,0
1.5974207,-2.9044008,-2.9690404,0.35897097,-0.65267438,-0.66720009,0
-2.8210006,-3.4342616,-0.22427984,-0.63393277,-0.77174419,-0.050399967,0
-0.060624555,-2.8493569,-3.4175999,-0.013623496,-0.64030492,-0.76800001,0
0.26707095,-4.4066744,0.55892038,0.060015947,-0.99026394,0.12560008,0
2.0089819,-3.2318404,-2.3068802,0.45145664,-0.72625631,-0.51840007,0
3.1140027,-2.6691456,1.7266002,0.69977593,-0.59980804,0.38800004,0
0.08447025,3.7166944,-2.4457197,0.018982079,0.83521223,-0.54959995,0
-0.98319829,-2.8840482,-3.2431598,-0.22094345,-0.64810073,-0.7288,0
-1.8955221,-1.0339211,3.8910797,-0.42596003,-0.23234184,0.87439996,0
2.6318827,3.4630034,0.93984002,0.59143436,0.77820307,0.21120001,0
2.4051349,3.6649678,-0.76539946,0.54047978,0.82358831,-0.17199989,0
-3.224503,-1.128576,2.8515601,-0.72460747,-0.25361261,0.64080006,0
-1.5204158,-3.6489983,2.0434399,-0.34166649,-0.81999964,0.45919999,0
-1.0385442,1.7309073,3.9658396,-0.23338072,0.38896796,0.89119995,0
4.0949826,-1.7372652,-0.12459946,0.92022085,-0.39039668,-0.02799988,0
-3.3517168,1.1172388,2.7055998,-0.75319481,0.2510649,0.60799998,0
-0.55771685,-2.8505528,-3.3713202,-0.12532963,-0.64057368,-0.75760007,0
1.7372215,-0.82912844,-4.0121198,0.39038688,-0.18632101,-0.9016,0
-3.5050635,-2.5236459,1.0715599,-0.78765476,-0.56711143,0.24079999,0
-4.3271794,-0.96159554,-0.39160043,-0.97239989,-0.21608889,-0.088000104,0
3.8760011,0.73828572,-2.0576804,0.8710115,0.16590691,-0.46240011,0
-2.7795367,3.3354445,0.97543997,-0.62461501,0.74953812,0.2192,0
1.387374,0.61661065,-4.1829991,0.31176946,0.1385642,-0.93999982,0
-1.6548824,0.10131923,-4.1296,-0.37188372,0.022768367,-0.92800003,0
0.4338229,1.3593121,-4.2150407,0.097488299,0.3054634,-0.94720018,0
-3.2101645,-0.87549949,-2.9547999,-0.7213853,-0.19674146,-0.66399997,0
-0.73828596,3.8760009,-2.0576804,-0.16590697,0.8710115,-0.46240011,0
-1.174606,3.9153528,-1.7586393,-0.2639564,0.87985462,-0.39519987,0
0.33726189,-3.1028087,-3.1719601,0.075789191,-0.69726044,-0.71280009,0
1.6731355,4.1184874,0.2029202,0.37598553,0.92550284,0.045600045,0
1.0385442,-1.7309068,3.9658399,0.23338072,-0.38896784,0.89120001,0
-0.80277818,-3.3716676,2.7910397,-0.1803996,-0.75767815,0.62719995,0
0.86149043,-4.1997666,-1.1925994,0.19359337,-0.94376785,-0.26799989,0
4.0698256,-1.0174564,1.4845206,0.91456759,-0.2286419,0.33360013,0
-2.8431518,0.33448815,3.40692,-0.63891053,0.075165883,0.76560003,0
-1.9889632,-3.3659379,2.12532,-0.44695807,-0.75639057,0.47760001,0
-2.447134,3.4547777,1.3706,-0.54991776,0.77635455,0.308,0
-3.0628829,-3.180686,-0.55179942,-0.68828833,-0.7147609,-0.12399987,0
2.2177396,-2.8513801,2.5987999,0.49836847,-0.64075959,0.58399999,0
-1.4256897,3.2474043,-2.6878006,-0.32037973,0.72975379,-0.60400015,0
3.2221441,2.6179922,-1.6019996,0.72407734,0.58831286,-0.35999992,0
-1.2440045,3.6431565,-2.2321205,-0.2795516,0.8186869,-0.50160015,0
0.3453013,2.0718098,3.9231198,0.0775958,0.46557525,0.88159996,0
-3.7028704,1.7773778,1.7123599,-0.83210576,0.39941075,0.38479999,0
-2.0059712,-0.91180497,-3.8661597,-0.45078006,-0.2049,-0.86879998,0
-0.28796414,4.031498,-1.8618804,-0.064711042,0.90595466,-0.41840011,0
-1.8788168,3.9924855,-0.57671928,-0.42220604,0.89718777,-0.12959984,0
-3.7592993,-2.3808894,-0.039160222,-0.84478641,-0.53503138,-0.0088000502,0
0.70843142,0.53132278,4.3609996,0.15919808,0.11939839,0.97999996,0
1.1392554,-3.0922651,2.9903998,0.25601247,-0.6948911,0.67199999,0
3.3874626,2.8856168,-0.028479945,0.76122761,0.64845324,-0.0063999877,0
2.2108085,1.1904353,3.6739199,0.49681091,0.26751357,0.82560003,0
-0.19263522,-4.0453377,-1.8440804,-0.043288816,-0.90906471,-0.41440013,0
3.2268269,-2.1512179,2.1822803,0.72512966,-0.48341978,0.49040008,0
0.61397386,3.8373346,2.1680398,0.13797165,0.86232245,0.48719996,0
-2.4417751,1.9669856,-3.1577206,-0.54871351,0.44201925,-0.70960015,0
-1.9645845,3.4758036,1.9651196,-0.44147968,0.78107947,0.44159994,0
1.8409367,-2.175652,3.4175997,0.41369364,-0.48891059,0.76799995,0
2.5447772,-0.33930385,3.6347601,0.57186007,-0.076248057,0.81680006,0
2.2363882,3.4031994,-1.7942408,0.50255919,0.76476395,-0.40320021,0
-2.7517095,-3.1861899,1.4418,-0.61836171,-0.71599776,0.324,0
1.2234075,-4.2139602,0.74048007,0.27492306,-0.94695741,0.16640002,0
1.6628021,3.6279316,1.9686797,0.3736634,0.81526554,0.44239995,0
2.1268666,2.9448924,-2.5703201,0.47794756,0.66177362,-0.57760006,0
2.5871747,3.5403442,0.75828016,0.58138758,0.79558301,0.17040004,0
-4.3437309,-0.57154369,-0.7796399,-0.97611934,-0.12843679,-0.17519999,0
-0.12347595,4.4451385,-0.16732036,-0.027747406,0.99890757,-0.037600081,0
2.2087615,-2.760952,-2.7020392,0.49635091,-0.62043869,-0.60719985,0
-3.8732781,2.1126974,-0.58027965,-0.87039959,0.47476348,-0.13039993,0
-1.4056364,4.0763459,1.1000396,-0.31587335,0.91603285,0.24719992,0
-2.8210006,3.4342616,-0.22427924,-0.63393277,0.77174419,-0.050399832,0
-1.3870668,1.3870662,3.9943199,-0.31170043,0.31170028,0.8976,0
0.99108732,4.3360081,-0.1388405,0.22271626,0.97438389,-0.031200113,0
-0.53185958,-4.3878422,0.51620042,-0.11951901,-0.98603201,0.1160001,0
-2.850553,0.55771673,-3.37132,-0.64057374,0.12532961,-0.75760001,0
0.65317011,3.9190211,-2.0042803,0.14677981,0.88067895,-0.45040008,0
1.0174563,-4.0698256,1.48452,0.22864187,-0.91456759,0.33360001,0
4.1605692,-0.96013147,-1.2531196,0.93495941,-0.21575989,-0.28159991,0
3.8771045,-1.7231578,1.3421203,0.87125945,-0.38722649,0.30160007,0
4.2236667,0.8447333,1.1178397,0.94913864,0.18982771,0.25119993,0
0.23614368,2.7746868,-3.4710009,0.053065997,0.62352514,-0.78000021,0
2.7191222,3.2420304,-1.3777198,0.61103874,0.7285462,-0.30959997,0
0.12062033,-2.8345804,-3.4282799,0.027105695,-0.63698441,-0.77039999,0
-4.3085165,-0.44189903,-1.0217196,-0.96820599,-0.099303156,-0.22959991,0
-3.5613151,1.925035,-1.8476399,-0.80029553,0.43259215,-0.4152,0
-1.1974256,4.1365604,-1.1213999,-0.26908442,0.92956418,-0.25199997,0
2.9691336,-2.820677,1.7408401,0.66722107,-0.63386005,0.39120004,0
-3.7721472,2.3413327,0.30259946,-0.84767354,0.52614218,0.067999884,0
-4.3877459,0.23093377,-0.70487982,-0.98601037,0.051895231,-0.15839997,0
2.0059712,-0.91180497,-3.8661597,0.45078006,-0.2049,-0.86879998,0
1.8912939,1.0807394,-3.8804004,0.42500988,0.24286279,-0.87200016,0
4.4173388,-0.49081528,-0.22072034,0.99266046,-0.11029557,-0.049600076,0
2.0650544,-3.5400937,-1.7337199,0.46405718,-0.79552668,-0.38960001,0
0.41325152,-3.6366127,-2.5311599,0.092865512,-0.81721634,-0.56879997,0
1.7104686,0.72219789,-4.0441594,0.38437501,0.16229166,-0.90879989,0
-2.7490208,3.4987535,-0.064079411,-0.6177575,0.78623676,-0.014399868,0
3.8150179,2.2890108,0.092559651,0.85730743,0.51438445,0.020799922,0
-4.0267282,-0.59655219,1.7978003,-0.90488279,-0.13405667,0.40400007,0
-4.0292907,-1.8887302,0.0035600991,-0.90545863,-0.42443377,0.00080002227,0
4.3437309,-0.57154369,-0.7796399,0.97611934,-0.12843679,-0.17519999,0
3.2715504,-1.8694577,2.3674002,0.7351799,-0.42010286,0.53200006,0
0.32276431,3.3890281,2.8658001,0.072531305,0.76157939,0.64400005,0
2.0650544,3.5400937,-1.7337199,0.46405718,0.79552668,-0.38960001,0
-0.29030928,-2.7289064,-3.5030398,-0.065238044,-0.61323744,-0.78719997,0
0.68515009,2.2267363,3.7913997,0.15396632,0.50039023,0.852,0
0.3157779,3.6314497,2.5525196,0.070961326,0.81605613,0.57359993,0
-0.51434302,-3.3064909,-2.9334395,-0.1155827,-0.74303168,-0.65919989,0
-0.13879445,3.1922705,-3.0971992,-0.031189766,0.71736419,-0.69599986,0
3.5983305,2.158998,-1.4809602,0.80861366,0.4851681,-0.33280006,0
4.0689535,1.5823706,-0.86152017,0.91437161,0.35558891,-0.19360004,0
2.4783578,-1.817463,3.21824,0.55693436,-0.40841869,0.72320002,0
4.2294221,1.1430873,-0.77964026,0.95043194,0.25687355,-0.17520006,0
-0.87549949,-3.2101645,-2.9547999,-0.19674146,-0.7213853,-0.66399997,0
2.2363882,3.4031994,-1.7942408,0.50255919,0.76476395,-0.40320021,0
2.3111038,-2.2410705,-3.0722792,0.51934922,-0.50361139,-0.69039983,0
-1.0554664,4.1163192,-1.3207595,-0.23718347,0.92501557,-0.2967999,0
4.3167548,-0.41775048,0.99679989,0.97005731,-0.093876518,0.22399998,0
-3.5087008,-0.47845924,2.6949198,-0.78847212,-0.10751893,0.6056,0
-4.1128616,-0.50156862,-1.6233599,-0.92423862,-0.11271206,-0.36480001,0
-2.3367496,0.1460467,-3.7842793,-0.52511227,0.032819483,-0.85039991,0
0,0,4.4499998,0,0,1,0
2.0089819,3.2318404,-2.3068802,0.45145664,0.72625631,-0.51840007,0
0.17276073,-2.0731308,3.9337997,0.038822636,-0.46587211,0.884,0
-3.6047175,-1.8023587,1.8867997,-0.81004894,-0.40502447,0.42399994,0
0,-4.4129338,0.57316035,0,-0.99167055,0.12880008,0
1.6308317,0.48577958,-4.1118007,0.36647904,0.10916395,-0.9240002,0
2.3122873,3.0830503,2.2250004,0.51961517,0.69282031,0.50000012,0
4.2607827,-0.89700711,-0.91847992,0.9574793,-0.20157464,-0.20639999,0
1.0937957,-0.79300195,-4.2399597,0.24579678,-0.17820269,-0.95279998,0
1.2973254,3.0811484,2.937,0.2915338,0.69239295,0.66000003,0
3.9314713,1.965736,-0.69419956,0.88347673,0.44173846,-0.15599991,0
2.2967932,-3.5495892,-1.3884004,0.51613331,-0.79766053,-0.31200013,0
3.1055524,1.8796766,-2.57388,0.69787699,0.42239925,-0.57840002,0
-2.6557403,0.63506842,-3.5137203,-0.59679562,0.14271201,-0.78960007,0
0.90153092,-3.5241659,-2.5632002,0.20259123,-0.79194742,-0.57600009,0
-0.19104967,-2.2925963,-3.8091993,-0.04293251,-0.51519018,-0.85599989,0
-3.9190211,-0.65317011,-2.0042803,-0.88067895,-0.14677981,-0.45040008,0
2.3263123,-3.4894681,1.4880794,0.52276683,-0.78415018,0.33439988,0
2.3586843,2.8304217,2.4955602,0.53004146,0.63604987,0.56080008,0
-3.7389152,0.46736395,2.3673997,-0.84020573,0.10502561,0.53199995,0
-3.4175997,1.5379199,-2.3994401,-0.76799995,0.34559998,-0.53920001,0
-0.9492594,1.2340372,-4.1687598,-0.21331672,0.27731174,-0.9368,0
0.33930334,-2.5447776,3.6347599,0.076247945,-0.57186019,0.8168,0
-2.9465425,-3.330874,0.16020034,-0.66214442,-0.74851102,0.036000077,0
-0.23662351,0.085587233,-4.4428802,-0.053173825,0.019233087,-0.99840009,0
-1.7425101,-3.0889952,-2.6877995,-0.39157531,-0.69415623,-0.60399991,0
2.191292,3.8669858,0.21715954,0.4924252,0.86898559,0.048799898,0
0,-4.4297886,-0.4236401,0,-0.99545813,-0.095200025,0
-4.0453377,-0.19263522,-1.8440804,-0.90906471,-0.043288816,-0.41440013,0
-1.9115375,-3.676034,1.6233599,-0.42955902,-0.82607508,0.36480001,0
1.9761175,-3.8424504,-1.0644399,0.44407135,-0.86347204,-0.23919998,0
3.0430984,3.0430984,-1.1320788,0.68384236,0.68384236,-0.25439975,0
4.3775668,0.77251184,0.20648062,0.98372293,0.17359817,0.046400141,0
-1.7340454,3.2203698,-2.5347197,-0.38967314,0.72367865,-0.56959999,0
-1.5758339,0,4.1616397,-0.35411999,0,0.93519998,0
-1.1518675,2.6068583,-3.4176002,-0.25884664,0.58581084,-0.76800007,0
3.0543034,-1.6075281,2.80884,0.68636036,-0.36124229,0.63120002,0
2.7389336,-3.0323911,-1.7621994,0.61549073,-0.68143624,-0.39599988,0
-0.16849004,-3.7067788,-2.4563999,-0.03786293,-0.83298403,-0.55199999,0
-2.1061244,-3.6857176,-1.3349997,-0.47328639,-0.82825118,-0.29999995,0
-1.9422337,-2.7514975,2.90852,-0.43645704,-0.61831409,0.65360004,0
3.5678232,2.6164038,-0.47704068,0.80175805,0.58795595,-0.10720016,0
-1.0385442,-1.7309068,3.9658399,-0.23338072,-0.38896784,0.89120001,0
-2.7275686,2.9156766,-1.9651204,-0.61293679,0.65520823,-0.44160011,0
1.4663137,3.8124161,-1.7657592,0.32950872,0.85672277,-0.39679983,0
-0.15452214,3.4767461,-2.7732396,-0.034724075,0.78129131,-0.62319994,0
-3.8150179,-2.2890108,0.092559651,-0.85730743,-0.51438445,0.020799922,0
0.17792861,-0.17792861,4.4428797,0.039983958,-0.039983958,0.99839997,0
3.7124639,-0.92811596,2.2712798,0.8342616,-0.2085654,0.5104,0
1.233476,0.17621084,-4.2720003,0.27718565,0.039597943,-0.9600001,0
3.88504,-1.3946296,-1.6625193,0.87304276,-0.31339991,-0.37359986,0
2.7931144,1.4787071,3.1327999,0.62766618,0.33229375,0.704,0
4.0163898,-0.74377608,1.7657603,0.90255958,-0.16714071,0.39680007,0
3.1316023,3.0197594,-0.936279,0.70373088,0.67859763,-0.21039978,0
-2.6557403,0.63506842,-3.5137203,-0.59679562,0.14271201,-0.78960007,0
-0.49081543,3.599313,-2.5703199,-0.11029561,0.80883443,-0.5776,0
1.4959587,3.5199022,-2.2748394,0.33617049,0.79098928,-0.51119989,0
2.9196861,-1.6220477,2.9405599,0.65610927,-0.36450511,0.66079998,0
-2.2460012,2.9114835,-2.5062401,-0.50471938,0.654266,-0.56320006,0
3.656898,2.4772532,-0.54111969,0.8217749,0.55668616,-0.12159993,0
0.79205,4.3562746,0.44500035,0.17798877,0.97893816,0.10000008,0
0.13672426,4.3751802,0.80100012,0.030724555,0.9831866,0.18000004,0
-1.7591517,3.0385344,2.7340798,-0.39531499,0.68281674,0.61439997,0
4.010581,0.78255218,-1.7622006,0.90125418,0.17585443,-0.39600015,0
-2.6164036,-3.5678232,-0.4770402,-0.58795589,-0.80175805,-0.10720005,0
1.0427094,1.5640635,4.0334802,0.23431672,0.35147497,0.90640008,0
-0.17436716,1.7436737,4.0904398,-0.039183632,0.39183679,0.9192,0
1.012117,1.9782284,-3.8554804,0.22744204,0.44454575,-0.86640012,0
-2.7490203,0.99964398,-3.3535202,-0.61775738,0.2246391,-0.75360006,0
-3.4704611,2.7524347,-0.42720073,-0.77987891,0.61852467,-0.096000172,0
-3.6550815,-1.8769337,-1.7088001,-0.82136667,-0.42178288,-0.38400003,0
0.33335003,-3.6668482,-2.49912,0.074910119,-0.82401085,-0.56160003,0
-0.2131249,-4.262496,-1.2602401,-0.047893237,-0.95786428,-0.28320003,0
-1.5755081,0.17505629,4.1580796,-0.35404679,0.039338496,0.93439996,0
-1.2720714,3.3391867,2.6522002,-0.28585875,0.75037909,0.59600008,0
-2.3355336,-3.7368538,-0.61943966,-0.52483904,-0.83974248,-0.13919993,0
-2.2504158,2.5504711,-2.8693595,-0.50571144,0.57313961,-0.64479989,0
-1.1161836,4.185688,1.0181596,-0.25082779,0.94060409,0.22879992,0
3.6120126,0.78522027,2.4777596,0.81168824,0.17645399,0.55679995,0
0.61397386,-3.8373346,2.1680398,0.13797165,-0.86232245,0.48719996,0
-4.1363459,1.3787823,0.88999951,-0.92951596,0.30983871,0.1999999,0
-3.5603342,1.1020081,-2.4314804,-0.80007511,0.24764228,-0.54640013,0
-4.1771088,0,-1.5343598,-0.93867618,0,-0.34479997,0
-2.1764386,3.8087671,0.74760056,-0.48908734,0.85590273,0.16800013,0
3.324929,1.4249693,2.5916803,0.7471751,0.32021785,0.58240008,0
-3.6017892,-0.93959725,2.4386001,-0.8093909,-0.21114546,0.54800004,0
-1.1392554,3.0922651,2.9903998,-0.25601247,0.6948911,0.67199999,0
-2.3922775,-3.1283629,-2.0719199,-0.53759044,-0.70300293,-0.46560001,0
1.8043267,2.6370928,-3.0971997,0.40546668,0.59260517,-0.69599998,0
2.6030638,-2.9093063,2.1359997,0.5849582,-0.65377671,0.47999996,0
-2.610235,-1.9576763,3.0259998,-0.58656967,-0.43992728,0.68000001,0
-3.9291801,-1.4552519,1.4987603,-0.88296187,-0.32702291,0.3368001,0
0.80956948,2.8023558,-3.3606393,0.18192573,0.62974292,-0.75519991,0
0.47845873,3.5087013,2.6949196,0.10751882,0.78847224,0.60559994,0
1.363475,2.045213,3.7095199,0.30639887,0.45959845,0.83359998,0
3.7124639,-0.92811596,2.2712798,0.8342616,-0.2085654,0.5104,0
-1.3570746,3.7696517,1.9366399,-0.30496061,0.84711277,0.43520001,0
1.8409367,-2.175652,3.4175997,0.41369364,-0.48891059,0.76799995,0
3.9125192,-1.9003662,-0.93984038,0.87921786,-0.42704859,-0.21120009,0
1.6308317,0.48577958,-4.1118007,0.36647904,0.10916395,-0.9240002,0
3.9291801,-1.4552519,1.4987603,0.88296187,-0.32702291,0.3368001,0
-3.7921519,1.1098982,-2.0469999,-0.85216904,0.24941534,-0.46000001,0
-1.337646,3.8643105,1.7550801,-0.30059463,0.86838442,0.39440003,0
-0.15312131,1.5005885,-4.1865602,-0.034409285,0.33721092,-0.94080007,0
0.49290204,-3.121716,3.1327999,0.11076451,-0.70150924,0.704,0
-1.750999,3.7938309,1.5308001,-0.39348292,0.85254627,0.34400004,0
-3.180686,-3.0628829,-0.55179942,-0.7147609,-0.68828833,-0.12399987,0
2.6021872,3.5072954,-0.85440034,0.5847612,0.78815627,-0.19200009,0
-2.7790239,3.3348289,-0.97900021,-0.6244998,0.74939978,-0.22000006,0
2.0020053,2.9629679,-2.6486399,0.44988886,0.6658355,-0.5952,0
3.0543034,1.6075286,2.8088398,0.68636036,0.36124238,0.63119996,0
3.2857084,2.3896062,1.8155992,0.73836148,0.53699017,0.40799984,0
1.52821,2.0376141,3.6489999,0.343418,0.45789084,0.81999999,0
-0.28965378,-4.1999779,1.4417995,-0.065090738,-0.94381529,0.32399991,0
0.33448815,-2.8431518,3.40692,0.075165883,-0.63891053,0.76560003,0
3.180686,3.0628829,-0.55179942,0.7147609,0.68828833,-0.12399987,0
0.3485162,1.742583,4.0797596,0.078318253,0.3915917,0.91679996,0
-1.3932747,3.3602512,-2.5632005,-0.31309545,0.75511265,-0.57600015,0
1.0554667,-4.1163192,-1.3207598,0.23718353,-0.92501557,-0.29679996,0
-1.9272,2.6409779,-3.0188797,-0.43307865,0.5934782,-0.67839998,0
0,3.9057903,-2.1324401,0,0.87770575,-0.47920004,0
-0.29459956,-4.1243916,1.6447198,-0.066202149,-0.92682958,0.36959997,0
-2.6122591,-1.6745251,-3.1897595,-0.58702457,-0.3762978,-0.71679991,0
-3.5590367,2.6363235,0.43076053,-0.79978359,0.59243226,0.096800126,0
2.6409779,1.9272,-3.0188797,0.5934782,0.43307865,-0.67839998,0
-1.3479198,2.3588591,3.5244,-0.30290335,0.53008074,0.79200006,0
1.3943654,2.4856081,-3.4176009,0.31334054,0.55856365,-0.76800025,0
-2.0541229,3.0021799,2.5632,-0.46160069,0.67464721,0.57600003,0
3.8760009,-0.73828596,-2.0576804,0.8710115,-0.16590697,-0.46240011,0
2.8847864,-3.3655839,-0.39160016,0.64826661,-0.756311,-0.088000037,0
-1.6742756,0.34880751,-4.1082397,-0.37624174,0.078383714,-0.92319995,0
1.7340454,3.2203701,-2.5347192,0.38967314,0.72367871,-0.56959987,0
-2.5197229,-3.5057018,-1.0786796,-0.56622988,-0.78779817,-0.24239992,0
-3.9924853,1.878817,-0.57672036,-0.89718777,0.42220607,-0.12960009,0
-0.52429992,1.5728992,4.1296,-0.11782021,0.35346052,0.92800003,0
2.8706932,-2.6015661,-2.1894002,0.64509964,-0.58462161,-0.49200007,0
-0.63683224,3.5025768,-2.6699998,-0.14310837,0.78709596,-0.59999996,0
2.0465512,3.8657074,-0.81879944,0.45989916,0.86869836,-0.18399988,0
-2.0518947,-1.1969383,3.7629199,-0.46109995,-0.2689749,0.84560001,0
-3.3741288,-0.76684743,-2.7981598,-0.75823122,-0.17232527,-0.62879997,0
1.0394223,-3.6379781,-2.3424804,0.23357806,-0.81752318,-0.52640009,0
-0.20681736,3.1711993,-3.1149991,-0.046475813,0.71262908,-0.69999981,0
2.045213,-1.3634756,3.7095196,0.45959845,-0.30639902,0.83359993,0
4.0752282,-0.91692644,-1.5343593,0.91578168,-0.20605089,-0.34479988,0
-4.2241168,1.0004483,-0.97899967,-0.94923979,0.22481987,-0.21999994,0
3.2126901,-1.2850764,2.7981601,0.72195286,-0.28878123,0.62880003,0
3.5495892,2.2967935,-1.3883997,0.79766053,0.51613337,-0.31199995,0
-3.2116799,-2.14112,-2.2143204,-0.72172588,-0.48115057,-0.49760011,0
-3.5880277,-2.4667692,-0.9184798,-0.80629838,-0.55433017,-0.20639996,0
2.0020053,2.9629679,-2.6486399,0.44988886,0.6658355,-0.5952,0
3.6649678,2.4051349,-0.76539946,0.82358831,0.54047978,-0.17199989,0
-2.8023558,-0.80956948,-3.3606393,-0.62974292,-0.18192573,-0.75519991,0
-1.1904353,2.2108085,3.6739199,-0.26751357,0.49681091,0.82560003,0
2.2108085,1.1904353,3.6739199,0.49681091,0.26751357,0.82560003,0
3.3886416,1.8483497,2.2143195,0.76149255,0.4153595,0.4975999,0
0.67215246,-2.6886084,3.4816799,0.1510455,-0.60418171,0.78240001,0
0.39846575,3.0549037,-3.2111192,0.089542873,0.68649524,-0.72159982,0
3.5848331,2.4818077,0.89000005,0.8055805,0.55770963,0.20000002,0
0.84975213,-2.3793051,3.66324,0.19095555,-0.53467536,0.82320005,0
-2.5398798,3.6093025,0.5696004,-0.57075953,0.81107926,0.1280001,0
-2.1875901,-3.7189035,-1.0893599,-0.4915933,-0.83570868,-0.24479999,0
-0.17707181,-0.88536006,4.35744,-0.03979142,-0.19895732,0.97920007,0
2.4266562,0.99272311,-3.5955999,0.54531604,0.22308385,-0.80800003,0
-3.4630034,2.6318827,0.93984002,-0.77820307,0.59143436,0.21120001,0
-1.5315781,3.7332215,-1.8761195,-0.34417486,0.8389262,-0.42159989,0
1.034595,3.8562174,-1.9651208,0.23249327,0.86656576,-0.4416002,0
4.0856638,0.87549949,1.5308005,0.91812676,0.19674146,0.34400013,0
0.87092781,-1.5676697,4.0726399,0.19571412,-0.35228536,0.91520005,0
-2.4417751,1.9669856,-3.1577206,-0.54871351,0.44201925,-0.70960015,0
1.4663137,-3.8124161,-1.7657592,0.32950872,-0.85672277,-0.39679983,0
2.3498909,-1.5106444,3.4638801,0.52806538,-0.33947068,0.77840006,0
-2.7517095,3.1861901,1.4417995,-0.61836171,0.71599782,0.32399991,0
-3.2715509,1.8694576,2.3673997,-0.73518002,0.42010286,0.53199995,0
-0.17436716,1.7436737,4.0904398,-0.039183632,0.39183679,0.9192,0
4.1280036,0.14742857,1.6554005,0.92764127,0.033130016,0.37200013,0
1.0925081,3.5896702,2.3923197,0.24550745,0.80666751,0.53759992,0
2.4051349,3.6649678,-0.76539946,0.54047978,0.82358831,-0.17199989,0
3.1082287,-2.9669454,1.1569993,0.6984784,-0.66672933,0.25999987,0
-1.9555836,2.207917,-3.3321605,-0.439457,0.49616113,-0.74880016,0
-1.2436993,-3.5756347,2.3389201,-0.27948299,-0.80351347,0.52560008,0
-2.0576677,1.0288339,3.8091998,-0.46239728,0.23119864,0.85600001,0
3.388252,2.8669829,0.3203997,0.76140499,0.64426583,0.071999937,0
-2.7597322,-0.59994173,-3.4389601,-0.62016457,-0.13481838,-0.77280003,0
1.6073308,3.9647501,-1.2246398,0.36119795,0.89095509,-0.27519995,0
2.3876426,-0.51163775,3.7202001,0.53654891,-0.11497478,0.83600003,0
-0.16860257,2.6976442,3.5350795,-0.037888221,0.6062122,0.79439992,0
1.4093955,-3.4451897,2.4386001,0.3167181,-0.77419996,0.54800004,0
-1.8760053,-1.9328541,-3.5421996,-0.42157423,-0.43434924,-0.79599994,0
0.34557647,4.377306,-0.72267979,0.077657633,0.98366433,-0.16239996,0
0,-0.53303796,4.4179597,0,-0.11978382,0.9928,0
-3.3232632,2.5962994,-1.4204397,-0.74680072,0.5834381,-0.31919995,0
-3.3659379,-1.9889632,2.12532,-0.75639057,-0.44695807,0.47760001,0
3.246439,-2.81358,-1.16056,0.72953689,-0.63226521,-0.2608,0
-1.2598326,1.3743629,-4.0405998,-0.28310847,0.30884561,-0.90799999,0
-2.945241,1.7369372,-2.8479998,-0.66185194,0.39032298,-0.63999999,0
3.2368662,2.9020176,-0.95052022,0.7273857,0.65213883,-0.21360005,0
0.6893912,3.1022596,-3.1149998,0.15491937,0.697137,-0.69999999,0
-3.9044125,1.5906869,1.4240001,-0.87739611,0.35745776,0.32000005,0
1.4414924,4.1934319,0.37380004,0.32393089,0.94234425,0.084000014,0
-1.2955418,4.0305738,1.3706005,-0.29113299,0.905747,0.30800012,0
0,3.7199938,-2.4421599,0,0.83595371,-0.54879999,0
3.0048764,-0.95609689,-3.1399198,0.67525315,-0.21485324,-0.70559996,0
3.269871,3.0183425,-0.0071199862,0.73480248,0.67827922,-0.0015999969,0
1.8796766,3.1055524,-2.57388,0.42239925,0.69787699,-0.57840002,0
3.7696517,1.3570741,1.9366401,0.84711277,0.30496049,0.43520007,0
-1.2246346,1.049687,4.1473999,-0.27519882,0.23588474,0.93200004,0
4.3988376,0.39989397,0.54112041,0.98850286,0.089863814,0.1216001,0
3.4767461,0.15452191,-2.7732394,0.78129131,0.034724027,-0.62319988,0
3.102756,-3.102756,-0.74047923,0.69724858,-0.69724858,-0.16639984,0
-1.5315781,3.7332215,-1.8761195,-0.34417486,0.8389262,-0.42159989,0
0.14235535,4.2706647,1.2424397,0.031989969,0.95969999,0.27919996,0
-1.7239299,-3.2911386,2.4492795,-0.3874,-0.73958176,0.5503999,0
1.5961369,-0.58987665,-4.1117988,0.35868248,-0.13255656,-0.92399979,0
-3.1849866,-2.5093834,-1.8333993,-0.71572733,-0.56390643,-0.41199985,0
-3.7559228,-0.61142921,-2.30688,-0.84402764,-0.13739982,-0.51840001,0
2.272507,-2.4348292,2.9512401,0.51067573,-0.54715264,0.66320002,0
0.35883686,-3.8574941,-2.1894002,0.0806375,-0.86685264,-0.49200007,0
-1.1969383,-2.0518947,3.7629199,-0.2689749,-0.46109995,0.84560001,0
-4.1381884,-1.3421153,-0.93628013,-0.92993003,-0.30159897,-0.21040004,0
-1.3914456,1.2175146,4.04772,-0.31268442,0.27359882,0.90960002,0
3.6996605,-2.46644,-0.17800008,0.83138442,-0.5542562,-0.040000018,0
0.33913508,1.4798621,-4.1830006,0.076210134,0.3325533,-0.94000018,0
-1.6713052,2.3398271,3.39624,-0.3755742,0.52580386,0.76320004,0
-2.1061242,3.6857176,-1.3350004,-0.47328636,0.82825118,-0.3000001,0
1.2131714,-1.5597919,3.9871998,0.27262279,-0.35051507,0.89599997,0
-3.4987535,-2.7490208,-0.06408,-0.78623676,-0.6177575,-0.014400001,0
-2.7597322,-0.59994173,-3.4389601,-0.62016457,-0.13481838,-0.77280003,0
-2.495862,2.8078449,2.3851998,-0.56086791,0.63097638,0.53599995,0
-1.7369373,2.9452415,-2.8479993,-0.39032301,0.66185206,-0.63999987,0
-2.7490208,-3.4987535,-0.06408,-0.6177575,-0.78623676,-0.014400001,0
1.5398803,3.5417242,2.2107594,0.34604052,0.79589313,0.49679989,0
0,-4.0563755,-1.8298404,0,-0.9115451,-0.41120011,0
-0.67803764,4.3394399,0.71556008,-0.15236801,0.97515506,0.16080002,0
3.7592993,-2.3808894,-0.039160222,0.84478641,-0.53503138,-0.0088000502,0
1.7340454,-3.2203701,-2.5347192,0.38967314,-0.72367871,-0.56959987,0
2.2890108,3.8150179,0.092559651,0.51438445,0.85730743,0.020799922,0
-2.7490208,3.4987535,-0.064079411,-0.6177575,0.78623676,-0.014399868,0
4.1072898,1.5060064,0.81523961,0.92298651,0.33842841,0.18319993,0
2.1207056,3.7949464,-0.95051926,0.47656307,0.85279697,-0.21359985,0
0.70455664,1.0568345,4.2648797,0.15832734,0.23749091,0.95839995,0
-0.62932509,4.4052749,-6.3657762e-07,-0.14142138,0.98994946,-1.4305115e-07,0
2.3588593,-2.8643293,-2.4563994,0.53008074,-0.64366955,-0.55199993,0
-0.14235535,4.2706647,1.2424397,-0.031989969,0.95969999,0.27919996,0
-3.8445525,-0.46134633,2.1929598,-0.86394441,-0.10367334,0.49279997,0
1.4798642,-4.1929483,-0.17800012,0.33255377,-0.94223565,-0.040000029,0
0.70051569,-1.4010309,4.1651998,0.15741926,-0.31483841,0.93599999,0
-3.9744651,1.092978,-1.6767602,-0.89313829,0.24561304,-0.37680006,0
-0.0011660744,0.0015547659,-4.4499993,-0.00026203922,0.00034938561,-0.99999988,0
0.20326301,-4.1668959,-1.5485998,0.045677084,-0.93638116,-0.34799999,0
-0.91979676,-3.1131585,-3.0437996,-0.20669591,-0.69958621,-0.68399996,0
2.5109355,-1.339166,3.42116,0.56425518,-0.30093619,0.76880002,0
-1.8513199,2.0196216,3.5065997,-0.41602695,0.45384759,0.78799999,0
-3.5896697,-1.0925081,2.3923202,-0.80666739,-0.24550745,0.53760004,0
4.1540794,0.72696382,-1.4204392,0.93350106,0.16336267,-0.31919983,0
-1.3171519,3.9514556,-1.5663995,-0.29598922,0.88796759,-0.35199988,0
1.2246346,-1.049687,4.1473999,0.27519882,-0.23588474,0.93200004,0
3.599313,0.49081543,-2.5703199,0.80883443,0.11029561,-0.5776,0
3.746717,0.15611304,2.3958797,0.84195888,0.035081584,0.53839999,0
2.3922777,3.1283631,-2.0719192,0.5375905,0.70300299,-0.46559983,0
-4.4278297,-0.11967096,-0.42720011,-0.99501795,-0.026892353,-0.096000031,0
0,4.1292067,1.6589605,0,0.92791164,0.37280011,0
1.6073308,3.9647501,-1.2246398,0.36119795,0.89095509,-0.27519995,0
3.7189035,-2.1875904,-1.0893592,0.83570868,-0.49159336,-0.24479982,0
3.2221441,-2.6179922,-1.6019996,0.72407734,-0.58831286,-0.35999992,0
-1.0339211,1.8955221,3.8910797,-0.23234184,0.42596003,0.87439996,0
-1.7203417,1.9978162,-3.5849202,-0.38659364,0.44894749,-0.80560005,0
-3.7877762,-2.3215404,-0.25632,-0.85118568,-0.52169448,-0.057600003,0
-3.8150179,2.2890108,0.092559651,-0.85730743,0.51438445,0.020799922,0
-0.39559168,0.25430891,-4.4250798,-0.088897012,0.057148073,-0.99440002,0
-4.3983436,0.47549683,-0.48060018,-0.98839188,0.10685322,-0.10800005,0
0.84691328,-4.3555546,-0.33820033,0.1903176,-0.97877634,-0.07600008,0
-3.5590367,2.6363235,0.43076053,-0.79978359,0.59243226,0.096800126,0
2.2339389,-0.17184129,3.8448,0.5020088,-0.038616024,0.86400002,0
-2.0089819,-3.2318408,-2.3068798,-0.45145664,-0.72625643,-0.51839995,0
-1.243291,2.3735557,-3.5528803,-0.27939126,0.53338331,-0.7984001,0
3.6151969,-2.1691182,1.4239999,0.81240386,-0.48744231,0.31999999,0
1.3185464,-1.0756563,-4.1117997,0.29630259,-0.24172053,-0.92399997,0
2.759733,0.59994215,-3.4389594,0.62016475,0.13481846,-0.77279991,0
-2.5975802,1.0036106,-3.471,-0.58372593,0.22553049,-0.78000003,0
3.6431565,-1.2440045,-2.2321205,0.8186869,-0.2795516,-0.50160015,0
1.8043267,-2.6370928,-3.0971997,0.40546668,-0.59260517,-0.69599998,0
-2.2453637,-0.68337148,-3.78072,-0.50457615,-0.15356663,-0.84960002,0
-1.1684721,-4.2843971,0.28480035,-0.26257801,-0.9627859,0.064000085,0
2.7428184,-1.5771205,-3.1292391,0.6163637,-0.35440913,-0.7031998,0
1.0583444,-0.52917218,4.2897997,0.23783021,-0.1189151,0.96399999,0
-1.2973258,-3.0811484,2.9369998,-0.29153392,-0.69239295,0.65999997,0
0.61661065,-1.387374,-4.1829991,0.1385642,-0.31176946,-0.93999982,0
3.2911382,1.72393,2.44928,0.73958164,0.38740003,0.55040002,0
-1.337646,-3.8643105,1.7550801,-0.30059463,-0.86838442,0.39440003,0
-2.3864615,-3.2455876,-1.89036,-0.53628349,-0.72934556,-0.42480001,0
1.4901179,2.6490996,3.2502797,0.33485797,0.5953033,0.73039997,0
4.3437309,0.57154369,-0.7796399,0.97611934,0.12843679,-0.17519999,0
3.4630034,2.6318827,0.93984002,0.77820307,0.59143436,0.21120001,0
4.3751802,0.13672426,0.80100012,0.9831866,0.030724555,0.18000004,0
-1.8306673,3.8767076,-1.1926001,-0.41138592,0.87117028,-0.26800004,0
2.9629679,2.0020053,-2.6486399,0.6658355,0.44988886,-0.5952,0
0.96072519,-3.3625381,2.7518797,0.21589331,-0.75562656,0.61839998,0
0.68114287,2.3839986,3.6952798,0.15306582,0.53573006,0.83039999,0
-3.5130687,-0.31937006,2.7127199,-0.78945369,-0.07176856,0.60960001,0
-0.35571527,0,4.43576,-0.07993602,0,0.99680007,0
-1.7372215,-0.82912844,-4.0121198,-0.39038688,-0.18632101,-0.9016,0
-1.3820873,-1.5548481,3.9337997,-0.31058145,-0.34940407,0.884,0
0.79079282,-4.2928758,-0.86507982,0.17770626,-0.96469122,-0.19439997,0
4.4052749,-0.62932509,-6.3657762e-07,0.98994946,-0.14142138,-1.4305115e-07,0
-4.0848107,1.7129852,0.42719996,-0.91793501,0.38494051,0.095999993,0
-2.4820576,3.3580785,1.5379198,-0.55776578,0.75462443,0.34559995,0
-0.83849162,2.6831729,3.4496396,-0.18842509,0.60296023,0.77519995,0
2.5447772,-0.33930385,3.6347601,0.57186007,-0.076248057,0.81680006,0
-0.95609689,3.0048764,-3.1399198,-0.21485324,0.67525315,-0.70559996,0
-0.26063493,4.4307914,0.3204006,-0.058569651,0.99568349,0.072000138,0
3.1414621,0.27317077,-3.1399193,0.70594656,0.061386693,-0.70559984,0
-1.1518675,-2.6068583,-3.4176002,-0.25884664,-0.58581084,-0.76800007,0
-1.5863985,4.1490421,-0.2669993,-0.35649407,0.93236905,-0.059999846,0
-3.6203551,-0.62962687,2.5098002,-0.81356299,-0.14148919,0.56400007,0
-0.23093411,-4.3877459,-0.70487988,-0.051895309,-0.98601037,-0.15839998,0
-0.98811644,2.9643493,3.1683998,-0.22204866,0.66614592,0.71200001,0
3.7012424,-2.1353323,1.2424401,0.8317399,-0.47984999,0.27920005,0
1.1098982,-3.7921519,-2.0469999,0.24941534,-0.85216904,-0.46000001,0
1.8694544,1.6995041,3.6632395,0.42010212,0.38191107,0.82319993,0
-3.0040028,-3.2652206,0.34176016,-0.67505682,-0.7337575,0.076800041,0
-0.85939181,2.0625401,3.8483598,-0.19312176,0.46349216,0.86479998,0
-2.7275686,2.9156766,-1.9651204,-0.61293679,0.65520823,-0.44160011,0
-2.8954418,1.3098427,-3.1150002,-0.65066111,0.29434669,-0.70000011,0
2.6765141,1.0036927,3.4104795,0.60146385,0.22554894,0.76639992,0
-3.5403442,-2.5871747,0.75828016,-0.79558301,-0.58138758,0.17040004,0
0.18110552,-3.8937724,-2.1466801,0.040697873,-0.87500507,-0.48240006,0
-1.877231,-1.5359162,3.7308798,-0.42184967,-0.34514973,0.83840001,0
-1.0036927,2.6765141,3.4104795,-0.22554894,0.60146385,0.76639992,0
-3.0005538,-2.7004988,1.87256,-0.67428178,-0.60685366,0.42080003,0
1.7206261,1.3765002,3.8661597,0.38665757,0.3093259,0.86879998,0
-3.3364511,2.6906865,-1.19616,-0.74976432,0.60464865,-0.26879999,0
-3.8468018,-2.2336268,-0.12460014,-0.86444986,-0.50193864,-0.028000033,0
4.4121284,-0.35774013,-0.4556801,0.99148959,-0.080391042,-0.10240003,0
0.91967958,4.3356328,0.39872041,0.20666958,0.97429955,0.089600094,0
-4.250586,0.5667451,1.1890396,-0.95518792,0.12735845,0.26719993,0
2.4246957,-0.4643034,-3.7024009,0.54487544,-0.10433785,-0.83200026,0
4.2928758,0.79079282,-0.86507982,0.96469122,0.17770626,-0.19439997,0
2.0665178,0.68883961,3.8803997,0.46438605,0.15479542,0.87199998,0
-4.1725869,-1.3908623,-0.67640036,-0.93766004,-0.31255335,-0.15200008,0
-1.6731355,-4.1184874,0.2029202,-0.37598553,-0.92550284,0.045600045,0
-0.636832,-3.5025768,2.6699998,-0.14310832,-0.78709596,0.59999996,0
1.7206261,-1.3765007,3.8661597,0.38665757,-0.30932602,0.86879998,0
-2.4186211,-3.1744401,1.9686798,-0.54351038,-0.71335739,0.44239998,0
4.4225173,-0.39022213,0.30260062,0.99382418,-0.087690368,0.068000145,0
-2.3286533,1.8296566,3.3214798,-0.5232929,0.4111588,0.7464,0
-3.6366127,-0.41325152,-2.5311599,-0.81721634,-0.092865512,-0.56879997,0
-1.0756563,1.3185464,-4.1117997,-0.24172053,0.29630259,-0.92399997,0
2.2317765,0.96372169,-3.7273197,0.50152284,0.21656668,-0.83759999,0
2.3845837,3.576875,-1.1498801,0.53586155,0.80379218,-0.25840002,0
-1.5920802,3.1841605,2.6700001,-0.35777086,0.71554172,0.60000002,0
0.3545728,-0.70914608,4.3787999,0.079679288,-0.15935868,0.98400003,0
-1.8296566,-2.3286533,3.3214798,-0.4111588,-0.5232929,0.7464,0
-0.71952534,4.1732464,1.3670394,-0.1616911,0.93780822,0.3071999,0
3.3602507,1.3932748,-2.563201,0.75511253,0.31309548,-0.57600021,0
2.4417751,1.9669856,-3.1577206,0.54871351,0.44201925,-0.70960015,0
3.102756,3.102756,-0.74047923,0.69724858,0.69724858,-0.16639984,0
2.6363235,3.5590367,0.43076053,0.59243226,0.79978359,0.096800126,0
-1.5197911,2.1952538,-3.559999,-0.34152612,0.49331549,-0.79999983,0
-2.9416957,2.4959841,-2.2178791,-0.66105527,0.56089532,-0.49839982,0
-3.9206057,1.8202811,1.05732,-0.88103503,0.40905195,0.23760001,0
1.6742737,-0.34880701,-4.1082406,0.3762413,-0.078383602,-0.92320019,0
2.3163536,1.9854462,3.2395999,0.52052891,0.44616771,0.72800004,0
2.3735557,-1.243291,-3.5528803,0.53338331,-0.27939126,-0.7984001,0
-3.816637,-0.91599292,2.0968399,-0.85767126,-0.20584111,0.47119999,0
3.6468284,2.0422237,1.52724,0.81951201,0.45892668,0.34320003,0
-2.2890108,-3.8150179,0.092559651,-0.51438445,-0.85730743,0.020799922,0
-1.0648743,3.803123,2.05056,-0.2392976,0.8546344,0.46080002,0
-1.3504558,4.1864128,0.67283994,-0.3034732,0.94076699,0.1512,0
0.79424721,3.4946873,2.6379595,0.17848253,0.78532302,0.5927999,0
3.3229563,-2.6005745,1.4133196,0.74673182,-0.58439881,0.31759992,0
-0.077506617,3.4878011,-2.7625594,-0.017417219,0.78377557,-0.6207999,0
1.6160324,-3.8197122,1.61268,0.36315337,-0.85836232,0.3624,0
3.7189035,-2.1875904,-1.0893592,0.83570868,-0.49159336,-0.24479982,0
-2.4246974,0.46430361,-3.7023997,-0.54487586,0.10433789,-0.83199996,0
0.52776873,-1.2314614,4.2435198,0.11859972,-0.27673292,0.95359999,0
-1.128576,3.224503,2.8515601,-0.25361261,0.72460747,0.64080006,0
-2.8840482,-0.98319829,-3.2431598,-0.64810073,-0.22094345,-0.7288,0
-2.6318827,-3.4630034,0.93984002,-0.59143436,-0.77820307,0.21120001,0
-0.38000396,-4.4333792,0.056960143,-0.085394152,-0.99626505,0.012800032,0
2.0718086,-0.30213872,-3.9266806,0.46557498,-0.067896344,-0.88240016,0
3.9258969,-0.75498039,1.95444,0.88222408,-0.16965853,0.43920001,0
0.30805856,-1.2322342,-4.2648797,0.069226645,-0.27690658,-0.95839995,0
-3.2268274,2.1512179,2.1822798,-0.72512978,0.48341978,0.49039999,0
2.5209284,-0.42909425,-3.641881,0.56650078,-0.096425682,-0.81840026,0
0.76526016,0.64442962,-4.3360796,0.17196858,0.14481565,-0.97439992,0
1.4334908,2.6715055,-3.257401,0.32213277,0.60033834,-0.73200023,0
-0.70742834,-0.70742834,4.3360801,-0.15897267,-0.15897267,0.97440004,0
1.877231,-1.5359162,3.7308798,0.42184967,-0.34514973,0.83840001,0
2.2336268,-3.8468018,-0.12460014,0.50193864,-0.86444986,-0.028000033,0
-3.2547588,2.5150411,1.6981198,-0.73140651,0.5651778,0.38159996,0
-1.832485,0.34359083,-4.0405993,-0.41179439,0.077211425,-0.90799987,0
-0.16953962,-1.3845735,-4.2257199,-0.038098793,-0.31114012,-0.94960004,0
3.6848321,-1.2282776,2.1715996,0.82805216,-0.27601743,0.48799995,0
-0.79205,-4.3562746,0.44500035,-0.17798877,-0.97893816,0.10000008,0
-2.6005745,3.3229563,1.4133196,-0.58439881,0.74673182,0.31759992,0
2.0696065,-0.51740164,3.9053197,0.46508014,-0.11627004,0.87759995,0
3.816637,-0.91599292,2.0968399,0.85767126,-0.20584111,0.47119999,0
-3.0889947,1.7425101,-2.6877999,-0.69415617,0.39157531,-0.60400003,0
-3.4425182,0.70415127,-2.7305195,-0.77359962,0.15823625,-0.6135999,0
-1.2334769,0.17621084,4.2719998,-0.27718583,0.039597943,0.95999998,0
-1.7425101,3.0889952,-2.6877995,-0.39157531,0.69415623,-0.60399991,0
-2.2586088,-3.8039727,-0.48059979,-0.50755256,-0.85482538,-0.10799996,0
1.0554667,-4.1163192,-1.3207598,0.23718353,-0.92501557,-0.29679996,0
-2.1643012,1.9978167,3.3357198,-0.48635983,0.44894758,0.74959999,0
2.4051349,3.6649678,-0.76539946,0.54047978,0.82358831,-0.17199989,0
0.48577958,1.6308317,-4.1118007,0.10916395,0.36647904,-0.9240002,0
-3.8431907,1.4781507,1.6874399,-0.8636384,0.33216873,0.37920001,0
-2.5461588,-3.1452556,1.8512,-0.57217056,-0.70679903,0.41600001,0
1.0385442,1.7309073,3.9658396,0.23338072,0.38896796,0.89119995,0
3.3580785,2.482058,1.5379194,0.75462443,0.5577659,0.34559989,0
-4.3034024,-0.94136918,0.63012016,-0.96705675,-0.21154365,0.14160004,0
-3.9809649,1.5639507,1.2281998,-0.8945989,0.35144961,0.27599996,0
3.4878011,0.077506617,-2.7625594,0.78377557,0.017417219,-0.6207999,0
-2.7289064,-0.29030928,-3.5030398,-0.61323744,-0.065238044,-0.78719997,0
-1.648399,-2.6374385,3.1826398,-0.37042674,-0.59268284,0.71520001,0
2.2301004,0.51463807,3.8163199,0.5011462,0.11564901,0.85760003,0
-0.15312131,-1.5005885,-4.1865602,-0.034409285,-0.33721092,-0.94080007,0
-3.8424504,1.9761175,-1.0644399,-0.86347204,0.44407135,-0.23919998,0
2.8047962,2.4648213,-2.4208,0.63029128,0.55389243,-0.54400003,0
-4.2548776,1.196684,0.5162003,-0.95615232,0.26891777,0.11600007,0
2.4375682,3.656352,0.70132023,0.54776818,0.82165217,0.15760006,0
-2.8096836,1.9743721,-2.8301997,-0.63138962,0.44367915,-0.63599998,0
-2.009203,-2.009203,3.4247198,-0.45150632,-0.45150632,0.76959997,0
2.2555013,-3.6651888,1.1320798,0.50685424,-0.82363796,0.25439999,0
2.0020053,-2.9629679,-2.6486399,0.44988886,-0.6658355,-0.5952,0
3.4181097,-2.7344875,0.80100012,0.76811457,-0.61449158,0.18000004,0
1.3088409,2.9448926,3.0687199,0.29412156,0.66177368,0.68959999,0
-2.8643291,-2.3588591,-2.4563999,-0.64366949,-0.53008074,-0.55199999,0
-1.9669856,-2.4417751,-3.1577206,-0.44201925,-0.54871351,-0.70960015,0
3.6468284,-2.0422237,1.52724,0.81951201,-0.45892668,0.34320003,0
4.280725,1.070181,0.57672024,0.96196073,0.24049012,0.12960006,0
2.9864304,0.33182529,3.2823198,0.67110801,0.074567482,0.73759997,0
1.7831833,-3.5663667,-1.9757998,0.40071538,-0.80143076,-0.44399998,0
-2.1643012,-1.9978167,3.3357198,-0.48635983,-0.44894758,0.74959999,0
2.3588595,-3.3908598,1.6553998,0.5300808,-0.76199102,0.37199998,0
3.4468501,0.96191168,-2.6450801,0.77457309,0.21615994,-0.59440005,0
2.9020176,-3.2368662,-0.95052022,0.65213883,-0.7273857,-0.21360005,0
-0.84293121,2.370744,-3.6703594,-0.18942276,0.5327515,-0.8247999,0
-2.6831725,-0.83849162,3.4496398,-0.60296011,-0.18842509,0.77520001,0
-4.4491096,0,0.089000143,-0.99979997,0,0.020000033,0
2.7166674,-2.2372551,2.7233999,0.6104871,-0.50275397,0.61199999,0
2.3588591,-1.3479198,3.5244,0.53008074,-0.30290335,0.79200006,0
0.19263494,4.0453377,-1.8440804,0.043288752,0.90906471,-0.41440013,0
0.14495787,-4.2037826,1.4524795,0.032574803,-0.94467026,0.32639989,0
-2.7597322,-0.59994173,-3.4389601,-0.62016457,-0.13481838,-0.77280003,0
-4.3085165,-0.44189903,-1.0217196,-0.96820599,-0.099303156,-0.22959991,0
-1.0174564,4.0698256,1.4845206,-0.2286419,0.91456759,0.33360013,0
-3.6468284,-2.0422237,1.52724,-0.81951201,-0.45892668,0.34320003,0
2.3735557,-1.243291,-3.5528803,0.53338331,-0.27939126,-0.7984001,0
2.6556716,-2.414247,-2.6308398,0.59678018,-0.54252744,-0.59119999,0
2.0020053,2.9629679,-2.6486399,0.44988886,0.6658355,-0.5952,0
-0.10181839,-4.1745582,-1.5379199,-0.022880537,-0.93810302,-0.34559998,0
-2.8513801,2.2177396,2.5987999,-0.64075959,0.49836847,0.58399999,0
0.78055698,-0.45381218,-4.35744,0.17540607,-0.10198027,-0.97920007,0
4.1732464,-0.71952534,1.3670394,0.93780822,-0.1616911,0.3071999,0
2.1917865,3.806787,-0.71199954,0.49253631,0.85545778,-0.15999991,0
-3.4247179,-2.6513946,-1.0217202,-0.76959956,-0.59581906,-0.22960004,0
-3.5590367,-2.6363235,0.43076053,-0.79978359,-0.59243226,0.096800126,0
-2.6179922,-3.2221441,-1.6019996,-0.58831286,-0.72407734,-0.35999992,0
1.7436737,-0.17436716,4.0904398,0.39183679,-0.039183632,0.9192,0
-3.7067788,0.16848978,-2.4563997,-0.83298403,0.037862875,-0.55199993,0
1.5197911,2.1952538,-3.559999,0.34152612,0.49331549,-0.79999983,0
-3.492837,-2.6867976,0.61944032,-0.78490722,-0.60377479,0.13920008,0
-4.1771088,0,-1.5343598,-0.93867618,0,-0.34479997,0
1.2436988,3.5756352,2.3389196,0.2794829,0.80351359,0.52559996,0
0.30508199,3.4321706,-2.8159595,0.068557754,0.77127433,-0.63279992,0
3.8221502,-1.7561229,-1.45248,0.8589102,-0.3946344,-0.32640001,0
0.96191168,-3.4468501,-2.6450801,0.21615994,-0.77457309,-0.59440005,0
1.6075286,3.0543034,2.8088398,0.36124238,0.68636036,0.63119996,0
-3.7782989,-1.3224044,-1.9437599,-0.84905595,-0.29716954,-0.4368,0
-4.250586,0.5667451,1.1890396,-0.95518792,0.12735845,0.26719993,0
-2.3163536,-1.9854462,3.2395999,-0.52052891,-0.44616771,0.72800004,0
-0.9118737,1.3846973,-4.1296,-0.20491545,0.31116796,-0.92800003,0
2.8097131,3.4482837,0.13171992,0.63139623,0.77489525,0.029599983,0
4.2583075,1.1828634,-0.51976049,0.95692307,0.26581201,-0.11680011,0
1.9081068,-3.0211689,2.6522,0.42878807,-0.67891443,0.59600002,0
2.8521309,-2.8521309,1.87968,0.64092833,-0.64092833,0.42240003,0
-3.9712799,-1.1766758,1.6269202,-0.8924225,-0.26442155,0.36560008,0
-1.9555836,2.207917,-3.3321605,-0.439457,0.49616113,-0.74880016,0
-0.14495787,4.2037826,1.4524795,-0.032574803,0.94467026,0.32639989,0
-3.3741286,0.76684761,-2.7981601,-0.75823116,0.17232531,-0.62880003,0
2.1917865,-3.806787,-0.71199954,0.49253631,-0.85545778,-0.15999991,0
-0.21312493,4.262496,-1.2602392,-0.047893245,0.95786428,-0.28319985,0
-2.3836987,3.0016947,-2.2605989,-0.53566265,0.67453814,-0.50799978,0
-2.8097129,-3.4482839,0.13172038,-0.63139617,-0.77489531,0.029600086,0
-2.4716964,2.9351394,2.25348,-0.55543739,0.6595819,0.50639999,0
4.3627796,0.87255573,-0.085440554,0.98039997,0.19607995,-0.019200126,0
1.7206261,1.3765002,3.8661597,0.38665757,0.3093259,0.86879998,0
-4.370729,-0.27317071,0.7903201,-0.98218632,-0.061386678,0.17760003,0
4.1934319,-1.4414924,0.37380004,0.94234425,-0.32393089,0.084000014,0
3.0538805,2.9485738,-1.3349998,0.68626529,0.66260087,-0.29999998,0
