-3.2852709,0.9932214,-2.6726401,-0.75523472,0.22832677,-0.61440003,0
0.8057009,-3.2228031,-2.8083599,0.1852186,-0.74087429,-0.64559996,0
0.55281633,-3.4748459,-2.5577998,0.12708421,-0.79881519,-0.588,0
-2.689666,-1.8985881,2.8431602,-0.61831403,-0.43645704,0.65360004,0
2.2078536,3.7184904,-0.46979979,0.50755256,0.85482538,-0.10799995,0
0.80948722,4.1823506,0.88043994,0.18608902,0.96145993,0.20239998,0
3.3113399,2.8207715,-0.027839946,0.76122755,0.64845324,-0.0063999877,0
1.0495702,-4.1982822,-0.44196019,0.24128051,-0.9651224,-0.10160004,0
-2.4628224,1.1493169,3.3964798,-0.5661661,0.26421079,0.78079998,0
1.7016456,-0.51049358,3.9706798,0.3911829,-0.11735485,0.91279995,0
2.716574,-3.2598889,-0.95700026,0.6244998,-0.74939978,-0.22000006,0
-0.25477797,4.331223,0.31320059,-0.058569647,0.99568349,0.072000138,0
-3.1053028,-2.2180736,-2.0879998,-0.71386272,-0.509902,-0.47999996,0
3.0333843,1.9676006,-2.4186003,0.69732976,0.45232198,-0.55600011,0
4.1291928,-0.97796673,-0.9569999,0.94923973,-0.22481994,-0.21999998,0
1.5855976,-2.8540752,2.8744798,0.3645052,-0.65610927,0.66079998,0
3.0383809,-2.9002726,1.1309994,0.6984784,-0.66672933,0.25999987,0
2.0412626,3.8273671,0.32711944,0.46925578,0.8798545,0.075199872,0
0.64694339,2.4799495,-3.5147994,0.14872262,0.57010335,-0.80799985,0
0.42407438,-4.09939,1.3919996,0.097488366,-0.94238853,0.3199999,0
1.9918251,-1.4938688,3.5669999,0.45789084,-0.34341812,0.81999999,0
-2.5248592,-3.5348032,0.22968014,-0.58042741,-0.81259847,0.052800033,0
3.7403121,-1.5748682,-1.5659997,0.85984188,-0.36203867,-0.35999995,0
0.46481153,4.2995043,-0.46980017,0.10685323,0.98839182,-0.10800004,0
0.14411557,-4.0352397,1.6181999,0.033130016,-0.92764133,0.37200001,0
-3.9935603,-1.2611244,-1.1762398,-0.91805989,-0.28991365,-0.27039996,0
-0.34744292,0.34744242,4.3221598,-0.079871938,0.079871818,0.99359995,0
-2.5421345,3.2482831,1.3815596,-0.58439875,0.74673176,0.31759992,0
0.64137858,-3.0465467,3.0380399,0.14744335,-0.70035559,0.69840002,0
-3.7788377,-2.0005612,-0.80040014,-0.86869836,-0.45989916,-0.18400003,0
-4.2354016,0.80129206,-0.58464009,-0.97365558,0.18420507,-0.13440003,0
-2.9887505,2.391001,2.0671198,-0.68706906,0.54965544,0.47519997,0
-1.1026713,2.3707433,-3.4765201,-0.25348765,0.54499847,-0.79920006,0
-3.5125575,0.81687403,-2.4325204,-0.80748451,0.18778713,-0.55920011,0
-4.3423023,-0.24813169,0.07308013,-0.99823046,-0.057041768,0.016800031,0
-0.18675642,-2.2410774,-3.7235994,-0.04293251,-0.51519024,-0.85599989,0
2.179986,0.50307322,3.7305601,0.5011462,0.11564901,0.85760003,0
-1.0822408,-4.2087145,-0.19487987,-0.24879099,-0.96752059,-0.044799972,0
3.7581582,0.45097855,2.1436801,0.86394441,0.10367323,0.49280003,0
-1.6979049,2.8790562,-2.7839994,-0.39032298,0.661852,-0.63999987,0
-1.2664284,-3.9399993,1.3397999,-0.29113296,-0.905747,0.30799997,0
3.3031833,0.62917817,2.7596402,0.75935251,0.14463866,0.63440007,0
4.1550674,0.55400926,1.1623197,0.95518792,0.12735845,0.26719993,0
1.5416791,-2.681181,-3.0589204,0.35440901,-0.61636347,-0.7032001,0
-0.48599294,-2.9159577,3.1911597,-0.11172251,-0.67033511,0.73359996,0
-2.0478106,-2.7304144,-2.697,-0.47076106,-0.62768149,-0.62,0
2.876215,-2.7803411,-1.7086806,0.66119885,-0.6391589,-0.39280015,0
0.31710181,0.7677201,-4.269959,0.072896972,0.17648739,-0.98159981,0
1.5033598,-2.5055997,-3.2224803,0.34559995,-0.57599998,-0.74080008,0
2.1679029,2.7873042,2.5404,0.4983685,0.64075959,0.58399999,0
2.9518995,-3.0612292,-0.91523963,0.67859763,-0.70373088,-0.21039993,0
1.1315511,3.9604294,1.3989606,0.26012671,0.91044354,0.32160014,0
-2.4161527,-2.8691814,2.2028401,-0.55543745,-0.65958196,0.50640005,0
-1.2165575,-4.0920568,-0.83520019,-0.27966839,-0.94070274,-0.19200005,0
-2.7621641,2.7621641,-1.9140005,-0.63498026,0.63498026,-0.44000012,0
-2.3135586,-1.1567793,3.4974,-0.53185254,-0.26592627,0.80400002,0
3.6577811,1.7794611,-1.5416402,0.84086925,0.40907153,-0.35440004,0
-1.0345614,0.51728016,4.1933999,-0.23783021,0.11891498,0.96399999,0
-2.5535569,-1.6368954,-3.1180797,-0.58702457,-0.3762978,-0.71679991,0
2.716574,3.2598889,-0.95700026,0.6244998,0.74939978,-0.22000006,0
3.6933937,-1.2926878,-1.9000791,0.84905607,-0.2971696,-0.43679982,0
1.8202757,-2.1843309,-3.2920806,0.41845417,-0.50214505,-0.75680017,0
-0.86546439,-0.17309266,4.2595201,-0.19895734,-0.039791416,0.97920001,0
-2.3309975,-3.4964962,-1.1240395,-0.53586149,-0.80379224,-0.2583999,0
2.111253,-2.315568,-3.0171602,0.48534554,-0.53231448,-0.69360006,0
-1.9569821,-1.5867423,-3.5461204,-0.44988096,-0.36476836,-0.81520009,0
-1.9317104,-3.7561033,-1.04052,-0.44407135,-0.86347204,-0.2392,0
-3.6165221,2.4110146,-0.17400008,-0.83138442,0.55425626,-0.040000021,0
0.69251162,-0.51938343,4.263,0.15919808,-0.11939849,0.98000002,0
0,-3.5534513,2.5090802,0,-0.81688535,0.57680005,0
-0.094345771,3.9625263,-1.7922004,-0.021688683,0.91092563,-0.41200012,0
-4.3423023,0.24813133,0.073080167,-0.99823046,0.057041686,0.016800039,0
3.709667,-2.0730493,-0.92915934,0.85279703,-0.47656307,-0.21359986,0
4.3180728,-0.47978574,-0.21576034,0.99266046,-0.11029557,-0.04960008,0
-0.51990771,4.2892394,0.50460041,-0.11951902,0.98603207,0.11600009,0
-0.46243426,-3.5453291,2.4777601,-0.10630673,-0.81501818,0.56960005,0
-1.141286,2.6086543,3.2885997,-0.2623646,0.59969068,0.75599998,0
3.5449226,-2.3178339,0.99180031,0.81492478,-0.53283536,0.22800007,0
2.4760637,-0.82535464,-3.4799995,0.56921005,-0.18973671,-0.79999989,0
1.8985879,2.6896665,2.8431597,0.43645701,0.61831415,0.65359992,0
-1.9243335,0.76973343,-3.8245196,-0.44237551,0.17695022,-0.87919992,0
-0.3814531,-4.3231349,0.29579991,-0.087690368,-0.99382412,0.067999981,0
-4.174695,0.13915636,1.2145197,-0.95970005,0.031989969,0.27919996,0
-0.62994713,-1.811098,-3.9045601,-0.14481543,-0.41634437,-0.89760005,0
3.5073977,2.4113364,-0.89784026,0.80629832,0.55433023,-0.20640007,0
0.86546439,-0.17309266,4.2595201,0.19895734,-0.039791416,0.97920001,0
3.2604909,-2.7170753,0.95352,0.74953812,-0.62461501,0.2192,0
-3.6353326,-2.1384308,-1.0648799,-0.83570868,-0.4915933,-0.24479999,0
-1.8469065,-3.0781772,2.4568801,-0.42457622,-0.70762694,0.56480002,0
0,3.1369152,-3.0136793,0,0.72112995,-0.69279987,0
0.13067377,-4.3122382,0.55680037,0.030039947,-0.99131918,0.12800008,0
-2.7660065,0.81353158,3.2572801,-0.63586354,0.18701875,0.74880004,0
-4.3129792,0.34970069,-0.44544005,-0.99148947,0.080390967,-0.10240001,0
-3.8760669,-0.85084403,-1.7817599,-0.89104986,-0.19559634,-0.40959999,0
1.695078,-3.1480024,-2.4777594,0.38967311,-0.72367871,-0.56959987,0
-3.289953,-2.8199596,-0.38280016,-0.75631106,-0.64826661,-0.088000037,0
1.290888,4.1308403,0.43847999,0.29675585,0.94961846,0.1008,0
4.1723008,-1.014884,-0.69600016,0.95914966,-0.23330668,-0.16000004,0
-2.1267612,1.7995673,3.3407998,-0.48891065,0.41369364,0.76799995,0
-3.2560229,2.8803282,0.15659986,-0.74851102,0.66214442,0.035999969,0
-4.173192,-1.2274092,-0.020880044,-0.95935452,-0.28216305,-0.00480001,0
0.43534794,-3.7439914,-2.1715202,0.10007999,-0.86068767,-0.49920008,0
-3.9604294,1.131551,1.39896,-0.91044354,0.26012668,0.32160002,0
-4.0304351,-1.4554347,-0.7482003,-0.9265368,-0.33458269,-0.17200007,0
-3.1627204,1.831049,-2.3594403,-0.72706217,0.4209308,-0.54240006,0
-1.8634999,-3.8601077,0.74123967,-0.4283908,-0.88738108,0.17039993,0
4.2872906,-0.73496407,-0.038280591,0.98558408,-0.16895726,-0.0088001359,0
-3.4593632,2.6243446,-0.26100087,-0.79525596,0.60329759,-0.060000204,0
-1.9918251,1.4938684,3.5670002,-0.45789084,0.34341803,0.82000005,0
4.0788212,1.3596071,-0.6612004,0.93766004,0.31255338,-0.1520001,0
0.46481153,4.2995043,-0.46980017,0.10685323,0.98839182,-0.10800004,0
-1.706205,1.0819837,-3.8523595,-0.39223105,0.24873188,-0.88559991,0
-0.83065659,2.3258376,3.58092,-0.19095553,0.5346753,0.82319999,0
0,2.7817786,3.3442798,0,0.63948935,0.76879996,0
-3.2480817,2.8871839,-0.1913998,-0.74668545,0.66372043,-0.043999955,0
-1.6979049,2.8790562,-2.7839994,-0.39032298,0.661852,-0.63999987,0
2.1267612,-1.7995673,3.3407998,0.48891065,-0.41369364,0.76799995,0
1.6464852,-3.4426503,2.0880001,0.37850237,-0.7914139,0.48000002,0
1.3669976,-0.85437387,4.0402799,0.31425232,-0.19640779,0.92879999,0
-4.2576771,-0.82788157,-0.33060032,-0.97877634,-0.1903176,-0.076000072,0
-1.3176295,-2.305851,3.4452,-0.30290332,-0.53008068,0.792,0
2.6957042,-2.6957042,2.0949597,0.61970216,-0.61970216,0.48159996,0
-0.51938343,0.69251162,4.263,-0.11939849,0.15919808,0.98000002,0
-3.9544313,-0.18830635,-1.8026404,-0.90906471,-0.043288816,-0.4144001,0
-2.3675463,-2.3675463,-2.7770395,-0.54426354,-0.54426354,-0.6383999,0
-3.6808794,1.8404397,1.4094002,-0.84617919,0.42308959,0.32400006,0
-2.2740355,-3.4110534,1.4546398,-0.52276677,-0.78415024,0.33439997,0
4.2382026,0.89901263,0.3897604,0.97429949,0.20666957,0.089600094,0
0.20833528,-4.1667094,-1.2319201,0.04789317,-0.95786428,-0.28320003,0
-0.49391475,-4.3217549,0.03132017,-0.11354362,-0.99350691,0.007200039,0
-0.17044879,1.7044899,3.9985197,-0.039183632,0.39183679,0.91919994,0
2.5515785,1.9136837,2.9579997,0.58656979,0.43992728,0.67999995,0
2.7465446,-1.9300042,-2.7665999,0.63138956,-0.44367915,-0.63599998,0
-3.9409027,0.28149277,-1.8200403,-0.90595466,0.064710982,-0.41840008,0
-0.97796673,4.1291928,-0.9569999,-0.22481994,0.94923973,-0.21999998,0
-1.5748682,3.7403121,-1.5659997,-0.36203867,0.85984188,-0.35999995,0
-3.3124919,-1.8068138,2.1645598,-0.76149243,-0.4153595,0.49759999,0
1.8338486,1.8894198,-3.462599,0.42157441,0.43434939,-0.79599983,0
2.2214394,-2.3801141,2.8849201,0.51067573,-0.5471527,0.66320002,0
3.0431998,0.89912719,-2.9753997,0.69958615,0.20669591,-0.68399996,0
-3.5281947,2.4828038,0.55680037,-0.81107926,0.57075953,0.12800008,0
1.3328352,1.9992533,3.6261599,0.3063989,0.45959845,0.83359998,0
-0.53188235,-4.2550597,0.73080015,-0.12227181,-0.97817469,0.16800004,0
-1.9296752,-1.7642745,-3.4765196,-0.44360352,-0.40558034,-0.79919994,0
0.62252122,-3.4238675,-2.6099999,0.14310832,-0.78709596,-0.59999996,0
2.7708809,0.11790971,-3.3512409,0.63698411,0.02710568,-0.77040023,0
1.3434784,-1.2315217,-3.9497998,0.30884564,-0.28310844,-0.90799999,0
0.65704793,2.6281908,3.4034395,0.1510455,0.60418177,0.78239989,0
0.70335627,4.0794654,1.3363194,0.1616911,0.93780816,0.30719987,0
1.25519,-2.5103803,-3.3234,0.28854942,-0.57709891,-0.764,0
4.3180728,0.4797861,-0.21576041,0.99266046,0.11029566,-0.049600095,0
-0.22753464,-2.1843319,-3.7549195,-0.052306816,-0.50214529,-0.86319989,0
-1.5014012,-1.8350462,3.6470399,-0.3451497,-0.4218497,0.83840001,0
2.4700029,-0.98800141,3.4417202,0.56781679,-0.22712676,0.7912001,0
4.1343789,-1.1173997,-0.76212007,0.95043194,-0.25687349,-0.17520002,0
2.6281908,-0.65704745,3.4034398,0.60418177,-0.1510454,0.78239995,0
0.66583627,2.3304255,3.6122401,0.15306582,0.53573,0.83040005,0
2.1258895,3.0369852,2.2759202,0.48871025,0.69815755,0.52320004,0
4.0259371,-1.635537,0.1983602,0.92550278,-0.37598553,0.045600049,0
3.9847429,-1.3740491,1.0753195,0.91603285,-0.31587335,0.24719989,0
-0.79234034,4.2258148,0.66120011,-0.1821472,0.9714517,0.15200002,0
2.7901235,0,-3.3373208,0.64140773,0,-0.76720023,0
-2.9395971,2.9395967,1.2806401,-0.67576945,0.67576939,0.29440004,0
3.8820376,1.1502333,1.5903604,0.89242244,0.26442143,0.36560011,0
-2.5271606,-2.4481869,-2.5577998,-0.58095646,-0.5628016,-0.588,0
-0.16594878,-2.489234,3.56352,-0.038149145,-0.57223773,0.81919998,0
-4.0506511,-1.5045276,-0.50111979,-0.93118417,-0.34586841,-0.11519995,0
2.6580184,3.1691759,-1.3467598,0.61103874,0.7285462,-0.30959997,0
-2.2603264,-3.0137682,2.175,-0.51961529,-0.69282031,0.5,0
-0.14968039,1.4668674,-4.0924802,-0.034409285,0.33721092,-0.94080007,0
0.2831443,4.1055965,1.4093995,0.065090641,0.94381529,0.32399988,0
-1.6982256,4.0029607,-0.12179948,-0.39039671,0.92022085,-0.02799988,0
3.0440252,-2.6091647,1.6878002,0.69977593,-0.59980798,0.38800004,0
1.600361,-4.0009027,-0.59507972,0.36789909,-0.91974777,-0.13679993,0
2.5655134,1.7637904,3.0380394,0.58977318,0.40546906,0.6983999,0
2.482604,2.482604,2.5682395,0.57071358,0.57071358,0.59039986,0
0.82398891,2.3174684,-3.5878799,0.18942274,0.53275138,-0.82480001,0
1.069216,0.77518171,-4.1446795,0.24579678,0.17820269,-0.95279992,0
-0.5758127,-0.4576973,-4.2873597,-0.13237074,-0.10521777,-0.98559994,0
0.5758127,0.4576973,-4.2873597,0.13237074,0.10521777,-0.98559994,0
3.8273673,-1.1482103,-1.7191193,0.87985456,-0.2639564,-0.39519984,0
-3.5208502,-0.91848272,2.3838,-0.80939084,-0.21114546,0.54800004,0
-1.8097173,1.9742368,3.4277997,-0.41602698,0.45384756,0.78799993,0
-2.1861322,3.3267233,-1.7539203,-0.50255913,0.76476401,-0.40320009,0
-3.6374373,-1.9197584,-1.4163603,-0.83619249,-0.44132379,-0.32560006,0
1.6384224,3.6623554,-1.68084,0.37664884,0.84192079,-0.38640001,0
3.6374373,-1.9197584,-1.4163603,0.83619249,-0.44132379,-0.32560006,0
-2.7708821,0.11790977,-3.3512399,-0.63698441,0.027105695,-0.77039999,0
2.8303757,1.280408,-3.0450003,0.65066111,0.29434669,-0.70000011,0
1.5656867,-2.9822607,-2.7526798,0.35992798,-0.68557721,-0.63279998,0
1.5712111,-3.8756547,-1.1971198,0.36119795,-0.89095515,-0.27519998,0
3.0195796,-1.7033526,-2.6273994,0.69415623,-0.39157531,-0.60399991,0
-2.6398134,-2.9331257,1.83048,-0.60685366,-0.67428178,0.4208,0
-1.3535823,-0.89138341,-4.0367994,-0.31116834,-0.20491573,-0.92799991,0
-3.0776465,2.8653946,-1.1136,-0.70750493,0.65871143,-0.25600001,0
4.2266388,-0.27268651,0.99179989,0.97164112,-0.062686555,0.22799999,0
2.6726398,-3.3407998,-0.78648037,0.61439997,-0.76799995,-0.1808001,0
1.0108665,3.8990567,1.6425604,0.23238312,0.89633489,0.3776001,0
-2.5056,3.3408,1.2179997,-0.57600003,0.76800001,0.27999994,0
4.1093159,0.1417004,1.4198395,0.94467032,0.032574806,0.32639989,0
-3.857322,1.7143655,-1.0509607,-0.88674068,0.39410701,-0.24160016,0
2.1907094,-2.2591691,-3.0032394,0.50361139,-0.51934922,-0.69039989,0
2.7586546,-3.1724527,1.1170803,0.63417351,-0.72929949,0.25680009,0
-0.88127178,3.4449711,-2.5056002,-0.20259123,0.79194736,-0.57600003,0
-0.6633485,-2.3472333,-3.6018002,-0.15249391,-0.53959388,-0.82800007,0
1.8572707,-0.84421402,3.8419197,0.4269588,-0.19407219,0.88319993,0
1.9448191,3.8896372,-0.10440013,0.44708484,0.89416951,-0.02400003,0
3.6548948,-0.45686185,2.3141997,0.84020573,-0.10502572,0.53199995,0
4.3076482,-0.26106974,0.54636037,0.990264,-0.060016036,0.12560008,0
2.7716951,-0.65216333,3.2885997,0.63717133,-0.14992261,0.75599998,0
-0.15064809,-3.7662058,2.17152,-0.034631744,-0.86579448,0.49920002,0
3.5006015,-2.2403848,1.28412,0.80473602,-0.51503098,0.29519999,0
0.17340723,0.69362992,4.2908397,0.039863732,0.15945515,0.98639995,0
3.9467711,1.6914729,-0.69600034,0.90730375,0.38884434,-0.16000009,0
2.5576084,-3.4876473,-0.46632066,0.58795595,-0.80175799,-0.10720015,0
4.2066965,-0.92021483,0.61596018,0.96705669,-0.21154365,0.14160004,0
-0.4240748,-4.09939,1.3919995,-0.097488463,-0.94238853,0.31999987,0
3.8780382,-1.4287508,-1.3571997,0.89150304,-0.32844844,-0.31199992,0
1.7166598,-3.736259,-1.4198403,0.39463446,-0.85891014,-0.32640007,0
-1.8274474,-3.1980329,2.3141997,-0.42010286,-0.73517996,0.53199995,0
0.17340723,-0.69362938,4.2908401,0.039863732,-0.15945503,0.98640007,0
-2.5176036,2.9618866,1.9522803,-0.57875949,0.68089348,0.44880009,0
-0.48990193,2.7761111,3.3129597,-0.11262114,0.63818645,0.76159996,0
2.1766975,-0.66975296,3.7061999,0.50039023,-0.1539662,0.852,0
-1.3265786,-3.6849403,1.8931199,-0.30496061,-0.84711272,0.43520001,0
2.3510869,3.5826089,-0.74819952,0.54047972,0.82358825,-0.17199989,0
-2.4215848,3.5747206,-0.52896017,-0.55668616,0.8217749,-0.12160004,0
-3.7895904,1.7895288,-1.1658006,-0.87117022,0.41138595,-0.26800013,0
-2.3083706,-1.4427316,-3.3930001,-0.53065991,-0.33166245,-0.78000003,0
-3.2480817,2.8871839,-0.1913998,-0.74668545,0.66372043,-0.043999955,0
1.7618563,3.5237126,1.8443998,0.40502444,0.81004888,0.42399997,0
2.0185335,0.65821737,-3.796679,0.46403068,0.15131435,-0.87279981,0
-3.1620159,-0.94860488,2.83272,-0.72690022,-0.21807009,0.6512,0
-1.3558968,1.3558962,3.9045599,-0.31170043,0.31170028,0.8976,0
1.3558964,1.3558964,3.9045601,0.31170031,0.31170031,0.89760005,0
0.87662154,4.2578764,0.15660065,0.2015222,0.97882217,0.036000151,0
-3.9652212,0,-1.7887205,-0.9115451,0,-0.41120014,0
-1.0692139,0.77518016,-4.1446805,-0.24579629,0.17820235,-0.95280015,0
-2.4260368,-3.5042751,0.87000006,-0.55770963,-0.8055805,0.20000002,0
4.0149908,1.4721636,0.79691964,0.92298639,0.33842841,0.18319993,0
-3.3805296,-0.22536865,-2.7283196,-0.77713329,-0.051808886,-0.62719995,0
-2.2451799,-3.4698234,-1.3572,-0.51613331,-0.79766059,-0.31200001,0
-3.8631885,0.14858404,1.9940401,-0.88808936,0.03415725,0.45840004,0
-0.93998665,4.2299395,-0.38280043,-0.21608889,0.97239989,-0.088000104,0
3.7899785,1.6844351,1.3119603,0.87125945,0.38722646,0.3016001,0
-2.3921423,-3.3771424,1.3398,-0.54991776,-0.77635461,0.308,0
-3.3721449,2.0526099,1.8270003,-0.77520573,0.47186437,0.42000008,0
1.7826297,-3.3869967,-2.0671196,0.40979993,-0.77861995,-0.47519991,0
-4.0009027,1.600361,-0.59507972,-0.91974777,0.36789909,-0.13679993,0
-3.3570871,2.7576075,-0.21924032,-0.77174419,0.63393277,-0.050400075,0
2.7485566,3.3211727,-0.5811606,0.63185209,0.76348799,-0.13360015,0
1.046132,4.1845288,0.56376022,0.24049011,0.96196067,0.12960005,0
-2.4110146,-3.6165221,-0.17400008,-0.55425626,-0.83138442,-0.040000021,0
-1.0330853,-0.68872339,4.1690397,-0.23749089,-0.15832722,0.95839995,0
-0.85932064,1.0311846,4.1377196,-0.19754498,0.23705393,0.95119995,0
2.7880383,2.7880383,1.83744,0.64092833,0.64092833,0.4224,0
1.0317484,-4.0238175,-1.2910798,0.23718356,-0.92501557,-0.29679996,0
-0.72330391,1.2959195,-4.0890002,-0.16627677,0.29791254,-0.94000006,0
1.163684,-2.1611276,3.5913601,0.26751357,-0.49681094,0.82560003,0
2.529036,-3.4607859,0.7412402,0.58138764,-0.79558295,0.17040005,0
1.25519,-2.5103803,-3.3234,0.28854942,-0.57709891,-0.764,0
-4.2269754,0.32515165,-0.97439951,-0.97171849,0.07474751,-0.22399989,0
3.0811269,2.7730138,-1.3189199,0.70830506,0.63747448,-0.30319998,0
2.4260368,3.5042751,0.87000006,0.55770963,0.8055805,0.20000002,0
3.5281947,2.4828038,0.55680037,0.81107926,0.57075953,0.12800008,0
-3.0999355,-0.20216972,-3.0450003,-0.7126289,-0.046475798,-0.70000011,0
3.6933937,1.2926878,-1.9000791,0.84905607,0.2971696,-0.43679982,0
0.31985697,1.9191424,-3.8906405,0.073530339,0.44118217,-0.89440012,0
0.66583627,-2.3304255,3.6122401,0.15306582,-0.53573,0.83040005,0
0.93855518,-4.0670738,-1.2249594,0.21575981,-0.93495953,-0.28159985,0
-1.9300042,-2.7465446,-2.7665999,-0.44367915,-0.63138956,-0.63599998,0
0.75824893,3.6395943,2.2585196,0.1743101,0.83668834,0.51919991,0
-1.2441572,4.0089512,1.1414396,-0.28601316,0.92159802,0.26239991,0
-0.62994713,-1.811098,-3.9045601,-0.14481543,-0.41634437,-0.89760005,0
-1.8582026,-3.7164052,-1.2876004,-0.42717302,-0.85434604,-0.29600009,0
4.2266388,0.27268609,0.99179995,0.97164112,0.062686458,0.228,0
4.060729,0.71062756,-1.3885193,0.93350095,0.16336267,-0.31919983,0
1.9215621,-3.8431237,-0.67860025,0.44173843,-0.88347673,-0.15600006,0
-3.0776465,2.8653946,-1.1136,-0.70750493,0.65871143,-0.25600001,0
2.2403853,3.5006013,1.2841197,0.5150311,0.80473596,0.29519993,0
-0.094345771,-3.9625263,-1.7922004,-0.021688683,-0.91092563,-0.41200012,0
2.0186486,3.4605412,-1.69476,0.46405718,0.79552674,-0.38960001,0
3.0394132,-3.0394127,0.66815984,0.69871569,-0.69871557,0.15359996,0
-3.6072681,-0.2459501,-2.4185998,-0.82925707,-0.056540255,-0.55599999,0
3.1980326,-1.8274474,2.3142002,0.7351799,-0.42010286,0.53200006,0
-1.1971148,1.0260985,4.0542002,-0.27519882,0.23588471,0.93200004,0
0.72023404,2.9464116,-3.1180797,0.16557105,0.67733604,-0.71679991,0
1.9300042,2.7465446,-2.7665999,0.44367915,0.63138956,-0.63599998,0
2.6872451,-3.4201298,-0.062640458,0.6177575,-0.78623676,-0.014400106,0
-0.16887847,-2.0265436,3.8453999,-0.038822636,-0.46587211,0.884,0
-0.35077286,3.7708089,-2.1402001,-0.08063744,0.86685264,-0.49200004,0
1.046132,-4.1845288,0.56376022,0.24049011,-0.96196067,0.12960005,0
3.6359222,-2.3821557,0.16703959,0.83584422,-0.54762203,0.038399905,0
-0.85932064,-1.0311846,4.1377196,-0.19754498,-0.23705393,0.95119995,0
-1.1136543,3.0227761,2.9231999,-0.25601247,0.6948911,0.67199999,0
-3.5648773,-1.9963311,1.4929202,-0.81951201,-0.45892671,0.34320006,0
1.4897487,3.9371936,-1.0962,0.34247097,0.90510201,-0.252,0
2.3145745,3.27898,-1.6773595,0.53208607,0.75378853,-0.38559988,0
-1.7029225,-3.0962222,2.5369201,-0.39147642,-0.71177524,0.58320004,0
0.87684935,-4.1650352,-0.89783978,0.20157456,-0.95747942,-0.20639996,0
-3.032546,0.67389929,-3.0449998,-0.69713706,0.15491939,-0.69999999,0
-0.86796713,-0.23507443,-4.2560396,-0.19953267,-0.0540401,-0.97839993,0
-4.1736794,-0.10434188,-1.2214801,-0.95946652,-0.023986639,-0.28080004,0
-2.9024117,2.7572911,1.7017201,-0.66722107,0.63386005,0.39120004,0
-4.0292854,1.5597234,0.50459987,-0.92627251,0.35855711,0.11599997,0
0.25477758,-4.331223,0.31319994,0.058569562,-0.99568349,0.071999989,0
0.31985733,-1.9191444,-3.8906395,0.073530421,-0.44118264,-0.89439994,0
-1.6990921,-2.391315,-3.2120395,-0.39059591,-0.54972762,-0.73839992,0
-4.0807476,-0.099530339,-1.5033599,-0.9381029,-0.022880537,-0.34559998,0
-1.6003609,4.0009027,-0.59508044,-0.36789906,0.91974777,-0.13680011,0
3.0781772,1.8469065,2.4568801,0.70762694,0.42457622,0.56480002,0
-0.77518016,-1.0692139,-4.1446805,-0.17820235,-0.24579629,-0.95280015,0
-0.80699259,-2.9051728,3.1354797,-0.18551554,-0.66785586,0.72079992,0
-4.0364161,0,1.6216799,-0.92791176,0,0.37279999,0
1.1321497,0.70085448,-4.1412001,0.26026431,0.16111597,-0.95200002,0
-0.33151472,-1.4466095,-4.0889997,-0.076210283,-0.33255392,-0.93999994,0
-2.7975605,-3.2451704,-0.75168043,-0.64311737,-0.7460162,-0.17280011,0
-2.2091148,-3.2400351,1.8826799,-0.50784248,-0.74483567,0.43279999,0
-2.2130172,3.6514785,-0.83171946,-0.50873959,0.83942038,-0.19119988,0
-0.69153112,0.6915316,4.2386398,-0.15897268,0.15897278,0.97439998,0
-0.34520495,1.0356144,4.2107997,-0.07935746,0.23807228,0.96799994,0
-2.7853265,-0.059262209,-3.3407998,-0.64030492,-0.013623497,-0.76799995,0
-1.3211536,3.3854566,-2.3907607,-0.3037135,0.77826589,-0.54960018,0
0.51251739,1.5375532,4.0367999,0.11782009,0.35346052,0.92799997,0
-4.3470535,0,-0.16008036,-0.99932265,0,-0.036800083,0
2.4226644,-1.7766211,3.14592,0.55693436,-0.40841866,0.72320002,0
-1.9992532,-1.3328357,3.6261599,-0.45959842,-0.30639902,0.83359998,0
-4.0920568,1.2165575,-0.83520019,-0.94070274,0.27966839,-0.19200005,0
-1.8655366,-0.33918861,3.9149997,-0.428859,-0.077974394,0.89999998,0
-0.45386994,-2.3702095,-3.6192,-0.10433792,-0.54487574,-0.83200002,0
-1.2300116,3.3825316,2.4429595,-0.28276128,0.77759349,0.56159991,0
-3.4426048,-2.151628,1.5625198,-0.79140341,-0.49462715,0.35919997,0
-2.1258895,-3.0369852,2.2759202,-0.48871025,-0.69815755,0.52320004,0
2.6872451,-3.4201298,-0.062640458,0.6177575,-0.78623676,-0.014400106,0
2.5816302,1.8838922,-2.9510398,0.5934782,0.43307868,-0.67839998,0
-2.8553903,-3.2447617,0.49068001,-0.65641159,-0.74592227,0.1128,0
-1.0911008,4.0916276,0.99527967,-0.25082779,0.94060409,0.22879992,0
-3.7406681,0.80157143,-2.0706003,-0.85992372,0.18426929,-0.47600007,0
3.4238675,-0.62252116,2.6099994,0.78709596,-0.14310832,0.5999999,0
0.87762266,3.6860144,-2.1367207,0.20175233,0.84735966,-0.49120015,0
-3.5339565,-2.120374,1.392,-0.8124038,-0.48744231,0.31999999,0
3.0369852,2.1258895,2.2759202,0.69815755,0.48871025,0.52320004,0
4.2331448,0.99603397,0.10440071,0.97313672,0.22897333,0.024000164,0
-0.28149304,-3.9409027,-1.8200405,-0.064711042,-0.90595466,-0.41840011,0
-2.7447474,-2.4397752,2.3316,-0.63097644,-0.56086791,0.53600001,0
3.9198828,1.6332842,-0.94308007,0.90112251,0.37546763,-0.21680002,0
3.8087718,1.6470368,-1.3050004,0.87557977,0.37862915,-0.3000001,0
2.9822607,-1.5656871,-2.7526793,0.68557721,-0.35992807,-0.63279986,0
3.3869967,1.7826297,-2.0671196,0.77861995,0.40979993,-0.47519991,0
2.4642785,-0.41945168,-3.560041,0.56650078,-0.096425675,-0.81840026,0
0.49029741,-4.0204377,-1.5868798,0.11271205,-0.92423856,-0.36479998,0
-2.5895689,-1.4566326,3.1772399,-0.59530318,-0.33485809,0.73039997,0
1.635537,4.0259371,0.1983602,0.37598553,0.92550278,0.045600049,0
-1.3039554,1.6516768,-3.8071201,-0.29975986,0.37969583,-0.87520003,0
-0.69093555,4.2607694,-0.5394001,-0.15883577,0.97948724,-0.12400003,0
-0.86493945,0.34597537,4.2490797,-0.19883665,0.079534568,0.97679996,0
2.1459224,1.4856385,-3.4799991,0.49331552,0.34152609,-0.79999977,0
-1.7374369,3.6196599,1.67388,-0.39941078,0.83210576,0.38480002,0
-1.0409446,-3.7176597,2.0044799,-0.23929761,-0.85463446,0.46079999,0
0.49029735,4.0204372,-1.5868808,0.11271203,0.92423844,-0.36480018,0
1.9136837,-2.551578,2.9579999,0.43992728,-0.58656967,0.68000001,0
3.3739457,1.6437173,-2.1993594,0.77561975,0.37786606,-0.50559986,0
-1.026305,-3.81199,1.8270001,-0.23593219,-0.87631959,0.42000005,0
1.9992533,1.3328352,3.6261599,0.45959845,0.3063989,0.83359998,0
-2.8192382,-0.96110398,-3.17028,-0.64810073,-0.22094345,-0.7288,0
-3.8990567,-1.0108665,1.6425604,-0.89633489,-0.23238312,0.3776001,0
1.7113639,3.9493017,0.62987977,0.393417,0.90788549,0.14479995,0
3.21718,1.68519,2.3942401,0.73958164,0.3874,0.55040002,0
-2.8540752,1.5855976,2.8744798,-0.65610927,0.3645052,0.66079998,0
3.112607,1.5563035,-2.6099992,0.71554184,0.35777092,-0.59999985,0
1.239976,-0.48520806,-4.1411991,0.28505197,-0.11154208,-0.95199984,0
0,-2.0269737,3.8488798,0,-0.46597099,0.88479996,0
-1.5082458,-1.6758286,3.72012,-0.3467232,-0.38524795,0.85519999,0
1.4856375,-2.1459215,3.48,0.34152588,-0.49331528,0.80000001,0
-3.2789798,2.314574,-1.6773602,-0.75378847,0.53208601,-0.38560006,0
-0.45686185,3.6548948,2.3141997,-0.10502572,0.84020573,0.53199995,0
-4.0431595,-0.39445451,-1.5555599,-0.92946196,-0.090679199,-0.35759997,0
0,4.3376827,0.3271206,0,0.99716848,0.07520014,0
1.5712111,-3.8756547,-1.1971198,0.36119795,-0.89095515,-0.27519998,0
-3.5525498,-0.15445854,2.5056002,-0.81667817,-0.035507709,0.57600003,0
-2.4391053,-3.2196188,-1.6147196,-0.56071389,-0.74014229,-0.37119994,0
-3.8712556,1.9356275,0.435,-0.88994384,0.44497183,0.1,0
0.80699259,2.9051728,3.1354797,0.18551554,0.66785586,0.72079992,0
-3.3113399,2.8207715,-0.027839946,-0.76122755,0.64845324,-0.0063999877,0
3.1053026,-2.2180731,-2.0880005,0.71386266,-0.50990188,-0.48000014,0
-2.8790562,-1.6979049,-2.7839994,-0.661852,-0.39032298,-0.63999987,0
2.0524623,-3.6944325,1.0300806,0.47183043,-0.84929484,0.23680013,0
-3.8431239,-1.9215618,-0.67859989,-0.88347679,-0.44173837,-0.15599997,0
-0.16797969,2.183738,3.7584,-0.03861602,0.50200874,0.86400002,0
-3.7888999,0.72169507,-2.0114403,-0.8710115,0.16590692,-0.46240008,0
-4.0247822,0.8049562,-1.4407201,-0.9252373,0.1850474,-0.33120003,0
3.6331732,0.082572043,-2.3907599,0.83521223,0.018982079,-0.54960001,0
-3.7774723,1.3075862,1.7156403,-0.86838442,0.30059454,0.39440009,0
2.3380523,0.16700359,3.6644402,0.53748327,0.038391631,0.84240007,0
-2.666275,2.8501558,-1.9209604,-0.61293679,0.65520823,-0.44160011,0
0.73801458,3.8376746,1.9105201,0.16965853,0.88222408,0.43920001,0
-1.6620226,0.067837588,-4.0194001,-0.38207418,0.015594848,-0.92400002,0
0.59188682,-3.8472621,1.9418401,0.13606595,-0.88442808,0.44640002,0
3.891505,-1.5288059,1.2006004,0.89459884,-0.35144964,0.27600008,0
-3.8366711,2.0382316,-0.21924004,-0.88199335,0.468559,-0.050400011,0
1.5468118,3.9775167,-0.84216022,0.35558894,0.91437167,-0.19360006,0
0.23365268,-4.3225789,-0.42804009,0.053713262,-0.99369633,-0.098400019,0
0,1.7048452,4.0019999,0,0.39191845,0.91999996,0
-1.6990921,-2.391315,-3.2120395,-0.39059591,-0.54972762,-0.73839992,0
2.3510869,-3.5826089,-0.74819952,0.54047972,-0.82358825,-0.17199989,0
0.79137689,2.7393816,-3.2851195,0.18192573,0.62974292,-0.75519991,0
-2.9002726,-3.0383806,1.1309999,-0.66672933,-0.69847834,0.25999999,0
-0.50577462,-2.0230985,3.81756,-0.11627003,-0.46508011,0.87760001,0
2.4110146,-3.6165221,-0.17400008,0.55425626,-0.83138442,-0.040000021,0
2.7674072,-3.2945328,0.6403203,0.63618559,-0.75736386,0.14720008,0
-0.177036,-3.806272,-2.0984402,-0.040697932,-0.87500507,-0.48240006,0
-1.540422,0,4.06812,-0.35411999,0,0.93520004,0
-0.11303295,-4.2952561,-0.67859983,-0.025984587,-0.98741525,-0.15599996,0
2.8927028,2.2837124,2.3107202,0.66498917,0.52499139,0.53120005,0
-2.6281903,0.65704793,3.40344,-0.60418171,0.1510455,0.78240001,0
-3.0656567,3.0656567,-0.35495964,-0.70474869,0.70474869,-0.081599921,0
0.16572973,1.3534595,-4.1307602,0.03809879,0.31114012,-0.94960004,0
-0.9072594,-3.6290376,2.2202399,-0.20856538,-0.83426154,0.5104,0
-2.111253,-2.315568,-3.0171602,-0.48534554,-0.53231448,-0.69360006,0
-0.23130614,0.083663926,-4.34304,-0.053173825,0.019233087,-0.99840003,0
-1.2274094,4.1731915,-0.020879338,-0.28216308,0.9593544,-0.004799848,0
1.6437173,3.3739457,-2.1993594,0.37786606,0.77561975,-0.50559986,0
3.4803269,1.0772439,-2.3768404,0.80007517,0.24764229,-0.54640007,0
-3.4621346,1.5052763,2.1610799,-0.79589301,0.34604055,0.49679998,0
1.1847545,-3.7023585,1.95228,0.27235737,-0.8511169,0.44880003,0
-1.5540061,3.565073,-1.9487994,-0.35724279,0.81955701,-0.44799986,0
-3.3771422,2.3921425,1.3397996,-0.77635455,0.54991782,0.30799994,0
-0.6137442,4.0916276,-1.3432794,-0.14109062,0.94060409,-0.30879986,0
-2.7503536,-3.1734853,-1.13448,-0.63226521,-0.72953689,-0.2608,0
-3.2485833,-2.5379558,-1.3885198,-0.74680078,-0.5834381,-0.31919995,0
3.0664468,3.0664468,0.34103969,0.70493031,0.70493031,0.078399926,0
2.6580184,-3.1691759,-1.3467598,0.61103874,-0.7285462,-0.30959997,0
0.13567528,3.1205344,-3.0275993,0.031189721,0.71736425,-0.69599986,0
1.9204366,-3.3976955,1.9209602,0.44147968,-0.78107947,0.44160005,0
2.0005612,3.7788377,-0.80039942,0.45989916,0.86869836,-0.18399987,0
-0.34203303,1.5391473,4.0542002,-0.078628287,0.35382697,0.93200004,0
-2.8585398,-3.1307817,0.97440004,-0.65713561,-0.71971995,0.22400002,0
1.9196544,3.3822486,-1.9487997,0.44129986,0.77752846,-0.44799995,0
0.34429109,1.20502,4.1655598,0.079147376,0.27701607,0.9576,0
3.4790585,-2.5770802,0.42108053,0.79978359,-0.59243226,0.096800126,0
3.2560229,2.8803282,0.15659986,0.74851102,0.66214442,0.035999969,0
3.4449711,-0.88127178,-2.5056002,0.79194736,-0.20259123,-0.57600003,0
2.783443,-2.9822607,-1.5103197,0.63987195,-0.68557721,-0.34719995,0
2.6281908,0.65704793,3.4034395,0.60418177,0.1510455,0.78239989,0
-1.7029225,3.0962222,2.5369201,-0.39147642,0.71177524,0.58320004,0
0,4.0364156,1.6216805,0,0.92791164,0.37280011,0
3.7231767,2.1275301,0.73080027,0.85590273,0.4890874,0.16800007,0
1.1032147,3.1520424,2.7874801,0.25361258,0.72460747,0.64080006,0
0.15260489,-3.6625211,2.3420398,0.035081584,-0.84195888,0.53839999,0
-3.6331732,0.082572043,-2.3907599,-0.83521223,0.018982079,-0.54960001,0
-2.0761166,-2.3955195,2.9788799,-0.47726819,-0.55069417,0.68479997,0
3.891505,1.5288059,1.2006004,0.89459884,0.35144964,0.27600008,0
-2.5632463,2.9294243,-1.9418398,-0.589252,0.67343086,-0.44639996,0
-4.2768617,0.13365181,0.78300017,-0.9831866,0.030724553,0.18000004,0
2.4810102,-0.66160268,3.5113201,0.57034719,-0.15209258,0.80720001,0
2.079072,2.878715,-2.5125601,0.47794759,0.66177356,-0.57760006,0
-0.47739464,3.1826305,2.9266801,-0.1097459,0.73163921,0.67280006,0
3.1807921,-2.9451783,-0.36191964,0.73121661,-0.6770525,-0.083199918,0
-0.56440419,3.1747732,-2.9197197,-0.12974809,0.72983295,-0.67119992,0
-2.7210574,-2.5698872,2.2167599,-0.62553048,-0.59077865,0.50959998,0
2.482604,-2.4826035,2.5682397,0.57071358,-0.57071346,0.59039992,0
-4.1677313,-0.64118946,-1.0683596,-0.95809919,-0.14739987,-0.24559991,0
-0.55400884,-4.1550674,1.1623198,-0.12735836,-0.95518792,0.26719996,0
-2.937351,-0.93461162,-3.0693598,-0.67525309,-0.21485326,-0.70559996,0
0.83065659,-2.3258376,3.58092,0.19095553,-0.5346753,0.82319999,0
3.0745752,2.4889424,1.8096001,0.70679891,0.57217067,0.41600004,0
3.9534745,-1.7854398,0.32364008,0.90884471,-0.41044596,0.074400023,0
-4.2354016,0.80129206,-0.58464009,-0.97365558,0.18420507,-0.13440003,0
1.9676006,-3.0333843,-2.4186003,0.45232198,-0.69732976,-0.55600011,0
4.1093159,0.1417004,1.4198395,0.94467032,0.032574806,0.32639989,0
2.6811814,1.5416796,-3.0589197,0.61636358,0.35440913,-0.70319992,0
-2.8192384,0.96110386,-3.1702795,-0.64810079,0.22094342,-0.72879988,0
0.89901263,-4.2382026,0.3897604,0.20666957,-0.97429949,0.089600094,0
-1.7374369,3.6196599,1.67388,-0.39941078,0.83210576,0.38480002,0
0.91312969,0.42612714,-4.2316794,0.20991488,0.097960263,-0.9727999,0
1.5714043,2.9856675,2.7457199,0.36124238,0.68636036,0.63120002,0
3.7212412,-2.1425328,-0.69599956,0.85545778,-0.49253631,-0.15999991,0
3.8780382,1.4287508,-1.3571997,0.89150304,0.32844844,-0.31199992,0
2.7716951,0.65216386,3.2885997,0.63717133,0.14992273,0.75599998,0
3.5855284,-1.3445731,2.0636399,0.8242594,-0.30909729,0.47439998,0
0.806835,-2.1357393,-3.7027197,0.18547931,-0.49097458,-0.85119992,0
-0.58426702,-3.9924912,-1.6251599,-0.13431425,-0.91781408,-0.37359998,0
4.0493956,-0.97744012,1.2527996,0.93089557,-0.22469889,0.28799993,0
-2.8062441,-2.0267317,2.6343598,-0.64511359,-0.46591535,0.6056,0
-3.7406678,-0.80157167,-2.0706005,-0.85992366,-0.18426935,-0.47600013,0
-2.5482771,1.1259829,-3.3408,-0.58581084,0.25884664,-0.76800001,0
0,-0.86563927,4.263,0,-0.19899754,0.98000002,0
-0.73496413,-4.2872906,-0.038279865,-0.16895728,-0.98558408,-0.0087999692,0
-1.8608177,0.67666125,3.8732398,-0.42777419,0.15555431,0.89039999,0
-0.14968039,1.4668674,-4.0924802,-0.034409285,0.33721092,-0.94080007,0
-3.4266424,-2.6651666,0.27840024,-0.78773391,-0.61268198,0.064000055,0
-3.0369852,2.1258895,2.2759202,-0.69815755,0.48871025,0.52320004,0
-0.86546439,-0.17309266,4.2595201,-0.19895734,-0.039791416,0.97920001,0
-3.5826089,2.3510869,-0.74819952,-0.82358825,0.54047972,-0.17199989,0
-2.0186489,3.4605408,-1.6947604,-0.46405721,0.79552662,-0.3896001,0
3.2983055,0.74961507,-2.73528,0.75823116,0.17232531,-0.62880003,0
-2.5248592,3.5348029,0.22968072,-0.58042741,0.81259841,0.052800167,0
-2.897233,1.8298315,-2.6796,-0.66603059,0.42065093,-0.616,0
0.2780515,4.1707768,1.2040797,0.063919887,0.9587993,0.27679995,0
-0.49969158,1.8065774,-3.9254408,-0.11487163,0.41530517,-0.9024002,0
1.4797775,-1.9390186,-3.6018002,0.34017873,-0.44575143,-0.82800007,0
3.891505,1.5288059,1.2006004,0.89459884,0.35144964,0.27600008,0
3.0656567,3.0656567,-0.35495964,0.70474869,0.70474869,-0.081599921,0
-0.52064103,0.34709367,4.30476,-0.11968759,0.07979165,0.9896,0
-2.6898735,-3.1145902,1.4094,-0.61836171,-0.71599776,0.324,0
-1.5288059,3.891505,1.2006004,-0.35144964,0.89459884,0.27600008,0
3.4862237,1.7431118,-1.9313998,0.80143076,0.40071538,-0.44399998,0
0.71359515,4.2815709,-0.28536037,0.16404487,0.9842692,-0.065600082,0
-3.0195796,-1.7033526,-2.6273994,-0.69415623,-0.39157531,-0.60399991,0
-1.1502336,-3.8820376,1.5903603,-0.26442152,-0.89242244,0.36560008,0
-2.1129081,-0.26411352,-3.7931995,-0.48572603,-0.060715754,-0.87199992,0
-2.8889198,-1.1234686,3.05196,-0.66411954,-0.25826865,0.70160002,0
-2.2849984,3.3778238,-1.5137992,-0.52528703,0.77651125,-0.34799981,0
2.3385184,-3.0580628,-2.0253599,0.53759044,-0.70300293,-0.46559998,0
-1.1255956,-2.847095,-3.09024,-0.25875762,-0.6545046,-0.71040004,0
3.9118667,1.8255376,0.5359199,0.89927971,0.41966382,0.12319998,0
3.0227761,1.1136543,2.9231999,0.6948911,0.25601247,0.67199999,0
-1.5714039,-2.9856675,2.7457199,-0.36124226,-0.68636036,0.63120002,0
2.3827915,-3.5741868,0.68556023,0.54776818,-0.82165217,0.15760006,0
2.4700029,0.98800141,3.4417202,0.56781679,0.22712676,0.7912001,0
-0.91848272,3.5208504,2.3837996,-0.21114546,0.8093909,0.54799992,0
3.5548911,0.403965,-2.4742799,0.81721634,0.092865519,-0.56879997,0
0.50307322,-2.179986,3.7305601,0.11564901,-0.5011462,0.85760003,0
-3.0400822,0.80002183,3.0067198,-0.69886947,0.18391307,0.69119996,0
1.9116385,-2.1583016,-3.2572799,0.43945715,-0.49616128,-0.74879998,0
0.17044879,1.7044899,3.9985197,0.039183632,0.39183679,0.91919994,0
2.3385189,3.058063,-2.0253592,0.53759056,0.70300299,-0.46559981,0
-0.177036,-3.806272,-2.0984402,-0.040697932,-0.87500507,-0.48240006,0
-1.50124,-3.9578142,1.0022395,-0.34511265,-0.90984237,0.23039988,0
-2.8553903,3.2447617,0.49068001,-0.65641159,0.74592227,0.1128,0
0.58646029,2.6977167,-3.3616793,0.13481846,0.62016475,-0.77279985,0
0,-3.7672105,2.175,0,-0.86602539,0.5,0
-1.6620226,0.067837588,-4.0194001,-0.38207418,0.015594848,-0.92400002,0
-1.6507382,4.0089359,-0.35495922,-0.37948006,0.9215945,-0.081599824,0
1.4208372,2.9995461,2.8118401,0.32662925,0.68955082,0.64640003,0
-3.3160932,0,2.8153198,-0.76232028,0,0.64719999,0
-1.5247405,1.1859092,3.8975999,-0.35051507,0.27262279,0.89600003,0
-1.9356278,3.8712556,0.43499967,-0.44497192,0.88994384,0.099999927,0
1.7976817,3.9549003,-0.22271936,0.41326016,0.90917248,-0.051199853,0
0.83446091,0.74424887,-4.2038398,0.1918301,0.17109169,-0.96639997,0
-2.9178925,3.1423454,-0.73079926,-0.67077988,0.72237825,-0.16799983,0
1.0356144,0.34520444,4.2107997,0.23807228,0.079357348,0.96799994,0
0.38145271,-4.3231349,0.29579997,0.087690279,-0.99382412,0.067999996,0
-0.099530324,4.0807476,-1.5033607,-0.022880536,0.9381029,-0.34560019,0
1.1173999,4.1343789,-0.76212025,0.25687355,0.95043194,-0.17520006,0
-4.0089512,-1.2441572,1.1414396,-0.92159802,-0.28601316,0.26239991,0
-1.5045276,-4.0506511,-0.50111979,-0.34586841,-0.93118417,-0.11519995,0
0.12753132,4.3360686,0.32364061,0.029317545,0.99679738,0.074400142,0
3.7403119,1.5748684,-1.5660001,0.85984182,0.36203873,-0.36000004,0
1.806167,2.7453737,-2.8501198,0.41521081,0.63112038,-0.6552,0
-3.6354392,2.3370681,0.49415988,-0.83573318,0.53725702,0.11359997,0
-0.93913591,3.2869751,2.6900403,-0.21589331,0.7556265,0.6184001,0
-3.5855284,1.3445727,2.0636399,-0.8242594,0.30909717,0.47439998,0
0.62994701,-1.8110973,-3.9045606,0.1448154,-0.4163442,-0.89760017,0
0.5082463,-1.8635719,3.8975999,0.11683823,-0.42840734,0.89600003,0
-0.85437387,-1.3669981,4.0402799,-0.19640779,-0.31425244,0.92879999,0
0.26703212,3.0708673,-3.0693593,0.061386693,0.70594651,-0.70559984,0
2.7811494,-0.16359685,3.3407998,0.63934469,-0.037608474,0.76799995,0
-3.0357652,-1.8374367,-2.5160396,-0.69787705,-0.42239925,-0.5783999,0
1.2907199,-1.3286823,-3.9358792,0.29671723,-0.30544421,-0.90479982,0
-4.347424,-0.124212,0.083520152,-0.99940783,-0.028554482,0.019200034,0
-1.7995673,-2.1267612,3.3407998,-0.41369364,-0.48891065,0.76799995,0
2.8927026,-2.2837129,2.31072,0.66498911,-0.52499145,0.53119999,0
1.7353133,-2.8396032,2.8013997,0.39892259,-0.65278238,0.64399993,0
-2.4226649,-1.7766211,3.1459198,-0.55693448,-0.40841866,0.72319996,0
2.4297523,-1.3630316,-3.3408005,0.55856377,-0.3133406,-0.76800013,0
0.29712734,-4.0607438,-1.5311998,0.068305135,-0.93350434,-0.35199997,0
-3.0119092,1.268172,2.8710001,-0.69239295,0.2915338,0.66000003,0
-0.14858404,3.8631885,1.9940401,-0.03415725,0.88808936,0.45840004,0
-1.4668674,0.14968039,-4.0924802,-0.33721092,0.034409285,-0.94080007,0
-2.7503536,-3.1734853,-1.13448,-0.63226521,-0.72953689,-0.2608,0
-2.6157362,-0.81378454,-3.3790793,-0.60131872,-0.18707691,-0.77679986,0
-0.51251787,-1.5375537,4.0367999,-0.1178202,-0.35346061,0.92799997,0
0.10434188,-4.1736794,-1.2214801,0.023986639,-0.95946652,-0.28080004,0
-1.7374369,-3.6196599,1.67388,-0.39941078,-0.83210576,0.38480002,0
0.72023404,-2.9464116,-3.1180797,0.16557105,-0.67733604,-0.71679991,0
3.0811269,-2.7730138,-1.3189199,0.70830506,-0.63747448,-0.30319998,0
-0.47269112,3.3088374,2.7840002,-0.10866462,0.7606523,0.64000005,0
0,-1.6966518,-4.0054803,0,-0.39003491,-0.92080009,0
-2.593611,-2.593611,2.3385603,-0.59623241,-0.59623241,0.5376001,0
1.1705172,-4.0436044,-1.0962,0.26908439,-0.92956412,-0.25199997,0
-0.9704147,2.3721247,-3.5147998,-0.22308384,0.54531604,-0.80799997,0
3.3019462,-2.6140406,1.0892398,0.75906807,-0.6009289,0.25039998,0
-2.0156233,3.7624962,0.83868051,-0.46336171,0.86494166,0.19280012,0
-1.3265786,-3.6849403,1.8931199,-0.30496061,-0.84711272,0.43520001,0
0.86283672,0.69026953,4.2073197,0.19835328,0.15868266,0.96719998,0
2.2591691,2.1907094,-3.0032394,0.51934922,0.50361139,-0.69039989,0
-0.81049639,1.6981828,-3.9219599,-0.18632102,0.39038685,-0.9016,0
-3.8467114,-1.9816391,-0.44543946,-0.88430148,-0.45554924,-0.10239988,0
-2.0916216,-3.8141339,1.0371208e-07,-0.48083258,-0.8768124,2.3841856e-08,0
3.857322,1.7143655,-1.0509607,0.88674068,0.39410701,-0.24160016,0
0.096440449,2.314573,-3.6818404,0.02217022,0.53208578,-0.84640014,0
1.2067124,3.9218149,-1.4441996,0.27740514,0.90156668,-0.3319999,0
0.075764894,3.4094236,-2.7004795,0.017417217,0.78377557,-0.6207999,0
-1.8994552,3.7989104,0.93960071,-0.43665639,0.87331277,0.21600017,0
3.0612292,-2.9518998,-0.91523904,0.70373088,-0.67859769,-0.21039978,0
0.92910135,3.4067051,2.5403996,0.21358652,0.78315061,0.58399993,0
-2.3145745,3.27898,-1.6773595,-0.53208607,0.75378853,-0.38559988,0
-0.81353158,-2.7660065,3.2572801,-0.18701875,-0.63586354,0.74880004,0
-3.0145397,2.0934303,-2.3350804,-0.69299763,0.48124835,-0.53680009,0
-3.5498438,0.30868179,2.4951601,-0.81605607,0.070961334,0.57360005,0
-0.6680153,2.1949077,-3.6957591,-0.15356673,0.5045765,-0.84959978,0
2.5374181,-2.102432,-2.8396809,0.58331454,-0.4833177,-0.6528002,0
-2.9809914,-2.2144506,-2.2654796,-0.68528539,-0.50906909,-0.52079993,0
1.6788248,-1.4065828,-3.7584002,0.38593674,-0.3233524,-0.86400008,0
-3.891505,-1.5288057,1.2005998,-0.89459884,-0.35144961,0.27599996,0
4.0089359,-1.6507382,-0.35495922,0.9215945,-0.37948006,-0.081599824,0
1.0514842,1.2889162,-4.0193996,0.24172051,0.29630259,-0.92399997,0
-2.1425328,-3.7212412,-0.69599956,-0.49253631,-0.85545778,-0.15999991,0
-4.0642586,1.5240971,0.28536013,-0.93431234,0.35036716,0.06560003,0
1.8487929,1.0564531,-3.7932005,0.42500988,0.24286279,-0.87200016,0
-1.106618,2.974036,-2.9754002,-0.25439495,0.68368644,-0.68400007,0
-1.3473623,-3.9384437,-1.2632399,-0.30973846,-0.90538937,-0.29039997,0
-2.2760637,3.5766714,-0.97439975,-0.52323306,0.82222331,-0.22399995,0
2.5443952,-0.37895241,-3.5078409,0.58491844,-0.087115496,-0.80640024,0
-2.0833547,-1.3541806,-3.5704799,-0.47893214,-0.31130588,-0.82080001,0
3.1816187,-2.458523,1.6599597,0.73140663,-0.56517774,0.38159993,0
-1.5867423,1.9569821,-3.5461204,-0.36476836,0.44988096,-0.81520009,0
1.1859092,1.52474,3.8976002,0.27262279,0.35051495,0.89600009,0
1.268172,-3.0119092,2.8710001,0.2915338,-0.69239295,0.66000003,0
2.1420496,3.7800872,0.21227954,0.4924252,0.86898559,0.048799895,0
-2.489234,0.16594878,3.56352,-0.57223773,0.038149145,0.81919998,0
-0.17365149,0.52095443,4.3151999,-0.039919883,0.11975964,0.99199998,0
-4.1723008,-1.014884,-0.69600016,-0.95914966,-0.23330668,-0.16000004,0
-1.7461661,-3.9579763,-0.45588014,-0.40141749,-0.90987962,-0.10480003,0
1.5507489,-4.0558052,-0.26100004,0.35649401,-0.93236905,-0.06000001,0
0.16970113,1.8667145,3.9254398,0.039011754,0.42912978,0.90239996,0
1.1173999,-4.1343789,-0.76212025,0.25687355,-0.95043194,-0.17520006,0
-0.9932214,-3.2852709,-2.6726401,-0.22832677,-0.75523472,-0.61440003,0
-1.2274094,4.1731915,-0.020879338,-0.28216308,0.9593544,-0.004799848,0
-0.059262179,2.7853253,-3.3408008,-0.01362349,0.64030468,-0.76800019,0
-0.63849217,-3.8309534,-1.9592404,-0.14677981,-0.88067895,-0.45040011,0
-2.7708821,-0.11790994,-3.3512399,-0.63698441,-0.027105734,-0.77039999,0
-1.5033604,2.5056005,-3.2224793,-0.3456001,0.57600009,-0.74079984,0
0.15064809,3.7662058,2.17152,0.034631744,0.86579448,0.49920002,0
-0.87662148,-4.2578764,0.15659995,-0.20152219,-0.97882217,0.035999991,0
2.6140406,3.3019462,1.0892398,0.6009289,0.75906807,0.25039998,0
-4.2872906,0.73496413,-0.038279865,-0.98558408,0.16895728,-0.0087999692,0
3.112607,-1.5563035,-2.6099992,0.71554184,-0.35777092,-0.59999985,0
0.68477309,1.3695459,-4.0716004,0.1574191,0.31483814,-0.93600011,0
3.1744289,-1.3936517,-2.6274009,0.72975379,-0.3203797,-0.60400021,0
-2.1684892,-1.0590296,-3.6192002,-0.49850327,-0.24345508,-0.83200008,0
-1.5402685,3.2345638,2.4673202,-0.35408473,0.7435779,0.56720006,0
-1.7353133,-2.8396032,2.8013997,-0.39892259,-0.65278238,0.64399993,0
0.55870003,4.246119,-0.76211989,0.12843679,0.97611934,-0.17519999,0
-0.33754224,2.0252523,3.8349597,-0.077595919,0.46557525,0.88159996,0
1.8068138,3.3124924,2.1645594,0.4153595,0.76149249,0.49759987,0
-0.50014031,-2.3339877,3.6366,-0.11497479,-0.53654891,0.83600003,0
-3.0440254,2.6091647,1.6877997,-0.69977599,0.59980798,0.38799995,0
0.64694339,2.4799495,-3.5147994,0.14872262,0.57010335,-0.80799985,0
-3.8547027,0.44477299,1.9662002,-0.88613856,0.10224666,0.45200005,0
-3.0781772,-1.8469065,2.4568801,-0.70762694,-0.42457622,0.56480002,0
3.9847429,-1.3740491,1.0753195,0.91603285,-0.31587335,0.24719989,0
-2.0526099,-3.3721449,1.8270003,-0.47186437,-0.77520573,0.42000008,0
-2.1425328,-3.7212412,-0.69599956,-0.49253631,-0.85545778,-0.15999991,0
0.59188682,-3.8472621,1.9418401,0.13606595,-0.88442808,0.44640002,0
-3.1826305,0.47739416,2.9266801,-0.73163921,0.10974579,0.67280006,0
-3.2184713,2.8736351,-0.55331999,-0.73987848,0.66060579,-0.12720001,0
1.6991529,-0.67966086,3.9463198,0.39060989,-0.15624388,0.90719998,0
4.0149908,-1.4721636,0.79691964,0.92298639,-0.33842841,0.18319993,0
-2.9822602,-1.5656867,-2.7526803,-0.68557709,-0.35992798,-0.6328001,0
-1.0849566,-3.7069352,-2.0009999,-0.24941532,-0.85216904,-0.45999998,0
0.64694345,2.9112442,3.1667998,0.14872263,0.66925156,0.72799999,0
0.34323424,-1.3729385,4.1133599,0.078904428,-0.31561807,0.94560003,0
0.67450964,-3.6254902,-2.30724,0.1550597,-0.83344603,-0.53040004,0
-1.5749762,2.3624642,-3.2955594,-0.3620635,0.54309523,-0.75759989,0
-2.9178925,3.1423454,-0.73079926,-0.67077988,0.72237825,-0.16799983,0
0.97718006,-2.6872447,-3.2781601,0.2246391,-0.61775738,-0.75360006,0
-2.7880383,-2.7880383,1.83744,-0.64092833,-0.64092833,0.4224,0
-4.2652478,0.39986661,0.75516021,-0.98051679,0.091923364,0.17360005,0
-2.1816242,-0.942065,-3.6435599,-0.50152284,-0.21656667,-0.83759999,0
0.3391881,-1.8655366,3.9149997,0.077974275,-0.428859,0.89999998,0
2.9331257,-2.6398134,1.83048,0.67428178,-0.60685366,0.4208,0
2.8192382,-0.96110398,-3.17028,0.64810073,-0.22094345,-0.7288,0
-0.68477356,1.3695471,-4.0716,-0.15741922,0.31483844,-0.93599999,0
-0.49355921,-2.6323156,3.4277999,-0.11346189,-0.60513002,0.78799999,0
-3.76319,0.30105489,2.1610799,-0.86510116,0.069208026,0.49679998,0
2.4529929,3.113414,-1.7921994,0.56390643,0.71572739,-0.41199985,0
-2.4391053,3.2196188,-1.6147196,-0.56071389,0.74014229,-0.37119994,0
-1.4246761,2.9205863,-2.8918805,-0.32751176,0.67139918,-0.66480011,0
3.975461,1.121284,-1.3641597,0.91389912,0.25776646,-0.31359994,0
-3.9170394,1.3989429,1.2736797,-0.90046883,0.32159609,0.29279995,0
2.1420496,3.7800872,0.21227954,0.4924252,0.86898559,0.048799895,0
2.7740159,1.4208372,-3.0345604,0.63770479,0.32662925,-0.69760013,0
-1.4065828,-1.6788248,-3.7584002,-0.3233524,-0.38593674,-0.86400008,0
-1.0494617,1.499231,-3.9463193,-0.24125557,0.3446508,-0.90719986,0
0,3.9652212,-1.7887205,0,0.9115451,-0.41120014,0
-1.8652281,-2.9532776,2.5925999,-0.42878807,-0.67891443,0.59599996,0
-1.952922,-2.1156652,3.2607598,-0.44894758,-0.48635983,0.74959999,0
-1.5662093,-1.6611311,-3.7027194,-0.36004812,-0.38186923,-0.85119987,0
4.1919689,-0.53743201,-1.0300796,0.96367103,-0.12354759,-0.23679991,0
2.314573,-0.096440591,-3.6818407,0.53208578,-0.022170251,-0.84640014,0
-0.72706205,-3.9261339,1.7260803,-0.16714071,-0.90255952,0.39680007,0
3.410574,-2.3770669,-1.2806394,0.78404003,-0.54645216,-0.29439986,0
2.3058515,3.3146613,1.6181993,0.5300808,0.76199108,0.37199986,0
-1.1255956,-2.847095,-3.09024,-0.25875762,-0.6545046,-0.71040004,0
2.529036,3.4607859,0.7412402,0.58138764,0.79558295,0.17040005,0
3.9170392,-1.3989426,1.2736806,0.90046877,-0.321596,0.29280013,0
-0.13287914,-0.7234531,-4.2873602,-0.03054693,-0.16631106,-0.98560005,0
4.0991974,-1.4090993,0.36540005,0.94234425,-0.32393089,0.084000014,0
0.73496407,4.2872906,-0.038280591,0.16895726,0.98558408,-0.0088001359,0
4.2892394,-0.51990771,0.50460041,0.98603207,-0.11951902,0.11600009,0
-2.6536405,-2.2633994,-2.5995605,-0.61003232,-0.52032173,-0.5976001,0
3.8467114,-1.9816391,-0.44543946,0.88430148,-0.45554924,-0.10239988,0
2.7453737,-1.806167,-2.8501198,0.63112038,-0.41521081,-0.6552,0
-1.8817759,3.4812856,-1.8061199,-0.43259215,0.80029553,-0.4152,0
-3.1918449,-2.9364972,0.33408016,-0.7337575,-0.67505687,0.076800041,0
1.0849566,-3.7069352,-2.0009999,0.24941532,-0.85216904,-0.45999998,0
0.62917817,-3.3031838,2.7596397,0.14463866,-0.75935262,0.63439995,0
-3.8467114,1.9816394,-0.44543982,-0.88430148,0.4555493,-0.10239996,0
