-4.5476513,1.5158837,-0.73720044,-0.9376601,0.31255335,-0.1520001,0
0.80301958,3.2850795,-3.4764795,0.16557105,0.67733598,-0.71679991,0
-3.0602355,2.7202096,2.5995996,-0.63097638,0.56086797,0.53599995,0
2.6073589,0,-4.0895205,0.5375998,0,-0.84320009,0
1.2735029,-4.6695118,0.31040061,0.26257792,-0.96278596,0.06400013,0
-1.8404783,4.4697332,-0.39575914,-0.37948006,0.9215945,-0.081599824,0
-3.0091269,-2.4073017,-2.9449198,-0.62043858,-0.49635085,-0.60719997,0
-1.2814224,2.7459049,3.7868803,-0.26421079,0.56616598,0.78080004,0
4.7124591,-0.30402979,1.1057999,0.97164106,-0.062686555,0.22799999,0
-1.5983293,-3.1966586,3.2785997,-0.32955244,-0.65910488,0.67599994,0
1.2554063,-2.8411825,-3.7248001,0.25884667,-0.58581084,-0.76800007,0
-3.3443213,1.5841517,3.13504,-0.68955076,0.32662922,0.64640003,0
-2.8310707,1.0938228,-3.783,-0.58372593,0.22553049,-0.78000003,0
0.73959541,-2.6170301,-4.0158,0.15249391,-0.53959388,-0.82800001,0
2.9802845,3.7253556,0.87300014,0.61449164,0.76811457,0.18000004,0
2.7936001,3.7247999,-1.3579999,0.57600003,0.76800001,-0.28,0
1.3637468,-4.1961441,-2.01372,0.28118491,-0.86518437,-0.41520002,0
-3.26614,2.8578722,-2.1650391,-0.67343092,0.589252,-0.44639981,0
-3.0154612,1.9511812,3.2592001,-0.62174457,0.40230539,0.67200005,0
-1.2724683,2.9084997,3.6665998,-0.2623646,0.59969068,0.75599998,0
-0.00064968882,-0.0022275045,-4.8499994,-0.00013395646,-0.00045927928,-0.99999988,0
1.73367,4.2553711,1.5520003,0.35745773,0.87739611,0.32000005,0
-1.656401,2.3925791,3.8799999,-0.341526,0.49331528,0.80000001,0
-2.1677465,3.6684947,2.3163595,-0.44695807,0.75639069,0.47759992,0
2.9798398,-3.7247999,-0.87688047,0.61439997,-0.76800001,-0.1808001,0
2.5302181,4.1282506,-0.27936003,0.52169448,0.85118568,-0.057600006,0
-1.4498641,4.613204,-0.37248075,-0.29894108,0.95117611,-0.076800153,0
-1.2859727,-4.0557599,-2.3279998,-0.26514903,-0.83623916,-0.47999999,0
1.1503401,-4.4863253,-1.4394797,0.23718353,-0.92501551,-0.29679996,0
-1.1605934,4.1449771,2.23488,-0.23929761,0.85463446,0.46079999,0
-4.3388047,1.7045306,1.3385998,-0.8945989,0.35144961,0.27599996,0
4.0835004,-0.17014569,2.6112397,0.84195888,-0.035081588,0.53839993,0
-3.9401586,-2.3640952,1.5519999,-0.81240386,-0.48744231,0.31999999,0
-1.7776074,4.5123882,-0.031039525,-0.36651701,0.93038934,-0.006399902,0
-4.5587339,1.1996671,-1.14072,-0.93994516,0.24735405,-0.2352,0
-4.8447018,-0.13457491,-0.1823604,-0.99890763,-0.027747404,-0.037600081,0
-3.1966586,-1.5983293,3.2785997,-0.65910488,-0.32955244,0.67599994,0
-4.5705843,0.47281855,1.5519996,-0.94238853,0.097488366,0.3199999,0
-2.0237389,-2.6742263,-3.5036402,-0.41726574,-0.55138689,-0.72240007,0
-2.2207706,1.6655773,3.977,-0.45789087,0.343418,0.81999999,0
4.0845623,0,2.6151197,0.84217781,0,0.53919995,0
-2.8632271,-3.3934546,-1.9516394,-0.59035611,-0.69968134,-0.4023999,0
2.6863782,3.0569129,-2.6384001,0.55389243,0.63029134,-0.54400003,0
-3.4238396,0.29772535,-3.4221604,-0.70594633,0.061386671,-0.70560008,0
3.9641905,-2.4484708,-1.3463594,0.81735885,-0.50483936,-0.27759987,0
-1.2410119,4.6882668,0.050440665,-0.25587875,0.96665293,0.010400137,0
-1.2416605,-3.3702216,3.2592001,-0.25601247,-0.6948911,0.67200005,0
-4.4924216,1.739002,0.5625999,-0.92627251,0.35855711,0.11599998,0
2.4425151,2.5188437,-3.3484392,0.50361139,0.51934922,-0.69039983,0
4.8185086,0.55068696,0.034919284,0.99350697,0.1135437,0.0071998527,0
4.5772738,0.93892777,-1.2997994,0.94376785,0.19359335,-0.26799989,0
-3.6628883,1.1073848,-2.97984,-0.75523472,0.22832677,-0.61440003,0
4.1822639,-0.66916209,2.36292,0.86232245,-0.13797157,0.48720002,0
-4.0531869,-2.3842275,-1.1872799,-0.83570868,-0.4915933,-0.24479999,0
3.7690961,-0.2512731,-3.0419195,0.77713323,-0.051808886,-0.62719989,0
-4.8258371,0.13042791,-0.46560013,-0.99501801,0.026892353,-0.096000031,0
0.19546856,3.0623438,-3.755841,0.040302798,0.63141114,-0.77440023,0
-0.85820854,2.1455212,-4.2641196,-0.17695022,0.44237551,-0.87919992,0
-2.6268315,3.8629878,1.3036802,-0.54161477,0.79649234,0.26880005,0
-1.2010651,-3.8803644,-2.6500404,-0.24764228,-0.80007517,-0.54640007,0
4.6518755,1.131537,-0.77599996,0.9591496,0.2333066,-0.16,0
1.0358946,3.7982805,2.8323994,0.21358652,0.78315061,0.58399987,0
-4.7937002,-0.51823777,-0.52380008,-0.98839182,-0.10685315,-0.10800002,0
-2.9580004,3.5807378,1.3967997,-0.60989702,0.73829645,0.28799993,0
-4.5078902,0.43979442,-1.7343599,-0.9294619,0.090679266,-0.35759997,0
-2.5979638,3.2715101,-2.4637988,-0.53566265,0.6745382,-0.50799978,0
4.2141299,2.3704484,-0.3802399,0.86889279,0.48875225,-0.078399979,0
-1.0180852,-0.47510648,-4.7180796,-0.20991449,-0.0979601,-0.97279996,0
-4.0531869,2.3842275,-1.1872799,-0.83570868,0.4915933,-0.24479999,0
4.0972137,2.594902,-0.042680241,0.84478635,0.53503138,-0.0088000502,0
-1.5682591,-1.8717932,-4.1904001,-0.3233524,-0.38593674,-0.86400002,0
2.6050954,0.37215617,4.0739999,0.5371331,0.076733232,0.83999997,0
1.0115421,-4.0461683,2.4754398,0.20856538,-0.83426154,0.51039994,0
-4.6545448,0.15515134,1.3541197,-0.95969999,0.031989966,0.27919993,0
0.58083427,0.19361143,4.8112001,0.11975965,0.039919883,0.99200004,0
2.3180456,-3.2096019,-2.8013601,0.47794756,-0.66177362,-0.57760006,0
1.5316908,0.19146121,4.5978003,0.31581253,0.039476532,0.94799995,0
4.1039467,-2.4916821,0.68676078,0.8461746,-0.51374888,0.14160016,0
4.3037982,-2.0776954,0.82643968,0.88738108,-0.4283908,0.17039993,0
0.88233978,3.0542531,-3.6627195,0.18192573,0.62974292,-0.75519991,0
2.2580397,-3.8709257,1.8546399,0.46557522,-0.79812902,0.38239998,0
-3.5552318,-0.17776142,3.2941201,-0.73303747,-0.036651839,0.67920005,0
3.586971,-1.87889,2.6694403,0.73958164,-0.3874,0.55040008,0
-3.0745738,-3.7429595,-0.24443983,-0.63393277,-0.77174425,-0.050399967,0
-2.6536903,2.4767773,3.2165201,-0.54715264,0.51067573,0.66320002,0
-3.6747389,0.87493801,3.0419197,-0.75767815,0.1803996,0.62719995,0
-4.3349776,-1.981704,-0.89627975,-0.89380985,-0.40859878,-0.18479995,0
1.6999974,-1.3222206,4.3456001,0.35051495,-0.27262279,0.89600003,0
-0.29107776,-4.8027802,0.60916042,-0.060016036,-0.99026394,0.12560008,0
3.6181786,-3.1191192,-0.83808047,0.7460162,-0.64311737,-0.17280009,0
-3.0563047,1.4382608,3.4803603,-0.63016593,0.29654863,0.71760005,0
2.0799661,-0.37817582,4.3649998,0.428859,-0.077974401,0.89999998,0
-2.3812268,0.89957464,-4.1283197,-0.49097461,0.18547931,-0.85119998,0
-1.2300211,3.5143461,3.1078801,-0.25361261,0.72460747,0.64080006,0
0.16566266,4.3072333,2.2232401,0.03415725,0.88808936,0.45840004,0
0.5093742,4.0749974,2.5802,0.10502561,0.84020567,0.53200001,0
-2.6297555,2.2540762,-3.395,-0.54221761,0.46475801,-0.69999999,0
-0.38768968,0,4.8344798,-0.07993602,0,0.99680001,0
-1.0470825,-3.664789,2.9992397,-0.21589331,-0.75562662,0.61839992,0
0.86187536,-4.6787524,-0.9428398,0.17770626,-0.96469122,-0.19439997,0
1.728996,-4.5219898,-0.29100004,0.35649404,-0.93236905,-0.06000001,0
0.92613435,2.5931752,3.9925201,0.19095553,0.5346753,0.82320005,0
-1.8520658,-1.7462333,-4.1283193,-0.38186926,-0.36004812,-0.85119987,0
-3.9578717,-0.34416297,2.78196,-0.81605601,-0.070961438,0.57359999,0
4.0866828,-1.6346729,2.0369999,0.84261501,-0.33704597,0.41999999,0
-0.36455506,-3.098716,3.71316,-0.075165994,-0.63891053,0.76560003,0
0.96338165,0.57802826,4.71808,0.1986354,0.11918109,0.97280002,0
3.1927483,0.55526048,-3.6083992,0.65829861,0.1144867,-0.74399984,0
-3.2308078,-1.0769359,3.4531999,-0.66614592,-0.22204864,0.71200001,0
-2.8917272,-2.8917272,2.6073604,-0.59623241,-0.59623241,0.5376001,0
-0.65017492,4.3886809,1.9594004,-0.13405669,0.90488267,0.4040001,0
0.56450999,-2.2109973,-4.2796397,0.11639381,-0.45587575,-0.88239998,0
-1.4119949,4.3928723,1.4938005,-0.29113299,0.90574688,0.30800012,0
3.8317041,-0.17416818,2.9681995,0.7900421,-0.035910968,0.61199993,0
0.11097061,-4.549799,-1.6761599,0.022880537,-0.9381029,-0.34559998,0
-3.6352599,-3.0293829,1.06312,-0.74953812,-0.62461507,0.2192,0
-4.6144276,0.46144301,-1.4200802,-0.95142835,0.095142893,-0.29280004,0
3.5014713,1.4005884,3.0496802,0.72195286,0.28878111,0.62880003,0
3.7710125,-2.1403043,-2.1728003,0.77752835,-0.44129986,-0.44800007,0
4.7700715,0,0.87688017,0.98351991,0,0.18080004,0
0.37433419,2.4331744,4.1787601,0.077182308,0.50168544,0.86160004,0
0.1421901,4.8344674,0.36084068,0.029317547,0.99679744,0.074400142,0
1.2410115,4.6882668,0.050440874,0.25587866,0.96665293,0.010400181,0
0.78711456,-1.8642187,-4.4076796,0.16229166,-0.38437501,-0.90879995,0
-4.1435781,-2.071789,-1.4356005,-0.85434598,-0.42717299,-0.29600012,0
2.07075,0.94125015,4.2835197,0.42695877,0.1940722,0.88319999,0
1.5658287,4.5670004,-0.46172068,0.32285127,0.94164956,-0.095200144,0
-3.3295009,0.43428272,-3.4997602,-0.68649507,0.089542829,-0.72160006,0
-3.8025937,2.6502929,-1.4278399,-0.78403997,0.54645216,-0.29439998,0
3.2099824,-1.8930665,-3.1039994,0.66185206,-0.39032301,-0.63999987,0
4.4697499,1.3871633,1.2726396,0.92159796,0.28601307,0.26239994,0
1.8740036,-1.6657809,-4.1516004,0.3863925,-0.34345999,-0.85600007,0
-1.6816075,-1.8684525,4.1477199,-0.3467232,-0.38524795,0.85519999,0
-3.0609341,2.0137725,-3.1777198,-0.63112044,0.41521084,-0.6552,0
3.9706314,1.3558251,-2.4327607,0.8186869,0.27955157,-0.50160015,0
-2.0535247,-1.4934726,4.1321998,-0.42340717,-0.3079325,0.85199994,0
3.9924786,2.7534332,0.034919702,0.82319146,0.56771821,0.0071999384,0
0.57732522,4.1374974,-2.4638002,0.11903613,0.85309225,-0.50800008,0
0.71510029,3.3967245,3.3872399,0.14744335,0.70035559,0.69840002,0
-0.36165282,3.2548738,3.5773599,-0.074567594,0.67110801,0.73759997,0
0.33250511,-3.7406805,-3.0690796,0.068557754,-0.77127433,-0.63279992,0
3.9255459,1.0240554,2.6577995,0.8093909,0.21114545,0.54799992,0
4.067543,0.67792416,2.5530398,0.8386687,0.13977818,0.52639997,0
0.18828979,-2.2594798,4.2873998,0.03882264,-0.46587214,0.88399994,0
-3.5014713,-1.4005889,3.04968,-0.72195286,-0.28878123,0.62880003,0
0.62908697,-4.5608788,1.5248394,0.12970866,-0.94038737,0.31439987,0
-1.1073848,-3.6628883,-2.97984,-0.22832677,-0.75523472,-0.61440003,0
2.4484704,-3.9641907,-1.3463597,0.50483924,-0.81735891,-0.27759996,0
-2.8436401,3.9269319,-0.12416062,-0.58631754,0.80967671,-0.025600128,0
-0.22153419,-4.5414486,-1.6877998,-0.045677155,-0.93638116,-0.34799996,0
-3.0240984,0.2573702,-3.783,-0.62352544,0.053066023,-0.78000003,0
-2.6612606,2.1437933,-3.4415607,-0.54871356,0.44201925,-0.70960015,0
-1.8428079,-0.98568791,-4.3766398,-0.37996039,-0.20323463,-0.90239996,0
-2.6073141,3.4095645,-2.2581592,-0.53759056,0.70300299,-0.46559983,0
-3.6963553,-0.17601675,3.1350398,-0.76213515,-0.036292113,0.64639997,0
-0.76744598,3.7519579,-2.9759598,-0.15823629,0.77359957,-0.61359996,0
1.7826904,3.0305734,3.3406796,0.36756504,0.62486053,0.68879992,0
-0.1861994,2.6067939,4.08564,-0.038391627,0.53748327,0.84240001,0
-2.4323857,-1.0503484,-4.0623598,-0.50152284,-0.21656668,-0.83759999,0
0.97763664,-4.643775,-1.0010397,0.20157456,-0.95747942,-0.20639995,0
-3.6363571,2.9325459,-1.3036801,-0.74976438,0.60464865,-0.26880002,0
-4.7249656,-0.24230605,-1.0669996,-0.97421974,-0.049960013,-0.21999991,0
-2.1560466,1.1030939,-4.2020407,-0.44454572,0.22744204,-0.86640018,0
1.6657809,1.8740036,-4.1516004,0.34345999,0.3863925,-0.85600007,0
-3.0569129,-2.6863782,-2.6384001,-0.63029134,-0.55389243,-0.54400003,0
-3.6582766,0.48777023,-3.1466796,-0.75428385,0.10057119,-0.64879996,0
-0.32929727,2.2580388,-4.2796407,-0.067896344,0.46557501,-0.88240016,0
0.19255885,1.1553543,4.70644,0.039702859,0.23821738,0.97040004,0
2.9381623,0.36726987,3.8411996,0.60580665,0.075725749,0.79199994,0
-3.5382538,-3.0664864,-1.2648801,-0.72953689,-0.63226527,-0.2608,0
4.0711889,-2.4673872,-0.92731935,0.83942044,-0.50873965,-0.19119987,0
-2.5379705,-1.9941201,3.6200399,-0.5232929,-0.4111588,0.7464,0
-4.0461683,1.0115421,2.4754398,-0.83426154,0.20856538,0.51039994,0
-4.4937034,-1.6227261,-0.83420032,-0.9265368,-0.33458272,-0.17200007,0
1.4060812,4.4525905,-1.3114399,0.28991365,0.91805989,-0.27039999,0
4.6630802,-0.90253174,0.98163992,0.96145988,-0.18608902,0.20239998,0
4.3115158,-0.61593086,-2.1340005,0.88897234,-0.12699606,-0.44000012,0
3.0055554,3.0055554,2.3357596,0.61970216,0.61970216,0.48159993,0
-1.9901336,3.8144231,2.2387595,-0.41033685,0.786479,0.46159992,0
3.9523852,-2.5842516,1.1058004,0.81492478,-0.53283542,0.22800009,0
3.2916217,-3.4412403,0.91955966,0.67868489,-0.70953411,0.18959993,0
-3.3116612,1.9172778,2.9798398,-0.68281674,0.39531502,0.61439997,0
-4.3006921,1.911419,-1.1717607,-0.88674062,0.39410701,-0.24160014,0
4.4209938,0,-1.9943205,0.91154516,0,-0.41120011,0
-1.5120819,0.67203635,-4.5589995,-0.31176946,0.1385642,-0.93999994,0
-1.526965,0.76348263,-4.5396004,-0.31483814,0.1574191,-0.93600011,0
1.6564006,2.3925791,3.8800001,0.34152588,0.49331528,0.80000001,0
-0.7842018,-4.5483699,1.4899194,-0.1616911,-0.93780822,0.3071999,0
0.16068058,4.4990602,1.8042006,0.033130016,0.92764127,0.37200013,0
2.4924278,-3.4893994,2.2659202,0.51390266,-0.71946383,0.46720004,0
1.7188836,-2.9893625,-3.4105206,0.35440901,-0.61636341,-0.7032001,0
3.8796315,-1.5181166,2.4831996,0.79992402,-0.31301373,0.51199991,0
4.2730198,1.9839021,1.1523607,0.88103503,0.40905198,0.23760015,0
3.0902808,0.72712523,3.6665998,0.63717133,0.14992273,0.75599998,0
-2.8448629,-2.1336472,3.2979999,-0.58656967,-0.43992728,0.68000001,0
4.3600464,2.1096995,0.24832022,0.89897865,0.4349896,0.051200047,0
0.16841152,3.7892628,-3.0225196,0.034724027,0.78129131,-0.62319994,0
4.7710557,-0.84195113,0.22504067,0.98372287,-0.17359817,0.046400141,0
-4.7737055,0.79561758,-0.31816041,-0.9842692,0.16404487,-0.06560009,0
1.787472,-4.0624356,1.9555198,0.36855093,-0.83761561,0.40319997,0
-0.48091659,-4.4885545,1.77316,-0.099158064,-0.92547518,0.36559999,0
-1.5022315,-4.3911386,-1.4084398,-0.30973846,-0.90538943,-0.29039997,0
0.1213391,-4.7322292,-1.0553595,0.025018372,-0.97571737,-0.2175999,0
-3.4130948,3.2911983,-1.0204396,-0.70373088,0.67859757,-0.21039993,0
-3.4792154,0.15127009,-3.3756001,-0.71736401,0.03118971,-0.69600004,0
-1.5860611,-4.2823653,1.6334804,-0.32702291,-0.88296193,0.3368001,0
1.0464351,4.5345535,-1.3657594,0.21575983,0.93495953,-0.28159988,0
2.9243572,-0.91386169,3.7597196,0.60296023,-0.18842509,0.77519995,0
-3.8240898,-0.52146679,2.93716,-0.78847212,-0.10751893,0.6056,0
1.7766163,4.4415407,0.79927969,0.36631265,0.91578162,0.16479994,0
3.9964528,-0.36331382,-2.7237599,0.82401091,-0.074910067,-0.56159997,0
0.78141248,1.2622818,-4.6172004,0.16111597,0.26026428,-0.95200008,0
-2.5708914,-1.4690812,3.8412001,-0.53008074,-0.30290332,0.79200006,0
2.3320382,-4.2525401,-2.7751923e-07,0.48083261,-0.8768124,-5.7220461e-08,0
-1.7117926,-0.76079649,4.47364,-0.35294694,-0.15686525,0.9224,0
4.5330343,-0.93786907,1.4472395,0.93464625,-0.19337507,0.2983999,0
-4.5274963,0.3312799,-1.7071998,-0.9335044,0.068305135,-0.35199997,0
-4.2609291,2.2039285,0.71391976,-0.87854213,0.45441824,0.14719996,0
-4.0555334,-2.1404204,-1.5791603,-0.83619249,-0.44132382,-0.32560009,0
0.82284379,4.2787867,2.13012,0.16965851,0.88222408,0.43920001,0
-4.2553711,-1.73367,1.5520003,-0.87739611,-0.35745773,0.32000005,0
-0.59920585,-4.6738043,-1.1484796,-0.1235476,-0.96367103,-0.23679993,0
4.6801133,-0.75485712,1.0243199,0.96497184,-0.15564065,0.21119998,0
1.9004084,-0.19004062,4.4581199,0.39183679,-0.039183632,0.9192,0
-4.1360655,2.3113306,-1.0359601,-0.85279703,0.47656301,-0.21360002,0
1.0938228,2.8310707,-3.783,0.22553049,0.58372593,-0.78000003,0
0.6599198,4.2894764,2.16504,0.13606595,0.88442814,0.44640002,0
-0.34416297,-3.9578717,2.78196,-0.070961438,-0.81605601,0.57359999,0
-0.76744598,-3.7519579,-2.9759598,-0.15823629,-0.77359957,-0.61359996,0
-1.3042516,4.6373386,0.56260014,-0.26891786,0.95615232,0.11600003,0
4.1721277,-0.83442575,2.3279998,0.86023253,-0.17204654,0.47999999,0
1.3156286,3.6837609,-2.8673203,0.27126363,0.75953835,-0.59120005,0
1.8247703,-0.38016045,-4.4775205,0.37624133,-0.078383602,-0.92320013,0
-0.35355029,0.85596377,-4.7607589,-0.072896965,0.17648737,-0.98159981,0
-1.4815005,0.47281924,-4.5939198,-0.30546403,0.097488508,-0.94719994,0
-1.8669614,4.4519849,0.46559998,-0.38494051,0.91793507,0.096000001,0
3.4931293,-3.3587782,-0.19787981,0.72023284,-0.69253159,-0.04079996,0
3.5382538,3.0664864,-1.2648801,0.72953689,0.63226527,-0.2608,0
0.51558709,3.9528387,2.7625597,0.10630662,0.8150183,0.56959993,0
-1.0894996,2.996124,-3.6549599,-0.2246391,0.61775756,-0.7536,0
1.1268579,2.0659063,4.24084,0.23234184,0.42596006,0.87440002,0
0,-4.6560001,1.3579997,0,-0.96000004,0.27999994,0
2.3812268,0.89957464,-4.1283197,0.49097461,0.18547931,-0.85119998,0
-4.7341785,-0.62291843,-0.84971988,-0.97611928,-0.12843679,-0.17519999,0
1.8813003,-1.3169098,4.2718797,0.38789698,-0.2715278,0.88079995,0
-1.656401,2.3925791,3.8799999,-0.341526,0.49331528,0.80000001,0
-2.914505,3.6814802,1.2144399,-0.6009289,0.75906807,0.25039998,0
0.84195107,-4.7710557,0.22503988,0.17359816,-0.98372287,0.046399977,0
2.503247,3.8686535,-1.5131998,0.51613343,0.79766053,-0.31199998,0
4.0399728,0.18363494,-2.6771998,0.83298409,0.037862875,-0.55199999,0
-4.770772,-0.3766399,-0.78763986,-0.98366433,-0.077657714,-0.16239998,0
3.3158791,-1.2338154,-3.3174002,0.68368644,-0.25439495,-0.68400007,0
1.206636,4.6924748,-0.21728046,0.24879092,0.96752059,-0.044800095,0
-3.1659944,1.9347745,3.1233997,-0.65278238,0.39892259,0.64399993,0
-2.5989282,-3.8983922,-1.2532395,-0.53586149,-0.80379224,-0.2583999,0
-1.9665134,2.874135,-3.3755996,-0.40546668,0.59260517,-0.69599992,0
1.4392658,-4.6056495,0.48887998,0.29675585,-0.94961846,0.1008,0
-2.7606688,-0.920223,-3.8799996,-0.56921005,-0.18973671,-0.79999995,0
3.1194811,-3.4314294,1.4200802,0.64319199,-0.70751125,0.29280004,0
-1.9941201,2.5379705,3.6200399,-0.4111588,0.5232929,0.7464,0
-0.093282819,-0.25789958,-4.8422399,-0.019233571,-0.053175174,-0.99839997,0
1.4355476,-4.306643,-1.7071995,0.29598919,-0.88796765,-0.35199991,0
-1.3443503,0.19205002,-4.6560001,-0.27718565,0.039597943,-0.96000004,0
2.5202634,0.53622633,-4.1089211,0.51964194,0.11056213,-0.84720021,0
-1.3864149,-3.6393387,2.8905997,-0.28585875,-0.75037915,0.59599996,0
-4.5705843,-0.47281903,1.5519994,-0.94238853,-0.097488463,0.3199999,0
0.38016099,-1.8247724,-4.4775195,0.078383714,-0.37624174,-0.92319989,0
1.8404783,4.4697332,-0.39575914,0.37948006,0.9215945,-0.081599824,0
-1.3022013,4.2321534,1.9788001,-0.26849511,0.87260896,0.40800002,0
4.7961321,-0.66612959,-0.27548045,0.98889321,-0.13734631,-0.056800094,0
2.0535247,-1.4934726,4.1321998,0.42340717,-0.3079325,0.85199994,0
1.4224312,2.9871058,-3.5463202,0.2932848,0.61589813,-0.73120004,0
-0.13146281,-3.0893743,-3.7364399,-0.027105736,-0.63698441,-0.77039999,0
0.36726844,1.0788509,-4.7142015,0.075725451,0.22244348,-0.9720003,0
3.2720387,2.2387633,2.7936001,0.67464715,0.46160069,0.57600003,0
-4.0557599,1.2859727,-2.3279998,-0.83623916,0.26514903,-0.47999999,0
-0.86324555,4.7478499,0.4850004,-0.17798878,0.97893816,0.10000008,0
-2.1130686,-3.9010501,1.9593998,-0.43568426,-0.80434024,0.40399998,0
3.7617557,-1.8326503,-2.4521594,0.77561975,-0.37786606,-0.50559992,0
-2.2580407,-0.32929757,-4.2796392,-0.46557546,-0.067896418,-0.88239998,0
-3.5526903,0.35526869,3.2824802,-0.73251349,0.073251277,0.67680007,0
-0.1861994,2.6067939,4.08564,-0.038391627,0.53748327,0.84240001,0
0.18363489,-1.124764,-4.7142,0.037862863,-0.23191009,-0.972,0
-0.34807748,-3.8288503,2.9565599,-0.071768552,-0.78945369,0.60960001,0
4.253602,-0.098920874,-2.3280001,0.87703139,-0.020396058,-0.48000002,0
-4.8279719,0,-0.46172014,-0.99545813,0,-0.095200032,0
-2.1336472,-2.8448629,3.2979999,-0.43992728,-0.58656967,0.68000001,0
-1.2338154,-3.3158791,-3.3174002,-0.25439495,-0.68368644,-0.68400007,0
-3.9217763,2.3530655,-1.6140795,-0.80861366,0.48516816,-0.33279991,0
-0.64289838,-1.7396076,-4.4814,-0.13255636,-0.35868198,-0.92400002,0
-0.36961985,-1.6128864,-4.5589995,-0.076210283,-0.33255392,-0.93999994,0
1.7326276,-3.9748511,-2.1727998,0.35724282,-0.81955695,-0.44799998,0
3.836298,1.6304269,-2.4793193,0.79098928,0.33617049,-0.51119989,0
3.8771155,-1.4184569,-2.5452809,0.79940528,-0.29246536,-0.52480018,0
-3.5373259,2.6009748,-2.0602801,-0.72934556,0.53628349,-0.42480004,0
-3.7515967,-3.0301361,0.51604003,-0.77352512,-0.62477034,0.10640001,0
2.2264574,-2.8625884,-3.2203996,0.45906338,-0.59022444,-0.66399992,0
2.4163866,-1.1152554,4.0545998,0.49822405,-0.22994956,0.83599997,0
-4.6410766,1.2891883,-0.56648058,-0.95692301,0.26581201,-0.11680012,0
-4.1282506,2.5302181,-0.27936003,-0.85118568,0.52169448,-0.057600006,0
-4.3036876,0.3310526,2.2116001,-0.88735831,0.068258271,0.45600003,0
-3.1191192,3.6181786,-0.83808047,-0.64311737,0.7460162,-0.17280009,0
1.7168891,-1.0219578,-4.4193206,0.35399777,-0.21071294,-0.91120017,0
2.3943968,-3.2495387,2.6888402,0.49369007,-0.670008,0.55440003,0
-2.6502929,-3.8025942,-1.4278394,-0.54645216,-0.78404003,-0.29439989,0
3.8174155,-0.69407535,2.9099994,0.78709596,-0.14310832,0.5999999,0
-2.2904489,-3.7480075,-2.0564003,-0.47225752,-0.77278507,-0.42400008,0
-2.1773953,-1.8749791,-3.9071603,-0.44894749,-0.38659364,-0.80560005,0
-0.14901409,4.768455,0.87300014,-0.030724553,0.9831866,0.18000004,0
-0.50937468,-4.0749974,2.5801997,-0.10502571,-0.84020567,0.53199995,0
-2.6661789,1.8943901,-3.5812395,-0.54972762,0.39059591,-0.73839992,0
2.3445857,-1.2839396,-4.0468402,0.48341975,-0.26472983,-0.83440006,0
-4.493762,1.2396581,1.3385996,-0.9265489,0.25559962,0.2759999,0
-1.6782961,-3.8600812,2.4094801,-0.34604043,-0.79589307,0.49680004,0
1.6884817,1.6884817,4.2214403,0.34814057,0.34814057,0.87040007,0
2.2580397,3.8709257,1.8546399,0.46557522,0.79812902,0.38239998,0
2.2426267,1.1213133,4.1515999,0.46239725,0.23119862,0.85600001,0
-1.6737963,4.4127355,1.1174394,-0.34511265,0.90984237,0.23039988,0
3.0542531,0.88233978,-3.6627195,0.62974292,0.18192573,-0.75519991,0
-3.4294679,3.4294679,0,-0.70710683,0.70710683,0,0
0.99383992,1.5091646,-4.5008001,0.20491545,0.31116796,-0.92800003,0
0.80644232,1.4448757,-4.5590005,0.16627677,0.29791254,-0.94000012,0
1.3045284,-2.2363346,4.10116,0.26897493,-0.46109992,0.84560001,0
3.5552318,-0.17776142,3.2941201,0.73303747,-0.036651839,0.67920005,0
-4.7253523,-1.0023475,0.43456045,-0.97429943,-0.20666958,0.089600094,0
-4.2712927,0.71188205,-2.1844404,-0.88067889,0.14677981,-0.45040008,0
3.4279747,2.7750278,2.0176001,0.70679891,0.57217067,0.41600001,0
2.594902,-4.0972137,-0.042680241,0.53503138,-0.84478635,-0.0088000502,0
-1.7117926,-0.76079649,4.47364,-0.35294694,-0.15686525,0.9224,0
-0.72130424,-3.2458699,3.5307999,-0.14872253,-0.66925156,0.72799999,0
-4.1084967,-1.4790589,2.1107199,-0.84711272,-0.30496061,0.43520001,0
-3.7660789,2.5476418,-1.6878004,-0.77651113,0.52528697,-0.34800008,0
-0.75075728,2.2522724,4.2291999,-0.15479532,0.46438608,0.87199998,0
-4.041276,1.0584296,-2.4638007,-0.83325279,0.21823291,-0.50800014,0
-3.4703774,-1.7351886,-2.9099998,-0.71554178,-0.35777086,-0.59999996,0
-1.7776073,1.3218107,-4.3145599,-0.36651698,0.2725383,-0.88959998,0
3.5860269,3.1377733,0.90404016,0.73938704,0.6469636,0.18640004,0
-0.55712742,2.01423,-4.3766408,-0.11487164,0.41530517,-0.9024002,0
-2.2290525,1.4860346,4.0429602,-0.45959848,0.3063989,0.83360004,0
-0.82826865,-4.6146398,-1.2415996,-0.17077704,-0.95147216,-0.25599992,0
-3.7868478,-1.2622825,-2.7548003,-0.78079337,-0.26026443,-0.56800008,0
1.3402295,0.76584595,4.5977998,0.27633598,0.15790638,0.94799995,0
-4.2672944,-2.2758904,0.36471975,-0.87985456,-0.46925575,0.075199947,0
-0.42529827,-4.8200469,0.32979989,-0.087690368,-0.99382412,0.067999981,0
-1.0139207,4.6893826,-0.71004021,-0.20905581,0.966883,-0.14640005,0
-3.6828599,-0.70149696,3.0768399,-0.75935256,-0.14463855,0.63440001,0
1.6564006,-2.3925791,3.8800001,0.34152588,-0.49331528,0.80000001,0
1.5319862,-4.442759,1.1989193,0.31587344,-0.91603279,0.24719986,0
2.6566756,-3.9850128,0.76436031,0.54776818,-0.82165211,0.15760006,0
3.5393059,-1.5538416,-2.9294009,0.72975379,-0.3203797,-0.60400021,0
-0.31384856,-4.3938799,-2.0292406,-0.064711042,-0.90595466,-0.41840014,0
4.2321534,-1.3022013,1.9788001,0.87260896,-0.26849511,0.40800002,0
3.5168788,-2.3445859,2.3784404,0.72512966,-0.48341978,0.49040008,0
-2.618928,4.0593386,-0.43067986,-0.53998518,0.83697706,-0.088799976,0
-1.5316913,0.19146121,4.5977998,-0.31581265,0.039476536,0.94799995,0
1.7326276,3.9748511,-2.1727998,0.35724282,0.81955695,-0.44799998,0
1.3945508,-3.4453607,-3.1156406,0.28753626,-0.71038365,-0.64240015,0
1.1268579,2.0659063,4.24084,0.23234184,0.42596006,0.87440002,0
1.8944578,0.75778335,4.3999195,0.39060986,0.15624399,0.90719992,0
3.0288239,-3.6345887,-1.0670003,0.6244998,-0.74939972,-0.22000006,0
-1.144271,4.2501497,2.0370002,-0.23593217,0.87631953,0.42000005,0
4.306643,-1.4355476,-1.7071995,0.88796765,-0.29598919,-0.35199991,0
-4.2214379,-2.3026028,-0.63243967,-0.87039959,-0.47476345,-0.13039994,0
-2.6863782,-3.0569129,-2.6384001,-0.55389243,-0.63029134,-0.54400003,0
1.6564006,2.3925791,3.8800001,0.34152588,0.49331528,0.80000001,0
3.5588188,1.1586851,-3.0846,0.73377711,0.23890415,-0.63599998,0
3.1821299,1.7678503,3.2048798,0.65610927,0.36450523,0.66079998,0
3.1246893,-3.6928141,0.34919968,0.64426583,-0.76140499,0.071999937,0
3.7248001,2.7936001,1.3579997,0.76800007,0.57600003,0.27999994,0
1.966525,-2.8603995,3.3872399,0.40546906,-0.58977312,0.69840002,0
-4.2355671,-2.1177833,1.0476002,-0.87331283,-0.43665636,0.21600004,0
0.7735132,0,4.78792,0.15948726,0,0.98720002,0
3.8132482,2.9961243,-0.069839865,0.78623676,0.61775762,-0.014399973,0
-4.7821498,-0.25169224,-0.76823986,-0.98601031,-0.051895306,-0.15839997,0
0.98438901,-4.2656851,2.0874403,0.20296681,-0.87952274,0.43040007,0
-4.6038122,-1.0903767,-1.0669999,-0.94923967,-0.22481994,-0.21999998,0
1.3601046,-3.5702739,-2.9876008,0.28043392,-0.73613894,-0.61600018,0
-4.5366144,1.3609838,1.0437199,-0.93538445,0.28061524,0.21519998,0
-1.9665134,2.874135,-3.3755996,-0.40546668,0.59260517,-0.69599992,0
2.5931752,-0.92613435,3.9925201,0.5346753,-0.19095553,0.82320005,0
-3.3437815,2.7358212,-2.2038391,-0.68943948,0.56408685,-0.45439982,0
1.9817041,4.3349771,-0.89628094,0.40859878,0.89380974,-0.18480019,0
-1.7171268,-0.19079168,4.5318398,-0.35404679,-0.039338492,0.93439996,0
3.9944031,2.6213269,-0.83419943,0.82358831,0.54047978,-0.17199989,0
-3.103379,-3.3250489,-1.6839203,-0.63987195,-0.68557709,-0.34720007,0
-3.3049655,2.9851298,-1.9205993,-0.68143618,0.61549067,-0.39599988,0
-3.5807374,-2.9580007,1.3968002,-0.73829639,-0.60989708,0.28800005,0
-3.7289078,-2.4318967,1.9244801,-0.76884699,-0.50142199,0.39680001,0
-3.2916214,3.4412408,0.91955966,-0.67868483,0.70953417,0.18959993,0
0.19380571,-0.38761202,4.8305998,0.039959941,-0.079920001,0.99599999,0
3.4095645,2.6073141,-2.2581592,0.70300299,0.53759056,-0.46559983,0
4.7088561,0.74350363,-0.89239985,0.97089821,0.15329972,-0.18399997,0
-4.1957407,0.33565891,2.4094801,-0.86510122,0.069208026,0.49680004,0
-1.1247633,-0.18363485,-4.7142005,-0.23190996,-0.037862856,-0.97200012,0
4.277668,-2.272511,-0.24443965,0.88199341,-0.46855897,-0.050399929,0
-3.098716,-0.36455506,3.71316,-0.63891053,-0.075165994,0.76560003,0
-3.820821,-2.7462151,-1.1756396,-0.78779817,-0.56622994,-0.24239993,0
3.0623438,0.19546856,-3.755841,0.63141114,0.040302798,-0.77440023,0
0,-4.718595,1.1213199,0,-0.97290623,0.23119998,0
3.5807378,2.9580004,1.3967997,0.73829645,0.60989702,0.28799993,0
0,0.58095092,4.8150802,0,0.1197837,0.99280006,0
0.5270229,-3.6891639,3.1039999,0.10866452,-0.76065236,0.63999999,0
-1.8607825,1.860783,4.0739999,-0.38366652,0.3836666,0.83999997,0
-4.0972137,2.594902,-0.042680241,-0.84478635,0.53503138,-0.0088000502,0
3.8583045,2.2506773,-1.88956,0.79552674,0.46405721,-0.38960001,0
-4.0711889,2.4673872,-0.92731935,-0.83942044,0.50873965,-0.19119987,0
-0.57343984,1.5291725,4.5667601,-0.11823502,0.31529331,0.94160002,0
-3.2896543,-3.563792,-0.007759985,-0.67827922,-0.73480248,-0.0015999969,0
2.9171,-1.0939124,3.7170396,0.60146391,-0.22554894,0.76639992,0
2.7735212,0.36980253,3.9614801,0.57186007,0.076247945,0.81680006,0
-1.7115114,3.6031816,-2.7586792,-0.35288894,0.74292403,-0.56879985,0
1.4370675,1.1723446,-4.4814,0.29630259,0.24172053,-0.92400002,0
2.0177307,2.2011607,3.8217998,0.41602695,0.45384756,0.78799999,0
3.0761697,1.0857069,3.5889997,0.63426179,0.2238571,0.73999995,0
-0.91076738,-3.9163001,-2.7121201,-0.18778709,-0.80748457,-0.55920005,0
4.2894764,0.6599198,2.16504,0.88442814,0.13606595,0.44640002,0
4.8073936,-0.5655756,0.30264071,0.99121517,-0.11661353,0.062400147,0
-2.7194622,3.58969,-1.8003196,-0.56071389,0.74014229,-0.37119991,0
0.37175182,-2.9120557,-3.8606,0.07664986,-0.60042387,-0.796,0
-3.5702739,1.3601046,-2.9876008,-0.73613894,0.28043392,-0.61600018,0
-2.3989415,-3.8383067,1.7421197,-0.49462712,-0.79140347,0.35919994,0
4.4674687,0.79776257,1.7110806,0.92112762,0.16448714,0.35280013,0
-2.5379705,1.9941201,3.6200399,-0.5232929,0.4111588,0.7464,0
-0.82284379,-4.2787867,2.13012,-0.16965851,-0.88222408,0.43920001,0
-0.66638917,-4.093534,-2.5142403,-0.13739984,-0.84402764,-0.51840007,0
-2.2522724,-0.75075728,4.2291999,-0.46438608,-0.15479532,0.87199998,0
0.67203635,-1.5120819,-4.5589995,0.1385642,-0.31176946,-0.93999994,0
0.74673659,2.4268925,4.1321998,0.15396631,0.50039023,0.85199994,0
-2.6742263,-2.0237389,-3.5036402,-0.55138689,-0.41726574,-0.72240007,0
4.1084967,-1.4790589,2.1107199,0.84711272,-0.30496061,0.43520001,0
1.6564016,-2.3925803,-3.8799992,0.34152612,-0.49331552,-0.79999983,0
-0.36961985,-1.6128864,-4.5589995,-0.076210283,-0.33255392,-0.93999994,0
-0.2512731,3.7690961,-3.0419195,-0.051808886,0.77713323,-0.62719989,0
0.66638917,-4.093534,-2.5142403,0.13739984,-0.84402764,-0.51840007,0
-2.5392456,4.0329199,0.90016055,-0.52355582,0.83152992,0.18560012,0
3.5588188,1.1586851,-3.0846,0.73377711,0.23890415,-0.63599998,0
-2.4344025,4.1925817,-0.13580015,-0.50193864,0.86444986,-0.028000033,0
-3.7253556,-2.9802845,0.87300014,-0.76811457,-0.61449164,0.18000004,0
-2.4163866,-1.1152554,4.0545998,-0.49822405,-0.22994956,0.83599997,0
2.8872211,1.6240611,3.5424397,0.59530336,0.33485797,0.73039997,0
0,3.8326547,2.9720795,0,0.79023808,0.61279988,0
-2.4073017,-3.0091269,-2.9449198,-0.49635085,-0.62043858,-0.60719997,0
3.8053191,0,-3.0069995,0.78460187,0,-0.61999989,0
-2.5869086,1.3550475,-3.872241,-0.53338325,0.27939123,-0.79840022,0
2.0799661,-0.37817582,4.3649998,0.428859,-0.077974401,0.89999998,0
-1.1778846,-2.0612979,-4.2292008,-0.24286281,-0.42500988,-0.87200022,0
-4.613204,1.4498644,-0.37247995,-0.95117611,0.29894111,-0.076799989,0
-1.8460321,-4.3074079,1.2493598,-0.38062519,-0.88812536,0.25759998,0
2.2883775,-4.1190801,1.1484807,0.47183043,-0.8492949,0.23680013,0
0.56666547,2.0777755,4.3455997,0.11683825,0.42840731,0.89599997,0
2.4016008,-1.4779085,3.9459598,0.49517545,-0.30472341,0.8136,0
0.31384826,-4.3938799,-2.0292404,0.064710982,-0.90595466,-0.41840008,0
0.6599198,4.2894764,2.16504,0.13606595,0.88442814,0.44640002,0
-4.4073963,-0.16323675,2.0176003,-0.90874153,-0.033657063,0.41600007,0
-2.6908298,3.6998906,-1.6101997,-0.55481029,0.76286405,-0.33199993,0
-4.4127355,-1.6737963,1.1174394,-0.90984237,-0.34511265,0.23039988,0
4.7942386,-0.43583992,0.58976042,0.9885028,-0.089863904,0.12160009,0
-0.31569007,4.5775042,1.5713995,-0.065090738,0.94381529,0.32399988,0
-2.295439,-4.0170183,-1.4549996,-0.47328639,-0.82825124,-0.29999992,0
-1.8684525,1.6816069,4.1477203,-0.38524795,0.34672308,0.85520011,0
2.9753807,-3.1406796,2.1921999,0.61348057,-0.6475628,0.45199999,0
-2.8917272,-2.8917272,2.6073604,-0.59623241,-0.59623241,0.5376001,0
1.7560079,-2.634012,-3.6743593,0.3620635,-0.54309529,-0.75759989,0
0,4.5525789,-1.6722808,0,0.93867606,-0.34480017,0
0.31384826,-4.3938799,-2.0292404,0.064710982,-0.90595466,-0.41840008,0
0.76348263,-1.526965,-4.5396004,0.1574191,-0.31483814,-0.93600011,0
-3.655874,-2.5806172,-1.8701602,-0.75378847,-0.53208601,-0.38560006,0
-1.4730104,3.7745895,-2.6655607,-0.3037135,0.77826589,-0.54960018,0
2.0137725,-3.0609341,-3.1777198,0.41521084,-0.63112044,-0.6552,0
0.38268647,1.5307469,4.5861602,0.078904428,0.31561792,0.94560003,0
3.7892628,0.16841152,-3.0225196,0.78129131,0.034724027,-0.62319994,0
2.1130702,1.5170759,-4.093399,0.43568459,0.31279916,-0.8439998,0
-2.8917272,2.8917272,-2.6073601,-0.59623241,0.59623241,-0.53760004,0
-1.5022315,4.3911386,-1.4084398,-0.30973846,0.90538943,-0.29039997,0
-2.4316428,-1.7917368,-3.7946398,-0.50136966,-0.36943027,-0.78239995,0
2.7462151,-3.8208208,-1.1756401,0.56622994,-0.78779811,-0.24240002,0
-3.5168793,2.3445859,2.3784399,-0.72512978,0.48341978,0.49039999,0
3.5702744,-1.3601044,-2.9876003,0.73613906,-0.28043392,-0.61600006,0
3.6124532,2.4630356,2.0990798,0.74483573,0.50784242,0.43279997,0
3.9163001,-0.91076738,-2.7121201,0.80748457,-0.18778709,-0.55920005,0
4.2888622,2.209414,-0.49663979,0.88430148,0.4555493,-0.10239996,0
-4.7800827,-0.81944281,-0.04267985,-0.98558408,-0.16895728,-0.0087999692,0
1.787413,-3.8727279,-2.3085997,0.36853877,-0.7985006,-0.47599995,0
1.6715575,1.1700902,-4.3999186,0.34465104,0.24125572,-0.90719974,0
-2.9742014,0.31640449,-3.81792,-0.61323744,0.065238044,-0.78720003,0
2.3185229,-3.6289923,-2.2310007,0.47804597,-0.74824584,-0.46000016,0
-3.534848,0.88371223,3.201,-0.72883463,0.18220872,0.66000003,0
3.4313989,-3.1947503,-1.2416,0.70750493,-0.65871143,-0.25600001,0
-1.7171268,0.19079168,4.5318398,-0.35404679,0.039338492,0.93439996,0
4.1702328,-1.7558875,-1.7459998,0.85984182,-0.36203867,-0.35999995,0
-0.93786907,4.5330343,1.4472395,-0.19337507,0.93464625,0.2983999,0
-3.6289928,-2.3185229,-2.2310002,-0.74824595,-0.47804597,-0.46000004,0
-1.6227261,-4.4937034,-0.83420032,-0.33458272,-0.9265368,-0.17200007,0
-2.2580407,0.32929757,-4.2796392,-0.46557546,0.067896418,-0.88239998,0
2.7679608,2.7679608,2.8634393,0.57071358,0.57071358,0.59039986,0
1.418457,-3.8771162,-2.5452795,0.29246536,-0.7994054,-0.52479988,0
-0.93786907,-4.5330343,1.4472395,-0.19337507,-0.93464625,0.2983999,0
0.74479872,2.4471958,-4.1205592,0.15356675,0.50457644,-0.84959984,0
0,-2.4352648,4.1942801,0,-0.50211644,0.86480004,0
-1.1364361,-1.7046541,4.39604,-0.23431672,-0.35147509,0.90640002,0
4.093534,-0.66638917,-2.5142403,0.84402764,-0.13739984,-0.51840007,0
-4.4032445,-1.9080725,0.70227975,-0.90788549,-0.393417,0.14479995,0
-2.283191,3.044255,-3.007,-0.47076103,0.62768143,-0.62,0
-3.7660789,2.5476418,-1.6878004,-0.77651113,0.52528697,-0.34800008,0
-1.1518308,0.76788759,4.6482396,-0.23749089,0.15832734,0.95839995,0
4.7937002,-0.51823777,-0.52380008,0.98839182,-0.10685315,-0.10800002,0
-4.2342572,1.5199896,-1.8119594,-0.87304276,0.31339991,-0.37359989,0
-3.4319909,2.0591948,2.73928,-0.707627,0.42457625,0.56480002,0
-1.8122675,-3.9540379,2.1456397,-0.37366343,-0.81526554,0.44239995,0
2.4619629,3.5903625,-2.1378808,0.50762123,0.74028093,-0.44080016,0
3.8803644,-1.2010651,-2.6500404,0.80007517,-0.24764228,-0.54640007,0
2.670866,-2.3147509,3.3212802,0.55069405,-0.47726825,0.68480009,0
3.2136142,-3.3283868,-1.4549998,0.66260087,-0.68626535,-0.29999995,0
-3.3816555,-3.3816555,-0.8070392,-0.69724858,-0.69724858,-0.16639984,0
0.907323,2.9163957,-3.7674794,0.18707691,0.60131872,-0.77679992,0
-4.5083861,-1.3050593,-1.2221999,-0.92956418,-0.26908439,-0.25199997,0
-2.6360252,-3.4597833,2.1456399,-0.54351038,-0.71335739,0.44239998,0
-2.674227,2.0237391,-3.5036395,-0.55138701,0.4172658,-0.72239989,0
4.3886809,-0.65017492,1.9594004,0.90488267,-0.13405669,0.4040001,0
-3.8025937,2.6502929,-1.4278399,-0.78403997,0.54645216,-0.29439998,0
3.3166351,-3.3166354,-1.2338394,0.6838423,-0.68384236,-0.25439987,0
3.5526903,0.35526869,3.2824802,0.73251349,0.073251277,0.67680007,0
-3.6628883,1.1073848,-2.97984,-0.75523472,0.22832677,-0.61440003,0
-1.4790589,-4.1084967,2.1107199,-0.30496061,-0.84711272,0.43520001,0
0.76788759,1.1518308,4.6482396,0.15832734,0.23749089,0.95839995,0
-2.2793076,2.9806333,3.0729597,-0.46996033,0.61456358,0.63359994,0
3.6516197,2.1712337,-2.3396406,0.75291127,0.44767705,-0.48240015,0
-4.407897,1.9906629,0.36084008,-0.90884477,0.41044599,0.074400015,0
1.9875298,3.7763066,-2.3047197,0.40979996,0.77861995,-0.47519994,0
4.7128348,-0.36252576,-1.0863996,0.97171855,-0.074747585,-0.22399992,0
3.6563931,-2.0206382,-2.4638,0.75389546,-0.41662645,-0.50800002,0
-1.8740036,-1.6657809,-4.1516004,-0.3863925,-0.34345999,-0.85600007,0
0.1872877,-2.4347425,4.1904001,0.03861602,-0.50200874,0.86400002,0
1.8672438,-3.6411254,-2.6034794,0.38499871,-0.7507475,-0.53679991,0
4.7821498,0.25169188,-0.7682398,0.98601031,0.051895235,-0.15839995,0
-1.7246063,4.4347024,-0.93896025,-0.35558894,0.91437167,-0.19360006,0
-3.5807374,-2.9580007,1.3968002,-0.73829639,-0.60989708,0.28800005,0
0.38761142,-0.19380571,4.8305998,0.079919882,-0.039959941,0.99599999,0
1.2165143,4.5619297,1.1096798,0.2508277,0.94060409,0.22879997,0
-4.1721277,-0.83442575,2.3279998,-0.86023253,-0.17204654,0.47999999,0
1.787472,4.0624356,1.9555198,0.36855093,0.83761561,0.40319997,0
4.84903,0,0.096999347,0.99980003,0,0.019999865,0
-3.5884106,-3.203938,-0.61691999,-0.73987848,-0.66060579,-0.12720001,0
-1.9434695,3.886939,-2.1533997,-0.40071538,0.80143076,-0.44399995,0
-1.0023475,4.7253523,0.43456045,-0.20666958,0.97429943,0.089600094,0
-3.9029694,2.4979007,1.4317197,-0.80473596,0.5150311,0.29519993,0
-0.65017492,4.3886809,1.9594004,-0.13405669,0.90488267,0.4040001,0
1.6657809,1.8740036,-4.1516004,0.34345999,0.3863925,-0.85600007,0
-2.6213269,-3.9944029,-0.83419997,-0.54047978,-0.82358825,-0.17199999,0
-0.78141248,-1.2622818,-4.6172004,-0.16111597,-0.26026428,-0.95200008,0
-4.5908775,-0.57385987,-1.4550002,-0.94657272,-0.11832163,-0.30000004,0
4.2214379,2.3026028,-0.63243967,0.87039959,0.47476345,-0.13039994,0
-4.0866823,1.6346734,2.0369997,-0.84261495,0.33704606,0.41999996,0
-3.8814335,-2.0980721,-2.0137198,-0.80029559,-0.43259218,-0.41519997,0
1.1760623,-4.0322142,2.4249997,0.24248709,-0.83138436,0.49999994,0
0.56057608,3.6037037,-3.1971195,0.1155827,0.74303174,-0.65919989,0
3.1628733,3.5278206,-1.0359603,0.65213883,0.7273857,-0.21360007,0
3.7363899,1.6983593,2.5840793,0.77038968,0.35017717,0.53279984,0
-4.1925817,2.4344025,-0.13580015,-0.86444986,0.50193864,-0.028000033,0
-1.3377504,-0.95553637,4.56288,-0.27582484,-0.1970178,0.94080001,0
4.6808434,-1.1702108,-0.49276042,0.96512234,-0.24128059,-0.10160009,0
-4.0533056,2.6056967,0.55095989,-0.83573312,0.53725708,0.11359998,0
-2.2594798,0.18828979,4.2873998,-0.46587214,0.03882264,0.88399994,0
3.3283863,-3.2136142,-1.4550005,0.68626523,-0.66260087,-0.3000001,0
-2.5245652,2.1639132,3.5308001,-0.52052891,0.44616768,0.72800004,0
4.1721277,0.83442575,2.3279998,0.86023253,0.17204654,0.47999999,0
-0.84195113,4.7710557,0.22504067,-0.17359817,0.98372287,0.046400141,0
4.7047777,0.45530066,1.0864,0.97005731,0.093876429,0.22400001,0
-1.7115109,-3.6031811,-2.7586801,-0.35288885,-0.74292397,-0.56880003,0
-3.2308078,1.0769359,3.4531999,-0.66614592,0.22204864,0.71200001,0
-4.0339389,2.3272722,1.3541205,-0.83174002,0.47984993,0.27920011,0
1.3209331,4.1279168,2.1766801,0.27235734,0.8511169,0.44880003,0
4.4886889,-1.8235297,0.22116022,0.9255029,-0.3759855,0.045600045,0
3.0999207,-3.2068143,-1.9050807,0.6391589,-0.66119885,-0.39280015,0
-1.0403898,4.2655988,-2.0602808,-0.21451336,0.87950492,-0.42480019,0
-0.64199805,-0.51030618,-4.7801595,-0.13237074,-0.10521777,-0.98559994,0
-2.9170995,1.0939124,3.7170401,-0.60146379,0.22554894,0.76640004,0
1.4412723,-4.1179214,-2.11848,0.29716954,-0.84905595,-0.4368,0
4.174335,-0.48538792,-2.4211202,0.86068767,-0.10007998,-0.49920005,0
2.0188606,4.193018,1.3657604,0.41625991,0.8645398,0.28160009,0
-4.227345,-0.29493105,-2.3590403,-0.87161756,-0.060810529,-0.48640007,0
-2.7750273,-3.4279752,2.0176001,-0.57217056,-0.70679903,0.41600001,0
0,-4.5525794,-1.6722798,0,-0.93867618,-0.34479997,0
-0.77335691,0.19333908,4.78404,-0.15945503,0.039863728,0.98640001,0
-4.0749974,0.5093742,2.5802,-0.84020567,0.10502561,0.53200001,0
-0.69314229,-3.4657114,-3.3212795,-0.14291593,-0.7145797,-0.68479991,0
-3.8629878,-2.6268315,1.3036802,-0.79649234,-0.54161477,0.26880005,0
-0.37215671,-2.6050954,4.0739999,-0.076733343,-0.5371331,0.83999997,0
0.40238011,-4.8285661,-0.21340033,0.082964972,-0.99558067,-0.044000071,0
-1.6609843,4.3897448,-1.2221999,-0.342471,0.90510201,-0.25199997,0
-0.2605097,4.819427,-0.47724015,-0.05371334,0.99369633,-0.098400034,0
3.5373261,2.6009753,-2.0602794,0.72934562,0.53628355,-0.42479989,0
1.4224312,2.9871058,-3.5463202,0.2932848,0.61589813,-0.73120004,0
3.3887708,3.3887708,0.74495929,0.69871563,0.69871563,0.15359986,0
-1.8415247,-1.4538354,-4.24472,-0.37969583,-0.29975986,-0.87520003,0
4.0339384,-2.3272724,1.3541201,0.8317399,-0.47984999,0.27920005,0
4.2894764,0.6599198,2.16504,0.88442814,0.13606595,0.44640002,0
3.7763066,1.9875298,-2.3047197,0.77861995,0.40979996,-0.47519994,0
1.131537,-4.6518755,-0.77599996,0.2333066,-0.9591496,-0.16,0
-2.6426477,0.50603878,-4.0351996,-0.54487586,0.10433789,-0.83199996,0
-2.3557711,0.29447138,-4.2291994,-0.485726,0.06071575,-0.87199992,0
1.6761605,2.7936003,-3.5928793,0.3456001,0.57600009,-0.74079984,0
4.093534,-0.66638917,-2.5142403,0.84402764,-0.13739984,-0.51840007,0
-0.907323,-2.9163957,-3.7674794,-0.18707691,-0.60131872,-0.77679992,0
-1.9080725,-4.4032445,0.70227975,-0.393417,-0.90788549,0.14479995,0
-3.0441806,1.6116247,3.4144003,-0.62766612,0.33229375,0.70400006,0
2.5931752,0.92613435,3.9925201,0.5346753,0.19095553,0.82320005,0
2.3588452,-2.1773958,3.63556,0.48635986,-0.44894761,0.74959999,0
3.8093224,-2.9204803,-0.69452006,0.78542733,-0.60216087,-0.14320001,0
2.3588452,-2.1773958,3.63556,0.48635986,-0.44894761,0.74959999,0
0.56450999,-2.2109973,-4.2796397,0.11639381,-0.45587575,-0.88239998,0
-2.3445849,1.2839394,-4.0468407,-0.4834196,0.26472977,-0.83440018,0
1.9434695,-3.886939,-2.1533997,0.40071538,-0.80143076,-0.44399995,0
-2.5392456,-4.0329199,0.90016055,-0.52355582,-0.83152992,0.18560012,0
-4.5366144,1.3609838,1.0437199,-0.93538445,0.28061524,0.21519998,0
2.5707009,3.0848417,2.7198801,0.53004146,0.63604987,0.56080002,0
-4.2244058,0.80464852,-2.2426405,-0.8710115,0.16590692,-0.46240011,0
-4.6467805,-0.71488941,-1.1911596,-0.95809907,-0.14739989,-0.24559993,0
1.4718454,4.5627198,0.73331976,0.30347329,0.94076699,0.15119995,0
-1.7168891,1.0219578,-4.4193206,-0.35399777,0.21071294,-0.91120017,0
-4.5927434,-1.3333771,0.80703992,-0.94695741,-0.27492312,0.16639999,0
0.60567814,4.6940031,1.0592399,0.12488209,0.96783572,0.21839997,0
-0.17940526,3.4087031,3.4454401,-0.036990777,0.70282537,0.71040004,0
-4.407897,1.9906629,0.36084008,-0.90884477,0.41044599,0.074400015,0
3.4412408,-3.2916214,0.91955966,0.70953417,-0.67868483,0.18959993,0
-1.0024751,3.392993,-3.3173997,-0.20669591,0.69958621,-0.68399996,0
-4.4630709,1.893424,-0.13579941,-0.92022079,0.39039671,-0.027999878,0
-2.9164464,-2.7448909,2.7354002,-0.60132915,-0.56595689,0.56400007,0
-1.2629265,3.0169909,-3.5812402,-0.26039723,0.62206,-0.73840004,0
-0.3675777,3.3817139,-3.4570792,-0.075789221,0.69726062,-0.71279985,0
-1.5644532,-4.4526749,-1.1174401,-0.32256767,-0.91807729,-0.23040003,0
-0.38644508,0.77289015,4.7723999,-0.0796794,0.1593588,0.98400003,0
-4.6410766,1.2891883,-0.56648058,-0.95692301,0.26581201,-0.11680012,0
-2.247304,-4.1949673,0.93507987,-0.46336165,-0.86494172,0.19279997,0
-1.0715756,-3.1432884,-3.5346799,-0.22094344,-0.64810073,-0.7288,0
2.4016008,-1.4779085,3.9459598,0.49517545,-0.30472341,0.8136,0
4.3211322,1.7518101,-1.3347198,0.89095509,0.36119795,-0.27519995,0
-4.5772738,0.93892777,-1.2997994,-0.94376785,0.19359335,-0.26799989,0
2.3539264,2.5817256,-3.3639593,0.48534566,0.53231454,-0.69359988,0
1.8740036,-1.6657809,-4.1516004,0.3863925,-0.34345999,-0.85600007,0
-3.1995299,-3.1995299,1.7460003,-0.65969688,-0.65969688,0.36000007,0
-0.48091659,4.4885545,1.7731606,-0.099158064,0.92547518,0.36560014,0
-2.3253081,4.2146215,0.59363955,-0.47944498,0.86899418,0.12239991,0
2.9259934,3.8569911,-0.29100096,0.60329765,0.7952559,-0.0600002,0
-1.5197026,-2.7090352,-3.7247996,-0.31334075,-0.55856395,-0.76799995,0
1.2622818,0.78141248,-4.6172004,0.26026428,0.16111597,-0.95200008,0
-4.7257619,1.080174,-0.15131973,-0.97438389,0.22271629,-0.031199945,0
-2.6073596,0,4.08952,-0.53759992,0,0.84320003,0
3.5382538,-3.0664864,-1.2648801,0.72953689,-0.63226527,-0.2608,0
0.4342829,3.3295019,-3.4997592,0.089542866,0.68649524,-0.72159988,0
0.91870028,2.5838439,-4.0002799,0.18942274,0.53275132,-0.82480001,0
-2.8783693,2.1004314,-3.2902396,-0.5934782,0.43307865,-0.67839992,0
0.36331406,3.9964526,-2.7237599,0.074910119,0.82401085,-0.56159997,0
0.74479872,2.4471958,-4.1205592,0.15356675,0.50457644,-0.84959984,0
1.3510537,-2.215728,-4.09728,0.27856779,-0.45685115,-0.8448,0
0.83404762,0.70235592,-4.7258396,0.17196858,0.14481565,-0.97439992,0
0.56917048,1.8972371,4.4270797,0.11735474,0.3911829,0.91279995,0
-1.8717932,1.5682591,-4.1904001,-0.38593674,0.3233524,-0.86400002,0
-4.0557599,-1.2859727,-2.3279998,-0.83623916,-0.26514903,-0.47999999,0
0.55712742,2.01423,-4.3766408,0.11487164,0.41530517,-0.9024002,0
-0.80301958,3.2850795,-3.4764795,-0.16557105,0.67733598,-0.71679991,0
-0.75365925,4.4142904,-1.8624008,-0.15539366,0.91016299,-0.38400015,0
-1.3347142,1.1440409,4.5201998,-0.27519882,0.23588474,0.93199998,0
3.4087031,-0.17940526,3.4454401,0.70282537,-0.036990777,0.71040004,0
-1.4382613,3.0563049,3.4803596,-0.29654872,0.63016599,0.71759993,0
2.2975962,-2.2975962,-3.6006391,0.47373119,-0.47373119,-0.74239981,0
3.8585775,-2.8197298,0.82644022,0.79558301,-0.58138758,0.17040005,0
3.9706314,1.3558251,-2.4327607,0.8186869,0.27955157,-0.50160015,0
-4.7505131,-0.77035344,-0.60140014,-0.97948724,-0.15883577,-0.12400003,0
3.563792,-3.2896543,-0.007759985,0.73480248,-0.67827922,-0.0015999969,0
1.373076,1.4979012,-4.4038,0.28310844,0.30884561,-0.90799999,0
4.7937002,-0.51823777,-0.52380008,0.98839182,-0.10685315,-0.10800002,0
3.6558743,-2.5806174,-1.8701595,0.75378853,-0.53208607,-0.38559991,0
3.9010501,-2.1130686,1.9593998,0.80434024,-0.43568426,0.40399998,0
-0.63990587,-4.479342,1.7459999,-0.13193935,-0.9235757,0.35999998,0
3.0987165,-0.36455503,3.7131598,0.63891065,-0.075165987,0.76559997,0
1.311015,2.0601671,4.1903996,0.27031237,0.42477673,0.86399996,0
-3.525466,-1.05764,3.1583202,-0.72690022,-0.2180701,0.65120006,0
-3.1628733,-3.5278206,-1.0359603,-0.65213883,-0.7273857,-0.21360007,0
-3.8803644,-1.2010651,-2.6500404,-0.80007517,-0.24764228,-0.54640007,0
2.827879,-2.2976513,3.2009997,0.58306783,-0.47374254,0.65999997,0
-4.7472873,-0.9773826,0.17459995,-0.97882211,-0.20152219,0.035999991,0
-2.8150728,-3.9411023,0.25608015,-0.58042741,-0.81259841,0.052800033,0
-0.38488367,-1.1546504,4.6947999,-0.07935746,-0.23807226,0.96799999,0
3.4294679,3.4294679,0,0.70710683,0.70710683,0,0
3.5334489,2.9635377,-1.5015599,0.7285462,0.61103868,-0.30959997,0
-1.1030941,-2.1560476,-4.2020402,-0.22744209,-0.44454589,-0.86640006,0
-1.7612938,4.1630573,1.75764,-0.36315337,0.85836238,0.3624,0
-3.55269,-0.35526922,3.28248,-0.73251343,-0.073251389,0.67680001,0
0.73387456,2.2505488,-4.233079,0.15131435,0.46403068,-0.87279981,0
2.4063816,2.1313665,-3.6316807,0.49616116,0.43945703,-0.74880016,0
2.9116406,1.562344,-3.5502012,0.60033828,0.32213277,-0.73200023,0
-2.705164,3.6599283,1.6761599,-0.55776578,0.75462443,0.34559998,0
-0.57966721,4.7822552,0.56260043,-0.11951902,0.98603201,0.11600009,0
-2.0747049,-0.75443786,4.31844,-0.42777422,-0.15555421,0.89039999,0
-3.6599278,2.7051644,1.67616,-0.75462431,0.5577659,0.34560001,0
-4.442759,1.5319862,1.1989193,-0.91603279,0.31587344,0.24719986,0
2.5838439,0.91870028,-4.0002799,0.53275132,0.18942274,-0.82480001,0
-1.8944573,-0.75778282,4.39992,-0.39060977,-0.15624388,0.90720004,0
4.1112165,2.5517895,0.32979941,0.84767354,0.52614218,0.067999877,0
0.5752086,1.3421546,4.6249599,0.11859971,0.27673292,0.95359999,0
0.88233978,-3.0542531,-3.6627195,0.18192573,-0.62974292,-0.75519991,0
2.760668,0.920223,3.8800001,0.56920993,0.18973671,0.80000001,0
-0.89957476,2.3812275,-4.1283193,-0.18547933,0.49097475,-0.85119987,0
-1.3169098,-1.8812997,4.2718801,-0.2715278,-0.38789687,0.88080007,0
-3.0848415,-2.5707014,2.7198799,-0.63604981,-0.53004152,0.56079996,0
1.893424,-4.4630709,-0.13579941,0.39039671,-0.92022079,-0.027999878,0
1.0974299,-4.3897185,-1.7460003,0.22627421,-0.90509665,-0.36000007,0
0.93786907,4.5330343,1.4472395,0.19337507,0.93464625,0.2983999,0
-4.0593386,-2.618928,-0.43067986,-0.83697706,-0.53998518,-0.088799976,0
