-1.6042231,-4.1956606,-0.27000004,-0.35649404,-0.93236899,-0.06000001,0
-3.4003196,-0.97151989,2.7828,-0.75562656,-0.21589331,0.61839998,0
-4.2510161,-0.14658663,1.4687996,-0.94467026,-0.032574806,0.32639992,0
-3.6750515,0.1597847,2.5920002,-0.81667811,0.035507713,0.57600003,0
1.7322322,4.1307077,0.43199998,0.38494051,0.91793507,0.095999993,0
-3.4229357,0.48899034,2.8799999,-0.76065236,0.10866452,0.63999999,0
0.42244393,-4.3652577,1.008,0.093876429,-0.97005725,0.22400001,0
2.1317904,2.1317904,-3.3407991,0.47373119,0.47373119,-0.74239981,0
2.2199187,-1.536867,3.5999999,0.49331528,-0.341526,0.79999995,0
1.0544252,1.5816374,4.0788002,0.23431672,0.35147497,0.90640002,0
-0.17906138,-0.89530796,4.4063997,-0.03979142,-0.19895732,0.97919995,0
-3.5125892,1.1176419,2.5812001,-0.78057539,0.24836487,0.57360005,0
4.3411102,0.79967815,-0.87479985,0.96469116,0.17770626,-0.19439997,0
0.32237566,4.298346,-1.2923993,0.071639031,0.95518804,-0.28719985,0
3.2477665,2.1651776,-2.2392006,0.72172588,0.48115057,-0.49760014,0
2.4321589,-3.7061472,-0.77399951,0.54047978,-0.82358825,-0.17199989,0
-1.3745872,-0.43869808,-4.2624002,-0.30546382,-0.097488463,-0.94720006,0
0.13192895,4.4855886,0.33480066,0.029317545,0.99679744,0.074400149,0
-1.7503552,-1.0502133,4.0103998,-0.38896784,-0.23338073,0.89119995,0
-3.0354216,-2.4104817,-2.2859998,-0.67453814,-0.53566259,-0.50799996,0
-2.714839,3.5786517,-0.27000043,-0.60329753,0.7952559,-0.060000096,0
1.6555457,4.138865,-0.61560047,0.36789906,0.91974777,-0.13680011,0
-0.16159935,3.5551894,2.7539995,-0.035910968,0.7900421,0.61199987,0
2.6614544,-3.5019138,0.95040005,0.5914343,-0.77820307,0.21120001,0
0.88383502,1.4141355,4.1796002,0.19640778,0.31425232,0.92880005,0
-1.2619525,-3.3126256,-2.7720006,-0.28043389,-0.73613906,-0.61600012,0
-0.3229585,3.552542,2.7431996,-0.071768552,0.78945374,0.60959989,0
4.2732835,-1.3354011,0.4536002,0.94961858,-0.29675579,0.10080004,0
0.70838594,-1.4167718,-4.2120004,0.1574191,-0.31483817,-0.93600011,0
-2.7736359,-1.5948405,-3.1644001,-0.61636353,-0.35440901,-0.70320004,0
-3.6880066,-1.6075926,-2.0159996,-0.81955701,-0.35724279,-0.44799989,0
-4.3175993,0.10793988,-1.2636001,-0.95946652,0.023986639,-0.28080001,0
3.4033995,-2.9172001,-0.39599958,0.756311,-0.64826667,-0.08799991,0
0.79134494,4.055644,-1.7820007,0.17585443,0.90125424,-0.39600015,0
-0.61829925,-3.7981246,-2.3328001,-0.13739984,-0.8440277,-0.51840001,0
-4.3170953,-1.2697338,-0.021600045,-0.95935452,-0.28216305,-0.00480001,0
-4.3014789,1.3034787,0.21960023,-0.95588422,0.28966194,0.048800051,0
-0.39201999,-2.6321344,-3.6287999,-0.087115556,-0.58491874,-0.8064,0
-4.2711234,-0.85422474,1.1303997,-0.94913852,-0.18982773,0.25119993,0
3.880451,0.6208725,2.1924,0.86232245,0.13797167,0.48719999,0
0.35272619,1.6930853,-4.1544008,0.078383595,0.37624118,-0.92320019,0
-4.0742521,-1.3938231,-1.3067998,-0.90538937,-0.30973849,-0.29039994,0
-1.7425191,-3.9206676,1.3572004,-0.38722646,-0.87125945,0.3016001,0
3.5932529,1.6584245,-2.1419997,0.79850066,0.36853877,-0.47599995,0
-0.13192895,-4.4855886,0.33479992,-0.029317545,-0.99679744,0.074399978,0
0.74824542,-1.3406063,-4.2300005,0.16627675,-0.29791251,-0.94000012,0
1.21013,-4.3026853,0.52200031,0.26891777,-0.95615226,0.11600007,0
2.3176398,3.6213119,1.3283997,0.5150311,0.80473596,0.29519993,0
-3.0850973,1.6196759,-2.8475997,-0.68557715,0.35992798,-0.63279992,0
1.7238514,-3.4477024,2.3219998,0.3830781,-0.76615608,0.51599997,0
4.4052219,0.80094951,0.45000038,0.97893822,0.17798878,0.10000008,0
-3.1449127,0.82760882,3.1104,-0.69886947,0.18391307,0.69120002,0
-3.656693,2.6119232,0.23760015,-0.81259847,0.58042741,0.052800033,0
3.6195312,1.9605792,1.8179998,0.80434024,0.43568426,0.40399995,0
-1.6341901,-3.8626304,1.6308,-0.36315334,-0.85836232,0.3624,0
-2.9924512,2.3624611,2.3904002,-0.66498917,0.52499133,0.53120005,0
-4.4017859,-0.55022311,0.75600016,-0.97817463,-0.12227181,0.16800004,0
-3.5019138,-2.6614544,0.95040005,-0.77820307,-0.5914343,0.21120001,0
1.3468428,-2.3008561,-3.6252,0.29929841,-0.51130134,-0.80559999,0
-4.3170953,-1.2697338,-0.021600045,-0.95935452,-0.28216305,-0.00480001,0
1.9649537,3.9299073,0.97200072,0.43665636,0.87331271,0.21600015,0
-2.7570691,-3.5448027,0.28800026,-0.61268204,-0.78773391,0.064000055,0
0.50275081,3.0165079,3.3011999,0.1117224,0.67033505,0.73359996,0
-3.1967268,-1.2939131,-2.8908002,-0.71038371,-0.28753626,-0.64240003,0
2.1085155,3.9689701,-0.22680004,0.468559,0.88199335,-0.050400008,0
-2.5492549,-0.43391582,-3.6828001,-0.56650108,-0.096425742,-0.81840003,0
1.9853194,-0.3308866,-4.0248008,0.44118208,-0.073530354,-0.89440018,0
-3.706147,-2.4321592,-0.77399999,-0.82358819,-0.54047984,-0.17199999,0
1.760323,0.52809632,4.1075997,0.3911829,0.11735474,0.91279995,0
3.5125895,-1.1176419,2.5811996,0.78057545,-0.24836487,0.57359993,0
0.50720417,4.1590734,-1.6416008,0.11271204,0.9242385,-0.36480018,0
0.59566832,0.47347999,-4.4351997,0.13237074,0.10521778,-0.98559994,0
-2.2335789,-2.7919736,-2.7323999,-0.49635088,-0.62043858,-0.60719997,0
-1.3787955,2.068193,3.7512,-0.30639899,0.45959842,0.83359998,0
3.6158109,1.257673,2.3651998,0.80351353,0.2794829,0.52559996,0
-1.8688753,-0.51692295,-4.0608001,-0.41530561,-0.11487177,-0.90240002,0
-4.3086572,-0.90708584,-0.92879993,-0.95747936,-0.20157462,-0.20639998,0
0.2876395,-4.3145967,1.2455997,0.063919887,-0.95879924,0.27679995,0
3.4081373,2.8628352,0.66240031,0.75736386,0.63618559,0.14720006,0
0.74019206,4.1450744,1.5876006,0.16448712,0.92112762,0.35280013,0
2.5705357,0.51410675,3.6576004,0.57123017,0.11424594,0.81280011,0
3.4598119,-2.2563989,1.7855996,0.76884711,-0.50142199,0.39679992,0
3.9689703,-2.1085153,-0.22679968,0.88199341,-0.46855894,-0.050399929,0
-3.5241776,-0.96113938,2.628,-0.78315055,-0.21358652,0.58399999,0
3.4870286,2.8412831,0.13319992,0.77489525,0.63139623,0.029599981,0
2.2327251,-1.9775565,-3.3696008,0.49616113,-0.439457,-0.74880016,0
-1.4029611,-3.7412295,-2.0700002,-0.31176913,-0.83138436,-0.46000004,0
-1.6099693,3.2199385,-2.6999991,-0.35777095,0.7155419,-0.59999979,0
-0.2820895,-4.372385,1.0259999,-0.062686555,-0.97164112,0.22799999,0
3.6899984,1.5374995,2.0663996,0.81999964,0.34166658,0.45919991,0
1.5815233,4.0256948,1.2420005,0.35144961,0.89459884,0.27600011,0
-2.7471914,-2.262393,2.7540002,-0.61048698,-0.50275397,0.61200005,0
2.063174,-3.9973991,0.11879964,0.4584831,-0.88831091,0.02639992,0
0.63670182,-3.6610334,2.5380001,0.1414893,-0.81356299,0.56400001,0
-0.85240239,-2.3973815,-3.7115996,-0.18942276,-0.53275144,-0.8247999,0
-1.6402731,-2.9524918,2.9735999,-0.36450514,-0.65610927,0.66079998,0
-3.3223338,2.7445366,1.2960002,-0.73829639,0.60989702,0.28800005,0
1.1966683,2.3933365,3.6180003,0.26592627,0.53185254,0.80400008,0
-0.82921207,3.8696566,-2.1420004,-0.18426935,0.85992366,-0.4760001,0
3.4081373,2.8628352,0.66240031,0.75736386,0.63618559,0.14720006,0
3.3606033,2.6254714,-1.4363998,0.74680072,0.5834381,-0.31919995,0
-0.74658138,-3.9195516,-2.0808005,-0.16590697,-0.8710115,-0.46240011,0
-1.648407,-4.1210175,0.74159968,-0.36631265,-0.91578168,0.16479993,0
3.8995457,-1.0462197,-1.9872009,0.8665657,-0.23249327,-0.4416002,0
0.96531051,-3.9577723,-1.9116001,0.21451345,-0.87950492,-0.42480004,0
-4.2983456,0.32237563,-1.2924001,-0.95518792,0.071639031,-0.28720003,0
3.1761918,2.7663605,-1.5839996,0.70582038,0.61474681,-0.35199991,0
1.6540427,2.8118722,3.0995996,0.36756504,0.62486053,0.68879992,0
-2.7261295,0.34076586,3.5640001,-0.60580659,0.075725749,0.79200006,0
-4.1155543,1.0288885,1.5012,-0.91456765,0.22864188,0.33359998,0
3.9646575,1.8407339,1.0692006,0.88103503,0.40905198,0.23760015,0
-1.6734767,0.10245766,-4.1760001,-0.37188372,0.022768369,-0.92800003,0
4.0550513,-1.6896046,-0.97560042,0.90112251,-0.37546769,-0.21680009,0
3.6079113,-2.6458015,-0.48240024,0.80175805,-0.58795589,-0.10720006,0
2.2093856,0.83465689,-3.8303998,0.49097458,0.18547931,-0.85119992,0
3.9793568,-2.0499716,-0.46079946,0.88430148,-0.45554924,-0.10239988,0
-1.5374992,3.6899984,2.0663998,-0.34166649,0.81999964,0.45919997,0
4.0912762,-1.8596711,-0.23039967,0.90917248,-0.41326025,-0.051199928,0
-3.0386391,-0.96683961,-3.1751997,-0.67525315,-0.21485324,-0.70559996,0
0.35088426,-1.9298655,4.0499997,0.077974282,-0.428859,0.89999992,0
1.6291742,-3.8692882,-1.6200001,0.36203873,-0.85984182,-0.36000001,0
-3.7484283,0.17038295,-2.484,-0.83298409,0.037862878,-0.55199999,0
-4.3601379,1.057003,0.34920049,-0.96891952,0.23488957,0.077600107,0
1.3667108,3.5021961,-2.473201,0.3037135,0.77826577,-0.54960024,0
2.8541782,-1.007357,3.3299997,0.63426185,-0.2238571,0.73999995,0
-0.097599082,4.0991654,-1.8540004,-0.021688685,0.91092563,-0.41200009,0
0.81179821,-3.4095516,2.8223999,0.1803996,-0.75767815,0.62719995,0
3.5560715,0,2.7575996,0.79023814,0,0.61279988,0
3.1376727,0.34105149,-3.2075994,0.69726062,0.075789221,-0.71279985,0
-2.4621871,-2.2980409,2.9844,-0.5471527,-0.51067573,0.66320002,0
-3.3461008,1.5933816,2.5523996,-0.74357796,0.35408482,0.56719995,0
3.9286923,1.4102997,-1.6811994,0.87304276,0.31339991,-0.37359989,0
-0.5380525,-0.5380525,4.4352002,-0.11956722,-0.11956722,0.98560005,0
0.53891844,0.17963947,4.4640002,0.11975965,0.039919883,0.99200004,0
-1.613507,-4.1682262,0.5219999,-0.35855711,-0.92627251,0.11599997,0
2.2420082,-1.0347731,3.7620001,0.49822405,-0.22994958,0.83600003,0
3.1489916,-2.699136,1.7460003,0.69977593,-0.59980798,0.38800007,0
0.86437511,-2.2473748,3.8016,0.19208336,-0.49941662,0.8448,0
-3.3600845,2.986742,-0.19799979,-0.74668545,0.66372043,-0.043999955,0
-2.5747676,-3.1805956,1.872,-0.57217056,-0.70679903,0.41600001,0
3.6759846,0,2.5955997,0.81688547,0,0.57679993,0
2.2473748,-0.86437511,3.8016,0.49941662,-0.19208336,0.8448,0
0.34945938,-4.4264894,-0.73079979,0.07765764,-0.98366427,-0.16239995,0
-0.13119015,1.6070796,-4.2012005,-0.029153368,0.3571288,-0.93360013,0
0,4.1756024,1.6776006,0,0.92791164,0.37280014,0
3.0918109,2.4734492,2.1383998,0.68706912,0.54965538,0.47519997,0
0.45891121,0.78932732,-4.4064002,0.10198027,0.17540607,-0.97920007,0
-2.70418,3.4158063,1.1267998,-0.6009289,0.75906807,0.25039995,0
0.89530796,0.17906138,4.4063997,0.19895732,0.03979142,0.97919995,0
0.16331451,-3.4296081,2.9087999,0.036292113,-0.76213515,0.64639997,0
0.49633044,-4.4669719,-0.22320043,0.11029565,-0.9926604,-0.049600095,0
-0.74824542,-1.3406063,-4.2300005,-0.16627675,-0.29791251,-0.94000012,0
-3.2270141,-3.0925548,0.52200001,-0.71711421,-0.6872344,0.116,0
-0.43869808,4.2407484,1.4399996,-0.097488463,0.94238853,0.3199999,0
-4.2327185,1.1287246,1.0295998,-0.94060409,0.25082767,0.22879995,0
0.1755529,1.931084,4.0608001,0.039011758,0.42912978,0.90240002,0
-1.5530069,4.0942907,1.0367994,-0.34511265,0.90984237,0.23039988,0
-1.8830439,-2.2596526,-3.4056005,-0.4184542,-0.50214505,-0.75680012,0
3.281848,2.8537805,1.1555998,0.72929955,0.63417345,0.25679997,0
-1.0643344,1.0643344,4.2407999,-0.23651876,0.23651876,0.94239998,0
-0.17144457,-1.4001305,-4.2732005,-0.038098793,-0.31114012,-0.9496001,0
3.552542,0.32295802,2.7431996,0.78945374,0.071768448,0.60959989,0
0.30265674,-4.0858698,1.8612005,0.067257054,-0.90797108,0.41360009,0
2.3851864,2.8622243,2.5236001,0.53004146,0.63604987,0.56080002,0
4.0550513,1.6896044,-0.97560012,0.90112251,0.37546766,-0.21680003,0
-0.5380525,-0.5380525,4.4352002,-0.11956722,-0.11956722,0.98560005,0
2.0023732,-4.0047474,0.44999999,0.44497183,-0.88994384,0.099999994,0
0.90684986,-4.4046998,0.16199996,0.20152219,-0.97882217,0.035999991,0
3.9456558,2.1637468,-2.5749208e-07,0.8768124,0.48083264,-5.7220461e-08,0
2.494153,-3.7412298,-0.18000008,0.5542562,-0.83138442,-0.040000018,0
-0.42814273,4.2814279,-1.3175993,-0.095142826,0.95142841,-0.29279983,0
-2.3125625,3.2375867,2.1024003,-0.51390278,0.71946371,0.46720007,0
1.7789176,-3.0726752,2.7647998,0.39531502,-0.68281674,0.61439997,0
-3.6300032,1.1047835,2.4192002,-0.80666739,0.24550745,0.53760004,0
4.4805756,0.26356304,0.32400066,0.99568343,0.058569565,0.072000146,0
-3.6158106,-1.2576735,2.3652,-0.80351347,-0.27948299,0.52560002,0
-0.4984408,3.1567914,3.168,-0.11076462,0.70150924,0.704,0
-1.3046114,4.1312695,-1.2167999,-0.28991365,0.91805989,-0.27039996,0
3.9646575,-1.8407339,1.0692006,0.88103503,-0.40905198,0.23760015,0
-4.1590738,-0.50720423,-1.6415999,-0.92423862,-0.11271206,-0.36479998,0
1.2653322,3.8933301,-1.8683993,0.28118494,0.86518449,-0.41519985,0
2.2808435,-2.6066785,2.8728001,0.50685412,-0.5792619,0.63840002,0
1.2653321,-3.8933296,-1.8684001,0.28118491,-0.86518437,-0.41520002,0
-2.6238048,-2.1318414,2.97,-0.58306772,-0.47374254,0.66000003,0
4.2024474,1.4911913,0.60479981,0.93387723,0.33137584,0.13439995,0
-0.51057851,2.7230856,3.5459998,-0.11346189,0.60513014,0.78799993,0
1.2206864,-3.4179227,-2.6604002,0.27126366,-0.75953841,-0.59120005,0
0.17938678,0.71754819,4.4387999,0.039863728,0.15945515,0.98639995,0
2.0928607,0.52321464,3.9491999,0.46508014,0.11626992,0.87759995,0
-4.372385,0.28208908,1.026,-0.97164112,0.062686466,0.228,0
3.946641,-0.091782257,-2.1600003,0.87703133,-0.020396058,-0.48000008,0
-1.3344693,-2.8357465,3.2292001,-0.29654872,-0.63016587,0.71760005,0
-1.0719782,0.17866287,4.3667998,-0.23821738,0.039702859,0.97039998,0
-1.3197815,-2.7715416,-3.2904003,-0.29328477,-0.61589813,-0.73120004,0
-0.64398766,3.5419316,-2.7,-0.14310837,0.7870959,-0.60000002,0
0.98131543,3.2710509,2.9304001,0.21807009,0.72690022,0.65120006,0
0.88383502,-1.4141359,4.1795998,0.19640778,-0.31425244,0.92879993,0
1.1130933,4.2297535,-1.0584,0.24735406,0.93994522,-0.2352,0
0.53566259,-3.8389151,-2.2860003,0.11903613,-0.85309225,-0.50800008,0
1.7758549,-3.8650956,-1.4688003,0.39463443,-0.85891014,-0.32640007,0
2.0118818,-4.0237627,-0.10800014,0.44708484,-0.89416951,-0.02400003,0
-2.7300725,2.8210747,-2.1996002,-0.60668278,0.6269055,-0.48880005,0
-3.9482825,-1.6085598,1.4400003,-0.87739611,-0.35745776,0.32000005,0
-2.6323113,2.9419951,2.1600001,-0.58495808,0.65377671,0.48000002,0
2.6416106,1.6933402,-3.2255995,0.58702457,0.37629783,-0.71679991,0
0.51094663,4.4707813,0.032399338,0.1135437,0.99350697,0.0071998527,0
3.9932148,-1.9277586,0.76679969,0.88738108,-0.4283908,0.17039993,0
-0.794043,3.6525972,2.5055997,-0.17645401,0.81168824,0.55679995,0
4.2405496,-1.457689,0.37800005,0.94234437,-0.32393089,0.084000014,0
1.0856508,1.5509297,-4.0823989,0.24125573,0.34465104,-0.90719974,0
-2.3118699,-3.807786,0.63720012,-0.51374888,-0.84617466,0.14160003,0
1.7564534,2.9783337,-2.8799999,0.39032298,0.66185194,-0.63999999,0
-2.5737331,3.6767616,-0.32760039,-0.57194066,0.81705815,-0.072800085,0
2.0950887,-0.34918162,3.9672,0.46557528,-0.077595919,0.88160002,0
-0.81179821,-3.4095516,2.8223999,-0.1803996,-0.75767815,0.62719995,0
-4.045404,1.9574531,0.2304002,-0.89897865,0.43498957,0.051200047,0
2.251756,-0.69284791,3.8340001,0.50039023,-0.1539662,0.852,0
-3.6498566,2.5684178,0.57600039,-0.81107926,0.57075953,0.12800008,0
1.1297921,-3.3893766,2.7359998,0.2510649,-0.75319481,0.60799998,0
3.7692704,-1.6584792,1.8143998,0.83761567,-0.36855093,0.40319997,0
0.79627597,-1.9906898,-3.9563997,0.17695022,-0.44237551,-0.87919992,0
3.778841,-2.3617756,-0.62639964,0.83974242,-0.52483904,-0.13919991,0
-1.0022236,-4.3847275,-0.14039992,-0.22271636,-0.97438389,-0.031199982,0
0.25668758,-4.4920368,0.075600177,0.057041686,-0.9982304,0.016800039,0
1.007357,-2.8541777,3.3300002,0.2238571,-0.63426173,0.74000001,0
-0.41365552,-4.4123254,0.78120017,-0.091923445,-0.98051673,0.17360003,0
4.3881974,-0.68565607,0.72360015,0.975155,-0.15236801,0.16080004,0
-0.50679511,2.8718393,3.4271998,-0.11262114,0.63818651,0.76159996,0
-2.833843,0.8186658,-3.3983996,-0.62974286,0.18192573,-0.75519991,0
-3.3881011,-2.0145466,-2.1708002,-0.75291133,-0.44767702,-0.48240006,0
-3.7412298,1.0911919,2.2499998,-0.83138442,0.24248709,0.49999994,0
4.3552608,-0.56196898,0.98279995,0.96783572,-0.124882,0.21839999,0
-4.1694155,1.5056221,-0.77400035,-0.9265368,0.33458269,-0.17200008,0
-3.4003196,0.97151989,2.7828,-0.75562656,0.21589331,0.61839998,0
-2.4299333,3.7663968,-0.39959988,-0.53998518,0.83697706,-0.088799976,0
2.0882573,3.5798702,-1.7532001,0.46405718,0.79552674,-0.38960001,0
2.5747681,3.1805952,1.8720001,0.57217067,0.70679891,0.41600001,0
1.2473363,-0.17819074,4.3200002,0.27718583,-0.039597943,0.96000004,0
-4.426753,0.78119171,0.2087999,-0.98372293,0.17359816,0.046399977,0
-4.4243398,-0.1382605,0.81000018,-0.9831866,-0.030724555,0.18000004,0
-0.60325503,-4.0719724,1.8180004,-0.13405667,-0.90488273,0.4040001,0
-4.2715788,1.0116894,-0.98999971,-0.94923973,0.22481987,-0.21999994,0
-1.3031951,4.2650018,-0.60120046,-0.28959891,0.94777817,-0.1336001,0
-1.2939131,-3.1967268,-2.8908002,-0.28753626,-0.71038371,-0.64240003,0
-2.34238,2.0077546,3.276,-0.52052891,0.44616768,0.72799999,0
2.2808433,2.6066787,2.8727999,0.50685406,0.57926196,0.63839996,0
-2.9473319,0.78595525,-3.3083997,-0.65496266,0.17465672,-0.73519993,0
1.378795,2.068193,3.7512,0.3063989,0.45959842,0.83359998,0
1.9605792,-3.6195312,1.8179998,0.43568426,-0.80434024,0.40399995,0
3.1176913,2.3382683,2.2500005,0.69282031,0.51961517,0.50000012,0
2.8770514,0.16923814,3.4559999,0.63934475,0.037608474,0.76799995,0
2.077203,-3.0359123,2.592,0.46160066,-0.67464715,0.57599998,0
1.9796728,2.639564,3.0599997,0.43992728,0.58656979,0.67999995,0
-3.1431527,3.0002818,1.1700003,-0.6984784,0.66672927,0.26000008,0
0.39201975,2.632133,-3.6288009,0.087115496,0.58491844,-0.80640018,0
-1.7399585,-1.3919672,3.9096,-0.38665745,-0.30932605,0.86879998,0
1.1176419,-3.5125892,2.5812001,0.24836487,-0.78057539,0.57360005,0
0.87018782,-4.2059078,1.3427995,0.19337507,-0.93464619,0.2983999,0
3.7484283,0.17038295,-2.484,0.83298409,0.037862878,-0.55199999,0
-4.2214632,0.10296242,-1.5551999,-0.93810296,0.022880537,-0.34559998,0
-2.0202637,-1.7396715,-3.6252005,-0.44894749,-0.38659367,-0.80560011,0
-3.60133,-1.9466647,-1.8684,-0.80029559,-0.43259215,-0.4152,0
-0.5247609,4.4604683,0.28080067,-0.11661354,0.99121517,0.062400147,0
-0.18136285,-2.8413513,-3.4847999,-0.040302858,-0.63141137,-0.7744,0
-2.150764,-2.9779813,-2.5992002,-0.47794756,-0.66177362,-0.57760006,0
0.46438631,4.4116673,-0.75599992,0.10319696,0.98037052,-0.16799998,0
0.6290018,-3.774009,2.3687997,0.13977818,-0.83866864,0.52639991,0
-1.1052587,-4.0191221,-1.6956003,-0.24561304,-0.89313823,-0.37680006,0
2.4130197,-0.050271194,-3.7980006,0.53622657,-0.011171376,-0.8440001,0
3.5973239,1.3160938,-2.3616004,0.79940534,0.2924653,-0.52480006,0
-2.0077546,2.34238,3.276,-0.44616768,0.52052891,0.72799999,0
0.070176817,1.7193338,-4.1580005,0.015594848,0.38207418,-0.92400008,0
-2.1895578,-2.0607603,-3.3479998,-0.48656839,-0.45794672,-0.74399996,0
-2.6830459,2.6830459,-2.4192002,-0.59623241,0.59623241,-0.53760004,0
-0.27007213,-4.4561877,0.56520039,-0.060016029,-0.99026394,0.12560008,0
-4.2327185,-1.1287251,1.0295997,-0.94060409,-0.25082779,0.22879992,0
1.82261,-3.64522,1.9079998,0.40502444,-0.81004888,0.42399994,0
-3.2199378,1.6099694,2.7,-0.71554172,0.35777098,0.60000002,0
3.0386391,-0.96683961,-3.1751997,0.67525315,-0.21485324,-0.70559996,0
-1.3031951,4.2650018,-0.60120046,-0.28959891,0.94777817,-0.1336001,0
-0.69284791,-2.251756,3.8340001,-0.1539662,-0.50039023,0.852,0
-0.99424547,-2.9164534,-3.2795999,-0.22094344,-0.64810073,-0.7288,0
-2.8526974,3.4728489,-0.22679925,-0.63393277,0.77174419,-0.050399832,0
4.0256948,1.5815233,1.2420005,0.89459884,0.35144961,0.27600011,0
1.457689,4.2405496,0.37800005,0.32393089,0.94234437,0.084000014,0
1.6085598,3.9482825,1.4400003,0.35745776,0.87739611,0.32000005,0
0.50275081,-3.0165079,3.3011999,0.1117224,-0.67033505,0.73359996,0
-4.3727331,0.33636379,-1.0079995,-0.97171849,0.07474751,-0.2239999,0
3.1417091,2.1991961,2.3544004,0.69815755,0.48871025,0.52320009,0
1.7193338,0.070176817,-4.1580005,0.38207418,0.015594848,-0.92400008,0
3.9700084,-0.76346338,1.9764001,0.88222408,-0.16965853,0.43920004,0
-1.8980229,3.6961501,-1.728,-0.42178285,0.82136667,-0.384,0
-0.13192895,-4.4855886,0.33479992,-0.029317545,-0.99679744,0.074399978,0
2.9753947,2.8762152,-1.7676007,0.66119885,0.63915896,-0.39280015,0
-3.2487879,-1.2995155,2.8296001,-0.72195286,-0.28878123,0.62880003,0
1.1223688,3.8347602,-2.0700009,0.24941529,0.85216892,-0.46000019,0
3.1805952,2.5747681,1.8720001,0.70679891,0.57217067,0.41600001,0
2.6254714,3.3606033,-1.4363998,0.5834381,0.74680072,-0.31919995,0
-3.2829158,2.8451936,-1.1736001,-0.72953683,0.63226527,-0.2608,0
1.8407339,-3.9646575,1.0692,0.40905198,-0.88103503,0.23760001,0
-0.12849516,4.4973354,0.086399406,-0.028554479,0.99940789,0.019199869,0
-2.0950887,-0.34918162,3.9672,-0.46557528,-0.077595919,0.88160002,0
-1.4064901,-4.21947,-0.68400043,-0.31255335,-0.93765998,-0.1520001,0
1.7098218,-0.91455579,-4.0608001,0.37996042,-0.20323461,-0.90240002,0
3.148566,2.6566026,-1.8107995,0.69968134,0.59035611,-0.4023999,0
-4.21947,-1.4064901,-0.68400043,-0.93765998,-0.31255335,-0.1520001,0
3.1371167,0.69713724,-3.1499999,0.69713706,0.15491939,-0.69999999,0
-4.1315703,-0.88533658,1.548,-0.91812676,-0.19674146,0.34399998,0
2.565465,-0.6692518,-3.6359994,0.57010335,-0.14872262,-0.80799985,0
-0.16789266,3.0220709,3.3299999,-0.037309483,0.67157131,0.74000001,0
0.035638131,-1.7462702,-4.1472001,0.0079195844,-0.38806003,-0.92160004,0
-0.17702322,-1.5932106,4.2048001,-0.039338492,-0.35404679,0.93440002,0
0.45257032,3.3942773,-2.9195995,0.10057119,0.75428385,-0.6487999,0
-0.0011791765,0.0015722351,-4.4999995,-0.00026203922,0.00034938558,-0.99999988,0
-2.150764,2.9779813,-2.5992002,-0.47794756,0.66177362,-0.57760006,0
-2.5724764,-3.6248531,-0.70200002,-0.57166141,-0.80552292,-0.156,0
-0.71769214,0,4.4424,-0.15948714,0,0.98720002,0
-3.0354216,-2.4104817,-2.2859998,-0.67453814,-0.53566259,-0.50799996,0
2.2662511,2.3370714,-3.1067994,0.50361133,0.51934922,-0.69039989,0
-4.0942907,-1.5530069,1.0367994,-0.90984237,-0.34511265,0.23039988,0
1.3526754,3.9077299,1.7748003,0.30059454,0.86838442,0.39440006,0
2.9524918,1.6402735,2.9735997,0.65610927,0.3645052,0.66079992,0
1.8616215,2.2000978,3.4559999,0.41369367,0.48891062,0.76799995,0
-3.0765891,-1.1447773,-3.0780001,-0.68368649,-0.25439495,-0.68400002,0
2.7736361,1.594841,-3.1643996,0.61636358,0.3544091,-0.70319992,0
0.73031253,1.7296876,-4.0895996,0.16229168,0.38437501,-0.90879989,0
-4.4609361,0.13517976,0.57600039,-0.99131912,0.030039946,0.12800008,0
-0.035638131,1.7462702,-4.1472001,-0.0079195844,0.38806003,-0.92160004,0
3.6747942,2.0415521,-1.6056002,0.81662095,0.45367825,-0.35680005,0
4.2595778,-0.53244734,-1.3499993,0.94657284,-0.11832163,-0.29999983,0
1.8530725,0.34745097,-4.0860004,0.41179389,0.077211328,-0.90800011,0
1.2383946,-1.0614812,4.1940002,0.27519882,-0.23588473,0.93200004,0
3.6435452,2.6384289,-0.11520012,0.80967671,0.58631754,-0.025600027,0
3.8131187,-0.90788531,-2.2104003,0.84735972,-0.20175229,-0.49120009,0
1.7387662,1.5455699,-3.8520002,0.38639247,0.34345996,-0.85600007,0
-1.1520561,3.1270099,3.0240002,-0.25601247,0.6948911,0.67200005,0
0.82892287,4.3814502,-0.60480011,0.18420509,0.97365558,-0.13440003,0
4.4894757,-0.24941544,-0.18000038,0.99766129,-0.055425655,-0.040000085,0
-4.4297762,0.59861857,-0.51840019,-0.98439473,0.13302635,-0.11520004,0
1.4029626,-0.62353891,-4.2299995,0.31176946,-0.1385642,-0.93999988,0
1.4109058,-1.0581796,4.1399999,0.31353462,-0.23515102,0.91999996,0
2.2159135,-3.9104352,0.21959955,0.49242523,-0.86898559,0.048799898,0
-1.3542129,2.5391483,3.4596002,-0.30093619,0.56425518,0.76880002,0
1.1052587,-4.0191221,-1.6956003,0.24561304,-0.89313823,-0.37680006,0
3.2868609,0.65737259,3.0024002,0.73041356,0.1460828,0.66720003,0
-2.7019074,0.34492436,-3.582,-0.60042387,0.07664986,-0.796,0
-0.79418856,-0.3280344,-4.4172001,-0.17648634,-0.072896533,-0.98160005,0
1.5455699,1.7387662,-3.8520002,0.34345996,0.38639247,-0.85600007,0
0.94820821,1.5929899,-4.1004004,0.21071294,0.35399777,-0.91120011,0
2.035449,-3.1379838,-2.5020003,0.45232201,-0.69732976,-0.55600005,0
1.8408219,3.7839117,-1.5948002,0.40907153,0.84086925,-0.35440004,0
2.4642992,3.7612989,0.17279959,0.54762203,0.83584422,0.038399909,0
3.896075,0.15584286,2.2464001,0.86579442,0.034631744,0.49920002,0
3.2219903,2.7826276,1.4579996,0.71599787,0.61836171,0.32399991,0
2.8523703,-3.0024948,1.7604002,0.63386005,-0.66722107,0.39120004,0
1.3667108,3.5021961,-2.473201,0.3037135,0.77826577,-0.54960024,0
-2.2216053,3.0150361,2.4948001,-0.49369007,0.670008,0.55440003,0
-0.95194638,4.3517551,0.63720018,-0.21154363,0.96705669,0.14160004,0
-2.9279749,1.32456,-3.1500006,-0.65066111,0.29434669,-0.70000011,0
3.515811,0.15625812,-2.8043995,0.78129131,0.034724027,-0.62319988,0
-1.4716032,3.9733286,1.5156004,-0.32702291,0.88296193,0.3368001,0
-0.46011046,-3.9876235,2.0340002,-0.10224677,-0.88613856,0.45200002,0
-2.9113364,3.3272414,0.83879972,-0.64696366,0.73938698,0.18639994,0
-1.0614812,-1.2383946,4.1940002,-0.23588473,-0.27519882,0.93200004,0
0.71476096,-4.4076924,-0.55800015,0.15883577,-0.97948718,-0.12400004,0
-2.9727261,-3.3294532,-0.57240003,-0.66060579,-0.73987848,-0.12720001,0
1.0455382,1.9168202,3.9347999,0.23234183,0.42596003,0.87439996,0
4.1301632,0.60441411,-1.6812007,0.91781402,0.13431424,-0.37360016,0
-1.9330156,-3.7173378,1.6416,-0.42955902,-0.82607508,0.36480001,0
-4.4297762,-0.59861857,-0.51840019,-0.98439473,-0.13302635,-0.11520004,0
-1.4109063,1.0581796,4.1399999,-0.31353474,0.23515102,0.91999996,0
3.4255242,-2.9180393,-0.028799452,0.76122761,-0.64845318,-0.0063998783,0
0.63639623,4.4547725,-6.4373017e-07,0.14142138,0.98994946,-1.4305115e-07,0
2.068193,-1.3787955,3.7512,0.45959842,-0.30639899,0.83359998,0
1.4698316,2.8696716,-3.1392004,0.32662925,0.63770479,-0.69760013,0
-4.4604683,-0.52476084,0.28079993,-0.99121517,-0.11661352,0.062399983,0
-1.0502132,1.7503558,4.0103998,-0.23338072,0.38896796,0.89119995,0
-1.5905728,0.53019041,4.1760001,-0.35346064,0.11782009,0.92800003,0
-3.5842154,2.4372666,1.2095999,-0.79649234,0.54161477,0.26879996,0
3.6213119,-2.3176396,1.3284,0.80473596,-0.51503104,0.29519999,0
2.7300725,-2.8210747,-2.1996002,0.60668278,-0.6269055,-0.48880005,0
3.1376727,0.34105149,-3.2075994,0.69726062,0.075789221,-0.71279985,0
-4.2374234,-1.4528309,-0.42839989,-0.94164968,-0.3228513,-0.095199972,0
0.93013161,3.1481378,-3.0779998,0.20669591,0.69958615,-0.68399996,0
-1.5602543,-1.7336158,3.8484001,-0.3467232,-0.38524795,0.85520005,0
-4.2471685,-0.29290831,1.4579996,-0.94381523,-0.065090738,0.32399991,0
-2.4132757,-3.2820551,-1.9116001,-0.53628349,-0.72934556,-0.42480004,0
3.1371169,-0.69713706,-3.1499996,0.69713712,-0.15491934,-0.69999993,0
-3.65431,1.4617243,-2.1816006,-0.81206888,0.32482761,-0.48480013,0
-2.4642992,3.7612989,0.17279959,-0.54762203,0.83584422,0.038399909,0
2.1501372,-3.3787875,2.052,0.47780827,-0.75084168,0.456,0
-0.74506974,-3.048012,-3.2255998,-0.16557105,-0.67733598,-0.71679997,0
2.3673937,-2.5201287,-2.8799996,0.52608752,-0.56002861,-0.63999993,0
-0.7250219,-1.1711893,-4.2840004,-0.16111597,-0.26026428,-0.95200008,0
0.17819074,1.2473363,4.3200002,0.039597943,0.27718583,0.96000004,0
3.1163921,3.2410479,-0.18359981,0.69253159,0.72023284,-0.04079996,0
-1.0435948,-0.17038284,-4.3740005,-0.23190996,-0.037862852,-0.97200012,0
-4.1146727,1.6001502,-0.8712002,-0.91437173,0.35558894,-0.19360004,0
-1.0750686,-3.3019969,-2.862,-0.23890413,-0.73377711,-0.63599998,0
0.73513192,-4.2007542,-1.4364002,0.16336265,-0.93350095,-0.31920004,0
-1.4075958,1.9605798,-3.7979996,-0.31279907,0.43568438,-0.84399992,0
1.0038773,-2.4539223,-3.6359999,0.22308384,-0.54531604,-0.80799997,0
2.0695462,3.9091425,-0.82799947,0.45989916,0.86869836,-0.18399988,0
-2.6788645,1.5068609,3.2868001,-0.59530324,0.33485797,0.73040003,0
-1.3344692,2.835747,3.2291996,-0.29654872,0.63016599,0.71759993,0
-2.4944859,-3.6283429,-0.92879981,-0.55433017,-0.80629843,-0.20639996,0
2.8940282,3.3570728,-0.77760047,0.64311737,0.7460162,-0.17280011,0
3.8710463,0.77420944,2.1599998,0.86023253,0.17204654,0.47999996,0
3.4328883,-2.4966462,-1.4939997,0.76286405,-0.55481029,-0.33199993,0
-0.34492418,2.701906,-3.582001,-0.076649815,0.60042357,-0.79600024,0
-1.1060852,4.2860794,0.80999988,-0.24579671,0.95246208,0.17999998,0
0.17819074,1.2473353,-4.3200002,0.039597943,0.27718562,-0.96000004,0
-1.1966683,2.3933365,3.6180003,-0.26592627,0.53185254,0.80400008,0
-2.1575024,-3.9104736,0.55079961,-0.47944498,-0.86899412,0.12239991,0
2.0423141,-1.8721213,3.5459998,0.45384756,-0.41602695,0.78799993,0
-3.6747942,-2.0415521,-1.6056002,-0.81662095,-0.45367825,-0.35680005,0
-1.3446857,2.6893713,3.3479996,-0.29881904,0.59763807,0.7439999,0
-3.7663968,2.4299333,-0.39959988,-0.83697706,0.53998518,-0.088799976,0
-1.6930878,0.3527267,-4.1543999,-0.37624174,0.078383714,-0.92319995,0
-3.2156088,0.6431216,-3.0815995,-0.71457976,0.1429159,-0.68479991,0
-2.7230852,-0.51057851,3.546,-0.60513002,-0.11346189,0.78799999,0
3.9630554,-0.66050911,-2.0268004,0.88067895,-0.14677981,-0.45040008,0
-0.51410723,-2.5705361,3.6575999,-0.11424605,-0.57123023,0.81279999,0
1.3656298,4.2334514,0.68039978,0.30347329,0.94076699,0.15119995,0
3.2565541,1.7535291,-2.5631993,0.72367871,0.38967311,-0.56959987,0
-4.3715324,0.81966239,0.68400013,-0.97145164,0.1821472,0.15200002,0
0.25443089,3.7316568,-2.5019999,0.056540199,0.82925707,-0.55599999,0
-4.0767961,-0.29119971,-1.8828005,-0.90595466,-0.064711049,-0.41840011,0
1.5757973,-3.4667532,2.3975999,0.35017717,-0.77038962,0.53279996,0
3.3566499,2.9538524,0.50759953,0.74592221,0.65641165,0.1127999,0
-2.8696718,-1.4698321,-3.1392,-0.63770485,-0.32662934,-0.69760001,0
1.2619526,-3.3126254,-2.7720008,0.28043392,-0.736139,-0.61600018,0
-2.7261295,0.34076586,3.5640001,-0.60580659,0.075725749,0.79200006,0
-1.3406063,-0.74824542,-4.2300005,-0.29791251,-0.16627675,-0.94000012,0
3.1767595,0.27624011,-3.1751993,0.70594656,0.06138669,-0.70559984,0
3.1379838,2.035449,-2.5020003,0.69732976,0.45232201,-0.55600005,0
3.4988775,-1.9858495,-2.0160003,0.77752835,-0.44129989,-0.44800007,0
-0.88658017,1.2412118,4.2336001,-0.19701782,0.27582484,0.94080001,0
4.4990997,0,0.0899994,0.99979997,0,0.019999867,0
0.18314043,3.9375229,-2.1708002,0.040697873,0.87500507,-0.48240006,0
2.7097242,-3.5344226,-0.6444006,0.60216093,-0.78542727,-0.14320013,0
1.9298655,-0.3508848,4.0499997,0.428859,-0.077974401,0.89999992,0
-0.98131543,3.2710509,2.9304001,-0.21807009,0.72690022,0.65120006,0
4.0800848,-0.45334283,1.8432003,0.90668553,-0.10074285,0.40960008,0
3.5946681,-0.57187897,-2.6459999,0.79881513,-0.12708421,-0.588,0
0.71435302,4.2861171,1.1699997,0.15874511,0.95247048,0.25999993,0
2.565465,0.6692518,-3.6359994,0.57010335,0.14872262,-0.80799985,0
1.5816374,-1.0544252,4.0788002,0.35147497,-0.23431672,0.90640002,0
2.7826276,3.2219903,1.4579996,0.61836171,0.71599787,0.32399991,0
0.35710806,1.0713252,4.3559999,0.079357348,0.23807226,0.96799999,0
-0.29790968,-4.1707335,1.6631999,-0.066202149,-0.92682964,0.36959997,0
-0.71711409,0.35855678,4.428,-0.15935868,0.079679281,0.98399997,0
0.50193936,1.2827339,-4.2839994,0.11154208,0.28505197,-0.9519999,0
-4.3325367,-1.181601,0.28800038,-0.96278596,-0.26257801,0.064000085,0
-3.760689,-2.2121699,-1.1015999,-0.83570868,-0.4915933,-0.24479999,0
-1.3919671,1.739959,3.9095998,-0.30932602,0.38665757,0.86879992,0
1.5905722,-0.53019094,4.1760001,0.35346049,-0.11782021,0.92800003,0
-3.5148575,1.9866586,1.9872003,-0.78107947,0.44147968,0.44160005,0
-2.1251588,3.4775329,-1.9080003,-0.47225749,0.77278507,-0.42400008,0
0.46952021,2.4519398,-3.7440009,0.10433783,0.5448755,-0.8320002,0
-3.3339343,0.8334837,-2.9052,-0.74087429,0.1852186,-0.64560002,0
-2.0950894,-0.30553386,-3.9707997,-0.46557543,-0.067896411,-0.88239992,0
0.30553386,-2.0950894,-3.9707997,0.067896411,-0.46557543,-0.88239992,0
2.7133212,0.84791291,3.4883997,0.60296029,0.18842509,0.77519995,0
0.61805838,4.4500194,-0.25560042,0.13734631,0.98889321,-0.056800094,0
3.6435452,2.6384289,-0.11520012,0.80967671,0.58631754,-0.025600027,0
0.58368897,-4.2317429,1.4147995,0.12970866,-0.94038731,0.31439987,0
3.7505071,-0.69776887,-2.3868003,0.83344603,-0.15505975,-0.53040004,0
0.703098,1.7577444,4.0823998,0.15624399,0.39060986,0.90719998,0
1.0149702,-2.7065871,3.4488001,0.22554892,-0.60146379,0.76640004,0
3.6878042,-2.0651703,1.5444001,0.81951207,-0.45892674,0.34320003,0
3.3226268,-2.4164555,1.8359996,0.73836154,-0.53699011,0.4079999,0
-1.9575528,4.0374527,-0.34199956,-0.43501174,0.89721173,-0.075999901,0
2.3383892,-0.49752954,-3.8124008,0.51964206,-0.11056212,-0.84720016,0
-2.5665627,0.68441707,3.6323998,-0.57034725,0.15209268,0.80719995,0
0.53805196,0.53805196,4.4352002,0.1195671,0.1195671,0.98560005,0
-3.9577723,0.96531051,-1.9116001,-0.87950492,0.21451345,-0.42480004,0
-1.2108798,-4.1830387,-1.1339999,-0.26908439,-0.92956418,-0.25199997,0
3.6781151,2.2717769,-1.249199,0.81735891,0.5048393,-0.27759978,0
-1.316094,3.5973237,-2.3616009,-0.29246533,0.79940528,-0.52480018,0
0.89789236,-0.24317916,-4.4028006,0.19953163,-0.054039814,-0.97840011,0
0.69713724,-3.1371167,-3.1499999,0.15491939,-0.69713706,-0.69999999,0
-0.13192895,-4.4855886,0.33479992,-0.029317545,-0.99679744,0.074399978,0
-1.6341901,3.8626304,1.6308,-0.36315334,0.85836232,0.3624,0
0.22481973,-4.3839889,-0.98999959,0.049959943,-0.97421974,-0.21999991,0
-3.9593453,-1.1878036,-1.7784002,-0.8798545,-0.26395637,-0.39520004,0
-0.27364737,-3.9222789,-2.1888003,-0.060810525,-0.87161756,-0.48640007,0
1.3446852,2.6893716,3.3479998,0.29881895,0.59763813,0.74399996,0
0,-4.4454737,-0.69839984,0,-0.98788303,-0.15519996,0
-0.47347999,-0.59566832,-4.4351997,-0.10521778,-0.13237074,-0.98559994,0
-1.6292858,-2.4439287,-3.4091995,-0.36206353,-0.54309529,-0.75759989,0
1.2535551,-2.0558302,-3.8016,0.27856779,-0.45685115,-0.8448,0
0.31548789,-3.7858584,2.4119999,0.070108421,-0.84130186,0.53600001,0
-3.5560713,0,2.7576001,-0.79023808,0,0.6128,0
1.068709,-0.7124725,4.3127999,0.23749089,-0.15832722,0.95840001,0
3.4120402,0.77546388,-2.8296001,0.75823116,0.17232531,-0.62880003,0
-4.232718,0.63490772,-1.3896002,-0.94060397,0.1410906,-0.30880004,0
0.10296242,-4.2214632,-1.5551999,0.022880537,-0.93810296,-0.34559998,0
-2.3954151,2.1840549,-3.1212001,-0.53231448,0.48534551,-0.6936,0
-1.8904629,3.3083096,2.3940003,-0.42010286,0.7351799,0.53200006,0
-4.164763,1.6919348,0.20520021,-0.9255029,0.3759855,0.045600045,0
4.3881974,-0.68565607,0.72360015,0.975155,-0.15236801,0.16080004,0
-2.419157,-3.1635132,-2.0951998,-0.53759044,-0.70300293,-0.46559995,0
0.76346338,3.9700084,1.9764001,0.16965853,0.88222408,0.43920004,0
-1.0570034,4.3601379,0.34920031,-0.23488964,0.96891952,0.077600069,0
4.0969958,1.1705701,1.4472007,0.91044354,0.26012671,0.32160014,0
-2.1184247,2.8245666,-2.79,-0.47076103,0.62768149,-0.62,0
2.9346247,3.2732356,-0.9612003,0.65213883,0.7273857,-0.21360007,0
2.896513,-2.3853638,-2.4839995,0.64366955,-0.53008085,-0.55199987,0
4.1825786,-0.40805632,-1.6092007,0.9294619,-0.090679184,-0.35760015,0
4.0969958,-1.1705706,1.4472005,0.91044354,-0.2601268,0.32160011,0
-3.7766178,2.0335634,1.3608003,-0.83924842,0.45190299,0.30240005,0
-3.3570728,2.8940282,-0.77760047,-0.7460162,0.64311737,-0.17280011,0
-1.5368675,-2.2199197,-3.5999992,-0.34152612,-0.49331549,-0.79999983,0
-0.7058937,-1.5882611,4.1508002,-0.15686527,-0.35294691,0.92240006,0
-3.2786496,-3.0054286,0.68399984,-0.72858882,-0.66787302,0.15199997,0
-0.53566259,3.8389151,-2.2860003,-0.11903613,0.85309225,-0.50800008,0
-3.2029884,-1.761644,2.6244001,-0.71177518,-0.39147645,0.58320004,0
1.1192935,-1.7650398,-3.9851997,0.24873188,-0.39223108,-0.88559991,0
2.881371,0.061305705,-3.456001,0.64030468,0.01362349,-0.76800025,0
-0.46653003,-3.8877499,2.2176001,-0.10367334,-0.86394441,0.49280003,0
-2.2893283,3.7773917,-0.86039943,-0.50873965,0.83942038,-0.19119987,0
3.0304391,2.6516342,-2.0087993,0.67343092,0.58925205,-0.44639984,0
2.3762944,-1.5276179,3.5028002,0.52806544,-0.33947065,0.77840006,0
-3.8863728,-1.4947587,1.7064003,-0.8636384,-0.33216861,0.37920007,0
0.43391544,2.5492539,-3.6828008,0.096425653,0.5665009,-0.81840014,0
-2.3954151,2.1840549,-3.1212001,-0.53231448,0.48534551,-0.6936,0
-3.8347604,1.1223689,-2.0699999,-0.85216898,0.24941532,-0.45999998,0
2.0244999,2.9962599,-2.6784,0.44988886,0.66583556,-0.5952,0
-0.82892287,-4.3814502,-0.60480011,-0.18420509,-0.97365558,-0.13440003,0
4.0191226,-1.1052589,-1.6955994,0.89313835,-0.2456131,-0.37679988,0
3.8922374,-2.0851276,0.8676005,0.86494166,-0.46336168,0.1928001,0
3.6248531,-2.5724764,-0.70200002,0.80552292,-0.57166141,-0.156,0
2.0244644,1.6414576,-3.6684003,0.44988096,0.36476836,-0.81520009,0
0.4984403,3.1567914,3.168,0.11076451,0.70150924,0.704,0
-4.4722085,0.39460626,0.30599996,-0.99382412,0.087690279,0.067999989,0
-1.9906898,0.79627597,-3.9563997,-0.44237551,0.17695022,-0.87919992,0
-2.9681187,2.4994688,2.2787998,-0.6595819,0.55543751,0.50639993,0
0.47261524,-3.7809258,2.3939998,0.10502561,-0.84020573,0.53199995,0
2.2258217,-3.5613155,1.6164001,0.49462706,-0.79140347,0.35920003,0
-4.426753,-0.78119171,0.2087999,-0.98372293,-0.17359816,0.046399977,0
-4.4950838,-0.12486332,-0.16920036,-0.99890751,-0.027747404,-0.037600081,0
-2.6659453,3.599026,0.43560055,-0.59243226,0.79978353,0.096800119,0
3.2868609,-0.65737212,3.0024002,0.73041356,-0.1460827,0.66720003,0
1.5455699,-1.7387662,-3.8520002,0.34345996,-0.38639247,-0.85600007,0
2.035449,3.1379838,-2.5020003,0.45232201,0.69732976,-0.55600005,0
3.3600845,2.986742,-0.19799979,0.74668545,0.66372043,-0.043999955,0
-2.1318414,-2.6238048,2.97,-0.47374254,-0.58306772,0.66000003,0
-3.1376717,-0.34105134,-3.2076004,-0.69726038,-0.075789183,-0.71280009,0
-3.5801234,2.6162441,0.76680022,-0.79558301,0.58138758,0.17040005,0
-4.2286792,-1.5377017,0.061200354,-0.9397065,-0.34171149,0.013600078,0
-4.3026853,-1.2101303,0.52200013,-0.95615226,-0.26891786,0.11600003,0
3.3281174,1.7433001,2.4768002,0.73958164,0.38740003,0.55040002,0
3.880451,-0.62087202,2.1924,0.86232245,-0.13797157,0.48719999,0
4.4894757,0.24941507,-0.18000035,0.99766129,0.055425569,-0.040000077,0
3.2410479,3.1163921,-0.18359981,0.72023284,0.69253159,-0.04079996,0
-1.8904629,3.3083096,2.3940003,-0.42010286,0.7351799,0.53200006,0
-0.14658663,-4.2510161,1.4687996,-0.032574806,-0.94467026,0.32639992,0
-4.4198384,-0.27624005,0.79920018,-0.98218632,-0.061386678,0.17760004,0
3.1604946,-0.3326838,3.1860001,0.70233214,-0.073929735,0.708,0
4.3170948,-1.2697339,-0.021599315,0.9593544,-0.28216308,-0.004799848,0
2.6416106,1.6933402,-3.2255995,0.58702457,0.37629783,-0.71679991,0
-1.1130929,-4.2297535,-1.0583998,-0.24735397,-0.93994522,-0.23519996,0
2.2121699,-3.760689,-1.1015999,0.4915933,-0.83570868,-0.24479999,0
-2.2473748,-0.86437511,3.8016,-0.49941662,-0.19208336,0.8448,0
-3.3606033,2.6254714,-1.4363998,-0.74680072,0.5834381,-0.31919995,0
-0.17938678,-0.71754766,4.4387999,-0.039863728,-0.15945503,0.98639995,0
0,4.4795618,-0.42840013,0,0.99545819,-0.095200032,0
-4.4228077,-0.67012256,0.48960036,-0.98284614,-0.14891613,0.10880008,0
2.6566026,-3.148566,-1.8107995,0.59035611,-0.69968134,-0.4023999,0
2.280844,-3.7063708,1.1447998,0.50685424,-0.82363796,0.25439996,0
3.7173378,-1.9330156,1.6416,0.82607508,-0.42955902,0.36480001,0
-3.1157682,-1.3119026,2.97,-0.69239295,-0.29153392,0.66000003,0
0.50275081,3.0165079,3.3011999,0.1117224,0.67033505,0.73359996,0
-1.0768392,3.845855,2.0736001,-0.2392976,0.85463446,0.46080002,0
2.2419653,3.7833154,0.95400006,0.49821451,0.84073675,0.21200001,0
-1.5174491,0.15484178,-4.2336006,-0.33721092,0.034409285,-0.94080013,0
3.3272417,2.9113359,0.83880013,0.73938704,0.64696354,0.18640003,0
-2.5684178,-3.6498566,0.57600039,-0.57075953,-0.81107926,0.12800008,0
-2.5201287,2.3673937,-2.8799996,-0.56002861,0.52608752,-0.63999993,0
1.7778676,2.2683136,-3.4560006,0.39508167,0.50406969,-0.76800013,0
-3.6064384,-1.8032192,-1.9979998,-0.80143076,-0.40071538,-0.44399995,0
-2.6238048,-2.1318414,2.97,-0.58306772,-0.47374254,0.66000003,0
0.77385867,-0.65167046,-4.3847995,0.17196859,-0.14481565,-0.97439986,0
4.1694698,-1.1501987,1.2419995,0.92654884,-0.25559971,0.2759999,0
-1.7322322,4.1307077,0.43199998,-0.38494051,0.91793507,0.095999993,0
-0.56398362,2.8825827,-3.4091992,-0.12532969,0.64057392,-0.75759983,0
-2.6811857,-3.4631979,-1.0332003,-0.59581906,-0.76959956,-0.22960006,0
-4.4894757,0.24941507,-0.18000035,-0.99766129,0.055425569,-0.040000077,0
-1.985957,3.7628663,-1.4652003,-0.44132379,0.83619249,-0.32560006,0
-3.788815,-0.15786713,2.4227998,-0.84195888,-0.035081584,0.53839993,0
-1.0038773,2.4539223,-3.6359999,-0.22308384,0.54531604,-0.80799997,0
-2.7097239,-3.5344229,-0.64440006,-0.60216087,-0.78542733,-0.14320001,0
2.3853631,1.3630645,3.5640001,0.53008068,0.30290323,0.79200006,0
-4.4969521,0,-0.16560037,-0.99932265,0,-0.036800083,0
-3.996402,0.15370762,2.0628002,-0.88808936,0.03415725,0.45840004,0
4.0912762,1.8596708,-0.23039934,0.90917248,0.41326016,-0.051199853,0
-3.0185094,3.2507024,-0.75599927,-0.67077988,0.72237831,-0.16799983,0
1.4495975,2.7015224,-3.2940013,0.32213277,0.60033828,-0.73200029,0
-3.1843214,1.910593,2.5416002,-0.707627,0.42457622,0.56480002,0
-3.6435452,2.6384289,-0.11520012,-0.80967671,0.58631754,-0.025600027,0
-0.84791291,2.7133212,3.4883997,-0.18842509,0.60296029,0.77519995,0
3.1761918,-2.7663605,-1.5839996,0.70582038,-0.61474681,-0.35199991,0
2.8244979,-1.4953223,3.1679997,0.62766623,-0.33229387,0.70399994,0
4.2769442,-1.1559308,-0.78840011,0.95043206,-0.25687349,-0.17520003,0
3.5551894,0.16159935,2.7539995,0.7900421,0.035910968,0.61199987,0
0,4.4969521,-0.16560037,0,0.99932265,-0.036800083,0
0.46652955,3.8877499,2.2176001,0.10367323,0.86394441,0.49280003,0
3.8207521,-1.3372632,-1.9655992,0.84905601,-0.2971696,-0.43679982,0
2.9210358,1.9473572,2.8151999,0.64911908,0.43274605,0.62559998,0
-4.101953,0,-1.8504004,-0.9115451,0,-0.41120011,0
0.30553356,2.0950875,-3.9708006,0.067896344,0.46557501,-0.88240016,0
-4.2983456,0.57311308,1.2023997,-0.95518792,0.12735847,0.26719993,0
2.5705357,0.51410675,3.6576004,0.57123017,0.11424594,0.81280011,0
3.6974347,-2.4649568,0.70920026,0.82165217,-0.54776818,0.15760006,0
3.9756455,-1.9878228,-0.70199919,0.88347679,-0.4417384,-0.15599982,0
4.3715324,0.81966239,0.68400013,0.97145164,0.1821472,0.15200002,0
1.6782657,1.6782657,-3.8231988,0.37294793,0.37294793,-0.84959972,0
-1.3712553,-2.2282894,3.6612,-0.30472338,-0.49517542,0.8136,0
2.394387,-3.3920481,-1.7352003,0.53208601,-0.75378847,-0.38560006,0
3.5992796,-2.6994603,0.090000451,0.79983991,-0.59988004,0.0200001,0
-0.45035994,-3.8730946,-2.2464004,-0.10007998,-0.86068767,-0.49920008,0
4.0719724,0.60325551,1.8180003,0.90488273,0.13405678,0.40400007,0
1.4716036,-3.9733284,1.5156002,0.32702303,-0.88296187,0.33680004,0
-1.8688753,-0.51692295,-4.0608001,-0.41530561,-0.11487177,-0.90240002,0
4.1890297,-1.011145,1.2959996,0.93089551,-0.22469889,0.28799993,0
0.76991266,-0.86323541,-4.3487997,0.17109171,-0.1918301,-0.96639991,0
0.69927156,-4.0957336,-1.7279998,0.15539367,-0.91016304,-0.38399994,0
2.524029,2.9747486,-2.242799,0.56089532,0.66105527,-0.49839979,0
0.12486332,4.4950838,-0.16920036,0.027747404,0.99890751,-0.037600081,0
0.1411823,4.3766556,1.0367999,0.031373844,0.97259015,0.23039998,0
-4.4920368,-0.25668797,0.075600132,-0.9982304,-0.057041772,0.016800029,0
4.3114462,-0.66329944,-1.1051996,0.95809913,-0.14739987,-0.24559991,0
0.71639132,-0.53729326,4.4099998,0.15919808,-0.1193985,0.97999996,0
-0.55022311,4.4017859,0.75600016,-0.12227181,0.97817463,0.16800004,0
3.23874,-2.9571102,1.0079995,0.71972001,-0.65713561,0.2239999,0
-0.091782257,3.946641,-2.1600003,-0.020396058,0.87703133,-0.48000008,0
3.2487879,1.299515,2.8296003,0.72195286,0.28878111,0.62880009,0
0.71754819,-0.17938678,4.4387999,0.15945515,-0.039863728,0.98639995,0
-1.4953223,2.8244979,3.1679997,-0.33229387,0.62766623,0.70399994,0
-3.639755,-0.49633023,-2.5992,-0.80883443,-0.11029561,-0.5776,0
0.30737311,-4.2007699,-1.5839999,0.068305135,-0.9335044,-0.35199997,0
-2.8102491,-3.372299,-0.99000025,-0.6244998,-0.74939978,-0.22000006,0
1.3446852,2.6893716,3.3479998,0.29881895,0.59763813,0.74399996,0
-4.1846852,1.3571953,-0.94680017,-0.92993003,0.30159894,-0.21040004,0
3.9534395,-2.0448823,0.66239947,0.87854213,-0.4544183,0.14719988,0
1.21013,4.3026853,0.52200031,0.26891777,0.95615226,0.11600007,0
2.5391483,1.3542124,3.4596004,0.56425518,0.3009361,0.76880008,0
1.4029613,3.7412302,-2.069999,0.31176916,0.83138448,-0.45999977,0
-1.2108798,-4.1830387,-1.1339999,-0.26908439,-0.92956418,-0.25199997,0
-4.3061538,-1.1961538,-0.52560031,-0.95692307,-0.26581195,-0.11680007,0
0.8823598,4.4117994,-0.086400568,0.19607995,0.98039985,-0.019200126,0
4.1315703,-0.88533664,1.5480006,0.91812676,-0.19674148,0.34400013,0
-1.8596711,4.0912762,-0.23039967,-0.41326025,0.90917248,-0.051199928,0
0.36175936,-4.4617028,-0.46080005,0.080390967,-0.99148953,-0.10240001,0
0.55596417,-4.3365197,-1.0655997,0.12354759,-0.96367103,-0.23679993,0
3.5786517,2.7148392,-0.2700009,0.7952559,0.60329759,-0.0600002,0
3.9700084,-0.76346338,1.9764001,0.88222408,-0.16965853,0.43920004,0
-2.7133207,0.84791291,3.4884,-0.60296017,0.18842509,0.77520001,0
4.298346,-0.57311261,1.2023997,0.95518804,-0.12735836,0.26719993,0
-0.51692235,1.8688732,-4.060801,-0.11487164,0.41530517,-0.90240026,0
1.068709,0.71247303,4.3127999,0.23749089,0.15832734,0.95840001,0
2.6667233,-1.8246,-3.1319997,0.59260517,-0.40546668,-0.69599992,0
-1.3031951,4.2650018,-0.60120046,-0.28959891,0.94777817,-0.1336001,0
2.8400419,-1.8684486,-2.9483998,0.63112044,-0.41521081,-0.65519994,0
2.6516342,-3.0304391,-2.0087993,0.58925205,-0.67343092,-0.44639984,0
-1.7778676,-2.2683136,-3.4560006,-0.39508167,-0.50406969,-0.76800013,0
-1.3468428,-2.3008561,-3.6252,-0.29929841,-0.51130134,-0.80559999,0
4.3757997,0.97239971,-0.39600027,0.97239995,0.21608883,-0.088000059,0
1.7396715,-2.0202637,-3.6252005,0.38659367,-0.44894749,-0.80560011,0
-2.492516,2.8363109,-2.448,-0.55389243,0.63029128,-0.54399997,0
2.6893716,1.3446852,3.3479998,0.59763813,0.29881895,0.74399996,0
-2.3118699,-3.807786,0.63720012,-0.51374888,-0.84617466,0.14160003,0
2.0023732,-4.0047474,0.44999999,0.44497183,-0.88994384,0.099999994,0
2.1445339,3.8375866,-0.96119934,0.4765631,0.85279703,-0.21359986,0
3.7412298,1.0911919,2.2499998,0.83138442,0.24248709,0.49999994,0
1.155931,-4.2769437,-0.78840029,0.25687355,-0.95043194,-0.17520006,0
-1.0713252,-0.35710856,4.3559999,-0.23807226,-0.07935746,0.96799999,0
2.5920005,1.5552005,-3.3335996,0.57600009,0.3456001,-0.7407999,0
1.6075927,-3.6880064,-2.0159998,0.35724282,-0.81955695,-0.44799995,0
2.2683136,-1.7778676,-3.4560006,0.50406969,-0.39508167,-0.76800013,0
3.9903331,1.7734816,-1.0872006,0.88674068,0.39410701,-0.24160014,0
-2.7169864,-3.5320826,0.62640035,-0.60377479,-0.78490722,0.13920008,0
-3.7766178,2.0335634,1.3608003,-0.83924842,0.45190299,0.30240005,0
-1.6814736,4.0635614,0.95399952,-0.3736608,0.90301365,0.21199989,0
4.3499384,1.151454,0.046800811,0.96665299,0.25587866,0.01040018,0
-4.4969521,0,-0.16560037,-0.99932265,0,-0.036800083,0
3.1567914,-0.4984408,3.168,0.70150924,-0.11076462,0.704,0
-2.150764,2.9779813,-2.5992002,-0.47794756,0.66177362,-0.57760006,0
3.0053511,-0.83481991,3.2435999,0.6678558,-0.18551554,0.72079998,0
3.2487879,-1.2995155,2.8296001,0.72195286,-0.28878123,0.62880003,0
3.6759846,0,2.5955997,0.81688547,0,0.57679993,0
-4.0858698,-0.30265722,1.8612003,-0.90797108,-0.067257158,0.41360009,0
3.5419321,0.64398789,2.6999996,0.78709602,0.14310843,0.5999999,0
3.1843214,1.910593,2.5416002,0.707627,0.42457622,0.56480002,0
-1.0148872,-2.6267672,-3.5099998,-0.22553049,-0.58372605,-0.77999997,0
3.6722527,-0.31932646,2.5811996,0.81605613,-0.070961438,0.57359993,0
0.49633023,3.639755,-2.5992,0.11029561,0.80883443,-0.5776,0
1.9906898,-0.79627597,-3.9563997,0.44237551,-0.17695022,-0.87919992,0
-1.921719,-3.9564803,-0.9503997,-0.42704865,-0.87921786,-0.21119994,0
4.0615177,0.75213319,1.7856003,0.90255952,0.16714071,0.39680007,0
1.323547,-2.9779813,3.1032,0.29412156,-0.66177362,0.68959999,0
-1.5766522,-4.2044053,0.29520011,-0.35036716,-0.93431228,0.065600023,0
2.9747484,-2.524029,-2.2427995,0.66105521,-0.56089532,-0.49839988,0
-3.0185094,3.2507024,-0.75599927,-0.67077988,0.72237831,-0.16799983,0
-4.2471685,-0.29290831,1.4579996,-0.94381523,-0.065090738,0.32399991,0
-3.788815,0.15786713,2.4227998,-0.84195888,0.035081584,0.53839993,0
0.71769267,0,4.4424,0.15948726,0,0.98720002,0
1.2579821,3.6840911,-2.2572007,0.2795516,0.8186869,-0.50160015,0
-2.3548181,-1.8502146,3.3587999,-0.5232929,-0.4111588,0.7464,0
