3.2368219,2.9235809,-1.8809994,0.68143618,0.61549073,-0.39599988,0
2.8563139,2.6882956,2.6789994,0.60132927,0.56595695,0.56399989,0
-2.028481,-4.1762848,-1.0031997,-0.42704862,-0.87921786,-0.21119994,0
-1.1814765,-1.8630975,-4.2065997,-0.2487319,-0.39223108,-0.88559991,0
3.4641728,-3.0123239,1.2197999,0.72929955,-0.63417345,0.25679997,0
4.3688021,-1.7475206,-0.64980048,0.91974783,-0.36789906,-0.1368001,0
3.9721358,1.2594576,-2.2800007,0.8362391,0.26514897,-0.48000014,0
-4.1448922,-1.2753518,1.9380001,-0.8726089,-0.26849511,0.40800002,0
1.4543778,1.2578402,-4.3434,0.3061848,0.26480845,-0.91439998,0
-4.3938236,1.1266218,-1.4097998,-0.92501551,0.23718354,-0.29679996,0
-2.8494301,-3.7992399,0.094999842,-0.59988004,-0.79983997,0.019999966,0
1.5451475,-3.3342657,-3.0095999,0.32529423,-0.70195067,-0.6336,0
3.7790191,2.761591,0.8094002,0.79558295,0.58138758,0.17040004,0
-1.9727017,0.54564089,-4.2863998,-0.41530561,0.11487176,-0.90239996,0
-2.3231647,-4.0655384,0.79800004,-0.48908731,-0.85590285,0.16800001,0
2.832104,-2.832104,-2.5536001,0.59623241,-0.59623241,-0.53760004,0
-2.1902246,1.2776308,4.0166001,-0.46109992,0.2689749,0.84560001,0
4.3124561,1.8687308,0.68779975,0.90788549,0.393417,0.14479995,0
-1.9399886,2.6454384,3.4352002,-0.40841866,0.55693442,0.72320002,0
-3.0602624,3.6166737,0.34200022,-0.64426577,0.76140499,0.072000049,0
3.5469761,2.7758942,1.5085995,0.74673182,0.58439875,0.31759989,0
1.2154237,4.5916014,0.049400859,0.25587869,0.96665293,0.010400181,0
-2.2432232,-3.6707292,-2.0140004,-0.47225752,-0.77278507,-0.42400008,0
-2.5447176,-0.72706211,3.9444001,-0.53573,-0.15306571,0.83039999,0
0.90124935,-2.7037475,3.8,0.18973671,-0.56920999,0.80000001,0
-1.6834428,-2.9277267,-3.3401999,-0.35440901,-0.61636353,-0.70319998,0
0,-4.7284265,-0.45220014,0,-0.99545819,-0.095200032,0
-2.7785509,-3.1054394,2.2800002,-0.58495808,-0.65377671,0.48000005,0
3.2040563,-2.5443976,-2.4129989,0.67453814,-0.53566265,-0.50799978,0
-1.7839775,2.4975684,3.6252003,-0.3755742,0.52580386,0.76320004,0
2.3851888,1.9876574,-3.5948007,0.50214499,0.4184542,-0.75680017,0
-3.3612282,-2.0167372,2.6828001,-0.707627,-0.42457625,0.56480002,0
-4.3688021,-1.7475207,-0.6497997,-0.91974783,-0.36789909,-0.13679993,0
-2.9669216,-3.5603061,1.0412,-0.62461507,-0.74953812,0.21920002,0
3.6935692,1.3431156,2.6675997,0.77759349,0.28276119,0.56159991,0
-1.8366228,-1.4692986,4.1268001,-0.38665745,-0.30932602,0.86879998,0
-3.4605944,2.9024339,-1.4705999,-0.7285462,0.61103868,-0.30959997,0
3.1636455,-1.9980919,-2.9260001,0.66603065,-0.42065093,-0.616,0
-2.8485303,-1.2462319,3.5910001,-0.59969062,-0.26236463,0.75600004,0
1.432595,-4.4171677,-0.9994002,0.30159894,-0.92993003,-0.21040004,0
0.5461297,2.5486073,3.9710002,0.11497468,0.53654891,0.83600003,0
-3.8477323,-1.9238662,2.0139997,-0.81004888,-0.40502444,0.42399994,0
-3.8762662,0.33706632,2.7246003,-0.81605607,0.070961334,0.57360005,0
3.1545677,1.2267761,3.3325999,0.66411954,0.25826865,0.70159996,0
3.5288892,-1.6762224,-2.7017992,0.74292403,-0.35288894,-0.56879979,0
-4.5471411,1.0267737,0.912,-0.95729285,0.21616288,0.192,0
-4.6213045,0,1.0982,-0.97290623,0,0.23119999,0
1.5533594,-4.1940689,1.5998002,0.32702303,-0.88296187,0.33680004,0
-2.3390193,4.1276817,0.2317999,-0.49242511,0.86898565,0.04879998,0
0.33706632,3.8762667,2.7245996,0.070961334,0.81605613,0.57359993,0
1.0264219,4.6188998,-0.41800028,0.21608882,0.97239995,-0.088000059,0
2.8135607,3.4387968,1.6795994,0.59232855,0.72395724,0.35359988,0
-1.942997,4.184916,1.1286006,-0.40905198,0.88103497,0.23760013,0
2.3880813,-2.8998132,2.9070003,0.50275397,-0.61048698,0.61200005,0
-1.3828816,4.3022981,1.4630005,-0.29113299,0.90574694,0.30800012,0
3.5469761,2.7758942,1.5085995,0.74673182,0.58439875,0.31759989,0
-3.4292762,-1.3717108,2.9868002,-0.72195292,-0.28878123,0.62880003,0
3.6807523,2.9991322,0.14059991,0.77489519,0.63139623,0.02959998,0
-1.2040664,2.5887427,-3.7962,-0.25348768,0.54499847,-0.7992,0
-2.5083108,1.6124852,3.6974003,-0.52806544,0.33947057,0.77840006,0
-1.9429969,-4.1849165,1.1286,-0.40905198,-0.88103503,0.2376,0
4.2324867,-0.92908239,-1.9456009,0.89104986,-0.19559629,-0.40960017,0
3.7229338,-0.082731783,-2.9487996,0.78377551,-0.017417217,-0.6207999,0
-2.4951131,-3.6884282,-1.6529999,-0.52528697,-0.77651119,-0.34799996,0
-3.1473541,3.2597599,-1.4250005,-0.66260087,0.68626523,-0.3000001,0
4.3499632,0.97874147,-1.6377991,0.91578174,0.20605083,-0.34479982,0
-4.5192847,0.4519287,-1.3908002,-0.95142835,0.095142886,-0.29280004,0
-1.1315325,0.18858857,4.6093998,-0.23821738,0.039702859,0.97039998,0
2.0631595,-2.0024784,-3.7809989,0.43434936,-0.42157438,-0.79599977,0
-1.8363198,-2.1325004,-3.8266006,-0.38659364,-0.44894746,-0.80560011,0
4.360867,-1.5321965,-1.0944,0.91807729,-0.3225677,-0.23040001,0
-3.4418855,-1.2046598,3.0438001,-0.72460747,-0.25361261,0.6408,0
2.5852516,-2.5852516,-3.0323997,0.54426348,-0.54426348,-0.6383999,0
-0.89198869,3.8355517,-2.6562002,-0.1877871,0.80748457,-0.55920005,0
3.6015983,-0.81854504,-2.9868,0.75823122,-0.17232527,-0.62879997,0
3.6069243,-0.68703318,3.0134003,0.75935251,-0.14463857,0.63440007,0
-2.7776153,3.7437427,-0.91199988,-0.58476114,0.78815633,-0.19199997,0
-2.1093388,4.1014919,-1.1362008,-0.44407132,0.86347198,-0.23920016,0
0.074367389,-3.4209032,-3.2946002,0.015656292,-0.72019017,-0.69360006,0
-1.6695067,-1.1130044,4.3053999,-0.35147509,-0.23431672,0.90639997,0
1.4059483,-4.2178459,1.6720005,0.29598913,-0.88796759,0.35200012,0
4.5926943,-0.99301511,-0.69540024,0.966883,-0.20905581,-0.14640005,0
-1.4752618,-1.6596694,4.1989999,-0.31058145,-0.3494041,0.884,0
-4.1590042,-1.7984881,-1.4250001,-0.87557983,-0.37862909,-0.30000001,0
-2.4831421,-3.7247136,1.5883999,-0.52276677,-0.78415024,0.33439997,0
2.9184,3.648,-0.85880047,0.61440003,0.76800001,-0.1808001,0
-3.9887767,-2.4929852,-0.66119963,-0.83974248,-0.52483898,-0.13919993,0
2.5881584,-0.49560478,-3.9520011,0.54487544,-0.10433785,-0.83200026,0
3.3475564,3.3475564,-0.38759962,0.70474869,0.70474869,-0.081599921,0
-3.7417362,-2.9102395,0.30400026,-0.78773391,-0.61268198,0.064000055,0
1.208376,3.2475102,-3.2490005,0.25439495,0.68368638,-0.68400013,0
-0.18440752,2.2128925,4.1989999,-0.038822636,0.46587211,0.884,0
1.0189388,4.1776481,-2.017801,0.21451342,0.87950486,-0.42480022,0
2.8640611,-0.89501917,3.6821997,0.60296023,-0.18842509,0.77519995,0
1.9954851,1.8140776,3.9101996,0.42010212,0.38191107,0.82319993,0
3.5541682,-2.2707183,-2.1850002,0.74824595,-0.47804597,-0.46000004,0
0.47852805,-4.3067565,1.9456005,0.10074275,-0.90668559,0.40960011,0
0.10530862,-2.5274093,-4.0203996,0.022170236,-0.53208619,-0.8463999,0
2.2695894,-3.5664978,2.1660001,0.4778083,-0.75084162,0.45600003,0
4.2493443,-1.6693858,1.3110005,0.89459878,-0.35144964,0.27600011,0
-3.1891468,-1.5556812,-3.1577997,-0.6713993,-0.32751185,-0.66479993,0
3.9525023,1.8972012,1.8277999,0.83210576,0.39941078,0.38479999,0
-0.81722111,-4.0861044,2.28,-0.17204654,-0.86023253,0.47999999,0
2.2551265,4.134398,-0.61939967,0.47476348,0.87039959,-0.13039993,0
2.270251,3.1434247,-2.7436001,0.47794759,0.66177362,-0.5776,0
0.0012446863,0.0016595816,-4.7499995,0.00026203922,0.00034938558,-0.99999988,0
-0.44591346,-4.6077724,1.0639999,-0.093876518,-0.97005731,0.22399998,0
1.0286918,2.3822334,-3.9785998,0.21656668,0.50152284,-0.83759993,0
2.4286804,1.4216666,-3.826601,0.51130116,0.29929823,-0.80560023,0
0,-4.7284265,-0.45220014,0,-0.99545819,-0.095200032,0
-0.3445242,-3.6175022,3.0589998,-0.07253141,-0.76157939,0.64399993,0
-4.550971,0.70014942,-1.1665996,-0.95809919,0.14739987,-0.24559993,0
-2.5852516,2.5852516,-3.0323997,-0.54426348,0.54426348,-0.6383999,0
1.0205529,3.2074523,-3.3515997,0.21485324,0.67525309,-0.70559996,0
-1.4618055,4.5183072,-0.10259944,-0.30774853,0.9512226,-0.021599883,0
-3.3572953,2.7178106,1.9759996,-0.70679903,0.57217067,0.41599992,0
-4.2185955,1.8079696,1.2235999,-0.88812536,0.38062516,0.25759998,0
1.2160592,3.3007326,3.1920002,0.25601247,0.6948911,0.67200005,0
3.6555979,-2.8301404,-1.0906003,0.76959956,-0.595819,-0.22960006,0
-3.7405877,2.351227,-1.7442003,-0.78749216,0.49499518,-0.36720008,0
-4.487184,-0.15473032,1.5503995,-0.94467032,-0.032574803,0.32639989,0
0.30361947,-4.5542965,1.3147998,0.063919887,-0.95879924,0.27679995,0
-4.2346392,1.5601301,-1.4819998,-0.89150298,0.32844844,-0.31199995,0
-3.7526996,-0.17057709,2.9070001,-0.79004204,-0.035910968,0.61199999,0
-2.961746,-0.25206345,-3.7049999,-0.62352544,-0.053065989,-0.77999997,0
-2.4780488,-4.0431323,-0.27360001,-0.52169448,-0.85118574,-0.057600003,0
0.78131384,-4.3753562,1.6758,0.16448712,-0.92112762,0.35279998,0
2.3432486,1.622249,-3.7999992,0.49331549,0.34152612,-0.79999983,0
4.7206645,-0.41652927,0.32300067,0.99382412,-0.087690376,0.068000138,0
-2.2859297,-3.2917387,-2.5498004,-0.48124835,-0.69299763,-0.53680009,0
-1.3828816,4.3022981,1.4630005,-0.29113299,0.90574694,0.30800012,0
2.1654079,0.55287009,-4.191401,0.45587534,0.11639371,-0.88240021,0
4.6188993,-1.0264223,-0.41800046,0.97239989,-0.21608889,-0.088000096,0
-1.3153062,-0.32882658,-4.5523996,-0.27690658,-0.069226645,-0.95839995,0
-4.212018,1.8720083,-1.1476007,-0.88674062,0.39410701,-0.24160014,0
0.74774152,-1.4954824,4.4459996,0.15741926,-0.31483841,0.93599993,0
-1.8553964,-0.74215841,4.3092003,-0.39060977,-0.15624388,0.90720004,0
4.1276817,-2.3390193,0.2317999,0.86898565,-0.49242511,0.04879998,0
3.0212367,-2.5176973,2.6637998,0.63604981,-0.53004152,0.56079996,0
2.6892884,-1.2550013,3.7088003,0.56616598,-0.26421079,0.78080004,0
1.2631499,2.5262997,3.8190002,0.26592627,0.53185254,0.80400008,0
1.7595276,-2.8152435,3.3971999,0.37042686,-0.59268284,0.71519995,0
-1.8035553,1.4238595,-4.1572003,-0.37969583,0.29975989,-0.87520009,0
-4.5569339,-1.3402745,-0.022800047,-0.95935452,-0.28216305,-0.00480001,0
-2.7108891,-2.7108891,2.8044002,-0.57071352,-0.57071352,0.59040004,0
0.56794375,-0.56794429,4.6816001,0.1195671,-0.11956722,0.98559999,0
2.1012838,0.84051353,-4.1761999,0.44237554,0.17695022,-0.87919998,0
1.0858164,-2.5335712,3.8684001,0.22859292,-0.53338343,0.81440002,0
1.6969035,3.8928955,-2.1279998,0.35724282,0.81955695,-0.44799995,0
-1.8766381,2.394331,-3.6480007,-0.3950817,0.50406969,-0.76800013,0
3.6166737,-3.0602624,0.34200022,0.76140499,-0.64426577,0.072000049,0
2.5881584,-0.49560478,-3.9520011,0.54487544,-0.10433785,-0.83200026,0
1.2550013,-2.6892889,3.7088001,0.26421079,-0.5661661,0.78080004,0
-1.0678947,4.5088887,-1.0449998,-0.22481994,0.94923973,-0.21999997,0
-2.5486073,0.5461297,3.9710002,-0.53654891,0.11497468,0.83600003,0
0.52982366,-1.3539939,-4.5220003,0.11154182,-0.28505135,-0.95200008,0
-2.9532869,-1.9109507,3.1920002,-0.62174463,-0.40230539,0.67200005,0
0.81854522,-3.601598,-2.9868002,0.17232531,-0.75823116,-0.62880003,0
2.2413557,-3.6822274,1.9950004,0.47186434,-0.77520579,0.42000008,0
2.9912789,-0.86414719,-3.5871994,0.62974292,-0.18192573,-0.75519991,0
-3.6707287,2.2432234,-2.0140009,-0.77278501,0.47225755,-0.42400017,0
1.6431428,-4.1626291,-1.5921996,0.34592479,-0.87634295,-0.33519992,0
2.6583025,-1.7722019,3.5150003,0.55964261,-0.37309512,0.74000007,0
-3.3234863,-2.8041916,-1.9113995,-0.69968134,-0.59035611,-0.4023999,0
1.7874147,-2.7883668,-3.4047995,0.37629783,-0.58702457,-0.71679991,0
2.2825794,2.4581621,3.3630002,0.48054305,0.51750779,0.708,0
2.4937088,-3.1586986,2.5232003,0.52499133,-0.66498917,0.53120005,0
3.0833156,2.0555437,2.9715998,0.64911908,0.43274602,0.62559998,0
3.5156758,2.6633909,-1.7631996,0.74014229,0.56071389,-0.37119991,0
-3.4062927,-3.2643635,0.551,-0.71711427,-0.6872344,0.116,0
-2.9991007,-2.107476,-3.0209999,-0.63138962,-0.44367915,-0.63599998,0
1.0029409,3.8446069,2.6029997,0.21114545,0.8093909,0.54799992,0
-3.055162,3.3606787,1.3907998,-0.64319199,0.70751131,0.29279995,0
-3.8573272,1.5429311,-2.3028004,-0.81206888,0.32482758,-0.4848001,0
0,-3.8802056,2.7398002,0,-0.81688541,0.57680005,0
2.3576667,-2.9470837,-2.8841991,0.49635088,-0.62043869,-0.60719985,0
3.1899638,-0.17722003,3.5149999,0.67157131,-0.037309479,0.73999995,0
-2.1902246,-1.2776308,4.0166001,-0.46109992,-0.2689749,0.84560001,0
3.788888,-2.4516335,-1.4819993,0.79766065,-0.51613337,-0.31199986,0
2.3678904,-1.1564116,-3.9520004,0.49850324,-0.24345508,-0.83200008,0
4.1730747,-2.1584868,0.69919944,0.87854207,-0.45441827,0.14719988,0
-0.70035541,-3.326689,3.3174,-0.14744325,-0.70035559,0.69840002,0
1.9726995,0.54564023,-4.2864008,0.41530517,0.11487163,-0.9024002,0
-2.2695894,-3.5664978,2.1660001,-0.4778083,-0.75084162,0.45600003,0
4.4395695,0.9185316,1.4173995,0.93464619,0.19337507,0.2983999,0
-3.2883024,2.9751306,1.7023998,-0.69227421,0.62634325,0.35839996,0
0.18685785,-1.6817223,4.4383998,0.039338496,-0.35404679,0.93439996,0
1.8509474,-3.4374738,-2.7055993,0.38967314,-0.72367871,-0.56959987,0
1.1564118,-2.3678911,-3.9519999,0.24345511,-0.49850339,-0.83199996,0
-1.9650449,2.3223255,3.648,-0.41369367,0.48891062,0.76800001,0
-0.51706588,0.98916954,-4.6169996,-0.10885598,0.20824622,-0.97199994,0
-0.15195234,-4.5585747,1.3261998,-0.031989966,-0.95969993,0.27919996,0
2.4220343,-3.3908479,-2.2799997,0.50990194,-0.71386272,-0.47999993,0
3.0393918,3.2564917,-1.6491996,0.63987195,0.68557721,-0.34719992,0
-4.3688021,-1.7475207,-0.6497997,-0.91974783,-0.36789909,-0.13679993,0
-1.4414978,4.4686432,0.71819997,-0.30347323,0.94076699,0.1512,0
-0.70014942,4.550971,-1.1665996,-0.14739987,0.95809919,-0.24559993,0
-1.0547311,-3.1641932,3.382,-0.22204866,-0.66614592,0.71200001,0
-3.2748375,-2.6794126,-2.1583991,-0.68943948,-0.56408685,-0.45439982,0
3.8355517,-0.89198869,-2.6562002,0.80748457,-0.1877871,-0.55920005,0
-1.3402745,-4.5569339,-0.022800047,-0.28216305,-0.95935452,-0.00480001,0
0.18342611,2.3845415,4.1040001,0.038616024,0.50200874,0.86400002,0
1.5753974,2.5206356,-3.7049992,0.3316626,0.53066015,-0.77999985,0
3.6884284,-2.4951134,-1.6529992,0.77651125,-0.52528703,-0.34799981,0
3.9152322,1.4682115,2.2534001,0.8242594,0.30909717,0.47440001,0
-4.5926943,0.99301475,-0.69540006,-0.966883,0.20905574,-0.14640002,0
3.7452431,0.51071441,2.8765996,0.78847224,0.10751882,0.60559988,0
-1.5013129,-4.5039377,0.15200029,-0.31606588,-0.94819742,0.032000061,0
-0.95723045,4.649405,0.17100072,-0.2015222,0.97882211,0.036000151,0
-0.12342679,-4.6902223,-0.74099988,-0.025984587,-0.98741519,-0.15599997,0
0.97874147,4.3499632,-1.6377991,0.20605083,0.91578174,-0.34479982,0
0.72434604,-2.5630708,-3.9330003,0.15249391,-0.53959388,-0.82800007,0
-4.1276817,-2.3390193,0.2317999,-0.86898565,-0.49242511,0.04879998,0
0.6878739,1.9776371,-4.2635994,0.14481556,0.41634464,-0.89759988,0
4.0739384,-0.97774529,2.2381999,0.85767126,-0.20584111,0.47119999,0
0,-4.6370263,-1.0297996,0,-0.97621608,-0.21679991,0
2.9102392,3.7417364,0.30400074,0.61268193,0.78773397,0.064000152,0
-2.7989471,-3.1987965,-2.1204,-0.589252,-0.67343086,-0.44639999,0
1.5359238,-1.8331995,-4.1040001,0.3233524,-0.38593674,-0.86400002,0
3.0218816,3.5974784,0.69920033,0.63618559,0.75736386,0.14720006,0
-0.47771314,3.5828483,-3.0817995,-0.10057119,0.75428385,-0.6487999,0
-2.1113095,-4.0718112,1.2350005,-0.44448623,-0.85722339,0.26000011,0
-3.9848993,1.6348308,-2.0026,-0.83892614,0.34417492,-0.42159998,0
3.9166183,-2.6577055,0.39900064,0.82455122,-0.55951697,0.084000133,0
0.074367411,3.4209042,-3.2945993,0.015656298,0.72019035,-0.69359988,0
3.6265681,-3.0012975,-0.63460064,0.76348799,-0.63185209,-0.13360013,0
-1.40959,4.5106878,0.47880021,-0.29675579,0.94961852,0.10080004,0
4.2178459,1.4059488,-1.6719996,0.88796759,0.29598922,-0.35199991,0
1.0248592,-4.4410577,-1.3375994,0.21575983,-0.93495953,-0.28159988,0
-4.019351,-2.0096755,1.5390003,-0.84617919,-0.42308959,0.32400006,0
4.7095752,-0.38185745,-0.48640013,0.99148953,-0.080391042,-0.10240003,0
1.4852505,1.2995943,4.3206,0.3126843,0.27359879,0.90960002,0
-2.7783642,-0.41379887,-3.8304,-0.5849188,-0.087115549,-0.8064,0
-4.4154301,-1.2781509,-1.197,-0.92956424,-0.26908439,-0.252,0
-3.3234863,-2.8041916,-1.9113995,-0.69968134,-0.59035611,-0.4023999,0
0.48686004,3.1993661,-3.4769993,0.10249685,0.67355078,-0.73199987,0
-3.601598,0.81854522,-2.9868002,-0.75823116,0.17232531,-0.62880003,0
3.8832352,-1.1094958,-2.5004005,0.81752318,-0.23357806,-0.52640009,0
-2.0555437,-3.0833156,2.9715998,-0.43274602,-0.64911908,0.62559998,0
-3.7307796,-2.8602641,-0.6802001,-0.78542727,-0.60216087,-0.14320002,0
-0.35116625,-3.3360775,3.3629999,-0.073929735,-0.70233208,0.708,0
-2.0167372,-3.3612282,2.6828001,-0.42457625,-0.707627,0.56480002,0
-2.236115,-2.981487,-2.9449999,-0.47076106,-0.62768149,-0.62,0
2.9191771,2.2323115,3.0095999,0.61456358,0.4699603,0.6336,0
1.8777463,-3.2433796,2.9183998,0.39531502,-0.68281674,0.61439997,0
0.17057709,3.7527001,2.9069996,0.035910968,0.7900421,0.61199993,0
-1.2626067,4.5453844,-0.55480033,-0.26581195,0.95692301,-0.11680007,0
-3.5776753,-1.1925583,2.888,-0.75319481,-0.2510649,0.60799998,0
4.5417233,-1.2773597,0.55100018,0.95615226,-0.26891783,0.11600003,0
-4.649405,-0.95723039,0.17099994,-0.97882211,-0.20152219,0.035999987,0
0.58685106,4.5774374,-1.1247996,0.12354759,0.96367103,-0.23679991,0
2.4112008,3.5163345,-2.0938008,0.50762123,0.74028093,-0.44080016,0
-3.2564914,-3.0393918,-1.6492003,-0.68557715,-0.63987195,-0.34720007,0
-3.2693696,-3.3951144,-0.58899939,-0.68828833,-0.71476096,-0.12399987,0
0.73527831,-2.2058339,4.1419997,0.15479544,-0.46438608,0.87199992,0
0.75005531,1.312596,4.5029998,0.15790638,0.27633598,0.94799995,0
2.8347805,-0.67788237,-3.7505994,0.59679586,-0.14271207,-0.7895999,0
1.6370925,1.1459647,-4.3091989,0.34465104,0.24125573,-0.90719974,0
-2.4868901,3.9497669,0.88160056,-0.52355582,0.83152986,0.18560012,0
2.8656638,3.7774656,-0.28500095,0.60329765,0.7952559,-0.0600002,0
-3.2721684,-3.2721684,1.0716001,-0.68887758,-0.68887758,0.22560002,0
3.2753663,-1.5514894,3.0704,0.68955082,-0.32662934,0.64639997,0
4.3246069,-1.2356023,1.5276005,0.91044354,-0.2601268,0.32160011,0
-4.6836524,-0.56771535,0.55100042,-0.98603207,-0.11951902,0.11600009,0
0.30918056,-4.4831223,1.5389996,0.065090641,-0.94381523,0.32399991,0
-1.9954885,-3.492105,2.5269997,-0.42010283,-0.73518002,0.53199995,0
-1.1234641,-1.1234641,4.4763999,-0.23651876,-0.23651876,0.94239998,0
3.0375745,0,3.6517997,0.63948935,0,0.76879996,0
0.68703365,-3.6069248,3.0133998,0.14463866,-0.75935256,0.63439995,0
3.0466866,0,-3.644201,0.64140773,0,-0.76720023,0
-1.4238595,1.8035553,-4.1572003,-0.29975989,0.37969583,-0.87520009,0
4.5471568,0.45471525,1.2957999,0.95729619,0.09572953,0.27279997,0
3.9490762,-1.4809037,-2.1849992,0.83138448,-0.31176922,-0.45999983,0
-1.5514889,3.0290973,-3.313601,-0.32662925,0.63770467,-0.69760019,0
3.1077635,-2.3974173,-2.6752002,0.654266,-0.50471944,-0.56320006,0
-3.3230343,-0.98180556,-3.2489998,-0.69958615,-0.20669591,-0.68399996,0
-1.7948714,-2.333333,3.7278001,-0.37786767,-0.49122801,0.78480005,0
-0.67976475,3.7387056,-2.8499999,-0.14310837,0.7870959,-0.59999996,0
1.3320612,3.4966602,-2.9260008,0.28043392,0.736139,-0.61600018,0
3.4653001,3.0032599,-1.2388,0.72953683,0.63226527,-0.2608,0
-2.0383666,0.18530583,4.2863998,-0.42912981,0.039011754,0.90239996,0
-1.9954885,-3.492105,2.5269997,-0.42010283,-0.73518002,0.53199995,0
3.2395256,1.3883681,-3.1844006,0.68200541,0.29228804,-0.67040014,0
2.5473471,3.4643917,-2.0177994,0.53628361,0.72934562,-0.42479986,0
3.584466,-2.6493874,1.6415999,0.75462443,-0.55776578,0.34559998,0
2.9379923,-3.7044251,-0.4560008,0.61852473,-0.77987897,-0.096000172,0
-1.3706096,2.7412193,-3.6290007,-0.28854939,0.57709879,-0.76400012,0
2.2009676,-4.1084733,0.91580027,0.46336159,-0.86494178,0.19280006,0
-1.1564116,-2.3678904,-3.9520004,-0.24345508,-0.49850324,-0.83200008,0
0.52982491,1.3539969,-4.5219994,0.11154208,0.28505197,-0.95199984,0
-2.4937093,-3.1586983,2.5232,-0.52499145,-0.66498911,0.53119999,0
4.0722103,-2.4433262,0.098799631,0.85730743,-0.51438445,0.020799922,0
-2.4780488,-4.0431323,-0.27360001,-0.52169448,-0.85118574,-0.057600003,0
-3.801404,2.0548127,-1.9721999,-0.80029559,0.43259215,-0.4152,0
-1.8079697,4.2185955,1.2236005,-0.38062519,0.88812536,0.2576001,0
0.90124935,2.703747,3.8000002,0.18973671,0.56920987,0.80000001,0
1.7399851,4.3499627,0.78279966,0.36631265,0.91578162,0.16479993,0
-3.6194575,2.517884,1.7669998,-0.76199102,0.53008085,0.37199998,0
-3.1526723,-3.5467558,-0.20899978,-0.66372049,-0.74668545,-0.043999955,0
1.1038198,4.2575908,1.7936004,0.23238313,0.89633489,0.3776001,0
1.9109507,-2.9532869,3.1920002,0.40230539,-0.62174463,0.67200005,0
-4.2178459,-1.4059488,1.6720004,-0.88796759,-0.29598922,0.35200009,0
2.8698635,0.71746612,3.7163997,0.60418177,0.1510455,0.78239995,0
-3.8067961,-1.903398,-2.1089997,-0.80143076,-0.40071538,-0.44399995,0
-1.1814754,1.8630961,-4.2066007,-0.24873166,0.39223075,-0.88560015,0
4.2824416,1.3176744,-1.5769997,0.90156668,0.27740514,-0.33199993,0
-4.4395695,-0.9185316,1.4173995,-0.93464619,-0.19337507,0.2983999,0
-2.5453422,3.818013,-1.2273996,-0.53586149,0.80379218,-0.2583999,0
-3.0548074,3.543577,-0.82080048,-0.64311737,0.7460162,-0.17280011,0
-3.2368219,2.9235809,-1.8809994,-0.68143618,0.61549073,-0.39599988,0
0.36675382,1.956021,-4.3130007,0.077211328,0.41179389,-0.90800017,0
2.1654079,0.55287009,-4.191401,0.45587534,0.11639371,-0.88240021,0
-2.2825794,2.4581621,3.3630002,-0.48054305,0.51750779,0.708,0
0.32873812,-4.1092305,2.3598001,0.069208026,-0.86510116,0.49680004,0
-2.111593,-1.0803499,-4.1154003,-0.44454589,-0.22744209,-0.86640006,0
-1.9954886,3.4921045,2.5270002,-0.42010286,0.7351799,0.53200006,0
1.3025746,-4.55901,-0.28500003,0.27422625,-0.9597916,-0.060000006,0
-4.7471871,-0.1356338,0.091200165,-0.99940783,-0.028554484,0.019200034,0
-3.4443665,-2.2962439,2.3294001,-0.72512978,-0.48341978,0.49040002,0
-0.53538221,-4.3901334,-1.7327999,-0.11271205,-0.92423862,-0.36479998,0
-3.2564914,-3.0393918,-1.6492003,-0.68557715,-0.63987195,-0.34720007,0
4.6370263,0,-1.0297996,0.97621608,0,-0.21679991,0
-4.7448111,-0.13180017,-0.17860039,-0.99890757,-0.027747406,-0.037600081,0
3.8792214,0.16866162,2.7359996,0.81667823,0.035507709,0.57599992,0
2.2411945,4.0341506,1.1248007,0.47183043,0.84929484,0.23680015,0
-3.1723969,-3.4607968,0.72199982,-0.66787302,-0.72858882,0.15199997,0
-1.2776308,-2.1902246,4.0166001,-0.2689749,-0.46109992,0.84560001,0
-4.5599999,0,-1.3300002,-0.95999998,0,-0.28000003,0
2.9379923,3.7044251,-0.4560008,0.61852473,0.77987897,-0.096000172,0
-4.5590105,-1.3025743,-0.28499979,-0.95979166,-0.27422616,-0.059999954,0
4.5242348,-0.75403929,1.2349997,0.95247048,-0.15874511,0.25999993,0
3.3119307,3.3119307,-0.79039919,0.69724858,0.69724858,-0.16639984,0
0.75741202,-0.18935272,4.6854,0.15945517,-0.039863732,0.98640001,0
-1.8581183,0.55743498,4.3358002,-0.39118281,0.11735473,0.91280001,0
3.8299174,-2.6330683,-0.98039979,0.80629843,-0.55433017,-0.20639996,0
-4.6835489,-0.24650271,-0.75239986,-0.98601031,-0.051895309,-0.15839997,0
-3.3114011,-0.7358669,-3.3249996,-0.69713706,-0.15491934,-0.69999993,0
-3.9961839,-0.3330155,2.5459998,-0.84130186,-0.070108525,0.53599995,0
4.1482353,-2.0741177,1.0260007,0.87331271,-0.43665636,0.21600015,0
0,3.0466866,-3.644201,0,0.64140773,-0.76720023,0
-2.146539,3.9864299,1.4364003,-0.45190296,0.83924842,0.30240005,0
4.214952,0.32422677,2.1660001,0.88735831,0.068258263,0.45600003,0
-0.09688127,4.1658988,-2.2800002,-0.020396058,0.87703133,-0.48000005,0
4.6972427,0.65239495,-0.26980042,0.98889321,0.13734631,-0.05680009,0
1.0596483,2.5902512,-3.8380001,0.22308385,0.54531604,-0.80800003,0
0.34926951,-2.0956175,-4.2483997,0.073530413,-0.44118258,-0.89439988,0
-3.8598425,2.7570302,0.25080016,-0.81259841,0.58042741,0.052800033,0
-3.1002038,-1.705112,-3.1692002,-0.6526745,-0.35897094,-0.66720003,0
4.4430761,-1.3329228,1.0221997,0.93538445,-0.28061533,0.21519995,0
-2.3111999,2.175247,-3.5339999,-0.48656839,0.45794672,-0.74399996,0
4.5371428,0.34028542,-1.3641992,0.95518798,0.071639039,-0.28719983,0
1.4086059,2.9932885,3.4085999,0.2965486,0.63016599,0.71759999,0
1.1366637,4.0595136,2.1888001,0.23929761,0.85463446,0.46080002,0
-3.816689,1.3275437,2.4966004,-0.80351347,0.2794829,0.52560008,0
-1.7326497,-2.1369345,-3.8722005,-0.36476836,-0.44988096,-0.81520009,0
0.17722003,3.1899638,3.5149999,0.037309479,0.67157131,0.73999995,0
-1.1015723,-0.17984857,-4.6170006,-0.23190995,-0.037862856,-0.97200012,0
2.1584866,-4.1730752,0.6991998,0.45441824,-0.87854213,0.14719996,0
2.8148744,1.9259667,-3.3059998,0.59260511,0.40546668,-0.69599992,0
4.0495949,1.8690439,1.6340002,0.85254627,0.39348292,0.34400004,0
-1.4626794,2.0111842,4.0469999,-0.3079325,0.4234072,0.852,0
-1.4150845,0.78981465,-4.4650006,-0.29791251,0.16627677,-0.94000012,0
0.63676971,-4.298193,1.9190003,0.13405678,-0.90488273,0.40400004,0
1.1234641,-1.1234641,4.4763999,0.23651876,-0.23651876,0.94239998,0
-3.4741809,2.6845946,1.8125998,-0.73140651,0.5651778,0.38159996,0
2.296967,-2.296967,3.4656,0.48357201,-0.48357201,0.72960001,0
-0.83530879,4.2809572,-1.8810009,-0.17585449,0.90125418,-0.39600018,0
3.1110728,0.82961947,-3.4921997,0.65496272,0.17465673,-0.73519993,0
1.1036236,2.0233102,4.1533999,0.23234181,0.42596003,0.87439996,0
-1.3706096,-2.7412193,-3.6290007,-0.28854939,-0.57709879,-0.76400012,0
-3.2883024,-2.9751306,1.7023998,-0.69227421,-0.62634325,0.35839996,0
-2.4471536,-0.20392942,-4.0659995,-0.51519024,-0.04293251,-0.85599989,0
-3.0393918,3.2564914,-1.6492003,-0.63987195,0.68557715,-0.34720007,0
0.50495648,3.8713369,2.7055998,0.10630663,0.8150183,0.56959993,0
-4.6156631,-0.35505101,-1.0639995,-0.97171855,-0.074747585,-0.2239999,0
-2.1236527,-4.2473054,-0.11399978,-0.44708478,-0.89416957,-0.023999954,0
3.7804923,-1.643692,2.3597996,0.79589313,-0.34604043,0.49679992,0
2.5887427,-1.2040664,-3.7962,0.54499847,-0.25348768,-0.7992,0
3.5804954,2.5274088,-1.8315995,0.75378847,0.53208607,-0.38559988,0
3.0256746,-0.12875217,-3.6594009,0.63698411,-0.027105721,-0.77040023,0
-0.96230829,-3.7617502,-2.7360003,-0.20259123,-0.79194742,-0.57600003,0
3.0212367,-2.5176973,2.6637998,0.63604981,-0.53004152,0.56079996,0
0.30988052,2.9128766,-3.7392011,0.065238006,0.6132372,-0.78720021,0
-4.569313,1.142328,0.61560029,-0.96196061,0.24049011,0.12960006,0
-1.1518136,3.9490759,2.3749998,-0.24248707,0.83138442,0.49999994,0
0.94217801,0.75374264,4.5941997,0.19835326,0.15868266,0.96719992,0
-1.2462318,2.8485308,3.5909996,-0.2623646,0.59969068,0.75599992,0
0.68703365,-3.6069248,3.0133998,0.14463866,-0.75935256,0.63439995,0
-2.2413557,-3.6822274,1.9950004,-0.47186434,-0.77520579,0.42000008,0
2.4780488,4.0431323,-0.27360001,0.52169448,0.85118574,-0.057600003,0
-4.4341459,0.32444939,-1.6719998,-0.9335044,0.068305135,-0.35199997,0
0.93293697,1.4926986,4.4117999,0.19640778,0.31425232,0.92879999,0
0.78981465,-1.4150845,-4.4650006,0.16627677,-0.29791251,-0.94000012,0
-0.61630344,3.4667063,-3.1881998,-0.12974809,0.72983289,-0.67119998,0
-0.84410477,-4.5822835,-0.92339981,-0.17770627,-0.96469128,-0.19439995,0
0.55228209,-2.2091308,4.1686001,0.11626992,-0.46508017,0.87760001,0
4.715137,0.52390438,-0.23560046,0.9926604,0.11029566,-0.049600095,0
0.56542158,4.0521879,-2.4130003,0.11903612,0.85309219,-0.50800008,0
-3.7452426,-0.51071495,2.8766,-0.78847212,-0.10751893,0.6056,0
4.5669346,0.88392282,0.96139991,0.96145993,0.18608901,0.20239998,0
-1.740778,-0.51852953,-4.3889999,-0.36647958,-0.10916411,-0.92399997,0
0.69004291,-4.6922908,0.26219985,0.1452722,-0.98785067,0.05519997,0
3.9238565,-2.0404053,1.7328,0.82607508,-0.42955899,0.36480001,0
3.6964645,2.8093131,1.0032001,0.77820307,0.5914343,0.21120001,0
2.3112004,-2.1752477,-3.5339992,0.48656851,-0.45794687,-0.74399984,0
4.3997946,-1.7031463,0.55099988,0.92627257,-0.35855713,0.11599997,0
1.2368283,3.0037265,3.4655998,0.26038492,0.6323635,0.72959995,0
-1.0788521,2.6971297,3.7582002,-0.22712675,0.56781679,0.79120004,0
2.0176892,1.2839838,4.1040001,0.42477667,0.2703124,0.86400002,0
-3.8180127,2.5453422,-1.2274001,-0.80379218,0.53586149,-0.25840002,0
2.7153921,-3.8262336,-0.74100053,0.57166147,-0.80552286,-0.15600011,0
-0.56794429,0.56794375,4.6816001,-0.11956722,0.1195671,0.98559999,0
-3.8802056,0,2.7398002,-0.81688541,0,0.57680005,0
-0.81651378,3.9011214,-2.5840003,-0.17189763,0.8212887,-0.54400009,0
0.54500538,-2.3286591,-4.1040001,0.11473797,-0.490244,-0.86400002,0
4.1482353,-2.0741177,1.0260007,0.87331271,-0.43665636,0.21600015,0
4.282517,0.40785897,-2.0140007,0.90158254,0.085865043,-0.42400014,0
-0.9970938,-0.46531048,-4.6207995,-0.20991449,-0.0979601,-0.9727999,0
-2.270251,3.1434247,-2.7436001,-0.47794759,0.66177362,-0.5776,0
-2.832104,2.832104,-2.5536001,-0.59623241,0.59623241,-0.53760004,0
-3.3230343,0.98180556,-3.2489998,-0.69958615,0.20669591,-0.68399996,0
2.4951131,-3.6884279,-1.6530005,0.52528697,-0.77651113,-0.34800011,0
3.116519,1.7313998,3.1387997,0.65610927,0.3645052,0.66079992,0
1.4846284,-4.4538851,-0.72200042,0.31255335,-0.93766004,-0.15200008,0
-1.5514894,3.2753663,3.0704,-0.32662934,0.68955082,0.64639997,0
-4.124826,-1.4278245,1.8734002,-0.86838442,-0.30059463,0.39440003,0
-1.5013129,-4.5039377,0.15200029,-0.31606588,-0.94819742,0.032000061,0
2.2502232,-2.2502232,-3.5263991,0.47373119,-0.47373119,-0.74239981,0
-3.3942535,-0.67885071,-3.2527995,-0.7145797,-0.14291593,-0.68479991,0
0.73586708,-3.3114009,-3.3249998,0.15491939,-0.69713706,-0.69999999,0
-4.5585747,0.15195234,1.3261998,-0.95969993,0.031989966,0.27919996,0
-3.9034307,2.6442592,-0.5775997,-0.8217749,0.55668616,-0.12159993,0
-4.4359169,1.5740352,0.63839984,-0.93387723,0.33137584,0.13439997,0
-3.3114009,0.73586708,-3.3249998,-0.69713706,0.15491939,-0.69999999,0
-2.3350682,-3.9696162,-1.1628,-0.4915933,-0.83570868,-0.24479999,0
2.2058339,0.73527831,4.1419997,0.46438608,0.15479544,0.87199992,0
1.4976432,0.56161582,4.4726,0.31529331,0.11823491,0.94160002,0
0,-4.4885368,1.5541996,0,-0.94495511,0.32719991,0
2.3974173,3.1077635,-2.6752002,0.50471944,0.654266,-0.56320006,0
-2.1050217,-2.6312771,3.3477998,-0.44316247,-0.55395305,0.70479995,0
-3.5120883,3.073077,0.88540018,-0.73938704,0.6469636,0.18640004,0
-1.3755949,4.5019464,-0.63460052,-0.28959891,0.94777822,-0.13360012,0
1.9259667,-2.8148744,-3.3059998,0.40546668,-0.59260511,-0.69599992,0
1.7409557,1.294557,-4.2256002,0.36651698,0.2725383,-0.88960004,0
1.7871456,0.37232208,-4.385201,0.37624118,0.078383595,-0.92320019,0
0.33301499,3.9961839,2.5459998,0.070108421,0.84130186,0.53599995,0
-4.3232746,0.73811996,-1.8239999,-0.9101631,0.15539367,-0.38399997,0
4.5019464,-1.3755949,-0.63460052,0.94777822,-0.28959891,-0.13360012,0
3.2074523,-1.0205529,-3.3515997,0.67525309,-0.21485324,-0.70559996,0
0.56771576,-4.6836519,0.55100036,0.11951911,-0.98603201,0.11600008,0
4.0521879,0.56542158,-2.4130003,0.85309219,0.11903612,-0.50800008,0
3.0290978,1.5514889,-3.3136005,0.63770479,0.32662925,-0.69760013,0
2.3678904,-1.1564116,-3.9520004,0.49850324,-0.24345508,-0.83200008,0
1.3578286,3.5643005,2.8310003,0.28585866,0.75037909,0.59600008,0
-3.029098,-1.5514894,-3.3136001,-0.63770485,-0.32662934,-0.69760001,0
-4.0846376,0.87527919,-2.2610004,-0.85992372,0.18426931,-0.47600007,0
1.6222479,2.3432477,3.8000002,0.34152588,0.49331531,0.80000001,0
-3.8003569,1.1763009,-2.5954006,-0.80007511,0.24764229,-0.54640013,0
-3.5596488,2.9663739,-1.0450003,-0.74939972,0.6244998,-0.22000007,0
0.32250765,2.2114813,-4.1914005,0.067896344,0.46557501,-0.8824001,0
-2.1236527,4.2473054,-0.11399978,-0.44708478,0.89416957,-0.023999954,0
3.2721689,-3.2721684,1.0715995,0.68887764,-0.68887758,0.22559988,0
4.1096263,1.3356285,-1.9721992,0.86518449,0.28118494,-0.41519985,0
0.14268975,4.708766,0.6080004,0.030039947,0.99131918,0.12800008,0
-0.53538221,-4.3901334,-1.7327999,-0.11271205,-0.92423862,-0.36479998,0
-3.648,2.7360001,1.3299997,-0.76800001,0.57600003,0.27999994,0
1.7156903,4.2320366,-1.3071998,0.36119795,0.89095509,-0.27519998,0
-3.1451859,3.5554276,0.17100038,-0.66214442,0.74851108,0.03600008,0
0,-2.7187269,3.895,0,-0.57236356,0.81999999,0
-1.9954852,-1.814077,3.9101999,-0.42010215,-0.38191095,0.82319999,0
2.9369922,2.0731709,3.1045997,0.61831415,0.43645704,0.65359992,0
-4.4341292,-0.77597255,-1.5162002,-0.93350089,-0.16336264,-0.31920004,0
-4.668519,-0.70735157,0.51680034,-0.98284608,-0.14891613,0.10880008,0
1.622249,2.3432486,-3.7999992,0.34152612,0.49331549,-0.79999983,0
3.5844657,2.6493878,1.6415994,0.75462437,0.55776584,0.34559989,0
4.55901,1.3025745,-0.2850008,0.9597916,0.27422622,-0.06000017,0
3.4239559,-3.2869978,0.18619983,0.72083282,-0.69199955,0.039199963,0
-4.4410572,-1.0248594,-1.3375996,-0.93495941,-0.21575987,-0.28159991,0
-4.468338,-1.3284249,-0.91200024,-0.94070274,-0.27966842,-0.19200005,0
-1.7102286,-1.8138789,-4.0431995,-0.36004812,-0.38186923,-0.85119992,0
-1.4216673,-2.4286816,-3.8266001,-0.29929838,-0.5113014,-0.80559999,0
0.87358707,-3.3196299,3.2832,0.18391307,-0.69886947,0.69120002,0
-3.3606486,-3.1288793,-1.2160001,-0.70750499,-0.65871143,-0.25600001,0
-0.87358707,-3.3196299,3.2832,-0.18391307,-0.69886947,0.69120002,0
-4.4379835,1.6642439,0.31160012,-0.93431234,0.35036716,0.065600023,0
-4.5180864,1.4199703,-0.36479995,-0.95117611,0.29894111,-0.076799989,0
3.7989719,2.8140533,0.45980057,0.79978353,0.59243226,0.096800119,0
2.3102093,2.1325011,3.5606,0.48635983,0.44894761,0.74959999,0
-3.3612282,2.0167372,2.6828001,-0.707627,0.42457625,0.56480002,0
-3.7387059,0.67976457,-2.8499999,-0.78709596,0.14310832,-0.59999996,0
-1.3758938,-4.5404496,0.23180047,-0.28966185,-0.95588416,0.0488001,0
0.18961944,0.56885833,4.7119999,0.039919883,0.11975965,0.99199998,0
-3.2395256,1.3883681,-3.1844006,-0.68200541,0.29228804,-0.67040014,0
3.1586983,-2.4937093,2.5232,0.66498911,-0.52499145,0.53119999,0
-2.967659,3.6742442,0.50540006,-0.62477034,0.77352506,0.10640001,0
-4.6717196,0,0.85880017,-0.98351991,0,0.18080004,0
0.18236025,2.5530455,4.0014,0.038391631,0.53748327,0.84240001,0
3.9887767,2.4929852,-0.66119963,0.83974248,0.52483898,-0.13919993,0
1.1459635,-1.6370909,-4.3091998,0.24125548,-0.34465072,-0.90719998,0
-4.2473054,-2.1236527,-0.11399978,-0.89416957,-0.44708478,-0.023999954,0
0.22749257,4.5498557,-1.3451992,0.047893174,0.95786434,-0.28319985,0
3.8166893,1.3275437,2.4965997,0.80351353,0.2794829,0.52559996,0
-0.36217827,2.7163353,3.8798003,-0.076248057,0.57186007,0.81680006,0
-4.3170123,-1.9496183,0.35340008,-0.90884471,-0.41044596,0.074400015,0
-4.4686432,-1.4414978,0.71819997,-0.94076699,-0.30347323,0.1512,0
3.6201415,-0.17238754,3.0704002,0.76213503,-0.036292113,0.64640003,0
1.7505592,3.7928779,-2.2609997,0.36853877,0.7985006,-0.47599992,0
0.15195234,-4.5585747,1.3261998,0.031989966,-0.95969993,0.27919996,0
-2.33213,-0.8810268,-4.0431995,-0.49097472,-0.18547933,-0.85119992,0
-1.4387908,-2.5178833,3.7620001,-0.30290332,-0.53008068,0.792,0
-1.1085584,1.8475978,4.2331996,-0.23338072,0.38896796,0.89119989,0
1.3931028,-2.9255161,-3.4732003,0.2932848,-0.61589813,-0.73120004,0
1.0566065,0.35969591,-4.6170015,0.22244348,0.075725459,-0.9720003,0
-3.7526996,-0.17057709,2.9070001,-0.79004204,-0.035910968,0.61199999,0
3.6913831,0.24609198,-2.9791994,0.77713329,0.051808838,-0.62719989,0
0.67885053,3.3942537,-3.2527995,0.1429159,0.71457976,-0.68479991,0
-4.4359169,-1.5740352,0.63839984,-0.93387723,-0.33137584,0.13439997,0
3.8589184,2.3153505,1.5200002,0.81240386,0.48744223,0.32000005,0
-4.7467828,0,-0.1748004,-0.99932271,0,-0.036800083,0
-1.5386717,-4.4761353,0.39900005,-0.32393089,-0.94234425,0.084000014,0
3.4619646,-0.86549139,3.1350002,0.72883463,-0.18220872,0.66000003,0
0.12342679,-4.6902223,-0.74099988,0.025984587,-0.98741519,-0.15599997,0
4.6077724,-0.44591346,1.0639999,0.97005731,-0.093876518,0.22399998,0
-4.2184243,0.16224694,2.1774001,-0.88808936,0.03415725,0.45840001,0
0.82797301,3.9742696,2.4661999,0.1743101,0.83668834,0.51919997,0
0.77088541,-1.8257812,-4.3167996,0.16229166,-0.38437501,-0.90879995,0
4.4885368,0,1.5541996,0.94495511,0,0.32719991,0
-3.2597599,-3.1473541,-1.4250005,-0.68626523,-0.66260087,-0.3000001,0
1.2368283,3.0037265,3.4655998,0.26038492,0.6323635,0.72959995,0
-3.9068139,-1.8505962,-1.9684,-0.82248712,-0.3895992,-0.41440001,0
-1.0596483,2.5902512,-3.8380001,-0.22308385,0.54531604,-0.80800003,0
-0.87358707,3.3196299,3.2832,-0.18391307,0.69886947,0.69120002,0
3.1054394,2.7785513,2.2799997,0.65377671,0.5849582,0.47999993,0
2.228965,-4.1793089,0.3571994,0.46925581,-0.8798545,0.075199872,0
-4.5084081,0.90168166,1.1931998,-0.94913852,0.18982773,0.25119996,0
-2.8679302,-3.7283094,0.66120034,-0.60377479,-0.78490722,0.13920008,0
-3.1007164,1.8948823,3.0589998,-0.65278238,0.39892259,0.64399993,0
3.8725114,-1.7749013,2.1013997,0.81526554,-0.37366343,0.44239992,0
-1.6693858,4.2493443,1.3110005,-0.35144964,0.89459878,0.27600011,0
-3.1586986,2.4937088,2.5232003,-0.66498917,0.52499133,0.53120005,0
-1.3172307,1.0132544,-4.4498,-0.27731171,0.21331672,-0.9368,0
1.3657973,-3.3743224,-3.0514007,0.28753626,-0.71038365,-0.64240015,0
-0.18236025,-2.5530455,4.0014,-0.038391631,-0.53748327,0.84240001,0
3.8265073,2.6491208,0.95000011,0.8055805,0.55770963,0.20000002,0
2.6845946,-3.4741809,1.8125998,0.5651778,-0.73140651,0.38159996,0
-3.9696162,2.3350682,-1.1628,-0.83570868,0.4915933,-0.24479999,0
-4.3032846,-0.30737746,-1.9874005,-0.90595466,-0.064711042,-0.41840011,0
1.5003989,-4.3511562,1.1741993,0.31587344,-0.91603291,0.24719986,0
-3.3360775,0.35116571,3.3630002,-0.70233208,0.073929623,0.708,0
2.5513821,0.36448285,3.9900002,0.53713304,0.076733232,0.84000003,0
1.4991852,-0.37479657,4.4916,0.31561795,-0.078904539,0.94560003,0
3.310982,1.0455734,3.2414,0.69704884,0.22012071,0.68239999,0
1.9934031,4.2715788,0.58519989,0.41966382,0.89927977,0.12319998,0
-2.3450277,-3.182538,2.6334002,-0.49369004,-0.670008,0.55440003,0
-1.6312361,-2.1749814,3.895,-0.34341812,-0.45789081,0.81999999,0
2.1638591,-4.2004318,-0.4863998,0.4555493,-0.88430142,-0.10239996,0
-0.98916954,-0.51706588,-4.6169996,-0.20824622,-0.10885598,-0.97199994,0
3.473279,-3.2159991,-0.3951996,0.73121661,-0.67705244,-0.083199918,0
0.56542158,4.0521879,-2.4130003,0.11903612,0.85309219,-0.50800008,0
4.1832252,-0.69720405,-2.1394005,0.88067895,-0.14677981,-0.45040011,0
-4.3032846,0.30737716,-1.9874004,-0.90595466,0.064710982,-0.41840008,0
1.236256,3.7087686,-2.6980004,0.26026443,0.78079337,-0.56800008,0
0.95723039,-4.649405,0.17099994,0.20152219,-0.97882211,0.035999987,0
3.6884279,2.4951134,-1.6529996,0.77651113,0.52528703,-0.34799993,0
3.1545677,-1.2267761,3.3325999,0.66411954,-0.25826865,0.70159996,0
-4.253777,-1.9068655,0.91199958,-0.89553201,-0.40144536,0.19199991,0
1.903398,3.8067961,-2.1089997,0.40071538,0.80143076,-0.44399995,0
1.6416,-3.6479998,-2.5612004,0.34560001,-0.76799995,-0.53920007,0
-2.1485295,3.3123162,-2.6410003,-0.45232201,0.6973297,-0.55600005,0
-2.4951134,3.6884284,-1.6529992,-0.52528703,0.77651125,-0.34799981,0
-1.4780496,-0.97334969,-4.4079995,-0.31116834,-0.20491572,-0.92799991,0
2.2114813,0.32250765,-4.1914005,0.46557501,0.067896344,-0.8824001,0
-2.0111842,-1.4626794,4.0469999,-0.4234072,-0.3079325,0.852,0
-2.0370803,0.37037784,4.2750001,-0.428859,0.077974282,0.90000004,0
-2.5309682,-3.8708928,1.0830003,-0.53283542,-0.81492478,0.22800006,0
4.3960071,0.47100034,1.7366006,0.92547518,0.099157967,0.36560014,0
-1.4059488,-4.2178459,-1.6719996,-0.29598922,-0.88796759,-0.35199991,0
0.61630327,-3.4667065,-3.1881995,0.12974806,-0.72983295,-0.67119992,0
-4.1482358,-2.0741177,1.0260001,-0.87331277,-0.43665636,0.21600004,0
-4.4152012,1.4717339,0.94999957,-0.92951602,0.30983871,0.19999991,0
1.142328,4.569313,0.61560029,0.24049011,0.96196061,0.12960006,0
-1.7749013,3.8725114,2.1013997,-0.37366343,0.81526554,0.44239992,0
0,4.3298392,-1.9532006,0,0.9115451,-0.41120014,0
1.3284249,-4.468338,-0.91200024,0.27966842,-0.94070274,-0.19200005,0
-2.4471536,-0.20392942,-4.0659995,-0.51519024,-0.04293251,-0.85599989,0
1.3172307,1.0132544,-4.4498,0.27731171,0.21331672,-0.9368,0
1.0132544,1.3172307,-4.4498,0.21331672,0.27731171,-0.9368,0
2.664253,-3.1400125,-2.367399,0.56089538,-0.66105527,-0.49839979,0
0.36661595,-2.3830059,4.0925999,0.077182308,-0.50168544,0.86159998,0
3.348419,3.348419,0.37239966,0.70493031,0.70493031,0.078399926,0
-2.872081,-3.5613806,-1.2768,-0.60464865,-0.74976432,-0.26880002,0
2.0995915,2.6063893,-3.3706009,0.44201925,0.54871351,-0.70960021,0
1.9876574,-2.3851888,-3.5948007,0.4184542,-0.50214499,-0.75680017,0
1.8543385,0.88502514,-4.2825994,0.39038706,0.18632108,-0.90159988,0
4.6117663,-0.72817367,-0.87399989,0.97089815,-0.15329972,-0.18399997,0
-4.4728355,1.5335437,-0.45219988,-0.94164962,0.3228513,-0.095199972,0
-4.1482358,2.0741177,1.0260001,-0.87331277,0.43665636,0.21600004,0
3.1288793,-3.3606486,-1.2160001,0.65871143,-0.70750499,-0.25600001,0
-1.1814765,-1.8630975,-4.2065997,-0.2487319,-0.39223108,-0.88559991,0
0.32882658,-1.3153062,-4.5523996,0.069226645,-0.27690658,-0.95839995,0
-2.4112012,-3.5163348,-2.0938001,-0.50762129,-0.74028099,-0.44080001,0
4.4341455,0.32444933,-1.6720008,0.93350428,0.06830512,-0.35200015,0
-1.2472456,-4.5732331,0.30400041,-0.26257801,-0.9627859,0.064000085,0
3.4009898,2.937218,1.5389996,0.71599787,0.61836165,0.32399991,0
0.40305102,3.6274581,-3.0399997,0.084852844,0.76367539,-0.63999993,0
2.8276906,1.5905753,3.4693999,0.5953033,0.33485797,0.73039997,0
-4.5498552,-0.22749288,-1.3452002,-0.95786428,-0.047893237,-0.28320003,0
3.8928959,-1.6969032,-2.1279993,0.81955701,-0.35724279,-0.44799986,0
-3.9991241,1.7890819,-1.8354001,-0.84192085,0.37664881,-0.38640001,0
-3.2074523,-1.0205529,-3.3515997,-0.67525309,-0.21485324,-0.70559996,0
-3.4009893,2.9372182,1.539,-0.71599776,0.61836171,0.324,0
-1.9033409,4.3504939,0.11400033,-0.40070334,0.91589344,0.024000069,0
1.5533594,4.1940689,1.5998002,0.32702303,0.88296187,0.33680004,0
-0.39408401,-4.7290082,-0.20900039,-0.082965054,-0.99558067,-0.044000082,0
2.0037861,1.6394607,3.9824002,0.4218497,0.34514961,0.83840007,0
0.9185316,4.4395695,1.4173995,0.19337507,0.93464619,0.2983999,0
-4.6463294,0.58079147,0.7980001,-0.97817463,0.12227189,0.16800003,0
-0.64631271,-4.2010336,2.1204002,-0.13606584,-0.88442814,0.44640005,0
-1.9530044,-2.4856412,3.5454001,-0.4111588,-0.5232929,0.74640006,0
0.67175162,-4.70226,1.1324882e-07,0.14142139,-0.98994946,2.3841856e-08,0
-1.9496183,4.3170123,0.35340008,-0.41044596,0.90884471,0.074400015,0
3.100204,1.7051125,-3.1691997,0.6526745,0.35897103,-0.66719991,0
4.7263355,-0.12773867,-0.45600012,0.99501801,-0.026892351,-0.096000023,0
3.5596488,2.9663739,-1.0450003,0.74939972,0.6244998,-0.22000007,0
4.584331,1.1460824,-0.48260021,0.96512234,0.24128051,-0.10160004,0
-4.0739384,0.97774529,2.2381999,-0.85767126,0.20584111,0.47119999,0
-4.4171677,-1.432595,-0.9994002,-0.92993003,-0.30159894,-0.21040004,0
-4.4538851,-1.4846284,-0.72200042,-0.93766004,-0.31255335,-0.15200008,0
4.0882664,0.47537994,-2.3712003,0.86068767,0.10007999,-0.49920008,0
-1.2631499,-2.5262997,3.8190002,-0.26592627,-0.53185254,0.80400008,0
1.1675347,0.84646279,-4.5257998,0.24579678,0.17820269,-0.95279998,0
3.2342441,-2.7491076,2.1318004,0.68089348,-0.57875949,0.44880009,0
-2.6802125,1.4294463,3.6517999,-0.56425524,0.30093607,0.76879996,0
0.31445974,-4.4024405,1.7556,0.066202052,-0.92682958,0.3696,0
0,2.2133622,4.2027998,0,0.46597099,0.88479996,0
-1.9465498,3.6984448,-2.2571998,-0.40979996,0.77861995,-0.47519994,0
3.9742696,0.82797301,2.4661999,0.83668834,0.1743101,0.51919997,0
-0.92184293,-2.0280542,4.1952,-0.1940722,-0.4269588,0.88319999,0
-0.93833864,-1.1260061,4.5181999,-0.19754498,-0.23705392,0.95120001,0
0.18612225,1.8612248,4.3662,0.039183632,0.39183679,0.9192,0
-2.7181292,0.18120843,3.8911998,-0.57223773,0.038149145,0.81919998,0
2.1369345,1.7326497,-3.8722005,0.44988096,0.36476836,-0.81520009,0
1.3717103,-3.4292762,2.9868002,0.28878111,-0.72195292,0.62880003,0
1.432595,4.4171677,-0.9994002,0.30159894,0.92993003,-0.21040004,0
-2.1236527,-4.2473054,-0.11399978,-0.44708478,-0.89416957,-0.023999954,0
-3.0976593,-3.4550822,-1.0146003,-0.65213883,-0.7273857,-0.21360005,0
3.3475564,3.3475564,-0.38759962,0.70474869,0.70474869,-0.081599921,0
2.2041452,-0.71874309,-4.1457992,0.46403056,-0.15131433,-0.87279981,0
-4.6948609,-0.50755244,-0.51300013,-0.98839176,-0.10685315,-0.10800003,0
2.7783628,-0.41379863,-3.8304009,0.5849185,-0.087115504,-0.80640018,0
-2.3665185,-3.9934998,1.0070004,-0.49821442,-0.84073681,0.21200009,0
0,-3.3392012,3.3782001,0,-0.70298976,0.7112,0
0.86414719,2.9912789,-3.5871994,0.18192573,0.62974292,-0.75519991,0
-3.5072167,2.5507035,1.9379997,-0.73836142,0.53699023,0.40799993,0
-3.5873649,1.0845522,-2.9184003,-0.75523472,0.22832677,-0.61440009,0
-1.1797332,-3.7077332,2.7246001,-0.24836488,-0.78057539,0.57359999,0
1.8553306,-2.6112061,-3.5073996,0.39059591,-0.54972762,-0.73839992,0
-3.5130134,-1.84015,2.6143997,-0.73958176,-0.3874,0.55039996,0
1.1206778,4.162518,1.9950002,0.23593217,0.87631959,0.42000005,0
-2.2323115,-2.9191766,3.0096002,-0.4699603,-0.61456347,0.63360006,0
-1.7037394,-0.62964278,-4.3889999,-0.35868198,-0.13255638,-0.92399997,0
2.2551265,-4.134398,-0.61939967,0.47476348,-0.87039959,-0.13039993,0
2.7769525,-3.0642233,-2.3370004,0.58462161,-0.64509964,-0.49200007,0
-4.1626291,1.6431428,-1.5921996,-0.87634295,0.34592479,-0.33519992,0
-1.1460828,-4.584331,-0.48260042,-0.24128059,-0.96512234,-0.10160009,0
-0.18858857,1.1315325,4.6093998,-0.039702859,0.23821738,0.97039998,0
-1.9876583,1.3416692,-4.1001997,-0.41845438,0.28245667,-0.86319995,0
-3.8526266,2.7111077,0.6080004,-0.81107926,0.57075953,0.12800008,0
-3.0368869,0.17864025,3.6480002,-0.63934463,0.037608474,0.76800007,0
-4.5935197,-1.0048323,0.67260021,-0.96705675,-0.21154363,0.14160004,0
4.4545889,0.76803273,1.4591994,0.93780822,0.1616911,0.30719987,0
-2.4516335,3.788888,-1.4819993,-0.51613337,0.79766065,-0.31199986,0
4.6902223,-0.12342679,-0.74099988,0.98741519,-0.025984587,-0.15599997,0
0.44591302,-4.6077724,1.064,0.093876421,-0.97005731,0.22400001,0
2.8563139,2.6882956,2.6789994,0.60132927,0.56595695,0.56399989,0
-2.333333,1.794872,3.7277999,-0.49122801,0.37786779,0.78479999,0
-3.0833156,-2.0555437,2.9715998,-0.64911908,-0.43274602,0.62559998,0
-4.6023679,-1.1157258,0.36860034,-0.96891958,-0.23488963,0.077600069,0
1.3657973,3.3743224,-3.0514007,0.28753626,0.71038365,-0.64240015,0
2.5083108,1.6124852,3.6974003,0.52806544,0.33947057,0.77840006,0
2.5755334,2.2075999,-3.325001,0.54221755,0.46475786,-0.70000023,0
2.0956154,0.34926912,-4.2484007,0.4411822,0.073530339,-0.89440012,0
4.0003443,0,2.5611999,0.84217775,0,0.53920001,0
1.9954851,1.8140776,3.9101996,0.42010212,0.38191107,0.82319993,0
0.70643252,-3.1789448,3.4579999,0.14872263,-0.66925156,0.72799999,0
0.8883391,-3.0203521,3.5568001,0.18701875,-0.6358636,0.74880004,0
0.91119295,0.81268555,-4.5903997,0.1918301,0.17109169,-0.96639997,0
-3.818013,-2.5453422,-1.2273996,-0.80379218,-0.53586149,-0.2583999,0
-2.849088,3.3239355,1.8430003,-0.59980798,0.69977587,0.38800007,0
1.8432851,0.037618026,-4.3776002,0.38806,0.0079195844,-0.92160004,0
-2.1173191,-1.615849,-3.9330003,-0.4457514,-0.34017873,-0.82800007,0
-2.8301404,3.6555979,-1.0906003,-0.595819,0.76959956,-0.22960006,0
2.8602643,3.7307794,-0.68020058,0.60216093,0.78542727,-0.14320011,0
3.1007164,-1.8948823,3.0589998,0.65278238,-0.39892259,0.64399993,0
0.78997868,0.14509809,-4.6816001,0.16631131,0.030546967,-0.98559999,0
-4.715137,0.52390438,-0.23560046,-0.9926604,0.11029566,-0.049600095,0
4.140183,0.28884971,-2.3104002,0.8716175,0.060810465,-0.48640004,0
4.2824416,1.3176744,-1.5769997,0.90156668,0.27740514,-0.33199993,0
-2.4403071,-4.0193295,0.67260015,-0.51374888,-0.84617466,0.14160003,0
-2.832104,-2.832104,2.5536003,-0.59623241,-0.59623241,0.53760004,0
3.2643638,3.4062924,0.55099952,0.68723446,0.71711421,0.1159999,0
-4.253777,-1.9068655,0.91199958,-0.89553201,-0.40144536,0.19199991,0
3.40748,-0.1481514,-3.3059993,0.71736419,-0.031189768,-0.69599986,0
-4.3504939,1.9033409,0.11400033,-0.91589344,0.40070334,0.024000069,0
4.0091314,-0.65264922,-2.4624002,0.8440277,-0.13739984,-0.51840001,0
-0.28839958,2.3071966,-4.1420007,-0.060715701,0.48572561,-0.87200016,0
0.30737716,-4.3032846,-1.9874004,0.064710982,-0.90595466,-0.41840008,0
-0.56161636,1.4976432,4.4726,-0.11823502,0.31529331,0.94160002,0
-3.9887767,2.4929852,-0.66119963,-0.83974248,0.52483898,-0.13919993,0
-4.0595136,1.1366637,2.1888001,-0.85463446,0.23929761,0.46080002,0
3.1307483,1.5653735,3.211,0.65910488,0.32955232,0.676,0
-0.73653376,3.9588685,-2.5194004,-0.15505974,0.83344603,-0.5304001,0
4.4231248,1.6428748,-0.54720056,0.93118417,0.34586838,-0.11520012,0
