-3.5401962,1.9970341,-3.0804,-0.69415611,0.39157531,-0.60400003,0
-2.0473714,4.5672135,0.97919953,-0.40144539,0.89553207,0.19199991,0
-4.8944697,0.16314884,1.4239197,-0.95969999,0.031989969,0.27919993,0
-2.854178,-1.9027852,3.7739999,-0.55964273,-0.37309515,0.74000001,0
3.2802792,-3.6083074,1.4932802,0.64319199,-0.70751125,0.29280004,0
0.40734628,0.40734628,5.0673599,0.079871818,0.079871818,0.99360001,0
1.1979367,-4.9414897,0.39576054,0.23488954,-0.96891958,0.077600107,0
-2.5572522,3.9211199,2.0236795,-0.50142199,0.76884705,0.39679992,0
4.1650586,-0.18108933,2.9375997,0.81667817,-0.035507713,0.57599992,0
-3.1943507,3.5305979,1.8278403,-0.62634331,0.69227409,0.35840008,0
4.452518,1.5983397,-1.9053594,0.87304276,0.31339994,-0.37359989,0
5.0286527,0.26466566,-0.80783981,0.98601037,0.051895227,-0.15839997,0
5.0358176,0.13252139,-0.79559982,0.98741525,0.025984587,-0.15599997,0
3.5102704,3.6452806,-0.63239938,0.68828833,0.7147609,-0.12399988,0
-3.7358184,-0.37358207,3.4516802,-0.73251343,-0.073251389,0.67680007,0
-3.7986619,2.5899963,2.2072802,-0.74483567,0.50784242,0.43280002,0
4.9787016,0,-1.1056795,0.97621602,0,-0.21679991,0
4.1885724,-0.87667793,-2.7744002,0.8212887,-0.17189763,-0.54400003,0
5.0125151,-0.75947219,0.55488038,0.98284608,-0.14891613,0.10880008,0
-3.083708,3.8237979,-1.37088,-0.60464865,0.74976432,-0.26880002,0
0.41125125,-4.4209485,-2.5092003,0.0806375,-0.86685264,-0.49200007,0
-1.3035586,4.7253995,1.4075993,-0.25559974,0.92654896,0.27599987,0
-2.4654398,1.3501219,-4.2554407,-0.48341957,0.26472977,-0.83440018,0
0,3.2711792,-3.9127209,0,0.64140767,-0.76720017,0
4.6608853,-1.3146089,-1.5993596,0.91389912,-0.25776646,-0.31359994,0
-0.17165102,4.6345816,2.1216004,-0.033657063,0.90874147,0.4160001,0
2.1341186,1.4405301,-4.402319,0.41845462,0.28245687,-0.86319983,0
0.66151416,-4.7959752,1.6034395,0.12970866,-0.94038731,0.3143999,0
-3.999166,-2.6661105,1.7054398,-0.78415024,-0.52276677,0.33439997,0
-1.6465417,-4.802413,-0.48551986,-0.32285133,-0.94164962,-0.095199972,0
1.9020344,1.9020344,-4.3329587,0.37294793,0.37294793,-0.84959978,0
1.5615424,-1.3505231,-4.6634398,0.3061848,-0.26480845,-0.91439998,0
-1.9411885,-4.5294394,1.3137599,-0.38062519,-0.88812542,0.25759998,0
-4.7550821,1.8181195,-0.30600005,-0.93236905,0.35649404,-0.06000001,0
-4.6030536,-0.85241759,2.0236804,-0.90255952,-0.16714071,0.3968001,0
3.8840547,0.36990964,3.2844002,0.76157933,0.072531305,0.64400005,0
-3.7922475,1.8058325,2.8927195,-0.74357796,0.35408482,0.56719989,0
-1.2934242,-3.695498,3.2680802,-0.25361261,-0.72460747,0.64080006,0
4.141552,-1.6566209,-2.4724791,0.81206906,-0.32482761,-0.48479983,0
0.68757415,3.1628401,-3.9412794,0.13481846,0.62016475,-0.77279991,0
-3.5642343,-0.93795663,3.52512,-0.69886947,-0.18391307,0.69120002,0
0.43550971,-5.0809517,0.065280236,0.085394062,-0.99626505,0.012800046,0
-3.7718668,1.97574,2.8070397,-0.73958176,0.3874,0.55039996,0
0.75196111,3.5718133,3.5618398,0.14744335,0.70035559,0.69839996,0
-1.501168,3.3183715,-3.5700004,-0.29434666,0.65066111,-0.70000011,0
4.7608719,-0.34835646,-1.7952008,0.93350428,-0.068305187,-0.35200018,0
-4.6203685,-0.33002633,-2.1338406,-0.9059546,-0.064711049,-0.41840011,0
3.4028275,-3.2326863,1.9951202,0.66722107,-0.63386005,0.39120004,0
1.3273479,-0.82169145,-4.8552003,0.26026431,-0.16111597,-0.95200008,0
3.2245526,-3.7206378,-1.33008,0.63226521,-0.72953683,-0.2608,0
-3.999166,2.666111,1.7054394,-0.78415024,0.52276689,0.33439991,0
-3.6790652,-1.0033815,-3.3864,-0.72138536,-0.19674148,-0.66400003,0
1.5381546,-4.7426434,-1.0730401,0.30159894,-0.92993009,-0.21040003,0
-4.4993429,-0.86525846,2.2399201,-0.88222414,-0.16965853,0.43920004,0
1.3485492,4.5513544,1.8645605,0.26442143,0.89242244,0.36560011,0
-4.8472033,-1.3100548,-0.89352006,-0.950432,-0.25687349,-0.17520002,0
4.0340452,1.7144696,-2.6071193,0.79098928,0.33617049,-0.51119989,0
-4.1293511,2.9902194,-0.13056014,-0.80967671,0.58631754,-0.025600029,0
-0.34835646,4.7608719,-1.7952008,-0.068305187,0.93350428,-0.35200018,0
0.43791172,4.5980711,-2.1624005,0.085865043,0.9015826,-0.42400011,0
-4.3171916,2.3436182,-1.3708798,-0.84650815,0.45953298,-0.26879996,0
1.7876263,-1.3903762,4.5696001,0.35051495,-0.27262279,0.89600003,0
2.6044462,-2.7904785,3.3823199,0.51067573,-0.54715264,0.66320002,0
-4.969358,-1.1358534,-0.15911992,-0.97438395,-0.22271636,-0.031199984,0
0.49719065,-4.8061814,1.6319995,0.097488366,-0.94238853,0.3199999,0
4.3722677,2.6233606,0.1060796,0.85730743,0.51438445,0.020799922,0
-3.0674653,1.1502995,3.9086399,-0.60146379,0.22554894,0.76639998,0
2.9029703,-0.96765721,4.0800004,0.56920987,-0.18973671,0.80000007,0
3.1642368,2.531389,-3.09672,0.62043858,0.4963508,-0.60720003,0
3.9002964,-2.5630517,-2.0563204,0.76476401,-0.50255919,-0.40320009,0
3.1799784,-0.27063638,-3.9780009,0.6235252,-0.053065959,-0.78000021,0
-0.11669074,-4.7843251,-1.7625599,-0.022880537,-0.93810296,-0.34559998,0
-0.67289066,-4.7102356,1.836,-0.13193935,-0.92357564,0.36000001,0
4.8714585,-0.64952761,1.3627197,0.95518798,-0.12735836,0.26719993,0
2.7709475,-2.7709479,3.2640002,0.54332304,-0.54332316,0.64000005,0
0.0017818664,0.0013364,-5.0999994,0.00034938558,0.00026203922,-0.99999988,0
1.2149087,-0.20248458,4.9490399,0.2382174,-0.039702859,0.97040004,0
3.8042033,3.3476992,0.57527947,0.74592221,0.65641159,0.1127999,0
-2.5337358,-1.3643191,4.2105598,-0.49681094,-0.26751354,0.82559997,0
3.2138464,-1.5123985,3.6597595,0.63016599,-0.29654872,0.71759993,0
-4.8932791,0.12233186,-1.4320801,-0.95946652,0.023986639,-0.28080004,0
-2.7202549,-1.4248954,-4.0718403,-0.53338331,-0.27939126,-0.79840004,0
-0.20755945,4.4625258,-2.4602401,-0.040697932,0.87500507,-0.48240003,0
-2.8535364,-4.2052116,0.42840001,-0.55951697,-0.82455134,0.084000006,0
2.6209035,-3.6692655,2.38272,0.51390266,-0.71946383,0.46720001,0
3.5560291,-0.38652501,-3.6352792,0.69726062,-0.075789221,-0.71279985,0
4.2718396,1.8796097,2.05632,0.83761561,0.36855093,0.4032,0
-3.243854,2.7032113,2.8600802,-0.63604981,0.53004146,0.56080008,0
4.1181712,-0.95771414,-2.8519201,0.80748457,-0.18778709,-0.55920005,0
3.0129716,3.1902051,2.5989597,0.59077877,0.62553042,0.50959992,0
0.77170247,-2.3665547,-4.4512801,0.15131421,-0.46403036,-0.87280005,0
-4.0723529,-1.8795477,-2.4275997,-0.7985006,-0.36853877,-0.47599995,0
-0.72985244,-4.0141892,3.0599999,-0.14310832,-0.78709596,0.60000002,0
-1.659,3.5799477,-3.2313607,-0.32529414,0.70195055,-0.63360012,0
-2.0473714,4.5672135,0.97919953,-0.40144539,0.89553207,0.19199991,0
-0.92782122,3.2116888,-3.8515193,-0.18192573,0.62974292,-0.75519991,0
1.5155647,-4.3301854,-2.22768,0.29716954,-0.84905601,-0.4368,0
1.8966067,-0.11611877,-4.7328005,0.37188366,-0.022768388,-0.92800009,0
-3.2678738,2.5416791,2.9784,-0.64075959,0.49836847,0.58399999,0
3.2245526,3.7206378,-1.33008,0.63226521,0.72953683,-0.2608,0
0.75848496,-2.9075255,-4.1208005,0.14872254,-0.57010305,-0.80800009,0
-1.8000293,-0.80001283,4.7042398,-0.35294694,-0.15686527,0.9224,0
-4.43187,-2.4451694,0.6242395,-0.86899412,-0.47944501,0.1223999,0
0.81272984,0.40636432,5.0183997,0.1593588,0.079679281,0.98399997,0
-0.92895073,-4.9544034,0.77520019,-0.1821472,-0.97145164,0.15200004,0
-1.4257129,4.175303,-2.5581608,-0.27955157,0.8186869,-0.50160015,0
-0.63689816,-4.9359617,1.11384,-0.124882,-0.96783566,0.2184,0
0.36990964,-3.8840551,3.2843997,0.072531305,-0.76157945,0.64399993,0
2.515908,-1.7417825,4.0799999,0.49331531,-0.341526,0.80000001,0
-2.3047051,-4.2801666,1.5422404,-0.45190299,-0.83924836,0.30240008,0
-4.3301854,-1.5155647,-2.22768,-0.84905601,-0.29716954,-0.4368,0
0.079533726,1.9485782,-4.7124004,0.015594848,0.38207418,-0.92400008,0
2.4538679,-3.6808019,-2.5377605,0.48115057,-0.72172588,-0.49760011,0
1.8230344,4.47472,1.6320002,0.35745773,0.87739611,0.32000005,0
2.9029703,0.96765721,4.0800004,0.56920987,0.18973671,0.80000007,0
1.3501219,2.4654398,-4.2554407,0.26472977,0.48341957,-0.83440018,0
0.47876975,-4.9472923,1.1424,0.093876421,-0.97005731,0.22400001,0
2.5337358,1.3643191,4.2105598,0.49681094,0.26751354,0.82559997,0
-3.999166,-2.6661105,1.7054398,-0.78415024,-0.52276677,0.33439997,0
4.7001319,-1.9353483,-0.41615909,0.9215945,-0.37948006,-0.081599824,0
1.292787,-2.7794921,-4.0759201,0.25348765,-0.54499847,-0.79920006,0
-3.0214045,-4.078896,0.4936806,-0.59243226,-0.79978353,0.096800119,0
1.7925223,1.1950152,4.6226401,0.35147497,0.23431671,0.90640002,0
3.0617254,1.6428771,-3.7332013,0.60033834,0.32213277,-0.73200029,0
0.46246424,-4.7402558,-1.8237599,0.090679266,-0.92946196,-0.3576,0
4.7970805,1.2792212,1.1668798,0.94060403,0.2508277,0.22879995,0
3.8793266,0.55418903,3.2640004,0.7606523,0.10866452,0.6400001,0
-4.1041532,2.6266584,1.5055196,-0.8047359,0.5150311,0.29519993,0
3.8237979,-3.083708,-1.37088,0.74976432,-0.60464865,-0.26880002,0
3.3183715,-1.501168,-3.5700004,0.65066111,-0.29434666,-0.70000011,0
2.2896321,-1.9716276,-4.1085606,0.44894749,-0.38659364,-0.80560011,0
2.6500373,3.5333834,2.5500004,0.51961517,0.69282031,0.50000012,0
-3.7422631,-1.2184111,-3.2436001,-0.73377711,-0.23890413,-0.63600004,0
-1.8246318,3.6492636,-3.059999,-0.35777095,0.7155419,-0.59999979,0
-4.7682929,-1.1003754,-1.4361595,-0.93495941,-0.21575989,-0.28159991,0
-0.81272924,0.40636432,5.0184002,-0.15935868,0.079679281,0.98400003,0
0.92926443,3.7170568,3.3660002,0.18220872,0.72883469,0.66000003,0
0.17548735,1.7197757,-4.7980804,0.034409285,0.33721092,-0.94080013,0
3.7784588,0.94461483,-3.2925599,0.74087429,0.1852186,-0.64559996,0
-2.1675503,1.2386003,-4.4472008,-0.42500988,0.24286281,-0.87200016,0
-3.3721142,3.2597103,-2.0032809,-0.66119885,0.6391589,-0.39280018,0
3.4964433,-3.2633469,-1.7707202,0.68557715,-0.63987195,-0.34720007,0
0.43274948,-3.8947444,-3.2639995,0.084852844,-0.76367539,-0.63999993,0
-1.2615054,4.7937202,-1.1995198,-0.247354,0.93994516,-0.23519996,0
-3.4725568,-2.9516733,2.2888803,-0.68089348,-0.57875949,0.44880009,0
-2.4752622,-2.7148037,-3.5373602,-0.48534554,-0.53231448,-0.69360006,0
-2.1098375,2.493444,3.9167998,-0.41369364,0.48891059,0.76799995,0
3.0768178,-4.0558052,-0.30600101,0.60329759,-0.79525596,-0.0600002,0
0.5826543,-2.9132743,4.1452799,0.11424594,-0.57123029,0.81279999,0
2.3744338,0.39573857,4.49616,0.46557525,0.0775958,0.88160002,0
4.0872965,2.0436482,-2.2643998,0.8014307,0.40071535,-0.44399998,0
2.6233606,-4.3722677,0.1060796,0.51438445,-0.85730743,0.020799922,0
1.0892912,-3.9940677,2.9784,0.21358652,-0.78315055,0.58399999,0
1.5963696,-4.0796123,2.6112003,0.31301364,-0.79992402,0.51200008,0
-3.3870096,-1.3171701,3.5781598,-0.66411954,-0.25826865,0.70159996,0
0.56250781,-5.0625682,-0.25296047,0.11029565,-0.99266046,-0.049600095,0
-3.3476989,-3.8042035,0.57528001,-0.65641159,-0.74592227,0.1128,0
4.4390378,-2.4212937,-0.66503966,0.87039959,-0.47476348,-0.13039994,0
1.9411885,-4.5294394,1.3137599,0.38062519,-0.88812542,0.25759998,0
1.5264217,-2.6076369,-4.1085601,0.29929838,-0.51130134,-0.80560005,0
0.42312133,-5.0774612,-0.22440034,0.082964972,-0.99558067,-0.044000067,0
-2.8953626,4.1982765,0.036719687,-0.56771815,0.82319146,0.0071999389,0
-4.1565928,-0.54216433,2.9049602,-0.81501824,-0.10630673,0.56960005,0
1.6960218,-0.3886717,-4.7940006,0.3325533,-0.076210141,-0.94000012,0
0.28835502,-4.2292109,-2.8355999,0.056540202,-0.82925707,-0.55599999,0
3.1628401,0.68757415,-3.9412794,0.62016475,0.13481846,-0.77279991,0
-3.8219388,-3.1849489,-1.1220002,-0.74939978,-0.6244998,-0.22000004,0
-0.58584595,-2.1180587,-4.6022396,-0.11487176,-0.41530564,-0.90239996,0
4.5713081,1.1851538,1.9257604,0.89633495,0.23238312,0.37760007,0
-2.006763,-4.3479857,1.7544001,-0.39348295,-0.85254622,0.34400004,0
1.1465813,-4.8411226,-1.1219996,0.22481987,-0.94923973,-0.21999992,0
4.6907139,1.8762852,-0.69768053,0.91974783,0.36789906,-0.13680011,0
-2.7136385,-3.8443213,-1.9665602,-0.53208601,-0.75378847,-0.38560006,0
-1.4093136,0.80532253,4.8347998,-0.27633598,0.15790638,0.94799995,0
-2.3233011,-4.5099378,-0.52223939,-0.45554924,-0.88430154,-0.10239988,0
-4.0389318,-1.0332152,-2.9376004,-0.79194742,-0.20259121,-0.57600009,0
0.20359139,-0.61077482,5.0591998,0.039919883,-0.11975977,0.99199998,0
1.2327746,1.5111431,-4.7124,0.24172051,0.29630256,-0.92400002,0
-2.8891556,-0.49177125,-4.17384,-0.56650114,-0.096425734,-0.81840003,0
-1.8589761,-3.3461573,3.37008,-0.36450514,-0.65610927,0.66080004,0
0.37358153,-3.7358186,3.4516802,0.073251285,-0.73251349,0.67680007,0
-0.72985268,4.0141892,-3.0599999,-0.14310837,0.78709596,-0.60000002,0
-3.0710204,-4.0056791,-0.7303201,-0.60216087,-0.78542727,-0.14320002,0
-2.1341174,-1.440529,-4.4023199,-0.41845438,-0.28245667,-0.86320001,0
3.7248631,2.3058679,2.6112003,0.73036534,0.45213097,0.51200008,0
3.7656436,2.7386498,2.0807991,0.73836148,0.53699017,0.40799984,0
-4.9319892,1.0788726,0.72216022,-0.96705675,0.21154365,0.14160004,0
-2.4063356,4.3314037,1.2076803,-0.47183052,0.84929484,0.23680007,0
-0.24425551,-4.8851075,-1.4443202,-0.047893237,-0.95786422,-0.28320006,0
-1.3100548,-4.8472033,-0.89352006,-0.25687349,-0.950432,-0.17520002,0
-3.721745,-1.6339369,-3.0804,-0.72975391,-0.32037979,-0.60400003,0
2.5002425,0.58516318,-4.4064012,0.49024364,0.11473788,-0.86400026,0
1.0033815,-3.6790652,-3.3864,0.19674148,-0.72138536,-0.66400003,0
-4.4855661,1.0351307,2.1950402,-0.8795228,0.20296681,0.43040004,0
1.8465239,-2.7697856,-3.8637593,0.36206353,-0.54309523,-0.75759989,0
4.4805646,-2.3175333,0.75071943,0.87854207,-0.4544183,0.14719988,0
4.9787016,0,-1.1056795,0.97621602,0,-0.21679991,0
-4.4390378,2.4212937,-0.66503966,-0.87039959,0.47476348,-0.13039994,0
-4.726831,0.33763045,1.8849599,-0.92682964,0.066202052,0.3696,0
-0.73765665,3.8726978,3.2354403,-0.14463857,0.75935251,0.63440007,0
-2.9749043,2.464921,-3.3292804,-0.5833146,0.48331785,-0.65280008,0
-3.7733803,-3.3690894,-0.64872003,-0.73987848,-0.66060579,-0.12720001,0
-0.78945607,2.3683689,4.4471998,-0.1547953,0.46438605,0.87199998,0
-0.54495102,5.0407982,-0.55080009,-0.10685314,0.98839182,-0.10800002,0
1.4906689,-3.4782274,-3.4190407,0.29228804,-0.68200541,-0.67040014,0
0.95409226,3.0667253,-3.9616792,0.18707691,0.60131872,-0.77679986,0
-0.33002633,4.6203685,-2.1338406,-0.064711049,0.9059546,-0.41840011,0
1.4076884,-4.2230663,2.4887998,0.27601734,-0.82805222,0.48799998,0
-4.1565928,-0.54216433,2.9049602,-0.81501824,-0.10630673,0.56960005,0
3.4608481,3.5890274,-1.0730389,0.67859769,0.70373088,-0.21039979,0
-4.9998899,-0.52630407,-0.85679978,-0.98037058,-0.10319687,-0.16799995,0
0,3.6777625,-3.5332792,0,0.72112989,-0.69279987,0
1.5347739,2.8777013,3.9208803,0.30093607,0.56425518,0.76880008,0
-2.998575,4.0889659,-0.54672027,-0.58795589,0.80175805,-0.10720006,0
-1.4076889,4.2230663,2.4887996,-0.27601743,0.82805222,0.48799992,0
2.256115,-0.90244609,-4.4839196,0.44237548,-0.17695022,-0.87919992,0
-3.201097,-1.6946987,3.5904,-0.62766612,-0.33229387,0.704,0
-0.77707684,-4.9732904,0.8200801,-0.15236801,-0.975155,0.16080002,0
1.1129878,4.2495894,-2.5908008,0.2182329,0.83325285,-0.50800014,0
-0.67509079,-0.5366106,-5.0265594,-0.13237074,-0.10521777,-0.98559988,0
-4.9553695,-0.31970143,1.1628,-0.97164106,-0.062686555,0.228,0
-2.76689,3.0435786,-3.0151198,-0.5425275,0.59678012,-0.59119999,0
-0.63689816,-4.9359617,1.11384,-0.124882,-0.96783566,0.2184,0
2.8824069,-3.7301731,1.9461597,0.56517786,-0.73140651,0.38159996,0
2.1723962,1.1849433,4.4594398,0.42596003,0.23234183,0.87439996,0
-4.7666955,0.98621285,1.5218395,-0.93464619,0.19337507,0.2983999,0
-1.8000293,0.80001342,4.7042398,-0.35294694,0.15686537,0.9224,0
-0.19895995,2.1885619,4.6022396,-0.039011754,0.42912981,0.90239996,0
1.0146824,0.20293623,4.9939198,0.19895734,0.03979142,0.97920001,0
-4.1618857,0.36190277,2.9253602,-0.81605601,0.070961326,0.57360005,0
-4.592391,-1.6401396,1.4932799,-0.90046883,-0.321596,0.29279998,0
-0.72124904,5.0487423,-7.295609e-07,-0.14142138,0.98994946,-1.4305115e-07,0
3.9173844,-3.1339073,0.91800016,0.76811463,-0.61449164,0.18000004,0
-5.0779858,-0.29870519,0.36719987,-0.99568349,-0.058569647,0.071999975,0
2.9915059,2.243629,3.4679995,0.58656979,0.43992725,0.67999989,0
3.1134841,-2.5640452,3.1211998,0.6104871,-0.50275397,0.61199999,0
-4.1415515,-1.6566206,-2.4724801,-0.81206894,-0.32482758,-0.48480001,0
2.4472346,-4.2418737,1.4239205,0.47984993,-0.83173996,0.27920011,0
3.4344978,3.0051854,-2.2766392,0.67343098,0.58925205,-0.44639987,0
-0.098091215,-0.27119336,-5.0918398,-0.019233571,-0.05317517,-0.99839997,0
3.6808019,2.4538679,-2.5377605,0.72172588,0.48115057,-0.49760011,0
-4.2400603,-1.5900226,-2.3460002,-0.83138442,-0.31176913,-0.46000004,0
4.5438709,1.8421096,-1.4035199,0.89095509,0.36119795,-0.27519998,0
-2.0678921,3.0078433,3.5618396,-0.40546903,0.58977318,0.6983999,0
3.6300535,1.9965298,2.9743199,0.71177518,0.39147645,0.58319998,0
1.1358531,-4.969358,-0.15911973,0.22271629,-0.97438395,-0.031199947,0
3.9986038,2.786906,-1.5014399,0.78403997,0.54645216,-0.29439998,0
-4.43187,2.4451697,0.62423915,-0.86899412,0.47944504,0.12239984,0
-4.8472033,-1.3100548,-0.89352006,-0.950432,-0.25687349,-0.17520002,0
0.68368953,-4.6149015,2.0604002,0.13405678,-0.90488267,0.40400004,0
-2.9822817,-4.0195975,-0.97919983,-0.58476114,-0.78815639,-0.19199997,0
-0.14562784,5.0969796,0.097919323,-0.028554479,0.99940777,0.019199867,0
2.6044462,-2.7904785,3.3823199,0.51067573,-0.54715264,0.66320002,0
1.5763955,4.203723,2.41944,0.30909717,0.8242594,0.47440001,0
4.1693683,1.1912481,-2.6846406,0.81752318,0.23357806,-0.52640015,0
-4.8054018,1.6960242,-0.20400015,-0.94223565,0.33255377,-0.040000029,0
3.6762474,3.5291977,0.1999198,0.72083282,0.69199955,0.039199963,0
-3.3513916,3.6705718,1.1423994,-0.65713561,0.71971995,0.22399989,0
-1.3562241,2.7124481,4.1004,-0.2659263,0.5318526,0.80400002,0
2.2794859,3.8575923,2.4357595,0.44695804,0.75639069,0.47759992,0
-3.8398478,-2.2831528,-2.4602401,-0.75291133,-0.44767705,-0.48240003,0
2.5416791,3.2678738,2.9784,0.49836847,0.64075959,0.58399999,0
0.11669073,4.7843246,-1.7625608,0.022880536,0.9381029,-0.34560016,0
-0.58516365,-2.5002444,-4.4064002,-0.11473797,-0.490244,-0.86400008,0
0.2547957,4.9685206,-1.1219995,0.049959943,0.97421974,-0.21999991,0
-0.20194951,1.4136467,-4.8960004,-0.039597943,0.27718562,-0.9600001,0
1.5578623,-0.49719009,-4.8307209,0.30546319,-0.097488254,-0.94720018,0
2.0829351,2.8403654,3.6883202,0.40841866,0.55693442,0.72320002,0
-0.13252139,5.0358176,-0.79559982,-0.025984587,0.98741525,-0.15599997,0
-1.7923931,4.5624542,1.4076005,-0.35144964,0.8945989,0.27600011,0
-4.5438709,-1.8421098,-1.4035202,-0.89095509,-0.36119801,-0.27520004,0
-1.0280306,-4.8831444,-1.05264,-0.20157464,-0.9574793,-0.20639999,0
-3.695498,1.2934242,3.2680802,-0.72460747,0.25361261,0.64080006,0
-0.78319037,2.5733399,-4.3329592,-0.15356675,0.50457644,-0.84959984,0
1.5983397,4.452518,-1.9053594,0.31339994,0.87304276,-0.37359989,0
4.5692425,0.54395753,-2.1991205,0.89592993,0.10665834,-0.43120012,0
-0.45666862,3.5011258,-3.6801591,-0.089542866,0.68649524,-0.72159982,0
1.8292806,-0.67603844,-4.712399,0.35868248,-0.13255656,-0.92399985,0
-3.703907,2.302429,-2.6438406,-0.72625631,0.45145667,-0.51840013,0
-1.6339369,-3.721745,-3.0804,-0.32037979,-0.72975391,-0.60400003,0
2.8270841,4.1121216,-1.0526403,0.55433023,0.80629838,-0.20640007,0
-0.83662885,5.019773,-0.33456042,-0.16404487,0.98426926,-0.065600082,0
-0.28835529,4.2292109,-2.8355999,-0.056540255,0.82925707,-0.55599999,0
4.1578541,-1.9056834,2.2562397,0.81526554,-0.37366343,0.44239995,0
-2.0678799,3.0222862,-3.5495996,-0.40546665,0.59260511,-0.69599992,0
3.038677,-3.9249578,-1.1709602,0.59581906,-0.76959956,-0.22960004,0
0.40472245,1.2141685,4.9368,0.079357348,0.23807228,0.96799999,0
2.0678799,3.0222862,-3.5495996,0.40546665,0.59260511,-0.69599992,0
0.28267041,-5.0880723,-0.20400038,0.055425573,-0.99766123,-0.040000077,0
-1.8589761,3.3461573,3.37008,-0.36450514,0.65610927,0.66080004,0
0.74088824,5.0380383,0.28152066,0.14527221,0.98785067,0.05520013,0
4.1081667,2.9154735,-0.79560053,0.80552292,0.57166147,-0.15600011,0
5.0551972,-0.59472901,0.31824076,0.99121517,-0.11661353,0.062400151,0
-0.75947219,-5.0125151,0.55488038,-0.14891613,-0.98284608,0.10880008,0
0.77707684,-4.9732904,0.8200801,0.15236801,-0.975155,0.16080002,0
0.2037957,0.4075914,5.0795999,0.039959941,0.079919882,0.99599999,0
-3.6777616,0,-3.5332801,-0.72112972,0,-0.69280005,0
2.2219903,-1.5952752,-4.3043995,0.43568438,-0.31279907,-0.84399992,0
2.4137604,-4.224081,-1.5299996,0.47328636,-0.82825118,-0.29999992,0
3.1505635,-4.0098076,-0.073440537,0.61775756,-0.78623682,-0.014400106,0
2.006763,4.3479857,1.7544001,0.39348295,0.85254622,0.34400004,0
-2.7268441,0.97387326,4.1983199,-0.5346753,0.19095555,0.82319999,0
2.983084,-0.44428903,-4.1126409,0.58491844,-0.087115496,-0.80640018,0
-1.930362,4.036211,2.4479995,-0.37850237,0.79141396,0.4799999,0
-1.2792217,-4.7970805,1.1668797,-0.25082779,-0.94060403,0.22879994,0
-0.8246246,4.7828217,1.5667194,-0.1616911,0.93780816,0.3071999,0
-4.0361576,2.522598,1.83192,-0.79140347,0.49462709,0.3592,0
-0.17420198,4.5292554,2.3378401,-0.03415725,0.8880893,0.45840001,0
-0.59587562,-2.1848774,4.5695996,-0.11683836,-0.42840734,0.89599997,0
0.75848496,-2.9075255,-4.1208005,0.14872254,-0.57010305,-0.80800009,0
3.2201967,0.20554426,-3.949441,0.63141114,0.040302798,-0.77440017,0
0.29145515,0.45337474,-5.0714402,0.057148069,0.088897012,-0.99440008,0
-3.3061597,-3.8571861,-0.44880021,-0.64826661,-0.756311,-0.088000044,0
3.8641582,-0.92003798,3.1987202,0.75767809,-0.18039961,0.62720007,0
2.7273505,3.0909982,3.0028801,0.5347746,0.60607809,0.58880001,0
3.2995141,-3.7708738,0.95064014,0.64696354,-0.73938704,0.18640003,0
3.0923712,0,4.0555196,0.60634732,0,0.79519993,0
-1.327963,3.2250538,3.7209597,-0.26038492,0.6323635,0.72959995,0
-1.526421,2.6076357,-4.108561,-0.29929823,0.51130116,-0.80560023,0
1.3485492,4.5513544,1.8645605,0.26442143,0.89242244,0.36560011,0
2.0829351,2.8403654,3.6883202,0.40841866,0.55693442,0.72320002,0
3.73136,0.55970347,3.4312801,0.73163921,0.10974578,0.67280006,0
3.0667253,-0.95409226,-3.9616792,0.60131872,-0.18707691,-0.77679986,0
2.6076357,-1.526421,-4.108561,0.51130116,-0.29929823,-0.80560023,0
1.0280303,4.8831449,-1.0526397,0.20157456,0.95747942,-0.20639995,0
-3.243854,-2.7032118,2.8600798,-0.63604981,-0.53004152,0.56079996,0
4.7970805,1.2792212,1.1668798,0.94060403,0.2508277,0.22879995,0
0.87743735,4.3871856,2.448,0.17204654,0.86023247,0.47999999,0
3.1855366,-3.8226445,1.11792,0.62461501,-0.74953812,0.21920002,0
4.4993429,-0.86525846,2.2399201,0.88222414,-0.16965853,0.43920004,0
4.3851933,1.8463974,-1.8360002,0.85984182,0.3620387,-0.36000004,0
4.8944697,-0.16314884,1.4239197,0.95969999,-0.031989969,0.27919993,0
0.8999154,-4.1396098,2.8396802,0.17645401,-0.81168818,0.55680007,0
4.5303855,-2.3382635,0.13463998,0.88831091,-0.45848304,0.026399996,0
-0.79684377,-1.9921098,4.62672,-0.15624388,-0.39060977,0.90719998,0
3.30616,3.8571861,-0.44879952,0.64826667,0.756311,-0.08799991,0
0.52009934,-0.89457095,-4.9939203,0.10198026,-0.17540607,-0.97920007,0
-4.7608547,-0.83314949,-1.6279202,-0.93350095,-0.16336265,-0.31920004,0
-4.3804421,-2.0126352,-1.6646399,-0.85891026,-0.39463437,-0.32639998,0
2.3436182,-4.3171916,-1.3708798,0.45953298,-0.84650815,-0.26879996,0
-4.7959757,-0.66151369,1.6034395,-0.94038743,-0.12970857,0.3143999,0
-1.5111431,1.2327746,-4.7124,-0.29630256,0.24172051,-0.92400002,0
-0.38334656,-3.2584436,3.9045601,-0.075165994,-0.63891053,0.76560003,0
-2.7124481,1.3562241,4.1004,-0.5318526,0.2659263,0.80400002,0
1.3035581,4.7253995,1.4075996,0.25559965,0.92654896,0.27599993,0
0.29145515,0.45337474,-5.0714402,0.057148069,0.088897012,-0.99440008,0
-3.395761,2.2944331,-3.0355201,-0.6658355,0.44988886,-0.5952,0
-3.32919,-2.0345051,3.2843997,-0.65278238,-0.39892259,0.64399993,0
-3.6443565,0.72887111,-3.4924793,-0.7145797,0.1429159,-0.68479991,0
-0.41125095,4.4209485,-2.5092001,-0.08063744,0.86685264,-0.49200001,0
2.983084,0.44428903,-4.1126409,0.58491844,0.087115496,-0.80640018,0
-1.5155647,-4.3301854,-2.22768,-0.29716954,-0.84905601,-0.4368,0
4.7608552,0.83314961,-1.6279192,0.93350106,0.16336267,-0.31919986,0
4.409153,2.1229255,1.4361604,0.8645398,0.41625991,0.28160009,0
0.63009274,4.914722,-1.2076796,0.1235476,0.96367097,-0.23679993,0
-1.0074793,1.208975,4.85112,-0.19754496,0.23705392,0.95120001,0
4.8275213,-0.60344034,-1.5299993,0.94657284,-0.11832163,-0.29999986,0
-0.79080468,4.2505746,-2.7050402,-0.15505974,0.83344603,-0.53040004,0
4.003027,-3.0792513,0.70992041,0.78490728,-0.60377479,0.13920008,0
-3.5799484,-1.6590005,-3.2313597,-0.70195067,-0.32529423,-0.63359994,0
3.8937886,3.2224457,-0.68136066,0.76348799,0.63185209,-0.13360013,0
-1.8840945,-2.5569851,-3.9902399,-0.3694303,-0.50136966,-0.78240001,0
0.94905394,-4.9034452,1.0322399,0.18608901,-0.96145988,0.20239998,0
-4.7666955,-0.98621285,1.5218395,-0.93464619,-0.19337507,0.2983999,0
4.681469,1.9631965,0.48959997,0.91793513,0.38494051,0.095999993,0
-2.2500312,0.37500516,-4.5614395,-0.44118261,0.073530421,-0.89439994,0
-4.2400603,1.2366841,2.5499997,-0.83138442,0.24248707,0.49999994,0
-0.3430115,-4.6306524,2.1093605,-0.067257158,-0.90797108,0.41360009,0
1.6566211,4.1415515,-2.4724796,0.32482767,0.81206894,-0.48479992,0
-0.49719009,1.5578623,-4.8307209,-0.097488254,0.30546319,-0.94720018,0
-2.3026822,-2.3026822,3.9249599,-0.45150632,-0.45150632,0.76959997,0
3.4407005,2.3541634,2.9376001,0.67464715,0.46160069,0.57600003,0
-3.8042035,-3.3476989,0.57528001,-0.74592227,-0.65641159,0.1128,0
-1.7625605,2.9376004,-3.7780793,-0.3456001,0.57600009,-0.74079984,0
-2.7136393,-0.11306836,-4.3166394,-0.53208613,-0.022170268,-0.8463999,0
-3.6123557,-3.2511199,-1.5463198,-0.70830506,-0.63747448,-0.30319998,0
-4.4693494,1.7642165,-1.7095195,-0.87634301,0.34592482,-0.33519992,0
-3.1628389,0.68757385,-3.9412804,-0.62016451,0.1348184,-0.77280009,0
-1.6401396,-4.592391,1.4932799,-0.321596,-0.90046883,0.29279998,0
0,-5.0768366,-0.48552012,0,-0.99545819,-0.095200025,0
1.7516458,1.9706017,-4.3656001,0.34345996,0.3863925,-0.85600007,0
4.5105834,-0.69393575,2.2766402,0.88442814,-0.13606584,0.44640005,0
0.7278316,3.043659,-4.0269594,0.14271209,0.59679592,-0.7895999,0
-4.2718396,-1.8796097,2.05632,-0.83761561,-0.36855093,0.4032,0
-1.7427286,-4.7925029,0.069360398,-0.34171149,-0.93970644,0.013600078,0
-2.1514335,-1.7602636,4.2758398,-0.4218497,-0.34514973,0.83840001,0
2.866617,1.71997,3.8515203,0.56208175,0.33724901,0.75520009,0
-4.991993,1.0277631,0.18359993,-0.97882217,0.20152219,0.035999987,0
-5.0204129,0.67843431,-0.58752018,-0.98439473,0.13302633,-0.11520004,0
3.9289873,1.7859035,2.7172792,0.77038968,0.35017717,0.53279984,0
-1.5796661,-4.617486,-1.4810398,-0.30973846,-0.90538943,-0.29039997,0
4.8059559,-1.6520475,0.42840004,0.94234431,-0.32393089,0.084000006,0
-4.1795115,2.3405261,1.7503201,-0.81951207,0.45892671,0.34320003,0
2.2087011,3.0267389,-3.4598396,0.43307868,0.5934782,-0.67839992,0
-2.7363994,0.58637083,4.2636003,-0.53654891,0.11497468,0.83600008,0
-3.2010972,1.6946981,3.5904002,-0.62766612,0.33229375,0.70400006,0
0.20330502,-0.81322068,5.0306401,0.039863732,-0.15945503,0.98640007,0
5.0487423,-0.72124904,-7.295609e-07,0.98994946,-0.14142138,-1.4305115e-07,0
0.89457095,-0.52009934,-4.9939203,0.17540607,-0.10198026,-0.97920007,0
-1.3461775,-4.487258,-2.0155201,-0.26395637,-0.8798545,-0.39520001,0
-2.7268441,0.97387326,4.1983199,-0.5346753,0.19095555,0.82319999,0
-4.8944697,-0.16314884,1.4239197,-0.95969999,-0.031989969,0.27919993,0
2.006763,4.3479857,1.7544001,0.39348295,0.85254622,0.34400004,0
-3.999166,-2.6661105,1.7054398,-0.78415024,-0.52276677,0.33439997,0
-2.6392899,2.4507694,3.6108,-0.51750785,0.48054305,0.708,0
2.5609396,2.1341164,-3.8596807,0.50214499,0.4184542,-0.75680012,0
2.2219896,4.1021352,2.0603998,0.43568426,0.80434024,0.40399995,0
5.0944285,-0.14151177,-0.19176041,0.99890757,-0.027747406,-0.037600081,0
4.7490392,-1.7639287,-0.5875206,0.93118417,-0.34586838,-0.11520012,0
-0.33002633,4.6203685,-2.1338406,-0.064711049,0.9059546,-0.41840011,0
2.7273507,-3.0909977,3.0028803,0.53477466,-0.60607797,0.58880007,0
-1.5095448,-4.5286345,-1.7951995,-0.29598919,-0.88796759,-0.35199991,0
1.3693246,4.4503055,2.0808003,0.26849502,0.87260896,0.40800005,0
-4.7959757,-0.66151369,1.6034395,-0.94038743,-0.12970857,0.3143999,0
4.9102082,-1.3391478,0.32640043,0.96278596,-0.26257801,0.064000085,0
3.5560291,-0.38652501,-3.6352792,0.69726062,-0.075789221,-0.71279985,0
-3.8906066,2.8295324,-1.6931998,-0.76286405,0.55481029,-0.33199996,0
-1.9748549,4.4434233,1.5381603,-0.38722646,0.87125951,0.30160007,0
-1.0364965,1.937798,-4.6022401,-0.20323461,0.37996042,-0.90240002,0
-3.9688356,3.016315,1.0771201,-0.77820307,0.5914343,0.21120001,0
-1.3146089,-4.6608853,-1.5993596,-0.25776646,-0.91389912,-0.31359994,0
3.0792513,-4.003027,0.70992041,0.60377479,-0.78490728,0.13920008,0
-4.5756574,2.1532509,-0.66096044,-0.89718771,0.42220607,-0.12960009,0
0,-4.2633638,-2.7988799,0,-0.83595371,-0.54879999,0
4.5031056,1.6678174,1.7176802,0.88296193,0.32702303,0.33680004,0
-3.0923707,0,4.0555201,-0.6063472,0,0.79520005,0
4.5692425,0.54395753,-2.1991205,0.89592993,0.10665834,-0.43120012,0
-4.8336687,1.4769545,-0.68136054,-0.94777822,0.28959891,-0.13360012,0
4.9213562,-0.79376727,1.0771198,0.96497184,-0.15564065,0.21119997,0
-4.191052,2.8390994,-0.62015969,-0.8217749,0.55668616,-0.12159994,0
-4.7102356,-0.67289066,1.836,-0.92357564,-0.13193935,0.36000001,0
2.4368222,-3.8292925,2.3256001,0.47780827,-0.75084168,0.45600003,0
-4.8831444,-1.0280306,-1.05264,-0.9574793,-0.20157464,-0.20639999,0
-0.069479831,-3.2655551,-3.9167998,-0.013623497,-0.64030492,-0.76799995,0
-1.0705658,0.49959734,-4.9612789,-0.20991486,0.097960263,-0.97279978,0
-0.80283797,-1.6056759,-4.7735996,-0.15741922,-0.31483844,-0.93599993,0
-1.2685314,2.0003767,-4.5165606,-0.24873166,0.39223072,-0.88560015,0
0.14868225,-1.8213567,-4.7613602,0.029153382,-0.35712877,-0.93360007,0
-2.3249664,0.59360844,-4.5002398,-0.45587578,0.11639381,-0.88239998,0
0.58947176,3.7894616,-3.3619194,0.1155827,0.74303168,-0.65919989,0
2.9108734,-4.1365042,0.65280044,0.57075948,-0.81107926,0.1280001,0
-4.7843251,0.11669074,-1.7625599,-0.93810296,0.022880537,-0.34559998,0
3.0208757,-3.6921813,1.8033599,0.59232855,-0.72395712,0.35359997,0
-4.6642947,-1.1660736,1.70136,-0.91456759,-0.22864188,0.33360001,0
-4.1578541,-1.9056834,2.2562397,-0.81526554,-0.37366343,0.44239995,0
-4.4434233,-1.9748549,1.5381603,-0.87125951,-0.38722646,0.30160007,0
-2.8824062,3.7301736,1.9461596,-0.56517768,0.73140663,0.38159993,0
-1.5626349,-2.3439519,4.2513599,-0.30639902,-0.45959842,0.83359998,0
-1.1660736,-4.6642947,1.70136,-0.22864188,-0.91456759,0.33360001,0
-0.90774274,4.9925847,0.51000041,-0.17798878,0.97893822,0.10000008,0
3.4388371,3.0949538,2.14608,0.67428178,0.60685366,0.4208,0
-3.5291977,-3.6762474,0.1999198,-0.69199955,-0.72083282,0.039199963,0
-4.1982765,-2.8953626,0.036719687,-0.82319146,-0.56771815,0.0071999389,0
2.4859555,-4.1432595,1.6320002,0.48744226,-0.81240386,0.32000005,0
-1.0497897,4.3741236,2.40312,-0.20584111,0.85767132,0.47120002,0
2.4085133,-3.9412034,-2.162401,0.47225752,-0.77278501,-0.4240002,0
-4.5099373,2.3233013,-0.52223974,-0.88430142,0.4555493,-0.10239995,0
1.1857156,4.4194851,-2.252161,0.23249325,0.8665657,-0.4416002,0
4.4981661,-2.3896506,-0.25703964,0.88199335,-0.46855894,-0.050399929,0
2.5313895,-3.1642373,-3.096719,0.49635088,-0.62043869,-0.60719985,0
1.2666608,3.9809349,2.9253595,0.24836487,0.78057545,0.57359993,0
0.81272984,0.40636432,5.0183997,0.1593588,0.079679281,0.98399997,0
-0.21895562,2.6274681,-4.3656006,-0.042932477,0.51518983,-0.85600013,0
0.97833347,-0.87256765,-4.9286394,0.1918301,-0.17109171,-0.96639991,0
-1.9716276,-2.2896321,-4.1085606,-0.38659364,-0.44894749,-0.80560011,0
3.8669791,-0.87885886,-3.2068799,0.75823122,-0.17232527,-0.62879997,0
3.2669272,0.63918126,-3.863759,0.64057398,0.12532966,-0.75759983,0
1.1358529,4.969358,-0.15912057,0.22271627,0.97438395,-0.031200113,0
-3.7292047,3.4529674,-0.42431957,-0.73121661,0.67705244,-0.083199918,0
-2.7519286,-0.7777189,-4.2228003,-0.53959388,-0.15249391,-0.82800007,0
-4.5303855,2.338264,0.13463959,-0.88831091,0.45848313,0.02639992,0
1.7197757,0.17548735,-4.7980804,0.33721092,0.034409285,-0.94080013,0
3.6123557,-3.2511199,-1.5463198,0.70830506,-0.63747448,-0.30319998,0
-2.5569861,1.8840948,-3.9902391,-0.50136983,0.36943036,-0.78239983,0
1.6804944,4.3692861,-2.0236793,0.32950872,0.85672277,-0.39679986,0
4.8509979,1.5245994,-0.39168081,0.95117611,0.29894108,-0.07680016,0
-1.8213567,0.14868225,-4.7613602,-0.35712877,0.029153382,-0.93360007,0
-1.1658239,2.7202554,4.15344,-0.22859293,0.53338343,0.81440002,0
-3.2245526,-3.7206378,-1.33008,-0.63226521,-0.72953683,-0.2608,0
2.7202549,-1.4248954,-4.0718403,0.53338331,-0.27939126,-0.79840004,0
0.87096292,-4.8525081,-1.3055995,0.17077705,-0.95147216,-0.25599989,0
3.1505632,-1.1456593,-3.8433597,0.6177575,-0.22463909,-0.75359994,0
2.7268441,-0.97387326,4.1983199,0.5346753,-0.19095555,0.82319999,0
-1.6946987,-3.201097,3.5904,-0.33229387,-0.62766612,0.704,0
0.90774274,-4.9925847,0.51000041,0.17798878,-0.97893822,0.10000008,0
0.37358153,-3.7358186,3.4516802,0.073251285,-0.73251349,0.67680007,0
2.9376001,3.9167998,-1.428,0.57600003,0.76799995,-0.28,0
3.3573227,-0.58388233,-3.7943993,0.65829855,-0.11448673,-0.7439999,0
3.081327,0.77033204,3.9902396,0.60418177,0.1510455,0.78239995,0
4.72399,1.8286413,0.59159988,0.92627257,0.35855713,0.11599998,0
2.9822819,4.0195971,-0.97920042,0.58476114,0.78815627,-0.19200009,0
4.4434233,-1.9748549,1.5381603,0.87125951,-0.38722646,0.30160007,0
3.1390026,-3.4753246,-2.0195994,0.61549073,-0.68143624,-0.39599991,0
2.5746806,4.1685305,-1.4157588,0.50483936,0.81735891,-0.27759978,0
-0.96812135,4.8406067,1.2811197,-0.18982773,0.94913858,0.25119996,0
2.1653388,3.6088974,2.8804801,0.42457622,0.70762694,0.56480002,0
2.5733399,-0.78319037,-4.3329592,0.50457644,-0.15356675,-0.84959984,0
0.58980995,-2.5558455,4.3737602,0.11564901,-0.5011462,0.85760003,0
-3.3638678,2.8327312,2.5826397,-0.6595819,0.55543751,0.50639993,0
0.65502763,-4.9782085,-0.89351988,0.12843679,-0.97611934,-0.17519999,0
-3.3476989,-3.8042035,0.57528001,-0.65641159,-0.74592227,0.1128,0
3.5857604,2.3307443,2.7784803,0.70309025,0.45700869,0.54480004,0
4.9199252,0.90630192,-0.99143982,0.96469122,0.17770626,-0.19439997,0
0.79332697,2.1816483,4.5410399,0.15555431,0.42777416,0.89039999,0
3.9168003,-1.7625602,-2.7499192,0.76800007,-0.34560007,-0.53919983,0
0.079533726,1.9485782,-4.7124004,0.015594848,0.38207418,-0.92400008,0
0.47361413,-4.1678033,-2.9008799,0.092865519,-0.81721634,-0.56879997,0
4.4855661,-1.0351307,2.1950402,0.8795228,-0.20296681,0.43040004,0
0.47876975,4.9472923,1.1424,0.093876421,0.97005731,0.22400001,0
-0.94594461,-2.5039711,-4.3411193,-0.18547934,-0.49097472,-0.85119987,0
-2.1532507,-4.5756578,-0.66096002,-0.42220601,-0.89718783,-0.1296,0
3.8105929,-1.6331115,2.9702404,0.7471751,-0.32021794,0.58240008,0
-4.0262136,0.36601907,3.1089599,-0.78945369,0.071768448,0.60960001,0
3.260658,0.19180322,3.9167998,0.63934475,0.037608474,0.76799995,0
3.2429047,0.95379567,3.8188796,0.63586366,0.18701877,0.74879992,0
1.7648066,4.0590549,2.5336795,0.34604052,0.79589313,0.49679992,0
-5.0855589,0,0.38351989,-0.99716842,0,0.075199977,0
1.3171701,3.3870096,3.5781598,0.25826865,0.66411954,0.70159996,0
2.0899796,-3.9709616,-2.4235196,0.40979993,-0.77861995,-0.47519994,0
-1.2204179,4.3586354,2.35008,-0.23929763,0.8546344,0.46080002,0
4.7979116,1.5477138,0.77111971,0.94076699,0.30347329,0.15119995,0
-3.5291977,-3.6762474,0.1999198,-0.69199955,-0.72083282,0.039199963,0
-3.9972553,-0.088827811,-3.1660795,-0.78377557,-0.017417219,-0.6207999,0
-2.2412307,2.5304217,-3.8188806,-0.439457,0.49616113,-0.7488001,0
0.42312133,5.0774612,-0.22440034,0.082964972,0.99558067,-0.044000067,0
-2.1402855,-4.5863266,0.62831986,-0.41966382,-0.89927971,0.12319998,0
3.7784588,0.94461483,-3.2925599,0.74087429,0.1852186,-0.64559996,0
2.7347555,0.056974016,-4.3044004,0.53622657,0.011171376,-0.8440001,0
-3.5305984,3.1943507,1.8278399,-0.69227421,0.62634331,0.35839999,0
2.3047051,-4.2801666,1.5422404,0.45190299,-0.83924836,0.30240008,0
3.3849742,3.8080957,-0.22439976,0.66372043,0.74668545,-0.043999955,0
4.8411222,-1.1465816,-1.1219999,0.94923967,-0.22481993,-0.21999998,0
-1.1912481,4.1693683,-2.6846406,-0.23357806,0.81752318,-0.52640015,0
2.1425245,-3.749418,2.7131999,0.42010283,-0.73518002,0.53200001,0
-3.1867878,-1.8745812,3.5128801,-0.62486035,-0.36756495,0.68880004,0
-3.9503226,-1.1024157,-3.0314403,-0.77457309,-0.21615994,-0.59440005,0
-1.5763961,-4.203723,2.4194398,-0.30909729,-0.8242594,0.47439995,0
2.6225481,2.6225481,3.5006402,0.51422513,0.51422513,0.68640006,0
-5.0000396,1.0000079,-0.097919784,-0.98039991,0.19607998,-0.019199958,0
-4.7407775,1.3723304,-1.2852,-0.92956424,0.26908439,-0.252,0
-2.5598872,4.4086943,-0.14280017,-0.50193864,0.86444986,-0.028000033,0
-3.8831654,-3.2857554,0.36720023,-0.76140499,-0.64426577,0.072000049,0
0.20194951,1.4136467,-4.8960004,0.039597943,0.27718562,-0.9600001,0
0.44428903,2.983084,-4.1126409,0.087115496,0.58491844,-0.80640018,0
-0.79008865,3.5553992,-3.5699995,-0.15491934,0.69713712,-0.69999993,0
4.93785,0.50644648,-1.1709596,0.96820593,0.099303231,-0.22959992,0
3.8080957,3.3849742,-0.22439976,0.74668545,0.66372043,-0.043999955,0
-0.59472901,5.0551972,0.31824076,-0.11661353,0.99121517,0.062400151,0
1.6750871,4.5466652,-1.5911996,0.32844844,0.89150298,-0.31199995,0
2.3146226,-2.1217375,4.0187998,0.45384759,-0.41602695,0.78799999,0
-2.5225983,-4.0361576,1.8319197,-0.49462712,-0.79140347,0.35919994,0
-3.2711806,0,-3.91272,-0.64140797,0,-0.76719999,0
4.4390378,2.4212937,-0.66503966,0.87039959,0.47476348,-0.13039994,0
4.1293511,-2.9902196,-0.13056065,0.80967671,-0.5863176,-0.025600128,0
-1.7577187,1.2304029,-4.6267195,-0.34465072,0.24125548,-0.90719992,0
-3.1111648,-2.6536407,-3.0477605,-0.61003232,-0.52032173,-0.5976001,0
-0.60485917,1.4113379,4.8633599,-0.11859984,0.27673292,0.95359999,0
3.5942183,-3.5942183,-0.4161596,0.70474869,-0.70474869,-0.081599921,0
-3.0647371,3.8712471,1.2770399,-0.60092884,0.75906807,0.25039998,0
-4.6203685,-0.33002633,-2.1338406,-0.9059546,-0.064711049,-0.41840011,0
1.9411885,-4.5294394,1.3137599,0.38062519,-0.88812542,0.25759998,0
-0.5936079,2.3249643,-4.5002413,-0.11639371,0.45587537,-0.88240027,0
-0.19310094,4.2482185,-2.8151999,-0.03786293,0.83298403,-0.55199999,0
1.6960242,-4.8054018,-0.20400015,0.33255377,-0.94223565,-0.040000029,0
4.9343548,-1.268834,-0.2284807,0.96752053,-0.24879098,-0.044800136,0
-0.98492098,-2.3638098,4.41048,-0.19312176,-0.46349213,0.86480004,0
-5.0685029,-0.44722086,0.34679988,-0.99382412,-0.087690368,0.067999981,0
4.6977506,-0.83888435,1.7992805,0.92112756,-0.16448714,0.3528001,0
-0.28835529,4.2292109,-2.8355999,-0.056540255,0.82925707,-0.55599999,0
1.1502055,2.9770021,-3.9780002,0.22553049,0.58372593,-0.78000003,0
2.3666916,4.0571861,-1.9869601,0.46405718,0.79552668,-0.38960001,0
3.2687345,-3.2687345,2.1542401,0.64092833,-0.64092833,0.42240003,0
-2.2528658,4.5057316,-0.7955991,-0.4417384,0.88347679,-0.15599982,0
0.73765719,3.8726976,3.2354403,0.14463867,0.75935251,0.63440007,0
-1.8362443,1.9475322,-4.3411202,-0.36004791,0.38186905,-0.85120004,0
2.798439,2.2542982,-3.6189609,0.54871356,0.44201925,-0.70960021,0
1.852082,4.3776479,1.84824,0.36315334,0.85836232,0.36240003,0
1.1660737,4.6642947,1.7013607,0.2286419,0.91456759,0.33360013,0
4.1432595,-2.4859557,1.6319999,0.81240386,-0.48744231,0.31999996,0
3.6762474,3.5291977,0.1999198,0.72083282,0.69199955,0.039199963,0
4.8575563,-1.2535632,0.91799986,0.95246202,-0.24579671,0.17999998,0
-2.6536412,3.111165,-3.0477598,-0.52032185,0.61003238,-0.59759998,0
-4.6193094,1.4847777,1.5708002,-0.90574694,0.2911329,0.30800003,0
-3.1536446,-3.6515884,1.6524,-0.61836171,-0.71599776,0.324,0
-3.4226508,-0.38029471,3.7617598,-0.67110801,-0.074567594,0.73759997,0
2.8032424,3.5040524,2.4235198,0.54965538,0.68706912,0.47519997,0
-3.7301731,2.8824069,1.9461597,-0.73140651,0.56517786,0.38159996,0
3.7292047,3.4529674,-0.42431957,0.73121661,0.67705244,-0.083199918,0
-2.7393787,0.39133948,4.2839999,-0.5371331,0.076733232,0.83999997,0
1.5796661,-4.617486,-1.4810398,0.30973846,-0.90538943,-0.29039997,0
4.7666955,-0.98621285,1.5218395,0.93464619,-0.19337507,0.2983999,0
4.9553695,-0.31970143,1.1628,0.97164106,-0.062686555,0.228,0
1.2688338,-4.9343548,-0.22847964,0.24879093,-0.96752053,-0.044799931,0
-4.93785,0.50644648,-1.1709596,-0.96820593,0.099303231,-0.22959992,0
-0.47361413,4.1678033,-2.9008799,-0.092865519,0.81721634,-0.56879997,0
-2.5408936,4.2877574,1.0812005,-0.49821442,0.84073675,0.2120001,0
-4.8406067,-0.96812135,1.2811197,-0.94913858,-0.18982773,0.25119996,0
3.7494175,-2.1425245,2.7132003,0.7351799,-0.42010283,0.53200006,0
2.8403654,-2.0829351,3.6883202,0.55693442,-0.40841866,0.72320002,0
1.5980376,-2.8486755,-3.9168003,0.31334072,-0.55856383,-0.76800007,0
-2.848676,-1.5980377,-3.9167995,-0.55856395,-0.31334072,-0.76799995,0
-3.721745,1.6339369,-3.0804,-0.72975391,0.32037979,-0.60400003,0
-1.2666608,3.9809349,2.9253595,-0.24836487,0.78057545,0.57359993,0
-4.592391,-1.6401396,1.4932799,-0.90046883,-0.321596,0.29279998,0
1.5489392,-3.969156,-2.8029602,0.30371359,-0.77826589,-0.54960006,0
3.4823654,2.0161066,3.1334398,0.68281674,0.39531502,0.61439997,0
-3.721745,1.6339369,-3.0804,-0.72975391,0.32037979,-0.60400003,0
-3.1943507,-3.5305984,1.8278399,-0.62634331,-0.69227421,0.35839999,0
-4.9998899,0.52630448,-0.8567999,-0.98037058,0.10319696,-0.16799998,0
-1.9716276,-2.2896321,-4.1085606,-0.38659364,-0.44894749,-0.80560011,0
-3.2116888,0.92782122,-3.8515193,-0.62974292,0.18192573,-0.75519991,0
1.4122198,-0.35305494,-4.8878407,0.27690583,-0.069226459,-0.95840019,0
3.5040524,-2.803242,2.4235201,0.68706912,-0.54965532,0.47520003,0
-0.98621285,4.7666955,1.5218395,-0.19337507,0.93464619,0.2983999,0
0.94461483,-3.7784588,-3.2925599,0.1852186,-0.74087429,-0.64559996,0
-0.40472305,1.2141685,4.9368,-0.07935746,0.23807228,0.96799999,0
-3.364454,3.364454,1.8360003,-0.65969688,0.65969688,0.36000007,0
4.4805646,2.317533,0.75071979,0.87854207,0.45441824,0.14719996,0
1.5839647,-1.7819607,4.5084,0.31058133,-0.34940407,0.884,0
-3.201097,-1.6946987,3.5904,-0.62766612,-0.33229387,0.704,0
-0.40241316,-1.609652,4.8225598,-0.078904539,-0.31561807,0.94559997,0
2.732223,0.78063565,4.2350402,0.53573,0.15306582,0.83040005,0
4.2628055,2.7928722,0.19583952,0.83584422,0.54762203,0.038399909,0
3.554949,-1.1226156,3.4802399,0.69704884,-0.2201207,0.68239999,0
4.262239,2.740011,0.57936054,0.83573318,0.53725708,0.11360011,0
-2.9164867,-0.38886508,4.1656799,-0.57186013,-0.076248057,0.8168,0
-2.5630519,-3.9002967,-2.0563195,-0.50255919,-0.76476407,-0.40319991,0
-2.1907508,4.2129827,1.8604801,-0.42955899,0.82607502,0.36480001,0
3.6921816,3.0208755,1.8033594,0.72395718,0.59232855,0.35359988,0
2.6209035,-3.6692655,2.38272,0.51390266,-0.71946383,0.46720001,0
-2.6266582,4.1041536,1.50552,-0.51503104,0.80473602,0.29519999,0
2.7539244,-4.2685828,-0.45287985,0.53998518,-0.83697706,-0.088799968,0
3.4060645,-0.94612926,3.6760798,0.6678558,-0.18551554,0.72079998,0
2.4304714,-4.3492646,-1.08936,0.47656304,-0.85279697,-0.21360001,0
-1.5245994,4.8509979,-0.39168081,-0.29894108,0.95117611,-0.07680016,0
-3.0108161,-3.5683749,-2.0522394,-0.59035611,-0.69968134,-0.4023999,0
0.43791172,4.5980711,-2.1624005,0.085865043,0.9015826,-0.42400011,0
-1.0176153,0.96108103,-4.9041595,-0.19953242,0.18844727,-0.96159995,0
-5.0358176,-0.13252139,-0.79559982,-0.98741525,-0.025984587,-0.15599997,0
-3.2179794,2.8604267,2.7335994,-0.63097638,0.56086797,0.53599989,0
-2.124795,-3.8448668,-2.5908,-0.41662648,-0.75389546,-0.50800002,0
2.7757437,-2.7757437,-3.2558396,0.54426348,-0.54426348,-0.63839996,0
-2.1816483,0.79332697,4.5410399,-0.42777416,0.15555431,0.89039999,0
4.7253375,-1.7063718,-0.87720037,0.9265368,-0.33458272,-0.17200008,0
-4.7979116,1.5477138,0.77111971,-0.94076699,0.30347329,0.15119995,0
4.6193094,-1.4847782,1.5708005,0.90574694,-0.29113299,0.30800012,0
-3.418709,-0.56978482,3.7413597,-0.67033511,-0.11172251,0.73359996,0
-3.6406999,-2.6004999,-2.4479997,-0.71386272,-0.50990194,-0.47999996,0
4.7820663,-1.594022,-0.77520043,0.9376601,-0.31255335,-0.15200008,0
-0.748577,4.4914627,-2.2970405,-0.14677981,0.88067895,-0.45040008,0
4.9414897,1.1979367,0.39576054,0.96891958,0.23488954,0.077600107,0
4.6240959,-0.51378852,2.0889604,0.90668547,-0.10074285,0.40960008,0
0.99754095,-4.5443544,-2.0889597,0.19559626,-0.89104992,-0.40959996,0
1.1898637,-4.8916631,-0.81599993,0.2333066,-0.95914966,-0.15999998,0
-2.560941,-0.26676473,-4.4023194,-0.50214529,-0.052306812,-0.86319989,0
-0.1661315,-4.8178186,1.6646395,-0.032574803,-0.94467032,0.32639989,0
1.8692366,1.3899453,-4.5369601,0.36651698,0.2725383,-0.88960004,0
2.0473714,-4.5672135,0.97919953,0.40144539,-0.89553207,0.19199991,0
-4.2939901,-0.17891608,2.7458398,-0.84195888,-0.035081584,0.53839999,0
-4.0590544,1.7648067,2.53368,-0.79589301,0.34604055,0.49680001,0
3.2827146,-2.7034123,-2.8151991,0.64366955,-0.53008085,-0.55199987,0
0.31970096,-4.9553695,1.1628,0.062686466,-0.97164106,0.228,0
3.0940821,3.1972179,-2.4928803,0.60668278,0.6269055,-0.48880008,0
3.1867883,-1.8745811,3.5128798,0.62486047,-0.36756492,0.68879998,0
-1.1024307,4.8821936,0.97919995,-0.21616289,0.95729285,0.19199999,0
2.5791278,-2.9230115,-3.2884803,0.50571132,-0.57313955,-0.64480007,0
-3.7718668,-1.97574,2.8070397,-0.73958176,-0.3874,0.55039996,0
-2.6684885,4.1933389,-1.1423997,-0.52323306,0.82222331,-0.22399993,0
-2.3761683,-3.2900794,3.0885599,-0.46591535,-0.64511359,0.6056,0
2.7032113,3.243854,2.8600802,0.53004146,0.63604981,0.56080008,0
-4.7666955,-0.98621285,1.5218395,-0.93464619,-0.19337507,0.2983999,0
0.70667738,1.5900242,-4.7939992,0.1385642,0.31176946,-0.93999988,0
-0.5936079,2.3249643,-4.5002413,-0.11639371,0.45587537,-0.88240027,0
-1.5193539,0.84801149,-4.7940001,-0.29791254,0.16627677,-0.94000006,0
-1.2327746,-1.5111431,-4.7124,-0.24172051,-0.29630256,-0.92400002,0
4.2482185,0.19310066,-2.8151999,0.83298403,0.037862875,-0.55199999,0
4.0389318,1.0332152,-2.9376004,0.79194742,0.20259121,-0.57600009,0
-1.1658239,-2.7202554,4.15344,-0.22859293,-0.53338343,0.81440002,0
3.2179797,-2.8604262,2.7335999,0.63097644,-0.56086791,0.53600001,0
0.66171509,-3.7221479,-3.4231193,0.12974806,-0.72983295,-0.67119986,0
-3.2900081,-2.98157,-2.5092003,-0.64509964,-0.58462161,-0.49200007,0
-1.2032541,-4.4692297,2.1420002,-0.23593219,-0.87631959,0.42000005,0
-0.51291305,3.8468475,-3.3088796,-0.10057119,0.75428385,-0.64879996,0
-2.1233554,0.73855853,-4.5777607,-0.4163442,0.1448154,-0.89760017,0
-0.64812946,4.073957,-2.9987998,-0.12708421,0.79881513,-0.588,0
0.27560449,-1.0176166,-4.9898396,0.054040097,-0.19953267,-0.97839993,0
3.3914444,-2.6774564,2.7091198,0.66498911,-0.52499145,0.53119999,0
4.8472028,1.3100551,-0.8935203,0.95043194,0.25687355,-0.17520006,0
-2.7328937,4.0993404,-1.3178395,-0.53586149,0.80379224,-0.2583999,0
-0.35755345,4.2906394,2.7335997,-0.070108518,0.84130186,0.53599995,0
1.8026485,0.60088247,4.7328,0.35346049,0.11782009,0.92800003,0
-0.1661315,4.8178186,1.6646395,-0.032574803,0.94467032,0.32639989,0
-1.9647645,1.7682877,4.3615203,-0.38524795,0.34672308,0.85520005,0
3.3721142,3.2597103,-2.0032809,0.66119885,0.6391589,-0.39280018,0
5.0625682,0.56250781,-0.25296047,0.99266046,0.11029565,-0.049600095,0
-1.8423356,-3.5004377,3.21912,-0.36124226,-0.68636036,0.63120002,0
0,-1.2151552,4.9531198,0,-0.23826574,0.97119999,0
3.1275094,-0.33271384,-4.0147209,0.61323714,-0.065238006,-0.78720021,0
-1.4263089,-4.7975836,-0.97920024,-0.27966842,-0.94070268,-0.19200005,0
-0.59850973,1.9950328,4.6552796,-0.11735485,0.3911829,0.91279995,0
-0.28267083,-5.0880723,-0.20400043,-0.055425651,-0.99766123,-0.040000085,0
-2.302429,3.7039075,-2.6438398,-0.45145667,0.72625637,-0.51839995,0
4.2671103,0.88898152,2.6479197,0.83668834,0.1743101,0.51919997,0
-3.8571861,3.3061597,-0.44880021,-0.756311,0.64826661,-0.088000044,0
-2.8390996,4.1910515,-0.62016016,-0.55668622,0.82177484,-0.12160003,0
-3.6083074,-3.2802792,1.4932802,-0.70751125,-0.64319199,0.29280004,0
-2.2943928,-1.8603185,-4.1575203,-0.44988096,-0.36476836,-0.81520009,0
4.9761586,-0.1275937,-1.1097596,0.97571737,-0.025018372,-0.21759991,0
-2.8953626,-4.1982765,0.036719687,-0.56771815,-0.82319146,0.0071999389,0
-2.6684885,-4.1933389,-1.1423997,-0.52323306,-0.82222331,-0.22399993,0
