-2.8341308,4.5346093,-0.7516796,-0.52483904,0.83974242,-0.13919993,0
4.5328703,2.7471941,-1.0324793,0.83942044,0.50873965,-0.19119987,0
3.372299,-4.0467587,-1.1880003,0.6244998,-0.74939972,-0.22000006,0
-3.910018,-3.1768894,-1.9439996,-0.7240774,-0.58831286,-0.35999992,0
4.7512145,-2.5339811,0.40607974,0.8798545,-0.46925575,0.075199947,0
-0.35148999,-5.0966024,1.7495995,-0.065090738,-0.94381523,0.32399988,0
3.8822358,1.7470056,3.3220804,0.71893251,0.32351956,0.61520004,0
0.61269361,3.2677028,4.2551999,0.11346178,0.60513014,0.78799999,0
2.3954582,-2.1901329,-4.3156805,0.44360337,-0.40558016,-0.79920006,0
-3.4590979,-0.67678005,-4.0910406,-0.64057368,-0.12532963,-0.75760013,0
-4.5406938,-2.2089863,-1.9137603,-0.84086919,-0.40907153,-0.35440004,0
-0.11971936,2.8732631,-4.5705609,-0.022170251,0.53208578,-0.84640014,0
1.1775786,-3.9252613,3.5164802,0.2180701,-0.72690022,0.65120006,0
0.35749111,5.0048795,1.9958408,0.066202052,0.92682952,0.36960015,0
3.2418275,-1.7395171,-3.952801,0.6003384,-0.3221328,-0.73200017,0
0,-5.0688515,-1.8619199,0,-0.93867618,-0.34479997,0
0.3240861,5.3474255,0.67824054,0.060015943,0.99026394,0.1256001,0
-1.4958868,0.42739588,5.1710401,-0.27701607,0.079147384,0.9576,0
0.56713831,-4.5371108,2.8727999,0.10502561,-0.84020567,0.53199995,0
4.3195901,1.6902738,2.7647998,0.79992408,0.31301364,0.51199996,0
-1.2698156,1.693087,4.9680004,-0.23515102,0.31353462,0.92000008,0
4.6290064,-2.4002254,1.4040006,0.85722339,-0.44448617,0.26000011,0
-3.3778646,-3.1902051,2.7518401,-0.62553048,-0.59077871,0.50959998,0
-4.1005039,-0.78104818,3.42576,-0.75935256,-0.14463855,0.63440001,0
2.7750742,-3.8851049,2.5228803,0.5139026,-0.71946388,0.46720004,0
-1.0442255,-5.0470896,1.6113595,-0.19337508,-0.93464619,0.2983999,0
1.7937111,4.6636477,2.0476801,0.3321687,0.86363846,0.37920001,0
1.7736217,-4.8141165,-1.6847997,0.32844844,-0.89150304,-0.31199995,0
-4.4129682,0.50147378,-3.0715201,-0.81721634,0.092865512,-0.56880003,0
-1.1583724,-4.7493267,-2.2939198,-0.21451341,-0.87950492,-0.42479995,0
-5.3073692,-0.80414706,0.58752042,-0.98284614,-0.14891613,0.10880008,0
2.356868,3.3388965,3.5294397,0.43645704,0.61831415,0.65359992,0
-4.6794553,-1.2554638,-2.38464,-0.86656576,-0.2324933,-0.44159999,0
1.2653103,-1.8979654,4.8945599,0.23431672,-0.35147506,0.90639997,0
-2.7489729,3.7005408,-2.8123205,-0.50906903,0.68528533,-0.52080005,0
-1.3919388,4.9350553,-1.6934397,-0.25776646,0.91389912,-0.31359994,0
2.4599662,4.775228,-0.5529598,0.4555493,0.88430148,-0.10239996,0
2.2158191,-4.2469864,2.4926403,0.41033685,-0.78647894,0.46160004,0
-2.707397,1.9949239,-4.2249594,-0.50136977,0.36943036,-0.78239989,0
-2.1139729,3.8435862,3.1492801,-0.39147645,0.71177518,0.58319998,0
-3.1902051,-3.3778646,2.7518401,-0.59077871,-0.62553048,0.50959998,0
-3.6491551,3.6491547,1.5897603,-0.67576945,0.67576939,0.29440004,0
2.9695563,-4.1923146,1.6631995,0.54991782,-0.77635455,0.30799991,0
-1.2737776,-1.4860736,5.0328002,-0.23588474,-0.27519882,0.93200004,0
-5.3761353,0.44801086,-0.23760037,-0.99558061,0.082964972,-0.044000067,0
-2.9681387,3.7101731,2.5660803,-0.54965532,0.68706906,0.47520006,0
-0.85006344,1.7001269,5.0544004,-0.15741916,0.31483832,0.93600005,0
-2.1334412,-2.7219765,-4.1472006,-0.3950817,-0.50406975,-0.76800007,0
0.80958277,-3.4407246,4.0824003,0.14992273,-0.63717121,0.75600004,0
4.9908881,-0.60864496,-1.969921,0.9242385,-0.11271203,-0.36480018,0
4.5861921,-2.5478847,1.2787204,0.84929484,-0.47183049,0.23680006,0
5.0033641,1.3802381,1.4903996,0.9265489,0.25559965,0.27599993,0
1.9059128,-0.84707242,4.9809604,0.35294679,-0.15686525,0.92240006,0
-2.167805,4.8358731,1.0367996,-0.40144536,0.89553207,0.19199991,0
-4.2735786,-2.6709867,1.9396797,-0.79140341,-0.49462715,0.35919994,0
-5.1673846,-1.4353845,-0.63072038,-0.95692307,-0.26581195,-0.11680007,0
-2.1145947,-0.42291918,4.9507203,-0.39159161,-0.078318365,0.91680002,0
1.7418655,4.9576173,-1.2441602,0.32256767,0.91807723,-0.23040003,0
1.7291764,4.0347457,3.1449606,0.32021785,0.7471751,0.58240008,0
-1.7909772,-2.8655636,-4.2120004,-0.33166245,-0.53065991,-0.78000003,0
2.7820251,-0.23183537,-4.6224008,0.51518983,-0.042932473,-0.85600013,0
-4.7917352,0.36859465,2.4624002,-0.88735837,0.068258263,0.45600003,0
4.6925225,2.6590962,0.26351944,0.86898565,0.49242523,0.048799895,0
-0.2073148,-2.9024098,4.5489602,-0.038391631,-0.53748327,0.84240001,0
-1.0442255,5.0470896,1.6113595,-0.19337508,0.93464619,0.2983999,0
-3.859709,3.7167571,-0.66959935,-0.7147609,0.68828833,-0.12399988,0
-2.0303218,4.9977155,0.24624026,-0.37598553,0.92550284,0.045600045,0
3.8066237,3.8066237,0.4233596,0.70493031,0.70493031,0.078399926,0
-1.6533979,-1.4299657,-4.9377599,-0.3061848,-0.26480848,-0.91439998,0
4.276516,-1.0939926,-3.1104004,0.79194736,-0.20259121,-0.57600009,0
5.1580153,-0.6877352,1.4428798,0.95518798,-0.12735836,0.26719996,0
-4.5577493,-0.7419591,-2.7993603,-0.84402764,-0.13739984,-0.51840001,0
4.8265729,2.2064335,-0.99792111,0.8938098,0.40859878,-0.18480021,0
1.7540691,-4.3851719,-2.6179206,0.32482761,-0.81206888,-0.4848001,0
-2.7261324,-4.4137378,-1.4990402,-0.5048393,-0.81735885,-0.27760005,0
0.54308438,-4.073133,-3.5035195,0.10057118,-0.75428385,-0.6487999,0
-1.6187034,2.0503576,-4.7260804,-0.29975986,0.37969583,-0.87520003,0
3.8663883,3.3391531,1.7495996,0.71599782,0.61836165,0.32399991,0
4.2961483,3.139493,0.92016029,0.79558301,0.58138758,0.17040005,0
-1.0428575,-2.5028577,4.66992,-0.19312176,-0.46349216,0.86479998,0
-2.9349561,3.8521295,2.3889606,-0.54351038,0.71335727,0.4424001,0
-5.3244557,-0.28023466,-0.85535985,-0.98601031,-0.051895306,-0.15839997,0
2.2164083,-4.9077616,0.40176013,0.41044596,-0.90884471,0.074400023,0
2.400547,1.228187,-4.6785607,0.44454575,0.22744203,-0.86640012,0
-3.187212,2.4789424,-3.5855999,-0.59022444,0.45906341,-0.66399997,0
4.1472006,-1.8662404,-2.9116793,0.76800007,-0.34560007,-0.53919983,0
-1.6387553,-5.080142,0.81647998,-0.3034732,-0.94076705,0.1512,0
-0.43130848,-0.43130848,5.3654399,-0.079871938,-0.079871938,0.99359995,0
-3.4142323,-3.9394991,-1.4083201,-0.63226521,-0.72953689,-0.2608,0
-2.7108474,-0.20852652,4.6656003,-0.50200874,-0.03861602,0.86400002,0
-1.6250554,3.046978,4.1515203,-0.30093619,0.56425518,0.76880002,0
-5.1945877,-1.2986472,0.69984013,-0.96196067,-0.24049021,0.12960002,0
-1.9442599,-2.062094,-4.5964794,-0.36004812,-0.38186926,-0.85119987,0
5.177516,0.3451674,1.4947197,0.95879924,0.063919887,0.27679995,0
-1.1672636,4.1826949,-3.2097604,-0.21615992,0.77457315,-0.59440005,0
0,-2.3177881,4.8772798,0,-0.42922002,0.90319991,0
4.3010583,2.92472,1.4515197,0.79649228,0.54161483,0.26879993,0
1.5153223,-5.0510759,1.1620799,0.28061524,-0.93538439,0.21519998,0
-2.0439126,4.2736354,2.5919995,-0.37850234,0.79141396,0.4799999,0
0,5.2536941,1.24848,0,0.97290629,0.23119999,0
0.30531707,-4.4779882,-3.0023999,0.056540199,-0.82925707,-0.55599999,0
-2.2685554,-3.9699721,2.8727999,-0.42010283,-0.73518002,0.53199995,0
-3.7730644,-3.7730644,0.82944041,-0.69871563,-0.69871563,0.15360007,0
4.4525766,3.0213916,0.45360073,0.82455122,0.55951697,0.084000133,0
-1.073718,-0.42948732,5.2747202,-0.19883665,-0.079534687,0.97680002,0
2.6263433,2.4243171,4.0478401,0.48635986,0.44894761,0.74959999,0
-5.322154,-0.91236931,-0.047519833,-0.98558408,-0.16895728,-0.0087999692,0
-5.3603663,0.59559655,-0.26784053,-0.9926604,0.11029565,-0.049600098,0
4.5302014,1.8585445,-2.2766399,0.8389262,0.34417489,-0.42159998,0
-3.1847749,-2.189533,3.7713599,-0.58977312,-0.40546906,0.69839996,0
1.6250548,3.046978,4.1515207,0.30093607,0.56425518,0.76880014,0
4.0117898,-1.9056003,-3.0715191,0.74292403,-0.35288894,-0.56879985,0
-3.7925935,-0.39922059,3.8232,-0.70233214,-0.073929735,0.708,0
2.83655,4.1931605,-1.8791996,0.52528703,0.77651119,-0.34799993,0
-4.0782676,1.2329645,-3.3177602,-0.75523472,0.22832675,-0.61440003,0
2.0275254,4.8660617,-1.1707201,0.37546766,0.90112251,-0.21680002,0
4.9561958,-0.72529691,-2.017441,0.91781402,-0.13431424,-0.37360018,0
1.0311599,-2.8872468,4.4452801,0.19095553,-0.53467536,0.82319999,0
-0.98359489,-5.2458391,0.82080019,-0.1821472,-0.9714517,0.15200002,0
0,2.1163597,4.9679999,0,0.39191845,0.91999996,0
-4.8660617,2.0275254,-1.1707201,-0.90112251,0.37546766,-0.21680002,0
-3.7925935,-0.39922059,3.8232,-0.70233214,-0.073929735,0.708,0
3.4006119,-0.98239893,-4.0780797,0.62974292,-0.18192573,-0.75519991,0
-5.0409236,0.36884773,-1.9007999,-0.93350434,0.068305135,-0.35199997,0
0.51377165,5.1377134,-1.5811193,0.095142893,0.95142841,-0.29279986,0
4.1147523,-2.8624361,2.0087998,0.76199114,-0.53008074,0.37199995,0
-1.0711076,-0.85688573,5.2228799,-0.19835326,-0.15868254,0.96719998,0
2.2054608,-3.0074463,3.9052799,0.40841866,-0.55693448,0.72319996,0
-1.7937106,4.6636477,2.0476804,-0.33216861,0.86363846,0.37920007,0
-2.1637981,4.9458246,0.12960038,-0.40070334,0.91589344,0.024000069,0
-2.1042349,-3.9078646,-3.0758398,-0.38967314,-0.72367859,-0.56959993,0
4.8660617,-2.0275257,-1.1707206,0.90112251,-0.37546772,-0.21680011,0
0.40363654,5.2472801,-1.2095995,0.07474751,0.97171855,-0.2239999,0
-2.9011884,4.512959,0.61344057,-0.53725708,0.83573312,0.11360011,0
4.147819,-3.3182549,0.97200024,0.76811463,-0.61449164,0.18000004,0
4.76401,-0.91615605,2.3716803,0.88222402,-0.16965853,0.43920004,0
-3.1485658,-2.5582097,3.5640001,-0.58306772,-0.47374251,0.66000003,0
-2.9247196,-4.3010588,1.4515202,-0.54161471,-0.79649234,0.26880002,0
-1.6356781,2.8624358,4.2768002,-0.30290332,0.53008068,0.792,0
-4.6218753,-2.6410716,0.90720004,-0.85590279,-0.48908731,0.168,0
3.4423623,3.8248475,-1.6372799,0.63747448,0.70830506,-0.30319998,0
-2.7534702,3.8548586,-2.5920007,-0.50990188,0.71386272,-0.48000014,0
2.8925784,3.6425061,-2.7431989,0.53566265,0.67453814,-0.50799978,0
-1.2698156,1.693087,4.9680004,-0.23515102,0.31353462,0.92000008,0
-0.59262782,-3.9508519,3.6331203,-0.10974589,-0.73163921,0.67280006,0
-1.073718,0.42948669,5.2747202,-0.19883665,0.079534568,0.97680002,0
-3.702117,3.4553087,-1.8748796,-0.68557721,0.63987195,-0.34719992,0
-0.74824667,1.6835551,-5.0759993,-0.1385642,0.31176946,-0.93999982,0
0.93055671,-4.0944486,-3.3955202,0.17232531,-0.75823122,-0.62880003,0
4.6810045,-0.43544218,-2.6568003,0.8668527,-0.08063744,-0.49200004,0
-1.1262531,-4.5050125,2.7561598,-0.20856538,-0.83426154,0.51039994,0
-2.5421097,3.3894801,-3.348,-0.47076106,0.62768149,-0.62,0
-0.39706394,2.3823833,-4.829761,-0.073530361,0.44118211,-0.89440018,0
2.4174559,4.065721,-2.6049607,0.44767702,0.75291127,-0.48240012,0
-2.116359,0,4.9679999,-0.39191833,0,0.91999996,0
3.2728217,2.8877831,3.1795201,0.60607809,0.5347746,0.58880001,0
-4.0545449,2.5801649,2.4624002,-0.75084162,0.4778083,0.45600003,0
-2.2429414,4.1120596,2.6870394,-0.4153595,0.76149249,0.49759987,0
-2.4789422,3.1872113,-3.5856006,-0.45906335,0.59022433,-0.66400009,0
1.001784,3.6064215,3.8923199,0.18551555,0.6678558,0.72079998,0
3.3283639,-1.9138093,-3.7972791,0.61636364,-0.35440913,-0.7031998,0
1.8662398,-3.1103997,-4.0003204,0.34559995,-0.57599992,-0.74080008,0
4.637053,2.7182724,0.51839924,0.85871351,0.50338376,0.095999859,0
-0.48004386,-0.30859959,-5.36976,-0.088897012,-0.057148073,-0.99439996,0
-1.001784,-3.6064215,3.8923199,-0.18551555,-0.6678558,0.72079998,0
2.2685516,-2.0623193,4.4452801,0.42010215,-0.38191098,0.82319999,0
4.8285155,-2.4142578,-0.12959975,0.89416951,-0.44708475,-0.023999954,0
-3.4232368,-4.167419,-0.27215981,-0.63393271,-0.77174425,-0.050399967,0
5.352562,-0.62971312,0.33696079,0.99121517,-0.11661354,0.062400147,0
4.0710359,2.2497828,-2.7431996,0.75389552,0.41662642,-0.5079999,0
-0.40266502,3.6239834,3.9830399,-0.074567594,0.67110801,0.73759997,0
-1.8493434,4.8875508,-1.3608,-0.342471,0.90510201,-0.252,0
-1.1126747,-4.9452209,-1.8619202,-0.20605087,-0.91578162,-0.34480003,0
-4.6715465,-0.37372389,2.6827199,-0.86510116,-0.06920813,0.49679998,0
2.680295,-3.350369,-3.2788792,0.49635091,-0.62043869,-0.60719985,0
4.0279803,-3.5446227,0.60912001,0.74592227,-0.65641159,0.1128,0
5.3320422,-0.14031677,-0.84239984,0.98741519,-0.025984587,-0.15599997,0
4.1472006,1.8662404,-2.9116793,0.76800007,0.34560007,-0.53919983,0
-1.4167689,3.2383296,4.0823998,-0.2623646,0.59969068,0.75599998,0
-3.7524118,1.3824674,3.6288002,-0.6948911,0.25601247,0.67199999,0
4.0776081,-1.6907154,-3.1104007,0.75511259,-0.31309545,-0.57600009,0
3.9217846,-2.437866,-2.79936,0.72625643,-0.45145667,-0.51840001,0
4.2413073,-3.2516687,-0.77328008,0.78542727,-0.60216087,-0.14320001,0
0,5.184,1.5119997,0,0.95999998,0.27999994,0
-0.56817597,0.71480203,-5.3222399,-0.10521777,0.13237074,-0.98559994,0
-2.3839903,-4.2178292,2.3846402,-0.44147968,-0.78107947,0.44160002,0
1.7736217,-4.8141165,-1.6847997,0.32844844,-0.89150304,-0.31199995,0
-4.9089494,0.23375927,-2.2377605,-0.90906471,0.043288752,-0.4144001,0
2.9933832,4.3540111,-1.1145604,0.55433023,0.80629832,-0.20640007,0
-0.17274582,5.1823797,1.5076797,-0.031989966,0.95969993,0.27919993,0
1.0974665,-2.051785,-4.8729606,0.20323452,-0.37996018,-0.90240008,0
-0.78446984,-5.3343935,0.29807985,-0.1452722,-0.98785061,0.05519997,0
-1.7943869,-3.3893971,3.8016002,-0.33229387,-0.62766612,0.70400006,0
2.1053081,-1.052654,4.8599997,0.38987187,-0.19493593,0.89999992,0
-4.073133,0.54308438,-3.5035195,-0.75428385,0.10057118,-0.6487999,0
3.9384663,-2.8959312,-2.2939193,0.72934562,-0.53628355,-0.42479986,0
-1.0099013,-3.4336634,4.0435205,-0.18701875,-0.6358636,0.7488001,0
-4.6925683,-2.5890028,0.66095954,-0.86899412,-0.47944495,0.12239991,0
-0.6877352,-5.1580153,1.4428798,-0.12735836,-0.95518798,0.26719996,0
3.9699717,2.2685556,2.8728004,0.7351799,0.42010289,0.53200006,0
2.9447067,1.2046528,-4.3632002,0.54531604,0.22308384,-0.80800003,0
-0.74824667,1.6835551,-5.0759993,-0.1385642,0.31176946,-0.93999982,0
-0.21487366,1.0743695,5.2876801,-0.039791416,0.19895732,0.97920001,0
3.1569567,-3.4835382,-2.6568003,0.58462161,-0.64509964,-0.49200004,0
-4.9465775,-1.7057161,1.3348795,-0.91603285,-0.31587335,0.24719991,0
-4.0704579,-2.8732646,-2.0822403,-0.75378847,-0.53208601,-0.38560006,0
0.21526414,-0.86105722,5.32656,0.039863728,-0.15945503,0.98640001,0
-2.9247196,-4.3010588,1.4515202,-0.54161471,-0.79649234,0.26880002,0
5.1433406,-0.85722363,1.4039997,0.95247048,-0.15874511,0.25999993,0
2.0177684,4.8762736,1.1447995,0.3736608,0.90301365,0.21199989,0
-5.3038063,0.33148757,0.95904022,-0.98218632,0.061386585,0.17760004,0
3.3186433,-2.5377858,3.4214399,0.61456358,-0.46996033,0.6336,0
5.2616735,1.2026678,-0.1684806,0.97438395,0.22271626,-0.031200111,0
0.41935125,5.3117876,-0.8769598,0.07765764,0.98366433,-0.16239996,0
4.9766102,-2.0491924,-0.44063908,0.92159444,-0.37948006,-0.081599832,0
-0.64043915,1.4943577,5.1494403,-0.11859984,0.27673289,0.95360005,0
2.7489734,-3.700541,-2.8123198,0.50906914,-0.68528539,-0.52079993,0
3.7229733,3.0460691,-2.4537592,0.68943948,0.56408685,-0.45439985,0
-5.2710447,0.69355863,-0.94607991,-0.9761194,0.12843679,-0.17519999,0
-0.94127458,4.518117,2.8036797,-0.1743101,0.83668828,0.51919991,0
-2.2064335,-4.8265734,-0.9979198,-0.40859878,-0.89380985,-0.18479995,0
3.8205268,3.5570416,-1.3824002,0.70750493,0.65871143,-0.25600001,0
-3.8121104,-0.33148777,-3.8102403,-0.70594639,-0.061386622,-0.70560002,0
-4.7917347,-0.36859521,2.4624002,-0.88735825,-0.068258375,0.45600003,0
-1.6387553,5.080142,0.81647998,-0.3034732,0.94076705,0.1512,0
-3.3737597,4.1770358,0.57456005,-0.62477028,0.77352512,0.10640001,0
-3.910018,3.1768894,-1.9439996,-0.7240774,0.58831286,-0.35999992,0
-3.4407246,-0.80958217,4.0824003,-0.63717121,-0.14992262,0.75600004,0
-1.0882198,-5.2856398,0.19439994,-0.20152217,-0.97882217,0.035999987,0
4.5960317,1.4707297,2.4235201,0.85111696,0.27235734,0.4488,0
0.28245658,2.7115824,-4.6612811,0.052306771,0.50214487,-0.86320019,0
1.3273017,-5.1432953,0.97200006,0.24579662,-0.95246208,0.18000001,0
0.85688639,1.0711076,5.2228799,0.15868266,0.19835326,0.96719998,0
-0.84371698,-2.1092927,4.89888,-0.15624388,-0.39060977,0.90719998,0
-3.9485698,-3.6560833,-0.44927958,-0.73121661,-0.67705244,-0.083199918,0
-4.2541103,-3.0576415,-1.3089596,-0.78779823,-0.56622988,-0.24239992,0
2.6199079,4.3665137,-1.7971203,0.4851681,0.80861366,-0.33280006,0
3.6919065,1.3737328,-3.6936007,0.68368638,0.25439495,-0.68400013,0
-2.0303218,-4.9977155,0.24624026,-0.37598553,-0.92550284,0.045600045,0
2.8272018,4.4902611,1.0022402,0.52355587,0.8315298,0.18560003,0
0.08454401,3.8890281,-3.7454393,0.015656298,0.72019035,-0.69359988,0
0.52643716,-5.0888982,1.7279996,0.097488359,-0.94238853,0.3199999,0
-4.6037502,-2.1248078,1.8576002,-0.85254633,-0.39348292,0.34400004,0
-4.6925225,2.6590962,0.26351944,-0.86898565,0.49242523,0.048799895,0
4.7048011,2.091023,1.6286404,0.87125945,0.38722646,0.30160007,0
1.1245296,-0.58782226,-5.2487998,0.20824622,-0.10885597,-0.97199994,0
-1.5641741,-5.1617746,0.26352054,-0.28966185,-0.95588416,0.0488001,0
0.25862312,-5.1724672,-1.5292802,0.04789317,-0.95786428,-0.28320003,0
-0.92905134,4.6452556,2.592,-0.17204654,0.86023247,0.47999999,0
2.9447067,-1.2046528,-4.3632002,0.54531604,-0.22308384,-0.80800003,0
1.3871173,-5.1323328,-0.94608039,0.25687358,-0.950432,-0.17520007,0
1.4530559,-5.0196466,-1.3608,0.26908442,-0.92956418,-0.252,0
2.189533,3.1847754,3.7713597,0.40546906,0.58977318,0.6983999,0
5.0283947,-1.8676893,-0.62208068,0.93118417,-0.34586838,-0.11520012,0
0.79595935,-5.1737356,-1.3262396,0.14739987,-0.95809919,-0.24559993,0
4.4010987,-0.57405633,3.0758398,0.8150183,-0.10630672,0.56959993,0
0.85006315,-1.7001261,-5.0544004,0.1574191,-0.31483814,-0.93600005,0
-1.6400529,4.2026358,-2.9678409,-0.3037135,0.77826589,-0.54960018,0
5.0880723,-1.7957906,-0.21599928,0.94223559,-0.3325538,-0.039999865,0
3.273546,-0.20459639,4.2897596,0.6062122,-0.037888218,0.79439992,0
2.2497828,-4.0710359,-2.7431996,0.41662642,-0.75389552,-0.5079999,0
-2.2799127,4.8448143,-0.69983917,-0.42220604,0.89718783,-0.12959984,0
-0.29929852,5.3873711,-0.21600047,-0.055425651,0.99766129,-0.040000085,0
-4.7043195,-2.2214839,-1.4472003,-0.87117028,-0.41138589,-0.26800004,0
-3.187923,-3.7782793,-2.1729593,-0.59035611,-0.69968134,-0.40239987,0
-1.8636084,4.9131489,1.2441593,-0.34511265,0.90984237,0.23039988,0
1.1602075,-3.6463671,-3.8102398,0.21485324,-0.67525315,-0.70559996,0
4.4209094,-1.5095785,-2.7086408,0.8186869,-0.27955157,-0.50160015,0
0.85966963,-0.64475191,5.2919998,0.15919808,-0.1193985,0.97999996,0
-2.5772483,-2.9737484,3.6979201,-0.47726819,-0.55069417,0.68480003,0
-2.679271,-2.3730686,-4.04352,-0.49616128,-0.43945715,-0.74879998,0
2.8624365,-4.1147518,2.0087998,0.53008085,-0.76199108,0.37199995,0
-2.9929836,4.4894757,-0.21600011,-0.5542562,0.83138436,-0.040000021,0
-5.3117876,0.41935125,-0.8769598,-0.98366433,0.07765764,-0.16239996,0
0.073566884,-3.4576468,-4.1472001,0.013623497,-0.64030498,-0.76800001,0
4.6909709,-2.4834557,-0.99359936,0.8686983,-0.45989919,-0.18399988,0
-2.2465458,-2.4507768,4.2551999,-0.41602698,-0.45384756,0.78799999,0
5.3244557,0.28023425,-0.85535985,0.98601031,0.051895231,-0.15839997,0
-4.215107,-1.3411703,3.09744,-0.78057534,-0.24836487,0.57359999,0
0.20964225,2.5157094,4.7736001,0.038822636,0.46587211,0.884,0
-3.3742461,-1.9848508,3.7195203,-0.62486041,-0.36756495,0.68880004,0
3.1585598,0.4704237,-4.3545613,0.5849185,0.087115496,-0.80640024,0
-1.2179643,-3.2479045,4.1385603,-0.22554894,-0.60146379,0.76640004,0
0.26978368,-5.2607865,-1.1879995,0.049959939,-0.97421974,-0.21999989,0
0.4852646,5.3379154,0.65664059,0.089863814,0.98850286,0.12160011,0
1.6877881,5.0633645,-0.82080048,0.31255335,0.9376601,-0.15200008,0
0.37858549,4.5430303,2.8943999,0.070108421,0.84130186,0.53599995,0
3.9008429,3.6222115,-0.90719908,0.72237831,0.67077988,-0.16799983,0
-2.4782043,-4.425365,1.8532802,-0.45892671,-0.81951201,0.34320003,0
-3.5485325,-3.8864877,1.2096001,-0.65713561,-0.71971995,0.22400001,0
2.1081421,-4.9691925,-0.15119936,0.39039668,-0.92022079,-0.02799988,0
-3.7640638,-1.1886518,3.6849601,-0.69704884,-0.2201207,0.68239999,0
-0.92863041,0.78200454,-5.2617598,-0.17196859,0.14481565,-0.97439992,0
0.39706385,2.3823838,-4.8297606,0.073530339,0.4411822,-0.89440006,0
-4.9578848,1.0624039,1.8576,-0.91812682,0.19674146,0.34399998,0
0.82278728,-5.2658372,0.86832017,0.15236801,-0.975155,0.16080002,0
-1.6771399,1.8867815,4.7736001,-0.31058145,0.34940398,0.884,0
5.3038058,-0.33148807,0.95904022,0.98218626,-0.061386678,0.17760004,0
3.8954809,-1.0624039,-3.5856001,0.72138536,-0.19674146,-0.66400003,0
-5.1253486,1.0250697,1.3564796,-0.94913858,0.18982773,0.25119993,0
-4.111587,3.4790356,0.38879967,-0.76140499,0.64426583,0.071999937,0
2.4729123,-2.6274695,-4.0176001,0.45794672,-0.48656842,-0.74400002,0
-2.2730262,-3.9261363,-2.9289598,-0.42093077,-0.72706228,-0.54239994,0
-0.78446984,-5.3343935,0.29807985,-0.1452722,-0.98785061,0.05519997,0
-2.1871321,-4.3742642,2.2895999,-0.40502447,-0.81004894,0.42399997,0
-1.4922144,0.85269451,5.1192002,-0.27633601,0.15790638,0.94800001,0
-4.7556663,0.79261094,-2.4321606,-0.88067889,0.14677981,-0.45040011,0
1.2986467,5.1945877,0.69984031,0.24049012,0.96196067,0.12960005,0
1.950469,-4.8111577,-1.4860798,0.36119795,-0.89095509,-0.27519995,0
-4.491396,-2.5911901,1.5076802,-0.83173996,-0.47985002,0.27920002,0
0.82278728,-5.2658372,0.86832017,0.15236801,-0.975155,0.16080002,0
3.7730646,-3.7730641,0.82943988,0.69871563,-0.69871557,0.15359998,0
-4.5465779,-0.18944056,2.9073598,-0.84195888,-0.035081584,0.53839993,0
0.42291856,2.1145952,4.9507198,0.078318253,0.3915917,0.91679996,0
-3.31776,3.1104002,-2.9116802,-0.61439997,0.57600003,-0.53920001,0
4.2178292,2.3839903,2.3846397,0.78107947,0.44147968,0.44159994,0
2.1676543,4.9133501,-0.56591892,0.40141746,0.90987962,-0.1047998,0
2.0997598,-4.8994403,-0.86399955,0.3888444,-0.90730375,-0.15999991,0
-1.1401855,4.3707113,2.9591997,-0.21114546,0.80939096,0.54799992,0
0.66715705,5.2038236,-1.2787195,0.1235476,0.96367103,-0.23679991,0
1.5526959,-3.8360717,-3.468961,0.28753626,-0.71038365,-0.64240015,0
-0.12355489,5.0657558,-1.866241,-0.022880536,0.9381029,-0.34560019,0
2.154182,3.5250249,3.4775999,0.39892259,0.65278238,0.64399993,0
3.7700508,-2.6390355,2.8252804,0.69815755,-0.48871025,0.52320009,0
-0.28023466,5.3244557,-0.85535985,-0.051895306,0.98601031,-0.15839997,0
-4.1931601,2.8365498,-1.8792005,-0.77651113,0.52528697,-0.34800008,0
-1.9789897,0.58948624,-4.9895997,-0.36647958,0.10916412,-0.92399991,0
5.3121037,-0.93743014,0.25056076,0.98372293,-0.17359817,0.046400141,0
0.18581013,-1.8209389,-5.0803204,0.034409285,-0.33721092,-0.94080007,0
3.4288936,-3.4288936,-2.3760006,0.63498026,-0.63498026,-0.44000012,0
3.0624018,-4.2533355,1.3003199,0.56711143,-0.7876547,0.24079998,0
-1.0568563,-1.9023409,4.94208,-0.19571412,-0.35228536,0.9152,0
5.0966024,0.35148948,1.7495996,0.94381523,0.065090641,0.32399991,0
5.2947907,-0.49638665,0.93744022,0.98051679,-0.091923453,0.17360003,0
2.134701,-3.6872106,3.31776,0.39531499,-0.68281674,0.61439997,0
5.0792623,0.7618894,-1.6675192,0.94060409,0.14109063,-0.30879986,0
5.3244557,0.28023425,-0.85535985,0.98601031,0.051895231,-0.15839997,0
4.1844344,3.4095397,0.1598399,0.77489525,0.63139623,0.029599981,0
3.4095039,-2.3958676,-3.4344001,0.63138962,-0.44367918,-0.63599998,0
2.8624358,-1.6356781,4.2768002,0.53008068,-0.30290332,0.792,0
0.61269361,3.2677028,4.2551999,0.11346178,0.60513014,0.78799999,0
2.7742443,-4.5693431,0.76463974,0.51374894,-0.84617466,0.14159995,0
-3.5330369,-2.7254853,-3.0412793,-0.65426612,-0.5047195,-0.56319988,0
0.58948535,1.9789869,-4.9896011,0.10916395,0.36647904,-0.9240002,0
-3.8001468,3.664427,-1.1361597,-0.70373088,0.67859757,-0.21039993,0
1.3052909,-1.600034,-4.9896002,0.24172054,-0.29630259,-0.92400002,0
4.5154395,2.3831484,-1.7582405,0.83619249,0.44132379,-0.32560009,0
-5.0347929,1.9250678,-0.32400006,-0.93236905,0.35649404,-0.06000001,0
-1.8723053,2.0803397,4.6180797,-0.3467232,0.38524809,0.85519993,0
-5.3941011,-0.14983599,-0.20304044,-0.99890763,-0.027747406,-0.037600081,0
-3.4096217,0.21763521,-4.1817598,-0.63141143,0.040302817,-0.77439994,0
-3.372299,-4.0467587,-1.1880003,-0.6244998,-0.74939972,-0.22000006,0
-3.276087,3.3852899,-2.6395204,-0.60668278,0.6269055,-0.48880008,0
-3.5965655,-2.2715151,-3.3264,-0.66603065,-0.42065093,-0.616,0
-0.5264377,5.0888977,1.7279994,-0.097488463,0.94238847,0.3199999,0
-0.2466566,5.056458,-1.8792009,-0.045677148,0.9363811,-0.34800017,0
-1.0588318,-5.2941599,-0.10367978,-0.19607995,-0.98039997,-0.019199958,0
3.214638,1.808233,3.94416,0.5953033,0.33485797,0.73039997,0
1.7736217,4.8141165,-1.6847997,0.32844844,0.89150304,-0.31199995,0
-2.6968496,-1.0372502,4.5619202,-0.49941659,-0.19208336,0.8448,0
-4.5154395,2.3831484,-1.7582405,-0.83619249,0.44132379,-0.32560009,0
-1.1672636,-4.1826949,-3.2097604,-0.21615992,-0.77457315,-0.59440005,0
-4.1125288,0.39166903,3.4775999,-0.76157939,0.072531298,0.64399993,0
-3.6828291,-1.5783554,-3.6201608,-0.68200541,-0.29228804,-0.67040014,0
0.43130785,0.43130785,5.3654404,0.079871826,0.079871826,0.99360007,0
-2.2214839,-4.7043195,-1.4472003,-0.41138589,-0.87117028,-0.26800004,0
-0.35228541,-3.3114822,-4.2508802,-0.065238036,-0.61323744,-0.78720003,0
2.2421384,3.4080503,-3.53808,0.41521081,0.63112044,-0.6552,0
-5.1632223,-1.4521564,0.62640017,-0.95615226,-0.26891786,0.11600003,0
-0.33148807,5.3038058,0.95904022,-0.061386678,0.98218626,0.17760004,0
-2.6199081,4.3665133,-1.7971209,-0.48516816,0.80861354,-0.33280018,0
3.1104002,3.31776,-2.9116802,0.57600003,0.61439997,-0.53920001,0
0.93055671,4.0944486,-3.3955202,0.17232531,0.75823122,-0.62880003,0
0.2159566,0,5.39568,0.039991964,0,0.99919999,0
0.80310225,-3.6139584,3.9311998,0.14872263,-0.66925156,0.72799993,0
0.83589536,2.5076847,4.7087998,0.15479544,0.46438605,0.87199998,0
-0.35148999,-5.0966024,1.7495995,-0.065090738,-0.94381523,0.32399988,0
2.7114289,0,4.66992,0.50211644,0,0.86479998,0
2.8732631,-0.11971936,-4.5705609,0.53208578,-0.022170251,-0.84640014,0
4.9452209,1.9780884,0.88991964,0.91578162,0.36631265,0.16479993,0
-3.7070732,0.4835313,-3.8966403,-0.68649501,0.089542829,-0.72160006,0
0.18944056,4.5465779,2.9073598,0.035081584,0.84195888,0.53839993,0
-0.21591339,0.21591339,5.3913603,-0.039983958,0.039983958,0.99840003,0
2.3158386,-0.42106175,4.8600001,0.428859,-0.077974394,0.90000004,0
-2.9546244,2.7576489,3.5812802,-0.54715264,0.51067573,0.66320002,0
0,5.2715669,-1.1707195,0,0.97621608,-0.2167999,0
-1.9789897,0.58948624,-4.9895997,-0.36647958,0.10916412,-0.92399991,0
-5.3968024,0.15419421,0.10368019,-0.99940783,0.028554482,0.019200036,0
4.4725566,-2.5557461,-1.6200006,0.82825118,-0.4732863,-0.3000001,0
3.3236499,-3.6797554,-2.1383994,0.61549073,-0.68143618,-0.39599988,0
-1.6047156,-4.5849023,-2.3587201,-0.29716954,-0.84905595,-0.4368,0
-3.3742461,-1.9848508,3.7195203,-0.62486041,-0.36756495,0.68880004,0
-2.4729133,2.62747,-4.0175991,-0.4579469,0.48656851,-0.74399984,0
3.028687,3.4072726,2.8943996,0.56086797,0.63097638,0.53599995,0
3.5955119,2.4294,-3.2140801,0.6658355,0.44988889,-0.5952,0
-0.55983603,4.6652999,2.6611199,-0.10367334,0.86394441,0.49279997,0
2.6526313,2.0404861,4.2379198,0.49122801,0.37786779,0.78479993,0
4.676537,0,2.7,0.86602539,0,0.5,0
-3.8892574,-3.7396708,-0.22031979,-0.72023284,-0.69253159,-0.04079996,0
3.241827,1.739517,-3.9528015,0.60033834,0.32213277,-0.73200023,0
5.3244557,-0.28023466,-0.85535985,0.98601031,-0.051895306,-0.15839997,0
-0.75480163,4.528811,2.8425598,-0.13977808,0.8386687,0.52639997,0
4.6719961,-1.5183988,-2.2420793,0.86518443,-0.28118494,-0.41519985,0
-1.8927814,1.4721631,4.8383999,-0.35051507,0.27262279,0.89599997,0
-1.1335382,-0.52898455,-5.2531199,-0.20991449,-0.0979601,-0.97279996,0
-0.60232592,-1.5392772,-5.1408005,-0.11154184,-0.28505132,-0.95200008,0
1.2842832,-0.64214158,5.2056003,0.23783021,-0.1189151,0.96400005,0
2.69119,-3.4601018,3.1536002,0.4983685,-0.64075959,0.58400005,0
0,-2.116359,4.9679999,0,-0.39191833,0.91999996,0
-4.8116693,-1.0562202,-2.2118399,-0.89104986,-0.19559632,-0.40959999,0
1.5095785,4.4209094,-2.7086408,0.27955157,0.8186869,-0.50160015,0
-2.8973641,0.62086326,4.5144005,-0.53654891,0.11497468,0.83600008,0
4.3167887,-1.5793128,-2.833921,0.79940528,-0.29246533,-0.52480018,0
3.7058325,-3.5780449,-1.6200006,0.68626529,-0.66260087,-0.3000001,0
5.1323328,-1.3871169,-0.94608009,0.950432,-0.25687349,-0.17520002,0
-2.0789931,-4.0540366,-2.8987193,-0.38499871,-0.7507475,-0.53679985,0
-4.4137378,-2.7261324,-1.4990402,-0.81735885,-0.5048393,-0.27760005,0
5.3873711,-0.29929852,-0.21600047,0.99766129,-0.055425651,-0.040000085,0
3.8639262,1.9319631,-3.2399991,0.7155419,0.35777095,-0.59999979,0
0.64566237,-0.64566302,5.3222404,0.1195671,-0.11956722,0.98560005,0
3.4610131,3.4610131,2.2809601,0.64092833,0.64092833,0.4224,0
-2.8171501,-4.5964031,-0.31104004,-0.52169448,-0.85118574,-0.057600006,0
1.2613215,4.4146256,-2.8425608,0.23357806,0.81752324,-0.52640015,0
2.0177824,-4.4024343,2.3889596,0.3736634,-0.8152656,0.44239992,0
5.3531232,-0.16221571,0.69120049,0.99131912,-0.030039946,0.1280001,0
4.2113466,-3.3400331,-0.51840031,0.77987897,-0.61852461,-0.096000053,0
-1.6047156,-4.5849023,-2.3587201,-0.29716954,-0.84905595,-0.4368,0
-0.18444917,-4.7956824,2.4753602,-0.034157254,-0.8880893,0.45840001,0
0.17590395,5.1012197,1.7625595,0.032574803,0.94467026,0.32639992,0
-3.0352421,-1.8211453,4.0780802,-0.56208187,-0.33724913,0.75520003,0
-0.10386129,-0.28714594,-5.3913598,-0.019233571,-0.053175174,-0.99839997,0
3.2603838,-4.2384992,0.75168043,0.60377479,-0.78490722,0.13920008,0
1.4054279,-4.2162843,-3.0672004,0.26026443,-0.78079337,-0.56800008,0
4.2407446,0.96380568,3.2011194,0.78532308,0.17848253,0.5927999,0
3.8001468,3.6644275,-1.1361588,0.70373088,0.67859769,-0.21039978,0
0.86053753,-0.43026876,5.3136001,0.1593588,-0.0796794,0.98399997,0
-5.0429373,1.7894295,0.7257598,-0.93387723,0.33137584,0.13439997,0
-3.0884798,4.4121141,-0.39312047,-0.57194066,0.81705815,-0.072800085,0
4.8111577,1.950469,-1.4860798,0.89095509,0.36119795,-0.27519995,0
3.1371648,-3.0391285,-3.1752,0.58095646,-0.5628016,-0.588,0
5.1135702,-1.4845849,0.89855993,0.94695741,-0.27492312,0.16639999,0
2.9447067,-1.2046528,-4.3632002,0.54531604,-0.22308384,-0.80800003,0
3.086972,4.3498235,-0.84240061,0.57166147,0.80552286,-0.15600011,0
-0.82926041,2.7247131,-4.5878391,-0.15356673,0.5045765,-0.84959984,0
-4.1015067,-1.4648238,-3.1924808,-0.75953829,-0.27126366,-0.59120011,0
1.5287857,-1.6677663,-4.9032001,0.28310847,-0.30884561,-0.90799999,0
-2.2919424,4.8894768,0.0043201204,-0.42443377,0.90545863,0.00080002227,0
0.21487366,1.0743695,5.2876801,0.039791416,0.19895732,0.97920001,0
1.0358826,0.92389518,-5.2185597,0.19183011,0.17109169,-0.96639991,0
0.53623748,5.228312,-1.2398397,0.099303238,0.96820593,-0.22959994,0
-2.0147138,-3.0220709,3.9960001,-0.37309512,-0.55964273,0.74000001,0
-3.7101731,-2.9681387,2.5660803,-0.68706906,-0.54965532,0.47520006,0
-5.1433406,0.85722363,1.4039997,-0.95247048,0.15874511,0.25999993,0
3.6139584,-0.80310166,3.9312,0.66925156,-0.14872253,0.72799999,0
-0.77278525,4.2503181,-3.24,-0.14310838,0.7870959,-0.59999996,0
0.21382889,1.4968024,-5.1840005,0.039597943,0.27718565,-0.9600001,0
4.8111572,-1.9504693,-1.4860803,0.89095503,-0.36119801,-0.27520004,0
-3.0213914,-4.4525771,0.45360002,-0.55951691,-0.82455128,0.083999999,0
-4.8285155,-2.4142578,-0.12959975,-0.89416951,-0.44708475,-0.023999954,0
-3.8851049,2.7750742,2.5228803,-0.71946388,0.5139026,0.46720004,0
2.4599662,-4.775228,-0.5529598,0.4555493,-0.88430148,-0.10239996,0
5.3603663,0.59559655,-0.26784053,0.9926604,0.11029565,-0.049600098,0
0.71247309,4.9873085,1.9440006,0.13193946,0.92357564,0.3600001,0
-1.6356781,-2.8624358,4.2768002,-0.30290332,-0.53008068,0.792,0
4.0776081,-1.6907154,-3.1104007,0.75511259,-0.31309545,-0.57600009,0
0.72801936,-3.3488884,-4.1731205,0.13481839,-0.62016451,-0.77280009,0
5.228312,0.53623748,-1.2398397,0.96820593,0.099303238,-0.22959994,0
0,-0.64683259,5.3611202,0,-0.11978381,0.9928,0
-4.5141501,0,-2.9635201,-0.83595371,0,-0.54879999,0
-5.3343935,-0.78446984,0.29807985,-0.98785061,-0.1452722,0.05519997,0
3.4336638,1.0099013,4.04352,0.63586366,0.18701875,0.74879998,0
-3.2735453,-0.2045964,4.2897601,-0.60621208,-0.037888221,0.79440004,0
-5.0888982,0.52643716,1.7279996,-0.94238853,0.097488359,0.3199999,0
2.8624365,4.1147518,2.0087993,0.53008085,0.76199108,0.37199986,0
3.9394991,-3.4142323,-1.4083201,0.72953689,-0.63226521,-0.2608,0
3.5696981,-3.0288348,-2.6913595,0.66105521,-0.56089532,-0.49839991,0
-5.3244557,-0.28023466,-0.85535985,-0.98601031,-0.051895306,-0.15839997,0
5.2428503,0.82781845,-0.99359989,0.97089821,0.1532997,-0.18399997,0
-2.7073963,-1.9949236,-4.2249599,-0.50136966,-0.36943027,-0.78239995,0
0.83589536,2.5076847,4.7087998,0.15479544,0.46438605,0.87199998,0
-1.8369652,-2.4070575,-4.4712005,-0.34017873,-0.4457514,-0.82800007,0
2.8108561,-2.4093056,3.9312003,0.52052891,-0.44616768,0.72800004,0
0.21382889,-1.4968024,-5.1840005,0.039597943,-0.27718565,-0.9600001,0
-2.091023,4.7048011,1.6286404,-0.38722646,0.87125945,0.30160007,0
-2.1180477,-1.3431522,-4.7822399,-0.39223105,-0.24873188,-0.88559997,0
-3.1104002,4.1472001,-1.5120001,-0.57600003,0.76800001,-0.28,0
-3.9252613,-1.1775786,3.5164802,-0.72690022,-0.2180701,0.65120006,0
-0.41173953,-3.0880449,4.4107199,-0.076248057,-0.57186013,0.81679994,0
3.0450947,3.8649278,-2.2247994,0.56390643,0.71572733,-0.41199988,0
-4.7493267,-1.1583724,-2.2939198,-0.87950492,-0.21451341,-0.42479995,0
2.8060665,0.59703553,-4.5748816,0.51964194,0.11056213,-0.84720027,0
-0.77064484,-3.2226963,-4.2638407,-0.14271201,-0.59679562,-0.78960013,0
4.4279981,1.8449996,2.4796796,0.81999964,0.34166658,0.45919991,0
3.5052431,-2.3368287,3.3782399,0.64911908,-0.43274605,0.62559998,0
0.18581013,-1.8209389,-5.0803204,0.034409285,-0.33721092,-0.94080007,0
2.3489439,4.8544846,0.27648026,0.4349896,0.89897859,0.051200047,0
-1.7909781,2.8655646,-4.2119994,-0.3316626,0.53066009,-0.77999985,0
-0.55983603,-4.6652999,2.6611199,-0.10367334,-0.86394441,0.49279997,0
-3.5840905,-4.0321016,-0.23759976,-0.66372043,-0.74668545,-0.043999955,0
2.2054608,-3.0074463,3.9052799,0.40841866,-0.55693448,0.72319996,0
2.6904099,-1.2417277,4.5144,0.49822405,-0.22994958,0.83599997,0
1.7492269,5.0886593,0.45360008,0.32393092,0.94234431,0.084000014,0
4.2630506,0.38754961,3.2918396,0.7894538,0.071768448,0.60959989,0
-2.611289,2.611289,3.9398401,-0.48357204,0.48357204,0.72960001,0
-3.0897212,-3.8167148,2.2464001,-0.57217056,-0.70679903,0.41600001,0
-2.8060689,-0.59703588,-4.5748801,-0.51964235,-0.1105622,-0.84720004,0
4.6920214,2.6392622,-0.42335993,0.86889285,0.48875225,-0.078399986,0
-2.9910192,-3.4035733,-2.9376001,-0.55389243,-0.63029134,-0.54400003,0
4.3455744,-2.7811675,1.5940801,0.80473596,-0.51503104,0.29520002,0
-2.5949323,-2.7945423,3.8232002,-0.48054302,-0.51750785,0.708,0
-5.0888982,0.52643716,1.7279996,-0.94238853,0.097488359,0.3199999,0
-1.8799597,-1.8799597,4.70016,-0.34814069,-0.34814069,0.87040001,0
-0.70042628,5.0780916,1.6977595,-0.12970857,0.94038731,0.3143999,0
-1.2218804,-4.8875222,-1.9440002,-0.22627415,-0.90509671,-0.36000004,0
4.4097533,-2.4498627,-1.9267203,0.81662095,-0.45367828,-0.35680005,0
3.8864882,3.548532,1.2096001,0.71972001,0.65713555,0.22400001,0
1.7291763,-4.0347462,3.1449602,0.32021782,-0.74717522,0.58240002,0
-0.20147119,-3.6264851,3.9960001,-0.037309479,-0.67157131,0.74000001,0
-4.6263032,1.7793471,-2.1427193,-0.85672277,0.32950872,-0.39679986,0
3.1371648,-3.0391285,-3.1752,0.58095646,-0.5628016,-0.588,0
-3.7389219,1.5742826,3.5640001,-0.69239295,0.29153383,0.66000003,0
-0.70042628,5.0780916,1.6977595,-0.12970857,0.94038731,0.3143999,0
3.4120014,4.1228352,-0.72144073,0.63185209,0.76348799,-0.13360013,0
5.2941599,-1.0588318,-0.10368068,0.98039997,-0.19607995,-0.019200126,0
3.7110662,-3.8724167,0.62639946,0.68723446,-0.71711421,0.1159999,0
4.4137383,2.7261324,-1.4990388,0.81735891,0.5048393,-0.27759978,0
5.2458391,-0.98359489,0.82080019,0.9714517,-0.1821472,0.15200002,0
0.54043192,-4.6477137,-2.6956804,0.10007998,-0.86068767,-0.49920008,0
-4.8448138,2.2799127,-0.69984049,-0.89718771,0.42220604,-0.12960009,0
-2.5480676,-4.186111,2.2680004,-0.47186434,-0.77520573,0.42000005,0
-3.200068,-2.1895201,-3.7583997,-0.59260517,-0.40546668,-0.69599992,0
-3.3670375,-0.28655633,-4.2119999,-0.62352544,-0.053065985,-0.77999997,0
2.876858,-1.0228828,-4.4539194,0.5327515,-0.18942274,-0.8247999,0
1.2842832,0.64214092,5.2056003,0.23783021,0.11891498,0.96400005,0
0.35228541,-3.3114822,-4.2508802,0.065238036,-0.61323744,-0.78720003,0
-2.7104688,4.6680293,-0.15120018,-0.50193864,0.86444986,-0.028000033,0
2.7195015,-2.8044858,-3.7281594,0.50361139,-0.51934922,-0.69039989,0
0.87002629,-1.4054272,-5.1408005,0.16111597,-0.26026431,-0.95200008,0
3.2226977,0.77064526,-4.2638392,0.59679586,0.14271209,-0.78959984,0
4.8660617,2.0275254,-1.1707201,0.90112251,0.37546766,-0.21680002,0
-0.43544218,4.6810045,-2.6568003,-0.08063744,0.8668527,-0.49200004,0
2.5814483,-4.0405278,-2.4840009,0.47804597,-0.74824589,-0.46000016,0
-4.9350553,1.3919388,-1.6934397,-0.91389912,0.25776646,-0.31359994,0
-1.4498737,-4.7120881,2.2032001,-0.26849511,-0.8726089,0.40800002,0
1.9284954,0.15742828,-5.0414405,0.35712877,0.029153384,-0.93360007,0
-0.43026876,0.86053753,5.3136001,-0.0796794,0.1593588,0.98399997,0
-1.8927814,1.4721631,4.8383999,-0.35051507,0.27262279,0.89599997,0
-0.43130848,-0.43130848,5.3654399,-0.079871938,-0.079871938,0.99359995,0
-2.0503576,1.6187034,-4.7260804,-0.37969583,0.29975986,-0.87520003,0
5.2821431,-0.66026777,0.90720022,0.97817463,-0.12227181,0.16800004,0
2.3823838,0.39706385,-4.8297606,0.4411822,0.073530339,-0.89440006,0
-5.0018716,-1.9362085,0.62639987,-0.92627251,-0.35855713,0.11599997,0
-0.42739651,1.4958868,5.1710401,-0.079147503,0.27701607,0.9576,0
1.0711076,-0.85688573,5.2228799,0.19835326,-0.15868254,0.96719998,0
0,5.184,1.5119997,0,0.95999998,0.27999994,0
2.2465458,2.4507768,4.2551999,0.41602698,0.45384756,0.78799999,0
-0.52069896,-3.0591061,-4.4193602,-0.096425734,-0.56650114,-0.81840003,0
-1.1672636,4.1826949,-3.2097604,-0.21615992,0.77457315,-0.59440005,0
-0.42106175,2.3158386,4.8600001,-0.077974394,0.428859,0.90000004,0
0.56817597,0.71480203,-5.3222399,0.10521777,0.13237074,-0.98559994,0
2.8341308,4.5346093,-0.7516796,0.52483904,0.83974242,-0.13919993,0
-2.0303218,4.9977155,0.24624026,-0.37598553,0.92550284,0.045600045,0
1.9362085,-5.0018716,0.62639987,0.35855713,-0.92627251,0.11599997,0
1.3052909,-1.600034,-4.9896002,0.24172054,-0.29630259,-0.92400002,0
-2.3359978,4.3215961,-2.24208,-0.43259218,0.80029559,-0.4152,0
-4.5101461,-0.10250323,-2.96784,-0.83521223,-0.018982079,-0.54960001,0
-3.5343251,-1.3972912,-3.8361602,-0.65450466,-0.25875762,-0.71040004,0
0.36884773,-5.0409236,-1.9007999,0.068305135,-0.93350434,-0.35199997,0
2.9116764,3.1057892,3.3220799,0.53919935,0.57514614,0.61519998,0
-4.9131489,1.8636084,1.2441593,-0.90984237,0.34511265,0.23039988,0
-1.4060786,-3.4147625,3.9398403,-0.26038492,-0.63236344,0.72960007,0
-1.16688,-5.2509594,-0.47520053,-0.21608889,-0.97239989,-0.088000096,0
-4.5711441,-2.4814782,-1.4515198,-0.84650815,-0.45953301,-0.26879996,0
-0.36318865,4.9030437,2.2334404,-0.067257158,0.90797102,0.41360006,0
4.2713428,-1.8153206,-2.760479,0.7909894,-0.33617046,-0.51119977,0
3.7925935,-0.39922059,3.8232,0.70233214,-0.073929735,0.708,0
-4.4349589,-0.92824727,-2.9376004,-0.8212887,-0.17189763,-0.54400009,0
-2.1638629,-4.3277259,-2.3975999,-0.40071535,-0.8014307,-0.44399998,0
0.073566847,3.4576452,-4.1472011,0.01362349,0.64030463,-0.76800019,0
4.0840797,-3.5006402,-0.47519952,0.75631106,-0.64826667,-0.08799991,0
0.20573348,1.6801567,-5.1278405,0.03809879,0.31114012,-0.9496001,0
5.0429373,-1.7894295,0.7257598,0.93387723,-0.33137584,0.13439997,0
2.1248078,-4.6037502,1.8576002,0.39348292,-0.85254633,0.34400004,0
4.822947,-1.3263106,-2.0347192,0.89313835,-0.24561308,-0.37679985,0
-2.8257818,-2.2202575,4.03056,-0.5232929,-0.4111588,0.7464,0
-5.1202664,-1.7067558,0.17280035,-0.94819748,-0.31606588,0.032000065,0
-5.0510759,1.5153223,1.1620799,-0.93538439,0.28061524,0.21519998,0
2.1145067,3.7484431,-3.2616,0.39157531,0.69415611,-0.60399997,0
0.85447574,-4.1774383,-3.3134398,0.15823625,-0.77359968,-0.61359996,0
0.92863041,-0.78200454,-5.2617598,0.17196859,-0.14481565,-0.97439992,0
-0.39166963,4.1125283,3.4776003,-0.072531417,0.76157939,0.64400011,0
-3.9584024,0.19791995,3.6676803,-0.73303747,0.036651842,0.67920005,0
4.2537632,-3.3084829,0.34560031,0.78773391,-0.61268198,0.064000055,0
1.4179208,-5.1990442,0.34560069,0.26257792,-0.96278596,0.06400013,0
4.8875227,-1.2218807,-1.9439992,0.90509677,-0.22627419,-0.35999984,0
-5.0409236,0.36884773,-1.9007999,-0.93350434,0.068305135,-0.35199997,0
-3.0241544,2.8408725,-3.4559996,-0.56002861,0.52608752,-0.63999993,0
0.7419591,-4.5577493,-2.7993603,0.13739984,-0.84402764,-0.51840001,0
4.4137383,2.7261324,-1.4990388,0.81735891,0.5048393,-0.27759978,0
-5.3904443,0.30802512,0.090720214,-0.9982304,0.05704169,0.016800039,0
-3.6430948,2.4926436,3.1104002,-0.67464715,0.46160066,0.57600003,0
2.3958676,-3.4095039,-3.4344001,0.44367918,-0.63138962,-0.63599998,0
0.782004,2.248261,-4.8470397,0.14481555,0.41634461,-0.89759994,0
4.4902611,-2.8272016,1.0022407,0.8315298,-0.52355582,0.18560012,0
2.8622239,3.4346693,3.0283203,0.53004146,0.63604987,0.56080008,0
-3.8066237,3.8066237,0.4233596,-0.70493031,0.70493031,0.078399926,0
0.68773568,5.1580153,1.4428797,0.12735845,0.95518798,0.26719993,0
3.8639252,1.9319632,3.24,0.71554172,0.35777095,0.59999996,0
3.7167571,-3.859709,-0.66959935,0.68828833,-0.7147609,-0.12399988,0
2.1638629,4.3277259,-2.3975999,0.40071535,0.8014307,-0.44399998,0
2.6919184,1.3146577,-4.4927998,0.49850339,0.24345513,-0.83199996,0
2.3454866,-2.2765019,-4.298399,0.43434936,-0.42157441,-0.79599983,0
-5.2321658,1.2684036,0.41904059,-0.96891958,0.23488957,0.077600107,0
-1.0796545,4.8584442,2.0952005,-0.199936,0.89971185,0.3880001,0
2.2088807,-4.7575893,1.28304,0.40905195,-0.88103503,0.2376,0
0.2073148,-2.9024098,4.5489602,0.038391631,-0.53748327,0.84240001,0
-5.1990442,1.4179208,0.34560069,-0.96278596,0.26257792,0.06400013,0
2.9349566,3.8521295,2.3889601,0.54351044,0.71335727,0.44240001,0
-1.3263106,4.822947,-2.0347192,-0.24561308,0.89313835,-0.37679985,0
-4.1120591,2.2429414,2.6870401,-0.76149243,0.4153595,0.49760002,0
0.084543981,-3.8890269,-3.7454405,0.015656292,-0.72019017,-0.69360006,0
-2.4135735,4.0845098,2.5790396,-0.44695804,0.75639069,0.47759992,0
-0.90255982,4.8738213,2.1427205,-0.16714071,0.90255946,0.39680007,0
-4.4146256,-1.2613215,-2.8425608,-0.81752324,-0.23357806,-0.52640015,0
-0.21976884,-4.7250276,-2.6049604,-0.040697932,-0.87500507,-0.48240006,0
1.7943863,-3.3893971,3.8016005,0.33229375,-0.62766612,0.70400006,0
3.8056431,3.8056431,-0.44063959,0.70474869,0.70474869,-0.081599921,0
-0.9596138,5.2093325,-1.0497599,-0.17770626,0.96469116,-0.19439997,0
-2.3386247,3.2047825,-3.6633599,-0.43307865,0.5934782,-0.67839998,0
-5.0452867,-1.8919826,0.35424015,-0.93431234,-0.35036713,0.06560003,0
-3.7905338,1.7565888,-3.4214399,-0.70195067,0.32529423,-0.6336,0
3.5006402,4.0840797,-0.47519952,0.64826667,0.75631106,-0.08799991,0
5.0510759,-1.5153228,1.1620797,0.93538439,-0.28061533,0.21519993,0
4.5328703,-2.7471941,-1.0324793,0.83942044,-0.50873965,-0.19119987,0
3.2047825,-2.3386247,-3.6633599,0.5934782,-0.43307865,-0.67839998,0
1.236456,5.2549386,0.12960088,0.22897333,0.97313678,0.024000162,0
-4.3010588,-2.9247196,1.4515202,-0.79649234,-0.54161471,0.26880002,0
-3.6255562,-1.768564,-3.5899198,-0.6713993,-0.32751185,-0.66479993,0
-1.2026683,5.261673,-0.16848081,-0.22271635,0.97438389,-0.03120015,0
3.706346,1.9507089,3.4084799,0.68636036,0.36124238,0.63119996,0
-3.5570416,3.8205268,-1.3824002,-0.65871143,0.70750493,-0.25600001,0
3.8973198,2.5982132,-2.6870408,0.72172588,0.4811506,-0.49760014,0
1.7001261,0.85006315,-5.0544004,0.31483814,0.1574191,-0.93600005,0
1.7894295,5.0429373,0.7257598,0.33137584,0.93387723,0.13439997,0
-0.50693321,-5.2383099,1.2096,-0.093876518,-0.97005737,0.22399999,0
-2.4507768,-2.2465458,4.2551999,-0.45384756,-0.41602698,0.78799999,0
2.2730265,3.9261358,-2.9289603,0.42093083,0.72706217,-0.54240006,0
-4.775228,-2.4599659,-0.55295932,-0.88430148,-0.45554924,-0.10239987,0
2.2129197,4.2045479,-2.5660796,0.40979993,0.77861995,-0.47519991,0
1.0061338,2.1080902,-4.8686395,0.18632106,0.39038706,-0.90159988,0
-5.2468619,0.33850691,1.2312,-0.97164106,0.062686466,0.22799999,0
-1.0250697,5.1253486,1.3564796,-0.18982773,0.94913858,0.25119993,0
-4.8894768,-2.2919424,0.0043201204,-0.90545863,-0.42443377,0.00080002227,0
-0.4835313,-3.7070732,-3.8966403,-0.089542829,-0.68649501,-0.72160006,0
-4.6017127,-1.3468428,-2.484,-0.85216898,-0.24941532,-0.45999998,0
-3.8205609,3.473237,1.5811203,-0.70751125,0.64319205,0.29280004,0
-4.349824,-3.0869718,-0.84240007,-0.80552292,-0.57166141,-0.15600002,0
-1.6356781,-2.8624358,4.2768002,-0.30290332,-0.53008068,0.792,0
-3.9093685,-3.1985743,1.9094399,-0.72395712,-0.59232855,0.35359997,0
-3.0576415,4.2541103,-1.3089596,-0.56622988,0.78779823,-0.24239992,0
-0.12294929,2.0081718,-5.0112004,-0.022768388,0.37188366,-0.92800009,0
-2.8925779,-3.6425059,-2.7431998,-0.53566259,-0.67453814,-0.50799996,0
-4.3831162,0.95285165,3.0067203,-0.81168818,0.17645401,0.55680007,0
-2.0632005,0.084212184,-4.9896007,-0.38207415,0.015594848,-0.92400008,0
-3.3114822,-0.35228541,-4.2508802,-0.61323744,-0.065238036,-0.78720003,0
3.1498985,-2.6099157,-3.5251212,0.58331454,-0.48331773,-0.6528002,0
4.4121141,-3.0884798,-0.39312047,0.81705815,-0.57194066,-0.072800085,0
1.6891155,2.3526967,-4.5575991,0.31279916,0.43568456,-0.8439998,0
1.2178646,-3.1521201,-4.2120004,0.22553049,-0.58372593,-0.78000003,0
-4.9575233,-1.5655338,-1.4601599,-0.91805989,-0.28991365,-0.27039999,0
2.7411551,-3.9975176,-2.3803201,0.50762129,-0.74028105,-0.44080001,0
-2.5114329,0.62785757,4.7390399,-0.46508014,0.11626992,0.87759995,0
-0.15419419,5.3968024,0.10367929,-0.028554479,0.99940783,0.019199869,0
0.38754961,4.2630506,3.2918396,0.071768448,0.7894538,0.60959989,0
2.9349563,-3.8521299,2.3889596,0.54351044,-0.71335739,0.44239992,0
5.177516,-0.34516791,1.4947197,0.95879924,-0.063919984,0.27679995,0
-2.5057633,-0.81709671,-4.7131205,-0.46403024,-0.1513142,-0.87280005,0
-1.911588,-1.1378499,-4.9204807,-0.35399777,-0.21071294,-0.91120011,0
-1.8546839,2.0865195,-4.6224003,-0.34345996,0.3863925,-0.85600007,0
3.3186433,-2.5377858,3.4214399,0.61456358,-0.46996033,0.6336,0
-0.87313193,5.0641642,1.6588794,-0.1616911,0.93780816,0.3071999,0
4.2022967,-3.1937454,1.14048,0.77820307,-0.5914343,0.2112,0
2.0879509,1.67036,4.6915202,0.38665757,0.3093259,0.86880004,0
4.1120596,2.2429414,2.6870394,0.76149249,0.4153595,0.49759987,0
4.868546,-0.46367091,-2.2896006,0.9015826,-0.085864983,-0.42400011,0
2.5862348,-1.6810527,-4.4323192,0.47893235,-0.31130606,-0.82079983,0
1.8723047,-2.080339,4.6180801,0.34672308,-0.38524795,0.85519999,0
-2.8877835,3.2728217,3.1795197,-0.53477472,0.60607809,0.58879995,0
1.0245782,-3.073735,-4.3199992,0.18973671,-0.56921017,-0.79999983,0
-2.9447067,-1.2046528,-4.3632002,-0.54531604,-0.22308384,-0.80800003,0
-1.7053883,0.2131733,5.1192002,-0.31581265,0.039476536,0.94800001,0
1.9791919,-5.0241027,-0.03455947,0.36651701,-0.93038934,-0.0063999016,0
2.5557461,4.4725566,-1.6200006,0.4732863,0.82825118,-0.3000001,0
3.7396708,-3.8892574,-0.22031979,0.69253159,-0.72023284,-0.04079996,0
4.9666381,-1.986655,-0.73872054,0.91974777,-0.36789906,-0.1368001,0
-3.2383292,1.4167689,4.0824003,-0.59969056,0.2623646,0.75600004,0
0,-3.6273189,4.00032,0,-0.67172569,0.74079996,0
-0.20445983,4.4981141,-2.9807999,-0.03786293,0.83298409,-0.55199999,0
1.302781,1.8611157,-4.8988786,0.24125573,0.34465104,-0.90719974,0
-4.0327239,-3.1505659,-1.7236798,-0.74680072,-0.5834381,-0.31919995,0
-2.4002254,4.6290064,1.4040006,-0.44448617,0.85722339,0.26000011,0
2.7750745,3.8851044,2.5228808,0.51390266,0.71946377,0.46720013,0
-2.3954589,-2.1901338,-4.3156796,-0.44360349,-0.40558034,-0.79919988,0
-2.4342122,-1.1064601,-4.6915197,-0.45078003,-0.20490001,-0.86879992,0
5.1323328,-1.3871169,-0.94608009,0.950432,-0.25687349,-0.17520002,0
-3.7524118,1.3824674,3.6288002,-0.6948911,0.25601247,0.67199999,0
-4.5960317,1.4707297,2.4235201,-0.85111696,0.27235734,0.4488,0
-1.8153203,-4.2713423,-2.7604802,-0.33617041,-0.79098928,-0.51120001,0
0.20147119,3.6264851,3.9960001,0.037309479,0.67157131,0.74000001,0
1.9059128,-0.84707242,4.9809604,0.35294679,-0.15686525,0.92240006,0
