-1.8082614,4.8220301,-2.6679993,-0.31176919,0.83138448,-0.45999986,0
3.1016932,-3.5152524,3.4150407,0.53477466,-0.60607797,0.58880013,0
-4.416656,2.4090853,2.88608,-0.76149237,0.41535953,0.49759999,0
2.8150051,3.0874245,-4.0228796,0.48534569,0.53231454,-0.69359988,0
-0.66262716,-3.3131356,4.7142401,-0.11424606,-0.57123023,0.81279999,0
-5.5662599,0.18554181,1.6193597,-0.95969993,0.031989966,0.27919996,0
-4.1042366,-2.4625423,3.2758403,-0.707627,-0.42457625,0.56480002,0
-5.4971137,1.6796738,-0.77488065,-0.94777817,0.28959891,-0.1336001,0
-3.2125764,3.6556897,-3.1552002,-0.55389243,0.63029128,-0.54400003,0
-1.4019791,1.718555,-5.3592,-0.24172053,0.29630259,-0.92399997,0
-3.7112575,3.9763474,-2.0137603,-0.63987195,0.68557709,-0.34720004,0
-2.8139753,4.689959,-1.930241,-0.48516816,0.8086136,-0.33280015,0
-0.67508417,-2.6440794,-5.1179204,-0.11639382,-0.45587575,-0.88240004,0
-3.2350416,4.3768215,2.0044799,-0.55776578,0.75462437,0.34559998,0
-1.1539526,0.23079023,5.6793599,-0.19895734,0.039791416,0.97919995,0
-5.5125055,-1.4898663,-1.0161601,-0.95043194,-0.25687349,-0.17520002,0
-5.5649061,0.13912252,-1.6286403,-0.95946652,0.023986639,-0.28080004,0
2.6038954,-2.2422433,-4.6724806,0.44894746,-0.38659367,-0.80560005,0
1.6365463,-5.5642557,-0.027840335,0.28216314,-0.9593544,-0.0048000575,0
1.4064251,-4.8220296,2.8999999,0.24248709,-0.83138436,0.49999997,0
-4.0151906,-3.632791,2.0787199,-0.69227421,-0.62634325,0.35839996,0
2.4873824,-0.45225152,5.2199998,0.42885903,-0.077974401,0.89999992,0
3.0347517,4.7688956,-1.2991991,0.52323306,0.82222337,-0.22399984,0
-3.0178666,3.538188,-3.46608,-0.52032179,0.61003238,-0.59759998,0
5.3452682,1.6588758,1.5219197,0.92159796,0.28601307,0.26239994,0
-2.384721,3.035099,4.3291202,-0.4111588,0.5232929,0.7464,0
-2.476882,5.0994635,-1.2249606,-0.42704859,0.8792178,-0.21120009,0
1.8159537,4.379653,-3.3408015,0.31309545,0.75511253,-0.57600021,0
2.1246135,5.3115339,0.95583963,0.36631265,0.91578168,0.16479993,0
4.6619949,3.1079969,-1.4987202,0.80379218,0.53586155,-0.25840002,0
3.0122256,2.9209461,-4.0043192,0.51934922,0.50361139,-0.69039983,0
4.9368773,3.0258279,-0.33408004,0.85118568,0.52169442,-0.057600006,0
0.35270071,5.0553818,-2.8211203,0.060810465,0.8716175,-0.48640004,0
-1.6089499,-5.2290869,-1.9255996,-0.27740514,-0.90156668,-0.33199993,0
4.0994339,3.3185899,2.4128003,0.70679891,0.57217067,0.41600004,0
3.6890893,3.0742404,3.2526402,0.63604987,0.53004146,0.56080002,0
3.8951137,-0.21639499,4.2919998,0.67157131,-0.037309479,0.73999995,0
-5.5456834,-1.5597236,0.67280018,-0.95615226,-0.26891786,0.11600003,0
-0.1115469,0.30839443,-5.7907214,-0.019232225,0.053171452,-0.99840021,0
-5.0527878,-2.3860383,-1.5544003,-0.87117028,-0.41138589,-0.26800004,0
4.4943924,3.6620984,0.1716799,0.77489519,0.63139623,0.029599981,0
-5.5501537,1.5417097,-0.6774407,-0.95692301,0.26581201,-0.11680011,0
1.8082629,-0.80367237,-5.4519997,0.31176946,-0.1385642,-0.93999994,0
-5.6355186,-0.36358204,1.3224,-0.97164112,-0.062686555,0.22799999,0
4.9568796,1.3879262,2.6726401,0.8546344,0.23929761,0.46079999,0
-1.135142,-2.0432551,5.3081603,-0.19571413,-0.35228536,0.9152,0
-1.2648066,-4.2160215,3.7769604,-0.2180701,-0.72690022,0.65120006,0
5.3605833,-0.6537298,-2.1158412,0.92423844,-0.11271203,-0.36480018,0
-4.049314,2.8345196,3.0345604,-0.69815755,0.48871025,0.52320004,0
-1.2537277,-4.4925241,-3.4475205,-0.21615994,-0.77457309,-0.59440005,0
5.7188601,0.30099234,-0.91871983,0.98601031,0.051895231,-0.15839997,0
-5.2657361,-2.2818186,0.83983976,-0.90788549,-0.393417,0.14479995,0
0,-5.79884,0.1160002,0,-0.99979997,0.020000033,0
2.919626,-4.9805384,0.55679917,0.50338376,-0.85871351,0.095999852,0
4.4761167,-3.6768103,-0.29231903,0.77174425,-0.63393277,-0.050399832,0
-3.1770554,4.7655826,0.91408038,-0.54776818,0.82165211,0.15760006,0
-3.5567772,0.37838066,-4.5657601,-0.61323744,0.065238044,-0.78719997,0
-0.20086412,-5.0216079,2.89536,-0.034631744,-0.86579442,0.49919999,0
-3.9808903,-2.0952053,3.6609602,-0.68636036,-0.36124229,0.63120002,0
-2.6625674,3.4233012,-3.8512006,-0.45906332,0.59022433,-0.66400009,0
3.6945081,0.15721296,-4.4683213,0.63698411,0.027105682,-0.77040023,0
1.2441778,5.1011281,-2.4638412,0.21451341,0.8795048,-0.42480019,0
4.7704258,-2.2596755,-2.4035201,0.82248718,-0.3895992,-0.41440001,0
-2.0820322,3.7855129,-3.8697593,-0.35897106,0.65267462,-0.66719985,0
-0.69348991,-0.69348991,5.7164803,-0.11956722,-0.11956722,0.98559999,0
2.8208873,2.6038961,4.3476801,0.48635986,0.44894761,0.74959999,0
-2.0192161,-2.0192161,5.0483203,-0.34814069,-0.34814069,0.87040001,0
-1.9560449,-3.2600749,4.3801599,-0.3372491,-0.56208187,0.75519997,0
3.1072342,0.8877818,4.8163204,0.53573,0.15306582,0.83040005,0
-0.76882809,2.0803585,-5.359199,-0.13255656,0.35868248,-0.92399979,0
0.88373452,5.6558995,0.93264019,0.15236801,0.97515506,0.16080002,0
4.5615783,-2.3799539,2.6772797,0.786479,-0.41033685,0.46159995,0
3.5440247,-4.2255678,-1.7956799,0.61103874,-0.72854614,-0.30959997,0
-0.42485806,-4.2485781,3.9254403,-0.073251389,-0.73251343,0.67680001,0
-4.6834102,1.0891654,-3.2433605,-0.80748451,0.18778715,-0.55920005,0
-5.4658532,-0.56543308,1.8559995,-0.94238847,-0.097488463,0.3199999,0
-1.1520853,-0.69125104,5.64224,-0.19863538,-0.11918121,0.97279996,0
5.5764675,-1.0793164,1.1739199,0.96145988,-0.18608902,0.20239998,0
4.7077923,-1.0234332,3.2294397,0.8116883,-0.17645399,0.55679995,0
0.11009606,-4.8442311,-3.18768,0.018982079,-0.83521223,-0.54960001,0
-2.0265436,1.8013718,5.1272001,-0.34940407,0.31058133,0.884,0
-1.4429879,-5.6116195,-0.25983983,-0.24879101,-0.96752059,-0.044799969,0
2.2822011,-4.9447684,1.9952003,0.39348292,-0.85254627,0.34400004,0
0.4344787,4.779263,-3.2572801,0.074910119,0.82401085,-0.56160003,0
-4.5601735,-3.5829935,-0.08352001,-0.78623676,-0.6177575,-0.014400002,0
-1.9421768,3.4527593,4.2363195,-0.33485806,0.5953033,0.73039991,0
4.8544669,-3.1319141,-0.51503986,0.83697701,-0.53998518,-0.088799976,0
-2.369873,-5.1840973,-1.0718398,-0.40859878,-0.89380985,-0.18479995,0
3.7824054,4.2188373,-1.2388804,0.65213883,0.7273857,-0.21360005,0
-5.6769032,1.1038421,-0.44080046,-0.9787764,0.1903176,-0.07600008,0
2.6093554,3.8618462,-3.4521604,0.44988886,0.66583556,-0.59520006,0
0.81071347,-4.8642783,3.0531199,0.13977818,-0.83866864,0.52639997,0
-0.49214649,4.4293175,-3.7119997,-0.084852837,0.76367539,-0.63999993,0
1.0929941,1.1572881,-5.57728,0.18844725,0.19953242,-0.96160001,0
2.509927,-3.7648907,3.62848,0.43274602,-0.64911908,0.62559998,0
0.80023569,-5.0014701,2.8257601,0.13797167,-0.86232239,0.48719999,0
-4.9875574,-1.0687623,-2.7608008,-0.85992366,-0.18426935,-0.47600013,0
-3.2129281,2.5703423,4.0878401,-0.55395311,0.44316244,0.70480001,0
-1.4405162,-4.5273376,3.3268802,-0.24836487,-0.78057539,0.57359999,0
-3.7367418,-4.4161491,0.41760027,-0.64426583,-0.76140499,0.072000042,0
-5.1031566,-1.530947,-2.2921603,-0.87985456,-0.26395637,-0.39520004,0
1.8185009,-1.363876,5.3360004,0.31353462,-0.23515102,0.92000002,0
-3.5655313,-4.0937586,-2.0415998,-0.61474675,-0.70582044,-0.35199994,0
4.5506911,0,-3.5959997,0.78460187,0,-0.61999995,0
1.8317128,-0.22896393,5.4984002,0.31581256,-0.039476536,0.94800001,0
-1.8013724,2.0265431,5.1272001,-0.31058145,0.34940398,0.884,0
-0.35604256,4.0944901,-4.0924792,-0.061386649,0.70594656,-0.70559984,0
-3.1072342,0.8877818,4.8163204,-0.53573,0.15306582,0.83040005,0
-2.4539196,4.9078393,1.8792003,-0.42308959,0.84617919,0.32400006,0
3.3720481,-4.6143813,0.98832029,0.58138758,-0.79558295,0.17040004,0
-2.5877728,3.0190678,4.2224002,-0.44616771,0.52052891,0.72799999,0
0.35604221,-5.6966805,1.0300803,0.061386585,-0.98218626,0.17760006,0
-1.9918252,2.655767,4.756,-0.34341812,0.45789084,0.81999999,0
-5.2833691,0.12579437,-2.3896008,-0.91092569,0.021688683,-0.41200012,0
-2.0796313,5.3723807,0.67279989,-0.35855711,0.92627251,0.11599997,0
-3.6280768,-3.4265165,2.9556801,-0.62553048,-0.59077871,0.50959998,0
-2.046756,4.3089595,-3.2990391,-0.35288897,0.74292403,-0.56879985,0
-3.245928,2.1639526,4.2919998,-0.55964273,0.37309527,0.73999995,0
-0.86259067,-3.881659,4.2224002,-0.14872253,-0.66925156,0.72799999,0
4.7559981,-1.9816656,2.6633599,0.81999964,-0.34166646,0.45919997,0
-1.4405162,4.527338,3.3268795,-0.24836487,0.78057551,0.57359987,0
2.2022359,1.7386074,-5.0761604,0.37969583,0.29975989,-0.87520003,0
4.0816393,3.9358666,-1.2203188,0.70373088,0.67859769,-0.21039979,0
1.3808192,-0.4602733,5.6144004,0.23807226,-0.07935746,0.96800005,0
-2.0713472,-0.16908953,-5.4148808,-0.35712883,-0.029153366,-0.93360013,0
3.1119838,0.66685313,4.8488007,0.53654891,0.11497467,0.83600008,0
3.0847449,1.5423725,4.6632004,0.53185254,0.26592627,0.80400002,0
3.2350421,4.3768215,2.0044794,0.55776584,0.75462437,0.34559989,0
-3.2396703,1.8173761,-4.4544005,-0.55856383,0.31334069,-0.76800007,0
-2.264245,1.0806623,-5.2292795,-0.39038706,0.18632106,-0.90159988,0
-2.1375251,4.6313038,-2.7607996,-0.3685388,0.7985006,-0.47599992,0
1.9219799,-5.4164882,0.7795198,0.33137584,-0.93387723,0.13439997,0
0,2.0538955,5.4241605,0,0.3541199,0.93520004,0
0.19811207,-5.1509185,2.6587203,0.034157254,-0.88808936,0.45840004,0
2.1569254,-0.13205665,-5.3824005,0.37188369,-0.022768388,-0.92800003,0
-0.45225152,-2.4873824,5.2199998,-0.077974401,-0.42885903,0.89999992,0
-3.9859598,-4.1592627,0.67280006,-0.6872344,-0.71711421,0.116,0
-5.2773023,-2.3282216,-0.60784024,-0.90987968,-0.40141749,-0.10480004,0
-3.2178998,-4.4246116,-1.9255998,-0.55481029,-0.76286405,-0.33199996,0
-5.3425407,-0.95402533,2.0462401,-0.92112768,-0.16448712,0.35280001,0
-0.2897681,5.6504745,-1.2759995,-0.049960017,0.97421974,-0.21999991,0
-5.6769032,1.1038421,-0.44080046,-0.9787764,0.1903176,-0.07600008,0
-1.3191642,2.5783663,-5.0251203,-0.22744209,0.44454589,-0.8664,0
2.655767,-1.9918252,4.756,0.45789084,-0.34341812,0.81999999,0
5.7188601,0.30099234,-0.91871983,0.98601031,0.051895231,-0.15839997,0
2.7871497,-3.0015454,4.1064005,0.48054302,-0.51750779,0.70800006,0
2.6446536,2.2038784,4.66784,0.45597473,0.37997901,0.80479997,0
1.9808515,2.8612301,-4.6399994,0.34152609,0.49331549,-0.79999977,0
5.2805729,1.5087349,1.865281,0.91044354,0.26012671,0.32160017,0
1.0759902,-3.8735638,4.1806397,0.18551555,-0.6678558,0.72079992,0
3.3408008,2.0044806,-4.2966394,0.57600009,0.3456001,-0.7407999,0
-1.8185016,1.363876,5.336,-0.31353474,0.23515102,0.91999996,0
5.7516894,0,0.74704051,0.99167055,0,0.12880008,0
1.9808515,-2.8612301,-4.6399994,0.34152609,-0.49331549,-0.79999977,0
-1.5678118,-2.4637051,5.0112,-0.27031237,-0.42477673,0.86399996,0
0.25107476,-5.2725754,-2.4035206,0.043288749,-0.90906471,-0.4144001,0
-5.0826535,-1.3684067,2.4360003,-0.87631953,-0.23593217,0.42000005,0
5.454247,0.75231028,1.8235193,0.94038737,0.12970866,0.31439987,0
-1.4120395,2.891319,-4.8256006,-0.24345508,0.49850327,-0.83200008,0
-3.4884901,-1.3081839,4.4451203,-0.60146379,-0.22554894,0.76640004,0
-5.2036891,2.4487953,-0.75168055,-0.89718777,0.42220607,-0.12960009,0
-1.0463177,4.3945332,3.6377604,-0.1803996,0.75767809,0.62720007,0
3.1602776,-0.60515952,-4.8256016,0.54487544,-0.10433785,-0.83200026,0
-1.2791512,5.4820771,1.3966397,-0.22054331,0.94518566,0.24079995,0
-1.4405162,4.527338,3.3268795,-0.24836487,0.78057551,0.57359987,0
-1.5678118,-2.4637051,5.0112,-0.27031237,-0.42477673,0.86399996,0
2.9097757,-0.44765806,4.9972801,0.50168544,-0.07718242,0.86159998,0
-0.53315604,-5.6869974,1.0068803,-0.091923453,-0.98051679,0.17360005,0
0.63025427,4.4117832,3.7120006,0.10866453,0.76065224,0.6400001,0
1.7338585,-5.5168214,-0.44543996,0.29894111,-0.95117605,-0.076799989,0
5.3033557,-2.0624158,-1.1228803,0.91437167,-0.35558891,-0.19360006,0
-0.18554181,-5.5662599,1.6193597,-0.031989966,-0.95969993,0.27919996,0
-3.6890893,3.0742404,3.2526402,-0.63604987,0.53004146,0.56080002,0
-2.2469201,-4.2895741,3.1923199,-0.3874,-0.7395817,0.55039996,0
5.3247476,-1.6814992,-1.5683199,0.91805989,-0.28991365,-0.27039999,0
-5.4649668,-1.9288119,-0.23200017,-0.94223565,-0.33255377,-0.040000029,0
-2.3241491,-4.6482983,-2.5751998,-0.40071535,-0.8014307,-0.44399995,0
-4.4544001,-3.3408003,-1.6240001,-0.76800001,-0.57600003,-0.28,0
-3.0190678,2.5877728,4.2224002,-0.52052891,0.44616771,0.72799999,0
3.3167884,0.44223809,4.7374406,0.57186007,0.076247945,0.81680006,0
2.7450612,-4.8038573,-1.7399997,0.47328639,-0.82825124,-0.29999992,0
-2.3282218,5.2773023,-0.60783929,-0.40141752,0.90987968,-0.10479987,0
5.3247476,1.6814992,-1.5683199,0.91805989,0.28991365,-0.27039999,0
-2.8271656,-4.7119422,1.8559999,-0.48744231,-0.8124038,0.31999999,0
0.81071347,4.8642783,3.0531199,0.13977818,0.83866864,0.52639997,0
0.39763501,4.4733911,-3.6702397,0.068557762,0.77127427,-0.63279992,0
-3.1884203,-2.2654564,-4.2827196,-0.54972762,-0.39059591,-0.73839992,0
-1.0757802,2.8476536,-4.9369593,-0.18547933,0.49097475,-0.85119987,0
-4.3268943,3.7300808,-1.0022407,-0.7460162,0.64311737,-0.17280011,0
-5.4995451,-1.8331821,0.18560037,-0.94819742,-0.31606588,0.032000061,0
3.84851,3.84851,-2.0044813,0.66353619,0.66353619,-0.34560022,0
0.064794034,-3.1101165,-4.8951998,0.011171385,-0.53622699,-0.84399992,0
-0.67766249,-2.4847627,5.1968002,-0.11683836,-0.42840734,0.89600003,0
4.7364016,-2.6313341,-2.0694404,0.81662095,-0.45367828,-0.35680005,0
5.3247476,1.6814992,-1.5683199,0.91805989,0.28991365,-0.27039999,0
3.6405528,2.7304142,-3.5960002,0.62768149,0.47076103,-0.62,0
3.8205264,4.103529,-1.4848001,0.65871143,0.70750499,-0.25600001,0
2.0998247,-4.9870825,-2.0880003,0.36203873,-0.85984176,-0.36000004,0
1.2246437,4.6944675,3.1783998,0.21114546,0.8093909,0.54799992,0
5.4384284,1.8128095,-0.88160056,0.93766004,0.31255335,-0.15200008,0
-5.5680003,0,1.6239997,-0.96000004,0,0.27999994,0
-1.0551692,-3.652509,-4.3801594,-0.18192573,-0.62974292,-0.75519985,0
1.1986836,5.6509371,0.51968056,0.20666958,0.97429949,0.089600094,0
-3.9285491,0.96031213,-4.1574397,-0.67733604,0.16557105,-0.71679991,0
5.7897367,0.33084175,0.097439267,0.99823046,0.057041679,0.016799873,0
0.39009094,-5.2662325,2.3988805,0.067257054,-0.90797108,0.41360006,0
-3.4375606,-2.1484752,4.1481605,-0.59268284,-0.37042674,0.71520007,0
-2.1672328,-5.2374792,1.2295994,-0.3736608,-0.90301365,0.21199988,0
2.6652913,-4.9097471,-1.5590398,0.45953298,-0.84650809,-0.26879996,0
-5.1675396,2.0949483,-1.5961599,-0.89095509,0.36119798,-0.27519998,0
3.9491825,-3.3568051,2.6030405,0.68089354,-0.57875949,0.44880006,0
3.6241908,2.1318772,3.9950397,0.62486047,0.36756501,0.68879992,0
-1.9288119,-5.4649668,-0.23200017,-0.33255377,-0.94223565,-0.040000029,0
5.5501542,-1.5417093,-0.67744046,0.95692313,-0.26581195,-0.11680008,0
3.4122148,4.1996489,-2.0879996,0.58831286,0.72407734,-0.35999992,0
1.5678118,2.4637051,5.0112,0.27031237,0.42477673,0.86399996,0
5.4971137,1.6796738,-0.77488065,0.94777817,0.28959891,-0.1336001,0
-2.3283832,-5.1940861,1.1135995,-0.40144536,-0.89553207,0.19199991,0
5.5182853,-0.55182844,-1.6982391,0.95142847,-0.095142834,-0.29279983,0
-4.4985948,2.1916232,-2.9324796,-0.77561975,0.37786606,-0.50559992,0
0.78918248,5.129683,2.5891201,0.13606595,0.88442808,0.44640002,0
3.8382871,2.7720959,-3.3500803,0.66177362,0.47794756,-0.5776,0
0.96031213,-3.9285491,-4.1574397,0.16557105,-0.67733604,-0.71679991,0
-4.3268943,-3.7300808,-1.0022407,-0.7460162,-0.64311737,-0.17280011,0
-0.11829714,-5.086782,-2.7840004,-0.020396058,-0.87703133,-0.48000005,0
-4.4246116,3.2178998,-1.9255998,-0.76286405,0.55481029,-0.33199996,0
0.53862,4.7398548,-3.2990401,0.092865512,0.81721634,-0.56879997,0
4.6944675,-1.2246437,3.1783998,0.8093909,-0.21114546,0.54799992,0
3.2350423,-4.376821,2.0044801,0.5577659,-0.75462431,0.34560001,0
-5.4164882,1.9219799,0.7795198,-0.93387723,0.33137584,0.13439997,0
-4.1180468,1.4365276,-3.82336,-0.71000803,0.24767716,-0.65919995,0
-2.5090346,-4.6417146,-2.40816,-0.43259215,-0.80029559,-0.4152,0
-1.9114041,3.8228083,3.9208,-0.32955241,0.65910482,0.676,0
-3.8315139,4.2912951,-0.73775929,-0.66060585,0.73987842,-0.12719987,0
0.6925106,-0.92334819,5.6840005,0.11939838,-0.15919796,0.98000008,0
4.9785018,2.1062894,2.1019201,0.85836238,0.36315334,0.3624,0
-5.3033557,-2.0624158,-1.1228803,-0.91437167,-0.35558891,-0.19360006,0
3.5874434,-4.5232983,-0.55680102,0.61852467,-0.77987897,-0.096000172,0
3.3197081,0,4.7560005,0.57236344,0,0.82000005,0
3.0744691,3.733284,-3.2015986,0.53008085,0.64366961,-0.55199975,0
2.4340503,5.2158227,0.71455985,0.41966385,0.89927977,0.12319997,0
-1.0463177,4.3945332,3.6377604,-0.1803996,0.75767809,0.62720007,0
-1.0234332,-4.7077918,3.2294402,-0.17645399,-0.81168824,0.55680001,0
-2.8208873,-2.6038961,4.3476801,-0.48635986,-0.44894761,0.74959999,0
-0.61657906,-4.7271056,3.3036804,-0.10630673,-0.81501818,0.56960005,0
-2.0310271,4.4682603,3.0902395,-0.35017708,0.77038968,0.5327999,0
0.79691905,4.8953605,-3.0067203,0.13739984,0.84402764,-0.51840001,0
4.1282964,2.2705634,3.3825603,0.71177524,0.39147642,0.58320004,0
-2.939754,-4.7771006,1.4755204,-0.50685412,-0.82363802,0.25440004,0
-5.3247476,1.6814992,-1.5683199,-0.91805989,0.28991365,-0.27039999,0
-5.4560757,-1.6220767,-1.1136004,-0.94070268,-0.27966839,-0.19200006,0
4.9447684,2.2822011,1.9952003,0.85254627,0.39348292,0.34400004,0
-4.4151201,3.7610288,-0.037119929,-0.76122761,0.64845324,-0.0063999877,0
3.1448617,-2.6955957,-4.0600014,0.54221749,-0.46475786,-0.70000023,0
0.57511622,-5.3677564,2.1204801,0.099157967,-0.92547518,0.36559999,0
-0.23195338,0,5.7953601,-0.03999196,0,0.99919999,0
-0.59148556,-1.0173552,-5.6793604,-0.10198027,-0.17540607,-0.97920001,0
1.0806623,-2.264245,-5.2292795,0.18632106,-0.39038706,-0.90159988,0
1.6677103,-4.1202254,-3.7259212,0.28753626,-0.71038365,-0.64240021,0
-2.9088326,-1.2560868,-4.8580799,-0.50152284,-0.21656668,-0.83759993,0
-3.6973522,4.1081696,-1.7585599,-0.63747448,0.70830506,-0.30319998,0
-4.4961934,-2.7368133,2.4360006,-0.77520573,-0.47186434,0.42000008,0
3.8071876,-4.3263488,0.65423942,0.65641165,-0.74592221,0.1127999,0
-4.0166836,-4.1773505,-0.23663978,-0.69253165,-0.72023284,-0.04079996,0
-4.5524621,-3.5018938,0.80736047,-0.78490722,-0.60377479,0.13920008,0
-0.65807903,-3.5097544,4.5704002,-0.1134619,-0.60513008,0.78799999,0
5.7435312,-0.348093,0.72848052,0.990264,-0.060016032,0.12560008,0
-3.6079481,-1.5103039,-4.2827206,-0.62206,-0.2603972,-0.7384001,0
4.1012197,4.1012197,0,0.70710677,0.70710677,0,0
5.6514268,-1.2917548,-0.18096088,0.97438389,-0.22271635,-0.03120015,0
-3.2933381,-1.3173352,4.5889602,-0.56781691,-0.22712676,0.79119998,0
4.8027029,1.6009005,2.8304,0.82805222,0.27601734,0.48799998,0
5.1396041,0.59303069,2.6216004,0.88613862,0.10224666,0.45200005,0
4.4761167,-3.6768103,-0.29231903,0.77174425,-0.63393277,-0.050399832,0
0.3480925,-5.7435312,0.72848058,0.060015947,-0.990264,0.1256001,0
-3.3664792,4.7130709,0.30624098,-0.58042741,0.81259841,0.052800167,0
-0.9177705,-4.4868779,-3.5588801,-0.15823629,-0.77359962,-0.61360002,0
2.2252665,-2.2252657,4.8720002,0.3836666,-0.38366649,0.84000003,0
4.8953605,-0.79691905,-3.0067203,0.84402764,-0.13739984,-0.51840001,0
2.5269706,1.8142352,-4.8951988,0.43568456,0.31279916,-0.84399974,0
0.23176767,-0.46353602,5.7768002,0.039959941,-0.079920001,0.99599999,0
2.6882546,1.1201063,5.0158401,0.46349216,0.19312178,0.86479998,0
-4.416656,-2.4090853,2.88608,-0.76149237,-0.41535953,0.49759999,0
-4.0183578,3.0137682,2.9000006,-0.69282025,0.51961517,0.50000006,0
3.1466594,-3.4613249,-3.4289598,0.54252744,-0.59678012,-0.59119993,0
-2.7390938,4.4821534,-2.4592006,-0.47225752,0.77278507,-0.42400008,0
-3.4047427,2.1825273,-4.1574397,-0.58702457,0.3762978,-0.71679991,0
-1.6089499,5.2290869,-1.9255996,-0.27740514,0.90156668,-0.33199993,0
1.7059051,-3.8382874,3.99968,0.29412156,-0.66177368,0.68959999,0
4.0735264,0.42879185,4.1064,0.70233214,0.07392963,0.708,0
-1.9219799,5.4164882,0.7795198,-0.33137584,0.93387723,0.13439997,0
-4.6196556,-3.1413655,1.5590403,-0.79649234,-0.54161471,0.26880005,0
-3.8382871,2.7720959,-3.3500803,-0.66177362,0.47794756,-0.5776,0
4.1996489,3.4122148,-2.0879996,0.72407734,0.58831286,-0.35999992,0
-3.9377038,2.4869709,3.4568,-0.67891443,0.42878807,0.59599996,0
-4.7271056,-0.61657906,3.3036804,-0.81501818,-0.10630673,0.56960005,0
-3.1694226,-4.5474324,-1.7075193,-0.54645216,-0.78404003,-0.29439986,0
5.226511,2.1777124,-1.2574402,0.90112257,0.37546766,-0.21680003,0
1.0323349,-5.6778417,0.58000052,0.17798877,-0.97893816,0.10000008,0
3.6620984,4.4943924,0.1716799,0.63139623,0.77489519,0.029599981,0
3.9129536,2.677284,3.3408003,0.67464715,0.46160066,0.57600003,0
1.3531783,-5.5630679,-0.92799997,0.23330659,-0.9591496,-0.16,0
-0.50860417,5.7641802,0.39440084,-0.087690368,0.99382412,0.068000145,0
-0.67766249,2.4847627,5.1968002,-0.11683836,0.42840734,0.89600003,0
-1.718555,1.4019791,-5.3592,-0.29630259,0.24172053,-0.92399997,0
-0.86259127,3.3065994,-4.6863995,-0.14872263,0.57010335,-0.80799991,0
4.5314898,0.20139936,-3.6145597,0.78129131,0.034724027,-0.62319994,0
2.167248,4.7285404,2.5659196,0.37366343,0.81526554,0.44239992,0
1.8046128,-0.220973,-5.5076804,0.31114012,-0.038098793,-0.94960004,0
1.0551692,-3.652509,-4.3801594,0.18192573,-0.62974292,-0.75519985,0
1.1391652,-1.8226641,5.3870401,0.19640778,-0.31425244,0.92879999,0
-5.2533326,-1.6885713,1.7864,-0.905747,-0.29113299,0.30799997,0
5.2712998,2.3805866,0.43152013,0.90884477,0.41044596,0.074400023,0
-0.23120964,0.92483991,5.7211199,-0.039863728,0.15945515,0.98639995,0
-5.7333169,0.52121013,0.7052806,-0.98850286,0.089863814,0.1216001,0
-3.6890893,3.0742404,3.2526402,-0.63604987,0.53004146,0.56080002,0
4.4985948,-2.1916232,-2.9324796,0.77561975,-0.37786606,-0.50559992,0
-4.8731933,0.60914856,3.0855999,-0.84020573,0.10502561,0.53199995,0
2.9825058,2.9825058,3.9811206,0.51422513,0.51422513,0.68640006,0
-0.22816327,2.0534708,5.4195204,-0.039338496,0.35404667,0.93440002,0
2.1916232,-4.4985948,-2.9324796,0.37786606,-0.77561975,-0.50559992,0
-3.4265165,3.6280768,2.9556801,-0.59077871,0.62553048,0.50959998,0
-5.086782,-0.11829714,-2.7840004,-0.87703133,-0.020396058,-0.48000005,0
-4.7912354,2.4914424,2.1158402,-0.82607508,0.42955902,0.36480004,0
0.220973,1.8046128,-5.5076804,0.038098793,0.31114012,-0.94960004,0
5.3115339,-2.1246135,0.95583963,0.91578168,-0.36631265,0.16479993,0
-4.7406816,-2.9280682,-1.6100804,-0.81735885,-0.5048393,-0.27760005,0
-0.81832558,-5.4555035,-1.7910403,-0.14109062,-0.94060403,-0.30880004,0
-1.7715765,1.7209599,-5.247839,-0.30544421,0.29671723,-0.90479982,0
1.3032535,5.3991942,1.6703995,0.22469887,0.93089551,0.2879999,0
-5.3452682,1.6588758,1.5219197,-0.92159796,0.28601307,0.26239994,0
-1.5309472,5.1031566,-2.2921593,-0.2639564,0.87985456,-0.39519987,0
3.4361074,-4.6387448,0.56144071,0.59243232,-0.79978359,0.096800119,0
-2.8612301,1.9808515,-4.6399994,-0.49331549,0.34152609,-0.79999977,0
2.4413986,4.2169609,-3.1459205,0.42093077,0.72706223,-0.54240006,0
4.5286016,1.5095338,-3.2944007,0.78079337,0.26026443,-0.56800008,0
5.7270083,-0.15071061,-0.90479988,0.98741519,-0.025984587,-0.15599997,0
2.2818186,-5.2657361,0.83983976,0.393417,-0.90788549,0.14479995,0
-2.2928271,-3.9603372,3.56352,-0.39531502,-0.68281674,0.61439997,0
-0.17423169,5.749651,0.74240053,-0.030039946,0.99131912,0.12800008,0
-0.1771722,-0.96460414,-5.7164807,-0.03054693,-0.16631106,-0.98560011,0
3.9816725,0.51934862,-4.1852794,0.68649524,0.089542866,-0.72159988,0
4.1404037,2.9574311,-2.7840009,0.71386272,0.50990188,-0.48000014,0
-3.116091,-4.8472524,0.65887988,-0.53725708,-0.83573312,0.11359998,0
-0.94129169,-2.2293751,-5.2710395,-0.16229166,-0.38437501,-0.90879989,0
3.8002079,-3.5550334,-2.5612807,0.65520823,-0.61293679,-0.44160011,0
-0.15721326,-3.6945097,-4.4683199,-0.027105734,-0.63698441,-0.77039993,0
-1.135142,2.0432544,5.3081603,-0.19571413,0.35228524,0.9152,0
-2.7536283,-5.0483179,-0.75631964,-0.47476348,-0.87039959,-0.13039993,0
1.8754439,2.2384331,-5.0112004,0.3233524,0.38593674,-0.86400002,0
-1.8683709,-3.4819639,-4.2455997,-0.32213292,-0.60033864,-0.73199999,0
0.3839719,-5.3756118,2.1436801,0.066202052,-0.92682958,0.3696,0
-5.555613,-0.2777808,-1.6425602,-0.95786428,-0.047893241,-0.28320003,0
4.9568796,-1.3879262,2.6726401,0.8546344,-0.23929761,0.46079999,0
-0.23604801,-5.0750294,-2.7979205,-0.040697932,-0.87500501,-0.48240006,0
-3.4613249,3.1466594,-3.4289598,-0.59678012,0.54252744,-0.59119993,0
0.19035287,3.0456491,-4.9323211,0.032819461,0.52511191,-0.85040015,0
4.3870659,-2.5923567,2.7700796,0.75639063,-0.44695804,0.47759992,0
-4.7406816,2.9280679,-1.6100798,-0.81735885,0.5048393,-0.27759996,0
-5.793664,-0.16093495,-0.21808048,-0.99890757,-0.027747406,-0.037600081,0
1.0687619,4.9875574,-2.7608006,0.18426929,0.85992366,-0.4760001,0
-0.70917648,-5.6734128,0.97440028,-0.12227181,-0.97817457,0.16800004,0
2.1953137,-4.5902009,2.7840002,0.37850234,-0.7914139,0.48000002,0
-4.4593129,2.9082472,2.3014407,-0.76884705,0.50142193,0.3968001,0
-0.2251713,-2.7020583,5.1272001,-0.038822636,-0.46587211,0.884,0
-3.1825387,2.5637119,-4.1156812,-0.54871356,0.44201928,-0.70960015,0
-2.6625674,3.4233012,-3.8512006,-0.45906332,0.59022433,-0.66400009,0
-0.22626819,-2.4889529,5.2339201,-0.039011754,-0.42912978,0.90240002,0
-5.4190116,2.0321295,0.38048017,-0.93431228,0.35036716,0.06560003,0
4.0261059,2.271137,-3.5032003,0.69415617,0.39157534,-0.60400003,0
4.2435074,-0.63652623,3.9022403,0.73163921,-0.1097459,0.6728,0
-2.4776037,4.9552073,-1.7168007,-0.42717302,0.85434604,-0.29600012,0
4.3725939,-2.4164336,-2.9464002,0.75389546,-0.41662645,-0.50800002,0
-1.5217148,-3.4782054,4.3848004,-0.26236463,-0.59969056,0.75600004,0
-0.18090059,-4.1607113,-4.0368004,-0.031189756,-0.71736401,-0.69600004,0
2.1953137,-4.5902009,2.7840002,0.37850234,-0.7914139,0.48000002,0
-5.1511273,2.2076261,1.4940799,-0.88812536,0.38062519,0.25759998,0
3.173485,-2.9619195,3.8465607,0.54715258,-0.51067579,0.66320008,0
-0.55926931,-3.2857065,-4.7467203,-0.096425742,-0.56650108,-0.81840003,0
3.106843,-3.9123211,-2.9463997,0.53566259,-0.67453808,-0.50799996,0
3.3408008,-2.0044806,-4.2966394,0.57600009,-0.3456001,-0.7407999,0
0.73657715,-5.1560402,-2.5520008,0.12699606,-0.8889724,-0.44000012,0
-0.64126033,3.0139239,-4.9137611,-0.11056212,0.51964206,-0.84720016,0
2.6955965,-3.1448624,-4.0600004,0.46475801,-0.54221761,-0.70000005,0
-0.4445692,-3.4824586,-4.6168003,-0.07664986,-0.60042387,-0.796,0
2.2822011,4.9447684,1.9952003,0.39348292,0.85254627,0.34400004,0
4.7534308,-2.0720081,-2.5983994,0.81955701,-0.35724276,-0.44799989,0
-3.8495789,4.3307757,-0.25519973,-0.66372049,0.74668545,-0.043999951,0
-4.8499165,2.5596781,-1.8884805,-0.83619249,0.44132379,-0.32560009,0
3.0190678,2.5877728,4.2224002,0.52052891,0.44616771,0.72799999,0
-3.8495789,4.3307757,-0.25519973,-0.66372049,0.74668545,-0.043999951,0
5.5556135,-0.27778083,-1.6425592,0.95786434,-0.047893245,-0.28319985,0
-1.0891652,-4.6834106,-3.2433603,-0.1877871,-0.80748457,-0.55920005,0
-2.9397538,-3.359719,3.7027204,-0.50685406,-0.5792619,0.63840008,0
2.7681558,3.1940255,3.9718406,0.47726822,0.55069405,0.68480009,0
0,0.69474542,5.7582402,0,0.11978369,0.9928,0
5.051867,0.96226013,-2.6819205,0.8710115,0.16590691,-0.46240008,0
1.3774472,-0.91829795,5.5587201,0.23749089,-0.15832722,0.95840001,0
-0.16093495,-5.793664,-0.21808048,-0.027747406,-0.99890757,-0.037600081,0
-2.0820322,3.7855129,-3.8697593,-0.35897106,0.65267462,-0.66719985,0
-2.4270344,-2.9124413,-4.389441,-0.4184542,-0.50214505,-0.75680017,0
4.867641,-2.6210372,1.7539204,0.83924842,-0.45190296,0.30240005,0
5.129683,0.78918248,2.5891201,0.88442808,0.13606595,0.44640002,0
2.4617155,-5.2516603,0.0046405443,0.42443368,-0.90545863,0.00080009381,0
0.91585708,1.6027489,5.4984002,0.15790638,0.27633601,0.94800001,0
1.3992833,1.9989761,-5.2617583,0.24125573,0.34465104,-0.90719968,0
5.1680889,-1.1344585,-2.3756812,0.8910498,-0.19559629,-0.4096002,0
1.1391652,-1.8226641,5.3870401,0.19640778,-0.31425244,0.92879999,0
-0.16908953,2.0713472,-5.4148808,-0.029153366,0.35712883,-0.93360013,0
1.5423725,-3.0847449,4.6632004,0.26592627,-0.53185254,0.80400002,0
2.242614,1.7940904,5.0390401,0.38665757,0.30932593,0.86879998,0
-2.1822028,-0.45462555,-5.3545594,-0.37624186,-0.078383714,-0.92319989,0
-0.56543308,-5.4658532,1.8559995,-0.097488463,-0.94238847,0.3199999,0
-4.2302046,3.1104443,-2.4638402,-0.72934562,0.53628349,-0.42480004,0
1.5961531,-1.3681315,5.4056001,0.27519882,-0.23588474,0.93199998,0
3.9523296,-3.5698462,-2.2968001,0.68143612,-0.61549067,-0.396,0
-5.2623615,-2.2552979,-0.92799991,-0.90730369,-0.38884446,-0.15999998,0
-1.5103039,3.6079481,-4.2827206,-0.2603972,0.62206,-0.7384001,0
4.0440416,-4.0440416,-0.96511906,0.69724852,-0.69724852,-0.16639984,0
-2.4487951,5.2036896,-0.75167912,-0.42220604,0.89718783,-0.12959984,0
-5.0483179,-2.7536283,-0.75631964,-0.87039959,-0.47476348,-0.13039993,0
-2.8345196,4.049314,3.0345604,-0.48871025,0.69815755,0.52320004,0
-1.4405162,4.527338,3.3268795,-0.24836487,0.78057551,0.57359987,0
-5.2290869,1.6089499,-1.9255996,-0.90156668,0.27740514,-0.33199993,0
2.3240795,5.3121824,0.1392004,0.40070334,0.9158935,0.024000069,0
3.1448617,2.6955957,-4.0600014,0.54221749,0.46475786,-0.70000023,0
0.73708844,4.6331282,-3.4103999,0.12708421,0.79881519,-0.58799994,0
1.6382499,2.427037,-5.0065589,0.28245687,0.41845465,-0.86319977,0
1.7072108,3.7738347,-4.0600009,0.29434669,0.65066111,-0.70000011,0
-1.1988363,-4.0576,-3.9672,-0.20669591,-0.69958621,-0.68399996,0
-3.9920726,-4.1456137,-0.7191993,-0.68828833,-0.71476096,-0.12399988,0
5.2272744,-1.0199561,-2.2968011,0.90125418,-0.17585449,-0.39600018,0
0.93780839,5.4392877,1.7817594,0.1616911,0.93780822,0.3071999,0
0.22896393,-1.8317134,5.4984002,0.039476536,-0.31581265,0.94800001,0
0.14510655,-5.6591611,-1.2620795,0.02501837,-0.97571743,-0.2175999,0
1.1483401,-1.14834,-5.5680008,0.19798967,-0.19798964,-0.9600001,0
4.2821198,3.5374029,1.6703997,0.73829651,0.60989702,0.28799993,0
-4.5615778,-2.3799539,2.6772802,-0.78647888,-0.41033685,0.46160001,0
0.15597564,-5.7711043,-0.55680019,0.026892351,-0.99501795,-0.096000031,0
4.1282964,2.2705634,3.3825603,0.71177524,0.39147642,0.58320004,0
0.19811207,5.1509185,2.6587203,0.034157254,0.88808936,0.45840004,0
-1.2537447,5.5522985,1.1136,-0.21616288,0.9572928,0.192,0
3.6973522,4.1081696,-1.7585599,0.63747448,0.70830506,-0.30319998,0
5.7326727,0.61974871,-0.62640029,0.98839182,0.10685322,-0.10800005,0
1.0568106,-4.227241,3.8280003,0.18220872,-0.72883463,0.66000003,0
-5.1011286,1.2441781,-2.4638402,-0.87950492,0.21451345,-0.42480004,0
1.5606896,-5.3914723,-1.4616001,0.26908439,-0.92956418,-0.252,0
-0.0026638201,0.00077694748,-5.7999997,-0.00045927931,0.00013395646,-0.99999994,0
-5.1211791,-1.896733,1.9534405,-0.88296187,-0.32702294,0.33680007,0
5.4790878,-0.18893388,1.8931195,0.94467026,-0.032574806,0.32639989,0
-5.1680899,1.1344584,-2.3756797,-0.89104992,0.19559628,-0.40959993,0
-1.5606896,-5.3914723,-1.4616001,-0.26908439,-0.92956418,-0.252,0
4.443706,2.221853,2.9927993,0.7661562,0.3830781,0.51599985,0
-4.5135779,-3.4303191,1.2249601,-0.77820307,-0.5914343,0.21120001,0
2.2469201,-4.2895741,3.1923199,0.3874,-0.7395817,0.55039996,0
2.2560141,1.3536083,5.1689601,0.38896793,0.23338072,0.89120001,0
-1.5961531,-1.3681315,5.4056001,-0.27519882,-0.23588474,0.93199998,0
-1.8683703,3.4819629,-4.2456012,-0.3221328,0.6003384,-0.73200017,0
0.21639499,3.8951137,4.2919998,0.037309479,0.67157131,0.73999995,0
-3.2892463,-4.5683975,1.3966399,-0.56711143,-0.7876547,0.24079998,0
-0.88778114,3.1072342,4.8163204,-0.15306571,0.53573,0.83040005,0
-0.9644053,-1.7278928,-5.4520006,-0.16627677,-0.29791254,-0.94000006,0
-4.9259105,2.7366166,1.3734409,-0.8492949,0.47183043,0.23680013,0
4.4117832,-0.63025486,3.7120006,0.76065224,-0.10866463,0.6400001,0
5.2227192,-1.8652569,1.6982409,0.90046883,-0.321596,0.29280013,0
-2.0044806,3.3408008,-4.2966394,-0.3456001,0.57600009,-0.7407999,0
2.6955957,3.1448617,-4.0600014,0.46475786,0.54221749,-0.70000023,0
4.1404037,2.9574311,-2.7840009,0.71386272,0.50990188,-0.48000014,0
5.2516603,2.4617155,0.0046405443,0.90545863,0.42443368,0.00080009381,0
2.0720084,4.7534304,-2.5983999,0.35724282,0.81955695,-0.44799995,0
1.0568106,4.227241,3.8280003,0.18220872,0.72883463,0.66000003,0
1.5918512,1.5918512,5.3452802,0.2744571,0.2744571,0.92159998,0
5.0366297,-1.7434489,2.2875202,0.86838442,-0.30059463,0.39440003,0
-3.0320475,4.5480714,1.9395199,-0.52276677,0.78415018,0.33439997,0
1.5678118,2.4637051,5.0112,0.27031237,0.42477673,0.86399996,0
-2.856066,5.0401168,0.2830399,-0.49242514,0.86898565,0.04879998,0
-2.5588593,0.42647648,-5.1875196,-0.44118264,0.073530428,-0.89439988,0
-0.92072171,5.5243292,1.5079997,-0.15874511,0.95247054,0.25999993,0
2.9834299,4.972383,0.12063956,0.51438445,0.85730737,0.020799922,0
1.3475826,2.4705684,5.0715199,0.23234181,0.42596006,0.87439996,0
3.6898766,4.3927107,0.85376042,0.63618559,0.75736392,0.14720006,0
0,5.3818879,2.1622407,0,0.9279117,0.37280011,0
-1.135142,2.0432544,5.3081603,-0.19571413,0.35228524,0.9152,0
-2.8688376,4.5901399,2.0833597,-0.49462715,0.79140341,0.35919994,0
0.56543255,-5.4658532,1.8559996,0.097488366,-0.94238847,0.31999993,0
-0.2777808,-5.555613,-1.6425602,-0.047893241,-0.95786428,-0.28320003,0
3.1567285,3.1567285,-3.7027197,0.54426354,0.54426354,-0.6383999,0
5.0260816,1.3484609,-2.5612812,0.86656576,0.23249325,-0.4416002,0
-2.2705634,4.1282964,3.3825603,-0.39147642,0.71177524,0.58320004,0
3.4527593,-1.9421768,4.2363195,0.5953033,-0.33485806,0.73039991,0
1.7386074,-2.2022359,-5.0761604,0.29975989,-0.37969583,-0.87520003,0
3.3916149,4.5713067,-1.1136005,0.5847612,0.78815633,-0.19200008,0
-4.4868779,-0.9177705,-3.5588801,-0.77359962,-0.15823629,-0.61360002,0
-0.75230968,-5.454247,1.8235195,-0.12970856,-0.94038737,0.3143999,0
4.177104,-0.090806529,-4.0228791,0.72019035,-0.015656298,-0.69359982,0
-0.32793349,4.809691,-3.2248001,-0.056540255,0.82925701,-0.55599999,0
-4.5139427,-1.7615386,-3.18768,-0.77826595,-0.30371356,-0.54960001,0
2.4776037,-4.9552073,-1.7168007,0.42717302,-0.85434604,-0.29600012,0
1.2878822,3.8636467,4.1296,0.22204866,0.66614598,0.71200001,0
-4.9447684,-2.2822011,1.9952003,-0.85254627,-0.39348292,0.34400004,0
0.96460414,-0.1771722,-5.7164807,0.16631106,-0.03054693,-0.98560011,0
-2.0321295,-5.4190116,0.38048017,-0.35036716,-0.93431228,0.06560003,0
-2.5930917,-5.1861835,-0.13919973,-0.44708475,-0.89416951,-0.023999954,0
-1.4702284,-3.1609914,-4.6353602,-0.25348765,-0.54499853,-0.7992,0
0.15071061,5.7270083,-0.90479988,0.025984587,0.98741519,-0.15599997,0
4.4821529,2.7390938,-2.4592011,0.77278495,0.47225752,-0.42400017,0
3.6890891,-3.0742409,3.25264,0.63604981,-0.53004152,0.56079996,0
4.4544001,3.3408003,1.6239997,0.76800001,0.57600003,0.27999994,0
-4.1728902,-2.9806359,2.70976,-0.71946383,-0.51390272,0.46719998,0
-3.1101165,-0.064794034,-4.8951998,-0.53622699,-0.011171385,-0.84399992,0
-0.13912252,-5.5649061,-1.6286403,-0.023986639,-0.95946652,-0.28080004,0
3.5374029,4.2821198,1.6703997,0.60989702,0.73829651,0.28799993,0
-0.19811207,-5.1509185,2.6587203,-0.034157254,-0.88808936,0.45840004,0
3.04495,-3.8569372,3.0809605,0.52499139,-0.66498917,0.53120005,0
-5.6966805,0.35604221,1.0300803,-0.98218626,0.061386585,0.17760006,0
5.1707177,1.905001,-1.8095998,0.89150304,0.32844844,-0.31199995,0
-1.9920679,-2.2410765,-4.9648004,-0.34345996,-0.38639247,-0.85600001,0
0.88446468,-3.1296444,-4.8024006,0.15249391,-0.53959382,-0.82800007,0
-1.9819267,5.4502978,0.078880459,-0.34171149,0.9397065,0.013600078,0
-1.5606896,-5.3914723,-1.4616001,-0.26908439,-0.92956418,-0.252,0
0.18554181,-5.5662599,1.6193597,0.031989966,-0.95969993,0.27919996,0
-5.5170908,-1.7849413,-0.12528026,-0.95122254,-0.3077485,-0.021600043,0
3.2178998,-4.4246116,-1.9255998,0.55481029,-0.76286405,-0.33199996,0
2.72577,3.5644689,3.67488,0.46996033,0.61456358,0.6336,0
3.2146862,4.8220296,-0.23200011,0.5542562,0.83138436,-0.040000018,0
2.1821997,-0.45462489,-5.3545609,0.37624133,-0.078383602,-0.92320013,0
-2.0521972,-0.45604405,5.4056001,-0.35382709,-0.078628279,0.93199998,0
0.36358148,5.6355186,1.3224,0.062686458,0.97164112,0.22799999,0
-4.515996,2.3768399,-2.7561598,-0.77861995,0.40979996,-0.47519994,0
-4.419548,-3.0744684,2.1576004,-0.76199102,-0.53008074,0.37200007,0
1.7331499,3.4663012,4.3151999,0.29881895,0.59763813,0.74399996,0
1.6060538,0.40151346,-5.5587211,0.27690583,0.069226459,-0.95840013,0
-2.489476,0,5.2385602,-0.42921999,0,0.90320003,0
0,-3.1180799,4.8905602,0,-0.53759998,0.84320003,0
4.4293175,-0.49214649,-3.7119997,0.76367539,-0.084852837,-0.63999993,0
-4.9462228,-2.7640655,-1.2388802,-0.85279703,-0.47656301,-0.21360002,0
5.4790878,-0.18893388,1.8931195,0.94467026,-0.032574806,0.32639989,0
2.7390938,4.4821529,-2.4592011,0.47225752,0.77278495,-0.42400017,0
3.6620984,4.4943924,0.1716799,0.63139623,0.77489519,0.029599981,0
-3.9987493,-3.2717037,-2.635519,-0.68943948,-0.56408685,-0.45439982,0
5.3233213,0.77902263,-2.1668811,0.91781402,0.13431424,-0.37360018,0
-2.1825273,-3.4047427,-4.1574397,-0.3762978,-0.58702457,-0.71679991,0
-4.2928252,3.2521405,-2.1529596,-0.74014223,0.56071389,-0.37119991,0
-0.50860417,-5.7641802,0.39439991,-0.087690368,-0.99382412,0.067999981,0
3.9523301,3.5698462,-2.2967994,0.68143618,0.61549067,-0.39599988,0
-1.1541858,0,5.684,-0.19899754,0,0.97999996,0
-5.2272749,-1.0199562,-2.2968001,-0.90125424,-0.17585452,-0.396,0
2.0192153,-2.0192161,5.0483203,0.34814057,-0.34814069,0.87040001,0
-1.6080059,0,5.5726404,-0.27724239,0,0.96080005,0
-2.575614,-5.0081382,-1.38736,-0.44407135,-0.86347204,-0.23919998,0
5.6591611,0.14510655,-1.2620795,0.97571743,0.02501837,-0.2175999,0
2.1960492,-5.0783629,-1.7400006,0.37862915,-0.87557977,-0.3000001,0
-4.3548818,-2.7712882,2.6448002,-0.75084168,-0.4778083,0.45600003,0
1.718555,-1.4019791,-5.3592,0.29630259,-0.24172053,-0.92399997,0
-0.92124748,-5.681026,-0.71920019,-0.15883577,-0.97948718,-0.12400003,0
1.5358891,-1.7758719,-5.3035202,0.26480848,-0.3061848,-0.91439998,0
4.1973362,-2.2601042,-3.3036797,0.72367865,-0.38967311,-0.56959993,0
-1.4702284,3.1609914,-4.6353602,-0.25348765,0.54499853,-0.7992,0
-1.1010008,-5.5050039,1.4569597,-0.18982771,-0.94913858,0.25119993,0
-0.99050689,5.5185385,-1.4847995,-0.17077704,0.9514721,-0.25599989,0
4.2485781,0.42485744,3.9254403,0.73251343,0.073251277,0.67680001,0
3.0122256,2.9209461,-4.0043192,0.51934922,0.50361139,-0.69039983,0
2.2037704,-1.1787609,-5.2339201,0.37996039,-0.20323463,-0.90240002,0
3.733284,3.0744691,-3.2015986,0.64366961,0.53008085,-0.55199975,0
-2.5595396,-4.5096645,-2.5984004,-0.44129992,-0.77752835,-0.44800004,0
-1.3484612,-5.026082,-2.56128,-0.2324933,-0.86656582,-0.44159999,0
-1.9918252,2.655767,4.756,-0.34341812,0.45789084,0.81999999,0
-0.79691905,4.8953605,-3.0067203,-0.13739984,0.84402764,-0.51840001,0
-4.2299371,-3.6782062,1.4894404,-0.72929949,-0.63417345,0.25680006,0
1.6579802,4.3521986,3.4568007,0.28585866,0.75037903,0.59600008,0
0.045933593,-2.2507482,-5.3452806,0.0079195844,-0.38806,-0.9216001,0
-4.2122869,2.6184487,-3.0067208,-0.72625637,0.45145667,-0.51840013,0
-5.086782,0.11829714,-2.7840004,-0.87703133,0.020396058,-0.48000005,0
1.2221351,2.0531871,-5.2849607,0.21071294,0.35399777,-0.91120011,0
-3.4793041,-4.6390719,0.11599981,-0.59987998,-0.79983997,0.019999966,0
-1.4019791,1.718555,-5.3592,-0.24172053,0.29630259,-0.92399997,0
5.7270083,0.15071061,-0.90479988,0.98741519,0.025984587,-0.15599997,0
-2.6223595,-4.2361197,2.9696,-0.45213094,-0.73036546,0.51199996,0
1.4363253,-4.6404362,-3.1691208,0.24764229,-0.80007517,-0.54640013,0
1.0742679,4.297071,-3.7444801,0.18521859,0.74087429,-0.64560002,0
3.5862222,2.5314507,3.7908797,0.61831415,0.43645701,0.65359992,0
-4.2410564,3.9269044,-0.48255953,-0.73121661,0.67705244,-0.083199918,0
-5.7736573,0,-0.5521602,-0.99545813,0,-0.095200032,0
2.4413986,4.2169609,-3.1459205,0.42093077,0.72706223,-0.54240006,0
-3.7153277,0.72691172,-4.3940802,-0.64057374,0.1253296,-0.75760001,0
5.110003,-2.3725016,1.3780808,0.88103497,-0.40905198,0.23760013,0
3.4782059,-1.5217147,4.3848,0.59969068,-0.2623646,0.75599998,0
-2.6223595,-4.2361197,2.9696,-0.45213094,-0.73036546,0.51199996,0
0.17423169,5.749651,0.74240053,0.030039946,0.99131912,0.12800008,0
-5.5242801,-1.4256209,1.0439999,-0.95246208,-0.2457967,0.17999998,0
4.9552073,-2.4776037,-1.7168007,0.85434604,-0.42717302,-0.29600012,0
-3.0847449,-1.5423725,4.6632004,-0.53185254,-0.26592627,0.80400002,0
-5.5569754,0.85491931,-1.4244795,-0.95809919,0.14739987,-0.2455999,0
1.5217148,-3.4782054,4.3848004,0.26236463,-0.59969056,0.75600004,0
4.8686385,2.95069,-1.1089593,0.83942038,0.50873965,-0.19119987,0
-0.00077694748,-0.0026638201,-5.7999997,-0.00013395646,-0.00045927931,-0.99999994,0
3.7855122,2.0820322,-3.8697598,0.6526745,0.35897106,-0.66719997,0
-5.3533216,-1.9628848,1.0625596,-0.92298645,-0.33842841,0.18319993,0
-3.9920726,4.1456137,-0.7191993,-0.68828833,0.71476096,-0.12399988,0
4.5651569,-0.83002824,3.4799995,0.78709602,-0.14310831,0.5999999,0
3.5535555,-4.5688572,0.37120092,0.61268198,-0.78773397,0.06400016,0
5.5242801,-1.4256209,1.0439999,0.95246208,-0.2457967,0.17999998,0
-3.56352,-3.3408003,-3.1273601,-0.61439997,-0.57600003,-0.53920001,0
-0.63136464,-1.207828,-5.6375999,-0.10885597,-0.2082462,-0.97199994,0
-5.4615679,-1.8725377,-0.55215991,-0.94164962,-0.32285133,-0.09519998,0
-4.4821529,2.7390938,-2.4592011,-0.77278495,0.47225752,-0.42400017,0
4.3977408,0.9994868,-3.6470401,0.75823116,0.1723253,-0.62879997,0
0.13912252,-5.5649061,-1.6286403,0.023986639,-0.95946652,-0.28080004,0
-3.4663005,-1.7331506,4.3152003,-0.59763801,-0.29881907,0.74400002,0
5.0994635,-2.476882,-1.2249606,0.8792178,-0.42704859,-0.21120009,0
2.2459135,-5.0533051,1.7492805,0.38722646,-0.87125945,0.30160007,0
0.43920937,-3.5136781,4.5936003,0.075725749,-0.60580653,0.792,0
3.3720481,4.6143813,0.98832029,0.58138758,0.79558295,0.17040004,0
-4.5692296,-3.2841337,-1.4059196,-0.78779817,-0.56622994,-0.24239992,0
-5.2348452,-0.96941614,2.3014405,-0.90255946,-0.16714071,0.39680007,0
5.4384284,-1.8128095,-0.88160056,0.93766004,-0.31255335,-0.15200008,0
-5.3115339,1.1950947,-1.99984,-0.91578168,0.2060508,-0.3448,0
0,-4.1825523,-4.0182405,0,-0.72112972,-0.69280005,0
4.5731392,0.62360919,3.5124795,0.78847224,0.10751882,0.60559988,0
1.4754908,3.9653811,-3.9672008,0.25439495,0.68368638,-0.68400013,0
-2.2552977,5.2623615,-0.92800087,-0.3888444,0.90730369,-0.16000015,0
-3.708199,-0.21812916,4.4544005,-0.63934463,-0.037608474,0.76800007,0
-0.69348991,-0.69348991,5.7164803,-0.11956722,-0.11956722,0.98559999,0
4.5822444,0.2082836,3.5495996,0.7900421,0.035910964,0.61199993,0
-2.055573,3.5749094,-4.0785589,-0.35440913,0.6163637,-0.7031998,0
-0.064793982,3.1101143,-4.8952012,-0.011171375,0.53622657,-0.84400016,0
-4.6765308,3.2151153,-1.1971204,-0.80629838,0.55433023,-0.20640007,0
4.3748465,0.58331287,-3.7630396,0.75428385,0.10057118,-0.6487999,0
2.4869709,-3.9377038,3.4568,0.42878807,-0.67891443,0.59599996,0
-3.0936227,1.6204692,-4.6307216,-0.53338319,0.27939123,-0.79840022,0
-1.0732754,-5.3663764,-1.9209604,-0.18504748,-0.9252373,-0.33120006,0
-2.7390938,-4.4821534,-2.4592006,-0.47225752,-0.77278507,-0.42400008,0
3.1072342,-0.88778114,4.8163204,0.53573,-0.15306571,0.83040005,0
-0.39763471,4.4733915,-3.6702397,-0.068557709,0.77127439,-0.63279992,0
0.42879185,-4.0735264,4.1064,0.07392963,-0.70233214,0.708,0
3.7137673,0.079016246,-4.4544015,0.64030468,0.01362349,-0.76800025,0
4.7823973,3.2451985,0.4872008,0.82455122,0.55951697,0.084000133,0
0.7165761,-5.589292,-1.3734396,0.1235476,-0.96367103,-0.23679991,0
-5.1840973,-2.369873,-1.0718398,-0.89380985,-0.40859878,-0.18479995,0
-3.4788866,4.0587006,2.2504003,-0.59980804,0.69977593,0.38800004,0
2.2022359,1.7386074,-5.0761604,0.37969583,0.29975989,-0.87520003,0
-4.7379355,0,3.3454404,-0.81688541,0,0.57680005,0
-2.4270344,-2.9124413,-4.389441,-0.4184542,-0.50214505,-0.75680017,0
-4.419548,-3.0744684,2.1576004,-0.76199102,-0.53008074,0.37200007,0
4.2255678,-3.5440247,-1.7956799,0.72854614,-0.61103874,-0.30959997,0
-1.6089499,-5.2290869,-1.9255996,-0.27740514,-0.90156668,-0.33199993,0
-5.188674,2.0384078,1.6007999,-0.89459896,0.35144961,0.27599996,0
-3.8404377,-4.3413644,0.20880046,-0.66214442,-0.74851108,0.03600008,0
2.1426961,-2.9079452,-4.537919,0.36943036,-0.50136983,-0.78239983,0
-0.65807897,3.5097551,4.5703998,-0.11346189,0.6051302,0.78799993,0
2.8038344,-1.5354331,-4.8395205,0.48341972,-0.26472983,-0.83440006,0
-5.7005076,0.86371356,0.63104045,-0.98284614,0.14891613,0.10880008,0
1.4898667,-5.5125055,-1.0161604,0.25687358,-0.95043194,-0.17520006,0
-0.86259067,-3.881659,4.2224002,-0.14872253,-0.66925156,0.72799999,0
5.5400906,-0.73867851,1.5497597,0.95518798,-0.12735836,0.26719993,0
3.0190678,2.5877728,4.2224002,0.52052891,0.44616771,0.72799999,0
-0.61861843,5.196394,-2.5009608,-0.10665835,0.89592999,-0.43120012,0
-0.40662944,-4.8795509,3.1087999,-0.070108525,-0.84130186,0.53599995,0
-1.0929919,1.1572856,-5.577281,-0.18844688,0.19953199,-0.96160012,0
-2.6187365,2.6187365,4.4636803,-0.45150629,0.45150629,0.76960003,0
1.9730368,-2.5853581,-4.8024006,0.34017873,-0.4457514,-0.82800007,0
-0.00077694748,-0.0026638201,-5.7999997,-0.00013395646,-0.00045927931,-0.99999994,0
4.2057524,-2.8038349,2.8443208,0.72512972,-0.48341981,0.49040011,0
-5.2657361,2.2818186,0.83983976,-0.90788549,0.393417,0.14479995,0
2.8047178,-2.8047178,4.2316804,0.48357201,-0.48357201,0.72960007,0
-3.9058995,3.4176619,-2.5891192,-0.67343092,0.58925205,-0.44639984,0
4.8544669,-3.1319141,-0.51503986,0.83697701,-0.53998518,-0.088799976,0
-1.4239433,-4.6786709,3.1180804,-0.24550745,-0.80666739,0.53760004,0
2.4914424,4.7912354,2.1158402,0.42955902,0.82607508,0.36480004,0
3.5874434,4.5232983,-0.55680102,0.61852467,0.77987897,-0.096000172,0
-2.6506505,4.0779238,3.1598403,-0.45700869,0.70309031,0.54480004,0
2.6915317,4.6140552,-2.25968,0.46405718,0.79552674,-0.38959998,0
-0.15071061,5.7270083,-0.90479988,-0.025984587,0.98741519,-0.15599997,0
-4.9785018,-2.1062894,2.1019201,-0.85836238,-0.36315334,0.3624,0
0.19215411,5.3803196,2.1576009,0.033130016,0.92764127,0.37200013,0
2.8491225,-2.1916325,4.5518403,0.49122801,-0.37786767,0.78480005,0
-3.6596632,-3.2530339,3.1087999,-0.63097638,-0.56086791,0.53599995,0
5.1396041,0.59303069,2.6216004,0.88613862,0.10224666,0.45200005,0
-0.22626819,-2.4889529,5.2339201,-0.039011754,-0.42912978,0.90240002,0
4.587738,1.9497889,-2.9649594,0.79098928,0.33617049,-0.51119989,0
3.6327913,4.0151901,2.0787206,0.62634331,0.69227415,0.35840008,0
-0.22267146,3.117403,4.8859205,-0.038391631,0.53748327,0.84240007,0
0,-5.729722,-0.90015984,0,-0.98788309,-0.15519996,0
-1.926578,5.0091028,2.1993604,-0.33216861,0.8636384,0.37920004,0
3.3471732,-1.6735866,-4.431201,0.57709879,-0.28854939,-0.76400012,0
-0.65855306,-5.7623405,0.041760225,-0.11354363,-0.99350697,0.0072000385,0
3.7014818,-0.65320259,4.4172797,0.63818651,-0.11262114,0.7615999,0
5.6399198,1.2533152,-0.51040035,0.97239995,0.21608882,-0.088000059,0
-0.45005634,-2.7003367,5.1132803,-0.077595919,-0.46557528,0.88160002,0
-3.0015454,2.7871497,4.1064005,-0.51750779,0.48054302,0.70800006,0
4.7823973,3.2451985,0.4872008,0.82455122,0.55951697,0.084000133,0
-0.11009606,-4.8442311,-3.18768,-0.018982079,-0.83521223,-0.54960001,0
2.1255786,0.63315094,-5.3592014,0.36647907,0.10916395,-0.9240002,0
-5.2038279,2.5230684,-0.44079989,-0.89721167,0.43501177,-0.075999975,0
4.9870825,2.0998247,-2.0880003,0.85984176,0.36203873,-0.36000004,0
5.4190116,-2.0321295,0.38048017,0.93431228,-0.35036716,0.06560003,0
-3.4853876,4.402595,1.4523199,-0.60092884,0.75906807,0.25039998,0
-4.0193863,2.7912405,-3.1134405,-0.69299763,0.48124835,-0.53680009,0
2.427037,-1.6382499,-5.0065589,0.41845465,-0.28245687,-0.86319977,0
2.2655373,-0.90621454,5.2617598,0.39060986,-0.15624388,0.90719992,0
3.7014818,-0.65320259,4.4172797,0.63818651,-0.11262114,0.7615999,0
-2.0803545,0.76882672,-5.359201,-0.3586818,0.13255633,-0.92400014,0
-2.8491225,-2.1916325,4.5518403,-0.49122801,-0.37786767,0.78480005,0
-3.9491823,3.3568056,2.60304,-0.68089348,0.57875955,0.44879997,0
2.2928271,-3.9603372,3.56352,0.39531502,-0.68281674,0.61439997,0
3.1694226,4.5474319,-1.70752,0.54645216,0.78403997,-0.29440001,0
4.8544669,3.1319141,-0.51503986,0.83697701,0.53998518,-0.088799976,0
-4.8686385,2.95069,-1.1089593,-0.83942038,0.50873965,-0.19119987,0
5.0108781,0.60130477,2.8582401,0.86394447,0.10367323,0.4928,0
3.4122148,-4.1996489,-2.0879996,0.58831286,-0.72407734,-0.35999992,0
0.88446522,3.1296463,-4.8023992,0.152494,0.53959417,-0.82799983,0
