4.4244194,3.7923601,-0.51479948,0.756311,0.64826667,-0.08799991,0
2.460808,-3.8962791,-3.6036,0.42065096,-0.66603065,-0.616,0
3.6937551,0.23577136,-4.530241,0.63141114,0.040302798,-0.77440017,0
-0.69380903,-1.6188875,5.5785599,-0.11859984,-0.27673292,0.95359999,0
4.5331373,-3.6936677,0.17316051,0.77489531,-0.63139617,0.029600088,0
-2.3726439,2.5950797,-4.6753206,-0.40558016,0.44360337,-0.79920012,0
-2.2339351,2.1062815,-4.9795194,-0.38186926,0.36004812,-0.85119992,0
3.1009719,-1.7719845,4.6332002,0.53008068,-0.30290332,0.79200006,0
-5.5600271,-1.5027099,-1.0249201,-0.950432,-0.25687349,-0.17520002,0
3.34759,0.2231725,4.7923203,0.57223761,0.038149145,0.81920004,0
4.8896885,-3.2035887,0.22463946,0.83584422,-0.54762203,0.038399909,0
1.3893217,-0.92621422,5.6066399,0.23749089,-0.15832722,0.95840001,0
1.5741438,5.4379506,-1.4742,0.26908442,0.92956424,-0.252,0
0.89680332,-5.6797543,-1.0763998,0.15329972,-0.97089815,-0.18399997,0
-2.6005924,1.3305359,-5.0684409,-0.44454572,0.22744204,-0.86640018,0
-3.2044437,4.8066649,0.92196035,-0.54776818,0.82165211,0.15760006,0
1.7924335,2.6886508,4.8765602,0.3063989,0.45959845,0.83360004,0
-3.7216859,-4.4305782,0.86111981,-0.63618565,-0.7573638,0.14719997,0
3.5874374,-0.38164234,-4.6051211,0.61323714,-0.065238006,-0.78720021,0
3.595197,2.7492678,3.7065597,0.61456358,0.46996033,0.63359994,0
5.0513115,-2.5978172,-1.3993208,0.86347204,-0.44407132,-0.23920015,0
3.3646047,3.1543159,3.5989199,0.57514614,0.53919929,0.61519998,0
-4.0089192,-2.9780543,-3.0466795,-0.68528533,-0.50906914,-0.52079993,0
-4.7123089,3.3442197,-0.91260064,-0.80552292,0.57166147,-0.15600011,0
3.3458526,4.7797904,-0.4258799,0.5719406,0.81705821,-0.072799981,0
-5.3706503,-1.6959949,-1.5818398,-0.91805989,-0.28991365,-0.27039996,0
-4.2985945,-3.9679337,-0.0093599819,-0.73480248,-0.67827928,-0.0015999969,0
3.5490942,3.6673973,-2.8594804,0.60668278,0.6269055,-0.48880008,0
3.1043615,1.9402262,-4.5629992,0.53066009,0.3316626,-0.77999991,0
5.8465357,-0.1670437,0.11231922,0.99940783,-0.028554479,0.019199867,0
5.4457388,1.3144884,1.6847994,0.93089551,0.22469887,0.2879999,0
5.1731639,-2.664963,-0.59903926,0.88430154,-0.45554924,-0.10239988,0
0.19199398,-3.0719066,-4.9748392,0.032819483,-0.52511227,-0.85039985,0
3.3351045,-0.87002736,-4.726799,0.57010335,-0.14872263,-0.80799985,0
-3.2406254,2.5925004,4.1230798,-0.55395305,0.44316247,0.70479995,0
1.1641356,0,5.7329998,0.19899754,0,0.97999996,0
4.2220964,2.8147309,-2.9109607,0.72172588,0.4811506,-0.49760014,0
1.7508955,-2.9911129,-4.71276,0.29929838,-0.51130134,-0.80559999,0
-4.5312524,-1.2645355,-3.4772403,-0.77457309,-0.21615992,-0.59440005,0
2.6030853,5.2061715,0.58499998,0.44497186,0.88994384,0.1,0
-5.1306334,-0.11931694,-2.8080003,-0.87703139,-0.020396058,-0.48000005,0
0.74344265,-4.6730685,-3.4397998,0.12708421,-0.79881513,-0.588,0
4.2420087,-2.8280058,2.8688405,0.72512972,-0.48341981,0.49040008,0
-0.22287792,1.8201697,-5.5551605,-0.03809879,0.31114012,-0.9496001,0
-2.5104091,-0.22821876,5.2790399,-0.42912978,-0.039011754,0.90240002,0
0.47028714,5.8002138,-0.59904009,0.080390967,0.99148953,-0.10240002,0
5.1451035,-1.2549031,-2.485081,0.87950486,-0.21451335,-0.42480016,0
-3.2402709,-3.6872041,-3.1824,-0.55389243,-0.63029134,-0.54400003,0
0.22287792,-1.8201697,-5.5551605,0.03809879,-0.31114012,-0.9496001,0
-2.6076458,-1.9900455,-4.8438005,-0.44575143,-0.34017873,-0.82800013,0
-3.1170871,4.7673097,1.3338004,-0.53283542,0.81492472,0.22800007,0
-4.7053905,-2.548753,2.3633997,-0.80434024,-0.43568429,0.40399995,0
2.2701511,-0.046329569,-5.3913603,0.38806003,-0.0079195844,-0.92160004,0
-4.6594796,3.1684465,1.5724797,-0.79649228,0.54161483,0.26879996,0
0.94589287,-5.4861779,1.7971194,0.16169108,-0.93780822,0.3071999,0
3.5400114,-0.66375202,4.6097994,0.60513014,-0.11346188,0.78799993,0
3.1589131,-4.8963156,-0.51947981,0.53998518,-0.83697706,-0.088799968,0
-1.9002413,-4.7506032,-2.8360801,-0.32482758,-0.81206894,-0.48480001,0
1.4470212,5.4986792,-1.3759201,0.24735406,0.93994516,-0.23520002,0
0.50962597,-3.4217746,-4.7174397,0.087115549,-0.58491874,-0.80639994,0
-3.6138816,4.5994849,-0.084239222,-0.61775756,0.78623676,-0.014399868,0
-4.7797899,-3.3458531,-0.42588049,-0.81705815,-0.57194072,-0.072800085,0
1.7584779,5.0800486,2.3072405,0.30059451,0.86838436,0.39440009,0
4.8100066,3.0609131,-1.3103991,0.82222337,0.523233,-0.22399984,0
-0.17150763,-5.831265,0.43523988,-0.029317543,-0.99679744,0.074399978,0
-0.53775221,5.7360229,1.0155602,-0.091923453,0.98051673,0.17360003,0
-2.6725793,-1.6296215,-4.9420795,-0.45685115,-0.27856779,-0.84479994,0
-5.5034866,1.7753187,0.8845197,-0.94076699,0.30347329,0.15119995,0
-3.3124449,4.6086192,-1.4180396,-0.56622994,0.78779817,-0.24239993,0
-5.7046571,-0.89135289,0.94068015,-0.97515506,-0.15236802,0.16080002,0
-4.3709745,-1.8732749,3.4070396,-0.74717516,-0.32021794,0.58239996,0
-1.7357944,-1.7868471,-5.2930799,-0.29671699,-0.30544394,-0.9048,0
0.21007915,-4.6217456,3.5802,0.035910968,-0.79004198,0.61199999,0
-2.8813374,5.0044279,-0.93599945,-0.49253631,0.85545778,-0.15999991,0
-5.758709,-0.77820408,-0.67392021,-0.98439473,-0.13302635,-0.11520004,0
-3.9259818,-0.43622041,4.31496,-0.67110801,-0.074567594,0.73760003,0
3.6912119,-3.2810771,3.1355999,0.63097644,-0.56086791,0.53599995,0
2.2199581,-5.3913274,-0.47735992,0.37948,-0.92159444,-0.081599988,0
-4.2666717,-3.1372585,-2.48508,-0.72934562,-0.53628349,-0.42480001,0
-1.364844,5.6110253,-0.93600017,-0.23330666,0.95914966,-0.16000003,0
5.0513115,2.5978172,-1.3993208,0.86347204,0.44407132,-0.23920015,0
5.3913274,2.2199583,-0.47735897,0.92159444,0.37948006,-0.081599824,0
0,-3.7522366,-4.4881201,0,-0.64140797,-0.76720005,0
-4.1064115,-1.9029711,-3.7065597,-0.70195067,-0.32529423,-0.63359994,0
-1.1509376,5.3710413,2.0124006,-0.19674146,0.91812676,0.3440001,0
-0.93130803,-0.6984812,5.7329998,-0.15919796,-0.1193985,0.97999996,0
5.7912045,-0.82731503,-8.3684921e-07,0.98994952,-0.14142138,-1.4305115e-07,0
4.8903289,0,-3.2104797,0.83595365,0,-0.54879999,0
2.9911118,-1.7508947,-4.7127609,0.51130116,-0.29929823,-0.80560017,0
-4.1507745,-3.9703064,1.1091602,-0.70953411,-0.67868489,0.18960004,0
-1.8478591,-5.3587923,1.4461194,-0.31587335,-0.91603291,0.24719991,0
-3.7654669,3.1009724,-3.2291994,-0.64366955,0.53008074,-0.55199993,0
-1.0287488,5.2723365,-2.316601,-0.17585449,0.90125412,-0.39600018,0
0.44336677,-4.0789733,-4.1698804,0.075789191,-0.69726038,-0.71280009,0
-5.4267015,0.19381058,2.1761999,-0.92764133,0.033130016,0.37199998,0
3.5942397,-3.3696001,-3.15432,0.61439997,-0.57600003,-0.53920001,0
-5.3502207,1.3375549,1.95156,-0.91456765,0.22864187,0.33360001,0
-5.565856,-0.55658549,-1.7128801,-0.95142841,-0.095142819,-0.29280004,0
1.1470678,-5.7353396,-0.11231975,0.19607997,-0.98039997,-0.019199958,0
-4.9501481,-2.4750741,1.8954003,-0.84617919,-0.42308959,0.32400006,0
-1.0155492,-5.7547789,0.27143988,-0.17359816,-0.98372293,0.046399981,0
1.1792111,-5.6012545,-1.2074397,0.20157456,-0.95747942,-0.20639995,0
-5.2965279,-1.81197,-1.6988398,-0.90538937,-0.30973846,-0.29039997,0
-1.4673425,-5.5025339,1.3384795,-0.25082779,-0.94060409,0.22879992,0
3.7216856,4.4305787,0.8611204,0.63618559,0.75736392,0.14720008,0
-2.5544395,-5.1088796,1.2636001,-0.43665633,-0.87331277,0.21600002,0
-5.6599951,1.4554269,-0.26207957,-0.96752053,0.24879093,-0.044799928,0
5.501266,-0.75879508,1.8392395,0.94038737,-0.12970856,0.31439993,0
-3.2923892,3.3985953,-3.4397998,-0.5628016,0.58095646,-0.588,0
3.8124049,-4.0030255,1.9141201,0.65169317,-0.68427789,0.32720003,0
-3.9703062,4.150775,1.1091596,-0.67868483,0.70953417,0.18959993,0
5.1471491,-1.5441449,-2.3119192,0.87985456,-0.2639564,-0.39519987,0
-1.9589196,3.4825242,4.2728395,-0.33485806,0.5953033,0.73039991,0
4.8325391,-2.5129201,2.1340799,0.82607508,-0.42955899,0.36480001,0
2.1062803,2.2339339,-4.9795203,0.36004794,0.38186905,-0.85120004,0
-0.19689381,5.3161378,2.4336004,-0.033657063,0.90874153,0.41600007,0
-3.0612636,2.4052789,4.3664398,-0.5232929,0.4111588,0.7464,0
2.8611612,5.007031,0.98280036,0.4890874,0.85590273,0.16800007,0
-3.6718466,1.9439185,4.1184006,-0.62766612,0.33229375,0.70400012,0
-3.2154834,-4.0193543,2.7799203,-0.54965532,-0.68706912,0.47520006,0
-2.0440137,1.8169007,5.1714001,-0.34940407,0.31058133,0.884,0
-0.45816243,2.2908115,5.3632798,-0.078318365,0.39159173,0.91679996,0
-1.5731694,-5.5934906,0.67860019,-0.26891783,-0.95615226,0.11600003,0
1.4379112,-1.0424857,-5.5738797,0.24579678,-0.17820269,-0.95279998,0
-1.2989845,-3.8969538,4.1651998,-0.22204864,-0.66614598,0.71199995,0
1.9979265,-2.8858945,4.6800003,0.34152591,-0.49331531,0.80000007,0
3.3696001,4.4927998,-1.638,0.57600003,0.76799995,-0.28,0
3.5841894,-4.6082435,0.37440088,0.61268198,-0.78773391,0.064000152,0
-2.5544398,5.1088796,1.2636009,-0.43665639,0.87331277,0.21600017,0
4.8452692,2.7687249,-1.7550005,0.82825118,0.47328633,-0.30000007,0
4.5373755,-2.2105162,-2.9577594,0.77561975,-0.37786603,-0.50559992,0
-3.8735447,4.3787894,0.21060047,-0.66214442,0.74851102,0.03600008,0
5.3885965,0.9622497,2.0638807,0.92112762,0.16448712,0.35280013,0
2.7236149,-4.669055,2.23704,0.46557522,-0.79812908,0.38240001,0
-5.7261095,1.1789048,0.21059993,-0.97882217,0.20152219,0.035999987,0
3.8510468,0.66974717,-4.3523989,0.65829861,0.1144867,-0.74399984,0
-1.0825279,5.4126382,-1.9375192,-0.18504751,0.9252373,-0.33119985,0
-4.3709745,-1.8732749,3.4070396,-0.74717516,-0.32021794,0.58239996,0
5.0608416,-0.40486756,2.90628,0.86510116,-0.06920813,0.49680001,0
2.441005,3.2256141,-4.2260394,0.4172658,0.55138701,-0.72239989,0
0.9884001,-5.765667,-0.051479816,0.16895728,-0.98558414,-0.0087999692,0
-1.2091711,-4.0925794,-4.0014,-0.2066959,-0.69958615,-0.68399996,0
5.0147567,2.6002443,1.5210006,0.85722339,0.4444862,0.26000011,0
-1.7767239,4.5528555,-3.2151608,-0.30371347,0.77826589,-0.54960012,0
2.3973296,-4.5549264,-2.7799196,0.40979993,-0.77861989,-0.47519994,0
4.7506037,1.9002419,-2.8360794,0.812069,0.32482767,-0.48479989,0
-0.92918921,5.73,-0.72540015,-0.15883577,0.97948718,-0.12400003,0
-4.2133622,4.0513096,-0.23867977,-0.72023284,0.69253159,-0.04079996,0
5.0234737,2.9447949,0.56159914,0.85871345,0.50338376,0.095999852,0
1.7109224,-4.6765218,-3.0700796,0.29246536,-0.79940546,-0.52479994,0
2.2619467,-1.8095572,5.0824795,0.38665757,-0.30932602,0.86879992,0
3.0082169,-3.0082169,4.0154405,0.51422513,-0.51422513,0.68640012,0
-1.605574,-1.605574,5.3913598,-0.2744571,-0.2744571,0.92159998,0
-5.3161378,0.19689381,2.4336004,-0.90874153,0.033657063,0.41600007,0
0.97055542,5.095417,-2.7050405,0.16590691,0.8710115,-0.46240008,0
-1.3913066,-0.69565332,5.6394,-0.23783019,-0.1189151,0.96400005,0
-4.7944083,-2.0898702,-2.6207993,-0.81955701,-0.35724276,-0.44799989,0
2.9411106,-3.5713489,3.5802004,0.50275397,-0.61048698,0.61200011,0
2.4295352,0.67199904,-5.2790413,0.41530517,0.11487163,-0.90240026,0
-1.4140651,1.7333701,-5.4053998,-0.24172054,0.29630259,-0.92399997,0
-4.2726374,2.6449659,2.9951999,-0.7303654,0.45213091,0.51199996,0
-1.1509376,-4.2201042,-3.8843999,-0.19674146,-0.72138536,-0.66399997,0
-5.0173769,1.2041705,2.75652,-0.85767126,0.20584111,0.47120002,0
-1.1582394,1.1582395,-5.6160007,-0.19798964,0.19798966,-0.9600001,0
1.188922,2.2227671,-5.2790408,0.20323454,0.37996021,-0.90240014,0
-1.3095641,-3.7104311,4.329,-0.22385712,-0.63426173,0.74000001,0
-1.3875233,5.4113412,-1.7362794,-0.23718347,0.92501563,-0.2967999,0
-3.8187768,-2.3336971,3.7673998,-0.65278238,-0.39892259,0.64399999,0
1.0217419,3.8315315,-4.3009195,0.17465673,0.65496266,-0.73519993,0
-3.8150122,4.2552061,-1.2495604,-0.65213883,0.7273857,-0.21360007,0
-3.5292907,-4.6522474,-0.35100055,-0.60329753,-0.79525596,-0.060000096,0
-1.8444666,-0.69167489,5.5083599,-0.31529343,-0.11823502,0.94160002,0
2.2662899,4.3265524,3.2198403,0.3874,0.73958164,0.55040008,0
2.8111765,-3.0274208,4.1418004,0.48054302,-0.51750785,0.70800006,0
-1.6165656,0.92375237,5.5457997,-0.27633601,0.15790638,0.94799995,0
0.95567143,-5.4609804,-1.8673202,0.16336264,-0.93350095,-0.31920004,0
-1.7604767,3.3008928,4.4974804,-0.30093619,0.56425518,0.76880008,0
0.52570331,-5.7827415,0.71136057,0.089863814,-0.98850286,0.1216001,0
-3.0138624,0.25115535,-5.0075994,-0.51519018,0.04293254,-0.85599989,0
-2.371994,-3.4501724,4.08564,-0.40546906,-0.58977306,0.69840002,0
-1.162017,0.69720936,5.6908798,-0.19863538,0.11918109,0.97279996,0
-4.0498037,3.664108,2.0966399,-0.69227415,0.62634325,0.35839999,0
-1.8742217,-4.2690606,-3.5333998,-0.32037979,-0.72975397,-0.60399997,0
-1.4185494,4.8635988,2.9249997,-0.24248709,0.83138442,0.49999997,0
2.2227683,-1.1889225,-5.2790399,0.37996039,-0.20323463,-0.90240002,0
-2.4289832,3.6920545,-3.8329198,-0.41521081,0.63112044,-0.6552,0
-3.3646042,-3.1543167,3.5989199,-0.57514602,-0.53919941,0.61519998,0
4.1802912,-0.83605826,-4.0060797,0.71457964,-0.14291593,-0.68479991,0
5.477829,-0.26721129,-2.0358009,0.93638104,-0.045677144,-0.34800017,0
0.75902611,-4.2695227,-3.9265194,0.12974806,-0.72983295,-0.67119992,0
1.9454367,0.4458293,-5.499001,0.3325533,0.076210141,-0.94000018,0
-5.2965279,-1.81197,-1.6988398,-0.90538937,-0.30973846,-0.29039997,0
-0.69380903,1.6188875,5.5785599,-0.11859984,0.27673292,0.95359999,0
-1.3594412,5.2435589,2.2089605,-0.2323831,0.89633489,0.3776001,0
-3.9490824,4.2924809,0.44928023,-0.67505682,0.73375744,0.076800041,0
-2.2266574,-5.1955333,1.5069599,-0.38062519,-0.88812536,0.25759998,0
-3.0719066,-0.19199418,-4.9748392,-0.52511227,-0.032819517,-0.85039985,0
-4.8073831,3.256614,-0.71135962,-0.8217749,0.55668616,-0.12159993,0
1.3648436,-5.6110253,-0.93599993,0.2333066,-0.95914966,-0.16,0
-3.8713758,1.720611,4.0341601,-0.66177362,0.29412153,0.68960005,0
0.17573369,5.7992167,0.74880052,0.030039947,0.99131912,0.1280001,0
-4.6297712,2.2142389,2.8080001,-0.7914139,0.37850237,0.48000002,0
-1.8813367,5.2677426,1.7128807,-0.32159603,0.90046883,0.29280013,0
4.9216161,0.41013426,3.1355999,0.84130192,0.070108421,0.53599995,0
-4.3306437,2.9695845,-2.57868,-0.74028099,0.50762129,-0.44080001,0
-5.4126377,1.0825274,-1.93752,-0.92523724,0.18504742,-0.3312,0
0.14635746,5.7079463,-1.2729595,0.02501837,0.97571731,-0.21759991,0
5.6459656,-1.4114914,-0.59436053,0.96512234,-0.24128059,-0.1016001,0
5.1946106,-1.7315367,-2.0591993,0.88796765,-0.29598919,-0.35199988,0
-2.2444489,2.2444496,4.9139996,-0.38366649,0.3836666,0.83999991,0
-3.7305741,1.9107816,-4.0809593,-0.63770497,0.32662934,-0.69759989,0
1.2901783,-5.5293365,1.4086797,0.2205433,-0.94518572,0.24079996,0
-2.8858945,-1.9979271,4.6799998,-0.49331531,-0.341526,0.80000001,0
-3.7626731,-4.1389408,1.7128803,-0.64319199,-0.70751125,0.29280004,0
-3.5490942,3.6673973,-2.8594804,-0.60668278,0.6269055,-0.48880008,0
4.5705543,0.20313555,-3.6457193,0.78129137,0.034724027,-0.62319988,0
3.876215,-4.0146523,-1.7549998,0.66260087,-0.68626535,-0.29999995,0
1.3867655,-1.1556381,5.5645199,0.23705393,-0.19754498,0.95120001,0
3.1165955,1.1081231,-4.8250799,0.53275138,0.18942276,-0.82480001,0
0.35518682,2.8414946,-5.1012006,0.060715698,0.48572558,-0.8720001,0
0.54326326,4.7807155,-3.3274798,0.092865512,0.81721634,-0.56879997,0
-2.1669965,3.467195,4.1839194,-0.37042674,0.5926829,0.71519989,0
4.8179913,-3.1618068,-1.0062,0.82358825,-0.54047978,-0.17199999,0
1.2201076,4.8804302,2.9858396,0.2085654,0.8342616,0.51039994,0
-0.20129432,1.9726838,-5.5036802,-0.034409285,0.33721092,-0.94080007,0
-2.1995153,5.4141917,0.26676026,-0.37598553,0.9255029,0.045600045,0
-2.132355,3.8382392,3.86568,-0.36450514,0.65610927,0.66079998,0
0.88518894,2.7145796,-5.1058788,0.15131435,0.46403071,-0.87279981,0
-5.2969327,-2.4829376,0.0046801306,-0.90545857,-0.42443377,0.00080002233,0
4.4432993,1.5868924,-3.4585202,0.75953835,0.27126366,-0.59120005,0
-2.2351336,-0.091229998,-5.4054003,-0.38207415,-0.015594872,-0.92400008,0
3.1113374,1.5556687,4.7034001,0.53185254,0.26592627,0.80400002,0
4.0513096,4.2133622,-0.23867977,0.69253159,0.72023284,-0.04079996,0
4.9520721,-2.6882677,-1.5724807,0.84650809,-0.45953295,-0.26880011,0
-4.8678188,-2.3365531,2.2510798,-0.83210582,-0.39941078,0.38479996,0
3.1839414,-3.1839414,-3.7346394,0.54426348,-0.54426348,-0.6383999,0
-4.7807155,-0.54326326,-3.3274798,-0.81721634,-0.092865512,-0.56879997,0
-5.6089754,-0.37393188,1.6192796,-0.95879924,-0.063919984,0.27679995,0
0.35518682,2.8414946,-5.1012006,0.060715698,0.48572558,-0.8720001,0
2.6449661,4.2726374,2.9952004,0.45213097,0.7303654,0.51200008,0
-5.6991854,-0.29226607,-1.2869995,-0.97421974,-0.049960013,-0.21999991,0
0.77820408,-5.758709,-0.67392021,0.13302635,-0.98439473,-0.11520004,0
-4.7483759,1.0322559,3.2572801,-0.81168818,0.17645401,0.55680001,0
-5.8131232,0.31422257,-0.57564014,-0.99369627,0.053713262,-0.098400027,0
-1.1631944,-0.46527791,5.7142797,-0.19883665,-0.079534687,0.97679996,0
-5.4267015,0.19381058,2.1761999,-0.92764133,0.033130016,0.37199998,0
-5.0118279,1.9276259,-2.321279,-0.85672271,0.32950869,-0.39679983,0
-2.8722014,1.0850539,-4.9795198,-0.49097461,0.18547931,-0.85119998,0
-1.1639004,-0.2327798,5.7283196,-0.19895734,-0.03979142,0.97919995,0
3.4667401,2.37198,-4.0715995,0.59260517,0.40546668,-0.69599992,0
2.9517722,-0.89836544,-4.9701586,0.5045765,-0.15356676,-0.84959984,0
-5.3573227,1.2053972,-2.0170801,-0.91578168,0.20605081,-0.34480003,0
1.8478596,-5.3587923,1.4461192,0.31587344,-0.91603291,0.24719986,0
1.6042235,-5.6147809,-0.35100001,0.27422625,-0.9597916,-0.060000002,0
-3.2580667,-2.3892491,4.2307196,-0.55693448,-0.40841866,0.72319996,0
-1.2901783,-5.5293365,1.4086797,-0.2205433,-0.94518572,0.24079996,0
-0.44299626,3.5439689,4.6331997,-0.075725861,0.60580665,0.79199994,0
4.3897171,-1.6722738,3.4866002,0.75037903,-0.28585878,0.59600002,0
-4.9183102,-2.9145544,1.2402005,-0.84073681,-0.49821442,0.21200009,0
-2.916244,-1.4242122,-4.8672004,-0.49850327,-0.24345508,-0.83200008,0
0.5893451,-5.3041105,2.3961606,0.10074274,-0.90668547,0.40960008,0
-4.5524879,3.4598906,1.23552,-0.77820307,0.5914343,0.2112,0
5.2120872,2.113008,-1.6099198,0.89095509,0.36119795,-0.27519998,0
1.7869596,-0.57030624,-5.5411215,0.30546319,-0.097488247,-0.9472003,0
-0.90555257,2.7166584,5.1012001,-0.15479532,0.46438605,0.87200004,0
5.5719032,1.4379102,1.0530001,0.95246208,0.24579662,0.18000002,0
-2.9533098,-4.781549,-1.6239603,-0.5048393,-0.81735879,-0.27760005,0
3.7457824,0.079697415,-4.4928012,0.64030468,0.01362349,-0.76800025,0
-5.6322975,-1.5360813,0.37440047,-0.9627859,-0.26257801,0.064000078,0
-4.9683747,2.7602079,1.3852808,-0.84929484,0.47183043,0.23680015,0
1.5731689,5.5934911,0.67860043,0.26891777,0.95615232,0.11600008,0
5.1293526,2.812871,-3.347397e-07,0.8768124,0.48083267,-5.7220461e-08,0
2.7920189,-3.2215607,4.0060797,0.47726819,-0.55069417,0.68479997,0
-1.8383766,-1.1489855,5.4334798,-0.31425244,-0.19640778,0.92879999,0
5.143424,2.4982345,-1.2355211,0.8792178,0.42704865,-0.21120019,0
2.9650972,-4.8182817,1.4882398,0.50685424,-0.8236379,0.25439996,0
1.7868457,-1.7357929,-5.2930808,0.3054437,-0.29671675,-0.90480018,0
-5.1047621,1.5706958,2.3868003,-0.8726089,0.26849499,0.40800005,0
-0.23164795,1.6215371,5.6160002,-0.03959794,0.27718583,0.96000004,0
-3.7654669,3.1009724,-3.2291994,-0.64366955,0.53008074,-0.55199993,0
2.8147309,-4.2220964,-2.9109607,0.4811506,-0.72172588,-0.49760014,0
5.600163,-1.2645528,1.1231999,0.95729285,-0.21616288,0.19199999,0
2.1669972,3.467195,4.1839194,0.37042686,0.5926829,0.71519989,0
0.37393135,-5.6089754,1.6192796,0.063919887,-0.95879924,0.27679995,0
-0.33369434,5.8396478,0.0982792,-0.057041768,0.9982304,0.016799863,0
-1.5741438,-5.4379506,-1.4742,-0.26908442,-0.92956424,-0.252,0
-5.0835657,-2.880687,0.28547987,-0.86898559,-0.49242514,0.04879998,0
1.600553,1.8292032,5.3211603,0.27359882,0.31268433,0.90960008,0
0.5893451,-5.3041105,2.3961606,0.10074274,-0.90668547,0.40960008,0
-3.4314325,-2.5735745,3.9779999,-0.58656967,-0.43992728,0.68000001,0
-2.5024791,-0.90999204,5.2088399,-0.42777422,-0.15555419,0.89039999,0
-2.9829264,-4.1760969,-2.8079998,-0.50990194,-0.71386272,-0.47999999,0
1.2201076,4.8804302,2.9858396,0.2085654,0.8342616,0.51039994,0
4.150775,3.9703064,1.109159,0.70953417,0.67868489,0.18959983,0
-1.88868,5.5086503,-0.55692083,-0.32285127,0.94164962,-0.095200144,0
4.7807155,-0.54326326,-3.3274798,0.81721634,-0.092865512,-0.56879997,0
-1.8418047,0.92090273,5.4755998,-0.31483841,0.15741928,0.93599999,0
-5.6640048,-0.58092344,-1.3431594,-0.96820599,-0.099303156,-0.22959991,0
-2.460808,-3.8962791,-3.6036,-0.42065096,-0.66603065,-0.616,0
-2.7773662,-5.0918379,-0.76283962,-0.47476345,-0.87039965,-0.13039994,0
0.22000957,-3.7401659,4.4928002,0.037608474,-0.63934463,0.76800007,0
0.87002683,-3.3351028,-4.7268004,0.14872254,-0.57010305,-0.80800009,0
-5.3289146,-0.1268788,-2.4102006,-0.91092557,-0.021688683,-0.41200012,0
-0.65883362,3.7333908,4.4553595,-0.11262114,0.63818645,0.7615999,0
0.11251356,-0.31106687,-5.8406401,0.019233087,-0.053173825,-0.99840003,0
4.552855,1.7767241,-3.2151613,0.77826583,0.30371353,-0.54960024,0
-2.3903027,5.2287874,-1.0810807,-0.40859875,0.89380985,-0.18480012,0
2.4351206,5.0575576,1.6473606,0.41625994,0.86453974,0.28160009,0
2.0708869,1.2326707,-5.3305206,0.35399777,0.21071294,-0.91120011,0
-3.4535832,-4.0931358,-2.3540392,-0.59035611,-0.69968134,-0.40239987,0
5.758709,0.77820408,-0.67392021,0.98439473,0.13302635,-0.11520004,0
5.2965279,1.81197,-1.6988398,0.90538937,0.30973846,-0.29039997,0
-5.4379506,-1.5741438,-1.4742,-0.92956424,-0.26908442,-0.252,0
-1.609913,1.3799256,5.4521999,-0.27519882,0.23588473,0.93199998,0
2.9829259,4.1760964,-2.8080008,0.50990188,0.71386266,-0.48000014,0
1.1509376,-5.3710418,2.0123999,0.19674146,-0.91812682,0.34399998,0
0.39931086,-5.1910462,2.6676002,0.068258271,-0.88735837,0.45600003,0
-5.0323601,-1.0064722,2.8079998,-0.86023253,-0.17204654,0.47999999,0
4.4356523,1.008103,-3.6784801,0.75823116,0.1723253,-0.62880003,0
3.9003663,-4.0860982,1.5210004,0.66672927,-0.69847834,0.26000008,0
1.3012962,-0.44299442,-5.6862011,0.2224438,-0.075725541,-0.97200018,0
0.99904567,5.566112,-1.4975994,0.17077704,0.95147216,-0.25599989,0
2.3534865,-3.6372058,3.9312,0.40230539,-0.62174457,0.67199999,0
5.7681603,-0.30358756,-0.92663985,0.98601031,-0.051895309,-0.15839998,0
-3.3124449,4.6086192,-1.4180396,-0.56622994,0.78779817,-0.24239993,0
3.9151216,0.87002742,4.2587996,0.66925156,0.14872263,0.72799993,0
3.1170876,-4.7673097,1.3338,0.53283548,-0.81492472,0.228,0
4.6082435,3.5841894,0.37440088,0.78773391,0.61268198,0.064000152,0
2.7773662,-5.0918379,-0.76283962,0.47476345,-0.87039965,-0.13039994,0
2.0089953,2.6786613,4.7969999,0.343418,0.45789084,0.81999999,0
3.4535832,4.0931358,-2.3540392,0.59035611,0.69968134,-0.40239987,0
-1.614702,-4.8441052,2.8547997,-0.27601743,-0.82805216,0.48799998,0
-4.8888955,-2.8758209,-1.4320799,-0.83570868,-0.49159333,-0.24479999,0
-3.3062897,-4.278728,2.2323601,-0.56517774,-0.73140651,0.38160002,0
-3.5678976,4.3190341,1.6847996,-0.60989702,0.73829645,0.28799993,0
-4.6045113,-0.83718365,3.51,-0.78709596,-0.14310832,0.60000002,0
-2.9695845,-4.3306437,-2.57868,-0.50762129,-0.74028099,-0.44080001,0
-0.21441327,-4.288269,3.9733202,-0.036651842,-0.73303747,0.67920005,0
1.4968901,-5.6549196,0.060840108,0.25587866,-0.96665293,0.010400019,0
-1.1851586,-4.6328921,-3.3696003,-0.20259123,-0.79194736,-0.57600003,0
-1.4554274,-5.6599951,-0.26207983,-0.24879101,-0.96752053,-0.044799972,0
-2.0643997,-4.3461051,-3.3274801,-0.35288885,-0.74292397,-0.56880003,0
-3.7934511,-4.4531817,-0.037439287,-0.64845318,-0.76122767,-0.0063998783,0
4.8946266,1.0197141,3.0373197,0.83668834,0.1743101,0.51919997,0
-5.4219532,0.38728198,2.1621599,-0.92682964,0.066202052,0.3696,0
-3.1009729,3.7654667,-3.2291992,-0.53008085,0.64366955,-0.55199987,0
1.4687297,4.406189,3.5568004,0.25106493,0.75319469,0.6080001,0
-4.9979243,2.4989622,-1.7316005,-0.85434604,0.42717302,-0.29600009,0
-2.2410069,4.4820137,3.0185993,-0.3830781,0.7661562,0.51599991,0
-1.1351805,0.77524513,-5.6861992,-0.19404794,0.13252054,-0.97199988,0
-1.3357116,-4.4181232,-3.5942402,-0.22832677,-0.75523478,-0.61440003,0
1.5441446,-5.1471486,-2.3119202,0.26395634,-0.8798545,-0.39520004,0
-4.8804302,-1.2201076,2.9858396,-0.8342616,-0.2085654,0.51039994,0
-5.6110253,-1.364844,-0.93600017,-0.95914966,-0.23330666,-0.16000003,0
-0.74344265,-4.6730685,-3.4397998,-0.12708421,-0.79881513,-0.588,0
5.0570316,2.936341,-0.16380018,0.86444986,0.50193864,-0.028000031,0
-4.2636828,1.0659209,3.8610001,-0.72883469,0.18220872,0.66000003,0
-5.6001825,0.5600177,1.5958797,-0.95729619,0.095729522,0.27279994,0
-2.2662899,-4.3265529,3.2198396,-0.3874,-0.7395817,0.55039996,0
5.3260946,1.5217412,1.8813609,0.91044354,0.26012671,0.32160017,0
-0.92375165,1.6165656,5.5458002,-0.15790626,0.27633601,0.94800007,0
2.610081,-3.045094,4.2588,0.44616768,-0.52052891,0.72800004,0
-4.0332208,3.2999079,-2.6582389,-0.68943954,0.56408685,-0.45439985,0
-0.8461355,-4.4422126,3.7112398,-0.14463855,-0.75935256,0.63439995,0
4.6902843,3.4395423,-0.62712091,0.80175799,0.58795595,-0.10720016,0
-5.0445862,-0.80713362,2.8501201,-0.86232245,-0.13797157,0.48720002,0
2.8047535,-5.0836153,0.716039,0.47944507,-0.86899406,0.12239983,0
-3.6279624,0.78868765,-4.5208807,-0.62016451,0.1348184,-0.77280015,0
-0.98839998,5.765667,-0.051480792,-0.16895726,0.98558414,-0.0088001359,0
4.4927998,3.59424,-1.0576805,0.76799995,0.61440003,-0.18080008,0
-2.0698884,0.45997477,5.4521999,-0.35382709,0.078628168,0.93199998,0
4.95889,-3.0779316,0.39779928,0.84767354,-0.52614218,0.067999877,0
5.6245403,1.0886208,1.18404,0.96145988,0.18608902,0.2024,0
-2.4837708,-4.1396179,3.30408,-0.42457622,-0.707627,0.56480002,0
-3.1449041,-4.1125674,-2.7237599,-0.53759044,-0.70300299,-0.46559998,0
4.3918729,2.2522426,-3.1402793,0.7507475,0.38499874,-0.53679991,0
1.8234468,-1.8234475,5.2509599,0.31170031,-0.31170043,0.8976,0
-2.5955231,-3.693629,-3.7205999,-0.44367918,-0.63138956,-0.63599998,0
-4.4584904,-0.21230885,3.7814398,-0.76213515,-0.036292113,0.64639997,0
-5.6845531,-0.43727335,-1.3103994,-0.97171849,-0.074747585,-0.2239999,0
-2.9036524,-3.6295655,-3.5521197,-0.49635085,-0.62043858,-0.60719997,0
1.958919,3.4825244,4.2728395,0.33485797,0.5953033,0.73039991,0
0.45614952,-2.5088251,5.2649999,0.077974275,-0.428859,0.89999998,0
5.0350227,-0.58546793,-2.9203203,0.86068767,-0.10007999,-0.49920005,0
-1.4529344,4.5663662,3.3555593,-0.24836485,0.78057545,0.57359987,0
4.225913,-3.9240623,-0.98279899,0.72237831,-0.67077988,-0.16799983,0
2.9584112,-3.3528662,-3.7720804,0.50571132,-0.57313955,-0.64480007,0
5.824748,-0.34263247,0.42120081,0.99568343,-0.058569655,0.072000138,0
-4.6297712,2.2142389,2.8080001,-0.7914139,0.37850237,0.48000002,0
1.3372686,-3.1202929,4.7642403,0.22859293,-0.53338343,0.81440008,0
-1.4673425,5.5025339,1.3384795,-0.25082779,0.94060409,0.22879992,0
-0.19981992,-5.1953225,2.6816401,-0.034157254,-0.88808936,0.45840004,0
1.4140651,-1.7333701,-5.4053998,0.24172054,-0.29630259,-0.92399997,0
4.8896885,-3.2035887,0.22463946,0.83584422,-0.54762203,0.038399909,0
3.9032433,-3.7080812,2.2885203,0.66722107,-0.63386005,0.39120007,0
-2.9036524,-3.6295655,-3.5521197,-0.49635085,-0.62043858,-0.60719997,0
4.9183102,2.9145548,1.2402,0.84073681,0.49821451,0.21200001,0
5.7102981,0.75135517,-1.0249199,0.97611934,0.12843679,-0.17519999,0
-1.7206117,3.8713758,4.0341597,-0.29412165,0.66177362,0.68959993,0
-4.9556093,1.7840189,2.5459201,-0.84711272,0.30496049,0.43520004,0
-0.23376566,0.46753132,5.8266001,-0.039959941,0.079919882,0.99600005,0
-5.6001825,0.5600177,1.5958797,-0.95729619,0.095729522,0.27279994,0
3.1771071,2.1180716,-4.4319592,0.54309523,0.36206353,-0.75759989,0
-1.9278817,-3.8557634,3.9545999,-0.32955244,-0.65910488,0.676,0
0.82538015,5.5025339,-1.8064791,0.14109063,0.94060409,-0.30879986,0
0.75879568,5.501266,1.8392394,0.12970866,0.94038737,0.3143999,0
3.4147973,-1.3193533,-4.5629997,0.58372605,-0.22553049,-0.77999997,0
2.1522095,5.3805246,-0.80028057,0.36789906,0.91974783,-0.1368001,0
-1.5233237,3.639051,-4.3196402,-0.2603972,0.62206,-0.73840004,0
0.52004749,-0.33431622,-5.8172402,0.088897005,-0.057148073,-0.99440008,0
-0.52570385,-5.7827415,0.71136051,-0.089863904,-0.98850286,0.12160009,0
-3.5439682,-0.44299629,4.6332002,-0.60580653,-0.075725861,0.79200006,0
1.5142529,-3.4269934,-4.4928002,0.25884664,-0.58581084,-0.76800007,0
0.68924755,2.067744,5.4288001,0.1178201,0.35346052,0.92800003,0
-0.85866183,5.1519718,-2.6348405,-0.14677981,0.88067895,-0.45040008,0
-3.1442771,0.22459103,4.92804,-0.53748327,0.038391631,0.84240001,0
-1.9002416,4.7506037,-2.8360791,-0.32482764,0.812069,-0.48479986,0
-3.2423987,4.8635988,-0.2340001,-0.5542562,0.83138442,-0.040000018,0
3.6279643,-0.78868783,-4.5208788,0.62016481,-0.13481843,-0.77279979,0
3.7432508,4.0106263,-2.0311196,0.63987195,0.68557715,-0.34719995,0
-2.8128705,5.1293526,1.3947486e-07,-0.48083258,0.8768124,2.3841858e-08,0
0.44299564,-3.5439682,4.6332002,0.075725749,-0.60580653,0.79200006,0
-1.8203348,1.1987569,-5.4287992,-0.31116834,0.20491572,-0.92799985,0
-5.7579751,-0.9596625,-0.38376048,-0.98426926,-0.16404487,-0.065600082,0
-4.669055,-2.7236149,2.23704,-0.79812908,-0.46557522,0.38240001,0
0.21639603,-4.1115284,4.1558399,0.036990777,-0.70282537,0.71039999,0
-2.0217605,3.3696005,-4.3336792,-0.3456001,0.57600009,-0.7407999,0
-2.6540177,-4.7772326,-2.0872803,-0.45367825,-0.81662101,-0.35680005,0
-1.9859034,3.0891826,4.5536399,-0.33947065,0.52806538,0.7784,0
-1.228002,0.57306755,-5.6908789,-0.20991486,0.097960263,-0.97279984,0
1.3975892,4.2925959,-3.7206001,0.23890415,0.73377711,-0.63600004,0
4.4934702,-3.5947759,1.0530002,0.76811457,-0.61449164,0.18000004,0
-2.2850671,0.91402733,5.3071198,-0.39060977,0.15624399,0.90719998,0
5.6322975,-1.5360813,0.37440047,0.9627859,-0.26257801,0.064000078,0
-0.65936548,-5.4067955,-2.1340799,-0.11271205,-0.92423856,-0.36480001,0
5.3116307,-0.39345437,2.4195604,0.90797108,-0.067257158,0.41360009,0
-1.7584785,-5.0800486,2.3072402,-0.30059463,-0.86838436,0.39440006,0
2.2577298,-1.8916115,-5.0544,0.38593671,-0.3233524,-0.86400002,0
2.5448189,-5.2486882,-0.44459987,0.43501177,-0.89721167,-0.075999975,0
-1.5137321,-3.8288519,-4.1558399,-0.25875762,-0.6545046,-0.71039999,0
-1.9002416,4.7506037,-2.8360791,-0.32482764,0.812069,-0.48479986,0
-3.7080812,-3.9032433,2.2885203,-0.63386005,-0.66722107,0.39120007,0
5.6322975,-1.5360813,0.37440047,0.9627859,-0.26257801,0.064000078,0
-1.6523715,-2.447958,-5.0497198,-0.28245667,-0.41845438,-0.86320001,0
3.659353,-3.4560554,2.9811599,0.62553042,-0.59077871,0.50959998,0
-2.0191257,2.4678206,4.9046397,-0.3451497,0.4218497,0.83839995,0
-3.2626014,4.712646,1.1700001,-0.55770963,0.80558056,0.20000002,0
-0.17973864,-5.7516418,1.0530002,-0.030724555,-0.98318666,0.18000004,0
5.3186588,-2.4175723,-0.29951957,0.90917248,-0.41326022,-0.051199928,0
-2.9461265,3.0381927,-4.0388393,-0.50361139,0.51934922,-0.69039989,0
1.2645355,4.5312524,-3.4772403,0.21615992,0.77457309,-0.59440005,0
-0.74504644,5.5878496,1.5631196,-0.12735836,0.95518798,0.26719993,0
4.210362,-3.8442433,1.3103994,0.71972001,-0.65713561,0.2239999,0
4.9254594,-0.20522727,3.1496398,0.84195888,-0.035081584,0.53839999,0
4.1064105,1.9029707,-3.7065609,0.70195055,0.32529414,-0.63360018,0
1.3913066,-0.69565332,5.6394,0.23783019,-0.1189151,0.96400005,0
2.1244471,5.0214195,2.1200399,0.36315337,0.85836232,0.3624,0
5.5878496,0.74504697,1.5631195,0.95518798,0.12735847,0.26719993,0
-1.6228201,5.2741647,-1.9421995,-0.27740514,0.90156662,-0.33199993,0
4.7772326,2.6540177,-2.0872803,0.81662101,0.45367825,-0.35680005,0
3.2008424,-2.987453,3.8797204,0.54715258,-0.51067573,0.66320008,0
4.4584899,-0.21230887,3.7814403,0.76213503,-0.036292113,0.64640003,0
2.0898705,4.7944083,-2.6207998,0.35724282,0.81955701,-0.44799998,0
-2.936341,5.0570316,-0.16380018,-0.50193864,0.86444986,-0.028000031,0
-1.9276263,-5.0118279,-2.3212795,-0.32950875,-0.85672271,-0.39679992,0
-2.7492678,-3.5951962,3.7065601,-0.46996033,-0.61456347,0.63360006,0
-0.86228925,-5.6048799,-1.4367595,-0.14739987,-0.95809913,-0.24559991,0
-4.8452692,2.7687252,-1.7549995,-0.82825124,0.47328639,-0.29999995,0
1.008103,-4.4356523,-3.6784801,0.1723253,-0.75823116,-0.62880003,0
-2.3336971,3.8187768,3.7673998,-0.39892259,0.65278238,0.64399999,0
0.70017177,0.46678117,5.7891603,0.11968748,0.079791658,0.98960006,0
-0.98839998,5.765667,-0.051480792,-0.16895726,0.98558414,-0.0088001359,0
1.5731689,5.5934911,0.67860043,0.26891777,0.95615232,0.11600008,0
5.0323601,-1.0064722,2.8079998,0.86023253,-0.17204654,0.47999999,0
-1.5137321,3.8288519,-4.1558399,-0.25875762,0.6545046,-0.71039999,0
-1.1525542,1.6135753,5.5036798,-0.1970178,0.27582484,0.94079995,0
-0.8770473,-3.7274516,4.4226003,-0.14992262,-0.63717121,0.75600004,0
-1.3394945,5.6928501,0.14040074,-0.22897342,0.97313678,0.024000127,0
-2.2615728,2.6263428,-4.7127604,-0.38659364,0.44894749,-0.80560011,0
3.1165962,-1.1081231,-4.8250794,0.5327515,-0.18942276,-0.8247999,0
1.3867655,1.1556381,5.5645199,0.23705393,0.19754498,0.95120001,0
-2.2884192,-0.68652588,5.33988,-0.39118278,-0.11735485,0.91280001,0
5.0445862,-0.80713362,2.8501201,0.86232245,-0.13797157,0.48720002,0
0.36671579,-5.6841002,1.3338,0.062686458,-0.97164106,0.228,0
-3.9466858,2.7003639,3.3696001,-0.67464715,0.46160066,0.57600003,0
0.92090273,1.841804,5.4755998,0.15741928,0.31483829,0.93599999,0
-5.0305533,1.0779754,-2.7846005,-0.85992366,0.18426929,-0.4760001,0
0.11104516,4.8859916,-3.2151599,0.018982079,0.83521223,-0.54960001,0
-4.1965795,-0.18246007,-4.0716004,-0.71736401,-0.031189756,-0.6960001,0
0.23390615,0.23390615,5.8406401,0.039983958,0.039983958,0.99840003,0
-1.715716,-3.603004,-4.2775202,-0.2932848,-0.61589813,-0.73120004,0
-2.9708786,4.3572888,2.5318792,-0.50784248,0.74483573,0.43279988,0
5.2742577,0.50231051,-2.4804008,0.90158254,0.085865043,-0.42400014,0
-5.3463097,-1.5079337,-1.8345596,-0.91389912,-0.25776646,-0.31359994,0
-2.1502547,3.6554339,4.0294795,-0.36756492,0.62486053,0.68879992,0
-0.87002677,-3.9151216,4.2588,-0.14872253,-0.66925156,0.72800004,0
2.9447949,-5.0234737,0.56159914,0.50338376,-0.85871345,0.095999852,0
4.6790638,3.5092978,0.11700117,0.79983997,0.59987998,0.020000201,0
4.7825108,1.3664316,-3.0794406,0.81752324,0.23357806,-0.52640009,0
-3.5344627,-0.88361555,4.5770402,-0.60418165,-0.1510454,0.78240007,0
0.92090172,1.8418032,-5.4756002,0.1574191,0.31483817,-0.93600005,0
1.399891,4.9996114,2.6956799,0.23929761,0.85463446,0.46079999,0
5.3706503,1.6959949,-1.5818398,0.91805989,0.28991365,-0.27039996,0
-1.4550803,2.2945499,-5.1807609,-0.24873167,0.39223078,-0.88560015,0
-5.3707519,-1.8870209,-1.3478401,-0.91807723,-0.3225677,-0.23040001,0
-0.9286589,5.5719523,1.5209996,-0.15874511,0.95247048,0.25999993,0
2.0898705,4.7944083,-2.6207998,0.35724282,0.81955701,-0.44799998,0
3.4528129,2.6855206,-3.8843997,0.59022444,0.45906338,-0.66399997,0
4.4927998,-3.59424,-1.0576805,0.76799995,-0.61440003,-0.18080008,0
1.3741039,-5.6681795,0.45396063,0.23488957,-0.96891958,0.077600107,0
-2.3365531,4.8678188,2.2510798,-0.39941078,0.83210582,0.38479996,0
0.23164795,1.6215371,5.6160002,0.03959794,0.27718583,0.96000004,0
-3.6057267,-2.0732927,-4.1137199,-0.61636353,-0.35440901,-0.70319998,0
-0.39345437,-5.3116307,2.4195604,-0.067257158,-0.90797108,0.41360009,0
3.0891826,-1.9859034,4.5536399,0.52806538,-0.33947065,0.7784,0
4.1396179,2.4837708,3.30408,0.707627,0.42457622,0.56480002,0
4.569315,-2.5826559,2.5833597,0.78107947,-0.44147965,0.44159997,0
-3.1875236,0.61037666,-4.8671994,-0.54487586,0.10433789,-0.8319999,0
2.6904101,5.0818853,-1.0763993,0.45989919,0.86869836,-0.18399988,0
5.2287869,2.3903029,-1.0810812,0.89380974,0.40859878,-0.18480019,0
-5.5025334,-0.82538009,-1.8064802,-0.94060403,-0.14109062,-0.30880004,0
-3.0628016,-4.8644495,1.0857607,-0.52355582,-0.83152986,0.18560013,0
0.89543504,-3.1340206,4.8578401,0.15306582,-0.53573,0.83040005,0
-0.62395132,5.24119,-2.5225208,-0.10665835,0.89592993,-0.43120015,0
1.8870209,-5.3707519,-1.3478401,0.3225677,-0.91807723,-0.23040001,0
5.0300746,2.1179266,-2.1060002,0.85984182,0.36203873,-0.36000004,0
4.2892904,0,3.9780002,0.73321205,0,0.68000007,0
-1.9402252,-3.1043606,-4.5630002,-0.33166245,-0.53065991,-0.78000003,0
2.7627065,4.520792,-2.480401,0.47225752,0.77278495,-0.42400017,0
-3.2629299,-4.4145522,2.0217605,-0.55776578,-0.75462431,0.3456001,0
-0.20129432,-1.9726838,-5.5036802,-0.034409285,-0.33721092,-0.94080007,0
-4.5373755,-2.2105162,-2.9577594,-0.77561975,-0.37786603,-0.50559992,0
-4.5021572,3.4855413,-1.3431603,-0.76959956,0.59581906,-0.22960006,0
-4.7593436,0.82771242,3.2994001,-0.81356305,0.1414893,0.56400001,0
-1.9214234,-5.2152925,-1.8251996,-0.32844844,-0.89150298,-0.31199995,0
1.6523727,2.4479597,-5.0497184,0.28245687,0.41845465,-0.86319971,0
-3.4109461,2.7713938,3.8610001,-0.58306772,0.47374254,0.66000003,0
-2.7602084,-4.9683747,1.3852804,-0.47183049,-0.84929484,0.23680007,0
-4.2234244,1.6893694,3.6784804,-0.72195292,0.28878111,0.62880009,0
-4.1365747,4.1365747,0,-0.70710683,0.70710683,0,0
5.3161378,0.19689381,2.4336004,0.90874153,0.033657063,0.41600007,0
5.6599951,-1.4554273,-0.26208082,0.96752053,-0.24879099,-0.04480014,0
-0.53047329,-5.4373522,-2.0919597,-0.090679199,-0.92946196,-0.35759994,0
-3.6183691,4.5622921,-0.56160033,-0.61852467,0.77987903,-0.09600006,0
3.4340937,-2.2013421,-4.1932793,0.58702457,-0.3762978,-0.71679991,0
-4.6297102,-2.8935688,2.1013196,-0.79140347,-0.49462715,0.35919994,0
1.1133579,-5.7258415,-0.44460043,0.19031759,-0.97877634,-0.076000072,0
-0.66375208,-3.5400107,4.6097999,-0.1134619,-0.60513002,0.78799999,0
-4.168879,-0.2718834,-4.0950003,-0.7126289,-0.046475794,-0.70000005,0
-4.8745289,-1.2766625,-2.9718008,-0.83325279,-0.2182329,-0.50800014,0
0.87002736,3.3351045,-4.726799,0.14872263,0.57010335,-0.80799985,0
0.90999275,-2.5024791,5.2088399,0.15555432,-0.42777422,0.89039999,0
-3.1737857,3.4911637,-3.4585197,-0.5425275,0.59678012,-0.59119993,0
5.4609809,0.95567161,-1.867319,0.93350101,0.16336267,-0.31919983,0
-2.1180716,3.1771071,-4.4319592,-0.36206353,0.54309523,-0.75759989,0
1.709885,-3.9897316,-3.9218407,0.29228804,-0.68200541,-0.67040014,0
-4.4498162,0.63568741,3.744,-0.76065236,0.10866452,0.63999999,0
-4.6804395,-1.4487073,-3.1964405,-0.80007511,-0.24764228,-0.54640007,0
0.92918921,5.73,-0.72540015,0.15883577,0.97948718,-0.12400003,0
-4.8182817,2.9650972,1.4882398,-0.8236379,0.50685424,0.25439996,0
0.46159089,1.8463649,5.5317602,0.078904428,0.31561792,0.94560003,0
4.1638851,2.2901371,3.41172,0.71177524,0.39147642,0.58320004,0
-0.17150764,5.831265,0.43524083,-0.029317547,0.99679744,0.074400142,0
-2.8382339,-4.7303896,-1.94688,-0.48516822,-0.8086136,-0.3328,0
0.93281263,-0.23320282,5.7704396,0.15945515,-0.039863728,0.98639995,0
4.0540361,-2.8153026,-3.1402805,0.69299763,-0.48124832,-0.53680009,0
-1.5137321,-3.8288519,-4.1558399,-0.25875762,-0.6545046,-0.71039999,0
-1.2989845,3.8969538,4.1651998,-0.22204864,0.66614598,0.71199995,0
-3.4560554,3.659353,2.9811599,-0.59077871,0.62553042,0.50959998,0
5.1874332,-2.3055258,-1.4133604,0.88674074,-0.39410698,-0.24160007,0
4.985188,-1.4590794,-2.6910009,0.85216892,-0.24941528,-0.46000016,0
0.23013018,-2.0711737,5.4662399,0.039338492,-0.35404679,0.93440002,0
0,2.2927229,5.3819995,0,0.39191845,0.91999996,0
2.9829264,-4.1760969,-2.8079998,0.50990194,-0.71386272,-0.47999999,0
4.3839884,-3.6533237,-1.2870003,0.74939972,-0.6244998,-0.22000006,0
-0.46762571,0,5.8312798,-0.07993602,0,0.99679995,0
2.7236149,-4.669055,2.23704,0.46557522,-0.79812908,0.38240001,0
-5.3289146,-0.1268788,-2.4102006,-0.91092557,-0.021688683,-0.41200012,0
-2.745146,-5.1471491,0.43991971,-0.46925575,-0.87985456,0.075199954,0
1.8238513,-0.81060058,-5.4989991,0.31176946,-0.1385642,-0.93999988,0
-2.0485358,-4.5067792,3.1168799,-0.35017708,-0.77038962,0.53280002,0
-5.7001457,-1.3028907,-0.1825199,-0.97438389,-0.22271636,-0.031199982,0
-3.9897316,1.709885,-3.9218407,-0.68200541,0.29228804,-0.67040014,0
-4.6541605,3.4011173,0.99684024,-0.79558301,0.58138758,0.17040004,0
-2.2033954,4.9252372,-2.2604396,-0.37664878,0.84192091,-0.38639995,0
2.4479597,-1.6523727,-5.0497184,0.41845465,-0.28245687,-0.86319971,0
2.2922451,0.22922425,5.3773198,0.39183679,0.039183632,0.9192,0
0.63680625,1.218238,-5.6862001,0.10885577,0.20824581,-0.97200006,0
-3.7292256,-4.1435847,-1.7737198,-0.63747448,-0.70830512,-0.30319998,0
-4.9501481,2.4750741,1.8954003,-0.84617919,0.42308959,0.32400006,0
-0.2025957,5.0648975,2.92032,-0.034631744,0.86579448,0.49920002,0
-1.9859034,3.0891826,4.5536399,-0.33947065,0.52806538,0.7784,0
1.9159442,-3.927686,-3.8890796,0.32751185,-0.6713993,-0.66479993,0
-4.6787338,-3.4657288,0.56628072,-0.79978359,-0.59243226,0.096800126,0
4.1813512,4.0264869,-0.72539926,0.7147609,0.68828839,-0.12399987,0
-2.261946,1.8095566,5.08248,-0.38665745,0.30932593,0.86879998,0
-2.0975592,5.418694,0.67859989,-0.35855713,0.92627251,0.11599998,0
2.305526,-5.1874328,-1.4133608,0.39410701,-0.88674068,-0.24160014,0
0,2.2817042,-5.3866801,0,0.39003491,-0.92080003,0
-3.4217746,0.50962597,-4.7174397,-0.58491874,0.087115549,-0.80639994,0
-3.7198019,-1.0940597,4.3804803,-0.6358636,-0.18701875,0.74880004,0
-3.7198019,-1.0940597,4.3804803,-0.6358636,-0.18701875,0.74880004,0
-2.2662899,4.3265524,3.2198403,-0.3874,0.73958164,0.55040008,0
2.9036527,-3.6295662,-3.552119,0.49635088,-0.62043869,-0.60719985,0
-2.8047531,5.0836153,0.71603948,-0.47944498,0.86899406,0.12239991,0
-1.4362186,-4.7190042,3.1449602,-0.24550746,-0.80666739,0.53760004,0
3.3298795,1.1099596,-4.6799989,0.56921017,0.18973669,-0.79999983,0
-2.2519019,-5.3699203,0.56159997,-0.38494051,-0.91793507,0.095999993,0
-0.66375202,3.5400114,4.6097994,-0.11346188,0.60513014,0.78799993,0
-0.47028762,5.8002138,-0.59904015,-0.080391049,0.99148953,-0.10240003,0
2.9780538,4.0089192,-3.0466805,0.50906903,0.68528533,-0.52080011,0
1.3050405,3.1900988,-4.7268,0.22308384,0.54531604,-0.80800003,0
-0.92829287,1.1603667,5.6581197,-0.15868254,0.19835328,0.96719998,0
4.8896885,-3.2035887,0.22463946,0.83584422,-0.54762203,0.038399909,0
0.30358711,-5.7681603,-0.9266398,0.051895235,-0.98601031,-0.15839997,0
3.9832268,3.3857434,2.6254799,0.68089348,0.57875955,0.4488,0
4.6217461,-0.21007915,3.5801995,0.7900421,-0.035910968,0.61199993,0
-3.4825237,1.958919,4.27284,-0.59530318,0.33485797,0.73040003,0
-3.6936677,4.5331373,0.17316051,-0.63139617,0.77489531,0.029600088,0
3.8713756,-2.7959933,-3.3789601,0.66177362,-0.47794759,-0.5776,0
4.1802912,-0.83605826,-4.0060797,0.71457964,-0.14291593,-0.68479991,0
4.6045113,-0.83718395,-3.51,0.78709596,-0.14310837,-0.60000002,0
4.8635988,3.2423987,-0.2340001,0.83138442,0.5542562,-0.040000018,0
2.6030853,5.2061715,0.58499998,0.44497186,0.88994384,0.1,0
-5.1540546,2.3929539,1.3899601,-0.88103497,0.40905195,0.23760001,0
4.3341146,-1.0835288,-3.7767601,0.74087429,-0.18521859,-0.64560002,0
3.2154839,4.0193543,2.7799199,0.54965538,0.68706912,0.4752,0
-2.210526,-2.8736837,4.5910802,-0.3778677,-0.49122798,0.78480005,0
-1.8870209,-5.3707519,-1.3478401,-0.3225677,-0.91807723,-0.23040001,0
-2.4576018,4.3008022,3.1122003,-0.42010286,0.7351799,0.53200006,0
3.2428317,-4.7168455,-1.2074404,0.55433023,-0.80629838,-0.20640007,0
4.8511534,-0.33076048,-3.2526,0.82925701,-0.056540255,-0.55599999,0
-1.6228201,5.2741647,-1.9421995,-0.27740514,0.90156662,-0.33199993,0
4.6712284,-2.1559517,-2.7845995,0.7985006,-0.36853877,-0.47599992,0
3.5686893,-3.0438826,-3.4959598,0.61003238,-0.52032185,-0.59759998,0
0.89543504,3.1340206,4.8578401,0.15306582,0.53573,0.83040005,0
-3.6006205,-3.9864013,-2.3166001,-0.61549067,-0.68143612,-0.39600003,0
4.0159974,-0.52382576,-4.2213593,0.68649524,-0.089542858,-0.72159982,0
-2.5448186,5.2486882,-0.44459942,-0.43501174,0.89721167,-0.075999901,0
4.6297102,2.8935683,2.10132,0.79140347,0.49462706,0.3592,0
0,-5.8488297,0.11700019,0,-0.99979997,0.020000033,0
0.90999275,-2.5024791,5.2088399,0.15555432,-0.42777422,0.89039999,0
2.610081,3.045094,4.2588,0.44616768,0.52052891,0.72800004,0
-5.7258415,1.1133579,-0.44460043,-0.97877634,0.19031759,-0.076000072,0
3.1127019,0.12969577,-4.9514408,0.53208578,0.022170218,-0.84640014,0
-2.3441145,5.3579764,0.14040039,-0.40070334,0.91589344,0.024000067,0
1.7508947,2.9911118,-4.7127609,0.29929823,0.51130116,-0.80560017,0
3.1127017,-0.12969597,-4.9514408,0.53208578,-0.022170251,-0.84640014,0
2.7166584,-0.90555257,5.1012001,0.46438605,-0.15479532,0.87200004,0
-4.4061894,-1.4687296,3.5567999,-0.75319481,-0.2510649,0.60799998,0
5.2633147,1.1696256,2.2698004,0.89971191,0.19993602,0.38800007,0
-3.1202924,-1.6344389,-4.6706405,-0.53338331,-0.27939126,-0.7984001,0
2.7147346,-4.653831,-2.27916,0.46405721,-0.79552668,-0.38960001,0
0.11251356,-0.31106687,-5.8406401,0.019233087,-0.053173825,-0.99840003,0
-2.6370633,-1.198665,-5.0824795,-0.45078006,-0.20490001,-0.86879992,0
-3.639051,1.5233237,-4.3196402,-0.62206,0.2603972,-0.73840004,0
-0.82771176,4.7593441,3.2993996,-0.14148919,0.81356311,0.56399995,0
5.2206712,1.5468653,2.1387606,0.89242244,0.26442143,0.36560011,0
4.225913,3.9240623,-0.98279899,0.72237831,0.67077988,-0.16799983,0
-4.7506027,1.9002415,-2.8360806,-0.81206888,0.32482761,-0.4848001,0
-4.9669771,-1.7384418,-2.55528,-0.84905595,-0.29716954,-0.4368,0
4.6663141,3.0193803,-1.8251997,0.79766053,0.51613343,-0.31199995,0
1.0553377,-4.4324174,3.6691198,0.1803996,-0.75767815,0.62719995,0
-5.2388625,-2.3484554,1.1231995,-0.89553207,-0.40144539,0.19199991,0
4.6228929,0,3.5848794,0.79023808,0,0.61279988,0
3.639051,-1.5233237,-4.3196402,0.62206,-0.2603972,-0.73840004,0
-2.8758209,-4.8888955,-1.4320799,-0.49159333,-0.83570868,-0.24479999,0
-0.93299979,0,5.7751198,-0.15948714,0,0.98719996,0
4.8635988,-3.2423987,-0.2340001,0.83138442,-0.5542562,-0.040000018,0
-4.3787894,-3.8735447,0.21060047,-0.74851102,-0.66214442,0.03600008,0
-2.7492678,-3.5951962,3.7065601,-0.46996033,-0.61456347,0.63360006,0
0.30358711,5.7681603,-0.9266398,0.051895235,0.98601031,-0.15839997,0
-3.0612636,2.4052789,4.3664398,-0.5232929,0.4111588,0.7464,0
-0.1871413,-5.6142449,1.6333196,-0.031989966,-0.95969999,0.27919993,0
-0.23093775,1.8475033,5.5458002,-0.03947654,0.31581253,0.94800007,0
1.218238,0.63680625,-5.6862001,0.20824581,0.10885577,-0.97200006,0
-5.0694098,-1.3600857,-2.58336,-0.86656582,-0.2324933,-0.44159999,0
1.5813274,-2.4849436,5.0544,0.2703124,-0.4247767,0.86400002,0
2.5487547,1.8298751,-4.9373984,0.43568456,0.31279916,-0.84399974,0
1.7031273,-5.2986197,1.8018001,0.29113287,-0.905747,0.30800003,0
5.485311,-1.8284371,-0.88920051,0.93766004,-0.31255335,-0.15200008,0
2.1439023,0.63860911,-5.4054008,0.36647907,0.10916396,-0.9240002,0
-2.9367511,-0.22590372,5.0544,-0.50200874,-0.03861602,0.86400002,0
2.7166584,0.90555328,5.1011996,0.46438605,0.15479544,0.87199998,0
-0.93224829,-0.46612448,5.7564001,-0.15935868,-0.0796794,0.98400003,0
-5.6845531,-0.43727335,-1.3103994,-0.97171849,-0.074747585,-0.2239999,0
4.4145527,3.2629302,2.0217593,0.75462443,0.55776584,0.34559989,0
-1.27571,-4.2523661,3.8095202,-0.21807009,-0.72690022,0.65120006,0
0.61037666,-3.1875236,-4.8671994,0.10433789,-0.54487586,-0.8319999,0
5.6450849,-0.91049778,1.2355199,0.96497178,-0.15564065,0.21119998,0
-1.8298745,2.5487537,-4.9373994,-0.31279907,0.43568441,-0.84399992,0
-3.7216859,4.4305782,0.86111981,-0.63618565,0.7573638,0.14719997,0
0.43972036,3.737627,4.4787598,0.075165875,0.63891059,0.76559997,0
-4.3572888,2.9708781,2.5318804,-0.74483573,0.50784242,0.43280008,0
-1.614702,-4.8441052,2.8547997,-0.27601743,-0.82805216,0.48799998,0
-5.8002138,0.47028714,-0.59904009,-0.99148953,0.080390967,-0.10240002,0
-4.3254142,3.7847369,1.0904402,-0.73938704,0.6469636,0.18640003,0
-1.0835288,-4.3341146,-3.7767601,-0.18521859,-0.74087429,-0.64560002,0
-4.4174089,1.8316089,-3.3696001,-0.75511265,0.31309554,-0.57600003,0
-4.2485995,2.6410215,-3.0326405,-0.72625637,0.45145667,-0.51840007,0
-1.2669151,2.9339085,-4.8999596,-0.21656668,0.50152284,-0.83759993,0
-0.35109377,5.7930441,0.73476046,-0.060016029,0.99026394,0.12560008,0
1.8284371,-5.485311,-0.88920051,0.31255335,-0.93766004,-0.15200008,0
-2.921587,-1.1236876,4.94208,-0.49941659,-0.19208336,0.8448,0
-5.5469546,-1.8489853,0.18720037,-0.94819736,-0.31606588,0.032000065,0
-0.11250851,0.31105298,-5.840641,-0.019232225,0.053171448,-0.99840021,0
-4.6541605,3.4011173,0.99684024,-0.79558301,0.58138758,0.17040004,0
5.6160002,0,1.6379997,0.96000004,0,0.27999994,0
-1.2053977,5.3573227,-2.0170791,-0.2060509,0.91578168,-0.34479985,0
-0.35911205,5.7457895,1.0389602,-0.061386678,0.98218626,0.17760004,0
