-4.105516,4.2575722,-1.2729188,-0.67859763,0.70373094,-0.21039979,0
1.6908716,-4.8612566,3.1798804,0.2794829,-0.80351347,0.52560008,0
-4.6109176,-0.21956728,3.9107199,-0.76213509,-0.036292113,0.64639997,0
-4.9130173,-1.9652069,-2.9330404,-0.81206894,-0.32482758,-0.48480004,0
2.3525088,-5.4891877,-0.96799946,0.3888444,-0.90730375,-0.15999991,0
5.2299218,-3.0367289,-0.1694002,0.86444986,-0.50193864,-0.028000033,0
5.0575199,0,-3.32024,0.83595365,0,-0.54879999,0
-5.7429004,1.3601602,-1.3309996,-0.94923967,0.22481987,-0.21999992,0
-5.6893435,0.78473741,1.9021194,-0.94038731,0.12970866,0.3143999,0
-0.60845566,4.5634174,-3.9252396,-0.10057118,0.75428385,-0.6487999,0
3.4620378,0.23080234,4.9561605,0.57223761,0.038149145,0.81920004,0
-2.5945971,0.47174442,5.4450002,-0.42885903,0.077974282,0.89999998,0
-1.3496573,-3.2991621,-4.8884001,-0.22308384,-0.54531604,-0.80799997,0
2.1416864,1.2748133,-5.5127606,0.35399774,0.21071294,-0.91120011,0
5.5976858,1.119537,-2.0037589,0.92523736,0.18504745,-0.33119982,0
2.897541,-1.8834016,-4.9658389,0.47893238,-0.31130606,-0.82079977,0
-1.8325652,-3.2069883,4.7916002,-0.30290332,-0.53008068,0.792,0
-5.0619645,1.0545762,3.1411598,-0.83668834,0.1743101,0.51919997,0
-0.48274022,-0.72411001,5.9870801,-0.079791769,-0.1196876,0.9896,0
-5.6651058,-0.27634677,-2.1053998,-0.9363811,-0.045677152,-0.34799996,0
-0.80480939,5.9555883,-0.69696027,-0.13302635,0.98439473,-0.11520004,0
-5.4776058,1.8739178,-1.7569199,-0.90538937,0.30973849,-0.29039997,0
-2.7702396,-2.0776796,4.961,-0.45789084,-0.34341812,0.81999999,0
2.1626194,5.3082466,1.9360005,0.35745773,0.87739611,0.32000005,0
-0.9365117,-2.8095357,5.2756,-0.15479532,-0.46438605,0.87199998,0
-3.9220135,4.5756817,-0.53239948,-0.64826667,0.756311,-0.08799991,0
2.3690307,4.1996446,-3.6542001,0.39157534,0.69415617,-0.60400003,0
-0.34206855,5.017005,-3.3638,-0.056540255,0.82925701,-0.55599999,0
-2.5521908,-2.0881557,5.07232,-0.4218497,-0.3451497,0.83839995,0
5.5004935,2.5002241,-0.30975914,0.90917248,0.41326016,-0.051199857,0
1.0677487,-0.44102666,-5.9386792,0.17648737,-0.072896965,-0.98159987,0
3.2069883,1.8325646,4.7916007,0.53008068,0.30290323,0.79200011,0
-4.0059738,4.528492,0.21780048,-0.66214442,0.74851108,0.03600008,0
-2.4339478,-3.761555,4.0656004,-0.40230539,-0.62174457,0.67200005,0
-4.0555277,0.67592061,4.4382801,-0.67033511,0.11172241,0.73360002,0
2.5686862,-4.2811432,3.4170403,0.42457622,-0.70762694,0.56480002,0
5.3908515,-1.1833576,-2.4780812,0.8910498,-0.19559629,-0.4096002,0
2.321183,-2.3211825,5.0819998,0.3836666,-0.38366652,0.83999991,0
-5.3500242,-2.756073,-0.61951929,-0.88430148,-0.45554924,-0.10239988,0
-3.5472214,-4.8985443,-0.15488078,-0.5863176,-0.80967671,-0.025600128,0
3.9493334,-2.4134817,3.8961999,0.65278238,-0.39892259,0.64399999,0
1.1019906,-5.8772831,0.91960025,0.1821472,-0.9714517,0.15200004,0
-3.2487903,4.4670873,2.4683995,-0.53699011,0.73836154,0.4079999,0
-2.708446,-4.5551138,-2.9185202,-0.44767702,-0.75291133,-0.48240003,0
5.6737399,0.97823113,1.8585594,0.93780822,0.16169108,0.3071999,0
-1.8937331,4.8395405,3.0975997,-0.31301373,0.79992402,0.51199996,0
-0.75553614,5.8554063,1.3213201,-0.12488201,0.96783572,0.2184,0
1.7471257,-4.367815,3.8042405,0.28878111,-0.72195286,0.62880003,0
3.3197172,-2.6742165,-4.2930813,0.54871356,-0.44201925,-0.70960021,0
2.1626194,5.3082466,1.9360005,0.35745773,0.87739611,0.32000005,0
2.260648,-5.4632325,1.2825993,0.3736608,-0.90301359,0.21199988,0
-5.1755199,-2.9798448,-0.96799946,-0.85545784,-0.49253631,-0.15999991,0
-4.1865973,-4.3610387,0.23715979,-0.69199955,-0.72083282,0.039199963,0
3.853754,-0.16398962,-4.6609216,0.63698411,-0.027105721,-0.77040023,0
-5.6525898,2.1197212,0.39688018,-0.93431234,0.35036713,0.06560003,0
5.4745407,-0.81104296,2.4442005,0.90488273,-0.13405669,0.40400007,0
-1.6016155,-2.9246895,-5.0481205,-0.26472983,-0.48341975,-0.83440006,0
0.67592061,4.0555277,4.4382801,0.11172241,0.67033511,0.73360002,0
1.956282,2.3349173,-5.2272005,0.3233524,0.38593674,-0.86400008,0
-5.8496423,-1.2647877,-0.88572031,-0.966883,-0.20905581,-0.14640005,0
-4.7434425,-3.3060355,-1.7811192,-0.78404009,-0.54645211,-0.29439986,0
-1.1401037,1.2071686,-5.8176808,-0.18844688,0.19953199,-0.96160012,0
-3.789331,2.3318961,-4.0994797,-0.62633568,0.38543734,-0.67759991,0
-2.1567888,-5.6408329,-0.36300007,-0.35649401,-0.93236905,-0.06000001,0
5.5535073,2.3288901,0.5808,0.91793507,0.38494051,0.095999993,0
-1.957294,-4.3495417,3.7219603,-0.32351965,-0.71893251,0.61520004,0
2.4287446,-5.4179692,1.1615995,0.40144536,-0.89553207,0.19199991,0
5.0936217,-2.2787254,-2.3377197,0.84192091,-0.37664881,-0.38639992,0
5.5004935,2.5002241,-0.30975914,0.90917248,0.41326016,-0.051199857,0
5.4632325,2.260648,1.2825993,0.90301359,0.3736608,0.21199988,0
4.6464005,-3.4848001,1.6939996,0.76800007,-0.57599998,0.27999994,0
5.5673366,-2.3619001,-0.16939928,0.92022091,-0.39039668,-0.02799988,0
-2.8481045,-3.797473,-3.7510002,-0.47076106,-0.62768143,-0.62,0
1.1148293,5.2025385,-2.8798006,0.18426929,0.85992366,-0.47600007,0
-1.8450117,5.1250324,2.6329601,-0.30496061,0.84711277,0.43520001,0
-4.2491093,0.44727424,4.2834001,-0.70233208,0.073929623,0.708,0
0,4.0639405,4.4818401,0,0.67172569,0.74080002,0
-3.2822912,3.6105201,-3.5767598,-0.54252744,0.59678018,-0.59119993,0
1.0351048,-1.1605722,-5.8467197,0.17109169,-0.1918301,-0.96639991,0
3.4559426,-0.69118869,4.9174404,0.57123017,-0.11424606,0.81280005,0
-3.661037,0.68644381,4.7674003,-0.60513008,0.11346179,0.78800005,0
-3.7115576,3.9177551,2.7346001,-0.61348057,0.6475628,0.45199999,0
4.3870349,2.9246898,2.9669206,0.72512972,0.48341978,0.49040008,0
-4.2281604,-1.1126741,4.1817603,-0.69886947,-0.18391307,0.69120002,0
-0.33532521,-6.035851,-0.24200052,-0.055425651,-0.99766129,-0.040000085,0
-2.6763721,-1.0705489,-5.31916,-0.44237551,-0.17695022,-0.87919992,0
0,-4.7468414,-3.7509997,0,-0.78460187,-0.61999995,0
-0.20952205,-5.2380567,3.0201602,-0.034631744,-0.86579448,0.49920002,0
1.7457241,-3.4914486,-4.6222005,0.28854942,-0.57709891,-0.76400006,0
2.6171827,-4.8417883,-2.51196,0.43259218,-0.80029553,-0.4152,0
-1.7128062,1.868516,-5.4934001,-0.28310847,0.30884561,-0.90799999,0
2.1349781,4.4946904,-3.4412391,0.35288891,0.74292403,-0.56879985,0
-5.7100825,0.39379838,1.9601995,-0.94381529,0.065090641,0.32399991,0
0.23487696,-2.8185263,5.3482003,0.038822636,-0.46587211,0.884,0
4.7238002,-1.5745999,-3.4364007,0.78079337,-0.26026443,-0.56800008,0
-4.56917,1.381377,-3.7171204,-0.75523466,0.22832677,-0.61440003,0
2.3691299,-0.47382614,5.5466399,0.3915917,-0.078318365,0.91679996,0
-3.4437215,1.147907,-4.8399992,-0.56921017,0.18973669,-0.79999983,0
5.7624464,0.96040797,1.5729996,0.95247042,0.15874511,0.25999993,0
-3.7237189,4.1226888,-2.3958001,-0.61549073,0.68143612,-0.396,0
-1.3496573,3.2991621,-4.8884001,-0.22308384,0.54531604,-0.80799997,0
-1.8023709,-1.0059744,-5.6870008,-0.29791254,-0.16627675,-0.94000012,0
2.7340131,-5.0774531,1.8295205,0.45190299,-0.83924842,0.30240005,0
3.5275605,-2.8661423,3.9929998,0.58306783,-0.47374251,0.65999997,0
-4.1398811,3.9427435,1.9795601,-0.68427783,0.65169311,0.32720003,0
4.7653112,-3.4310243,1.4568399,0.7876547,-0.56711143,0.24079998,0
2.2237685,3.780406,4.1672397,0.36756504,0.62486047,0.68879992,0
3.7844594,3.5742118,3.0830798,0.62553048,0.59077877,0.50959992,0
-4.0794048,3.6714649,2.5458403,-0.67428178,0.60685366,0.42080003,0
1.119537,5.5976858,-2.0037589,0.18504745,0.92523736,-0.33119982,0
-2.1782913,-2.3103089,-5.1497593,-0.36004815,-0.38186923,-0.85119987,0
-5.3060398,-0.12339615,-2.9040003,-0.87703133,-0.020396058,-0.48000002,0
-4.9162207,-3.511586,0.31944022,-0.81259841,-0.58042741,0.052800033,0
-4.2281604,1.1126741,4.1817603,-0.69886947,0.18391307,0.69120002,0
-4.528492,4.0059738,0.21779983,-0.74851108,0.66214442,0.035999969,0
1.250351,5.8945122,0.54208058,0.20666957,0.97429949,0.089600094,0
0.16269873,-6.0198588,-0.58080018,0.026892351,-0.99501795,-0.096000023,0
1.5051852,-5.8534994,-0.27103958,0.24879093,-0.96752053,-0.044799928,0
-2.4747646,5.3302617,1.4374809,-0.40905198,0.88103497,0.23760015,0
0.23706098,2.3706126,5.5611601,0.039183632,0.39183679,0.9192,0
-0.56795293,-5.8688469,1.3551999,-0.093876511,-0.97005731,0.22399998,0
4.8985443,-3.5472214,-0.15488078,0.80967671,-0.5863176,-0.025600128,0
-1.3689588,5.4758353,-2.177999,-0.22627418,0.90509671,-0.35999984,0
1.7107053,-4.7044401,3.3976803,0.28276119,-0.77759337,0.56160003,0
-5.390852,-1.1833578,-2.47808,-0.89104986,-0.19559634,-0.40959999,0
-3.2353873,-3.6667719,3.5622401,-0.53477472,-0.60607797,0.58880001,0
1.6966254,4.4536409,-3.7268012,0.28043392,0.736139,-0.61600018,0
-2.6278131,-2.5505242,-4.8157997,-0.43434927,-0.42157423,-0.79599994,0
1.5026075,-4.7224813,3.4702802,0.24836487,-0.78057539,0.57359999,0
6.0126362,-0.53052676,0.41140088,0.99382412,-0.087690368,0.068000145,0
1.2195262,5.7927504,-1.2487197,0.20157456,0.95747936,-0.20639995,0
3.413744,1.8206633,4.6512408,0.56425518,0.30093607,0.76880014,0
3.749198,3.749198,2.9136798,0.6197021,0.6197021,0.48159996,0
4.1194057,3.5014954,2.71524,0.68089348,0.57875955,0.4488,0
4.4150105,1.9382973,-3.6542013,0.72975379,0.3203797,-0.60400021,0
-2.141983,-0.23799789,5.65312,-0.35404676,-0.039338492,0.93439996,0
-0.48351604,0.24175766,6.0258002,-0.079920001,0.039959941,0.99599999,0
-4.556829,1.5189427,3.6784,-0.75319487,0.2510649,0.60799998,0
4.4393516,1.4453701,-3.8478003,0.73377711,0.23890413,-0.63600004,0
-1.6493679,2.1206155,5.4208007,-0.27262279,0.35051495,0.89600009,0
1.4176162,2.1264236,5.4837203,0.23431672,0.35147497,0.90640002,0
5.0864577,3.0141978,1.2826002,0.84073681,0.49821451,0.21200003,0
-1.6919938,-5.6912513,-1.1616004,-0.27966839,-0.94070268,-0.19200005,0
-3.297241,1.5336003,-4.8351603,-0.54499847,0.25348765,-0.7992,0
5.5290895,-1.5594871,-1.8972796,0.91389906,-0.25776646,-0.31359991,0
-2.7801743,5.1213741,-1.6262408,-0.45953292,0.84650809,-0.26880014,0
3.9141297,4.4732919,1.1277202,0.6469636,0.73938704,0.18640003,0
0.62434161,-5.931242,-1.0164,0.10319696,-0.98037052,-0.168,0
-6.0392942,0.34510222,0.10164024,-0.9982304,0.057041686,0.016800039,0
-5.9968519,0.70551234,0.37751982,-0.99121517,0.1166136,0.062399969,0
-4.5338688,-3.7782238,-1.3310004,-0.74939978,-0.6244998,-0.22000007,0
3.6675839,-0.22922374,4.8061199,0.6062122,-0.037888221,0.79439998,0
2.7975035,1.3987517,5.1788001,0.46239725,0.23119862,0.85600001,0
1.1552811,3.2347858,4.9803605,0.19095555,0.5346753,0.82320005,0
5.6055474,-2.0242255,-1.0406004,0.92653674,-0.33458272,-0.17200007,0
-1.2453388,5.1889114,2.85076,-0.20584112,0.85767126,0.47119999,0
-3.9712901,4.5128298,0.68244004,-0.65641159,0.74592227,0.1128,0
2.5988321,-4.9977541,2.2070401,0.42955902,-0.82607502,0.36480001,0
-4.0143938,4.0143938,-2.0908813,-0.66353613,0.66353613,-0.34560022,0
4.9709959,-3.3139975,0.95348042,0.82165217,-0.54776818,0.15760006,0
-2.5880339,-0.94110292,5.38692,-0.42777419,-0.15555419,0.89039999,0
0.59265965,-1.269985,-5.8854394,0.097960271,-0.20991486,-0.9727999,0
2.482538,-4.7581978,2.7926803,0.41033685,-0.78647894,0.46160004,0
3.0778749,-5.0784936,-1.1567593,0.50873965,-0.83942038,-0.19119987,0
-0.88801783,-5.3281078,-2.7249207,-0.14677981,-0.88067895,-0.45040011,0
5.0560379,-2.9741399,-1.4810389,0.83570874,-0.49159336,-0.24479981,0
-0.77051812,5.7788873,1.6165597,-0.12735836,0.95518798,0.26719996,0
1.4670469,5.0298758,3.0249999,0.24248707,0.83138442,0.49999997,0
-3.297241,1.5336003,-4.8351603,-0.54499847,0.25348765,-0.7992,0
-1.4693199,-2.5713098,-5.2756009,-0.24286279,-0.42500988,-0.8720001,0
5.6565046,-1.3053473,-1.7036796,0.93495941,-0.21575989,-0.28159991,0
-2.0338311,-4.7854853,-3.0927601,-0.33617043,-0.79098928,-0.51120001,0
4.5761638,2.7040963,2.8894796,0.75639069,0.44695807,0.47759992,0
-4.7085094,-1.8374671,-3.3250799,-0.77826601,-0.30371356,-0.54959995,0
4.7653112,-3.4310243,1.4568399,0.7876547,-0.56711143,0.24079998,0
-1.6279607,5.6238637,-1.5246,-0.26908439,0.92956424,-0.252,0
-0.17637788,-2.1606295,-5.6482806,-0.029153368,-0.35712883,-0.93360007,0
-5.2240062,2.6866319,-1.44716,-0.86347204,0.44407138,-0.2392,0
4.5397935,1.7294449,3.6058006,0.75037909,0.28585863,0.59600008,0
-1.9456558,-5.4478369,1.77144,-0.321596,-0.90046889,0.29280001,0
-0.11484158,5.0530343,-3.3250799,-0.018982079,0.83521223,-0.54959995,0
-4.5338688,3.7782238,-1.3310004,-0.74939978,0.6244998,-0.22000007,0
-1.6752849,0.41882125,-5.7983198,-0.27690658,0.069226652,-0.95839995,0
-2.1904843,3.2857263,-4.5834794,-0.3620635,0.54309523,-0.75759989,0
0.18981177,-5.8841705,1.3939199,0.031373844,-0.97259015,0.23039998,0
0.70999616,2.3666568,5.52244,0.11735474,0.39118293,0.91279995,0
-0.54173434,4.1532965,-4.3656793,-0.089542866,0.68649524,-0.72159988,0
2.0908804,4.6464005,-3.2621593,0.34560007,0.76800007,-0.53919989,0
1.5463778,-5.6056209,1.6697996,0.25559962,-0.9265489,0.27599993,0
2.5316479,3.0379775,-4.5786409,0.4184542,0.50214499,-0.75680012,0
-4.5684319,1.8942281,-3.4848003,-0.75511271,0.31309554,-0.57600003,0
5.8874779,1.3852887,0.145201,0.97313678,0.22897333,0.024000164,0
2.5698991,1.6353899,5.2272,0.4247767,0.27031237,0.86399996,0
1.1978375,-1.1978374,-5.8080006,0.19798966,-0.19798964,-0.96000004,0
-5.8688469,0.56795239,1.3552001,-0.97005731,0.093876429,0.22400001,0
-3.5387585,-0.52704912,-4.8787203,-0.58491874,-0.087115556,-0.8064,0
-1.9047725,0.95238662,5.6627998,-0.31483841,0.15741926,0.93599993,0
-6.0274034,-0.51663464,0.077440202,-0.99626499,-0.085394152,0.012800033,0
2.8389976,-5.3231201,0.45495927,0.46925578,-0.87985456,0.07519988,0
-2.1717744,-3.9486806,-4.0365605,-0.35897097,-0.65267444,-0.66720009,0
0.44102666,1.0677487,-5.9386792,0.072896965,0.17648737,-0.98159987,0
0.45475358,3.8654094,4.6318798,0.075165875,0.63891059,0.76559997,0
-3.9271705,2.6181135,3.7848799,-0.64911908,0.43274602,0.62559998,0
-2.0670822,-4.9609981,2.7781599,-0.34166646,-0.81999964,0.45919997,0
-0.19353931,-5.8061848,1.6891598,-0.031989966,-0.95969993,0.27919996,0
1.7978759,-5.1367888,-2.6426401,0.29716957,-0.84905601,-0.4368,0
-2.5962353,-0.23602113,5.4595199,-0.42912978,-0.039011758,0.90239996,0
-5.800736,0.38671532,1.6746397,-0.9587993,0.063919887,0.27679995,0
0.78497577,-4.4154897,-4.0607595,0.12974806,-0.72983301,-0.67119992,0
3.4616325,-4.276134,2.5167997,0.57217062,-0.70679897,0.41599995,0
1.5997497,-5.3991561,2.2118807,0.26442143,-0.89242244,0.36560011,0
-5.3611383,0.61859232,2.7346003,-0.88613856,0.10224666,0.45200002,0
-4.4744697,-2.34377,3.3299198,-0.73958176,-0.3874,0.55039996,0
-4.3987269,-2.5466313,-3.2815199,-0.72706228,-0.42093077,-0.54239994,0
1.4870696,5.7623959,1.0890001,0.24579662,0.95246208,0.18000001,0
-4.9977541,2.5988321,2.2070401,-0.82607502,0.42955902,0.36480001,0
-1.2748133,2.1416864,-5.5127606,-0.21071294,0.35399774,-0.91120011,0
4.2188449,-2.7365482,-3.3638005,0.6973297,-0.45232201,-0.55600005,0
3.2517738,0.23226936,5.0965204,0.53748327,0.038391627,0.84240001,0
-0.66044289,-2.2172015,-5.5901999,-0.10916411,-0.36647958,-0.92399997,0
0.48011196,1.4403373,5.8564,0.079357348,0.23807228,0.96799999,0
-4.2188449,2.7365482,-3.3638005,-0.6973297,0.45232201,-0.55600005,0
3.6320469,1.9489033,-4.4286017,0.60033834,0.32213277,-0.73200029,0
-0.17737114,-6.0306249,0.45011991,-0.029317543,-0.99679744,0.074399985,0
-3.8908603,4.5133982,-1.0454407,-0.64311737,0.7460162,-0.17280011,0
-4.3543057,3.9756703,1.3552008,-0.71971995,0.65713555,0.22400013,0
-4.2324967,-1.2505103,-4.1381998,-0.69958621,-0.20669591,-0.68399996,0
-1.1902859,5.554667,2.0812008,-0.19674146,0.91812676,0.34400013,0
-3.0526857,0.92907816,-5.1400805,-0.50457615,0.15356663,-0.84960008,0
5.7847214,-1.626953,0.70180023,0.95615226,-0.26891786,0.11600003,0
-5.4388208,-2.6316876,0.30975986,-0.89897865,-0.43498969,0.051199973,0
-0.2122436,-5.0938516,3.2573199,-0.035081588,-0.84195888,0.53839999,0
2.5125964,0.69497341,-5.4595213,0.41530517,0.11487164,-0.9024002,0
0.71281159,-2.1384368,5.6144004,0.11782009,-0.35346061,0.92800003,0
2.9363406,-3.2205026,-4.1962805,0.48534554,-0.53231448,-0.69360006,0
5.596344,1.4349605,-1.7956398,0.92501551,0.23718354,-0.29679996,0
-2.3666561,-0.70999688,5.5224404,-0.39118281,-0.11735485,0.91280001,0
2.9386399,-0.36732998,-5.2756009,0.48572558,-0.060715698,-0.8720001,0
0.63540494,-5.0832448,3.2186,0.1050256,-0.84020573,0.53200001,0
5.3611383,0.61859232,2.7346003,0.88613856,0.10224666,0.45200002,0
-4.5684323,-1.8942279,-3.4847999,-0.75511277,-0.31309551,-0.57599998,0
2.3318961,3.789331,-4.0994797,0.38543734,0.62633568,-0.67759991,0
4.5133982,3.8908603,-1.0454407,0.7460162,0.64311737,-0.17280011,0
-4.8258467,-3.1226065,-1.8876002,-0.79766059,-0.51613331,-0.31200001,0
-2.5941679,4.1074324,3.6058002,-0.42878807,0.67891443,0.59600002,0
3.5781777,-4.7081285,1.27776,0.5914343,-0.77820301,0.2112,0
-4.8386908,-3.5842154,0.58564073,-0.79978359,-0.59243226,0.096800119,0
-3.0057063,1.6184571,4.9948802,-0.49681094,0.26751357,0.82560003,0
-0.58980519,5.7014503,1.9359995,-0.097488455,0.94238847,0.3199999,0
-5.7365947,-1.9121985,0.19360039,-0.94819742,-0.31606588,0.032000061,0
3.002923,-3.753654,-3.6735592,0.49635088,-0.62043864,-0.60719985,0
-2.1852481,-5.3902783,-1.6649603,-0.36119804,-0.89095509,-0.27520004,0
2.1903343,5.2020431,-2.1780002,0.36203873,0.85984182,-0.36000001,0
-0.22907028,-1.4030553,-5.8806009,-0.037862856,-0.23190996,-0.97200012,0
-2.5555155,-4.2221565,-3.4993198,-0.42239925,-0.69787711,-0.57839996,0
5.2732863,0.36790332,-2.9427204,0.87161756,0.060810465,-0.48640007,0
-4.1882591,3.789377,2.1683199,-0.69227421,0.62634331,0.35839999,0
-2.1700249,0.80196577,-5.5902009,-0.3586818,0.13255632,-0.92400014,0
3.4848006,2.0908806,-4.4818397,0.57600009,0.3456001,-0.7407999,0
-5.7501135,-1.5540847,-1.0599601,-0.95043194,-0.25687349,-0.17520002,0
4.8934484,-0.66728848,-3.4944801,0.80883443,-0.11029562,-0.5776,0
-3.7261837,-1.7743731,-4.4237604,-0.61589813,-0.2932848,-0.73120004,0
1.4670469,-5.0298758,3.0249999,0.24248707,-0.83138442,0.49999997,0
-5.9422274,-0.37138942,1.0744802,-0.98218632,-0.061386678,0.17760003,0
-1.8135474,-2.2971599,-5.2949605,-0.29975989,-0.37969583,-0.87520003,0
0.59990573,5.5991249,2.2118809,0.099157967,0.92547518,0.36560014,0
-3.2927942,3.2927942,-3.8623197,-0.54426348,0.54426348,-0.63839996,0
0,5.8080006,-1.6939992,0,0.96000004,-0.27999985,0
1.4271027,1.6649529,5.6386003,0.23588474,0.27519882,0.93200004,0
-3.5472214,4.8985443,-0.15488078,-0.5863176,0.80967671,-0.025600128,0
2.5698991,-1.6353899,5.2272,0.4247767,-0.27031237,0.86399996,0
4.5839524,1.0914177,3.7945604,0.75767809,0.18039961,0.62720007,0
3.0496218,2.3902442,-4.6464009,0.50406969,0.39508167,-0.76800013,0
-0.92258877,3.2645447,-5.0093989,-0.15249401,0.53959417,-0.82799977,0
0.88801783,-5.3281078,-2.7249207,0.14677981,-0.88067895,-0.45040011,0
-5.7788873,-0.77051812,1.6165597,-0.95518798,-0.12735836,0.26719996,0
-4.7255306,2.6709521,2.6716805,-0.78107941,0.44147968,0.44160005,0
3.1627395,-4.7441087,2.0231194,0.52276683,-0.78415018,0.33439991,0
-2.6181135,3.9271705,3.7848799,-0.43274602,0.64911908,0.62559998,0
3.9493334,-2.4134817,3.8961999,0.65278238,-0.39892259,0.64399999,0
-4.1459765,-3.0798683,-3.1508396,-0.68528533,-0.50906914,-0.52079993,0
4.1532965,-0.54173434,-4.3656793,0.68649524,-0.089542866,-0.72159988,0
4.0283051,2.7218277,-3.6009603,0.6658355,0.44988886,-0.5952,0
-4.6153278,-3.3566022,-2.0085998,-0.76286405,-0.55481029,-0.33199996,0
-4.9852657,0.45320624,-3.39768,-0.82401085,0.074910119,-0.56159997,0
4.828681,2.81673,2.31352,0.79812908,0.46557519,0.38239998,0
2.5416224,4.4478388,3.2186005,0.42010286,0.73517996,0.53200006,0
-0.92016011,-3.4506011,4.8835602,-0.15209258,-0.57034725,0.80720001,0
-4.3301506,3.411634,-2.4925992,-0.71572733,0.56390643,-0.41199985,0
5.7548966,1.8618786,-0.13067929,0.95122254,0.30774853,-0.021599883,0
2.0662317,2.9845576,4.8400006,0.34152588,0.49331531,0.80000007,0
-4.1641445,4.3243036,-0.75019926,-0.68828833,0.7147609,-0.12399987,0
-2.0776796,2.7702396,4.961,-0.34341812,0.45789084,0.81999999,0
-0.71584582,-5.7267652,-1.8150003,-0.11832162,-0.94657272,-0.30000004,0
0.98834419,5.6476812,-1.9311591,0.16336267,0.93350101,-0.31919986,0
-4.3301506,-3.411634,-2.4925992,-0.71572733,-0.56390643,-0.41199985,0
-4.2183537,-4.2183537,-1.006719,-0.69724852,-0.69724852,-0.16639982,0
-4.2520938,-0.22379419,4.2979202,-0.70282543,-0.036990773,0.71040004,0
-1.2256769,4.7912822,-3.4848006,-0.20259121,0.79194742,-0.57600009,0
-2.8117852,3.2804163,-4.2350011,-0.46475786,0.54221755,-0.70000017,0
-2.3690307,4.1996455,-3.6541996,-0.39157531,0.69415629,-0.60399991,0
2.4875109,3.1659222,4.5157204,0.41115883,0.5232929,0.74640006,0
0.21482165,4.9409032,3.4847996,0.035507709,0.81667817,0.57599992,0
-4.084094,4.4392328,0.46464026,-0.67505687,0.7337575,0.076800041,0
0,4.253088,4.3027601,0,0.70298976,0.7112,0
-2.8167305,-0.4694553,5.3336802,-0.46557528,-0.077595912,0.88160002,0
-1.9680295,4.2468009,-3.833281,-0.32529411,0.70195055,-0.63360018,0
2.2572265,3.3858383,4.4770002,0.37309527,0.55964267,0.74000001,0
4.6924996,2.2860897,-3.0588796,0.77561975,0.37786606,-0.50559992,0
-5.3060398,-0.12339615,-2.9040003,-0.87703133,-0.020396058,-0.48000002,0
3.066468,-4.9830098,1.5391198,0.50685418,-0.82363796,0.25439996,0
-5.1250324,-1.8450117,2.6329601,-0.84711277,-0.30496061,0.43520001,0
5.4034872,-1.4859592,-2.2796392,0.89313835,-0.24561308,-0.37679985,0
0,-5.9061074,-1.3116395,0,-0.97621608,-0.21679991,0
4.8386908,-3.5842154,0.58564073,0.79978359,-0.59243226,0.096800119,0
2.63589,4.8662586,2.4441998,0.43568429,0.80434024,0.40399995,0
5.2574143,2.9006426,0.74051899,0.86899406,0.47944504,0.12239983,0
-1.250351,-5.8945122,0.54208058,-0.20666957,-0.97429949,0.089600094,0
-4.3664417,-2.9109612,-3.0104809,-0.72172588,-0.4811506,-0.49760014,0
2.0670829,-4.9609981,2.7781596,0.34166658,-0.81999964,0.45919994,0
5.5148482,0,-2.4877608,0.91154516,0,-0.41120011,0
4.357152,0.094720602,-4.196279,0.72019041,0.015656298,-0.69359982,0
0.1678718,-6.0433908,-0.2274805,0.027747404,-0.99890751,-0.037600081,0
4.2637296,4.2637296,-0.49367952,0.70474875,0.70474875,-0.081599928,0
1.0264341,5.3374557,2.6571603,0.16965851,0.88222408,0.43920004,0
-3.8469748,-1.1314635,4.5302405,-0.6358636,-0.18701875,0.74880004,0
3.6667724,-3.2353873,3.5622396,0.60607803,-0.53477472,0.58879989,0
-5.378283,-0.76832616,-2.6620009,-0.8889724,-0.12699606,-0.44000015,0
-5.7365947,1.9121985,0.19360039,-0.94819742,0.31606588,0.032000061,0
-3.3102736,3.0895884,4.0123601,-0.54715264,0.51067573,0.66320002,0
-2.5698991,-1.6353899,5.2272,-0.4247767,-0.27031237,0.86399996,0
3.0664673,-3.5045345,3.8623204,0.50685406,-0.5792619,0.63840008,0
-4.7106509,-2.4792898,-2.8749597,-0.77861995,-0.40979996,-0.47519994,0
2.2899392,4.7880545,2.9039996,0.37850234,0.79141396,0.4799999,0
5.1705384,1.4477506,2.7878401,0.8546344,0.23929761,0.46079999,0
1.2618207,-5.0472827,3.08792,0.2085654,-0.8342616,0.5104,0
3.0542779,4.9450216,-1.6794788,0.5048393,0.81735891,-0.27759978,0
0.79823375,5.5876327,2.1780007,0.13193946,0.92357564,0.3600001,0
-5.6238637,-1.6279607,-1.5246,-0.92956424,-0.26908439,-0.252,0
-3.8567207,4.2852459,-1.8343599,-0.63747448,0.70830506,-0.30319998,0
3.2191207,4.5604205,-2.3328795,0.53208607,0.75378847,-0.38559991,0
5.3211126,-1.2279493,2.6039202,0.87952274,-0.20296681,0.43040001,0
-0.74746299,-5.8302097,-1.4326396,-0.1235476,-0.96367103,-0.23679993,0
-5.0411797,1.320309,-3.073401,-0.83325279,0.2182329,-0.50800014,0
2.813735,-0.70343375,5.3094802,0.46508014,-0.11627004,0.87760001,0
-3.3603964,3.9904706,3.0637202,-0.55543739,0.6595819,0.50640005,0
1.0017049,4.0978832,-4.3366399,0.16557106,0.67733604,-0.71679997,0
0.44727424,4.2491093,4.2834001,0.073929623,0.70233208,0.708,0
-0.19855808,-3.1769292,-5.1449199,-0.032819517,-0.52511227,-0.85039997,0
-1.2000372,0.96003014,5.8515601,-0.19835326,0.15868266,0.96719998,0
5.7183738,1.334287,1.4568398,0.94518572,0.22054331,0.24079996,0
5.2071605,0.60548395,-3.0201604,0.86068767,0.10007999,-0.49920005,0
1.677736,-1.2905662,-5.6676402,0.27731174,-0.21331672,-0.9368,0
-1.959782,-5.7011833,0.50820011,-0.32393089,-0.94234431,0.084000014,0
3.111062,-3.111062,4.1527205,0.51422513,-0.51422513,0.68640006,0
4.8734136,3.4585521,-0.94380069,0.80552286,0.57166147,-0.15600011,0
2.8167288,-0.41077289,-5.338521,0.46557501,-0.067896344,-0.88240016,0
-2.6842589,3.8199072,-3.8478,-0.44367915,0.63138962,-0.63599998,0
0.56795239,-5.8688469,1.3552001,0.093876429,-0.97005731,0.22400001,0
-2.3211825,-2.3211825,5.0820003,-0.38366652,-0.38366652,0.84000003,0
3.3858383,-2.2572258,4.4770007,0.55964267,-0.37309515,0.74000007,0
-1.1195372,-5.5976853,-2.0037603,-0.18504748,-0.92523724,-0.33120003,0
-2.2068486,2.7217798,-4.9319606,-0.36476836,0.44988096,-0.81520009,0
5.3082466,2.1626194,1.9360005,0.87739611,0.35745773,0.32000005,0
-3.5441558,1.5660223,-4.6464005,-0.58581084,0.25884664,-0.76800007,0
4.8985443,3.5472212,-0.15488017,0.80967671,0.58631754,-0.025600027,0
-4.0978832,1.0017049,-4.3366399,-0.67733604,0.16557106,-0.71679997,0
1.3433944,4.0301833,4.3076,0.22204866,0.66614598,0.71199995,0
1.7471257,-4.367815,3.8042405,0.28878111,-0.72195286,0.62880003,0
4.787991,-2.9924943,2.1731598,0.79140347,-0.49462715,0.35919997,0
-4.7434425,-3.3060355,-1.7811192,-0.78404009,-0.54645211,-0.29439986,0
0.79823375,5.5876327,2.1780007,0.13193946,0.92357564,0.3600001,0
5.9968519,-0.70551193,0.37752092,0.99121517,-0.11661354,0.062400151,0
-5.9482794,-0.18588355,1.0890002,-0.98318666,-0.030724553,0.18000004,0
5.7893844,1.6081628,-0.70664078,0.95692301,0.26581201,-0.11680012,0
1.8745244,5.6235719,1.2099994,0.30983871,0.92951596,0.1999999,0
-3.3932507,-3.8174074,3.2428,-0.56086785,-0.63097638,0.53599995,0
-5.4406424,2.5389662,0.7453599,-0.89927971,0.41966382,0.12319998,0
-3.3744831,4.5654778,2.0908799,-0.55776578,0.75462443,0.34559998,0
1.229569,2.2987592,-5.4595208,0.20323454,0.37996018,-0.90240014,0
5.4525876,-1.0639197,-2.3958013,0.90125412,-0.17585449,-0.39600021,0
4.7512045,-1.0798193,3.5864394,0.78532302,-0.17848253,0.5927999,0
-5.6546097,1.1699193,1.8053194,-0.93464619,0.19337508,0.2983999,0
-0.81260121,5.5527749,-2.2602811,-0.13431424,0.91781402,-0.37360016,0
-1.8862053,-0.83831346,-5.6869993,-0.31176946,-0.1385642,-0.93999988,0
0.36309648,-5.991097,0.7598806,0.060015943,-0.99026394,0.1256001,0
2.9424772,-2.7161329,4.53508,0.48635986,-0.44894758,0.74959999,0
-0.18174168,5.9974809,0.77440059,-0.030039947,0.99131912,0.1280001,0
-2.8167315,-0.41077331,-5.3385196,-0.46557543,-0.067896411,-0.88239992,0
2.681133,-3.3514163,4.26404,0.44316247,-0.55395311,0.70479995,0
-2.6278131,-2.5505242,-4.8157997,-0.43434927,-0.42157423,-0.79599994,0
-4.8258462,3.1226068,-1.8876008,-0.79766053,0.51613331,-0.31200013,0
4.5952067,-1.6411453,-3.5767608,0.75953829,-0.27126369,-0.59120011,0
-3.2419622,-4.8629432,-1.5633194,-0.53586149,-0.80379224,-0.2583999,0
3.8416307,-3.8416307,-2.6620009,0.63498026,-0.63498026,-0.44000015,0
0.81565136,-3.7519953,-4.6754408,0.1348184,-0.62016451,-0.77280009,0
-5.3500242,-2.756073,-0.61951929,-0.88430148,-0.45554924,-0.10239988,0
2.3105621,2.5416179,4.9803596,0.3819111,0.42010212,0.82319993,0
-3.5592928,-4.3806682,-2.1779995,-0.58831286,-0.72407734,-0.3599999,0
-1.2921985,-4.738061,3.5332,-0.21358652,-0.78315055,0.58399999,0
3.7181098,-2.84326,3.8332798,0.61456358,-0.46996033,0.63359994,0
4.4946904,2.1349781,-3.4412391,0.74292403,0.35288891,-0.56879985,0
-0.67482811,-1.7245606,-5.7596006,-0.11154183,-0.28505135,-0.95200008,0
-5.2328973,-2.8033381,1.1664399,-0.86494166,-0.46336165,0.19279997,0
2.1353283,-0.94903487,5.5805206,0.35294682,-0.15686527,0.92240006,0
2.5244582,3.3358915,-4.3705196,0.4172658,0.55138701,-0.72239989,0
3.2069883,1.8325646,4.7916007,0.53008068,0.30290323,0.79200011,0
1.818597,-5.253726,2.3861206,0.30059454,-0.86838442,0.39440009,0
2.5183725,5.2304659,1.7036806,0.41625991,0.8645398,0.28160009,0
1.4477506,5.1705384,2.7878401,0.23929761,0.8546344,0.46079999,0
4.1363029,-1.5390894,-4.1382003,0.68368644,-0.25439495,-0.68400002,0
-4.7854853,-2.0338311,-3.0927601,-0.79098928,-0.33617043,-0.51120001,0
-1.9373186,-4.5204101,3.52352,-0.32021794,-0.74717522,0.58239996,0
3.0778749,5.0784936,-1.1567593,0.50873965,0.83942038,-0.19119987,0
-2.3587241,1.1793624,5.4450002,-0.38987175,0.19493593,0.89999998,0
0.93651241,2.8095357,5.2756,0.15479544,0.46438605,0.87199998,0
-1.8968853,1.4226637,5.566,-0.31353474,0.23515102,0.91999996,0
5.0755033,2.0822582,-2.5506799,0.83892614,0.34417489,-0.42159998,0
-2.1406538,-0.47570112,5.6386003,-0.35382706,-0.078628279,0.93200004,0
-1.8968853,1.4226637,5.566,-0.31353474,0.23515102,0.91999996,0
-3.9177551,3.7115576,2.7346001,-0.6475628,0.61348057,0.45199999,0
-3.1675129,5.0307555,1.1228807,-0.52355582,0.8315298,0.1856001,0
-4.8737621,-3.3741434,1.2100002,-0.8055805,-0.55770963,0.20000002,0
4.6191025,3.8227053,-0.80828083,0.76348799,0.63185209,-0.13360013,0
2.7161324,-2.3388917,-4.8738809,0.44894749,-0.38659367,-0.80560011,0
-4.3290277,-2.1645138,3.6300004,-0.71554172,-0.35777086,0.60000002,0
-3.2236543,-4.930295,1.3794005,-0.53283542,-0.81492478,0.22800007,0
3.4491253,-0.89977193,-4.8883991,0.57010335,-0.14872263,-0.80799985,0
-5.0951757,0,3.2621598,-0.84217781,0,0.53919995,0
4.4250102,3.4193258,2.3086791,0.73140663,0.5651778,0.38159984,0
4.0231843,3.1761978,3.2137604,0.66498911,0.52499133,0.53120005,0
2.1613193,-4.9583197,-2.7103999,0.35724285,-0.81955695,-0.44799995,0
-5.6737399,-0.97823113,1.8585594,-0.93780822,-0.16169108,0.3071999,0
1.1006507,-3.8099446,-4.5689597,0.18192573,-0.62974292,-0.75519991,0
3.4597533,-0.46130076,4.9416404,0.57186002,-0.076248057,0.81680006,0
-3.4240391,3.638042,3.4122,-0.56595689,0.60132921,0.56399995,0
-0.62010598,4.0749822,-4.4285994,-0.10249685,0.67355072,-0.73199987,0
2.3288901,-5.5535073,0.5808,0.38494051,-0.91793507,0.095999993,0
4.1363025,1.5390896,-4.1382008,0.68368632,0.25439495,-0.68400007,0
3.1159382,4.8686528,1.7859596,0.5150311,0.80473596,0.29519993,0
3.4848006,-2.0908806,-4.4818397,0.57600009,-0.3456001,-0.7407999,0
1.3987517,2.7975035,5.1788001,0.23119862,0.46239725,0.85600001,0
-1.0408816,-5.2044067,2.904,-0.17204654,-0.86023247,0.47999999,0
1.8135474,-2.2971599,-5.2949605,0.29975989,-0.37969583,-0.87520003,0
-3.0319345,0.69967657,5.1884804,-0.5011462,0.11564901,0.85760003,0
1.6759473,0.47884166,5.7934804,0.27701607,0.079147376,0.95760006,0
-2.0851355,-1.4595947,-5.4885602,-0.34465048,-0.24125531,-0.90719998,0
-0.78497601,4.4154892,-4.0607595,-0.12974809,0.72983289,-0.67119992,0
-2.3467762,1.6427432,5.3288403,-0.3878969,0.2715278,0.88080001,0
-3.0379775,-2.5316479,-4.5786409,-0.50214499,-0.4184542,-0.75680012,0
0.47570041,2.1406534,5.6386003,0.078628168,0.353827,0.93200004,0
2.7161324,-2.3388917,-4.8738809,0.44894749,-0.38659367,-0.80560011,0
5.9258976,-0.96095645,-0.75020021,0.97948718,-0.15883577,-0.12400003,0
2.6698644,4.7040472,-2.7103999,0.44129989,0.77752846,-0.44799995,0
0,2.596781,5.4643602,0,0.42921999,0.90320003,0
1.4984469,-4.2955484,-3.9881601,0.24767718,-0.71000797,-0.65920001,0
2.0065579,-3.2104926,-4.7190003,0.33166245,-0.53065991,-0.78000003,0
-1.5754032,-3.763463,-4.4673204,-0.26039723,-0.62206,-0.73840004,0
-4.0087357,-4.1519051,-1.8150007,-0.66260093,-0.68626529,-0.3000001,0
2.4134817,-3.9493334,3.8961999,0.39892259,-0.65278238,0.64399999,0
-4.5820518,3.848923,0.89056045,-0.75736392,0.63618559,0.14720006,0
4.0602036,-0.45113394,4.4624801,0.67110801,-0.074567594,0.73759997,0
1.690317,-3.2269685,-4.8303213,0.27939123,-0.53338319,-0.79840016,0
1.8537134,-2.7805707,5.0432801,0.3063989,-0.45959845,0.83359998,0
2.658715,3.001775,-4.530241,0.439457,0.49616113,-0.74880016,0
0.92907816,-3.0526857,-5.1400805,0.15356663,-0.50457615,-0.84960008,0
-4.9830098,3.066468,1.5391198,-0.82363796,0.50685418,0.25439996,0
-5.8248553,-1.5885971,0.3872005,-0.96278596,-0.26257801,0.064000085,0
4.9107141,-1.0675467,3.3686397,0.81168824,-0.17645399,0.55679995,0
0.23883305,1.9106659,5.7354002,0.039476536,0.31581253,0.94800001,0
0.41870856,-5.2338619,3.00564,0.069208026,-0.8651011,0.49679998,0
-4.0231843,3.1761978,3.2137604,-0.66498911,0.52499133,0.53120005,0
-5.5064869,0.94013178,-2.3232,-0.9101631,0.15539367,-0.38399997,0
-2.1567888,-5.6408329,-0.36300007,-0.35649401,-0.93236905,-0.06000001,0
-1.1460077,-3.2231464,-4.9900393,-0.18942276,-0.5327515,-0.82479995,0
1.4453701,-4.4393516,-3.8478003,0.23890413,-0.73377711,-0.63600004,0
2.9924939,4.787991,2.1731601,0.49462706,0.79140347,0.3592,0
-0.31645596,3.0379767,-5.2223611,-0.052306768,0.50214487,-0.86320013,0
-3.2927942,-3.2927942,-3.8623197,-0.54426348,-0.54426348,-0.63839996,0
-3.8174074,-3.3932507,3.2428,-0.63097638,-0.56086785,0.53599995,0
-0.34574586,-0.53782696,-6.0161204,-0.057148073,-0.088897012,-0.99440002,0
-0.2122436,5.0938516,3.2573199,-0.035081588,0.84195888,0.53839999,0
-3.0351973,0.46695298,5.2126803,-0.5016855,0.077182308,0.86160004,0
3.002923,-3.753654,-3.6735592,0.49635088,-0.62043864,-0.60719985,0
1.1741369,-2.5831008,5.3433599,0.1940722,-0.4269588,0.88319999,0
4.7380614,-1.2921984,3.5331995,0.78315061,-0.21358651,0.58399993,0
0.60548395,-5.2071605,-3.0201604,0.10007999,-0.86068767,-0.49920005,0
2.773823,-5.3742814,0.15971953,0.45848313,-0.88831097,0.026399922,0
-0.93149555,3.0273609,5.1546001,-0.1539662,0.50039023,0.852,0
-2.8660738,2.8660738,-4.491519,-0.47373119,0.47373119,-0.74239981,0
1.411505,5.8028555,-0.96799999,0.2333066,0.95914966,-0.16,0
-2.8167315,-0.41077331,-5.3385196,-0.46557543,-0.067896411,-0.88239992,0
-4.280405,3.9852042,-1.5488001,-0.70750493,0.65871143,-0.25600001,0
0.42415595,5.0898767,3.2428,0.070108421,0.84130192,0.53599995,0
4.2441311,0.67012531,4.2592001,0.70150924,0.11076451,0.704,0
-0.47570112,2.1406534,5.6386003,-0.078628279,0.353827,0.93200004,0
-0.23226936,-3.2517738,5.0965204,-0.038391627,-0.53748327,0.84240001,0
1.8823978,0.23049769,-5.7450805,0.31114012,0.03809879,-0.94960004,0
4.1898165,-4.357409,-0.24683976,0.69253165,-0.72023284,-0.04079996,0
-5.7152557,-0.19707757,1.9747195,-0.94467032,-0.032574803,0.32639992,0
1.2978061,5.3210044,-2.5700414,0.21451341,0.87950486,-0.42480022,0
4.8921127,2.9352672,-2.0134404,0.80861366,0.48516813,-0.33280006,0
2.5244582,3.3358915,-4.3705196,0.4172658,0.55138701,-0.72239989,0
-3.2205026,-2.9363406,-4.1962805,-0.53231448,-0.48534554,-0.69360006,0
4.8662586,-2.63589,2.4441998,0.80434024,-0.43568429,0.40399995,0
4.0406322,4.4079623,0.91959918,0.66787308,0.72858882,0.15199986,0
0.58337522,3.4273303,-4.9513211,0.096425653,0.56650084,-0.81840014,0
1.8374672,-4.708509,-3.3250804,0.30371359,-0.77826589,-0.54960006,0
-4.7619305,-0.86580569,-3.6300001,-0.7870959,-0.14310837,-0.60000002,0
-1.5654837,-3.959753,-4.2979202,-0.25875762,-0.6545046,-0.71040004,0
3.1779864,-4.6978927,-2.1054006,0.52528697,-0.77651113,-0.34800008,0
2.3176227,-4.6352448,3.1217999,0.38307813,-0.76615614,0.51599997,0
3.2871044,-3.2871051,3.8720005,0.54332304,-0.54332316,0.64000005,0
-3.91413,-4.4732914,1.1277196,-0.6469636,-0.73938698,0.18639994,0
-2.9109612,-4.3664417,-3.0104809,-0.4811506,-0.72172588,-0.49760014,0
-0.094720572,-4.3571506,-4.1962805,-0.015656292,-0.72019017,-0.69360006,0
0.53052622,-6.0126362,0.41139999,0.087690279,-0.99382412,0.067999996,0
1.1699193,-5.6546097,1.8053194,0.19337508,-0.93464619,0.2983999,0
4.8417883,-2.6171827,-2.51196,0.80029553,-0.43259218,-0.4152,0
1.4176162,2.1264236,5.4837203,0.23431672,0.35147497,0.90640002,0
-1.8078554,3.6157107,4.5011997,-0.29881907,0.59763813,0.74399996,0
0.94013178,-5.5064869,-2.3232,0.15539367,-0.9101631,-0.38399997,0
-4.5761633,2.7040963,2.8894801,-0.75639063,0.44695807,0.47760001,0
-2.9659762,0.69416475,-5.2272,-0.490244,0.11473797,-0.86399996,0
-4.7567329,-3.737433,-0.087120011,-0.78623682,-0.6177575,-0.014400002,0
3.3934169,3.9993844,-3.0153189,0.56089532,0.66105527,-0.49839979,0
0.60845566,4.5634174,-3.9252396,0.10057118,0.75428385,-0.6487999,0
4.2536964,-2.7649028,3.2960403,0.70309031,-0.45700872,0.54480004,0
0.4069052,-5.4932251,2.5022807,0.067257054,-0.90797108,0.41360012,0
-1.6769731,0.23956756,-5.8080006,-0.27718562,0.039597943,-0.96000004,0
5.5064864,0.94013166,-2.3232012,0.91016304,0.15539366,-0.38400018,0
5.0568576,-3.3131135,0.23231944,0.83584422,-0.54762203,0.038399909,0
-1.3689588,5.4758353,-2.177999,-0.22627418,0.90509671,-0.35999984,0
-1.6759473,-0.47884238,5.7934804,-0.27701607,-0.079147495,0.95760006,0
-0.23362695,-3.037153,5.2272,-0.038616024,-0.50200874,0.86399996,0
-5.8950229,1.3474336,-0.18875967,-0.97438389,0.22271629,-0.031199945,0
-0.41477415,4.6662102,-3.8284395,-0.068557709,0.77127439,-0.63279986,0
0.60845566,4.5634174,-3.9252396,0.10057118,0.75428385,-0.6487999,0
-2.8075461,4.8129363,-2.3570807,-0.46405721,0.79552662,-0.3896001,0
-4.0816154,-2.7926841,3.4848001,-0.67464715,-0.46160066,0.57599998,0
5.2044067,1.0408816,2.904,0.86023247,0.17204654,0.47999999,0
-4.4348769,0.22174364,4.1091604,-0.73303747,0.036651842,0.67920005,0
3.8942008,-3.206989,-3.3395994,0.64366955,-0.5300808,-0.55199987,0
1.6590688,-5.8067393,-0.36300004,0.27422625,-0.9597916,-0.060000002,0
0.72410929,0.48273951,5.9870801,0.11968748,0.07979165,0.9896,0
-4.7268124,-0.21008067,-3.7703595,-0.78129125,-0.034724075,-0.62319988,0
-2.0401261,0.20817618,-5.6918406,-0.33721092,0.034409285,-0.94080007,0
5.2240062,2.6866317,-1.447161,0.86347204,0.44407135,-0.23920015,0
1.9515345,5.554368,-1.3939202,0.32256767,0.91807735,-0.23040003,0
4.8921127,2.9352672,-2.0134404,0.80861366,0.48516813,-0.33280006,0
-2.4720228,-5.4075499,-1.1180397,-0.40859878,-0.89380985,-0.18479995,0
-5.0298758,1.8862032,-2.783,-0.83138442,0.3117691,-0.45999998,0
-4.153295,-0.54173416,-4.3656807,-0.68649501,-0.089542836,-0.72160012,0
-3.96401,3.7082677,-2.6716807,-0.65520823,0.61293679,-0.44160011,0
1.4549652,5.8198624,0.78408039,0.24049011,0.96196067,0.12960006,0
1.3433944,-4.0301833,4.3076,0.22204866,-0.66614598,0.71199995,0
-2.1567888,-5.6408329,-0.36300007,-0.35649401,-0.93236905,-0.06000001,0
-5.1556225,-1.5089628,-2.783,-0.85216898,-0.24941532,-0.45999998,0
1.2195262,5.7927504,-1.2487197,0.20157456,0.95747936,-0.20639995,0
-3.8367493,4.4122624,1.5536399,-0.63417339,0.72929955,0.25679997,0
-3.1779861,-4.6978927,-2.1053998,-0.52528697,-0.77651113,-0.34799996,0
3.4491253,0.89977193,-4.8883991,0.57010335,0.14872263,-0.80799985,0
2.3902442,3.0496218,-4.6464009,0.39508167,0.50406969,-0.76800013,0
0,0,6.0500002,0,0,1,0
-4.2702136,3.719218,-2.1295996,-0.70582038,0.61474675,-0.35199991,0
4.6608577,-2.1185713,3.2234395,0.77038968,-0.35017705,0.5327999,0
5.0320268,-2.9030926,1.6891602,0.83173996,-0.47984999,0.27920002,0
0.14511918,-5.8047724,-1.6988403,0.023986639,-0.95946646,-0.28080004,0
1.4056681,2.5770583,5.2901201,0.23234184,0.42596003,0.87440002,0
2.2907064,5.2972579,-1.8150007,0.37862915,0.87557977,-0.3000001,0
0.92182654,5.8996882,0.97284019,0.15236802,0.97515506,0.16080002,0
-4.9460154,-1.4131473,-3.1847208,-0.81752318,-0.23357807,-0.52640009,0
5.5290895,-1.5594871,-1.8972796,0.91389906,-0.25776646,-0.31359991,0
1.2397385,1.8825661,-5.6144009,0.20491545,0.31116793,-0.92800009,0
4.7912822,1.2256769,-3.4848006,0.79194742,0.20259121,-0.57600009,0
4.0155091,4.517447,-0.26619974,0.66372049,0.74668545,-0.043999955,0
0.19855775,3.1769271,-5.1449208,0.032819461,0.52511191,-0.85040009,0
3.789377,-4.1882591,2.1683199,0.62634331,-0.69227421,0.35839999,0
-3.5014949,4.1194057,2.7152405,-0.57875949,0.68089348,0.44880006,0
4.0852814,-1.2998621,-4.2688799,0.67525309,-0.21485324,-0.70559996,0
1.4870696,5.7623959,1.0890001,0.24579662,0.95246208,0.18000001,0
-3.3060355,4.7434425,-1.7811192,-0.54645211,0.78404009,-0.29439986,0
2.5244582,3.3358915,-4.3705196,0.4172658,0.55138701,-0.72239989,0
3.5378051,-4.7683458,-1.1616006,0.58476114,-0.78815633,-0.19200009,0
5.6138659,0,2.255441,0.9279117,0,0.37280014,0
-1.677736,-1.2905662,-5.6676402,-0.27731174,-0.21331672,-0.9368,0
4.5181446,-3.5298007,-1.9311599,0.74680072,-0.5834381,-0.31919998,0
-2.2907062,5.2972579,-1.8150002,-0.37862912,0.87557977,-0.30000001,0
-5.4604855,1.0112013,2.4006405,-0.90255958,0.16714069,0.39680007,0
1.9382977,-4.4150114,-3.6542001,0.32037979,-0.72975391,-0.60399997,0
-4.9007959,2.450398,2.5651999,-0.81004888,0.40502444,0.42399997,0
-0.71584582,-5.7267652,-1.8150003,-0.11832162,-0.94657272,-0.30000004,0
1.3601602,-5.7429004,-1.3309996,0.22481987,-0.94923967,-0.21999992,0
0.22379419,4.2520938,4.2979202,0.036990773,0.70282543,0.71040004,0
3.0724466,4.5062566,2.6184399,0.50784242,0.74483579,0.43279997,0
1.411505,5.8028555,-0.96799999,0.2333066,0.95914966,-0.16,0
-5.6336646,-2.092504,-0.69695973,-0.93118423,-0.34586841,-0.11519995,0
2.0851388,1.4595972,-5.4885583,0.34465104,0.24125573,-0.90719968,0
1.8790171,-2.1138947,5.3482003,0.31058133,-0.34940407,0.884,0
-1.6966252,4.4536414,-3.7268007,-0.28043392,0.73613906,-0.61600012,0
3.3932514,3.8174074,3.2427995,0.56086797,0.63097638,0.53599989,0
-4.1717825,-1.9761076,3.9107201,-0.68955082,-0.32662934,0.64639997,0
-4.3987265,2.5466313,-3.2815206,-0.72706223,0.42093077,-0.54240006,0
5.1063676,0.83126903,-3.1363204,0.8440277,0.13739984,-0.51840001,0
-4.4478393,2.5416224,3.2185998,-0.73518002,0.42010286,0.53199995,0
-4.2176795,-0.93726212,-4.2349997,-0.69713706,-0.15491936,-0.69999993,0
-0.21726134,4.7797546,3.7025995,-0.035910964,0.79004204,0.61199993,0
1.2397385,1.8825661,-5.6144009,0.20491545,0.31116793,-0.92800009,0
0,6.022522,-0.57596016,0,0.99545813,-0.095200025,0
-2.6866317,5.2240062,-1.447161,-0.44407135,0.86347204,-0.23920015,0
-4.253088,0,4.3027601,-0.70298976,0,0.7112,0
-3.9625242,1.0566732,-4.4479599,-0.65496266,0.17465672,-0.73519999,0
-1.1258386,5.8168325,1.22452,-0.18608902,0.96145988,0.20239998,0
2.5880339,-0.94110292,5.38692,0.42777419,-0.15555419,0.89039999,0
-2.9924943,4.787991,2.1731598,-0.49462715,0.79140347,0.35919997,0
2.6691523,0.44485858,-5.4111209,0.44118217,0.073530339,-0.89440012,0
-5.921874,-1.2192093,0.21779993,-0.97882211,-0.2015222,0.035999987,0
0.71943569,-1.4388728,5.8322001,0.11891498,-0.23783021,0.96399999,0
-2.2766018,-3.5514987,-4.3366394,-0.3762978,-0.58702457,-0.71679986,0
4.4125409,3.2445157,-2.5700393,0.72934556,0.53628355,-0.42479986,0
1.7128062,-1.868516,-5.4934001,0.28310847,-0.30884561,-0.90799999,0
-2.0779328,2.3376746,-5.1788006,-0.34345996,0.38639247,-0.85600007,0
0.24383205,-3.820039,-4.6851201,0.040302817,-0.63141137,-0.7744,0
-3.0535526,3.9583094,-3.4073603,-0.50471944,0.654266,-0.56320006,0
0.65048891,-4.7702565,3.6638801,0.10751882,-0.78847212,0.6056,0
2.3477633,-0.047913488,-5.5756807,0.38806003,-0.0079195844,-0.9216001,0
2.7457778,2.5169632,4.7673998,0.45384756,0.41602698,0.78799993,0
5.8496423,-1.2647877,-0.88572031,0.966883,-0.20905581,-0.14640005,0
2.7580462,-0.70418197,-5.3385215,0.4558754,-0.11639371,-0.88240021,0
2.9363406,-3.2205026,-4.1962805,0.48534554,-0.53231448,-0.69360006,0
-2.6698644,4.7040467,-2.7104003,-0.44129989,0.77752835,-0.44800004,0
-5.9797707,0.64646202,-0.6534003,-0.98839182,0.10685322,-0.10800005,0
3.2441709,-0.067586832,-5.1062012,0.53622657,-0.011171376,-0.84400016,0
3.6072063,3.6072063,-3.2524803,0.59623241,0.59623241,-0.53760004,0
-5.1496739,3.1562517,-0.34848005,-0.85118574,0.52169448,-0.057600006,0
1.1882671,-1.9012272,5.6192398,0.19640778,-0.31425244,0.92879993,0
0.9452762,2.3631897,5.4885597,0.15624399,0.39060986,0.90719992,0
-5.4854479,0.60949367,2.4780807,-0.90668547,0.10074274,0.40960008,0
1.3590666,-3.7374325,-4.5592804,0.2246391,-0.61775744,-0.75360006,0
-1.3590666,-3.7374332,-4.5592799,-0.2246391,-0.61775756,-0.75359994,0
-0.35434639,6.0238853,0.43560085,-0.058569651,0.99568349,0.072000138,0
-0.20362523,5.4978862,2.5168006,-0.033657063,0.90874147,0.4160001,0
-4.0742574,3.5649748,-2.7007191,-0.67343098,0.589252,-0.44639984,0
2.3619001,5.5673366,-0.16939928,0.39039668,0.92022091,-0.02799988,0
-2.4888847,-5.2705803,-1.6214004,-0.41138589,-0.87117028,-0.26800004,0
-2.5843968,-5.1687937,-1.7908007,-0.42717302,-0.85434604,-0.29600009,0
4.3400536,-0.1886981,-4.2107992,0.71736419,-0.031189768,-0.69599986,0
2.472023,-5.4075494,-1.1180402,0.40859884,-0.8938098,-0.18480003,0
-3.8132627,-3.3510494,-3.2912002,-0.63029134,-0.55389243,-0.54400003,0
1.5997497,-5.3991561,2.2118807,0.26442143,-0.89242244,0.36560011,0
3.5147867,3.4049497,-3.5574,0.58095646,0.5628016,-0.588,0
0.97475171,1.574599,-5.7596006,0.16111597,0.26026431,-0.95200008,0
3.2191191,0.13412982,-5.1207209,0.53208578,0.022170218,-0.84640014,0
0.19855775,3.1769271,-5.1449208,0.032819461,0.52511191,-0.85040009,0
-3.2517738,-0.23226936,5.0965204,-0.53748327,-0.038391627,0.84240001,0
-4.5347056,3.7789211,1.3261601,-0.74953812,0.62461501,0.2192,0
-5.921874,-1.2192093,0.21779993,-0.97882211,-0.2015222,0.035999987,0
-4.7418423,-0.10537417,-3.7558396,-0.78377557,-0.017417219,-0.6207999,0
1.6184571,-3.0057063,4.9948802,0.26751357,-0.49681094,0.82560003,0
2.6838005,2.4537601,-4.8351607,0.44360337,0.40558016,-0.79920012,0
4.9220567,0.85601026,3.4121995,0.81356305,0.1414893,0.56399989,0
5.2711201,-2.3427203,1.8246804,0.87125951,-0.38722649,0.30160007,0
-4.1567683,-3.3254147,2.8749604,-0.68706912,-0.54965532,0.47520006,0
-2.8095357,0.93651241,5.2756,-0.46438605,0.15479544,0.87199998,0
-3.8367496,-4.412262,1.5536405,-0.63417345,-0.72929949,0.25680009,0
2.6316872,5.4388208,0.30976027,0.4349896,0.89897865,0.051200043,0
0.37925312,5.8784289,1.3794,0.062686466,0.97164112,0.228,0
5.3017335,1.4273897,2.5410004,0.87631959,0.23593219,0.42000005,0
1.7128062,1.868516,-5.4934001,0.28310847,0.30884561,-0.90799999,0
-1.5625255,-4.0179234,4.2446799,-0.25826868,-0.66411954,0.70159996,0
2.9363406,-3.2205026,-4.1962805,0.48534554,-0.53231448,-0.69360006,0
-2.5028467,-2.9579093,4.6464,-0.41369367,-0.48891062,0.76799995,0
0.17737114,-6.0306249,0.45011991,0.029317543,-0.99679744,0.074399985,0
4.8187785,3.2767696,1.6262398,0.79649228,0.54161477,0.26879996,0
-5.5331345,1.3832834,2.01828,-0.91456765,0.22864187,0.33359998,0
0.62722307,5.2268639,2.9814401,0.10367323,0.86394441,0.4928,0
5.7965002,-0.89176929,-1.4858795,0.95809919,-0.14739987,-0.24559991,0
-3.4602413,-4.943202,-0.44044054,-0.57194072,-0.81705815,-0.072800085,0
3.0542779,4.9450216,-1.6794788,0.5048393,0.81735891,-0.27759978,0
0,5.9766927,-0.93895984,0,0.98788303,-0.15519997,0
-5.8996882,0.92182654,0.97284019,-0.97515506,0.15236802,0.16080002,0
4.2371511,-0.89203167,4.2253203,0.70035553,-0.14744325,0.69840002,0
-5.9653625,0.31396616,-0.95831984,-0.98601031,0.051895231,-0.15839997,0
-3.9875846,1.9937917,4.0898004,-0.65910488,0.32955232,0.67600006,0
0.21726136,-4.7797542,3.7026002,0.035910968,-0.79004198,0.61200005,0
-1.0221915,5.9627838,-0.053240824,-0.16895728,0.98558408,-0.0088001359,0
-1.0768322,5.9225764,0.60500056,-0.17798878,0.97893822,0.10000009,0
-5.6073194,-0.40052301,2.2360799,-0.92682964,-0.066202149,0.36959997,0
2.3597112,0,-5.5708408,0.39003488,0,-0.92080009,0
3.327003,4.6969452,1.8633995,0.54991782,0.77635455,0.30799991,0
-2.2987592,1.229569,-5.4595208,-0.37996018,0.20323454,-0.90240014,0
-0.082422115,3.8738434,-4.6464014,-0.01362349,0.64030468,-0.76800019,0
-5.1755199,-2.9798448,-0.96799946,-0.85545784,-0.49253631,-0.15999991,0
-5.7830997,-1.7524544,0.29524061,-0.95588422,-0.28966188,0.0488001,0
-3.0017757,-2.6587157,-4.5302401,-0.49616125,-0.43945712,-0.74879998,0
-2.9947202,4.764328,-2.221561,-0.49499506,0.78749222,-0.36720014,0
-2.4748828,5.0872593,-2.1441205,-0.40907153,0.84086931,-0.35440007,0
-1.4226637,-1.8968853,5.566,-0.23515102,-0.31353474,0.91999996,0
5.5404792,-1.246608,-2.0860391,0.91578168,-0.2060509,-0.34479985,0
-4.9150434,2.9490256,1.9360005,-0.81240386,0.48744223,0.32000005,0
-1.7907348,5.3722038,2.1296005,-0.29598922,0.88796753,0.35200009,0
0.2122436,5.0938516,3.2573199,0.035081588,0.84195888,0.53839999,0
-1.7807975,3.9364998,-4.2350006,-0.29434669,0.65066111,-0.70000011,0
-1.04041,-0.87613469,-5.8951197,-0.17196859,-0.14481565,-0.97439992,0
-3.1492,-2.6993146,4.4044003,-0.52052891,-0.44616768,0.72800004,0
3.112026,-5.1867099,0.12583953,0.51438445,-0.85730737,0.020799922,0
4.8386908,3.5842154,0.58564073,0.79978359,0.59243226,0.096800119,0
-2.5596921,5.1193843,1.9602003,-0.42308959,0.84617919,0.32400003,0
-4.5654774,-3.3744831,2.0908806,-0.75462431,-0.55776578,0.3456001,0
-3.2927942,-3.2927942,-3.8623197,-0.54426348,-0.54426348,-0.63839996,0
-3.2353873,3.6667724,3.5622396,-0.53477472,0.60607803,0.58879989,0
-3.8978081,4.6065006,0.43560028,-0.64426577,0.76140505,0.072000042,0
1.504828,-2.372998,-5.3578796,0.2487319,-0.39223105,-0.88559991,0
