3.2163787,4.8944893,-2.5804813,0.50255919,0.76476395,-0.40320021,0
4.6374879,1.6231207,4.1011205,0.72460747,0.25361261,0.64080006,0
2.9796815,-5.108026,2.44736,0.46557522,-0.79812908,0.38240001,0
-6.3850322,0.35472366,-0.25600049,-0.99766129,0.055425573,-0.040000077,0
1.3817172,-4.8360105,3.9577599,0.21589331,-0.75562662,0.61839998,0
2.2863541,-5.2451644,-2.8671997,0.35724282,-0.81955695,-0.44799995,0
2.0228217,-6.0684638,0.20480041,0.31606588,-0.94819748,0.032000065,0
5.9837403,-1.3808633,-1.8022395,0.93495941,-0.21575989,-0.28159991,0
-0.4905591,-3.8427126,-5.0943999,-0.07664986,-0.60042381,-0.796,0
-3.6809347,3.4508758,3.9372804,-0.57514602,0.53919935,0.61520004,0
-3.5472398,-5.3208604,-0.25600013,-0.5542562,-0.83138442,-0.040000021,0
-1.51372,1.51372,6.0313601,-0.23651876,0.23651876,0.94240004,0
-4.3349504,1.0596547,-4.5875196,-0.67733598,0.16557105,-0.71679991,0
1.4936367,-2.4893942,5.70368,0.23338073,-0.38896784,0.89120001,0
-4.1194854,3.3925169,-3.5327992,-0.64366961,0.53008074,-0.55199987,0
-3.3651447,2.4036756,4.88448,-0.52580386,0.37557429,0.76319999,0
-4.0798368,-4.5331526,-1.9404799,-0.63747448,-0.70830506,-0.30319998,0
-3.1461971,-5.3485355,-1.5667199,-0.4915933,-0.83570868,-0.24479999,0
-4.976182,2.8243191,-2.8671997,-0.77752841,0.44129986,-0.44799995,0
-5.8250437,0.99451959,-2.4575999,-0.91016304,0.15539369,-0.38399997,0
5.3208604,-1.5519173,3.1999998,0.83138442,-0.24248707,0.49999997,0
-5.7203827,2.6150327,-1.1827202,-0.8938098,0.40859884,-0.18480003,0
-4.4664125,2.7033553,-3.7017603,-0.69787693,0.42239925,-0.57840002,0
4.0638738,-4.0638738,-2.8160007,0.63498026,-0.63498026,-0.44000012,0
-6.3596563,-0.34376538,-0.62976021,-0.99369627,-0.05371334,-0.098400034,0
3.5507858,-4.8823299,-2.1247997,0.55481029,-0.76286405,-0.33199996,0
-5.6542511,2.8271258,-0.99840045,-0.88347673,0.4417384,-0.15600006,0
-3.7915666,-5.1186147,0.61952078,-0.59243226,-0.79978353,0.096800119,0
4.191761,1.1178031,-4.7052794,0.65496272,0.17465675,-0.73519993,0
1.6942706,-3.0938852,-5.3401613,0.26472977,-0.48341957,-0.83440018,0
-3.8485067,-3.6221242,3.6096003,-0.60132915,-0.56595689,0.56400001,0
-6.1618304,1.6804987,0.40960082,-0.96278602,0.26257792,0.06400013,0
-4.5553613,-2.5054493,3.73248,-0.71177518,-0.39147645,0.58319998,0
-6.3356767,-0.90509695,1.5258789e-07,-0.98994946,-0.14142139,2.3841856e-08,0
1.8096716,-4.9765978,3.5942402,0.28276119,-0.77759337,0.56160003,0
-0.38410261,6.3376894,0.80384058,-0.060016032,0.99026394,0.12560008,0
-2.9765129,-0.74412823,5.6166401,-0.46508014,-0.11627004,0.87760001,0
-0.79924482,-6.1941485,1.39776,-0.12488201,-0.96783572,0.2184,0
4.6315436,2.4939082,-3.6454389,0.72367871,0.38967314,-0.56959981,0
-2.2661424,4.7588987,3.6300805,-0.35408473,0.7435779,0.56720006,0
2.0149643,1.0074823,-5.9904008,0.31483817,0.1574191,-0.93600011,0
2.3172064,3.4758096,-4.848639,0.36206353,0.54309529,-0.75759989,0
-0.20079261,-6.224577,1.4745599,-0.031373844,-0.97259015,0.23039998,0
-3.2438662,3.7072766,4.0857596,-0.50685406,0.57926196,0.63839996,0
-4.3972421,3.5177946,3.0412798,-0.68706906,0.54965538,0.47519997,0
1.7652791,-1.260914,6.0211201,0.27582484,-0.1970178,0.94080001,0
3.6238718,5.0419078,-1.5513602,0.56622994,0.78779811,-0.24240004,0
-6.2172909,-1.1657422,0.97280025,-0.9714517,-0.1821472,0.15200004,0
-5.6792388,2.7417011,1.0905596,-0.88738108,0.4283908,0.17039993,0
-4.3858266,3.2580426,-3.3331196,-0.68528539,0.50906914,-0.52079993,0
6.2958264,1.1110283,0.29696089,0.98372287,0.17359817,0.046400137,0
-0.65437931,5.6712871,2.8928003,-0.10224677,0.88613862,0.45200005,0
-1.3007016,2.4317467,-5.7753601,-0.20323463,0.37996042,-0.90240002,0
-0.50788778,1.5236626,6.1952,-0.079357468,0.23807228,0.96799999,0
-3.6525664,-3.6525664,3.7785602,-0.57071352,-0.57071352,0.59040004,0
1.5032932,6.2010851,0.49664071,0.23488955,0.96891952,0.077600107,0
-4.9361558,-0.43876934,-4.0499196,-0.77127433,-0.068557709,-0.63279992,0
-6.1385579,1.4931623,-1.0239999,-0.95914966,0.2333066,-0.15999998,0
-3.3507574,5.3217912,1.1878408,-0.52355582,0.83152986,0.18560013,0
5.2995343,1.766511,3.1231999,0.82805222,0.27601734,0.48799998,0
-5.110404,-2.3586483,-3.0463996,-0.7985006,-0.3685388,-0.47599992,0
-3.8387711,-4.4785662,2.4831998,-0.59980798,-0.69977593,0.38799998,0
-1.007483,-2.014966,-5.9903998,-0.15741922,-0.31483844,-0.93599999,0
5.374352,-3.3589697,-0.89087951,0.83974248,-0.52483898,-0.13919993,0
0.39287415,6.2859921,1.1366403,0.061386585,0.98218626,0.17760004,0
1.8658165,-4.4313149,4.2240005,0.29153383,-0.69239295,0.66000009,0
5.4215217,1.9517473,2.7852802,0.84711277,0.30496052,0.43520004,0
-0.41752324,3.9247179,-5.0380816,-0.065238006,0.61323714,-0.78720027,0
-1.2733269,0.25466508,6.26688,-0.19895732,0.039791416,0.97920001,0
-1.5221133,-0.76105666,6.1696,-0.23783021,-0.1189151,0.96399999,0
-1.5962582,-5.4538817,-2.944,-0.24941534,-0.85216904,-0.46000001,0
-2.4984772,1.1924549,-5.7702394,-0.39038706,0.18632108,-0.90159988,0
-2.7695746,-4.1543622,4.00384,-0.43274602,-0.64911908,0.62559998,0
6.2923946,-0.19663715,1.1520003,0.98318666,-0.030724555,0.18000005,0
-1.2060601,-1.2770048,-6.1542406,-0.18844688,-0.199532,-0.96160007,0
-4.461113,-1.4087725,4.3673601,-0.6970489,-0.2201207,0.68239999,0
-4.6690359,4.0464973,-1.6691202,-0.72953683,0.63226521,-0.26080003,0
-2.4951792,1.2475899,5.7600002,-0.38987175,0.19493593,0.90000004,0
2.0066216,-1.5049666,5.888,0.31353462,-0.23515104,0.92000002,0
-2.9542444,4.3177419,3.6864002,-0.46160069,0.67464715,0.57600003,0
2.6573491,-4.0391707,-4.1932797,0.41521078,-0.63112044,-0.65519994,0
-3.1679688,-5.0399504,-2.3500798,-0.49499512,-0.78749222,-0.36719996,0
4.5895309,4.3983006,0.74239933,0.71711421,0.68723446,0.11599989,0
-2.4300532,-1.9184632,-5.6012802,-0.3796958,-0.29975986,-0.87520003,0
1.0311422,-1.6656915,-6.0928006,0.16111597,-0.26026428,-0.95200008,0
-2.8125257,-3.1754322,-4.7923198,-0.43945715,-0.49616128,-0.74879998,0
-4.7369108,-3.5885689,-2.3756795,-0.74014229,-0.56071389,-0.37119991,0
-1.3834236,-4.9572678,-3.8041604,-0.21615992,-0.77457309,-0.59440005,0
-3.2723289,-1.9155097,-5.1558404,-0.5113014,-0.29929838,-0.80560005,0
6.0827646,-1.6439904,-1.1212802,0.95043194,-0.25687349,-0.17520003,0
2.7339075,-5.4678149,-1.8944007,0.42717305,-0.8543461,-0.29600009,0
-3.5117667,2.8289232,-4.5414414,-0.54871351,0.44201925,-0.70960021,0
2.0212002,0.25264984,6.0672002,0.31581253,0.039476536,0.94800001,0
-0.3547242,6.3850322,-0.25600055,-0.055425655,0.99766129,-0.040000085,0
3.0579731,-4.8053865,2.9184003,0.4778083,-0.75084162,0.45600003,0
-4.5794673,-2.2897334,-3.8400002,-0.71554178,-0.35777083,-0.60000002,0
-5.1189761,-3.839232,0.12799978,-0.79984003,-0.59987998,0.019999966,0
-4.1478448,-1.4140381,-4.66432,-0.64810073,-0.22094345,-0.7288,0
-0.43876934,4.9361558,-4.0499196,-0.068557709,0.77127433,-0.63279992,0
0.81509411,-6.113203,1.7100796,0.12735845,-0.95518798,0.26719993,0
5.4749298,3.1522324,-1.0239995,0.85545778,0.49253631,-0.15999991,0
-6.1266956,-0.61266959,1.7459197,-0.95729619,-0.095729619,0.27279994,0
5.6792388,-2.7417011,1.0905596,0.88738108,-0.4283908,0.17039993,0
5.0409904,-3.6295133,1.5411199,0.78765476,-0.56711143,0.24079999,0
-4.6062074,-4.205668,1.4336001,-0.71971989,-0.65713561,0.22400001,0
-0.63554025,6.1965184,-1.4694394,-0.099303164,0.96820599,-0.22959991,0
1.7959375,-5.9864607,1.3772799,0.28061524,-0.93538445,0.21519998,0
4.83601,1.3817173,3.9577606,0.75562656,0.21589333,0.6184001,0
2.6640635,5.5330548,1.8022406,0.41625991,0.8645398,0.28160009,0
-1.2180327,-6.2641687,-0.48640049,-0.19031762,-0.97877634,-0.076000072,0
-5.8532329,-1.4633081,2.13504,-0.91456765,-0.22864188,0.33360001,0
4.9736528,-0.33157688,-4.0140796,0.77713323,-0.051808886,-0.62719995,0
2.0149643,1.0074823,-5.9904008,0.31483817,0.1574191,-0.93600011,0
-2.9082773,-5.6226692,0.94207931,-0.45441833,-0.87854207,0.14719988,0
1.2420621,2.7325363,5.6524796,0.1940722,0.4269588,0.88319993,0
4.5115538,-4.5115538,0.50175953,0.70493031,-0.70493031,0.078399934,0
4.3450522,-2.7442436,3.8144,0.67891443,-0.42878807,0.59599996,0
1.4536113,3.6340275,5.0636806,0.22712676,0.56781679,0.7912001,0
-4.5608249,0.29744482,-4.4800005,-0.7126289,0.046475753,-0.70000005,0
3.7401524,-4.7790833,2.0326402,0.58439881,-0.74673176,0.31760004,0
0.74776471,2.741807,5.7343998,0.11683823,0.42840734,0.89599997,0
5.6790934,-0.43685359,2.9184003,0.88735831,-0.068258375,0.45600003,0
-2.8395467,4.0408936,-4.0703998,-0.44367915,0.63138962,-0.63599998,0
2.2947657,5.9281445,0.74239987,0.35855713,0.92627257,0.11599998,0
-3.6234629,1.6909491,4.9971199,-0.56616604,0.26421079,0.78079998,0
-2.2897334,-4.5794673,-3.8400002,-0.35777083,-0.71554178,-0.60000002,0
-0.90509683,6.3356767,-9.1552738e-07,-0.14142138,0.98994946,-1.4305115e-07,0
1.4716773,-3.1886339,5.3504,0.22994958,-0.49822405,0.83599997,0
1.1872995,-4.2742772,4.6131201,0.18551554,-0.6678558,0.72079998,0
-3.094861,3.094861,4.6694403,-0.48357204,0.48357204,0.72960001,0
-2.7021186,5.742002,-0.82943904,-0.42220604,0.89718783,-0.12959985,0
-5.8067436,-2.4886045,-1.0239999,-0.90730369,-0.38884446,-0.15999998,0
-1.3485628,2.2655857,-5.8316808,-0.21071294,0.35399777,-0.91120011,0
-5.763001,-2.0582144,1.8739201,-0.90046889,-0.321596,0.29280001,0
4.2377243,4.7904706,0.2303998,0.66214442,0.74851102,0.035999969,0
0.93939078,-5.6363454,-2.8825607,0.14677981,-0.88067895,-0.45040011,0
3.5472398,-5.3208604,-0.25600013,0.5542562,-0.83138442,-0.040000021,0
-2.2492776,-5.7254329,1.7663999,-0.35144961,-0.8945989,0.27599996,0
-6.2137485,0.9811182,-1.1775998,-0.97089821,0.15329972,-0.18399997,0
-5.1626716,1.5712477,3.4406404,-0.80666745,0.24550745,0.53760004,0
4.6168661,1.2591454,-4.2495999,0.7213853,0.19674146,-0.66399997,0
0.25594854,0,6.3948803,0.03999196,0,0.99920005,0
0.25264984,2.0212002,6.0672002,0.039476536,0.31581253,0.94800001,0
-2.1088562,5.4830256,-2.5395195,-0.32950878,0.85672271,-0.39679992,0
4.7250977,3.9033411,1.8431996,0.73829651,0.60989702,0.28799993,0
-2.6573491,4.0391707,-4.1932797,-0.41521078,0.63112044,-0.65519994,0
1.5245913,0.2540983,6.2105603,0.2382174,0.039702859,0.97040004,0
5.4066329,-3.4242005,-0.056320321,0.84478641,-0.53503132,-0.0088000502,0
-0.73972929,-4.755403,-4.2188797,-0.1155827,-0.74303174,-0.65919995,0
-2.6314163,-3.3490746,4.7769599,-0.4111588,-0.5232929,0.7464,0
-5.1291566,-2.5645783,-2.8415997,-0.80143076,-0.40071538,-0.44399998,0
1.923805,5.5576606,2.5241606,0.30059454,0.86838448,0.39440009,0
-1.8534331,6.0657806,-0.85504073,-0.28959891,0.94777822,-0.13360012,0
-3.8158875,-3.8158875,3.4406404,-0.59623241,-0.59623241,0.53760004,0
-3.4376519,0.49109268,5.3760004,-0.5371331,0.076733232,0.84000003,0
2.4984772,1.1924549,-5.7702394,0.39038706,0.18632108,-0.90159988,0
4.1888289,1.6560489,-4.5465608,0.65450454,0.25875762,-0.7104001,0
-5.8299241,-0.13880758,-2.6368008,-0.91092563,-0.021688685,-0.41200012,0
4.3927064,-2.3119507,4.03968,0.68636036,-0.36124229,0.63120002,0
1.9184632,-2.4300532,-5.6012802,0.29975986,-0.3796958,-0.87520003,0
-0.99554688,-2.7377548,5.6985598,-0.15555419,-0.42777419,0.89039993,0
2.1020701,-5.7056193,-1.9967996,0.32844844,-0.89150304,-0.31199992,0
-0.51066732,-0.76600063,6.3334403,-0.079791769,-0.11968759,0.98960006,0
-1.585134,-4.5440507,-4.2188807,-0.24767719,-0.71000791,-0.65920007,0
-4.7027359,4.3409872,-0.01023998,-0.73480248,0.67827922,-0.0015999969,0
-1.260914,1.7652791,6.0211201,-0.1970178,0.27582484,0.94080001,0
2.4999032,-0.99996084,5.8060799,0.39060986,-0.15624388,0.90719998,0
-1.0198956,-0.50994819,6.2976003,-0.15935868,-0.079679407,0.98400003,0
-3.8421664,2.0616505,-4.6848006,-0.60033852,0.32213289,-0.73200011,0
-5.1291566,-2.5645783,-2.8415997,-0.80143076,-0.40071538,-0.44399998,0
-6.2137485,-0.9811182,-1.1775998,-0.97089821,-0.15329972,-0.18399997,0
4.6709309,0.83038759,-4.2956796,0.72983295,0.12974806,-0.67119992,0
6.1176586,1.8538365,0.31232032,0.95588416,0.28966194,0.048800051,0
3.3589697,-5.374352,-0.89087951,0.52483898,-0.83974248,-0.13919993,0
-3.4068127,-3.1062117,-4.4390402,-0.53231448,-0.48534557,-0.6936,0
0.48464483,-1.4236439,-6.2208004,0.075725757,-0.22244437,-0.97200006,0
1.5440366,2.2057667,-5.8060784,0.24125572,0.34465104,-0.90719974,0
4.57447,-4.4050455,-0.79359925,0.71476096,-0.68828833,-0.12399988,0
4.6645417,-1.1661358,4.2240005,0.72883463,-0.18220872,0.66000009,0
-2.517869,-5.8104672,0.92671973,-0.39341703,-0.90788549,0.14479995,0
-6.1965179,0.63554066,-1.4694395,-0.96820593,0.099303231,-0.22959992,0
4.4088168,4.4088168,1.4438387,0.68887764,0.68887764,0.2255998,0
-3.4053509,4.8242464,-2.4678392,-0.53208607,0.75378847,-0.38559988,0
-2.9176049,-0.74492043,-5.6473598,-0.45587575,-0.11639382,-0.88239998,0
-0.18763228,-6.3795037,0.4761599,-0.029317543,-0.99679744,0.074399985,0
-4.6315436,2.4939082,-3.6454389,-0.72367871,0.38967314,-0.56959981,0
-3.209101,-4.9206209,2.5395203,-0.50142199,-0.76884699,0.39680004,0
-0.24232228,-1.4842237,-6.2208009,-0.037862856,-0.23190996,-0.97200012,0
-3.6333964,-5.2684255,0.046079606,-0.56771815,-0.82319146,0.0071999384,0
5.7027192,1.2518159,-2.6214409,0.89104986,0.19559623,-0.40960014,0
-1.2570099,-2.0112157,5.9443197,-0.19640779,-0.31425244,0.92879993,0
-0.24069424,4.0918064,4.9151998,-0.037608474,0.63934475,0.76799995,0
-2.4318652,-2.9182384,5.1507201,-0.37997892,-0.45597476,0.80480003,0
5.1218915,-2.76859,-2.65728,0.80029553,-0.43259218,-0.4152,0
-0.7666164,0,6.35392,-0.11978381,0,0.9928,0
5.2310972,3.2309718,-1.7766386,0.81735891,0.50483936,-0.27759978,0
-5.6840024,2.4360013,1.6486399,-0.88812536,0.38062519,0.25759998,0
1.0527177,5.8952169,2.2579207,0.16448714,0.92112762,0.3528001,0
0.33212948,6.3104663,-1.0137597,0.051895231,0.98601037,-0.15839995,0
-4.4616776,-0.99148387,-4.4799995,-0.69713712,-0.15491936,-0.69999993,0
-5.392736,-2.1570942,2.6880002,-0.84261501,-0.33704597,0.42000002,0
3.8158879,3.8158879,3.4406395,0.59623247,0.59623247,0.53759992,0
5.6130004,-0.13053477,-3.0720003,0.87703133,-0.020396058,-0.48000005,0
5.7056193,-2.1020701,-1.9967996,0.89150304,-0.32844844,-0.31199992,0
0.84813142,-1.2419069,-6.220799,0.13252053,-0.19404794,-0.97199982,0
0.39287415,-6.2859921,1.1366403,0.061386585,-0.98218626,0.17760004,0
-0.49903613,-2.7446976,5.7599998,-0.077974394,-0.428859,0.89999998,0
-2.1726122,-3.3796186,4.98176,-0.33947065,-0.52806538,0.7784,0
-5.8617182,2.5645015,0.15360044,-0.91589344,0.40070337,0.024000069,0
5.3453588,0.12148531,-3.5174398,0.83521229,0.018982079,-0.54959995,0
-4.0171614,-3.0128708,-3.9680002,-0.62768143,-0.47076106,-0.62,0
-5.175127,-3.1050766,-2.12992,-0.8086136,-0.48516822,-0.3328,0
2.4063075,5.9232183,0.29184031,0.37598553,0.92550284,0.045600049,0
3.842711,0.49055883,-5.0944014,0.60042357,0.076649815,-0.79600018,0
5.9544916,-2.3457088,-0.040959373,0.93038934,-0.36651704,-0.0063999025,0
-4.3430247,-4.5038776,-1.3465595,-0.67859763,-0.70373088,-0.21039993,0
-0.19550034,-1.0643908,-6.3078408,-0.030546928,-0.16631106,-0.98560011,0
-6.0605273,-1.759508,1.0649599,-0.94695741,-0.27492312,0.16639999,0
-3.3589697,-5.374352,-0.89087951,-0.52483898,-0.83974248,-0.13919993,0
-4.872992,-4.123301,0.46080029,-0.76140499,-0.64426577,0.072000042,0
1.9953246,0.8868109,-6.0159993,0.31176946,0.1385642,-0.93999988,0
-4.3700271,2.5300162,3.9321599,-0.68281674,0.39531502,0.61439997,0
4.6961732,-1.5289865,-4.0704002,0.73377705,-0.23890413,-0.63600004,0
-1.8706434,-4.3648348,-4.2905607,-0.29228804,-0.68200541,-0.67040008,0
1.2143149,3.6429451,-5.1199989,0.18973671,0.56921017,-0.79999983,0
-1.3829689,-6.2233596,-0.56320065,-0.21608889,-0.97239995,-0.088000104,0
3.9033411,-4.7250972,1.8432003,0.60989702,-0.73829645,0.28800005,0
-5.374352,3.3589697,-0.89087951,-0.83974248,0.52483898,-0.13919993,0
-4.6797862,-4.3331361,-0.53247947,-0.73121661,-0.6770525,-0.083199918,0
5.6751409,-2.5222845,-1.5462404,0.88674074,-0.39410695,-0.24160007,0
-2.197876,2.9305015,5.2480001,-0.34341812,0.45789084,0.81999999,0
-4.0778956,-0.95950478,4.8384004,-0.63717121,-0.14992262,0.75600004,0
0,-5.3899379,3.4508798,0,-0.84217781,0.53919995,0
-3.6525664,-3.6525664,3.7785602,-0.57071352,-0.57071352,0.59040004,0
6.3596563,0.34376487,-0.62976015,0.99369627,0.053713262,-0.098400019,0
3.7181213,3.6019301,-3.7631998,0.58095646,0.5628016,-0.58799994,0
2.6150322,5.7203827,-1.1827213,0.40859878,0.8938098,-0.18480019,0
-3.4879904,1.622321,-5.1148801,-0.54499847,0.25348765,-0.7992,0
-3.4101467,5.2155185,1.4592005,-0.53283542,0.81492478,0.22800007,0
-0.087190375,-4.0979519,-4.9152002,-0.013623495,-0.64030492,-0.76799995,0
3.1086438,0.38858047,-5.580801,0.48572558,0.060715698,-0.87200016,0
3.0684483,-5.5615621,0.78335893,0.47944504,-0.86899406,0.12239983,0
5.3566532,3.455905,-0.56831986,0.83697706,0.53998512,-0.088799976,0
-1.1909697,-6.1533432,1.29536,-0.18608901,-0.96145988,0.2024,0
1.7120868,-3.17959,5.2838402,0.26751354,-0.49681094,0.82560003,0
5.1603098,3.5477133,-1.3209604,0.80629838,0.55433017,-0.20640007,0
-3.2633727,-4.5687218,-3.0719998,-0.50990194,-0.71386278,-0.47999996,0
-5.0419083,-3.6238716,-1.5513595,-0.78779817,-0.56622994,-0.24239993,0
-2.2621479,0.75404859,5.9391999,-0.35346064,0.1178201,0.92800003,0
-3.2137282,2.6781068,-4.8435211,-0.50214499,0.41845417,-0.75680017,0
-5.0002646,-0.2222341,-3.9884796,-0.78129137,-0.034724079,-0.62319994,0
2.4782495,-5.5760608,1.9302405,0.38722649,-0.87125951,0.30160007,0
3.7332129,-3.0932336,-4.1779218,0.58331454,-0.48331773,-0.65280026,0
-0.78253955,-6.2603178,1.0752003,-0.12227181,-0.97817463,0.16800004,0
4.0410314,-0.25793815,-4.9561615,0.63141114,-0.040302835,-0.77440023,0
5.2161169,-0.68036306,3.6454396,0.81501824,-0.10630672,0.56959993,0
-3.1375616,-0.73432302,-5.5296001,-0.490244,-0.11473797,-0.86400002,0
-5.8104672,-2.517869,0.92671973,-0.90788549,-0.39341703,0.14479995,0
-5.4339581,1.9018852,-2.7955201,-0.84905595,0.29716954,-0.4368,0
1.1909697,-6.1533432,1.29536,0.18608901,-0.96145988,0.2024,0
0.74412751,-2.9765129,5.6166401,0.11626992,-0.46508014,0.87760001,0
4.2969546,-2.0960753,-4.2547207,0.67139918,-0.32751176,-0.66480011,0
-4.3349504,1.0596547,-4.5875196,-0.67733598,0.16557105,-0.71679991,0
-6.113203,-0.45849022,-1.8380803,-0.95518798,-0.071639098,-0.28720003,0
-4.2353511,-3.0588646,-3.6966403,-0.66177362,-0.47794759,-0.5776,0
5.181931,3.7524321,-0.16384017,0.80967671,0.58631748,-0.025600027,0
-5.5576601,-1.9238056,2.5241601,-0.86838436,-0.30059463,0.39440003,0
-0.43715331,-5.9744282,-2.2528,-0.068305202,-0.9335044,-0.352,0
2.9663498,-1.2359793,5.5347199,0.46349216,-0.19312176,0.86479998,0
1.3652271,-1.7747951,-5.9955201,0.21331674,-0.27731171,-0.9368,0
5.79811,0.4141503,-2.6777606,0.90595466,0.064710982,-0.41840008,0
2.0199547,-0.50498909,6.0518403,0.31561792,-0.078904547,0.94560003,0
-1.0527177,5.8952169,2.2579207,-0.16448714,0.92112762,0.3528001,0
-5.3773165,-0.67216456,3.4047997,-0.84020567,-0.10502571,0.53199995,0
2.7798362,-2.6980762,-5.0943985,0.43434939,-0.42157441,-0.79599977,0
-2.4639919,4.8047843,-3.4355192,-0.38499874,0.75074756,-0.53679985,0
5.7630005,-2.0582144,1.8739209,0.90046883,-0.321596,0.29280013,0
6.2471638,-0.82199544,-1.1212798,0.97611934,-0.12843679,-0.17519997,0
-5.5596695,2.9433544,-1.1776003,-0.86869836,0.45989913,-0.18400005,0
4.1990995,-2.3328328,4.2291198,0.65610927,-0.36450511,0.66079998,0
1.9132231,-6.0875273,-0.49151996,0.29894111,-0.95117611,-0.076799989,0
-0.21860641,-5.6837721,2.9337604,-0.03415725,-0.88808936,0.45840007,0
-1.8963366,1.5470114,-5.9136,-0.29630259,0.24172053,-0.92399997,0
-2.8312032,-1.1324815,-5.6268797,-0.44237551,-0.17695023,-0.87919992,0
1.9923588,3.0651672,-5.253119,0.31130606,0.47893238,-0.82079983,0
-2.2877295,-5.615335,2.0480003,-0.35745773,-0.87739611,0.32000005,0
-3.4772682,3.4772675,4.0960002,-0.54332316,0.54332304,0.64000005,0
-5.1189761,3.8392317,0.12800042,-0.79984003,0.59987992,0.020000067,0
-3.877162,0.4846448,5.0688,-0.60580653,0.075725749,0.792,0
1.7221402,-5.9492111,-1.6128,0.26908439,-0.92956424,-0.252,0
5.8299241,-0.13880758,-2.6368008,0.91092563,-0.021688685,-0.41200012,0
3.5809085,5.2771282,0.53760087,0.55951697,0.82455128,0.084000133,0
-1.2735842,0,6.2719998,-0.19899754,0,0.97999996,0
-5.3340549,0.99238205,-3.3945603,-0.83344609,0.1550597,-0.53040004,0
-2.8390625,-2.5957141,-5.1148796,-0.44360352,-0.40558031,-0.79919994,0
0,-6.0477128,2.0940795,0,-0.94495511,0.32719991,0
2.9305015,-2.197876,5.2480001,0.45789084,-0.34341812,0.81999999,0
4.6092181,-0.10020031,-4.4390392,0.72019035,-0.015656298,-0.69359988,0
1.5391368,-6.1565485,0.82944036,0.24049012,-0.96196067,0.12960005,0
3.4590704,5.2709651,-1.1007993,0.54047972,0.82358831,-0.17199989,0
1.2549118,-6.2745595,-0.12287974,0.19607997,-0.98039991,-0.019199958,0
5.7421546,2.7840755,-0.48639986,0.89721167,0.4350118,-0.075999975,0
-1.3750608,4.32162,-4.5158396,-0.21485324,0.67525309,-0.7055999,0
-3.6486597,0.95182425,-5.1712008,-0.57010305,0.14872253,-0.80800009,0
-1.759508,-6.0605273,1.0649599,-0.27492312,-0.94695741,0.16639999,0
-4.038249,-3.5895545,3.4303999,-0.63097638,-0.56086791,0.53599995,0
5.1161938,-1.8717781,-3.3587213,0.79940528,-0.29246533,-0.52480018,0
-5.578352,0.38918698,-3.1129603,-0.8716175,0.060810465,-0.48640004,0
-4.5280318,-4.2157531,-1.6384001,-0.70750499,-0.65871143,-0.25600001,0
5.9817362,-1.2376004,1.9097594,0.93464625,-0.19337507,0.2983999,0
1.13732,6.1740236,-1.2441598,0.17770626,0.96469116,-0.19439997,0
2.4655876,-2.2190285,5.47328,0.38524806,-0.3467232,0.85519999,0
0.82199544,6.2471638,-1.1212798,0.12843679,0.97611934,-0.17519997,0
-0.33962232,-3.9905632,-4.9920001,-0.053065985,-0.6235255,-0.78000003,0
3.2438662,-3.7072761,4.0857601,0.50685406,-0.5792619,0.63840002,0
3.7434781,-0.55753922,-5.1609616,0.58491844,-0.087115504,-0.80640024,0
1.4633081,-5.8532329,2.13504,0.22864188,-0.91456765,0.33360001,0
2.5060821,4.4425993,-3.8656001,0.39157531,0.69415611,-0.60400003,0
-5.120481,1.5849106,-3.4969606,-0.80007517,0.24764228,-0.54640007,0
-3.2580426,-4.3858266,-3.3331196,-0.50906914,-0.68528539,-0.52079993,0
-6.3604746,0.56121778,0.43519998,-0.99382412,0.087690279,0.067999996,0
4.1708364,4.3793778,2.0940807,0.65169317,0.68427777,0.32720011,0
-2.4893942,-1.4936367,5.70368,-0.38896784,-0.23338073,0.89120001,0
-0.79924482,-6.1941485,1.39776,-0.12488201,-0.96783572,0.2184,0
0.8868109,-1.9953246,-6.0159993,0.1385642,-0.31176946,-0.93999988,0
5.5324793,3.2124074,-0.17920022,0.86444986,0.50193864,-0.028000034,0
-0.49661389,2.9796817,5.64224,-0.077595919,0.46557528,0.88160002,0
-5.9577312,1.4380728,1.8431995,-0.93089551,0.22469887,0.28799993,0
6.3437772,-0.74632663,0.39936095,0.99121517,-0.11661354,0.062400147,0
-0.5160796,5.5478573,-3.1488004,-0.08063744,0.8668527,-0.49200004,0
-1.9914775,-1.3114607,-5.9391994,-0.31116834,-0.20491573,-0.92799991,0
2.0582151,5.7630005,1.8739206,0.32159612,0.90046883,0.29280007,0
5.0917311,-3.7208805,1.0905603,0.79558295,-0.58138758,0.17040005,0
-0.18763228,-6.3795037,0.4761599,-0.029317543,-0.99679744,0.074399985,0
0.25548723,-0.7664625,6.3488002,0.039919879,-0.11975977,0.99200004,0
4.2950912,-0.47723261,4.7206397,0.67110801,-0.074567594,0.73759997,0
2.9593425,1.4796712,5.4784002,0.46239725,0.23119862,0.85600001,0
-1.6664635,-4.0471258,4.6694403,-0.26038492,-0.63236338,0.72960001,0
2.3241816,-5.4935188,2.31936,0.36315337,-0.85836232,0.3624,0
0.74776471,2.741807,5.7343998,0.11683823,0.42840734,0.89599997,0
-2.5921566,-5.1843133,2.7135997,-0.40502447,-0.81004894,0.42399994,0
-4.4779606,-3.7782791,-2.5753593,-0.69968134,-0.59035611,-0.4023999,0
3.4295139,-5.1442699,-1.6537601,0.53586155,-0.80379218,-0.25839999,0
4.038249,-3.5895545,3.4303999,0.63097638,-0.56086791,0.53599995,0
-2.2411335,-4.9304938,3.4099202,-0.35017708,-0.77038962,0.53279996,0
-5.8489542,1.6497053,-2.0070395,-0.91389906,0.25776646,-0.31359991,0
6.0303082,-2.1283443,-0.25599915,0.94223565,-0.3325538,-0.039999865,0
-3.6934333,1.8467163,-4.8896003,-0.57709897,0.28854942,-0.76400006,0
-4.8526797,1.102882,-4.0243201,-0.75823122,0.17232531,-0.62880003,0
-4.9254375,3.813242,-1.4694403,-0.76959962,0.59581906,-0.22960006,0
-4.5464559,-1.840232,-4.1113605,-0.71038371,-0.28753623,-0.64240009,0
4.5331526,-4.0798368,-1.9404799,0.70830506,-0.63747448,-0.30319998,0
1.3834424,-6.1266742,1.2287999,0.21616288,-0.95729285,0.19199999,0
0,-5.0575237,3.9219201,0,-0.79023808,0.6128,0
-1.7665116,5.2995343,3.1231997,-0.27601743,0.82805222,0.48799995,0
2.9176023,0.74491972,-5.6473618,0.45587537,0.11639371,-0.88240027,0
-5.120481,-1.5849106,-3.4969606,-0.80007517,-0.24764228,-0.54640007,0
-1.6052978,-6.019866,1.4643196,-0.25082779,-0.94060403,0.22879994,0
-4.0170631,-2.1266809,4.5056005,-0.62766612,-0.33229387,0.70400006,0
-0.70589191,5.1765404,-3.69664,-0.11029561,0.80883443,-0.5776,0
3.4406397,0,5.3964801,0.53759992,0,0.84320003,0
0.9733932,-3.6502225,5.16608,0.15209268,-0.57034725,0.80720001,0
3.0588646,-4.2353511,-3.6966403,0.47794759,-0.66177362,-0.5776,0
4.413125,2.0904272,4.1369605,0.68955076,0.32662925,0.64640009,0
4.5553613,-2.5054493,3.73248,0.71177518,-0.39147645,0.58319998,0
1.2733269,0.25466508,6.26688,0.19895732,0.039791416,0.97920001,0
3.0754755,3.3120501,4.5312004,0.48054305,0.51750779,0.70800006,0
4.4340501,3.3255372,3.2000008,0.69282031,0.51961517,0.50000012,0
-1.4629947,3.4136539,5.2121601,-0.22859292,0.53338343,0.81440002,0
5.7027187,-1.2518163,-2.6214411,0.8910498,-0.19559629,-0.40960017,0
4.0951805,-4.3876939,-2.2220795,0.63987195,-0.68557715,-0.34719992,0
4.7669487,-3.2501919,2.7699194,0.74483573,-0.50784248,0.43279991,0
-5.2995343,1.766511,3.1231999,-0.82805222,0.27601734,0.48799998,0
4.4050455,-4.57447,-0.79359925,0.68828833,-0.71476096,-0.12399988,0
0.50322026,-2.2644935,5.9647999,0.078628168,-0.35382709,0.93199998,0
5.1424866,1.7886906,3.3638396,0.80351353,0.2794829,0.52559996,0
1.0596547,4.3349504,-4.5875196,0.16557105,0.67733598,-0.71679991,0
5.110404,2.3586483,-3.0463996,0.7985006,0.3685388,-0.47599992,0
3.405349,0.14188941,-5.4169612,0.53208578,0.02217022,-0.8464002,0
-3.2920606,-5.4867678,0.13311951,-0.51438445,-0.85730737,0.020799922,0
3.6528609,5.1909075,0.81920058,0.57075948,0.81107926,0.12800008,0
6.1398683,1.8058442,-0.030719332,0.9593544,0.28216314,-0.0047998955,0
-5.979599,2.2423496,0.41984019,-0.93431234,0.35036713,0.06560003,0
2.5077555,-0.25077525,5.8828797,0.39183679,-0.039183632,0.91919994,0
-2.615032,5.7203827,-1.1827208,-0.40859875,0.8938098,-0.18480012,0
6.0878243,1.9695905,-0.13823925,0.95122254,0.30774853,-0.021599883,0
1.6791335,-3.8380198,4.8384004,0.2623646,-0.59969062,0.75600004,0
3.0077462,-3.9332063,4.0550404,0.46996033,-0.61456347,0.63360006,0
4.4992194,-3.4405797,-2.9798388,0.70300305,-0.53759056,-0.46559981,0
5.0267344,3.8538299,-0.91648084,0.78542721,0.60216093,-0.14320013,0
3.9417479,-1.8770226,-4.6796803,0.61589807,-0.29328477,-0.73120004,0
4.4623909,4.4623909,-1.0649589,0.69724858,0.69724858,-0.16639984,0
0,-1.0207177,6.3180799,0,-0.15948714,0.98719996,0
0.96669126,-3.8667629,5.00736,0.1510455,-0.60418171,0.78240001,0
1.8096715,4.9765983,3.5942395,0.28276116,0.77759349,0.56159991,0
-0.40119395,-6.218503,1.4591999,-0.062686555,-0.97164106,0.22799999,0
4.9206214,-3.2091007,2.5395195,0.76884711,-0.50142199,0.39679992,0
0.90297991,-6.019866,-1.9763203,0.1410906,-0.94060403,-0.30880004,0
-0.51148802,0.25574362,6.3744001,-0.079920001,0.039959941,0.99599999,0
-3.428241,4.3170443,-3.2511985,-0.53566265,0.67453814,-0.50799978,0
0,6.2266002,1.4796799,0,0.97290629,0.23119999,0
-1.2525704,2.2546256,5.8572803,-0.19571412,0.35228524,0.91520005,0
2.0038114,-4.8327212,-3.6864002,0.31309551,-0.75511271,-0.57600003,0
-1.5245913,0.2540983,6.2105603,-0.2382174,0.039702859,0.97040004,0
-3.4663343,-5.0975509,1.7203202,-0.54161471,-0.79649234,0.26880002,0
4.2929912,4.6232209,-1.0751989,0.67077988,0.72237831,-0.16799983,0
0.54305822,-4.8875227,-4.0959997,0.084852844,-0.76367539,-0.63999993,0
0.59433931,-5.2301846,-3.6403201,0.092865519,-0.81721634,-0.56879997,0
-3.1375616,0.73432302,-5.5296001,-0.490244,0.11473797,-0.86400002,0
5.2321486,1.4948996,-3.3689609,0.81752324,0.23357807,-0.52640015,0
-4.0170631,2.1266801,4.5056005,-0.62766612,0.33229378,0.70400006,0
-4.9548798,-2.0269964,3.5072,-0.77419996,-0.31671819,0.54799998,0
3.7208805,5.0917311,1.0905603,0.58138758,0.79558295,0.17040005,0
5.6894236,-0.81277478,-2.8160007,0.8889724,-0.12699606,-0.44000012,0
1.102882,4.8526797,-4.0243201,0.17232531,0.75823122,-0.62880003,0
-5.4696603,1.5315048,2.94912,-0.8546344,0.23929761,0.46079999,0
0.76105589,-1.5221133,6.1696,0.11891498,-0.23783021,0.96399999,0
0.48464289,1.4236383,-6.2208018,0.075725451,0.22244349,-0.9720003,0
-0.5111804,0.51117969,6.3590403,-0.079871938,0.079871826,0.99360001,0
4.3409872,-4.7027359,-0.01023998,0.67827922,-0.73480248,-0.0015999969,0
-3.3589697,5.374352,-0.89087951,-0.52483898,0.83974248,-0.13919993,0
5.9232183,-2.4063075,0.29184031,0.92550284,-0.37598553,0.045600049,0
3.428241,4.3170443,-3.2511985,0.53566265,0.67453814,-0.50799978,0
5.1124172,0.81333899,-3.7631998,0.79881519,0.12708421,-0.58799994,0
-5.2868805,2.7491777,2.3347201,-0.82607508,0.42955902,0.36480001,0
2.4439621,-2.3043067,-5.4476805,0.38186908,-0.36004794,-0.85120004,0
0.6677621,3.4872034,-5.3248014,0.10433783,0.5448755,-0.8320002,0
-5.5874734,-2.0057597,-2.3910394,-0.8730427,-0.31339994,-0.37359989,0
0.92974204,-6.3222446,0.35327983,0.1452722,-0.98785073,0.055199973,0
4.1933327,-3.9227955,-2.8262408,0.65520823,-0.61293679,-0.44160011,0
3.4784667,-4.5654874,2.8313594,0.54351044,-0.71335739,0.44239989,0
5.0937161,-2.2146587,3.1795197,0.79589313,-0.34604043,0.49679995,0
-4.8875227,0.54305822,-4.0959997,-0.76367539,0.084852844,-0.63999993,0
-2.6705008,3.5288761,-4.6233602,-0.41726574,0.55138689,-0.72240001,0
5.2321486,1.4948996,-3.3689609,0.81752324,0.23357807,-0.52640015,0
-5.4471483,-1.7430878,2.8723199,-0.8511169,-0.27235746,0.4488,0
-0.65437931,5.6712871,2.8928003,-0.10224677,0.88613862,0.45200005,0
4.6232209,-4.2929912,-1.0751989,0.72237831,-0.67077988,-0.16799983,0
2.4516997,4.9033995,3.3023992,0.3830781,0.7661562,0.51599991,0
2.198144,2.4729121,-5.4784002,0.34345999,0.3863925,-0.85600001,0
5.3882933,2.4105525,-2.4729602,0.84192079,0.37664881,-0.38640004,0
0.24383226,1.9912968,-6.0774407,0.03809879,0.31114012,-0.9496001,0
-3.5841832,-3.36696,-4.0959997,-0.56002861,-0.52608752,-0.63999993,0
-3.0579729,4.805387,2.9183996,-0.47780827,0.75084174,0.45599994,0
-2.498539,-5.8894134,-0.17919923,-0.39039671,-0.92022085,-0.02799988,0
3.5507858,-4.8823299,-2.1247997,0.55481029,-0.76286405,-0.33199996,0
-1.3834424,-6.1266742,1.2287999,-0.21616288,-0.95729285,0.19199999,0
-3.4242005,-5.4066329,-0.056320321,-0.53503132,-0.84478641,-0.0088000502,0
-3.528877,2.6705012,-4.6233592,-0.55138701,0.4172658,-0.72239989,0
1.260914,1.7652791,6.0211201,0.1970178,0.27582484,0.94080001,0
-5.9671617,-2.2815619,-0.38400006,-0.93236899,-0.35649404,-0.06000001,0
4.3935699,0.57307434,-4.6182389,0.6864953,0.089542866,-0.72159982,0
1.5236626,0.50788701,6.1952,0.23807228,0.079357341,0.96799999,0
-1.1225989,-0.65267372,-6.2668805,-0.17540607,-0.10198027,-0.97920007,0
4.8204465,-1.6068155,3.8912005,0.75319475,-0.2510649,0.6080001,0
-6.1740236,-1.13732,-1.2441598,-0.96469116,-0.17770626,-0.19439997,0
2.6625726,2.9046245,5.0432,0.41602698,0.45384756,0.78799999,0
2.9593425,1.4796712,5.4784002,0.46239725,0.23119862,0.85600001,0
3.7072766,-3.2438662,4.0857596,0.57926196,-0.50685406,0.63839996,0
-5.3607402,2.358726,2.5804799,-0.83761567,0.36855093,0.40319997,0
4.1933327,-3.9227955,-2.8262408,0.65520823,-0.61293679,-0.44160011,0
3.7982607,2.7717035,-4.3417597,0.5934782,0.43307868,-0.67839992,0
3.3925166,-1.9385813,5.0688,0.53008074,-0.30290332,0.792,0
5.3815632,-2.618058,-2.2681603,0.84086925,-0.40907156,-0.35440004,0
-3.1522324,5.4749298,-1.0239995,-0.49253631,0.85545778,-0.15999991,0
5.9492111,-1.7221402,-1.6128,0.92956424,-0.26908439,-0.252,0
3.6112332,1.9259909,4.9203205,0.56425518,0.30093607,0.76880008,0
5.4538813,1.5962578,-2.9440012,0.85216892,0.24941528,-0.46000019,0
-6.2172909,1.1657422,0.97280025,-0.9714517,0.1821472,0.15200004,0
1.6384798,-4.4473028,4.3008003,0.25601247,-0.69489104,0.67200005,0
-3.7181213,-3.6019301,-3.7631998,-0.58095646,-0.5628016,-0.58799994,0
-2.6314163,-3.3490746,4.7769599,-0.4111588,-0.5232929,0.7464,0
-4.2278776,4.7352223,-0.81407917,-0.66060585,0.73987842,-0.12719986,0
5.7056193,2.1020701,-1.9967996,0.89150304,0.32844844,-0.31199992,0
-5.79811,0.4141503,-2.6777606,-0.90595466,0.064710982,-0.41840008,0
2.0178773,-0.75670415,6.0262403,0.31529334,-0.11823502,0.94160002,0
6.1921315,-1.5922624,-0.2867209,0.96752053,-0.24879099,-0.04480014,0
4.9151998,-3.6864002,-1.7920001,0.76799995,-0.57600003,-0.28,0
5.4066329,3.4242005,-0.056320321,0.84478641,0.53503132,-0.0088000502,0
3.5449116,-4.0338645,-3.4816,0.55389243,-0.63029134,-0.54399997,0
4.7250977,3.9033411,1.8431996,0.73829651,0.60989702,0.28799993,0
6.1533432,-1.1909697,1.29536,0.96145988,-0.18608901,0.2024,0
1.7747951,-1.3652271,-5.9955201,0.27731171,-0.21331674,-0.9368,0
-2.6179328,5.6386242,1.5206409,-0.40905198,0.88103503,0.23760013,0
2.2757692,-5.8519788,-1.2390404,0.35558894,-0.91437167,-0.19360006,0
-5.79811,0.4141503,-2.6777606,-0.90595466,0.064710982,-0.41840008,0
3.3925169,-4.1194854,-3.5327992,0.53008074,-0.64366961,-0.55199987,0
1.2900772,6.1278682,-1.3209597,0.20157456,0.95747942,-0.20639995,0
3.17959,-1.7120868,5.2838402,0.49681094,-0.26751354,0.82560003,0
-4.8491402,-1.1545575,4.01408,-0.75767815,-0.1803996,0.62720001,0
3.872833,-0.72615612,5.0431995,0.60513014,-0.11346189,0.78799993,0
-5.5478573,-0.5160796,-3.1488004,-0.8668527,-0.08063744,-0.49200004,0
3.2889771,4.604568,2.9900808,0.51390266,0.71946377,0.46720013,0
-2.2411335,-4.9304938,3.4099202,-0.35017708,-0.77038962,0.53279996,0
-2.9342916,5.6851902,0.16895999,-0.45848307,0.88831097,0.026399998,0
-0.24069424,4.0918064,4.9151998,-0.037608474,0.63934475,0.76799995,0
-4.5288129,-2.717288,3.6147203,-0.707627,-0.42457625,0.56480002,0
-0.54305822,4.8875227,-4.0959997,-0.084852844,0.76367539,-0.63999993,0
-4.5608249,0.29744482,-4.4800005,-0.7126289,0.046475753,-0.70000005,0
-0.39287475,6.2859921,1.1366402,-0.061386678,0.98218626,0.17760003,0
-5.826839,1.6648108,2.0582402,-0.9104436,0.26012668,0.32160002,0
4.4997778,-2.9248557,3.4867203,0.70309025,-0.45700869,0.54480004,0
-2.4835842,0.050685342,-5.8982406,-0.38806003,0.0079195844,-0.9216001,0
-3.1196308,5.1993847,2.0479999,-0.48744231,0.81240386,0.31999996,0
2.5035708,0.75107032,5.8419199,0.39118293,0.11735474,0.91279995,0
-3.9391406,-4.3611913,-2.5344002,-0.61549067,-0.68143612,-0.39600003,0
-2.0178781,-0.75670415,6.0262399,-0.31529343,-0.11823502,0.94159997,0
3.2231128,3.3238349,-4.4185591,0.50361139,0.51934922,-0.69039983,0
3.4322145,-4.6678119,-2.7187202,0.53628349,-0.72934562,-0.42480004,0
2.892179,5.3711901,1.9353604,0.45190296,0.83924842,0.30240005,0
3.0032372,5.6310692,0.48127922,0.46925581,0.87985456,0.07519988,0
-1.8481997,4.6204987,4.0243201,-0.2887812,0.72195292,0.62880003,0
6.2233596,-1.3829689,-0.56320065,0.97239995,-0.21608889,-0.088000104,0
-3.9690528,0.86283779,-4.9459209,-0.62016451,0.1348184,-0.77280015,0
4.0410314,0.25793791,-4.9561615,0.63141114,0.040302798,-0.77440023,0
3.428241,4.3170443,-3.2511985,0.53566265,0.67453814,-0.50799978,0
-4.8735514,-2.6583009,3.1846399,-0.76149243,-0.41535953,0.49760002,0
-0.74492043,-2.9176049,-5.6473598,-0.11639382,-0.45587575,-0.88239998,0
5.3310981,0.2423224,-3.5328,0.83298409,0.037862875,-0.55199999,0
-2.892179,5.3711901,1.9353604,-0.45190296,0.83924842,0.30240005,0
5.7926531,2.1918144,-1.6128,0.90510201,0.342471,-0.252,0
-2.2411335,-4.9304938,3.4099202,-0.35017708,-0.77038962,0.53279996,0
0,-5.6173167,-3.0668805,0,-0.87770575,-0.47920007,0
1.3966906,5.332818,-3.2512009,0.2182329,0.83325279,-0.50800014,0
5.8027873,-0.64475423,2.6214406,0.90668553,-0.10074285,0.40960011,0
-2.8613427,5.7226853,-0.15359971,-0.44708478,0.89416957,-0.023999954,0
2.4893949,1.4936366,5.70368,0.38896796,0.23338072,0.89120001,0
-2.4318652,-2.9182384,5.1507201,-0.37997892,-0.45597476,0.80480003,0
-1.7959381,-5.9864602,1.3772796,-0.28061533,-0.93538439,0.21519995,0
-4.5823855,-3.957515,2.0736001,-0.71599776,-0.61836171,0.324,0
-5.5330548,-2.6640635,1.8022406,-0.8645398,-0.41625991,0.28160009,0
-3.6864002,-3.9321599,-3.4508803,-0.57600003,-0.61439997,-0.53920001,0
-1.2518165,-5.7027197,-2.6214399,-0.19559632,-0.89104992,-0.40959999,0
2.014966,-1.007483,-5.9903998,0.31483844,-0.15741922,-0.93599999,0
5.0650496,-2.422415,3.0719995,0.79141402,-0.37850234,0.47999993,0
5.8232298,2.5690718,-0.67071873,0.90987962,0.40141746,-0.1047998,0
4.038249,-3.5895545,3.4303999,0.63097638,-0.56086791,0.53599995,0
4.4702621,-4.2670679,1.6639992,0.6984784,-0.66672927,0.25999984,0
-2.865133,-4.8186326,-3.0873601,-0.44767705,-0.75291133,-0.48240003,0
-3.2683249,-3.5017769,4.2444801,-0.51067573,-0.54715264,0.66320002,0
-0.93939078,5.6363454,-2.8825607,-0.14677981,0.88067895,-0.45040011,0
-2.7021186,5.742002,-0.82943904,-0.42220604,0.89718783,-0.12959985,0
3.9071174,-3.2176254,3.9168,0.6104871,-0.50275397,0.61199999,0
-5.2301846,-0.59433931,-3.6403201,-0.81721634,-0.092865519,-0.56879997,0
-4.1489062,-4.8403907,-0.56320029,-0.64826661,-0.75631106,-0.088000044,0
3.9690545,0.86283821,-4.9459195,0.62016475,0.13481846,-0.77279991,0
-1.9517479,5.4215217,2.78528,-0.30496061,0.84711277,0.43520001,0
-3.5117667,-2.8289232,-4.5414414,-0.54871351,-0.44201925,-0.70960021,0
6.2477827,0,-1.3875195,0.97621602,0,-0.21679991,0
-5.5035114,-1.1793239,-3.0464008,-0.85992366,-0.18426935,-0.47600013,0
3.4318502,0.071496807,-5.4016008,0.53622657,0.011171376,-0.8440001,0
-3.8158875,-3.8158875,3.4406404,-0.59623241,-0.59623241,0.53760004,0
2.15815,0.22021942,-6.0211205,0.33721092,0.034409285,-0.94080007,0
-0.12309486,-0.34032109,-6.38976,-0.019233571,-0.05317517,-0.99839997,0
-0.99451941,5.8250432,-2.4576011,-0.15539366,0.91016299,-0.38400015,0
-0.13880758,5.8299241,-2.6368008,-0.021688685,0.91092563,-0.41200012,0
3.0938864,-1.694271,-5.3401604,0.48341975,-0.26472983,-0.83440006,0
-1.2770075,1.2060624,-6.1542397,-0.19953242,0.18844725,-0.96159995,0
-0.3650673,6.3886747,0.10751913,-0.057041764,0.9982304,0.016799863,0
2.4517,-4.903399,3.3023999,0.38307813,-0.76615608,0.51599997,0
0.44305056,-1.7722021,-6.1337595,0.069226652,-0.27690658,-0.95839989,0
-4.2220602,4.2220602,2.3040006,-0.65969688,0.65969688,0.3600001,0
-4.0906172,4.2316728,-2.513921,-0.6391589,0.66119885,-0.39280015,0
2.7717035,-3.7982607,-4.3417597,0.43307868,-0.5934782,-0.67839992,0
2.1088557,-5.4830256,-2.5395191,0.32950869,-0.85672271,-0.39679986,0
-6.1398683,1.8058441,-0.03072037,-0.9593544,0.28216314,-0.0048000575,0
0.76492226,-6.310605,0.74240047,0.1195191,-0.98603201,0.11600007,0
0.76414967,-1.0188669,6.2720003,0.11939839,-0.15919796,0.98000002,0
-1.1909697,-6.1533432,1.29536,-0.18608901,-0.96145988,0.2024,0
2.5957131,2.8390615,-5.1148806,0.40558016,0.44360337,-0.79920006,0
-5.2684255,-3.6333964,0.046079606,-0.82319146,-0.56771815,0.0071999384,0
4.604568,-3.2889776,2.9900804,0.71946377,-0.51390272,0.46720004,0
3.2309718,5.2310972,-1.7766386,0.50483936,0.81735891,-0.27759978,0
-5.6269946,-2.7331114,-1.3516796,-0.87921792,-0.42704865,-0.21119992,0
-2.9663498,-1.2359793,5.5347199,-0.46349216,-0.19312176,0.86479998,0
1.19692,-4.0695271,4.7923203,0.18701875,-0.6358636,0.74880004,0
4.2478108,4.7787867,-0.2815997,0.66372049,0.74668545,-0.043999955,0
-1.689321,5.6310697,-2.5292792,-0.2639564,0.87985456,-0.39519984,0
0.50902128,1.2725546,6.2515202,0.079534575,0.19883665,0.97680002,0
0.70889288,4.4896593,4.5056,0.11076451,0.70150924,0.704,0
3.5117667,-2.8289232,-4.5414414,0.54871351,-0.44201925,-0.70960021,0
-2.4655869,-2.2190285,5.47328,-0.38524795,-0.3467232,0.85519999,0
-5.8610024,2.3444011,1.0547196,-0.91578162,0.36631268,0.16479993,0
4.8204465,-1.6068155,3.8912005,0.75319475,-0.2510649,0.6080001,0
-0.1114702,5.0161633,-3.9731195,-0.017417219,0.78377551,-0.6207999,0
-4.9206209,3.2091002,2.5395207,-0.76884699,0.50142193,0.3968001,0
5.6956406,2.8478198,0.63999999,0.88994384,0.44497183,0.099999994,0
0,-3.4406397,5.3964801,0,-0.53759992,0.84320003,0
3.524442,3.0545166,4.3827205,0.55069405,0.47726822,0.68480009,0
-5.646234,1.0858146,2.8108802,-0.88222408,0.16965853,0.43920001,0
0.87082201,5.6603398,2.8569603,0.13606593,0.88442808,0.44640005,0
-5.9837408,1.3808628,-1.8022392,-0.93495947,0.21575981,-0.28159988,0
3.9071174,-3.2176254,3.9168,0.6104871,-0.50275397,0.61199999,0
-0.44869456,5.3843322,3.4303999,-0.070108525,0.84130192,0.53599995,0
2.6664093,4.8249316,-3.2511995,0.41662645,0.75389558,-0.5079999,0
-1.7722021,-0.44305056,-6.1337595,-0.27690658,-0.069226652,-0.95839989,0
-3.659905,0.48798683,5.22752,-0.57186013,0.076247938,0.8168,0
-3.3238349,-3.2231128,-4.4185591,-0.51934922,-0.50361139,-0.69039983,0
-3.36731,5.4251108,0.43519923,-0.52614218,0.84767354,0.067999877,0
-4.3170438,-3.4282405,-3.2511997,-0.67453808,-0.53566259,-0.50799996,0
-0.54953593,5.7701283,-2.7136006,-0.085864991,0.90158254,-0.42400008,0
5.9317093,0.42369315,2.3654408,0.92682958,0.066202052,0.36960012,0
-1.3652271,1.7747951,-5.9955201,-0.21331674,0.27731171,-0.9368,0
2.4063075,-5.9232183,0.29184031,0.37598553,-0.92550284,0.045600049,0
-5.457901,-3.0500033,-1.3670402,-0.85279703,-0.47656301,-0.21360002,0
1.487252,5.7365437,2.4166405,0.23238312,0.89633495,0.37760007,0
1.5099659,-5.6084452,2.6880004,0.23593217,-0.87631953,0.42000008,0
4.2182713,2.1091349,4.3264003,0.65910488,0.32955232,0.67600006,0
-6.3289165,0.87901634,-0.36352059,-0.98889321,0.1373463,-0.056800094,0
-6.2350063,0.3197436,-1.4079994,-0.97421974,0.049959939,-0.21999991,0
3.5472398,5.3208604,-0.25600013,0.5542562,0.83138442,-0.040000021,0
-4.6531987,-2.6939571,-3.4713597,-0.72706228,-0.4209308,-0.54239994,0
-3.0579731,-4.8053865,2.9184003,-0.4778083,-0.75084162,0.45600003,0
0.24248461,-3.8797574,5.0841603,0.037888221,-0.60621208,0.79440004,0
3.6586335,5.1553464,-0.99840075,0.57166147,0.80552286,-0.15600011,0
-1.4948996,5.2321486,-3.3689609,-0.23357807,0.81752324,-0.52640015,0
2.9046245,-2.6625726,5.0432,0.45384756,-0.41602698,0.78799999,0
-3.151521,-5.5615082,0.31231987,-0.49242514,-0.86898565,0.04879998,0
1.5049666,-2.0066223,5.888,0.23515104,-0.31353474,0.92000002,0
2.8613431,-5.7226849,-0.1536002,0.44708487,-0.89416951,-0.024000032,0
4.6333261,-3.7909029,2.2630394,0.72395718,-0.59232855,0.35359991,0
4.9613175,-3.0199318,2.6879997,0.77520585,-0.47186434,0.41999996,0
1.4277366,-3.4900227,-5.1712003,0.22308385,-0.54531604,-0.80800003,0
-0.2047358,6.1420798,1.7868797,-0.031989969,0.95969999,0.27919993,0
-2.5222845,5.6751409,-1.5462404,-0.39410695,0.88674074,-0.24160007,0
-5.120481,-1.5849106,-3.4969606,-0.80007517,-0.24764228,-0.54640007,0
-5.4867678,-3.2920606,0.13311951,-0.85730737,-0.51438445,0.020799922,0
-6.0605278,1.7595075,1.0649602,-0.94695741,0.27492303,0.16640003,0
1.807724,2.6781096,-5.5244784,0.28245687,0.41845462,-0.86319977,0
6.1941485,-0.79924482,1.39776,0.96783572,-0.12488201,0.2184,0
-5.7944922,-1.9823263,-1.8585597,-0.90538943,-0.30973849,-0.29039994,0
4.9912257,-3.9585578,-0.61440039,0.77987903,-0.61852467,-0.09600006,0
-2.9765129,0.74412751,5.6166401,-0.46508014,0.11626992,0.87760001,0
-4.5687218,3.2633727,-3.0719998,-0.71386278,0.50990194,-0.47999996,0
-0.38410261,6.3376894,0.80384058,-0.060016032,0.99026394,0.12560008,0
6.2266002,0,1.4796799,0.97290629,0,0.23119999,0
3.1895583,4.1008615,3.7376001,0.49836847,0.64075959,0.58399999,0
-2.892179,-5.3711901,1.9353604,-0.45190296,-0.83924842,0.30240005,0
1.5099659,5.6084452,2.6880004,0.23593217,0.87631953,0.42000008,0
-2.4741993,2.8732638,-5.1558409,-0.38659364,0.44894746,-0.80560011,0
-5.560914,-3.1280143,-0.50175989,-0.86889279,-0.48875225,-0.078399979,0
-2.4639919,4.8047843,-3.4355192,-0.38499874,0.75074756,-0.53679985,0
4.8047843,2.4639919,-3.4355192,0.75074756,0.38499874,-0.53679985,0
0.13880758,5.8299241,-2.6368008,0.021688685,0.91092563,-0.41200012,0
-4.5280719,-4.1164289,1.8739203,-0.70751125,-0.64319199,0.29280004,0
3.5627913,-5.2593594,-0.77823961,0.55668616,-0.8217749,-0.12159993,0
-2.4029932,5.7671838,-1.3875207,-0.37546769,0.90112245,-0.21680011,0
4.32162,-1.3750608,-4.5158396,0.67525309,-0.21485324,-0.7055999,0
-4.9912257,-3.9585578,-0.61440039,-0.77987903,-0.61852467,-0.09600006,0
-0.67216456,5.3773165,3.4047997,-0.10502571,0.84020567,0.53199995,0
-6.113203,0.45848978,-1.8380802,-0.95518798,0.071639024,-0.28720003,0
-2.9342916,-5.6851902,0.16895999,-0.45848307,-0.88831097,0.026399998,0
6.1941485,0.79924542,1.3977599,0.96783572,0.12488209,0.21839999,0
-2.2423496,5.979599,0.41984019,-0.35036713,0.93431234,0.06560003,0
-5.5576601,-1.9238056,2.5241601,-0.86838436,-0.30059463,0.39440003,0
2.9238458,1.7828327,-5.4067211,0.45685089,0.27856761,-0.84480017,0
-3.151521,-5.5615082,0.31231987,-0.49242514,-0.86898565,0.04879998,0
1.7612724,1.5096623,5.9648004,0.27519882,0.23588473,0.93200004,0
-1.2965839,5.0684633,-3.6864004,-0.20259123,0.79194736,-0.57600003,0
-3.2309716,-5.2310967,-1.7766403,-0.5048393,-0.81735885,-0.27760005,0
2.3545542,-5.8863859,-0.87551957,0.36789909,-0.91974777,-0.13679993,0
-2.1857665,3.157218,5.1199999,-0.341526,0.49331531,0.79999995,0
3.1196303,5.1993847,2.0480003,0.48744223,0.81240386,0.32000005,0
5.9768143,-2.1208055,0.86015975,0.93387723,-0.33137587,0.13439997,0
5.3899379,0,3.4508798,0.84217781,0,0.53919995,0
-0.49415258,2.6354804,-5.8112011,-0.077211335,0.4117938,-0.90800017,0
-4.3331361,4.6797862,-0.53247947,-0.6770525,0.73121661,-0.083199918,0
1.4435133,-3.8493683,4.9049602,0.22554895,-0.60146379,0.76640004,0
-3.8538296,5.0267348,-0.91648012,-0.60216087,0.78542733,-0.14320001,0
-1.8706434,-4.3648348,-4.2905607,-0.29228804,-0.68200541,-0.67040008,0
-0.17347662,4.0766983,-4.9305615,-0.027105723,0.63698411,-0.77040023,0
3.1656132,-5.0649819,2.2988801,0.49462706,-0.79140341,0.3592,0
5.8180141,0.27704802,-2.6521606,0.90906471,0.043288752,-0.4144001,0
-4.7904706,4.2377243,0.2303998,-0.74851102,0.66214442,0.035999969,0
2.9238458,1.7828327,-5.4067211,0.45685089,0.27856761,-0.84480017,0
-0.95306319,-6.2902155,0.69632053,-0.14891613,-0.98284614,0.10880008,0
5.5760608,-2.4782495,1.9302405,0.87125951,-0.38722649,0.30160007,0
3.7437322,4.1841712,3.0719998,0.58495814,0.65377676,0.47999996,0
-5.7581563,-1.2795905,2.4832006,-0.89971191,-0.19993602,0.38800007,0
3.0932336,3.7332129,-4.1779218,0.48331773,0.58331454,-0.65280026,0
-0.69667822,-1.3327758,-6.2207999,-0.10885597,-0.20824622,-0.972,0
-6.1618304,1.6804987,0.40960082,-0.96278602,0.26257792,0.06400013,0
-5.7203827,2.6150327,-1.1827202,-0.8938098,0.40859884,-0.18480003,0
3.9262757,4.144402,2.8927999,0.61348057,0.6475628,0.45199996,0
5.0161633,0.1114702,-3.9731195,0.78377551,0.017417219,-0.6207999,0
-2.8605316,4.8409004,3.0566394,-0.44695807,0.75639069,0.47759992,0
-3.9106479,4.6626959,-1.9814398,-0.61103874,0.7285462,-0.30959997,0
-0.63461161,-5.9230413,2.3398399,-0.099158064,-0.92547518,0.36559999,0
1.8992375,-6.0775585,0.64512002,0.29675585,-0.94961852,0.1008,0
-0.97339249,-3.6502228,5.16608,-0.15209258,-0.57034731,0.80720001,0
2.9663498,-1.2359793,5.5347199,0.46349216,-0.19312176,0.86479998,0
-6.1921315,-1.5922625,-0.28671983,-0.96752053,-0.24879101,-0.044799972,0
2.402993,-5.7671843,-1.3875202,0.37546766,-0.90112251,-0.21680003,0
1.6664635,-4.0471258,4.6694403,0.26038492,-0.63236338,0.72960001,0
2.6980753,-2.7798352,-5.0943995,0.42157426,-0.43434924,-0.79599988,0
-5.4475884,-3.3388445,-0.36864004,-0.85118568,-0.52169442,-0.057600006,0
1.8402321,-4.5464554,-4.111361,0.28753626,-0.71038365,-0.64240015,0
-3.8427126,-0.4905591,-5.0943999,-0.60042381,-0.07664986,-0.796,0
3.7931709,-2.3707314,4.5772796,0.59268296,-0.37042677,0.71519995,0
4.3765912,4.3765912,-1.6281583,0.68384236,0.68384236,-0.25439975,0
1.7183682,5.5846972,2.6112003,0.26849502,0.87260896,0.40800005,0
-3.2137282,-2.6781068,-4.8435211,-0.50214499,-0.41845417,-0.75680017,0
3.7424715,5.0442004,-1.2288005,0.58476114,0.78815633,-0.19200008,0
2.9663498,1.2359793,5.5347199,0.46349216,0.19312176,0.86479998,0
5.3254771,2.5562291,2.4627199,0.83210582,0.39941078,0.38479999,0
1.0159687,6.0958114,1.6639996,0.15874511,0.95247054,0.25999993,0
-4.2670679,4.4702621,1.6639992,-0.66672927,0.6984784,0.25999984,0
-0.70589167,6.3530269,-0.31744051,-0.11029557,0.99266046,-0.04960008,0
-3.5288761,-2.6705008,-4.6233602,-0.55138689,-0.41726574,-0.72240001,0
-2.9818583,4.128727,3.8758399,-0.46591535,0.64511359,0.6056,0
3.3925173,-4.8767428,2.3807998,0.5300808,-0.76199108,0.37199995,0
