0.23843215,3.5764852,5.1200004,0.038149145,0.57223761,0.81920004,0
-1.0369185,5.4438219,-2.8900008,-0.16590697,0.8710115,-0.46240014,0
-3.2811966,4.1561823,3.3199999,-0.52499145,0.66498917,0.53119999,0
1.1776568,3.7685015,4.8449993,0.18842508,0.60296023,0.77519989,0
3.046514,5.0775242,2.0000002,0.48744226,0.81240386,0.32000005,0
4.5552168,-1.1388044,4.125,0.72883469,-0.18220872,0.66000003,0
1.4598628,5.10952,-3.2900007,0.23357806,0.81752318,-0.52640009,0
-4.5320611,-3.0213735,3.0650001,-0.72512978,-0.48341978,0.49040002,0
-6.0320144,-1.5080036,-0.63500053,-0.96512228,-0.24128057,-0.10160008,0
-0.62964278,-5.6667848,2.5600004,-0.10074285,-0.90668559,0.40960008,0
-2.0245681,-5.8896518,0.5250001,-0.32393089,-0.94234431,0.084000014,0
1.3493332,-4.7226663,3.8649998,0.21589331,-0.75562662,0.61839998,0
-4.1231055,4.1231055,2.2500005,-0.65969688,0.65969688,0.36000007,0
-5.5912433,-2.1965601,1.7249998,-0.8945989,-0.35144961,0.27599996,0
4.6242404,-4.1287866,-0.79499918,0.73987848,-0.66060585,-0.12719987,0
1.3349158,4.8946915,3.6499994,0.21358652,0.78315061,0.58399987,0
4.3430691,-1.600078,4.2000003,0.69489104,-0.25601247,0.67200005,0
-5.7236352,1.2878176,-2.155,-0.91578162,0.20605081,-0.3448,0
0.99272352,-6.1217952,-0.77500021,0.15883577,-0.97948724,-0.12400004,0
3.0937192,4.9218259,-2.2950015,0.49499509,0.78749216,-0.36720026,0
0,-5.5520806,2.8700004,0,-0.8883329,0.45920005,0
2.5088589,-5.686748,-0.65499979,0.40141743,-0.90987968,-0.10479996,0
2.2574873,-5.5684695,-1.7199998,0.36119798,-0.89095515,-0.27519998,0
-2.4310491,1.4586296,5.5700002,-0.38896787,0.23338073,0.89120001,0
3.7042682,2.3151679,4.4699993,0.5926829,0.37042686,0.71519989,0
-3.0397491,2.8059225,4.6849999,-0.48635986,0.44894761,0.74959999,0
-4.2555842,3.6172473,2.8050001,-0.68089348,0.57875955,0.4488,0
-3.6464882,4.6675048,-1.9949998,-0.5834381,0.74680078,-0.31919995,0
-0.62964278,-5.6667848,2.5600004,-0.10074285,-0.90668559,0.40960008,0
-6.1449165,-0.19202846,1.1250002,-0.98318666,-0.030724553,0.18000004,0
-0.71859241,-3.3534307,5.2250004,-0.11497478,-0.53654891,0.83600008,0
3.5946634,3.3699958,3.845,0.57514614,0.53919935,0.61519998,0
-3.2520113,3.8127024,-3.7349997,-0.52032179,0.61003238,-0.59759992,0
-2.573715,0.48257142,-5.6749992,-0.41179439,0.077211425,-0.90799987,0
0,-6,1.7499996,0,-0.95999998,0.27999994,0
1.8034339,-3.6068683,-4.7750001,0.28854942,-0.57709891,-0.764,0
1.8268002,-4.2625337,-4.190001,0.29228804,-0.68200541,-0.67040014,0
4.4933281,-2.0219979,3.8450003,0.71893251,-0.32351968,0.61520004,0
-4.676537,-2.9877875,-2.8750002,-0.74824595,-0.478046,-0.46000004,0
-0.7038821,-3.9886649,4.7600002,-0.11262114,-0.6381864,0.76160002,0
-4.3772221,-0.92152029,4.3650002,-0.70035553,-0.14744325,0.69840002,0
-4.2589765,3.8468168,-2.4749992,-0.68143624,0.61549067,-0.39599988,0
4.3943143,-2.8563044,3.4050002,0.70309031,-0.45700872,0.54480004,0
-4.4749861,3.8647606,2.0250001,-0.71599776,0.61836171,0.324,0
-3.0567958,5.3493924,1.0500009,-0.48908734,0.85590279,0.16800015,0
-6.2094183,0.70964819,0.045000121,-0.99350691,0.11354371,0.0072000194,0
3.7879879,3.3423414,3.6800001,0.60607809,0.5347746,0.58880001,0
-5.0954099,-2.3353963,2.7649996,-0.8152656,-0.3736634,0.44239995,0
-5.3895154,-0.86232227,3.0450001,-0.86232245,-0.13797157,0.48720002,0
2.7230268,5.0271268,2.5249999,0.43568429,0.8043403,0.40399998,0
4.8599591,-1.7672579,3.5099993,0.77759343,-0.28276128,0.56159991,0
-0.26832798,3.2199364,-5.3500009,-0.042932477,0.51518983,-0.85600013,0
-4.6846132,-3.9038441,1.37,-0.74953812,-0.62461507,0.2192,0
3.5741253,0.47654966,5.1050005,0.57186007,0.076247945,0.81680006,0
3.3478911,-4.2158632,-3.1749997,0.53566259,-0.67453814,-0.50799996,0
4.7999997,-3.6000001,-1.75,0.76799995,-0.57600003,-0.28,0
-6.1524668,-0.83141464,-0.72000021,-0.98439467,-0.13302635,-0.11520004,0
-2.3656397,4.9463372,2.9999993,-0.37850234,0.79141396,0.4799999,0
3.7582419,1.1692307,-4.8549991,0.60131872,0.18707691,-0.77679986,0
2.669054,5.495111,-1.3200011,0.42704865,0.87921774,-0.21120018,0
-5.3299813,-2.978519,-1.335,-0.85279703,-0.47656304,-0.21360001,0
0.48238942,3.135534,5.3850002,0.077182308,0.50168544,0.86160004,0
1.6817776,5.8097763,-1.5749999,0.26908442,0.92956424,-0.25199997,0
1.6807361,-5.9759517,0.72500044,0.26891777,-0.95615226,0.11600007,0
-0.46206084,-4.3895755,4.4250002,-0.073929735,-0.70233208,0.708,0
2.6153414,1.7653555,-5.3949986,0.41845462,0.28245687,-0.86319977,0
-0.49142677,-2.2114193,5.8249998,-0.078628279,-0.35382709,0.93199998,0
2.8173752,-1.280625,-5.4299998,0.45078003,-0.2049,-0.86879998,0
4.1194053,2.0597022,4.2249999,0.65910488,0.32955238,0.67600006,0
-3.6747243,-5.0109878,-0.67000031,-0.58795589,-0.80175805,-0.10720005,0
0.93701702,3.9823205,4.7249994,0.14992273,0.63717127,0.75599992,0
-0.21505803,-2.1075683,-5.8800006,-0.034409285,-0.33721092,-0.94080007,0
5.6823282,2.5828762,-0.3199991,0.90917253,0.41326019,-0.051199857,0
2.5565748,5.5064688,1.4850008,0.40905198,0.88103503,0.23760013,0
3.3943453,2.2628968,-4.7349992,0.54309523,0.3620635,-0.75759989,0
-4.7056961,-2.7979813,-3.0150001,-0.75291139,-0.44767702,-0.48240003,0
-2.7729948,-3.9461849,-3.9749999,-0.44367915,-0.63138956,-0.63599998,0
4.0730824,4.2767363,2.0450008,0.65169317,0.68427777,0.32720011,0
-1.0210167,5.8343811,-1.9949991,-0.16336268,0.93350101,-0.31919986,0
-4.0730824,4.2767363,2.0450008,-0.65169317,0.68427777,0.32720011,0
2.7885482,-3.2533057,4.5500002,0.44616771,-0.52052891,0.72800004,0
5.4969053,1.3407089,-2.6550014,0.87950486,0.21451342,-0.42480022,0
-2.7230268,5.0271268,2.5249999,-0.43568429,0.8043403,0.40399998,0
-4.4194174,4.4194174,0,-0.70710677,0.70710677,0,0
-4.4819636,4.2952156,0.72499931,-0.71711421,0.68723452,0.11599989,0
3.7206457,-2.0928628,4.5649996,0.5953033,-0.33485806,0.73039991,0
0.25436169,-5.4687819,-3.0150003,0.040697869,-0.87500513,-0.48240006,0
-5.1474266,3.3779986,-1.0749993,-0.82358825,0.54047978,-0.17199989,0
-4.5861068,1.4931508,-3.9750001,-0.73377711,0.23890413,-0.63600004,0
-4.4121647,-0.3836664,-4.4100003,-0.70594633,-0.061386622,-0.70560002,0
-4.9883065,-2.9098451,2.3899999,-0.79812902,-0.46557522,0.38239998,0
1.9318573,-5.1516213,2.9649999,0.30909717,-0.8242594,0.47439998,0
-1.7337822,5.6347914,-2.0749996,-0.27740514,0.90156662,-0.33199993,0
-0.24949926,0.74849778,6.2000003,-0.039919883,0.11975965,0.99200004,0
-1.5178925,2.6563118,-5.4500008,-0.24286279,0.42500988,-0.8720001,0
2.1010656,4.9436831,-3.1949992,0.33617049,0.79098928,-0.51119989,0
5.7764907,-0.70445019,-2.2800012,0.9242385,-0.11271203,-0.36480018,0
3.1050684,1.6719598,5.1600003,0.49681094,0.26751357,0.82560003,0
5.3681884,2.4664652,-2.0400004,0.85891014,0.39463443,-0.32640007,0
1.1692307,-3.7582419,-4.8549991,0.18707691,-0.60131872,-0.77679986,0
2.6153414,-1.7653555,-5.3949986,0.41845462,-0.28245687,-0.86319977,0
4.0861044,-3.655988,3.0000002,0.65377671,-0.58495808,0.48000005,0
-1.387804,-4.1634121,4.4499998,-0.22204864,-0.66614592,0.71199995,0
4.805294,-3.1338873,2.4799995,0.76884705,-0.50142199,0.39679992,0
4.2952156,4.4819636,0.72499931,0.68723452,0.71711421,0.11599989,0
-2.4489791,0.24489771,5.7449999,-0.39183667,0.039183632,0.9192,0
3.9886656,0.70388144,4.7599998,0.63818651,0.11262103,0.76159996,0
3.7583077,-3.5372305,3.5249999,0.60132921,-0.56595689,0.56399995,0
4.5614562,0.81092536,-4.1949992,0.72983301,0.12974806,-0.67119986,0
-4.327456,1.8220863,4.125,-0.69239295,0.29153383,0.66000003,0
-2.7725217,-2.5348771,-4.9949994,-0.44360349,-0.40558034,-0.79919988,0
5.1534452,-3.4969809,0.52500087,0.82455122,-0.55951697,0.08400014,0
4.922842,3.5444465,1.5049999,0.7876547,0.56711143,0.24079998,0
2.7934878,-4.7274413,2.9850001,0.44695804,-0.75639063,0.47760001,0
5.0393653,-3.4645636,-1.2899997,0.80629843,-0.55433017,-0.20639996,0
5.5139003,1.0603658,2.7450001,0.88222402,0.16965853,0.43920001,0
3.9031236,-4.6837487,-1.3750004,0.6244998,-0.74939978,-0.22000006,0
-5.0467782,1.1736696,-3.4950006,-0.80748451,0.18778713,-0.55920011,0
5.2512856,-0.65641069,3.3249998,0.84020567,-0.10502571,0.53199995,0
3.3004088,-2.1216917,4.8650002,0.52806544,-0.33947068,0.77840006,0
0.46206015,-4.3895755,4.4250002,0.073929623,-0.70233208,0.708,0
-5.093864,-0.66441709,3.5600002,-0.81501824,-0.10630673,0.56960005,0
5.8434968,1.3484989,-1.7599992,0.93495947,0.21575983,-0.28159988,0
1.9595914,1.4696939,5.75,0.31353462,0.23515102,0.92000002,0
5.3576465,-2.7780387,1.6250007,0.85722345,-0.4444862,0.26000011,0
-2.6775458,0.73023897,5.5999999,-0.42840731,0.11683824,0.89599997,0
1.4815871,-1.2346561,5.9449997,0.23705393,-0.19754498,0.95119995,0
3.2830441,4.8531947,-2.1749995,0.52528703,0.77651113,-0.34799993,0
2.8553183,1.7410476,-5.2800012,0.45685092,0.27856761,-0.84480017,0
-4.2740149,4.2740145,-1.5899992,-0.68384242,0.6838423,-0.25439987,0
3.7790542,4.6860271,-1.6800001,0.60464865,0.74976432,-0.26880002,0
6.0489731,0.78051305,1.3649999,0.96783566,0.12488209,0.21839999,0
-1.6274058,-3.9522712,4.5600004,-0.26038492,-0.63236338,0.72960007,0
-2.8563044,4.3943143,3.4050002,-0.45700872,0.70309031,0.54480004,0
-3.436986,-4.8522162,1.925,-0.54991776,-0.77635461,0.308,0
5.9759517,1.6807361,0.72500044,0.95615226,0.26891777,0.11600007,0
4.8742433,3.8657794,-0.60000104,0.77987891,0.61852473,-0.096000165,0
3.1917233,-3.4197042,4.145,0.51067573,-0.5471527,0.66320002,0
-5.5519433,2.8655195,0.1649995,-0.88831091,0.45848313,0.02639992,0
-5.3318262,-0.74397582,-3.1750004,-0.85309219,-0.11903613,-0.50800008,0
-0.50398397,5.417829,-3.0750003,-0.080637433,0.86685264,-0.49200004,0
-2.9328482,-5.4990911,0.4699997,-0.46925572,-0.87985456,0.075199954,0
-5.4837255,2.2341108,2.0000002,-0.87739611,0.35745773,0.32000005,0
2.3499095,5.7843928,0.28500029,0.37598553,0.92550284,0.045600045,0
-6.1176386,1.2595136,0.22499993,-0.97882217,0.20152217,0.035999991,0
-4.9377627,-0.22444354,3.825,-0.79004204,-0.035910968,0.61199999,0
-1.8573097,-5.3065996,-2.73,-0.29716957,-0.84905595,-0.4368,0
3.8493631,1.8330299,-4.5700006,0.61589807,0.29328477,-0.7312001,0
-5.0604796,3.6644845,-0.16000018,-0.80967677,0.58631754,-0.025600027,0
-1.0559829,6.1599007,-0.055000849,-0.16895728,0.98558408,-0.0088001359,0
1.3919767,-6.0898995,-0.19499967,0.22271627,-0.97438395,-0.031199947,0
0.23680137,3.7888262,4.9649997,0.037888218,0.6062122,0.79439998,0
0.89322442,-4.4661231,-4.2799993,0.1429159,-0.7145797,-0.68479991,0
-5.341465,1.4956101,2.8800001,-0.8546344,0.23929761,0.46080002,0
4.1169462,-4.421906,-1.6000001,0.65871137,-0.70750499,-0.25600001,0
3.8657794,4.8742433,-0.60000104,0.61852473,0.77987891,-0.096000165,0
-6.0430188,1.3065983,-0.91500002,-0.966883,0.20905572,-0.1464,0
-0.78051251,6.0489731,1.365,-0.12488201,0.96783566,0.2184,0
3.5444465,4.922842,1.5049999,0.56711143,0.7876547,0.24079998,0
-2.7230268,5.0271268,2.5249999,-0.43568429,0.8043403,0.40399998,0
5.1753263,1.7251083,3.05,0.82805222,0.27601731,0.48800001,0
4.7142739,0.6285699,-4.0549994,0.75428385,0.10057119,-0.6487999,0
5.0271268,-2.7230268,2.5249999,0.8043403,-0.43568429,0.40399998,0
-5.9986978,1.713914,-0.37500003,-0.95979166,0.27422625,-0.060000006,0
-4.662014,-4.1025724,0.70500004,-0.74592227,-0.65641159,0.11280001,0
4.167058,4.36549,1.6249998,0.66672927,0.6984784,0.25999996,0
2.8365474,-2.6001685,4.9249997,0.45384759,-0.41602695,0.78799993,0
1.9446257,-0.23811744,-5.9350004,0.31114012,-0.03809879,-0.94960004,0
3.7582419,-1.1692307,-4.8549991,0.60131872,-0.18707691,-0.77679986,0
3.6644845,-5.0604796,-0.16000018,0.58631754,-0.80967677,-0.025600027,0
-0.92951578,4.1828222,4.5499997,-0.14872253,0.66925156,0.72799993,0
5.3745227,-1.1516834,-2.9750006,0.8599236,-0.18426935,-0.4760001,0
4.8345318,-3.9048145,0.66500008,0.77352506,-0.62477034,0.10640001,0
-2.6826251,0,5.645,-0.42922002,0,0.90319997,0
3.5575635,1.1858543,-4.999999,0.56921017,0.18973669,-0.79999983,0
4.0058022,4.0058022,2.6400001,0.64092833,0.64092833,0.42240003,0
-0.0028704957,-0.00083722785,-6.2499995,-0.00045927931,-0.00013395646,-0.99999994,0
5.0345182,-3.5728838,-0.97500002,0.80552292,-0.57166141,-0.156,0
-6.223022,0.36605975,0.44999993,-0.99568349,0.058569562,0.071999989,0
0.41376284,5.7926846,2.3100009,0.066202052,0.92682952,0.36960015,0
-1.7324114,0.24748714,6,-0.27718583,0.039597943,0.95999998,0
5.2006612,-2.4963174,2.405,0.83210582,-0.39941078,0.38479999,0
-0.47631335,2.0784581,-5.875001,-0.076210134,0.3325533,-0.94000018,0
2.3616736,-3.0701749,4.9049997,0.37786779,-0.49122798,0.78479993,0
0.90509623,-2.6021514,-5.6100006,0.1448154,-0.41634423,-0.89760011,0
-3.655988,4.0861044,3.0000002,-0.58495808,0.65377671,0.48000005,0
-1.1934721,3.3417208,5.145,-0.19095555,0.53467536,0.82319999,0
-0.1499165,-5.9966655,-1.7550002,-0.023986639,-0.95946646,-0.28080004,0
3.2475948,4.3301268,3.1250005,0.51961517,0.69282031,0.50000006,0
-4.0861044,3.6559885,2.9999998,-0.65377671,0.58495814,0.47999996,0
1.8931452,3.3130045,4.9500003,0.30290323,0.53008074,0.79200006,0
-0.65641069,5.2512856,3.3249998,-0.10502571,0.84020567,0.53199995,0
4.3926587,0.23119234,4.4400001,0.70282537,0.036990773,0.71039999,0
0.92951649,-4.1828222,4.5499997,0.14872263,-0.66925156,0.72799993,0
-2.9580398,-5.1765699,-1.8749995,-0.47328636,-0.82825118,-0.29999992,0
-4.5782089,-0.45782119,4.23,-0.73251343,-0.073251389,0.67680001,0
-5.8797936,1.8967081,0.94499969,-0.94076699,0.30347329,0.15119995,0
-0.64060503,-4.209691,-4.5750003,-0.1024968,-0.67355055,-0.73200005,0
5.9184837,-1.7182696,1.0399998,0.94695741,-0.27492315,0.16639997,0
-2.2577643,4.2897525,3.9450002,-0.36124229,0.68636042,0.63120002,0
1.9542769,1.7099925,5.6850004,0.3126843,0.27359879,0.90960008,0
5.5690613,-1.2224768,-2.5600011,0.8910498,-0.19559629,-0.40960017,0
-5.4112153,-0.2164484,3.1200001,-0.86579442,-0.034631744,0.49920002,0
4.5014553,4.3283224,-0.25499976,0.72023284,0.69253159,-0.04079996,0
-3.5728838,5.0345182,-0.97500002,-0.57166141,0.80552292,-0.156,0
-2.0245681,5.8896518,0.5250001,-0.32393089,0.94234431,0.084000014,0
-6.0430188,-1.3065988,-0.91500026,-0.966883,-0.20905581,-0.14640003,0
-5.6328392,1.0990903,-2.4749997,-0.9012543,0.17585446,-0.39599994,0
-1.3783957,5.9074106,1.5049996,-0.22054331,0.94518572,0.24079995,0
2.7581241,4.8595529,-2.7999997,0.44129986,0.77752846,-0.44799995,0
5.9074106,1.3783957,1.5049996,0.94518572,0.22054331,0.24079995,0
0.59830952,-5.9831014,1.7049997,0.095729522,-0.95729619,0.27279994,0
-4.8817463,2.759248,2.7600002,-0.78107941,0.44147968,0.44160002,0
5.0787401,3.6276715,0.33000103,0.81259841,0.58042741,0.052800164,0
-4.7729712,0.53033024,-3.9999995,-0.76367539,0.084852837,-0.63999993,0
-1.3332295,-1.7331983,-5.855,-0.21331672,-0.27731171,-0.9368,0
-0.45560604,1.1030462,-6.1349988,-0.072896965,0.17648739,-0.98159981,0
-2.8618178,2.1463625,5.125,-0.45789087,0.343418,0.81999999,0
-3.8292625,4.923337,0.40000033,-0.61268198,0.78773391,0.064000055,0
-4.2848568,-3.9991996,-2.1700003,-0.68557715,-0.63987201,-0.34720007,0
0.82731712,0.65761107,-6.1599994,0.13237074,0.10521777,-0.98559988,0
-3.8731384,-3.8731384,3.0099998,-0.61970216,-0.61970216,0.48159996,0
0.72746134,-2.8492236,-5.5149999,0.11639381,-0.45587578,-0.88239998,0
2.4489799,0.24489771,5.7449999,0.39183676,0.039183632,0.9192,0
1.4195423,3.5488548,4.9450002,0.22712678,0.56781679,0.79120004,0
3.3491347,5.0237012,-1.6150001,0.53586155,0.80379218,-0.25840002,0
-3.1956336,-1.8706149,-5.0349998,-0.5113014,-0.29929838,-0.80559999,0
3.8760302,-0.84261525,-4.829999,0.62016481,-0.13481843,-0.77279985,0
4.900939,-3.2672923,2.0899999,0.78415024,-0.52276677,0.3344,0
0.16941059,-3.9811525,-4.8150001,0.027105695,-0.63698441,-0.77039999,0
-6.127316,-0.64498049,-1.0499998,-0.98037058,-0.10319688,-0.16799997,0
4.056994,-2.7046628,3.9099998,0.64911902,-0.43274605,0.62559998,0
3.5482388,5.1449466,0.044999614,0.56771821,0.82319146,0.0071999384,0
1.4696939,-1.9595921,5.75,0.23515102,-0.31353474,0.92000002,0
5.2233319,3.3578568,0.71000069,0.83573312,0.53725708,0.11360011,0
4.4375496,-1.5479825,-4.1200004,0.71000791,-0.24767719,-0.65920007,0
2.3866816,-2.2502995,-5.3200002,0.38186905,-0.36004791,-0.85120004,0
4.3301268,3.2475948,3.1250005,0.69282031,0.51961517,0.50000006,0
3.9048142,4.8345323,0.66500068,0.62477028,0.77352518,0.10640011,0
0.1999373,5.9981246,1.7449996,0.031989969,0.95969993,0.27919996,0
-3.2819514,-0.20512198,-5.3149996,-0.52511221,-0.032819517,-0.85039991,0
4.4345889,-4.2417803,1.1849996,0.70953423,-0.67868483,0.18959993,0
-3.1138401,5.2546048,1.3250005,-0.49821442,0.84073675,0.21200009,0
3.9031236,4.6837487,-1.3750004,0.6244998,0.74939978,-0.22000006,0
-3.7480662,-1.6397787,4.7249999,-0.59969062,-0.2623646,0.75599998,0
-6.1449165,0.19202846,1.1250002,-0.98318666,0.030724553,0.18000004,0
4.4661231,-0.89322466,-4.2799997,0.71457964,-0.14291593,-0.68479991,0
-4.8430953,-3.9462261,0.18500054,-0.77489525,-0.63139617,0.029600086,0
4.7441754,3.7558055,1.5649998,0.75906807,0.6009289,0.25039998,0
-1.4956101,-5.341465,2.8800001,-0.23929761,-0.8546344,0.46080002,0
-4.5014553,4.3283224,-0.25499976,-0.72023284,0.69253159,-0.04079996,0
-2.1599998,-3.5999994,-4.6300006,-0.34559998,-0.57599992,-0.74080008,0
-5.5912433,2.1965601,1.7249998,-0.8945989,0.35144961,0.27599996,0
-5.1629691,-2.6847439,2.28,-0.82607508,-0.42955902,0.36480001,0
5.9866519,-0.2993328,-1.769999,0.95786428,-0.047893248,-0.28319985,0
-1.0693231,1.1989381,-6.0399995,-0.17109169,0.1918301,-0.96639991,0
1.2254997,-6.1274996,-0.11999974,0.19607995,-0.98039991,-0.01919996,0
0.74699438,6.1627002,0.72500044,0.1195191,0.98603201,0.11600007,0
-3.1375546,-0.24135014,5.4000001,-0.50200874,-0.038616024,0.86400002,0
2.3869443,-2.6256382,5.1449995,0.3819111,-0.42010212,0.82319993,0
-4.5107865,-3.0071912,-3.1100008,-0.72172582,-0.4811506,-0.49760014,0
6.1007457,0.8027299,-1.0949999,0.97611928,0.12843679,-0.17519999,0
-0.2070626,5.7977581,2.3250008,-0.033130016,0.92764127,0.37200013,0
5.5995622,-0.66661465,-2.6950006,0.89592993,-0.10665835,-0.43120012,0
3.2880468,-3.5001788,-3.9999995,0.52608752,-0.56002861,-0.63999993,0
5.1474266,3.3779986,-1.0749993,0.82358825,0.54047978,-0.17199989,0
-3.852272,-2.2150564,-4.395,-0.61636353,-0.35440904,-0.70319998,0
2.760865,-5.5217295,-0.97500038,0.4417384,-0.88347673,-0.15600006,0
3.4353461,4.2941818,2.9699998,0.54965538,0.68706912,0.47519997,0
-1.6513175,3.5385373,4.8800006,-0.26421079,0.56616598,0.7808001,0
-1.7295808,0.74124825,5.96,-0.27673292,0.11859972,0.95359999,0
5.2240262,-3.4226377,0.23999943,0.83584422,-0.54762203,0.038399909,0
-3.7521162,-2.0133307,-4.5749998,-0.60033858,-0.32213292,-0.73199999,0
2.8059225,3.0397491,4.6849999,0.44894761,0.48635986,0.74959999,0
0.24949926,0.74849778,6.2000003,0.039919883,0.11975965,0.99200004,0
0.95308751,3.3724635,-5.1749988,0.152494,0.53959417,-0.82799983,0
1.9446257,-0.23811744,-5.9350004,0.31114012,-0.03809879,-0.94960004,0
-5.3681889,-2.466465,-2.04,-0.8589102,-0.3946344,-0.32639998,0
2.8471832,5.5268841,-0.63999975,0.45554933,0.88430142,-0.10239996,0
3.8777411,3.1021924,-3.7950001,0.62043858,0.4963508,-0.60720003,0
-5.4969058,1.3407091,-2.6550002,-0.87950492,0.21451345,-0.42480004,0
-0.8109256,-4.5614557,-4.1949997,-0.12974809,-0.72983289,-0.67119998,0
5.7977581,-0.2070626,2.3250008,0.92764127,-0.033130016,0.37200013,0
3.313005,4.7624445,2.3249991,0.5300808,0.76199114,0.37199986,0
-3.2199388,-0.26832819,-5.3499994,-0.51519018,-0.04293251,-0.85599989,0
-3.9358933,1.1370358,-4.7199993,-0.62974292,0.18192573,-0.75519991,0
3.7238691,-4.8099971,-1.4350003,0.59581906,-0.76959956,-0.22960004,0
-4.0516667,4.726944,-0.54999942,-0.64826667,0.75631106,-0.08799991,0
4.8387504,-1.9794886,3.4249992,0.77420008,-0.31671819,0.54799986,0
4.148253,-4.6667838,-0.27499971,0.66372049,-0.74668539,-0.043999955,0
-3.0556912,-2.5855854,4.7999997,-0.48891059,-0.41369367,0.76799995,0
-5.6555171,-0.83785427,2.5250006,-0.90488273,-0.13405669,0.4040001,0
5.5268846,-2.8471828,-0.63999921,0.88430154,-0.45554924,-0.10239987,0
0.21035665,5.6796346,2.6000006,0.033657063,0.90874153,0.4160001,0
-5.4305801,3.0547013,-0.48999989,-0.86889285,0.48875222,-0.078399986,0
-0.18323466,6.2299838,0.4650009,-0.029317547,0.99679738,0.074400142,0
6.0430188,-1.3065988,-0.91500026,0.966883,-0.20905581,-0.14640003,0
-2.6135132,2.6135132,5.0399995,-0.41816211,0.41816211,0.80639994,0
-4.3089967,3.5255427,-2.839999,-0.68943948,0.56408685,-0.45439982,0
0.41376284,5.7926846,2.3100009,0.066202052,0.92682952,0.36960015,0
4.6675048,3.6464882,-1.9949998,0.74680078,0.5834381,-0.31919995,0
-3.5044618,-4.6258893,-2.3199995,-0.56071389,-0.74014229,-0.37119991,0
2.3942382,-4.7884755,3.2249999,0.38307813,-0.76615608,0.51599997,0
-1.5992422,6.0415807,0.065000862,-0.25587875,0.96665293,0.010400138,0
-0.65761107,-0.82731712,-6.1599994,-0.10521777,-0.13237074,-0.98559988,0
-0.13856407,3.325536,-5.2900009,-0.022170251,0.53208578,-0.84640014,0
-4.8007164,-3.8405726,1.1250002,-0.76811463,-0.61449164,0.18000004,0
-0.19493604,4.4835262,-4.349999,-0.031189766,0.71736419,-0.69599986,0
-2.0245681,-5.8896518,0.5250001,-0.32393089,-0.94234431,0.084000014,0
3.1139002,-1.4371848,5.2249999,0.49822402,-0.22994956,0.83599997,0
-0.65761107,0.82731712,-6.1599994,-0.10521777,0.13237074,-0.98559988,0
-3.1384065,2.6153388,-4.730001,-0.50214505,0.4184542,-0.75680017,0
-5.9742761,1.8103871,0.30500031,-0.95588416,0.28966194,0.048800047,0
5.2512856,0.65641004,3.3249998,0.84020567,0.1050256,0.53199995,0
0.23119234,4.3926587,4.4400001,0.036990773,0.70282537,0.71039999,0
-4.8830709,0.21702516,-3.8949995,-0.78129137,0.034724027,-0.62319994,0
3.5488548,-1.4195423,4.9450002,0.56781679,-0.22712678,0.79120004,0
-2.3089392,-3.1335604,-4.8899999,-0.36943027,-0.50136966,-0.78239995,0
3.007802,4.3312354,-3.3550005,0.48124832,0.69299769,-0.53680009,0
2.4664652,-5.3681884,-2.0400004,0.39463443,-0.85891014,-0.32640007,0
-1.536227,1.1137646,-5.9550009,-0.24579632,0.17820235,-0.95280015,0
2.6536014,-4.4226685,3.5300002,0.42457622,-0.70762694,0.56480002,0
-5.0109878,-3.6747243,-0.67000031,-0.80175805,-0.58795589,-0.10720005,0
2.8219144,-2.8219144,4.8099999,0.45150632,-0.45150632,0.76959997,0
-2.6847439,5.1629691,2.28,-0.42955902,0.82607508,0.36480001,0
3.9856544,-2.0414326,-4.3600011,0.63770467,-0.32662922,-0.69760019,0
0,1.2437346,6.125,0,0.19899754,0.98000002,0
0.1999373,-5.9981246,1.7449996,0.031989969,-0.95969993,0.27919996,0
4.7718,-3.9490757,-0.83500087,0.76348799,-0.63185209,-0.13360015,0
-2.4399178,-1.1645063,-5.6350002,-0.39038685,-0.18632101,-0.90160006,0
1.8619533,-1.0392298,-5.8750005,0.29791251,-0.16627675,-0.94000006,0
-0.60266083,-3.540632,-5.1150002,-0.096425734,-0.56650114,-0.81840003,0
1.7199925,1.4742795,5.8249998,0.27519882,0.23588473,0.93199998,0
3.8777411,3.1021924,-3.7950001,0.62043858,0.4963508,-0.60720003,0
3.5444465,-4.922842,1.5049999,0.56711143,-0.7876547,0.24079998,0
3.4714844,4.1223869,3.1649997,0.55543751,0.6595819,0.50639993,0
0.72746134,-2.8492236,-5.5149999,0.11639381,-0.45587578,-0.88239998,0
-0.6285699,-4.7142739,-4.0549994,-0.10057119,-0.75428385,-0.6487999,0
-0.069821104,3.3514161,-5.275001,-0.011171376,0.53622657,-0.84400016,0
0.1423023,-2.3242731,-5.8000002,0.022768369,-0.37188369,-0.92800003,0
4.4174933,-3.576066,2.6000006,0.70679891,-0.57217056,0.4160001,0
4.421906,4.1169462,-1.6000001,0.70750499,0.65871137,-0.25600001,0
-4.8299065,2.9516096,-2.650001,-0.77278501,0.47225752,-0.42400017,0
-3.6557422,0.54447222,-5.04,-0.58491874,0.087115556,-0.8064,0
-2.7979813,-4.7056961,-3.0150001,-0.44767702,-0.75291139,-0.48240003,0
3.3957691,3.3957691,4.0000005,0.54332304,0.54332304,0.6400001,0
5.8667259,0,-2.1550012,0.93867606,0,-0.34480017,0
-6.0174122,1.6411121,0.40000078,-0.96278596,0.26257792,0.064000122,0
-4.8052936,-3.1338875,2.4800003,-0.76884699,-0.50142199,0.39680004,0
5.8461528,-1.7538458,1.3449996,0.93538445,-0.28061533,0.21519993,0
2.9933274,-1.9456629,-5.1299987,0.47893238,-0.31130606,-0.82079977,0
-0.65641069,5.2512856,3.3249998,-0.10502571,0.84020567,0.53199995,0
-4.5441384,2.6308174,-3.3900003,-0.72706223,0.42093083,-0.54240012,0
-0.23680137,3.7888262,4.9649997,-0.037888218,0.6062122,0.79439998,0
-3.9031236,-4.6837487,-1.3750004,-0.6244998,-0.74939978,-0.22000006,0
0.10885762,-4.8985972,-3.8799994,0.017417219,-0.78377557,-0.6207999,0
5.6667848,0.62964219,2.5600007,0.90668559,0.10074275,0.40960011,0
5.1961527,1.5155443,3.1249998,0.83138442,0.24248709,0.49999997,0
3.7042685,-2.3151672,4.4699998,0.59268296,-0.37042674,0.71519995,0
-1.2807233,-1.9448022,-5.7999992,-0.20491573,-0.31116834,-0.92799985,0
-1.0369185,5.4438219,-2.8900008,-0.16590697,0.8710115,-0.46240014,0
3.2883885,-5.2979598,0.42499924,0.52614218,-0.84767359,0.067999877,0
-4.9340854,-0.44855347,3.8099999,-0.78945369,-0.071768552,0.60960001,0
2.1897945,-5.8394518,0.41000018,0.35036713,-0.93431228,0.06560003,0
-5.2350979,2.3034434,2.5199997,-0.83761567,0.36855096,0.40319997,0
-1.2427292,-0.4970918,6.105,-0.19883667,-0.079534687,0.97680002,0
-6.0293202,1.1106641,-1.2149998,-0.96469122,0.17770626,-0.19439997,0
-5.7236352,2.2894542,1.0299996,-0.91578162,0.36631268,0.16479994,0
5.3895154,-0.86232227,3.0450001,0.86232245,-0.13797157,0.48720002,0
4.7999997,-3.6000001,-1.75,0.76799995,-0.57600003,-0.28,0
0.23318425,-4.1973209,4.625,0.037309479,-0.67157137,0.74000001,0
-1.1864232,5.932116,1.5699996,-0.18982771,0.94913858,0.25119993,0
2.4149532,-2.1466248,-5.3500004,0.3863925,-0.34345996,-0.85600007,0
-0.9295159,-3.5631442,-5.0500007,-0.14872253,-0.57010305,-0.80800003,0
-6.235383,0.34640983,-0.25000048,-0.99766129,0.055425573,-0.040000077,0
1.6397787,-3.7480662,4.7249999,0.2623646,-0.59969062,0.75599998,0
-3.1868868,4.4616418,-3.000001,-0.50990188,0.71386266,-0.48000014,0
-3.4977672,-2.3318446,4.625,-0.55964273,-0.37309512,0.74000001,0
0.95812321,-6.0681133,-1.1499999,0.15329972,-0.97089815,-0.18399997,0
0.74729443,0.74729443,6.1600003,0.11956711,0.11956711,0.98560005,0
2.3151679,3.7042682,4.4699993,0.37042686,0.5926829,0.71519989,0
-4.7999997,-2.1599998,-3.3700004,-0.76799995,-0.34559998,-0.53920007,0
-4.7593274,-2.5959971,3.1099999,-0.76149237,-0.41535953,0.49759999,0
5.5507836,2.3789074,1.6100007,0.88812536,0.38062519,0.25760013,0
2.5652874,5.6802797,0.46500012,0.41044599,0.90884477,0.074400023,0
-2.8059218,2.4162104,-5.0350008,-0.44894749,0.38659367,-0.80560011,0
5.8988457,0.40681651,2.0249994,0.94381529,0.065090641,0.32399991,0
-1.8499326,5.5497975,-2.1999993,-0.29598922,0.88796759,-0.35199988,0
-2.2409821,-5.7892032,0.72499985,-0.35855713,-0.92627251,0.11599997,0
-3.9445026,-2.5950675,-4.0949998,-0.63112044,-0.41521081,-0.65519994,0
1.7538452,-5.8461528,1.3449999,0.28061524,-0.93538445,0.21519999,0
-2.016048,-5.7379832,-1.4400001,-0.32256767,-0.91807729,-0.23040001,0
5.1042385,-0.22192319,3.5999997,0.81667817,-0.035507709,0.57599998,0
-3.078352,5.346611,-0.9999994,-0.49253631,0.85545778,-0.15999991,0
5.9184837,1.718269,1.0400002,0.94695741,0.27492303,0.16640003,0
-2.126117,-2.7859464,-5.1750007,-0.34017873,-0.44575143,-0.82800013,0
-5.6438351,-2.3353801,1.3249993,-0.90301359,-0.3736608,0.21199989,0
-0.21035665,5.6796346,2.6000006,-0.033657063,0.90874153,0.4160001,0
-5.7118692,-1.6110404,-1.9599996,-0.91389906,-0.25776646,-0.31359994,0
3.0776575,5.43116,0.30499935,0.4924252,0.86898559,0.048799895,0
-1.9245782,2.6462948,5.3249998,-0.3079325,0.42340717,0.852,0
-3.8878748,-1.6274825,-4.6150002,-0.62206,-0.2603972,-0.73840004,0
-3.1371167,-5.4028115,-0.17500021,-0.50193864,-0.86444986,-0.028000033,0
1.7199925,-1.4742795,5.8249998,0.27519882,-0.23588473,0.93199998,0
5.8091369,-0.56674492,-2.2350011,0.9294619,-0.090679191,-0.35760018,0
-5.1167936,1.7471976,-3.1349998,-0.81868696,0.27955163,-0.50159997,0
4.3571067,-0.96824592,-4.3749995,0.69713706,-0.15491934,-0.69999993,0
0.22192319,5.1042385,3.5999997,0.035507709,0.81667817,0.57599998,0
3.3943453,-2.2628968,-4.7349992,0.54309523,-0.3620635,-0.75759989,0
-5.243289,-2.1510928,-2.6349993,-0.83892626,-0.34417483,-0.42159989,0
-0.89442736,4.9193497,-3.75,-0.14310838,0.78709596,-0.60000002,0
-1.4095656,-3.6482878,-4.8749995,-0.22553049,-0.58372605,-0.77999991,0
4.136085,2.9871724,-3.6100004,0.66177362,0.47794759,-0.57760006,0
0.69101387,-3.2477643,-5.2950001,0.11056222,-0.51964229,-0.84720004,0
2.504396,-5.7243342,0.15000042,0.40070334,-0.9158935,0.024000067,0
-0.74488258,1.2414712,6.0799999,-0.11918122,0.19863538,0.97280002,0
1.6266527,-4.8799586,-3.5500004,0.26026443,-0.78079337,-0.56800008,0
4.6473618,2.2130301,3.5450003,0.7435779,0.35408482,0.56720006,0
-0.45782119,4.5782089,4.23,-0.073251389,0.73251343,0.67680001,0
-1.5850787,-4.5287967,4.0050001,-0.25361261,-0.72460747,0.6408,0
5.5276756,0.85041213,2.7900002,0.88442808,0.13606595,0.44640005,0
3.0855629,4.1875501,3.4650002,0.49369007,0.670008,0.55440003,0
3.1213539,1.200521,5.2800002,0.49941662,0.19208336,0.84480006,0
-6.2216134,0,-0.59500015,-0.99545813,0,-0.095200025,0
-4.922842,-3.5444465,1.5049999,-0.7876547,-0.56711143,0.24079998,0
5.9946852,1.4581662,-0.99999994,0.9591496,0.2333066,-0.16,0
1.1858544,-3.5575626,5,0.18973671,-0.56920999,0.80000001,0
2.9328487,-5.4990907,0.46999922,0.46925581,-0.8798545,0.075199872,0
-1.6719598,-3.1050684,5.1600003,-0.26751357,-0.49681094,0.82560003,0
-4.1634121,-1.387804,4.4499998,-0.66614592,-0.22204864,0.71199995,0
1.9563353,4.9995255,3.1999998,0.31301364,0.79992408,0.51199996,0
-4.7194543,1.9568471,-3.6000001,-0.75511271,0.31309554,-0.57600003,0
-2.0438933,5.5185118,2.1050005,-0.32702294,0.88296187,0.33680007,0
-5.2141347,1.3035337,3.1899998,-0.83426154,0.20856538,0.5104,0
-2.1600003,4.8000002,-3.3699992,-0.34560004,0.76800001,-0.53919989,0
-2.2360678,-4.4721355,3.7500002,-0.35777083,-0.71554166,0.60000002,0
5.6186166,-2.7186854,0.31999984,0.89897865,-0.43498966,0.051199976,0
3.6559885,4.0861044,2.9999998,0.58495814,0.65377671,0.47999996,0
-0.83785427,-5.6555171,2.5250006,-0.13405669,-0.90488273,0.4040001,0
-3.1536009,0.95979148,-5.3100004,-0.50457615,0.15356664,-0.84960008,0
0.60930228,5.8899279,1.9999994,0.097488366,0.94238847,0.3199999,0
2.4201655,5.4453716,1.8850005,0.38722649,0.87125945,0.30160007,0
5.2293024,1.0894382,3.2449996,0.8366884,0.17431012,0.51919997,0
0.99599248,0.4979955,6.1500001,0.1593588,0.079679281,0.98400003,0
-5.7118692,-1.6110404,-1.9599996,-0.91389906,-0.25776646,-0.31359994,0
-1.4310837,-6.0821047,0.14999977,-0.22897339,-0.97313672,0.023999963,0
-2.504396,5.7243342,0.15000042,-0.40070334,0.9158935,0.024000067,0
3.078352,-5.346611,-0.9999994,0.49253631,-0.85545778,-0.15999991,0
5.3681884,2.4664652,-2.0400004,0.85891014,0.39463443,-0.32640007,0
5.5042434,-0.91737378,-2.8150005,0.88067895,-0.14677981,-0.45040008,0
1.0693231,1.1989381,-6.0399995,0.17109169,0.1918301,-0.96639991,0
4.2203321,-1.3428328,-4.4099998,0.67525315,-0.21485324,-0.70559996,0
5.4028115,3.1371167,-0.17500021,0.86444986,0.50193864,-0.028000033,0
-1.2346561,1.4815871,5.9449997,-0.19754498,0.23705393,0.95119995,0
0,0.49959937,6.23,0,0.079935901,0.99680001,0
-4.1070976,-4.4982495,1.4000001,-0.65713561,-0.71971995,0.22400002,0
-2.5090334,5.5970755,1.1999995,-0.40144536,0.89553207,0.19199991,0
-0.6254999,-5.3792982,-3.1200004,-0.10007998,-0.86068773,-0.49920005,0
-2.4089835,3.9145977,-4.2349997,-0.38543737,0.62633562,-0.67759997,0
-4.915493,2.5646055,2.8850002,-0.78647888,0.41033688,0.46160004,0
-3.7492499,-4.9990001,0.12499979,-0.59987998,-0.79984003,0.019999966,0
-6.1713452,0.16240367,-0.97499979,-0.98741525,0.025984587,-0.15599996,0
-5.7570477,-1.0280445,2.2049999,-0.92112762,-0.16448711,0.35279998,0
-5.9529405,0.99215692,1.6249995,-0.95247048,0.15874511,0.25999993,0
-1.8103867,-5.9742761,0.3050006,-0.28966185,-0.95588416,0.048800096,0
1.657181,5.2264943,-3.000001,0.26514897,0.8362391,-0.48000014,0
3.8647604,4.4749866,2.0249994,0.61836165,0.71599787,0.32399991,0
-3.8760281,0.84261501,-4.8300004,-0.62016451,0.1348184,-0.77280009,0
-2.9877875,4.676537,-2.8750002,-0.478046,0.74824595,-0.46000004,0
-2.3473389,3.2862742,4.7700005,-0.37557423,0.52580386,0.76320004,0
-5.8149333,-2.2907314,-0.039999388,-0.93038934,-0.36651704,-0.006399902,0
-2.9422567,-3.9230092,-3.875,-0.47076106,-0.62768149,-0.62,0
-5.7994485,0,2.3299999,-0.92791176,0,0.37279999,0
0.23811744,-1.9446257,-5.9350004,0.03809879,-0.31114012,-0.94960004,0
-5.4453716,2.4201655,1.8850005,-0.87125945,0.38722649,0.30160007,0
3.7352381,1.8676184,4.6499996,0.59763807,0.29881895,0.74399996,0
-2.6698313,5.3396626,-1.8500006,-0.42717302,0.85434604,-0.29600009,0
-4.3312354,-3.007802,-3.3550005,-0.69299769,-0.48124832,-0.53680009,0
1.0446295,5.6409969,2.4800005,0.16714071,0.90255952,0.39680007,0
-4.2158632,3.3478911,-3.1749997,-0.67453814,0.53566259,-0.50799996,0
-2.7934878,-4.7274413,2.9850001,-0.44695804,-0.75639063,0.47760001,0
-4.2848568,-2.2495499,-3.9550004,-0.68557709,-0.35992798,-0.63280004,0
-1.1155158,-4.9082685,3.7049999,-0.17848253,-0.78532296,0.59279996,0
3.6923673,3.9095652,3.1849997,0.59077877,0.62553042,0.50959992,0
4.5825753,0,4.25,0.73321211,0,0.68000007,0
5.4723735,2.3664322,-1.8750006,0.87557977,0.37862915,-0.3000001,0
0.72280633,3.1321638,5.3600001,0.11564901,0.5011462,0.85760003,0
5.8394518,-2.1897945,0.41000018,0.93431228,-0.35036713,0.06560003,0
-2.3879635,-0.097467944,-5.7750006,-0.38207418,-0.015594871,-0.92400008,0
1.5477643,-5.0004697,-3.4150007,0.24764229,-0.80007517,-0.54640013,0
5.1534452,-3.4969809,0.52500087,0.82455122,-0.55951697,0.08400014,0
5.2906756,-2.8720808,-1.6800008,0.84650809,-0.45953292,-0.26880014,0
1.0752909,5.3764534,3,0.17204654,0.86023253,0.47999999,0
-5.3740115,2.262742,-2.2500002,-0.85984182,0.36203873,-0.36000004,0
-4.209691,0.64060503,-4.5750003,-0.67355055,0.1024968,-0.73200005,0
-0.90399098,4.7459531,3.9650004,-0.14463855,0.75935251,0.63440007,0
-1.3169559,2.212486,-5.6950006,-0.21071295,0.35399777,-0.91120011,0
-0.54447222,-3.6557422,-5.04,-0.087115556,-0.58491874,-0.8064,0
-3.2802439,5.2483902,-0.86999953,-0.52483904,0.83974242,-0.13919993,0
-4.1471009,4.1471009,-2.1600013,-0.66353613,0.66353613,-0.34560022,0
3.3534307,-0.71859241,5.2250004,0.53654891,-0.11497478,0.83600008,0
2.2907312,1.7033644,-5.5599999,0.36651698,0.2725383,-0.88959998,0
1.1630564,-6.0091243,1.2649999,0.18608902,-0.96145988,0.20239998,0
0.19202846,-6.1449165,1.1250002,0.030724553,-0.98318666,0.18000004,0
4.03196,2.9119709,3.7849998,0.64511359,0.46591532,0.6056,0
-2.949152,4.8450365,2.6249998,-0.47186431,0.77520585,0.41999996,0
3.4645638,5.0393648,-1.2900004,0.55433023,0.80629838,-0.20640007,0
1.8706149,-3.1956336,-5.0349998,0.29929838,-0.5113014,-0.80559999,0
-1.1494566,4.3679342,4.3200002,-0.18391305,0.69886947,0.69120002,0
2.9863019,-4.6927605,2.8500001,0.4778083,-0.75084168,0.45600003,0
0.35651052,6.2389402,0.10499921,0.057041682,0.99823046,0.016799873,0
-5.2090378,0.96912307,-3.3150001,-0.83344603,0.1550597,-0.53040004,0
-1.0394441,-0.19091831,-6.1600003,-0.16631106,-0.03054693,-0.98560005,0
-5.2751727,0.85874897,-3.2400002,-0.84402764,0.13739984,-0.51840001,0
1.8547242,-5.9351158,0.63,0.29675588,-0.94961852,0.1008,0
4.7118473,2.6039152,-3.1749995,0.75389558,0.41662642,-0.5079999,0
-4.2392454,-4.5925155,-0.0099999812,-0.67827928,-0.73480248,-0.0015999969,0
-0.46604747,-4.1944251,4.6099997,-0.074567594,-0.67110801,0.73759997,0
0.50398439,5.417829,-3.0750003,0.0806375,0.86685264,-0.49200004,0
0.76419932,-6.1135912,1.0500002,0.12227189,-0.97817457,0.16800003,0
-5.7909307,1.5974977,1.7249995,-0.9265489,0.25559962,0.27599993,0
2.6698313,-5.3396626,-1.8500006,0.42717302,-0.85434604,-0.29600009,0
3.729876,-3.3907967,-3.6949997,0.59678018,-0.54252744,-0.59119993,0
-1.4310838,6.0821047,0.15000078,-0.2289734,0.97313672,0.024000125,0
2.6826251,0,5.645,0.42922002,0,0.90319997,0
-1.3332295,-1.7331983,-5.855,-0.21331672,-0.27731171,-0.9368,0
-2.9672718,-5.4399977,-0.81499958,-0.47476348,-0.87039965,-0.13039993,0
1.6497275,5.4990911,-2.4699991,0.2639564,0.87985456,-0.39519987,0
1.6497272,-5.4990907,-2.4700003,0.26395637,-0.8798545,-0.39520004,0
4.8000002,3.6000001,1.7499996,0.76800001,0.57600003,0.27999994,0
0.99215692,5.9529405,1.6249995,0.15874511,0.95247048,0.25999993,0
3.9230092,2.9422567,-3.875,0.62768149,0.47076106,-0.62,0
-2.8618176,-2.1463633,5.125,-0.45789081,-0.34341812,0.81999999,0
-5.7236352,1.2878176,-2.155,-0.91578162,0.20605081,-0.3448,0
-5.3792982,-0.6254999,-3.1200004,-0.86068773,-0.10007998,-0.49920005,0
-4.6473622,-2.2130294,3.5449998,-0.74357796,-0.3540847,0.56719995,0
2.2697084,-5.3647647,2.2650001,0.36315334,-0.85836238,0.36240003,0
6.1740665,-0.90795124,0.34500083,0.98785067,-0.1452722,0.055200133,0
-4.7999997,2.1599998,-3.3700004,-0.76799995,0.34559998,-0.53920007,0
-4.8299065,2.9516096,-2.650001,-0.77278501,0.47225752,-0.42400017,0
-4.0792155,-2.2435684,-4.1700001,-0.6526745,-0.35897094,-0.66720003,0
-3.6203866,-3.1678381,3.9900002,-0.57926184,-0.50685412,0.63840002,0
-5.607573,-2.7188234,-0.4749994,-0.89721167,-0.43501174,-0.075999901,0
4.662014,-4.1025724,0.70500004,0.74592227,-0.65641159,0.11280001,0
3.5669601,-3.5669594,3.6899996,0.57071364,-0.57071352,0.59039992,0
5.0730515,-1.1028374,3.4799995,0.81168824,-0.17645399,0.55679995,0
-3.3417208,1.1934721,5.145,-0.53467536,0.19095555,0.82319999,0
-3.0701749,-2.3616731,4.9050002,-0.49122798,-0.3778677,0.78480005,0
-0.24974963,0.49949926,6.2249999,-0.039959941,0.079919882,0.99599999,0
-4.0035858,0.78331,-4.7350001,-0.64057374,0.1253296,-0.75760001,0
-5.1961527,3.4641013,-0.25000012,-0.83138442,0.5542562,-0.040000018,0
3.2459326,3.1475711,-4.3149991,0.51934922,0.50361139,-0.69039989,0
1.4051242,5.9327483,-1.3749996,0.22481987,0.94923973,-0.21999994,0
-3.9462261,4.8430953,0.18500054,-0.63139617,0.77489525,0.029600086,0
4.7729712,0.53033024,-3.9999995,0.76367539,0.084852837,-0.63999993,0
1.914993,2.8724904,5.21,0.3063989,0.45959845,0.83359998,0
1.9318573,-5.1516213,2.9649999,0.30909717,-0.8242594,0.47439998,0
-0.72746068,2.849221,-5.5150013,-0.11639371,0.45587537,-0.88240021,0
-4.0318727,-3.6538849,-3.0750003,-0.64509964,-0.58462161,-0.49200004,0
-0.47655037,-3.574126,5.105,-0.076248057,-0.57186013,0.8168,0
5.6568875,-2.1404436,-1.5749999,0.90510201,-0.34247097,-0.25199997,0
-5.4969058,1.3407091,-2.6550002,-0.87950492,0.21451345,-0.42480004,0
-1.9595921,1.4696939,5.75,-0.31353474,0.23515102,0.92000002,0
1.8849934,-5.8120627,-1.3150002,0.30159894,-0.92993003,-0.21040003,0
-3.0701749,2.3616736,4.9049997,-0.49122798,0.37786779,0.78479993,0
-3.9145977,-2.4089835,-4.2349997,-0.62633562,-0.38543737,-0.67759997,0
-1.362938,4.5431266,4.0700002,-0.21807009,0.72690028,0.65120006,0
-2.6021523,-0.90509641,-5.6100001,-0.41634437,-0.14481543,-0.8976,0
-4.4113774,-3.8421674,-2.1999996,-0.70582038,-0.61474681,-0.35199994,0
-4.0906534,1.6172352,-4.4400005,-0.65450454,0.25875762,-0.7104001,0
-6.1957445,-0.18774967,0.80000055,-0.99131912,-0.030039947,0.12800008,0
4.5052052,-4.3249974,0.24499977,0.72083282,-0.69199961,0.039199963,0
-4.7194548,-1.956847,-3.5999997,-0.75511277,-0.31309551,-0.57599998,0
1.351018,-5.9830804,1.1999999,0.21616288,-0.95729285,0.19199999,0
4.9743319,2.1627533,3.1049993,0.79589307,0.34604055,0.49679989,0
2.1599998,-4.7999997,-3.3700004,0.34559998,-0.76799995,-0.53920007,0
3.7706101,4.9703493,-0.37500125,0.60329759,0.7952559,-0.0600002,0
4.9906287,2.3033674,-2.9749997,0.7985006,0.36853877,-0.47599995,0
-2.1075683,-0.21505803,-5.8800006,-0.33721092,-0.034409285,-0.94080007,0
-2.2360678,-4.4721355,3.7500002,-0.35777083,-0.71554166,0.60000002,0
0,-5.8667259,-2.155,0,-0.93867612,-0.3448,0
-3.4235511,5.1353259,0.98500037,-0.54776818,0.82165217,0.15760006,0
5.9946852,-1.4581667,-1.0000002,0.9591496,-0.23330668,-0.16000004,0
-5.8985486,1.2099586,-1.6749994,-0.94376779,0.19359337,-0.26799989,0
5.6816545,0.27055469,-2.5900006,0.90906471,0.043288752,-0.4144001,0
-2.7188234,-5.607573,-0.4749994,-0.43501174,-0.89721167,-0.075999901,0
3.3483126,0.9566614,5.1900001,0.53573,0.15306583,0.83039999,0
1.8734993,2.3730989,-5.4700003,0.29975989,0.3796958,-0.87520003,0
-3.1461482,-5.3669596,0.59999961,-0.5033837,-0.85871345,0.095999926,0
-4.8641624,-1.8982097,-3.4349997,-0.77826601,-0.30371356,-0.54959995,0
2.262742,-5.3740115,-2.2500002,0.36203873,-0.85984182,-0.36000004,0
3.6336725,4.9723935,1.0650003,0.58138758,0.79558295,0.17040005,0
0.33166248,3.8970323,-4.8750014,0.053065997,0.62352514,-0.78000021,0
0.66661465,5.5995622,-2.6950006,0.10665835,0.89592993,-0.43120012,0
2.1571851,2.6365607,5.2400002,0.34514961,0.4218497,0.83840007,0
0.74488181,-1.2414712,6.0799999,0.11918109,-0.19863538,0.97280002,0
-4.0058022,4.0058022,2.6400001,-0.64092833,0.64092833,0.42240003,0
-4.7999997,-2.1599998,-3.3700004,-0.76799995,-0.34559998,-0.53920007,0
-3.1371167,-5.4028115,-0.17500021,-0.50193864,-0.86444986,-0.028000033,0
4.7679005,-3.4675643,-2.0749996,0.76286405,-0.55481029,-0.33199993,0
-1.6571814,-5.2264953,-2.9999998,-0.26514903,-0.83623922,-0.47999996,0
-5.1516213,1.9318573,2.9649999,-0.8242594,0.30909717,0.47439998,0
-2.7885482,-3.2533057,4.5500002,-0.44616771,-0.52052891,0.72800004,0
-6.0681133,-0.95812321,-1.1499999,-0.97089815,-0.15329972,-0.18399997,0
6.0470033,1.5549432,-0.2800006,0.96752053,0.24879092,-0.044800095,0
2.6256382,-2.3869436,5.145,0.42010212,-0.38191098,0.82319999,0
-2.1345375,3.0832207,5,-0.341526,0.49331531,0.80000001,0
5.6622167,-0.40444404,-2.6150007,0.90595466,-0.064711049,-0.41840011,0
-1.9448022,-1.2807233,-5.7999992,-0.31116834,-0.20491573,-0.92799985,0
1.8268002,-4.2625337,-4.190001,0.29228804,-0.68200541,-0.67040014,0
5.1038809,-2.835489,-2.2300003,0.81662095,-0.45367825,-0.35680005,0
-0.16240367,-6.1713452,-0.97499979,-0.025984587,-0.98741525,-0.15599996,0
2.8743699,5.4293647,-1.1499993,0.45989919,0.86869836,-0.18399988,0
-2.8724904,1.914993,5.21,-0.45959845,0.3063989,0.83359998,0
4.0472674,-3.8342535,2.8249998,0.6475628,-0.61348057,0.45199996,0
1.9456629,2.9933274,-5.1299987,0.31130606,0.47893238,-0.82079977,0
4.7202172,-1.4270422,-3.8400002,0.75523478,-0.22832675,-0.61440003,0
3.3850925,4.9780769,1.6799997,0.54161477,0.79649234,0.26879996,0
1.4823971,-5.7813473,-1.8549997,0.23718353,-0.92501557,-0.29679996,0
4.7441754,3.7558055,1.5649998,0.75906807,0.6009289,0.25039998,0
-1.1838921,3.3296967,-5.1549993,-0.18942274,0.53275144,-0.8247999,0
-4.0199499,4.4219456,1.8299996,-0.64319199,0.70751131,0.29279992,0
-4.2315779,-4.5701036,-0.5199995,-0.67705244,-0.73121661,-0.083199918,0
3.3166258,2.0728912,-4.874999,0.53066015,0.3316626,-0.77999985,0
-2.0594296,-5.354517,-2.4799995,-0.32950875,-0.85672271,-0.39679992,0
-3.6689036,-2.3518612,-4.4799995,-0.58702457,-0.3762978,-0.71679991,0
1.014323,-2.4023438,-5.6799994,0.16229168,-0.38437501,-0.90879989,0
-1.9149938,-2.8724904,5.21,-0.30639899,-0.45959845,0.83359998,0
4.4966483,3.2118917,2.9200008,0.71946371,0.51390266,0.46720013,0
5.4565172,1.9587495,-2.3349993,0.87304276,0.31339991,-0.37359989,0
0.90399164,4.7459531,3.9650004,0.14463866,0.75935251,0.63440007,0
2.3353963,5.0954099,2.7649996,0.3736634,0.8152656,0.44239995,0
4.7797747,3.1409948,-2.5200012,0.76476395,0.50255919,-0.40320018,0
-1.5522804,4.8785968,3.5849993,-0.24836487,0.78057551,0.57359987,0
3.6524923,4.6670737,1.9849994,0.58439875,0.74673182,0.31759989,0
-0.68934757,5.0552154,-3.6099999,-0.11029561,0.80883443,-0.5776,0
2.9001911,-0.94571459,-5.454999,0.46403056,-0.15131433,-0.87279981,0
-3.4618278,3.9393208,-3.4000001,-0.55389243,0.63029134,-0.54400003,0
-4.7194543,1.9568471,-3.6000001,-0.75511271,0.31309554,-0.57600003,0
-1.2346561,-1.4815871,5.9449997,-0.19754498,-0.23705393,0.95119995,0
5.4814458,0.12747537,-3.0000002,0.87703133,0.020396059,-0.48000005,0
1.394274,-3.4082253,-5.0500002,0.22308384,-0.54531604,-0.80800003,0
-4.9780769,3.3850925,1.6799997,-0.79649234,0.54161477,0.26879996,0
1.3332295,-1.7331983,-5.855,0.21331672,-0.27731171,-0.9368,0
-2.0760539,-5.3977404,2.3700004,-0.33216861,-0.86363846,0.37920007,0
5.9262338,1.9754117,0.20000039,0.94819742,0.31606588,0.032000061,0
-0.20359252,5.9041896,2.0399995,-0.032574803,0.94467032,0.32639992,0
-5.417829,-0.50398397,-3.0750003,-0.86685264,-0.080637433,-0.49200004,0
3.3561888,-4.614759,2.5499997,0.53699023,-0.73836142,0.40799996,0
-4.5320611,3.0213735,3.0650001,-0.72512978,0.48341978,0.49040002,0
6.1449165,-0.19202846,1.1250002,0.98318666,-0.030724553,0.18000004,0
-3.9393208,3.4618278,-3.4000001,-0.63029134,0.55389243,-0.54400003,0
4.8410816,1.3509996,-3.7150004,0.77457309,0.21615994,-0.59440005,0
-4.448595,2.4467278,3.645,-0.71177518,0.39147645,0.58319998,0
4.1634121,1.387804,4.4499998,0.66614592,0.22204864,0.71199995,0
-4.9377627,-0.22444354,3.825,-0.79004204,-0.035910968,0.61199999,0
-4.0950513,-3.8308549,-2.7600007,-0.65520823,-0.61293679,-0.44160011,0
-3.2672923,4.900939,2.0899999,-0.52276677,0.78415024,0.3344,0
-3.9229131,-2.0768366,4.4000001,-0.62766612,-0.33229387,0.704,0
2.2993691,5.7484236,-0.85500062,0.36789906,0.91974777,-0.1368001,0
-0.55964291,4.2905955,-4.5099988,-0.089542866,0.6864953,-0.72159982,0
-2.7291021,-5.4582047,1.3500001,-0.43665636,-0.87331277,0.21600002,0
-1.0348191,-4.2333503,-4.4799995,-0.16557106,-0.67733604,-0.71679991,0
2.8471832,5.5268841,-0.63999975,0.45554933,0.88430142,-0.10239996,0
-2.3034434,5.2350979,2.5199997,-0.36855096,0.83761567,0.40319997,0
-1.7574056,-5.4074025,-2.5950003,-0.28118491,-0.86518443,-0.41520005,0
-0.48497447,2.9098454,5.5099998,-0.077595919,0.46557525,0.88159996,0
2.504396,5.7243342,0.15000042,0.40070334,0.9158935,0.024000067,0
1.7410487,-2.8553197,-5.2799997,0.27856779,-0.45685115,-0.84479994,0
3.0397491,2.8059225,4.6849999,0.48635986,0.44894761,0.74959999,0
-1.536227,-1.1137646,-5.9550009,-0.24579632,-0.17820235,-0.95280015,0
3.281949,-0.20512182,-5.315001,0.52511185,-0.032819491,-0.85040015,0
0.49919888,-0.49919963,6.21,0.079871818,-0.079871938,0.99360001,0
-4.91398,3.8609846,-0.090000659,-0.78623682,0.61775756,-0.014400106,0
-3.8342535,4.0472674,2.8249998,-0.61348057,0.6475628,0.45199996,0
2.0438938,-5.5185118,2.1050003,0.327023,-0.88296187,0.33680004,0
4.5011897,-0.097851858,-4.3349991,0.72019035,-0.015656298,-0.69359988,0
-3.7591488,-1.4096808,4.79,-0.60146379,-0.22554894,0.76639998,0
4.4539318,0.29047355,-4.374999,0.71262908,0.046475768,-0.69999987,0
2.4413116,-0.97652423,5.6699996,0.39060986,-0.15624388,0.90719992,0
-4.8641624,-1.8982097,-3.4349997,-0.77826601,-0.30371356,-0.54959995,0
5.138896,3.2702065,-1.399999,0.82222337,0.52323306,-0.22399984,0
-4.4398985,-1.7971015,-4.0150003,-0.71038377,-0.28753623,-0.64240003,0
-4.3983183,-4.2412348,-1.3149995,-0.70373094,-0.67859757,-0.21039991,0
0.16941051,3.9811509,-4.8150015,0.027105682,0.63698411,-0.77040023,0
-0.54806483,6.2114005,0.42500088,-0.087690376,0.99382406,0.068000138,0
1.5899686,-4.2730398,-4.2750006,0.25439498,-0.68368638,-0.68400007,0
0.74397582,5.3318262,-3.1750004,0.11903613,0.85309219,-0.50800008,0
1.5362288,-5.952888,1.125,0.24579661,-0.95246208,0.18000001,0
-5.9351158,-1.8547236,0.63000029,-0.94961852,-0.29675576,0.10080004,0
-1.7875822,5.7599874,1.6399994,-0.28601316,0.92159796,0.26239991,0
0.99599248,-0.49799624,6.1500001,0.1593588,-0.0796794,0.98400003,0
-2.4473457,4.3384767,-3.7749994,-0.39157531,0.69415629,-0.60399991,0
-5.6802797,-2.5652874,0.46500012,-0.90884477,-0.41044599,0.074400023,0
-1.5078473,2.1540675,-5.6699991,-0.24125557,0.3446508,-0.90719986,0
3.5488548,-1.4195423,4.9450002,0.56781679,-0.22712678,0.79120004,0
1.8734993,-2.3730989,-5.4700003,0.29975989,-0.3796958,-0.87520003,0
4.6223855,-2.4212501,3.4400003,0.7395817,-0.38740003,0.55040002,0
-3.9490757,4.7718,-0.83500087,-0.63185209,0.76348799,-0.13360015,0
-3.8155437,-3.1422124,3.8250005,-0.61048698,-0.50275397,0.61200011,0
0,5.6812387,2.6050005,0,0.90899819,0.41680008,0
-5.0348783,3.4856851,1.2500001,-0.8055805,0.55770963,0.20000002,0
-5.6823282,2.5828762,-0.3199991,-0.90917253,0.41326019,-0.051199857,0
1.9446257,0.23811744,-5.9350004,0.31114012,0.03809879,-0.94960004,0
-3.7299726,-0.89195007,-4.9350004,-0.59679562,-0.14271201,-0.78960007,0
-3.4645636,-5.0393653,-1.2899997,-0.55433017,-0.80629843,-0.20639996,0
-5.0393648,3.4645638,-1.2900004,-0.80629838,0.55433023,-0.20640007,0
-2.3866827,2.2503009,-5.3199992,-0.38186923,0.36004815,-0.85119987,0
-5.9451408,1.9234282,-0.13500027,-0.95122254,0.3077485,-0.021600043,0
-0.29047385,4.4539318,-4.374999,-0.046475817,0.71262908,-0.69999987,0
4.5581222,3.9635839,1.6049998,0.72929955,0.63417345,0.25679997,0
-3.5764859,0.23843215,5.1199999,-0.57223773,0.038149145,0.81919998,0
-0.1999373,-5.9981246,1.7449996,-0.031989969,-0.95969993,0.27919996,0
-5.4800773,3.005204,-3.5762787e-07,-0.87681234,0.48083264,-5.7220458e-08,0
