6.7677999,1.69195,2.468641,0.91456753,0.22864188,0.33360013,0
3.7349238,4.8415685,-4.1676803,0.50471944,0.654266,-0.56320006,0
2.6202278,5.5024762,4.1972804,0.35408485,0.74357784,0.56720006,0
3.7301159,2.9236045,-5.6832008,0.50406969,0.39508167,-0.76800013,0
4.9842758,-0.75847667,-5.4167991,0.67355078,-0.10249685,-0.73199987,0
-4.7322206,0,5.6891203,-0.63948929,0,0.76880002,0
-5.0976939,5.0976944,1.6694393,-0.68887752,0.68887758,0.2255999,0
-1.69195,6.7677999,2.468641,-0.22864188,0.91456753,0.33360013,0
-1.7016268,-3.6868579,6.1863999,-0.22994956,-0.49822405,0.83599997,0
6.3896933,-3.2861278,-1.7700812,0.86347204,-0.44407132,-0.23920016,0
4.416173,4.0147033,-4.3748798,0.59678012,0.54252744,-0.59119999,0
0.79071385,-7.3140993,-0.7992003,0.10685322,-0.98839176,-0.10800004,0
4.0189052,2.67927,-5.6062393,0.54309523,0.3620635,-0.75759983,0
-6.3628297,2.6790867,-2.6640003,-0.85984182,0.36203873,-0.36000004,0
-5.5715437,3.3128099,-3.569761,-0.75291133,0.44767702,-0.48240012,0
5.8533216,-2.4876616,-3.7828786,0.7909894,-0.33617049,-0.51119983,0
2.1369803,5.3424516,4.6531205,0.28878111,0.72195292,0.62880003,0
-6.1365023,0.41839749,-4.1143999,-0.82925707,0.056540199,-0.55599999,0
-0.16405998,-3.9374375,-6.2633595,-0.022170268,-0.53208613,-0.8463999,0
6.9419613,-0.16931596,-2.5574412,0.93810284,-0.022880536,-0.34560016,0
3.5508895,6.1548758,2.0660808,0.47984993,0.83173996,0.27920011,0
7.1901441,-0.46388051,1.6872,0.97164106,-0.062686555,0.22799999,0
-5.4780798,-3.7563977,-3.26192,-0.74028105,-0.50762129,-0.44079998,0
-6.0484557,-3.735811,-2.0542405,-0.81735885,-0.5048393,-0.27760005,0
0,-5.8060541,-4.5879993,0,-0.78460193,-0.61999989,0
7.238492,0.90481204,1.2432002,0.97817457,0.1222719,0.16800003,0
5.8245101,-1.0590019,-4.4400001,0.78709596,-0.14310837,-0.60000002,0
6.9943743,1.6320205,1.7819197,0.94518572,0.22054331,0.24079996,0
3.3411467,-3.3411467,5.6950397,0.45150632,-0.45150632,0.76959997,0
-2.8905122,1.1562055,6.7132802,-0.39060974,0.15624399,0.90720004,0
-7.1387153,1.3150264,-1.4385598,-0.96469122,0.17770627,-0.19439997,0
7.2161474,-1.1275233,1.1899202,0.97515506,-0.15236801,0.16080002,0
1.1499131,6.7352061,-2.8416011,0.15539366,0.91016299,-0.38400015,0
-4.4385791,5.1783419,2.8712003,-0.59980798,0.69977593,0.38800004,0
4.4431343,0.56720865,-5.8904018,0.60042357,0.076649815,-0.79600024,0
7.083992,-0.70839918,2.0187197,0.95729619,-0.095729619,0.27279994,0
3.3411467,3.3411467,5.6950397,0.45150632,0.45150632,0.76959997,0
-4.4431367,0.56720895,-5.8903999,-0.60042387,0.07664986,-0.796,0
-0.64890879,7.3542986,0.50320107,-0.087690376,0.99382412,0.068000145,0
5.0192666,5.4375386,-0.011839977,0.67827928,0.73480248,-0.0015999969,0
5.4124088,4.1823158,2.8238389,0.73140657,0.5651778,0.38159984,0
6.7776117,-2.965205,0.1776005,0.9158935,-0.40070337,0.024000067,0
-6.1548758,3.5508895,2.0660808,-0.83173996,0.47984993,0.27920011,0
4.164732,4.299078,-4.3512001,0.5628016,0.58095646,-0.58799994,0
-5.620584,2.0073509,-4.3748803,-0.75953835,0.27126363,-0.59120005,0
0.88568735,-0.59045911,7.32304,0.11968748,-0.079791769,0.9896,0
4.2354894,0,6.0680003,0.57236344,0,0.82000005,0
-5.6511979,-0.62791103,-4.7359996,-0.76367539,-0.084852844,-0.63999993,0
-0.23216645,-7.1971669,1.70496,-0.031373844,-0.97259009,0.2304,0
0.81816041,-3.8453529,-6.2692804,0.11056222,-0.51964229,-0.84720004,0
-4.043746,-5.8018961,-2.1785591,-0.54645216,-0.78403997,-0.29439986,0
1.7381827,7.1700048,0.5742408,0.23488955,0.96891958,0.077600107,0
-6.8544168,-2.6533227,0.85839987,-0.92627251,-0.35855711,0.11599998,0
1.8825227,5.059279,-5.0616012,0.25439495,0.68368632,-0.68400013,0
4.6009107,-2.9770601,4.9727998,0.62174469,-0.40230542,0.67199999,0
2.8995924,-0.28995889,6.8020797,0.39183679,-0.039183635,0.91919994,0
-3.7189376,5.6592536,-2.9836807,-0.50255913,0.76476401,-0.40320009,0
3.8017421,-6.2616925,1.0478396,0.51374894,-0.84617466,0.14159995,0
5.3915567,4.9422607,1.124799,0.72858876,0.66787308,0.15199986,0
2.4170563,4.7190156,-5.162241,0.32662922,0.63770479,-0.69760013,0
5.3915572,-4.9422603,1.1247997,0.72858882,-0.66787302,0.15199997,0
3.6505349,-2.5272932,-5.9199986,0.49331552,-0.34152609,-0.79999983,0
-0.88622224,-0.29540712,7.3408003,-0.11975976,-0.039919879,0.99200004,0
-5.2164841,5.2164841,0.58015949,-0.70493031,0.70493031,0.078399934,0
3.1243253,6.6391892,-0.95903945,0.4222061,0.89718771,-0.12959993,0
1.1499131,6.7352061,-2.8416011,0.15539366,0.91016299,-0.38400015,0
4.0189052,2.67927,-5.6062393,0.54309523,0.3620635,-0.75759983,0
-2.1352656,-4.2705312,-5.6536012,-0.28854939,-0.57709879,-0.76400018,0
-0.68023354,7.2558241,1.2846403,-0.091923453,0.98051673,0.17360003,0
-1.0343578,6.2061481,3.8953598,-0.13977808,0.83866864,0.52639997,0
2.7872014,-6.2302141,-2.8593602,0.37664884,-0.84192079,-0.38640001,0
-2.778461,6.6683064,-1.6043208,-0.37546769,0.90112245,-0.21680009,0
-4.0992527,3.2794023,5.2155199,-0.55395305,0.44316247,0.70479995,0
2.3065822,2.3065822,6.6422405,0.31170028,0.31170028,0.89760005,0
0.82674581,-4.9604797,5.4286399,0.1117224,-0.67033511,0.73359996,0
-1.9414982,-4.4377103,5.5944004,-0.26236463,-0.59969056,0.75600004,0
-6.7628531,1.9074718,-2.3206396,-0.91389906,0.25776646,-0.31359994,0
4.3387499,-5.9916077,-0.18944021,0.58631754,-0.80967671,-0.025600027,0
0.38402471,-7.2964764,-1.1721598,0.051895231,-0.98601031,-0.15839997,0
-0.28037283,-4.4859695,5.8785601,-0.037888218,-0.60621208,0.79439998,0
-6.0462308,4.2323608,-0.53871989,-0.81705821,0.57194066,-0.072799988,0
-3.9958901,-6.1936302,-0.65711981,-0.53998512,-0.83697706,-0.088799976,0
1.006888,6.5447679,3.3033602,0.13606595,0.88442808,0.44640002,0
-1.04702,6.0203667,4.1735997,-0.14148918,0.81356305,0.56399995,0
0.97954351,0.77861154,-7.2934394,0.13237074,0.10521778,-0.98559988,0
2.4580486,6.3909245,2.8060801,0.33216873,0.8636384,0.37920001,0
-1.8767332,5.3620954,4.7419205,-0.25361258,0.72460747,0.64080006,0
7.3919163,-0.2053308,-0.27824059,0.99890757,-0.027747406,-0.037600078,0
1.3207707,5.8113904,4.3867192,0.17848253,0.78532302,0.5927999,0
-1.9796004,3.6764009,6.1094403,-0.26751357,0.49681091,0.82560003,0
-6.4125872,-1.7204504,-3.2678401,-0.86656582,-0.2324933,-0.44160002,0
-0.23672576,-7.1017799,2.0660796,-0.031989969,-0.95969999,0.27919996,0
0.5310865,5.841958,4.5110393,0.071768448,0.7894538,0.60959989,0
-1.057578,-5.2878895,-5.0675197,-0.14291593,-0.71457964,-0.68479997,0
-1.2252258,-5.0122867,-5.3043194,-0.16557105,-0.67733604,-0.71679991,0
-4.0604801,-3.2709424,-5.2510414,-0.54871351,-0.44201925,-0.70960021,0
-5.8286452,4.1966248,1.7819198,-0.78765476,0.56711143,0.24079998,0
-2.2787006,-3.1332133,6.3047996,-0.3079325,-0.4234072,0.85199994,0
-5.2240028,0.45426136,-5.2214408,-0.70594633,0.061386671,-0.70560008,0
-6.5574255,0.75662535,3.3448005,-0.88613856,0.10224666,0.45200005,0
-0.27373174,-5.2009077,5.2569599,-0.036990777,-0.70282543,0.71040004,0
6.6578684,-1.4795264,2.8712006,0.89971191,-0.199936,0.38800007,0
5.3382516,-1.4558868,-4.9136,0.72138536,-0.19674146,-0.66399997,0
-1.1197261,3.4338264,-6.4587193,-0.15131433,0.46403059,-0.87279987,0
1.4916518,7.0853477,-1.5273596,0.20157456,0.95747942,-0.20639995,0
4.9661994,0.55179936,5.45824,0.67110801,0.074567482,0.73759997,0
-1.4699019,0.88194013,7.19872,-0.1986354,0.1191811,0.97279996,0
1.3150264,7.1387153,-1.4385598,0.17770627,0.96469122,-0.19439997,0
-1.8758086,-4.032989,-5.9140801,-0.25348765,-0.54499853,-0.7992,0
-5.1367555,2.8976574,-4.4696002,-0.69415611,0.39157531,-0.60400003,0
-1.1094273,4.7150679,5.5943999,-0.14992261,0.63717133,0.75599998,0
6.4005685,3.4288759,1.4267213,0.86494166,0.46336159,0.19280018,0
4.7150679,1.1094282,5.5943995,0.63717133,0.14992273,0.75599992,0
4.9896855,4.4907174,3.1139202,0.67428184,0.60685372,0.42080003,0
7.3672967,-0.61394137,-0.32560062,0.99558061,-0.082965046,-0.044000085,0
3.9223065,-4.706769,4.1499205,0.5300414,-0.63604987,0.56080008,0
7.3068728,-0.19228594,-1.1543998,0.98741525,-0.025984585,-0.15599996,0
0.50732738,5.7074299,-4.6827197,0.068557754,0.77127433,-0.63279992,0
3.6447687,-6.3303876,-1.1839993,0.49253631,-0.85545778,-0.15999991,0
1.5624764,-5.9894924,4.0552001,0.21114546,-0.80939084,0.54799998,0
1.4083502,7.2429452,-0.56240058,0.1903176,0.97877634,-0.07600008,0
-4.1504226,4.6692257,3.9663999,-0.56086791,0.63097644,0.53599995,0
-5.8533206,-2.4876611,-3.7828801,-0.79098928,-0.33617041,-0.51120001,0
-2.4305186,6.5971227,-2.3087995,-0.32844844,0.89150304,-0.31199992,0
3.7158723,0.38707009,-6.387681,0.50214487,0.052306768,-0.86320013,0
-1.8944924,5.1421938,4.9728003,-0.25601247,0.69489104,0.67200005,0
4.5216866,5.391242,-2.2910397,0.61103874,0.7285462,-0.30959997,0
4.8773761,-2.438688,5.0023999,0.65910488,-0.32955244,0.676,0
1.6349814,-4.7959461,-5.3931193,0.22094344,-0.64810079,-0.72879988,0
-2.6118073,-1.160803,6.8257599,-0.35294694,-0.15686527,0.9224,0
1.0810127,-5.4050603,4.9372802,0.1460828,-0.73041356,0.66720003,0
-0.88354892,1.1780658,7.2519999,-0.1193985,0.15919808,0.97999996,0
5.5736413,1.8578804,4.4992008,0.75319475,0.2510649,0.6080001,0
-5.3802609,-3.114888,-4.0137596,-0.72706228,-0.4209308,-0.54239994,0
-0.44929618,3.5943694,-6.4528012,-0.060715698,0.48572558,-0.87200016,0
4.6140862,0.39268839,-5.7720017,0.62352514,0.053065997,-0.78000021,0
-3.4005437,6.2641602,-1.989121,-0.45953292,0.84650815,-0.26880014,0
2.3070941,-1.0253751,-6.9559994,0.31176946,-0.1385642,-0.93999988,0
0.27609015,4.9696279,5.4759998,0.037309479,0.67157131,0.73999995,0
5.0006938,5.0006938,2.1785612,0.67576939,0.67576939,0.29440016,0
-6.0582838,-2.068682,-3.7118397,-0.81868696,-0.27955163,-0.50159997,0
-3.2190869,6.6393666,-0.56239927,-0.43501174,0.89721167,-0.075999901,0
3.6715925,3.2519817,-5.541121,0.49616113,0.439457,-0.7488001,0
-1.5295497,-5.1769381,-5.0615997,-0.2066959,-0.69958621,-0.68399996,0
-0.59140801,-0.29570356,7.3704,-0.079920001,-0.039959941,0.99599999,0
-2.0752108,5.4474292,-4.5584006,-0.28043389,0.73613906,-0.61600006,0
-0.44411865,7.3279533,0.92944062,-0.060016032,0.99026394,0.12560008,0
6.8096342,2.8889356,-0.20719911,0.92022085,0.39039668,-0.02799988,0
-1.6689256,-4.3195724,-5.7719998,-0.22553049,-0.58372599,-0.77999997,0
0.66499221,7.3149214,0.89984077,0.089863814,0.98850286,0.12160011,0
-6.9838815,-1.4325914,-1.9831995,-0.94376773,-0.19359344,-0.26799992,0
-4.2205701,-1.1254851,5.97328,-0.57034731,-0.15209258,0.80719995,0
5.6592531,3.7189379,-2.9836814,0.76476395,0.50255919,-0.40320018,0
0.55622751,-4.7279382,5.6654406,0.075165875,-0.63891053,0.76560003,0
5.9943619,-2.9971809,3.1375997,0.81004888,-0.40502444,0.42399997,0
5.0216222,-5.2076087,-1.5569594,0.67859757,-0.70373088,-0.21039991,0
-5.475101,4.888483,-0.94128007,-0.73987848,0.66060579,-0.12719999,0
-5.8245101,-1.0590019,-4.4400001,-0.78709596,-0.14310837,-0.60000002,0
-4.5357323,-4.8485413,-3.2678409,-0.61293679,-0.65520829,-0.44160011,0
-6.3128824,0.88086736,-3.7592003,-0.85309219,0.11903613,-0.50800002,0
7.1532316,-1.8935027,0.076961018,0.96665293,-0.25587875,0.010400138,0
3.130863,-6.2617259,2.3976004,0.42308959,-0.84617919,0.32400006,0
-3.9225972,2.2414839,5.8608003,-0.53008068,0.30290323,0.79200006,0
5.0592799,-1.8825226,-5.0616002,0.68368649,-0.25439495,-0.68400002,0
-3.165529,-1.1511011,6.5889602,-0.42777419,-0.15555421,0.89039999,0
5.2021241,0,5.2628803,0.70298976,0,0.71120006,0
-0.92743927,-4.7402453,-5.6062407,-0.12532963,-0.64057368,-0.75760007,0
-0.51880306,-6.2256341,3.9663997,-0.070108518,-0.84130192,0.53599995,0
-1.9912246,6.8787751,-1.8648,-0.26908439,0.92956418,-0.252,0
6.6200314,2.6007273,2.0424008,0.89459884,0.35144964,0.27600011,0
-2.2602873,2.1957076,-6.695519,-0.30544421,0.29671723,-0.90479988,0
0.95043224,7.2232833,-1.2964798,0.12843679,0.97611934,-0.17519997,0
-3.9929945,1.1284549,-6.1272006,-0.53959388,0.15249391,-0.82800007,0
-1.442526,-2.885051,6.6599998,-0.19493595,-0.38987175,0.89999998,0
1.7270174,2.8783629,6.5948796,0.23338072,0.38896796,0.89119995,0
1.9259568,5.7778711,-4.2032008,0.26026443,0.78079337,-0.56800008,0
2.4235876,-4.9683552,-4.9195194,0.32751182,-0.67139935,-0.66479993,0
0.98065197,-1.4359548,-7.1927991,0.13252054,-0.19404794,-0.97199988,0
0.28193107,2.3024368,-7.0270405,0.038098793,0.31114012,-0.94960004,0
2.8995924,-0.28995889,6.8020797,0.39183679,-0.039183635,0.91919994,0
0.78927177,-6.6298814,-3.190881,0.10665835,-0.89592993,-0.43120012,0
3.7732739,5.2825842,-3.552001,0.50990188,0.71386272,-0.48000014,0
2.1430321,7.0135589,-0.98864079,0.28959891,0.94777817,-0.1336001,0
7.2092261,0.36970356,-1.6279993,0.97421974,0.049959939,-0.21999991,0
-4.409061,-5.6950369,-1.6990404,-0.59581906,-0.76959956,-0.22960006,0
-7.0977073,-1.7264694,-1.1840003,-0.9591496,-0.23330668,-0.16000003,0
-5.2950087,2.647505,4.4400001,-0.71554172,0.35777095,0.60000002,0
-3.7105229,-5.6894679,2.9363203,-0.50142199,-0.76884699,0.39680004,0
7.2098165,1.5293549,0.6630407,0.97429949,0.20666958,0.089600094,0
-3.3291776,-4.9271832,-4.4044805,-0.44988883,-0.6658355,-0.5952,0
4.1880817,-4.4498358,4.1735997,0.56595701,-0.60132915,0.56399995,0
-3.7101367,2.7337847,-5.7897587,-0.50136983,0.36943036,-0.78239983,0
6.4298067,3.6167665,-0.5801599,0.86889279,0.48875222,-0.078399986,0
-1.7204504,-6.4125872,-3.2678401,-0.2324933,-0.86656582,-0.44160002,0
-0.41839787,6.1365023,-4.1143999,-0.056540251,0.82925707,-0.55599999,0
0.52511382,6.0388155,4.2446394,0.070961326,0.81605613,0.57359993,0
3.0581253,-6.7278767,-0.37887892,0.41326016,-0.90917253,-0.051199853,0
4.3286905,4.8379478,3.5519998,0.5849582,0.65377671,0.47999996,0
5.5482559,-4.4744,-1.9891201,0.74976432,-0.60464865,-0.26880002,0
-6.0304432,-3.9429822,1.6872005,-0.81492472,-0.53283542,0.22800007,0
-6.8995309,2.6380558,-0.44400007,-0.93236905,0.35649401,-0.06000001,0
-0.29570356,0.59140712,7.3704,-0.039959941,0.079919882,0.99599999,0
-5.8121619,-4.4559903,-1.0596801,-0.78542733,-0.60216087,-0.14320002,0
2.7784605,6.6683068,-1.6043202,0.37546763,0.90112251,-0.21680002,0
2.3798113,6.6634693,2.1667206,0.32159612,0.90046883,0.29280007,0
1.4040515,4.2121553,-5.9199991,0.18973669,0.56921017,-0.79999989,0
3.5943694,0.44929618,-6.4528012,0.48572558,0.060715698,-0.87200016,0
1.7617348,0.58724433,7.1631999,0.23807228,0.079357341,0.96799999,0
3.8453505,0.81815982,-6.2692819,0.51964194,0.11056214,-0.84720021,0
3.4836318,-4.6448431,-4.5880003,0.47076103,-0.62768143,-0.62,0
-5.5916367,-1.5976106,4.57616,-0.75562656,-0.21589331,0.61839998,0
-2.965205,-6.7776117,0.1776005,-0.40070337,-0.9158935,0.024000067,0
-1.8944924,5.1421938,4.9728003,-0.25601247,0.69489104,0.67200005,0
0.28995889,2.8995924,6.8020797,0.039183635,0.39183679,0.91919994,0
-4.9661994,0.55179936,5.45824,-0.67110801,0.074567482,0.73759997,0
3.9747849,0.56782591,6.2160006,0.5371331,0.076733232,0.84000009,0
5.9916077,-4.3387504,-0.18944095,0.80967665,-0.5863176,-0.025600126,0
1.3635929,-6.3634353,-3.5224006,0.18426931,-0.85992366,-0.47600007,0
-3.1433477,2.0003116,6.3936,-0.4247767,0.27031237,0.86399996,0
1.3843691,4.4497585,-5.7483191,0.18707691,0.60131872,-0.77679986,0
2.591311,5.7008839,3.942719,0.35017717,0.77038968,0.53279984,0
-0.50545847,-6.9079323,-2.6047997,-0.068305202,-0.93350434,-0.35199997,0
-4.0534844,6.0802259,1.1662405,-0.54776818,0.82165211,0.15760006,0
-3.2832258,-4.6722832,-4.7063999,-0.44367915,-0.63138962,-0.63599998,0
-6.7786431,2.3374636,1.8292789,-0.91603285,0.31587344,0.24719985,0
-3.4005442,-6.2641602,-1.9891198,-0.45953298,-0.84650815,-0.26879996,0
-4.7077737,5.6044927,1.0892798,-0.63618565,0.75736386,0.14719997,0
4.2412329,3.7422647,-4.7715197,0.57313955,0.50571144,-0.64479995,0
1.4195428,-1.2660786,-7.1513596,0.1918301,-0.17109171,-0.96639991,0
-0.14232843,-0.39349627,-7.3881598,-0.019233571,-0.05317517,-0.99839997,0
-6.5666203,3.1700919,1.2609595,-0.88738114,0.4283908,0.17039993,0
-2.883034,-6.0864048,-3.06656,-0.38959917,-0.82248712,-0.41440001,0
4.846724,1.2924597,-5.4404793,0.65496272,0.17465672,-0.73519987,0
-0.42289573,0.65783787,-7.3585601,-0.057148069,0.088897005,-0.99440002,0
5.6288271,-0.80411828,4.7360005,0.7606523,-0.10866463,0.64000005,0
2.5272915,-3.6505332,5.9200006,0.34152588,-0.49331528,0.80000007,0
1.7551582,6.8451152,-2.1963196,0.23718354,0.92501557,-0.29679993,0
3.9470372,-1.6915877,6.0265603,0.53338343,-0.22859293,0.81440002,0
-4.7959456,-1.6349815,-5.3931203,-0.64810073,-0.22094344,-0.7288,0
-2.0901809,3.0965643,-6.3876781,-0.28245687,0.41845462,-0.86319971,0
-3.9737267,5.4638753,3.0191994,-0.53699011,0.73836154,0.4079999,0
-4.9580593,-3.6533065,4.1025605,-0.670008,-0.49369007,0.55440009,0
0,-7.3383622,0.95312065,0,-0.99167055,0.12880008,0
5.0222683,5.2505527,1.4030387,0.67868489,0.70953411,0.18959983,0
-6.7918243,-0.99392557,-2.7646399,-0.91781408,-0.13431427,-0.37359998,0
5.5842204,4.1274676,2.5574391,0.75462437,0.5577659,0.34559986,0
-2.638056,6.8995309,-0.44399887,-0.35649407,0.93236905,-0.059999846,0
0.56720865,4.4431343,-5.8904018,0.076649815,0.60042357,-0.79600024,0
-4.6212983,-5.5455585,-1.6280005,-0.62449974,-0.74939978,-0.22000006,0
6.4499698,-0.4499979,-3.5993605,0.8716175,-0.060810525,-0.48640007,0
6.2686343,2.2567077,3.2204802,0.84711272,0.30496049,0.43520004,0
-3.633213,-1.372547,-6.2988791,-0.49097472,-0.18547933,-0.85119987,0
2.3298044,-1.1649022,-6.9263997,0.31483844,-0.15741922,-0.93599993,0
-6.6789408,-1.2368412,2.9363205,-0.90255958,-0.16714071,0.39680007,0
-7.0853477,1.4916518,-1.5273596,-0.95747942,0.20157456,-0.20639995,0
-1.0343578,-6.2061481,3.8953598,-0.13977808,-0.83866864,0.52639997,0
5.6511979,-0.62791103,-4.7359996,0.76367539,-0.084852844,-0.63999993,0
-5.0216227,5.2076087,-1.5569584,-0.67859763,0.70373088,-0.21039979,0
4.9101677,4.9101677,-2.5574415,0.66353619,0.66353619,-0.34560019,0
-2.3708105,-5.4001789,-4.4696002,-0.32037979,-0.72975391,-0.60400003,0
2.1543834,6.7025275,2.2792013,0.2911329,0.90574694,0.30800018,0
-3.5317848,-4.0751367,5.0675201,-0.47726822,-0.55069411,0.68480003,0
-1.4482845,-2.6069117,6.77248,-0.19571412,-0.35228536,0.9152,0
-6.2987742,3.860539,-0.42624003,-0.85118568,0.52169442,-0.057600003,0
-2.1430321,-7.0135589,-0.98864079,-0.28959891,-0.94777817,-0.1336001,0
-7.102458,2.0292742,-0.44400004,-0.9597916,0.27422625,-0.060000002,0
5.3790617,1.6137187,4.8188806,0.72690022,0.2180701,0.65120006,0
6.8814826,-2.2318323,-1.5569603,0.92993009,-0.30159894,-0.21040004,0
3.5375404,-5.5370197,-3.4040012,0.478046,-0.74824589,-0.46000016,0
-0.56395501,2.4608943,-6.9560013,-0.076210134,0.3325533,-0.94000018,0
0.26856166,5.6397996,4.7833605,0.036292117,0.76213509,0.64640003,0
2.5272915,3.6505332,5.9200006,0.34152588,0.49331528,0.80000007,0
-0.29570356,-0.59140801,7.3704,-0.039959941,-0.079920001,0.99599999,0
0,6.0449524,4.2683196,0,0.81688547,0.57679993,0
0,5.8060541,-4.5879993,0,0.78460193,-0.61999989,0
4.4709454,-1.1177359,5.7897596,0.60418183,-0.15104538,0.78239995,0
-2.3890996,6.9682074,-0.70448107,-0.3228513,0.94164962,-0.095200144,0
-4.9915819,3.9639032,-3.7591996,-0.67453808,0.53566259,-0.50799996,0
0.2222956,7.3357615,0.94720066,0.030039946,0.99131912,0.12800008,0
2.7122257,-2.0167835,-6.5830402,0.36651698,-0.2725383,-0.88960004,0
-1.0560694,4.4162893,-5.843039,-0.14271207,0.59679586,-0.78959984,0
-5.4780798,-3.7563977,-3.26192,-0.74028105,-0.50762129,-0.44079998,0
-2.5468941,6.2080541,-3.1198394,-0.34417486,0.8389262,-0.42159992,0
3.6889241,-1.8015677,-6.1568007,0.49850324,-0.24345508,-0.83200008,0
4.150423,-4.6692252,3.9663994,0.56086797,-0.63097638,0.53599989,0
6.1852474,4.052403,0.28415933,0.83584422,0.54762203,0.038399909,0
1.0440707,6.9604707,-2.2851188,0.14109063,0.94060415,-0.30879983,0
-3.2554619,-4.3406157,5.0320001,-0.43992728,-0.58656967,0.68000001,0
-3.0325196,5.7617879,-3.5164795,-0.40979993,0.77862,-0.47519994,0
-5.6356878,-0.53673244,4.7655997,-0.76157945,-0.07253141,0.64399993,0
-3.2189236,-6.652442,0.37887982,-0.43498966,-0.89897865,0.051199973,0
-0.14232843,-0.39349627,-7.3881598,-0.019233571,-0.05317517,-0.99839997,0
-0.43341544,7.3680577,0.53280103,-0.058569655,0.99568349,0.072000138,0
6.9386845,-2.3128948,-1.1248007,0.93766004,-0.31255335,-0.15200008,0
1.9567187,6.6039262,2.7054408,0.26442143,0.89242244,0.36560011,0
-3.9225974,5.6387343,2.7527995,-0.53008074,0.76199114,0.37199992,0
-7.3919163,-0.2053308,-0.27824059,-0.99890757,-0.027747406,-0.037600078,0
-4.4121199,-4.4121199,3.9782405,-0.59623241,-0.59623241,0.53760004,0
-3.4836318,4.6448431,-4.5880003,-0.47076103,0.62768143,-0.62,0
-0.86460382,3.1702144,6.6303997,-0.11683835,0.42840734,0.89599997,0
-5.2355366,4.8744645,-1.8944001,-0.70750493,0.65871143,-0.25600001,0
0,-3.978241,-6.2396793,0,-0.5376001,-0.84319991,0
-5.9521179,-3.2240636,2.9895999,-0.80434024,-0.43568426,0.40399998,0
-2.314713,-3.2240646,-6.2455993,-0.31279904,-0.43568441,-0.84399986,0
-2.6475043,5.2950087,4.4400005,-0.35777086,0.71554172,0.60000008,0
-0.48989594,6.8585386,2.7350409,-0.066202156,0.92682952,0.36960012,0
1.2752073,-5.6109109,-4.65312,0.17232531,-0.75823116,-0.62879997,0
1.4699019,-0.88194096,7.19872,0.1986354,-0.11918121,0.97279996,0
-2.7962086,-5.7395864,-3.7414393,-0.37786603,-0.77561975,-0.50559992,0
4.9524617,-1.1005467,5.3871999,0.66925156,-0.14872253,0.72799999,0
2.379811,-6.6634693,2.1667197,0.32159609,-0.90046883,0.29279995,0
6.8344598,-0.97635126,2.664001,0.92357564,-0.13193935,0.36000013,0
1.1747139,7.0482817,1.9239995,0.15874511,0.95247048,0.25999993,0
-3.4288764,6.4005685,1.4267209,-0.46336168,0.86494166,0.19280012,0
3.4673369,6.526751,-0.37296006,0.46855903,0.88199335,-0.050400008,0
6.5083361,-1.5873989,-3.1435213,0.87950486,-0.21451336,-0.42480016,0
-1.3693515,6.846756,-2.4508791,-0.18504749,0.9252373,-0.33119988,0
-3.6377904,-6.1842442,-1.8115199,-0.4915933,-0.83570868,-0.24479997,0
0.73376894,-6.8485165,2.70544,0.099157967,-0.92547518,0.36559999,0
2.6009147,1.7339437,6.7073603,0.35147497,0.23431671,0.90640002,0
-0.67102599,6.8780179,-2.6462412,-0.090679184,0.9294619,-0.35760015,0
4.4498363,4.1880817,4.1735992,0.60132921,0.56595701,0.56399989,0
2.0521069,1.5785438,-6.9323196,0.27731174,0.21331672,-0.93679994,0
-2.7199805,4.6239676,5.0971198,-0.36756492,0.62486047,0.68879998,0
-5.894043,4.0079498,1.9891196,-0.79649228,0.54161483,0.26879996,0
-0.54708004,5.1972575,5.2392001,-0.073929735,0.70233208,0.708,0
2.5657508,2.8508358,6.3284802,0.34672308,0.38524806,0.85519999,0
5.3933764,1.3483446,4.8840003,0.72883463,0.18220872,0.66000003,0
2.3169069,-5.5878339,-4.2624002,0.31309554,-0.75511265,-0.57600003,0
-5.4001789,2.3708105,-4.4696002,-0.72975391,0.32037979,-0.60400003,0
2.6973386,4.8552089,4.8899198,0.3645052,0.65610927,0.66079998,0
-6.4260449,2.2243996,2.9185605,-0.86838442,0.30059454,0.39440006,0
-7.040894,-1.2637501,-1.8943993,-0.95147216,-0.17077704,-0.25599989,0
-4.3686352,-5.1776419,-2.9777591,-0.59035611,-0.69968134,-0.40239987,0
4.9696279,-0.27609015,5.4759998,0.67157131,-0.037309479,0.73999995,0
-3.3291192,-2.6992857,-6.0324807,-0.44988096,-0.36476833,-0.81520009,0
1.9621024,6.1881695,-3.5520012,0.26514897,0.8362391,-0.48000017,0
0.58003861,2.7841849,-6.8316813,0.078383595,0.37624121,-0.92320013,0
-5.0216222,-5.2076087,-1.5569594,-0.67859757,-0.70373088,-0.21039991,0
0.25627491,-6.4068789,3.6940801,0.034631744,-0.86579442,0.49920002,0
3.72504,-6.3544798,0.71039891,0.50338376,-0.85871345,0.095999852,0
-4.706769,-3.9223073,4.14992,-0.63604987,-0.53004152,0.56080002,0
7.0755272,-1.9899921,0.85840023,0.95615232,-0.26891786,0.11600003,0
-1.8188927,1.3186973,-7.0507212,-0.24579631,0.17820235,-0.95280015,0
0.95984411,-6.9588666,2.3265593,0.12970866,-0.94038737,0.3143999,0
-6.1016793,-4.1404252,0.62160003,-0.82455122,-0.55951691,0.084000006,0
6.2061481,-1.0343578,3.8953598,0.83866864,-0.13977808,0.52639997,0
-0.14046739,6.1805711,-4.06704,-0.018982079,0.83521229,-0.54960001,0
-0.6319167,-7.3723612,0.094720244,-0.085394152,-0.99626499,0.012800033,0
-6.9386845,2.3128948,-1.1248007,-0.93766004,0.31255335,-0.15200008,0
2.3331707,0.87493831,6.9678402,0.31529334,0.1182349,0.94160002,0
-4.3174419,-5.5263257,-2.3620799,-0.5834381,-0.74680078,-0.31919998,0
0.29570356,-0.59140801,7.3704,0.039959941,-0.079920001,0.99599999,0
-3.0725601,-4.6702909,-4.8484797,-0.41521081,-0.63112038,-0.65519994,0
6.4573064,1.9868631,3.0192006,0.87260896,0.26849502,0.40800008,0
1.7161348,0.28018522,-7.1928005,0.23191011,0.037862867,-0.97200006,0
2.6427529,0.21573505,-6.9086409,0.35712877,0.029153384,-0.93360013,0
0.86460298,3.1702144,6.6304002,0.11683824,0.42840734,0.89600003,0
-4.6447291,2.4589739,5.2096004,-0.62766612,0.33229378,0.70400006,0
-1.8328112,-5.2540588,-4.8780804,-0.24767719,-0.71000797,-0.65920001,0
-1.1499133,-6.7352071,-2.8415997,-0.15539369,-0.9101631,-0.38399994,0
0.47886127,6.7040644,-3.0961607,0.064710982,0.90595466,-0.41840008,0
1.4699019,0.88194013,7.19872,0.1986354,0.1191811,0.97279996,0
2.4170563,5.1026759,4.7833605,0.32662922,0.68955082,0.64640003,0
-2.8258324,-2.6643562,-6.2988791,-0.38186923,-0.36004815,-0.85119987,0
1.2304481,2.2045527,-6.9560008,0.16627677,0.29791251,-0.94000012,0
4.9271832,-3.3291776,-4.4044805,0.6658355,-0.44988883,-0.5952,0
-2.0765533,6.921845,1.5924796,-0.2806153,0.93538445,0.21519995,0
4.5357323,-4.8485413,-3.2678409,0.61293679,-0.65520829,-0.44160011,0
6.6298814,0.78927177,-3.190881,0.89592993,0.10665835,-0.43120012,0
-5.5736418,-1.8578804,4.4991999,-0.75319481,-0.2510649,0.60799998,0
3.9737275,-5.4638743,3.0191996,0.53699017,-0.73836136,0.40799993,0
-2.136981,-5.3424511,4.65312,-0.28878123,-0.72195292,0.62880003,0
5.1018524,4.174243,-3.3625588,0.68943954,0.56408685,-0.45439982,0
-3.2240636,-5.9521179,2.9895999,-0.43568426,-0.80434024,0.40399998,0
-3.4121394,-1.9904144,6.2574401,-0.46109992,-0.2689749,0.84560001,0
5.3933764,-1.3483446,4.8840003,0.72883463,-0.18220872,0.66000003,0
-0.54206026,-5.4205995,5.0083203,-0.073251382,-0.73251343,0.67680001,0
3.0236313,-6.6141925,-1.3675202,0.40859881,-0.8938098,-0.18480003,0
0.98091823,2.654249,-6.8375993,0.13255651,0.35868227,-0.92399991,0
-2.0167835,-2.7122257,-6.5830402,-0.2725383,-0.36651698,-0.88960004,0
-5.33636,0,-5.1267204,-0.72112972,0,-0.69280005,0
0.97635192,-6.8344598,2.6639998,0.13193944,-0.92357564,0.35999995,0
-5.4244776,0.27122363,5.0260801,-0.73303747,0.036651842,0.67919999,0
-1.2554731,-6.5284581,3.2500803,-0.16965853,-0.88222408,0.43920004,0
-4.1823153,-5.4124084,2.8238404,-0.56517774,-0.73140651,0.38160005,0
0.73376894,-6.8485165,2.70544,0.099157967,-0.92547518,0.36559999,0
0.67102647,6.8780179,-2.6462414,0.090679251,0.9294619,-0.35760018,0
-5.4770527,-4.1492825,-2.7468793,-0.74014229,-0.56071389,-0.37119994,0
6.4849381,2.5598438,-2.4804795,0.87634295,0.34592482,-0.33519992,0
-6.4147096,0.59671748,-3.6408005,-0.86685264,0.080637492,-0.49200004,0
-1.6689256,-4.3195724,-5.7719998,-0.22553049,-0.58372599,-0.77999997,0
5.724637,-1.1709485,-4.5406399,0.77359957,-0.15823628,-0.61359996,0
2.0880072,-7.0992227,-0.035520427,0.28216314,-0.9593544,-0.0048000575,0
-3.9639032,-4.9915819,-3.7591996,-0.53566259,-0.67453808,-0.50799996,0
-6.094553,-3.9995506,-1.2728,-0.82358825,-0.54047978,-0.17199999,0
-4.706769,-3.9223073,4.14992,-0.63604987,-0.53004152,0.56080002,0
-6.0117888,3.6070726,2.3680005,-0.81240392,0.48744223,0.32000005,0
3.1700919,6.5666203,1.2609595,0.4283908,0.88738114,0.17039993,0
-2.1959927,-7.0271773,0.74592036,-0.29675576,-0.94961852,0.10080004,0
-0.98064971,-1.4359514,-7.1928,-0.13252023,-0.19404748,-0.972,0
-7.0735426,2.1434984,0.36112037,-0.9558841,0.28966194,0.048800051,0
6.4068789,-0.25627491,3.6940801,0.86579442,-0.034631744,0.49920002,0
2.3070917,6.1522455,-3.4039984,0.31176916,0.83138454,-0.45999977,0
-2.7119489,-0.80781448,-6.8375998,-0.36647958,-0.10916412,-0.92399997,0
-7.0482817,-1.1747139,1.9239995,-0.95247048,-0.15874511,0.25999993,0
2.8607931,-3.3222113,-5.9614406,0.38659367,-0.44894746,-0.80560005,0
-6.8163447,-1.2172047,2.6107199,-0.92112768,-0.16448712,0.35279998,0
-1.4291011,3.429842,6.3995199,-0.19312178,0.46349216,0.86479998,0
-4.0124106,-3.4392092,-5.1800003,-0.54221767,-0.46475801,-0.70000005,0
2.8835812,-5.3552227,-4.2150388,0.38967311,-0.72367871,-0.56959981,0
-7.3533525,-0.39747873,-0.72816026,-0.99369627,-0.05371334,-0.098400034,0
-4.2623997,2.5574398,-5.4819207,-0.57599998,0.34559998,-0.74080008,0
-6.5971227,2.4305186,-2.3087995,-0.89150304,0.32844844,-0.31199992,0
6.5339179,-2.4199698,2.4923208,0.88296187,-0.32702294,0.3368001,0
-7.2482057,-1.1753846,-0.91760021,-0.97948724,-0.15883575,-0.12400003,0
-4.6911025,5.710907,-0.37295875,-0.63393277,0.77174419,-0.050399829,0
-3.2190869,6.6393666,-0.56239927,-0.43501174,0.89721167,-0.075999901,0
1.6623294,-4.5714049,-5.5766406,0.2246391,-0.61775744,-0.75360006,0
-5.8113899,1.3207707,4.3867202,-0.78532296,0.17848253,0.59280002,0
-3.6729956,4.5912447,-4.4932809,-0.49635077,0.62043852,-0.60720015,0
-4.319572,1.6689256,-5.7720003,-0.58372593,0.22553049,-0.78000003,0
-0.73376966,-6.8485165,2.70544,-0.099158064,-0.92547518,0.36559999,0
5.9221873,3.2011821,-3.07248,0.80029559,0.43259218,-0.4152,0
6.1290588,3.5023189,-2.2200007,0.82825118,0.47328633,-0.3000001,0
5.1228285,-4.6349406,2.6521606,0.69227409,-0.62634331,0.35840008,0
5.6894684,-3.7105227,2.9363194,0.76884705,-0.50142199,0.39679992,0
1.5592757,-2.6195834,-6.7428808,0.21071294,-0.35399774,-0.91120011,0
-1.1742508,1.4678142,7.15728,-0.15868254,0.19835328,0.96719998,0
-2.9520273,-4.8305898,4.7655997,-0.39892259,-0.65278238,0.64399993,0
-3.4121394,1.9904144,6.2574401,-0.46109992,0.2689749,0.84560001,0
-7.3140993,0.79071385,-0.7992003,-0.98839176,0.10685322,-0.10800004,0
2.6992857,3.3291192,-6.0324807,0.36476833,0.44988096,-0.81520009,0
-2.1430321,7.0135589,-0.98864079,-0.28959891,0.94777817,-0.1336001,0
-5.3382516,-1.4558868,-4.9136,-0.72138536,-0.19674146,-0.66399997,0
2.8905132,-1.1562047,6.7132797,0.39060989,-0.15624388,0.90719998,0
2.8850517,-1.4425259,6.6599998,0.38987184,-0.19493592,0.89999998,0
3.7143462,6.3969293,-0.20720024,0.50193864,0.86444992,-0.028000033,0
3.8849361,4.9209199,3.9308805,0.52499133,0.66498917,0.53120005,0
-5.8896084,2.5606999,3.6763201,-0.79589301,0.34604052,0.49680001,0
-6.6961322,0.99202019,2.9896007,-0.90488273,0.13405678,0.40400007,0
-4.9101677,-4.9101677,-2.5574415,-0.66353619,-0.66353619,-0.34560019,0
-6.5083365,1.5873996,-3.1435201,-0.87950492,0.21451345,-0.42480001,0
0.16848592,2.7519395,-6.8672004,0.022768367,0.37188372,-0.92800003,0
0.53943753,1.3060067,-7.2638388,0.072896965,0.17648739,-0.98159981,0
-6.6168547,-3.3084273,-0.17759967,-0.89416951,-0.44708475,-0.023999956,0
0,3.9782383,-6.2396812,0,0.53759974,-0.84320015,0
-6.8198247,-2.1164973,1.9417592,-0.9215979,-0.28601316,0.26239988,0
-3.1055124,6.6546702,0.9116798,-0.41966382,0.89927977,0.12319997,0
-6.0679975,-2.528332,3.3980799,-0.81999964,-0.34166649,0.45919997,0
2.6226275,4.5610905,-5.2036796,0.35440913,0.61636358,-0.70319992,0
-3.3411467,-3.3411467,5.6950397,-0.45150632,-0.45150632,0.76959997,0
-6.3397484,2.4383645,-2.9363189,-0.85672277,0.32950872,-0.39679983,0
4.9337964,5.1687403,1.9239998,0.66672921,0.6984784,0.25999996,0
1.1517408,7.1407914,1.5628799,0.15564065,0.96497178,0.21119998,0
7.0390468,2.2773392,-0.15983914,0.95122254,0.30774853,-0.021599883,0
7.083992,0.70839852,2.0187197,0.95729619,0.09572953,0.27279994,0
2.0515938,0,7.10992,0.27724239,0,0.96079999,0
-2.0344312,7.0074849,1.2313598,-0.27492315,0.94695741,0.16639997,0
6.4466596,3.0442562,-1.983201,0.87117022,0.41138598,-0.26800013,0
4.4559908,5.8121619,-1.0596809,0.60216093,0.78542727,-0.14320013,0
-7.3456874,-0.81618726,-0.36704057,-0.99266046,-0.11029557,-0.049600076,0
5.6356874,0.53673166,4.7656007,0.76157933,0.072531305,0.64400011,0
3.2826648,3.0012932,-5.9140806,0.44360334,0.40558016,-0.79920006,0
4.9580593,-3.6533065,4.1025605,0.670008,-0.49369007,0.55440009,0
5.0790668,-2.673193,4.6708803,0.68636036,-0.36124229,0.63120002,0
-1.9259558,-1.1922582,-7.0448008,-0.26026428,-0.16111597,-0.95200008,0
1.9590003,3.5773048,-6.1745615,0.26472977,0.48341957,-0.83440018,0
7.3519511,0.84022337,0.053278912,0.99350691,0.1135437,0.0071998527,0
-0.62791103,5.6511979,-4.7359996,-0.084852844,0.76367539,-0.63999993,0
1.2502838,7.2933226,-0.065121002,0.16895728,0.98558414,-0.008800135,0
1.4579319,2.0411038,6.9619203,0.19701782,0.27582484,0.94080001,0
-0.87997174,1.7599435,7.1336002,-0.1189151,0.23783019,0.96400005,0
-0.76365691,7.2547421,-1.2431997,-0.10319688,0.98037052,-0.16799995,0
-3.4477735,-4.7738404,4.4814401,-0.46591532,-0.64511359,0.6056,0
3.231257,-6.4625149,1.5984002,0.43665633,-0.87331283,0.21600004,0
-5.9155998,-2.1642439,-3.8835199,-0.7994054,-0.29246539,-0.5248,0
5.4141302,-0.8121196,4.9787202,0.73163921,-0.10974589,0.6728,0
-2.4235868,4.9683537,-4.9195209,-0.32751176,0.67139918,-0.66480017,0
-7.0387034,2.2121642,-0.56831998,-0.95117611,0.29894111,-0.076799996,0
7.2558241,0.68023288,1.2846404,0.98051673,0.091923364,0.17360006,0
3.72504,6.3544798,0.71039891,0.50338376,0.85871345,0.095999852,0
-0.49770296,-6.718986,3.0606406,-0.067257158,-0.90797108,0.41360006,0
0.72141498,-2.2604339,-7.0092797,0.097488508,-0.30546403,-0.94719994,0
-4.741621,3.6879268,4.3216,-0.64075959,0.49836847,0.58399999,0
-3.224066,2.314714,-6.2455983,-0.43568459,0.31279919,-0.84399974,0
0.59140712,-0.29570356,7.3704,0.079919882,-0.039959941,0.99599999,0
3.3742132,2.8118448,5.9555197,0.45597476,0.37997901,0.80479997,0
-4.8977051,-2.8883903,-4.7359991,-0.661852,-0.39032301,-0.63999987,0
-3.9737267,5.4638753,3.0191994,-0.53699011,0.73836154,0.4079999,0
3.1243253,6.6391892,-0.95903945,0.4222061,0.89718771,-0.12959993,0
2.6183197,-0.58184928,6.8968005,0.353827,-0.078628279,0.93200004,0
-6.0311346,-0.78666985,4.2150402,-0.81501818,-0.10630673,0.56960005,0
-3.4121394,-1.9904144,6.2574401,-0.46109992,-0.2689749,0.84560001,0
2.2928066,-6.8784184,1.4799993,0.30983874,-0.92951602,0.1999999,0
-0.48167148,6.9842329,2.3975992,-0.065090738,0.94381523,0.32399988,0
0.23080394,5.3084955,-5.1503987,0.031189721,0.71736425,-0.6959998,0
1.0910809,5.182631,5.16816,0.14744337,0.70035553,0.69839996,0
0.19900341,7.3631334,-0.71040022,0.026892353,0.99501801,-0.096000031,0
-4.5755239,3.2297821,4.8366404,-0.61831403,0.43645704,0.65360004,0
-2.6643546,2.8258309,-6.2988806,-0.36004791,0.38186905,-0.85120004,0
2.9112859,6.7183528,1.0715196,0.393417,0.90788549,0.14479995,0
2.3201563,1.7401177,6.8080001,0.31353465,0.23515104,0.92000002,0
3.0236311,6.6141925,-1.3675215,0.40859878,0.8938098,-0.18480021,0
0.62791103,-5.6511979,-4.7359996,0.084852844,-0.76367539,-0.63999993,0
3.4392092,-4.0124106,-5.1800003,0.46475801,-0.54221767,-0.70000005,0
5.7342253,-4.6723318,0.21904065,0.77489531,-0.63139617,0.029600088,0
-0.9241268,7.1619844,1.6161599,-0.124882,0.96783572,0.21839999,0
0,6.9926682,2.4212792,0,0.94495517,0.32719988,0
-2.8485599,-6.7927198,0.71039999,-0.38494051,-0.91793507,0.095999993,0
-7.2681785,0.45426074,1.3142403,-0.98218626,0.061386585,0.17760004,0
2.0924327,-5.7541914,4.1558404,0.28276119,-0.77759343,0.56160003,0
-2.9025099,-1.840616,-6.5534396,-0.39223108,-0.24873188,-0.88559991,0
2.970489,-6.7331095,-0.77551973,0.40141743,-0.90987962,-0.10479996,0
6.0132279,-4.2951632,0.39072123,0.81259835,-0.58042747,0.052800167,0
-1.2009584,2.8443751,-6.7251196,-0.16229168,0.38437501,-0.90879995,0
5.8868976,3.4340231,-2.8830402,0.79552668,0.46405718,-0.38960001,0
6.1844254,-3.9757025,0.84064078,0.83573312,-0.53725708,0.11360011,0
-2.211261,4.4225221,5.5055995,-0.29881907,0.59763813,0.7439999,0
3.8838089,6.2140942,-1.0300795,0.52483904,0.83974242,-0.13919993,0
3.2240636,-5.9521179,2.9895999,0.43568426,-0.80434024,0.40399998,0
-6.2616925,-3.8017416,1.0478402,-0.84617466,-0.51374888,0.14160003,0
4.7350526,5.0732713,-2.5692794,0.63987195,0.68557721,-0.34719992,0
1.8767332,-5.3620954,4.7419205,0.25361258,-0.72460747,0.64080006,0
1.7108698,-3.4217396,6.3344002,0.23119862,-0.46239725,0.85600001,0
-5.7008834,-2.5913105,3.9427202,-0.77038962,-0.35017708,0.53280002,0
5.4050603,-1.0810119,4.9372802,0.73041356,-0.14608268,0.66720003,0
-7.3456874,0.81618786,-0.36704072,-0.99266046,0.11029565,-0.049600098,0
-2.6183205,0.58184844,6.8968,-0.35382709,0.078628168,0.93199998,0
-5.6044927,4.7077732,1.0892806,-0.75736386,0.63618559,0.14720008,0
-3.7028878,1.1393508,6.3048,-0.50039023,0.15396632,0.852,0
-6.0019865,-4.2236204,0.94720066,-0.81107926,-0.57075953,0.12800008,0
-6.9397807,-1.1965141,2.2732792,-0.93780822,-0.1616911,0.3071999,0
-6.6977549,-2.5342853,-1.8648,-0.90510201,-0.34247097,-0.252,0
5.3659596,-3.5773065,3.6289608,0.72512966,-0.48341981,0.49040011,0
-6.9926682,0,2.4212792,-0.94495517,0,0.32719988,0
-6.6391897,-3.1243246,-0.95904011,-0.89718777,-0.42220601,-0.12960002,0
4.3439817,-2.7846038,-5.3043194,0.58702457,-0.3762978,-0.71679991,0
3.9565976,-1.413071,6.09168,0.53467536,-0.19095555,0.82319999,0
1.7678906,5.4299502,-4.7064004,0.23890413,0.73377705,-0.63600004,0
-2.7122259,-6.884881,-0.047359277,-0.36651701,-0.93038934,-0.006399902,0
0.32033676,-6.7270789,-3.0665607,0.043288752,-0.90906471,-0.4144001,0
2.7822928,-6.848721,0.33744034,0.3759855,-0.92550284,0.045600045,0
-7.2835922,1.213932,-0.48544064,-0.9842692,0.16404487,-0.065600082,0
-6.6200318,-2.6007271,2.0423999,-0.8945989,-0.35144961,0.27599999,0
6.921845,2.0765529,1.5924798,0.93538445,0.28061524,0.21519998,0
5.8533211,2.4876618,-3.7828794,0.79098928,0.33617049,-0.51119989,0
-0.58724523,1.7617348,7.1631999,-0.07935746,0.23807228,0.96799999,0
1.1747139,-7.0482817,1.9239995,0.15874511,-0.95247048,0.25999993,0
1.9259558,1.1922582,-7.0448008,0.26026428,0.16111597,-0.95200008,0
-6.6634693,2.379811,2.1667197,-0.90046883,0.32159609,0.29279995,0
5.3407717,3.5605145,-3.682241,0.72172588,0.4811506,-0.49760014,0
-7.1619844,-0.9241268,1.6161599,-0.96783572,-0.124882,0.21839999,0
4.5338464,-5.8292313,0.47360116,0.61268193,-0.78773397,0.06400016,0
-1.4912642,-7.2432842,0.26639992,-0.20152219,-0.97882217,0.035999987,0
2.4199703,-6.5339179,2.4923203,0.327023,-0.88296187,0.33680004,0
-0.80553418,-1.5410221,-7.1927996,-0.10885597,-0.20824622,-0.97199994,0
4.360465,-4.9833889,-3.3033588,0.58925205,-0.67343092,-0.44639984,0
-4.7590685,5.5205202,-1.2787207,-0.64311737,0.74601626,-0.17280009,0
4.5465598,5.6831999,-1.3379207,0.61439997,0.76799995,-0.18080008,0
0.22736171,-7.2755814,1.3320003,0.030724555,-0.98318666,0.18000004,0
1.5624764,5.9894929,4.0551996,0.21114546,0.8093909,0.54799992,0
-5.0843115,4.06745,3.5164797,-0.68706912,0.54965538,0.47519997,0
-2.8081522,-6.8197989,-0.60383993,-0.37948003,-0.92159444,-0.081599988,0
6.6298814,-0.78927177,-3.190881,0.89592993,-0.10665835,-0.43120012,0
5.1663661,3.616456,3.8716805,0.69815755,0.48871025,0.52320004,0
-1.7401175,-2.3201571,6.8080001,-0.23515102,-0.31353474,0.92000002,0
-3.176228,0,6.6836801,-0.42921999,0,0.90319997,0
-5.2303128,-4.2340622,3.0784001,-0.70679903,-0.57217056,0.41600001,0
4.6233001,-5.7240863,0.78736085,0.62477028,-0.77352518,0.10640011,0
5.555532,-2.8489907,-3.9723191,0.75074756,-0.38499874,-0.53679985,0
-4.4425049,2.3837833,-5.4168005,-0.60033852,0.32213289,-0.73200005,0
5.6109109,1.2752073,-4.65312,0.75823116,0.17232531,-0.62879997,0
-0.54412526,-3.2647507,-6.6185598,-0.073530443,-0.44118252,-0.89439994,0
5.6592531,3.7189379,-2.9836814,0.76476395,0.50255919,-0.40320018,0
-5.6831999,4.5465598,-1.3379207,-0.76799995,0.61439997,-0.18080008,0
-1.6636676,-7.024374,-1.6279999,-0.22481994,-0.94923973,-0.21999998,0
5.3659596,3.5773065,3.6289608,0.72512966,0.48341981,0.49040011,0
-3.6629639,-5.8274426,-2.7172797,-0.49499512,-0.78749222,-0.36719996,0
2.8018558,6.4792905,-2.2200007,0.37862915,0.87557977,-0.3000001,0
0.55313158,7.1907172,-1.6575992,0.07474751,0.97171855,-0.22399989,0
5.597291,3.3074896,3.5342393,0.75639069,0.44695807,0.47759989,0
-4.3643208,3.0004711,5.16816,-0.58977306,0.40546906,0.69839996,0
4.3195724,-1.6689256,-5.7719998,0.58372599,-0.22553049,-0.77999997,0
1.6627717,-6.8886271,2.1311994,0.22469887,-0.93089551,0.2879999,0
-6.7094731,0.74549633,3.0310407,-0.90668553,0.10074275,0.40960008,0
-6.324295,-1.7708024,3.4099202,-0.85463446,-0.23929761,0.46080002,0
-4.1901016,-5.8297067,-1.7937595,-0.56622994,-0.78779817,-0.24239993,0
1.0716358,1.2725675,-7.2105598,0.14481565,0.17196858,-0.97439998,0
-5.0468402,-2.1629314,-4.9609609,-0.68200541,-0.29228804,-0.67040008,0
-3.3407793,-5.3742971,-3.8361599,-0.45145667,-0.72625637,-0.51840001,0
1.8015679,3.6889253,-6.1567998,0.24345513,0.49850342,-0.83199996,0
0.50732738,-5.7074299,-4.6827197,0.068557754,-0.77127433,-0.63279992,0
-6.1640821,-0.2801857,-4.0847998,-0.83298403,-0.03786293,-0.55199999,0
5.8533216,-2.4876616,-3.7828786,0.7909894,-0.33617049,-0.51119983,0
-5.3084936,-0.23080419,-5.1504006,-0.71736401,-0.031189755,-0.6960001,0
4.7985539,5.6330843,-0.04735991,0.64845324,0.76122761,-0.0063999877,0
6.5574255,0.75662535,3.3448005,0.88613856,0.10224666,0.45200005,0
4.4497585,-1.3843691,-5.7483191,0.60131872,-0.18707691,-0.77679986,0
-5.8083134,4.4679332,1.0300806,-0.78490728,0.60377479,0.13920008,0
-3.3888068,3.6006072,-5.5055985,-0.45794687,0.48656854,-0.74399978,0
-0.25276366,6.5718613,3.3921604,-0.03415725,0.88808936,0.45840004,0
2.0521069,-1.5785438,-6.9323196,0.27731174,-0.21331672,-0.93679994,0
-6.7678003,-1.69195,2.4686401,-0.91456759,-0.22864188,0.33360001,0
5.7342253,-4.6723318,0.21904065,0.77489531,-0.63139617,0.029600088,0
-1.64316,4.9294801,5.2687998,-0.22204864,0.66614592,0.71199995,0
-7.3826933,-0.41014984,-0.29600063,-0.99766123,-0.055425655,-0.040000085,0
-5.902688,3.8193867,-2.3088009,-0.79766053,0.51613331,-0.31200013,0
-6.3440747,3.8064449,0.15391943,-0.85730737,0.51438445,0.020799922,0
1.1742517,-1.4678142,7.15728,0.15868266,-0.19835328,0.96719998,0
-1.1275233,7.2161474,1.1899202,-0.15236801,0.97515506,0.16080002,0
5.3424511,-2.136981,4.65312,0.72195292,-0.28878123,0.62880003,0
5.9194379,-2.3163018,3.7887995,0.79992402,-0.31301376,0.51199991,0
5.8181524,-4.5714059,-0.10655902,0.78623682,-0.61775756,-0.014399868,0
-2.5538337,6.7328339,1.7049592,-0.34511265,0.90984243,0.23039988,0
-5.8292313,-4.5338469,0.47360042,-0.78773397,-0.61268198,0.064000055,0
-4.8433337,1.9148065,-5.2569609,-0.65450454,0.25875762,-0.7104001,0
4.4849777,3.9573324,4.35712,0.60607809,0.53477466,0.58880001,0
-0.98439497,7.2845211,-0.85248029,-0.13302635,0.98439473,-0.11520004,0
-4.7311502,0.2783027,5.6832004,-0.63934463,0.037608471,0.76800007,0
-4.2828202,-5.0386119,3.3211205,-0.57875949,-0.68089348,0.44880006,0
-4.1102366,-4.8809061,3.7473602,-0.55543739,-0.6595819,0.50640005,0
-6.8585391,0.48989519,2.7350399,-0.92682958,0.066202052,0.3696,0
7.3178096,-1.0163627,-0.42032069,0.98889315,-0.1373463,-0.056800094,0
-0.55313212,-7.1907167,-1.6575993,-0.074747585,-0.97171849,-0.2239999,0
5.1281824,-3.5612378,-3.9723206,0.69299763,-0.48124835,-0.53680009,0
-2.727277,-6.1983562,2.9836798,-0.36855096,-0.83761567,0.40319997,0
0.85531199,5.4984345,-4.8780794,0.1155827,0.74303168,-0.65919989,0
-4.7350526,5.0732708,-2.5692804,-0.63987195,0.68557715,-0.34720004,0
-2.8485599,6.7927198,0.71039999,-0.38494051,0.91793507,0.095999993,0
-0.5603714,-4.4829688,5.8608003,-0.075725861,-0.60580653,0.792,0
0.84022349,-7.3519511,0.053280145,0.11354371,-0.99350691,0.0072000194,0
0.2958813,0.2958813,7.3881602,0.039983958,0.039983958,0.99840003,0
1.0750144,7.3100948,0.408481,0.14527221,0.98785067,0.055200133,0
2.5468943,6.2080536,-3.1198399,0.34417489,0.83892614,-0.42159998,0
2.8835812,5.3552227,-4.2150388,0.38967311,0.72367871,-0.56959981,0
-2.5938115,2.0174086,6.6304002,-0.35051507,0.27262279,0.89600003,0
-2.6790862,6.3628297,-2.6639998,-0.36203867,0.85984182,-0.35999995,0
-5.9330096,4.3508739,-0.7932812,-0.80175805,0.58795595,-0.10720016,0
2.5468943,-6.2080536,-3.1198399,0.34417489,-0.83892614,-0.42159998,0
-0.25627491,6.4068789,3.6940801,-0.034631744,0.86579442,0.49920002,0
-6.4147096,0.59671748,-3.6408005,-0.86685264,0.080637492,-0.49200004,0
4.1442118,3.8930476,-4.7359996,0.56002861,0.52608752,-0.63999993,0
4.0604801,-3.2709424,-5.2510414,0.54871351,-0.44201925,-0.70960021,0
3.2554619,-4.3406157,5.0320001,0.43992728,-0.58656967,0.68000001,0
-4.6032438,1.9269394,-5.4641604,-0.62205994,0.2603972,-0.73840004,0
-3.0472784,0.57136458,-6.7191992,-0.41179436,0.077211432,-0.90799987,0
5.5736413,1.8578804,4.4992008,0.75319475,0.2510649,0.6080001,0
3.3734777,0.86131346,-6.5297618,0.45587537,0.11639371,-0.88240021,0
-6.3896933,3.286128,-1.77008,-0.86347204,0.44407135,-0.2392,0
-4.3283987,0.64465511,-5.96736,-0.58491874,0.087115556,-0.8064,0
2.314714,3.224066,-6.2455983,0.31279919,0.43568459,-0.84399974,0
2.2121642,-7.0387034,-0.56831998,0.29894111,-0.95117611,-0.076799996,0
5.4976382,2.6113782,-4.2091188,0.74292409,0.35288894,-0.56879985,0
-5.5780349,3.9374366,-2.8534405,-0.75378847,0.53208601,-0.38560006,0
0,1.1802058,7.3052802,0,0.15948728,0.98720002,0
-0.85081345,3.9704621,6.1864004,-0.11497479,0.53654891,0.83600003,0
7.1647239,0.73484391,-1.6990395,0.96820593,0.099303231,-0.22959992,0
-4.9144845,-1.9111881,5.1918402,-0.66411954,-0.25826865,0.70160002,0
-7.2845211,0.98439497,-0.85248029,-0.98439473,0.13302635,-0.11520004,0
0.33801043,-6.9292207,-2.5751998,0.045677084,-0.93638116,-0.34799996,0
7.2755814,-0.22736171,1.3320003,0.98318666,-0.030724555,0.18000004,0
4.4468737,-5.6171041,1.8529598,0.60092884,-0.75906813,0.25039998,0
1.1780658,-0.88354892,7.2519999,0.15919808,-0.1193985,0.97999996,0
0.9809168,-2.6542451,-6.8376007,0.13255632,-0.35868177,-0.92400008,0
-6.9616756,2.2457025,1.1188797,-0.94076699,0.30347329,0.15119995,0
6.5109239,1.9532773,-2.924479,0.87985456,0.2639564,-0.39519987,0
-5.5528054,2.1153541,4.4103999,-0.75037909,0.28585866,0.59599996,0
3.2985604,2.5173225,-6.1272006,0.4457514,0.34017873,-0.82800007,0
-6.4849377,-2.559844,-2.48048,-0.87634289,-0.34592485,-0.33519998,0
5.7507863,0.38338539,-4.6412792,0.77713329,0.051808834,-0.62719989,0
-2.1164973,6.8198247,1.9417592,-0.28601316,0.9215979,0.26239988,0
-0.58855671,1.4713913,7.2283201,-0.079534687,0.19883667,0.97680002,0
-2.7598121,-2.7598121,-6.2870402,-0.37294757,-0.37294757,-0.84960002,0
-5.8868976,3.4340231,-2.8830402,-0.79552668,0.46405718,-0.38960001,0
-4.416173,-4.0147033,-4.3748798,-0.59678012,-0.54252744,-0.59119999,0
-6.7776117,-2.965205,0.1776005,-0.9158935,-0.40070337,0.024000067,0
-5.9612961,4.1270514,1.4800001,-0.80558056,0.55770963,0.20000002,0
-1.1649022,-2.3298044,-6.9263997,-0.15741922,-0.31483844,-0.93599993,0
1.3013229,-6.6692815,-2.9303997,0.17585444,-0.90125424,-0.39599994,0
2.8097491,2.2182231,-6.4764805,0.37969583,0.29975986,-0.87520003,0
-4.4849772,-3.9573331,4.35712,-0.60607797,-0.53477472,0.58880001,0
5.3407717,-3.5605145,-3.682241,0.72172588,-0.4811506,-0.49760014,0
-6.5618815,-2.9163916,-1.7878406,-0.88674074,-0.39410698,-0.24160008,0
7.1971669,-0.23216645,1.70496,0.97259009,-0.031373844,0.2304,0
7.3631334,-0.19900341,-0.71040022,0.99501801,-0.026892353,-0.096000031,0
2.5598438,6.4849381,-2.4804795,0.34592482,0.87634295,-0.33519992,0
-2.3374629,6.7786431,1.8292793,-0.31587335,0.91603285,0.24719991,0
1.4474125,-6.5937696,-3.0310395,0.19559628,-0.89104992,-0.40959993,0
0.54205948,-5.4205995,5.0083203,0.073251277,-0.73251343,0.67680001,0
-1.2554731,6.5284581,3.2500803,-0.16965853,0.88222408,0.43920004,0
2.4608943,0.56395501,-6.9560013,0.3325533,0.076210134,-0.94000018,0
4.4644027,5.8848939,-0.4440015,0.60329765,0.7952559,-0.0600002,0
-4.164732,4.299078,-4.3512001,-0.5628016,0.58095646,-0.58799994,0
6.0462303,-4.2323613,-0.53872067,0.81705815,-0.57194072,-0.072800092,0
4.706769,3.9223065,4.1499205,0.63604987,0.5300414,0.56080008,0
3.9644022,1.1326871,6.1449604,0.53573,0.15306582,0.83040005,0
-2.4941401,-6.2353511,3.108,-0.33704597,-0.84261501,0.41999999,0
-5.0222678,-5.2505527,1.4030403,-0.67868483,-0.70953411,0.18960004,0
-6.0064926,-1.3057597,4.1203203,-0.81168818,-0.17645401,0.55680001,0
-6.5377278,3.2688644,-1.1544005,-0.88347673,0.44173843,-0.15600006,0
5.6330848,-4.7985535,-0.047359098,0.76122767,-0.64845318,-0.0063998778,0
-5.0006938,-5.0006938,2.1785595,-0.67576945,-0.67576945,0.29439995,0
1.7944045,6.1522446,3.6999998,0.24248709,0.83138436,0.49999997,0
1.0861706,-6.5170245,-3.3329608,0.14677981,-0.88067895,-0.45040011,0
5.7617879,-3.0325196,-3.5164795,0.77862,-0.40979993,-0.47519994,0
7.0977073,1.7264688,-1.1839999,0.9591496,0.23330659,-0.15999998,0
3.3960576,6.0643892,2.5396802,0.45892671,0.81951207,0.34320003,0
-0.29824099,4.6724424,-5.7305617,-0.040302835,0.63141114,-0.77440023,0
-2.6542451,0.9809168,-6.8376007,-0.35868177,0.13255632,-0.92400008,0
2.76509,-6.682301,1.5687993,0.3736608,-0.90301365,0.21199989,0
