-1.9583564,1.3988265,6.6796799,-0.27582484,0.19701782,0.94080001,0
-1.2916727,-4.4711747,-5.3619194,-0.18192573,-0.62974292,-0.75519991,0
-3.0885832,6.370203,-0.5395993,-0.43501171,0.89721173,-0.075999901,0
-0.28615013,4.4830189,-5.4982414,-0.040302835,0.63141114,-0.77440023,0
-5.2960477,-4.660522,0.80088001,-0.74592227,-0.65641159,0.11280001,0
-3.9658029,2.224719,-5.4528003,-0.55856377,0.31334072,-0.76800007,0
4.5311241,0.7996093,5.4073596,0.63818651,0.11262103,0.76159996,0
4.8541732,1.8062042,-4.856401,0.68368638,0.25439495,-0.68400013,0
-0.53765363,4.3012271,5.6231995,-0.075725861,0.60580665,0.79199994,0
-6.6782885,-1.0017433,-2.1924803,-0.94060403,-0.14109062,-0.30880004,0
-3.4725199,-6.07691,1.1928,-0.48908731,-0.85590285,0.16800001,0
2.0100701,2.1928039,-6.4467998,0.28310847,0.30884561,-0.90799999,0
4.1905932,3.2593501,-4.7143998,0.59022439,0.45906338,-0.66399997,0
-1.8773929,-6.3361993,2.5957603,-0.26442152,-0.89242244,0.36560005,0
5.7069249,-3.8046167,-1.8346393,0.80379224,-0.53586149,-0.2583999,0
1.6677158,6.8793287,0.55096078,0.23488955,0.96891958,0.077600114,0
3.982357,4.6934924,-3.5386384,0.56089538,0.66105527,-0.49839976,0
-6.4886832,-1.8301418,-2.2265594,-0.91389906,-0.25776646,-0.31359991,0
-4.7669349,-2.3253341,-4.7200794,-0.6713993,-0.32751185,-0.66479993,0
-0.56469631,-1.4117403,6.9352798,-0.079534695,-0.19883667,0.97679996,0
4.9608808,4.9608808,1.090559,0.69871563,0.69871563,0.15359987,0
-0.16165556,-2.6403739,-6.5888004,-0.022768389,-0.37188366,-0.92800009,0
3.2447617,-4.991941,3.8680804,0.45700869,-0.70309031,0.54480004,0
7.0646276,-0.1909357,-0.68160015,0.99501801,-0.026892353,-0.096000023,0
-1.1439234,1.8478764,-6.7592006,-0.16111597,0.26026428,-0.95200008,0
-2.9990346,4.954927,-4.1066394,-0.42239925,0.69787705,-0.5783999,0
-6.6336174,-2.4876068,0.4657602,-0.93431234,-0.35036716,0.06560003,0
-4.9608808,-4.9608808,1.0905606,-0.69871563,-0.69871563,0.15360008,0
4.2055326,5.1400962,2.5105591,0.59232855,0.72395724,0.35359988,0
-3.6120512,-5.9598846,-1.357519,-0.50873959,-0.83942038,-0.19119987,0
-6.07375,-3.4970078,-1.1359993,-0.85545778,-0.49253634,-0.15999991,0
3.7969,-4.3031535,4.1804805,0.53477466,-0.60607797,0.58880007,0
-2.6742065,-5.9776382,-2.7434394,-0.37664881,-0.84192091,-0.38639992,0
-3.0415745,-6.3004055,1.2098395,-0.42839077,-0.88738108,0.17039993,0
0.81463891,3.4807296,-6.1344018,0.11473788,0.49024361,-0.86400026,0
1.0990475,-3.2971411,6.1911998,0.15479542,-0.46438608,0.87199998,0
-2.4102416,3.7492642,5.5266399,-0.33947065,0.52806538,0.7784,0
5.3017955,4.1492314,2.2549593,0.74673176,0.58439881,0.31759992,0
2.088263,-4.6985927,4.8961601,0.29412156,-0.66177362,0.68960005,0
-4.8381968,4.3699837,-2.8115993,-0.68143618,0.61549067,-0.39599991,0
-5.1133499,-0.11115967,-4.9245605,-0.72019017,-0.015656292,-0.69360006,0
-0.74568254,5.9654603,3.7771997,-0.10502571,0.84020567,0.53199995,0
-4.515954,3.7632942,3.9816802,-0.63604987,0.53004146,0.56080002,0
-4.6469822,1.8371792,-5.0438404,-0.65450454,0.25875762,-0.71040004,0
1.3471307,4.0413904,5.6800003,0.18973671,0.56920993,0.80000007,0
5.0182724,-4.0624113,2.9536006,0.70679891,-0.57217062,0.4160001,0
-6.7867775,2.0565999,0.34648034,-0.95588416,0.28966194,0.048800047,0
-3.560812,-1.5376234,-5.94696,-0.50152284,-0.21656668,-0.83759999,0
-6.152617,1.6507024,-3.13536,-0.86656576,0.2324933,-0.44159999,0
4.9912271,0,5.04952,0.70298976,0,0.7112,0
6.3361993,-1.8773929,2.5957603,0.89242244,-0.26442152,0.36560005,0
3.726357,5.9621716,-0.98831946,0.52483904,0.83974248,-0.13919993,0
-3.4962184,6.1697979,0.34647983,-0.49242514,0.86898565,0.048799977,0
2.0503459,5.1258655,4.4644804,0.28878111,0.72195292,0.62880009,0
3.8311186,-1.0827074,-5.878799,0.53959411,-0.152494,-0.82799983,0
5.3795142,1.2808372,4.4531202,0.75767809,0.18039961,0.62720007,0
6.9504609,-1.2637203,0.71000057,0.97893816,-0.17798877,0.10000008,0
0.54421365,4.2630072,-5.6516013,0.076649815,0.60042357,-0.79600018,0
-4.515954,3.7632942,3.9816802,-0.63604987,0.53004146,0.56080002,0
-6.7818341,0.50863707,-2.0391202,-0.95518792,0.071639024,-0.28720003,0
2.8019044,6.0982618,-2.3174405,0.39463443,0.85891014,-0.32640007,0
3.7987225,5.997983,-0.062480353,0.53503132,0.84478635,-0.0088000502,0
3.4970078,6.07375,-1.1359993,0.49253634,0.85545778,-0.15999991,0
5.5911946,-3.5144649,-2.607121,0.78749222,-0.49499506,-0.36720014,0
-6.1428089,-1.9964128,-2.9479201,-0.86518437,-0.28118491,-0.41520002,0
5.8317032,-2.9946582,-2.7264001,0.82136667,-0.42178285,-0.38400003,0
2.7717481,1.3228797,-6.4013591,0.39038706,0.18632108,-0.90159988,0
-3.7295377,5.5132294,-2.4707987,-0.52528703,0.77651119,-0.34799981,0
-3.8168929,4.9913211,-3.3057587,-0.53759056,0.70300299,-0.46559983,0
-4.5032582,1.5893854,5.2540002,-0.63426173,0.2238571,0.74000001,0
-1.9680179,-0.28114539,-6.8160005,-0.27718562,-0.039597943,-0.9600001,0
2.8067365,4.8479986,4.3622398,0.39531499,0.68281674,0.61439997,0
-2.0898614,-4.6196938,-4.9700007,-0.29434669,-0.65066111,-0.70000011,0
2.6958404,2.1282952,-6.2139201,0.37969583,0.29975989,-0.87520003,0
-3.2583795,-5.8185353,2.4367201,-0.45892671,-0.81951207,0.34320006,0
1.2235097,5.3834414,-4.4644799,0.17232531,0.75823122,-0.62879997,0
-0.56709075,-0.56709075,7.0545597,-0.079871938,-0.079871938,0.99359995,0
-5.9174666,1.1009238,-3.7658401,-0.83344603,0.1550597,-0.53040004,0
-1.467541,4.967062,-4.8563995,-0.20669591,0.69958621,-0.68399996,0
-2.3190684,-4.8958106,4.5894399,-0.32662937,-0.68955082,0.64639997,0
3.7274387,4.7214227,3.7715204,0.52499139,0.66498911,0.53120005,0
2.5364239,5.8188543,-3.1807997,0.35724282,0.81955695,-0.44799995,0
-1.6695722,2.2260957,6.5320001,-0.23515102,0.31353462,0.92000002,0
-4.7929034,5.2096782,0.54528028,-0.67505682,0.7337575,0.076800041,0
2.3062763,5.7656898,-3.4420793,0.32482764,0.812069,-0.48479992,0
-1.6148388,-3.156276,-6.1514401,-0.22744209,-0.44454592,-0.8664,0
3.4903123,-5.9335318,-1.7380798,0.4915933,-0.83570874,-0.24479997,0
-3.4701407,6.1691389,-0.55663985,-0.48875222,0.86889279,-0.078399979,0
6.6782889,1.7808766,1.6244798,0.94060409,0.2508277,0.22879997,0
-6.6057644,-2.6022708,-0.045439303,-0.93038934,-0.36651704,-0.006399902,0
-4.4741778,2.1054952,5.0949602,-0.63016587,0.29654863,0.71760005,0
-6.8138695,0.22712876,1.9823196,-0.95969993,0.031989966,0.27919996,0
2.4152689,3.164835,-5.8788004,0.34017873,0.4457514,-0.82800007,0
-2.0033579,6.8114166,-0.034078918,-0.28216308,0.95935446,-0.004799848,0
-1.4629613,6.5020499,-2.4480789,-0.20605089,0.91578168,-0.34479985,0
-1.3921677,6.9608393,-0.13632089,-0.19607995,0.98039991,-0.019200126,0
-2.7401507,-2.2958019,-6.1344004,-0.38593671,-0.32335237,-0.86400008,0
-4.0896001,5.4527998,-1.9879999,-0.57600003,0.76800001,-0.28,0
-3.7794328,-3.4459534,-4.9245601,-0.53231448,-0.48534554,-0.6936,0
-6.9169598,-0.35471609,-1.5619993,-0.97421968,-0.049960013,-0.21999991,0
-5.1855946,3.2101295,3.6351998,-0.73036546,0.45213091,0.51199996,0
7.0175819,-0.75865734,-0.76680017,0.98839182,-0.10685315,-0.10800003,0
0.6921674,-6.690958,2.2719994,0.097488366,-0.94238847,0.3199999,0
1.7431028,5.7273388,3.8169596,0.24550743,0.80666745,0.53759998,0
2.9886086,5.1621413,-3.8510404,0.4209308,0.72706217,-0.54240006,0
-6.4262242,2.4315441,-1.7891999,-0.90510201,0.342471,-0.252,0
5.7762976,1.0045739,4.0043993,0.81356305,0.14148928,0.56399989,0
-1.3332883,-5.7331405,-3.9703202,-0.18778709,-0.80748457,-0.55920005,0
-1.2400627,-4.6502347,-5.2199192,-0.17465673,-0.65496266,-0.73519993,0
6.5862527,0.23522311,2.6412008,0.92764121,0.033130016,0.37200013,0
6.8693957,1.7664155,-0.31808066,0.96752053,0.24879092,-0.044800095,0
-7.0478888,0.78309917,-0.35216069,-0.9926604,0.11029566,-0.049600098,0
-4.2062693,5.678463,0.68728083,-0.59243232,0.79978353,0.096800119,0
-2.9237401,0.54820114,-6.4467993,-0.41179439,0.077211432,-0.90799993,0
5.9174666,-1.1009241,-3.7658405,0.83344603,-0.15505974,-0.5304001,0
2.235352,-1.117676,6.6456003,0.31483832,-0.15741916,0.93600005,0
3.3367183,4.3634014,4.4985595,0.46996033,0.61456358,0.63359994,0
-2.2958019,2.7401507,-6.1344004,-0.32335237,0.38593671,-0.86400008,0
1.3278332,-4.5146313,5.3164802,0.18701877,-0.63586354,0.74880004,0
6.6025033,2.1413524,-1.4938402,0.92993003,0.30159894,-0.21040003,0
2.9946582,5.8317032,-2.7264001,0.42178285,0.82136667,-0.38400003,0
-3.8094974,-0.81632096,5.9356003,-0.53654891,-0.11497478,0.83600003,0
5.7656903,-2.3062761,-3.4420788,0.81206906,-0.32482761,-0.48479983,0
4.1592569,1.8378111,-5.4528003,0.58581084,0.25884664,-0.76800007,0
5.0113249,-4.3647022,-2.4991994,0.70582044,-0.61474681,-0.35199991,0
-1.9259721,5.3927217,-4.1975207,-0.27126369,0.75953829,-0.59120011,0
-1.5347356,5.4994688,-4.2202406,-0.21615994,0.77457309,-0.59440011,0
1.5230455,-6.2444849,-3.0160801,0.21451347,-0.87950492,-0.42480004,0
-3.1529067,-6.1306515,-1.6983199,-0.44407135,-0.86347204,-0.2392,0
4.6015153,-1.5686984,-5.17448,0.64810073,-0.22094344,-0.7288,0
2.956048,-1.0281906,-6.3729587,0.41634479,-0.14481558,-0.89759982,0
4.2630072,-0.54421365,-5.6516013,0.60042357,-0.076649815,-0.79600018,0
-2.173912,-1.8801401,-6.49224,-0.3061848,-0.26480848,-0.91439998,0
7.0408611,0,0.91448063,0.99167061,0,0.12880009,0
-5.5666838,3.8798103,-2.0902398,-0.78403997,0.54645216,-0.29439998,0
-3.3924387,5.3309765,3.2375994,-0.47780827,0.7508418,0.45599991,0
0.65265584,6.961669,1.2325604,0.091923356,0.98051679,0.17360006,0
-2.1216152,-4.2432299,5.2823997,-0.29881904,-0.59763801,0.74399996,0
1.9356217,-2.488657,6.3615999,0.27262279,-0.35051507,0.89600003,0
-4.5362649,0.53367776,5.43576,-0.63891053,0.075165883,0.76560003,0
-2.9554453,-6.1382327,1.9993607,-0.41625991,-0.8645398,0.28160009,0
-1.4125971,-0.28251907,6.9523196,-0.19895734,-0.03979142,0.97919995,0
-3.889154,5.8337302,1.1189604,-0.54776818,0.82165217,0.15760006,0
-5.5666842,-3.8798101,-2.090239,-0.78404003,-0.54645211,-0.29439986,0
2.5645053,-6.3257813,-1.9539198,0.36119795,-0.89095515,-0.27519998,0
2.0561523,-6.7292252,-0.94856077,0.28959891,-0.94777822,-0.13360012,0
-3.6302397,-2.1250186,-5.7197599,-0.5113014,-0.29929841,-0.80559999,0
-1.8371791,4.6469827,-5.0438399,-0.25875762,0.6545046,-0.71039999,0
-6.4287562,3.0134792,0.0056806663,-0.90545863,0.42443371,0.00080009387,0
5.3772836,4.5169177,1.0451205,0.75736392,0.63618559,0.14720006,0
-0.63803369,-7.0183702,0.86336058,-0.089863904,-0.98850286,0.12160008,0
2.2260957,1.6695722,6.5320001,0.31353462,0.23515102,0.92000002,0
1.7808766,6.6782889,1.6244798,0.2508277,0.94060409,0.22879997,0
-0.28114539,-1.9680194,6.816,-0.039597943,-0.27718583,0.96000004,0
-2.9208398,6.1853089,-1.9028003,-0.41138589,0.87117028,-0.26800004,0
3.9025533,-4.8781905,3.3739197,0.54965538,-0.68706912,0.47519997,0
-3.8169596,0,5.9867201,-0.53759998,0,0.84320003,0
-6.4322782,0.45944798,-2.9706407,-0.90595466,0.064710982,-0.41840011,0
-4.5169182,-5.3772831,1.0451198,-0.63618565,-0.75736386,0.14719997,0
-2.6873667,-5.6190386,3.408,-0.37850237,-0.7914139,0.48000002,0
4.390368,5.0835848,2.3003993,0.61836165,0.71599782,0.32399988,0
1.9778301,3.2436414,-5.9980812,0.27856761,0.45685092,-0.84480017,0
3.3083942,0,6.2820797,0.46597102,0,0.88479996,0
3.2223177,2.9537914,5.5947995,0.45384756,0.41602695,0.78799993,0
-4.4510288,-4.3074474,-3.4704804,-0.6269055,-0.60668272,-0.48880008,0
-5.8474765,-3.8374066,-1.2211999,-0.82358825,-0.54047984,-0.17199999,0
0.66652262,-6.8874068,1.5904,0.093876429,-0.97005731,0.22400001,0
3.3530285,5.4867735,-3.0104012,0.47225755,0.77278501,-0.42400017,0
1.1598749,6.6278567,-2.2663188,0.16336267,0.93350095,-0.31919983,0
-7.0137396,-1.0314325,0.39191979,-0.98785067,-0.14527218,0.05519997,0
1.8478764,1.1439234,-6.7592006,0.26026428,0.16111597,-0.95200008,0
0,-6.5881729,2.6468799,0,-0.9279117,0.37279999,0
3.7492642,-2.4102416,5.5266399,0.52806538,-0.33947065,0.7784,0
-0.53367853,-4.5362649,5.43576,-0.075165994,-0.63891053,0.76560003,0
3.6056809,5.2883339,3.0728796,0.50784242,0.74483579,0.43279994,0
0.81558853,2.9486666,-6.4070415,0.11487163,0.41530517,-0.90240026,0
-1.9597237,-5.8791704,3.4647996,-0.27601743,-0.82805216,0.48799995,0
1.6564769,-6.8099623,-1.1359999,0.2333066,-0.9591496,-0.16,0
-2.2422698,0.28028342,6.7307997,-0.31581265,0.03947654,0.94799995,0
6.7554522,1.212517,-1.8175993,0.95147216,0.17077705,-0.25599989,0
-6.1841817,1.1779391,-3.2830405,-0.8710115,0.16590691,-0.46240008,0
7.0686226,0.58905131,-0.31240049,0.99558067,0.082964972,-0.044000071,0
5.9825664,-2.3930264,2.9820001,0.84261501,-0.33704597,0.42000002,0
2.1250174,3.6302381,-5.7197614,0.29929823,0.51130116,-0.80560023,0
4.8381963,-4.3699837,-2.8116,0.68143612,-0.61549073,-0.39600003,0
5.3834414,1.2235097,-4.4644799,0.75823122,0.17232531,-0.62879997,0
1.3921677,6.9608393,-0.13632089,0.19607995,0.98039991,-0.019200126,0
5.8396587,2.7661543,-2.94224,0.82248718,0.3895992,-0.41440001,0
-0.144812,6.2269225,-3.4080002,-0.020396058,0.87703133,-0.48000005,0
6.8122125,-0.17030516,-1.9936789,0.95946658,-0.023986643,-0.28079987,0
2.2427015,6.5038333,1.755119,0.31587347,0.91603285,0.24719986,0
6.401123,1.9695765,-2.3571994,0.90156662,0.27740514,-0.33199993,0
4.7012253,5.3144283,0.25559977,0.66214442,0.74851102,0.035999969,0
-7.0874362,-0.40499657,0.11928021,-0.99823046,-0.057041772,0.016800029,0
6.4675717,-0.15398966,-2.9252007,0.91092563,-0.021688685,-0.41200009,0
3.2773647,4.7899947,4.0896001,0.46160066,0.67464715,0.57600003,0
1.6465617,0.26882634,-6.9012003,0.23191011,0.037862863,-0.97200006,0
-0.0018604784,0.0024806377,-7.0999994,-0.00026203922,0.00034938561,-0.99999994,0
1.1439234,-1.8478764,-6.7592006,0.16111597,-0.26026428,-0.95200008,0
-4.6991496,-2.7712932,-4.5439992,-0.66185206,-0.39032298,-0.63999987,0
-1.1093315,2.77333,6.4411197,-0.15624388,0.39060986,0.90719998,0
-6.3848863,-2.9796131,0.8747198,-0.89927977,-0.41966382,0.12319998,0
3.0724969,-4.6087451,4.4417596,0.43274605,-0.64911902,0.62559992,0
3.7356093,-6.0184822,0.48279914,0.52614218,-0.84767354,0.067999877,0
4.6934924,3.982357,-3.5386384,0.66105527,0.56089538,-0.49839976,0
6.690958,0.6921674,2.2719994,0.94238847,0.097488366,0.3199999,0
5.3526583,2.9580479,-3.6067991,0.75389552,0.41662645,-0.5079999,0
0.37676877,-4.4270306,-5.5380001,0.053066023,-0.62352544,-0.78000003,0
6.4012361,0.60964185,-3.0104008,0.90158254,0.085865051,-0.42400011,0
-5.1564198,3.2053423,-3.6806407,-0.72625631,0.45145667,-0.51840013,0
2.5466454,-0.94115156,-6.5603986,0.35868245,-0.13255656,-0.92399979,0
3.0039361,-6.0078721,2.3004003,0.42308959,-0.84617919,0.32400003,0
-2.1945906,5.8522415,3.3682396,-0.30909726,0.8242594,0.47439995,0
0.18449056,7.0106478,-1.1075997,0.025984587,0.98741519,-0.15599996,0
4.4828663,-3.1501219,-4.5155997,0.63138962,-0.44367915,-0.63599998,0
6.3054342,-0.24251647,3.2546403,0.88808936,-0.03415725,0.45840004,0
-6.3117037,-0.90167201,-3.1240008,-0.88897234,-0.12699606,-0.44000012,0
3.0714042,-5.6820984,-2.9479198,0.43259215,-0.80029553,-0.4152,0
1.1303064,0.84772849,6.9579997,0.15919808,0.11939838,0.97999996,0
4.1529207,-0.61852002,-5.7254415,0.58491844,-0.087115496,-0.80640024,0
-0.58905184,7.0686226,-0.31240058,-0.082965046,0.99558067,-0.044000082,0
1.9278473,2.7540686,6.2536798,0.2715278,0.38789698,0.88079995,0
1.1234773,-5.4925575,-4.3565598,0.15823624,-0.77359962,-0.61359996,0
-3.0714042,5.6820984,-2.9479198,-0.43259215,0.80029553,-0.4152,0
-0.26900637,-4.3041058,5.6402402,-0.037888221,-0.60621208,0.79440004,0
-5.5039606,-3.3502369,2.9820004,-0.77520573,-0.47186434,0.42000005,0
0.81285518,-4.6739182,-5.2824001,0.11448665,-0.65829837,-0.74400002,0
3.1495838,-2.8796191,-5.6743207,0.44360337,-0.40558016,-0.79920012,0
-4.7516861,1.0559307,5.1687999,-0.6692515,0.14872263,0.72799993,0
-4.2074966,-2.8788133,-4.9415994,-0.59260517,-0.40546668,-0.69599992,0
-0.36784309,5.5176463,-4.4531193,-0.051808886,0.77713329,-0.62719989,0
5.0241513,-3.0144913,4.0100803,0.70762694,-0.42457625,0.56480008,0
-1.4166771,-1.3379729,-6.8273606,-0.19953199,-0.18844689,-0.96160012,0
1.1277339,-6.9543591,-0.88040018,0.15883577,-0.97948718,-0.12400003,0
-3.6120512,5.9598846,-1.357519,-0.50873959,0.83942038,-0.19119987,0
-0.27820379,-2.7820404,6.52632,-0.039183632,-0.39183667,0.9192,0
1.5962211,6.7396021,-1.5619996,0.22481987,0.94923973,-0.21999994,0
-0.80025542,6.5620933,-2.5900812,-0.11271203,0.9242385,-0.36480018,0
5.6715875,0.90229791,-4.1747999,0.79881513,0.12708421,-0.588,0
2.0415075,5.0437241,-4.5610409,0.28753626,0.71038365,-0.64240015,0
5.9692311,3.5373228,1.5052001,0.84073681,0.49821448,0.21200003,0
-1.9104993,6.5999055,-1.7891999,-0.26908442,0.92956418,-0.252,0
2.4382679,-3.251025,5.822,0.34341803,-0.45789084,0.81999999,0
1.9660314,-0.49150786,-6.8046412,0.27690583,-0.069226459,-0.95840013,0
-2.9886086,-5.1621423,-3.8510396,-0.4209308,-0.72706228,-0.54239994,0
2.7680902,-1.3840451,6.3899994,0.38987187,-0.19493593,0.89999992,0
-1.6148388,-3.156276,-6.1514401,-0.22744209,-0.44454592,-0.8664,0
-4.5976958,4.3557119,3.2091999,-0.6475628,0.61348057,0.45199999,0
-0.70402223,6.5708733,2.5957608,-0.099158064,0.92547512,0.36560011,0
2.7981598,6.2958589,-1.715361,0.39410701,0.88674068,-0.24160014,0
3.5373228,5.9692311,1.5052001,0.49821448,0.84073681,0.21200003,0
-3.8168921,-4.9913211,-3.3057599,-0.53759044,-0.70300299,-0.46559998,0
-4.4051137,-3.524091,-4.3111196,-0.62043858,-0.49635085,-0.60719997,0
4.4565382,3.3424034,-4.402,0.62768143,0.47076106,-0.62,0
6.9840169,-0.55136979,-1.1530398,0.98366439,-0.077657714,-0.16239998,0
0.75477701,5.7866297,4.0441594,0.10630662,0.8150183,0.56959993,0
-6.4374671,-0.71527421,2.9081604,-0.90668553,-0.10074285,0.40960008,0
-6.0548587,-3.3835974,-1.5165601,-0.85279703,-0.47656301,-0.21360001,0
-3.0468214,-0.27698347,6.4070396,-0.42912978,-0.039011758,0.90239996,0
3.935219,-5.9028292,-0.28400013,0.5542562,-0.83138442,-0.040000018,0
-1.7162157,2.1037483,-6.5604,-0.24172053,0.29630259,-0.92400002,0
1.6126,4.0314994,5.6175203,0.22712676,0.56781679,0.79120004,0
5.1609917,-1.5482976,4.6235204,0.72690022,-0.21807009,0.65120006,0
1.5494536,-5.9160948,-3.606801,0.2182329,-0.83325279,-0.50800014,0
5.9779081,-0.24907926,3.8226397,0.84195888,-0.035081588,0.53839999,0
-6.2125359,-0.2889553,-3.4250402,-0.87500507,-0.040697929,-0.48240003,0
-4.5225892,-0.1924507,-5.46984,-0.63698441,-0.027105734,-0.77039999,0
-4.8180432,4.996489,-1.4938384,-0.67859763,0.70373088,-0.21039978,0
-0.55361819,-3.044899,6.3899999,-0.077974394,-0.42885903,0.89999998,0
-6.152617,-1.6507024,-3.13536,-0.86656576,-0.2324933,-0.44159999,0
-2.7773979,-0.83321941,6.4808798,-0.39118281,-0.11735485,0.91279995,0
-4.9159899,-2.0698907,4.6859999,-0.69239295,-0.29153392,0.65999997,0
-7.0985799,0,0.14200023,-0.99980003,0,0.020000033,0
-1.126646,-1.4083081,6.8671198,-0.15868254,-0.19835326,0.96719998,0
-3.4903123,-5.9335318,-1.7380798,-0.4915933,-0.83570874,-0.24479997,0
-1.3887337,6.3264537,-2.9081612,-0.19559631,0.8910498,-0.40960017,0
5.7859654,3.7831318,1.6187999,0.81492472,0.53283548,0.22799999,0
-2.0033579,6.8114166,-0.034078918,-0.28216308,0.95935446,-0.004799848,0
2.9044077,5.9701715,-2.5162404,0.40907151,0.84086925,-0.35440007,0
-3.7172463,-5.903862,1.3177608,-0.52355582,-0.83152986,0.18560012,0
-3.7870221,1.6230097,5.7822399,-0.53338343,0.22859292,0.81440002,0
-0.003260883,-0.00095109083,-7.099999,-0.00045927931,-0.00013395646,-0.99999988,0
4.4711747,1.2916727,-5.3619194,0.62974292,0.18192573,-0.75519991,0
5.8185353,-3.2583795,2.4367201,0.81951207,-0.45892671,0.34320006,0
-6.5691843,1.3138366,-2.3515201,-0.92523724,0.1850474,-0.3312,0
-2.5401735,5.0803471,-4.2599988,-0.35777092,0.71554184,-0.59999985,0
2.5012252,-1.3895702,6.49792,0.35228524,-0.19571412,0.9152,0
-6.2469668,-1.8740901,-2.8059204,-0.8798545,-0.26395634,-0.39520004,0
3.8686156,-0.74079871,-5.9072013,0.54487544,-0.10433785,-0.8320002,0
-3.3708205,6.1798372,-0.92583948,-0.47476345,0.87039959,-0.13039993,0
1.9337372,-6.0429301,3.18648,0.27235734,-0.85111696,0.4488,0
3.9044166,-5.5121174,2.1867993,0.54991782,-0.77635455,0.30799991,0
3.8136449,0.54480594,5.9640002,0.5371331,0.076733232,0.84000003,0
-0.28371558,0.56743115,7.0716,-0.039959941,0.079919882,0.99599999,0
6.8933768,1.088428,-1.3063998,0.97089815,0.15329972,-0.18399997,0
3.0320458,-6.2424464,-1.4995201,0.42704871,-0.8792178,-0.21120001,0
-1.4195457,6.3879547,2.7548006,-0.199936,0.89971197,0.38800007,0
4.9608812,-4.9608808,1.0905597,0.69871569,-0.69871563,0.15359996,0
-3.4459543,3.7794333,-4.9245591,-0.48534569,0.53231454,-0.69359988,0
-2.8788133,-4.2074966,-4.9415994,-0.40546668,-0.59260517,-0.69599992,0
6.4601455,-2.8500645,-0.74407905,0.90987968,-0.40141755,-0.10479987,0
0,6.9076343,1.6415199,0,0.97290623,0.23119999,0
-5.5420852,1.7633905,4.0725598,-0.78057539,0.24836487,0.57359999,0
-2.8788133,-4.2074966,-4.9415994,-0.40546668,-0.59260517,-0.69599992,0
2.77333,1.1093323,6.4411197,0.39060986,0.15624399,0.90719998,0
3.4712653,2.9372249,5.4527998,0.48891062,0.41369364,0.76800001,0
1.3471305,4.0413923,-5.6799989,0.18973669,0.56921017,-0.79999983,0
-4.1945286,-4.4412661,3.61816,-0.59077871,-0.62553042,0.50959998,0
-2.9710259,2.0054424,-6.1287198,-0.41845435,0.28245667,-0.86320001,0
2.9192276,-3.7153795,5.2994399,0.41115883,-0.5232929,0.7464,0
1.5893854,-4.5032582,5.2540002,0.2238571,-0.63426173,0.74000001,0
-4.3074474,4.4510288,-3.4704804,-0.60668272,0.6269055,-0.48880008,0
-0.6024552,-5.4220953,-4.5439992,-0.084852844,-0.76367539,-0.63999987,0
4.7593794,-0.79322988,5.20856,0.67033511,-0.11172251,0.73359996,0
-1.0559306,4.0477338,-5.7367988,-0.14872262,0.57010335,-0.80799985,0
1.6415102,3.2830205,6.0776,0.23119862,0.46239725,0.85600001,0
-6.4543591,-0.30735061,-2.9422407,-0.90906465,-0.043288819,-0.4144001,0
2.4954722,1.6636487,6.4354401,0.35147497,0.23431672,0.90640002,0
-0.81114697,-4.0557351,5.7708797,-0.11424606,-0.57123029,0.81279999,0
1.5658574,6.7108183,1.7096796,0.2205433,0.94518566,0.24079995,0
-4.4510288,-4.3074474,-3.4704804,-0.6269055,-0.60668272,-0.48880008,0
1.6013974,4.2703938,5.4414396,0.22554892,0.60146391,0.76639992,0
3.4069343,5.9053535,1.9823207,0.4798499,0.83173996,0.27920011,0
-4.2332501,4.2332506,3.8169599,-0.59623241,0.59623247,0.53759998,0
-3.4004183,-2.2102718,-5.8276801,-0.47893217,-0.31130591,-0.82080001,0
3.3635719,4.1397815,4.6859994,0.47374251,0.58306783,0.65999991,0
-2.7937288,-6.0530787,2.4424002,-0.39348295,-0.85254627,0.34400004,0
-6.4418559,-2.7607956,-1.1359998,-0.90730369,-0.38884446,-0.15999997,0
5.0050049,5.0050049,0.55663949,0.70493025,0.70493025,0.078399926,0
-1.6233574,6.4934297,2.368561,-0.2286419,0.91456759,0.33360016,0
-0.27698347,3.0468214,6.4070396,-0.039011758,0.42912978,0.90239996,0
-2.7820404,-0.27820379,6.52632,-0.39183667,-0.039183632,0.9192,0
-3.444694,-5.7411566,-2.36288,-0.48516819,-0.8086136,-0.3328,0
2.3253334,4.7669339,-4.7200809,0.32751176,0.67139918,-0.66480011,0
-0.49777052,-5.9732432,3.8055997,-0.070108525,-0.84130186,0.53599995,0
-5.9028292,2.2135606,-3.2659998,-0.83138442,0.3117691,-0.45999998,0
0.64382279,-6.5991797,-2.53896,0.090679266,-0.92946196,-0.3576,0
-5.4697661,-2.4862573,3.7828801,-0.77038962,-0.35017708,0.53280002,0
6.1859422,-2.7493079,2.1413605,0.87125945,-0.38722646,0.30160007,0
1.8478774,5.543633,-4.0328007,0.26026443,0.78079337,-0.56800008,0
-5.8032479,3.5843587,-1.9709595,-0.81735885,0.50483924,-0.27759993,0
-6.796803,-0.67968029,1.9368795,-0.95729619,-0.095729619,0.27279994,0
-0.75865734,-7.0175819,-0.76680017,-0.10685315,-0.98839182,-0.10800003,0
4.7822104,-0.72772765,-5.1971989,0.67355078,-0.10249685,-0.73199987,0
-3.0933604,2.2208741,-5.9923983,-0.43568456,0.31279916,-0.84399974,0
2.5055108,-5.2747598,-4.0384803,0.35288885,-0.74292392,-0.56880003,0
2.3190675,-4.8958106,4.5894403,0.32662922,-0.68955082,0.64640003,0
5.9053535,3.4069343,1.9823207,0.83173996,0.4798499,0.27920011,0
-0.88984036,-4.5480728,-5.3789606,-0.12532963,-0.64057362,-0.75760007,0
-2.2135632,0.98380578,-6.6739988,-0.31176946,0.1385642,-0.93999982,0
3.3083942,0,6.2820797,0.46597102,0,0.88479996,0
4.6301856,5.1644382,-1.5165604,0.65213883,0.7273857,-0.21360007,0
-6.1410861,3.2898672,1.3688804,-0.86494172,0.46336159,0.19280006,0
-4.5380282,-4.6945119,-2.7888811,-0.6391589,-0.66119885,-0.39280015,0
4.3728766,2.0823219,-5.1915207,0.61589813,0.29328477,-0.7312001,0
3.9330661,3.1464536,5.0040803,0.55395299,0.4431625,0.70480007,0
-0.43175471,6.1884842,-3.4534402,-0.060810525,0.8716175,-0.48640004,0
-5.6508403,-2.4568872,3.5272803,-0.79589301,-0.34604046,0.49680007,0
-0.20273681,7.0957956,0.13631906,-0.028554481,0.99940783,0.019199867,0
-6.6278567,-1.1598748,-2.2663202,-0.93350095,-0.16336265,-0.31920004,0
-2.2353508,1.1176757,-6.6456003,-0.31483814,0.15741912,-0.93600005,0
-0.37753415,0.13655491,-7.0886402,-0.053173825,0.019233087,-0.99840003,0
-0.49137771,-6.1422181,3.5272799,-0.06920813,-0.86510116,0.49679998,0
-0.54109198,2.3611283,-6.6740012,-0.076210141,0.3325533,-0.94000018,0
5.3049431,2.2735467,4.1350408,0.7471751,0.32021785,0.58240014,0
3.1942108,4.7274323,-4.2259202,0.44988886,0.66583556,-0.59520006,0
-0.46214423,-6.7010884,2.3003993,-0.065090738,-0.94381529,0.32399991,0
-0.6846227,-4.0221577,-5.8106399,-0.096425734,-0.56650108,-0.81839997,0
-3.7492642,2.4102409,5.5266404,-0.52806538,0.33947057,0.77840006,0
3.8575935,-3.8575943,4.5440001,0.54332304,-0.54332316,0.64000005,0
0.5634371,-1.6903131,6.8727999,0.079357341,-0.23807228,0.96799999,0
6.5173388,-2.7330775,0.68159997,0.91793507,-0.38494051,0.096000001,0
-1.088428,6.8933768,-1.3063998,-0.15329972,0.97089815,-0.18399997,0
1.9695765,6.401123,-2.3571994,0.27740514,0.90156662,-0.33199993,0
-6.1410861,3.2898672,1.3688804,-0.86494172,0.46336159,0.19280006,0
-4.7669349,2.3253341,-4.7200794,-0.6713993,0.32751185,-0.66479993,0
-2.2408881,-0.56022221,6.7137599,-0.31561804,-0.078904539,0.94559997,0
-2.8050799,-3.5788949,-5.4528008,-0.3950817,-0.50406969,-0.76800013,0
-4.416626,1.8488202,-5.2426405,-0.62206,0.26039723,-0.7384001,0
-1.8627887,-4.257803,5.3676,-0.2623646,-0.59969056,0.75599998,0
-6.2528205,-1.0421367,-3.1978407,-0.88067895,-0.14677982,-0.45040011,0
0.37137836,-3.5652316,-6.1287193,0.052306812,-0.50214529,-0.86319989,0
-1.1241232,-1.6861854,6.8046398,-0.15832722,-0.23749089,0.95840001,0
2.9372249,3.4712653,5.4527998,0.41369364,0.48891062,0.76800001,0
-4.7214227,3.7274387,3.7715204,-0.66498911,0.52499139,0.53120005,0
-6.1054583,1.3083121,-3.3796005,-0.85992372,0.18426931,-0.47600007,0
2.4436417,5.9563756,-2.9933598,0.34417489,0.83892614,-0.42159998,0
4.0477338,1.0559306,-5.7367988,0.57010335,0.14872262,-0.80799985,0
-2.5554886,-4.8675971,-4.4928803,-0.35992798,-0.68557709,-0.63280004,0
-4.5225892,0.19245042,-5.46984,-0.63698441,0.027105693,-0.77039999,0
2.8788133,-4.2074966,-4.9415994,0.40546668,-0.59260517,-0.69599992,0
4.0896001,-5.4527998,-1.9879999,0.57600003,-0.76800001,-0.28,0
3.041692,-0.82955229,6.3615999,0.42840734,-0.11683835,0.89600003,0
4.0692911,-3.5905514,-4.5780792,0.57313961,-0.5057115,-0.64479989,0
-5.5132294,-3.7295372,-2.4707999,-0.77651119,-0.52528697,-0.34799999,0
1.2045755,6.2637911,3.1183202,0.16965853,0.88222408,0.43920004,0
-2.0054424,-2.9710259,-6.1287198,-0.28245667,-0.41845435,-0.86320001,0
5.8543139,3.9725704,0.59640098,0.82455128,0.55951697,0.08400014,0
-4.3900299,-3.0988448,4.6405602,-0.61831409,-0.43645701,0.65360004,0
0.84515649,6.0569549,-3.6068003,0.11903613,0.85309225,-0.50800008,0
-4.2810168,-1.3378181,5.5039201,-0.60296011,-0.18842509,0.77520001,0
-3.6509984,3.6509984,4.8734403,-0.51422513,0.51422513,0.68640006,0
0.9536311,6.5164795,-2.6525612,0.13431424,0.91781402,-0.37360018,0
3.2652841,6.167758,-1.3063991,0.45989916,0.8686983,-0.18399988,0
-4.6739182,-0.81285542,-5.2824006,-0.65829837,-0.11448668,-0.74400008,0
0.84858561,-7.0008273,0.82360053,0.1195191,-0.98603201,0.11600008,0
6.2469673,-1.8740904,-2.8059189,0.87985456,-0.2639564,-0.39519987,0
-3.5157454,2.1635354,5.7765603,-0.49517542,0.30472329,0.81360006,0
6.8523684,-1.7130921,-0.72136062,0.96512234,-0.24128059,-0.10160009,0
1.3557843,3.7961948,5.8447199,0.19095553,0.53467536,0.82319999,0
3.2223177,2.9537914,5.5947995,0.45384756,0.41602695,0.78799993,0
-6.1884842,-0.43175471,-3.4534402,-0.8716175,-0.060810525,-0.48640004,0
0.27417377,3.5642622,6.1343999,0.038616024,0.50200874,0.86400002,0
-2.7803004,-0.55606037,6.5092797,-0.39159161,-0.078318365,0.91679996,0
4.6991496,-2.7712932,-4.5439992,0.66185206,-0.39032298,-0.63999987,0
-0.95180243,6.4246674,2.8684006,-0.13405669,0.90488273,0.40400007,0
-1.9619856,1.1211354,6.7307997,-0.27633601,0.15790638,0.94799995,0
2.6166253,-5.6693544,-3.3795996,0.36853877,-0.79850066,-0.47599995,0
-2.7937288,-6.0530787,2.4424002,-0.39348295,-0.85254627,0.34400004,0
-5.3554153,-0.71405542,-4.6064792,-0.75428385,-0.10057119,-0.6487999,0
-2.5095704,-0.83652347,6.5888,-0.35346061,-0.11782021,0.92800003,0
-3.2263699,6.237649,1.0451192,-0.4544183,0.87854213,0.14719988,0
-6.3639779,-1.6499201,2.6809607,-0.89633495,-0.23238312,0.3776001,0
-1.0371871,-5.185936,4.7371202,-0.1460827,-0.73041356,0.66720003,0
2.4617338,2.7352612,6.0719199,0.34672308,0.38524806,0.85519999,0
5.2265868,1.9910809,-4.3736014,0.73613894,0.28043392,-0.61600018,0
-6.2528205,-1.0421367,-3.1978407,-0.88067895,-0.14677982,-0.45040011,0
-1.5482976,5.1609917,4.6235204,-0.21807009,0.72690022,0.65120006,0
6.5784969,-1.8147579,1.9595991,0.9265489,-0.25559971,0.27599987,0
-0.70402223,-6.5708737,2.5957599,-0.099158064,-0.92547518,0.36559999,0
-2.9208398,6.1853089,-1.9028003,-0.41138589,0.87117028,-0.26800004,0
6.3486037,-3.1743019,-0.17039967,0.89416957,-0.44708478,-0.023999954,0
-2.4261515,-6.671916,0.09656056,-0.34171149,-0.9397065,0.013600079,0
1.0743319,3.2946181,-6.1968784,0.15131435,0.46403074,-0.87279981,0
-6.3933287,-2.2833316,2.0788801,-0.90046883,-0.321596,0.29280001,0
-2.4028416,-6.5532036,1.3007194,-0.33842841,-0.92298645,0.18319991,0
3.1201456,-3.5227451,-5.3164797,0.43945712,-0.49616128,-0.74879998,0
-6.8357801,-1.8643038,0.45440057,-0.96278596,-0.26257801,0.064000078,0
6.154654,0.57252622,-3.4932003,0.8668527,0.0806375,-0.49200004,0
4.3302689,5.2419047,2.0447996,0.60989702,0.73829645,0.28799993,0
-0.52490109,4.986558,5.0268002,-0.073929735,0.70233214,0.708,0
-2.7330775,6.5173388,0.68159997,-0.38494051,0.91793507,0.096000001,0
-3.8589234,-5.0648375,3.1410398,-0.54351038,-0.71335739,0.44239998,0
3.8046169,-5.7069244,-1.83464,0.53586155,-0.80379218,-0.25839999,0
-6.6857123,2.2922442,-0.67591983,-0.94164962,0.3228513,-0.09519998,0
3.5652297,2.9710248,-5.373281,0.50214505,0.4184542,-0.75680017,0
1.2485666,-6.3989053,-2.8115997,0.17585446,-0.9012543,-0.39599997,0
5.7998867,0,4.0952792,0.81688547,0,0.57679987,0
6.826365,-1.321232,1.4370399,0.96145988,-0.18608901,0.20239998,0
1.9093161,-6.788681,0.82360053,0.26891777,-0.95615226,0.11600008,0
1.3057828,4.9619732,4.9075198,0.18391307,0.69886947,0.69119996,0
6.0943723,-2.5783887,2.57304,0.85836232,-0.36315334,0.3624,0
4.8157825,-5.2170978,-0.011359978,0.67827922,-0.73480248,-0.0015999969,0
2.2427015,-6.5038333,1.755119,0.31587347,-0.91603285,0.24719986,0
5.3698082,-4.6026931,-0.62479937,0.756311,-0.64826661,-0.08799991,0
-2.4248345,3.5025387,5.6799998,-0.341526,0.49331531,0.80000001,0
5.9779081,0.24907926,3.8226397,0.84195888,0.035081588,0.53839999,0
5.5981526,-0.7633844,4.2997594,0.78847224,-0.10751893,0.60559994,0
-2.6403742,0.16165541,-6.5888004,-0.37188369,0.022768369,-0.92800009,0
-1.9619856,1.1211354,6.7307997,-0.27633601,0.15790638,0.94799995,0
4.7929039,5.2096777,0.5452795,0.67505687,0.73375744,0.076799929,0
-6.1955233,-1.9063152,2.8968,-0.8726089,-0.26849511,0.40800002,0
2.4470224,1.7129157,-6.4411178,0.34465104,0.24125573,-0.90719968,0
-4.9838495,2.3095889,-4.49856,-0.70195067,0.32529423,-0.6336,0
1.3921677,6.9608393,-0.13632089,0.19607995,0.98039991,-0.019200126,0
3.5650268,0,6.14008,0.50211644,0,0.86480004,0
6.8420639,0.87718791,-1.6812794,0.96367097,0.12354759,-0.23679993,0
5.9337049,-3.8145251,0.80656075,0.83573312,-0.53725708,0.11360011,0
2.173912,1.8801401,-6.49224,0.3061848,0.26480848,-0.91439998,0
-5.8651328,3.0498691,2.59008,-0.82607508,0.42955902,0.36480001,0
6.4246674,0.95180315,2.8684003,0.90488273,0.13405678,0.40400004,0
1.6747816,-1.9539115,6.6171999,0.23588473,-0.27519882,0.93199998,0
-2.0238645,-0.79194701,-6.7592006,-0.28505135,-0.11154183,-0.95200008,0
-0.65934515,5.8022361,-4.0384798,-0.092865512,0.81721634,-0.56879997,0
1.467541,-4.967062,-4.8563995,0.20669591,-0.69958621,-0.68399996,0
-5.5911942,3.5144656,-2.6071205,-0.78749216,0.49499515,-0.36720008,0
4.7669339,-2.3253334,-4.7200809,0.67139918,-0.32751176,-0.66480011,0
4.4829135,-5.5017562,0.21015987,0.63139629,-0.77489525,0.029599981,0
-6.7536798,2.1850142,-0.15336032,-0.95122254,0.3077485,-0.021600045,0
6.5573869,-0.93676943,2.5560009,0.92357564,-0.13193935,0.36000013,0
-1.3840451,-2.7680893,6.3899999,-0.19493593,-0.38987175,0.89999998,0
-1.232547,6.9844322,0.32944098,-0.17359817,0.98372287,0.046400137,0
-5.7694488,4.1210346,0.37488022,-0.81259841,0.58042741,0.052800033,0
-0.85029429,0.28343114,7.0432,-0.11975976,0.039919879,0.99200004,0
6.0530787,2.7937288,2.4424002,0.85254627,0.39348295,0.34400004,0
3.0724969,-4.6087451,4.4417596,0.43274605,-0.64911902,0.62559992,0
2.1216145,4.2432303,5.2823997,0.29881895,0.59763807,0.74399996,0
-5.8396587,-2.7661543,-2.94224,-0.82248718,-0.3895992,-0.41440001,0
-5.0932846,0.22144693,-4.9416003,-0.71736401,0.03118971,-0.69600004,0
-2.4470201,1.7129139,-6.4411192,-0.34465072,0.24125548,-0.90719992,0
3.140866,-1.2563466,-6.2423196,0.44237551,-0.17695023,-0.87919998,0
1.2204729,5.8311501,-3.8624001,0.17189761,0.82128876,-0.54400003,0
5.5603695,1.5164642,4.146399,0.78315067,0.21358651,0.58399987,0
6.4246674,-0.95180243,2.8684006,0.90488273,-0.13405669,0.40400007,0
4.996489,4.8180432,-1.4938384,0.70373088,0.67859763,-0.21039978,0
3.6578474,0.30482078,-6.077601,0.51518977,0.042932503,-0.85600013,0
-3.3076918,-0.27564073,6.2764001,-0.46587208,-0.03882264,0.884,0
0.56022137,-2.2408881,6.7137599,0.07890442,-0.31561804,0.94559997,0
-2.968951,2.968951,5.7254395,-0.41816211,0.41816211,0.80639994,0
-6.1853089,-2.9208398,-1.9028003,-0.87117028,-0.41138589,-0.26800004,0
5.5840006,2.9133916,3.2773595,0.786479,0.41033685,0.46159995,0
3.9601376,-5.3578324,2.4537599,0.55776584,-0.75462431,0.34559998,0
5.8651328,3.0498691,2.59008,0.82607508,0.42955902,0.36480001,0
1.6564769,6.8099623,-1.1359999,0.2333066,0.9591496,-0.16,0
1.2637203,6.9504609,0.71000057,0.17798877,0.97893816,0.10000008,0
3.4859204,-1.3169032,-6.043519,0.49097472,-0.18547933,-0.85119987,0
5.5959096,4.1518044,-1.3632005,0.78815627,0.5847612,-0.19200008,0
3.0443952,-4.8202925,4.2315998,0.42878807,-0.67891443,0.59599996,0
6.6767502,0.92093146,2.2322392,0.94038737,0.12970866,0.3143999,0
-1.8176886,4.9337263,4.7712002,-0.25601247,0.69489104,0.67200005,0
0.40575132,-0.63116878,-7.0602403,0.057148073,-0.088897012,-0.99440002,0
3.5384161,4.5493927,4.1464,0.49836847,0.64075953,0.58399999,0
-6.411397,-2.6529918,1.5051992,-0.90301365,-0.37366083,0.21199989,0
2.4315441,6.4262242,-1.7891999,0.342471,0.90510201,-0.252,0
5.1855936,-3.2101297,3.6352005,0.73036534,-0.45213094,0.51200008,0
0,-3.047462,6.4127197,0,-0.42921999,0.90319997,0
3.2583795,-5.8185353,2.4367201,0.45892671,-0.81951207,0.34320006,0
0.97959882,6.1224895,3.4591198,0.13797167,0.86232245,0.48719999,0
2.1099038,-6.0282974,-3.10128,0.29716957,-0.84905601,-0.4368,0
-6.5020494,1.4629607,-2.4480801,-0.91578162,0.20605081,-0.34480003,0
6.9092712,1.6257106,0.17040116,0.97313678,0.22897333,0.024000162,0
-6.1382327,2.9554453,1.9993607,-0.8645398,0.41625991,0.28160009,0
2.9141662,-6.4527974,0.52824014,0.41044596,-0.90884471,0.074400023,0
-3.4139113,-6.225368,1.6927717e-07,-0.48083258,-0.8768124,2.3841855e-08,0
-1.6065464,-6.4261861,-2.5560002,-0.22627415,-0.90509665,-0.36000004,0
-5.746675,1.4991328,3.8908002,-0.80939084,0.21114546,0.54800004,0
-5.204566,-0.26022807,4.82232,-0.73303747,-0.036651842,0.67919999,0
-0.40143579,5.8877249,-3.9475999,-0.056540255,0.82925701,-0.55599999,0
-2.8449938,-6.5028434,0.17040049,-0.40070337,-0.91589344,0.024000069,0
-3.0329285,6.0658569,-2.1016006,-0.42717302,0.85434604,-0.29600009,0
-6.6483059,-0.32430777,-2.4707999,-0.9363811,-0.045677152,-0.34799999,0
3.6743054,3.4118555,5.0268002,0.51750779,0.48054302,0.708,0
4.4890833,5.1797118,-1.85168,0.63226521,0.72953683,-0.2608,0
-3.4168632,4.9202833,-3.8112805,-0.48124835,0.69299763,-0.53680009,0
-2.2427008,-6.5038333,1.7551193,-0.31587335,-0.91603285,0.24719991,0
5.1288857,-4.762537,-1.1927987,0.72237831,-0.67077988,-0.16799982,0
-4.9725242,1.0468478,4.9586401,-0.70035553,0.14744335,0.69840002,0
-1.0999273,4.9496732,-4.9699993,-0.15491934,0.69713706,-0.69999993,0
4.9608808,4.9608808,1.090559,0.69871563,0.69871563,0.15359987,0
-6.3979697,2.6658201,-1.5392802,-0.90112251,0.37546763,-0.21680003,0
-1.5686984,4.6015153,-5.17448,-0.22094344,0.64810073,-0.7288,0
5.6189642,3.511852,2.5503201,0.79140341,0.49462706,0.35920003,0
-1.5953621,-6.6093583,2.0447993,-0.22469889,-0.93089557,0.2879999,0
-5.6901584,-2.8450792,-3.1523998,-0.8014307,-0.40071535,-0.44399995,0
-1.0132557,4.2372508,-5.6061592,-0.14271207,0.59679586,-0.78959984,0
-1.1647186,6.9883113,-0.46576059,-0.16404487,0.9842692,-0.065600082,0
2.9796131,-6.3848863,0.8747198,0.41966382,-0.89927977,0.12319998,0
4.2432303,-2.1216152,5.2823992,0.59763807,-0.29881904,0.7439999,0
3.4333613,-3.4333613,5.18016,0.48357201,-0.48357201,0.72960001,0
7.0008273,-0.84858501,0.82360065,0.98603201,-0.11951902,0.11600009,0
2.2092924,-1.4548997,-6.5888004,0.31116796,-0.20491545,-0.92800009,0
-0.5582608,2.5121715,6.6172004,-0.078628279,0.35382697,0.93200004,0
6.4287562,-3.0134797,0.0056801583,0.90545863,-0.42443377,0.00080002227,0
0.84429634,1.6885945,6.8443999,0.11891498,0.23783021,0.96399999,0
0.56708992,-0.56709075,7.0545597,0.079871818,-0.079871938,0.99359995,0
6.0862861,3.1558518,1.8460008,0.85722339,0.44448617,0.26000011,0
-4.3998852,4.3998852,3.4193597,-0.61970216,0.61970216,0.48159996,0
0.55652434,-2.6713161,-6.5547194,0.078383714,-0.37624171,-0.92319995,0
1.1522708,-2.7290626,-6.4524794,0.16229166,-0.38437501,-0.90879995,0
-5.3309755,-3.3924389,3.2376003,-0.75084162,-0.4778083,0.45600006,0
4.0197783,-1.8758967,5.5436802,0.56616598,-0.26421079,0.78080004,0
5.9732432,-0.49777052,3.8055997,0.84130186,-0.070108525,0.53599995,0
-4.1915283,4.9677377,-2.8570392,-0.59035611,0.6996814,-0.4023999,0
-3.5373223,-5.9692311,1.5052006,-0.49821442,-0.84073681,0.21200009,0
-1.816739,-6.863236,0.073839821,-0.25587872,-0.96665299,0.010399975,0
-6.7818341,-0.50863761,-2.0391202,-0.95518792,-0.071639098,-0.28720003,0
-6.0530787,2.7937288,2.4424002,-0.85254627,0.39348295,0.34400004,0
-4.9608808,-4.9608808,1.0905606,-0.69871563,-0.69871563,0.15360008,0
-2.8050799,3.5788949,-5.4528008,-0.3950817,0.50406969,-0.76800013,0
6.7967792,-1.5347564,1.3631999,0.95729285,-0.21616288,0.192,0
-1.3729631,-6.6359882,2.1186392,-0.19337508,-0.93464625,0.2983999,0
-4.2591481,-5.6788635,0.14199977,-0.59988004,-0.79983997,0.019999968,0
-2.2871437,-4.262404,-5.1971998,-0.32213292,-0.60033858,-0.73199999,0
0.4158439,7.0693526,0.51120102,0.058569565,0.99568349,0.072000146,0
1.0559307,4.7516861,5.1687999,0.14872263,0.6692515,0.72799993,0
-2.9990346,4.954927,-4.1066394,-0.42239925,0.69787705,-0.5783999,0
-1.8337076,4.7152486,4.98136,-0.25826868,0.66411954,0.70160002,0
1.6885945,0.84429634,6.8443999,0.23783021,0.11891498,0.96399999,0
3.4962189,6.1697979,0.34647927,0.4924252,0.86898565,0.048799898,0
-6.6114078,2.4556656,-0.81791967,-0.93118423,0.34586841,-0.11519995,0
-1.6012665,4.144455,-5.5379996,-0.22553049,0.58372605,-0.77999997,0
-2.2353528,1.1176767,6.6455998,-0.31483841,0.15741926,0.93599999,0
5.1409492,4.177021,-2.5559995,0.72407734,0.5883128,-0.35999992,0
0.49137697,-6.1422181,3.5272801,0.069208026,-0.86510116,0.49680001,0
6.5183487,2.2902305,-1.6358401,0.91807729,0.32256767,-0.23040001,0
2.3253334,4.7669339,-4.7200809,0.32751176,0.67139918,-0.66480011,0
-3.8094974,0.81632018,5.9356003,-0.53654891,0.11497468,0.83600003,0
-3.9099283,3.3886042,4.8620801,-0.55069411,0.47726819,0.68480003,0
-4.9900603,0.26263449,5.0438399,-0.70282543,0.036990773,0.71039999,0
4.0520663,4.0520663,4.1918392,0.57071358,0.57071358,0.59039992,0
5.6228266,1.4383976,-4.0896006,0.79194742,0.20259123,-0.57600009,0
4.9608812,-4.9608808,1.0905597,0.69871569,-0.69871563,0.15359996,0
-3.2447617,4.991941,3.8680804,-0.45700869,0.70309031,0.54480004,0
-4.3860784,-1.5949376,-5.3505597,-0.6177575,-0.2246391,-0.75359994,0
-1.6465617,0.26882634,-6.9012003,-0.23191011,0.037862863,-0.97200006,0
5.4101367,-3.7635732,2.6411996,0.76199108,-0.53008074,0.37199995,0
-4.1492314,5.3017955,2.2549593,-0.58439881,0.74673176,0.31759992,0
0,4.7692523,5.2596798,0,0.67172569,0.74079996,0
-5.7108159,-3.0933583,2.8683999,-0.8043403,-0.43568426,0.40399998,0
-4.2055326,5.1400962,2.5105591,-0.59232855,0.72395724,0.35359988,0
-2.6479278,-2.6479278,-6.0321603,-0.37294757,-0.37294757,-0.84960008,0
0,7.0951905,-0.2612806,0,0.99932259,-0.036800083,0
-0.84772933,-1.1303055,6.9579997,-0.1193985,-0.15919797,0.97999996,0
-6.0862861,-3.1558518,1.8460008,-0.85722339,-0.44448617,0.26000011,0
3.7040305,6.0434184,-0.40896001,0.52169442,0.85118568,-0.057600003,0
4.6838479,4.6838479,2.5560005,0.65969688,0.65969688,0.36000007,0
5.2265873,-1.9910808,-4.3736005,0.73613906,-0.28043392,-0.61600006,0
-5.9028292,2.2135606,-3.2659998,-0.83138442,0.3117691,-0.45999998,0
-2.7493079,-6.1859422,2.1413605,-0.38722646,-0.87125945,0.30160007,0
2.6022708,-6.6057644,-0.045439303,0.36651704,-0.93038934,-0.006399902,0
2.7773986,-0.83321941,6.4808798,0.3911829,-0.11735485,0.91279995,0
3.8559763,2.5706508,-5.3789592,0.54309529,0.3620635,-0.75759989,0
-5.2423658,-3.8126297,2.8968,-0.73836142,-0.53699011,0.40800002,0
-4.8724837,4.7044663,-2.1299999,-0.68626535,0.66260087,-0.29999998,0
5.5981526,-0.7633844,4.2997594,0.78847224,-0.10751893,0.60559994,0
5.2496476,4.593441,1.3234402,0.73938704,0.6469636,0.18640004,0
6.2317104,0,-3.4023204,0.87770569,0,-0.47920007,0
-4.5004063,-4.7372694,2.7775202,-0.63386005,-0.66722107,0.39120004,0
4.7892208,-3.8032048,-3.6067984,0.67453814,-0.53566265,-0.50799978,0
-7.0561514,-0.62260157,0.48279986,-0.99382412,-0.087690361,0.067999981,0
6.3045697,-2.1015234,-2.4991992,0.88796759,-0.29598922,-0.35199988,0
-2.2223976,-5.67946,3.6352003,-0.31301373,-0.79992396,0.51200002,0
2.7616725,1.6570032,6.3275194,0.38896796,0.23338073,0.89119995,0
-2.9486699,-0.81558949,-6.4070396,-0.41530561,-0.11487176,-0.90239996,0
-0.26022807,5.204566,4.82232,-0.036651842,0.73303747,0.67919999,0
0.47752509,6.4465942,2.9365606,0.067257054,0.90797102,0.41360009,0
1.7431028,5.7273388,3.8169596,0.24550743,0.80666745,0.53759998,0
-4.0974016,-2.0487008,-5.4244008,-0.57709885,-0.28854942,-0.76400012,0
-4.0896001,4.3622398,-3.82832,-0.57600003,0.61439997,-0.53920001,0
0.80557859,4.2964239,5.5947995,0.11346178,0.60513014,0.78799993,0
-4.6583757,2.5879869,4.6916795,-0.65610927,0.3645052,0.66079992,0
3.5905504,-4.0692906,-4.5780807,0.50571132,-0.57313955,-0.64480013,0
-1.6677164,-6.8793287,0.55096048,-0.23488964,-0.96891958,0.077600069,0
-2.9951329,2.4505622,5.9526401,-0.42184973,0.34514961,0.83840001,0
-5.6633902,-3.6645465,-2.2152002,-0.79766059,-0.51613331,-0.31200004,0
4.7822104,0.72772765,-5.1971989,0.67355078,0.10249685,-0.73199987,0
4.2703938,1.6013974,5.4414396,0.60146391,0.22554892,0.76639992,0
4.5802073,-4.1508131,-3.4932003,0.64509964,-0.58462155,-0.49200004,0
6.4012361,-0.60964137,-3.0104008,0.90158254,-0.085864983,-0.42400011,0
-7.0646276,-0.1909357,-0.68160015,-0.99501801,-0.026892353,-0.096000023,0
4.1628542,-5.7487044,-0.18176019,0.58631754,-0.80967677,-0.025600029,0
-5.1609917,-1.5482976,4.6235204,-0.72690022,-0.21807009,0.65120006,0
1.3471305,-4.0413909,5.6799998,0.18973669,-0.56920999,0.80000001,0
3.2374208,-2.6978502,5.7140799,0.45597476,-0.37997892,0.80479997,0
1.0017434,6.6782889,-2.1924789,0.14109063,0.94060409,-0.30879986,0
-0.25210476,-5.7984147,4.0896001,-0.035507713,-0.81667817,0.57600003,0
-3.4118555,-3.6743054,5.0268002,-0.48054302,-0.51750779,0.708,0
6.1054578,-1.3083124,-3.3796008,0.85992366,-0.18426935,-0.4760001,0
-6.0530787,-2.7937288,2.4424002,-0.85254627,-0.39348295,0.34400004,0
-5.7196217,3.9597383,1.4200001,-0.8055805,0.55770963,0.20000002,0
6.6198201,-2.5311077,-0.4259989,0.93236905,-0.35649404,-0.059999846,0
2.0898614,-4.6196938,-4.9700007,0.29434669,-0.65066111,-0.70000011,0
0.53765279,4.3012271,5.6231995,0.075725749,0.60580665,0.79199994,0
-5.8044147,1.6584042,-3.7374408,-0.81752324,0.23357807,-0.52640015,0
-5.1729803,4.741899,1.079199,-0.72858876,0.66787308,0.15199986,0
-3.2436433,1.9778312,-5.9980798,-0.45685118,0.27856779,-0.8448,0
0.27417377,-3.5642622,6.1343999,0.038616024,-0.50200874,0.86400002,0
-5.9825664,-2.3930264,2.9820001,-0.84261501,-0.33704597,0.42000002,0
3.729538,5.5132289,-2.4707994,0.52528703,0.77651113,-0.34799993,0
-4.4339485,-5.3207383,-1.5620004,-0.6244998,-0.74939978,-0.22000006,0
0.43108183,-3.4486544,-6.1911993,0.060715754,-0.48572597,-0.87199992,0
-1.3332883,5.7331405,-3.9703202,-0.18778709,0.80748457,-0.55920005,0
-1.7438526,-6.3412814,-2.6752803,-0.24561305,-0.89313823,-0.37680006,0
-2.7692478,0,-6.5376806,-0.39003491,0,-0.92080009,0
3.3020689,0.8255164,6.2309599,0.46508014,0.11626992,0.87760001,0
4.7681561,-0.26489732,5.2539997,0.67157125,-0.037309483,0.73999995,0
-5.4641566,4.2303152,-1.6301603,-0.76959956,0.59581906,-0.22960006,0
4.1415329,3.431556,-4.6348815,0.58331448,0.48331776,-0.6528002,0
0.2838861,-0.2838861,7.0886397,0.039983958,-0.039983958,0.99839997,0
-3.2907941,1.3711646,6.14008,-0.46349213,0.19312178,0.86480004,0
6.4262242,2.4315441,-1.7891999,0.90510201,0.342471,-0.252,0
-0.32430774,6.6483054,-2.4708011,-0.045677148,0.93638104,-0.34800017,0
-4.4347668,5.3217206,1.55632,-0.62461507,0.74953812,0.2192,0
3.4712653,-2.9372249,5.4527998,0.48891062,-0.41369364,0.76800001,0
-4.4412661,4.1945295,3.6181595,-0.62553042,0.59077883,0.50959992,0
3.7969,-4.3031535,4.1804805,0.53477466,-0.60607797,0.58880007,0
4.3302689,-5.2419043,2.0448003,0.60989702,-0.73829639,0.28800005,0
6.3639779,1.6499201,2.6809607,0.89633495,0.23238312,0.3776001,0
-3.7961948,1.3557843,5.8447199,-0.53467536,0.19095553,0.82319999,0
-5.9825664,-2.3930264,2.9820001,-0.84261501,-0.33704597,0.42000002,0
-4.4711747,1.2916727,-5.3619194,-0.62974292,0.18192573,-0.75519991,0
6.5784969,-1.8147579,1.9595991,0.9265489,-0.25559971,0.27599987,0
-2.8019042,6.0982623,-2.31744,-0.3946344,0.8589102,-0.32640001,0
1.1314474,-0.56572372,6.9863997,0.1593588,-0.0796794,0.98399997,0
-4.0896001,5.4527998,-1.9879999,-0.57600003,0.76800001,-0.28,0
-4.6739182,0.81285518,-5.2824001,-0.65829837,0.11448665,-0.74400002,0
2.2092924,-1.4548997,-6.5888004,0.31116796,-0.20491545,-0.92800009,0
-4.7288175,-2.9866216,-4.3736,-0.66603065,-0.42065093,-0.616,0
-2.6008198,6.5020494,1.1700795,-0.36631265,0.91578162,0.16479993,0
-2.425832,5.8219972,3.2603197,-0.34166649,0.81999964,0.45919997,0
-2.9341476,-6.4551244,-0.36351946,-0.41326022,-0.90917248,-0.051199924,0
-6.7941537,-1.8872647,-0.8292805,-0.95692307,-0.26581195,-0.11680007,0
-2.2746964,-5.181253,-4.2883997,-0.32037976,-0.72975397,-0.60399997,0
0.35471556,6.9169598,-1.5619993,0.049959939,0.97421968,-0.21999991,0
5.6805334,-1.7582603,-3.8794408,0.80007511,-0.24764229,-0.54640013,0
6.2794394,-0.96606743,3.1694403,0.88442808,-0.13606584,0.44640005,0
7.0478888,0.78309917,-0.35216069,0.9926604,0.11029566,-0.049600098,0
-2.5486944,4.6339898,-4.7371187,-0.35897103,0.65267462,-0.66719985,0
-2.1037483,1.7162157,-6.5604,-0.29630259,0.24172053,-0.92400002,0
-6.8420639,0.87718791,-1.6812794,-0.96367097,0.12354759,-0.23679993,0
-3.5051994,4.7570567,3.9362402,-0.49369007,0.670008,0.55440003,0
5.1242537,3.4161692,-3.5329609,0.72172588,0.4811506,-0.49760014,0
-0.23522311,6.5862527,2.6412008,-0.033130016,0.92764121,0.37200013,0
-0.41584453,7.0693526,0.51120096,-0.058569651,0.99568349,0.072000138,0
-0.60629845,-7.0734816,0.09088023,-0.085394152,-0.99626499,0.012800032,0
4.5260687,5.028966,-2.1527197,0.63747448,0.70830506,-0.30319998,0
6.0943723,2.5783887,2.57304,0.85836232,0.36315334,0.3624,0
-1.3477768,6.738884,1.7835195,-0.18982771,0.94913858,0.25119993,0
-0.003260883,-0.00095109083,-7.099999,-0.00045927931,-0.00013395646,-0.99999988,0
-5.9621716,-3.726357,-0.98831946,-0.83974248,-0.52483904,-0.13919993,0
6.8973069,1.2932451,1.0792003,0.9714517,0.18214719,0.15200004,0
6.6898727,2.3611319,-0.28399906,0.94223559,0.3325538,-0.039999869,0
