2.8806217,6.3013592,-1.3028414,0.40859881,0.8938098,-0.18480019,0
0.61821651,-7.0064602,0.47939998,0.087690286,-0.99382412,0.067999996,0
-6.684792,2.2282643,0.22560045,-0.94819742,0.31606585,0.032000065,0
5.5490265,1.0089138,-4.23,0.78709596,0.14310832,-0.59999996,0
6.3794231,0.94510031,2.8482006,0.90488267,0.13405678,0.40400007,0
-1.4913827,6.81775,0.99828035,-0.21154365,0.96705669,0.14160004,0
-5.3781919,3.9114125,-2.3405998,-0.76286411,0.55481029,-0.33199996,0
-3.6892152,-2.8986697,5.2621202,-0.5232929,-0.4111588,0.7464,0
3.741154,-2.3382213,-5.4989991,0.53066009,-0.3316626,-0.77999985,0
3.5277512,-1.0854617,6.0066004,0.50039023,-0.1539662,0.85200006,0
-6.934834,-0.5474869,-1.1449199,-0.98366433,-0.077657707,-0.16239996,0
6.5592451,2.583945,-0.045119312,0.93038934,0.36651701,-0.006399902,0
2.8890898,5.4892707,-3.3501596,0.40979996,0.77861995,-0.47519994,0
2.785326,3.5536916,-5.4144011,0.3950817,0.50406975,-0.76800013,0
-1.1399223,6.6115479,2.1657593,-0.1616911,0.93780822,0.3071999,0
-3.8574264,-3.6002641,4.6755605,-0.54715264,-0.51067573,0.66320002,0
5.4152079,-4.3321662,1.2690003,0.76811457,-0.61449164,0.18000004,0
-6.8487344,-1.2841378,1.0716003,-0.97145164,-0.1821472,0.15200004,0
0,6.426393,-2.8989608,0,0.9115451,-0.41120011,0
1.8248689,4.1299667,-5.4144006,0.25884664,0.58581084,-0.76800007,0
-2.9720998,3.0621631,-5.6117983,-0.42157441,0.43434936,-0.79599971,0
-3.026001,0,6.3675599,-0.42921999,0,0.90319997,0
3.9899967,4.2393713,3.9761994,0.56595695,0.60132927,0.56399989,0
0.67980087,3.9938312,-5.7697215,0.096425653,0.56650084,-0.8184002,0
1.1059009,2.4882751,6.5029202,0.15686537,0.35294682,0.9224,0
6.1038508,0.2441538,3.5193601,0.86579442,0.034631744,0.49919999,0
-1.178342,6.3630447,2.7974405,-0.16714071,0.90255952,0.39680007,0
-1.7509723,5.503057,4.0438795,-0.24836485,0.78057545,0.57359993,0
-5.4607406,1.5239276,-4.1905203,-0.77457309,0.21615994,-0.59440005,0
4.7562628,3.2542849,4.0608001,0.67464721,0.46160069,0.57599998,0
0.93783575,-6.9399829,-0.81216031,0.13302635,-0.98439473,-0.11520004,0
3.1859159,-5.9167013,2.1319206,0.45190296,-0.83924842,0.30240008,0
4.3233223,0.45992795,-5.5497618,0.6132372,0.065238006,-0.78720021,0
5.3514299,-4.2365484,1.7653198,0.75906813,-0.6009289,0.25039998,0
2.0153036,5.2901726,4.2018008,0.28585866,0.75037909,0.59600008,0
6.5229235,1.3045845,-2.3349588,0.92523736,0.18504745,-0.33119982,0
-0.55214447,2.7607217,6.4634399,-0.078318365,0.39159173,0.91679996,0
-6.3163061,-0.75194138,-3.0399609,-0.89592993,-0.10665835,-0.43120012,0
6.7642393,0.16910584,-1.9796389,0.95946652,0.023986643,-0.28079984,0
-6.6319542,-1.9716623,-1.3536004,-0.94070268,-0.27966839,-0.19200005,0
2.9946759,1.9057024,6.0911999,0.4247767,0.27031237,0.86399996,0
4.3321662,5.4152079,1.2690003,0.61449164,0.76811457,0.18000004,0
-2.3426716,4.4250469,4.9631996,-0.33229384,0.62766623,0.70399994,0
-4.8002992,4.080255,3.1640401,-0.68089348,0.57875955,0.4488,0
0,-2.496546,6.5931602,0,-0.35411999,0.93519998,0
6.6136255,0.16130777,-2.4364812,0.9381029,0.022880534,-0.34560016,0
3.6779461,6.0008593,-0.40608004,0.52169448,0.85118568,-0.057600003,0
-4.0024133,5.8035002,0.050759569,-0.56771821,0.82319146,0.0071999389,0
6.2672553,0.8953222,-3.102001,0.88897234,0.12699606,-0.44000012,0
-3.9919209,5.553977,-1.7089195,-0.56622988,0.78779817,-0.24239993,0
5.4981465,4.360599,-0.6768012,0.77987897,0.61852473,-0.096000172,0
-1.8348643,5.5045938,-4.0044007,-0.26026443,0.78079343,-0.56800008,0
-4.9456401,-0.78089058,4.9632001,-0.70150924,-0.11076462,0.704,0
3.0202718,0.82370961,6.3168001,0.42840734,0.11683824,0.89599997,0
5.9126143,0.9854362,3.7111197,0.8386687,0.13977818,0.52639991,0
-4.9879103,-4.6439157,-1.8048002,-0.70750499,-0.65871143,-0.25600001,0
5.4733,3.8769209,2.1713996,0.77635461,0.54991788,0.30799994,0
-1.0791132,-3.7768967,5.8543205,-0.15306571,-0.53573,0.83040005,0
2.9282846,-5.3685217,3.50808,0.41535953,-0.76149243,0.49759999,0
2.1895983,2.4632981,6.2322006,0.31058133,0.34940398,0.88400006,0
3.0106931,6.1984859,-1.4889613,0.42704865,0.8792178,-0.21120018,0
-2.2067471,-5.6394639,3.6096003,-0.31301376,-0.79992396,0.51200002,0
-3.5350251,5.420372,2.7974396,-0.50142199,0.76884705,0.39679992,0
0.76608491,5.3625989,4.5120006,0.10866452,0.7606523,0.64000005,0
3.8574257,-3.6002641,4.675561,0.54715258,-0.51067573,0.66320014,0
4.0920134,5.7288189,0.37224117,0.58042741,0.81259841,0.052800164,0
6.7545991,-1.0391692,-1.7314794,0.95809913,-0.14739989,-0.24559991,0
-3.01157,-6.02314,-2.0868008,-0.42717302,-0.85434604,-0.29600009,0
-2.5177579,0.20553136,-6.5818806,-0.35712877,0.029153384,-0.93360007,0
-0.48804653,1.9521861,-6.7567215,-0.069226459,0.27690583,-0.95840019,0
-6.4570489,2.8249588,0.16920049,-0.91589344,0.40070337,0.024000069,0
-2.9720986,-3.0621622,-5.6117997,-0.42157426,-0.43434924,-0.79599994,0
-1.565443,4.6963291,5.0195999,-0.22204866,0.66614598,0.71199995,0
-0.4786697,-3.2823069,-6.2209196,-0.067896411,-0.46557543,-0.88239992,0
-5.5446763,2.892875,3.2542803,-0.78647888,0.41033685,0.46160004,0
-2.5467582,4.8388405,4.4499602,-0.36124229,0.68636036,0.63120002,0
-1.9201201,6.0003743,3.1640399,-0.27235746,0.8511169,0.44879997,0
-2.2228189,-0.83355695,6.6382799,-0.31529343,-0.11823502,0.94159997,0
2.903147,0.5443399,-6.401401,0.41179389,0.077211328,-0.90800011,0
6.0309777,3.4723811,-1.1279993,0.85545778,0.49253631,-0.15999989,0
-2.7740548,-6.0104513,2.4252002,-0.39348292,-0.85254627,0.34400001,0
-5.6420836,3.0497749,-2.92716,-0.80029553,0.43259218,-0.4152,0
-2.858557,4.1579013,4.9237194,-0.40546906,0.58977324,0.6983999,0
5.453352,-4.4046307,0.7501201,0.77352512,-0.62477034,0.10640002,0
4.0271726,-0.8054347,5.7302403,0.57123017,-0.11424606,0.81280011,0
3.5277512,-1.0854617,6.0066004,0.50039023,-0.1539662,0.85200006,0
-6.7463078,1.8739747,-0.82344085,-0.95692307,0.26581201,-0.11680011,0
1.5239276,5.4607406,-4.1905203,0.21615994,0.77457309,-0.59440005,0
5.549027,1.0089144,4.2299995,0.78709602,0.14310841,0.5999999,0
-6.2515221,2.7784545,-1.703281,-0.88674068,0.39410701,-0.24160014,0
-2.0342734,-4.0685468,-5.3862009,-0.28854942,-0.57709885,-0.76400012,0
-5.3080254,-3.1561229,-3.4009202,-0.75291139,-0.44767699,-0.4824,0
4.7313113,-0.52570152,5.2000799,0.67110795,-0.074567586,0.73759997,0
-0.27830961,2.2264786,6.6834002,-0.03947654,0.31581256,0.94800001,0
3.3294158,-5.4481344,-2.9892013,0.47225755,-0.77278501,-0.42400017,0
6.4005928,2.7735901,1.0208397,0.90788549,0.39341703,0.14479995,0
6.7489147,1.5239483,1.3536,0.95729285,0.21616288,0.192,0
6.3561573,-0.60534817,-2.9892008,0.9015826,-0.085864983,-0.42400011,0
1.6299504,-3.2599008,6.0348001,0.23119864,-0.46239728,0.85600001,0
5.7602601,4.0321817,-0.51323992,0.81705815,0.57194066,-0.072799988,0
-4.9560776,0,5.0139604,-0.7029897,0,0.71120006,0
1.6743108,-1.116207,6.7567201,0.23749089,-0.15832724,0.95840001,0
-0.86201626,6.896131,1.1844003,-0.12227181,0.97817457,0.16800004,0
3.1831195,-3.1831195,5.4256802,0.45150632,-0.45150632,0.76959997,0
1.5211068,-6.5914645,-1.9852792,0.21575983,-0.93495947,-0.28159988,0
2.0096164,-0.78637171,-6.7115993,0.28505197,-0.11154208,-0.9519999,0
-4.7732201,5.1550775,-0.58655941,-0.6770525,0.73121667,-0.083199918,0
-0.3986088,-5.846262,-3.9198,-0.056540255,-0.82925701,-0.55599999,0
6.7463078,-1.8739742,-0.82344055,0.95692307,-0.26581195,-0.11680008,0
-4.6410031,-0.80713111,-5.2452006,-0.65829831,-0.11448668,-0.74400008,0
-3.3366687,5.8391709,-2.1150007,-0.47328633,0.82825118,-0.3000001,0
3.8013554,4.0547805,4.3371601,0.53919935,0.57514614,0.61519998,0
4.4396877,1.2825764,-5.3241596,0.62974292,0.18192573,-0.75519991,0
1.1441563,2.7098439,-6.4070396,0.16229168,0.38437501,-0.90879995,0
5.3201022,3.9322493,2.4364793,0.75462443,0.55776584,0.34559989,0
-2.0342734,4.0685468,-5.3862009,-0.28854942,0.57709885,-0.76400012,0
-4.9887705,-2.9932625,3.9818404,-0.707627,-0.42457622,0.56480002,0
-4.5110974,4.8333187,-2.4477606,-0.63987195,0.68557709,-0.34720007,0
1.5373942,5.1246467,4.5909605,0.21807009,0.72690022,0.65120006,0
6.8554196,-1.5234268,-0.62040073,0.97239995,-0.21608889,-0.088000104,0
1.7583778,6.007791,-3.2430015,0.24941528,0.85216892,-0.46000019,0
2.1807477,2.7259359,6.1250401,0.3093259,0.38665757,0.86879998,0
-0.28692043,6.168786,-3.4009204,-0.040697932,0.87500507,-0.48240003,0
5.4681191,2.6639557,-3.5644794,0.77561975,0.37786606,-0.50559992,0
-1.7539767,-6.8210201,-0.3158398,-0.24879101,-0.96752053,-0.044799969,0
-3.2219114,4.9567866,3.8408403,-0.45700869,0.70309031,0.54480004,0
2.323344,4.6466894,4.7658005,0.32955232,0.65910488,0.67600006,0
3.2281306,-2.4210978,5.7810001,0.45789084,-0.34341812,0.81999999,0
1.6142619,-6.8606148,0.16920002,0.22897331,-0.97313684,0.024000002,0
-4.2771134,4.4196839,-3.4460406,-0.60668272,0.6269055,-0.48880008,0
-2.1535201,-0.68729365,-6.6777601,-0.30546385,-0.097488455,-0.9472,0
-3.5504603,-3.661412,-4.8673191,-0.50361139,-0.51934922,-0.69039983,0
6.5112081,0.93017322,2.5380008,0.92357558,0.13193946,0.3600001,0
1.3119276,-6.7782927,1.4269199,0.18608901,-0.96145993,0.20239998,0
1.5837057,-4.3551898,-5.3128805,0.22463909,-0.61775738,-0.75360006,0
-1.3283969,4.2508698,5.4651594,-0.18842509,0.60296023,0.77519989,0
0.39075029,7.0335121,-0.28200054,0.055425573,0.99766129,-0.040000077,0
3.4631574,2.6639681,5.5328398,0.49122798,0.37786782,0.78479993,0
-1.178342,6.3630447,2.7974405,-0.16714071,0.90255952,0.39680007,0
-0.93017244,-6.5112085,2.5380001,-0.13193935,-0.92357564,0.36000001,0
-1.5147154,4.7605348,-4.9744797,-0.21485324,0.67525315,-0.70559996,0
0.27503288,-3.0253651,6.3619199,0.039011754,-0.42912978,0.90239996,0
-4.1335392,-5.708221,-0.1804809,-0.58631754,-0.80967665,-0.025600124,0
1.651933,2.4778986,6.3901205,0.23431672,0.35147497,0.90640002,0
3.9755404,-5.0458779,-2.9045992,0.56390643,-0.71572733,-0.41199988,0
2.8299932,6.4146519,-0.73883861,0.40141746,0.90987968,-0.1047998,0
-2.7522969,6.4875574,-0.19739915,-0.39039671,0.92022091,-0.02799988,0
5.5764751,-2.3700018,-3.6039588,0.79098934,-0.33617046,-0.51119983,0
-0.0018473766,0.0024631685,-7.0499997,-0.00026203922,0.00034938558,-0.99999994,0
5.1201072,3.1827695,-3.6547208,0.72625631,0.45145667,-0.51840007,0
0.13559327,-0.37487549,-7.0387206,0.019233087,-0.053173825,-0.99840003,0
-2.7466743,5.7985344,-2.92152,-0.38959917,0.82248712,-0.41439998,0
-4.3740926,3.499274,-4.2807589,-0.62043864,0.49635091,-0.60719985,0
3.2823057,0.54705042,6.2152801,0.46557528,0.0775958,0.88159996,0
-5.7274475,3.4364679,2.2560005,-0.81240386,0.48744226,0.32000005,0
-0.89594376,-5.6316471,-4.1454,-0.12708421,-0.79881519,-0.588,0
2.8806219,-6.3013592,-1.3028402,0.40859884,-0.8938098,-0.18480003,0
3.4723811,6.0309777,-1.1279993,0.49253631,0.85545778,-0.15999989,0
4.4250469,-2.3426716,4.9631996,0.62766623,-0.33229384,0.70399994,0
-2.2094696,-6.1549516,-2.6338792,-0.31339994,-0.87304276,-0.37359989,0
-4.1385231,2.6528997,-5.0534396,-0.58702451,0.37629783,-0.71679991,0
-2.8838165,6.211297,1.675081,-0.40905198,0.88103503,0.23760013,0
4.9613028,-4.7841134,-1.4833186,0.70373088,-0.67859763,-0.21039979,0
3.5025172,1.8859707,5.8204803,0.49681094,0.26751357,0.82560003,0
-2.1499722,-5.9721451,3.0681601,-0.30496058,-0.84711277,0.43520001,0
2.858557,4.1579013,4.9237194,0.40546906,0.58977324,0.6983999,0
-0.81485808,-5.2383738,-4.6473594,-0.1155827,-0.74303174,-0.65919989,0
5.141562,-4.4709229,1.8104398,0.72929955,-0.63417345,0.25679997,0
1.0955253,6.4166493,-2.7072012,0.15539365,0.91016299,-0.38400015,0
-1.2288862,-5.898653,3.6603599,-0.1743101,-0.83668834,0.51919997,0
-1.8358004,4.3855228,-5.2057204,-0.26039723,0.62206,-0.7384001,0
-2.9827816,-5.9655633,2.2842004,-0.42308959,-0.84617919,0.32400006,0
-4.8856335,-3.3928008,-3.7844408,-0.69299763,-0.48124832,-0.53680009,0
4.6941404,-3.1717165,-4.1961603,0.6658355,-0.44988886,-0.5952,0
1.1399223,6.6115479,2.1657593,0.1616911,0.93780822,0.3071999,0
-2.1601131,3.240169,5.8768802,-0.30639902,0.45959842,0.83359998,0
1.0241691,6.9643474,0.38916096,0.14527221,0.98785067,0.055200133,0
-1.9892496,-6.7634492,-0.033840071,-0.28216305,-0.95935446,-0.00480001,0
4.9259458,-4.9259448,1.0828798,0.69871569,-0.69871557,0.15359996,0
-5.6420836,-3.0497749,-2.92716,-0.80029553,-0.43259218,-0.4152,0
-6.7818227,1.6954554,0.91368043,-0.96196061,0.24049012,0.12960006,0
0.96866888,5.9503951,-3.6547203,0.13739984,0.84402764,-0.51840001,0
1.1059009,-2.4882758,6.5029202,0.15686537,-0.35294691,0.9224,0
-3.2507546,-1.8962733,5.9614801,-0.46109992,-0.26897493,0.84560001,0
-6.9689455,0.63353992,0.85728073,-0.98850286,0.089863814,0.1216001,0
-6.5628138,1.5841272,2.0303993,-0.93089557,0.22469889,0.2879999,0
-4.0920134,-5.7288189,0.37224025,-0.58042741,-0.81259841,0.052800033,0
-4.3591142,-3.0770221,4.6078801,-0.61831403,-0.43645701,0.65359998,0
0.79397827,-4.4992142,5.3692803,0.11262103,-0.6381864,0.76160002,0
-1.0667661,3.2714157,-6.1532393,-0.15131435,0.46403059,-0.87279987,0
5.1453223,-0.91472411,-4.7319598,0.72983295,-0.12974809,-0.67119998,0
-2.8839543,5.9281282,-2.4985204,-0.40907151,0.84086925,-0.35440004,0
-5.9144301,-2.4264328,-2.9722793,-0.83892626,-0.34417486,-0.42159989,0
3.4657333,5.8917465,-1.7258388,0.49159336,0.83570868,-0.24479982,0
-2.1773617,1.9959147,-6.4014001,-0.30884564,0.28310847,-0.90799999,0
-6.0874782,-3.1307032,-1.68636,-0.86347204,-0.44407135,-0.2392,0
2.829993,-6.4146519,-0.73883975,0.40141743,-0.90987968,-0.10479996,0
-3.6682682,-4.3007278,-4.2130809,-0.52032173,-0.61003232,-0.5976001,0
-0.77946353,-3.6634789,-5.9727602,-0.1105622,-0.51964235,-0.84719998,0
-2.815846,-5.8663459,2.7128401,-0.39941075,-0.83210576,0.38479999,0
-2.4711313,-1.9219908,6.3168001,-0.35051507,-0.27262279,0.89599997,0
1.8641711,6.2915788,2.5774808,0.26442143,0.8924225,0.36560011,0
-1.3057911,-5.2231636,-4.5514803,-0.1852186,-0.74087423,-0.64560002,0
4.3194079,-5.5535245,0.45120111,0.61268198,-0.78773397,0.06400016,0
3.7564902,-5.7452197,1.6074001,0.53283548,-0.81492478,0.228,0
-6.3163061,-0.75194138,-3.0399609,-0.89592993,-0.10665835,-0.43120012,0
1.5234262,6.8554196,-0.62040043,0.21608882,0.97239995,-0.088000059,0
1.11324,-1.9481689,6.6834002,0.15790638,-0.27633601,0.94800001,0
-3.7411525,2.3382204,-5.4990005,-0.53065991,0.33166245,-0.78000003,0
0.54434055,-2.9031506,-6.4013991,0.077211425,-0.41179439,-0.90799987,0
-5.1679144,-0.25839549,4.7883606,-0.73303747,-0.036651842,0.67920005,0
-4.8565869,4.8565874,1.5904794,-0.68887758,0.68887764,0.2255999,0
-0.2066887,7.027422,0.52452105,-0.029317545,0.99679744,0.074400149,0
-1.3382854,-6.6914272,1.7709596,-0.18982771,-0.94913858,0.25119993,0
1.5952334,6.3809319,-2.5379992,0.22627424,0.90509671,-0.35999987,0
1.2845715,5.1382842,4.6530004,0.18220872,0.72883463,0.66000003,0
-1.1132392,1.9481689,6.6834002,-0.15790626,0.27633601,0.94800001,0
-6.3561573,0.60534859,-2.9892011,-0.9015826,0.085865043,-0.42400014,0
6.4220257,0.15290523,-2.9046009,0.91092563,0.021688685,-0.41200012,0
6.1113114,-0.56849396,-3.4686005,0.86685264,-0.08063744,-0.49200007,0
0.76743323,-1.468133,-6.8526006,0.10885578,-0.2082458,-0.97200006,0
-4.8199897,-1.7934844,-4.8222003,-0.68368644,-0.25439495,-0.68400002,0
-5.5656486,0.50596756,4.2976804,-0.78945369,0.071768448,0.60960001,0
5.0740261,-4.6328063,1.5791993,0.71972001,-0.65713561,0.2239999,0
-3.2542849,4.7562628,4.0608001,-0.46160069,0.67464721,0.57599998,0
-0.28188691,-0.28188691,7.0387201,-0.039983958,-0.039983958,0.99839997,0
2.4778986,1.651933,6.3901205,0.35147497,0.23431672,0.90640002,0
5.0722198,3.6230137,3.293761,0.71946377,0.51390266,0.46720013,0
-3.5866144,-5.9179139,-1.3479592,-0.50873959,-0.83942038,-0.19119987,0
-1.991321,2.9501052,-6.0855584,-0.28245687,0.41845462,-0.86319977,0
-4.9156022,4.9156022,-1.1731188,-0.69724858,0.69724858,-0.16639984,0
6.7340751,0.89787716,1.8837595,0.95518792,0.12735845,0.26719993,0
-4.8856335,3.3928008,-3.7844408,-0.69299763,0.48124832,-0.53680009,0
-6.3809319,-1.5952328,-2.5380003,-0.90509671,-0.22627416,-0.36000004,0
3.4216862,-3.7528172,-4.8898802,0.48534554,-0.53231448,-0.6936,0
4.3721623,-0.95047003,-5.4482388,0.62016487,-0.13481843,-0.77279979,0
3.1340487,-1.6034667,-6.1081204,0.44454589,-0.22744209,-0.86640006,0
0.64805973,6.9126434,1.2238804,0.091923364,0.98051679,0.17360005,0
4.3958526,0.37411529,-5.499002,0.62352514,0.053065997,-0.78000027,0
-2.2933242,-4.9487524,-4.4668798,-0.3252942,-0.70195067,-0.63359994,0
-1.1722512,2.1002834,-6.6270008,-0.16627677,0.29791254,-0.94000012,0
5.3730521,-0.2558594,4.5571208,0.76213503,-0.036292113,0.64640009,0
6.5892563,-1.3632944,2.1037192,0.93464625,-0.19337508,0.2983999,0
3.2281306,2.421097,5.7810001,0.45789084,0.343418,0.81999999,0
3.6779461,-6.0008593,-0.40608004,0.52169448,-0.85118568,-0.057600003,0
5.9875288,3.3264046,1.669441,0.84929484,0.47183043,0.23680013,0
2.569762,-4.6255703,4.6586399,0.36450523,-0.65610927,0.66079998,0
-2.4918973,0.83063167,6.5424004,-0.35346061,0.11782009,0.92800003,0
1.2148935,5.34553,-4.4330401,0.17232531,0.75823116,-0.62879997,0
-2.0618811,-5.635808,-3.6998401,-0.29246539,-0.7994054,-0.5248,0
4.9567866,3.2219114,3.8408403,0.70309031,0.45700869,0.54480004,0
1.0955253,6.4166493,-2.7072012,0.15539365,0.91016299,-0.38400015,0
4.6125755,3.5582721,-3.9705606,0.654266,0.50471944,-0.56320006,0
6.1549516,-2.2094696,-2.6338792,0.87304276,-0.31339994,-0.37359989,0
-4.4851089,5.3394151,1.0377598,-0.63618565,0.7573638,0.14719996,0
-6.9791441,0.99702084,1.6808509e-07,-0.98994946,0.14142139,2.3841856e-08,0
-5.3177013,0.70902687,-4.5740395,-0.75428385,0.10057119,-0.6487999,0
-3.2823069,-0.4786697,-6.2209196,-0.46557543,-0.067896411,-0.88239992,0
3.0253651,-0.27503288,6.3619199,0.42912978,-0.039011754,0.90239996,0
-4.0957432,3.9677513,-4.1454,-0.58095646,0.5628016,-0.588,0
-0.97269952,6.0793734,3.4347601,-0.13797157,0.86232245,0.48719999,0
5.5365276,-1.2583019,4.1792393,0.78532302,-0.17848253,0.5927999,0
2.2586775,-5.1447654,-4.2582002,0.32037976,-0.72975391,-0.60400003,0
5.8612604,1.709534,3.5249999,0.83138442,0.24248709,0.49999997,0
-5.8954868,1.8693006,-3.3839998,-0.83623922,0.26514903,-0.47999996,0
-1.3615085,-3.2676198,6.0968399,-0.19312176,-0.46349216,0.86479998,0
6.3538418,-1.2397741,-2.7918015,0.90125412,-0.17585447,-0.39600021,0
0.13559327,-0.37487549,-7.0387206,0.019233087,-0.053173825,-0.99840003,0
-2.1499722,-5.9721451,3.0681601,-0.30496058,-0.84711277,0.43520001,0
0.21535611,-1.1724948,-6.9484806,0.030546965,-0.16631131,-0.98560005,0
-1.4738435,-6.816525,-1.0321203,-0.2090558,-0.96688294,-0.14640005,0
-6.9006963,1.4207314,0.25379992,-0.97882211,0.20152219,0.035999987,0
5.0291691,-3.8317482,3.1189206,0.71335727,-0.54351038,0.44240007,0
5.2376146,2.4878671,-4.0100389,0.74292403,0.35288894,-0.56879979,0
2.0416725,-6.6818361,-0.94188076,0.28959891,-0.94777817,-0.1336001,0
3.232306,6.2625923,0.18611945,0.4584831,0.88831097,0.026399922,0
-6.2601714,-2.086724,2.4816005,-0.88796753,-0.29598922,0.35200006,0
-2.2761016,6.6386299,-0.671161,-0.32285127,0.94164962,-0.095200136,0
1.2238672,6.9352465,0.32712099,0.17359817,0.98372287,0.046400137,0
-6.3921332,-0.71023709,2.8876808,-0.90668553,-0.10074285,0.40960011,0
2.6044841,-3.5346572,-5.5159192,0.36943036,-0.50136983,-0.78239989,0
6.9791441,-0.99702078,-1.0085107e-06,0.98994946,-0.14142138,-1.4305117e-07,0
-4.3740926,3.499274,-4.2807589,-0.62043864,0.49635091,-0.60719985,0
4.4709229,-5.1415615,1.8104405,0.63417345,-0.72929949,0.25680006,0
6.1937222,3.2036486,1.0377598,0.87854213,0.45441821,0.14719996,0
-2.4395852,-5.6110458,3.5024405,-0.34604046,-0.79589301,0.49680007,0
-0.77946293,3.6634762,-5.9727616,-0.11056212,0.519642,-0.84720021,0
6.2850966,2.3155618,-2.1995997,0.89150304,0.32844847,-0.31199995,0
1.7328674,1.2563291,-6.7172399,0.24579678,0.1782027,-0.95279998,0
-0.28143516,-0.84430635,6.9936004,-0.039919879,-0.11975976,0.99200004,0
2.9827816,-5.9655633,2.2842004,0.42308959,-0.84617919,0.32400006,0
-0.56849396,6.1113114,-3.4686005,-0.08063744,0.86685264,-0.49200007,0
5.7985344,-2.7466743,-2.92152,0.82248712,-0.38959917,-0.41439998,0
-1.048494,-4.0192266,-5.6964006,-0.14872254,-0.57010305,-0.80800009,0
-6.2966247,1.731572,-2.6564405,-0.89313823,0.24561305,-0.37680006,0
6.830883,-1.655972,0.54708052,0.96891958,-0.23488964,0.077600069,0
-4.8785968,5.0818715,0.27635974,-0.69199955,0.72083288,0.039199963,0
4.7235565,3.480515,3.9085205,0.670008,0.49369004,0.55440003,0
5.2842441,-4.4035363,1.5453601,0.74953812,-0.62461507,0.2192,0
-1.2474991,-3.1187475,-6.1983595,-0.17695022,-0.44237551,-0.87919992,0
-2.8928747,5.5446768,3.2542796,-0.41033682,0.78647894,0.46159995,0
0.9854362,-5.9126143,3.7111197,0.13977818,-0.8386687,0.52639991,0
6.7938809,-0.8710106,-1.6694394,0.96367103,-0.1235476,-0.23679991,0
1.1517068,6.581182,-2.2503588,0.16336267,0.93350095,-0.31919983,0
3.7603517,1.9697082,-5.6287217,0.53338319,0.27939123,-0.79840022,0
0.68729401,-2.1535215,-6.6777596,0.097488508,-0.30546403,-0.94719994,0
1.753976,6.8210201,-0.31584069,0.24879092,0.96752053,-0.044800095,0
-5.687005,-1.7308276,3.7900805,-0.80666739,-0.24550745,0.53760004,0
0.51392365,1.2442361,-6.920279,0.072896972,0.17648739,-0.98159981,0
1.0075572,-5.037787,-4.8278394,0.1429159,-0.7145797,-0.68479991,0
-3.6002641,-3.8574264,4.6755605,-0.51067573,-0.54715264,0.66320002,0
4.0608006,-2.4364808,-5.2226396,0.57600003,-0.3456001,-0.7407999,0
2.7485967,-1.3742983,6.3449998,0.38987187,-0.19493593,0.89999992,0
-5.0773406,-0.11037686,-4.8898807,-0.72019011,-0.015656292,-0.69360006,0
6.2029748,1.8608927,-2.786159,0.87985456,0.2639564,-0.39519987,0
-2.858557,-4.1579003,4.9237199,-0.40546906,-0.58977306,0.69839996,0
-1.3354304,-3.755898,-5.8148394,-0.18942274,-0.5327515,-0.8247999,0
1.3119276,-6.7782927,1.4269199,0.18608901,-0.96145993,0.20239998,0
5.4744039,3.7032738,-2.4533997,0.77651119,0.52528703,-0.34799993,0
2.3230364,-6.0398955,-2.7974391,0.32950869,-0.85672277,-0.39679986,0
4.4841514,-3.7367928,3.9536397,0.63604981,-0.53004152,0.56079996,0
-2.678721,-1.4328041,-6.3619204,-0.37996042,-0.20323461,-0.90240002,0
-1.5952328,-6.3809319,-2.5380003,-0.22627416,-0.90509671,-0.36000004,0
-5.3080254,-3.1561229,-3.4009202,-0.75291139,-0.44767699,-0.4824,0
4.3233223,0.45992795,-5.5497618,0.6132372,0.065238006,-0.78720021,0
1.11324,1.9481689,6.6834002,0.15790638,0.27633601,0.94800001,0
0.55432856,2.4944804,6.5706005,0.07862816,0.353827,0.93200004,0
1.0089138,5.5490265,-4.23,0.14310832,0.78709596,-0.59999996,0
-6.6599259,-0.22965237,2.3011193,-0.94467032,-0.032574803,0.32639989,0
6.7149172,1.119153,1.8329996,0.95247048,0.15874511,0.25999993,0
-5.6316471,0.89594376,-4.1454,-0.79881519,0.12708421,-0.588,0
-4.6142573,1.8242414,-5.0083208,-0.6545046,0.25875765,-0.7104001,0
1.6211445,3.5124795,5.8938003,0.22994958,0.49822405,0.83600003,0
-3.214622,-2.6788516,5.67384,-0.45597473,-0.37997895,0.80479997,0
0.27990517,1.6794326,6.84132,0.039702859,0.23821738,0.97039998,0
-2.7522969,6.4875574,-0.19739915,-0.39039671,0.92022091,-0.02799988,0
-5.6500869,2.8250434,-3.1301999,-0.80143076,0.40071538,-0.44399998,0
6.306922,2.47772,1.9458008,0.89459884,0.35144964,0.27600011,0
2.7537012,3.8755798,-5.2057195,0.39059591,0.54972762,-0.73839992,0
-6.1878252,0,-3.3783605,-0.87770569,0,-0.47920007,0
-2.1836562,6.3829951,-2.0473199,-0.30973846,0.90538937,-0.29039997,0
0.80713123,4.6410055,-5.2451987,0.11448669,0.65829861,-0.74399978,0
-1.3376439,4.0129299,5.6400003,-0.18973671,0.56920987,0.80000001,0
3.5330808,0.81532556,6.0460801,0.5011462,0.11564901,0.85759997,0
-5.3625994,0.76608485,4.5120001,-0.76065236,0.10866451,0.63999999,0
0.72260284,4.7485332,-5.1605988,0.10249685,0.67355078,-0.73199981,0
-5.9311786,-0.49426511,3.7787998,-0.84130192,-0.070108525,0.53599995,0
-4.3250384,-4.5653181,3.1866,-0.61348057,-0.6475628,0.45199996,0
0.47416225,-6.401196,2.9158807,0.067257054,-0.90797102,0.41360009,0
-5.8951573,-3.1113329,-2.2954805,-0.83619249,-0.44132382,-0.32560006,0
-3.7603531,-1.6115801,5.7415204,-0.53338343,-0.22859292,0.81440002,0
5.327167,-1.522048,4.3597207,0.7556265,-0.21589333,0.6184001,0
5.2231636,1.3057911,-4.5514803,0.74087423,0.1852186,-0.64560002,0
7.0195689,0.41291544,0.50760108,0.99568349,0.058569565,0.072000153,0
1.5239483,6.7489147,1.3536,0.21616288,0.95729285,0.192,0
4.5345035,4.9879551,2.0642395,0.64319193,0.70751137,0.29279992,0
-4.5339775,5.2594142,-1.2182407,-0.64311737,0.7460162,-0.17280009,0
3.3470826,6.1363177,-0.91931957,0.47476348,0.87039965,-0.13039994,0
6.0793734,-0.97269952,3.4347601,0.86232245,-0.13797157,0.48719999,0
6.2343259,-3.2116222,-0.72191912,0.88430154,-0.45554924,-0.10239987,0
2.5913336,4.4052663,4.8560395,0.36756504,0.62486047,0.68879992,0
3.3266437,-5.4652009,2.9610007,0.47186434,-0.77520579,0.42000008,0
-2.6921782,-2.5383394,-6.0009594,-0.38186926,-0.36004812,-0.85119987,0
0.25839549,-5.1679144,4.7883606,0.036651842,-0.73303747,0.67920005,0
-5.2126789,4.5610933,1.3141203,-0.73938704,0.6469636,0.18640004,0
-3.1370521,-6.2741041,0.70499951,-0.44497192,-0.88994384,0.099999927,0
5.7623806,3.5591173,-1.9570786,0.81735891,0.5048393,-0.27759978,0
-5.9721451,-2.1499722,3.0681601,-0.84711277,-0.30496058,0.43520001,0
0.2448044,5.5081038,-4.3935595,0.034724027,0.78129131,-0.62319988,0
-6.5560069,-2.1262727,-1.4833204,-0.92993003,-0.30159897,-0.21040004,0
-1.0966572,-3.0158081,6.2773199,-0.15555421,-0.42777419,0.89039999,0
-6.3253422,3.0668333,-0.53579986,-0.89721161,0.4350118,-0.075999975,0
5.8815441,-1.470386,3.5983198,0.83426154,-0.20856538,0.51039994,0
2.0618808,-5.6358085,-3.6998396,0.29246536,-0.79940546,-0.52479994,0
4.9613028,4.7841134,-1.4833186,0.70373088,0.67859763,-0.21039979,0
-1.3135631,2.7522275,-6.3562803,-0.18632101,0.39038688,-0.9016,0
-5.3177013,-0.70902687,-4.5740395,-0.75428385,-0.10057119,-0.6487999,0
1.7458782,-5.6405301,-3.8521209,0.24764229,-0.80007517,-0.54640013,0
-5.670599,3.0715742,2.8481998,-0.80434024,0.43568426,0.40399995,0
-0.84379756,0.56253117,6.9766803,-0.11968759,0.07979165,0.9896,0
6.2812333,-2.5464461,-1.9401604,0.89095503,-0.36119801,-0.27520004,0
-4.7732201,-5.1550775,-0.58655941,-0.6770525,-0.73121667,-0.083199918,0
-5.8934736,0,-3.86904,-0.83595371,0,-0.54879999,0
3.9626765,2.3776057,5.3241606,0.56208175,0.33724901,0.75520009,0
-0.27916551,-1.9541602,6.7680001,-0.039597943,-0.27718583,0.95999998,0
-6.0539303,3.5488555,0.676799,-0.85871351,0.50338376,0.095999852,0
1.1672759,4.775219,-5.0534396,0.16557105,0.67733598,-0.71679991,0
3.0715742,-5.670599,2.8481998,0.43568426,-0.80434024,0.40399995,0
1.9219908,-2.4711313,6.3168001,0.27262279,-0.35051507,0.89599997,0
6.5534277,1.8970451,-1.7766,0.92956418,0.26908442,-0.252,0
-5.1679144,0.25839549,4.7883606,-0.73303747,0.036651842,0.67920005,0
4.898982,1.804888,4.7376003,0.69489104,0.25601247,0.67200005,0
4.1649904,4.4099898,3.5926797,0.59077877,0.62553048,0.50959992,0
-1.5682349,-0.53386724,-6.8526001,-0.22244467,-0.075725846,-0.972,0
-2.5374923,-4.8333187,-4.4612408,-0.35992798,-0.68557709,-0.6328001,0
-3.7768967,-1.0791132,5.8543205,-0.53573,-0.15306571,0.83040005,0
-6.0539303,-3.5488551,0.6767996,-0.85871351,-0.5033837,0.095999941,0
-4.8241591,4.5944366,2.3067601,-0.68427789,0.65169311,0.3272,0
-5.5711784,0,4.32024,-0.79023808,0,0.6128,0
6.653563,-1.3648337,-1.8893995,0.94376779,-0.19359343,-0.26799992,0
3.702039,0.2313772,-5.9953213,0.52511191,0.032819461,-0.85040015,0
-6.7149172,1.119153,1.8329996,-0.95247048,0.15874511,0.25999993,0
-0.95926422,6.2352185,3.1471205,-0.13606584,0.88442814,0.44640005,0
-1.7010281,6.8041124,-0.71628064,-0.24128057,0.96512228,-0.10160009,0
-2.9346325,-6.095006,1.9852808,-0.41625991,-0.86453986,0.28160009,0
6.6635594,1.5548303,1.6976397,0.94518572,0.2205433,0.24079995,0
6.0003743,-1.9201201,3.1640399,0.8511169,-0.27235746,0.44879997,0
-5.8391709,-3.336669,-2.1149995,-0.82825118,-0.47328636,-0.29999992,0
-2.0421162,-6.7389836,0.34404069,-0.28966185,-0.95588416,0.048800096,0
4.775219,1.1672759,-5.0534396,0.67733598,0.16557105,-0.71679991,0
0,-6.2627468,3.2373605,0,-0.88833284,0.45920005,0
6.012219,-3.3597698,-1.5058789,0.85279697,-0.4765631,-0.21359985,0
4.8785968,-5.0818715,0.27635974,0.69199955,-0.72083288,0.039199963,0
4.6681185,-5.2770028,0.2537998,0.66214442,-0.74851102,0.035999969,0
6.4939499,-1.1596342,2.4872408,0.92112762,-0.16448712,0.3528001,0
4.9879103,4.6439157,-1.8048002,0.70750499,0.65871143,-0.25600001,0
-5.5429692,4.3551908,-0.10152075,-0.78623676,0.61775756,-0.014400106,0
-6.8210201,1.7539761,-0.3158395,-0.96752053,0.24879093,-0.044799928,0
-0.24480475,-5.5081038,-4.3935595,-0.034724079,-0.78129131,-0.62319988,0
-4.3315201,4.0608001,-3.8013601,-0.61439997,0.57599998,-0.53920001,0
3.2676198,-1.3615085,6.0968399,0.46349216,-0.19312176,0.86479998,0
-5.6388721,-4.2291541,0.14099976,-0.79983997,-0.59987998,0.019999966,0
-5.4144001,4.0608001,1.9739996,-0.76800001,0.57599998,0.27999994,0
-4.6614518,-4.5060706,-2.7692411,-0.66119879,-0.63915896,-0.39280015,0
-4.2291541,-5.6388721,0.14099976,-0.59987998,-0.79983997,0.019999966,0
2.153517,0.68729252,-6.6777611,0.3054634,0.097488299,-0.94720012,0
4.7333641,-2.3089578,-4.686841,0.67139912,-0.32751173,-0.66480011,0
-0.45888972,-6.6538978,2.2841992,-0.065090738,-0.94381523,0.32399988,0
4.597579,5.1280694,-1.5058805,0.65213883,0.7273857,-0.21360005,0
0,3.7900784,-5.944561,0,0.53759974,-0.84320015,0
0.53386652,4.270937,5.5835996,0.075725749,0.60580665,0.79199994,0
-6.6014872,0.32202345,-2.4533999,-0.93638116,0.045677084,-0.34799999,0
4.1335387,5.708221,-0.1804802,0.58631754,0.80967671,-0.025600027,0
-3.01157,6.02314,-2.0868008,-0.42717302,0.85434604,-0.29600009,0
-7.0375247,0.4021439,0.11844028,-0.9982304,0.057041686,0.016800039,0
-4.0608001,4.3315201,-3.8013601,-0.57599998,0.61439997,-0.53920001,0
1.6211445,3.5124795,5.8938003,0.22994958,0.49822405,0.83600003,0
4.3591146,3.0770221,4.6078796,0.61831415,0.43645701,0.65359992,0
-1.731572,-6.2966247,-2.6564405,-0.24561305,-0.89313823,-0.37680006,0
-1.1197922,6.905385,-0.87420022,-0.15883577,0.97948718,-0.12400003,0
-3.771971,-5.9557443,-0.062040355,-0.53503132,-0.84478641,-0.0088000502,0
3.1519482,6.3038955,-0.16920023,0.44708484,0.89416957,-0.024000032,0
4.6508632,4.6508632,2.5380006,0.65969688,0.65969688,0.36000007,0
-0.45063588,6.7595348,1.9514396,-0.063919984,0.95879924,0.27679995,0
-5.6388721,4.2291536,0.14100048,-0.79983997,0.59987992,0.020000067,0
-6.7938809,0.8710106,-1.6694394,-0.96367103,0.1235476,-0.23679991,0
1.8747803,-3.7495606,5.6682005,0.26592627,-0.53185254,0.80400002,0
-4.8856335,-3.3928008,-3.7844408,-0.69299763,-0.48124832,-0.53680009,0
-2.3417888,-6.0886512,2.6733603,-0.33216861,-0.86363846,0.37920004,0
5.044569,2.5222855,4.23,0.71554166,0.35777098,0.59999996,0
2.1482992,-3.4909868,5.7358804,0.30472329,-0.49517542,0.8136,0
0.45063522,6.7595348,1.9514397,0.063919887,0.95879924,0.27679995,0
-2.2710361,4.2323861,-5.1606011,-0.32213277,0.60033846,-0.73200011,0
-1.9703552,5.6647706,3.7054794,-0.27948299,0.80351353,0.5255999,0
-4.4035363,5.2842441,1.5453601,-0.62461507,0.74953812,0.2192,0
-0.45992795,4.3233223,-5.5497618,-0.065238006,0.6132372,-0.78720021,0
1.2238671,-6.9352465,0.32711986,0.17359816,-0.98372287,0.046399977,0
-6.7782927,1.3119276,1.4269199,-0.96145993,0.18608901,0.20239998,0
-0.26693368,5.8725376,-3.8915999,-0.03786293,0.83298403,-0.55199999,0
6.4972658,2.016392,1.8499196,0.92159796,0.28601304,0.26239994,0
-0.60202879,-7.0236688,0.090240233,-0.085394152,-0.99626505,0.012800032,0
2.7358232,-0.055833075,-6.4972806,0.38806,-0.0079195853,-0.92160004,0
-2.785326,-3.5536916,-5.4144011,-0.3950817,-0.50406975,-0.76800013,0
-5.2189813,-3.5787301,-3.10764,-0.74028099,-0.50762129,-0.44079998,0
-0.53431404,4.9156876,-5.025239,-0.075789221,0.69726062,-0.71279985,0
2.8250434,5.6500869,-3.1301999,0.40071538,0.80143076,-0.44399998,0
-6.2515221,2.7784545,-1.703281,-0.88674068,0.39410701,-0.24160014,0
-0.23356661,-6.5398712,2.6226001,-0.033130016,-0.92764127,0.37200001,0
4.3315201,-4.0608001,-3.8013601,0.61439997,-0.57599998,-0.53920001,0
-3.7001152,5.9201846,-0.98135948,-0.52483904,0.83974248,-0.13919993,0
-1.5701504,-6.8694067,-0.21995988,-0.22271636,-0.97438389,-0.031199982,0
-1.1059002,-2.4882758,6.5029202,-0.15686527,-0.35294691,0.9224,0
6.6948109,2.092129,0.71064001,0.94961852,0.29675588,0.1008,0
-4.6328063,5.0740261,1.5791993,-0.65713561,0.71972001,0.2239999,0
5.2842441,4.4035363,1.5453601,0.74953812,0.62461507,0.2192,0
-0.83416754,6.6733384,-2.1149991,-0.11832163,0.94657278,-0.29999986,0
4.7485332,-0.72260284,-5.1605988,0.67355078,-0.10249685,-0.73199981,0
-2.4700885,-6.5869021,0.46248022,-0.35036716,-0.93431234,0.06560003,0
-4.8613334,2.3027363,4.5571203,-0.68955082,0.32662925,0.64640003,0
-4.262773,-5.2858386,-1.8950402,-0.60464865,-0.74976432,-0.26880002,0
-6.6324077,2.1394868,1.0659597,-0.94076699,0.30347329,0.15119995,0
-3.0253651,-0.27503288,6.3619199,-0.42912978,-0.039011754,0.90239996,0
1.4211007,6.7502298,-1.4551197,0.20157456,0.95747936,-0.20639996,0
5.687006,1.7308276,3.7900796,0.80666751,0.24550745,0.53759992,0
-5.1246467,1.5373942,4.5909605,-0.72690022,0.21807009,0.65120006,0
2.6639557,-5.4681191,-3.5644794,0.37786606,-0.77561975,-0.50559992,0
-5.0291696,3.8317487,3.1189194,-0.71335739,0.54351044,0.44239989,0
6.4705892,0.94691545,-2.6338813,0.91781402,0.13431424,-0.37360018,0
-3.4091828,-3.4091828,5.1436801,-0.48357201,-0.48357201,0.72960001,0
-0.80048251,7.0042238,0.050759099,-0.11354361,0.99350691,0.0071998723,0
6.3399224,-2.9586301,0.86855984,0.89927977,-0.41966382,0.12319998,0
-2.9279046,0.80984592,-6.3619199,-0.41530561,0.11487176,-0.90239996,0
-5.1257887,2.9675622,-3.8239207,-0.72706223,0.4209308,-0.54240006,0
4.5871611,-2.0751441,-4.9350009,0.65066111,-0.29434666,-0.70000011,0
2.629283,2.629283,-5.9896784,0.37294793,0.37294793,-0.84959972,0
-3.7093024,5.9760985,0.47939917,-0.52614218,0.84767354,0.067999884,0
4.3326731,3.3132203,4.4668798,0.61456352,0.4699603,0.63359994,0
4.1335387,-5.708221,-0.1804802,0.58631754,-0.80967671,-0.025600027,0
7.005559,0.3786785,-0.69372016,0.99369627,0.053713262,-0.098400019,0
1.6633219,6.1780529,2.9610004,0.23593217,0.87631953,0.42000005,0
-2.4836118,1.3797846,6.4521599,-0.35228536,0.19571412,0.91519994,0
-5.2751336,3.3702242,-3.2430012,-0.74824589,0.47804597,-0.46000016,0
6.4723225,-2.0438914,-1.9063199,0.91805989,-0.28991368,-0.27039996,0
3.1242955,-3.9053693,4.9688401,0.44316247,-0.55395305,0.70480001,0
6.9689455,-0.63354057,0.85728061,0.98850286,-0.089863911,0.12160008,0
3.4204357,-5.7007265,-2.3462393,0.48516816,-0.80861366,-0.33279988,0
-5.7476225,2.6343272,3.1189196,-0.8152656,0.37366343,0.44239992,0
1.9445652,-1.3889756,6.6326404,0.27582484,-0.19701782,0.94080001,0
6.3191614,1.638301,2.6620808,0.89633495,0.23238312,0.3776001,0
-1.9529634,-0.5579899,6.75108,-0.27701607,-0.079147503,0.9576,0
-1.1234788,-0.5617398,6.9372001,-0.15935868,-0.0796794,0.98399997,0
-6.7389836,2.0421169,0.34404036,-0.95588416,0.28966197,0.048800051,0
-6.4580317,2.226908,1.7427591,-0.91603285,0.31587347,0.24719986,0
-2.302737,-4.4958196,-4.9180803,-0.32662934,-0.63770491,-0.69760001,0
2.9480431,2.9480431,5.6851196,0.41816214,0.41816214,0.80639994,0
2.7422242,-1.6453341,6.2829599,0.38896796,-0.23338072,0.89119995,0
-4.5871611,-2.0751441,-4.9350009,-0.65066111,-0.29434666,-0.70000011,0
1.7010276,6.8041129,-0.71628034,0.24128051,0.9651224,-0.10160004,0
-1.0498587,-6.9290652,0.76704055,-0.14891613,-0.98284608,0.10880008,0
-4.2365484,5.3514299,1.7653198,-0.6009289,0.75906813,0.25039998,0
-4.9697585,-4.9697585,0.55271947,-0.70493031,-0.70493031,0.078399926,0
5.8815441,1.470386,3.5983198,0.83426154,0.20856538,0.51039994,0
5.1047454,4.1476059,-2.5379996,0.72407734,0.58831286,-0.35999992,0
-2.6528997,4.1385231,-5.0534396,-0.37629783,0.58702451,-0.71679991,0
5.6084633,3.2716033,-2.7466803,0.79552668,0.46405721,-0.38960004,0
-3.2599008,1.6299504,6.0348001,-0.46239728,0.23119864,0.85600001,0
-3.4073911,-4.1123681,-4.6022406,-0.48331788,-0.5833146,-0.65280008,0
-2.6506979,6.5247951,0.32148033,-0.3759855,0.92550284,0.045600045,0
2.3982601,3.1425474,-5.8374004,0.34017873,0.4457514,-0.82800007,0
6.5302215,-2.5278277,0.81779987,0.92627251,-0.35855711,0.11599997,0
-4.5702801,5.3319926,-0.62039936,-0.64826667,0.756311,-0.087999903,0
-5.9503951,0.96866888,-3.6547203,-0.84402764,0.13739984,-0.51840001,0
0.40214387,7.0375247,0.11843911,0.057041682,0.9982304,0.016799873,0
-3.2823052,-5.6268101,2.69592,-0.46557519,-0.79812908,0.38239998,0
0.88041878,-6.8232417,1.5397198,0.12488209,-0.96783566,0.21839997,0
-0.67980105,3.9938307,-5.769722,-0.096425675,0.56650078,-0.81840026,0
-0.23356663,6.5398712,2.622601,-0.033130016,0.92764127,0.37200013,0
-5.6358085,2.0618808,-3.6998396,-0.79940546,0.29246536,-0.52479994,0
4.7333641,-2.3089578,-4.686841,0.67139912,-0.32751173,-0.66480011,0
-3.6264105,6.0440173,0.14663945,-0.51438445,0.85730737,0.020799922,0
2.3155618,-6.2850966,-2.1995997,0.32844847,-0.89150304,-0.31199995,0
6.4477015,-1.6119254,2.351881,0.91456753,-0.22864188,0.33360013,0
-3.6855059,-5.5282593,2.3575199,-0.52276677,-0.78415024,0.33439997,0
-1.2118784,5.7900853,-3.8352005,-0.17189765,0.82128865,-0.54400009,0
-1.6842742,5.1731286,-4.4838004,-0.23890413,0.73377711,-0.63600004,0
5.1280694,-4.597579,-1.5058805,0.7273857,-0.65213883,-0.21360005,0
4.7004414,4.924273,1.8329998,0.66672927,0.6984784,0.25999996,0
-1.8338939,6.4186273,2.2672808,-0.2601268,0.91044354,0.32160011,0
-0.27916551,-1.9541588,-6.7680006,-0.039597943,-0.27718565,-0.96000004,0
5.1830187,-2.9617252,3.7506006,0.73517996,-0.42010286,0.53200006,0
6.5914645,1.5211068,-1.9852792,0.93495947,0.21575983,-0.28159988,0
2.4297881,-1.7008518,-6.3957591,0.34465078,-0.24125557,-0.90719986,0
-1.3057911,-5.2231636,-4.5514803,-0.1852186,-0.74087423,-0.64560002,0
5.8951573,3.1113329,-2.2954805,0.83619249,0.44132382,-0.32560006,0
-4.517355,-3.5134978,4.1172004,-0.64075953,-0.49836847,0.58400005,0
3.5350244,5.420372,2.7974401,0.50142187,0.76884705,0.39680001,0
-5.3625994,0.76608485,4.5120001,-0.76065236,0.10866451,0.63999999,0
-6.6948109,2.092129,0.71064001,-0.94961852,0.29675588,0.1008,0
6.2915783,-1.8641719,2.5774806,0.89242244,-0.26442152,0.36560008,0
5.7007265,3.4204352,-2.3462405,0.80861366,0.4851681,-0.33280006,0
-4.4766111,4.4766111,-3.102001,-0.63498026,0.63498026,-0.44000012,0
-6.0251727,-1.6870482,3.2486401,-0.8546344,-0.23929761,0.46079999,0
-5.1047454,-4.1476059,-2.5379996,-0.72407734,-0.58831286,-0.35999992,0
2.2052341,3.0715764,-5.9501987,0.31279916,0.43568459,-0.8439998,0
-4.4841514,3.7367921,3.9536405,-0.63604981,0.5300414,0.56080008,0
-5.7250862,-2.2900345,-3.4178402,-0.81206894,-0.32482758,-0.48480001,0
-4.7485313,-0.72260255,-5.1606007,-0.67355055,-0.10249681,-0.73200005,0
-4.6713362,-4.8381701,-2.1150007,-0.66260087,-0.68626529,-0.3000001,0
4.7313113,0.52570075,5.2000799,0.67110801,0.074567482,0.73760003,0
-5.5794683,-2.6684418,3.3840003,-0.7914139,-0.37850237,0.48000002,0
3.7603531,1.6115801,5.7415204,0.53338343,0.22859292,0.81440002,0
6.8567605,-0.22118561,1.62432,0.97259009,-0.031373844,0.2304,0
6.7489386,0.6748932,1.9232397,0.95729625,0.09572953,0.27279994,0
-0.97687763,-2.1979747,-6.6269994,-0.1385642,-0.31176946,-0.93999988,0
-5.1490765,3.1875231,3.6096001,-0.73036546,0.45213091,0.51200002,0
-1.9716623,-6.6319542,-1.3536004,-0.27966839,-0.94070268,-0.19200005,0
-6.4073553,-2.8936441,0.52452016,-0.90884471,-0.41044596,0.074400023,0
-3.026001,0,6.3675599,-0.42921999,0,0.90319997,0
-4.7732201,-5.1550775,-0.58655941,-0.6770525,-0.73121667,-0.083199918,0
2.0153036,5.2901726,4.2018008,0.28585866,0.75037909,0.59600008,0
-4.5653181,-4.3250384,3.1866,-0.6475628,-0.61348057,0.45199996,0
-1.6794326,0.27990517,6.84132,-0.23821738,0.039702859,0.97039998,0
-3.1336277,-6.0434251,1.8330009,-0.44448617,-0.85722339,0.26000011,0
5.7602601,4.0321817,-0.51323992,0.81705815,0.57194066,-0.072799988,0
-2.6525042,0.55260521,-6.5085597,-0.37624171,0.078383714,-0.92319995,0
-5.6793427,-3.9318531,1.4100002,-0.8055805,-0.55770963,0.20000002,0
3.5802891,5.251092,3.0512397,0.50784242,0.74483573,0.43279994,0
7.0042238,-0.80048251,0.050759099,0.99350691,-0.11354361,0.0071998723,0
-3.3829427,-5.8637667,1.9683602,-0.47985002,-0.8317399,0.27920002,0
0.55260521,-2.6525042,-6.5085597,0.078383714,-0.37624171,-0.92319995,0
1.8962733,-3.2507546,5.9614801,0.26897493,-0.46109992,0.84560001,0
-4.8823481,-5.0776415,-0.28763974,-0.69253165,-0.72023284,-0.04079996,0
-5.5793943,-3.4871213,2.5323596,-0.79140341,-0.49462712,0.35919994,0
-0.48155168,-6.5812058,-2.4815998,-0.068305202,-0.93350434,-0.35199997,0
2.258677,5.1447644,-4.2582016,0.3203797,0.72975379,-0.60400021,0
0.13559327,-0.37487549,-7.0387206,0.019233087,-0.053173825,-0.99840003,0
1.9509671,-0.83612889,6.7228804,0.27673292,-0.11859984,0.95360005,0
-5.7809973,2.4087493,3.2373595,-0.81999958,0.34166655,0.45919991,0
1.8348633,-1.1358677,-6.7116008,0.26026428,-0.16111599,-0.95200008,0
5.3394151,-4.4851089,1.0377598,0.7573638,-0.63618565,0.14719996,0
4.9567866,3.2219114,3.8408403,0.70309031,0.45700869,0.54480004,0
0.66182882,6.8389044,1.5792,0.093876429,0.97005731,0.22399999,0
4.8438373,3.8750706,3.3501599,0.68706912,0.54965538,0.47519997,0
-3.203649,6.1937218,1.0377592,-0.4544183,0.87854207,0.14719988,0
1.6453341,2.7422242,6.2829599,0.23338072,0.38896796,0.89119995,0
-1.5682349,-0.53386724,-6.8526001,-0.22244467,-0.075725846,-0.972,0
-0.1563004,-3.7512074,-5.9671197,-0.022170268,-0.53208613,-0.84639996,0
-1.4207314,-6.9006963,0.25379992,-0.20152219,-0.97882211,0.035999987,0
6.0678482,0.7055639,-3.5193605,0.86068767,0.10007998,-0.49920008,0
5.4312472,2.468749,3.7562392,0.77038968,0.35017717,0.53279984,0
-5.0445695,-2.5222845,-4.23,-0.71554178,-0.35777083,-0.59999996,0
2.4077575,-3.4778731,5.6400003,0.34152588,-0.49331531,0.80000001,0
-2.6115088,-4.1784143,5.04216,-0.37042677,-0.5926829,0.71520001,0
-1.5701504,-6.8694067,-0.21995988,-0.22271636,-0.97438389,-0.031199982,0
3.6252873,3.6252873,4.8391204,0.51422513,0.51422513,0.68640006,0
-3.5866144,-5.9179139,-1.3479592,-0.50873959,-0.83942038,-0.19119987,0
4.4907384,0.19109505,-5.4313216,0.63698417,0.027105682,-0.77040023,0
-3.7367928,-4.4841514,3.9536397,-0.53004152,-0.63604981,0.56079996,0
-2.2933238,4.9487514,-4.4668813,-0.32529414,0.70195055,-0.63360018,0
-0.96829146,6.9716973,-0.40044066,-0.1373463,0.98889321,-0.056800094,0
-0.71896094,1.2366128,-6.9033604,-0.10198027,0.17540607,-0.97920001,0
2.6768556,-2.1133072,-6.1701603,0.3796958,-0.29975989,-0.87520003,0
2.858557,-4.1579003,4.9237199,0.40546906,-0.58977306,0.69839996,0
-5.1564164,-3.9845033,2.6902804,-0.73140657,-0.56517774,0.38160005,0
-1.091307,-3.2739217,6.1476002,-0.15479532,-0.46438605,0.87199998,0
1.4572062,-4.9320827,-4.8221998,0.20669591,-0.69958615,-0.68399996,0
-5.7458787,0.74946171,4.0156803,-0.81501824,0.10630662,0.56960005,0
5.7452197,3.7564902,1.6074001,0.81492478,0.53283548,0.228,0
-2.4962974,5.2422242,3.9987607,-0.35408473,0.7435779,0.56720006,0
-1.0667652,-3.2714131,-6.1532407,-0.15131421,-0.46403021,-0.87280005,0
1.3524022,-1.2061965,-6.8131199,0.1918301,-0.17109171,-0.96639997,0
3.5430422,5.3915858,-2.8425615,0.50255919,0.76476395,-0.40320021,0
2.3089585,-4.7333651,-4.6868396,0.32751185,-0.6713993,-0.66479993,0
4.9456401,0.78088981,4.9632001,0.70150924,0.11076451,0.704,0
0.39075029,-7.0335121,-0.28200054,0.055425573,-0.99766129,-0.040000077,0
-2.267252,6.3483052,2.0642409,-0.32159603,0.90046883,0.29280013,0
1.9783375,6.5944605,1.5171599,0.28061524,0.93538445,0.21519999,0
0,-6.7680001,1.9739996,0,-0.95999998,0.27999994,0
-4.1610823,3.2363968,-4.6812,-0.59022444,0.45906335,-0.66399997,0
0.75331527,-6.9681625,-0.76140034,0.10685322,-0.98839182,-0.10800005,0
4.5185447,4.5185447,2.9779203,0.64092833,0.64092833,0.42240003,0
6.0908084,-0.73089707,3.4742401,0.86394441,-0.10367334,0.4928,0
-2.0918548,-2.1533799,-6.37884,-0.29671699,-0.30544394,-0.9048,0
-6.9314661,0.21660811,1.2690003,-0.98318666,0.030724553,0.18000004,0
-6.6914272,-1.3382854,1.7709596,-0.94913858,-0.18982771,0.25119993,0
-1.1517068,6.581182,-2.2503588,-0.16336267,0.93350095,-0.31919983,0
0.54748636,-6.934834,-1.1449198,0.07765764,-0.98366439,-0.16239996,0
6.2560368,-3.0201552,1.2013196,0.88738108,-0.4283908,0.17039993,0
-3.669729,-3.1454823,5.1324005,-0.52052891,-0.44616768,0.72800004,0
3.01157,6.02314,-2.0868008,0.42717302,0.85434604,-0.29600009,0
-6.0398951,-2.3230369,-2.7974396,-0.85672265,-0.32950878,-0.39679992,0
-6.4096661,2.9134843,-0.36095899,-0.90917248,0.41326019,-0.051199857,0
-0.39075086,7.0335121,-0.2820006,-0.055425651,0.99766129,-0.040000085,0
-3.8317482,5.0291691,3.1189206,-0.54351038,0.71335727,0.44240007,0
-2.1411805,-5.4867754,-3.8746798,-0.30371353,-0.77826601,-0.54959995,0
-6.9338155,0,1.2746403,-0.98351991,0,0.18080004,0
2.5525477,3.8288217,-5.3410792,0.3620635,0.54309523,-0.75759989,0
0.84294814,-0.84294897,6.9484801,0.11956711,-0.11956723,0.98559999,0
-0.74043131,5.9234505,3.7505999,-0.10502572,0.84020573,0.53199995,0
6.1406312,-1.1696441,-3.2599211,0.8710115,-0.16590697,-0.46240014,0
5.60886,4.0987825,1.2013204,0.79558295,0.58138758,0.17040005,0
-5.0180154,-2.7599089,4.1115603,-0.71177518,-0.39147642,0.58320004,0
1.676703,-0.83835149,6.7962003,0.23783021,-0.1189151,0.96399999,0
-4.8397903,0.63127697,-5.0872808,-0.68649501,0.089542821,-0.72160006,0
-4.1225662,-5.5565023,-1.3535998,-0.58476114,-0.78815633,-0.19199997,0
0.56071872,-1.4017985,6.8864403,0.079534568,-0.19883665,0.97680002,0
-5.5429697,-4.3551903,-0.10152001,-0.78623682,-0.61775744,-0.014400001,0
5.2751341,-3.3702242,-3.2430005,0.74824595,-0.47804597,-0.46000007,0
5.7452197,-3.7564898,1.6074005,0.81492478,-0.53283542,0.22800007,0
-3.9919209,-5.553977,-1.7089195,-0.56622988,-0.78779817,-0.24239993,0
-6.3253427,-3.0668328,-0.53579932,-0.89721167,-0.43501174,-0.075999901,0
5.553977,3.9919212,-1.7089202,0.78779817,0.56622994,-0.24240002,0
-3.7089169,3.9482017,-4.5119996,-0.52608746,0.56002861,-0.63999993,0
3.78267,-0.81057227,5.8938003,0.53654891,-0.11497479,0.83600003,0
6.7463078,1.8739747,-0.82344085,0.95692307,0.26581201,-0.11680011,0
5.8757944,-1.0931712,-3.7393205,0.83344597,-0.15505974,-0.53040004,0
-4.5378704,3.7370694,-3.8915994,-0.64366955,0.53008074,-0.55199993,0
6.9118195,-1.3823637,-0.13536088,0.98039991,-0.19607995,-0.019200124,0
0,-3.539921,6.0968404,0,-0.50211644,0.86480004,0
-2.4687483,5.4312477,3.7562394,-0.35017705,0.77038974,0.5327999,0
-5.5274825,-3.8524878,-2.0755191,-0.78404003,-0.54645216,-0.29439986,0
-6.934834,0.54748636,-1.1449198,-0.98366439,0.07765764,-0.16239996,0
-6.7005458,-1.8109581,-1.2351601,-0.950432,-0.25687349,-0.17520002,0
-5.7181091,-4.0238547,0.90240067,-0.81107926,-0.57075953,0.1280001,0
1.6712302,-1.3926921,6.7059603,0.23705392,-0.19754498,0.95120001,0
-2.1843624,-6.5530882,1.4099997,-0.30983862,-0.92951602,0.19999996,0
-1.3926921,-1.6712302,6.7059603,-0.19754498,-0.23705392,0.95120001,0
3.2116227,6.2343254,-0.72191972,0.4555493,0.88430142,-0.10239996,0
-4.37216,0.95046973,-5.4482408,-0.62016451,0.1348184,-0.77280009,0
-5.1365509,4.7085056,1.071599,-0.72858876,0.66787314,0.15199986,0
-1.8172536,-6.4429889,-2.2108796,-0.25776646,-0.91389912,-0.31359994,0
-0.30518615,-6.4089065,-2.9215209,-0.043288816,-0.90906471,-0.41440013,0
2.2282643,-6.684792,0.22560045,0.31606585,-0.94819742,0.032000065,0
-2.4387703,-6.1782179,-2.3631599,-0.34592485,-0.87634295,-0.33519998,0
3.382942,5.8637667,1.9683608,0.4798499,0.8317399,0.27920011,0
1.8511745,-6.787641,0.4512009,0.26257792,-0.96278596,0.06400013,0
-0.80048257,-7.0042238,0.050760273,-0.11354362,-0.99350691,0.0072000385,0
6.6266136,1.7438462,-1.6581601,0.93994516,0.24735406,-0.2352,0
-4.9270301,1.2965871,4.8729601,-0.69886953,0.18391307,0.69120002,0
-1.2986459,6.8642716,-0.9475202,-0.18420509,0.97365552,-0.13440003,0
-5.9678826,3.2397077,-1.8950398,-0.84650815,0.45953301,-0.26879996,0
2.7537997,1.1015202,6.3957596,0.39060986,0.15624399,0.90719992,0
-4.1200118,-5.2644587,2.2390802,-0.58439881,-0.7467317,0.31760001,0
3.1187475,-1.2474991,-6.1983595,0.44237551,-0.17695022,-0.87919992,0
-4.003109,1.6012437,5.57796,-0.56781685,0.22712676,0.79119998,0
0,-6.5417776,2.6282401,0,-0.9279117,0.37279999,0
-2.785326,-3.5536916,-5.4144011,-0.3950817,-0.50406975,-0.76800013,0
-3.2363966,4.1610813,-4.681201,-0.45906332,0.59022427,-0.66400009,0
-2.3776064,3.9626765,5.3241606,-0.33724913,0.56208175,0.75520009,0
-3.4364684,-5.727447,2.256,-0.48744231,-0.8124038,0.31999999,0
4.7356663,0,5.22264,0.67172569,0,0.74079996,0
1.2825764,-4.4396877,-5.3241596,0.18192573,-0.62974292,-0.75519991,0
