-1.4696505,-7.1033111,2.2678392,-0.19337507,-0.93464619,0.2983999,0
-3.228303,-2.054374,6.5663996,-0.4247767,-0.27031237,0.86399996,0
-0.20600347,4.8410792,-5.8550415,-0.027105721,0.63698411,-0.77040023,0
6.9088917,-0.32899499,-3.1494408,0.90906471,-0.043288816,-0.4144001,0
-0.83406878,-5.5604582,5.1132803,-0.10974589,-0.73163927,0.67280006,0
0.3471458,7.1164961,-2.6448011,0.045677081,0.9363811,-0.34800017,0
-4.0822115,-0.58317339,6.3840003,-0.5371331,-0.076733343,0.84000003,0
-6.2020259,0.5393061,4.3593602,-0.81605607,0.070961334,0.57360005,0
-5.6261358,-3.8579218,-3.35008,-0.74028105,-0.50762129,-0.44080001,0
2.7259867,-1.0074298,-7.0223985,0.35868245,-0.13255656,-0.92399979,0
-1.6428155,5.8867555,-4.5174403,-0.21615994,0.77457309,-0.59440005,0
-5.3642349,4.6720753,-2.6751995,-0.70582038,0.61474675,-0.35199994,0
-1.8820814,6.0805712,-4.1526408,-0.24764229,0.80007517,-0.54640013,0
6.5705023,-3.1635754,2.1401606,0.8645398,-0.41625991,0.28160009,0
-2.2126105,-6.883677,2.3407998,-0.29113296,-0.905747,0.30799997,0
-3.7333326,-2.8717942,5.9644799,-0.49122798,-0.37786767,0.78479999,0
0.5393061,6.2020264,4.3593593,0.070961334,0.81605613,0.57359993,0
-2.9561555,1.7736936,6.7731199,-0.38896784,0.23338073,0.89120001,0
3.6313429,-5.7063966,3.4656003,0.47780827,-0.75084168,0.45600003,0
-2.2156577,-5.2621861,5.0159998,-0.29153392,-0.69239289,0.65999997,0
-2.4722359,-5.334825,-4.8153596,-0.3252942,-0.70195067,-0.63359994,0
-4.2450857,-2.3813896,-5.8367996,-0.55856389,-0.31334075,-0.76799995,0
-1.260893,-6.6196871,-3.514241,-0.16590698,-0.8710115,-0.46240014,0
6.8435631,-2.4441297,2.225281,0.90046883,-0.32159603,0.29280013,0
-4.0495491,6.193428,1.7328006,-0.53283542,0.81492478,0.22800009,0
-1.0027391,-7.0191751,2.7360001,-0.13193935,-0.9235757,0.36000001,0
-5.6954379,4.7461982,-1.6720004,-0.74939972,0.62449974,-0.22000006,0
2.623137,3.2060575,6.37184,0.34514961,0.42184967,0.83840001,0
-4.0753245,-0.084902517,-6.4143991,-0.53622693,-0.011171385,-0.84399992,0
1.4464138,7.4387002,-0.57760054,0.1903176,0.97877634,-0.076000072,0
-6.7989516,2.6710169,2.0975997,-0.8945989,0.35144961,0.27599996,0
3.0507724,-6.9150853,-0.7964797,0.40141743,-0.90987968,-0.10479996,0
-0.57599807,5.2991805,-5.4172788,-0.075789221,0.69726062,-0.71279985,0
-6.5536504,1.0485846,3.7027199,-0.86232245,0.13797165,0.48719999,0
6.193428,4.0495496,1.7327999,0.81492478,0.53283548,0.22799999,0
3.5293341,1.1764452,6.6271996,0.46438608,0.15479542,0.87199998,0
2.1663949,0.84771985,-7.235199,0.28505197,0.11154208,-0.9519999,0
3.4621747,-6.7206912,-0.77823967,0.4555493,-0.88430148,-0.10239996,0
6.1224117,-4.2385931,1.5200001,0.8055805,-0.55770963,0.20000002,0
-6.3938942,0.53282398,4.0735998,-0.84130186,0.070108421,0.53599995,0
0,-2.6913118,7.1075201,0,-0.35411999,0.93520004,0
3.7591655,-6.0146661,2.7299201,0.49462706,-0.79140341,0.35920003,0
2.5720558,7.0146971,1.3923193,0.33842841,0.92298645,0.18319991,0
6.5155363,3.9093218,0.1580794,0.85730743,0.51438445,0.020799922,0
-7.5520916,-0.40822139,-0.74784023,-0.99369627,-0.05371334,-0.098400034,0
-4.6720753,5.3642349,-2.6751995,-0.61474675,0.70582038,-0.35199994,0
-6.2488976,3.9765708,-1.7023988,-0.82222337,0.523233,-0.22399984,0
2.9760969,-0.59521955,6.9676795,0.3915917,-0.078318365,0.91679996,0
2.6290286,6.6602068,-2.5475192,0.34592482,0.87634301,-0.33519989,0
2.2781751,-2.8856883,-6.6515203,0.29975989,-0.37969583,-0.87520003,0
-3.4799702,2.6099768,6.2320004,-0.45789084,0.343418,0.82000005,0
-5.7287922,4.0438538,-2.9305604,-0.75378847,0.53208601,-0.38560006,0
2.5449204,-4.5243044,5.5510402,0.33485797,-0.59530324,0.73040003,0
-5.2354693,-5.2354693,1.71456,-0.68887758,-0.68887758,0.22560002,0
-1.2288523,7.1273422,2.3347192,-0.16169108,0.93780822,0.3071999,0
-6.8060436,3.0509846,1.4591993,-0.89553207,0.40144536,0.19199991,0
1.6077317,7.3496308,1.0761603,0.21154365,0.96705669,0.14160004,0
4.9777164,-1.327391,-5.5875192,0.65496272,-0.17465672,-0.73519993,0
-4.7987266,-0.30630171,-5.8854399,-0.63141137,-0.040302858,-0.7744,0
4.7276559,1.9790188,-5.6118402,0.62206,0.26039723,-0.73840004,0
3.3620539,1.3448217,-6.6819196,0.44237551,0.17695023,-0.87919998,0
-0.20438187,-7.5621367,-0.72960019,-0.026892351,-0.99501801,-0.096000023,0
6.3327212,1.6585701,-3.860801,0.83325279,0.2182329,-0.50800014,0
1.7669491,-6.5859003,-3.3561599,0.2324933,-0.86656582,-0.44159999,0
-6.9148021,-2.6228561,1.751039,-0.90984237,-0.34511265,0.23039988,0
0.37969553,7.4040699,-1.6719992,0.049959939,0.97421974,-0.21999989,0
4.402391,3.8520911,4.8518395,0.57926196,0.50685412,0.63839996,0
-1.4696505,-7.1033111,2.2678392,-0.19337507,-0.93464619,0.2983999,0
-6.1742692,3.704561,2.4320004,-0.81240386,0.48744226,0.32000005,0
-2.967015,6.9936786,-0.21279909,-0.39039671,0.92022085,-0.02799988,0
-0.56186599,-5.3377237,5.3807998,-0.073929742,-0.70233214,0.708,0
4.4783154,-5.1180749,-3.3926387,0.58925205,-0.67343092,-0.44639984,0
4.916923,-5.6193414,1.4166403,0.6469636,-0.73938704,0.18640004,0
-2.8398221,-6.8629036,1.6111991,-0.3736608,-0.90301365,0.21199989,0
5.1026335,-2.4890893,-5.0524812,0.67139918,-0.32751176,-0.66480017,0
-1.1005973,-3.1642172,-6.8217602,-0.14481543,-0.41634437,-0.89760005,0
-3.1248069,-3.977026,5.6726398,-0.4111588,-0.5232929,0.7464,0
3.7170641,6.5048609,1.2768004,0.4890874,0.85590273,0.16800006,0
-2.8878398,3.4654081,6.1164799,-0.37997892,0.45597476,0.80479997,0
-5.8915639,-3.586169,3.1920004,-0.77520579,-0.47186434,0.42000005,0
-5.6982088,-4.5953298,-2.0428801,-0.74976432,-0.60464865,-0.26880002,0
-0.51601273,-3.5383732,-6.7062392,-0.067896411,-0.46557543,-0.88239992,0
6.2596483,-3.8520913,1.9334403,0.82363796,-0.50685412,0.25440004,0
6.0533414,4.1162724,2.0428796,0.79649228,0.54161483,0.26879996,0
3.977026,3.1248069,5.6726398,0.5232929,0.4111588,0.7464,0
5.7427616,1.6407893,4.6998405,0.75562656,0.21589333,0.6184001,0
4.3100467,-5.986176,1.8300798,0.56711143,-0.78765476,0.24079998,0
-5.1972017,-5.1972017,-1.9334401,-0.6838423,-0.6838423,-0.25439999,0
-7.2171006,-2.2553439,0.76608032,-0.94961852,-0.29675579,0.10080004,0
0.59967363,2.3986962,7.1865602,0.078904428,0.31561792,0.94560003,0
5.9652948,-4.5886884,1.0579206,0.78490722,-0.60377479,0.13920008,0
-2.6613457,-5.8549609,4.0492802,-0.35017708,-0.77038962,0.53280002,0
1.1874543,-2.9686341,6.8947201,0.15624399,-0.39060977,0.90720004,0
-7.1295824,-0.17389208,-2.6265597,-0.93810296,-0.022880537,-0.34559998,0
-3.9899349,5.0539174,4.0371199,-0.52499145,0.66498911,0.53119999,0
-5.4519663,0.23704179,-5.2896004,-0.71736401,0.03118971,-0.69600004,0
-4.6701365,5.8376708,1.3680003,-0.61449164,0.76811457,0.18000004,0
1.9274557,5.5070167,4.8700805,0.25361258,0.72460747,0.64080006,0
-7.3238993,0.93896174,-1.7996794,-0.96367097,0.1235476,-0.23679993,0
1.8337319,-7.3349299,-0.77216035,0.24128051,-0.9651224,-0.10160005,0
5.9566941,0.13237086,-4.7180791,0.78377557,0.017417219,-0.6207999,0
-6.5754013,-2.1370053,-3.1555202,-0.86518437,-0.28118491,-0.41520002,0
-6.5347977,2.7514942,-2.7360003,-0.85984182,0.3620387,-0.36000004,0
6.3476133,-0.1442638,-4.17696,0.83521229,-0.018982079,-0.54960001,0
6.2931967,-2.0977325,3.7087996,0.82805222,-0.27601746,0.48799995,0
6.2665892,-4.2523289,0.63840103,0.82455122,-0.55951697,0.08400014,0
-6.3985987,-2.8625307,-2.9366395,-0.84192091,-0.37664878,-0.38639995,0
2.3176999,6.4380569,3.3075202,0.30496052,0.84711277,0.43520004,0
7.4040699,-0.3796961,-1.6719993,0.97421974,-0.049960013,-0.21999991,0
3.6521268,-3.9330595,5.3808002,0.48054302,-0.51750785,0.70800006,0
0.30094436,2.1066122,7.296,0.039597943,0.27718583,0.96000004,0
2.3689222,-2.3689232,6.8217602,0.31170028,-0.31170043,0.89760005,0
-3.1927762,2.902524,6.2563195,-0.42010215,0.38191107,0.82319993,0
-0.10353852,4.8663154,-5.8368015,-0.01362349,0.64030468,-0.76800019,0
2.3795254,5.7388554,-4.3776016,0.31309545,0.75511253,-0.57600021,0
6.3327212,1.6585701,-3.860801,0.83325279,0.2182329,-0.50800014,0
-2.8152432,4.5043902,5.4355197,-0.37042674,0.59268296,0.71519995,0
0,5.1051149,5.6300797,0,0.67172563,0.74079996,0
-3.7258544,0.87200856,-6.5664001,-0.490244,0.11473797,-0.86400002,0
-2.091511,-1.7927239,7.0832,-0.27519882,-0.23588473,0.93199998,0
-1.6047055,6.151371,4.1647992,-0.21114546,0.8093909,0.54799992,0
6.7956882,3.3978448,-0.18240023,0.89416951,0.44708484,-0.02400003,0
-3.9154453,0.3262873,-6.5055995,-0.51519018,0.04293254,-0.85599995,0
-1.1040688,7.5076652,0.419521,-0.14527221,0.98785067,0.055200133,0
-4.1852756,-3.6272383,5.2044797,-0.55069417,-0.47726819,0.68479997,0
1.0246198,-4.7132502,-5.8732805,0.1348184,-0.62016451,-0.77280009,0
2.315897,3.7633333,6.1833601,0.30472329,0.49517545,0.8136,0
4.3346386,1.1559044,6.1347203,0.57034719,0.15209268,0.80720007,0
2.3789036,-6.079422,3.8912005,0.31301364,-0.79992396,0.51200008,0
-0.88459301,-3.4646559,-6.7062397,-0.11639382,-0.45587578,-0.88239998,0
0.2899335,-4.3490067,6.2259197,0.038149145,-0.57223773,0.81919998,0
-3.2877004,-6.0822463,-3.15552,-0.43259215,-0.80029559,-0.4152,0
-2.3813887,4.2450843,-5.8368011,-0.3133406,0.55856371,-0.76800013,0
-6.4930296,-3.2465148,-2.2496006,-0.85434604,-0.42717302,-0.29600009,0
-3.5409565,4.902863,4.60256,-0.46591532,0.64511359,0.6056,0
-3.1927817,-5.587368,4.0431995,-0.42010286,-0.73518002,0.53199995,0
6.5110927,-2.5042665,-3.0156794,0.85672271,-0.32950875,-0.39679992,0
3.6468594,6.3212237,2.1219208,0.47984993,0.83173996,0.27920011,0
4.4684653,-6.0933609,-0.81472117,0.58795595,-0.80175805,-0.10720015,0
4.4899187,-4.7540312,3.8729594,0.59077877,-0.62553042,0.50959992,0
-5.2309914,5.4321833,-0.94239908,-0.68828833,0.71476096,-0.12399988,0
-0.59967452,-2.3986971,7.1865597,-0.078904547,-0.31561804,0.94559997,0
-5.2405863,2.4823823,4.9126401,-0.68955082,0.32662925,0.64640003,0
4.8173361,5.0708799,2.9731202,0.63386005,0.66722107,0.39120007,0
3.1087949,-6.6958661,1.80576,0.40905195,-0.88103503,0.23760001,0
-4.5701013,4.3012729,4.2863998,-0.60132915,0.56595695,0.56400001,0
2.033103,3.775763,6.27456,0.26751354,0.49681094,0.82560003,0
3.9544458,4.6362462,-4.5417595,0.52032185,0.61003238,-0.59759992,0
0.612845,6.5880799,-3.7392004,0.0806375,0.86685264,-0.49200004,0
2.2213891,5.1832409,-5.0950408,0.29228804,0.68200541,-0.67040014,0
6.1830792,1.0753186,4.2863994,0.81356305,0.14148928,0.56399995,0
-1.4865319,6.7719784,-3.1129613,-0.19559629,0.8910498,-0.40960017,0
-5.0128226,4.2213249,3.8486395,-0.65958196,0.55543751,0.50639993,0
3.8160851,0,6.5724802,0.50211644,0,0.86480004,0
0,-3.2620718,6.8643198,0,-0.42921999,0.90319997,0
-4.7702622,2.5254326,5.3504004,-0.62766612,0.33229378,0.70400006,0
0.73283541,-4.305409,-6.2198396,0.096425712,-0.5665012,-0.81839997,0
5.9899879,4.4441848,-1.4592006,0.78815633,0.58476114,-0.19200009,0
3.5777841,-4.7703791,-4.7119999,0.47076106,-0.62768149,-0.62,0
-2.2009518,7.203114,-1.0153608,-0.28959891,0.94777817,-0.13360012,0
4.4783154,-5.1180749,-3.3926387,0.58925205,-0.67343092,-0.44639984,0
-4.028614,4.8918881,-4.195199,-0.5300808,0.64366949,-0.55199987,0
2.0151322,6.3554173,-3.6480012,0.26514897,0.8362391,-0.48000017,0
-5.2354693,-5.2354693,1.71456,-0.68887758,-0.68887758,0.22560002,0
-0.30296433,1.2118592,7.4966397,-0.039863728,0.15945517,0.98639995,0
7.3496308,-1.6077317,1.0761603,0.96705669,-0.21154365,0.14160004,0
2.3215218,0.74091107,-7.1987209,0.3054634,0.097488299,-0.94720012,0
-6.6842375,1.6303022,-3.2284801,-0.87950492,0.21451345,-0.42480001,0
-7.3531561,1.8908111,-0.34047946,-0.96752053,0.24879093,-0.044799931,0
2.1066108,-0.30094436,-7.2960005,0.27718562,-0.039597943,-0.9600001,0
-6.0115185,-2.5548952,-3.8851199,-0.79098928,-0.33617043,-0.51120001,0
0.96792424,-7.2594285,2.0307195,0.12735845,-0.95518798,0.26719993,0
6.6602063,-2.629029,-2.5475199,0.87634295,-0.34592488,-0.33519998,0
-1.1317625,-7.4696307,0.82688057,-0.14891613,-0.98284614,0.10880008,0
-0.22281334,7.5756602,0.56544107,-0.029317545,0.99679738,0.074400142,0
1.0485846,-6.5536504,3.7027199,0.13797165,-0.86232245,0.48719999,0
-6.481257,3.6218789,-1.62336,-0.85279697,0.47656301,-0.21360001,0
5.0627093,-1.6875697,5.4111996,0.66614598,-0.22204866,0.71199995,0
0,-5.3427219,5.4051199,0,-0.70298976,0.7112,0
3.2558956,-0.88797146,6.8095999,0.42840731,-0.11683835,0.89599997,0
1.708631,-7.214222,-1.6719995,0.22481988,-0.94923973,-0.21999992,0
-2.7150452,-6.2286334,-3.404799,-0.35724279,-0.81955701,-0.44799986,0
-1.7657979,3.2372963,6.6454396,-0.23234183,0.42596006,0.87439996,0
-2.3213761,2.2550509,-6.8764787,-0.30544421,0.29671723,-0.90479982,0
-0.23704214,-5.4519663,-5.2896004,-0.031189756,-0.71736401,-0.69600004,0
6.8771086,1.0188315,3.0704005,0.90488273,0.13405678,0.40400007,0
-6.9083862,0,3.1676805,-0.90899819,0,0.41680008,0
4.9603262,2.7281799,-5.0707197,0.6526745,0.35897106,-0.66719997,0
1.701314,-4.8203893,5.6240001,0.2238571,-0.63426173,0.74000001,0
6.8852553,0.49180347,-3.1798408,0.90595466,0.064710982,-0.41840011,0
1.5120757,0.30241477,7.4419198,0.19895732,0.03979142,0.97920001,0
-7.2647195,-2.2014301,0.37088072,-0.95588416,-0.28966185,0.048800096,0
3.035522,-6.3240037,2.92448,0.39941078,-0.83210576,0.38479999,0
-4.0286131,2.3020644,6.0192003,-0.53008068,0.30290321,0.79200006,0
-2.2871151,-4.2883401,5.8428798,-0.30093619,-0.5642553,0.76879996,0
-4.6397009,3.8209302,4.6512003,-0.61048698,0.50275397,0.61200005,0
0.18229845,-7.2919455,-2.1340802,0.023986639,-0.95946652,-0.28080001,0
-6.6637745,-3.6543276,1.811981e-07,-0.87681246,-0.48083258,2.3841856e-08,0
0.83824664,6.1471415,-4.38976,0.11029562,0.80883443,-0.5776,0
-7.3337855,1.182869,1.6051198,-0.96497178,0.15564065,0.21119998,0
-2.0699167,6.4684882,3.4108799,-0.27235746,0.8511169,0.4488,0
6.5347981,-2.7514939,-2.7359996,0.85984188,-0.36203867,-0.35999995,0
7.1834111,-1.6761291,1.8300796,0.94518566,-0.22054331,0.24079995,0
5.6193414,4.916923,1.4166403,0.73938704,0.6469636,0.18640004,0
2.623137,3.2060575,6.37184,0.34514961,0.42184967,0.83840001,0
6.5659776,0.7879166,3.74528,0.86394441,0.10367323,0.4928,0
5.1189857,-0.77897608,-5.5631986,0.67355072,-0.10249685,-0.73199981,0
-0.23844121,7.3916845,1.7510399,-0.031373844,0.97259009,0.23039998,0
1.4747593,1.0071526,-7.3872004,0.19404729,0.13252008,-0.97200006,0
4.5764227,-5.9692469,-1.088321,0.60216087,-0.78542721,-0.14320013,0
-0.30174172,-1.8104521,7.3750401,-0.039702859,-0.23821738,0.97040004,0
1.6014184,2.690383,-6.9251208,0.21071294,0.35399777,-0.91120011,0
-3.3398743,-3.7708256,-5.6908798,-0.43945715,-0.49616128,-0.74879998,0
-6.4528251,2.2584887,-3.31968,-0.84905595,0.29716957,-0.4368,0
-0.60556346,-1.211126,7.4783998,-0.079679407,-0.15935868,0.98399997,0
3.5859113,-6.4546409,1.7996811,0.47183043,-0.84929484,0.23680015,0
-5.439528,4.2856889,-3.1311989,-0.71572739,0.56390643,-0.41199985,0
-4.0537138,-1.7373062,6.1894403,-0.53338343,-0.22859293,0.81440002,0
3.688627,4.0455909,-5.271359,0.48534566,0.5323146,-0.69359988,0
6.0822463,-3.2877004,-3.15552,0.80029559,-0.43259215,-0.4152,0
4.3413491,-0.86827004,6.1772804,0.57123017,-0.11424606,0.81280005,0
-4.7461982,-5.6954379,-1.6720004,-0.62449974,-0.74939972,-0.22000006,0
-6.9277425,0,-3.1251209,-0.9115451,0,-0.41120011,0
-1.4865321,-6.7719793,-3.1129599,-0.19559634,-0.89104992,-0.40959999,0
-1.1302912,5.0863118,5.5327997,-0.14872253,0.66925156,0.72799999,0
4.3558607,3.8434072,-4.9004793,0.57313955,0.5057115,-0.64479995,0
-7.5332351,-0.88626277,0.47423989,-0.99121517,-0.11661352,0.062399987,0
-1.3527147,-7.43993,0.76000065,-0.17798877,-0.97893816,0.10000008,0
6.3327212,1.6585701,-3.860801,0.83325279,0.2182329,-0.50800014,0
-1.7196835,-6.8787346,-2.7360003,-0.22627415,-0.90509665,-0.36000004,0
5.2755871,-2.9759724,-4.5903993,0.69415623,-0.39157534,-0.60399991,0
-2.9669416,1.4160402,-6.852159,-0.39038706,0.18632108,-0.90159988,0
0.76564485,6.89081,3.1129606,0.10074274,0.90668553,0.40960008,0
5.5767055,-1.8156714,-4.8336,0.73377705,-0.23890413,-0.63600004,0
6.2947087,3.596976,-2.2800007,0.82825118,0.47328633,-0.3000001,0
5.5244417,1.6573327,4.94912,0.72690022,0.21807009,0.6512,0
-1.5708889,-5.316855,-5.1983995,-0.20669591,-0.69958621,-0.68399996,0
-4.0777717,0.87380749,6.3536005,-0.53654891,0.11497467,0.83600008,0
-3.7314079,-1.4096429,-6.4691191,-0.49097472,-0.18547934,-0.85119987,0
-2.2710247,4.5420494,5.6543994,-0.29881904,0.59763807,0.74399996,0
-6.5880799,0.612845,-3.7392004,-0.86685264,0.0806375,-0.49200004,0
2.9158661,2.9158661,6.3839993,0.3836666,0.3836666,0.83999991,0
-1.2334167,-2.9212501,-6.9068794,-0.16229166,-0.38437501,-0.90879989,0
-0.22830358,-7.5340252,0.97280067,-0.030039946,-0.99131912,0.1280001,0
6.4684887,2.0699158,3.4108801,0.85111696,0.27235734,0.44880003,0
3.538372,-0.58972895,6.70016,0.46557528,-0.077595912,0.88160002,0
2.2014308,-7.2647195,0.37088037,0.28966194,-0.95588416,0.048800047,0
3.7145169,6.6035852,-0.59583986,0.48875222,0.86889279,-0.078399986,0
-2.6099777,3.4799702,6.2319999,-0.34341812,0.45789084,0.81999999,0
-7.2308555,-0.7230854,-2.2252803,-0.95142835,-0.095142819,-0.29280004,0
-2.0793509,-2.3764017,6.9129601,-0.27359882,-0.31268445,0.90960002,0
6.9193707,-1.9769636,2.4441607,0.91044354,-0.2601268,0.32160011,0
3.4924502,6.4334617,-2.042881,0.45953295,0.84650815,-0.26880014,0
-1.2064629,7.2387757,1.9759995,-0.15874511,0.95247048,0.25999993,0
-0.20438187,-7.5621367,-0.72960019,-0.026892351,-0.99501801,-0.096000023,0
-4.100913,1.1589537,-6.2928004,-0.53959382,0.15249391,-0.82800007,0
3.3908744,3.9560196,5.5328002,0.44616768,0.52052891,0.72800004,0
4.2772918,4.4152689,-4.4687996,0.5628016,0.58095646,-0.588,0
-3.1927762,-2.9025233,6.25632,-0.42010215,-0.38191095,0.82319999,0
-3.2587893,5.1597495,4.5296001,-0.42878807,0.67891443,0.59600002,0
6.620894,-3.1265328,-2.0368004,0.87117028,-0.41138589,-0.26800007,0
-2.3818395,6.6351247,-2.839359,-0.31339994,0.8730427,-0.37359989,0
7.1834111,1.6761291,1.8300796,0.94518566,0.22054331,0.24079995,0
5.5372748,-5.0758348,1.1551998,0.72858882,-0.66787302,0.15199997,0
-3.1927817,5.5873675,4.0432005,-0.42010286,0.73517996,0.53200006,0
-1.9780086,1.2244815,-7.2352004,-0.26026431,0.16111599,-0.95200008,0
2.6193461,-1.8335423,-6.8947186,0.3446508,-0.24125558,-0.90719986,0
-1.4076613,-5.6306443,-4.9065599,-0.1852186,-0.74087429,-0.64560002,0
-2.0060687,6.6868949,-3.0035188,-0.2639564,0.87985462,-0.39519984,0
3.9056599,-5.4679251,3.5507202,0.5139026,-0.71946383,0.46720004,0
2.6102958,2.936583,-6.5056005,0.34345996,0.3863925,-0.85600007,0
-4.212347,-6.3185215,-0.30400014,-0.5542562,-0.83138442,-0.040000018,0
1.3977393,5.311408,5.2531199,0.18391307,0.69886947,0.69120002,0
0.69861752,-7.4519272,1.3193604,0.091923356,-0.98051673,0.17360005,0
-6.3341894,-1.178454,-4.0310407,-0.83344597,-0.15505974,-0.5304001,0
-6.0188003,-1.5396932,-4.3776007,-0.79194742,-0.20259121,-0.57600009,0
2.5548959,6.0115185,-3.8851192,0.33617052,0.79098928,-0.51119989,0
-5.6756859,4.4341297,-2.4259198,-0.74680072,0.5834381,-0.31919995,0
-3.7333326,2.8717952,5.9644799,-0.49122798,0.37786779,0.78479999,0
-0.29505202,3.540628,6.7184,-0.038822636,0.46587211,0.884,0
-7.2910938,-2.1444392,-0.036480077,-0.95935446,-0.28216305,-0.00480001,0
5.0863118,1.1302921,5.5327997,0.66925156,0.14872263,0.72799999,0
-3.596976,6.2947087,-2.2800007,-0.47328633,0.82825118,-0.3000001,0
5.611547,4.0811253,3.1007986,0.73836148,0.53699017,0.40799981,0
4.6362462,3.9544458,-4.5417595,0.61003238,0.52032185,-0.59759992,0
3.9154427,-0.32628679,-6.5056009,0.51518983,-0.042932473,-0.85600013,0
-5.0473084,1.9628419,5.33216,-0.66411954,0.25826868,0.70160002,0
2.9022048,2.7363641,-6.46912,0.38186905,0.36004791,-0.85119998,0
7.1164961,0.3471458,-2.6448011,0.9363811,0.045677081,-0.34800017,0
-6.5747685,-0.52598178,3.7756798,-0.86510116,-0.06920813,0.49679998,0
-5.0627093,-1.6875697,5.4111996,-0.66614598,-0.22204866,0.71199995,0
5.8376708,4.6701365,1.3680003,0.76811457,0.61449164,0.18000004,0
1.5425477,-6.6843729,3.2710402,0.20296681,-0.87952274,0.43040004,0
-4.4414306,5.6751614,2.4137592,-0.58439875,0.74673176,0.31759989,0
4.3413491,0.86826915,6.1772804,0.57123017,0.11424594,0.81280005,0
-6.1941381,-0.80793113,4.3289604,-0.81501818,-0.10630673,0.56960005,0
-3.4120016,3.6963348,5.69696,-0.44894758,0.48635986,0.74959999,0
-6.9772549,2.2033439,-2.0550399,-0.91805989,0.28991368,-0.27039999,0
7.4804459,-1.2467411,-0.49856064,0.9842692,-0.16404487,-0.065600082,0
4.177381,5.221725,3.6115198,0.54965538,0.68706906,0.47519997,0
-2.9492562,0.060188845,-7.0041604,-0.38806003,0.0079195853,-0.92160004,0
1.2032877,-1.8049308,7.2838397,0.15832734,-0.23749089,0.95839995,0
1.2288523,7.1273422,2.3347192,0.16169108,0.93780822,0.3071999,0
-1.1650778,7.3788257,-1.3983998,-0.15329972,0.97089815,-0.18399999,0
4.5953298,-5.6982088,-2.0428801,0.60464865,-0.74976432,-0.26880002,0
-5.8367996,-2.62656,-4.0979204,-0.76799995,-0.34560001,-0.53920007,0
1.3999586,-7.3997822,-1.0214401,0.18420509,-0.97365558,-0.13440003,0
-0.87380838,-4.0777717,6.3536,-0.11497479,-0.53654891,0.83600003,0
2.8878405,-3.4654081,6.1164794,0.37997901,-0.45597476,0.80479991,0
0.56671286,-5.100421,5.6057596,0.074567482,-0.67110801,0.73759997,0
-7.146944,-0.98578507,2.3894393,-0.94038737,-0.12970856,0.31439993,0
0.30930382,-6.6500387,-3.6662402,0.040697873,-0.87500513,-0.48240003,0
5.4381185,2.7190592,-4.5599985,0.7155419,0.35777095,-0.59999979,0
6.9777632,-1.4952352,2.6144009,0.91812676,-0.19674148,0.34400013,0
3.9921815,5.9014845,-2.6447995,0.52528703,0.77651113,-0.34799993,0
5.7296057,-3.1663611,-3.8608,0.75389552,-0.41662645,-0.50800002,0
-1.5047213,1.5047214,-7.2960005,-0.19798964,0.19798966,-0.9600001,0
6.5747685,0.52598101,3.7756801,0.86510116,0.069208026,0.49680001,0
5.6751614,-4.4414306,2.4137592,0.74673176,-0.58439875,0.31759989,0
3.8108063,5.8432379,3.0156798,0.50142187,0.76884711,0.39679998,0
4.0831537,6.3515716,0.86336082,0.53725708,0.83573312,0.11360011,0
-2.107569,-1.6212071,-7.1196795,-0.27731171,-0.21331672,-0.93679994,0
-1.5164483,0.41070473,-7.4358392,-0.19953267,0.054040097,-0.97839993,0
1.8955564,-6.4764843,-3.4959998,0.24941532,-0.85216898,-0.45999998,0
6.9148021,2.6228561,1.751039,0.90984237,0.34511265,0.23039988,0
-0.60641748,0.90962481,7.5209599,-0.079791777,0.11968748,0.9896,0
-0.93896174,7.3238993,-1.7996794,-0.1235476,0.96367097,-0.23679993,0
-4.5043893,2.8152442,5.4355197,-0.59268278,0.37042686,0.71519995,0
6.3820424,-3.9887764,-1.0579194,0.83974242,-0.52483898,-0.13919993,0
7.4696307,1.1317625,0.82688057,0.98284614,0.14891613,0.10880008,0
6.7635732,-3.3817866,0.75999945,0.88994384,-0.44497192,0.099999927,0
-5.5070167,-1.9274557,4.8700805,-0.72460747,-0.25361258,0.64080006,0
-4.9742351,-1.9665579,-5.3990402,-0.6545046,-0.25875762,-0.71040004,0
1.6397747,-7.1056919,-2.1401589,0.21575983,-0.93495947,-0.28159985,0
1.4696505,-7.1033111,2.2678392,0.19337507,-0.93464619,0.2983999,0
-7.0146971,-2.5720558,1.3923193,-0.92298645,-0.33842841,0.18319991,0
-6.5747685,0.52598101,3.7756801,-0.86510116,0.069208026,0.49680001,0
0.53282398,-6.3938942,4.0735998,0.070108421,-0.84130186,0.53599995,0
2.1066122,-0.30094436,7.296,0.27718583,-0.039597943,0.96000004,0
3.4799702,-2.6099777,6.2319999,0.45789084,-0.34341812,0.81999999,0
-0.90834451,-7.4938436,0.88160068,-0.11951902,-0.98603207,0.11600009,0
5.0671425,-5.3084354,1.9760005,0.66672927,-0.69847834,0.26000008,0
-0.28775826,-6.3306785,-4.1952,-0.03786293,-0.83298403,-0.55199999,0
-2.8535545,-6.8485308,-1.6476808,-0.37546769,-0.90112251,-0.21680011,0
1.9446777,-7.3465624,0.07904014,0.25587866,-0.96665293,0.010400019,0
-0.19013962,7.415452,-1.6537592,-0.025018372,0.97571737,-0.2175999,0
2.6712096,1.780807,6.8886404,0.35147494,0.23431672,0.90640008,0
4.3776002,-5.8367996,-2.128,0.57600003,-0.76799995,-0.28,0
-4.1232085,4.5355291,-4.4931197,-0.54252744,0.59678018,-0.59119999,0
6.684237,-1.6303015,-3.2284813,0.87950486,-0.21451336,-0.42480019,0
5.7689176,4.5670595,1.9030397,0.75906807,0.60092884,0.25039995,0
-1.6047055,-6.1513705,4.1648002,-0.21114546,-0.80939084,0.54800004,0
-2.7281792,-4.9603257,-5.0707202,-0.35897094,-0.65267444,-0.66720003,0
-1.0722888,7.148591,-2.3468788,-0.14109063,0.94060409,-0.30879983,0
-3.2300751,1.8457572,-6.6272011,-0.42500988,0.24286281,-0.87200016,0
-1.7140317,-4.4363179,-5.9279995,-0.22553049,-0.58372605,-0.77999997,0
-6.9777637,-1.4952351,2.6143999,-0.91812682,-0.19674146,0.34399998,0
5.1549225,-5.5844989,-0.012159977,0.67827928,-0.73480248,-0.001599997,0
1.5047183,1.5047183,-7.2960019,0.19798926,0.19798926,-0.96000028,0
7.0643215,2.3547742,1.5199993,0.92951602,0.30983871,0.1999999,0
-2.1031702,-0.90135872,7.2473598,-0.27673292,-0.11859983,0.95359999,0
2.3648763,1.5573574,-7.0528007,0.31116793,0.20491545,-0.92800009,0
3.4310706,5.5195479,-3.9398408,0.45145667,0.72625631,-0.51840013,0
4.0495496,6.193428,1.7327999,0.53283548,0.81492478,0.22799999,0
5.8652558,-4.8178887,-0.38303873,0.77174419,-0.63393271,-0.050399832,0
-4.8410816,-0.20600358,-5.8550401,-0.63698441,-0.027105732,-0.77039999,0
1.1764452,3.5293341,6.6271996,0.15479542,0.46438608,0.87199998,0
4.3558607,3.8434072,-4.9004793,0.57313955,0.5057115,-0.64479995,0
6.355063,3.3540609,-2.4745605,0.83619249,0.44132382,-0.32560006,0
3.3978448,-6.7956882,-0.18240023,0.44708484,-0.89416951,-0.02400003,0
-4.5590878,-6.0787835,0.15199974,-0.59988004,-0.79983997,0.019999968,0
4.7482538,-5.8787909,0.80864084,0.62477022,-0.77352512,0.10640011,0
3.6218789,-6.481257,-1.62336,0.47656301,-0.85279697,-0.21360001,0
-5.54673,-0.98608553,-5.1011195,-0.72983289,-0.12974809,-0.67119992,0
-0.11898786,5.4734464,-5.2713585,-0.015656298,0.72019035,-0.69359988,0
-5.6982088,4.5953298,-2.0428801,-0.74976432,0.60464865,-0.26880002,0
-2.6027794,6.8787751,-1.9152,-0.34247097,0.90510201,-0.252,0
4.5420494,2.271024,5.6543994,0.59763807,0.29881895,0.74399996,0
1.4952351,-5.4825287,-5.0464001,0.19674145,-0.7213853,-0.66399997,0
-1.1205686,5.3227024,5.3078399,-0.14744325,0.70035559,0.69840002,0
3.7145169,6.6035852,-0.59583986,0.48875222,0.86889279,-0.078399986,0
-0.1442638,-6.3476133,-4.17696,-0.018982079,-0.83521229,-0.54960001,0
0.57126063,4.8557205,5.8185596,0.075165875,0.63891059,0.76559997,0
-4.6438942,5.5369511,-2.3529599,-0.61103874,0.7285462,-0.3096,0
7.3850603,-0.56808162,-1.7023993,0.97171849,-0.074747585,-0.2239999,0
2.3604181,2.6554701,6.7184005,0.31058133,0.34940398,0.88400006,0
3.8128095,0.58658552,6.5481601,0.50168544,0.077182308,0.86160004,0
-2.1516242,-2.3472266,-6.9007998,-0.28310844,-0.30884561,-0.90799999,0
6.194139,0.80793035,4.3289595,0.8150183,0.10630663,0.56959993,0
0.76564485,6.89081,3.1129606,0.10074274,0.90668553,0.40960008,0
-6.2454891,4.2308149,-0.92415953,-0.8217749,0.55668616,-0.12159994,0
6.6544065,-2.8775811,-2.2800002,0.87557983,-0.37862909,-0.30000004,0
3.5777841,4.7703791,-4.7119999,0.47076106,0.62768149,-0.62,0
-4.6606045,-0.49580911,-5.9827199,-0.61323744,-0.065238044,-0.78719997,0
0.84771788,-2.1663902,-7.2352004,0.11154183,-0.28505135,-0.95200008,0
5.2354698,-5.2354693,1.7145592,0.68887764,-0.68887758,0.2255999,0
1.1822128,3.2510839,6.7670398,0.15555432,0.42777419,0.89039999,0
-3.2102344,-5.3038654,-4.3958392,-0.42239928,-0.69787705,-0.5783999,0
2.448209,4.562571,-5.5632019,0.32213277,0.60033828,-0.73200023,0
-6.481257,3.6218789,-1.62336,-0.85279697,0.47656301,-0.21360001,0
4.5585408,-5.3182974,2.9487996,0.59980804,-0.69977599,0.38799995,0
-3.3059213,6.8322372,0.3891198,-0.43498966,0.89897859,0.051199976,0
-7.0191751,1.0027398,2.7359998,-0.9235757,0.13193944,0.35999998,0
0.5444566,-7.259428,-2.1827202,0.071639024,-0.95518792,-0.28720003,0
5.9175115,-3.1144795,-3.6115193,0.77861995,-0.40979993,-0.47519991,0
5.1189857,-0.77897608,-5.5631986,0.67355072,-0.10249685,-0.73199981,0
-5.7063966,3.6313429,3.4656003,-0.75084168,0.47780827,0.45600003,0
5.2081685,-3.8689246,-3.9580808,0.68528533,-0.50906903,-0.52080011,0
-2.0151322,6.3554173,-3.6480012,-0.26514897,0.8362391,-0.48000017,0
4.4152689,-4.2772918,-4.4687996,0.58095646,-0.5628016,-0.588,0
-1.6459067,3.8115735,-6.3657598,-0.21656667,0.50152284,-0.83759999,0
7.3916845,0.23844121,1.7510399,0.97259009,0.031373844,0.23039998,0
6.4684887,2.0699158,3.4108801,0.85111696,0.27235734,0.44880003,0
-0.89924431,-7.1939526,-2.2800004,-0.11832162,-0.94657272,-0.30000007,0
-2.5184562,-7.0974669,1.0214397,-0.33137584,-0.93387723,0.13439997,0
-7.43993,-1.3527147,0.76000065,-0.97893816,-0.17798877,0.10000008,0
-5.7242804,1.9080932,4.6208,-0.75319481,0.2510649,0.60799998,0
5.1455989,5.5572462,-0.63231939,0.6770525,0.73121661,-0.083199918,0
-2.562803,0.26151055,-7.1500807,-0.33721092,0.034409285,-0.94080013,0
-2.3962302,0.89858526,7.1561599,-0.31529346,0.1182349,0.94160002,0
-2.8398221,6.8629036,1.6111991,-0.3736608,0.90301365,0.21199989,0
-3.4888813,-4.4857049,-5.0464005,-0.45906335,-0.59022433,-0.66400009,0
1.3330861,-0.77505004,-7.4419203,0.17540607,-0.10198027,-0.97920007,0
5.688684,-5.0322971,0.27360061,0.74851108,-0.66214436,0.03600008,0
-5.3770375,5.0062065,-1.9456002,-0.70750493,0.65871137,-0.25600001,0
2.689085,-0.59757495,7.0832,0.35382697,-0.078628287,0.93199998,0
7.4441028,1.2071518,-0.94240022,0.97948724,0.15883577,-0.12400003,0
-2.7855291,2.071291,-6.7609601,-0.36651701,0.27253827,-0.88960004,0
5.7866778,-4.89642,0.54720032,0.76140499,-0.64426577,0.072000042,0
-0.41070256,1.5164404,-7.4358411,-0.05403981,0.19953163,-0.97840017,0
-4.2100434,-3.3680346,5.3564796,-0.55395311,-0.44316244,0.70479995,0
6.9753866,-1.0207882,-2.8393612,0.91781402,-0.13431424,-0.37360016,0
-2.2227366,6.07548,-3.9884813,-0.29246536,0.79940528,-0.52480018,0
-7.4111781,1.1579969,1.2220802,-0.97515506,0.15236801,0.16080004,0
2.4823823,4.8465567,-5.3017607,0.32662925,0.63770485,-0.69760013,0
-4.6624522,-4.9214773,3.4351997,-0.61348057,-0.6475628,0.45199996,0
-2.9113934,5.8227868,3.9215989,-0.3830781,0.7661562,0.51599985,0
0.29348177,3.8152664,6.5664001,0.038616024,0.50200874,0.86400002,0
5.8367996,4.3776002,-2.128,0.76799995,0.57600003,-0.28,0
-4.8576078,-5.0251112,-2.9852812,-0.63915896,-0.66119885,-0.39280015,0
-6.5183015,1.5643924,3.58112,-0.85767126,0.20584111,0.47120002,0
2.1947365,-5.4868417,4.7788806,0.28878111,-0.72195286,0.62880009,0
-6.3588314,-1.3247567,3.9459195,-0.83668834,-0.1743101,0.51919997,0
-5.4900751,-5.0979266,-1.2767997,-0.72237831,-0.67077982,-0.16799995,0
-2.3813896,-4.2450857,-5.8367996,-0.31334075,-0.55856389,-0.76799995,0
3.1265333,6.6208935,-2.0368009,0.41138595,0.87117022,-0.26800013,0
3.8194497,5.8122058,-3.0643215,0.50255919,0.76476395,-0.40320021,0
-2.6712105,-1.780807,6.8886399,-0.35147506,-0.23431672,0.90640002,0
5.4737697,-5.2632403,-0.31007969,0.72023278,-0.69253159,-0.040799957,0
5.986176,4.3100467,1.8300798,0.78765476,0.56711143,0.24079998,0
-5.5604582,0.83406794,5.1132803,-0.73163927,0.10974579,0.67280006,0
-6.5747685,0.52598101,3.7756801,-0.86510116,0.069208026,0.49680001,0
-6.5110927,-2.5042665,-3.0156794,-0.85672271,-0.32950875,-0.39679992,0
-4.6041298,-0.57551652,6.0191998,-0.60580653,-0.075725861,0.792,0
6.9456329,1.959025,-2.3833594,0.91389906,0.25776646,-0.31359994,0
-3.3968811,5.748569,3.6297593,-0.44695804,0.75639069,0.47759992,0
2.392771,-1.1963855,7.1136003,0.31483829,-0.15741915,0.93600005,0
-2.400176,0.30002168,7.2047997,-0.31581265,0.039476536,0.94799995,0
-1.6428379,-7.2754254,1.4591999,-0.21616288,-0.95729285,0.19199999,0
6.0783548,4.5024853,0.73568088,0.79978353,0.59243226,0.096800119,0
-2.8398418,-6.1960182,3.3622396,-0.3736634,-0.81526554,0.44239995,0
-3.7157207,3.1440718,5.8367996,-0.48891062,0.41369367,0.76799995,0
-5.6751609,4.4414306,2.4137602,-0.74673176,0.58439881,0.31760004,0
-1.5573574,2.3648763,-7.0528007,-0.20491545,0.31116793,-0.92800009,0
1.1559044,-4.3346391,6.1347198,0.15209268,-0.57034725,0.80720001,0
-6.0487871,-2.6299074,3.7756803,-0.79589307,-0.34604046,0.49680004,0
-3.0507729,-6.9150853,-0.79648024,-0.40141749,-0.90987968,-0.10480003,0
0.7134608,7.3724356,1.7024,0.093876421,0.97005731,0.22399999,0
0.4297055,-6.3023534,-4.2255998,0.056540199,-0.82925701,-0.55599999,0
-0.58317339,4.0822115,6.3840003,-0.076733343,0.5371331,0.84000003,0
-7.5716143,-0.64899552,0.097280249,-0.99626505,-0.085394152,0.012800033,0
3.2372963,-1.7657979,6.6454396,0.42596006,-0.23234183,0.87439996,0
5.7583532,1.371037,4.7667203,0.75767809,0.18039961,0.62720007,0
0.52612108,2.1044843,-7.2838411,0.069226459,0.27690583,-0.95840019,0
4.7461982,5.6954379,-1.6720004,0.62449974,0.74939972,-0.22000006,0
0.11852085,2.9037638,-7.0224004,0.015594848,0.38207418,-0.92400008,0
5.9097104,2.1489849,4.2681594,0.77759349,0.28276119,0.56159991,0
7.5916972,0.21088028,-0.28576061,0.99890757,0.027747406,-0.037600081,0
4.8557205,0.57126063,5.8185596,0.63891059,0.075165875,0.76559997,0
-6.0709949,-0.96584004,-4.4687996,-0.79881513,-0.12708421,-0.58799994,0
-2.3659246,-3.6398842,-6.23808,-0.31130588,-0.47893214,-0.82080001,0
-4.7252588,-3.0575211,5.1072001,-0.62174457,-0.40230542,0.67200005,0
-7.259428,-0.54445714,-2.1827202,-0.95518792,-0.071639098,-0.28720003,0
-3.189445,6.8345261,0.93631977,-0.41966382,0.89927977,0.12319997,0
1.4902078,-7.4510393,-0.14591968,0.19607997,-0.98039991,-0.019199958,0
4.3374233,4.3374233,4.4870391,0.57071358,0.57071358,0.59039986,0
-7.3844724,0.47641709,1.7327999,-0.97164112,0.062686458,0.22799999,0
-3.6003571,-3.6003571,-5.6422386,-0.47373119,-0.47373119,-0.74239981,0
-6.2282915,-3.487843,2.6083202,-0.81951207,-0.45892671,0.34320003,0
-4.8576078,5.0251112,-2.9852812,-0.63915896,0.66119885,-0.39280015,0
7.4508162,-0.78429627,-1.2767997,0.98037058,-0.10319688,-0.16799995,0
-1.0207882,6.9753866,-2.8393612,-0.13431424,0.91781402,-0.37360016,0
0.30094436,-2.1066122,7.296,0.039597943,-0.27718583,0.96000004,0
0,-3.5413797,6.7244797,0,-0.46597102,0.88479996,0
1.0442387,-6.4146099,-3.9398403,0.13739982,-0.84402764,-0.51840007,0
0.9101733,0.3033911,7.5391998,0.11975965,0.039919883,0.99199998,0
3.8147337,-6.569819,-0.21280025,0.50193864,-0.86444986,-0.028000033,0
5.1894073,-3.0043941,4.6694398,0.68281674,-0.39531502,0.61439997,0
-6.621572,-2.9429212,2.2921605,-0.87125951,-0.38722646,0.30160007,0
2.1066122,-0.30094436,7.296,0.27718583,-0.039597943,0.96000004,0
-5.6964898,-4.7470741,1.66592,-0.74953812,-0.62461501,0.2192,0
3.3398743,-3.7708256,-5.6908798,0.43945715,-0.49616128,-0.74879998,0
1.8666592,-6.7878509,-2.8636804,0.24561305,-0.89313829,-0.37680006,0
-3.9044912,-6.4309273,1.0761602,-0.51374882,-0.84617466,0.14160003,0
-2.6907556,0.29897255,7.10144,-0.35404679,0.039338492,0.93440002,0
-0.83406878,-5.5604582,5.1132803,-0.10974589,-0.73163927,0.67280006,0
7.43993,1.3527147,0.76000065,0.97893816,0.17798877,0.10000008,0
-4.0537133,-2.1233735,-6.0678406,-0.53338331,-0.27939126,-0.7984001,0
0,7.5366964,0.97888064,0,0.99167061,0.12880008,0
4.5243049,2.5449204,5.5510397,0.5953033,0.33485797,0.73039997,0
7.4762936,-1.3193461,0.35264108,0.98372287,-0.17359817,0.046400141,0
6.5110927,2.5042663,-3.0156789,0.85672271,0.32950872,-0.39679986,0
2.6350954,-2.9278843,6.4995203,0.34672308,-0.38524795,0.85520005,0
5.6866684,3.6331496,-3.496001,0.74824584,0.478046,-0.46000013,0
0.27582008,5.7922263,4.9126406,0.036292117,0.76213503,0.64640009,0
5.5467305,0.98608524,-5.101119,0.72983295,0.12974806,-0.67119986,0
1.8025949,7.030118,-2.2556796,0.23718354,0.92501551,-0.29679996,0
1.7751932,6.2131763,-4.0006409,0.23357806,0.81752318,-0.52640015,0
-4.7252588,3.0575211,5.1072001,-0.62174457,0.40230542,0.67200005,0
5.8368001,4.3776002,2.1279995,0.76800001,0.57600003,0.27999994,0
-3.2039642,-3.3010542,-6.0495992,-0.42157423,-0.43434924,-0.79599988,0
1.7930845,6.6600285,3.1920004,0.23593217,0.87631953,0.42000005,0
-4.1530361,-5.958704,-2.2374389,-0.54645211,-0.78404003,-0.29439986,0
4.1306791,-5.4215159,3.3622391,0.54351044,-0.71335739,0.44239989,0
0,7.0521288,2.833281,0,0.9279117,0.37280014,0
2.9259903,5.7056813,-4.079679,0.38499874,0.75074756,-0.53679985,0
2.9785802,0,6.9919996,0.39191845,0,0.91999996,0
-4.0662379,-6.4203763,-0.066880383,-0.53503132,-0.84478635,-0.0088000502,0
7.0242124,-0.85661143,-2.7724814,0.9242385,-0.11271203,-0.36480018,0
3.487843,-6.2282915,2.6083202,0.45892671,-0.81951207,0.34320003,0
-5.6306443,-1.4076613,-4.9065599,-0.74087429,-0.1852186,-0.64560002,0
1.3330861,0.77505004,-7.4419203,0.17540607,0.10198027,-0.97920007,0
0.28795049,-4.6072121,6.0374398,0.037888221,-0.60621214,0.79439998,0
2.9899693,-6.8999295,1.1004796,0.393417,-0.90788549,0.14479995,0
2.1053221,-0.60152102,7.27776,0.27701607,-0.079147503,0.9576,0
7.0005698,1.2501022,2.6812809,0.92112762,0.16448712,0.35280013,0
-2.44821,-4.5625734,-5.5631995,-0.32213289,-0.60033864,-0.73199993,0
5.6982088,4.5953298,-2.0428801,0.74976432,0.60464865,-0.26880002,0
-7.063911,-0.6891619,-2.7177598,-0.92946196,-0.090679199,-0.35759997,0
-3.7955661,-1.4598335,6.4204798,-0.49941659,-0.19208336,0.8448,0
-2.091511,-1.7927239,7.0832,-0.27519882,-0.23588473,0.93199998,0
4.6583195,-4.9795828,-3.3561609,0.61293679,-0.65520829,-0.44160011,0
0.56931692,6.2624826,-4.2681599,0.074910119,0.82401091,-0.56159997,0
6.07548,-2.2227366,-3.9884813,0.79940528,-0.29246536,-0.52480018,0
0,-0.60751373,7.5756798,0,-0.07993602,0.99680001,0
6.9097104,-3.1407778,-0.38911945,0.90917242,-0.41326025,-0.051199928,0
-0.87009877,-5.003067,-5.6544003,-0.11448669,-0.65829831,-0.74400008,0
3.4259284,1.55724,-6.6028795,0.45078006,0.2049,-0.86879992,0
-4.1905413,3.1712201,-5.4902391,-0.55138701,0.4172658,-0.72239989,0
-1.4096429,3.7314079,-6.4691191,-0.18547934,0.49097472,-0.85119987,0
0.4297055,6.3023534,-4.2255998,0.056540199,0.82925701,-0.55599999,0
3.2267792,-5.377965,4.29248,0.42457622,-0.707627,0.56480002,0
-3.5383732,0.51601273,-6.7062392,-0.46557543,0.067896411,-0.88239992,0
-6.3738818,1.0623142,4.0006394,-0.83866864,0.13977818,0.52639991,0
-4.4453826,0.6620782,-6.1286397,-0.5849188,0.087115556,-0.80639994,0
2.2746677,-3.8858905,-6.12256,0.29929838,-0.5113014,-0.80559999,0
0.5794844,4.3461361,6.2076802,0.076247953,0.57186007,0.81680012,0
-0.39753178,-3.816304,-6.5603194,-0.052306812,-0.50214529,-0.86319995,0
3.566344,6.6868944,0.57151908,0.46925581,0.87985456,0.07519988,0
4.7601509,2.9293239,-5.1497598,0.62633568,0.38543737,-0.67759997,0
3.8115735,-1.6459067,-6.3657598,0.50152284,-0.21656667,-0.83759999,0
6.8435631,-2.4441297,2.225281,0.90046883,-0.32159603,0.29280013,0
0.90375388,-1.8075095,7.3263998,0.11891498,-0.23783021,0.96399999,0
-2.6102958,2.936583,-6.5056005,-0.34345996,0.3863925,-0.85600007,0
2.3648763,-1.5573574,-7.0528007,0.31116793,-0.20491545,-0.92800009,0
-4.6397009,-3.8209302,4.6512003,-0.61048698,-0.50275397,0.61200005,0
4.3711104,-4.0979156,4.6755195,0.57514614,-0.53919941,0.61519992,0
0.6031158,-1.8093492,7.3568001,0.079357341,-0.23807226,0.96799999,0
-1.5164483,0.41070473,-7.4358392,-0.19953267,0.054040097,-0.97839993,0
2.9381118,-3.4120009,-6.1225605,0.38659367,-0.44894749,-0.80560005,0
2.97299,-0.89189684,6.9372797,0.3911829,-0.11735485,0.91279995,0
6.3476133,-0.1442638,-4.17696,0.83521229,-0.018982079,-0.54960001,0
-6.9618497,-2.4006376,1.8787193,-0.91603285,-0.31587338,0.24719991,0
7.2937198,0.24312375,2.1219196,0.95969999,0.031989969,0.27919996,0
6.6637745,-3.6543276,1.811981e-07,0.87681246,-0.48083258,2.3841856e-08,0
-0.91017419,0.3033911,7.5391998,-0.11975976,0.039919883,0.99199998,0
2.7354534,5.2103872,-4.809278,0.35992807,0.68557727,-0.63279974,0
-1.2637033,-2.2641351,-7.1440005,-0.16627675,-0.29791251,-0.94000006,0
2.3646648,-0.28955081,-7.2169604,0.31114012,-0.03809879,-0.94960004,0
-0.73283559,-4.3054085,-6.21984,-0.096425734,-0.56650114,-0.81840003,0
3.775763,-2.033103,6.27456,0.49681094,-0.26751354,0.82560003,0
-0.24312375,7.2937198,2.1219196,-0.031989969,0.95969999,0.27919996,0
-0.6891619,-7.063911,-2.7177598,-0.090679199,-0.92946196,-0.35759997,0
6.9618497,-2.4006376,1.8787193,0.91603285,-0.31587338,0.24719991,0
2.3986962,0.59967363,7.1865602,0.31561792,0.078904428,0.94560003,0
7.0396709,-2.725034,0.88159984,0.92627251,-0.35855711,0.11599998,0
1.2467411,-7.4804459,-0.49856064,0.16404487,-0.9842692,-0.065600082,0
-6.8594522,1.2702693,3.0156806,-0.90255952,0.16714069,0.39680007,0
1.67917,4.9255662,-5.5388794,0.22094342,0.64810085,-0.72879994,0
-0.65257388,6.8520274,-3.2224007,-0.085864983,0.90158254,-0.42400008,0
-5.4825287,1.4952351,-5.0464001,-0.7213853,0.19674145,-0.66399997,0
6.2665892,4.2523289,0.63840103,0.82455122,0.55951697,0.08400014,0
-2.7141786,0.22156571,-7.0953608,-0.35712877,0.029153382,-0.93360013,0
-7.259428,-0.54445714,-2.1827202,-0.95518792,-0.071639098,-0.28720003,0
-7.4053173,-1.6926444,-0.23711987,-0.97438389,-0.22271636,-0.031199982,0
-2.8766179,6.0147462,3.6479993,-0.37850237,0.79141396,0.4799999,0
2.3927701,1.1963851,-7.1136007,0.31483817,0.1574191,-0.93600011,0
0.41070473,-1.5164483,-7.4358392,0.054040097,-0.19953267,-0.97839993,0
2.3986962,0.59967363,7.1865602,0.31561792,0.078904428,0.94560003,0
7.2134533,1.4426906,1.9091195,0.94913858,0.18982771,0.25119993,0
1.3413041,-0.55401695,-7.4601588,0.17648739,-0.072896965,-0.98159987,0
-0.84771985,2.1663949,-7.235199,-0.11154208,0.28505197,-0.9519999,0
7.4519272,0.69861752,1.3193604,0.98051673,0.091923356,0.17360005,0
-1.3505676,7.3316531,-1.4774396,-0.17770626,0.96469122,-0.19439995,0
3.8257165,-6.5262222,0.72959888,0.50338376,-0.85871345,0.095999852,0
1.8875729,5.9323735,4.3593593,0.24836485,0.78057545,0.57359993,0
0.18229845,-7.2919455,-2.1340802,0.023986639,-0.95946652,-0.28080001,0
6.7497525,2.8927515,1.9577609,0.88812536,0.38062519,0.25760013,0
1.0442387,6.4146099,-3.9398403,0.13739982,0.84402764,-0.51840007,0
-5.4519663,-0.23704214,-5.2896004,-0.71736401,-0.031189756,-0.69600004,0
-7.474751,0,1.3740803,-0.98351985,0,0.18080004,0
-6.5262227,-3.825716,0.72959948,-0.85871351,-0.5033837,0.095999934,0
-5.4308057,1.0861609,-5.2044792,-0.7145797,0.1429159,-0.68479991,0
-3.3398743,-3.7708256,-5.6908798,-0.43945715,-0.49616128,-0.74879998,0
3.8128095,0.58658552,6.5481601,0.50168544,0.077182308,0.86160004,0
-6.7105103,2.4853749,2.5596802,-0.88296187,0.32702303,0.33680004,0
7.4696307,1.1317625,0.82688057,0.98284614,0.14891613,0.10880008,0
-5.7724915,2.0616038,-4.4931202,-0.75953835,0.27126366,-0.59120005,0
3.2613862,0.29648933,6.8582397,0.42912975,0.039011754,0.90239996,0
0.81714308,-5.9923882,4.60256,0.10751883,-0.78847218,0.6056,0
-6.3240037,3.035522,2.92448,-0.83210576,0.39941078,0.38479999,0
0.77707464,6.734653,3.4352005,0.10224666,0.88613856,0.45200005,0
5.4415836,-4.6995487,2.4623992,0.71599787,-0.61836165,0.32399991,0
6.8771086,-1.0188308,3.0704007,0.90488273,-0.13405669,0.4040001,0
7.4519272,-0.69861823,1.3193603,0.98051673,-0.091923453,0.17360003,0
7.3555512,0.94910389,1.6598397,0.96783572,0.12488209,0.21839997,0
4.2523289,6.2665892,0.63840103,0.55951697,0.82455122,0.08400014,0
0,-7.4192419,-1.6476793,0,-0.97621608,-0.21679991,0
1.3330861,0.77505004,-7.4419203,0.17540607,0.10198027,-0.97920007,0
6.1830792,-1.0753179,4.2863994,0.81356305,-0.14148919,0.56399995,0
-1.4160397,2.9669402,-6.85216,-0.18632102,0.39038688,-0.9016,0
-5.2621865,2.215657,5.0160003,-0.69239295,0.29153383,0.66000003,0
-1.9522386,-7.2232828,-1.3315201,-0.25687349,-0.95043194,-0.17520002,0
3.1089437,6.3906064,-2.6934404,0.40907151,0.84086925,-0.35440004,0
-1.5706887,7.404676,0.68096071,-0.20666957,0.97429949,0.089600094,0
-3.1248069,3.977026,5.6726398,-0.4111588,0.5232929,0.7464,0
-7.4441028,-1.2071518,-0.94240022,-0.97948724,-0.15883577,-0.12400003,0
5.7479634,-4.9268265,-0.66879928,0.756311,-0.64826667,-0.08799991,0
0.28355205,5.1039419,5.6239996,0.037309479,0.67157131,0.73999995,0
-7.0748057,1.7077115,2.1887994,-0.93089551,0.22469889,0.28799993,0
2.3604181,-2.6554711,6.7184,0.31058133,-0.3494041,0.884,0
-0.28955081,-2.3646648,-7.2169604,-0.03809879,-0.31114012,-0.94960004,0
-6.3782878,-3.4344625,2.2982404,-0.83924842,-0.45190299,0.30240005,0
-7.0338216,-2.8574901,0.34656036,-0.92550284,-0.37598553,0.045600049,0
5.8367996,-4.6694398,-1.3740807,0.76799995,-0.61439997,-0.1808001,0
5.9340296,1.9780097,-4.3168006,0.78079337,0.26026443,-0.56800008,0
-5.4308057,1.0861609,-5.2044792,-0.7145797,0.1429159,-0.68479991,0
-5.7866778,-4.89642,0.54720032,-0.76140499,-0.64426577,0.072000042,0
3.4654081,2.8878405,6.1164794,0.45597476,0.37997901,0.80479991,0
-2.5548956,6.011519,-3.8851185,-0.33617049,0.79098934,-0.51119983,0
3.3572123,6.7144232,-1.1855992,0.44173846,0.88347673,-0.1559999,0
2.3508768,-2.9385965,6.60288,0.3093259,-0.38665745,0.86879998,0
5.4868417,2.1947365,4.7788806,0.72195286,0.28878111,0.62880009,0
-3.1969471,5.0618324,-4.6816001,-0.42065093,0.66603059,-0.616,0
-0.28775826,-6.3306785,-4.1952,-0.03786293,-0.83298403,-0.55199999,0
4.5043902,-2.8152432,5.4355197,0.59268296,-0.37042674,0.71519995,0
-7.0336113,0.75360048,2.7785599,-0.92547518,0.099157959,0.36559999,0
5.8731666,-3.5891571,-3.2224007,0.77278507,-0.47225752,-0.42400008,0
-6.775423,-2.4962082,-2.3711996,-0.89150304,-0.32844844,-0.31199995,0
3.7141979,5.3059974,3.9763205,0.48871025,0.69815755,0.52320009,0
-5.0758348,-5.5372748,1.1551998,-0.66787302,-0.72858882,0.15199997,0
-5.4094915,2.9752209,4.4323201,-0.71177518,0.39147645,0.58320004,0
-7.5756602,-0.22281332,0.56543988,-0.99679738,-0.029317543,0.074399985,0
-1.0623134,-6.3738818,4.0006399,-0.13977809,-0.83866864,0.52639997,0
-2.3508778,-2.9385965,6.60288,-0.30932602,-0.38665745,0.86879998,0
-1.7930845,6.6600285,3.1920004,-0.23593217,0.87631953,0.42000005,0
-5.2654343,3.9490752,3.8000007,-0.69282031,0.51961517,0.50000012,0
7.4387002,1.4464138,-0.57760054,0.97877634,0.1903176,-0.076000072,0
-4.0489111,-1.4396129,-6.2684793,-0.53275144,-0.18942274,-0.8247999,0
-6.1454639,3.687278,-2.5292792,-0.80861366,0.48516816,-0.33279991,0
-2.6935093,4.6843638,-5.3443184,-0.35440913,0.61636364,-0.7031998,0
-3.3719616,-4.7985611,-4.8336,-0.44367912,-0.63138956,-0.63599998,0
3.1144795,5.9175115,-3.6115193,0.40979993,0.77861995,-0.47519991,0
-0.30174172,1.8104521,7.3750401,-0.039702859,0.23821738,0.97040004,0
6.4546409,3.5859113,1.7996811,0.84929484,0.47183043,0.23680015,0
-1.1155266,-6.6931601,-3.4230409,-0.14677981,-0.88067895,-0.45040011,0
2.7150455,-6.2286329,-3.4047997,0.35724282,-0.81955695,-0.44799995,0
-6.0754814,2.2227366,-3.9884794,-0.79940546,0.29246536,-0.52479994,0
-0.88459301,-3.4646559,-6.7062397,-0.11639382,-0.45587578,-0.88239998,0
-3.7314079,-1.4096429,-6.4691191,-0.49097472,-0.18547934,-0.85119987,0
-3.2055497,6.2423863,-2.9184,-0.42178285,0.82136661,-0.384,0
-3.8347785,1.1671064,-6.4569602,-0.50457615,0.15356663,-0.84960002,0
-5.7689176,-4.5670595,1.9030397,-0.75906807,-0.60092884,0.25039995,0
1.2118592,0.30296433,7.4966397,0.15945517,0.039863728,0.98639995,0
-0.57919705,2.527405,-7.144001,-0.076210141,0.3325533,-0.94000012,0
-4.7097363,4.7097363,3.6601596,-0.61970216,0.61970216,0.48159996,0
2.2584887,-6.4528251,-3.31968,0.29716957,-0.84905595,-0.4368,0
-1.2637033,-2.2641351,-7.1440005,-0.16627675,-0.29791251,-0.94000006,0
5.5391431,-1.3847862,5.0160003,0.72883463,-0.18220872,0.66000003,0
4.4560132,6.153543,-0.1945602,0.58631754,0.80967671,-0.025600027,0
-4.0642877,4.6061931,4.4748793,-0.53477472,0.60607809,0.58879995,0
-2.2710247,4.5420494,5.6543994,-0.29881904,0.59763807,0.74399996,0
-0.56808162,7.3850603,-1.7023993,-0.074747585,0.97171849,-0.2239999,0
-5.9899879,4.4441848,-1.4592006,-0.78815633,0.58476114,-0.19200009,0
4.9887285,-5.6690087,0.85727924,0.65641165,-0.74592221,0.11279991,0
6.0464306,4.4185457,1.2950404,0.79558301,0.58138758,0.17040005,0
4.7540317,-4.4899182,3.8729601,0.62553042,-0.59077871,0.50959998,0
6.2509022,-2.960954,-3.1494398,0.82248712,-0.3895992,-0.41439998,0
-1.4464138,-7.4387002,-0.57760054,-0.1903176,-0.97877634,-0.076000072,0
2.6099768,3.4799702,6.2320004,0.343418,0.45789084,0.82000005,0
-1.6729174,5.2975712,5.1862402,-0.22012071,0.69704884,0.68240005,0
-6.1642022,-4.3377724,0.97280067,-0.81107926,-0.57075953,0.1280001,0
-5.9148216,-2.308223,-4.1769595,-0.77826601,-0.30371356,-0.54959995,0
0,-6.9277425,-3.1251209,0,-0.9115451,-0.41120011,0
-6.1642022,4.3377724,0.97280067,-0.81107926,0.57075953,0.1280001,0
-4.6041298,-0.57551652,6.0191998,-0.60580653,-0.075725861,0.792,0
5.4825287,1.4952351,-5.0464001,0.7213853,0.19674145,-0.66399997,0
-7.5126214,-0.68296564,0.92416066,-0.9885028,-0.089863904,0.12160009,0
-3.596976,6.2947087,-2.2800007,-0.47328633,0.82825118,-0.3000001,0
6.2096419,4.3467488,-0.55327988,0.81705815,0.57194066,-0.072799988,0
4.4949007,5.9143434,1.6051201,0.5914343,0.77820307,0.21120001,0
-0.84027207,3.9492793,-6.4387217,-0.11056212,0.519642,-0.84720021,0
-5.8915639,-3.586169,3.1920004,-0.77520579,-0.47186434,0.42000005,0
4.6072125,0.28795046,6.0374393,0.6062122,0.037888218,0.79439992,0
