3.2519631,-7.0042281,1.8889199,0.40905198,-0.88103503,0.2376,0
3.8431871,5.764781,3.8986807,0.48341978,0.72512972,0.49040011,0
1.8151977,6.0041161,-4.88448,0.22832677,0.75523472,-0.61440003,0
6.5154777,2.8400805,-3.5615995,0.81955695,0.35724285,-0.44799995,0
-1.995966,5.9878979,4.8336005,-0.2510649,0.75319469,0.6080001,0
-2.6407404,6.8659253,3.0146403,-0.33216861,0.8636384,0.37920004,0
-3.0642269,-4.9793682,-5.3869195,-0.38543734,-0.62633562,-0.67759997,0
-4.546288,0.60617113,6.4935598,-0.57186013,0.076247945,0.8168,0
1.2587023,1.8880526,7.6192799,0.15832734,0.23749089,0.95840001,0
-3.8115876,-6.9085031,0.97307926,-0.47944498,-0.86899412,0.12239991,0
-6.2917404,3.0090938,3.816,-0.7914139,0.37850237,0.48000002,0
-1.7873185,7.5464554,-1.7489997,-0.22481994,0.94923967,-0.21999997,0
-2.9247978,-7.311995,-1.0875595,-0.36789909,-0.91974783,-0.13679993,0
5.0904222,0.10830674,-6.1056018,0.64030463,0.013623489,-0.76800019,0
-3.8868392,3.2888646,6.1055999,-0.48891059,0.41369367,0.76800001,0
-5.5617099,1.6432325,-5.4377995,-0.69958621,0.20669593,-0.68400002,0
-7.7320914,-0.24942206,1.8316798,-0.97259015,-0.031373844,0.23039998,0
-2.8782074,-6.8357425,-2.8619995,-0.36203867,-0.85984182,-0.35999995,0
7.019547,2.599833,2.6775603,0.88296187,0.327023,0.33680004,0
-6.8149257,3.5336652,2.0670009,-0.85722339,0.4444862,0.26000011,0
-6.1813502,-3.5083342,-3.5616004,-0.77752835,-0.44129992,-0.44800007,0
5.1809602,-5.4400091,2.6012399,0.65169311,-0.68427789,0.3272,0
-1.9940808,7.4778023,1.8189594,-0.25082779,0.94060409,0.22879992,0
-3.1036537,7.3157558,-0.22259904,-0.39039668,0.92022091,-0.02799988,0
4.709012,5.7554593,2.8111191,0.59232855,0.72395718,0.35359991,0
0.30328569,4.5492892,6.5126405,0.038149145,0.57223767,0.8192001,0
-6.8659253,-2.6407404,3.0146403,-0.8636384,-0.33216861,0.37920004,0
3.5470331,4.1382046,5.7876,0.44616771,0.52052891,0.72800004,0
6.6720247,3.5926285,2.4040806,0.83924842,0.45190296,0.30240008,0
-7.4579182,0.18190028,-2.7475197,-0.93810296,0.022880539,-0.34559998,0
6.1055999,4.88448,-1.4373608,0.76800001,0.61440003,-0.1808001,0
7.7119555,0.74631757,1.7808,0.97005731,0.093876429,0.22400001,0
4.3442945,6.2331176,-2.3404799,0.54645216,0.78403997,-0.29439998,0
-4.76754,-2.0857985,6.0102,-0.59969056,-0.2623646,0.75600004,0
4.0373473,-5.9214435,3.4407604,0.50784242,-0.74483567,0.43280005,0
3.9496469,-2.1267328,6.56352,0.49681094,-0.26751357,0.82560003,0
-3.8259242,-5.5093312,-4.2675605,-0.48124832,-0.69299763,-0.53680009,0
-6.2959819,-1.6106002,-4.5792003,-0.79194742,-0.20259123,-0.57600003,0
-3.7996831,-5.2611003,-4.5919204,-0.47794756,-0.66177362,-0.57760006,0
2.3624978,-6.7499948,-3.4725599,0.29716954,-0.84905595,-0.4368,0
1.7184714,6.157856,-4.7254806,0.21615992,0.77457303,-0.59440005,0
-5.2765775,-5.9361491,-0.34979963,-0.66372043,-0.74668545,-0.043999955,0
-0.94633716,-6.782083,-4.0386004,-0.11903612,-0.85309225,-0.50800008,0
-4.3703341,-3.1052375,-5.8702788,-0.54972756,-0.39059591,-0.73839986,0
-7.8577147,-0.84948248,-0.85860014,-0.98839182,-0.10685314,-0.10800002,0
3.8882449,6.8044267,1.3356005,0.4890874,0.85590273,0.16800007,0
-6.583015,-2.1943386,3.8795996,-0.82805222,-0.27601743,0.48799995,0
-3.004035,6.1661768,-4.0195193,-0.37786606,0.77561975,-0.50559992,0
-1.9687561,-6.3605971,-4.3438807,-0.24764228,-0.80007511,-0.54640007,0
1.8942126,0,7.7210398,0.23826574,0,0.97119999,0
-6.8782153,2.23542,-3.3008401,-0.86518431,0.28118491,-0.41520002,0
7.1674547,2.2053709,-2.6393993,0.90156662,0.27740514,-0.33199993,0
-7.2130647,3.0913129,-1.2719992,-0.90730375,0.3888444,-0.15999991,0
-4.7962155,6.3222847,-0.47700074,-0.60329759,0.79525596,-0.060000096,0
-2.8175526,4.9000912,-5.5904384,-0.35440913,0.6163637,-0.7031998,0
-7.0312033,1.0817242,3.5488801,-0.88442808,0.13606593,0.44640002,0
4.4157281,5.2436762,4.0258794,0.55543751,0.6595819,0.50639993,0
-7.2987142,2.5644131,-1.8316801,-0.91807729,0.3225677,-0.23040001,0
-2.814672,-0.31274101,7.4284797,-0.35404679,-0.039338492,0.93439996,0
6.7499952,-2.3624983,-3.4725585,0.84905601,-0.2971696,-0.43679982,0
-5.0655107,-1.1918848,6.0102,-0.63717121,-0.14992262,0.75600004,0
-3.6657443,-2.1383505,6.7225199,-0.46109992,-0.2689749,0.84560001,0
-4.4405832,-2.4910588,-6.1055994,-0.55856395,-0.31334075,-0.76799995,0
1.8756608,6.9667401,3.3390002,0.23593219,0.87631953,0.42000005,0
-1.3432102,7.8353934,-0.069961078,-0.16895726,0.98558408,-0.0088001359,0
1.6980128,6.2260475,4.6427989,0.21358652,0.78315067,0.58399987,0
-5.9365172,-4.6459703,2.52492,-0.74673176,-0.58439881,0.31760001,0
-7.4442296,0.3631328,-2.7665997,-0.9363811,0.045677084,-0.34799996,0
1.4067541,3.5168853,-6.9896393,0.17695022,0.44237551,-0.87919992,0
2.1079342,6.6481009,-3.8160012,0.26514897,0.8362391,-0.48000017,0
0.62922168,2.2022777,7.6129198,0.079147384,0.27701607,0.9576,0
7.2418585,0.17242503,-3.2754009,0.91092563,0.021688683,-0.41200012,0
4.4742727,4.6186037,-4.6745996,0.5628016,0.58095646,-0.588,0
-2.113205,-7.6075382,-0.92856055,-0.26581195,-0.95692307,-0.11680007,0
-4.7690463,6.3587275,0.1590008,-0.59988004,0.79983997,0.0200001,0
-4.9111714,1.7858808,-5.9911203,-0.61775744,0.2246391,-0.75360006,0
5.08394,0,6.1119595,0.63948935,0,0.76879996,0
4.4107418,6.0647693,-2.6393995,0.55481029,0.76286405,-0.33199996,0
-6.9562902,0.32354808,-3.8350801,-0.87500507,0.040697873,-0.48240003,0
6.8239803,2.887069,2.8810802,0.85836232,0.36315334,0.36240003,0
5.0064559,-1.4463094,-6.003839,0.62974292,-0.18192571,-0.75519991,0
-7.2987142,2.5644131,-1.8316801,-0.91807729,0.3225677,-0.23040001,0
-4.4931631,-5.814682,3.0337203,-0.56517774,-0.73140657,0.38160005,0
-5.5617099,-1.6432325,-5.4377995,-0.69958621,-0.20669593,-0.68400002,0
6.5154777,2.8400805,-3.5615995,0.81955695,0.35724285,-0.44799995,0
6.5331097,-4.4256554,-0.96672028,0.82177484,-0.55668622,-0.12160004,0
-4.9155965,3.4698334,5.1961203,-0.61831403,0.43645704,0.65360004,0
-6.7100196,-1.0923287,-4.1212802,-0.84402764,-0.13739984,-0.51840001,0
-3.6890411,1.202948,-6.9387598,-0.46403036,0.15131421,-0.87279999,0
2.841789,-6.9752989,2.5440004,0.35745776,-0.87739611,0.32000005,0
5.0565963,4.213829,4.4583602,0.63604987,0.5300414,0.56080002,0
0,6.6458316,-4.3629599,0,0.83595365,-0.54879999,0
-0.38075125,-7.6150208,-2.2514403,-0.047893241,-0.95786428,-0.28320006,0
-0.81286174,7.0448012,3.5934002,-0.10224676,0.88613856,0.45200005,0
5.9655132,-2.272577,4.7382002,0.75037903,-0.28585875,0.59600002,0
-7.2692547,-2.826932,-1.5391203,-0.91437167,-0.35558894,-0.19360004,0
0.30100977,1.8436854,-7.7274003,0.037862867,0.23191012,-0.97200006,0
4.0880895,4.0880895,5.4568806,0.51422513,0.51422513,0.68640012,0
-0.0010649537,-0.0036512704,-7.9499989,-0.00013395645,-0.00045927931,-0.99999988,0
3.3092663,6.8730912,2.2387207,0.41625991,0.8645398,0.28160009,0
-6.5508862,0.59553546,-4.4647198,-0.82401085,0.074910119,-0.56159997,0
-6.4559474,2.5823793,-3.8541608,-0.81206888,0.32482761,-0.4848001,0
6.8659253,-2.6407404,3.0146403,0.8636384,-0.33216861,0.37920004,0
0,5.0991912,-6.0992417,0,0.64140773,-0.76720023,0
5.3376231,2.6037183,-5.285161,0.67139918,0.32751173,-0.66480017,0
-7.4579182,-0.18190028,-2.7475197,-0.93810296,-0.022880539,-0.34559998,0
-6.0697293,-5.0232244,-1.062121,-0.76348799,-0.63185215,-0.13360013,0
2.5823793,-6.4559474,-3.8541608,0.32482761,-0.81206888,-0.4848001,0
-5.5529027,-5.300498,2.0669997,-0.69847834,-0.66672933,0.25999996,0
7.9103928,-0.21379419,-0.76320022,0.99501801,-0.026892351,-0.096000031,0
7.1938176,-1.0657506,3.2118006,0.90488273,-0.13405669,0.40400007,0
1.0575594,7.8259377,-0.91584027,0.13302635,0.98439473,-0.11520004,0
1.4872614,-4.7804837,-6.175559,0.18707691,-0.60131872,-0.77679992,0
0.18100852,2.9564753,-7.3776002,0.022768367,0.37188369,-0.92800003,0
1.5704825,-1.8845787,7.5620399,0.19754498,-0.23705393,0.95120001,0
-4.265564,0.91404861,6.6462002,-0.53654891,0.11497467,0.83600003,0
6.0538654,-3.302108,3.955919,0.76149255,-0.41535953,0.4975999,0
1.8992878,5.8335276,-5.0562,0.23890413,0.73377705,-0.63600004,0
0.28228629,6.4925914,4.5791993,0.035507709,0.81667817,0.57599992,0
0.31014344,3.4115818,7.1740794,0.039011754,0.42912978,0.90239996,0
-3.8115876,6.9085031,0.97307926,-0.47944498,0.86899412,0.12239991,0
-2.1943386,6.583015,3.8795996,-0.27601743,0.82805222,0.48799995,0
4.8231277,-4.9838986,-3.8859603,0.60668278,-0.6269055,-0.48880005,0
-2.383091,3.0185819,-6.95784,-0.29975986,0.37969583,-0.87520003,0
2.4080806,-4.2141414,6.2964001,0.30290323,-0.53008068,0.79200006,0
6.0041161,1.8151977,-4.88448,0.75523472,0.22832677,-0.61440003,0
-2.3250999,-6.3552728,-4.1721597,-0.29246542,-0.7994054,-0.52479994,0
1.6381041,7.2804646,-2.7411585,0.20605083,0.91578174,-0.34479982,0
-6.1782093,-0.41188064,-4.9862394,-0.77713329,-0.051808886,-0.62719995,0
-3.9909694,-0.30699736,6.8688002,-0.50200874,-0.03861602,0.86400002,0
0.31480363,-2.2036257,-7.6320004,0.039597943,-0.27718562,-0.9600001,0
-1.1668994,-7.0013976,-3.5806808,-0.14677981,-0.88067895,-0.45040011,0
-2.8175526,4.9000912,-5.5904384,-0.35440913,0.6163637,-0.7031998,0
-4.0843034,6.727088,1.1257212,-0.51374888,0.8461746,0.14160016,0
-0.42273191,0.15290304,-7.9372802,-0.053173825,0.019233087,-0.99840003,0
-7.5252533,-0.94065684,-2.3850002,-0.94657278,-0.11832162,-0.30000004,0
-2.7777624,-2.4691224,7.0277996,-0.3494041,-0.31058145,0.88399994,0
-4.9656897,-5.958828,1.74264,-0.62461507,-0.74953812,0.2192,0
7.0593424,-2.3531141,-2.7983992,0.88796765,-0.29598922,-0.35199991,0
7.9156833,-0.46562871,0.57240111,0.99568343,-0.058569651,0.072000138,0
7.3267035,-2.2738044,2.0860791,0.92159796,-0.28601316,0.26239988,0
-0.84513849,-6.4793944,4.5283203,-0.10630673,-0.81501818,0.56960005,0
3.7626262,6.5845966,-2.3850007,0.47328633,0.82825118,-0.3000001,0
6.0531697,-5.121913,0.57240033,0.76140499,-0.64426577,0.072000042,0
6.3244371,3.6892545,-3.0973201,0.79552668,0.46405718,-0.38960001,0
-4.0073543,-3.1408994,-6.1056008,-0.50406975,-0.3950817,-0.76800013,0
-1.3801054,-7.8205967,0.36887982,-0.17359817,-0.98372287,0.046399981,0
-2.805928,1.2470797,7.3330798,-0.35294694,0.15686537,0.9224,0
2.5752506,7.4916368,0.66780007,0.32393089,0.94234425,0.084000014,0
-0.51747137,7.5033312,2.5757992,-0.065090738,0.94381529,0.32399991,0
1.5817107,-0.31634176,7.7846398,0.19895732,-0.039791416,0.97920001,0
0.42187467,4.9570251,-6.2010016,0.053065997,0.6235252,-0.78000021,0
-1.9828515,6.7747426,-3.6570013,-0.24941529,0.85216892,-0.46000016,0
-1.2113256,-7.7524824,1.2783601,-0.15236801,-0.97515506,0.16080002,0
-5.3094535,-1.4748485,5.7303596,-0.6678558,-0.18551554,0.72079998,0
-4.8852081,-6.1065106,1.4310002,-0.61449164,-0.76811463,0.18000004,0
3.3515151,-3.4530764,-6.3281994,0.42157423,-0.43434924,-0.79599994,0
-0.2885223,6.0589733,5.1388803,-0.036292117,0.76213509,0.64640009,0
7.4277825,2.7854187,0.5215202,0.93431228,0.35036716,0.06560003,0
2.3684046,-1.3219002,-7.4730005,0.29791254,-0.16627677,-0.94000012,0
6.9085031,-3.8115876,0.97307926,0.86899412,-0.47944498,0.12239991,0
-2.3236897,5.4219427,-5.3296809,-0.29228801,0.68200541,-0.67040014,0
4.709012,-5.7554588,2.8111198,0.59232855,-0.72395712,0.3536,0
-4.2141418,-5.1171722,-4.3884001,-0.53008074,-0.64366949,-0.55200005,0
2.5457318,-5.9400425,4.6300797,0.32021785,-0.74717516,0.58239996,0
-2.7305067,-3.0718203,-6.8052001,-0.34345996,-0.3863925,-0.85600001,0
-6.6323791,1.6580948,4.0576797,-0.83426154,0.20856538,0.5104,0
-6.394505,-3.4636898,3.2117996,-0.8043403,-0.43568426,0.40399995,0
4.7019029,6.1867142,1.6790401,0.59143436,0.77820307,0.21120001,0
5.08394,0,6.1119595,0.63948935,0,0.76879996,0
3.085077,-0.062960699,-7.3267202,0.38806,-0.0079195853,-0.92160004,0
-7.7186399,-1.2187327,-1.4627998,-0.97089809,-0.15329972,-0.18399997,0
-6.4130058,-1.9517843,4.2739201,-0.80666745,-0.24550746,0.53760004,0
-5.7155132,2.5719805,4.8908405,-0.71893251,0.32351956,0.6152001,0
-4.2739196,0,6.7034402,-0.53759998,0,0.84320003,0
-1.7988795,-7.1955185,-2.8620002,-0.22627416,-0.90509671,-0.36000004,0
-3.2888646,-3.8868392,6.1055999,-0.41369367,-0.48891059,0.76800001,0
-6.9608588,3.0101016,-2.3850007,-0.87557977,0.37862915,-0.3000001,0
4.3327379,2.0152268,-6.3536401,0.54499847,0.25348765,-0.79920006,0
-2.2479522,6.1818681,4.4647188,-0.28276131,0.77759349,0.56159985,0
-0.95151639,0.63434362,7.8673201,-0.1196876,0.07979165,0.9896,0
3.7013233,-0.61688751,7.0087199,0.46557528,-0.077595912,0.88160002,0
6.4956121,-4.5469284,-0.57876068,0.81705815,-0.57194072,-0.072800085,0
0,-5.588768,5.6540399,0,-0.7029897,0.7112,0
-5.3634448,3.6697254,4.5791998,-0.67464715,0.46160069,0.57599998,0
6.7663794,2.165241,3.56796,0.8511169,0.27235737,0.44880003,0
1.031497,-5.8021717,-5.3360391,0.12974805,-0.72983295,-0.67119992,0
1.628955,3.5837011,-6.9069595,0.20490001,0.45078003,-0.86879998,0
1.6580948,-6.6323791,4.0576797,0.20856538,-0.83426154,0.5104,0
3.414994,6.5672965,2.9001601,0.42955899,0.82607508,0.36480001,0
-0.84793383,-7.122643,-3.428041,-0.10665835,-0.89592993,-0.43120015,0
-6.4039073,-4.5447083,-1.2402,-0.80552298,-0.57166141,-0.156,0
1.9540831,7.5720735,1.431,0.24579662,0.95246208,0.18000001,0
-2.861428,5.4503388,-5.0307589,-0.35992807,0.68557721,-0.63279986,0
2.9706032,7.1789584,1.6853991,0.3736608,0.90301365,0.21199989,0
-7.455575,-1.2854441,2.442239,-0.93780822,-0.16169108,0.3071999,0
6.6222229,-0.30101031,-4.3883996,0.83298403,-0.037862934,-0.55199999,0
1.8907501,0.94537407,7.6637998,0.23783021,0.11891498,0.96399999,0
-4.2403979,1.8173137,6.4744802,-0.53338343,0.22859292,0.81440002,0
-0.91216612,3.8974366,-6.8688016,-0.11473788,0.49024361,-0.8640002,0
4.4069252,-6.4100718,-1.6408805,0.55433023,-0.80629838,-0.20640007,0
-5.9684429,3.0607398,-4.2675591,-0.75074756,0.38499871,-0.53679991,0
7.2991076,-1.5640947,2.7348011,0.91812676,-0.19674148,0.34400013,0
3.9953454,6.0798731,-3.2054415,0.50255919,0.76476395,-0.40320021,0
6.8184862,-1.6364368,3.7460399,0.85767126,-0.20584111,0.47119999,0
7.7245464,-0.4983581,1.8125998,0.97164106,-0.062686555,0.22799997,0
5.1887631,-2.8538198,-5.3042388,0.65267462,-0.35897106,-0.66719985,0
5.6122751,-0.48802385,-5.6095185,0.70594656,-0.061386649,-0.70559984,0
7.7119555,0.74631757,1.7808,0.97005731,0.093876429,0.22400001,0
4.6742496,6.3739762,-0.85224122,0.58795595,0.80175805,-0.10720015,0
4.7118292,2.9448934,5.6858392,0.59268296,0.37042683,0.71519989,0
-4.2282276,2.1141138,6.3917999,-0.5318526,0.2659263,0.80400008,0
2.1586459,-3.0837801,7.0023599,0.2715278,-0.38789687,0.88080001,0
2.1378961,7.6014104,0.92220056,0.26891774,0.95615226,0.11600007,0
-3.3267121,-2.2455306,-6.8624396,-0.41845438,-0.2824567,-0.86319995,0
0.41256708,7.8387818,-1.2592797,0.051895231,0.98601031,-0.15839997,0
-5.2089052,4.8728471,-3.5107207,-0.65520823,0.61293679,-0.44160011,0
-1.9687561,6.3605971,-4.3438807,-0.24764228,0.80007511,-0.54640007,0
3.4581673,-7.1468801,0.40704036,0.4349896,-0.89897865,0.051200047,0
-0.68262661,7.1675811,-3.3708007,-0.085864983,0.90158254,-0.42400011,0
3.3363273,7.1492739,0.9794398,0.41966382,0.89927977,0.12319998,0
6.8914785,0.6410681,-3.9114003,0.86685264,0.0806375,-0.49200004,0
-6.8363929,-1.4649414,-3.7842009,-0.85992366,-0.18426935,-0.47600013,0
0.39718151,7.7450466,-1.7489992,0.049959939,0.97421974,-0.21999991,0
-7.2332468,2.7436454,1.831679,-0.90984237,0.34511265,0.23039988,0
-2.3624978,-6.7499948,-3.4725599,-0.29716954,-0.84905595,-0.4368,0
5.7942352,-1.4485593,5.2470002,0.72883463,-0.18220872,0.66000003,0
6.9844098,3.6126249,1.1702397,0.87854213,0.45441824,0.14719996,0
1.7499596,-5.5415382,5.4250798,0.22012071,-0.69704884,0.68239999,0
3.9496469,-2.1267328,6.56352,0.49681094,-0.26751357,0.82560003,0
-6.3739767,-4.6742492,-0.85224038,-0.80175811,-0.58795589,-0.10720005,0
3.4698331,4.9155974,5.1961193,0.43645701,0.61831415,0.65359992,0
-5.4503384,5.0869818,-2.7602394,-0.68557715,0.63987195,-0.34719992,0
-2.0701578,-4.9453769,-5.8702803,-0.2603972,-0.62206,-0.73840004,0
1.5180964,-4.2506685,6.5444398,0.19095555,-0.53467536,0.82320005,0
-0.17625363,-4.2300844,-6.728879,-0.02217027,-0.53208613,-0.84639996,0
-3.5437236,-2.7044208,-6.5826006,-0.4457514,-0.34017873,-0.82800007,0
-3.6532867,6.7297392,-2.136961,-0.45953292,0.84650809,-0.26880014,0
-1.2008108,-4.8032441,6.2200799,-0.15104538,-0.60418165,0.78240001,0
4.0944972,-6.3976507,2.3468394,0.5150311,-0.80473596,0.29519993,0
0.44063327,-7.931407,-0.31800058,0.055425569,-0.99766129,-0.040000074,0
-3.1281893,-6.7777429,2.7348001,-0.39348295,-0.85254627,0.34400001,0
6.3605971,-1.9687561,-4.3438807,0.80007511,-0.24764228,-0.54640007,0
3.3267143,2.245532,-6.8624382,0.41845465,0.28245687,-0.86319977,0
5.543222,-0.60252428,-5.6667585,0.69726062,-0.075789221,-0.71279985,0
-7.7869229,-1.2627443,-0.98580021,-0.97948718,-0.15883577,-0.12400003,0
3.1331508,-7.0495882,-1.9207212,0.39410704,-0.88674068,-0.24160016,0
3.7661629,-3.7661629,-5.9020786,0.47373119,-0.47373119,-0.74239987,0
-3.0040481,3.9052625,6.2391601,-0.3778677,0.49122798,0.78480005,0
7.6867194,-1.6619936,-1.1638803,0.96688294,-0.20905581,-0.14640005,0
3.8868392,-3.2888646,6.1055999,0.48891059,-0.41369367,0.76800001,0
0.30288538,-2.4735639,-7.5493202,0.03809879,-0.31114012,-0.94960004,0
7.4213591,0.54302573,-2.7984011,0.93350428,0.068305127,-0.35200015,0
-3.4391077,6.3623495,-3.3008399,-0.43259215,0.80029553,-0.4152,0
0,6.2375846,-4.9289994,0,0.78460187,-0.61999995,0
-5.3389916,-0.29661036,5.8829999,-0.67157131,-0.037309479,0.74000001,0
6.4942393,0,4.5855594,0.81688547,0,0.57679993,0
-7.9359317,0.45348141,0.13356031,-0.9982304,0.057041686,0.01680004,0
-5.9214435,-4.0373478,3.4407599,-0.74483567,-0.50784248,0.43279999,0
3.8682196,3.6406775,-5.9147983,0.48656851,0.45794687,-0.74399978,0
4.6220312,6.3248844,1.3546803,0.58138758,0.79558295,0.17040004,0
-4.0204062,4.5564594,-5.1261592,-0.5057115,0.57313955,-0.64479989,0
1.1838832,7.8136268,0.86496061,0.14891613,0.98284614,0.10880008,0
2.9915676,-4.6668453,-5.6985593,0.37629783,-0.58702457,-0.71679991,0
-2.222435,6.5085607,-3.987721,-0.27955157,0.8186869,-0.50160015,0
3.4057066,7.0546794,1.3546795,0.42839077,0.88738108,0.17039993,0
-0.87685007,6.4302335,-4.5919199,-0.11029561,0.80883443,-0.5776,0
5.0735826,-0.895338,6.0547194,0.63818651,-0.11262114,0.76159996,0
7.627759,0.19069381,-2.2323587,0.95946658,0.023986643,-0.28079984,0
-0.61360025,3.9883993,6.84972,-0.077182427,0.50168544,0.86160004,0
0.91404861,4.265564,6.6462002,0.11497467,0.53654891,0.83600003,0
5.0793395,0.59756869,6.0865197,0.63891065,0.075165875,0.76559997,0
-5.8234816,-0.58234853,5.3805599,-0.73251349,-0.073251396,0.67680007,0
-3.2234788,4.6886969,5.552279,-0.40546903,0.58977318,0.6983999,0
-2.0532358,-5.2797503,5.5777197,-0.25826865,-0.66411954,0.70159996,0
-7.1194797,3.1914904,1.5263993,-0.89553207,0.40144536,0.19199991,0
4.709012,-5.7554588,2.8111198,0.59232855,-0.72395712,0.3536,0
3.8615184,-0.4826898,-6.9324012,0.48572558,-0.060715698,-0.87200016,0
7.7869229,1.2627443,-0.98580021,0.97948718,0.15883577,-0.12400003,0
4.4157281,-5.2436762,4.0258794,0.55543751,-0.6595819,0.50639993,0
-2.0152268,4.3327379,-6.3536401,-0.25348765,0.54499847,-0.79920006,0
3.5437236,2.7044208,-6.5826006,0.4457514,0.34017873,-0.82800007,0
-6.8363929,-1.4649414,-3.7842009,-0.85992366,-0.18426935,-0.47600013,0
-1.3287686,7.1753478,3.1545606,-0.16714071,0.90255952,0.39680007,0
-3.9352107,6.2605629,-2.919241,-0.49499506,0.78749222,-0.36720014,0
-1.838029,3.6760581,6.8051996,-0.23119862,0.46239725,0.85599995,0
-0.84948248,7.8577147,-0.85860014,-0.10685314,0.98839182,-0.10800002,0
-1.5862848,0.42961878,-7.7782793,-0.19953267,0.0540401,-0.97839993,0
-0.63498193,0.63498098,7.8991199,-0.079871945,0.079871826,0.99360001,0
2.7564485,-3.0627213,6.79884,0.34672308,-0.38524798,0.85520005,0
7.5638561,-0.75638551,-2.3277588,0.95142847,-0.095142834,-0.29279986,0
-0.34414607,-7.2270641,-3.2944808,-0.043288816,-0.90906471,-0.4144001,0
-6.0589743,0.2885223,5.1388798,-0.76213515,0.036292113,0.64639997,0
-1.4794077,7.6436062,1.6090798,-0.18608902,0.96145993,0.20239998,0
-0.91888243,-5.9071021,-5.2406392,-0.1155827,-0.74303174,-0.65919989,0
6.4398885,-3.2199442,3.3707995,0.81004888,-0.40502444,0.42399997,0
-3.9147797,-6.9084358,0.38795981,-0.49242511,-0.86898565,0.048799977,0
-5.6809087,1.1361815,-5.444159,-0.7145797,0.14291592,-0.68479991,0
-7.3682952,0.52630627,2.9383199,-0.92682958,0.066202052,0.3696,0
6.5845966,3.7626262,-2.3850007,0.82825118,0.47328633,-0.3000001,0
0.71186578,5.4576373,-5.7367187,0.089542866,0.6864953,-0.72159988,0
-7.5937438,-0.56953079,-2.2832403,-0.95518792,-0.071639091,-0.28720003,0
6.1501169,1.2579781,-4.8781195,0.77359962,0.15823624,-0.61359996,0
1.36777,6.8388486,3.8159997,0.17204654,0.86023253,0.47999999,0
-4.3697596,-5.4621992,3.7778404,-0.54965532,-0.68706912,0.47520006,0
2.2224355,-6.5085616,-3.9877195,0.27955163,-0.81868696,-0.50159991,0
7.2253156,-3.2630453,0.59148014,0.90884477,-0.41044596,0.074400015,0
3.5894749,-3.5894749,6.1183195,0.45150629,-0.45150629,0.76959997,0
-0.91941059,-3.984112,6.8179197,-0.11564913,-0.5011462,0.85759997,0
-0.61383009,3.2737606,-7.2186012,-0.077211335,0.4117938,-0.90800017,0
2.7151308,3.9218566,6.3600001,0.34152588,0.49331531,0.80000001,0
-2.7361901,-6.6694632,-3.3517191,-0.34417486,-0.8389262,-0.42159989,0
-0.71186578,5.4576373,-5.7367187,-0.089542866,0.6864953,-0.72159988,0
2.4358711,-3.6538076,6.62712,0.3063989,-0.45959845,0.83360004,0
-5.6445637,1.9690335,-5.2406397,-0.71000803,0.24767718,-0.65919995,0
4.3697605,5.4621992,3.7778397,0.54965544,0.68706912,0.47519997,0
-7.7951078,0.73079067,1.3801204,-0.98051673,0.091923356,0.17360005,0
-0.77878278,-1.6688201,-7.7337594,-0.0979601,-0.20991449,-0.97279996,0
-1.8992878,5.8335276,-5.0562,-0.23890413,0.73377705,-0.63600004,0
-7.8249402,1.3041567,-0.52152067,-0.98426926,0.16404487,-0.06560009,0
-2.5065827,-0.93996841,7.4857197,-0.31529343,-0.11823502,0.94159997,0
-0.71186548,-5.4576354,-5.7367206,-0.089542829,-0.68649501,-0.72160012,0
7.8353934,-1.3432102,-0.069961078,0.98558408,-0.16895726,-0.0088001359,0
-2.3145072,7.2006879,2.448601,-0.29113299,0.90574694,0.30800015,0
6.5925932,0.44949457,-4.4201999,0.82925701,0.056540199,-0.55599999,0
-2.8129253,-0.62509483,7.4094,-0.35382709,-0.078628279,0.93200004,0
-0.28228632,-6.4925909,4.5792003,-0.035507713,-0.81667811,0.57600003,0
2.805927,-1.2470788,7.3330803,0.35294682,-0.15686525,0.92240006,0
6.3248844,4.6220312,1.3546803,0.79558295,0.58138758,0.17040004,0
3.4530776,3.3515165,-6.328198,0.43434939,0.42157441,-0.79599977,0
-4.5502901,0,6.5189996,-0.57236356,0,0.81999999,0
0.41188025,-6.1782093,-4.986239,0.051808838,-0.77713329,-0.62719989,0
1.4480703,7.7230406,1.2084002,0.1821472,0.97145164,0.15200004,0
-5.2640476,5.9506626,0.28620061,-0.66214436,0.74851102,0.036000077,0
6.3273501,2.7510221,3.949559,0.79589313,0.34604052,0.49679989,0
5.203311,2.0571232,-5.6476808,0.65450454,0.25875765,-0.7104001,0
5.7554593,-4.709012,2.8111191,0.72395718,-0.59232855,0.35359991,0
-3.9863048,6.1123343,3.1545591,-0.50142199,0.76884711,0.39679989,0
-2.5706515,3.068197,-6.8688002,-0.3233524,0.38593674,-0.86400002,0
4.2403979,1.8173137,6.4744802,0.53338343,0.22859292,0.81440002,0
-7.2244949,0.26757365,3.3072007,-0.90874153,0.033657063,0.4160001,0
-1.0523473,-0.83648127,-7.8355193,-0.13237074,-0.10521777,-0.98559994,0
2.4358711,-3.6538076,6.62712,0.3063989,-0.45959845,0.83360004,0
-0.62509483,2.8129244,7.4094,-0.078628279,0.35382697,0.93200004,0
2.599833,-7.019547,2.6775603,0.327023,-0.88296187,0.33680004,0
0.5573619,-6.6883497,4.2611995,0.070108414,-0.84130186,0.53599995,0
-2.6407404,6.8659253,3.0146403,-0.33216861,0.8636384,0.37920004,0
-4.2187462,2.6367164,-6.2010002,-0.53065991,0.33166245,-0.78000003,0
0,-7.3768978,2.9637599,0,-0.9279117,0.37279999,0
-5.2676768,-5.4558086,-2.3850007,-0.66260087,-0.68626523,-0.3000001,0
3.3243887,-3.3243887,6.4108796,0.41816211,-0.41816211,0.80639994,0
4.2585182,5.3625784,-4.0385981,0.53566271,0.6745382,-0.50799978,0
-1.8203386,7.7364373,0.19080099,-0.22897342,0.97313678,0.024000125,0
-7.9103928,0.21379419,-0.76320022,-0.99501801,0.026892351,-0.096000031,0
0,7.0622463,3.6506402,0,0.8883329,0.45920005,0
-1.6290801,-2.4737883,-7.3775988,-0.20491573,-0.31116834,-0.92799985,0
4.3209081,5.6711903,3.5170801,0.54351044,0.71335727,0.44240001,0
-6.1055999,-4.88448,-1.4373608,-0.76800001,-0.61440003,-0.1808001,0
2.5029655,-1.2514827,-7.4411998,0.31483844,-0.15741922,-0.93599999,0
-6.1900287,-3.2579095,-3.7778394,-0.77862,-0.40979996,-0.47519994,0
3.8584969,-4.2318997,-5.5141201,0.48534554,-0.53231442,-0.69360006,0
1.7863561,-7.400619,2.2895992,0.22469889,-0.93089551,0.2879999,0
5.203311,2.0571232,-5.6476808,0.65450454,0.25875765,-0.7104001,0
-0.27605641,6.2112656,-4.9544392,-0.034724079,0.78129131,-0.62319988,0
5.7532458,3.0979013,-4.5283184,0.72367877,0.38967314,-0.56959981,0
1.5640947,5.7350135,-5.2788,0.19674146,0.7213853,-0.66399997,0
6.3248844,-4.6220312,1.3546803,0.79558295,-0.58138758,0.17040004,0
7.5642033,-1.3576775,-2.0351992,0.9514721,-0.17077704,-0.25599989,0
6.5154781,-2.84008,-3.561599,0.81955701,-0.35724279,-0.44799989,0
-5.7979307,5.0416789,2.0415606,-0.72929949,0.63417345,0.25680009,0
-0.0036512704,-0.0010649537,-7.9499989,-0.00045927931,-0.00013395645,-0.99999988,0
-2.4983068,-1.5614419,7.3839598,-0.31425244,-0.19640779,0.92879999,0
-7.7463522,1.7705944,-0.24803956,-0.97438395,0.22271627,-0.031199945,0
-0.53469437,7.21837,3.2881205,-0.067257158,0.90797108,0.41360009,0
-3.6890402,-1.2029479,-6.9387603,-0.46403024,-0.1513142,-0.87280005,0
-4.7805667,-4.4993572,4.4838004,-0.60132915,-0.56595689,0.56400007,0
7.5464554,-1.7873185,-1.7489997,0.94923967,-0.22481994,-0.21999997,0
3.5118203,-7.0236402,-1.2402005,0.44173843,-0.88347679,-0.15600006,0
2.2211602,-4.2403965,-6.3472815,0.27939123,-0.53338319,-0.79840022,0
2.4573226,6.5528622,3.7714798,0.3090972,0.8242594,0.47439998,0
-4.6186037,4.4742727,-4.6745996,-0.58095646,0.5628016,-0.588,0
-7.0593419,2.3531134,2.7984009,-0.88796759,0.29598913,0.35200012,0
-5.3605404,4.8244867,3.34536,-0.67428184,0.60685366,0.4208,0
-3.2621777,6.2525077,3.6697192,-0.41033682,0.786479,0.46159992,0
-7.6917882,-1.9778885,-0.35615978,-0.96752053,-0.24879101,-0.044799972,0
4.5010195,2.1004758,6.2073603,0.56616598,0.26421079,0.78080004,0
3.992053,3.3267107,-6.016561,0.50214505,0.4184542,-0.75680017,0
5.0162625,-4.4588995,4.2612,0.63097644,-0.56086785,0.53600001,0
1.8756608,-6.9667401,3.3390002,0.23593219,-0.87631953,0.42000005,0
-7.2708125,-1.8177029,2.6521199,-0.91456765,-0.22864188,0.33359998,0
-7.1674547,2.2053709,-2.6393993,-0.90156662,0.27740514,-0.33199993,0
5.1171732,4.2141428,-4.3883977,0.64366961,0.53008085,-0.55199975,0
7.270812,1.817703,2.6521211,0.91456759,0.2286419,0.33360013,0
7.7825584,1.4150107,0.79500067,0.97893822,0.17798877,0.10000008,0
1.4812526,-3.1035771,-7.1677189,0.18632108,-0.39038706,-0.90159988,0
-7.1675811,-0.68262661,-3.3708007,-0.90158254,-0.085864983,-0.42400011,0
-7.5638556,-0.75638539,-2.3277602,-0.95142841,-0.095142819,-0.29280004,0
-5.9606261,-4.8069568,-2.13696,-0.74976432,-0.60464865,-0.26880002,0
-3.0040481,-3.9052625,6.2391601,-0.3778677,-0.49122798,0.78480005,0
-3.9322858,-6.291657,2.8556395,-0.49462715,-0.79140341,0.35919994,0
-7.8136268,1.1838832,0.86496061,-0.98284614,0.14891613,0.10880008,0
-5.7737384,-3.5890803,-4.1212797,-0.72625643,-0.45145667,-0.51839995,0
3.1408994,4.0073543,-6.1056008,0.3950817,0.50406975,-0.76800013,0
5.7395253,-2.2958107,4.99896,0.72195292,-0.28878123,0.62880003,0
-0.15090753,-6.6399374,-4.3693199,-0.018982081,-0.83521229,-0.54960001,0
-6.2441468,-4.787179,-1.1384401,-0.78542727,-0.60216087,-0.14320002,0
1.8151977,-6.0041161,-4.88448,0.22832677,-0.75523472,-0.61440003,0
-7.6303434,-2.1800981,-0.47699964,-0.95979166,-0.27422619,-0.059999958,0
2.0352991,-5.524384,5.3424001,0.25601247,-0.6948911,0.67200005,0
-5.4621992,4.3697605,3.7778397,-0.68706912,0.54965544,0.47519997,0
-2.2939677,4.5879354,-6.073801,-0.28854939,0.57709879,-0.76400018,0
-1.1823442,-4.5323191,-6.4236002,-0.14872254,-0.57010305,-0.80800003,0
-4.76754,-2.0857985,6.0102,-0.59969056,-0.2623646,0.75600004,0
7.7825584,1.4150107,0.79500067,0.97893822,0.17798877,0.10000008,0
6.8646026,-3.5303669,-1.9016411,0.86347204,-0.44407132,-0.23920015,0
1.6432325,-5.5617099,-5.4377995,0.20669593,-0.69958621,-0.68400002,0
-3.4636922,2.4867532,-6.7097983,-0.43568456,0.31279916,-0.8439998,0
4.085526,-5.7197375,3.7142401,0.51390266,-0.71946388,0.46720001,0
-4.5469284,6.4956121,-0.57876068,-0.57194072,0.81705815,-0.072800085,0
3.3531737,6.5298648,-3.0528002,0.42178288,0.82136667,-0.38400003,0
4.2729921,0.30521345,6.6970801,0.53748327,0.038391631,0.84240001,0
-2.0352991,5.524384,5.3424001,-0.25601247,0.6948911,0.67200005,0
-6.1055999,-4.5791998,2.2259996,-0.76800001,-0.57599998,0.27999994,0
2.5860889,-5.5805078,-5.0371199,0.3252942,-0.70195067,-0.6336,0
-2.412612,7.4790974,1.20204,-0.3034732,0.94076699,0.1512,0
1.9277723,-6.6095061,3.9749997,0.24248709,-0.83138442,0.49999997,0
6.8659253,-2.6407404,3.0146403,0.8636384,-0.33216861,0.37920004,0
-4.427629,3.2469282,5.7494397,-0.55693448,0.40841866,0.72319996,0
-7.1468797,-3.4581678,0.40703979,-0.89897859,-0.43498966,0.051199976,0
-5.9691911,-3.7985759,3.6252003,-0.75084168,-0.4778083,0.45600006,0
-7.7364373,1.8203378,0.19080001,-0.97313678,0.22897331,0.024000002,0
3.5085242,6.6477304,-2.5885205,0.44132382,0.83619249,-0.32560009,0
-1.4867991,-5.0551152,5.95296,-0.18701877,-0.63586354,0.74880004,0
7.7609177,0,-1.7235593,0.97621608,0,-0.21679991,0
3.9459887,4.9324865,-4.82724,0.4963508,0.62043858,-0.60720003,0
5.2242274,5.7217741,1.7808,0.65713555,0.71972001,0.22400001,0
1.7184949,-7.6104779,1.5264,0.21616289,-0.95729285,0.192,0
0.76658392,4.5036817,-6.5062814,0.096425653,0.56650084,-0.8184002,0
0.45348141,-7.9359317,0.13356031,0.057041686,-0.9982304,0.01680004,0
6.0531697,-5.121913,0.57240033,0.76140499,-0.64426577,0.072000042,0
-1.8673725,7.7029104,0.61692053,-0.23488963,0.96891958,0.077600069,0
3.3243887,3.3243887,6.4108796,0.41816211,0.41816211,0.80639994,0
5.940042,-2.5457325,4.6300802,0.7471751,-0.32021794,0.58240002,0
0,7.9138923,-0.75684023,0,0.99545819,-0.095200032,0
-6.9777603,0,-3.8096404,-0.87770569,0,-0.47920007,0
5.7197366,4.085526,3.714241,0.71946377,0.51390266,0.46720013,0
5.0391874,-5.3044076,3.1100402,0.63386005,-0.66722107,0.39120004,0
-4.6922832,-3.6495535,-5.2788005,-0.59022433,-0.45906335,-0.66400009,0
-0.94065696,7.5252538,-2.3849988,-0.11832163,0.94657284,-0.29999986,0
0.94537407,-1.8907501,7.6637998,0.11891498,-0.23783021,0.96399999,0
2.4691215,2.7777615,7.0278001,0.31058133,0.34940398,0.884,0
-0.48344365,-6.929359,-3.8668804,-0.060810525,-0.8716175,-0.48640007,0
5.7827163,-5.1845036,-1.6981205,0.7273857,-0.65213883,-0.21360007,0
1.4150107,7.7825584,0.79500067,0.17798877,0.97893822,0.10000008,0
-1.4724878,-5.8899503,-5.1325197,-0.1852186,-0.74087429,-0.64559996,0
-5.218472,-5.9300818,0.89675999,-0.65641159,-0.74592227,0.1128,0
-1.7705951,-7.7463517,-0.24803986,-0.22271636,-0.97438389,-0.031199982,0
-5.7788568,1.7336572,5.1770401,-0.72690022,0.2180701,0.65120006,0
-3.5097635,-6.2095814,3.5107203,-0.44147968,-0.78107941,0.44160005,0
-0.88675755,-2.2661581,-7.5684004,-0.11154183,-0.28505135,-0.95200008,0
-3.7513213,6.1628861,3.3389995,-0.47186431,0.77520585,0.41999996,0
1.4812526,3.1035771,-7.1677189,0.18632108,0.39038706,-0.90159988,0
-4.1828303,6.7390046,0.54059905,-0.52614218,0.84767354,0.067999884,0
-3.4698334,-4.9155965,5.1961203,-0.43645704,-0.61831403,0.65360004,0
0.87685007,6.4302335,-4.5919199,0.11029561,0.80883443,-0.5776,0
5.329164,-0.88819396,5.8321195,0.67033511,-0.11172251,0.73359996,0
2.6438026,7.4907732,-0.31799895,0.3325538,0.94223565,-0.039999869,0
-2.1141138,4.2282276,6.3917999,-0.2659263,0.5318526,0.80400008,0
-4.5085359,6.2618551,1.9143598,-0.56711143,0.78765476,0.24079998,0
4.9266319,4.9266319,3.8287196,0.61970216,0.61970216,0.48159996,0
3.4698334,-4.9155965,5.1961203,0.43645704,-0.61831403,0.65360004,0
3.9081666,-6.6438837,-1.9461598,0.4915933,-0.83570868,-0.24479999,0
1.4621089,5.5560122,5.4950399,0.18391307,0.69886947,0.69120002,0
2.2211602,-4.2403965,-6.3472815,0.27939123,-0.53338319,-0.79840022,0
1.2240322,3.9781022,6.7733998,0.15396631,0.50039023,0.852,0
5.9062462,2.8054669,-4.5219588,0.74292409,0.35288891,-0.56879985,0
-6.8830657,0.27532235,3.9686399,-0.86579442,0.034631744,0.49919999,0
5.3376231,-2.6037183,-5.285161,0.67139918,-0.32751173,-0.66480017,0
1.0657513,-7.1938176,3.2118006,0.13405678,-0.90488273,0.40400007,0
1.902416,6.7943435,3.6633599,0.23929761,0.8546344,0.46079999,0
7.1649704,1.3980427,-3.1482012,0.90125418,0.17585443,-0.39600018,0
1.5059108,-4.235373,-6.5571599,0.18942274,-0.53275132,-0.82480001,0
1.6157146,-3.0206835,-7.1740808,0.20323454,-0.37996021,-0.90240014,0
0,6.695313,4.2866397,0,0.84217775,0.53919995,0
-1.4067541,-3.5168853,-6.9896393,-0.17695022,-0.44237551,-0.87919992,0
5.9965563,0.79954088,-5.157959,0.75428385,0.10057119,-0.6487999,0
5.4400082,5.1809607,2.6012409,0.68427777,0.65169317,0.32720011,0
-6.4876456,-0.56414342,4.5601201,-0.81605607,-0.070961438,0.57360005,0
3.8004656,-5.9485545,-3.657001,0.478046,-0.74824589,-0.46000013,0
-3.2469282,4.427628,5.7494402,-0.40841866,0.55693436,0.72320002,0
-1.8845787,-1.5704825,7.5620399,-0.23705393,-0.19754498,0.95120001,0
-0.62315053,-2.9911225,-7.3394389,-0.078383714,-0.37624183,-0.92319989,0
-6.8155937,-4.0893564,0.16535938,-0.85730743,-0.51438445,0.020799922,0
-7.3900352,-2.139221,-2.0033998,-0.92956418,-0.26908439,-0.25199997,0
3.6948261,-4.3106303,-5.5650001,0.46475801,-0.54221767,-0.70000005,0
3.375381,-5.6256342,4.49016,0.42457622,-0.70762694,0.56480002,0
-2.805928,-1.2470788,7.3330798,-0.35294694,-0.15686525,0.9224,0
-4.3780184,-3.7942822,5.44416,-0.55069417,-0.47726822,0.68480003,0
-3.0090935,6.2917409,3.815999,-0.37850234,0.79141396,0.4799999,0
2.1383505,3.6657443,6.7225199,0.2689749,0.46109992,0.84560001,0
-5.9062452,2.8054664,-4.5219603,-0.74292397,0.35288885,-0.56880003,0
0.31787246,-0.31787246,7.9372797,0.039983958,-0.039983958,0.99839997,0
-4.8161621,-0.60202056,6.2964001,-0.60580659,-0.075725861,0.79200006,0
1.91818,-7.6727223,-0.80772036,0.24128051,-0.96512234,-0.10160005,0
-7.4706664,-2.7166061,0.10812063,-0.9397065,-0.34171146,0.013600079,0
4.6504173,-5.1975245,3.8159995,0.5849582,-0.65377671,0.47999996,0
2.5470192,-5.8015437,-4.8017998,0.32037979,-0.72975397,-0.60399997,0
-5.7788568,1.7336572,5.1770401,-0.72690022,0.2180701,0.65120006,0
-1.1823441,-5.3205495,5.7875996,-0.14872254,-0.66925156,0.72799999,0
-6.6481018,-2.1079347,-3.8159997,-0.83623922,-0.26514903,-0.47999999,0
2.3575613,5.0098195,5.7049198,0.2965486,0.63016599,0.71759999,0
2.8391736,0.2317694,-7.4221206,0.35712877,0.029153384,-0.93360007,0
0.3631328,-7.4442296,-2.7665997,0.045677084,-0.9363811,-0.34799996,0
-7.1753478,1.3287686,3.1545606,-0.90255952,0.16714071,0.39680007,0
1.6381038,-7.2804637,-2.7411599,0.2060508,-0.91578162,-0.3448,0
-1.4463094,-5.0064559,-6.003839,-0.18192571,-0.62974292,-0.75519991,0
-6.8775539,-0.55020463,3.9495599,-0.86510116,-0.06920813,0.49680001,0
-3.8584981,4.2319007,-5.5141187,-0.48534569,0.53231454,-0.69359982,0
-6.6440783,4.2711935,0.90311974,-0.83573312,0.53725708,0.11359997,0
6.2055745,-1.9745005,4.5601192,0.78057545,-0.24836485,0.57359993,0
0.27532235,6.8830657,3.9686399,0.034631744,0.86579442,0.49919999,0
-7.7186399,-1.2187327,-1.4627998,-0.97089809,-0.15329972,-0.18399997,0
7.1194797,3.1914904,1.5263993,0.89553207,0.40144536,0.19199991,0
0,7.883781,1.0239607,0,0.99167061,0.12880009,0
5.3095908,5.7922807,1.2083989,0.66787308,0.72858876,0.15199988,0
-2.5127237,7.5381694,0.25440049,-0.31606588,0.94819742,0.032000061,0
-4.2141414,-2.4080815,6.2964001,-0.53008068,-0.30290335,0.79200006,0
4.6668453,-2.9915676,-5.6985593,0.58702457,-0.37629783,-0.71679991,0
5.7217741,5.2242274,1.7808,0.71972001,0.65713555,0.22400001,0
0.27532235,-6.8830657,3.9686399,0.034631744,-0.86579442,0.49919999,0
-5.0174074,-3.3009257,-5.2088394,-0.63112044,-0.41521078,-0.65519994,0
-5.4503379,-5.0869818,-2.7602403,-0.68557709,-0.63987195,-0.34720004,0
-3.3398178,5.8446803,4.2294006,-0.42010286,0.7351799,0.53200006,0
-0.27155015,-7.0603099,3.6442802,-0.034157254,-0.8880893,0.45840004,0
-3.8423769,-4.637351,-5.1897602,-0.48331785,-0.5833146,-0.65280002,0
6.1495247,4.9669232,0.84588087,0.77352512,0.62477022,0.10640011,0
3.085077,-0.062960699,-7.3267202,0.38806,-0.0079195853,-0.92160004,0
3.6242092,-0.92532998,-7.0150814,0.45587537,-0.11639371,-0.88240021,0
7.0236402,-3.5118201,-1.2401985,0.88347679,-0.4417384,-0.15599981,0
-4.5791998,6.1055999,2.2259996,-0.57599998,0.76800001,0.27999994,0
1.8203379,7.7364373,0.19080129,0.22897333,0.97313678,0.024000162,0
-2.0874951,7.6541481,0.50880063,-0.26257801,0.96278596,0.064000078,0
1.8803241,-1.8803241,7.4920797,0.23651877,-0.23651877,0.94239998,0
-5.8015437,2.5470192,-4.8017998,-0.72975397,0.32037979,-0.60399997,0
5.5678267,1.1721747,5.5522799,0.70035553,0.14744335,0.69839996,0
0.38075072,7.6150212,-2.2514386,0.047893174,0.95786434,-0.28319985,0
-2.861428,5.4503388,-5.0307589,-0.35992807,0.68557721,-0.63279986,0
-4.3835268,3.3172631,-5.7430792,-0.55138701,0.4172658,-0.72239989,0
0.60201734,1.7684257,-7.7274022,0.075725451,0.22244349,-0.9720003,0
3.5375261,-7.0750537,0.79499996,0.44497183,-0.88994384,0.099999994,0
2.6987908,4.1981201,6.1882806,0.33947054,0.52806538,0.77840006,0
-7.4304376,1.5373318,2.3722792,-0.93464625,0.19337508,0.2983999,0
0.59553546,-6.5508862,-4.4647198,0.074910119,-0.82401085,-0.56159997,0
-2.4358721,-3.6538076,6.6271195,-0.30639902,-0.45959845,0.83359998,0
-5.8131719,-5.3825669,-0.6614393,-0.73121661,-0.67705244,-0.083199911,0
-3.4057066,7.0546794,1.3546795,-0.42839077,0.88738108,0.17039993,0
-0.92434675,-3.697387,6.9769197,-0.11627004,-0.46508014,0.87759995,0
0.31787246,0.31787246,7.9372797,0.039983958,0.039983958,0.99839997,0
-4.6742492,6.3739767,-0.85224038,-0.58795589,0.80175811,-0.10720005,0
6.6258955,-1.2327249,-4.2166805,0.83344597,-0.15505974,-0.5304001,0
-7.4329276,1.7152905,-2.238719,-0.93495947,0.21575983,-0.28159988,0
7.3476958,0.89606065,-2.9001613,0.9242385,0.11271203,-0.36480016,0
6.7663794,2.165241,3.56796,0.8511169,0.27235737,0.44880003,0
3.8882449,6.8044267,1.3356005,0.4890874,0.85590273,0.16800007,0
-1.3601789,1.5250492,-7.6828794,-0.17109169,0.1918301,-0.96639997,0
3.3398118,-3.0361919,6.5444398,0.42010212,-0.38191095,0.82319999,0
-7.8499508,-0.20657746,-1.2401997,-0.98741519,-0.025984587,-0.15599996,0
4.4256549,6.5331101,-0.96671951,0.55668616,0.8217749,-0.12159994,0
-1.1613573,5.8067875,5.3042402,-0.14608268,0.73041356,0.66720003,0
6.0589733,-0.2885223,5.1388803,0.76213509,-0.036292117,0.64640009,0
6.4876461,0.56414253,4.5601192,0.81605613,0.070961326,0.57359993,0
-5.4621992,4.3697605,3.7778397,-0.68706912,0.54965544,0.47519997,0
-0.64106762,6.8914785,-3.9114003,-0.08063744,0.86685264,-0.49200004,0
2.7151325,3.9218583,-6.3599987,0.34152609,0.49331552,-0.79999983,0
-0.54265404,7.0544982,3.6252003,-0.068258367,0.88735831,0.45600006,0
4.6922832,-3.6495535,-5.2788005,0.59022433,-0.45906335,-0.66400009,0
6.2683539,0.85477459,4.8145194,0.78847224,0.10751882,0.60559994,0
-2.4341691,-2.1052272,-7.2694798,-0.3061848,-0.26480848,-0.91439998,0
-5.7377205,3.8251472,-3.9559209,-0.72172588,0.4811506,-0.49760014,0
-4.5791993,-2.7475197,-5.8893604,-0.57599992,-0.34559998,-0.74080008,0
-6.610662,-4.1622686,1.4755208,-0.83152986,-0.52355582,0.18560012,0
2.2738037,-7.3267035,2.0860794,0.28601307,-0.92159796,0.26239991,0
4.9669232,6.1495247,0.84588087,0.62477022,0.77352512,0.10640011,0
-4.5412807,0.90825522,6.46176,-0.57123023,0.11424594,0.81279999,0
4.6406217,-1.7929674,-6.2009993,0.58372599,-0.22553051,-0.77999991,0
-1.1498765,6.0368524,5.0434804,-0.14463855,0.75935251,0.63440007,0
-7.4706664,-2.7166061,0.10812063,-0.9397065,-0.34171146,0.013600079,0
-0.81484991,5.3547287,-5.8193984,-0.10249685,0.67355078,-0.73199981,0
-7.7456808,1.6430231,0.71232074,-0.97429949,0.20666958,0.089600094,0
4.4589005,-5.0162621,4.261199,0.56086797,-0.63097638,0.53599989,0
6.3901482,-4.2600989,-2.0542793,0.80379224,-0.53586149,-0.25839993,0
-7.2804637,1.6381038,-2.7411599,-0.91578162,0.2060508,-0.3448,0
2.7940242,-7.112061,2.1941998,0.35144961,-0.8945989,0.27599999,0
-5.0940385,3.9620295,4.6427999,-0.64075959,0.4983685,0.58399999,0
1.3041567,7.8249402,-0.52152067,0.16404487,0.98426926,-0.06560009,0
4.7445269,1.1345611,-6.277319,0.59679586,0.14271209,-0.7895999,0
5.8699737,4.2690721,3.2435987,0.73836148,0.53699023,0.40799984,0
0.79954088,5.9965563,-5.157959,0.10057119,0.75428385,-0.6487999,0
3.414994,-6.5672965,2.9001601,0.42955899,-0.82607508,0.36480001,0
-4.7726908,2.5609565,-5.8194003,-0.60033846,0.32213289,-0.73200005,0
3.9871066,-1.7217051,-6.6589198,0.50152284,-0.21656668,-0.83759999,0
7.9413147,0.22059186,-0.29892063,0.99890751,0.027747404,-0.037600081,0
-4.1309414,-5.5079212,3.9750001,-0.51961529,-0.69282031,0.50000006,0
5.9071021,-0.91888243,-5.2406392,0.74303174,-0.1155827,-0.65919989,0
-6.3414011,4.10326,-2.4804008,-0.79766053,0.51613337,-0.3120001,0
-1.0657506,7.1938176,3.2118006,-0.13405669,0.90488273,0.40400007,0
1.4812526,3.1035771,-7.1677189,0.18632108,0.39038706,-0.90159988,0
-3.3769746,-2.1489835,6.8687997,-0.42477667,-0.2703124,0.86399996,0
1.7053816,6.9920635,-3.3771615,0.21451342,0.87950486,-0.42480019,0
-6.1055994,2.74752,-4.2866402,-0.76799995,0.34560001,-0.53920001,0
5.5093312,-3.8259242,-4.2675605,0.69299763,-0.48124832,-0.53680009,0
-0.72089952,7.3892217,-2.8429213,-0.090679191,0.9294619,-0.35760015,0
-6.49687,0.73828083,-4.5219598,-0.8172164,0.092865519,-0.56879997,0
-3.6532872,-6.7297397,-2.1369596,-0.45953298,-0.84650815,-0.26879996,0
4.6477418,5.1285419,-3.9114003,0.58462161,0.64509964,-0.49200004,0
-3.5097632,6.2095819,3.5107195,-0.44147965,0.78107947,0.44159997,0
-5.2933922,3.5766163,-4.7318401,-0.6658355,0.44988886,-0.5952,0
0.24942206,-7.7320914,1.8316798,0.031373844,-0.97259015,0.23039998,0
7.6119609,-1.6025183,-1.6408799,0.95747936,-0.20157464,-0.20639999,0
5.6752081,-4.05372,-3.8160009,0.71386266,-0.50990188,-0.48000014,0
-5.6246643,-5.2367558,-2.0352001,-0.70750499,-0.65871143,-0.25600001,0
2.4145229,-6.1872139,-4.3693204,0.30371359,-0.77826589,-0.54960006,0
7.0312033,1.0817242,3.5488801,0.88442808,0.13606593,0.44640002,0
-3.5085242,-6.6477304,-2.5885205,-0.44132382,-0.83619249,-0.32560009,0
7.5721402,-1.2620236,2.0669994,0.95247048,-0.15874511,0.25999993,0
-5.3094535,-1.4748485,5.7303596,-0.6678558,-0.18551554,0.72079998,0
-5.2565308,5.0813131,-3.1227612,-0.66119885,0.6391589,-0.39280015,0
-3.0798299,5.879674,4.3756804,-0.3874,0.73958164,0.55040008,0
4.319418,4.319418,5.0880008,0.54332304,0.54332304,0.6400001,0
7.5638561,0.75638604,-2.3277588,0.95142847,0.095142901,-0.29279986,0
-6.6323791,-1.6580948,4.0576797,-0.83426154,-0.20856538,0.5104,0
0.95208919,-0.31736305,7.8863997,0.11975965,-0.039919883,0.99199998,0
-1.9118971,7.6475868,1.0303202,-0.2404902,0.96196061,0.12960002,0
3.689043,-1.2029489,-6.9387589,0.46403059,-0.15131433,-0.87279987,0
5.5895677,-3.633219,4.3311601,0.70309031,-0.45700869,0.54480004,0
-1.5091302,-7.5456514,1.9970394,-0.18982771,-0.94913858,0.25119993,0
6.3414016,-4.10326,-2.4803987,0.79766059,-0.51613337,-0.31199983,0
1.5084068,-4.5252209,-6.3599987,0.18973671,-0.56921017,-0.79999983,0
-6.1818676,2.2479513,4.4647202,-0.77759343,0.28276119,0.56160003,0
-3.9781022,-1.2240312,6.7733998,-0.50039023,-0.15396619,0.852,0
-4.6933308,-5.5624666,-3.199079,-0.59035611,-0.69968134,-0.4023999,0
-0.60617203,4.5462871,6.4935603,-0.076248057,0.57186002,0.81680006,0
-5.8416796,-5.3923202,-0.012719976,-0.73480248,-0.67827928,-0.001599997,0
-3.4936843,-3.9444821,-5.9529595,-0.43945715,-0.49616128,-0.74879998,0
-0.63910878,-7.8823419,-0.81408024,-0.080391042,-0.99148959,-0.10240003,0
-0.1083068,-5.0904241,-6.1055999,-0.013623497,-0.64030492,-0.76800001,0
-1.9828519,-6.7747436,-3.6569998,-0.24941534,-0.85216904,-0.45999998,0
-4.5371723,-4.5371723,4.6936798,-0.57071352,-0.57071352,0.59039998,0
-5.3723669,5.3723664,2.3404803,-0.67576945,0.67576939,0.29440004,0
3.691869,-1.2306228,6.9323997,0.46438605,-0.15479532,0.87199998,0
-4.9111719,-6.2505827,-0.11448,-0.6177575,-0.78623682,-0.014400001,0
-4.7733698,0.60936636,-6.3281999,-0.60042387,0.07664986,-0.796,0
-5.2160687,-2.8978157,5.2533598,-0.65610927,-0.36450514,0.66079998,0
1.2615271,1.5769085,7.6892395,0.15868266,0.19835328,0.96719998,0
-7.5252533,0.94065684,-2.3850002,-0.94657278,0.11832162,-0.30000004,0
5.9214439,-4.0373478,3.4407589,0.74483573,-0.50784248,0.43279988,0
6.9706588,-3.822619,1.8954276e-07,0.87681246,-0.48083258,2.3841856e-08,0
-5.0793386,0.59756875,6.0865202,-0.63891053,0.075165883,0.76560003,0
4.5492892,-0.30328569,6.5126405,0.57223767,-0.038149145,0.8192001,0
-1.2208546,-4.0113802,-6.7543201,-0.15356663,-0.50457615,-0.84960002,0
-1.1112357,-6.6674161,4.1848798,-0.13977808,-0.83866864,0.52639997,0
4.2514582,-4.8183198,4.6809607,0.5347746,-0.60607797,0.58880007,0
1.4724878,5.8899503,-5.1325197,0.1852186,0.74087429,-0.64559996,0
1.6364368,6.8184862,3.7460399,0.20584111,0.85767126,0.47119999,0
-4.265564,-0.91404951,6.6462002,-0.53654891,-0.11497478,0.83600003,0
-2.9911215,0.62315053,-7.3394394,-0.37624171,0.078383714,-0.92319995,0
-4.5724106,-4.2866354,4.8908401,-0.57514602,-0.53919941,0.61520004,0
-0.99281186,-7.6942935,1.73628,-0.124882,-0.96783566,0.2184,0
7.7939458,-0.8204152,-1.3355997,0.98037058,-0.10319688,-0.16799997,0
0.27605599,-6.2112656,-4.9544392,0.034724023,-0.78129131,-0.62319988,0
-0.41256768,7.8387818,-1.2592797,-0.051895306,0.98601031,-0.15839997,0
3.4008048,-1.2366558,7.0786796,0.42777419,-0.15555419,0.89039999,0
-5.8852339,-4.0355892,-3.50436,-0.74028099,-0.50762129,-0.44080001,0
6.3222847,-4.7962155,-0.47700074,0.79525596,-0.60329759,-0.060000096,0
5.9214439,-4.0373478,3.4407589,0.74483573,-0.50784248,0.43279988,0
1.5084068,4.5252185,6.3600001,0.18973671,0.56920987,0.80000001,0
6.0471854,0.8638829,5.0880008,0.76065224,0.10866452,0.6400001,0
3.2687125,4.1601787,5.9338799,0.41115883,0.5232929,0.7464,0
-4.819386,-0.30121136,6.3154798,-0.60621208,-0.037888221,0.79439998,0
3.3092663,-6.8730912,2.2387207,0.41625991,-0.8645398,0.28160009,0
-0.60617203,4.5462871,6.4935603,-0.076248057,0.57186002,0.81680006,0
-4.2866354,-4.5724106,4.8908401,-0.53919941,-0.57514602,0.61520004,0
0.49835736,7.7245464,1.8125999,0.062686458,0.97164106,0.22799999,0
0.68262708,7.1675811,-3.370801,0.085865043,0.90158254,-0.42400014,0
-0.59424329,-7.725162,-1.7807993,-0.074747585,-0.97171849,-0.22399992,0
3.8251472,-5.7377205,-3.9559209,0.4811506,-0.72172588,-0.49760014,0
-1.5640947,-5.7350135,-5.2788,-0.19674146,-0.7213853,-0.66399997,0
-2.4358721,3.6538076,6.6271195,-0.30639902,0.45959845,0.83359998,0
6.9844098,3.6126249,1.1702397,0.87854213,0.45441824,0.14719996,0
-3.0979013,5.7532449,-4.5283194,-0.38967314,0.72367859,-0.56959993,0
-1.3189604,6.924541,-3.6760809,-0.16590698,0.8710115,-0.46240014,0
4.2141414,-2.4080815,6.2964001,0.53008068,-0.30290335,0.79200006,0
-7.4579182,0.18190028,-2.7475197,-0.93810296,0.022880539,-0.34559998,0
-3.5083342,-6.1813502,-3.5616004,-0.44129992,-0.77752835,-0.44800007,0
-3.6216164,7.0301967,-0.81407899,-0.45554924,0.88430148,-0.10239988,0
-2.7942269,1.8628179,7.2058797,-0.35147509,0.23431672,0.90639997,0
6.4195023,-1.4929074,-4.4456401,0.80748457,-0.1877871,-0.55920005,0
3.8226194,-6.9706583,-4.5490265e-07,0.48083264,-0.8768124,-5.7220461e-08,0
1.2553557,2.196871,7.5365996,0.15790638,0.27633598,0.94799995,0
-6.8775539,-0.55020463,3.9495599,-0.86510116,-0.06920813,0.49680001,0
5.5529032,5.3004975,2.0669997,0.6984784,0.66672927,0.25999996,0
4.2630014,0.088812441,-6.7098012,0.53622657,0.011171375,-0.8440001,0
-4.2702079,0.61002916,6.678,-0.5371331,0.076733232,0.84000003,0
-1.4150107,-7.7825584,0.79500067,-0.17798877,-0.97893822,0.10000008,0
6.157856,-1.7184714,-4.7254806,0.77457303,-0.21615992,-0.59440005,0
3.3769746,2.1489835,6.8687997,0.42477667,0.2703124,0.86399996,0
5.4503379,-5.0869818,-2.7602403,0.68557709,-0.63987195,-0.34720004,0
-6.8891978,1.8483217,-3.51072,-0.86656576,0.2324933,-0.44160002,0
-0.94633716,6.782083,-4.0386004,-0.11903612,0.85309225,-0.50800008,0
2.7301731,-3.6402321,6.5190001,0.343418,-0.45789084,0.82000005,0
-0.31768152,0.63536304,7.9182,-0.039959941,0.079919882,0.99600005,0
6.555182,4.4481597,0.66780108,0.82455122,0.55951697,0.08400014,0
-4.0125194,5.2014146,-4.4774404,-0.50471944,0.654266,-0.56320006,0
