0.84927654,-7.6434851,-0.38192073,0.11029566,-0.9926604,-0.049600095,0
7.3623724,2.0706668,0.89320058,0.95615226,0.26891777,0.11600008,0
-5.1020269,-5.2842422,-2.3100007,-0.66260093,-0.68626523,-0.3000001,0
-1.748876,-4.37219,6.0922399,-0.22712676,-0.56781691,0.79119998,0
-1.5245225,-1.5245225,7.3919997,-0.19798994,-0.19798994,0.95999998,0
-5.7532487,-2.465678,4.4844794,-0.74717516,-0.32021794,0.58239996,0
5.5971317,1.6791396,5.0142403,0.72690022,0.21807009,0.65120006,0
2.3009057,4.6018133,5.7287993,0.29881892,0.59763813,0.74399996,0
-1.7367268,4.6312718,5.9012794,-0.22554894,0.60146391,0.76639992,0
-7.6250324,-0.46212342,0.96712065,-0.990264,-0.060016032,0.12560008,0
1.2270627,-0.61353135,7.5767999,0.1593588,-0.0796794,0.98400003,0
1.3367058,-7.574666,0.35727984,0.17359816,-0.98372287,0.046399981,0
-4.1548724,-1.174203,-6.3756003,-0.53959382,-0.15249391,-0.82800007,0
7.3827543,-0.49218386,2.1313596,0.9587993,-0.063919984,0.27679995,0
5.0543694,-5.7436008,0.86855918,0.65641165,-0.74592221,0.1127999,0
-0.95131648,-7.4202666,-1.8233594,-0.1235476,-0.96367103,-0.23679993,0
4.0253048,-6.0379562,2.5748792,0.52276689,-0.78415018,0.33439991,0
0.88530493,-4.1314268,6.4372001,0.11497467,-0.53654897,0.83600003,0
-5.1338158,5.3782835,2.0019989,-0.66672933,0.6984784,0.25999987,0
-4.2720389,-5.874053,-2.5563996,-0.55481029,-0.76286405,-0.33199996,0
1.553493,6.5246692,-3.7822411,0.20175235,0.84735966,-0.49120015,0
-6.4597311,2.6501467,-3.2463198,-0.83892614,0.34417492,-0.42159998,0
-2.7815654,5.2849746,4.86024,-0.36124226,0.68636036,0.63120002,0
3.5849295,-0.59748852,6.7883196,0.46557528,-0.077595912,0.88159996,0
5.2766967,3.9198315,-4.0101604,0.68528533,0.50906903,-0.52080005,0
0.95131648,7.4202666,-1.8233594,0.1235476,0.96367103,-0.23679993,0
4.1835871,-4.183588,4.928,0.54332304,-0.54332316,0.64000005,0
-7.6323566,-0.89792413,0.48047987,-0.99121517,-0.11661352,0.062399983,0
-4.3122201,-4.0508738,-4.9279995,-0.56002861,-0.52608752,-0.63999993,0
6.8100963,-1.047707,3.4372802,0.88442808,-0.13606584,0.44640005,0
-2.1238513,1.5170372,7.2441597,-0.27582484,0.19701782,0.94080001,0
-0.75066113,7.256391,2.4639993,-0.097488463,0.94238847,0.3199999,0
-2.6193762,3.4322858,-6.3756003,-0.34017873,0.4457514,-0.82800007,0
-0.58711004,-4.4033232,6.2893596,-0.076248057,-0.57186019,0.81679994,0
-2.7380347,7.0406618,-1.4907204,-0.35558894,0.91437167,-0.19360006,0
1.9068456,6.1605783,-4.2072806,0.24764229,0.80007511,-0.54640007,0
5.8317013,-4.8986292,1.1334398,0.7573638,-0.63618565,0.14719997,0
-5.9201221,3.8609486,3.0553606,-0.76884705,0.50142193,0.39680007,0
3.9742267,-6.1419859,-2.402401,0.51613337,-0.79766053,-0.31200013,0
2.6193762,3.4322858,-6.3756003,0.34017873,0.4457514,-0.82800007,0
-7.6819916,-0.42677751,-0.30800065,-0.99766129,-0.055425651,-0.040000085,0
1.506091,6.8610835,-3.1539209,0.19559623,0.8910498,-0.40960014,0
-0.25271028,-4.043364,-6.548079,-0.032819517,-0.52511221,-0.85039991,0
2.1321747,0.53304368,-7.3796811,0.2769058,0.069226451,-0.95840019,0
2.1238513,-1.5170372,7.2441597,0.27582484,-0.19701782,0.94080001,0
7.5027556,-1.7149158,-0.24024116,0.97438389,-0.22271633,-0.03120015,0
-4.2456789,-3.2129462,-5.56248,-0.55138689,-0.41726574,-0.72240001,0
-4.9608464,5.8628182,0.55440032,-0.64426577,0.76140499,0.072000042,0
4.6427937,1.4508731,5.9690394,0.60296023,0.18842509,0.77519995,0
2.1238513,-1.5170372,7.2441597,0.27582484,-0.19701782,0.94080001,0
5.3043575,-5.3043571,1.7371192,0.68887764,-0.68887758,0.2255999,0
-3.0298185,6.5646062,2.6488001,-0.39348292,0.85254627,0.34400001,0
0.55162048,-7.3549471,-2.2114401,0.071639024,-0.95518798,-0.2872,0
-1.7097746,-5.1293235,5.4823995,-0.22204867,-0.66614598,0.71200001,0
0,-7.3919997,-2.1560001,0,-0.95999998,-0.28000003,0
-2.4669244,-5.6191053,-4.6507998,-0.32037979,-0.72975397,-0.60399997,0
0.75066042,7.256391,2.4639993,0.097488366,0.94238847,0.3199999,0
3.8654673,0.29734337,6.6528001,0.50200874,0.038616024,0.86400002,0
0,7.573103,1.3921603,0,0.98351991,0.18080004,0
3.3838198,-3.8204417,-5.7657595,0.43945712,-0.49616128,-0.74879992,0
1.789032,3.2798922,6.7328796,0.23234183,0.42596003,0.87439996,0
-1.8671505,6.40166,3.8499997,-0.24248709,0.83138442,0.49999997,0
-1.6425388,2.1353002,-7.2133594,-0.21331672,0.27731171,-0.93679994,0
4.151835,-4.4286242,4.7370405,0.53919935,-0.57514602,0.6152001,0
-7.1069956,2.6058986,1.4106393,-0.92298645,0.33842841,0.18319991,0
-5.1854177,-4.5372405,-3.4372797,-0.67343086,-0.58925205,-0.44639999,0
6.083324,0.27651444,4.712399,0.7900421,0.035910968,0.61199987,0
-4.5540442,-5.9921632,1.62624,-0.59143436,-0.77820301,0.21120001,0
5.5036592,5.2998199,-0.95479906,0.71476096,0.68828833,-0.12399988,0
4.0253048,-6.0379562,2.5748792,0.52276689,-0.78415018,0.33439991,0
-2.8716962,-2.8716962,-6.5419202,-0.37294757,-0.37294757,-0.84960002,0
0.85132843,4.0012426,-6.5234418,0.11056214,0.51964194,-0.84720027,0
-4.9351478,4.9351478,3.25248,-0.64092833,0.64092833,0.42240003,0
2.3800483,6.3467975,3.65288,0.3090972,0.82425946,0.47440001,0
-1.9124094,-6.0104303,4.4167199,-0.24836487,-0.78057539,0.57359999,0
-3.8697059,-5.8886828,-3.1046393,-0.50255924,-0.76476401,-0.40319991,0
-6.2555094,-3.7533057,2.4639997,-0.81240386,-0.48744231,0.31999996,0
-0.67078936,4.5038719,-6.2092814,-0.087115504,0.58491844,-0.80640018,0
4.3897958,1.1451641,-6.2215986,0.57010335,0.14872262,-0.80799985,0
-4.8271723,-4.6714573,-3.7637603,-0.6269055,-0.60668278,-0.48880005,0
4.0433612,-0.25271007,-6.5480809,0.52511185,-0.032819491,-0.85040015,0
-0.5329026,6.6612787,3.8253598,-0.06920813,0.86510116,0.49679998,0
3.6801963,-5.0956569,-4.4475203,0.47794759,-0.66177362,-0.57760006,0
0.49827456,6.9758506,-3.2216806,0.064710982,0.90595466,-0.41840008,0
-3.3309596,-6.1622758,-3.1970398,-0.43259215,-0.80029559,-0.4152,0
-1.7964613,-7.3854518,-1.2320002,-0.23330668,-0.9591496,-0.16000004,0
7.5628343,0.47267669,1.3675203,0.98218632,0.061386585,0.17760004,0
-2.4762893,6.9336095,2.2545609,-0.32159603,0.90046877,0.29280013,0
6.6911888,3.7916739,0.37575921,0.86898559,0.4924252,0.048799898,0
-4.401793,-6.2025266,-1.2012,-0.57166147,-0.80552298,-0.156,0
5.2766967,-3.9198315,-4.0101604,0.68528533,-0.50906903,-0.52080005,0
4.8165846,-4.548996,3.9239199,0.62553048,-0.59077871,0.50959998,0
-2.2323351,7.0690608,-2.0820799,-0.28991365,0.91805989,-0.27039999,0
0.40860838,-4.801146,-6.006,0.053066023,-0.6235255,-0.78000003,0
-2.430259,0.60756403,7.2811198,-0.31561807,0.07890442,0.94559997,0
5.2842426,5.1020265,-2.3099997,0.68626535,0.66260087,-0.29999998,0
-6.7245083,-3.3622539,1.6632001,-0.87331277,-0.43665636,0.21600002,0
5.0751076,-2.5375538,5.2051997,0.65910488,-0.32955244,0.676,0
-7.3878918,-0.18469712,-2.1621602,-0.95946652,-0.023986639,-0.28080001,0
6.1455936,-3.584929,2.9444799,0.79812908,-0.46557522,0.38240001,0
-7.4971476,-1.4183791,-1.0348802,-0.97365552,-0.18420509,-0.13440003,0
5.4117551,0.28482896,5.4700799,0.70282537,0.036990777,0.71039999,0
5.6990952,4.3174968,-2.8582392,0.74014229,0.56071389,-0.37119991,0
1.0623817,-6.6398826,3.7514398,0.13797165,-0.86232245,0.48719999,0
4.2456789,-3.2129462,-5.56248,0.55138689,-0.41726574,-0.72240001,0
5.554667,1.5149093,-5.1127996,0.72138536,0.19674146,-0.66399997,0
-7.242651,-1.0863976,-2.3777602,-0.94060403,-0.1410906,-0.30880004,0
2.4085536,-3.3547711,-6.4987984,0.31279919,-0.43568456,-0.8439998,0
0.89527833,-3.5811169,6.7575197,0.11626992,-0.46508014,0.87760001,0
6.7583337,0,-3.6898403,0.87770569,0,-0.47920007,0
2.3781111,-2.179935,-6.9915996,0.30884561,-0.28310844,-0.90799999,0
1.9068456,-6.1605783,-4.2072806,0.24764229,-0.80007511,-0.54640007,0
-3.7533057,6.2555094,2.4639997,-0.48744231,0.81240386,0.31999996,0
-6.4027796,4.0313802,1.4291203,-0.83152986,0.52355587,0.18560004,0
7.3870292,-2.1726556,-0.036958829,0.95935446,-0.28216308,-0.004799848,0
-4.7176514,-6.0655513,0.49280041,-0.61268198,-0.78773397,0.064000055,0
-5.0956569,-3.6801963,-4.4475203,-0.66177362,-0.47794759,-0.57760006,0
5.2766967,3.9198315,-4.0101604,0.68528533,0.50906903,-0.52080005,0
-3.5786364,-4.1750755,-5.3899999,-0.46475801,-0.54221767,-0.70000005,0
6.9386435,2.8911009,-1.6693602,0.90112257,0.37546766,-0.21680002,0
-7.2552142,2.5606639,-0.30800021,-0.94223565,0.33255377,-0.040000029,0
2.7498915,0.22448105,-7.1887207,0.35712877,0.029153384,-0.93360013,0
6.9532051,2.8771882,1.6323991,0.90301365,0.3736608,0.21199989,0
3.017772,0,7.0839996,0.39191845,0,0.91999996,0
-6.1455936,-3.584929,2.9444799,-0.79812908,-0.46557522,0.38240001,0
-6.0606384,-1.1019341,4.6199999,-0.7870959,-0.14310832,0.60000002,0
7.4874792,-1.6638844,-0.67760074,0.97239995,-0.21608889,-0.088000096,0
-6.1587682,4.6190753,0.15400051,-0.79984003,0.59987992,0.020000067,0
-7.4070969,-1.8517746,0.99792016,-0.96196067,-0.24049021,0.12960002,0
-3.2707806,2.0814054,6.6527996,-0.4247767,0.2703124,0.86399996,0
0,6.8401632,3.5358403,0,0.8883329,0.45920005,0
2.2582929,-4.7424154,-5.6302404,0.2932848,-0.61589813,-0.7312001,0
-6.2949286,-1.798551,-4.0532808,-0.81752318,-0.23357806,-0.52640015,0
1.9518548,-4.1964884,-6.1538401,0.25348765,-0.54499853,-0.79920006,0
0.87365568,-4.6595016,6.0676003,0.11346177,-0.60513008,0.78799999,0
1.7301813,7.1678953,2.2175992,0.22469889,0.93089551,0.2879999,0
-5.823595,-4.991653,-0.67760032,-0.756311,-0.64826661,-0.088000037,0
7.3920002,0,-2.1559987,0.96000004,0,-0.27999985,0
5.0985122,5.7635345,0.27719975,0.66214448,0.74851102,0.035999969,0
-1.8312925,-0.91564626,7.4227996,-0.23783021,-0.1189151,0.96399999,0
5.57447,-4.5609298,2.722719,0.72395718,-0.59232855,0.35359988,0
-0.808698,6.469584,4.0963998,-0.10502572,0.84020573,0.53200001,0
-4.2768679,5.0787807,3.8992801,-0.55543739,0.6595819,0.50640005,0
2.4322557,0,7.3057599,0.31587738,0,0.94880003,0
3.4157457,-3.1229672,-6.1538405,0.44360337,-0.40558016,-0.79920012,0
-1.4400444,-4.8961496,5.7657599,-0.18701875,-0.6358636,0.74880004,0
3.2938612,1.1977682,6.8560796,0.42777419,0.15555432,0.89039999,0
1.9931191,-4.5107436,-5.9136,0.25884664,-0.5858109,-0.76800001,0
7.0188971,0,-3.1662407,0.9115451,0,-0.41120011,0
-7.3711805,0.73711735,2.1005597,-0.95729619,0.09572953,0.27279997,0
4.1578856,6.4447231,-0.68375981,0.53998512,0.83697706,-0.088799976,0
6.5821552,3.9081547,-0.83159965,0.85482538,0.50755256,-0.10799996,0
-0.30490413,-2.1343307,7.3919997,-0.03959794,-0.27718583,0.95999998,0
-3.2892323,6.5784645,-2.2792008,-0.42717302,0.85434604,-0.29600012,0
3.0754628,6.4072142,2.9629598,0.39941075,0.83210576,0.38479999,0
-1.5069988,2.7125962,7.04704,-0.19571413,0.35228524,0.9152,0
-6.8986602,0.82126927,-3.3202407,-0.89592993,0.10665835,-0.43120012,0
-4.5146451,-6.2345104,-0.19712098,-0.58631754,-0.80967671,-0.025600128,0
3.5757725,-1.1919239,6.7143998,0.46438605,-0.1547953,0.87199998,0
-3.3495903,6.9085298,-0.58519924,-0.43501174,0.89721167,-0.075999901,0
7.187983,-0.52594995,-2.7104013,0.93350434,-0.068305187,-0.35200018,0
0.29561555,4.1386209,6.4864802,0.038391631,0.53748322,0.84240007,0
-1.4790418,3.8455076,6.5049601,-0.19208336,0.49941659,0.84480006,0
4.5146446,6.2345104,-0.1971202,0.58631754,0.80967677,-0.025600029,0
-4.5609298,5.57447,2.722719,-0.59232855,0.72395718,0.35359988,0
-4.1246018,-5.1939435,-3.9115994,-0.53566259,-0.67453814,-0.50799996,0
2.3463693,-3.8128507,6.26472,0.30472329,-0.49517542,0.8136,0
6.8450871,0.97786957,-3.3880007,0.88897234,0.12699606,-0.44000012,0
5.5237045,0.24016084,-5.3591986,0.71736425,0.031189719,-0.69599986,0
3.3076043,-6.3607779,2.80896,0.42955902,-0.82607508,0.36480001,0
5.3283963,-5.5504127,0.30183971,0.69199955,-0.72083282,0.039199963,0
5.7255497,2.7264531,4.3674402,0.7435779,0.35408482,0.56720006,0
2.7264531,-5.7255502,4.3674393,0.35408482,-0.74357796,0.56719995,0
-2.0384197,3.7223318,-6.4248805,-0.26472983,0.48341972,-0.83440006,0
4.2456799,3.2129467,-5.562479,0.55138701,0.4172658,-0.72239989,0
0.30738309,0.92214924,7.6384001,0.039919883,0.11975964,0.99200004,0
0.25915939,-6.9973097,3.2032006,0.033657063,-0.90874153,0.4160001,0
6.986238,-2.994102,-1.2320011,0.90730363,-0.38884443,-0.16000015,0
0.146162,-6.4311342,-4.2319198,0.018982079,-0.83521223,-0.54960001,0
3.5688894,-1.4870375,6.6589599,0.46349213,-0.19312176,0.86479998,0
-0.5329026,-6.6612787,3.8253598,-0.06920813,-0.86510116,0.49679998,0
4.8095355,5.7714434,1.68784,0.62461501,0.74953812,0.2192,0
-3.3347056,4.5697823,-5.2236795,-0.43307865,0.5934782,-0.67839998,0
-2.5047648,5.4050188,-4.8787212,-0.32529414,0.70195049,-0.63360018,0
-4.9862332,-4.7238002,3.4803998,-0.6475628,-0.61348057,0.45200002,0
-1.4508733,-4.6427932,5.9690399,-0.18842511,-0.60296017,0.77520001,0
1.403007,-5.6120267,5.0820003,0.18220872,-0.72883463,0.66000003,0
4.0860829,-2.553802,-6.0059986,0.53066015,-0.3316626,-0.77999985,0
-6.6725564,-1.7901983,-3.4003198,-0.86656576,-0.2324933,-0.44159999,0
-5.453949,-4.9085536,-2.3346398,-0.70830506,-0.63747448,-0.30319995,0
4.4131746,-3.8939781,-4.9649591,0.57313955,-0.50571144,-0.64479989,0
-1.2218555,1.5273201,7.4474397,-0.15868254,0.19835328,0.96719998,0
0.57416958,-5.1675315,5.6795197,0.074567482,-0.67110801,0.73759997,0
5.0599437,-5.5418434,1.7248008,0.65713555,-0.71971995,0.22400011,0
5.0599437,-5.5418434,1.7248008,0.65713555,-0.71971995,0.22400011,0
-0.25271028,-4.043364,-6.548079,-0.032819517,-0.52511221,-0.85039991,0
-1.1302044,6.7812281,-3.4680808,-0.14677981,0.88067901,-0.45040011,0
7.6066995,0,-1.1950397,0.98788309,0,-0.15519997,0
2.5538008,-4.0860815,-6.006,0.33166245,-0.53065997,-0.78000003,0
-4.1518354,4.4286251,4.7370391,-0.53919941,0.57514614,0.61519992,0
7.242651,-1.9313738,1.7617594,0.94060403,-0.25082779,0.22879992,0
0.5398348,-6.4780245,4.1271996,0.070108414,-0.84130192,0.53599995,0
-6.1484547,2.8377485,-3.6651993,-0.7985006,0.36853877,-0.47599992,0
-3.9081547,6.5821552,-0.83159965,-0.50755256,0.85482538,-0.10799996,0
-0.90363234,3.0121083,7.0285597,-0.11735485,0.3911829,0.91279995,0
-3.6478174,4.4896221,5.0819993,-0.47374251,0.58306783,0.65999991,0
-4.1246023,5.193944,-3.9115982,-0.53566265,0.6745382,-0.50799978,0
-4.4351997,-4.7308798,-4.1518402,-0.57599998,-0.61439997,-0.53920007,0
-2.2218304,-4.4436607,-5.8828011,-0.28854939,-0.57709879,-0.76400018,0
-7.3083668,1.4616734,1.9342395,-0.94913858,0.18982771,0.25119993,0
-5.9135995,-4.4352002,-2.1559999,-0.76799995,-0.57600003,-0.28,0
4.151835,-4.4286242,4.7370405,0.53919935,-0.57514602,0.6152001,0
-6.0469866,-1.3743155,4.5645599,-0.78532296,-0.17848253,0.59280002,0
4.8684421,5.6174335,-2.0081601,0.63226521,0.72953683,-0.26080003,0
-5.8614521,4.9930897,-0.049279906,-0.76122755,0.64845324,-0.0063999877,0
6.9083457,-3.2509863,-0.99791878,0.89718777,-0.42220601,-0.12959984,0
4.4946895,1.7365848,-6.006,0.58372593,0.22553049,-0.78000003,0
-7.4134517,-2.0218506,0.49280062,-0.96278596,-0.26257801,0.064000085,0
7.2409825,0.99875665,2.4208791,0.94038737,0.12970866,0.3143999,0
0.59452796,-3.1708167,-6.9915991,0.077211425,-0.41179439,-0.90799993,0
-4.889348,-4.889348,-3.3880007,-0.63498026,-0.63498026,-0.44000012,0
-2.9664092,-2.6697686,6.5850401,-0.38524795,-0.34672317,0.85519999,0
2.3970551,-3.6877775,-6.3201599,0.31130588,-0.47893217,-0.82080001,0
2.8377485,-6.1484547,-3.6651993,0.36853877,-0.7985006,-0.47599992,0
-3.8712056,-4.7007499,4.7124004,-0.50275397,-0.61048698,0.61200005,0
-1.1185958,-7.6064501,0.42503977,-0.1452722,-0.98785067,0.05519997,0
-4.3714299,-6.3385744,0.055439524,-0.56771821,-0.82319152,0.0071999384,0
5.4872441,0.35786343,-5.3899984,0.71262914,0.046475772,-0.69999981,0
-0.86026335,-5.1615801,5.6487198,-0.11172251,-0.67033511,0.73359996,0
-2.9664092,-2.6697686,6.5850401,-0.38524795,-0.34672317,0.85519999,0
0.30490413,2.1343307,7.3919997,0.03959794,0.27718583,0.95999998,0
-4.2323456,-5.290432,3.6590402,-0.54965526,-0.68706912,0.47520003,0
1.5915585,5.3868136,-5.2667994,0.20669591,0.69958621,-0.68399996,0
-4.9062181,1.154405,5.8211999,-0.63717121,0.14992273,0.75599998,0
-6.6523719,0.79828387,3.79456,-0.86394441,0.10367323,0.4928,0
-4.2720389,-5.874053,-2.5563996,-0.55481029,-0.76286405,-0.33199996,0
-1.2240895,1.2240905,7.5028796,-0.15897267,0.15897278,0.97439998,0
-5.7352347,3.9103866,3.3325603,-0.74483567,0.50784242,0.43280005,0
1.8331565,-0.61105245,7.4535999,0.23807228,-0.07935746,0.96799999,0
6.9277816,-1.5395072,2.9876006,0.89971191,-0.199936,0.38800007,0
-4.2343669,5.9779301,2.3715999,-0.54991782,0.77635455,0.308,0
2.9095819,3.7824554,6.0429597,0.37786779,0.49122798,0.78479999,0
5.1137204,-1.9886687,5.4023199,0.66411954,-0.25826865,0.70160002,0
-1.5534925,-6.5246696,-3.7822406,-0.20175229,-0.84735972,-0.49120009,0
-2.1525471,6.3038888,-3.8623209,-0.2795516,0.8186869,-0.50160015,0
-5.0901246,-4.3188939,-3.8376794,-0.66105515,-0.56089532,-0.49839994,0
-6.6120939,-3.8760543,0.73919952,-0.85871351,-0.5033837,0.095999941,0
1.7177455,-4.1989336,-6.2216001,0.22308384,-0.54531604,-0.80800003,0
-1.4261831,5.7047319,-4.9711199,-0.18521859,0.74087429,-0.64560002,0
-6.6207819,2.787698,-2.7720003,-0.85984182,0.3620387,-0.36000004,0
3.8128507,2.3463693,6.26472,0.49517542,0.30472329,0.8136,0
-7.2779298,-1.6981834,1.8541596,-0.94518572,-0.22054331,0.24079995,0
-5.8628182,-4.9608464,0.55440032,-0.76140499,-0.64426577,0.072000042,0
7.187983,0.52594942,-2.7104011,0.93350434,0.06830512,-0.35200015,0
4.9608469,-5.8628182,0.55439949,0.64426583,-0.76140499,0.071999937,0
-4.0447102,5.9791365,-2.6795986,-0.52528703,0.77651119,-0.34799981,0
-2.7524245,-6.75595,2.4640005,-0.35745773,-0.87739611,0.32000008,0
6.5246692,1.553493,-3.7822411,0.84735966,0.20175235,-0.49120015,0
-3.5261908,3.7465775,-5.7287984,-0.45794687,0.48656851,-0.74399984,0
2.553802,4.0860829,-6.0059986,0.3316626,0.53066015,-0.77999985,0
-5.8684402,-0.27944925,4.9772797,-0.76213509,-0.036292113,0.64639997,0
1.4870375,3.5688894,6.6589599,0.19312176,0.46349213,0.86479998,0
-2.0049639,4.8691988,5.6179194,-0.26038492,0.6323635,0.72959995,0
-5.9613395,2.4387293,4.2196002,-0.77419996,0.3167181,0.54800004,0
7.4523349,-0.96159136,1.68168,0.96783572,-0.124882,0.2184,0
-6.6747651,0.62090874,-3.7884004,-0.86685264,0.0806375,-0.49200007,0
-6.5904512,-3.7659721,1.2936,-0.85590279,-0.48908731,0.168,0
6.7748799,2.0324643,-3.0430388,0.87985456,0.2639564,-0.39519987,0
4.7308798,5.9136,-1.3921607,0.61439997,0.76800001,-0.1808001,0
1.7365848,4.4946895,-6.006,0.22553049,0.58372593,-0.78000003,0
-1.2748971,5.215487,-5.5193596,-0.16557105,0.67733598,-0.71679997,0
4.4131746,-3.8939781,-4.9649591,0.57313955,-0.50571144,-0.64479989,0
4.9324193,0.96503836,-5.8335185,0.64057398,0.12532966,-0.75759983,0
-3.2129462,-4.2456789,-5.56248,-0.41726574,-0.55138689,-0.72240001,0
1.3421878,-6.4425001,3.9978395,0.1743101,-0.83668834,0.51919997,0
1.4790418,-3.8455076,6.5049601,0.19208336,-0.49941659,0.84480006,0
5.863492,3.1982682,3.8315191,0.76149249,0.41535953,0.4975999,0
-2.1308434,-0.91321874,7.34272,-0.27673292,-0.11859984,0.95360005,0
2.7618549,-1.0206856,-7.1147985,0.35868245,-0.13255657,-0.92399985,0
-6.9396577,1.3540792,-3.0491996,-0.9012543,0.17585446,-0.39599997,0
4.8975835,-4.0813198,4.3181596,0.63604981,-0.53004158,0.56079996,0
-2.07195,7.1576443,-1.9403999,-0.26908442,0.92956424,-0.252,0
6.4447231,-4.1578856,-0.68375981,0.83697706,-0.53998512,-0.088799976,0
3.9989889,-3.8778074,-5.3160791,0.51934922,-0.50361139,-0.69039989,0
0,7.2761545,2.5194392,0,0.94495517,0.32719991,0
4.7335501,-5.4348173,-2.7103994,0.61474675,-0.70582044,-0.35199994,0
7.5369306,1.5517209,0.27720115,0.97882217,0.2015222,0.036000151,0
0.66116083,-6.9421854,-3.2648008,0.085865043,-0.90158254,-0.42400011,0
1.3540792,-6.9396577,-3.0491996,0.17585446,-0.9012543,-0.39599997,0
-0.76463431,-7.4551854,-1.7679192,-0.099303156,-0.96820593,-0.22959989,0
-3.005487,5.0962605,-4.927999,-0.39032298,0.66185206,-0.63999987,0
2.0674117,6.7190886,3.1416004,0.26849502,0.8726089,0.40800005,0
4.6557946,-5.7731853,-2.0697601,0.60464865,-0.74976432,-0.26880002,0
-4.6176171,-2.0202074,5.8211999,-0.59969056,-0.2623646,0.75599998,0
1.0623817,-6.6398826,3.7514398,0.13797165,-0.86232245,0.48719999,0
-3.0855083,6.1710167,-3.4187996,-0.40071538,0.80143076,-0.44399998,0
1.4508731,4.6427937,5.9690394,0.18842509,0.60296023,0.77519995,0
6.3267212,-4.2178149,1.2135204,0.82165211,-0.54776818,0.15760006,0
-4.2883954,3.1448236,5.5686398,-0.55693448,0.40841866,0.72319996,0
7.1991878,-1.6613511,-2.1683192,0.93495947,-0.21575989,-0.28159991,0
-7.1365876,-0.50975657,2.8459198,-0.92682958,-0.066202156,0.3696,0
0,-7.2278066,-2.6549597,0,-0.93867618,-0.34479997,0
-7.6616383,-0.20707111,-0.73920017,-0.99501801,-0.026892353,-0.096000023,0
5.9613404,-2.4387298,4.2195992,0.77420008,-0.31671816,0.54799992,0
5.7205153,-2.7172449,-4.3797588,0.74292403,-0.35288894,-0.56879985,0
-7.000628,3.1821032,-0.39423886,-0.90917248,0.41326016,-0.051199853,0
-2.2218304,4.4436607,-5.8828011,-0.28854939,0.57709879,-0.76400018,0
2.8218887,-0.8405624,-7.1148014,0.36647907,-0.10916395,-0.9240002,0
2.7125962,1.5069988,7.04704,0.35228524,0.19571413,0.9152,0
6.228025,0.84927619,-4.4475198,0.80883443,0.11029561,-0.5776,0
5.278945,2.771446,-4.8725581,0.68557727,0.35992807,-0.63279974,0
4.8596272,-3.1971231,-5.0450397,0.63112044,-0.41521078,-0.65519994,0
6.4349566,-3.7852688,-1.8849585,0.83570868,-0.49159336,-0.24479981,0
4.6018133,2.3009057,5.7287993,0.59763813,0.29881892,0.74399996,0
6.3490443,4.3082805,0.64680105,0.82455122,0.55951697,0.08400014,0
-5.6932797,-4.9816198,1.4352795,-0.73938698,-0.64696366,0.18639994,0
-4.3829174,-1.4609725,-6.1599994,-0.56921005,-0.18973669,-0.79999995,0
-2.4066608,7.2199821,-1.1704006,-0.31255335,0.93766004,-0.15200008,0
3.0421288,3.8813367,-5.9136009,0.39508167,0.50406969,-0.76800013,0
-6.8385653,-2.9308138,1.9835198,-0.88812542,-0.38062519,0.25759998,0
-1.7630951,-7.4931531,0.18479972,-0.2289734,-0.97313678,0.023999963,0
-0.86718273,-4.9140348,5.8643203,-0.11262114,-0.63818634,0.76160008,0
-3.1448236,-4.2883954,5.5686398,-0.40841866,-0.55693448,0.72319996,0
-3.6877775,-2.3970551,-6.3201599,-0.47893217,-0.31130588,-0.82080001,0
3.9570503,-5.5398712,3.5974402,0.51390266,-0.71946383,0.46720004,0
-3.0717039,5.0264239,4.9587994,-0.39892259,0.65278232,0.64399993,0
-1.0322365,-6.9675965,3.1108005,-0.13405669,-0.90488273,0.4040001,0
-4.645391,-6.1234708,-0.46200073,-0.60329753,-0.79525596,-0.060000096,0
6.9675965,1.0322372,3.1108005,0.90488267,0.13405678,0.40400007,0
0,-4.6688733,6.1230397,0,-0.6063472,0.79519999,0
-2.6806831,-2.6806831,6.7020798,-0.34814069,-0.34814069,0.87040001,0
-6.0477896,4.6366391,-1.102641,-0.78542721,0.60216093,-0.14320013,0
-5.9874692,-2.1772618,4.3243198,-0.77759343,-0.28276128,0.56159997,0
-3.7985294,-2.629751,-6.1599984,-0.49331552,-0.34152612,-0.79999983,0
-7.2670121,1.4906689,-2.0635991,-0.94376785,0.19359337,-0.26799989,0
1.8346462,0,7.47824,0.23826575,0,0.97120005,0
-1.1630495,4.6521997,6.0244794,-0.15104538,0.60418183,0.78239995,0
-6.1934199,3.3547688,3.1107998,-0.80434024,0.43568426,0.40399998,0
-0.89965528,3.2987363,6.8991995,-0.11683835,0.42840734,0.89599997,0
-7.6984596,0,0.15400025,-0.99979997,0,0.020000033,0
4.2883945,3.1448236,5.5686402,0.55693436,0.40841866,0.72320002,0
-6.6398826,-1.062381,3.75144,-0.86232245,-0.13797157,0.48720002,0
0.59084588,-4.1359248,6.4679999,0.076733232,-0.5371331,0.84000003,0
-4.1251211,-1.1786059,6.3940802,-0.53573,-0.15306571,0.83040005,0
0.44004014,-0.68450695,-7.6568799,0.057148073,-0.088897012,-0.99440002,0
-7.3339577,1.8926339,1.386,-0.95246208,0.24579662,0.18000001,0
2.9767711,-3.4568956,-6.2031207,0.38659367,-0.44894749,-0.80560011,0
-2.6297503,-3.7985277,6.1599998,-0.341526,-0.49331531,0.80000001,0
-7.3244133,-2.3696635,-0.16632034,-0.95122254,-0.3077485,-0.021600045,0
0.65336686,5.8803005,-4.9279995,0.084852837,0.76367539,-0.63999993,0
-3.4157469,-3.1229684,-6.1538391,-0.44360352,-0.40558031,-0.79919988,0
-4.0661035,-2.613924,5.99368,-0.52806538,-0.33947065,0.7784,0
-6.4349566,3.7852683,-1.8849598,-0.83570868,0.4915933,-0.24479999,0
3.4062915,1.3625166,-6.7698393,0.44237554,0.17695022,-0.87919992,0
1.7630947,7.4931531,0.18480127,0.22897334,0.97313678,0.024000164,0
-7.0406618,-2.7380347,-1.4907204,-0.91437167,-0.35558894,-0.19360006,0
5.4699545,-2.2140291,-4.9464803,0.71038371,-0.28753626,-0.64240003,0
6.3852792,-0.43535995,-4.2811999,0.82925701,-0.056540251,-0.55599999,0
-5.979136,-4.0447092,-2.6795998,-0.77651119,-0.52528691,-0.34799999,0
-7.4971476,1.4183791,-1.0348802,-0.97365552,0.18420509,-0.13440003,0
3.0854158,7.0523796,0.18480052,0.40070337,0.9158935,0.024000069,0
6.9992857,0,3.2093606,0.90899819,0,0.41680008,0
-3.9086833,5.7001634,-3.3941612,-0.50762123,0.74028099,-0.44080016,0
-5.979136,-4.0447092,-2.6795998,-0.77651119,-0.52528691,-0.34799999,0
2.230397,7.3603077,0.37576038,0.28966194,0.95588416,0.048800051,0
-3.4163294,-4.8616996,-4.8971996,-0.44367915,-0.63138956,-0.63599998,0
-6.208497,4.2683425,-1.5892805,-0.80629832,0.55433023,-0.20640007,0
5.6098056,4.704998,-2.3839197,0.7285462,0.61103874,-0.30959997,0
1.8331565,-0.61105245,7.4535999,0.23807228,-0.07935746,0.96799999,0
-0.61538398,-0.30769154,7.6691999,-0.079920001,-0.039959941,0.99599999,0
-3.7646115,3.185441,5.9136,-0.48891059,0.41369364,0.76800001,0
-6.3852792,0.43535954,-4.2811995,-0.82925707,0.056540202,-0.55599993,0
5.9388123,0.52789474,-4.8725595,0.77127433,0.068557762,-0.63279998,0
-5.7436008,5.0543694,0.86855918,-0.74592221,0.65641165,0.1127999,0
2.1343307,0.30490413,7.3919997,0.27718583,0.03959794,0.95999998,0
-3.5177538,-2.1449718,-6.5049596,-0.45685115,-0.27856779,-0.8448,0
-4.3714299,-6.3385744,0.055439524,-0.56771821,-0.82319152,0.0071999384,0
-3.7223318,-2.0384197,-6.4248805,-0.48341972,-0.26472983,-0.83440006,0
-2.7723689,2.9403915,-6.5542402,-0.36004791,0.38186905,-0.85120004,0
1.8671505,-6.40166,3.8499997,0.24248709,-0.83138442,0.49999997,0
3.9322031,4.2130747,5.1066403,0.51067573,0.54715258,0.66320008,0
4.7308798,5.9136,-1.3921607,0.61439997,0.76800001,-0.1808001,0
1.9071141,-5.4670615,-5.07584,0.24767716,-0.71000803,-0.65920001,0
6.1554208,2.2519827,-4.0409608,0.79940534,0.2924653,-0.52480012,0
1.9124094,-6.0104303,4.4167199,0.24836487,-0.78057539,0.57359999,0
3.7215474,-4.4915223,-5.0265603,0.48331785,-0.5833146,-0.65280008,0
-4.0253038,6.0379567,2.5748796,-0.52276677,0.78415024,0.33439997,0
5.5357804,2.4911005,4.7370405,0.71893257,0.32351956,0.6152001,0
3.5110054,2.9258385,6.1969595,0.45597473,0.37997904,0.80479997,0
1.1150805,-1.3241581,-7.5028791,0.14481565,-0.17196858,-0.97439992,0
-3.2938612,1.1977682,6.8560796,-0.42777419,0.15555432,0.89039999,0
-2.1238513,1.5170372,7.2441597,-0.27582484,0.19701782,0.94080001,0
4.0288944,-6.33112,-1.7247987,0.523233,-0.82222337,-0.22399981,0
-2.5372174,6.5967646,-3.0553594,-0.32950875,0.85672271,-0.39679992,0
5.1650052,5.5623126,-1.2935987,0.67077988,0.72237825,-0.16799983,0
1.154405,-4.9062181,5.8211999,0.14992273,-0.63717121,0.75599998,0
-0.15704964,6.7531409,-3.6960003,-0.020396058,0.87703133,-0.48000005,0
-5.8049955,3.2080235,-3.9115992,-0.75389552,0.41662645,-0.5079999,0
0.38469154,-7.5014915,-1.6939992,0.049959943,-0.97421968,-0.21999989,0
0,4.6688743,6.1230392,0,0.60634732,0.79519993,0
1.4346722,-3.0059803,-6.9423189,0.18632108,-0.39038706,-0.90159988,0
2.7216458,0.9072147,7.1456003,0.35346052,0.11782009,0.92800009,0
-3.5261908,3.7465775,-5.7287984,-0.45794687,0.48656851,-0.74399984,0
-3.4062915,1.3625166,-6.7698393,-0.44237554,0.17695022,-0.87919992,0
-2.3957789,-0.29336068,-7.3119206,-0.31114012,-0.03809879,-0.9496001,0
6.4238138,-1.6059535,3.9300797,0.83426154,-0.20856538,0.5104,0
0.30695072,-1.2278038,7.5952797,0.039863732,-0.15945505,0.98640001,0
-2.5372174,6.5967646,-3.0553594,-0.32950875,0.85672271,-0.39679992,0
4.3280296,-2.5968182,5.8150401,0.56208181,-0.33724913,0.75520003,0
-5.5036592,-5.2998199,-0.95479906,-0.71476096,-0.68828833,-0.12399988,0
-5.0985117,-5.763535,0.27720061,-0.66214436,-0.74851108,0.03600008,0
-7.3011198,-2.433707,0.24640048,-0.94819748,-0.31606588,0.032000065,0
-0.75066113,-7.256391,2.4639993,-0.097488463,-0.94238847,0.3199999,0
5.5921736,3.4762161,-3.9916806,0.72625631,0.45145664,-0.51840007,0
6.0050678,4.76264,-0.73920131,0.77987897,0.61852467,-0.096000172,0
7.0857005,-3.0060546,-0.21559907,0.92022085,-0.39039671,-0.02799988,0
-2.613924,-4.0661035,5.99368,-0.33947065,-0.52806538,0.7784,0
-3.5412233,-6.6889768,-1.4168003,-0.45989913,-0.8686983,-0.18400005,0
4.1774611,4.5952072,-4.5522394,0.54252744,0.59678018,-0.59119993,0
3.5688894,-1.4870375,6.6589599,0.46349213,-0.19312176,0.86479998,0
5.4117551,-0.28482896,5.4700799,0.70282537,-0.036990777,0.71039999,0
-3.0346236,6.8279033,-1.8603206,-0.39410698,0.88674068,-0.24160008,0
4.4915218,3.7215464,-5.0265617,0.58331454,0.48331773,-0.65280026,0
-5.2514415,-2.2506177,-5.1620808,-0.68200541,-0.29228804,-0.67040014,0
-5.7255502,-2.7264521,4.3674397,-0.74357796,-0.3540847,0.56720001,0
-2.9219964,7.0962772,-0.62831867,-0.37948006,0.92159444,-0.081599832,0
-3.0977516,4.7874341,5.1743994,-0.40230542,0.62174469,0.67199993,0
-2.6538086,-1.857666,-6.9854403,-0.34465048,-0.24125533,-0.90720004,0
2.3172078,-4.3447657,5.9197598,0.30093607,-0.5642553,0.76879996,0
5.2428799,-4.4564476,3.4557605,0.68089348,-0.57875943,0.44880009,0
-2.2519829,6.1554203,-4.0409613,-0.29246533,0.79940528,-0.52480018,0
4.967267,-4.501586,-3.7884004,0.64509964,-0.58462155,-0.49200007,0
5.6970639,-5.0866647,-0.97943896,0.73987848,-0.66060585,-0.12719987,0
-5.2849746,-2.7815654,4.86024,-0.68636036,-0.36124226,0.63120002,0
-0.27651444,6.083324,4.712399,-0.035910968,0.7900421,0.61199987,0
-6.1622758,-3.3309596,-3.1970398,-0.80029559,-0.43259215,-0.4152,0
0.14809477,-0.40943843,-7.6876802,0.019233087,-0.053173825,-0.99840003,0
4.2178149,6.3267212,1.2135204,0.54776818,0.82165211,0.15760006,0
-5.8317018,4.8986287,1.1334405,-0.75736386,0.63618559,0.14720006,0
6.8525672,-3.4262836,0.76999944,0.88994384,-0.44497192,0.099999927,0
2.430258,0.60756403,7.2811198,0.31561795,0.07890442,0.94559997,0
4.9085536,5.453949,-2.3346398,0.63747448,0.70830506,-0.30319995,0
-2.3849862,-6.971498,-2.2360797,-0.30973846,-0.90538937,-0.29039997,0
5.3043575,5.3043575,1.7371184,0.68887764,0.68887764,0.2255998,0
-4.6302342,4.3578687,4.3427997,-0.60132915,0.56595701,0.56399995,0
4.7567329,-1.729721,-5.8027196,0.61775756,-0.22463909,-0.75359994,0
6.7721872,1.6517533,-3.2709615,0.87950486,0.21451342,-0.42480022,0
0.75066149,-2.352073,-7.2934394,0.097488508,-0.30546403,-0.94719994,0
2.3696637,7.3244133,-0.16631909,0.30774856,0.95122254,-0.021599881,0
2.0706668,7.3623724,0.89320058,0.26891777,0.95615226,0.11600008,0
2.3696637,7.3244133,-0.16631909,0.30774856,0.95122254,-0.021599881,0
0.46824056,6.7114549,-3.7452803,0.060810465,0.87161756,-0.48640004,0
5.7814813,3.6791236,3.5111995,0.75084174,0.47780827,0.45599994,0
-1.5319713,-0.30639392,7.5398397,-0.19895732,-0.03979142,0.97920001,0
-1.748876,-4.37219,6.0922399,-0.22712676,-0.56781691,0.79119998,0
-6.5784645,3.2892323,-2.2792008,-0.85434604,0.42717302,-0.29600012,0
-3.6477301,-3.6477301,-5.7164783,-0.47373119,-0.47373119,-0.74239981,0
-0.25271028,-4.043364,-6.548079,-0.032819517,-0.52511221,-0.85039991,0
7.4606805,-1.8086501,0.59752053,0.96891958,-0.23488963,0.077600069,0
-3.3547688,6.1934199,3.1107998,-0.43568426,0.80434024,0.40399998,0
1.2240905,1.2240905,7.5028796,0.15897278,0.15897278,0.97439998,0
-5.2428799,4.4564486,3.4557598,-0.68089348,0.57875955,0.44879997,0
-2.1360195,6.9420629,-2.5563993,-0.27740514,0.90156662,-0.33199993,0
-0.30787647,0.30787647,7.6876798,-0.039983958,0.039983958,0.99839997,0
-6.6237903,1.3247584,3.6959999,-0.86023253,0.17204656,0.47999999,0
-1.8342738,-0.30571201,7.4720798,-0.23821738,-0.039702859,0.97039998,0
5.7779183,-2.2011123,4.5892005,0.75037903,-0.28585875,0.59600008,0
0.28958523,4.9229541,5.9135995,0.037608474,0.63934469,0.76799995,0
6.5395703,3.6330943,1.823361,0.84929484,0.47183043,0.23680013,0
-2.9219964,7.0962772,-0.62831867,-0.37948006,0.92159444,-0.081599832,0
2.4006221,-6.40166,-3.5419998,0.31176913,-0.83138442,-0.45999998,0
-2.2850194,7.3120627,0.77616036,-0.29675576,0.94961858,0.10080005,0
-3.4762161,5.5921741,-3.9916799,-0.45145664,0.72625637,-0.51840001,0
7.1792412,2.7450042,-0.46199882,0.93236899,0.35649407,-0.05999985,0
6.0688033,4.5026608,-1.4784006,0.78815627,0.58476114,-0.19200008,0
6.5967646,-2.5372174,-3.0553594,0.85672271,-0.32950875,-0.39679992,0
-5.5418434,5.0599437,1.7248008,-0.71971995,0.65713555,0.22400011,0
1.4609727,4.382916,6.1600003,0.18973671,0.56920987,0.80000007,0
2.9950531,1.7970315,6.8622394,0.38896793,0.23338072,0.89119995,0
-7.2552142,-2.5606639,-0.30800021,-0.94223565,-0.33255377,-0.040000029,0
2.4837711,-7.0691948,-1.77408,0.32256767,-0.91807729,-0.23040001,0
-3.1221118,-4.5412526,5.3776798,-0.40546906,-0.58977306,0.69840002,0
0.91107655,7.2886105,-2.3099988,0.11832163,0.94657278,-0.29999983,0
-6.1735368,4.5272608,-0.82544118,-0.80175805,0.58795595,-0.10720015,0
0.98066008,7.3549471,2.0574393,0.12735845,0.95518798,0.26719993,0
-1.6644541,7.3711548,1.4784,-0.21616288,0.95729285,0.192,0
3.8374372,-4.9338489,4.4967999,0.49836847,-0.64075959,0.58399999,0
5.1293235,-1.7097746,5.4823995,0.66614598,-0.22204867,0.71200001,0
-4.1368794,6.4351449,0.87472081,-0.53725708,0.83573312,0.11360011,0
-2.1277871,-1.2158782,7.2996001,-0.27633598,-0.15790626,0.94800001,0
-5.6457329,0,5.2360001,-0.73321205,0,0.68000001,0
-2.9219964,7.0962772,-0.62831867,-0.37948006,0.92159444,-0.081599832,0
-4.6312714,-1.7367268,5.9012799,-0.60146385,-0.22554894,0.76640004,0
-5.8041711,-4.0970621,-2.9691203,-0.75378847,-0.53208601,-0.38560003,0
3.8362515,-6.4736729,1.6324,0.49821448,-0.84073675,0.21200001,0
-4.990376,1.7012644,-5.6117592,-0.64810079,0.22094344,-0.72879994,0
-4.3578677,4.6302352,4.3427997,-0.56595683,0.60132927,0.56399995,0
2.6611207,4.4352007,-5.7041588,0.3456001,0.57600009,-0.74079984,0
-1.7630953,7.4931531,0.18480097,-0.22897342,0.97313678,0.024000127,0
5.5794773,1.952817,4.9341602,0.72460747,0.25361261,0.64080006,0
-7.5014915,0.38469154,-1.6939992,-0.97421968,0.049959943,-0.21999989,0
-6.7114544,-0.46824104,-3.7452803,-0.8716175,-0.060810525,-0.48640004,0
-0.58308667,1.7128172,-7.4844012,-0.075725541,0.22244379,-0.97200018,0
0.57877725,-4.919611,5.8951201,0.075165875,-0.63891053,0.76560003,0
-6.0558872,-3.1595938,3.5543201,-0.78647888,-0.41033688,0.46160004,0
0.61353046,1.2270627,7.5767999,0.079679281,0.1593588,0.98400003,0
-1.2121279,2.4242558,-7.2071996,-0.15741922,0.31483844,-0.93599999,0
3.185441,3.7646115,5.9136,0.41369364,0.48891059,0.76800001,0
4.3916731,1.1711136,6.2154403,0.57034719,0.15209268,0.80720007,0
-0.29561555,4.1386209,6.4864802,-0.038391631,0.53748322,0.84240007,0
-7.4314418,-1.8578604,-0.78232068,-0.96512234,-0.24128059,-0.10160009,0
-0.14808813,0.40942016,-7.6876812,-0.019232225,0.053171452,-0.99840015,0
-1.2218555,-1.5273201,7.4474397,-0.15868254,-0.19835328,0.96719998,0
7.5378237,1.3705136,0.77000064,0.97893816,0.17798878,0.10000008,0
2.6193762,-3.4322858,-6.3756003,0.34017873,-0.4457514,-0.82800007,0
6.2884221,0.27340937,4.4351993,0.81667823,0.035507713,0.57599992,0
3.1676717,6.7080102,-2.063601,0.41138595,0.87117016,-0.26800013,0
3.0346239,-6.8279033,-1.8603212,0.39410701,-0.88674068,-0.24160016,0
2.0674117,6.7190886,3.1416004,0.26849502,0.8726089,0.40800005,0
-0.25915939,-6.9973097,3.2032006,-0.033657063,-0.90874153,0.4160001,0
-3.3022141,-0.60040283,6.9299998,-0.428859,-0.077974394,0.89999998,0
-2.9497013,5.8994026,3.9731989,-0.3830781,0.7661562,0.51599985,0
-1.8163123,-2.1190307,7.1763997,-0.23588473,-0.27519879,0.93199998,0
-5.8641615,-0.55849183,4.9587998,-0.76157945,-0.07253141,0.64399999,0
-2.6193762,-3.4322858,-6.3756003,-0.34017873,-0.4457514,-0.82800007,0
6.6500158,2.557699,2.9198399,0.86363846,0.3321687,0.37919998,0
4.8831353,-5.6156058,1.9773606,0.63417345,-0.72929949,0.25680009,0
-1.11508,3.2058549,-6.9115186,-0.14481559,0.41634479,-0.89759982,0
5.3672762,-1.6949294,5.2544799,0.6970489,-0.2201207,0.68239999,0
-4.4924731,-5.7503657,-2.4578397,-0.5834381,-0.74680078,-0.31919998,0
5.0751076,2.5375528,5.2052002,0.65910488,0.32955232,0.67600006,0
-1.3625166,-3.4062915,-6.7698393,-0.17695022,-0.44237554,-0.87919992,0
3.0201766,1.9152339,-6.8191209,0.39223075,0.24873167,-0.88560015,0
5.1650047,-5.5623131,-1.2935997,0.67077982,-0.72237831,-0.16799995,0
3.8204408,3.3838189,-5.7657609,0.49616116,0.439457,-0.74880016,0
6.2775445,2.8772082,3.4064794,0.81526554,0.37366343,0.44239992,0
3.7985294,2.629751,-6.1599984,0.49331552,0.34152612,-0.79999983,0
4.4436617,2.2218306,-5.8828001,0.57709891,0.28854942,-0.76400006,0
-4.1368794,6.4351449,0.87472081,-0.53725708,0.83573312,0.11360011,0
-7.3339577,-1.8926345,1.3859998,-0.95246208,-0.2457967,0.17999998,0
-0.6388309,7.6659708,-0.33880064,-0.082965054,0.99558067,-0.044000085,0
5.4487276,-3.2692368,4.3489599,0.707627,-0.42457622,0.56480002,0
2.9816437,-6.7086978,2.3223205,0.38722646,-0.87125945,0.30160007,0
-6.9420629,-2.1360195,-2.5563993,-0.90156662,-0.27740514,-0.33199993,0
5.378284,5.1338153,2.0019996,0.69847846,0.66672927,0.25999996,0
2.0344231,4.359478,6.0121603,0.26421079,0.56616598,0.78080004,0
4.3714299,6.3385744,0.055439524,0.56771821,0.82319152,0.0071999384,0
-1.4248657,7.1243272,-2.5502388,-0.18504751,0.9252373,-0.33119985,0
6.9981041,3.1604338,0.57288015,0.90884471,0.41044596,0.074400023,0
-4.4033232,0.58710915,6.2893596,-0.57186019,0.076247945,0.81679994,0
2.6576519,-3.2482426,6.4556799,0.34514961,-0.4218497,0.83840001,0
6.4160466,1.6803933,-3.9116011,0.83325285,0.2182329,-0.50800014,0
-4.5953259,-1.0988824,-6.0799203,-0.59679562,-0.14271201,-0.78960007,0
-0.808698,6.469584,4.0963998,-0.10502572,0.84020573,0.53200001,0
6.75595,2.7524245,2.4640005,0.87739611,0.35745773,0.32000008,0
0.30695072,-1.2278038,7.5952797,0.039863732,-0.15945505,0.98640001,0
-3.5337355,6.3102427,2.6426401,-0.45892671,0.81951207,0.34320003,0
-1.9156905,7.4499078,-0.34496105,-0.24879098,0.96752053,-0.044800136,0
-1.1804078,7.4759154,-1.4167998,-0.15329972,0.97089815,-0.18399997,0
-0.29173928,4.6678338,6.1168795,-0.037888221,0.6062122,0.79439998,0
2.410835,5.8143668,-4.4352016,0.31309548,0.75511259,-0.57600021,0
-6.9997978,-0.33332387,-3.1908808,-0.90906465,-0.043288816,-0.4144001,0
-6.7812281,-1.1302044,-3.4680808,-0.88067901,-0.14677981,-0.45040011,0
0.8671819,4.9140358,5.8643198,0.11262103,0.63818645,0.76160002,0
-4.3829169,-1.4609725,6.1599998,-0.56920999,-0.18973669,0.80000001,0
-5.8994021,-2.9497013,3.9731998,-0.76615614,-0.3830781,0.51599997,0
5.6159611,4.1293836,-3.2709589,0.72934562,0.53628361,-0.42479986,0
2.7812243,-6.8603544,-2.1190398,0.36119798,-0.89095515,-0.27519998,0
1.1977682,-3.2938612,6.8560796,0.15555432,-0.42777419,0.89039999,0
1.7423116,6.9692445,-2.7719991,0.22627424,0.90509671,-0.3599999,0
-5.0378485,3.8863401,-4.3366389,-0.65426606,0.5047195,-0.56319988,0
-2.0040359,-6.0121088,-4.3736005,-0.26026443,-0.78079337,-0.56800008,0
-6.7699776,-3.2882745,-1.6262394,-0.87921786,-0.42704865,-0.21119992,0
3.8852386,1.1824639,-6.5419183,0.50457644,0.15356675,-0.84959978,0
-2.8716962,-2.8716962,-6.5419202,-0.37294757,-0.37294757,-0.84960002,0
7.2357397,-2.6311784,0.10472061,0.9397065,-0.34171149,0.013600079,0
-7.1343331,2.5762868,-1.3244005,-0.9265368,0.33458272,-0.17200008,0
6.9992857,0,3.2093606,0.90899819,0,0.41680008,0
7.1243272,-1.4248657,-2.5502388,0.9252373,-0.18504751,-0.33119985,0
3.1497002,6.7839694,1.8295211,0.40905198,0.88103503,0.23760015,0
-5.0100904,2.2664695,-5.3900008,-0.65066111,0.29434669,-0.70000011,0
4.9862332,4.7238002,3.4803998,0.6475628,0.61348057,0.45200002,0
2.1726563,7.3870287,-0.036959194,0.28216317,0.9593544,-0.0047998955,0
-1.2270619,-0.61353135,7.5767999,-0.1593587,-0.0796794,0.98400003,0
-1.2230353,-7.5420513,-0.95480019,-0.15883577,-0.97948718,-0.12400003,0
7.243906,-2.3367436,1.16424,0.94076705,-0.3034732,0.15120001,0
-5.4423523,-4.4057131,3.2031999,-0.70679903,-0.57217056,0.41599998,0
-6.1605783,-1.9068456,-4.2072806,-0.80007511,-0.24764229,-0.54640007,0
-2.3145785,-6.6865597,3.0368803,-0.30059463,-0.86838442,0.39440003,0
-5.8079853,-0.77439809,-4.995759,-0.75428385,-0.10057119,-0.6487999,0
-1.5010066,-3.0020125,6.9299998,-0.19493593,-0.38987178,0.89999998,0
-2.5372174,-6.5967646,-3.0553594,-0.32950875,-0.85672271,-0.39679992,0
3.2875826,-1.4943559,6.8006396,0.4269588,-0.1940722,0.88319999,0
3.926245,-5.4967432,-3.6959996,0.50990194,-0.71386278,-0.47999996,0
3.8665156,-0.40276212,-6.6466413,0.50214487,-0.052306771,-0.86320019,0
-2.2882054,-6.5377307,-3.3633599,-0.29716954,-0.84905595,-0.4368,0
6.839994,-3.5303195,0.20327997,0.88831091,-0.45848307,0.026399996,0
2.1253333,-6.3760018,3.7575998,0.27601731,-0.82805222,0.48799998,0
-0.49827504,6.9758506,-3.2216809,-0.064711049,0.90595466,-0.41840014,0
-5.5753956,4.5300088,-2.7719994,-0.72407734,0.58831286,-0.35999992,0
-5.5504127,-5.3283963,0.30183971,-0.72083282,-0.69199955,0.039199963,0
4.3944945,4.3944945,4.5460787,0.57071358,0.57071358,0.59039986,0
3.5811169,-0.89527923,6.7575197,0.46508014,-0.11627004,0.87760001,0
0.8405624,2.8218887,-7.1148014,0.10916395,0.36647907,-0.9240002,0
2.9816437,-6.7086978,2.3223205,0.38722646,-0.87125945,0.30160007,0
3.4990203,-6.7647743,1.1334397,0.45441824,-0.87854213,0.14719996,0
0.33332339,6.9997978,-3.1908808,0.043288752,0.90906465,-0.4144001,0
7.6066995,0,-1.1950397,0.98788309,0,-0.15519997,0
-3.2577896,-6.5155792,2.4948003,-0.42308956,-0.84617913,0.32400006,0
2.3367443,-7.2439055,1.1642396,0.30347329,-0.94076699,0.15119995,0
1.8517739,-7.4070969,0.99792039,0.24049012,-0.96196067,0.12960005,0
-1.5170372,2.1238513,7.2441597,-0.19701782,0.27582484,0.94080001,0
3.4568963,3.7449708,5.7719197,0.44894758,0.48635986,0.74959999,0
-0.88154745,-5.0688968,-5.7288003,-0.11448669,-0.65829831,-0.74400008,0
-5.8079853,-0.77439809,-4.995759,-0.75428385,-0.10057119,-0.6487999,0
-5.7498341,4.4998708,2.4455202,-0.7467317,0.58439881,0.31760004,0
-1.0342196,7.0671678,-2.8767214,-0.13431424,0.91781402,-0.37360018,0
-7.5924463,0.92029709,0.89320058,-0.98603201,0.11951911,0.11600008,0
3.5543251,-5.1947832,4.4352002,0.46160066,-0.67464721,0.57600003,0
-4.2677727,6.40166,-0.30800015,-0.5542562,0.83138442,-0.040000021,0
0.47267669,7.5628343,1.3675203,0.061386585,0.98218632,0.17760004,0
5.9613404,-2.4387298,4.2195992,0.77420008,-0.31671816,0.54799992,0
-4.9982166,3.3321445,4.8171196,-0.64911908,0.43274605,0.62559998,0
6.2025266,-4.401793,-1.2012,0.80552298,-0.57166147,-0.156,0
3.1186881,-6.2373762,3.2647996,0.40502444,-0.81004888,0.42399997,0
5.4967427,-3.9262445,-3.6960011,0.71386272,-0.50990188,-0.48000014,0
-2.4656782,5.7532482,4.4844804,-0.32021797,0.7471751,0.58240008,0
5.9144821,4.7315855,1.3860003,0.76811457,0.61449164,0.18000004,0
7.3340225,1.2223374,2.0019994,0.95247048,0.15874511,0.25999993,0
-3.0298185,-6.5646062,2.6488001,-0.39348292,-0.85254627,0.34400001,0
-5.480669,3.0143685,4.4906402,-0.71177524,0.39147645,0.58320004,0
-3.2347863,2.9407151,6.3386393,-0.42010212,0.38191107,0.82319993,0
-1.8517746,-7.4070969,0.99792016,-0.24049021,-0.96196067,0.12960002,0
5.8041716,4.0970626,-2.9691191,0.75378853,0.53208607,-0.38559988,0
7.3549471,0.98066008,2.0574393,0.95518798,0.12735845,0.26719993,0
-7.2560511,2.4942679,0.6468001,-0.94234431,0.32393092,0.084000014,0
6.7913489,-3.607904,-0.38807943,0.88199341,-0.46855897,-0.050399929,0
-2.5515938,-7.1908545,1.0348797,-0.33137584,-0.93387723,0.13439997,0
2.2647359,-5.0956569,5.3099198,0.29412156,-0.66177362,0.68959999,0
-1.7605424,-7.0421705,2.5687199,-0.22864187,-0.91456765,0.33359998,0
-3.7465768,-3.5261898,-5.7287998,-0.48656842,-0.45794675,-0.74400002,0
-4.4924731,5.7503657,-2.4578397,-0.5834381,0.74680078,-0.31919998,0
4.9608469,-5.8628182,0.55439949,0.64426583,-0.76140499,0.071999937,0
-3.4814081,-5.6238136,3.9423997,-0.45213094,-0.7303654,0.51199996,0
3.5543251,-5.1947832,4.4352002,0.46160066,-0.67464721,0.57600003,0
6.0104308,1.9124094,4.416719,0.78057545,0.24836487,0.57359987,0
-0.17618014,-7.2233925,-2.6611197,-0.022880537,-0.93810296,-0.34559998,0
6.293663,-3.8872631,-2.1375191,0.81735885,-0.50483936,-0.2775999,0
0.41610876,-1.5364015,-7.533679,0.0540401,-0.19953267,-0.97839987,0
-2.4197438,-1.5123399,7.1517596,-0.31425244,-0.19640779,0.92879999,0
-4.1177654,-4.6668005,4.5337601,-0.53477472,-0.60607803,0.58880001,0
4.1170001,-1.4703577,6.3386402,0.5346753,-0.19095553,0.82319999,0
1.9071141,-5.4670615,-5.07584,0.24767716,-0.71000803,-0.65920001,0
-6.6911893,-3.7916734,0.37575981,-0.86898565,-0.49242514,0.048799977,0
6.7245078,3.3622539,1.6632012,0.87331271,0.43665636,0.21600017,0
-0.92066759,0.92066669,7.5891199,-0.11956722,0.1195671,0.98559999,0
2.0985448,2.8221807,-6.8499198,0.2725383,0.36651698,-0.88959998,0
1.3705136,-7.5378237,0.77000064,0.17798878,-0.97893816,0.10000008,0
5.0180373,5.268939,2.5194409,0.65169317,0.68427783,0.32720011,0
7.3896894,-0.24632274,2.1498394,0.95969993,-0.031989966,0.27919993,0
0.29561555,4.1386209,6.4864802,0.038391631,0.53748322,0.84240007,0
-3.4933226,-6.287981,-2.7473602,-0.45367828,-0.81662095,-0.35680005,0
4.1028333,-6.2749205,1.7555999,0.53283548,-0.81492478,0.22799999,0
-7.4551854,0.76463485,-1.7679194,-0.96820593,0.099303231,-0.22959994,0
1.9124094,-6.0104303,4.4167199,0.24836487,-0.78057539,0.57359999,0
3.4640832,-2.8087163,-6.2770405,0.44988096,-0.36476836,-0.81520009,0
1.748876,4.372189,6.0922403,0.22712676,0.56781679,0.79120004,0
7.1792412,-2.7450042,-0.46199882,0.93236899,-0.35649407,-0.05999985,0
-4.2649717,4.8532429,-4.1887999,-0.55389243,0.63029128,-0.54399997,0
7.210134,0.35171351,-2.6796012,0.93638104,0.045677081,-0.34800017,0
5.3314257,-2.2448111,5.0819998,0.69239295,-0.29153392,0.65999997,0
-5.1020269,-5.2842422,-2.3100007,-0.66260093,-0.68626523,-0.3000001,0
-0.41610876,-1.5364015,-7.533679,-0.0540401,-0.19953267,-0.97839987,0
-2.8446131,3.8605464,-6.0244799,-0.36943027,0.50136966,-0.78240001,0
4.9196119,0.57877725,5.8951197,0.63891065,0.075165875,0.76559997,0
1.0575665,7.6144772,-0.4373607,0.13734631,0.98889315,-0.056800094,0
-5.6853828,4.1348243,3.1415994,-0.73836142,0.53699017,0.40799993,0
-0.66116035,6.9421854,-3.2648008,-0.085864983,0.90158254,-0.42400011,0
2.8522868,-4.5636578,5.5070395,0.37042686,-0.59268284,0.71519995,0
3.8374372,4.9338489,4.4967999,0.49836847,0.64075959,0.58399999,0
0.060980801,-2.9880621,-7.0963202,0.0079195844,-0.38806003,-0.92160004,0
-4.1359248,-0.59084678,6.4679999,-0.5371331,-0.076733351,0.84000003,0
1.5778511,-2.3959963,-7.1455989,0.20491573,-0.31116837,-0.92799985,0
-7.1572733,-2.3857574,1.5399996,-0.92951602,-0.30983862,0.19999996,0
6.7190886,-2.0674124,3.1416001,0.8726089,-0.26849511,0.40800002,0
-0.88530582,-4.1314268,6.4372001,-0.11497478,-0.53654897,0.83600003,0
-4.2947965,-5.8106074,2.6611204,-0.55776578,-0.75462437,0.34560007,0
1.0623817,-6.6398826,3.7514398,0.13797165,-0.86232245,0.48719999,0
4.7315855,-5.9144821,1.3860003,0.61449164,-0.76811457,0.18000004,0
-4.1518354,-4.4286242,4.73704,-0.53919941,-0.57514602,0.61520004,0
5.9642124,-1.6644315,-4.5768805,0.77457309,-0.21615994,-0.59440005,0
3.2577896,-6.5155792,2.4948003,0.42308956,-0.84617913,0.32400006,0
6.969245,-1.7423112,-2.7719986,0.90509677,-0.22627419,-0.35999984,0
5.863492,3.1982682,3.8315191,0.76149249,0.41535953,0.4975999,0
1.4654455,-7.5365777,-0.58520055,0.1903176,-0.97877634,-0.076000072,0
5.8079853,0.77439809,-4.995759,0.75428385,0.10057119,-0.6487999,0
-6.0159431,-0.26737538,-4.7986393,-0.78129131,-0.034724075,-0.62319994,0
-3.5177538,2.1449718,-6.5049596,-0.45685115,0.27856779,-0.8448,0
3.38744,4.5165873,5.2359991,0.43992728,0.58656979,0.67999989,0
-4.4062304,-0.29374841,6.3078399,-0.57223773,-0.038149145,0.81919998,0
-7.6358633,0,0.99176067,-0.99167061,0,0.12880009,0
-4.1293826,-5.6159606,-3.2709601,-0.53628349,-0.72934556,-0.42480001,0
4.3186831,-4.8585181,4.1271992,0.56086797,-0.63097638,0.53599989,0
4.6301537,-1.4404922,-5.981359,0.60131866,-0.18707691,-0.77679992,0
7.375555,0.36877742,-2.1806388,0.95786434,0.047893174,-0.28319985,0
0,-3.8662968,6.6589599,0,-0.5021165,0.86479998,0
-4.8596272,3.1971231,-5.0450397,-0.63112044,0.41521078,-0.65519994,0
-2.6308317,6.3139973,3.5358398,-0.34166646,0.81999969,0.45919999,0
5.375813,3.7630689,4.0286403,0.69815755,0.48871025,0.52320004,0
-5.1137204,1.9886687,5.4023199,-0.66411954,0.25826865,0.70160002,0
-6.4990129,-1.0579787,-3.9916801,-0.8440277,-0.13739984,-0.51840001,0
5.4117551,-0.28482896,5.4700799,0.70282537,-0.036990777,0.71039999,0
1.1711136,-4.391674,6.2154398,0.15209268,-0.57034731,0.80720001,0
