3.9611709,5.8097191,3.3758397,0.50784242,0.74483573,0.43279997,0
-0.86396408,5.4717722,5.4912,-0.11076462,0.70150924,0.704,0
-3.9377468,-6.3753991,-2.1652803,-0.5048393,-0.81735885,-0.27760005,0
5.8749189,-1.9583063,4.7424006,0.75319469,-0.2510649,0.60800004,0
-3.2899065,-6.4066601,-2.9952002,-0.42178288,-0.82136667,-0.384,0
1.5345834,-5.6268058,-5.1792002,0.19674146,-0.72138536,-0.66400003,0
4.6833038,0.59786856,-6.2088017,0.60042357,0.076649815,-0.79600018,0
-4.1825705,-0.087136798,-6.5831995,-0.53622699,-0.011171384,-0.84399992,0
-3.4601073,3.1635268,-6.2337594,-0.44360349,0.40558034,-0.79919988,0
4.4519243,-6.3264184,0.99840075,0.57075953,-0.81107926,0.1280001,0
3.5213621,5.6647992,-4.0435209,0.45145667,0.72625631,-0.51840013,0
2.1084366,3.3132584,6.7392001,0.27031237,0.4247767,0.86400002,0
5.2930613,-5.4891009,-1.6411195,0.67859757,-0.70373088,-0.21039993,0
5.3452258,3.9707386,-4.0622406,0.68528533,0.50906903,-0.52080005,0
-1.4982502,3.8954496,6.5894403,-0.19208336,0.49941662,0.8448,0
-3.7356708,2.4281859,-6.4022403,-0.47893214,0.31130588,-0.82080001,0
-5.1200104,-5.8181939,0.87984008,-0.65641159,-0.74592227,0.11280001,0
-4.7295084,0,6.2025604,-0.6063472,0,0.79520005,0
-3.5532842,6.897552,-0.79871905,-0.45554924,0.88430154,-0.10239988,0
2.2055373,6.0652294,4.3804793,0.28276119,0.77759349,0.56159991,0
3.7287588,-5.836318,-3.5880013,0.478046,-0.74824589,-0.46000016,0
-0.48895514,7.5788007,1.7783999,-0.062686555,0.97164106,0.22799999,0
3.3414483,-6.9215727,1.3291196,0.4283908,-0.88738108,0.17039993,0
-5.157351,-4.9854398,-3.0638413,-0.66119885,-0.6391589,-0.39280015,0
-4.7295084,0,6.2025604,-0.6063472,0,0.79520005,0
3.2546732,4.3008189,-5.6347194,0.4172658,0.55138701,-0.72239989,0
-3.0203667,-6.7958241,2.3524806,-0.38722649,-0.87125945,0.30160007,0
-4.1825705,-0.087136798,-6.5831995,-0.53622699,-0.011171384,-0.84399992,0
0.47881538,7.6610532,1.3852804,0.061386585,0.98218626,0.17760004,0
-6.3183818,-3.1591909,3.3071997,-0.81004894,-0.40502447,0.42399997,0
-4.8957958,2.5918913,5.4912009,-0.62766612,0.33229375,0.70400012,0
-7.1336274,-1.7834067,2.6020801,-0.91456759,-0.22864188,0.33360001,0
1.8448464,1.8448464,7.3507199,0.23651876,0.23651876,0.94239998,0
5.4582524,4.6785026,3.0264006,0.69977593,0.59980798,0.38800007,0
3.3150773,1.8943298,-6.8016014,0.42500991,0.24286279,-0.87200016,0
4.6037507,3.5806944,-5.1791997,0.59022444,0.45906338,-0.66399992,0
4.5888405,5.6478038,-2.8079994,0.58831286,0.7240774,-0.35999992,0
0,1.5521808,7.6440001,0,0.19899753,0.97999996,0
-2.8815563,3.9106834,-6.1027198,-0.36943027,0.50136966,-0.78239995,0
-4.7094436,-6.1222763,1.0857606,-0.60377479,-0.78490722,0.13920008,0
-5.1051354,2.0183096,-5.541121,-0.65450454,0.25875762,-0.7104001,0
-5.6826606,-4.7661018,-2.4148798,-0.7285462,-0.61103868,-0.30959997,0
3.8872743,4.9979248,4.5552001,0.49836847,0.64075959,0.58399999,0
-2.0464439,4.6775875,5.8967996,-0.2623646,0.59969068,0.75599992,0
1.8854202,2.3111601,-7.2072001,0.24172053,0.29630256,-0.92399997,0
4.3324127,5.1447392,3.9499197,0.55543751,0.6595819,0.50639993,0
-5.4970398,-5.4970398,-0.63647938,-0.70474869,-0.70474869,-0.081599921,0
-7.2498035,0.70729828,-2.7892799,-0.92946196,0.090679266,-0.35759997,0
7.2926841,1.6829267,-2.1964791,0.93495947,0.21575983,-0.28159988,0
-7.2876363,2.7328637,0.51168025,-0.93431234,0.35036713,0.06560003,0
1.2120706,7.0992718,-2.9952013,0.15539366,0.91016304,-0.38400015,0
1.525651,-6.9501896,-3.1948795,0.19559628,-0.89104992,-0.40959993,0
4.6037507,3.5806944,-5.1791997,0.59022444,0.45906338,-0.66399992,0
-4.9880161,0,5.9966402,-0.63948929,0,0.76880008,0
-1.1281807,-5.9229503,4.9483199,-0.14463855,-0.75935256,0.63439995,0
-4.7582521,4.0585093,-4.6612811,-0.61003232,0.52032173,-0.5976001,0
5.3259706,3.0834572,4.7923198,0.68281674,0.39531502,0.61439997,0
-5.7067862,0.85601717,5.2478404,-0.73163921,0.10974579,0.67280006,0
0.86030579,-6.3089089,-4.50528,0.11029561,-0.80883443,-0.5776,0
-4.0812182,-6.413342,-1.7471995,-0.52323312,-0.82222331,-0.22399993,0
2.7618616,-5.7999082,4.4241595,0.35408482,-0.74357796,0.56719995,0
-2.6639028,-3.8478594,6.2400002,-0.34152597,-0.49331528,0.80000001,0
3.8861475,-1.7936066,6.5208001,0.49822402,-0.22994956,0.83599997,0
-4.1885228,5.7592196,3.1823993,-0.53699011,0.73836148,0.4079999,0
-4.0775809,6.1163716,2.6083198,-0.52276677,0.78415018,0.33439997,0
-4.7661018,-5.6826606,-2.4148798,-0.61103868,-0.7285462,-0.30959997,0
-6.0334964,4.873208,0.82992089,-0.77352518,0.62477022,0.10640011,0
1.241745,0.93130738,7.6440001,0.15919808,0.11939838,0.97999996,0
2.0742249,-4.1484499,6.2712007,0.26592627,-0.53185254,0.80400008,0
-5.0551863,1.7233588,-5.6846395,-0.64810079,0.22094342,-0.72879994,0
-2.3473022,-4.4011912,5.9966397,-0.30093616,-0.5642553,0.76879996,0
1.8341781,2.4455702,7.1760001,0.23515104,0.31353465,0.92000002,0
1.076179,-6.7261152,3.8001599,0.13797167,-0.86232245,0.48719999,0
-0.86030579,6.3089089,-4.50528,-0.11029561,0.80883443,-0.5776,0
-5.3152027,4.8008275,-3.0887992,-0.68143624,0.61549067,-0.39599988,0
5.1959386,-1.7319795,5.5535998,0.66614598,-0.22204864,0.71199995,0
4.6833038,-0.59786856,-6.2088017,0.60042357,-0.076649815,-0.79600018,0
-3.131274,-6.9851503,1.4975994,-0.40144536,-0.89553207,0.19199991,0
-7.4668846,-1.6860704,1.4976,-0.95729285,-0.21616288,0.19199999,0
5.4017467,5.6178164,-0.31823969,0.69253165,0.72023284,-0.04079996,0
4.7809072,5.1106243,-3.4444809,0.61293679,0.65520823,-0.44160011,0
2.9636896,1.5852294,-7.0387211,0.37996018,0.20323454,-0.90240014,0
-6.1155124,-4.2623267,-2.296319,-0.78404003,-0.54645211,-0.29439986,0
-3.6836088,6.0277238,-3.3072007,-0.47225752,0.77278507,-0.42400008,0
-3.937747,6.3753991,-2.1652792,-0.50483936,0.81735891,-0.2775999,0
-1.4806563,-7.4032812,1.9593595,-0.18982773,-0.94913858,0.25119993,0
1.5521808,0,7.6440001,0.19899753,0,0.97999996,0
-1.7169415,5.4369812,5.3227201,-0.2201207,0.69704884,0.68239999,0
-3.2496865,-5.8803849,-3.9624002,-0.41662645,-0.75389546,-0.50800002,0
3.9110911,-5.9970069,3.0950408,0.50142193,-0.76884705,0.3968001,0
-5.692081,-2.4989624,-4.7112002,-0.72975397,-0.32037979,-0.60400003,0
7.0580854,-1.0456421,3.1512008,0.90488273,-0.13405669,0.4040001,0
-1.9564568,7.3367119,1.7846395,-0.25082779,0.94060409,0.22879992,0
-5.7233081,5.2654438,0.59903949,-0.73375744,0.67505687,0.076799937,0
2.7328637,-7.2876363,0.51168025,0.35036713,-0.93431234,0.06560003,0
-1.1036158,-6.3457913,4.3992004,-0.14148919,-0.81356299,0.56400007,0
-6.1155124,-4.2623267,-2.296319,-0.78404003,-0.54645211,-0.29439986,0
1.1894532,4.2088346,-6.4583988,0.152494,0.53959417,-0.82799983,0
-7.4070244,2.3146958,0.78623998,-0.94961846,0.29675588,0.10079999,0
4.4555955,-0.89111924,6.3398404,0.57123017,-0.11424606,0.81280005,0
5.5185885,-5.0168977,2.2838395,0.70751131,-0.64319199,0.29279992,0
-4.6473885,6.0028768,-1.7908804,-0.595819,0.76959956,-0.22960006,0
4.9528461,-4.9528461,-3.4320009,0.63498026,-0.63498026,-0.44000012,0
4.2500286,-0.81383526,-6.4896021,0.54487544,-0.10433785,-0.83200026,0
-6.2769408,4.0172429,2.3025596,-0.80473596,0.5150311,0.29519993,0
-2.3381271,2.9616275,-6.8265605,-0.29975989,0.37969583,-0.87520003,0
-4.0692167,-6.6392488,-0.44928005,-0.52169442,-0.85118574,-0.057600006,0
-6.7986169,-0.47432211,-3.7939205,-0.87161756,-0.060810525,-0.48640007,0
4.4234691,-6.1437073,1.8782399,0.56711143,-0.78765476,0.24079998,0
-6.2055473,-4.5348234,1.3291204,-0.79558295,-0.58138758,0.17040005,0
-7.7750201,0.22867684,0.58031988,-0.99679744,0.029317543,0.074399985,0
3.3105829,7.0625777,0.006240732,0.42443368,0.90545869,0.00080009381,0
-6.3742876,-0.72435105,-4.4366403,-0.81721634,-0.092865519,-0.56880003,0
1.2278703,2.4557388,7.3008003,0.15741926,0.31483829,0.93599999,0
1.89895,-3.8883266,-6.4896002,0.24345513,-0.49850342,-0.83200002,0
-3.6142209,-6.7465453,1.5038399,-0.46336165,-0.86494166,0.19279997,0
5.7587128,-4.7571969,2.2463996,0.73829651,-0.60989702,0.28799996,0
-6.3154788,4.573277,-0.19968022,-0.80967671,0.58631754,-0.025600027,0
7.516634,-0.96367127,-1.8470395,0.96367103,-0.1235476,-0.23679993,0
3.9317439,-3.0816371,-5.9904013,0.50406969,-0.39508167,-0.76800013,0
1.6758554,5.2669744,-5.5036798,0.21485326,0.67525309,-0.70559996,0
3.5872135,6.775847,-1.4351991,0.45989916,0.8686983,-0.18399988,0
5.1256576,-5.6138158,1.747201,0.65713555,-0.71971995,0.22400011,0
5.7067862,-0.85601801,5.2478404,0.73163921,-0.1097459,0.67280006,0
2.3899114,-3.584868,6.5020804,0.3063989,-0.45959845,0.83360004,0
-6.1263332,-4.6968551,-1.1169602,-0.78542733,-0.60216087,-0.14320002,0
-4.7284546,0.29552814,6.1963201,-0.60621214,0.037888221,0.79439998,0
2.065506,2.3882415,-7.1323199,0.26480845,0.3061848,-0.91439998,0
-1.5982201,-3.5160844,-6.7766399,-0.20490001,-0.45078003,-0.86879998,0
4.2292967,-3.6251116,-5.4600015,0.54221749,-0.46475789,-0.70000017,0
-2.065506,-2.3882415,-7.1323199,-0.26480845,-0.3061848,-0.91439998,0
-2.6649985,6.3959975,3.5817599,-0.34166646,0.81999964,0.45919997,0
-0.42151055,1.5563468,-7.6315212,-0.054039814,0.19953163,-0.97840011,0
2.6712737,7.0597959,-1.9656,0.34247097,0.90510201,-0.252,0
3.9594457,5.7741919,-3.4382415,0.50762123,0.74028099,-0.44080019,0
-0.86030579,6.3089089,-4.50528,-0.11029561,0.80883443,-0.5776,0
4.1012702,2.9294798,5.95296,0.52580386,0.37557432,0.76319999,0
-7.5989141,0.38968754,-1.7159992,-0.97421974,0.049959939,-0.21999989,0
-5.9566684,-0.66185218,-4.9919996,-0.76367539,-0.084852837,-0.63999993,0
-2.0988584,7.2506008,-1.9656,-0.26908439,0.92956418,-0.252,0
1.4647397,-6.2983794,-4.3617606,0.18778713,-0.80748451,-0.55920005,0
-0.31137508,0.93412524,7.7376003,-0.039919883,0.11975964,0.99200004,0
-5.8860698,4.350574,2.6956799,-0.75462431,0.5577659,0.34559998,0
-3.9281688,4.0509238,-5.385119,-0.50361139,0.51934922,-0.69039983,0
2.6649992,6.395997,3.5817595,0.34166655,0.81999958,0.45919991,0
-3.6951919,-4.5479283,5.1480002,-0.47374254,-0.58306772,0.66000003,0
-6.5436244,-2.6845639,-3.2884793,-0.8389262,-0.34417486,-0.42159989,0
-4.9622483,5.9074383,1.1481599,-0.63618565,0.75736386,0.14719997,0
4.5530624,1.7591379,-6.0840006,0.58372593,0.22553048,-0.78000003,0
6.2920065,1.9149581,4.1932797,0.80666751,0.24550745,0.53759998,0
5.3997383,-4.885478,2.7955208,0.69227415,-0.62634331,0.35840011,0
-7.4668846,1.6860704,1.4976,-0.95729285,0.21616288,0.19199999,0
6.5223017,-3.4423256,-2.5396807,0.83619249,-0.44132379,-0.32560009,0
2.6712737,7.0597959,-1.9656,0.34247097,0.90510201,-0.252,0
-4.1484499,-2.0742249,6.2712007,-0.53185254,-0.26592627,0.80400008,0
1.5471555,1.2377248,7.5441599,0.19835326,0.15868266,0.96719998,0
4.0585093,-4.7582521,-4.6612811,0.52032173,-0.61003232,-0.5976001,0
3.9534631,6.424376,1.9843198,0.50685424,0.8236379,0.25439996,0
3.4435415,-6.0924196,3.4444804,0.44147968,-0.78107941,0.44160005,0
-1.9316099,6.2405863,-4.2619209,-0.24764228,0.80007517,-0.54640013,0
-5.4144187,-3.0542877,-4.7111993,-0.69415623,-0.39157534,-0.60399991,0
-2.3146951,7.4070249,0.7862404,-0.29675579,0.94961858,0.10080005,0
-1.4207482,7.5773234,1.1856003,-0.1821472,0.9714517,0.15200002,0
0.57135999,-5.7136049,5.2790403,0.073251277,-0.73251343,0.67680001,0
-6.5587802,3.190758,-2.7643204,-0.84086925,0.40907153,-0.35440004,0
-7.6688561,-0.23965153,1.4040003,-0.98318666,-0.030724555,0.18000004,0
3.5796285,-6.3921943,2.6769602,0.45892671,-0.81951207,0.34320003,0
1.536739,-2.1514339,7.3382401,0.19701782,-0.27582484,0.94080001,0
3.8883266,1.89895,-6.4896002,0.49850342,0.24345513,-0.83200002,0
7.5398932,1.9958537,0.081121407,0.96665293,0.25587866,0.01040018,0
-7.3137484,2.4379163,-1.1856008,-0.93766004,0.31255338,-0.1520001,0
1.4962748,-1.3345153,-7.5379195,0.1918301,-0.17109171,-0.96639991,0
2.6397417,7.1992946,1.4289594,0.33842841,0.92298645,0.18319991,0
0.28010553,6.1623287,4.7735991,0.035910964,0.7900421,0.61199987,0
-3.5160844,-1.5982201,-6.7766399,-0.45078003,-0.20490001,-0.86879998,0
4.8008275,-5.3152027,-3.0887992,0.61549067,-0.68143624,-0.39599988,0
0.12211913,5.617485,-5.410079,0.015656298,0.72019035,-0.69359988,0
-3.6251125,-4.2292976,-5.4600005,-0.46475801,-0.54221761,-0.70000005,0
5.2654438,5.7233081,0.59903949,0.67505687,0.73375744,0.076799937,0
-6.3341374,2.5336554,-3.781441,-0.81206888,0.32482761,-0.4848001,0
4.0184808,-0.33487332,-6.6768012,0.51518983,-0.042932477,-0.85600013,0
7.0881839,-0.26252511,3.2448008,0.90874147,-0.033657067,0.4160001,0
-0.87915391,7.2090607,-2.8454416,-0.11271203,0.9242385,-0.36480018,0
3.5248432,-6.5461378,2.3587205,0.45190296,-0.83924842,0.30240005,0
-0.85601801,5.7067862,5.2478404,-0.1097459,0.73163921,0.67280006,0
2.0608442,-4.4160953,6.09024,0.26421079,-0.56616604,0.78079998,0
-2.3146951,-7.4070249,0.7862404,-0.29675579,-0.94961858,0.10080005,0
2.4421446,5.8898783,-4.4928017,0.31309545,0.75511259,-0.57600021,0
-2.451169,-1.5319808,7.2446399,-0.31425244,-0.19640778,0.92879999,0
-3.3451004,-0.60820031,7.02,-0.42885903,-0.077974394,0.89999998,0
4.3984699,-5.5826735,-3.213599,0.56390637,-0.71572739,-0.41199985,0
-5.1106243,4.7809072,-3.4444809,-0.65520823,0.61293679,-0.44160011,0
-7.337481,-2.1814137,-1.4976004,-0.94070268,-0.27966842,-0.19200005,0
-1.2074035,-3.6222115,6.8016,-0.15479532,-0.46438608,0.87199998,0
2.1873846,-5.7418842,-4.8048015,0.28043392,-0.736139,-0.61600018,0
1.3540657,-7.6730385,0.36191985,0.17359816,-0.98372287,0.046399981,0
1.1693974,-4.9699354,5.8968005,0.14992273,-0.63717121,0.75600004,0
4.4634538,0.29756334,6.3897605,0.57223767,0.038149145,0.81920004,0
6.0334959,-4.8732085,0.82992011,0.77352512,-0.62477028,0.10640001,0
5.4017467,-5.6178164,-0.31823969,0.69253165,-0.72023284,-0.04079996,0
0.45684263,7.7663312,0.56160116,0.058569565,0.99568349,0.072000146,0
-1.1802518,3.6194386,-6.8078389,-0.15131433,0.46403059,-0.87279981,0
5.6224961,5.3975968,0.30575973,0.72083282,0.69199955,0.039199963,0
-0.59786892,-4.6833062,-6.2088003,-0.07664986,-0.60042387,-0.796,0
-2.0866058,3.8751254,6.4396801,-0.26751354,0.49681094,0.82559997,0
0.99339598,7.4504662,2.0841596,0.12735845,0.95518792,0.26719993,0
-0.99339527,-7.4504662,2.0841596,-0.12735836,-0.95518792,0.26719993,0
-4.1346297,-2.3626461,6.1776004,-0.53008074,-0.30290332,0.79200006,0
7.7094564,0.8334552,-0.84240037,0.98839182,0.10685323,-0.10800005,0
5.2669744,1.6758554,-5.5036798,0.67525309,0.21485326,-0.70559996,0
4.9162726,-4.3203611,-4.2432003,0.63029134,-0.55389243,-0.54400003,0
6.8391366,3.7504947,-4.463196e-07,0.87681234,0.48083264,-5.7220461e-08,0
2.1465507,1.839901,7.2696004,0.27519879,0.23588474,0.93200004,0
2.9473689,-3.8315785,6.1214399,0.37786779,-0.49122801,0.78479999,0
6.689836,-1.6055607,3.67536,0.85767126,-0.20584111,0.47119999,0
-1.7936066,3.8861475,6.5208001,-0.22994956,0.49822402,0.83599997,0
1.6854929,7.5847197,-0.68640047,0.21608883,0.97239995,-0.088000059,0
-4.7252913,0.59066087,6.1776004,-0.60580653,0.075725749,0.79200006,0
0,5.7190542,5.3040004,0,0.73321205,0.68000001,0
-2.5869682,4.1391492,-6.0839992,-0.33166257,0.53066015,-0.77999985,0
1.9968973,-5.4201503,5.2416,0.2560125,-0.6948911,0.67200005,0
-1.6829271,7.2926836,-2.1964793,-0.2157599,0.93495947,-0.28159991,0
-7.1052203,-0.16917174,-3.2136009,-0.91092569,-0.021688683,-0.41200009,0
0,7.4880004,-2.1839988,0,0.96000004,-0.27999985,0
-2.4159601,7.0620375,-2.2651198,-0.30973846,0.90538937,-0.29039997,0
6.3857579,2.1805024,-3.9124811,0.8186869,0.2795516,-0.50160015,0
4.5600486,5.0317774,-3.8376005,0.58462161,0.64509964,-0.49200004,0
4.7935958,-3.6656907,4.94208,0.61456352,-0.46996033,0.6336,0
-7.4504662,0.99339598,2.0841596,-0.95518792,0.12735845,0.26719993,0
-2.5234535,5.6076736,4.7985601,-0.32351968,0.71893251,0.61519998,0
6.3564134,4.156117,1.7783999,0.81492478,0.53283548,0.22799999,0
2.8670075,-4.8739109,5.3726401,0.36756507,-0.62486035,0.68879998,0
4.0958729,0.25599179,-6.633121,0.52511191,0.032819457,-0.85040009,0
2.6956809,4.4928007,-5.7782393,0.3456001,0.57600009,-0.7407999,0
4.5508175,5.8250461,-2.4897597,0.5834381,0.74680078,-0.31919995,0
-1.4447051,-5.7788196,-5.0356803,-0.1852186,-0.74087429,-0.64560002,0
-4.1346297,-2.3626461,6.1776004,-0.53008074,-0.30290332,0.79200006,0
-7.5773234,1.4207482,1.1856003,-0.9714517,0.1821472,0.15200002,0
-0.087136798,-4.1825705,-6.5831995,-0.011171384,-0.53622699,-0.84399992,0
-1.9583063,-5.8749199,4.7424002,-0.2510649,-0.75319481,0.60799998,0
-3.7718618,3.7718618,5.6908803,-0.48357201,0.48357201,0.72960001,0
4.6775875,2.0464439,5.8967996,0.59969068,0.2623646,0.75599992,0
2.2959042,-5.0751567,-5.460001,0.29434669,-0.65066111,-0.70000011,0
7.4292698,-1.2382119,2.0279996,0.95247048,-0.15874511,0.25999996,0
-2.0648928,3.770674,-6.5083208,-0.26472983,0.48341972,-0.83440006,0
-4.793035,-5.9912939,1.4040003,-0.61449164,-0.76811457,0.18000004,0
-0.5347501,-6.0159402,-4.9358392,-0.068557702,-0.77127439,-0.63279986,0
4.103909,-6.6118536,0.53039908,0.52614218,-0.84767354,0.067999884,0
-3.2904277,2.692167,6.5395203,-0.4218497,0.34514961,0.83840001,0
-5.4499817,-5.4499817,1.1980807,-0.69871563,-0.69871563,0.1536001,0
0.79752398,6.911881,3.5256004,0.10224666,0.88613856,0.45200005,0
-4.5530624,1.7591379,-6.0840006,-0.58372593,0.22553048,-0.78000003,0
2.8325963,-6.6952262,2.8267202,0.36315337,-0.85836232,0.36240003,0
-2.6639037,-3.8478611,-6.2399988,-0.34152612,-0.49331552,-0.79999983,0
4.7809072,-5.1106243,-3.4444809,0.61293679,-0.65520823,-0.44160011,0
-2.8431401,5.1176524,5.1542401,-0.36450514,0.65610927,0.66079998,0
7.5032935,1.875823,1.0108805,0.96196067,0.24049012,0.12960006,0
-6.7531967,0.27012762,3.8937602,-0.86579442,0.034631744,0.49920002,0
-0.62037057,-1.550926,7.61904,-0.079534687,-0.19883665,0.97679996,0
0,7.237711,2.907841,0,0.9279117,0.37280014,0
-4.4160953,-2.0608442,6.09024,-0.56616604,-0.26421079,0.78079998,0
4.7571969,-5.7587118,2.2464004,0.60989708,-0.73829639,0.28800005,0
-4.1825705,-0.087136798,-6.5831995,-0.53622699,-0.011171384,-0.84399992,0
0.66974741,-7.0323439,-3.3072011,0.085865051,-0.90158254,-0.42400014,0
3.0466483,-4.2878757,-5.7595191,0.39059591,-0.54972762,-0.73839986,0
-6.1345358,-3.2006276,3.6004803,-0.78647894,-0.41033685,0.46160004,0
7.6144853,0,-1.6910393,0.97621602,0,-0.21679991,0
-0.85148013,-2.8585408,-7.2072001,-0.10916412,-0.36647958,-0.92399997,0
0.41896346,-7.7508311,-0.76752019,0.053713262,-0.99369627,-0.098400019,0
-3.5160844,1.5982201,-6.7766399,-0.45078003,0.20490001,-0.86879998,0
5.9229498,1.1281816,4.9483204,0.75935251,0.14463866,0.63440001,0
4.103909,-6.6118536,0.53039908,0.52614218,-0.84767354,0.067999884,0
4.8232212,5.5847831,2.5271993,0.61836165,0.71599782,0.32399991,0
-2.5336556,6.3341389,-3.7814388,-0.32482764,0.81206906,-0.48479983,0
-1.4447051,-5.7788196,-5.0356803,-0.1852186,-0.74087429,-0.64560002,0
-5.4575148,-4.6047778,-3.1387191,-0.69968134,-0.59035611,-0.40239987,0
-1.8943298,-3.3150773,-6.8016014,-0.24286279,-0.42500991,-0.87200016,0
-6.357142,-0.82919252,4.4428806,-0.81501818,-0.10630673,0.56960005,0
0.88564098,-7.7493539,0.056160156,0.11354371,-0.99350691,0.0072000199,0
-6.1577387,0.55979389,4.7548804,-0.78945369,0.071768448,0.60960007,0
-1.4447051,5.7788196,-5.0356803,-0.1852186,0.74087429,-0.64560002,0
5.2654438,-5.7233081,0.59903949,0.67505687,-0.73375744,0.076799937,0
-3.5796285,-6.3921943,2.6769602,-0.45892671,-0.81951207,0.34320003,0
-5.1618342,3.7279911,-4.5052805,-0.66177362,0.47794756,-0.57760006,0
-5.2955327,3.344547,4.6487999,-0.67891443,0.42878807,0.59599996,0
-1.8580956,-0.30968231,7.5691204,-0.23821738,-0.039702859,0.97040004,0
7.7914791,0.21642976,-0.29328063,0.99890757,0.027747404,-0.037600081,0
-6.3857589,2.1805027,-3.9124796,-0.81868702,0.27955163,-0.50159997,0
3.6951919,4.5479293,5.1479998,0.47374254,0.58306783,0.65999997,0
-3.2474849,1.1295601,-7.0012813,-0.41634423,0.1448154,-0.89760011,0
-3.9707386,5.3452258,-4.0622406,-0.50906903,0.68528533,-0.52080005,0
-6.1577387,0.55979389,4.7548804,-0.78945369,0.071768448,0.60960007,0
7.4731736,-1.1497191,-1.9156793,0.95809919,-0.14739989,-0.24559991,0
2.7906137,5.5812254,4.6800003,0.35777098,0.71554172,0.60000002,0
3.4505291,-1.3802117,-6.8577595,0.44237551,-0.17695022,-0.87919992,0
-5.7314596,-5.2905784,-0.012479977,-0.73480248,-0.67827928,-0.0015999969,0
3.9118781,1.6892201,-6.5332799,0.50152284,0.21656667,-0.83759999,0
-5.6468658,-4.620163,2.75808,-0.72395712,-0.59232855,0.3536,0
-1.6638706,2.1630316,-7.3070397,-0.21331674,0.27731174,-0.93679994,0
-0.58162725,-5.2346425,5.7532802,-0.074567594,-0.67110801,0.73760003,0
3.0466483,-4.2878757,-5.7595191,0.39059591,-0.54972762,-0.73839986,0
0,7.5886688,1.80336,0,0.97290623,0.23119999,0
-4.8719974,5.8463974,1.7097601,-0.62461501,0.74953812,0.2192,0
1.1600366,-5.2201624,5.6784,0.14872262,-0.66925156,0.72799993,0
6.37009,0.27696016,4.4927998,0.81667817,0.035507713,0.57599998,0
-6.3564134,-4.1561165,1.7784007,-0.81492478,-0.53283542,0.22800007,0
6.4588075,-2.152936,3.8063996,0.82805222,-0.27601743,0.48799995,0
5.0317774,-4.5600486,-3.8376005,0.64509964,-0.58462161,-0.49200004,0
4.8710985,5.8453183,-1.7160004,0.6244998,0.74939978,-0.22000004,0
2.1607254,-0.61735052,7.4692802,0.27701607,-0.079147503,0.9576,0
1.6892201,-3.9118781,-6.5332799,0.21656667,-0.50152284,-0.83759999,0
-5.2201624,-1.1600357,5.6784,-0.66925156,-0.14872253,0.72799999,0
3.9681692,6.5474792,-1.491359,0.50873965,0.83942038,-0.19119987,0
7.4786344,0.49857515,2.1590397,0.95879924,0.063919887,0.27679995,0
2.4159601,7.0620375,-2.2651198,0.30973846,0.90538937,-0.29039997,0
2.2739639,5.4006653,5.1480002,0.29153383,0.69239295,0.66000003,0
5.5847831,-4.8232212,2.5271993,0.71599782,-0.61836165,0.32399991,0
-7.7103224,-0.70093846,0.94848073,-0.98850286,-0.089863904,0.12160009,0
-4.4928002,-4.7923198,-4.2057605,-0.57600003,-0.61439997,-0.53920007,0
1.7202379,-7.3724489,1.8782396,0.22054331,-0.94518572,0.24079995,0
-2.0310025,-4.9324346,5.6908803,-0.26038495,-0.63236338,0.72960001,0
6.6392488,4.0692167,-0.44928005,0.85118574,0.52169442,-0.057600006,0
2.3473015,4.4011908,5.9966407,0.30093607,0.56425524,0.76880008,0
4.620163,-5.6468658,2.75808,0.59232855,-0.72395712,0.3536,0
-4.9152942,2.3130794,5.5972805,-0.63016587,0.29654863,0.71760005,0
0,-0.62350094,7.7750401,0,-0.07993602,0.99680001,0
-6.4133425,4.0812178,-1.7471988,-0.82222337,0.52323306,-0.22399984,0
6.7938895,-1.2940744,-3.6067212,0.87101144,-0.16590697,-0.46240014,0
-6.3766813,1.821909,-4.1059213,-0.81752324,0.23357807,-0.52640015,0
7.0120335,3.3929188,0.39936036,0.89897865,0.43498957,0.051200043,0
5.6478038,-4.5888405,-2.8079994,0.7240774,-0.58831286,-0.35999992,0
0,7.7350307,1.0046407,0,0.99167055,0.12880008,0
4.3998775,5.3776283,-3.5443187,0.56408685,0.68943954,-0.45439982,0
-3.6194358,-1.1802508,-6.8078408,-0.46403021,-0.1513142,-0.87280011,0
-0.26642656,-6.9270968,3.5755205,-0.03415725,-0.8880893,0.45840004,0
-7.7750201,-0.22867684,0.58031988,-0.99679744,-0.029317543,0.074399985,0
2.3786919,6.6074796,3.3945603,0.30496049,0.84711272,0.43520004,0
-0.307917,2.4633379,7.3944006,-0.039476536,0.31581256,0.94800007,0
6.998251,3.3930922,-0.59279984,0.89721161,0.4350118,-0.075999975,0
5.8481622,4.7162595,-2.0966401,0.74976438,0.60464865,-0.26880002,0
7.777914,0,0.58656114,0.99716842,0,0.075200148,0
4.1603909,-1.7830249,6.3523202,0.53338343,-0.22859293,0.81440002,0
3.6276252,-0.90690631,6.8452802,0.46508014,-0.11627004,0.87760001,0
6.2254066,3.6314867,2.9827201,0.79812902,0.46557519,0.38240001,0
7.6688561,0.23965153,1.4040003,0.98318666,0.030724555,0.18000004,0
-0.43232012,7.7817578,-0.31200069,-0.055425655,0.99766123,-0.040000089,0
-3.3472123,-0.3042917,7.0387201,-0.42912978,-0.039011754,0.90240002,0
-7.516634,0.96367127,-1.8470395,-0.96367103,0.1235476,-0.23679993,0
1.8341781,2.4455702,7.1760001,0.23515104,0.31353465,0.92000002,0
3.5965796,2.0980043,6.5956802,0.46109992,0.2689749,0.84560001,0
5.2201624,-1.1600357,5.6784,0.66925156,-0.14872253,0.72799999,0
6.7531967,-0.27012762,3.8937602,0.86579442,-0.034631744,0.49920002,0
6.0466056,-3.680542,3.2759998,0.77520585,-0.47186434,0.41999996,0
2.3882415,-2.065506,-7.1323199,0.3061848,-0.26480845,-0.91439998,0
-6.5146561,0.14806022,-4.28688,-0.83521229,0.018982079,-0.54960001,0
-4.4704881,-3.9445486,-5.0294409,-0.57313949,-0.50571138,-0.64480013,0
4.2292967,3.6251116,-5.4600015,0.54221749,0.46475789,-0.70000017,0
-1.7371875,7.6001945,-0.24336118,-0.22271635,0.97438389,-0.03120015,0
-6.8391371,-3.7504942,1.8596648e-07,-0.8768124,-0.48083258,2.3841856e-08,0
-3.4872613,6.9745226,-0.18719965,-0.44708478,0.89416957,-0.023999956,0
0.56859636,1.3766016,-7.6564789,0.072896965,0.17648737,-0.98159981,0
4.2534652,-1.740054,-6.3024001,0.54531604,-0.22308384,-0.80799997,0
0.64712679,-7.7655292,-0.34320053,0.082964972,-0.99558061,-0.044000067,0
-4.2118845,6.5284214,-0.69263983,-0.53998512,0.83697701,-0.088799968,0
-3.6951034,-3.6951034,-5.7907186,-0.47373119,-0.47373119,-0.74239981,0
1.1802509,-3.6194367,-6.8078403,0.15131421,-0.46403033,-0.87280005,0
-3.7269046,5.856566,3.5567997,-0.47780827,0.7508418,0.45599994,0
6.79389,1.2940739,-3.6067207,0.8710115,0.16590691,-0.46240008,0
1.637333,-0.76408881,-7.5878396,0.20991449,-0.0979601,-0.9727999,0
-7.3137484,2.4379163,-1.1856008,-0.93766004,0.31255338,-0.1520001,0
-1.7830249,4.1603909,6.3523202,-0.22859293,0.53338343,0.81440002,0
-2.5160279,-7.1610031,-1.7971202,-0.32256767,-0.91807729,-0.23040003,0
-6.2511597,-3.1255798,-3.4631999,-0.8014307,-0.40071535,-0.44399998,0
3.2882791,-3.3879242,-6.2087998,0.42157423,-0.43434924,-0.79599994,0
5.6138163,5.1256571,1.7472,0.71972001,0.65713549,0.22399999,0
4.4589596,6.2830787,-1.2168009,0.57166147,0.80552286,-0.15600012,0
4.3735681,-5.7731099,-2.8953593,0.56071383,-0.74014229,-0.37119991,0
2.42711,-1.5983405,-7.2384009,0.31116793,-0.20491545,-0.92800009,0
-1.7830249,-4.1603909,6.3523202,-0.22859293,-0.53338343,0.81440002,0
4.3652129,-2.9101422,5.7720008,0.55964267,-0.37309515,0.74000007,0
0.17292784,-4.1502719,-6.6019197,0.022170236,-0.53208613,-0.84639996,0
1.1863229,4.4487081,6.2961607,0.15209268,0.57034719,0.80720007,0
3.2882805,3.3879251,-6.2087984,0.42157441,0.43434936,-0.79599977,0
-3.95891,6.6676378,-0.84239966,-0.50755256,0.85482532,-0.10799995,0
1.7350593,0.59065855,-7.5816026,0.22244349,0.075725451,-0.9720003,0
4.2393818,5.564187,3.4507201,0.5435105,0.71335727,0.44240001,0
-1.3765935,-0.56859297,-7.6564808,-0.17648634,-0.072896533,-0.98160011,0
1.051584,4.837285,-6.0278392,0.13481846,0.62016475,-0.77279985,0
1.2278703,2.4557388,7.3008003,0.15741926,0.31483829,0.93599999,0
-4.2118845,-6.5284214,-0.69263983,-0.53998512,-0.83697701,-0.088799968,0
-5.9375758,-5.0579348,-0.04991905,-0.76122767,-0.64845318,-0.0063998783,0
0.96367127,7.516634,-1.8470395,0.1235476,0.96367103,-0.23679993,0
4.8739119,2.8670073,5.3726397,0.62486047,0.36756504,0.68879992,0
4.3567963,2.4440565,-5.9904022,0.55856359,0.31334057,-0.76800025,0
-5.2810092,5.7034898,-0.6489594,-0.67705244,0.73121661,-0.083199918,0
0.44575498,-0.69339669,-7.7563205,0.057148073,-0.088897012,-0.99440002,0
-2.3768425,3.8623683,6.3460803,-0.30472338,0.49517542,0.8136,0
-6.3959975,-2.6649985,3.5817599,-0.81999964,-0.34166646,0.45919997,0
4.1923695,0.29945472,6.5707202,0.53748327,0.038391631,0.84240007,0
6.7891173,3.7031553,-1.0171195,0.87039965,0.47476348,-0.13039994,0
7.5430427,-1.6500405,1.1044804,0.96705675,-0.21154365,0.14160004,0
-7.188437,-2.9599442,-0.63647991,-0.92159444,-0.37948003,-0.081599988,0
-4.0958757,-0.25599223,-6.6331196,-0.52511227,-0.032819517,-0.85039991,0
1.3419631,-6.7098141,3.744,0.17204654,-0.86023253,0.47999999,0
6.3183818,3.1591909,3.3071997,0.81004894,0.40502447,0.42399997,0
1.9842807,5.3327537,-5.3352013,0.25439495,0.68368638,-0.68400013,0
6.4588075,2.1529353,3.8064001,0.82805222,0.27601734,0.48800001,0
7.6400003,-1.238919,-0.96720028,0.97948718,-0.15883577,-0.12400004,0
0.23826633,-1.2972282,-7.6876802,0.030546965,-0.16631131,-0.98559999,0
3.8119402,-5.4456291,4.0809608,0.48871025,-0.69815755,0.52320009,0
-7.10146,2.0289881,2.5084801,-0.9104436,0.26012668,0.32160002,0
3.584868,2.3899114,6.5020804,0.45959845,0.3063989,0.83360004,0
7.1613889,-1.5345836,2.6832011,0.91812676,-0.19674148,0.34400013,0
-5.2092752,1.4470212,5.6222401,-0.6678558,0.18551554,0.72079998,0
5.7788196,-1.4447051,-5.0356803,0.74087429,-0.1852186,-0.64560002,0
-3.8409162,-6.7780881,0.38063985,-0.49242514,-0.86898565,0.04879998,0
0.2273964,2.7856045,-7.2820807,0.029153384,0.35712877,-0.93360007,0
-5.8727088,-3.4918809,-3.7627203,-0.75291139,-0.44767702,-0.48240003,0
-6.6952262,-2.8325963,2.8267202,-0.85836232,-0.36315337,0.36240003,0
0,7.4880004,2.1839995,0,0.96000004,0.27999994,0
-1.8819885,-7.5279541,-0.79248071,-0.24128057,-0.96512228,-0.10160009,0
-6.484798,-2.4317994,-3.5880005,-0.83138436,-0.31176916,-0.46000007,0
-3.9772348,5.5681291,-3.7440012,-0.50990188,0.71386266,-0.48000014,0
-1.5205003,-3.0409997,7.02,-0.19493593,-0.38987175,0.89999998,0
-1.8125883,-6.9914126,2.9452808,-0.23238312,-0.89633495,0.3776001,0
-6.6676378,3.95891,-0.84239966,-0.85482532,0.50755256,-0.10799995,0
0.59851921,4.1896381,6.5520005,0.076733232,0.5371331,0.84000003,0
-6.2405863,-1.9316099,-4.2619209,-0.80007517,-0.24764228,-0.54640013,0
1.4698887,-1.5563529,-7.5004797,0.18844727,-0.19953242,-0.96159995,0
-2.1554208,-1.2316689,7.3944001,-0.27633598,-0.15790628,0.94800001,0
5.4891009,-5.2930617,-1.6411184,0.70373088,-0.67859763,-0.21039979,0
5.9566684,0.66185218,-4.9919996,0.76367539,0.084852837,-0.63999993,0
3.6152389,-1.5063498,6.74544,0.46349216,-0.19312176,0.86479998,0
-4.4398379,1.4799464,6.2399998,-0.56920999,0.18973671,0.79999995,0
-7.5520067,-0.77456462,-1.7908792,-0.96820599,-0.099303156,-0.22959989,0
-5.1869154,-4.0949335,4.1433601,-0.66498911,-0.52499145,0.53119999,0
-5.2094097,-5.6829929,1.1855998,-0.66787302,-0.72858882,0.15199997,0
-6.6824379,2.570168,-3.0950389,-0.85672277,0.32950872,-0.39679986,0
-4.8008275,5.3152018,-3.0888002,-0.61549067,0.68143612,-0.39600003,0
-4.0775809,-6.1163716,2.6083198,-0.52276677,-0.78415018,0.33439997,0
-0.58429855,6.4272852,-4.3804798,-0.074910067,0.82401091,-0.56159997,0
3.5646679,-5.4841046,4.2494407,0.45700866,-0.70309025,0.54480004,0
-7.3037729,0.35628128,-2.7143998,-0.9363811,0.045677084,-0.34799996,0
-1.5852301,2.9636912,-7.0387201,-0.20323463,0.37996042,-0.90240002,0
3.5715487,-2.6786613,6.3959999,0.45789084,-0.34341812,0.81999999,0
7.4838395,-0.18709582,-2.190239,0.95946658,-0.023986643,-0.28079987,0
5.2832212,-1.2914542,-5.5910397,0.67733604,-0.16557105,-0.71679991,0
3.3983397,2.4398336,-6.5831985,0.43568456,0.31279919,-0.8439998,0
-4.4165936,-6.1448259,-1.8907194,-0.56622994,-0.78779817,-0.24239992,0
6.1155124,-4.2623267,-2.296319,0.78404003,-0.54645211,-0.29439986,0
5.3997383,4.885478,2.7955208,0.69227415,0.62634331,0.35840011,0
3.6004853,5.262248,4.4928002,0.46160066,0.67464715,0.57600003,0
-0.53241533,-6.9213948,3.5568004,-0.068258375,-0.88735831,0.45600003,0
-5.6736088,5.0866828,-1.6660805,-0.7273857,0.65213883,-0.21360005,0
-5.4481316,5.2004886,2.0280006,-0.6984784,0.66672927,0.26000008,0
-1.9318821,-5.5380621,-5.1417608,-0.24767719,-0.71000797,-0.65920007,0
-7.7750201,-0.22867684,0.58031988,-0.99679744,-0.029317543,0.074399985,0
-0.14806022,-6.5146561,-4.28688,-0.018982079,-0.83521229,-0.54960001,0
-6.7614512,-0.62897205,-3.8376005,-0.8668527,-0.08063744,-0.49200004,0
7.5989137,-0.3896881,-1.7159994,0.97421968,-0.049960013,-0.21999991,0
-6.1437073,4.4234691,1.8782399,-0.78765476,0.56711143,0.24079998,0
3.5761685,6.9288254,0.20591938,0.45848313,0.88831091,0.02639992,0
0.29533038,-1.8088989,-7.5816007,0.037862867,-0.23191011,-0.97200006,0
-4.8040056,-2.2876215,-5.7033606,-0.61589813,-0.2932848,-0.73120004,0
5.359139,4.287312,3.7065599,0.68706906,0.54965538,0.47519997,0
-0.64712745,7.7655292,-0.34320065,-0.082965054,0.99558061,-0.044000082,0
-1.4799463,4.4398384,-6.2399998,-0.18973669,0.56921005,-0.79999995,0
-7.3367119,1.1005068,-2.4086404,-0.94060409,0.14109062,-0.30880004,0
-6.6952262,-2.8325963,2.8267202,-0.85836232,-0.36315337,0.36240003,0
2.1257987,-2.8588326,-6.9388804,0.27253827,-0.36651698,-0.88960004,0
-0.5347501,6.0159402,-4.9358392,-0.068557702,0.77127439,-0.63279986,0
3.3415773,-0.91133916,6.9888,0.42840734,-0.11683835,0.89599997,0
4.0532074,0.86238468,-6.6081619,0.51964194,0.11056214,-0.84720021,0
1.6306348,7.5416875,-1.1419201,0.20905574,0.966883,-0.1464,0
-5.9243989,-2.1158566,-4.611361,-0.75953829,-0.27126366,-0.59120011,0
1.3419631,6.7098141,3.744,0.17204654,0.86023253,0.47999999,0
-2.208246,-2.4089959,-7.0824003,-0.28310844,-0.30884561,-0.90799999,0
-4.9248905,6.0441833,0.23088068,-0.63139623,0.77489525,0.029600086,0
-0.29717058,2.426893,-7.4068809,-0.03809879,0.31114012,-0.9496001,0
-2.1407654,-2.1407654,7.1884804,-0.2744571,-0.2744571,0.92160004,0
-3.5646679,-5.4841046,4.2494407,-0.45700866,-0.70309025,0.54480004,0
-3.3415773,-0.91133916,6.9888,-0.42840734,-0.11683835,0.89599997,0
-2.5182402,-7.3448672,-0.74255985,-0.3228513,-0.94164962,-0.09519998,0
-2.6653497,-7.329711,0.10608062,-0.34171149,-0.9397065,0.013600079,0
-6.2738543,-3.3983374,3.1511998,-0.80434024,-0.43568426,0.40399995,0
-7.2506008,-2.0988584,-1.9656,-0.92956418,-0.26908439,-0.252,0
6.1345363,3.2006276,3.6004794,0.786479,0.41033685,0.46159992,0
-4.5600486,5.0317774,-3.8376005,-0.58462161,0.64509964,-0.49200004,0
-0.26642656,6.9270968,3.5755205,-0.03415725,0.8880893,0.45840004,0
-6.0704741,2.3689661,-4.2868805,-0.77826589,0.30371359,-0.54960006,0
-2.3768425,-3.8623683,6.3460803,-0.30472338,-0.49517542,0.8136,0
4.446806,-1.1600364,-6.3023992,0.57010329,-0.14872262,-0.80799985,0
5.8250461,-4.5508175,-2.4897597,0.74680078,-0.5834381,-0.31919995,0
-6.0196047,4.9446759,-0.39312059,-0.77174419,0.63393277,-0.050400075,0
-6.5723968,2.6289594,3.2759998,-0.84261495,0.33704606,0.41999996,0
7.0620375,2.4159601,-2.2651198,0.90538937,0.30973846,-0.29039997,0
6.6760416,3.8148818,1.3104005,0.85590273,0.4890874,0.16800006,0
-5.4567723,-1.6122282,-5.3351998,-0.69958615,-0.20669591,-0.68399996,0
1.0476513,-7.1589503,-2.9140799,0.13431427,-0.91781414,-0.37359998,0
5.2710013,-5.2710018,2.2963204,0.67576939,-0.67576945,0.29440004,0
-0.44575498,0.69339669,-7.7563205,-0.057148073,0.088897012,-0.99440002,0
3.3505604,-6.4433856,2.8454401,0.42955902,-0.82607508,0.36480001,0
-5.6903877,-4.9316688,-2.0342402,-0.72953689,-0.63226521,-0.26080003,0
3.5400112,-3.2450104,6.1464,0.45384759,-0.41602695,0.78799999,0
0.255992,-4.0958757,-6.6331196,0.032819487,-0.52511227,-0.85039991,0
-5.1869154,-4.0949335,4.1433601,-0.66498911,-0.52499145,0.53119999,0
7.4669108,0.74669033,2.1278398,0.95729625,0.09572953,0.27279997,0
-7.7508311,-0.41896406,-0.76752025,-0.99369627,-0.05371334,-0.098400027,0
2.4989617,5.6920795,-4.7112017,0.3203797,0.72975379,-0.60400021,0
3.9263935,-6.6979651,0.74879891,0.50338376,-0.85871345,0.095999859,0
-4.017242,-6.2769408,2.3025601,-0.51503098,-0.80473596,0.29519999,0
-3.5761678,6.9288254,0.20591998,-0.45848304,0.88831091,0.026399996,0
2.8074384,-5.3475022,-4.9358397,0.35992798,-0.68557721,-0.63279992,0
-6.33675,-3.8020501,2.4960001,-0.81240386,-0.48744231,0.31999999,0
-4.4398379,-1.4799464,6.2399998,-0.56920999,-0.18973671,0.79999995,0
2.2708366,7.0648265,2.4024014,0.2911329,0.90574694,0.30800018,0
-5.4434404,3.2947142,-4.5115204,-0.69787699,0.42239925,-0.57840002,0
-6.9745226,3.4872618,-0.18720025,-0.89416957,0.44708484,-0.024000032,0
0.50474566,-7.0664463,-3.263521,0.064710982,-0.90595466,-0.41840011,0
0.86030614,-7.7427516,-0.38688076,0.11029565,-0.99266046,-0.049600095,0
-6.6994996,3.0781486,-2.5459206,-0.8589102,0.39463443,-0.32640007,0
3.4043648,-4.8228498,5.0980802,0.43645701,-0.61831403,0.65359998,0
-5.6446934,-3.0394506,-4.4428797,-0.72367865,-0.38967314,-0.56959993,0
-6.3742876,-0.72435105,-4.4366403,-0.81721634,-0.092865519,-0.56880003,0
0.90958619,-7.7314787,0.48671976,0.11661361,-0.99121517,0.062399969,0
-4.3842387,-2.6305432,5.8905602,-0.56208187,-0.33724913,0.75520003,0
-0.307917,2.4633379,7.3944006,-0.039476536,0.31581256,0.94800007,0
-3.9445496,4.470489,-5.0294394,-0.5057115,0.57313961,-0.64479989,0
-2.7906134,5.5812268,-4.6799984,-0.35777095,0.7155419,-0.59999979,0
7.1589494,1.0476512,-2.9140813,0.91781408,0.13431425,-0.37360018,0
-7.6062093,-1.1884705,1.2542403,-0.975155,-0.15236801,0.16080002,0
3.9681692,6.5474792,-1.491359,0.50873965,0.83942038,-0.19119987,0
4.1343231,-4.9611888,4.3742404,0.5300414,-0.63604981,0.56080002,0
4.8232212,-5.5847826,2.5272002,0.61836165,-0.71599776,0.32400003,0
-5.4053817,3.7537372,-4.1870408,-0.69299763,0.48124835,-0.53680009,0
-4.8710985,-5.8453183,-1.7160004,-0.6244998,-0.74939978,-0.22000004,0
-1.8203697,3.0339501,6.9513597,-0.23338073,0.38896796,0.89119995,0
5.259398,4.733459,3.2822402,0.67428178,0.60685372,0.4208,0
-7.0143819,3.2733779,0.96095985,-0.89927971,0.41966382,0.12319998,0
1.2940739,6.79389,-3.6067207,0.16590691,0.8710115,-0.46240008,0
-6.5195851,-4.271452,0.2995193,-0.83584422,-0.54762203,0.038399909,0
-6.5195851,-4.271452,0.2995193,-0.83584422,-0.54762203,0.038399909,0
2.4389377,2.1340706,7.0948806,0.3126843,0.27359879,0.90960008,0
4.4234691,6.1437073,1.8782399,0.56711143,0.78765476,0.24079998,0
-2.6639028,-3.8478594,6.2400002,-0.34152597,-0.49331528,0.80000001,0
3.7269046,-5.856565,3.5568004,0.47780827,-0.75084168,0.45600003,0
-3.0409997,-1.5205003,7.02,-0.38987175,-0.19493593,0.89999998,0
-4.6037498,-3.5806942,-5.1792006,-0.59022433,-0.45906335,-0.66400009,0
-5.1647263,-5.8383865,0.28080061,-0.66214436,-0.74851108,0.036000077,0
1.5471555,-1.2377238,7.5441604,0.19835326,-0.15868254,0.96720004,0
1.3036975,7.0399642,3.0950406,0.16714071,0.90255952,0.3968001,0
6.3264184,4.4519243,0.99840075,0.81107926,0.57075953,0.1280001,0
5.3604293,5.5934911,0.90479916,0.68723452,0.71711421,0.11599989,0
-5.7049708,4.4083872,2.9764798,-0.73140651,0.56517786,0.38159996,0
-5.3975968,5.6224961,0.30575973,-0.69199955,0.72083282,0.039199963,0
1.6758554,-5.2669744,-5.5036798,0.21485326,-0.67525309,-0.70559996,0
7.6730385,1.3540658,0.3619211,0.98372287,0.17359817,0.046400141,0
-4.446804,-1.1600358,-6.3024006,-0.57010305,-0.14872254,-0.80800003,0
-4.3898525,-4.5314603,-4.5864,-0.5628016,-0.58095646,-0.588,0
3.5160844,-1.5982201,-6.7766399,0.45078003,-0.20490001,-0.86879998,0
7.3350215,1.0117276,2.4523191,0.94038737,0.12970866,0.31439987,0
5.0163155,-5.8189263,-1.3478408,0.64311737,-0.7460162,-0.17280009,0
4.2118845,6.5284214,-0.69263983,0.53998512,0.83697701,-0.088799968,0
0.26839241,-2.6302452,-7.3382406,0.034409285,-0.33721092,-0.94080007,0
-3.4601073,-3.1635268,-6.2337594,-0.44360349,-0.40558034,-0.79919988,0
-3.8478594,-2.6639028,6.2400002,-0.49331528,-0.34152597,0.80000001,0
0.79947513,-5.2536945,-5.7096004,0.10249681,-0.67355055,-0.73200005,0
-5.5247798,4.972301,-2.36496,-0.70830506,0.63747448,-0.30319998,0
5.9904003,-4.4928002,2.1839995,0.76800001,-0.57600003,0.27999994,0
-5.8245077,4.5583105,2.4772801,-0.74673176,0.58439875,0.31760001,0
3.1591909,-6.3183818,3.3071997,0.40502447,-0.81004894,0.42399997,0
2.7906134,5.5812268,-4.6799984,0.35777095,0.7155419,-0.59999979,0
-1.8276705,2.7415047,7.0699205,-0.23431672,0.35147494,0.90640002,0
6.0555658,4.2893591,2.4023993,0.77635455,0.54991782,0.30799991,0
6.8250399,-0.31744388,-3.7627206,0.87500507,-0.040697932,-0.48240006,0
-7.7861977,-0.44492581,0.13104023,-0.99823046,-0.057041768,0.016800029,0
4.8228502,-3.4043648,5.0980797,0.61831409,-0.43645701,0.65359992,0
-3.3780136,-4.6291304,-5.2915196,-0.43307865,-0.59347826,-0.67839992,0
3.5634372,2.1728275,-6.5894413,0.45685092,0.27856761,-0.84480017,0
-3.5843575,-6.6027637,-2.0966396,-0.45953301,-0.84650815,-0.26879996,0
-1.0808008,-2.4318018,-7.3319993,-0.1385642,-0.31176946,-0.93999988,0
2.1620481,0.30886397,-7.4880009,0.27718565,0.039597943,-0.9600001,0
-3.5281117,-5.4391718,-4.3368006,-0.45232201,-0.6973297,-0.55600005,0
7.7240591,-0.46812508,0.97968066,0.99026394,-0.060016032,0.12560008,0
-0.41475585,0.15001808,-7.7875204,-0.053173825,0.019233087,-0.99840003,0
5.6736088,5.0866828,-1.6660805,0.7273857,0.65213883,-0.21360005,0
4.4083872,5.7049718,2.9764788,0.5651778,0.73140657,0.38159981,0
6.4243765,-3.9534624,1.9843204,0.82363796,-0.50685412,0.25440004,0
4.8185091,6.1326466,-0.11231979,0.61775756,0.7862367,-0.014399973,0
-7.4195361,-2.4004383,-0.16848035,-0.95122254,-0.3077485,-0.021600045,0
5.0917025,-3.1115963,5.0231996,0.65278238,-0.39892259,0.64399993,0
4.6775875,-2.0464439,5.8967996,0.59969068,-0.2623646,0.75599992,0
1.7715888,4.4289713,6.1713605,0.22712676,0.56781679,0.79120004,0
-5.4456291,-3.8119402,4.0809608,-0.69815755,-0.48871025,0.52320009,0
2.678988,3.0138617,-6.6768007,0.34345999,0.3863925,-0.85600007,0
6.9165778,-3.0740345,-1.8844806,0.88674074,-0.39410698,-0.24160007,0
1.2914542,-5.2832212,-5.5910397,0.16557105,-0.67733604,-0.71679991,0
2.0183096,-5.1051354,-5.541121,0.25875762,-0.65450454,-0.7104001,0
3.1964397,6.0732355,-3.7065597,0.40979996,0.77861995,-0.47519994,0
-3.5281117,-5.4391718,-4.3368006,-0.45232201,-0.6973297,-0.55600005,0
1.6659749,6.1085753,4.5551991,0.21358651,0.78315067,0.58399987,0
-7.3367119,1.1005068,-2.4086404,-0.94060409,0.14109062,-0.30880004,0
7.3617592,-0.50770777,2.5271993,0.94381523,-0.065090738,0.32399991,0
-4.3735681,-5.7731099,-2.8953593,-0.56071383,-0.74014229,-0.37119991,0
-4.5752435,-3.431433,5.3039999,-0.58656967,-0.43992728,0.67999995,0
-3.5213618,-5.6648002,-4.04352,-0.45145664,-0.72625643,-0.51840001,0
6.1500835,-0.83864766,4.7236795,0.78847224,-0.10751893,0.60559994,0
1.227869,2.4557378,-7.3008008,0.1574191,0.31483817,-0.93600011,0
-4.052999,5.4039984,3.9000003,-0.51961523,0.69282031,0.50000006,0
3.2899065,6.4066601,-2.9952002,0.42178288,0.82136667,-0.384,0
-4.1896381,-0.5985201,6.5520005,-0.5371331,-0.076733343,0.84000003,0
-1.437301,-6.7074046,-3.712801,-0.18426935,-0.85992366,-0.4760001,0
6.9270968,0.26642656,3.5755205,0.8880893,0.03415725,0.45840004,0
-3.7952337,3.5719845,-5.8032002,-0.48656842,0.45794672,-0.74400002,0
-1.8122662,3.3224885,6.8203201,-0.23234183,0.42596006,0.87440002,0
-5.7710524,5.1527252,-0.99216008,-0.73987848,0.66060579,-0.12720001,0
3.3415773,-0.91133916,6.9888,0.42840734,-0.11683835,0.89599997,0
6.9717164,3.1870706,-1.4414417,0.8938098,0.40859878,-0.18480021,0
-3.1255798,-6.2511597,-3.4631999,-0.40071535,-0.8014307,-0.44399998,0
-6.7986169,-0.47432211,-3.7939205,-0.87161756,-0.060810525,-0.48640007,0
5.6829929,-5.2094097,1.1855998,0.72858882,-0.66787302,0.15199997,0
7.3137484,2.4379163,-1.1856008,0.93766004,0.31255338,-0.1520001,0
3.7279911,5.1618342,-4.5052805,0.47794756,0.66177362,-0.57760006,0
4.3324127,5.1447392,3.9499197,0.55543751,0.6595819,0.50639993,0
-1.2278694,-2.4557397,7.3008003,-0.15741915,-0.31483841,0.93599999,0
3.7287588,-5.836318,-3.5880013,0.478046,-0.74824589,-0.46000016,0
-6.2055473,4.5348234,1.3291204,-0.79558295,0.58138758,0.17040005,0
-1.001807,7.6137309,-1.3665599,-0.12843679,0.97611934,-0.17519999,0
-1.2009364,-3.903044,6.6456003,-0.1539662,-0.50039023,0.852,0
-3.0450945,7.1777229,-0.21839906,-0.39039671,0.92022085,-0.02799988,0
1.5831411,-6.8602777,3.3571203,0.20296679,-0.87952274,0.43040001,0
-0.41896406,7.7508311,-0.76752025,-0.05371334,0.99369627,-0.098400027,0
7.2151213,1.8500316,-2.3150396,0.92501551,0.23718354,-0.29679996,0
7.3037724,-0.35628176,-2.7144015,0.93638104,-0.045677148,-0.34800017,0
2.0481079,-7.5097308,0.499201,0.26257792,-0.96278596,0.06400013,0
6.8813481,-1.3233365,3.4257603,0.88222408,-0.16965851,0.43920001,0
7.6662002,-1.1615458,0.84864062,0.98284614,-0.14891613,0.10880008,0
5.7672186,-5.0463166,1.4539195,0.73938698,-0.64696366,0.18639994,0
4.2088346,1.1894532,-6.4583988,0.53959417,0.152494,-0.82799983,0
4.885478,5.3997383,2.7955208,0.62634331,0.69227415,0.35840011,0
-7.4040699,1.753595,-1.7159995,-0.94923973,0.22481987,-0.21999992,0
-4.9684787,-0.21142472,-6.00912,-0.63698441,-0.027105734,-0.77039999,0
-6.8352928,-1.840271,3.2760005,-0.87631959,-0.23593217,0.42000005,0
-5.134727,-0.89299613,-5.8032007,-0.65829831,-0.11448668,-0.74400008,0
3.2268107,3.8135028,5.9903998,0.41369367,0.48891062,0.76799995,0
1.6071966,7.1430974,-2.6894386,0.20605084,0.91578168,-0.34479982,0
3.9317439,-3.0816371,-5.9904013,0.50406969,-0.39508167,-0.76800013,0
5.4984565,-5.4984565,0.61151946,0.70493031,-0.70493031,0.078399926,0
5.6885366,4.9465528,2.0030398,0.72929955,0.63417339,0.25679997,0
-2.7253518,-2.4225352,6.8951998,-0.3494041,-0.31058145,0.884,0
6.7614508,0.62897253,-3.8376005,0.86685264,0.0806375,-0.49200004,0
-6.8692961,1.1448826,-3.5131209,-0.88067895,0.14677981,-0.45040011,0
4.5479293,3.6951919,5.1479998,0.58306783,0.47374254,0.65999997,0
-5.2832212,1.2914542,-5.5910397,-0.67733604,0.16557105,-0.71679991,0
5.9912939,-4.793035,1.4040003,0.76811457,-0.61449164,0.18000004,0
1.6268101,-6.5072403,3.9811199,0.20856538,-0.83426154,0.5104,0
5.4376693,1.2083712,-5.4599996,0.69713706,0.15491937,-0.69999993,0
6.2055473,-4.5348234,1.3291204,0.79558295,-0.58138758,0.17040005,0
-7.3350215,-1.0117269,2.4523194,-0.94038737,-0.12970857,0.31439993,0
-7.5267801,1.2139971,1.6473598,-0.96497178,0.15564065,0.21119997,0
5.9375758,-5.0579348,-0.04991905,0.76122767,-0.64845318,-0.0063998783,0
4.8959155,-3.6719363,-4.836,0.62768143,-0.47076106,-0.62,0
2.9473689,-3.8315785,6.1214399,0.37786779,-0.49122801,0.78479999,0
4.7851486,5.0509901,3.5256,0.61348057,0.6475628,0.45199999,0
2.6977737,-7.263237,-0.89855969,0.34586841,-0.93118423,-0.11519996,0
4.1034827,4.3682232,-4.9919996,0.52608752,0.56002861,-0.63999993,0
-6.8352928,1.840271,3.2760005,-0.87631959,0.23593217,0.42000005,0
3.8860731,-6.5577469,1.6536002,0.49821448,-0.84073675,0.21200003,0
-0.83345455,7.7094564,-0.84240019,-0.10685314,0.98839182,-0.10800003,0
4.8232212,-5.5847826,2.5272002,0.61836165,-0.71599776,0.32400003,0
-0.91899765,-2.7569928,7.2384,-0.11782021,-0.35346061,0.92799997,0
-4.1712432,-4.7274084,4.5926404,-0.53477478,-0.60607797,0.58880001,0
-4.7274084,4.1712422,4.5926409,-0.60607797,0.53477466,0.58880007,0
-5.6710854,3.2832603,-4.2307205,-0.72706223,0.4209308,-0.54240006,0
7.6137309,-1.001807,-1.3665599,0.97611934,-0.12843679,-0.17519999,0
-6.7773638,3.8122675,-0.61151987,-0.86889279,0.48875225,-0.078399979,0
-1.3921638,-6.1255193,4.6238399,-0.17848253,-0.78532296,0.59279996,0
-6.2307582,0.99125689,-4.5864,-0.79881513,0.12708421,-0.588,0
3.8580911,6.1729469,2.8017602,0.49462706,0.79140341,0.35920003,0
-4.7923203,5.9903998,-1.4102408,-0.61440003,0.76799995,-0.1808001,0
-1.2940744,-6.7938895,-3.6067212,-0.16590697,-0.87101144,-0.46240014,0
-6.9717164,3.1870711,-1.4414403,-0.8938098,0.40859884,-0.18480004,0
-4.3682232,4.1034827,-4.9919996,-0.56002861,0.52608752,-0.63999993,0
6.6226373,2.3179228,-3.4070387,0.84905607,0.2971696,-0.43679982,0
-1.6638706,-2.1630316,-7.3070397,-0.21331674,-0.27731174,-0.93679994,0
-1.4514943,-7.4993873,1.57872,-0.18608901,-0.96145988,0.2024,0
0.37356678,7.4713421,-2.2089589,0.047893174,0.95786434,-0.28319985,0
-1.3540657,-7.6730385,0.36191985,-0.17359816,-0.98372287,0.046399981,0
2.5939198,7.3494382,-0.31199896,0.3325538,0.94223565,-0.039999865,0
2.8572388,7.1430969,1.2854395,0.36631265,0.91578162,0.16479993,0
0.47432163,-6.7986169,-3.7939203,0.060810465,-0.87161756,-0.48640004,0
3.6314867,-6.2254066,2.9827201,0.46557519,-0.79812902,0.38240001,0
-3.5965796,-2.0980043,6.5956802,-0.46109992,-0.2689749,0.84560001,0
2.1887989,7.2959991,1.6785599,0.28061524,0.93538445,0.21519998,0
0.27363637,-6.5672793,4.1995196,0.035081584,-0.84195888,0.53839993,0
-1.1600357,5.2201624,5.6784,-0.14872253,0.66925156,0.72799999,0
2.9294798,-4.1012702,5.95296,0.37557432,-0.52580386,0.76319999,0
6.775847,-3.5872135,-1.4351991,0.8686983,-0.45989916,-0.18399988,0
0.24327974,-5.5954394,-5.4288006,0.03118971,-0.71736401,-0.69600004,0
3.0339501,1.8203697,6.9513597,0.38896796,0.23338073,0.89119995,0
6.3089089,0.86030579,-4.50528,0.80883443,0.11029561,-0.5776,0
6.3132496,1.6469345,4.2743998,0.8093909,0.21114543,0.54799992,0
-2.6305432,-4.3842387,5.8905602,-0.33724913,-0.56208187,0.75520003,0
7.5520067,-0.77456462,-1.7908792,0.96820599,-0.099303156,-0.22959989,0
6.5204391,0,-4.2806401,0.83595371,0,-0.54879999,0
2.1340706,2.4389377,7.0948806,0.27359879,0.3126843,0.90960008,0
4.0775814,6.1163716,2.6083193,0.52276683,0.78415018,0.33439991,0
-5.6224961,-5.3975968,0.30575973,-0.72083282,-0.69199955,0.039199963,0
-6.8628654,2.0588596,-3.0825605,-0.8798545,0.26395634,-0.39520007,0
6.8628659,2.0588601,-3.0825589,0.87985456,0.2639564,-0.39519984,0
-2.5221488,-3.0103066,-6.7392006,-0.3233524,-0.38593674,-0.86400008,0
2.4455702,-1.8341781,7.1760001,0.31353465,-0.23515104,0.92000002,0
