-1.5674851,-3.4484673,-6.6463199,-0.20490001,-0.45078003,-0.86879998,0
-7.1764874,-0.17503612,-2.6438398,-0.9381029,-0.022880537,-0.34559998,0
-7.3798881,1.359453,-1.4871597,-0.96469122,0.17770627,-0.19439997,0
-4.8743596,-1.146908,5.7834005,-0.63717121,-0.14992262,0.75600004,0
-1.1175326,-5.5876637,5.1040802,-0.1460827,-0.73041356,0.66720003,0
1.5746845,6.5611854,3.6046801,0.20584111,0.85767126,0.47119999,0
1.5025196,2.4040303,7.10532,0.19640779,0.31425232,0.92879999,0
-3.4484673,1.5674851,-6.6463199,-0.45078003,0.20490001,-0.86879998,0
-0.57501984,-4.8876657,5.8568401,-0.075165994,-0.63891053,0.76560003,0
4.3612905,1.1377281,-6.1811991,0.57010335,0.14872262,-0.80799985,0
1.7777308,6.8569622,2.8886406,0.23238312,0.89633495,0.37760007,0
7.6255002,0.22427922,0.56916112,0.99679738,0.029317545,0.074400142,0
-0.16591844,-6.9685812,-3.1518009,-0.021688685,-0.91092563,-0.41200012,0
-0.26563919,-5.9768786,-4.7674794,-0.034724075,-0.78129131,-0.62319994,0
7.5187731,1.1392083,0.83232063,0.98284614,0.14891613,0.10880008,0
2.1510649,6.6186609,-3.1762788,0.28118494,0.86518443,-0.41519985,0
-6.0931664,4.1433535,2.0563197,-0.79649234,0.54161483,0.26879996,0
2.3556828,3.2390649,6.5177999,0.30793241,0.42340717,0.852,0
1.6436274,-5.1656866,-5.3978395,0.21485326,-0.67525315,-0.7055999,0
-1.8803447,-7.286335,1.3769999,-0.2457967,-0.95246208,0.17999998,0
6.5777903,-2.7695959,-2.7539997,0.85984182,-0.36203867,-0.35999995,0
-7.2768526,-2.3542762,-0.16524035,-0.95122254,-0.30774853,-0.021600045,0
-2.375948,-2.6729412,6.7625999,-0.31058142,-0.34940407,0.884,0
-0.2898449,4.6375232,6.0771594,-0.037888225,0.6062122,0.79439998,0
-0.43636951,7.6364627,0.12851895,-0.057041764,0.9982304,0.016799863,0
5.9303246,3.6097622,3.2129998,0.77520579,0.47186434,0.41999996,0
2.7543666,2.9212983,-6.5116806,0.36004794,0.38186905,-0.85120004,0
-0.97219425,-6.1109357,-4.4981999,-0.12708421,-0.79881513,-0.588,0
3.9338222,3.9338222,5.2509604,0.51422513,0.51422513,0.68640006,0
-2.5969505,-4.0397005,5.9547601,-0.33947065,-0.52806544,0.7784,0
-5.7619405,1.9206465,4.6511998,-0.75319481,0.2510649,0.60799998,0
-3.2313545,-5.3387594,-4.4247594,-0.42239928,-0.69787705,-0.5783999,0
-1.8803418,-1.3632479,-7.2889214,-0.24579631,-0.17820233,-0.95280015,0
1.0947795,-6.0212841,4.5900002,0.14310841,-0.7870959,0.59999996,0
-7.4673128,0.98254144,-1.3402798,-0.97611934,0.12843679,-0.17519997,0
-0.78945613,-7.499835,-1.2851998,-0.10319688,-0.98037058,-0.16799997,0
4.6744461,-5.5733786,-2.3684399,0.61103868,-0.7285462,-0.3096,0
2.8906753,-5.9334912,-3.8678393,0.37786606,-0.77561975,-0.50559992,0
-7.4527807,-0.3821941,-1.6829994,-0.97421968,-0.049960013,-0.21999991,0
4.8280711,3.1763628,-5.01228,0.63112038,0.41521081,-0.6552,0
4.1126399,0,6.4504805,0.53759992,0,0.84319997,0
5.948092,-3.3759441,-3.4272006,0.77752835,-0.44129989,-0.44800007,0
-4.6001682,4.3295708,4.3146,-0.60132915,0.56595695,0.56400001,0
6.4568114,-1.0511087,-3.9657605,0.84402764,-0.13739984,-0.51840007,0
7.5848951,-0.61499149,-0.78336024,0.99148953,-0.080391042,-0.10240003,0
-6.9518728,0.25747654,3.1824007,-0.90874153,0.033657063,0.4160001,0
1.406935,5.3463516,5.2876801,0.18391307,0.69886947,0.69120002,0
-1.5434051,6.4823017,-3.7576809,-0.20175229,0.84735972,-0.49120012,0
-7.1441612,2.5350251,1.0281597,-0.93387729,0.33137584,0.13439997,0
-1.5000118,-7.5000596,-0.14687969,-0.19607997,-0.98039991,-0.019199958,0
4.2894611,5.6620884,-2.8396795,0.56071389,0.74014229,-0.37119994,0
6.8325081,-1.8789401,-2.882519,0.89313829,-0.24561308,-0.37679985,0
5.4610496,-3.9007494,-3.6720011,0.71386266,-0.50990188,-0.48000014,0
-2.2868993,7.2764974,-0.5875212,-0.29894108,0.95117611,-0.076800153,0
3.1257808,6.8376451,-1.4137216,0.40859878,0.8938098,-0.18480021,0
-1.4972131,2.6949821,7.0012803,-0.19571413,0.35228524,0.91520005,0
6.5584016,-3.9350412,0.15911941,0.85730737,-0.51438445,0.020799924,0
0.79818493,-4.1683002,-6.3647995,0.1043379,-0.5448758,-0.8319999,0
6.8634863,3.2298768,-0.99143946,0.89718771,0.4222061,-0.12959993,0
-6.788291,-0.52217656,3.4884002,-0.88735831,-0.068258375,0.45600003,0
3.0708435,-6.9605794,-0.80171973,0.40141743,-0.90987962,-0.10479996,0
-5.3387589,3.2313542,-4.4247603,-0.69787699,0.42239925,-0.57840002,0
2.4676428,7.0232916,-1.7625601,0.32256767,0.91807735,-0.23040001,0
-1.5547448,2.906697,-6.9033604,-0.20323461,0.37996039,-0.90240002,0
-3.8827772,-6.5394139,-0.82619965,-0.50755256,-0.85482532,-0.10799995,0
4.2908497,5.0570726,-3.8127584,0.56089538,0.66105527,-0.49839979,0
5.2750635,-2.4987144,4.9449601,0.68955076,-0.32662934,0.64640003,0
-6.7092896,-0.15602985,-3.6720004,-0.87703133,-0.020396059,-0.48000005,0
-5.9987493,3.9991665,2.5581594,-0.78415024,0.52276683,0.33439991,0
-3.8398306,6.6130414,-0.21420024,-0.50193864,0.86444992,-0.028000033,0
-7.3439999,0,-2.1420004,-0.95999998,0,-0.28000006,0
-4.1079745,-5.6484652,3.1212001,-0.53699011,-0.73836148,0.40799999,0
7.2505031,2.2154317,-1.0220408,0.94777817,0.28959891,-0.13360012,0
-6.8080707,3.4040346,0.76499999,-0.88994384,0.44497183,0.099999994,0
1.2198319,0.30495754,7.5459599,0.15945515,0.039863732,0.98640001,0
3.2250443,3.3227727,-6.0893984,0.42157441,0.43434936,-0.79599977,0
6.2834549,-3.226639,-2.9376001,0.82136667,-0.42178288,-0.384,0
7.26091,1.4521821,1.9216796,0.94913858,0.18982771,0.25119996,0
-3.4416499,5.0936418,-4.5532804,-0.44988889,0.6658355,-0.59520006,0
2.1204717,0.30292428,7.3440003,0.27718583,0.039597943,0.96000004,0
1.8789401,6.8325081,-2.882519,0.24561308,0.89313829,-0.37679985,0
-0.51451725,-6.9459786,3.1640406,-0.067257158,-0.90797102,0.41360006,0
-2.9881647,-1.1952657,6.9400802,-0.39060974,-0.15624388,0.90720004,0
-5.6132445,-5.164185,0.5875203,-0.73375744,-0.67505687,0.076800041,0
-5.1888366,5.6212392,-0.012239977,-0.67827928,0.73480248,-0.0015999969,0
-4.919848,5.7070241,-1.3219208,-0.64311737,0.7460162,-0.17280009,0
-1.8144536,-7.0763693,-2.2705193,-0.23718348,-0.92501557,-0.2967999,0
-6.0212841,-1.0947787,4.5900002,-0.78709596,-0.14310832,0.60000002,0
-7.123559,2.6458933,-0.88127971,-0.93118417,0.34586841,-0.11519996,0
5.0104647,1.3361239,-5.6242795,0.65496272,0.17465672,-0.73519993,0
-4.992959,2.7461278,-5.1040812,-0.65267438,0.35897097,-0.66720015,0
6.4804125,2.332948,3.3292804,0.84711272,0.30496052,0.43520004,0
-4.4313536,-3.8774338,4.8837605,-0.5792619,-0.50685406,0.63840008,0
0,7.5239272,1.3831203,0,0.98351991,0.18080004,0
6.8794899,-3.2104282,0.94247985,0.89927971,-0.41966382,0.12319998,0
-7.4122348,1.7969052,0.59364086,-0.96891958,0.23488957,0.077600114,0
-1.1665784,-4.127893,-6.3342004,-0.15249391,-0.53959388,-0.82800007,0
2.1868186,-5.7404003,4.5594001,0.28585863,-0.75037915,0.59600002,0
3.0189533,6.570663,-2.4969606,0.39463443,0.8589102,-0.32640007,0
6.1562304,-3.9399874,2.25828,0.80473602,-0.51503104,0.29519999,0
0,2.1209044,7.3501201,0,0.27724242,0.96079999,0
-0.83510429,2.8035648,-7.0686016,-0.10916395,0.36647904,-0.9240002,0
4.4476151,-6.0862098,1.3035604,0.58138758,-0.79558295,0.17040005,0
-7.4316053,-1.3934262,1.1628003,-0.97145164,-0.1821472,0.15200004,0
-4.8269696,-4.2906394,4.1004,-0.63097644,-0.56086791,0.53600001,0
-3.5274143,-2.0576582,6.4688401,-0.46109989,-0.26897493,0.84560001,0
6.0045404,4.6188769,1.0648806,0.78490722,0.60377473,0.13920008,0
-5.1197743,-1.1377274,5.5692,-0.66925156,-0.14872253,0.72799999,0
-6.0077209,-1.3653914,4.5349202,-0.78532296,-0.17848252,0.59279996,0
-2.0087218,-7.3653126,0.48960063,-0.26257801,-0.96278596,0.064000085,0
-3.0554924,-6.3656092,2.9437199,-0.39941075,-0.83210576,0.38479999,0
0.94513911,7.3720832,-1.8115194,0.12354759,0.96367097,-0.23679991,0
7.397984,-1.6183089,1.0832404,0.96705675,-0.21154365,0.14160004,0
-1.2691883,-6.663238,-3.5373611,-0.16590697,-0.8710115,-0.46240014,0
-3.1871924,-5.7673006,-3.8862,-0.41662645,-0.75389552,-0.50800002,0
0.41090646,-7.6017766,-0.75276017,0.053713262,-0.99369627,-0.098400019,0
-7.1326232,-2.7271793,-0.45900008,-0.93236905,-0.35649401,-0.06000001,0
-4.2664785,6.1626911,1.5300002,-0.55770963,0.80558056,0.20000002,0
6.4202504,3.4570577,2.3133607,0.83924842,0.45190296,0.30240008,0
-7.0236702,1.5050722,2.6315999,-0.91812682,0.19674146,0.34399998,0
2.2868996,-7.2764974,-0.58751994,0.29894111,-0.95117611,-0.076799989,0
-6.3656092,3.0554924,2.9437199,-0.83210576,0.39941075,0.38479999,0
3.811341,-6.4316363,1.6218002,0.49821451,-0.84073675,0.21200003,0
-1.4514858,-4.3544569,-6.1199994,-0.18973669,-0.56921005,-0.79999989,0
-0.36638334,7.3276625,-2.1664789,-0.047893248,0.95786434,-0.28319985,0
-4.5194569,-4.7853079,3.8984401,-0.59077871,-0.62553048,0.50960004,0
5.0936418,3.4416499,-4.5532804,0.6658355,0.44988889,-0.59520006,0
-2.7884643,5.0192361,5.05512,-0.36450514,0.65610927,0.66079998,0
7.5306196,-1.0176516,-0.8812803,0.98439473,-0.13302635,-0.11520004,0
7.4599361,1.1656153,1.2301202,0.97515506,0.15236801,0.16080002,0
-3.5073955,6.795579,0.20195998,-0.45848307,0.88831097,0.026399998,0
3.1018384,4.511765,5.3427591,0.40546906,0.58977318,0.6983999,0
3.6240437,3.6240437,-5.679359,0.47373119,0.47373119,-0.74239987,0
-1.5112191,-1.8134626,7.27668,-0.19754498,-0.23705393,0.95120001,0
2.0087211,-7.3653126,0.48960096,0.26257792,-0.96278596,0.064000122,0
6.6455421,3.5182288,-1.4075991,0.8686983,0.45989919,-0.18399988,0
5.9532533,4.5244727,1.6156801,0.77820301,0.59143436,0.21120001,0
0.42400563,-7.6321087,-0.30600059,0.055425573,-0.99766123,-0.040000077,0
-1.514623,-1.514623,7.3439999,-0.19798994,-0.19798994,0.95999998,0
3.2250443,3.3227727,-6.0893984,0.42157441,0.43434936,-0.79599977,0
-1.7969058,-7.4122348,0.59364057,-0.23488964,-0.96891958,0.077600069,0
1.9910219,1.2325373,-7.2828007,0.26026431,0.16111597,-0.95200008,0
0,0.91634524,7.5949202,0,0.11978369,0.9928,0
5.8004684,1.3182887,-4.8103204,0.75823116,0.17232531,-0.62880003,0
-1.9206465,-5.7619405,4.6511998,-0.2510649,-0.75319481,0.60799998,0
-2.0771878,-2.967411,6.7381201,-0.2715278,-0.38789687,0.88080001,0
-7.3294587,1.1276091,-1.8788394,-0.95809919,0.14739989,-0.24559991,0
3.6973808,4.4623561,-4.9939218,0.48331773,0.58331454,-0.6528002,0
0,-7.6484699,0.15300025,0,-0.99979997,0.020000033,0
-1.423581,7.3551683,1.5483599,-0.18608902,0.96145988,0.20239998,0
0.99227124,7.1939635,2.4051592,0.12970866,0.94038737,0.3143999,0
-6.7658753,-1.0409037,3.4149604,-0.88442814,-0.13606584,0.44640005,0
-6.1858945,3.7115364,-2.5459192,-0.80861372,0.48516819,-0.33279991,0
0.26837415,-6.4409857,4.1187596,0.035081588,-0.84195888,0.53839993,0
-0.42400625,-7.6321087,-0.30600065,-0.055425655,-0.99766123,-0.040000085,0
5.5229397,-2.2091763,4.8103204,0.72195292,-0.28878123,0.62880003,0
2.1170068,0.90728784,7.2950401,0.27673292,0.11859971,0.95359999,0
0,-2.4164629,7.2583199,0,-0.3158775,0.94879997,0
3.5525534,-1.1841842,6.6708002,0.46438608,-0.15479532,0.87200004,0
-6.2047563,4.3663101,0.97920072,-0.81107926,0.57075948,0.1280001,0
-6.4804125,-2.3329487,3.3292799,-0.84711272,-0.30496061,0.43519998,0
-4.8217287,-4.237277,-4.1616001,-0.63029134,-0.55389243,-0.54400003,0
-4.5611782,-4.5611782,-4.1126404,-0.59623241,-0.59623241,-0.53760004,0
3.5447161,6.6168041,1.4749215,0.46336159,0.86494172,0.19280019,0
-4.0027332,-6.2900085,-1.7135996,-0.52323312,-0.82222331,-0.22399995,0
-4.7407212,-4.7407212,3.6842396,-0.61970216,-0.61970216,0.48159999,0
-1.2000192,2.7000432,7.0563602,-0.15686525,0.35294682,0.9224,0
5.3699217,2.4885001,-4.8470411,0.70195055,0.32529414,-0.63360012,0
-2.5440373,-0.58300865,-7.1909995,-0.33255389,-0.076210283,-0.93999994,0
-2.6632762,2.6632752,6.6585603,-0.34814069,0.34814054,0.87040001,0
6.7371941,-1.1228656,-3.4455609,0.88067895,-0.14677981,-0.45040011,0
0.43253252,-6.3438163,-4.2533998,0.056540199,-0.82925701,-0.55599999,0
5.5361414,-2.9809995,-4.3574395,0.72367859,-0.38967311,-0.56959993,0
6.15623,3.9399879,2.2582796,0.80473596,0.5150311,0.29519993,0
-7.0466266,-1.2583265,2.69892,-0.92112762,-0.16448712,0.35280001,0
5.3345723,-3.4602633,-4.2534003,0.6973297,-0.45232198,-0.55600005,0
-3.2271502,2.6403944,6.4137602,-0.4218497,0.34514961,0.83840001,0
-1.5112191,1.8134626,7.27668,-0.19754498,0.23705393,0.95120001,0
-3.3329847,-6.153203,3.0905998,-0.43568426,-0.80434024,0.40399995,0
5.6479678,4.6657124,2.2031996,0.73829645,0.60989702,0.28799996,0
2.188,-7.0502243,2.0073595,0.28601307,-0.92159796,0.26239994,0
-0.30292428,2.1204717,7.3440003,-0.039597943,0.27718583,0.96000004,0
-6.0542364,-3.7838976,2.7478797,-0.79140347,-0.49462715,0.35919997,0
-4.0929899,-6.462616,-0.067320384,-0.53503138,-0.84478641,-0.0088000502,0
-2.4987144,-4.8784423,-5.3366399,-0.32662934,-0.63770485,-0.69759995,0
5.8303332,0.27763468,4.9449606,0.76213503,0.036292113,0.64640009,0
0.75966972,-7.4067755,-1.7564394,0.099303231,-0.96820593,-0.22959992,0
-5.7857795,4.95924,-0.67320031,-0.75631106,0.64826667,-0.088000037,0
-0.30093947,2.7084572,7.1481605,-0.039338492,0.3540467,0.93440002,0
0.80344594,6.4275737,4.0697999,0.10502561,0.84020573,0.53200001,0
6.8794899,3.2104282,0.94247985,0.89927971,0.41966382,0.12319998,0
-0.47955215,7.4330544,1.7441999,-0.062686555,0.97164106,0.22799999,0
-6.1940265,-4.4853296,-0.19584098,-0.80967665,-0.5863176,-0.025600128,0
-7.5254803,1.3280259,0.35495985,-0.98372293,0.17359816,0.046399981,0
-5.0871668,-4.0161848,4.0636802,-0.66498911,-0.52499145,0.53119999,0
3.413183,3.9820461,5.5692,0.44616771,0.52052891,0.72799999,0
-1.6410272,6.7282124,-3.2497213,-0.21451336,0.87950486,-0.42480016,0
-6.2692676,3.5107894,2.6254802,-0.81951207,0.45892671,0.34320003,0
-5.0654044,-5.7261095,0.27540061,-0.66214442,-0.74851108,0.03600008,0
-6.7938838,-0.26130298,3.5067604,-0.88808936,-0.03415725,0.45840004,0
2.9956768,0.59913462,7.0135198,0.39159173,0.078318253,0.91679996,0
0.59913462,-2.9956758,7.0135202,0.078318253,-0.39159161,0.91680002,0
2.985971,5.0631676,-4.8959999,0.39032301,0.66185194,-0.63999999,0
7.4039431,-0.9553473,1.6707599,0.96783566,-0.124882,0.21839999,0
1.1899905,3.2724726,6.8115597,0.15555431,0.42777419,0.89039993,0
1.9032505,7.4015322,-0.34272075,0.2487909,0.96752053,-0.044800095,0
3.8358777,-5.88168,3.0355208,0.50142193,-0.76884705,0.3968001,0
-5.3330984,1.1851333,-5.3549995,-0.69713706,0.15491939,-0.69999993,0
2.2500298,-5.0625687,5.2754402,0.29412153,-0.66177368,0.68959999,0
-3.6511018,-4.21281,5.2387199,-0.47726822,-0.55069411,0.68479997,0
-2.8813634,6.4406948,-2.9559596,-0.37664881,0.84192085,-0.38639992,0
1.4365716,6.1772566,-4.2778807,0.18778713,0.80748451,-0.55920011,0
5.9730697,1.9910229,-4.3452005,0.78079343,0.26026443,-0.56800008,0
7.3424058,2.0978305,-0.45900133,0.9597916,0.27422622,-0.060000174,0
-7.4444966,1.7516459,0.18360002,-0.97313678,0.22897331,0.024000002,0
-0.1042197,4.8983307,-5.8752017,-0.01362349,0.64030468,-0.76800019,0
1.027504,7.0212774,-2.8580413,0.13431424,0.91781402,-0.37360016,0
-0.72784257,-7.2784271,-2.2399204,-0.095142819,-0.95142835,-0.29280004,0
0.28965101,-6.3723283,-4.2227998,0.037862875,-0.83298409,-0.55199999,0
-0.17417817,-2.8449101,-7.0992007,-0.022768388,-0.37188366,-0.92800009,0
7.3417048,-0.24472325,2.1358795,0.95969999,-0.031989966,0.27919993,0
7.0704246,-0.86224705,-2.7907214,0.9242385,-0.11271203,-0.36480018,0
1.6530795,7.4388595,-0.67320049,0.21608882,0.97239989,-0.088000059,0
7.4209385,-0.71815538,1.7135999,0.97005731,-0.093876518,0.22399999,0
-3.3814473,-4.1976585,-5.4284415,-0.44201925,-0.54871351,-0.70960021,0
-4.1248755,-4.3998671,4.7062802,-0.53919941,-0.57514602,0.61520004,0
2.6472101,-6.0885816,3.8005199,0.34604055,-0.79589301,0.49679998,0
3.8414085,-0.40014678,-6.6034813,0.50214487,-0.052306768,-0.86320019,0
-3.8600075,-1.1747848,-6.4994402,-0.50457615,-0.15356663,-0.84960002,0
2.5126307,-6.8199983,-2.3867996,0.32844844,-0.89150304,-0.31199995,0
-2.985971,-5.063168,-4.895999,-0.39032301,-0.661852,-0.63999987,0
-6.2856393,-4.1904263,1.2056404,-0.82165217,-0.54776812,0.15760006,0
4.2803044,-6.3078175,0.6426,0.55951691,-0.82455128,0.083999999,0
-4.8909864,-0.28770483,5.8752003,-0.63934463,-0.037608474,0.76800001,0
4.7794924,5.9174676,0.81396085,0.62477022,0.77352518,0.10640011,0
-0.22302325,2.7320354,-7.1420407,-0.029153366,0.3571288,-0.93360007,0
6.1918406,1.6152627,4.1921997,0.8093909,0.21114546,0.54799998,0
-1.5050722,-5.5185981,-5.0795999,-0.19674146,-0.72138536,-0.66399997,0
-4.1683002,0.79818493,-6.3647995,-0.5448758,0.1043379,-0.8319999,0
5.8254175,-3.1775002,3.8066392,0.76149249,-0.4153595,0.4975999,0
4.758759,-1.9920387,-5.6487608,0.62206,-0.26039723,-0.7384001,0
4.3437986,-1.7375197,6.0526805,0.56781679,-0.22712676,0.79120004,0
7.0902462,0.50644571,2.827441,0.92682958,0.066202052,0.36960012,0
-6.4177856,-2.6329377,-3.2252393,-0.8389262,-0.34417486,-0.42159989,0
-2.3329487,6.4804125,3.3292799,-0.30496061,0.84711272,0.43519998,0
-0.9742915,-7.307188,2.0440795,-0.12735836,-0.95518798,0.26719993,0
4.1976585,-3.3814473,-5.4284415,0.54871351,-0.44201925,-0.70960021,0
0.60843945,1.5211005,7.4725199,0.079534568,0.19883667,0.97679996,0
-1.7686695,-3.537339,6.5483999,-0.23119862,-0.46239725,0.85600001,0
1.7125069,4.8521032,5.6609998,0.2238571,0.63426185,0.73999995,0
-7.1441612,-2.5350251,1.0281597,-0.93387729,-0.33137584,0.13439997,0
-7.2787619,1.3064444,-1.9583993,-0.9514721,0.17077704,-0.25599989,0
-1.0818737,-7.5731139,1.8239021e-07,-0.14142139,-0.98994952,2.3841856e-08,0
4.6424308,5.1582561,3.2191203,0.60685366,0.67428184,0.42080003,0
1.9188318,7.1956215,1.7503197,0.2508277,0.94060409,0.22879995,0
-5.6479673,4.6657124,2.2032003,-0.73829639,0.60989702,0.28800005,0
-6.5357471,3.2678735,-2.2644007,-0.85434604,0.42717302,-0.29600012,0
-2.0087218,7.3653126,0.48960063,-0.26257801,0.96278596,0.064000085,0
-1.9461213,5.2302012,-5.2326002,-0.25439495,0.68368644,-0.68400002,0
5.4738955,-2.7369478,-4.5899987,0.7155419,-0.35777095,-0.59999985,0
7.562047,-0.68745887,0.93024069,0.98850286,-0.089863904,0.12160009,0
6.5539293,2.5207417,-3.0355189,0.85672277,0.32950872,-0.39679986,0
3.1920834,4.2181106,-5.5263591,0.41726583,0.55138701,-0.72239989,0
-5.1197743,-1.1377274,5.5692,-0.66925156,-0.14872253,0.72799999,0
2.0576582,-3.5274143,6.4688401,0.26897493,-0.46109989,0.84560001,0
-7.2616839,1.719872,-1.6829995,-0.94923973,0.22481987,-0.21999992,0
-6.122261,3.30933,-3.17628,-0.80029553,0.43259215,-0.4152,0
6.4823017,-1.5434051,-3.7576809,0.84735972,-0.20175229,-0.49120012,0
6.8945947,1.3452864,-3.0294013,0.90125418,0.17585443,-0.39600018,0
5.8317494,0,4.9510808,0.76232016,0,0.64720011,0
-6.8270321,2.022824,2.7968409,-0.8924225,0.26442143,0.36560011,0
4.3544579,1.4514858,-6.1199989,0.56921017,0.18973669,-0.79999983,0
3.4099982,2.6023674,-6.3342004,0.4457514,0.34017873,-0.82800007,0
3.9820461,-3.413183,5.5692,0.52052891,-0.44616771,0.72799999,0
-4.1346707,-6.3004498,-1.3158,-0.54047984,-0.82358819,-0.17199999,0
2.0572209,-7.3145652,0.88740057,0.26891777,-0.95615232,0.11600007,0
7.1326232,-2.7271795,-0.45899883,0.93236905,-0.35649404,-0.059999846,0
1.5416447,-7.4879894,0.27539992,0.20152219,-0.97882211,0.035999991,0
-2.7202554,-6.9949431,-1.4810404,-0.35558894,-0.91437167,-0.19360004,0
-6.3723278,-0.28965142,-4.2227998,-0.83298409,-0.037862934,-0.55199999,0
4.5580158,-5.8874369,-1.7564404,0.59581906,-0.76959956,-0.22960006,0
4.1346703,-6.3004503,-1.3157992,0.54047978,-0.82358825,-0.1719999,0
2.0334618,-7.3204613,-0.89352095,0.26581201,-0.95692301,-0.11680012,0
4.988862,-5.5645008,-1.6340405,0.65213883,-0.7273857,-0.21360005,0
-4.0704589,-0.16960256,-6.4749594,-0.53208613,-0.022170268,-0.8463999,0
-5.3339515,5.3339515,-1.2729588,-0.69724858,0.69724858,-0.16639984,0
1.8397495,-7.3589993,0.99144047,0.24049012,-0.96196067,0.12960006,0
-2.1139705,-1.207983,7.2522001,-0.27633601,-0.15790628,0.94800001,0
-0.15602985,-6.7092896,-3.6720004,-0.020396059,-0.87703133,-0.48000005,0
-3.4961166,-5.3786407,4.1677203,-0.45700872,-0.70309025,0.54480004,0
-4.5719309,2.285965,5.6916003,-0.59763801,0.29881895,0.74400002,0
5.2313938,-5.2313943,-1.9461591,0.6838423,-0.68384236,-0.2543999,0
5.9752584,-3.3773196,3.3782396,0.78107953,-0.44147968,0.44159994,0
1.7925229,-2.6887844,6.93396,0.23431672,-0.35147509,0.90639997,0
-6.6585574,3.6319406,-0.99755949,-0.87039965,0.47476348,-0.13039993,0
1.8134626,-1.5112191,7.27668,0.23705393,-0.19754498,0.95120001,0
-1.5762892,-7.0057297,-2.6377203,-0.20605087,-0.91578162,-0.34480006,0
-1.4608099,4.0902662,6.2974801,-0.19095555,0.5346753,0.82319999,0
-0.84580082,-3.9752641,-6.4810801,-0.1105622,-0.51964235,-0.84719998,0
-4.1564221,-4.1564221,4.8959999,-0.54332316,-0.54332316,0.63999999,0
-0.0035134868,-0.0010247669,-7.6499991,-0.00045927931,-0.00013395646,-0.99999988,0
-2.3556838,-3.2390649,6.5177999,-0.30793253,-0.42340717,0.852,0
3.7670529,-6.6477399,0.37331921,0.4924252,-0.86898559,0.048799895,0
6.4326496,3.1293974,-2.7111604,0.84086925,0.40907153,-0.35440004,0
6.0266557,4.3316593,-1.8543602,0.78779811,0.56622994,-0.24240002,0
3.1920834,-4.2181106,-5.5263591,0.41726583,-0.55138701,-0.72239989,0
5.995883,0.13324173,-4.7491193,0.78377557,0.017417219,-0.6207999,0
2.4496665,5.7158895,4.4553609,0.32021785,0.7471751,0.58240008,0
6.5691581,3.8508859,0.7343989,0.85871345,0.50338376,0.095999852,0
-6.1490102,4.0993409,-1.9767601,-0.80379218,0.53586155,-0.25840002,0
-3.4706388,-6.2471504,-2.7295203,-0.45367825,-0.81662095,-0.35680005,0
-3.4961166,5.3786407,4.1677203,-0.45700872,0.70309025,0.54480004,0
-6.1681824,4.2406263,-1.5789605,-0.80629832,0.55433023,-0.20640007,0
-5.063168,-2.985971,-4.895999,-0.661852,-0.39032301,-0.63999987,0
6.0453215,0,4.6879191,0.79023814,0,0.61279994,0
-0.9133985,1.2178652,7.4970002,-0.1193985,0.15919806,0.98000002,0
-5.6212392,-5.1888366,-0.012239977,-0.73480248,-0.67827928,-0.0015999969,0
-4.5611782,-4.5611782,-4.1126404,-0.59623241,-0.59623241,-0.53760004,0
-4.4853296,-6.1940265,-0.19584098,-0.5863176,-0.80967665,-0.025600128,0
-2.7271795,7.1326232,-0.45899883,-0.35649404,0.93236905,-0.059999846,0
1.4694377,3.8205371,6.4627199,0.19208336,0.49941662,0.8448,0
-5.3779726,-4.1125669,-3.5618398,-0.70300293,-0.53759044,-0.46559998,0
-4.3631568,-1.1635082,6.1750798,-0.57034731,-0.15209258,0.80719995,0
-2.7781231,-6.5664721,2.7723601,-0.36315334,-0.85836238,0.3624,0
2.4509053,-5.5826178,-4.6206002,0.32037976,-0.72975397,-0.60400003,0
-0.52944219,-6.6180239,3.8005199,-0.06920813,-0.86510116,0.49679998,0
-6.5611854,-1.5746845,3.6046801,-0.85767126,-0.20584111,0.47119999,0
-0.83510429,2.8035648,-7.0686016,-0.10916395,0.36647904,-0.9240002,0
5.1656866,-1.6436274,-5.3978395,0.67525315,-0.21485326,-0.7055999,0
-5.3014321,3.6815498,-4.1065207,-0.69299763,0.48124832,-0.53680009,0
7.1412826,-1.2497244,-2.4418788,0.93350101,-0.16336267,-0.31919983,0
-4.6065307,6.0085187,-1.0954802,-0.60216087,0.78542727,-0.14320002,0
6.3628106,-3.6708527,2.1358802,0.83173996,-0.47985002,0.27920002,0
5.8421168,-0.64912426,-4.8959994,0.76367539,-0.084852844,-0.63999993,0
-5.9334912,-2.8906753,-3.8678393,-0.77561975,-0.37786606,-0.50559992,0
-2.1209044,0,7.3501201,-0.27724242,0,0.96079999,0
0.98254144,-7.4673128,-1.3402798,0.12843679,-0.97611934,-0.17519997,0
-3.8114138,-1.7591143,6.3954,-0.49822402,-0.22994958,0.83600003,0
2.8723276,-6.8935876,-1.6585202,0.37546766,-0.90112257,-0.21680002,0
7.5250325,0.59408092,-1.2423596,0.98366439,0.07765764,-0.16239995,0
3.6511018,-4.21281,5.2387199,0.47726822,-0.55069411,0.68479997,0
1.0126362,-0.80491596,-7.5398393,0.13237074,-0.10521777,-0.98559988,0
6.3438163,-0.43253297,-4.2533998,0.82925701,-0.056540255,-0.55599999,0
1.7741112,-0.28965086,-7.435801,0.23190995,-0.037862856,-0.97200012,0
-4.8495855,5.9038434,-0.38555872,-0.63393277,0.77174425,-0.050399832,0
-6.9045806,1.2786264,3.0355206,-0.90255952,0.16714071,0.39680007,0
-2.3423138,-2.0257847,-6.9951601,-0.3061848,-0.26480845,-0.91439998,0
0.52944142,-6.6180239,3.8005202,0.069208026,-0.86510116,0.49680001,0
-2.3970566,-4.2730141,-5.8751998,-0.31334072,-0.55856395,-0.76799995,0
-6.3743839,-1.6694818,-3.8862011,-0.83325279,-0.2182329,-0.50800014,0
0.74578547,2.3367951,-7.2460814,0.097488299,0.3054634,-0.94720018,0
6.421566,-3.8918581,-1.462679,0.83942038,-0.50873959,-0.19119987,0
3.4570577,-6.4202504,2.3133607,0.45190296,-0.83924842,0.30240008,0
5.9979062,-4.1803589,-2.2521591,0.78404003,-0.54645216,-0.29439989,0
-4.4907379,-2.8786783,-5.4835196,-0.58702457,-0.3762978,-0.71679991,0
-1.1377274,5.1197743,5.5692,-0.14872253,0.66925156,0.72799999,0
7.1107979,-2.3702657,1.5299996,0.92951608,-0.30983865,0.19999994,0
4.0249877,6.4847026,0.52019906,0.52614218,0.84767354,0.067999877,0
-1.4514858,4.3544569,-6.1199994,-0.18973669,0.56921005,-0.79999989,0
-7.0780654,1.4156127,-2.5336802,-0.9252373,0.1850474,-0.33120003,0
-6.0077209,1.3653914,4.5349202,-0.78532296,0.17848252,0.59279996,0
0.46960738,7.5137253,1.3586403,0.061386585,0.98218632,0.17760004,0
0.24472325,7.3417048,2.1358795,0.031989966,0.95969999,0.27919993,0
2.2074032,-4.4148068,-5.8446002,0.28854942,-0.57709891,-0.764,0
1.3182887,-5.8004684,-4.8103204,0.17232531,-0.75823116,-0.62880003,0
-3.0101445,-6.5219793,2.6316004,-0.39348292,-0.85254633,0.34400004,0
6.0266557,4.3316593,-1.8543602,0.78779811,0.56622994,-0.24240002,0
0,0,7.6500001,0,0,1,0
-6.3968725,-3.376127,-2.4908407,-0.83619249,-0.44132379,-0.32560009,0
-1.6183089,7.397984,1.0832404,-0.21154365,0.96705675,0.14160004,0
-2.6365781,1.8456044,-6.9400792,-0.34465072,0.24125548,-0.90719986,0
-5.1004796,5.3433599,1.988999,-0.66672933,0.6984784,0.25999987,0
6.1309452,-3.0654726,-3.3965998,0.80143076,-0.40071538,-0.44399998,0
-0.57044208,5.1339765,5.6426401,-0.074567586,0.67110801,0.73759997,0
-3.1502264,-0.59066749,-6.9461994,-0.41179428,-0.077211432,-0.90799993,0
-5.109097,-1.4191939,5.5141196,-0.6678558,-0.18551554,0.72079992,0
0.60843945,1.5211005,7.4725199,0.079534568,0.19883667,0.97679996,0
0.87398148,4.3699107,6.2179208,0.11424594,0.57123017,0.81280011,0
3.5274143,-2.0576582,6.4688401,0.46109989,-0.26897493,0.84560001,0
-0.95877212,4.9003906,-5.795639,-0.12532969,0.64057392,-0.75759989,0
-7.5187731,-1.1392083,0.83232063,-0.98284614,-0.14891613,0.10880008,0
-2.2685978,4.8207698,5.4896398,-0.29654872,0.63016599,0.71759999,0
-0.60708457,1.8212528,7.4052,-0.07935746,0.23807226,0.96799999,0
-3.4719338,3.1826065,6.0281997,-0.45384756,0.41602698,0.78799993,0
-6.5691581,3.8508859,0.7343989,-0.85871345,0.50338376,0.095999852,0
7.2764974,2.2868993,-0.5875212,0.95117611,0.29894108,-0.076800153,0
0,-4.8920927,5.8813205,0,-0.63948923,0.76880008,0
7.2442241,-2.1031621,1.2729598,0.94695741,-0.27492315,0.16639997,0
-3.2298763,6.8634868,-0.99143887,-0.42220604,0.89718783,-0.12959985,0
4.1636157,-4.1636157,-4.8837595,0.54426348,-0.54426348,-0.6383999,0
-3.3759441,5.948092,-3.4272006,-0.44129989,0.77752835,-0.44800007,0
6.0542364,-3.7838976,2.7478797,0.79140347,-0.49462715,0.35919997,0
0.58700925,-4.1090679,6.4260006,0.076733232,-0.53713304,0.84000009,0
7.6027546,-0.67083138,0.52020109,0.99382412,-0.087690376,0.068000138,0
-2.8585253,-6.2367816,3.3843596,-0.37366343,-0.81526554,0.44239995,0
-7.2764974,-2.2868996,-0.58751994,-0.95117611,-0.29894111,-0.076799989,0
6.9267588,3.2469177,0.0061207181,0.90545863,0.42443368,0.00080009387,0
-4.9204187,5.4124618,2.2399197,-0.64319199,0.70751131,0.29279995,0
6.2629547,2.1385696,-3.8372412,0.8186869,0.27955157,-0.50160015,0
-7.4444966,-1.7516465,0.18359973,-0.97313678,-0.2289734,0.023999963,0
-0.3058773,-0.3058773,7.6377602,-0.039983962,-0.039983962,0.99840003,0
3.6240437,3.6240437,-5.679359,0.47373119,0.47373119,-0.74239987,0
-3.4849517,-6.7649064,-0.78335905,-0.45554924,-0.88430148,-0.10239988,0
0,-6.97332,-3.1456809,0,-0.9115451,-0.41120011,0
3.2104282,6.8794899,0.94247985,0.41966382,0.89927971,0.12319998,0
-4.0704589,-0.16960256,-6.4749594,-0.53208613,-0.022170268,-0.8463999,0
-1.7399319,3.4007761,-6.6279602,-0.22744209,0.44454589,-0.8664,0
6.5379534,-1.8306267,3.52512,0.8546344,-0.23929761,0.46079999,0
-2.4509053,-5.5826178,-4.6206002,-0.32037976,-0.72975397,-0.60400003,0
2.0334618,-7.3204613,-0.89352095,0.26581201,-0.95692301,-0.11680012,0
4.6657124,5.6479678,2.2031996,0.60989702,0.73829645,0.28799996,0
1.4694377,-3.8205371,6.4627199,0.19208336,-0.49941662,0.8448,0
1.0140558,-2.7439158,-7.0686011,0.1325563,-0.35868177,-0.92400008,0
-2.6788547,5.8934813,4.0759192,-0.35017708,0.77038968,0.5327999,0
4.8301306,3.3941455,-4.8653998,0.63138962,0.44367915,-0.63599998,0
-2.3929129,3.3329856,-6.4565992,-0.31279907,0.43568438,-0.84399986,0
7.2036195,-2.4698124,-0.72828108,0.94164962,-0.3228513,-0.095200144,0
3.226639,6.2834549,-2.9376001,0.42178288,0.82136667,-0.384,0
-3.1293974,-6.4326496,-2.7111604,-0.40907153,-0.84086925,-0.35440004,0
5.9730697,1.9910229,-4.3452005,0.78079343,0.26026443,-0.56800008,0
6.6091752,0.79310024,3.7699201,0.86394447,0.10367323,0.4928,0
-5.5432472,1.9401364,4.9021206,-0.72460741,0.25361258,0.64080006,0
2.3645935,6.3055844,3.6291602,0.3090972,0.8242594,0.47440001,0
-1.0409037,6.7658753,3.4149604,-0.13606584,0.88442814,0.44640005,0
-1.0818735,7.5731139,-1.0943413e-06,-0.14142138,0.98994952,-1.4305115e-07,0
0.71815467,-7.4209385,1.7136,0.093876429,-0.97005731,0.22400001,0
6.1968741,-3.0984371,3.2435997,0.81004888,-0.40502444,0.42399994,0
0.78410089,5.1526632,-5.5997987,0.10249685,0.67355072,-0.73199981,0
-0.86224717,-7.070425,-2.79072,-0.11271205,-0.92423856,-0.36480001,0
-6.519093,-1.9080273,-3.5190001,-0.85216904,-0.24941532,-0.46000001,0
-4.1025696,5.579494,-3.2497189,-0.53628361,0.72934562,-0.42479986,0
-1.0511087,-6.4568114,-3.9657605,-0.13739984,-0.84402764,-0.51840007,0
6.0583978,-1.5498229,-4.4064007,0.79194742,-0.20259123,-0.57600009,0
2.0539868,6.6754584,3.1212006,0.26849499,0.87260896,0.40800008,0
6.3036833,-0.573062,-4.2962399,0.82401085,-0.074910067,-0.56159997,0
-5.5970402,0.83955526,5.1469207,-0.73163921,0.10974579,0.67280006,0
-6.7308874,-3.5898063,0.57527965,-0.87985456,-0.46925572,0.075199954,0
0.71815467,-7.4209385,1.7136,0.093876429,-0.97005731,0.22400001,0
3.8411911,0,6.6157203,0.50211644,0,0.86480004,0
5.1042414,-4.8490295,2.9926803,0.66722107,-0.63386005,0.39120004,0
-1.5930836,-0.83274817,-7.4357996,-0.20824622,-0.10885597,-0.97199994,0
6.7208471,-3.4763,1.1260792,0.87854213,-0.4544183,0.1471999,0
-5.4679213,-5.2654057,-0.9485991,-0.71476096,-0.68828833,-0.12399988,0
-4.1976585,-3.3814473,-5.4284415,-0.54871351,-0.44201925,-0.70960021,0
6.6477399,3.7670529,0.37331921,0.86898559,0.4924252,0.048799895,0
5.579494,-4.1025696,-3.2497189,0.72934562,-0.53628361,-0.42479986,0
-0.60708457,1.8212528,7.4052,-0.07935746,0.23807226,0.96799999,0
5.5143714,5.2937965,0.29987973,0.72083282,0.69199955,0.039199963,0
-2.1380448,6.1468787,4.0208392,-0.27948299,0.80351353,0.5255999,0
3.8378937,-0.59044552,6.5912399,0.50168544,-0.07718242,0.86159998,0
0.90449703,-2.4119949,7.2032399,0.1182349,-0.31529346,0.94159997,0
-3.8849952,-5.6979928,3.31092,-0.50784248,-0.74483567,0.43279999,0
4.2490969,-5.0458016,3.8739595,0.55543751,-0.6595819,0.50639993,0
3.3276703,6.8771868,0.39168036,0.43498957,0.89897865,0.051200047,0
-4.5654864,-1.0917468,-6.0404406,-0.59679562,-0.142712,-0.78960007,0
7.4540372,1.7037795,-0.23868085,0.97438395,0.22271627,-0.031200111,0
-5.9391127,-4.206871,2.3562,-0.77635461,-0.54991776,0.308,0
2.7329075,6.2696109,-3.4271996,0.35724282,0.81955695,-0.44799995,0
7.4388595,-1.6530801,-0.67320079,0.97239989,-0.21608891,-0.088000104,0
4.0551176,-2.3172104,6.0588002,0.53008074,-0.30290332,0.792,0
4.7014112,-3.5951965,4.8470397,0.61456352,-0.46996033,0.63359994,0
-4.4064002,-5.8751998,-2.142,-0.57600003,-0.76799995,-0.28,0
-4.8490295,-5.1042414,2.9926803,-0.63386005,-0.66722107,0.39120004,0
1.878132,6.1710062,4.1126394,0.24550745,0.80666745,0.53759992,0
-7.123559,2.6458933,-0.88127971,-0.93118417,0.34586841,-0.11519996,0
-7.5827961,0.89209414,0.47735974,-0.99121517,0.11661361,0.062399965,0
-3.0776362,4.7563467,5.1407995,-0.40230539,0.62174463,0.67199993,0
5.7664824,-4.0704584,-2.9498391,0.75378853,-0.53208607,-0.38559988,0
3.2807715,-0.59650415,6.8849998,0.42885903,-0.077974401,0.89999998,0
-2.2931631,2.9046731,-6.6952801,-0.29975986,0.37969583,-0.87519997,0
-6.2148895,3.7289331,2.4480004,-0.81240386,0.48744223,0.32000005,0
2.967412,2.0771878,6.7381201,0.38789696,0.2715278,0.88079995,0
2.9216197,3.2137814,6.2974796,0.38191107,0.42010212,0.82319993,0
-5.9254842,-1.6536235,-4.5471606,-0.77457309,-0.21615992,-0.59440005,0
6.9080544,-2.8585052,1.6217992,0.90301365,-0.3736608,0.21199989,0
2.8193216,6.1085296,-3.6413996,0.36853877,0.7985006,-0.47599995,0
3.6511018,-4.21281,5.2387199,0.47726822,-0.55069411,0.68479997,0
0.48898715,7.3348145,2.1175196,0.063919887,0.9587993,0.27679995,0
6.2047563,4.3663101,0.97920072,0.81107926,0.57075948,0.1280001,0
-3.8113403,6.4316363,1.6218007,-0.49821442,0.84073675,0.21200009,0
-5.8504443,3.8445783,-3.0844803,-0.76476395,0.50255924,-0.40320003,0
0.17503612,-7.1764874,-2.6438398,0.022880537,-0.9381029,-0.34559998,0
4.3337317,0.73765624,-6.2607617,0.56650084,0.096425653,-0.8184002,0
2.332948,6.4804125,3.3292804,0.30496052,0.84711272,0.43520004,0
5.7938337,4.8668199,1.1260805,0.75736386,0.63618559,0.14720006,0
6.9605794,-3.0708442,-0.80171901,0.90987962,-0.40141752,-0.10479987,0
5.9752584,3.3773196,3.3782396,0.78107953,0.44147968,0.44159994,0
0.60708368,-1.8212528,7.4052,0.079357341,-0.23807226,0.96799999,0
-5.7619405,1.9206465,4.6511998,-0.75319481,0.2510649,0.60799998,0
6.9648933,1.9899693,2.4602411,0.91044354,0.26012671,0.32160014,0
-1.8947306,5.431561,-5.0428805,-0.24767719,0.71000797,-0.65920007,0
-3.6319406,6.6585574,-0.99755949,-0.47476348,0.87039965,-0.13039993,0
-1.4514858,-4.3544564,6.1199999,-0.18973669,-0.56920999,0.79999995,0
6.5261555,-0.91062641,-3.8862004,0.85309219,-0.11903613,-0.50800008,0
-6.3758621,-1.1862071,-4.0575604,-0.83344603,-0.15505974,-0.53040004,0
-5.0570726,4.2908497,-3.8127584,-0.66105527,0.56089538,-0.49839979,0
3.8358777,5.8816805,3.0355198,0.50142193,0.76884711,0.39679998,0
-1.027504,7.0212774,-2.8580413,-0.13431424,0.91781402,-0.37360016,0
4.8280711,-3.1763628,-5.01228,0.63112038,-0.41521081,-0.6552,0
5.2560787,4.204864,3.6352799,0.68706912,0.54965544,0.47519997,0
-3.941205,-0.32843369,-6.5483994,-0.51519018,-0.042932507,-0.85599995,0
-4.7774234,5.7329082,-1.6830004,-0.6244998,0.74939978,-0.22000006,0
-5.3330984,1.1851333,-5.3549995,-0.69713706,0.15491939,-0.69999993,0
-2.8786783,4.4907379,-5.4835196,-0.3762978,0.58702457,-0.71679991,0
-1.6682363,5.5607867,4.9816804,-0.21807009,0.72690022,0.65120006,0
-2.7697859,4.1546788,-5.795639,-0.3620635,0.54309529,-0.75759989,0
3.4849522,6.7649064,-0.78335971,0.4555493,0.88430148,-0.10239996,0
-4.1893086,-6.3942084,0.29375929,-0.54762203,-0.83584422,0.038399905,0
0.30199552,-2.4159667,7.2522001,0.039476536,-0.31581265,0.94800001,0
1.5434054,-6.4823017,-3.7576811,0.20175233,-0.84735972,-0.49120015,0
-2.7320354,-0.22302325,-7.1420407,-0.3571288,-0.029153366,-0.93360007,0
3.8205371,1.4694377,6.4627199,0.49941662,0.19208336,0.8448,0
-4.378581,0,6.2729998,-0.57236356,0,0.81999993,0
-0.87774473,3.7503638,-6.609602,-0.11473788,0.49024364,-0.86400026,0
2.7543683,-2.9212997,-6.5116792,0.36004815,-0.38186923,-0.85119987,0
-6.9459786,0.51451647,3.1640408,-0.90797102,0.067257054,0.41360009,0
4.700861,5.8760767,1.3770003,0.61449164,0.76811457,0.18000004,0
-0.79310101,-6.6091752,3.7699201,-0.10367333,-0.86394447,0.4928,0
-1.2549433,-7.5296597,-0.50184065,-0.16404487,-0.98426926,-0.065600082,0
-6.7283492,1.5526961,3.2925603,-0.87952274,0.20296681,0.43040004,0
-7.0902467,-0.50644648,2.82744,-0.92682964,-0.066202156,0.3696,0
0.79310024,6.6091752,3.7699201,0.10367323,0.86394447,0.4928,0
-0.85467726,5.1280637,5.61204,-0.11172251,0.67033511,0.73360002,0
7.2645817,-2.2701817,0.77112037,0.94961852,-0.29675576,0.10080004,0
1.5810223,-7.4533911,0.68544072,0.20666957,-0.97429949,0.089600094,0
4.4443169,4.3054323,-4.4981999,0.58095646,0.5628016,-0.588,0
-7.4209385,-0.71815538,1.7135999,-0.97005731,-0.093876518,0.22399999,0
3.5159283,-2.3439524,6.3770399,0.45959845,-0.30639902,0.83359998,0
5.3665457,-0.84734935,5.3856001,0.70150924,-0.11076462,0.704,0
-6.6981854,-2.8965125,-2.2950001,-0.87557977,-0.37862909,-0.30000001,0
3.0654726,6.1309452,-3.3965998,0.40071538,0.80143076,-0.44399998,0
-3.741518,-6.5476565,1.2852,-0.48908731,-0.85590279,0.168,0
2.9447949,7.0222034,0.73439997,0.38494051,0.91793507,0.095999993,0
-1.514624,-1.514624,-7.3439994,-0.19799006,-0.19799006,-0.95999992,0
-7.3399191,-0.1834978,-2.1481204,-0.95946652,-0.023986641,-0.28080004,0
4.6126461,-1.441452,5.9302793,0.60296029,-0.18842509,0.77519989,0
2.4698124,7.2036195,-0.72828108,0.3228513,0.94164962,-0.095200144,0
1.9910219,1.2325373,-7.2828007,0.26026431,0.16111597,-0.95200008,0
3.2828429,-0.29843992,6.9033599,0.42912978,-0.039011754,0.90239996,0
4.8784418,2.4987137,-5.3366408,0.63770479,0.32662925,-0.69760013,0
1.3917319,-4.8175335,-5.7772794,0.18192573,-0.62974292,-0.75519991,0
1.5416448,7.4879894,0.27540115,0.2015222,0.97882211,0.036000147,0
-6.6250944,0,3.825,-0.86602539,0,0.5,0
-6.3893738,0.1452129,-4.2044401,-0.83521223,0.018982079,-0.54960001,0
4.431354,3.8774338,4.88376,0.57926196,0.50685406,0.63840002,0
-3.8611042,-5.0051355,-4.3084793,-0.5047195,-0.65426606,-0.56319988,0
-2.5717041,6.0510688,-3.9106786,-0.33617046,0.7909894,-0.51119983,0
2.9925494,-0.89776462,6.9829197,0.39118293,-0.11735485,0.91279995,0
-6.2428288,0.54285419,4.3880405,-0.81605607,0.070961334,0.57360005,0
1.359453,7.3798881,-1.4871597,0.17770627,0.96469122,-0.19439997,0
-4.0803814,2.1373429,-6.1077619,-0.53338319,0.27939123,-0.79840022,0
-1.441452,4.6126461,5.9302793,-0.18842509,0.60296029,0.77519989,0
1.7686695,-3.537339,6.5483999,0.23119862,-0.46239725,0.85600001,0
-3.2137871,5.6241264,4.0698004,-0.42010289,0.7351799,0.53200006,0
7.1213508,1.7189465,2.2031994,0.93089551,0.22469889,0.28799993,0
-4.3544564,1.4514858,6.1199999,-0.56920999,0.18973669,0.79999995,0
4.4978628,-6.1334491,-0.82008123,0.58795589,-0.80175805,-0.10720016,0
4.0761914,-6.2341743,1.7442,0.53283548,-0.81492472,0.228,0
-2.1385696,6.2629547,-3.8372412,-0.27955157,0.8186869,-0.50160015,0
6.7585974,-3.3792987,-1.1933986,0.88347679,-0.4417384,-0.15599981,0
-1.7399319,3.4007761,-6.6279602,-0.22744209,0.44454589,-0.8664,0
6.1056871,-3.5616503,2.92536,0.79812902,-0.46557519,0.38239998,0
3.9313555,5.5038977,3.5740809,0.51390266,0.71946377,0.46720013,0
-1.4963119,-6.8165317,-3.13344,-0.19559632,-0.89104986,-0.40959999,0
0.60361886,2.4144771,7.2338405,0.078904428,0.31561792,0.94560003,0
2.4849317,6.212328,-3.7087195,0.32482767,0.812069,-0.48479992,0
-0.68745887,-7.562047,0.93024069,-0.089863904,-0.98850286,0.12160009,0
0.71815467,-7.4209385,1.7136,0.093876429,-0.97005731,0.22400001,0
-3.5646782,0,6.7687201,-0.46597099,0,0.88480002,0
-4.4746284,0.66643399,-6.1689601,-0.58491874,0.087115556,-0.8064,0
-6.2729974,-2.6137486,3.5128798,-0.81999964,-0.34166646,0.45919997,0
-0.5936088,3.561651,6.7442398,-0.077595919,0.46557528,0.88159996,0
-5.2978668,5.5097814,-0.31211969,-0.69253159,0.72023284,-0.04079996,0
1.5220236,0.30440435,7.49088,0.19895732,0.039791416,0.97920001,0
3.8849945,5.6979938,3.3109198,0.50784242,0.74483579,0.43279997,0
-6.3612032,4.0052028,1.4198403,-0.8315298,0.52355593,0.18560004,0
-4.9937854,-3.0517578,4.9265995,-0.65278238,-0.39892259,0.64399993,0
-1.1709527,-4.0983348,6.3525605,-0.15306571,-0.53573,0.83040005,0
-0.29369596,4.1117473,6.4443603,-0.038391627,0.53748327,0.84240001,0
-5.8068709,-4.597106,1.9155598,-0.75906807,-0.6009289,0.25039998,0
3.0984371,6.1968741,3.2435997,0.40502444,0.81004888,0.42399994,0
-0.2184418,-7.6454701,0.14688027,-0.028554482,-0.99940783,0.019200034,0
-1.4846523,-3.2662346,6.7564797,-0.19407219,-0.42695877,0.88319993,0
-0.79818457,4.1682973,-6.3648019,-0.10433785,0.54487544,-0.83200026,0
1.8397495,-7.3589993,0.99144047,0.24049012,-0.96196067,0.12960006,0
-6.15623,3.9399879,2.2582796,-0.80473596,0.5150311,0.29519993,0
-1.8456051,2.6365786,-6.9400787,-0.24125558,0.3446508,-0.90719986,0
-4.6065307,6.0085187,-1.0954802,-0.60216087,0.78542727,-0.14320002,0
-4.9854527,-5.234726,2.5030801,-0.65169317,-0.68427789,0.32720003,0
-1.8093685,1.8093685,7.2093601,-0.23651876,0.23651876,0.94239998,0
1.4365716,-6.1772566,-4.2778807,0.18778713,-0.80748451,-0.55920011,0
4.70016,5.8751998,-1.3831208,0.61439997,0.76799995,-0.1808001,0
-2.6137486,6.2729974,3.5128798,-0.34166646,0.81999964,0.45919997,0
-0.32843345,3.9412022,-6.5484014,-0.042932477,0.51518983,-0.85600019,0
-1.6515839,5.7805429,4.7307606,-0.21589331,0.7556265,0.6184001,0
-6.8634863,3.2298765,-0.99144065,-0.89718771,0.42220607,-0.12960008,0
3.2366354,-6.4732709,2.4786005,0.42308956,-0.84617913,0.32400003,0
4.700861,5.8760767,1.3770003,0.61449164,0.76811457,0.18000004,0
1.5955253,6.3821011,3.9045599,0.20856538,0.83426154,0.5104,0
7.3232903,-1.653646,1.4687999,0.95729285,-0.21616288,0.19199999,0
5.0536346,5.6600704,-0.97307903,0.66060585,0.73987848,-0.12719987,0
0.30372688,1.822363,7.4235601,0.039702859,0.23821738,0.97040004,0
-2.3970556,4.2730126,-5.8752012,-0.3133406,0.55856371,-0.76800013,0
5.713026,-4.4633017,-2.4418797,0.74680078,-0.5834381,-0.31919995,0
-2.1115334,-6.3345995,3.7331996,-0.27601743,-0.82805222,0.48799995,0
-7.4888773,1.3616141,0.76500064,-0.97893822,0.17798877,0.10000008,0
6.8158069,2.7631645,-2.1052799,0.89095515,0.36119798,-0.27519998,0
-6.1109357,0.97219425,-4.4981999,-0.79881513,0.12708421,-0.588,0
2.119173,-0.60547841,7.3256402,0.27701607,-0.079147503,0.9576,0
1.5810223,-7.4533911,0.68544072,0.20666957,-0.97429949,0.089600094,0
2.2733474,6.4952788,-3.3415186,0.2971696,0.84905607,-0.43679982,0
2.9579303,-2.3663442,6.6463199,0.38665757,-0.30932602,0.86879998,0
0,-4.378581,6.2729998,0,-0.57236356,0.81999993,0
-2.119173,0.60547745,7.3256402,-0.27701607,0.079147376,0.9576,0
-1.3161561,-6.5807791,3.6719999,-0.17204656,-0.86023253,0.47999999,0
6.8436813,-2.6885898,2.1114008,0.89459884,-0.35144964,0.27600011,0
0.52944142,6.6180239,3.8005202,0.069208026,0.86510116,0.49680001,0
-0.1042197,4.8983307,-5.8752017,-0.01362349,0.64030468,-0.76800019,0
-2.7429619,-7.0859847,0.88739985,-0.35855713,-0.92627257,0.11599999,0
0.79310024,-6.6091752,3.7699201,0.10367323,-0.86394447,0.4928,0
7.3948951,1.9574718,0.079561383,0.96665293,0.25587866,0.010400181,0
5.5391917,4.5005932,-2.7539995,0.7240774,0.58831286,-0.35999995,0
-6.4823017,-1.5434051,-3.7576809,-0.84735972,-0.20175229,-0.49120012,0
-0.74578673,-7.2092719,2.4479992,-0.097488463,-0.94238847,0.3199999,0
-0.74578512,2.3367934,-7.2460818,-0.097488247,0.30546319,-0.94720024,0
-6.4823017,1.5434054,-3.7576811,-0.84735972,0.20175233,-0.49120015,0
4.0704565,0.16960217,-6.4749613,0.53208584,0.022170218,-0.84640014,0
2.1607952,3.2011781,-6.6034784,0.28245687,0.41845465,-0.86319977,0
-3.5073955,6.795579,0.20195998,-0.45848307,0.88831097,0.026399998,0
-7.0396895,-2.9865348,-0.21419908,-0.92022085,-0.39039671,-0.02799988,0
1.1113324,7.5570579,0.42228103,0.14527221,0.98785067,0.055200133,0
-4.9937854,-3.0517578,4.9265995,-0.65278238,-0.39892259,0.64399993,0
4.0755482,1.449084,-6.30972,0.53275138,0.18942274,-0.82480001,0
4.8207698,-2.2685978,5.4896398,0.63016599,-0.29654872,0.71759999,0
-6.9627476,-1.1887617,-2.9375999,-0.91016304,-0.15539369,-0.38399997,0
-0.8395561,5.5970402,5.1469202,-0.1097459,0.73163921,0.6728,0
-1.9401364,5.5432472,4.9021206,-0.25361258,0.72460741,0.64080006,0
7.176487,0.17503609,-2.6438413,0.93810284,0.022880534,-0.34560016,0
-5.4998336,-2.4749255,4.7062802,-0.71893251,-0.32351968,0.61520004,0
1.5071863,-2.11006,7.1971202,0.19701782,-0.27582484,0.94080001,0
5.0051351,-3.8611035,-4.3084803,0.654266,-0.50471944,-0.56320006,0
4.6126461,1.441452,5.9302793,0.60296029,0.18842509,0.77519989,0
3.3654437,4.4872589,5.2019997,0.43992728,0.58656979,0.67999995,0
7.4209385,-0.71815538,1.7135999,0.97005731,-0.093876518,0.22399999,0
3.6708519,-6.3628106,2.1358807,0.47984993,-0.83173996,0.27920008,0
5.0270872,-5.5058575,1.7136009,0.65713555,-0.71971995,0.22400011,0
4.4275107,5.2088351,3.43332,0.57875955,0.68089348,0.4488,0
1.9910229,5.9730697,-4.3452005,0.26026443,0.78079343,-0.56800008,0
1.5547442,-2.9066956,-6.9033608,0.20323454,-0.37996021,-0.90240008,0
-0.78410059,-5.1526618,-5.5998006,-0.10249681,-0.67355055,-0.73200005,0
-3.9338222,-3.9338222,5.2509604,-0.51422513,-0.51422513,0.68640006,0
3.0005653,1.9027973,-6.7748413,0.39223075,0.24873167,-0.88560015,0
0.30495754,1.2198319,7.5459599,0.039863732,0.15945515,0.98640001,0
-1.5416448,7.4879894,0.27540115,-0.2015222,0.97882211,0.036000147,0
-2.3423138,-2.0257847,-6.9951601,-0.3061848,-0.26480845,-0.91439998,0
-6.2692676,-3.5107894,2.6254802,-0.81951207,-0.45892671,0.34320003,0
-1.5112191,-1.8134626,7.27668,-0.19754498,-0.23705393,0.95120001,0
-0.8395561,5.5970402,5.1469202,-0.1097459,0.73163921,0.6728,0
-2.8585052,-6.9080544,1.6217992,-0.3736608,-0.90301365,0.21199989,0
-4.1346707,6.3004498,-1.3158,-0.54047984,0.82358819,-0.17199999,0
4.7028127,5.3995261,-2.6927996,0.61474675,0.70582038,-0.35199994,0
-4.3236098,-5.5952601,2.9192402,-0.56517774,-0.73140657,0.38160002,0
-6.2047563,4.3663101,0.97920072,-0.81107926,0.57075948,0.1280001,0
4.0223994,-2.8731427,5.8384805,0.52580386,-0.3755742,0.76320004,0
-0.43718275,-0.68006217,-7.6071601,-0.057148073,-0.088897012,-0.99440002,0
-5.9403105,-4.018445,-2.6622,-0.77651119,-0.52528697,-0.34800002,0
-6.2696109,2.7329075,-3.4271996,-0.81955695,0.35724282,-0.44799995,0
3.4570577,6.4202504,2.3133607,0.45190296,0.83924842,0.30240008,0
-3.7738621,-2.612674,6.1199999,-0.49331531,-0.341526,0.79999995,0
-6.7040238,-2.6463253,-2.56428,-0.87634289,-0.34592485,-0.33519998,0
3.3935657,-3.1026883,-6.1138806,0.44360334,-0.40558016,-0.79920006,0
3.361846,3.7956328,-5.7283211,0.43945697,0.49616116,-0.74880016,0
-2.3702657,-7.1107979,1.5299996,-0.30983865,-0.92951608,0.19999994,0
2.2302337,5.2968063,5.0490003,0.2915338,0.692393,0.66000003,0
1.163509,-4.3631568,6.1750798,0.15209268,-0.57034731,0.80719995,0
-5.6631498,-3.8833029,-3.3721201,-0.74028099,-0.50762129,-0.44080001,0
-4.9775577,-2.2517521,-5.355001,-0.65066111,-0.29434669,-0.70000011,0
3.3278403,6.8636694,-0.58139986,0.4350118,0.89721167,-0.075999983,0
-3.1018384,-4.511764,5.3427601,-0.40546906,-0.58977306,0.69840002,0
3.5578632,0.88946491,6.7136402,0.46508014,0.11626992,0.87760001,0
-7.0057297,2.8022919,1.2607195,-0.91578162,0.36631265,0.16479994,0
0,-7.3439999,-2.1420004,0,-0.95999998,-0.28000006,0
1.4694377,3.8205371,6.4627199,0.19208336,0.49941662,0.8448,0
-1.4912599,-2.9825189,6.8850002,-0.19493593,-0.38987175,0.90000004,0
5.8874369,-4.5580158,-1.7564404,0.76959956,-0.59581906,-0.22960006,0
5.1912718,-5.3835416,-1.6095594,0.67859763,-0.70373094,-0.21039993,0
-1.1635082,-4.3631568,6.1750798,-0.15209258,-0.57034731,0.80719995,0
-3.1647565,-3.7401662,5.8751998,-0.41369367,-0.48891062,0.76799995,0
5.2968059,-2.2302346,5.0489998,0.69239295,-0.29153395,0.66000003,0
-2.0751672,-5.8104682,-4.5226812,-0.27126369,-0.75953829,-0.59120017,0
-5.7240815,-3.6570518,-3.5190003,-0.74824595,-0.47804597,-0.46000004,0
5.4571834,-4.1578546,3.3843606,0.71335727,-0.54351038,0.44240007,0
4.7914677,2.9485958,-5.1836395,0.62633562,0.38543734,-0.67759991,0
5.251689,-0.68500292,-5.5202389,0.6864953,-0.089542866,-0.72159982,0
-3.7738621,-2.612674,6.1199999,-0.49331531,-0.341526,0.79999995,0
-3.7386336,5.3409052,4.0024805,-0.48871028,0.69815755,0.52320004,0
-3.2011747,-3.8414094,-5.7895212,-0.4184542,-0.50214499,-0.75680017,0
-1.7254493,4.6011987,5.8629594,-0.22554894,0.60146391,0.76639998,0
-0.2997548,-2.9975507,7.0318804,-0.039183632,-0.3918367,0.91920006,0
-6.16225,4.3732104,-1.1934009,-0.80552286,0.57166147,-0.15600011,0
-2.0192661,-6.7308869,-3.0232804,-0.26395637,-0.8798545,-0.39520004,0
2.2868996,-7.2764974,-0.58751994,0.29894111,-0.95117611,-0.076799989,0
0.66643357,4.4746261,-6.1689615,0.087115496,0.58491844,-0.80640018,0
6.5190921,-1.9080269,-3.5190015,0.85216892,-0.24941528,-0.46000019,0
3.2469177,-6.9267588,0.0061207181,0.42443368,-0.90545863,0.00080009387,0
7.1103835,0.69369626,-2.7356415,0.9294619,0.090679251,-0.35760018,0
0,-5.8317499,4.9510798,0,-0.76232022,0.64719999,0
7.1441612,-2.5350251,1.0281597,0.93387729,-0.33137584,0.13439997,0
0.060584825,-2.9686592,-7.0502405,0.0079195844,-0.38806,-0.92160004,0
0.35553965,5.4516129,-5.3549986,0.046475772,0.71262914,-0.69999981,0
-7.307188,0.97429222,2.0440795,-0.95518798,0.12735845,0.26719993,0
5.7857795,-4.95924,-0.6731993,0.75631106,-0.64826667,-0.08799991,0
-2.612674,3.7738621,6.1199999,-0.341526,0.49331531,0.79999995,0
-7.0964561,0.25344461,2.8457999,-0.92764127,0.033130012,0.37199998,0
