-3.0668957,-7.0921969,-2.4300003,-0.37862909,-0.87557983,-0.30000001,0
4.2933359,5.1520038,4.5424805,0.53004146,0.63604981,0.56080002,0
2.1092174,-5.0386863,-5.981041,0.2603972,-0.62206,-0.7384001,0
2.669374,5.3387499,5.4756002,0.32955232,0.65910488,0.676,0
0.74457926,-7.9421864,1.4061605,0.091923364,-0.98051679,0.17360005,0
-4.617835,1.2046527,-6.5448008,-0.57010305,0.14872254,-0.80800003,0
2.893667,6.6384115,-3.6287999,0.35724282,0.81955695,-0.44799995,0
-7.8298893,-2.0726178,0.084239803,-0.96665293,-0.25587872,0.010399975,0
3.3639719,-0.93046021,-7.309442,0.41530517,-0.11487163,-0.9024002,0
3.0508556,-6.8195591,-3.1298404,0.37664881,-0.84192085,-0.38640001,0
-1.4434419,1.990954,-7.71768,-0.17820269,0.24579678,-0.95279998,0
0.63490719,3.0475538,-7.477922,0.078383602,0.37624118,-0.92320019,0
-8.0059738,-0.86551052,-0.87480021,-0.98839176,-0.10685314,-0.10800002,0
-6.0810552,-3.11849,-4.3480792,-0.7507475,-0.38499874,-0.53679985,0
3.9886444,7.0387836,0.3952792,0.4924252,0.86898559,0.048799898,0
5.073319,-3.1220427,-5.4885597,0.62633562,-0.38543734,-0.67759991,0
5.5606117,0.72529727,-5.8449588,0.68649524,0.089542866,-0.72159982,0
1.8625916,4.035615,6.7716002,0.22994958,0.49822405,0.83599997,0
-1.1460625,6.5898614,4.5683999,-0.14148919,0.81356311,0.56399995,0
2.2341814,1.5958444,7.6204805,0.27582484,0.19701782,0.94080001,0
-5.4209375,1.2046534,5.8968,-0.6692515,0.14872263,0.72799999,0
-0.27871522,2.7314086,-7.620481,-0.034409285,0.33721092,-0.94080007,0
-4.4085345,4.4085345,-5.1710396,-0.54426348,0.54426348,-0.6383999,0
-6.9954715,-2.6905658,3.0715206,-0.8636384,-0.33216861,0.37920004,0
-3.7227476,2.4818311,6.7521605,-0.45959845,0.3063989,0.83360004,0
-4.452208,-5.5652599,3.8491206,-0.54965526,-0.68706912,0.47520006,0
-5.9807277,-4.3496203,3.3048003,-0.73836142,-0.53699017,0.40800002,0
5.2185535,6.1673803,0.58319956,0.64426583,0.76140493,0.071999945,0
5.1654086,-2.6456969,-5.6505618,0.63770473,-0.32662922,-0.69760019,0
6.4806089,-2.0059025,-4.4258409,0.80007511,-0.24764228,-0.54640007,0
1.2915869,-0.32289621,7.9898405,0.15945517,-0.039863728,0.98640001,0
-1.3287635,7.9725809,-0.53136069,-0.16404487,0.9842692,-0.065600082,0
-3.2517076,-7.2538099,1.5551994,-0.40144536,-0.89553207,0.19199991,0
-2.7663617,3.9958558,-6.4799991,-0.34152612,0.49331552,-0.79999983,0
-7.9676814,-0.62902755,-1.3154398,-0.98366433,-0.077657714,-0.16239998,0
4.8339195,-4.3944726,-4.7887201,0.59678018,-0.54252744,-0.59119999,0
2.8379741,-7.5679302,0.53136027,0.35036716,-0.93431234,0.06560003,0
-5.1693101,-0.91223127,6.1689606,-0.6381864,-0.11262114,0.76160002,0
-2.2231028,2.2231028,7.4649606,-0.27445713,0.27445713,0.92160004,0
3.8713756,5.3603663,-4.6785607,0.47794756,0.66177356,-0.57760006,0
6.9202032,3.4601016,-2.3976009,0.85434604,0.42717302,-0.29600009,0
1.706775,2.867382,-7.3807211,0.21071294,0.35399777,-0.91120011,0
-6.6600094,4.2381878,-1.8143988,-0.82222337,0.52323306,-0.22399984,0
5.1829629,-5.5531754,-2.8123195,0.63987195,-0.68557715,-0.34719992,0
5.9435945,-1.9351236,-5.1516004,0.73377705,-0.23890413,-0.63600004,0
2.2231028,2.2231028,7.4649606,0.27445713,0.27445713,0.92160004,0
-2.7740152,7.3313265,-2.0412002,-0.342471,0.90510201,-0.252,0
-3.1260877,-2.6191545,-6.9984007,-0.38593674,-0.3233524,-0.86400002,0
-3.600822,-1.842281,-7.0178409,-0.44454589,-0.22744209,-0.86640006,0
-3.0454829,7.4965734,0.36936039,-0.37598553,0.92550284,0.045600045,0
-5.6286178,2.0737011,5.4432006,-0.69489104,0.25601247,0.67200005,0
-1.8546846,-7.8824081,0.19439971,-0.22897339,-0.97313678,0.023999963,0
1.8625916,-4.035615,6.7716002,0.22994958,-0.49822405,0.83599997,0
6.0485277,-4.7336302,2.5725594,0.74673176,-0.58439875,0.31759989,0
-3.1638269,-4.4527936,-5.9810395,-0.39059591,-0.54972756,-0.73839992,0
-1.4295394,0.59046191,-7.9509606,-0.17648634,0.072896525,-0.98160005,0
-7.0060282,-3.7532294,1.56168,-0.86494172,-0.46336162,0.19279999,0
-1.8897841,7.7691121,-1.2960004,-0.23330666,0.9591496,-0.16000004,0
-7.1925373,2.397512,2.8512011,-0.88796753,0.29598913,0.35200012,0
-2.2082448,2.8391712,7.2576008,-0.27262279,0.35051495,0.89600003,0
3.7711577,0.54996043,-7.1474414,0.46557501,0.067896344,-0.88240016,0
-5.6083832,2.361424,5.3460007,-0.69239295,0.2915338,0.66000003,0
6.9941239,3.5969779,-1.9375213,0.86347204,0.44407132,-0.23920016,0
-2.9524915,5.3144855,5.3524799,-0.36450511,0.65610927,0.66079998,0
4.7818847,5.6674194,-3.2594392,0.59035611,0.6996814,-0.4023999,0
-4.1055183,-4.6920214,5.1710405,-0.50685412,-0.5792619,0.63840002,0
-7.4761906,2.7412701,1.4839194,-0.92298645,0.33842838,0.18319991,0
5.8297324,5.3227983,1.8144001,0.71972001,0.65713555,0.22399999,0
-2.8364344,6.2401567,4.3156796,-0.35017708,0.77038968,0.5327999,0
-4.2067289,4.0792522,-5.5922394,-0.51934922,0.50361139,-0.69039989,0
2.2268767,-7.6703553,1.3478403,0.27492303,-0.94695741,0.16640003,0
5.110909,-4.5430303,4.3415999,0.63097638,-0.56086791,0.53599995,0
-5.4270649,3.9988897,4.4906406,-0.670008,0.49369007,0.55440003,0
3.1621337,-1.5092002,-7.3029604,0.39038685,-0.18632101,-0.9016,0
-5.7307906,5.3355627,-2.0736003,-0.70750499,0.65871143,-0.25600001,0
7.8317528,1.6933515,-1.1858401,0.966883,0.20905574,-0.1464,0
5.9930158,5.3509073,-1.030319,0.73987848,0.66060579,-0.12719987,0
-7.1826,3.1922669,-1.9569613,-0.88674068,0.39410701,-0.24160014,0
3.2842996,-4.7771621,5.6570401,0.40546906,-0.58977306,0.69839996,0
-5.9802012,-4.9401665,2.3328004,-0.73829639,-0.60989708,0.28800005,0
7.8574648,0.7603991,1.8144001,0.97005731,0.093876429,0.22399999,0
-5.159574,0.21955614,-6.2402401,-0.63698441,0.027105695,-0.77039999,0
7.0572019,3.1365345,2.4429607,0.87125945,0.38722646,0.30160007,0
-0.090488218,-4.3434386,-6.8363996,-0.011171385,-0.53622699,-0.84399992,0
3.4406915,-2.1895304,6.9984002,0.4247767,-0.27031237,0.86399996,0
-5.110909,-4.5430303,4.3415999,-0.63097638,-0.56086791,0.53599995,0
5.6576757,5.4005075,2.1059999,0.69847846,0.66672927,0.25999999,0
-1.7829778,5.6460962,5.5274401,-0.22012071,0.6970489,0.68239999,0
0.26835313,-7.513895,3.0132,0.033130016,-0.92764133,0.37199998,0
3.7586489,1.2256463,-7.0696788,0.46403071,0.15131435,-0.87279981,0
7.8139992,1.4394208,-1.5746398,0.96469122,0.17770627,-0.19439997,0
0.30220681,5.4397278,5.994,0.037309483,0.67157131,0.73999995,0
6.4678555,-2.9851642,-3.8555996,0.79850066,-0.36853877,-0.47599992,0
-7.5402541,-1.820061,2.3327994,-0.93089551,-0.22469887,0.28799993,0
-7.9681559,1.4061452,0.37583983,-0.98372293,0.17359817,0.046399977,0
-2.9043128,-7.5028076,0.93959987,-0.35855713,-0.92627251,0.11599998,0
-5.754108,2.3290439,-5.2034416,-0.71038365,0.28753626,-0.64240015,0
-3.8835046,7.0388527,0.99143934,-0.47944498,0.86899412,0.12239991,0
3.3474076,7.3642974,-0.41471884,0.41326016,0.90917248,-0.051199853,0
-4.2344112,-6.3516169,2.7086399,-0.52276677,-0.78415018,0.33439997,0
4.7729416,-5.4547911,-3.6158388,0.589252,-0.67343098,-0.44639984,0
-8.0632114,0,-0.77112025,-0.99545813,0,-0.095200025,0
7.7069249,1.3832941,-2.0735993,0.95147216,0.17077704,-0.25599989,0
6.0229812,-2.8680863,4.5943208,0.7435779,-0.35408473,0.56720006,0
-5.0195875,5.0195875,3.90096,-0.61970216,0.61970216,0.48159999,0
-1.706775,-2.867382,-7.3807211,-0.21071294,-0.35399777,-0.91120011,0
-3.0004568,4.8007321,5.7931199,-0.37042674,0.59268296,0.71519995,0
6.4147744,1.6409889,-4.6656008,0.79194742,0.20259123,-0.57600009,0
2.0202641,-6.9025693,-3.7260001,0.24941531,-0.85216904,-0.45999998,0
-5.3169341,-6.0419707,0.91368008,-0.65641159,-0.74592227,0.1128,0
3.4601016,-6.9202032,-2.3976009,0.42717302,-0.85434604,-0.29600009,0
1.5882477,7.9412398,-0.15552102,0.19607995,0.98039991,-0.019200126,0
-4.754899,3.0480125,-5.8060794,-0.58702457,0.37629783,-0.71679991,0
-3.1770718,-2.0147283,-7.1733599,-0.39223108,-0.24873188,-0.88559997,0
7.3628855,0,3.3760808,0.90899819,0,0.41680008,0
-4.9103184,-0.3068946,6.4346404,-0.60621214,-0.037888221,0.79440004,0
-2.1251533,4.8574948,6.1236,-0.2623646,0.59969068,0.75599998,0
-1.593606,5.8432217,-5.3784003,-0.19674148,0.72138536,-0.66400003,0
0.61730331,-2.6936867,-7.6139998,0.076210283,-0.33255389,-0.93999994,0
-2.7300725,6.8251815,3.4020002,-0.33704597,0.84261495,0.42000002,0
2.2563977,3.7004926,-6.8428817,0.27856761,0.45685092,-0.84480017,0
-1.5368674,4.6106019,-6.4799995,-0.18973671,0.56921011,-0.79999989,0
7.7150111,1.2858355,2.1059995,0.95247048,0.15874511,0.25999993,0
-4.5993171,-1.8397268,6.40872,-0.56781691,-0.22712676,0.79119998,0
7.9293995,-1.4417092,0.81000072,0.97893816,-0.17798878,0.10000008,0
5.3144855,2.9524925,5.3524799,0.65610927,0.36450523,0.66079998,0
-0.96712786,1.2895044,7.9380002,-0.1193985,0.15919806,0.97999996,0
1.9894661,7.2344208,-3.0520792,0.24561308,0.89313835,-0.37679988,0
-5.5531754,5.1829629,-2.8123195,-0.68557715,0.63987195,-0.34719992,0
0.74457926,7.9421864,1.4061605,0.091923364,0.98051679,0.17360005,0
3.3303864,4.2386727,6.0458403,0.4111588,0.5232929,0.7464,0
1.5264229,-1.6162126,-7.78896,0.18844725,-0.1995324,-0.96159995,0
4.1806803,-6.4610505,-2.5272012,0.51613337,-0.79766053,-0.31200013,0
2.3842082,-5.2703552,-5.670001,0.29434669,-0.65066111,-0.70000011,0
3.1718931,0.63437784,7.4260802,0.39159173,0.078318246,0.91679996,0
0.78965694,-2.4742589,-7.6723199,0.097488508,-0.30546406,-0.94719994,0
-4.0064802,-6.410368,2.9095197,-0.49462718,-0.79140341,0.35919994,0
6.9100475,0.96419269,-4.1148005,0.85309225,0.11903613,-0.50800002,0
1.6323299,7.9284596,0.29160124,0.2015222,0.97882211,0.036000151,0
-4.5586929,4.7057476,-4.7628002,-0.5628016,0.58095646,-0.588,0
-2.3689699,-6.475184,-4.2508802,-0.29246542,-0.7994054,-0.5248,0
-1.7278656,2.2462251,-7.5880799,-0.21331672,0.27731174,-0.93679994,0
-2.109118,-5.1221437,5.9097605,-0.26038492,-0.63236338,0.72960001,0
-4.8706818,-1.515323,-6.2920794,-0.60131872,-0.18707691,-0.77679992,0
-3.2001617,-4.0829649,-6.2208014,-0.39508167,-0.50406975,-0.76800013,0
-7.9284596,1.6323298,0.29159993,-0.97882211,0.20152219,0.035999991,0
7.4198666,-2.5585744,2.0023193,0.91603285,-0.31587338,0.24719991,0
6.8198671,-0.28416085,4.3610401,0.84195888,-0.035081584,0.53839999,0
0.96065778,2.2415366,7.7241607,0.11859972,0.27673289,0.95360005,0
-6.7088351,3.8336198,-2.4299996,-0.82825118,0.47328639,-0.29999992,0
3.1738782,0.31738743,7.4455199,0.39183679,0.039183632,0.91919994,0
2.8588693,1.2706096,7.4714403,0.35294682,0.15686537,0.9224,0
2.7916737,1.9541714,-7.3483181,0.34465104,0.24125572,-0.90719974,0
4.4527936,3.1638269,-5.9810395,0.54972756,0.39059591,-0.73839992,0
-1.7676866,-6.7493482,-4.1148014,-0.2182329,-0.83325285,-0.50800014,0
3.6213875,7.2427735,-0.19440025,0.44708484,0.89416951,-0.02400003,0
-2.5654173,6.2710209,4.4387994,-0.31671816,0.77420008,0.54799992,0
5.7317786,3.4390676,4.5748806,0.70762694,0.42457622,0.56480002,0
-3.9395149,-3.6364756,6.0717602,-0.48635983,-0.44894758,0.74959999,0
4.3404789,-6.5107169,-2.0930402,0.53586155,-0.80379218,-0.25840002,0
7.6171379,-1.0506394,2.5466394,0.94038737,-0.12970856,0.31439993,0
-6.9240856,-4.111176,-0.87479967,-0.85482532,-0.50755256,-0.10799995,0
6.6181717,4.6327195,-0.5896799,0.81705821,0.57194066,-0.072799981,0
7.9866838,-0.42035201,-1.2830398,0.98601031,-0.051895309,-0.15839997,0
0.32074335,-2.2452054,7.7760005,0.039597943,-0.27718583,0.96000004,0
-6.2740421,1.7508955,-4.8146405,-0.77457309,0.21615992,-0.59440005,0
5.1864681,-0.11035027,-6.2208018,0.64030468,-0.01362349,-0.76800019,0
-3.0607283,-3.9789469,6.3568807,-0.37786767,-0.49122798,0.78480005,0
-6.1484518,-4.8675241,2.02824,-0.75906807,-0.6009289,0.25039998,0
-1.6037186,-1.6037186,7.776,-0.19798994,-0.19798994,0.95999998,0
3.8601611,6.9076562,-1.7301589,0.47656307,0.85279703,-0.21359986,0
-6.3685184,5.0038362,-0.11664087,-0.78623682,0.6177575,-0.014400106,0
-7.3441534,0.81601632,3.3177609,-0.90668559,0.10074275,0.40960011,0
-7.7448339,-2.1782346,0.93960029,-0.95615232,-0.26891783,0.11600003,0
-4.0662708,0.3127898,6.9984002,-0.50200874,0.038616024,0.86399996,0
3.8218267,6.8792887,1.9180812,0.47183043,0.84929484,0.23680013,0
1.3471216,0.24743043,-7.9833608,0.16631129,0.030546965,-0.98560005,0
7.5160847,0,3.0196812,0.92791164,0,0.37280014,0
-1.6162148,-0.43772483,-7.9250398,-0.19953267,-0.0540401,-0.97839993,0
4.3536148,0.31097221,6.8234406,0.53748327,0.038391631,0.84240001,0
7.0983787,2.8019912,-2.7151194,0.87634301,0.34592482,-0.33519989,0
6.9571729,-3.1965387,-2.6438401,0.8589102,-0.3946344,-0.32639998,0
5.6074204,-5.0733809,2.9030409,0.69227409,-0.62634331,0.35840011,0
-3.9157004,5.8735509,3.9722409,-0.48341978,0.72512972,0.49040011,0
-2.3975127,-7.1925378,-2.8511994,-0.29598922,-0.88796759,-0.35199991,0
-1.8819689,3.4502766,7.0826402,-0.23234183,0.42596006,0.87439996,0
-7.6321092,2.6936855,-0.32400024,-0.94223565,0.33255374,-0.040000029,0
-4.2534094,0.26583785,-6.8882394,-0.52511227,0.032819487,-0.85039991,0
3.5234158,-7.2817273,0.41472039,0.43498957,-0.89897865,0.051200047,0
-5.4270649,3.9988897,4.4906406,-0.670008,0.49369007,0.55440003,0
7.2462511,2.8467422,2.2356009,0.89459884,0.35144964,0.27600011,0
4.5430307,-5.110909,4.3415995,0.56086797,-0.63097638,0.53599989,0
7.5361538,-2.9687879,-0.05183921,0.93038929,-0.36651701,-0.006399902,0
5.0842199,-3.8131647,-5.0220003,0.62768143,-0.47076106,-0.62,0
1.8516028,4.320406,6.5966406,0.22859293,0.53338343,0.81440002,0
-5.8086257,-5.5665989,0.93960005,-0.71711427,-0.6872344,0.116,0
0.30462867,-5.1786919,6.2208004,0.037608474,-0.63934463,0.76800001,0
-1.2876787,-1.2876787,7.8926406,-0.15897268,-0.15897268,0.97440004,0
-4.6656003,4.9766402,-4.3675203,-0.57600003,0.61439997,-0.53920001,0
-1.9047234,2.5396307,7.4520006,-0.23515102,0.31353465,0.92000002,0
-3.0004568,4.8007321,5.7931199,-0.37042674,0.59268296,0.71519995,0
-4.2617517,6.8661561,0.55079907,-0.52614218,0.84767354,0.067999884,0
6.7342143,-2.5253305,-3.7259991,0.83138442,-0.31176919,-0.45999986,0
6.2208004,-4.9766402,-1.4644809,0.76800001,-0.61439997,-0.1808001,0
5.9519005,-5.4940624,-0.012959976,0.73480248,-0.67827928,-0.0015999969,0
4.0094604,6.3786864,-2.9743221,0.49499509,0.7874921,-0.36720023,0
-5.4940624,-5.9519005,-0.012959976,-0.67827928,-0.73480248,-0.0015999969,0
3.1639402,-1.2655755,7.34832,0.39060989,-0.15624389,0.90719998,0
-6.7471709,0.30668929,-4.4712,-0.83298403,0.037862875,-0.55199999,0
2.9671326,7.4178319,1.3348795,0.36631265,0.91578168,0.16479993,0
-0.090488218,-4.3434386,-6.8363996,-0.011171385,-0.53622699,-0.84399992,0
-5.0613694,-2.9772761,5.5792809,-0.62486041,-0.36756495,0.6888001,0
5.499207,-3.4731836,4.8276,0.67891443,-0.4287881,0.59599996,0
-6.8427701,4.3337541,-0.071280405,-0.84478641,0.53503132,-0.0088000493,0
3.6899495,-7.1628423,-0.8294397,0.4555493,-0.88430148,-0.10239996,0
0,-0.97024888,8.0416803,0,-0.1197838,0.9928,0
-1.6893797,-6.7575188,4.1342397,-0.20856538,-0.83426154,0.51039994,0
6.0485277,4.7336302,2.5725594,0.74673176,0.58439875,0.31759989,0
-7.89118,0.40467551,-1.7819993,-0.97421974,0.049959939,-0.21999991,0
4.3204041,2.2630692,-6.467042,0.53338319,0.27939123,-0.79840022,0
4.3434358,0.090488151,-6.8364015,0.53622663,0.011171376,-0.84400016,0
7.1777229,-0.82819885,3.6612005,0.88613862,-0.10224677,0.45200005,0
0.94178641,-3.7671492,7.1085606,0.11626992,-0.46508014,0.87760001,0
-3.5290427,-6.5151563,3.2723999,-0.43568426,-0.80434024,0.40399995,0
2.2643683,-6.6313648,-4.0629597,0.27955163,-0.81868696,-0.50159991,0
4.2936549,5.2137241,-4.4711981,0.53008085,0.64366961,-0.55199975,0
-5.9163499,-1.1832699,5.4043207,-0.73041356,-0.14608268,0.66720003,0
1.2046534,-5.4209375,5.8968,0.14872263,-0.6692515,0.72799999,0
7.1094165,0,-3.8815205,0.87770569,0,-0.47920004,0
-5.4547901,-4.7729416,-3.61584,-0.67343086,-0.589252,-0.44639999,0
3.1563525,-5.8617978,-4.613759,0.38967314,-0.72367871,-0.56959987,0
-1.0506394,-7.6171379,2.5466394,-0.12970856,-0.94038737,0.31439993,0
3.0830641,-7.1938162,2.08656,0.38062519,-0.88812542,0.25759998,0
5.2955914,4.7381616,3.8879998,0.65377671,0.5849582,0.47999996,0
-7.9866838,-0.42035201,-1.2830398,-0.98601031,-0.051895309,-0.15839997,0
-6.6765018,2.5036871,3.8426402,-0.82425946,0.30909717,0.47439998,0
0.9273423,5.3322191,-6.0263987,0.11448669,0.65829861,-0.74399978,0
-5.585362,-2.6456978,5.2358403,-0.68955082,-0.32662934,0.64640003,0
-1.8040024,7.8925099,-0.25272122,-0.22271633,0.97438389,-0.03120015,0
-3.6441,5.3932681,-4.8211203,-0.44988886,0.66583556,-0.5952,0
7.3313265,-2.7740152,-2.0412002,0.90510201,-0.342471,-0.252,0
2.3154552,-6.0780711,4.8276,0.28585866,-0.75037909,0.59599996,0
-7.9681559,1.4061452,0.37583983,-0.98372293,0.17359817,0.046399977,0
0.29687992,-5.937604,5.5015206,0.036651839,-0.73303747,0.67920005,0
-4.4894757,-6.7342138,-0.32400018,-0.55425626,-0.83138436,-0.040000021,0
3.573575,-0.5955959,-7.2446418,0.44118208,-0.073530354,-0.89440018,0
-6.4942403,4.7624435,-0.8683213,-0.80175805,0.58795595,-0.10720015,0
-0.23614228,2.8927436,-7.562161,-0.029153366,0.35712883,-0.93360007,0
5.4637594,4.3388677,-4.1147985,0.6745382,0.53566265,-0.50799978,0
-0.15375485,-6.7652197,-4.4517603,-0.018982079,-0.83521229,-0.54960001,0
2.2452037,-0.32074335,-7.776001,0.27718562,-0.039597943,-0.9600001,0
3.7004926,-2.2563977,-6.8428817,0.45685092,-0.27856761,-0.84480017,0
-4.5320878,6.6788654,0.68040115,-0.55951697,0.82455122,0.08400014,0
2.0879083,7.4025831,-2.5401597,0.25776646,0.91389912,-0.31359994,0
-3.9157004,5.8735509,3.9722409,-0.48341978,0.72512972,0.49040011,0
-5.1348553,-6.2511287,-0.40823975,-0.63393271,-0.77174425,-0.050399967,0
-4.5859456,2.1401076,6.3244801,-0.5661661,0.26421082,0.78079998,0
-1.8040024,7.8925099,-0.25272122,-0.22271633,0.97438389,-0.03120015,0
-7.4863329,-0.91296768,-2.95488,-0.92423856,-0.11271206,-0.36479998,0
6.6036515,3.0266738,3.5834396,0.8152656,0.37366343,0.44239992,0
6.3552756,0,-5.0219994,0.78460187,0,-0.61999989,0
0.9034909,2.3089211,-7.7111993,0.11154208,0.28505197,-0.95199984,0
1.5073211,-7.7878256,1.6394399,0.18608902,-0.96145988,0.20239998,0
-1.6194817,-7.2876668,3.1428008,-0.199936,-0.89971191,0.38800007,0
-1.1223701,-2.5253327,-7.6139994,-0.1385642,-0.31176946,-0.93999988,0
4.1055183,4.6920223,5.1710401,0.50685412,0.57926196,0.63839996,0
6.7370939,-3.8867853,2.2615204,0.83173996,-0.47985002,0.27920005,0
-7.3107324,1.3538398,3.2140808,-0.90255952,0.16714071,0.39680007,0
2.2161505,2.532743,7.3677607,0.27359882,0.3126843,0.90960002,0
-7.9980636,0.21047516,-1.2635998,-0.98741519,0.025984587,-0.15599996,0
5.1009178,1.4735985,-6.1171193,0.62974292,0.18192573,-0.75519991,0
1.1730049,-3.3723884,-7.2705612,0.14481542,-0.41634423,-0.89760011,0
6.9715705,-0.8106479,-4.0435205,0.86068767,-0.10007998,-0.49920005,0
-3.5969779,6.9941239,-1.9375213,-0.44407132,0.86347204,-0.23920016,0
3.1621337,-1.5092002,-7.3029604,0.39038685,-0.18632101,-0.9016,0
2.6905668,-6.9954715,3.0715201,0.33216873,-0.8636384,0.37919998,0
-4.1717515,-6.5183616,2.3911202,-0.51503104,-0.80473596,0.29520002,0
-2.1668599,4.024169,6.6873603,-0.26751354,0.49681097,0.82559997,0
-6.9647188,2.9325137,-2.9160004,-0.85984176,0.3620387,-0.36000001,0
5.343545,5.343545,2.9160008,0.65969688,0.65969688,0.36000007,0
4.5676422,5.7973919,-3.3371992,0.56390643,0.71572739,-0.41199988,0
5.2524714,-6.1659436,-0.051839903,0.64845324,-0.76122755,-0.0063999877,0
-1.2599891,-3.4649711,7.2122402,-0.15555421,-0.42777419,0.89039999,0
4.9627242,6.3806453,0.51840127,0.61268198,0.78773397,0.064000152,0
6.2208004,-4.6656003,2.2679996,0.76800001,-0.57600003,0.27999994,0
-4.63272,-6.6181712,-0.58968073,-0.57194072,-0.81705815,-0.072800085,0
-6.6036515,3.0266738,3.5834396,-0.8152656,0.37366343,0.44239992,0
2.4818311,3.7227476,6.7521605,0.3063989,0.45959845,0.83360004,0
-3.7588637,6.4437661,-3.155761,-0.46405724,0.79552662,-0.3896001,0
1.5368674,4.6106005,6.4800005,0.18973671,0.56920993,0.80000001,0
-7.9665112,0,1.4644804,-0.98351985,0,0.18080004,0
7.7878256,-1.5073211,1.6394399,0.96145988,-0.18608902,0.20239998,0
-4.48702,3.5896161,5.7088799,-0.55395305,0.44316244,0.70479995,0
4.2386727,3.3303864,6.0458403,0.5232929,0.4111588,0.7464,0
5.4333167,-5.8512645,-1.3607998,0.67077982,-0.72237831,-0.16799997,0
-4.6227794,4.6227803,4.7822399,-0.57071346,0.57071358,0.59039998,0
-2.3462613,7.742662,0.39528081,-0.28966188,0.95588416,0.048800096,0
4.6106019,-1.5368674,-6.4799995,0.56921011,-0.18973671,-0.79999989,0
-6.4104528,-3.0658693,3.8880002,-0.7914139,-0.37850237,0.48000002,0
-1.8040024,7.8925099,-0.25272122,-0.22271633,0.97438389,-0.03120015,0
1.1021342,-7.163868,3.6158404,0.13606595,-0.88442808,0.44640005,0
6.1732941,0.29396614,5.2358408,0.76213503,0.036292113,0.64640009,0
-6.0485272,-4.7336307,2.5725603,-0.7467317,-0.58439881,0.31760001,0
-7.7150111,1.2858355,2.1059995,-0.95247048,0.15874511,0.25999993,0
-3.3698187,-3.6761653,6.3828001,-0.41602698,-0.45384756,0.78799999,0
2.0117555,6.3226614,4.6461596,0.24836487,0.78057545,0.57359993,0
-2.1972358,6.1522603,-4.7887211,-0.27126366,0.75953829,-0.59120011,0
-3.5745294,-6.2979798,-3.6288006,-0.44129992,-0.77752835,-0.44800004,0
-5.252471,6.1659441,-0.051839016,-0.64845318,0.76122761,-0.0063998783,0
-0.64540315,1.2908063,7.9704003,-0.0796794,0.1593588,0.98399997,0
-7.9284596,-1.6323298,0.29159993,-0.97882211,-0.20152219,0.035999991,0
5.4383335,2.6528454,-5.3848815,0.67139918,0.32751176,-0.66480017,0
3.3322263,-7.056479,-2.1708012,0.41138595,-0.87117022,-0.26800013,0
6.7932167,-1.1322025,4.2638397,0.8386687,-0.13977808,0.52639997,0
-1.1460625,6.5898614,4.5683999,-0.14148919,0.81356311,0.56399995,0
3.7953284,-7.1441464,-0.40824008,0.46855903,-0.88199335,-0.050400008,0
1.3232377,7.5613585,-2.5855188,0.16336267,0.93350101,-0.31919983,0
-2.3842082,5.2703552,-5.670001,-0.29434669,0.65066111,-0.70000011,0
7.2427735,3.6213875,-0.19440025,0.89416951,0.44708484,-0.02400003,0
-2.1993754,-3.1419649,7.1344805,-0.27152783,-0.3878969,0.88080001,0
-4.2381883,-6.6600094,-1.8143996,-0.52323312,-0.82222337,-0.22399995,0
7.8824081,1.8546841,0.19440134,0.97313678,0.22897334,0.024000164,0
-3.11849,-6.0810552,-4.3480792,-0.38499874,-0.7507475,-0.53679985,0
-4.2524309,-5.3864121,4.3027201,-0.52499145,-0.66498911,0.53119999,0
-8.0211382,0.48612916,1.0173608,-0.99026394,0.060015943,0.1256001,0
-1.9671887,-3.4425802,-7.0632014,-0.24286279,-0.42500988,-0.87200016,0
6.7771759,-1.411912,4.2055197,0.83668834,-0.17431012,0.51919991,0
6.7072229,2.2357404,3.9528,0.82805216,0.27601734,0.48799998,0
-1.5002707,-6.0010819,-5.2293601,-0.1852186,-0.74087429,-0.64559996,0
-8.0211382,-0.48612988,1.0173607,-0.99026394,-0.060016032,0.12560008,0
5.8106503,-0.25263712,-5.637599,0.71736419,-0.031189766,-0.69599986,0
5.2703552,-2.3842082,-5.670001,0.65066111,-0.29434669,-0.70000011,0
4.6586838,-4.3675156,4.9831195,0.57514614,-0.53919941,0.61519992,0
0.79347819,1.7003106,-7.8796792,0.097960263,0.20991488,-0.97279984,0
-4.6106019,-1.5368674,-6.4799995,-0.56921011,-0.18973671,-0.79999989,0
-7.6703553,-2.2268775,1.34784,-0.94695741,-0.27492312,0.16639999,0
-7.4965734,-3.0454829,0.36936039,-0.92550284,-0.37598553,0.045600045,0
-1.6001143,-1.9201369,7.7047205,-0.19754498,-0.23705393,0.95120001,0
5.6226649,3.1717603,-4.8924003,0.69415611,0.39157534,-0.60400003,0
5.8640537,-4.7978616,2.8641591,0.72395724,-0.59232855,0.35359988,0
-0.49179718,3.9343774,-7.0632014,-0.060715698,0.48572558,-0.87200016,0
-5.1886473,1.0151699,-6.1365604,-0.64057368,0.12532961,-0.75760001,0
2.4701803,6.8616138,3.5251205,0.30496052,0.84711277,0.43520004,0
5.4637594,4.3388677,-4.1147985,0.6745382,0.53566265,-0.50799978,0
1.8494469,-6.1174016,-4.9766407,0.22832677,-0.75523472,-0.61440003,0
5.9243937,4.5779405,3.0909591,0.73140657,0.5651778,0.38159987,0
-6.7088351,-3.8336198,-2.4299996,-0.82825118,-0.47328639,-0.29999992,0
1.2319508,-4.619813,6.5383201,0.15209268,-0.57034725,0.80719995,0
5.4005075,5.6576757,2.1059999,0.66672927,0.69847846,0.25999999,0
-6.5252023,4.5174484,1.6200002,-0.8055805,0.55770963,0.20000002,0
4.7336302,6.0485277,2.5725594,0.58439875,0.74673176,0.31759989,0
-3.4406915,2.1895304,6.9984002,-0.4247767,0.27031237,0.86399996,0
7.6445193,-1.5681069,-2.1707995,0.94376779,-0.19359343,-0.26799992,0
-5.9110069,-2.5950763,-4.8924003,-0.72975391,-0.32037976,-0.60400003,0
3.8131647,-5.0842199,-5.0220003,0.47076106,-0.62768143,-0.62,0
-2.1895304,3.4406915,6.9984002,-0.27031237,0.4247767,0.86399996,0
5.150496,1.514852,6.06528,0.63586366,0.18701877,0.74879998,0
-0.88422936,-2.9684846,-7.4843998,-0.10916411,-0.36647958,-0.92399991,0
-5.4397278,0.30220681,5.994,-0.67157131,0.037309483,0.73999995,0
-7.561358,1.3232374,-2.5855203,-0.93350095,0.16336264,-0.31920001,0
-6.2337565,-4.8261342,-1.8597605,-0.76959956,-0.595819,-0.22960006,0
5.3932681,-3.6441,-4.8211203,0.66583556,-0.44988886,-0.5952,0
6.9328127,3.9616082,1.3608005,0.85590273,0.4890874,0.16800006,0
2.767863,-7.6116228,0.11016064,0.34171146,-0.9397065,0.013600078,0
6.9954715,2.6905668,3.0715201,0.8636384,0.33216873,0.37919998,0
4.2613091,-4.536232,-5.1839995,0.52608752,-0.56002861,-0.63999993,0
0.77065754,7.7065706,-2.3716791,0.095142901,0.95142841,-0.29279986,0
1.9201369,-1.6001143,7.7047205,0.23705393,-0.19754498,0.95120001,0
2.867382,1.706775,-7.3807211,0.35399777,0.21071294,-0.91120011,0
0.50776035,7.8702931,1.8468001,0.062686458,0.97164106,0.228,0
4.2936549,5.2137241,-4.4711981,0.53008085,0.64366961,-0.55199975,0
-2.9851642,6.4678555,-3.8555996,-0.36853877,0.79850066,-0.47599992,0
3.9886444,7.0387836,0.3952792,0.4924252,0.86898559,0.048799898,0
5.0779347,4.9141307,-3.9592807,0.6269055,0.60668278,-0.48880008,0
-2.0703578,7.5050464,2.2355993,-0.25559971,0.9265489,0.2759999,0
-5.1771874,-5.355711,-3.1816814,-0.6391589,-0.66119885,-0.39280015,0
-3.2352276,-6.740057,3.1168802,-0.39941078,-0.83210576,0.38480002,0
1.7003106,0.79347819,-7.8796792,0.20991488,0.097960263,-0.97279984,0
6.3485823,-0.14107947,-5.0284796,0.78377557,-0.017417219,-0.6207999,0
1.155968,4.8340468,-6.3957591,0.14271209,0.59679586,-0.78959984,0
-3.7953279,-7.1441469,-0.40823942,-0.46855897,-0.88199341,-0.050399926,0
1.4207892,-0.82604021,-7.9315209,0.17540607,-0.10198027,-0.97920007,0
-1.6037186,-1.6037186,7.776,-0.19798994,-0.19798994,0.95999998,0
2.1748097,-7.0681329,3.3048007,0.26849502,-0.87260896,0.40800008,0
7.8331599,-1.7135036,1.1469604,0.96705675,-0.21154365,0.14160004,0
-5.3932681,3.6441,-4.8211203,-0.66583556,0.44988886,-0.5952,0
-1.2046525,-5.420938,5.8968,-0.14872253,-0.66925156,0.72799999,0
-8.001853,0,-1.2571198,-0.98788303,0,-0.15519996,0
-6.4070134,-2.7229805,-4.1407204,-0.79098928,-0.33617041,-0.51120001,0
6.0229812,2.8680873,4.5943203,0.7435779,0.35408482,0.56720001,0
5.2875376,3.2312732,5.2163997,0.65278238,0.39892259,0.64399993,0
2.4740942,-2.4034057,-7.3288817,0.3054437,-0.29671675,-0.90480018,0
-5.0195875,-5.0195875,3.90096,-0.61970216,-0.61970216,0.48159999,0
-7.9610543,-1.2062206,0.88128066,-0.98284614,-0.14891613,0.10880008,0
-6.1747947,0,5.2423201,-0.76232028,0,0.64719999,0
-5.9962764,4.1117325,-3.5704801,-0.74028099,0.50762129,-0.44079998,0
-6.2058649,3.1029329,4.1796002,-0.76615614,0.38307813,0.51600003,0
3.8252864,6.2595587,-3.4344018,0.47225755,0.77278501,-0.4240002,0
8.0474062,0.91970402,0.058318809,0.99350691,0.1135437,0.0071998527,0
-6.1747947,0,5.2423201,-0.76232028,0,0.64719999,0
6.5247359,-4.6304579,-1.2636001,0.80552292,-0.57166141,-0.156,0
7.7448339,-2.1782346,0.93960029,0.95615232,-0.26891783,0.11600003,0
-7.0215068,-0.65316331,-3.9852006,-0.86685264,-0.08063744,-0.49200004,0
3.9148748,-4.7248483,-5.2876806,0.48331785,-0.5833146,-0.65280002,0
-4.0094604,-6.3786874,-2.9743199,-0.49499509,-0.78749222,-0.36719999,0
-0.46203834,8.0856667,0.13607889,-0.057041768,0.9982304,0.016799863,0
-2.5204637,1.6598175,-7.5167994,-0.31116834,0.20491573,-0.92799991,0
-3.948283,-6.5804715,2.592,-0.48744231,-0.81240386,0.31999999,0
-3.3639755,0.93046129,-7.3094401,-0.41530561,0.11487176,-0.90239996,0
-3.2352276,6.740057,3.1168802,-0.39941078,0.83210576,0.38480002,0
6.8946047,-4.2257252,-0.46656007,0.85118574,-0.52169442,-0.057600006,0
-4.1302061,-5.7822886,-3.888,-0.50990194,-0.71386278,-0.47999999,0
1.3923706,-6.6524391,-4.4064002,0.17189759,-0.82128876,-0.54399997,0
1.5073211,-7.7878256,1.6394399,0.18608902,-0.96145988,0.20239998,0
-3.8923986,-4.1918135,5.7348008,-0.48054302,-0.51750779,0.70800006,0
4.8294835,4.8294835,4.3545594,0.59623253,0.59623253,0.53759992,0
-4.6269655,-0.9253931,6.5836802,-0.57123029,-0.11424606,0.81279999,0
2.6205084,-5.8233538,4.9831209,0.32351956,-0.71893251,0.6152001,0
3.6105866,-2.7554479,-6.7068009,0.44575143,-0.34017873,-0.82800007,0
2.4701803,6.8616138,3.5251205,0.30496052,0.84711277,0.43520004,0
-1.2471262,4.0531611,6.9012003,-0.15396619,0.50039023,0.852,0
6.6313639,-2.2643678,-4.0629611,0.81868684,-0.27955157,-0.50160009,0
2.4348159,-7.0339141,3.1946409,0.30059454,-0.86838442,0.39440009,0
-6.7979126,-3.6604142,2.4494407,-0.83924842,-0.45190296,0.30240008,0
-3.3303864,-4.2386727,6.0458403,-0.4111588,-0.5232929,0.7464,0
-0.35063943,7.3634243,-3.3566411,-0.043288816,0.90906471,-0.4144001,0
-2.9799829,-7.4499578,-1.1080796,-0.36789909,-0.91974783,-0.13679993,0
-3.9958558,-2.7663617,-6.4799991,-0.49331552,-0.34152612,-0.79999983,0
1.8494469,6.1174016,-4.9766407,0.22832677,0.75523472,-0.61440003,0
-5.7099357,5.7099357,0.63503945,-0.70493031,0.70493031,0.078399926,0
-6.6714678,4.1055193,2.0606399,-0.82363796,0.50685424,0.25439999,0
4.6106019,-1.5368674,-6.4799995,0.56921011,-0.18973671,-0.79999989,0
-1.2559839,6.7509131,-4.2962408,-0.15505974,0.83344603,-0.5304001,0
0,8.0983801,0.16199893,0,0.99979997,0.019999867,0
-6.0521193,-2.5937655,4.7174401,-0.74717516,-0.32021794,0.58239996,0
7.2937975,-2.6049278,2.3716812,0.90046877,-0.321596,0.29280013,0
4.6198125,1.2319509,6.5383205,0.57034719,0.1520927,0.80720001,0
7.1241345,1.6440312,3.4862404,0.87952274,0.20296679,0.43040001,0
5.5531764,2.9154174,-5.1256785,0.68557727,0.35992807,-0.6327998,0
-7.3608065,0.27262223,3.3696008,-0.90874147,0.033657063,0.41600007,0
-2.8199396,2.8199387,7.0502405,-0.34814069,0.34814057,0.87040001,0
5.1751761,0.60884362,6.2013597,0.63891059,0.075165875,0.76559991,0
4.2067289,4.0792522,-5.5922394,0.51934922,0.50361139,-0.69039989,0
-1.2599891,3.4649711,7.2122402,-0.15555421,0.42777419,0.89039999,0
1.8519993,-7.4079981,2.7021601,0.22864188,-0.91456765,0.33359998,0
-0.17567834,-7.3784981,-3.3372011,-0.021688683,-0.91092563,-0.41200012,0
-4.7450681,-2.096658,-6.2208004,-0.58581084,-0.25884664,-0.76800001,0
4.3778863,-6.6710653,-1.3931992,0.54047978,-0.82358825,-0.17199989,0
3.8973198,5.8459797,-4.030561,0.48115057,0.72172588,-0.49760011,0
-5.6477137,5.6477137,-1.3478388,-0.69724858,0.69724858,-0.16639984,0
8.0068731,-0.72789764,0.98496073,0.9885028,-0.089863904,0.12160008,0
-5.1531038,-6.1346474,1.1923199,-0.63618565,-0.75736386,0.14719997,0
-6.7471709,-0.30668977,-4.4712,-0.83298403,-0.037862934,-0.55199999,0
-6.0521193,-2.5937655,4.7174401,-0.74717516,-0.32021794,0.58239996,0
6.0490866,4.7258487,-2.5855198,0.74680078,0.5834381,-0.31919995,0
-0.24332358,8.029685,1.0368007,-0.030039947,0.99131912,0.12800008,0
-0.65316331,-7.0215068,-3.9852006,-0.08063744,-0.86685264,-0.49200004,0
0.83022451,5.4557614,-5.9291987,0.10249685,0.67355078,-0.73199981,0
3.5780814,-7.1561618,-1.2636006,0.44173843,-0.88347673,-0.15600006,0
6.8661561,4.2617517,0.55079907,0.84767354,0.52614218,0.067999884,0
0.97024792,0,8.0416803,0.11978369,0,0.9928,0
-1.2046533,4.6178374,-6.5447993,-0.14872262,0.57010335,-0.80799985,0
-4.2344112,-6.3516169,2.7086399,-0.52276677,-0.78415018,0.33439997,0
-2.1782346,-7.7448339,0.93960029,-0.26891783,-0.95615232,0.11600003,0
5.9073267,5.1368051,2.0800798,0.72929955,0.63417345,0.25679997,0
3.1134377,-1.3145626,-7.3612795,0.38437501,-0.16229166,-0.90879989,0
4.8905759,-6.357749,1.1275207,0.60377479,-0.78490722,0.13920008,0
0.58132446,-6.3945751,4.9377604,0.071768448,-0.78945369,0.60960001,0
3.9958541,-2.7663608,6.4800005,0.49331531,-0.341526,0.80000001,0
2.5096939,-7.5290799,1.6199993,0.30983874,-0.92951602,0.1999999,0
5.361002,-3.1616163,-5.1839991,0.66185206,-0.39032298,-0.63999987,0
-4.0367851,5.1901526,4.7304001,-0.4983685,0.64075953,0.58399999,0
-0.60545546,7.8709202,-1.8143994,-0.074747585,0.97171849,-0.22399992,0
3.9298618,6.5497708,-2.6956806,0.4851681,0.80861366,-0.33280006,0
-3.4794283,-6.6912084,2.9548802,-0.42955902,-0.82607508,0.36480001,0
0.31599525,-3.4759514,7.3094401,0.039011758,-0.42912978,0.90239996,0
-2.1748104,7.0681329,3.3048003,-0.26849511,0.87260896,0.40800002,0
2.0879083,7.4025831,-2.5401597,0.25776646,0.91389912,-0.31359994,0
2.2855217,7.770771,-0.038879156,0.28216317,0.9593544,-0.0047998955,0
4.4009166,-4.4009175,5.1840005,0.54332298,-0.5433231,0.64000005,0
-6.5247359,-4.6304579,-1.2636001,-0.80552292,-0.57166141,-0.156,0
5.3355627,5.7307906,-2.0736003,0.65871143,0.70750499,-0.25600001,0
-0.49723211,-7.9557095,1.4385604,-0.061386678,-0.98218632,0.17760004,0
2.0726173,7.8298893,0.084241465,0.25587866,0.96665293,0.010400181,0
-1.5002707,-6.0010819,-5.2293601,-0.1852186,-0.74087429,-0.64559996,0
-2.686466,-4.2983456,-6.3180008,-0.33166245,-0.53065991,-0.78000009,0
-4.5528631,-2.7317181,6.1171203,-0.56208181,-0.33724913,0.75519997,0
-3.6761653,-3.3698187,6.3828001,-0.45384756,-0.41602698,0.78799999,0
6.9441905,-4.1665144,0.16847938,0.85730743,-0.51438445,0.020799924,0
1.8267971,4.7281804,-6.3180003,0.22553051,0.58372593,-0.78000003,0
-6.3170199,-5.0100498,-0.77760053,-0.77987897,-0.61852461,-0.09600006,0
-3.5039966,6.4823942,-3.3631201,-0.43259215,0.80029553,-0.4152,0
-1.3929456,-1.1730068,-7.8926396,-0.17196859,-0.14481564,-0.97439992,0
-4.6106019,-1.5368674,-6.4799995,-0.56921011,-0.18973671,-0.79999989,0
0.68730807,-6.185771,-5.1839995,0.084852844,-0.76367539,-0.63999993,0
0.67201632,-8.0642033,-0.35640058,0.082964972,-0.99558061,-0.044000071,0
-7.126822,3.8009722,0.609119,-0.8798545,0.46925581,0.075199872,0
1.2398332,4.3394136,6.7262406,0.15306583,0.53573006,0.83040005,0
7.7149429,-1.9909533,1.4579998,0.95246202,-0.2457967,0.17999998,0
-3.1621354,1.5092008,-7.3029594,-0.39038706,0.18632108,-0.90159988,0
7.5028076,-2.9043128,0.93959987,0.92627251,-0.35855713,0.11599998,0
-5.8106484,-0.25263703,-5.6376009,-0.71736395,-0.031189755,-0.6960001,0
5.9076996,-4.3438973,-3.4408791,0.72934562,-0.53628361,-0.42479986,0
-3.8252861,-6.2595592,-3.4344008,-0.47225752,-0.77278507,-0.42400008,0
-7.6135564,-2.0035675,-1.9051198,-0.93994516,-0.247354,-0.23519996,0
6.8567162,3.7222168,-2.1772811,0.84650815,0.45953292,-0.26880014,0
2.6528454,5.4383335,-5.3848815,0.32751176,0.67139918,-0.66480017,0
3.9157,-2.1443117,-6.7586408,0.48341972,-0.26472983,-0.83440006,0
-6.8056664,-0.85070831,4.3091998,-0.84020567,-0.10502571,0.53199995,0
-4.0774083,6.9555798,0.77759951,-0.5033837,0.85871351,0.095999934,0
-5.6483712,3.6638083,-4.5036006,-0.69732976,0.45232201,-0.55600005,0
-6.6714678,-4.1055188,2.0606406,-0.82363796,-0.50685418,0.25440004,0
-2.3581772,7.3365507,2.494801,-0.29113299,0.90574694,0.30800012,0
6.3435206,1.7300509,4.7303996,0.78315067,0.21358652,0.58399993,0
5.1144304,0.32645267,-6.2726421,0.63141114,0.040302798,-0.77440023,0
1.0506402,7.6171379,2.5466392,0.12970866,0.94038737,0.3143999,0
4.735435,5.2253075,-3.9852006,0.58462161,0.64509964,-0.49200004,0
6.4704032,-1.0293822,-4.7628002,0.79881519,-0.12708423,-0.588,0
6.1484518,-4.8675241,2.02824,0.75906807,-0.6009289,0.25039998,0
-7.8642755,-1.2417277,-1.4903998,-0.97089815,-0.1532997,-0.18399997,0
-7.4079981,1.8519993,2.7021601,-0.91456765,0.22864188,0.33359998,0
6.3945756,-0.58132529,4.9377594,0.78945374,-0.071768552,0.60959989,0
1.9106663,2.2291105,7.5492005,0.23588473,0.27519882,0.93200004,0
6.6678514,4.5985174,0.058319505,0.82319152,0.56771815,0.0071999384,0
1.7300509,6.3435206,4.7303996,0.21358652,0.78315067,0.58399993,0
-1.8195767,-5.0038362,-6.1041603,-0.22463909,-0.6177575,-0.7536,0
1.2352015,4.3707128,-6.706799,0.152494,0.53959411,-0.82799983,0
-0.2488689,-7.9638124,1.4580004,-0.030724553,-0.98318666,0.18000004,0
5.6226659,-3.1717603,-4.8923993,0.69415623,-0.39157534,-0.60399991,0
-5.9519005,5.4940624,-0.012959976,-0.73480248,0.67827928,-0.0015999969,0
2.9325137,6.9647188,-2.9160004,0.3620387,0.85984176,-0.36000001,0
6.0229812,-2.8680863,4.5943208,0.7435779,-0.35408473,0.56720006,0
-0.68730807,6.185771,-5.1839995,-0.084852844,0.76367539,-0.63999993,0
0.5177511,-7.7662745,2.2420797,0.063919887,-0.95879924,0.27679995,0
4.3404789,6.5107169,-2.0930402,0.53586155,0.80379218,-0.25840002,0
5.0584483,6.0701385,-1.7820005,0.62449974,0.74939978,-0.22000006,0
-6.7493482,1.7676866,-4.1148014,-0.83325285,0.2182329,-0.50800014,0
5.4397278,-0.30220681,5.994,0.67157131,-0.037309483,0.73999995,0
1.2046534,-5.4209375,5.8968,0.14872263,-0.6692515,0.72799999,0
1.0151699,-5.1886473,-6.1365604,0.12532961,-0.64057368,-0.75760001,0
0,-3.1592829,-7.4584808,0,-0.39003491,-0.92080003,0
-1.842281,-3.600822,-7.0178409,-0.22744209,-0.44454589,-0.86640006,0
-0.45797607,6.7169824,-4.5036001,-0.056540255,0.82925707,-0.55599999,0
5.7181673,-0.49723187,-5.7153587,0.70594656,-0.061386649,-0.70559978,0
4.0792522,4.2067289,-5.5922394,0.50361139,0.51934922,-0.69039989,0
-1.0775135,7.9735975,-0.93312037,-0.13302635,0.98439473,-0.11520004,0
3.7586489,1.2256463,-7.0696788,0.46403071,0.15131435,-0.87279981,0
-0.32367554,-0.64735204,8.0676003,-0.039959941,-0.079920001,0.99599999,0
0.60545486,7.8709202,-1.8143992,0.07474751,0.97171849,-0.2239999,0
0.50776035,7.8702931,1.8468001,0.062686458,0.97164106,0.228,0
7.7878256,-1.5073211,1.6394399,0.96145988,-0.18608902,0.20239998,0
-2.3675332,5.5242438,-5.4302411,-0.29228804,0.68200541,-0.67040008,0
-1.9671887,3.4425802,-7.0632014,-0.24286279,0.42500988,-0.87200016,0
2.1081419,-6.3244267,-4.600801,0.26026443,-0.78079337,-0.56800008,0
-6.2276611,4.0615177,3.214081,-0.76884699,0.50142193,0.3968001,0
-5.7181659,-0.49723169,-5.7153606,-0.70594639,-0.061386626,-0.70560002,0
-0.19429182,7.7716794,-2.2744789,-0.023986643,0.95946658,-0.28079987,0
-1.3923709,6.6524386,-4.4064007,-0.17189763,0.8212887,-0.54400003,0
0.30668929,6.7471709,-4.4712,0.037862875,0.83298403,-0.55199999,0
5.2823248,5.8918242,-1.7301606,0.65213883,0.7273857,-0.21360007,0
7.6888423,1.8210411,-1.7819996,0.94923973,0.22481988,-0.21999994,0
-1.3287635,-7.9725809,-0.53136069,-0.16404487,-0.9842692,-0.065600082,0
-6.6788654,-4.5320873,0.68040007,-0.82455122,-0.55951691,0.084000006,0
-5.9015694,5.4097724,1.2311989,-0.72858876,0.66787308,0.15199986,0
1.4758906,-5.9035611,5.3460007,0.18220872,-0.72883469,0.66000003,0
5.9015694,5.4097724,1.2311989,0.72858876,0.66787308,0.15199986,0
3.1260877,-2.6191545,-6.9984007,0.38593674,-0.3233524,-0.86400002,0
6.6563764,-4.5091586,-0.98496038,0.82177484,-0.55668622,-0.12160004,0
-6.8195596,-3.0508554,-3.1298397,-0.84192091,-0.37664878,-0.38639995,0
6.9979501,-0.83975405,3.9916801,0.86394441,-0.10367333,0.4928,0
-4.0662708,0.3127898,6.9984002,-0.50200874,0.038616024,0.86399996,0
-7.9410019,0.83589536,-1.3607999,-0.98037058,0.10319696,-0.16799998,0
4.777163,-3.2842994,5.6570396,0.58977318,-0.40546903,0.6983999,0
-6.8567162,3.7222173,-2.1772797,-0.84650815,0.45953298,-0.26879996,0
0.56787825,-6.8145456,4.3415999,0.070108421,-0.84130192,0.53599995,0
1.8919824,-6.6219382,-4.2638412,0.23357807,-0.81752318,-0.52640009,0
2.1251533,-4.8574939,6.1236005,0.2623646,-0.59969056,0.75600004,0
0.9273423,5.3322191,-6.0263987,0.11448669,0.65829861,-0.74399978,0
0.94638979,-3.4700997,7.2576003,0.11683824,-0.42840734,0.89599997,0
6.809968,4.0355377,1.7172002,0.84073675,0.49821451,0.21200001,0
-7.1777229,0.82819802,3.6612005,-0.88613862,0.10224666,0.45200005,0
-7.6196923,2.2653141,-1.5552005,-0.94070274,0.27966839,-0.19200005,0
-4.7450681,2.096658,-6.2208004,-0.58581084,0.25884664,-0.76800001,0
4.120791,-6.7993054,-1.548719,0.50873959,-0.83942038,-0.19119987,0
6.784687,-2.9852626,3.2659199,0.83761567,-0.36855093,0.40319997,0
2.8979447,5.7958894,-4.8599987,0.35777092,0.71554184,-0.59999979,0
-2.1443117,-3.9157,-6.7586408,-0.26472983,-0.48341972,-0.83440006,0
3.1496394,7.3491607,-1.2960007,0.38884434,0.90730375,-0.16000009,0
6.6714678,-4.1055188,2.0606406,0.82363796,-0.50685418,0.25440004,0
8.0059738,0.86551118,-0.87480038,0.98839176,0.10685322,-0.10800004,0
-7.8866105,-1.4920613,-1.0886402,-0.97365558,-0.18420509,-0.13440003,0
-1.0316027,-7.7370229,2.1643198,-0.12735836,-0.95518798,0.26719996,0
4.6656003,6.2207999,-2.2680001,0.57600003,0.76799995,-0.28,0
-7.1826,3.1922669,-1.9569613,-0.88674068,0.39410701,-0.24160014,0
-7.7540998,0.77540922,2.2096798,-0.95729625,0.09572953,0.27279997,0
-7.8709202,-0.60545546,-1.8143994,-0.97171849,-0.074747585,-0.22399992,0
-1.8132427,-5.1375203,5.9940004,-0.2238571,-0.63426173,0.74000001,0
3.1622136,-7.4537892,-0.22679904,0.39039671,-0.92022085,-0.02799988,0
-3.3355346,0.62541258,-7.3547993,-0.41179436,0.077211425,-0.90799987,0
0.26385593,7.6518297,2.6438394,0.032574806,0.94467032,0.32639989,0
6.5406251,-1.5210755,-4.5295205,0.80748457,-0.18778709,-0.55920005,0
-5.2452588,-4.969193,3.6612,-0.6475628,-0.61348057,0.45199999,0
6.619453,-0.75221074,-4.6072803,0.8172164,-0.092865519,-0.56880003,0
1.3050395,2.1081409,-7.7112007,0.16111599,0.26026431,-0.95200002,0
-7.742662,-2.3462613,0.39528081,-0.95588416,-0.28966188,0.048800096,0
-1.4244214,7.300159,-3.2076018,-0.17585449,0.90125418,-0.39600021,0
-0.46289942,-0.72006583,-8.0546408,-0.057148073,-0.088897012,-0.99440002,0
1.0509593,5.9116473,-5.4367194,0.12974806,0.72983295,-0.67119992,0
2.7954125,-7.3697238,1.8662391,0.34511265,-0.90984237,0.23039988,0
-1.0509597,-5.9116468,-5.4367199,-0.12974811,-0.72983289,-0.67119998,0
1.2046534,-5.4209375,5.8968,0.14872263,-0.6692515,0.72799999,0
0.49723136,-7.9557095,1.4385604,0.061386585,-0.98218632,0.17760004,0
-0.32231051,1.6115544,7.9315205,-0.03979142,0.19895732,0.97920001,0
0.11035033,-5.18647,-6.2208004,0.013623497,-0.64030492,-0.76800001,0
0.15578802,-0.43070799,-8.0870409,0.019233087,-0.053173825,-0.99840009,0
-4.8007312,3.0004578,5.7931199,-0.59268284,0.37042686,0.71519995,0
4.3152862,1.5343243,-6.6808801,0.53275138,0.18942274,-0.82479995,0
-1.5852845,-2.8535116,7.4131203,-0.19571412,-0.35228536,0.9152,0
3.2517076,-7.2538099,1.5551994,0.40144536,-0.89553207,0.19199991,0
4.3919621,3.764539,-5.670002,0.54221749,0.46475789,-0.70000023,0
-5.8826771,-3.6567991,-4.1990399,-0.72625637,-0.45145667,-0.51839995,0
6.0818186,-3.8702471,3.6935997,0.75084174,-0.47780827,0.45599994,0
-3.2456973,7.4187374,0.19440056,-0.40070334,0.91589344,0.024000069,0
8.029685,-0.24332358,1.0368007,0.99131912,-0.030039947,0.12800008,0
1.5958444,2.2341814,7.6204805,0.19701782,0.27582484,0.94080001,0
1.2559836,-6.7509131,-4.2962403,0.1550597,-0.83344603,-0.53040004,0
-6.2710199,2.5654166,4.4388003,-0.77419996,0.31671807,0.54800004,0
-6.8567162,-3.7222173,-2.1772797,-0.84650815,-0.45953298,-0.26879996,0
2.8379741,7.5679302,0.53136027,0.35036716,0.93431234,0.06560003,0
-7.7045269,-2.421423,-0.62207997,-0.95117611,-0.29894111,-0.076799996,0
5.2509604,6.1261196,-0.71279931,0.64826667,0.756311,-0.08799991,0
-7.6135564,2.0035679,-1.9051201,-0.93994516,0.24735406,-0.2352,0
2.2357404,-6.7072229,3.9528,0.27601734,-0.82805216,0.48799998,0
2.4800971,2.1449487,-7.4066401,0.3061848,0.26480848,-0.91439998,0
-5.6132812,3.8981116,-4.3480806,-0.69299763,0.48124832,-0.53680003,0
-4.8976545,-6.0730915,-2.1772802,-0.60464865,-0.74976432,-0.26880002,0
6.5252023,-4.5174484,1.6200002,0.8055805,-0.55770963,0.20000002,0
-5.7781949,-4.4024339,3.5834401,-0.71335739,-0.54351032,0.44239998,0
-1.5210755,-6.5406251,-4.5295205,-0.18778709,-0.80748457,-0.55920005,0
-2.8029277,-6.446734,4.0240808,-0.34604046,-0.79589301,0.49680007,0
1.2865698,7.933847,-1.0044003,0.15883577,0.97948724,-0.12400003,0
2.8680873,6.0229812,4.5943203,0.35408482,0.7435779,0.56720001,0
7.0060277,-3.7532296,1.561681,0.86494166,-0.46336165,0.19280012,0
-0.62902755,-7.9676814,-1.3154398,-0.077657714,-0.98366433,-0.16239998,0
3.574723,6.7731595,-2.6373608,0.44132382,0.83619249,-0.32560009,0
5.2496161,-1.789642,-5.9032803,0.64810073,-0.22094344,-0.7288,0
2.2469819,-7.3026905,-2.6891994,0.27740514,-0.90156668,-0.33199993,0
7.7045269,-2.421423,-0.62208134,0.95117611,-0.29894111,-0.07680016,0
-5.7653794,3.1709592,4.7239203,-0.71177518,0.39147642,0.58320004,0
3.1563525,-5.8617978,-4.613759,0.38967314,-0.72367871,-0.56959987,0
5.3051977,1.4147196,-5.9551196,0.65496266,0.17465673,-0.73519993,0
-7.5290799,-2.5096931,1.6199996,-0.92951602,-0.30983865,0.19999994,0
-7.3697238,2.7954125,1.8662391,-0.90984237,0.34511265,0.23039988,0
-3.1506398,1.890384,7.2187204,-0.38896784,0.23338072,0.89120001,0
5.355711,5.1771874,-3.1816814,0.66119885,0.6391589,-0.39280015,0
3.1260877,2.6191545,-6.9984007,0.38593674,0.3233524,-0.86400002,0
-3.7184131,4.780817,-5.3784008,-0.45906332,0.59022433,-0.66400009,0
6.8366241,-1.1129388,-4.1990404,0.84402764,-0.13739984,-0.51840001,0
6.4467344,-2.8029277,4.0240798,0.79589307,-0.34604046,0.49679995,0
7.0060277,-3.7532296,1.561681,0.86494166,-0.46336165,0.19280012,0
0.23747212,-8.0740595,0.60263985,0.029317545,-0.99679744,0.074399978,0
6.2884727,-4.4543343,2.4948001,0.77635461,-0.54991776,0.308,0
-1.3935771,-6.9678836,3.888,-0.17204654,-0.86023247,0.47999999,0
2.7317171,4.5528626,6.1171212,0.33724901,0.56208175,0.75520009,0
-7.0502372,-3.8455844,-1.0562395,-0.87039959,-0.47476348,-0.13039993,0
4.5432525,-5.354548,-4.0370383,0.56089532,-0.66105527,-0.49839976,0
-0.99040169,-7.9232149,1.3608004,-0.12227181,-0.97817463,0.16800004,0
1.5092008,-3.1621354,-7.3029594,0.18632108,-0.39038706,-0.90159988,0
2.2878993,-3.3894806,-6.99192,0.2824567,-0.41845438,-0.86319995,0
-3.4759514,0.31599525,7.3094401,-0.42912978,0.039011758,0.90239996,0
3.6513186,1.6596901,-7.0372801,0.45078003,0.20490001,-0.86879998,0
-5.7275653,-5.7275653,0,-0.70710677,-0.70710677,0,0
2.0117555,-6.3226609,4.6461601,0.24836487,-0.78057539,0.57359999,0
-2.1268821,7.7985663,0.51840067,-0.26257801,0.9627859,0.064000078,0
3.1709592,5.7653794,4.7239203,0.39147642,0.71177518,0.58320004,0
5.4864221,-1.3411256,-5.8060799,0.67733604,-0.16557105,-0.71679997,0
-3.5938013,-5.1142559,-5.1516004,-0.44367915,-0.63138962,-0.63600004,0
-7.163868,1.1021342,3.6158404,-0.88442808,0.13606595,0.44640005,0
-5.343545,5.343545,2.9160008,-0.65969688,0.65969688,0.36000007,0
2.1443112,-3.9156988,-6.7586417,0.26472977,-0.48341957,-0.83440018,0
0.9034909,2.3089211,-7.7111993,0.11154208,0.28505197,-0.95199984,0
1.1591775,-6.3754778,-4.8600001,0.14310834,-0.78709596,-0.59999996,0
-2.7314086,0.27871522,-7.620481,-0.33721092,0.034409285,-0.94080007,0
7.5846868,-0.36998489,-2.8188016,0.93638104,-0.045677144,-0.3480002,0
4.3388672,-5.4637589,-4.1147995,0.53566259,-0.67453814,-0.5079999,0
6.1721282,-4.293654,3.0131996,0.76199108,-0.53008074,0.37199992,0
-1.8269465,4.8718576,6.20784,-0.22554894,0.60146385,0.76639998,0
5.6286178,2.0737011,5.4432006,0.69489104,0.25601247,0.67200005,0
-4.3536148,-0.31097221,6.8234406,-0.53748327,-0.038391631,0.84240001,0
-3.0208771,3.0208769,-6.8817592,-0.37294778,0.37294775,-0.84959984,0
-2.8084579,-3.1205084,6.9271202,-0.34672317,-0.38524795,0.85519999,0
2.4742537,0.78965527,-7.6723218,0.3054634,0.097488299,-0.94720018,0
-1.0506394,7.6171379,2.5466394,-0.12970856,0.94038737,0.31439993,0
6.2979808,3.5745292,-3.6287999,0.77752846,0.44129989,-0.44799995,0
-3.1579614,1.5789812,7.2900004,-0.38987175,0.19493593,0.90000004,0
5.161088,1.2143742,6.1236,0.63717133,0.14992273,0.75599998,0
-0.15579194,-0.4307189,-8.0870399,-0.019233571,-0.05317517,-0.99839997,0
1.5558753,4.0452747,6.8428802,0.19208336,0.49941662,0.8448,0
-5.0779347,4.9141307,-3.9592807,-0.6269055,0.60668278,-0.48880008,0
-0.23129132,-8.0952034,0.15552029,-0.028554482,-0.99940777,0.019200034,0
-3.8981116,5.6132812,-4.3480806,-0.48124832,0.69299763,-0.53680003,0
5.3387499,-2.6693749,5.4756002,0.65910488,-0.32955244,0.676,0
-1.073414,-1.5717846,-7.8732004,-0.13252024,-0.19404748,-0.972,0
-3.8947442,-7.102181,1.9311905e-07,-0.48083258,-0.8768124,2.3841856e-08,0
-5.1180024,6.1842532,-1.0821612,-0.63185215,0.76348799,-0.13360015,0
0.21782807,-8.0596457,-0.77760023,0.026892353,-0.99501795,-0.096000023,0
0.18533234,7.5986338,-2.7993615,0.022880536,0.9381029,-0.34560016,0
-6.6678514,4.5985174,0.058319505,-0.82319152,0.56771815,0.0071999384,0
-0.38793525,-7.7587008,-2.2939205,-0.047893237,-0.95786428,-0.28320006,0
-3.8373146,-4.7228489,5.3460002,-0.47374251,-0.58306772,0.65999997,0
2.1972356,6.1522613,-4.7887206,0.27126363,0.75953841,-0.59120005,0
3.3639719,-0.93046021,-7.309442,0.41530517,-0.11487163,-0.9024002,0
