1.1806437,-6.4935417,-4.9499998,0.14310832,-0.78709596,-0.59999996,0
5.3151932,-6.2815909,0.59399951,0.64426583,-0.76140499,0.071999937,0
-2.3135798,6.0731473,-5.0820007,-0.28043392,0.73613906,-0.61600012,0
-1.92478,-7.9129844,-1.3200003,-0.23330666,-0.9591496,-0.16000004,0
7.9587026,-1.4660766,-1.6037997,0.96469122,-0.17770626,-0.19439997,0
6.0999427,-5.33745,1.5377995,0.73938698,-0.64696366,0.18639994,0
6.9252181,-4.1971021,-1.577399,0.83942038,-0.50873965,-0.19119988,0
6.0341043,-4.6627164,3.1481996,0.73140657,-0.56517774,0.38159993,0
-2.441911,7.3257327,-2.9039991,-0.29598922,0.88796759,-0.35199988,0
2.4444962,1.9941944,-7.6229997,0.29630256,0.24172053,-0.92399997,0
-8.2444115,0,-0.30360067,-0.99932259,0,-0.036800083,0
-6.9836922,3.7911472,-2.2175996,-0.84650815,0.45953301,-0.26879996,0
1.8537657,7.6798882,2.3759992,0.22469887,0.93089557,0.2879999,0
6.0204687,2.6431327,-4.9830017,0.72975379,0.32037973,-0.60400021,0
2.7625782,-4.9112515,6.0258002,0.33485797,-0.59530324,0.73040003,0
-0.38342547,5.87919,-5.7749987,-0.046475817,0.71262908,-0.69999981,0
-1.6744761,-7.256063,3.5508003,-0.20296681,-0.8795228,0.43040004,0
2.5056365,6.4206929,-4.5342021,0.3037135,0.77826583,-0.54960024,0
-4.435122,5.7997746,-3.8411984,-0.53759056,0.70300299,-0.46559981,0
1.91682,-3.5141704,7.2138,0.23234183,-0.42596006,0.87440002,0
-5.096499,1.8532726,-6.2172003,-0.61775744,0.2246391,-0.75360006,0
-6.4236145,-3.3808496,-3.9203994,-0.77861995,-0.40979996,-0.47519994,0
6.498805,5.054626,0.52800125,0.78773397,0.61268193,0.064000152,0
3.0351672,7.5879192,-1.1286008,0.36789906,0.91974777,-0.1368001,0
-6.980978,3.490489,2.6730003,-0.84617913,0.42308956,0.32400003,0
-3.9554212,-7.1692014,1.0097992,-0.47944498,-0.86899412,0.12239991,0
7.3914218,-0.87993139,-3.5574009,0.89592993,-0.10665835,-0.43120012,0
4.4110713,-1.5753832,6.7914,0.5346753,-0.19095553,0.82319999,0
4.8133645,6.1611061,-2.6333997,0.5834381,0.74680072,-0.31919998,0
-1.9709591,6.0536609,-5.2470002,-0.23890413,0.73377705,-0.63600004,0
7.6689048,2.2199464,-2.079,0.92956424,0.26908442,-0.252,0
0.63304919,-4.4313478,6.9300003,0.076733232,-0.5371331,0.84000003,0
-6.5630956,3.8284719,-3.2142,-0.79552674,0.46405721,-0.38960001,0
-5.2710118,0.6201185,6.3162003,-0.63891053,0.075165875,0.76560003,0
5.5302644,-0.92171079,6.0521998,0.67033505,-0.11172252,0.73359996,0
-2.2755549,-1.625397,7.7616,-0.27582484,-0.19701782,0.94080001,0
3.4341443,7.1324534,2.3232007,0.41625991,0.8645398,0.28160009,0
5.0012507,0.31257781,6.5537996,0.6062122,0.037888221,0.79439998,0
3.4931092,2.5404422,7.0289998,0.42340717,0.30793238,0.852,0
-0.55487156,7.4907613,3.4122007,-0.067257158,0.90797108,0.41360009,0
-0.97844863,2.2830465,7.8671999,-0.11859983,0.27673292,0.95359999,0
-3.0976086,-7.4342604,-1.7886008,-0.37546772,-0.90112245,-0.21680009,0
7.1317115,4.1409941,-0.23100027,0.86444986,0.5019387,-0.028000033,0
2.5056372,-6.4206939,-4.5342002,0.30371359,-0.77826595,-0.54960001,0
4.7209606,-0.31473044,6.7584004,0.57223767,-0.038149145,0.81920004,0
-1.6334146,1.6334147,-7.920001,-0.19798966,0.19798967,-0.9600001,0
-0.20640156,-8.0496683,-1.7951993,-0.02501837,-0.97571737,-0.21759991,0
-3.3808496,-6.4236145,-3.9203994,-0.40979996,-0.77861995,-0.47519994,0
-5.7715859,1.7052413,-5.6429996,-0.69958615,0.20669591,-0.68399996,0
1.9903576,-2.8433685,-7.4843993,0.24125548,-0.34465075,-0.90719992,0
1.3062005,1.9592999,7.9067998,0.15832734,0.23749089,0.95839995,0
-3.1782956,2.8604653,7.0554004,-0.38524795,0.34672308,0.85520005,0
-6.6617475,-1.5492436,-4.6134005,-0.80748457,-0.1877871,-0.55920005,0
-8.0283785,-1.8890305,0.1979997,-0.97313678,-0.22897339,0.023999963,0
0.43779448,5.1440825,-6.4350019,0.053065997,0.62352514,-0.78000021,0
3.0220795,-7.5551987,1.3595995,0.36631265,-0.91578168,0.16479993,0
2.5823627,-6.5993729,4.2240005,0.31301364,-0.79992396,0.51200008,0
-6.2395658,5.3481998,-0.72600037,-0.756311,0.64826667,-0.088000044,0
3.9882133,5.9823198,4.0458007,0.48341981,0.72512966,0.49040008,0
8.2191868,-0.70450169,0.1055989,0.99626505,-0.085394144,0.012799866,0
6.2936287,-4.5771847,-2.7389996,0.76286411,-0.55481029,-0.33199996,0
6.4729657,0,-5.1149993,0.78460193,0,-0.61999989,0
-7.9767847,1.7247099,-1.2078,-0.966883,0.20905574,-0.1464,0
4.4313478,0.63304919,6.9300003,0.5371331,0.076733232,0.84000003,0
-0.75836849,-8.089263,1.4322003,-0.091923453,-0.98051673,0.17360003,0
3.1652496,-3.1652486,6.9299998,0.3836666,-0.38366652,0.83999997,0
6.8601213,4.3193364,1.5312003,0.83152986,0.52355593,0.18560004,0
7.8578815,-1.3096472,2.1449995,0.95247048,-0.15874511,0.25999993,0
-2.0712855,6.2138567,5.0160007,-0.2510649,0.75319475,0.6080001,0
0,7.9200001,2.3099995,0,0.96000004,0.27999994,0
-6.0341039,4.6627169,3.1481996,-0.73140651,0.5651778,0.38159993,0
0.31257781,5.0012507,6.5537996,0.037888221,0.6062122,0.79439998,0
-1.1080927,-7.5719662,-3.0821998,-0.13431427,-0.91781408,-0.37359998,0
-3.667011,-7.072093,2.1450009,-0.44448617,-0.85722339,0.26000011,0
-8.0537825,0,-1.7885993,-0.97621608,0,-0.21679991,0
6.5022898,-4.8242793,-1.5839998,0.78815633,-0.58476114,-0.19199997,0
1.0302773,7.9846444,1.8017998,0.12488209,0.96783566,0.21839997,0
-1.1667265,-8.1670837,1.9669531e-07,-0.14142139,-0.98994952,2.3841856e-08,0
-6.2987761,5.21278,-1.1022011,-0.76348799,0.63185215,-0.13360013,0
8.089263,0.75836772,1.4322004,0.98051673,0.091923356,0.17360005,0
-2.466264,-7.8472028,-0.63359994,-0.29894111,-0.95117611,-0.076799989,0
5.4415507,4.5823593,4.1777997,0.6595819,0.55543751,0.50639999,0
7.6530404,-0.27332264,3.069001,0.92764127,-0.033130016,0.37200013,0
-3.9668689,7.2337027,1.9669531e-07,-0.48083258,0.87681246,2.3841856e-08,0
5.3221869,3.8438015,4.9962001,0.64511359,0.46591532,0.6056,0
-7.334022,1.0477175,-3.6300008,-0.88897234,0.12699606,-0.44000009,0
6.2115178,3.6933355,-3.9798012,0.75291127,0.44767705,-0.48240015,0
-4.4988575,1.8404417,-6.6659999,-0.54531604,0.22308384,-0.80799997,0
-0.11239379,5.2825136,-6.3360019,-0.01362349,0.64030468,-0.76800025,0
-5.0964994,-6.4864535,-0.11880001,-0.6177575,-0.78623676,-0.014400001,0
2.9694059,-5.6560116,-5.2205997,0.35992798,-0.68557715,-0.63279998,0
-6.6550059,-2.0254364,4.4352002,-0.80666739,-0.24550745,0.53760004,0
1.2461253,4.9844995,6.4547992,0.1510455,0.60418177,0.78239989,0
-5.9032197,2.9516096,-4.9499998,-0.71554178,0.35777086,-0.59999996,0
-7.0355754,-3.9316449,-1.7622001,-0.85279703,-0.47656301,-0.21360001,0
8.0880566,-0.85137427,-1.3859997,0.98037052,-0.10319688,-0.16799997,0
6.5022893,4.8242798,-1.5840007,0.78815627,0.5847612,-0.19200009,0
6.5048957,-0.8870312,4.9961991,0.78847218,-0.10751893,0.60559988,0
3.4622264,7.4190578,1.0163997,0.41966382,0.89927971,0.12319997,0
-5.9415689,0.12916441,-5.7222004,-0.72019017,0.015656292,-0.69360006,0
0.64016539,3.840996,7.2732,0.077595808,0.46557528,0.88160002,0
6.2830296,0.59838325,5.3130007,0.76157933,0.072531305,0.64400005,0
6.0534987,5.5692191,0.6335994,0.73375744,0.67505687,0.076799929,0
-5.1783724,-3.8837786,-5.1149998,-0.62768149,-0.47076103,-0.61999995,0
5.1125426,5.1125426,3.9731996,0.61970216,0.61970216,0.48159996,0
-2.4018471,7.4724121,2.5410011,-0.29113299,0.90574694,0.30800012,0
-2.8433685,1.9903576,-7.4843993,-0.34465075,0.24125548,-0.90719992,0
1.625397,-2.2755549,7.7616,0.19701782,-0.27582484,0.94080001,0
0.24782956,8.1783829,1.0560007,0.030039946,0.99131912,0.12800008,0
-1.9171607,-7.394763,3.1152008,-0.23238312,-0.89633489,0.3776001,0
-5.9311934,2.6690364,5.0754008,-0.71893251,0.32351956,0.6152001,0
1.927019,-6.7445664,-4.3428011,0.23357806,-0.81752318,-0.52640015,0
-0.31257781,-5.0012498,6.5538001,-0.037888221,-0.60621208,0.79440004,0
-4.8889923,-3.3451002,-5.7419996,-0.59260511,-0.40546668,-0.69599998,0
1.9247794,-7.9129844,-1.3199999,0.2333066,-0.9591496,-0.16,0
-6.4935412,1.1806445,4.9499998,-0.7870959,0.14310843,0.59999996,0
-6.2646589,1.1932689,5.2337995,-0.75935262,0.14463866,0.63439995,0
3.1946185,-7.1878905,2.4882007,0.38722649,-0.87125945,0.30160007,0
-1.8404417,4.4988575,-6.6659999,-0.22308384,0.54531604,-0.80799997,0
7.8860445,-2.3897104,0.4026008,0.95588416,-0.28966188,0.048800096,0
7.0679622,-2.7184472,-3.2735994,0.85672271,-0.32950875,-0.39679992,0
-4.1639352,5.3976946,-4.6464005,-0.50471944,0.654266,-0.56320006,0
1.0704215,-6.021122,-5.5373993,0.12974806,-0.72983295,-0.67119992,0
-1.3533702,-8.1202211,-0.5412007,-0.16404487,-0.9842692,-0.065600082,0
-8.1696777,0.49513152,1.0362008,-0.99026394,0.060015943,0.1256001,0
2.5404422,-3.4931092,7.0289998,0.30793238,-0.42340717,0.852,0
7.2559152,-1.7697352,-3.5046012,0.87950486,-0.21451336,-0.42480016,0
-0.76614052,-6.7420349,-4.6925998,-0.092865519,-0.81721634,-0.56879997,0
3.7300801,-6.0255146,4.224,0.45213091,-0.7303654,0.51200002,0
-8.0166779,-0.61666757,-1.8479992,-0.97171855,-0.074747585,-0.2239999,0
7.2965322,-1.1225432,3.6828003,0.88442814,-0.13606584,0.44640005,0
7.3503795,2.9798832,-2.2703998,0.89095509,0.36119795,-0.27519998,0
7.6417484,2.9580963,0.95699984,0.92627251,0.35855713,0.11599998,0
0,7.520247,-3.392401,0,0.9115451,-0.41120011,0
-7.8976936,-0.78976935,2.2505996,-0.95729619,-0.095729619,0.27279997,0
2.4989517,4.3731656,6.5340004,0.30290323,0.53008068,0.79200006,0
-4.8157396,-1.8606266,-6.4349995,-0.58372599,-0.22553049,-0.77999991,0
2.2867832,0.32668301,7.9200001,0.27718586,0.03959794,0.96000004,0
-6.2987761,-5.21278,-1.1022011,-0.76348799,-0.63185215,-0.13360013,0
-3.6603529,-5.2089643,-5.2469997,-0.44367915,-0.63138962,-0.63599998,0
-7.086009,3.255734,-2.6928005,-0.8589102,0.39463443,-0.32640007,0
0.975438,2.6011698,7.7682004,0.11823491,0.31529331,0.94160002,0
-6.4981518,4.6786695,1.9865998,-0.78765476,0.56711143,0.24079998,0
-2.2199464,7.6689048,-2.079,-0.26908442,0.92956424,-0.252,0
5.1606259,4.8739252,4.2041993,0.62553042,0.59077883,0.50959992,0
-2.0433369,-5.8575654,-5.4384007,-0.24767719,-0.71000791,-0.65920007,0
7.1236444,3.6635883,-1.9734013,0.86347204,0.44407129,-0.23920016,0
3.5688853,6.6024384,-3.4254,0.43259215,0.80029559,-0.4152,0
1.8667625,7.4670477,-2.9699991,0.22627425,0.90509671,-0.3599999,0
-4.4839606,5.8851976,3.6498008,-0.54351038,0.71335727,0.4424001,0
-4.4516492,1.2580748,-6.8310003,-0.53959382,0.15249391,-0.82800007,0
-1.9742054,-7.050734,3.8016,-0.23929763,-0.8546344,0.46079999,0
-0.63699353,3.3972988,-7.4910011,-0.077211335,0.4117938,-0.90800011,0
-7.3548999,2.7096999,-2.5739994,-0.89150304,0.32844847,-0.31199992,0
3.1504197,-2.9703953,-7.0224004,0.38186905,-0.36004791,-0.85120004,0
6.6829033,3.3414516,3.4979997,0.81004888,0.40502444,0.42399997,0
-2.5785651,-7.7356954,-1.2540008,-0.31255335,-0.93766004,-0.1520001,0
0.15660216,-6.890501,-4.5341997,0.018982081,-0.83521223,-0.54959995,0
-5.1010909,-3.6007705,5.3922,-0.61831403,-0.43645704,0.65359998,0
3.5015779,-7.4700341,0.0066007744,0.42443368,-0.90545869,0.00080009387,0
-5.3468308,-1.8227834,-6.0125999,-0.64810073,-0.22094344,-0.7288,0
2.027822,-7.8578124,1.4850001,0.24579661,-0.95246214,0.18000002,0
7.4226232,-1.649472,3.2010007,0.89971191,-0.199936,0.38800007,0
-1.7052413,5.7715859,-5.6429996,-0.20669591,0.69958615,-0.68399996,0
6.3557148,-2.8889608,4.3955994,0.77038968,-0.35017708,0.5327999,0
5.836916,-5.4343691,-2.1120002,0.70750499,-0.65871143,-0.25600004,0
2.2642713,-2.2642713,7.6032,0.27445713,-0.27445713,0.92159998,0
3.1348269,3.7617917,6.6395998,0.37997901,0.45597476,0.80479997,0
2.2872498,0,7.9266,0.27724239,0,0.96079999,0
-6.3557143,2.8889618,4.3955998,-0.77038962,0.3501772,0.53279996,0
0,6.9479666,4.4483995,0,0.84217775,0.53919995,0
-2.4113762,-5.6265445,-5.5308013,-0.29228804,-0.68200541,-0.67040014,0
-7.4353476,-1.4507997,-3.267,-0.90125424,-0.1758545,-0.396,0
-6.5291648,-3.1226444,3.96,-0.7914139,-0.37850237,0.48000002,0
6.7762752,3.4797087,-3.1680002,0.82136667,0.42178288,-0.38400003,0
5.5958037,-6.0621204,-0.013199975,0.67827922,-0.73480248,-0.0015999969,0
-6.4062166,4.3336177,-2.8710008,-0.77651113,0.52528697,-0.34800008,0
1.925391,-3.2089846,7.3523998,0.23338072,-0.38896784,0.89120001,0
4.4824152,-4.4824157,5.2800002,0.54332304,-0.5433231,0.64000005,0
3.3746786,-7.268539,1.9602001,0.40905195,-0.88103503,0.23760001,0
5.7328515,-2.112103,5.5440001,0.6948911,-0.25601247,0.67199999,0
4.3128266,-6.4692392,2.7587991,0.52276689,-0.78415018,0.33439988,0
7.1515346,-0.66525888,-4.0590005,0.8668527,-0.08063744,-0.49200007,0
-0.57111984,-2.2844791,-7.9067993,-0.069226645,-0.27690655,-0.95839989,0
2.0406709,7.7545476,-1.9404001,0.24735405,0.93994516,-0.23520002,0
7.2783484,-1.3996828,3.6234002,0.88222408,-0.16965851,0.43920001,0
-0.63675499,-4.138905,7.1082001,-0.07718242,-0.50168544,0.86159998,0
6.2115188,-3.6933353,-3.9798002,0.75291139,-0.44767702,-0.48240003,0
6.0621204,5.5958037,-0.013199975,0.73480248,0.67827922,-0.0015999969,0
5.2825136,0.11239379,-6.3360019,0.64030468,0.01362349,-0.76800025,0
7.2783484,1.3996828,3.6234002,0.88222408,0.16965851,0.43920001,0
-5.8952823,-1.1790565,-5.6495996,-0.71457964,-0.14291595,-0.68479997,0
-2.1086977,-7.6440282,2.276999,-0.25559971,-0.9265489,0.27599987,0
-6.3093028,4.1461139,-3.3264003,-0.76476395,0.50255924,-0.40320003,0
-4.435122,5.7997746,-3.8411984,-0.53759056,0.70300299,-0.46559981,0
-8.0283785,-1.8890305,0.1979997,-0.97313678,-0.22897339,0.023999963,0
3.7442424,3.4322226,6.5009999,0.45384756,0.41602698,0.78799999,0
8.0373125,0.41216949,-1.8149992,0.97421968,0.049959939,-0.21999991,0
4.141572,-0.31858218,7.1280003,0.50200874,-0.03861602,0.86400002,0
6.8743358,-1.8004215,-4.1910009,0.83325285,-0.2182329,-0.50800014,0
6.3821964,-1.3054494,-5.0622001,0.77359957,-0.15823628,-0.61360002,0
6.9360785,-4.1102691,1.7490008,0.84073681,-0.49821442,0.2120001,0
1.3389063,-3.1710937,-7.4975991,0.16229168,-0.38437501,-0.90879989,0
-7.0943704,1.5202217,-3.9270005,-0.85992366,0.18426929,-0.47600007,0
3.0768204,3.0768204,-7.0091977,0.37294793,0.37294793,-0.84959972,0
4.911252,-2.762579,6.0257993,0.5953033,-0.33485806,0.73039991,0
0.47147161,-0.73340034,-8.2038002,0.057148073,-0.088897012,-0.99440002,0
3.8238103,-1.5932546,7.1345997,0.46349216,-0.19312176,0.86479998,0
-5.1293931,-3.3190196,5.5440001,-0.62174463,-0.40230539,0.67199999,0
7.932044,-1.5352345,1.6697999,0.96145988,-0.18608902,0.20239998,0
3.7703218,5.8004947,4.4946003,0.45700872,0.70309025,0.54480004,0
3.2304964,5.726788,-4.9830003,0.39157534,0.69415611,-0.60400003,0
-4.4901738,-4.4901738,-5.2667994,-0.54426348,-0.54426348,-0.63839996,0
8.089263,-0.75836849,1.4322003,0.98051673,-0.091923453,0.17360003,0
0.65933907,0.32966954,8.217,0.07991989,0.039959945,0.99599999,0
0.64328784,3.5380869,7.4249997,0.077974282,0.42885903,0.89999998,0
3.4797087,-6.7762752,-3.1680002,0.42178288,-0.82136667,-0.38400003,0
3.7609718,-0.96024811,-7.2798018,0.45587537,-0.11639371,-0.88240021,0
2.7435646,0.62873363,-7.7550015,0.3325533,0.076210141,-0.94000018,0
5.9726467,-4.8867106,2.9171989,0.72395718,-0.59232855,0.35359988,0
7.3739309,-3.3709395,-1.524601,0.8938098,-0.40859872,-0.18480012,0
5.2551188,-0.22362219,-6.3558016,0.63698411,-0.027105719,-0.77040017,0
-5.8240576,-0.50643963,-5.8212004,-0.70594639,-0.061386622,-0.70560002,0
-5.4626913,6.1752162,0.29700065,-0.66214442,0.74851108,0.036000077,0
8.1212559,-1.0974673,-0.95040029,0.98439467,-0.13302635,-0.11520004,0
3.1710937,1.3389063,-7.4975991,0.38437501,0.16229168,-0.90879989,0
-0.31431502,2.566906,-7.8342009,-0.03809879,0.31114012,-0.9496001,0
3.1782966,-2.8604662,7.0553994,0.38524806,-0.34672317,0.85519993,0
2.5389254,7.8475857,-0.17819904,0.30774853,0.95122248,-0.021599883,0
1.3720683,0.25201246,-8.1311998,0.16631131,0.030546965,-0.98559999,0
-3.3852789,6.4884515,3.8081994,-0.41033685,0.786479,0.46159992,0
-7.4379249,2.2885926,-2.7389994,-0.90156662,0.27740517,-0.33199993,0
-4.9608793,1.5433846,-6.4085989,-0.60131872,0.18707691,-0.77679986,0
-8.0386667,-1.83741,-0.25739986,-0.97438383,-0.22271636,-0.031199982,0
-6.1936674,3.1762395,-4.4285989,-0.75074756,0.38499874,-0.53679985,0
-5.118619,4.0948949,-5.0093985,-0.62043864,0.49635088,-0.60719979,0
-7.8123989,2.268115,1.3728002,-0.94695747,0.27492303,0.16640003,0
7.2385178,-2.9490263,2.6400006,0.87739611,-0.35745773,0.32000008,0
-5.0612149,5.3423929,3.7289999,-0.61348057,0.6475628,0.45199999,0
6.2623115,-4.9576631,2.0657997,0.75906807,-0.60092884,0.25039998,0
7.9175248,-0.26391724,2.3033996,0.95969999,-0.031989969,0.27919996,0
-5.6452923,5.3764687,2.6994002,-0.68427783,0.65169317,0.32720003,0
-7.4724126,-2.4018469,2.5409999,-0.905747,-0.29113296,0.308,0
-4.340673,6.9933066,0.56099904,-0.52614218,0.84767354,0.067999884,0
-6.4113493,-0.42742333,-5.1743994,-0.77713323,-0.05180889,-0.62719995,0
4.2423573,4.2423573,5.6628003,0.51422513,0.51422513,0.68640006,0
1.9742054,7.050734,3.8016,0.23929763,0.8546344,0.46079999,0
-4.8896337,-3.0560207,5.9004002,-0.59268284,-0.37042674,0.71520001,0
-7.1428041,-0.28571188,4.1184001,-0.86579442,-0.034631744,0.49920002,0
-8.0144768,-1.5027144,1.2540003,-0.97145176,-0.1821472,0.15200004,0
3.2306316,-0.64612651,7.5635996,0.3915917,-0.078318365,0.91679996,0
-3.6710184,-7.3420367,0.82499939,-0.44497192,-0.88994384,0.099999927,0
-3.5701549,5.3552322,5.1611996,-0.43274605,0.64911908,0.62559992,0
-2.800633,4.3565397,6.4218001,-0.33947065,0.52806544,0.7784,0
-3.1839781,2.6676571,-7.1280003,-0.38593674,0.32335237,-0.86400002,0
-2.179739,-4.6708703,6.4415998,-0.26421079,-0.5661661,0.78079998,0
-6.1039972,5.4499979,-1.0494001,-0.73987848,0.66060579,-0.12720001,0
3.9554217,7.1692014,1.0097986,0.47944504,0.86899412,0.12239984,0
-3.0477998,4.1362996,-6.4547997,-0.36943027,0.50136966,-0.78239995,0
-3.1236901,7.2235336,-2.4750001,-0.37862912,0.87557983,-0.30000001,0
0.37683588,7.7251439,-2.8710015,0.045677077,0.9363811,-0.34800017,0
0,7.3287463,3.7884004,0,0.8883329,0.45920005,0
6.5661182,-2.8548336,4.0985994,0.79589313,-0.34604043,0.49679995,0
-1.3533702,-8.1202211,-0.5412007,-0.16404487,-0.9842692,-0.065600082,0
6.6024384,3.5688853,-3.4254,0.80029559,0.43259215,-0.4152,0
-5.8369679,-5.306334,2.4156003,-0.70751125,-0.64319199,0.29280004,0
2.6059885,0,7.8276,0.31587741,0,0.94880003,0
1.9464405,-7.2296362,3.4650004,0.23593217,-0.87631953,0.42000005,0
7.0222821,-4.3039794,-0.47520003,0.85118574,-0.52169448,-0.057600003,0
3.0351675,-7.5879192,-1.1285994,0.36789909,-0.91974777,-0.13679993,0
4.1971021,-6.9252181,-1.577399,0.50873965,-0.83942038,-0.19119988,0
2.052525,7.9820447,-0.3696008,0.24879092,0.96752059,-0.044800099,0
1.946049,-2.2703903,7.6890001,0.23588473,-0.27519882,0.93200004,0
-1.5172828,5.7656732,5.7024002,-0.18391307,0.69886947,0.69120002,0
-0.32966954,-0.65934002,8.217,-0.039959945,-0.079920001,0.99599999,0
-1.3570187,-7.5993032,2.9105999,-0.16448712,-0.92112768,0.35279998,0
-1.9567636,7.6313787,-2.4485991,-0.23718347,0.92501557,-0.2967999,0
-3.5438619,6.8151193,3.0096002,-0.42955902,0.82607508,0.36480001,0
5.2474113,4.3728418,4.6266003,0.63604987,0.53004146,0.56080002,0
1.8862956,7.5451822,2.7522011,0.22864188,0.91456753,0.33360013,0
3.5241773,-7.0483546,-2.4420009,0.42717302,-0.85434604,-0.29600009,0
-4.4238725,-0.09216392,-6.9629993,-0.53622699,-0.011171385,-0.84399992,0
-7.1807971,3.9167986,-1.0757995,-0.87039965,0.47476345,-0.13039994,0
-3.7281995,6.9237995,2.4948006,-0.45190296,0.83924842,0.30240008,0
-6.2228417,-0.82971227,-5.3525991,-0.75428385,-0.10057119,-0.6487999,0
-7.3285651,-3.7824852,0.21779998,-0.88831091,-0.45848307,0.026399998,0
-5.4309611,-0.94451511,-6.1380005,-0.65829831,-0.11448668,-0.74400008,0
-0.95355731,-6.1300116,-5.4383993,-0.1155827,-0.74303168,-0.65919989,0
6.336,5.0688,-1.4916008,0.76800001,0.61439997,-0.1808001,0
0.49513152,-8.1696777,1.0362008,0.060015943,-0.99026394,0.1256001,0
0.98204803,-7.0380111,-4.1910005,0.11903612,-0.85309225,-0.50800008,0
-7.9846444,1.0302773,1.8017998,-0.96783566,0.12488209,0.21839997,0
-6.5845647,-3.8409956,3.1547999,-0.79812908,-0.46557522,0.38240001,0
-3.8837786,-5.1783724,-5.1149998,-0.47076103,-0.62768149,-0.61999995,0
3.4622264,7.4190578,1.0163997,0.41966382,0.89927971,0.12319997,0
2.4827225,-4.6551061,6.3425999,0.30093607,-0.5642553,0.76879996,0
-8.2483501,0,0.16500027,-0.99980003,0,0.020000033,0
0.29940996,6.2876143,5.3328004,0.036292117,0.76213509,0.64640003,0
-1.5660787,-7.8303933,2.0723996,-0.18982771,-0.94913858,0.25119996,0
-7.0814891,2.9960151,2.9898002,-0.85836232,0.36315334,0.36240003,0
-5.8310919,4.720408,3.4319994,-0.70679903,0.57217067,0.41599992,0
4.7449555,-4.4483953,5.0753994,0.57514614,-0.53919941,0.61519992,0
0.96024811,3.7609718,-7.2798018,0.11639371,0.45587537,-0.88240021,0
-3.0560207,4.8896341,5.9003997,-0.37042674,0.5926829,0.71519995,0
-6.5710616,-4.4683218,2.2176003,-0.79649234,-0.54161477,0.26880005,0
-5.2825155,0.11239385,-6.336,-0.64030492,0.013623497,-0.76800001,0
-5.6616888,5.4664574,-2.4749997,-0.68626529,0.66260087,-0.29999995,0
3.2079661,7.4852557,-1.3200006,0.38884437,0.90730375,-0.16000009,0
2.5159242,6.9886804,3.5904002,0.30496052,0.84711277,0.43520004,0
-6.336,-5.0688,-1.4916008,-0.76800001,-0.61439997,-0.1808001,0
5.959621,-5.5339341,-1.3859986,0.72237831,-0.67077988,-0.16799983,0
-0.27332261,-7.6530409,3.069,-0.033130012,-0.92764133,0.37200001,0
-1.7419499,6.677475,4.5209994,-0.21114545,0.8093909,0.54799992,0
6.1061735,-4.6258893,-3.0623994,0.74014223,-0.56071383,-0.37119994,0
-0.25201216,-1.3720663,-8.1312008,-0.03054693,-0.16631106,-0.98560011,0
-7.7545481,-2.0406704,-1.9403996,-0.93994522,-0.24735399,-0.23519996,0
7.6313787,-1.9567636,-2.4485991,0.92501557,-0.23718347,-0.2967999,0
7.0380111,0.98204803,-4.1910005,0.85309225,0.11903612,-0.50800008,0
-1.4181556,6.7756319,-4.4880004,-0.17189765,0.8212887,-0.54400003,0
-7.268539,3.3746786,1.9602001,-0.88103503,0.40905195,0.23760001,0
6.1015487,-3.1960499,4.5408006,0.73958164,-0.3874,0.55040008,0
-0.60432392,-6.0432358,5.5836005,-0.073251382,-0.73251343,0.67680007,0
-4.8123455,-3.9873724,-5.3856006,-0.5833146,-0.48331785,-0.65280008,0
-1.625397,2.2755549,7.7616,-0.19701782,0.27582484,0.94080001,0
5.178246,-2.7414243,5.8079996,0.62766618,-0.33229387,0.70399994,0
-5.7983093,0.3051739,5.8608003,-0.70282537,0.036990777,0.71040004,0
4.1815472,-6.795013,2.0987997,0.50685418,-0.82363796,0.25439996,0
0.54616696,7.6463437,3.049201,0.066202052,0.92682952,0.36960012,0
-1.6417297,0,8.085,-0.19899754,0,0.98000002,0
3.6294,-4.8392,5.6100001,0.43992728,-0.58656973,0.68000001,0
7.6440282,-2.1086977,2.276999,0.9265489,-0.25559971,0.27599987,0
-8.11129,0.25347757,1.4850004,-0.98318666,0.030724555,0.18000005,0
7.2764454,3.865612,-0.41580006,0.88199335,0.46855903,-0.050400008,0
-5.2745934,-0.31026992,6.3360004,-0.63934463,-0.037608474,0.76800007,0
-1.4216834,6.2554078,-5.1875997,-0.17232527,0.75823122,-0.62879997,0
0.32184699,3.5403206,7.4447999,0.039011758,0.42912978,0.90240002,0
7.0611978,-4.0349703,1.3860011,0.85590273,-0.48908731,0.16800013,0
1.2669257,4.162756,-7.0091987,0.15356675,0.5045765,-0.84959984,0
1.9378388,-7.9935865,0.64020091,0.23488955,-0.96891958,0.077600114,0
-5.9161925,-5.6696839,0.95700002,-0.71711427,-0.6872344,0.116,0
-4.5696125,5.1999035,-4.4879999,-0.55389243,0.63029134,-0.54399997,0
-3.8656116,-7.2764454,-0.41579941,-0.46855897,-0.88199335,-0.050399929,0
-5.2650375,-0.92912441,6.2832003,-0.6381864,-0.11262114,0.76160002,0
-6.3630133,0.56560147,-5.2205992,-0.77127433,0.068557754,-0.63279992,0
-0.53699857,-7.7864761,2.6729991,-0.065090738,-0.94381529,0.32399988,0
2.5260246,2.1846697,-7.5437999,0.3061848,0.26480845,-0.91439998,0
-2.8548336,6.5661182,4.0985994,-0.34604043,0.79589313,0.49679995,0
-4.4140086,6.9694877,-0.072600409,-0.53503132,0.84478641,-0.0088000493,0
4.3193364,6.8601213,1.5312003,0.52355593,0.83152986,0.18560004,0
-4.2846308,-4.1547937,-5.6957989,-0.51934916,-0.50361139,-0.69039989,0
-3.5343604,-0.96391642,7.3919997,-0.42840731,-0.11683835,0.89599997,0
0.33249825,-5.2091441,-6.3887997,0.040302817,-0.63141143,-0.77439994,0
-2.2069869,4.09869,6.8112001,-0.26751357,0.49681091,0.82560003,0
5.9069819,5.1014838,2.6729991,0.71599782,0.61836165,0.32399988,0
-2.5974169,-1.298708,7.7220001,-0.31483841,-0.15741915,0.93599999,0
0.85530418,7.1275415,4.0655999,0.10367323,0.86394441,0.4928,0
4.2943635,-3.6808836,6.006,0.52052891,-0.44616771,0.72799999,0
6.2623115,4.9576631,2.0657997,0.75906807,0.60092884,0.25039998,0
0.73340034,0.47147161,-8.2038002,0.088897012,0.057148073,-0.99440002,0
-6.3821964,-1.3054494,-5.0622001,-0.77359957,-0.15823628,-0.61360002,0
0,7.2410722,-3.9534004,0,0.87770569,-0.47920004,0
7.0217147,-2.246949,3.7025998,0.85111696,-0.27235746,0.44879997,0
2.0987585,-5.6404123,-5.6430011,0.25439498,-0.68368632,-0.68400013,0
6.4049253,-4.5368214,2.5409999,0.77635461,-0.54991776,0.308,0
-2.3063004,6.7541666,-4.1382012,-0.27955157,0.81868684,-0.50160015,0
-5.3936582,-4.8259044,3.9600003,-0.65377676,-0.58495808,0.48000002,0
6.4789152,1.4724809,4.8905993,0.78532308,0.17848253,0.5927999,0
0.93673563,-8.1964321,0.059400164,0.11354371,-0.99350691,0.0072000199,0
-1.3720683,0.25201246,-8.1311998,-0.16631131,0.030546965,-0.98559999,0
-2.4652572,4.9305143,6.1379995,-0.29881907,0.59763813,0.74399996,0
7.9767847,-1.7247105,-1.2078004,0.966883,-0.20905581,-0.14640005,0
-2.1265733,-7.5396676,-2.5871994,-0.25776646,-0.91389912,-0.31359994,0
-1.0704218,-6.0211215,-5.5373993,-0.12974811,-0.72983289,-0.67119992,0
-3.7780604,-4.0141892,-6.138,-0.45794672,-0.48656839,-0.74400002,0
1.1790562,5.8952827,-5.6495991,0.1429159,0.7145797,-0.68479991,0
-5.0012498,-0.31257781,6.5538001,-0.60621208,-0.037888221,0.79440004,0
-3.8282504,1.2483423,-7.2006001,-0.46403036,0.15131421,-0.87279999,0
-4.4301686,-6.0914817,3.3660002,-0.53699017,-0.73836142,0.40800002,0
-2.4730191,3.1324906,-7.2204003,-0.29975989,0.37969583,-0.87520003,0
-0.39511928,7.9023809,-2.3363988,-0.047893245,0.95786434,-0.28319985,0
2.3596077,7.6031833,2.1647995,0.28601307,0.92159796,0.26239994,0
-1.7697356,-7.2559161,-3.5045998,-0.21451341,-0.87950498,-0.42479998,0
-5.7133856,5.9419208,-0.33659968,-0.69253159,0.72023284,-0.04079996,0
8.2088985,0.2218619,-0.79200023,0.99501801,0.026892351,-0.096000031,0
6.6550064,2.0254364,4.4351993,0.80666745,0.24550745,0.53759992,0
5.0365186,4.1477203,5.0489998,0.6104871,0.50275397,0.61199999,0
3.5943952,-6.635807,3.3329997,0.43568426,-0.80434024,0.40399995,0
0.86078709,4.495223,-6.8640013,0.10433783,0.5448755,-0.83200014,0
-4.1461134,-6.3093033,-3.3263993,-0.50255919,-0.76476401,-0.40319991,0
3.7442424,3.4322226,6.5009999,0.45384756,0.41602698,0.78799999,0
-1.8737957,-4.6844893,6.5274,-0.22712676,-0.56781685,0.79119998,0
-0.32184699,-3.5403206,7.4447999,-0.039011758,-0.42912978,0.90240002,0
-7.7393494,-0.18876444,-2.8511999,-0.93810296,-0.022880537,-0.34559998,0
-6.275382,0.89648229,5.2799997,-0.76065236,0.10866452,0.63999999,0
-0.9681775,-3.2272582,7.5306001,-0.11735485,-0.39118281,0.91280001,0
-0.18876444,-7.7393494,-2.8511999,-0.022880537,-0.93810296,-0.34559998,0
4.3731656,2.4989517,6.5340004,0.53008068,0.30290323,0.79200006,0
7.4971175,0.27767077,3.4320006,0.90874153,0.033657063,0.41600007,0
-7.7393494,0.18876444,-2.8511999,-0.93810296,0.022880537,-0.34559998,0
-4.4004126,-2.3049779,-6.5868011,-0.53338337,-0.27939126,-0.7984001,0
-6.6710629,4.0026374,-2.745599,-0.80861372,0.48516816,-0.33279988,0
1.1672868,-6.7118945,4.6530004,0.1414893,-0.81356299,0.56400007,0
4.3039794,7.0222821,-0.47520003,0.52169448,0.85118574,-0.057600003,0
-1.9378395,7.9935861,0.64020061,-0.23488964,0.96891952,0.077600077,0
5.9969268,-1.7990782,5.3724003,0.72690022,-0.21807009,0.65120006,0
6.8025479,-4.616015,0.69300109,0.82455128,-0.55951697,0.084000133,0
6.7756324,1.4181551,-4.4879999,0.82128876,0.17189759,-0.54399997,0
7.9748869,-2.1109996,0.085801132,0.96665293,-0.25587875,0.010400137,0
0.60991943,5.79424,5.8410001,0.07392963,0.70233214,0.708,0
-6.012886,-1.5032219,5.4450002,-0.72883469,-0.18220872,0.66000003,0
2.8996685,1.933113,7.4778004,0.35147497,0.23431672,0.90640002,0
-2.184021,-3.9882128,-6.8838005,-0.26472983,-0.48341975,-0.83440006,0
0.98742169,-0.6582821,8.1641998,0.11968748,-0.079791769,0.9896,0
-0.94451553,5.430963,-6.1379991,-0.11448673,0.65829855,-0.7439999,0
7.6031542,-3.1307106,-0.67319858,0.92159444,-0.37948006,-0.081599832,0
-1.8532726,-5.0964994,-6.2171998,-0.2246391,-0.6177575,-0.7536,0
7.4190578,3.4622264,1.0163997,0.89927971,0.41966382,0.12319997,0
-3.3414516,-6.6829033,3.4979997,-0.40502444,-0.81004888,0.42399997,0
6.0621204,5.5958037,-0.013199975,0.73480248,0.67827922,-0.0015999969,0
-6.6455641,-4.716207,-1.2870001,-0.80552292,-0.57166147,-0.156,0
-5.33745,-6.0999427,1.5377995,-0.64696366,-0.73938698,0.18639994,0
8.1583691,-1.1331069,-0.46860075,0.98889321,-0.1373463,-0.05680009,0
0.15866186,0.43865335,-8.2368021,0.01923174,0.053170104,-0.99840027,0
5.152123,6.182548,-1.8150004,0.62449974,0.74939978,-0.22000004,0
-5.575098,-5.575098,2.4287996,-0.67576945,-0.67576945,0.29439995,0
6.7796431,4.5926609,-1.0031995,0.8217749,0.55668616,-0.12159993,0
4.6537166,-5.6878757,-3.7487986,0.56408685,-0.68943948,-0.45439982,0
-6.6006198,2.0430489,-4.5078011,-0.80007511,0.24764228,-0.54640013,0
-7.2844357,-2.6979392,2.7786007,-0.88296193,-0.32702294,0.3368001,0
-3.6933353,-6.2115188,-3.9798002,-0.44767702,-0.75291139,-0.48240003,0
-8.0144768,1.5027144,1.2540003,-0.97145176,0.1821472,0.15200004,0
7.4694624,-2.5553424,-2.3957996,0.90538937,-0.30973849,-0.29039997,0
3.5833824,3.477989,-6.566998,0.43434939,0.42157441,-0.79599977,0
7.0679626,2.718447,-3.2735989,0.85672277,0.32950872,-0.39679986,0
2.3891912,7.81917,-1.1022009,0.28959894,0.94777817,-0.1336001,0
0.25201246,1.3720683,-8.1311998,0.030546965,0.16631131,-0.98559999,0
5.4537058,4.6273866,-4.1117983,0.66105527,0.56089532,-0.49839979,0
-0.48319963,8.2143888,0.59400117,-0.058569651,0.99568349,0.072000146,0
-0.84353584,-7.3106432,3.7290003,-0.10224677,-0.88613856,0.45200005,0
-6.6312857,-4.4208574,-2.1317992,-0.80379218,-0.53586149,-0.2583999,0
-7.9182811,2.2623665,-0.49500003,-0.95979166,0.27422625,-0.060000002,0
3.7609718,-0.96024811,-7.2798018,0.45587537,-0.11639371,-0.88240021,0
0.55487072,7.4907613,3.4122007,0.067257054,0.90797108,0.41360009,0
0.59838325,6.2830296,5.3130007,0.072531305,0.76157933,0.64400005,0
-2.372174,5.8606658,-5.2998004,-0.28753623,0.71038371,-0.64240003,0
2.3897111,-7.886044,0.40260041,0.28966194,-0.9558841,0.048800051,0
7.9429841,-2.1662686,0.52800071,0.96278596,-0.26257801,0.064000085,0
-1.4216834,6.2554078,-5.1875997,-0.17232527,0.75823122,-0.62879997,0
-2.740391,-7.1250172,3.1284003,-0.33216861,-0.86363846,0.37920004,0
6.3871503,-2.6129248,4.520999,0.77420002,-0.31671816,0.54799986,0
-4.761066,2.3805327,-6.3030005,-0.57709891,0.28854942,-0.76400006,0
3.892601,7.0066824,1.9536011,0.47183043,0.84929484,0.23680013,0
-8.0166779,0.61666697,-1.8479991,-0.97171855,0.07474751,-0.22399989,0
7.4979692,3.3861792,0.61380017,0.90884477,0.41044596,0.074400023,0
-3.7911468,6.9836917,-2.2176011,-0.45953295,0.84650809,-0.26880014,0
-6.275382,-0.89648318,5.2799997,-0.76065236,-0.10866463,0.63999999,0
-4.9620762,1.8607788,6.3228002,-0.60146379,0.22554895,0.76640004,0
4.6736317,-0.79551184,-6.751802,0.56650078,-0.096425675,-0.81840026,0
2.3197758,7.1377716,-3.4253986,0.28118494,0.86518443,-0.41519982,0
3.1236904,7.2235332,-2.4750009,0.37862915,0.87557977,-0.3000001,0
6.2936287,-4.5771847,-2.7389996,0.76286411,-0.55481029,-0.33199996,0
2.603848,-0.65096247,7.8011999,0.31561795,-0.078904539,0.94559997,0
-5.5567918,0.8455987,-6.0390005,-0.67355055,0.10249681,-0.73200005,0
5.5045738,-5.2293453,3.2274003,0.66722107,-0.63386005,0.39120004,0
-4.2182364,-2.4692116,-6.6462002,-0.5113014,-0.29929838,-0.80560005,0
6.0108571,5.509953,1.2539989,0.72858876,0.66787308,0.15199986,0
-5.7656732,1.5172828,5.7024002,-0.69886947,0.18391307,0.69120002,0
-4.2943635,3.6808836,6.006,-0.52052891,0.44616771,0.72799999,0
0.73340034,-0.47147161,-8.2038002,0.088897012,-0.057148073,-0.99440002,0
5.4741735,-5.4741735,-2.8512015,0.66353619,-0.66353619,-0.34560019,0
-7.0066824,3.892601,1.9536011,-0.84929484,0.47183043,0.23680013,0
5.8967776,-5.6783786,-1.022999,0.7147609,-0.68828833,-0.12399989,0
-4.3731661,-6.2864261,3.0690005,-0.53008074,-0.76199102,0.37200007,0
5.0012507,-0.31257781,6.5537996,0.6062122,-0.037888221,0.79439998,0
3.9316454,7.0355754,-1.7621988,0.47656307,0.85279703,-0.21359986,0
8.1345854,0.42813566,-1.3067998,0.98601037,0.051895231,-0.15839997,0
4.1282196,-1.2702211,7.0290003,0.50039023,-0.15396619,0.85200006,0
0.51716334,-8.0160389,1.8809999,0.062686466,-0.97164106,0.22799999,0
1.3570187,-7.5993032,2.9105999,0.16448712,-0.92112768,0.35279998,0
0,-8.2266397,0.62039983,0,-0.99716848,0.075199977,0
6.3988628,-3.1173949,-4.1711993,0.77561975,-0.37786606,-0.50559992,0
-4.708766,6.6914039,1.0560007,-0.57075953,0.81107926,0.12800008,0
-1.1059676,-7.4652824,3.3330007,-0.13405669,-0.90488273,0.40400007,0
-1.6744761,-7.256063,3.5508003,-0.20296681,-0.8795228,0.43040004,0
-5.6452923,5.3764687,2.6994002,-0.68427783,0.65169317,0.32720003,0
-7.0611978,4.0349708,1.3859994,-0.85590273,0.48908737,0.16799994,0
-6.1073184,4.1878757,-3.6366,-0.74028105,0.50762129,-0.44080001,0
5.1186175,-4.0948939,-5.0094013,0.62043852,-0.49635077,-0.60720015,0
-0.42813629,8.1345854,-1.3067998,-0.051895309,0.98601037,-0.15839997,0
-3.1324906,2.4730191,-7.2204003,-0.37969583,0.29975989,-0.87520003,0
8.0762396,-1.4684074,0.8250007,0.9789381,-0.17798877,0.10000008,0
1.7833438,7.897666,1.584,0.21616289,0.95729285,0.192,0
2.4989517,4.3731656,6.5340004,0.30290323,0.53008068,0.79200006,0
-4.9979043,0.62473744,6.5339999,-0.60580659,0.075725749,0.792,0
-2.4881914,7.6719232,-1.7358003,-0.30159897,0.92993009,-0.21040003,0
-2.6431327,6.0204687,-4.9830017,-0.32037973,0.72975379,-0.60400021,0
1.9180697,-7.149168,-3.6431999,0.2324933,-0.86656582,-0.44159999,0
7.4700336,-3.5015786,0.0066001839,0.90545863,-0.42443377,0.00080002227,0
-6.5178466,-0.29626548,5.0490003,-0.79004198,-0.035910968,0.61200005,0
3.3694539,4.5947084,5.9664001,0.40841866,0.55693436,0.72320002,0
6.3207884,3.1603942,4.256999,0.7661562,0.3830781,0.51599985,0
0.95410436,4.1344562,7.0752001,0.11564901,0.5011462,0.85760003,0
2.67243,-7.7743406,0.69300008,0.32393092,-0.94234431,0.084000006,0
-0.845599,5.5567937,-6.0389986,-0.10249685,0.67355072,-0.73199981,0
-8.2307053,0.45726097,-0.33000064,-0.99766123,0.055425573,-0.040000077,0
6.9809403,-4.2384281,1.1682013,0.8461746,-0.51374888,0.14160016,0
2.5553424,7.4694624,-2.3957996,0.30973849,0.90538937,-0.29039997,0
5.2825136,-0.11239379,-6.3360019,0.64030468,-0.01362349,-0.76800025,0
-1.92478,7.9129844,-1.3200003,-0.23330666,0.9591496,-0.16000004,0
-3.7861452,-6.7609744,2.8314002,-0.45892668,-0.81951207,0.34320003,0
7.5111589,-2.1460459,2.6532009,0.91044348,-0.26012677,0.32160011,0
-6.336,-4.7519999,2.3099995,-0.76800001,-0.57599998,0.27999994,0
-7.2385178,-2.9490263,2.6400006,-0.87739611,-0.35745773,0.32000008,0
-0.32933903,-0.98801804,8.184,-0.039919883,-0.11975976,0.99199998,0
5.6832404,5.6832404,1.8611983,0.68887764,0.68887764,0.2255998,0
6.4754848,4.981142,1.1484007,0.78490728,0.60377479,0.13920008,0
-6.8025479,4.6160145,0.69300002,-0.82455128,0.55951691,0.083999999,0
-0.64067614,8.1152306,-1.3397998,-0.077657714,0.98366433,-0.16239998,0
-5.4034419,-1.440918,-6.0653992,-0.65496266,-0.17465672,-0.73519993,0
-7.7860842,1.5971452,-2.210999,-0.94376779,0.19359335,-0.26799989,0
4.6736317,-0.79551184,-6.751802,0.56650078,-0.096425675,-0.81840026,0
-5.2757864,0,6.3426003,-0.63948923,0,0.76880002,0
3.3746786,-7.268539,1.9602001,0.40905195,-0.88103503,0.23760001,0
0.57096624,-7.1370845,4.0985999,0.069208026,-0.86510116,0.49679998,0
3.4322226,3.7442424,6.5009999,0.41602698,0.45384756,0.78799999,0
-7.2235336,-3.1236901,-2.4750001,-0.87557983,-0.37862912,-0.30000001,0
-4.9305134,-2.4652572,6.138,-0.59763801,-0.29881907,0.74400002,0
1.0477175,-7.334022,-3.6300008,0.12699606,-0.88897234,-0.44000009,0
3.9374628,4.5432258,5.6496005,0.47726822,0.55069405,0.68480009,0
2.9694059,-5.6560116,-5.2205997,0.35992798,-0.68557715,-0.63279998,0
0.84353501,7.3106432,3.7290003,0.10224666,0.88613856,0.45200005,0
7.5879192,3.0351672,-1.1286008,0.91974777,0.36789906,-0.1368001,0
2.572098,-1.1431546,-7.7549992,0.31176946,-0.1385642,-0.93999988,0
0,7.520247,-3.392401,0,0.9115451,-0.41120011,0
-6.9237995,-3.7281995,2.4948006,-0.83924842,-0.45190296,0.30240008,0
7.9935865,1.9378388,0.64020091,0.96891958,0.23488955,0.077600114,0
4.162756,-1.2669257,-7.0091987,0.5045765,-0.15356675,-0.84959984,0
4.4238691,-0.092163853,-6.9630013,0.53622657,-0.011171376,-0.84400016,0
-1.4321849,8.1157141,0.38280115,-0.17359817,0.98372293,0.046400137,0
-1.6203642,2.5925815,7.6626,-0.19640778,0.31425232,0.92879999,0
3.3116939,-7.5065074,-0.8645997,0.40141743,-0.90987968,-0.10479996,0
-6.6798329,4.8371196,-0.21120022,-0.80967671,0.58631754,-0.025600027,0
-1.5953444,-7.7108316,2.4617991,-0.19337508,-0.93464625,0.2983999,0
-0.94252998,-4.7126498,6.7055998,-0.11424606,-0.57123029,0.81279999,0
7.1990237,-2.2150846,3.3660002,0.87260896,-0.26849508,0.40800002,0
-7.351162,1.6136693,-3.3791995,-0.89104992,0.19559628,-0.40959993,0
0.65096152,2.603848,7.8012004,0.078904428,0.31561795,0.94560003,0
-0.66322613,8.1797886,-0.84480023,-0.080391049,0.99148953,-0.10240003,0
4.1547937,4.2846308,-5.6957989,0.50361139,0.51934916,-0.69039989,0
3.534224,7.3208938,1.4057994,0.4283908,0.88738108,0.17039992,0
-2.0278227,7.8578119,1.4849998,-0.2457967,0.95246208,0.17999998,0
5.1953788,1.5008873,-6.2303991,0.62974286,0.18192573,-0.75519991,0
-4.9235635,-1.177374,-6.5142007,-0.59679556,-0.142712,-0.78960007,0
-2.7096999,-7.3548999,-2.5739994,-0.32844847,-0.89150304,-0.31199992,0
-5.6560111,-5.2789435,-2.8644006,-0.68557709,-0.63987195,-0.34720007,0
3.7582817,7.2954869,-0.84479964,0.4555493,0.88430142,-0.10239995,0
2.6635234,-7.7686095,-0.78539979,0.32285133,-0.94164962,-0.095199972,0
-7.7080765,-2.8905289,0.54120022,-0.93431228,-0.35036713,0.06560003,0
-0.32184699,3.5403206,7.4447999,-0.039011758,0.42912978,0.90240002,0
-0.96024811,3.7609718,-7.2798018,-0.11639371,0.45587537,-0.88240021,0
5.306334,-5.8369679,2.4156003,0.64319199,-0.70751125,0.29280004,0
6.0914822,-4.4301682,3.3659992,0.73836148,-0.53699011,0.4079999,0
-8.1964321,0.93673563,0.059400164,-0.99350691,0.11354371,0.0072000199,0
-4.7185106,-6.7407298,-0.60060072,-0.57194066,-0.81705815,-0.072800085,0
5.6404123,2.0987585,-5.6430011,0.68368632,0.25439498,-0.68400013,0
7.5065074,3.3116941,-0.86459833,0.90987968,0.40141746,-0.1047998,0
-3.2306306,0.64612556,7.5636001,-0.39159158,0.078318246,0.91680002,0
-4.9189177,-4.9189177,-4.4352002,-0.59623241,-0.59623241,-0.53760004,0
4.4004126,-2.3049779,-6.5868011,0.53338337,-0.27939126,-0.7984001,0
0.32454258,-2.920886,7.7087998,0.039338496,-0.35404679,0.93439996,0
-2.2885926,7.4379249,-2.7389994,-0.27740517,0.90156662,-0.33199993,0
-0.70450169,8.2191868,0.1055989,-0.085394144,0.99626505,0.012799866,0
-4.1971021,-6.9252181,-1.577399,-0.50873965,-0.83942038,-0.19119988,0
0.26874214,-7.79353,2.6927991,0.032574806,-0.94467032,0.32639989,0
4.1873088,-7.052309,-0.89099962,0.50755256,-0.85482532,-0.10799995,0
2.0278234,-1.4701723,-7.8605995,0.24579678,-0.1782027,-0.95279992,0
-6.1061735,4.6258893,-3.0623994,-0.74014223,0.56071383,-0.37119994,0
-3.8040743,2.219043,6.9762001,-0.46109992,0.2689749,0.84560001,0
-3.7316566,-5.7529702,-4.5870004,-0.45232201,-0.6973297,-0.55600005,0
2.9591289,1.0935912,-7.6229992,0.35868227,0.13255651,-0.92399991,0
-7.5151362,-0.17893164,-3.3990009,-0.91092563,-0.021688683,-0.41200012,0
6.3207884,-3.1603942,4.256999,0.7661562,-0.3830781,0.51599985,0
3.37094,7.3739305,-1.5246017,0.40859878,0.89380974,-0.18480021,0
4.1375632,1.7866751,-6.9101996,0.50152284,0.21656668,-0.83759993,0
2.513967,4.0851974,6.7122002,0.30472326,0.49517545,0.8136,0
-6.737123,-3.7428455,-2.9436004,-0.81662095,-0.45367825,-0.35680005,0
2.6946912,-5.6887941,5.3328004,0.32662922,-0.68955082,0.64640003,0
-6.4661484,-0.14369205,-5.1215992,-0.78377557,-0.017417219,-0.6207999,0
-2.3278453,7.9146743,-0.039598744,-0.28216308,0.95935446,-0.004799848,0
-3.2326527,0.32326496,7.5834002,-0.39183667,0.039183632,0.9192,0
-6.2554073,1.4216838,-5.1876001,-0.75823116,0.17232531,-0.62880003,0
-4.5082302,-6.4683304,-2.4287989,-0.54645216,-0.78404003,-0.29439986,0
6.8589215,-2.5720959,-3.7949989,0.83138442,-0.31176919,-0.45999986,0
-7.7080765,2.8905289,0.54120022,-0.93431228,0.35036713,0.06560003,0
6.5845647,-3.8409956,3.1547999,0.79812908,-0.46557522,0.38240001,0
8.1497679,-1.1984956,0.45540109,0.98785067,-0.1452722,0.055200133,0
0.8413372,-1.4471,-8.0784006,0.10198027,-0.17540607,-0.97920007,0
7.1683655,-4.0322061,-0.64679986,0.86889279,-0.48875225,-0.078399986,0
1.6231171,-7.5745459,2.8379998,0.19674146,-0.91812676,0.34399998,0
-6.9479666,0,4.4483995,-0.84217775,0,0.53919995,0
2.6635234,-7.7686095,-0.78539979,0.32285133,-0.94164962,-0.095199972,0
6.7432108,-4.1649246,-2.290199,0.81735891,-0.50483936,-0.27759987,0
7.7393489,0.18876441,-2.8512013,0.9381029,0.022880534,-0.34560016,0
-3.5044079,-2.2300773,7.1279998,-0.4247767,-0.2703124,0.86399996,0
0.50168633,-7.1908445,-4.0128002,0.060810465,-0.8716175,-0.48640004,0
-4.1375632,1.7866751,-6.9101996,-0.50152284,0.21656668,-0.83759993,0
-6.9907174,-1.6644564,-4.0524011,-0.84735966,-0.20175229,-0.49120012,0
3.5375016,5.6010442,4.9169998,0.42878807,0.67891443,0.59599996,0
3.4658427,-3.1507654,6.7914,0.42010215,-0.38191095,0.82319999,0
3.6407239,-6.4146094,-3.6959996,0.44129989,-0.77752841,-0.44799995,0
-6.5710616,-4.4683218,2.2176003,-0.79649234,-0.54161477,0.26880005,0
-6.1944437,3.9419184,3.7620003,-0.75084168,0.4778083,0.45600003,0
6.5845647,3.8409956,3.1547999,0.79812908,0.46557522,0.38240001,0
6.8966179,0,-4.5275998,0.83595371,0,-0.54879999,0
-3.6255202,4.0933294,-6.1776013,-0.439457,0.49616113,-0.74880016,0
0.61666697,-8.0166779,-1.8479991,0.07474751,-0.97171855,-0.22399989,0
6.182548,-5.152123,-1.8150004,0.74939978,-0.62449974,-0.22000004,0
-5.8606658,-2.372174,-5.2998004,-0.71038371,-0.28753623,-0.64240003,0
-2.6798279,6.6995697,-3.9995987,-0.32482764,0.81206906,-0.48479986,0
-4.981142,6.4754848,1.1484007,-0.60377479,0.78490728,0.13920008,0
2.9063532,-1.6146415,7.5504003,0.35228524,-0.19571413,0.91520005,0
7.1236444,3.6635883,-1.9734013,0.86347204,0.44407129,-0.23920016,0
7.768609,2.6635232,-0.78540117,0.94164956,0.3228513,-0.095200144,0
0.94252902,4.7126489,6.7056007,0.11424594,0.57123017,0.81280011,0
-5.1028285,6.4340019,-0.79200047,-0.61852467,0.77987903,-0.09600006,0
-4.6836753,-6.7913299,0.059399493,-0.56771821,-0.82319152,0.0071999384,0
-6.2876148,-0.29940993,5.3327999,-0.76213515,-0.036292113,0.64639997,0
1.9378388,7.9935865,0.64020091,0.23488955,0.96891958,0.077600114,0
2.5561695,-7.6685071,1.6499993,0.30983874,-0.92951602,0.19999991,0
-7.256063,-1.6744761,3.5508003,-0.8795228,-0.20296681,0.43040004,0
3.1798582,-5.1672692,-5.5901995,0.38543737,-0.62633568,-0.67759991,0
8.2088985,-0.2218619,-0.79200023,0.99501801,-0.026892351,-0.096000031,0
-4.4243388,-6.0171008,-3.5046,-0.53628349,-0.72934556,-0.42480001,0
-4.8693504,-3.7872725,-5.4780006,-0.59022427,-0.45906332,-0.66400009,0
8.0373125,0.41216949,-1.8149992,0.97421968,0.049959939,-0.21999991,0
-2.2771437,6.8314304,4.0259995,-0.27601743,0.82805216,0.48799995,0
-8.2135401,-0.68446171,-0.36300069,-0.99558061,-0.082965054,-0.044000085,0
-1.5492436,6.6617475,-4.6134005,-0.1877871,0.80748457,-0.55920005,0
-5.3481998,-6.2395658,-0.72600037,-0.64826667,-0.756311,-0.088000044,0
4.9620771,1.8607787,6.3227992,0.60146391,0.22554894,0.76639992,0
-6.032537,-5.5856829,-0.68639934,-0.73121661,-0.6770525,-0.083199918,0
6.7541666,-2.3063004,-4.1382012,0.81868684,-0.27955157,-0.50160015,0
-8.2235785,0.24186973,0.61379987,-0.99679738,0.029317543,0.074399985,0
4.6959829,-1.5653278,-6.5999994,0.56921005,-0.18973669,-0.79999995,0
1.2570361,8.0450287,1.3266002,0.15236801,0.975155,0.16080002,0
0.64016539,3.840996,7.2732,0.077595808,0.46557528,0.88160002,0
-4.4589586,-6.7946029,-1.4189999,-0.54047984,-0.82358825,-0.17199999,0
4.0141902,-3.7780616,-6.1379986,0.48656851,-0.45794687,-0.74399984,0
4.6836753,6.7913299,0.059399493,0.56771821,0.82319152,0.0071999384,0
-1.5846877,-4.1201868,6.9696002,-0.19208336,-0.49941659,0.8448,0
7.2685385,-3.3746789,1.9602011,0.88103497,-0.40905198,0.23760013,0
-1.1431546,-2.572098,-7.7549992,-0.1385642,-0.31176946,-0.93999988,0
-7.2235336,-3.1236901,-2.4750001,-0.87557983,-0.37862912,-0.30000001,0
-7.5111594,-2.1460459,2.6531999,-0.91044354,-0.26012677,0.32159999,0
8.1894484,0.90993917,-0.40920079,0.9926604,0.11029565,-0.049600095,0
-7.9361753,-1.9840442,1.0692002,-0.96196067,-0.2404902,0.12960002,0
7.987699,0.81925166,-1.8941994,0.96820593,0.099303231,-0.22959992,0
-6.7756319,-1.4181556,-4.4880004,-0.8212887,-0.17189765,-0.54400003,0
-7.6031542,-3.1307101,-0.67319989,-0.92159444,-0.37948,-0.081599988,0
2.9160492,0.97201574,7.6560006,0.35346052,0.11782009,0.92800009,0
-0.92022008,-2.3516736,-7.8540006,-0.11154183,-0.28505135,-0.95200008,0
-2.920886,-0.32454258,7.7087998,-0.35404679,-0.039338496,0.93439996,0
1.0935897,-2.9591248,-7.6230011,0.13255632,-0.3586818,-0.92400014,0
-3.4267159,6.2823133,4.1051989,-0.4153595,0.76149255,0.49759987,0
-2.8253856,-7.4670916,-2.079,-0.34247097,-0.90510201,-0.252,0
5.87919,0.38342509,-5.7749987,0.71262908,0.046475768,-0.69999981,0
0,5.0023656,6.5603995,0,0.60634732,0.79519993,0
5.5880222,-1.3659612,-5.9135995,0.67733604,-0.16557105,-0.71679991,0
-7.8803005,1.0507072,2.2043993,-0.95518792,0.12735845,0.26719993,0
-3.0404449,6.5876303,-3.9269993,-0.36853877,0.79850066,-0.47599992,0
-2.5796466,-2.2571902,7.5042,-0.31268445,-0.27359882,0.90960002,0
-2.6054544,-0.32568145,7.8210001,-0.31581265,-0.03947654,0.94800001,0
6.1601548,-5.4756937,-0.36299962,0.74668545,-0.66372043,-0.043999955,0
4.007236,0.5009045,-7.1940012,0.48572558,0.060715698,-0.87200016,0
-5.836916,5.4343691,-2.1120002,-0.70750499,0.65871143,-0.25600004,0
1.7247099,7.9767847,-1.2078,0.20905574,0.966883,-0.1464,0
-7.2965317,1.1225441,3.6828003,-0.88442808,0.13606595,0.44640005,0
-2.8187485,6.764997,3.7883997,-0.34166649,0.81999964,0.45919997,0
3.6933355,6.2115178,-3.9798012,0.44767705,0.75291127,-0.48240015,0
4.6844883,-1.8737957,6.5274005,0.56781673,-0.22712676,0.79120004,0
-2.920886,-0.32454258,7.7087998,-0.35404679,-0.039338496,0.93439996,0
-3.6443417,7.2886834,-1.2869985,-0.4417384,0.88347679,-0.15599982,0
-1.4557456,-6.6964273,4.5936003,-0.17645401,-0.81168818,0.55680001,0
5.1186175,-4.0948939,-5.0094013,0.62043852,-0.49635077,-0.60720015,0
0.56351727,7.7014108,-2.9040012,0.068305127,0.93350434,-0.35200015,0
-2.6946921,5.6887941,5.3327999,-0.32662934,0.68955082,0.64639997,0
-4.0072393,-0.50090498,-7.1939993,-0.48572597,-0.060715754,-0.87199992,0
2.5720956,6.858922,-3.7949982,0.31176916,0.83138448,-0.45999977,0
-8.0029726,-0.7744813,1.8479999,-0.97005731,-0.093876518,0.22399999,0
-6.882658,-1.7206645,4.2107997,-0.8342616,-0.2085654,0.51039994,0
0.93605965,4.9923239,6.5009995,0.11346178,0.6051302,0.78799993,0
5.0695558,-6.3369455,1.4850004,0.61449158,-0.76811463,0.18000005,0
0.85137486,8.0880566,-1.3859999,0.10319696,0.98037052,-0.16799998,0
1.3389063,3.1710937,-7.4975991,0.16229168,0.38437501,-0.90879989,0
-4.1201868,1.5846877,6.9696002,-0.49941659,0.19208336,0.8448,0
7.1692014,-3.9554212,1.0097992,0.86899412,-0.47944498,0.12239991,0
-4.7449546,4.4483943,5.0754004,-0.57514602,0.53919929,0.61520004,0
2.2401044,-3.2001493,7.2666001,0.2715278,-0.3878969,0.88080001,0
-4.4004126,-2.3049779,-6.5868011,-0.53338337,-0.27939126,-0.7984001,0
-5.0012498,-0.31257781,6.5538001,-0.60621208,-0.037888221,0.79440004,0
3.023452,-0.90060264,-7.6230016,0.36647904,-0.10916395,-0.9240002,0
-1.1331069,-8.1583691,-0.46860075,-0.1373463,-0.98889321,-0.05680009,0
7.0611978,-4.0349703,1.3860011,0.85590273,-0.48908731,0.16800013,0
0.98821545,0,8.1906004,0.11978369,0,0.99280006,0
5.405468,5.0567284,-3.6432009,0.65520823,0.61293679,-0.44160011,0
5.0964994,-1.8532726,-6.2171998,0.6177575,-0.2246391,-0.7536,0
-1.1984956,-8.1497679,0.45539975,-0.1452722,-0.98785067,0.05519997,0
-8.0496683,0.20640156,-1.7951993,-0.97571737,0.02501837,-0.21759991,0
-2.9591262,-1.09359,-7.6230001,-0.35868198,-0.13255636,-0.92400002,0
-0.4664571,6.8413706,-4.5869999,-0.056540255,0.82925701,-0.55599999,0
4.136301,3.0478005,-6.4547987,0.50136983,0.36943036,-0.78239983,0
5.6560111,-5.2789435,-2.8644006,0.68557709,-0.63987195,-0.34720007,0
5.1953788,-1.5008873,-6.2303991,0.62974286,-0.18192573,-0.75519991,0
