3.4380748,2.8129692,6.8329597,0.4218497,0.34514961,0.83840001,0
3.5399473,3.4358313,-6.4873977,0.43434939,0.42157441,-0.79599977,0
3.8488989,6.2981973,-3.4556012,0.47225755,0.77278495,-0.42400017,0
1.7595304,-6.1583567,5.0399594,0.21589331,-0.75562662,0.61839998,0
1.9330457,-7.5388765,-2.4189196,0.23718354,-0.92501557,-0.29679996,0
-3.7366366,7.2397337,0.21515997,-0.45848304,0.88831091,0.026399998,0
5.0672188,3.2787888,5.476799,0.62174469,0.40230539,0.67199993,0
-6.3127704,1.7617034,-4.8443604,-0.77457309,0.21615994,-0.59440005,0
5.5930614,-5.400197,-2.4450006,0.68626523,-0.66260087,-0.3000001,0
6.0894766,-2.609776,4.7465601,0.7471751,-0.32021794,0.58240002,0
-6.8616548,-3.0696876,-3.1491594,-0.84192085,-0.37664881,-0.38639995,0
-7.7032633,-1.7974278,1.9625195,-0.94518572,-0.2205433,0.24079995,0
-5.1424575,-4.5710731,4.3683996,-0.63097638,-0.56086791,0.53599995,0
0.95040089,-8.0784035,0.5085597,0.11661361,-0.99121517,0.062399965,0
-6.389926,-4.4535847,-2.3993587,-0.78404003,-0.54645211,-0.29439986,0
1.124469,-7.0279274,3.9706798,0.13797167,-0.86232245,0.48719999,0
-5.9995322,2.2855365,-5.020401,-0.73613894,0.28043395,-0.61600018,0
-0.64676327,1.9402889,7.8891997,-0.07935746,0.23807228,0.96799999,0
1.613618,1.613618,7.8239994,0.19798996,0.19798996,0.95999998,0
-7.8815122,1.7240806,1.1540403,-0.96705675,0.21154363,0.14160004,0
3.092762,-7.5109944,-0.66503984,0.37948,-0.92159444,-0.081599981,0
1.0574466,5.9481382,-5.4702787,0.12974806,0.72983295,-0.67119986,0
-0.4404268,-1.6261913,-7.973959,-0.0540401,-0.19953267,-0.97839993,0
-2.4893682,-2.4182434,-7.3741198,-0.30544397,-0.29671699,-0.9048,0
-1.0788215,0.85752481,-8.0326385,-0.13237074,0.10521777,-0.98559988,0
-7.0823016,3.9074769,0.99755859,-0.86899412,0.47944504,0.12239984,0
-0.19549114,7.8196521,-2.2885187,-0.023986643,0.95946658,-0.28079984,0
-0.61768186,-5.682672,-5.8093204,-0.075789191,-0.69726038,-0.71280009,0
-8.1195593,0.69596159,0.10432038,-0.99626499,0.085394062,0.012800047,0
-0.89442897,5.9628592,5.4833202,-0.10974589,0.73163921,0.67280006,0
-6.1087356,-5.0906124,1.7864799,-0.74953812,-0.62461507,0.2192,0
-7.8034563,-1.6428332,-1.6821598,-0.95747936,-0.20157464,-0.20639998,0
-2.2608519,7.3477678,-2.7057991,-0.27740514,0.90156662,-0.3319999,0
-2.0461791,6.1385369,4.9552002,-0.25106493,0.75319475,0.60800004,0
1.1663328,-6.4148316,-4.8899994,0.14310834,-0.78709596,-0.59999996,0
-6.2591996,-4.6943998,2.2819993,-0.76800001,-0.57600003,0.27999994,0
5.2507663,6.2054501,0.5867995,0.64426583,0.76140493,0.071999945,0
-4.5712967,-5.3875995,-4.0619593,-0.56089532,-0.66105521,-0.49839994,0
-2.8166404,6.2592001,-4.3944788,-0.34560007,0.76800007,-0.53919989,0
-7.5271411,1.0753064,2.9339998,-0.92357564,0.13193944,0.35999998,0
-1.2016624,5.7078977,5.6919599,-0.14744325,0.70035559,0.69840002,0
-6.9366026,2.2197123,3.6577201,-0.8511169,0.27235734,0.44880003,0
-2.0159349,7.660553,-1.9168797,-0.24735399,0.93994522,-0.23519997,0
-1.5739423,-3.7774608,7.0481195,-0.19312176,-0.46349216,0.86479998,0
-6.7757821,-2.5409184,-3.7490003,-0.83138436,-0.31176913,-0.46000007,0
3.6024568,-4.4720154,-5.7832413,0.44201925,-0.54871356,-0.70960021,0
-5.1156039,-3.8367023,-5.053,-0.62768149,-0.47076106,-0.62,0
-2.1609643,-6.8153491,-3.9119995,-0.265149,-0.83623922,-0.47999996,0
0.90906793,2.3231735,-7.7587986,0.11154208,0.28505197,-0.95199984,0
-6.2786751,-2.8539431,4.34232,-0.77038962,-0.35017708,0.53280002,0
-7.7541409,0.77541453,-2.3863204,-0.95142835,0.095142893,-0.29280007,0
5.5583439,-2.3821473,-5.4637609,0.68200541,-0.29228804,-0.67040014,0
-6.9451771,-2.0327349,-3.7489996,-0.85216898,-0.24941534,-0.45999998,0
0.89890957,8.0901823,-0.40424076,0.11029566,0.99266046,-0.049600095,0
-0.5395475,7.5536604,3.0122409,-0.066202149,0.92682952,0.36960012,0
-2.7991986,3.1490986,-6.9763999,-0.34345996,0.38639247,-0.85600001,0
-5.7827029,-5.5312815,1.5452403,-0.70953411,-0.67868489,0.18960005,0
6.7486253,2.249541,3.9771998,0.82805222,0.27601731,0.48800001,0
-4.814846,-5.098073,4.1532397,-0.59077871,-0.62553048,0.50959998,0
0,-3.1787844,-7.5045204,0,-0.39003491,-0.92080009,0
4.6943998,-5.0073595,-4.3944798,0.57600003,-0.61439997,-0.53920001,0
-0.35280383,-7.4088769,-3.3773608,-0.043288816,-0.90906471,-0.41440013,0
-5.831665,2.9158323,-4.8899999,-0.71554178,0.35777086,-0.60000002,0
3.2063484,-7.3992662,1.1801195,0.393417,-0.90788549,0.14479995,0
-7.0108948,1.4021792,3.9119997,-0.86023253,0.17204654,0.47999999,0
0.67616451,8.1139822,-0.35860056,0.082964972,0.99558067,-0.044000071,0
-1.2784518,2.8765163,7.51756,-0.15686525,0.35294682,0.92240006,0
0.31640446,3.7968574,7.2045994,0.038822636,0.46587208,0.88399994,0
-3.9726548,-6.6210909,2.6079998,-0.48744234,-0.81240386,0.31999999,0
4.5177908,6.5713315,-1.6821605,0.55433017,0.80629838,-0.20640007,0
1.8308086,-5.0347228,-6.14184,0.2246391,-0.61775744,-0.75360006,0
-2.4893682,-2.4182434,-7.3741198,-0.30544397,-0.29671699,-0.9048,0
-4.914125,1.5356644,6.3178797,-0.60296017,0.18842509,0.77520001,0
1.9276278,-1.9276278,7.6805596,0.23651876,-0.23651876,0.94239998,0
5.0162487,-5.5537047,-3.2273989,0.61549067,-0.68143618,-0.39599988,0
-8.0101957,1.2136663,0.8867206,-0.98284614,0.14891613,0.10880008,0
-5.2833729,-6.1639347,-0.71720028,-0.64826661,-0.75631106,-0.088000037,0
4.2876129,-4.5642328,-5.2159991,0.52608752,-0.56002861,-0.63999993,0
-6.8213625,4.4008789,-0.72371978,-0.83697701,0.53998518,-0.088799976,0
-5.9528699,1.1905748,5.4376798,-0.7304135,0.1460828,0.66720003,0
6.776968,-4.2669797,1.5126408,0.83152986,-0.52355582,0.18560012,0
5.2221904,4.0617032,4.7595997,0.64075959,0.4983685,0.58399999,0
2.825793,-3.1397707,6.9698801,0.34672308,-0.38524798,0.85520005,0
-0.84493768,-7.0411468,4.0163198,-0.10367334,-0.86394441,0.4928,0
-0.89890891,-8.0901823,-0.40424061,-0.11029558,-0.99266046,-0.049600076,0
-1.2896256,-6.3048363,-5.0008397,-0.15823628,-0.77359957,-0.61360002,0
3.084794,-6.4500227,3.9119999,0.37850237,-0.79141384,0.48000002,0
2.5759368,-7.7278085,0.26080051,0.31606588,-0.94819742,0.032000065,0
-1.6700609,2.5360186,-7.5632005,-0.20491545,0.31116796,-0.92800009,0
-1.2218692,5.192946,6.1613994,-0.14992261,0.63717133,0.75599998,0
-7.7243919,-2.3602312,-1.0888408,-0.94777822,-0.28959894,-0.13360012,0
1.1498884,-7.6659226,-2.5167203,0.1410906,-0.94060403,-0.30880004,0
-7.6586075,-2.7849483,0.11084064,-0.9397065,-0.34171146,0.013600079,0
-8.0784035,-0.95040017,0.50855988,-0.99121517,-0.11661352,0.062399987,0
4.2064872,6.5009332,-2.5427995,0.51613343,0.79766053,-0.31199995,0
-6.3213005,-3.0796082,-4.1206388,-0.77561975,-0.37786606,-0.50559986,0
-2.7030489,-4.3248782,-6.3569999,-0.33166248,-0.53065991,-0.78000003,0
-4.7033558,2.3516777,-6.2266002,-0.57709891,0.28854942,-0.76400006,0
7.0459991,-3.3925183,2.2950406,0.8645398,-0.41625994,0.28160009,0
0.53169,-4.9978848,-6.4156799,0.065238044,-0.61323744,-0.78720003,0
-1.5437953,4.3419242,-6.7221189,-0.18942276,0.53275144,-0.8247999,0
-0.51089537,7.9188743,1.8581998,-0.062686555,0.97164106,0.22799999,0
3.6797762,3.6797762,6.2722397,0.45150632,0.45150632,0.76959997,0
-7.7847815,1.0379714,2.1776793,-0.95518798,0.12735845,0.26719993,0
-3.410403,2.3020217,-7.0350795,-0.41845438,0.28245667,-0.86319995,0
-4.9717631,4.2406216,-4.870441,-0.61003232,0.52032167,-0.59760016,0
4.8592944,-4.8592939,4.3814397,0.59623247,-0.59623241,0.53759998,0
-6.6444139,-3.0453568,3.6055593,-0.81526554,-0.37366343,0.44239995,0
4.1975031,6.5585976,2.4058793,0.5150311,0.80473596,0.29519993,0
-1.322677,3.1326561,-7.4067187,-0.16229166,0.38437501,-0.90879989,0
-2.9222405,-7.5491209,0.94539976,-0.35855713,-0.92627257,0.11599997,0
4.5457916,6.1501884,2.8166389,0.55776584,0.75462437,0.34559989,0
-1.613619,-1.613619,-7.8239989,-0.19799006,-0.19799006,-0.95999992,0
-3.1816528,-1.5185162,-7.3480396,-0.39038685,-0.18632102,-0.9016,0
6.0854859,-5.4093213,-0.3585996,0.74668545,-0.66372043,-0.043999955,0
7.7278085,-2.5759368,0.26080051,0.94819742,-0.31606588,0.032000065,0
1.6205187,0.64820671,7.9609194,0.19883665,0.079534568,0.97679996,0
-5.7524362,-5.0101857,-2.8687992,-0.70582044,-0.61474675,-0.35199991,0
8.0680876,-1.1525842,-1.1658668e-06,0.98994946,-0.14142138,-1.4305115e-07,0
-4.7520018,-3.8610015,5.3789997,-0.58306772,-0.47374254,0.65999997,0
3.4804468,-7.1656246,-1.72128,0.42704871,-0.8792178,-0.21120001,0
3.2068858,-6.9482517,2.8036001,0.39348295,-0.85254627,0.34400001,0
3.7904029,0.94759983,7.1524396,0.46508014,0.11626992,0.87760001,0
7.1804347,3.3337736,1.9364411,0.88103497,0.40905198,0.23760015,0
-1.4148251,8.0173407,0.37816113,-0.17359817,0.98372281,0.046400141,0
3.4638305,1.9793316,-7.106801,0.42500991,0.24286279,-0.87200016,0
-5.3192968,-2.9256132,-5.4376802,-0.6526745,-0.35897097,-0.66720009,0
-2.4954059,-2.1581888,-7.4523597,-0.3061848,-0.26480845,-0.91439998,0
4.1215482,4.6710873,-5.2551188,0.50571144,0.57313955,-0.64479989,0
-2.1400106,-7.846705,0.52160066,-0.26257801,-0.96278596,0.064000085,0
-6.1750765,1.4702567,5.1116796,-0.75767815,0.1803996,0.62719995,0
3.9541204,-6.5902014,-2.7123189,0.48516816,-0.80861372,-0.33279988,0
-7.9561605,0,-1.7669191,-0.97621608,0,-0.2167999,0
-3.5980592,6.3657975,3.5990393,-0.44147968,0.78107947,0.44159994,0
1.5242028,-5.1822882,6.1027198,0.18701877,-0.6358636,0.74879998,0
1.5242028,-5.1822882,6.1027198,0.18701877,-0.6358636,0.74879998,0
-0.12709819,3.1139042,-7.5306001,-0.015594871,0.38207415,-0.92400002,0
-7.7904558,-2.360744,0.39772078,-0.95588422,-0.28966185,0.0488001,0
-5.2414064,6.0800319,-1.4083208,-0.64311737,0.7460162,-0.17280011,0
-7.5223393,-2.7581913,1.4930793,-0.92298645,-0.33842841,0.18319993,0
5.1914206,0.22091129,-6.2787614,0.63698417,0.027105682,-0.77040023,0
-2.3020234,3.4104052,-7.0350776,-0.28245687,0.41845465,-0.86319977,0
1.322677,-3.1326561,-7.4067187,0.16229166,-0.38437501,-0.90879989,0
3.3561194,-0.6292724,-7.4002008,0.4117938,-0.077211343,-0.90800017,0
-0.0021356195,0.0028474925,-8.1499987,-0.00026203922,0.00034938561,-0.99999988,0
2.8126678,-7.415215,1.8777589,0.34511262,-0.90984237,0.23039988,0
1.2995595,-0.32488939,8.0391598,0.15945515,-0.039863732,0.98640001,0
7.3945251,3.1690814,-1.3040006,0.90730375,0.38884437,-0.16000009,0
0.27000961,-7.5602765,3.0317998,0.033130016,-0.92764133,0.37199998,0
-0.54814577,-7.3999639,3.3708405,-0.067257151,-0.90797108,0.41360009,0
-2.7581913,-7.5223393,1.4930793,-0.33842841,-0.92298645,0.18319993,0
3.1811321,5.394093,-5.2159996,0.39032298,0.66185194,-0.63999999,0
7.551373,-2.0831375,2.2493989,0.9265489,-0.25559971,0.27599987,0
-4.3584137,4.9395361,4.7987194,-0.53477472,0.60607809,0.58879995,0
-7.8215542,-0.26071823,2.2754796,-0.95969993,-0.031989969,0.27919996,0
-2.7845817,6.6829967,3.7424796,-0.34166649,0.81999964,0.45919997,0
0,-7.0581069,4.0749998,0,-0.86602545,0.5,0
2.8373456,2.8373456,7.0937605,0.34814057,0.34814057,0.87040007,0
-5.2118373,0,6.2657199,-0.63948929,0,0.76880002,0
3.8187559,7.1882453,-0.41076005,0.46855903,0.88199335,-0.050400008,0
-6.4465618,2.739789,-4.1662803,-0.79098922,0.33617043,-0.51120007,0
0.32272321,-2.2590628,-7.8240004,0.039597943,-0.27718562,-0.9600001,0
6.3368564,3.5965939,-3.6511996,0.77752841,0.44129989,-0.44799998,0
-6.5224085,3.5256259,-3.3838797,-0.80029553,0.43259215,-0.41519997,0
1.59507,2.8711245,7.4588799,0.19571412,0.35228524,0.91520005,0
-0.96361542,-2.5696414,7.6740394,-0.11823503,-0.31529343,0.94159997,0
-4.8559251,-6.2722363,-1.8712403,-0.59581906,-0.76959962,-0.22960004,0
-1.2784518,-2.8765173,7.5175595,-0.15686525,-0.35294694,0.9224,0
-1.8842686,-3.7685373,6.9763994,-0.23119862,-0.46239725,0.85599995,0
6.6423988,0.86639893,4.6422391,0.8150183,0.10630662,0.56959993,0
1.6007234,2.5611563,7.5697198,0.19640778,0.31425232,0.92880005,0
1.4206274,6.8190098,4.2314796,0.17431012,0.83668834,0.51919997,0
-3.0407252,4.5610876,6.0310001,-0.37309512,0.55964267,0.74000007,0
-0.6292724,3.3561194,-7.4002008,-0.077211343,0.4117938,-0.90800017,0
3.9187858,7.1460204,-4.6634673e-07,0.48083264,0.87681234,-5.7220461e-08,0
-7.5867982,1.8312957,2.3471992,-0.93089551,0.22469887,0.28799993,0
-1.0571247,7.6641564,2.5623591,-0.12970856,0.94038731,0.3143999,0
-1.9228472,-7.142004,3.4230003,-0.23593217,-0.87631953,0.42000005,0
-2.2428701,-1.9224604,7.5957999,-0.27519879,-0.23588473,0.93200004,0
-6.2441721,-3.1220865,4.2053995,-0.76615614,-0.38307813,0.51599997,0
-3.9860613,-6.9756074,1.3692,-0.48908731,-0.85590279,0.16800001,0
-4.5809669,2.7485793,6.15488,-0.56208187,0.33724901,0.75520003,0
7.1117625,-2.188235,3.3252001,0.87260896,-0.26849511,0.40800002,0
-3.8609092,3.8609092,-6.0505581,-0.47373122,0.47373122,-0.74239981,0
-0.19549111,-7.8196516,-2.2885201,-0.023986639,-0.95946652,-0.28080001,0
2.9707174,5.3472905,5.3855195,0.36450523,0.65610927,0.66079998,0
4.1134629,5.3322678,-4.5900803,0.50471938,0.654266,-0.56320006,0
2.6110952,-5.947494,-4.9225998,0.32037979,-0.72975391,-0.60400003,0
7.2845492,3.33008,-1.5061215,0.89380974,0.40859881,-0.18480019,0
3.0945208,2.443043,-7.1328797,0.37969583,0.29975989,-0.87520003,0
7.1708145,-2.1512446,-3.2208786,0.87985456,-0.2639564,-0.39519984,0
4.8592944,-4.8592939,4.3814397,0.59623247,-0.59623241,0.53759998,0
-1.5463541,4.6390619,-6.519999,-0.18973671,0.56921005,-0.79999989,0
-6.4840012,4.7383084,1.3887603,-0.79558301,0.58138758,0.17040005,0
5.6198387,2.6620281,5.2681603,0.68955082,0.32662922,0.64640009,0
1.2998211,0,8.0456791,0.15948726,0,0.98719996,0
5.7524362,-5.0101857,-2.8687992,0.70582044,-0.61474675,-0.35199991,0
2.4185603,7.7393904,0.82151997,0.29675588,0.94961852,0.1008,0
4.4190726,-3.7877765,-5.7050014,0.54221755,-0.46475786,-0.70000023,0
0,7.4083347,3.3969204,0,0.90899819,0.41680008,0
1.0571256,7.6641564,2.5623589,0.12970866,0.94038731,0.31439987,0
-5.8820658,3.9213772,-4.0554409,-0.72172588,0.4811506,-0.49760014,0
8.0474339,0.21177436,-1.2713997,0.98741525,0.025984585,-0.15599997,0
-2.8539431,-6.2786751,4.34232,-0.35017708,-0.77038962,0.53280002,0
-4.9458575,-5.4953966,3.4295199,-0.60685372,-0.67428184,0.4208,0
-7.926609,0.25569683,1.8777598,-0.97259009,0.031373847,0.23039998,0
4.3661995,1.2474864,6.7677598,0.53573,0.15306582,0.83039999,0
-0.84105456,7.9900198,-1.3691996,-0.10319688,0.98037058,-0.16799997,0
4.1557007,-5.8179812,-3.9119995,0.50990194,-0.71386278,-0.47999996,0
1.2896253,6.3048368,-5.0008392,0.15823624,0.77359962,-0.61359996,0
-4.5369925,-6.6974645,-0.99104029,-0.55668622,-0.82177484,-0.12160004,0
3.8952725,-5.3934546,-4.7074399,0.47794756,-0.66177362,-0.5776,0
-2.2521384,-1.286936,7.7261996,-0.27633601,-0.15790626,0.94800001,0
-7.8239999,0,2.2819993,-0.96000004,0,0.27999994,0
3.4238322,3.1125751,6.7090793,0.42010212,0.38191107,0.82319993,0
-5.940002,-1.485001,5.3790002,-0.72883463,-0.18220872,0.66000003,0
-2.573873,-0.32173377,7.7261996,-0.31581265,-0.03947654,0.94800001,0
-0.64307201,2.5722861,7.7066398,-0.078904547,0.31561795,0.94560003,0
0.75685394,6.6603131,-4.6357198,0.092865519,0.8172164,-0.56879997,0
4.1671042,-2.4392805,-6.5656414,0.51130116,-0.29929823,-0.80560023,0
2.2595253,0,7.8305197,0.27724239,0,0.96079999,0
3.8488989,6.2981973,-3.4556012,0.47225755,0.77278495,-0.42400017,0
0.61716479,4.937324,6.4547992,0.075725742,0.60580665,0.79199994,0
-5.9699845,-0.59699881,5.5159202,-0.73251349,-0.073251389,0.67680007,0
-7.660553,-2.0159349,-1.9168797,-0.93994522,-0.24735399,-0.23519997,0
1.6424059,7.9774003,0.29340121,0.2015222,0.97882217,0.036000151,0
-2.3535669,5.8839154,5.1247201,-0.28878123,0.72195286,0.62880003,0
5.0392599,-3.5571246,5.3268394,0.61831415,-0.43645704,0.65359998,0
4.1371136,-6.0332899,-3.5925198,0.50762135,-0.74028099,-0.44079998,0
1.1631035,4.8638864,-6.4352388,0.14271209,0.59679592,-0.7895999,0
3.7402525,6.6790228,2.79708,0.45892671,0.81951201,0.34320003,0
-0.96915799,1.938316,7.8565998,-0.1189151,0.23783019,0.96400005,0
2.249541,6.7486253,3.9771998,0.27601731,0.82805222,0.48800001,0
-2.0442464,7.6659226,1.8647193,-0.25082779,0.94060403,0.22879992,0
-6.8351493,-1.1391913,4.2901597,-0.83866864,-0.13977808,0.52639997,0
-1.286936,2.2521384,7.7261996,-0.15790626,0.27633601,0.94800001,0
-0.12759878,-5.8695493,-5.6528401,-0.015656292,-0.72019011,-0.69360006,0
-0.73903531,7.5751143,-2.9144411,-0.090679184,0.9294619,-0.35760015,0
-6.7486248,-2.249542,3.9771993,-0.82805216,-0.27601743,0.48799995,0
-5.1154785,-2.7081947,5.7375998,-0.62766612,-0.33229384,0.704,0
3.1905329,-5.8009677,4.7530799,0.39147645,-0.71177518,0.58320004,0
4.9933577,-6.4200315,0.52160126,0.61268193,-0.78773397,0.06400016,0
7.0492744,-3.7763975,1.5713209,0.86494172,-0.46336168,0.19280012,0
-2.2590644,0.32272321,7.8239999,-0.27718583,0.039597943,0.96000004,0
6.2040048,-5.284893,-0.052159004,0.76122761,-0.64845318,-0.0063998783,0
-1.1802456,-3.3932066,-7.3154402,-0.14481542,-0.41634437,-0.89760005,0
4.7658033,6.4234734,-1.5648006,0.5847612,0.78815627,-0.19200009,0
-3.6665297,-2.972862,-6.6438804,-0.44988096,-0.36476836,-0.81520009,0
-2.1921453,3.7579641,6.8916397,-0.2689749,0.46109992,0.84560001,0
2.5371442,3.9032986,-6.689518,0.31130606,0.47893238,-0.82079977,0
6.5009332,4.2064872,-2.5427995,0.79766053,0.51613343,-0.31199995,0
-4.6631899,-5.7604117,3.3903999,-0.57217056,-0.70679903,0.41600001,0
4.3672714,6.5509057,-2.1059599,0.53586155,0.80379212,-0.25839999,0
-4.8066506,-3.3045728,5.6919594,-0.58977312,-0.40546909,0.69839996,0
3.3398695,-6.3457522,-3.8728793,0.40979996,-0.77861995,-0.47519994,0
1.1802455,-3.3932052,-7.3154407,0.14481542,-0.41634423,-0.89760011,0
2.3821473,5.5583439,-5.4637609,0.29228804,0.68200541,-0.67040014,0
-3.137265,7.4811707,0.78239995,-0.38494051,0.91793507,0.096000001,0
3.3451345,7.407084,0.60636014,0.41044596,0.90884471,0.074400023,0
-2.2129514,-3.1613593,7.1785197,-0.2715278,-0.38789687,0.88080001,0
-1.2637368,-6.7925844,-4.3227601,-0.15505974,-0.83344597,-0.53040004,0
2.6253819,4.8927569,-5.9658017,0.32213277,0.60033828,-0.73200023,0
3.8367023,5.1156039,-5.053,0.47076106,0.62768149,-0.62,0
0.83331031,7.2220292,3.6838002,0.10224666,0.88613862,0.45200005,0
-3.8367023,5.1156039,-5.053,-0.47076106,0.62768149,-0.62,0
-6.7888198,-0.30858287,-4.4987998,-0.83298409,-0.03786293,-0.55199999,0
-7.2321553,3.4913847,1.3887594,-0.88738108,0.4283908,0.17039993,0
-8.0509825,1.1839683,0.44987974,-0.98785067,0.1452722,0.05519997,0
1.3369657,8.0217934,-0.53464067,0.16404487,0.98426914,-0.065600082,0
-5.5537043,-5.0162487,-3.2274001,-0.68143612,-0.61549067,-0.39600003,0
-1.7038047,7.880096,-1.1931603,-0.20905581,0.966883,-0.14640005,0
3.8244345,7.170814,0.61287898,0.46925581,0.8798545,0.07519988,0
-6.7757826,-4.5171881,-0.32600015,-0.83138442,-0.55425626,-0.040000021,0
-7.1174989,-3.558749,1.7604002,-0.87331277,-0.43665633,0.21600004,0
-3.1122341,-2.934392,-6.9372787,-0.38186923,-0.36004812,-0.85119987,0
5.6816669,-1.2625927,-5.704999,0.69713706,-0.15491936,-0.69999993,0
2.8539438,6.2786756,4.3423185,0.35017717,0.77038968,0.53279984,0
-3.686424,-5.6832371,-4.5314002,-0.45232198,-0.69732976,-0.55600005,0
1.355437,0.24895775,-8.0326395,0.16631129,0.030546965,-0.98559999,0
0,6.4404402,4.994319,0,0.79023808,0.61279988,0
-4.8114023,-5.7024026,-3.2795589,-0.59035611,-0.69968134,-0.4023999,0
-6.0171151,-4.9706607,2.3472002,-0.73829639,-0.60989702,0.28800005,0
0.31050512,2.5357919,-7.7392402,0.03809879,0.31114012,-0.94960004,0
0.34989989,4.1987967,-6.9764009,0.042932503,0.51518983,-0.85600013,0
-3.3851798,6.2061634,4.055439,-0.4153595,0.76149249,0.4975999,0
7.3818374,2.3727329,2.5102012,0.90574694,0.29113287,0.30800018,0
1.6056951,-2.2479725,7.6675196,0.19701782,-0.27582484,0.94080001,0
5.4093213,6.0854859,-0.3585996,0.66372043,0.74668545,-0.043999955,0
-2.8760448,6.0548306,-4.6357183,-0.35288894,0.74292403,-0.56879985,0
1.6972066,-0.88717616,-7.9217992,0.20824622,-0.10885598,-0.97199994,0
-1.669935,-3.6738572,-7.080719,-0.20490001,-0.45078003,-0.86879992,0
0.17676276,-7.4240437,-3.3578007,0.021688683,-0.91092563,-0.41200012,0
-7.9188747,0.51089466,1.8581998,-0.97164112,0.062686466,0.22799999,0
3.4602962,5.7671595,4.6031199,0.42457622,0.70762694,0.56480002,0
3.9164255,4.2176886,5.7702003,0.48054302,0.51750785,0.70800006,0
-2.5096498,-3.4507685,6.9437995,-0.3079325,-0.4234072,0.852,0
5.4884615,-4.8024039,-3.6381595,0.67343086,-0.58925205,-0.44639996,0
5.7671595,-3.4602962,4.6031199,0.70762694,-0.42457622,0.56480002,0
-5.9281931,5.3149314,-1.7408404,-0.7273857,0.65213883,-0.21360007,0
-4.0205197,2.7834358,6.52,-0.49331534,0.34152588,0.80000001,0
-0.30650905,5.210659,6.2591991,-0.037608474,0.63934469,0.76799995,0
5.9242368,1.7772712,5.3072801,0.72690028,0.21807009,0.65120006,0
4.0702453,-1.5654793,6.8851199,0.49941662,-0.19208336,0.84480006,0
-1.8380735,4.7573671,-6.3569994,-0.22553051,0.58372605,-0.77999997,0
3.6665297,2.972862,-6.6438804,0.44988096,0.36476836,-0.81520009,0
6.0171161,4.9706607,2.3471994,0.73829651,0.60989702,0.28799996,0
5.6479306,-3.9221737,-4.3749204,0.69299763,-0.48124832,-0.53680009,0
-6.1155896,2.3297479,4.8573999,-0.75037915,0.28585866,0.59600002,0
-2.3516774,4.7033548,-6.2266006,-0.28854939,0.57709879,-0.76400012,0
-1.853653,3.623049,-7.0611601,-0.22744209,0.44454592,-0.86640006,0
1.7595304,6.1583557,5.0399604,0.21589331,0.7556265,0.6184001,0
7.7524633,-2.5081503,-0.17603904,0.95122254,-0.30774853,-0.021599883,0
-1.6165791,1.2932637,7.8826795,-0.19835326,0.15868267,0.96719998,0
-4.4049101,-6.7122436,-1.4017999,-0.54047978,-0.82358819,-0.17199999,0
-4.1365533,-6.9668264,-0.88019961,-0.50755256,-0.85482538,-0.10799996,0
6.6964645,-4.4643102,1.2844404,0.82165211,-0.54776812,0.15760006,0
-1.4381,6.6152592,4.537919,-0.17645399,0.8116883,0.55679989,0
-0.7146765,8.0996666,0.55420113,-0.087690376,0.99382418,0.068000138,0
0.79453015,-7.6804657,2.6079991,0.097488366,-0.94238847,0.3199999,0
0.52739447,7.3835301,-3.4099607,0.064710982,0.90595466,-0.41840011,0
6.1087356,-5.0906124,1.7864799,0.74953812,-0.62461507,0.2192,0
4.3672714,6.5509057,-2.1059599,0.53586155,0.80379212,-0.25839999,0
0.96915704,1.9383161,7.8565998,0.11891498,0.23783021,0.96400005,0
-7.5271411,-1.0753057,2.9339998,-0.92357564,-0.13193935,0.35999998,0
-3.4283049,-5.4281492,-5.0204,-0.42065093,-0.66603059,-0.61600006,0
-7.9352922,-1.5012714,-1.0953602,-0.97365552,-0.18420509,-0.13440003,0
-2.1930377,-7.5759478,-2.0537999,-0.26908439,-0.92956418,-0.252,0
-6.6152582,-1.4381001,4.53792,-0.81168818,-0.17645401,0.55680001,0
-4.814846,-5.098073,4.1532397,-0.59077871,-0.62553048,0.50959998,0
6.3213005,-3.0796082,-4.1206388,0.77561975,-0.37786606,-0.50559986,0
-7.6199193,-1.758443,-2.2950392,-0.93495947,-0.21575989,-0.28159991,0
-4.5142231,5.1368742,-4.4335999,-0.55389243,0.63029134,-0.54400003,0
-6.1003647,-5.3964767,0.29340065,-0.74851102,-0.66214442,0.03600008,0
7.3558598,1.3621967,3.2339203,0.90255952,0.16714071,0.39680007,0
-2.9105997,-0.23759992,-7.60884,-0.35712883,-0.029153366,-0.93360007,0
-0.28224871,7.0562243,4.06848,-0.034631744,0.86579442,0.49920002,0
-1.7208354,-6.5965352,4.4661999,-0.21114546,-0.80939084,0.54800004,0
7.880096,-1.7038047,-1.1931603,0.966883,-0.20905581,-0.14640005,0
7.1312909,0.33168763,-3.9315603,0.87500507,0.040697869,-0.48240006,0
-2.9054265,7.5988073,-0.48899874,-0.35649407,0.93236905,-0.05999985,0
3.2715518,-7.4155188,-0.85411966,0.40141743,-0.90987962,-0.10479996,0
-6.2129097,0,5.2746797,-0.76232022,0,0.64719999,0
-0.50030142,-8.004818,1.4474401,-0.061386682,-0.98218632,0.17760003,0
2.7991986,-3.1490986,-6.9763999,0.34345996,-0.38639247,-0.85600001,0
-7.5325441,-0.91860318,-2.9731197,-0.92423856,-0.11271206,-0.36479998,0
1.2136663,8.0101957,0.8867206,0.14891613,0.98284614,0.10880008,0
-4.9168749,6.4813356,-0.48900077,-0.60329753,0.79525596,-0.060000096,0
3.3851798,6.2061634,4.055439,0.4153595,0.76149249,0.4975999,0
-6.0275908,-3.1573098,4.4857593,-0.7395817,-0.3874,0.55039996,0
-6.0171151,-4.9706607,2.3472002,-0.73829639,-0.60989702,0.28800005,0
-3.6427081,-6.1645832,3.8924398,-0.44695807,-0.75639063,0.47760001,0
2.0032423,7.7625656,1.467,0.24579661,0.95246208,0.18000001,0
7.0505738,0.56404537,4.0489197,0.8651011,0.069208026,0.49679998,0
0,-8.0512466,-1.2648797,0,-0.98788309,-0.15519997,0
-3.8301764,5.0086927,5.1638393,-0.4699603,0.61456358,0.63359994,0
-6.0176454,4.3764701,3.3251994,-0.73836142,0.53699023,0.40799993,0
-6.5713315,-4.5177908,-1.6821595,-0.80629838,-0.55433017,-0.20639995,0
-4.0887365,0.62903577,7.0220399,-0.5016855,0.077182308,0.86160004,0
-0.55335516,3.794436,-7.1915607,-0.067896344,0.46557498,-0.88240016,0
-0.091046713,4.3702464,-6.8786011,-0.011171376,0.53622657,-0.84400016,0
-4.6631899,-5.7604117,3.3903999,-0.57217056,-0.70679903,0.41600001,0
-1.1292982,2.540921,-7.6609988,-0.1385642,0.31176946,-0.93999988,0
-3.3561242,0.62927312,-7.4001985,-0.41179439,0.077211432,-0.90799987,0
3.1453843,2.6353219,-7.0416002,0.38593674,0.3233524,-0.86400008,0
-2.188235,-7.1117625,3.3252001,-0.26849511,-0.87260896,0.40800002,0
2.3760004,5.6430025,5.3790002,0.2915338,0.692393,0.66000003,0
0.30650905,-5.2106586,6.2592001,0.037608474,-0.63934463,0.76800007,0
-0.80932069,-7.8908782,-1.8712392,-0.099303156,-0.96820599,-0.22959991,0
-6.2224269,-5.1495943,-1.0888411,-0.76348799,-0.63185209,-0.13360015,0
-2.6620281,5.1972933,-5.6854415,-0.32662922,0.63770473,-0.69760025,0
1.5356644,4.9141259,6.3178792,0.18842509,0.60296029,0.77519995,0
4.6277065,-1.851083,6.4482803,0.56781679,-0.22712676,0.7912001,0
-0.65147853,0,8.1239195,-0.07993602,0,0.99680001,0
5.1665521,6.2897143,-0.41075951,0.63393277,0.77174413,-0.05039994,0
-1.1531368,-6.630538,4.5966001,-0.14148919,-0.81356299,0.56400001,0
6.4465628,-2.7397892,-4.1662784,0.79098934,-0.33617046,-0.51119983,0
-5.947494,-2.6110952,-4.9225998,-0.72975391,-0.32037979,-0.60400003,0
-2.5360219,-1.6700631,-7.5631986,-0.31116834,-0.20491573,-0.92799985,0
7.1656246,3.4804463,-1.7212814,0.8792178,0.42704865,-0.21120018,0
-0.30858225,1.890066,-7.9218006,-0.037862856,0.23190995,-0.97200012,0
7.0459991,3.3925183,2.2950406,0.8645398,0.41625994,0.28160009,0
-4.4443254,-1.8181332,-6.5851998,-0.54531604,-0.22308384,-0.80800003,0
7.8399792,-1.9599952,1.0562401,0.96196067,-0.24049021,0.12960002,0
1.89482,7.0625105,-3.5990415,0.23249327,0.86656576,-0.4416002,0
0,0.32593447,8.1434793,0,0.03999196,0.99919999,0
2.9508173,-4.4262261,-6.1744385,0.3620635,-0.54309523,-0.75759983,0
-2.9983771,7.495944,-1.1149207,-0.36789906,0.91974777,-0.1368001,0
-4.3201575,6.2102275,3.0317993,-0.53008068,0.76199114,0.37199992,0
0.80813736,7.5426221,2.979641,0.099157959,0.92547512,0.36560014,0
1.6034429,-5.8792901,-5.4115996,0.19674148,-0.7213853,-0.66399997,0
-0.61768186,-5.682672,-5.8093204,-0.075789191,-0.69726038,-0.71280009,0
1.9762696,6.7757826,4.0749998,0.24248707,0.83138442,0.5,0
-7.2397337,-3.7366366,0.21515997,-0.88831091,-0.45848304,0.026399998,0
-4.4141598,-6.4914122,2.1907201,-0.54161471,-0.79649234,0.26880002,0
5.1154795,2.708194,5.7375998,0.62766623,0.33229375,0.704,0
0.84493685,7.0411468,4.0163198,0.10367323,0.86394441,0.4928,0
-5.4544001,-1.2120886,5.9331994,-0.66925156,-0.14872253,0.72799999,0
5.0817304,-0.43248755,-6.3570013,0.6235252,-0.053065959,-0.78000021,0
0.3235783,-1.9414716,7.9087596,0.039702859,-0.23821738,0.97039998,0
-7.8085074,1.201309,-2.0016391,-0.95809913,0.14739987,-0.24559991,0
-6.2040048,5.2848935,-0.052159898,-0.76122761,0.64845324,-0.0063999877,0
2.9854481,-7.4636202,1.3431194,0.36631268,-0.91578168,0.16479993,0
-5.5075207,5.5075202,2.3993602,-0.67576945,0.67576939,0.29440004,0
6.7888198,-0.30858287,-4.4987998,0.83298409,-0.03786293,-0.55199999,0
5.3964767,-6.1003647,0.29339975,0.66214442,-0.74851102,0.035999972,0
-3.4974074,0.31794581,7.3545594,-0.42912978,0.039011758,0.90239996,0
-1.9793316,3.4638305,-7.106801,-0.24286279,0.42500991,-0.87200016,0
-2.8166397,-4.6943994,-6.0375204,-0.34559998,-0.57599998,-0.74080008,0
3.7233348,2.2703259,-6.8851209,0.45685092,0.27856761,-0.84480017,0
1.5470958,7.7354789,2.0472794,0.18982771,0.94913858,0.25119993,0
-0.92538041,8.0970812,0.058678951,-0.11354361,0.99350697,0.0071998718,0
0.96658766,2.2553732,7.7718396,0.11859972,0.27673292,0.95359999,0
-6.150188,4.5457916,2.8166399,-0.75462431,0.55776584,0.34560001,0
-6.1583567,1.7595304,5.0399594,-0.75562662,0.21589331,0.61839998,0
-3.1558957,-7.1007643,2.4580405,-0.38722649,-0.87125945,0.30160007,0
0.81965512,6.1474128,-5.2877192,0.10057119,0.75428379,-0.64879996,0
-2.0017462,-7.2790766,-3.0709205,-0.24561304,-0.89313829,-0.37680006,0
-5.0195694,-2.3902709,-5.9592805,-0.61589813,-0.2932848,-0.7312001,0
7.3441482,3.0600612,-1.7669201,0.90112251,0.37546766,-0.21680002,0
2.4580312,-7.5789294,-1.7147602,0.30159894,-0.92993003,-0.21040003,0
-0.46575677,-0.72451061,-8.1043596,-0.057148073,-0.088897012,-0.99440002,0
2.1048896,-5.4125738,5.7180395,0.25826868,-0.66411954,0.70159996,0
-7.359561,3.0453355,1.7277991,-0.90301365,0.37366083,0.21199989,0
-2.8836906,-0.64082044,7.5957994,-0.35382709,-0.078628279,0.93199998,0
-5.5768642,5.3112988,2.6666799,-0.68427783,0.65169317,0.3272,0
1.7617273,-7.8019366,1.5647999,0.21616288,-0.95729285,0.192,0
-0.87085313,-8.0553932,-0.88020015,-0.10685315,-0.98839188,-0.10800003,0
-8.1451731,-0.23271902,0.15648028,-0.99940777,-0.028554482,0.019200036,0
4.6390619,-1.5463541,-6.519999,0.56921005,-0.18973671,-0.79999989,0
-4.9395351,-4.3584142,4.7987199,-0.60607797,-0.53477478,0.58880001,0
-5.8331776,4.5958371,-3.3577988,-0.71572733,0.56390643,-0.41199988,0
-2.0032399,1.4523489,-7.7653208,-0.24579631,0.17820233,-0.95280015,0
-2.7081947,-5.1154785,5.7375998,-0.33229384,-0.62766612,0.704,0
-3.1125741,-3.4238322,6.7090797,-0.38191095,-0.42010212,0.82319999,0
-5.3149314,-5.9281931,-1.7408404,-0.65213883,-0.7273857,-0.21360007,0
3.0407262,4.5610876,6.0309997,0.37309524,0.55964267,0.74000001,0
-7.511023,-2.331007,2.1385591,-0.92159796,-0.28601316,0.26239991,0
-3.5587492,7.1174984,1.7604012,-0.43665636,0.87331271,0.21600017,0
2.6400368,7.6801057,0.68460006,0.32393092,0.94234431,0.084000014,0
-1.6541793,7.1681104,3.50776,-0.20296679,0.8795228,0.43040001,0
7.7278085,-2.5759368,0.26080051,0.94819742,-0.31606588,0.032000065,0
3.2717795,7.2985859,1.5647992,0.40144536,0.89553207,0.19199991,0
-8.004818,-0.50030142,1.4474401,-0.98218632,-0.061386682,0.17760003,0
4.8303657,3.0189788,5.8288789,0.59268296,0.37042686,0.71519989,0
5.7865644,-2.018569,-5.3724804,0.71000791,-0.24767719,-0.65920007,0
-6.5902009,-3.9541206,-2.7123199,-0.80861366,-0.48516819,-0.3328,0
7.8539181,1.0069128,-1.9299192,0.96367097,0.12354759,-0.23679993,0
3.0796082,6.3213005,-4.1206388,0.37786606,0.77561975,-0.50559986,0
-5.682672,-0.61768186,-5.8093204,-0.69726038,-0.075789191,-0.71280009,0
2.7103131,-7.6792202,-0.32600021,0.33255377,-0.94223565,-0.040000029,0
-6.9198055,-2.4219317,-3.5599198,-0.84905595,-0.29716957,-0.4368,0
0.59927225,3.5956345,-7.2893605,0.073530339,0.44118217,-0.89440012,0
3.7366374,-7.2397337,0.21515934,0.45848313,-0.88831091,0.02639992,0
-2.8166399,-6.2591996,-4.3944802,-0.34560001,-0.76800001,-0.53920007,0
-0.71467644,-8.0996666,0.55419981,-0.087690368,-0.99382418,0.067999981,0
-0.87627923,6.4260483,4.9356389,-0.10751893,0.78847224,0.60559988,0
-6.618361,2.6473448,-3.9511206,-0.81206888,0.32482761,-0.4848001,0
2.0854108,-7.8782215,0.084760144,0.25587863,-0.96665299,0.010400019,0
0,-0.32593447,8.1434793,0,-0.03999196,0.99919999,0
-6.4200315,4.9933577,0.52160126,-0.78773397,0.61268193,0.06400016,0
0.0028474925,0.0021356195,-8.1499987,0.00034938561,0.00026203922,-0.99999988,0
1.4421442,-3.6053603,-7.1654792,0.17695022,-0.44237551,-0.87919992,0
-2.8765173,1.2784528,7.5175595,-0.35294694,0.15686537,0.9224,0
-6.0894775,2.6097753,4.7465596,-0.74717522,0.32021785,0.58239996,0
-6.7816615,3.2551978,3.1361198,-0.83210576,0.39941078,0.38479999,0
4.920764,-6.3969936,1.1344806,0.60377473,-0.78490722,0.13920008,0
5.7354064,-5.5305705,-1.7147582,0.70373088,-0.67859763,-0.21039978,0
5.1156039,3.8367023,-5.053,0.62768149,0.47076106,-0.62,0
-0.97545385,-0.65030289,8.0652399,-0.11968759,-0.079791769,0.98960006,0
-2.1048896,-5.4125738,5.7180395,-0.25826868,-0.66411954,0.70159996,0
-5.682672,-0.61768186,-5.8093204,-0.69726038,-0.075789191,-0.71280009,0
0.94253945,4.084341,6.98944,0.11564901,0.50114614,0.85760003,0
-8.0228167,1.0841646,-0.93888026,-0.98439473,0.13302635,-0.11520004,0
2.5542092,7.1152978,-3.0448389,0.31339991,0.8730427,-0.37359989,0
7.6431365,1.3177824,2.503679,0.93780822,0.1616911,0.3071999,0
5.7172999,-0.9027316,5.7375998,0.70150924,-0.11076462,0.704,0
2.3607447,-7.7904553,0.3977204,0.28966194,-0.95588416,0.048800051,0
7.5426221,0.80813736,2.979641,0.92547512,0.099157959,0.36560014,0
-1.3130952,-2.1211538,-7.7588,-0.16111599,-0.26026428,-0.95200002,0
-8.0474339,-0.21177436,-1.2713997,-0.98741525,-0.025984585,-0.15599997,0
5.5996132,-4.4796906,3.8728802,0.68706912,-0.54965532,0.47520006,0
-6.8566098,-0.57138443,4.3683996,-0.84130186,-0.070108525,0.53599995,0
-6.96527,1.9502754,3.7555199,-0.8546344,0.23929761,0.46079999,0
2.8126678,-7.415215,1.8777589,0.34511262,-0.90984237,0.23039988,0
-4.9998665,-5.2776365,3.6837997,-0.61348057,-0.6475628,0.45199999,0
4.6590409,6.565011,-1.2714008,0.57166147,0.80552286,-0.15600011,0
0.33168763,7.1312909,-3.9315603,0.040697869,0.87500507,-0.48240006,0
-6.1193595,3.8941374,3.7164001,-0.75084168,0.4778083,0.45600003,0
3.4375303,6.6941381,-3.1296,0.42178288,0.82136667,-0.38400003,0
-4.043714,3.5815756,-6.1027193,-0.49616125,0.43945715,-0.74879998,0
3.4814599,-6.9629197,-2.4124007,0.42717302,-0.85434604,-0.29600009,0
5.0565743,4.0452585,-4.9486799,0.62043858,0.49635077,-0.60720003,0
-6.4098029,3.3442452,3.7620401,-0.78647894,0.41033685,0.46160004,0
7.7460203,-2.093519,-1.42788,0.950432,-0.25687352,-0.17520002,0
-4.1883068,-5.8636298,3.8076794,-0.51390272,-0.71946383,0.46719995,0
2.2553732,0.96658766,7.7718396,0.27673292,0.11859972,0.95359999,0
-7.2369351,-2.412312,2.8688004,-0.88796753,-0.29598922,0.35200006,0
-3.5009058,-6.7325115,2.97312,-0.42955902,-0.82607508,0.36480001,0
-2.0327349,-6.9451771,-3.7489996,-0.24941534,-0.85216898,-0.45999998,0
2.5403574,-2.5403583,7.3154397,0.31170031,-0.31170043,0.8976,0
2.4353743,4.8707504,6.0635991,0.29881895,0.59763813,0.7439999,0
-1.1531368,-6.630538,4.5966001,-0.14148919,-0.81356299,0.56400001,0
0.65518636,-8.0806398,-0.8345601,0.080390967,-0.99148959,-0.10240002,0
1.6511184,6.454371,-4.6944003,0.20259123,0.79194742,-0.57600009,0
0,7.9291854,1.8842798,0,0.97290623,0.23119999,0
2.7485793,-4.5809669,6.15488,0.33724901,-0.56208187,0.75520003,0
-0.091046713,4.3702464,-6.8786011,-0.011171376,0.53622657,-0.84400016,0
-6.365797,-3.5980592,3.5990403,-0.78107941,-0.44147968,0.44160005,0
-6.3179269,-3.8456943,3.4230003,-0.77520579,-0.47186434,0.42000005,0
6.2040048,-5.284893,-0.052159004,0.76122761,-0.64845318,-0.0063998783,0
6.9870553,4.1922331,0.16951936,0.85730743,0.51438445,0.020799924,0
-3.9846213,-3.3716033,6.2591996,-0.48891062,-0.41369367,0.76800001,0
5.400197,-5.5930619,-2.4449997,0.66260087,-0.68626529,-0.29999998,0
-3.9032969,2.5371428,-6.6895199,-0.47893217,0.31130588,-0.82080001,0
-0.46489042,-8.1355772,0.13692024,-0.057041772,-0.9982304,0.016800031,0
-2.8129702,3.4380748,6.8329597,-0.34514973,0.4218497,0.83840001,0
-1.8661331,-7.9310641,0.19559969,-0.2289734,-0.97313672,0.023999963,0
-5.9628592,0.89442813,5.4833202,-0.73163921,0.10974579,0.67280006,0
3.8693221,7.0937567,-1.0627594,0.47476345,0.87039965,-0.13039993,0
4.8517218,2.7290921,5.9527593,0.5953033,0.33485794,0.73039997,0
3.6589217,-3.150738,-6.5656404,0.44894746,-0.38659364,-0.80560011,0
3.7402525,6.6790228,2.79708,0.45892671,0.81951201,0.34320003,0
-4.6943994,2.8166397,-6.0375204,-0.57599998,0.34559998,-0.74080008,0
-7.6672506,-2.4733067,1.2322799,-0.94076699,-0.30347323,0.1512,0
-0.88561666,-6.1993165,5.2159996,-0.10866462,-0.76065236,0.63999999,0
5.4894385,0.83534932,-5.9657984,0.67355078,0.10249685,-0.73199981,0
-7.4178286,1.2664584,-3.1295996,-0.91016304,0.15539367,-0.38399997,0
4.6147738,6.4205542,-1.9755602,0.56622994,0.78779811,-0.24240004,0
1.8939223,7.3051291,3.0774405,0.23238312,0.89633489,0.37760007,0
-7.6667266,2.2792974,-1.5648004,-0.94070268,0.27966839,-0.19200006,0
2.1916797,7.7926407,0.94540054,0.26891777,0.95615226,0.11600007,0
-1.34057,7.5071898,2.8753209,-0.16448712,0.92112762,0.35280013,0
6.1864047,-4.8975701,2.0407596,0.75906807,-0.6009289,0.25039995,0
-2.2567885,-0.56419718,-7.8109589,-0.27690658,-0.069226652,-0.95839989,0
-5.9802828,1.9470686,-5.1833997,-0.73377705,0.23890413,-0.63599998,0
3.5587492,7.1174984,1.7604012,0.43665636,0.87331271,0.21600017,0
2.5251856,-7.5755548,1.6299992,0.30983874,-0.92951596,0.19999991,0
3.1700888,1.9020529,7.2632794,0.38896796,0.23338073,0.89119995,0
-5.6420345,5.1046977,2.9209597,-0.69227421,0.62634331,0.35839999,0
-3.1453843,2.6353219,-7.0416002,-0.38593674,0.3233524,-0.86400008,0
6.4500237,-3.084794,3.911999,0.79141396,-0.37850237,0.4799999,0
2.9871135,7.5826726,-0.052159198,0.36651701,0.93038934,-0.006399902,0
4.8884349,-5.7031741,3.1621995,0.59980798,-0.69977599,0.38799995,0
-1.7208354,-6.5965352,4.4661999,-0.21114546,-0.80939084,0.54800004,0
4.0205193,-2.7834368,6.5199995,0.49331528,-0.341526,0.79999995,0
-6.1474128,0.81965512,-5.2877192,-0.75428379,0.10057119,-0.64879996,0
6.6102958,-4.65169,1.0432007,0.81107926,-0.57075953,0.1280001,0
4.1081681,3.2199156,-6.2592006,0.50406975,0.3950817,-0.76800013,0
5.7078977,-1.2016624,5.6919599,0.70035559,-0.14744325,0.69840002,0
6.548635,2.2777855,4.2836394,0.80351353,0.2794829,0.52559996,0
7.511023,2.3310063,2.1385593,0.92159796,0.28601307,0.26239994,0
-1.5246768,-4.9007473,-6.3309188,-0.18707691,-0.60131872,-0.77679992,0
4.3702464,0.091046713,-6.8786011,0.53622657,0.011171376,-0.84400016,0
7.0077105,2.9506154,-2.9340003,0.85984182,0.36203873,-0.36000004,0
4.1215482,4.6710873,-5.2551188,0.50571144,0.57313955,-0.64479989,0
-0.69155061,6.2239542,-5.2159991,-0.084852837,0.76367539,-0.63999993,0
0.11103149,-5.2184849,-6.2591996,0.013623496,-0.64030492,-0.76800001,0
-2.4752648,6.3428664,-4.4792409,-0.30371347,0.77826583,-0.54960012,0
-1.1802456,-3.3932066,-7.3154402,-0.14481542,-0.41634437,-0.89760005,0
6.1185923,-3.1377394,-4.3749189,0.75074756,-0.38499871,-0.53679991,0
-5.5938368,-2.9441245,5.14428,-0.68636036,-0.36124229,0.63120002,0
0.12759878,-5.8695493,-5.6528401,0.015656292,-0.72019011,-0.69360006,0
0,5.2274723,-6.2526813,0,0.64140767,-0.76720017,0
2.3297479,-6.1155896,4.8573999,0.28585866,-0.75037915,0.59600002,0
1.9355507,-1.2903668,7.8109598,0.23749089,-0.15832722,0.95840001,0
-4.9240804,1.2310208,6.3765597,-0.60418165,0.1510455,0.78240001,0
5.7662168,-5.2420144,2.3863194,0.70751131,-0.64319199,0.29279995,0
2.6620281,5.6198387,5.2681603,0.32662922,0.68955082,0.64640009,0
4.0452585,5.0565743,-4.9486799,0.49635077,0.62043858,-0.60720003,0
5.6925988,-5.4338436,2.1189988,0.6984784,-0.66672933,0.25999987,0
-1.5304648,-6.5809989,-4.5574803,-0.1877871,-0.80748457,-0.55920005,0
5.4431653,-5.9379983,1.2387989,0.66787308,-0.72858876,0.15199986,0
3.9638326,3.6589227,6.1092396,0.48635986,0.44894758,0.74959999,0
0.94199896,-6.0557079,-5.372479,0.1155827,-0.74303168,-0.65919989,0
-6.2786751,-2.8539431,4.34232,-0.77038962,-0.35017708,0.53280002,0
-1.2937726,7.7626343,2.1189992,-0.15874511,0.95247048,0.25999993,0
4.1489124,5.5850749,-4.2445207,0.50906903,0.68528527,-0.52080011,0
0.94253945,4.084341,6.98944,0.11564901,0.50114614,0.85760003,0
-3.9411118,3.9411118,5.9462399,-0.48357204,0.48357204,0.72960001,0
8.1355772,-0.46489036,0.13691887,0.9982304,-0.057041764,0.016799862,0
-5.2576756,3.7972097,4.9356399,-0.64511359,0.46591532,0.6056,0
-5.1537614,2.1221371,5.9462399,-0.63236338,0.26038492,0.72960001,0
1.4295594,-0.83113915,-7.9804802,0.17540607,-0.10198027,-0.97920007,0
3.1817329,-7.4997997,-0.22819901,0.39039668,-0.92022085,-0.02799988,0
0.57833481,-6.6508565,4.67484,0.070961326,-0.81605607,0.57359999,0
7.415215,2.8126678,1.8777589,0.90984237,0.34511262,0.23039988,0
0.88561577,-6.1993165,5.2159996,0.10866451,-0.76065236,0.63999999,0
-3.1934688,-0.31934661,7.4914799,-0.39183667,-0.039183635,0.9192,0
6.4840012,4.7383084,1.3887603,0.79558301,0.58138758,0.17040005,0
0.61768186,-5.682672,-5.8093204,0.075789191,-0.69726038,-0.71280009,0
1.2733885,3.1834702,7.3936791,0.15624399,0.39060986,0.90719992,0
5.1822886,-1.5242028,6.1027193,0.63586366,-0.18701877,0.74879998,0
4.0490088,2.1802354,6.7286396,0.49681091,0.26751354,0.82559997,0
3.1934698,-0.31934658,7.4914794,0.39183679,-0.039183632,0.91919994,0
-6.1474128,-0.81965512,-5.2877192,-0.75428379,-0.10057119,-0.64879996,0
-2.2590628,0.32272321,-7.8240004,-0.27718562,0.039597943,-0.9600001,0
3.8693221,-7.0937567,-1.0627594,0.47476345,-0.87039965,-0.13039993,0
5.089673,-6.1076078,-1.7930003,0.6244998,-0.74939978,-0.22000006,0
-4.0132647,7.0822325,0.3977198,-0.49242514,0.86898559,0.048799977,0
3.211972,7.2269363,-1.9690411,0.39410701,0.88674068,-0.24160014,0
1.5095315,-6.038125,-5.2616396,0.1852186,-0.74087429,-0.64559996,0
-2.6854963,6.9822898,-3.2339191,-0.32950878,0.85672271,-0.39679992,0
6.96527,-1.9502754,3.7555199,0.8546344,-0.23929761,0.46079999,0
1.0841646,-8.0228167,-0.93888026,0.13302635,-0.98439473,-0.11520004,0
5.0162487,-5.5537047,-3.2273989,0.61549067,-0.68143618,-0.39599988,0
2.915833,5.831666,-4.8899984,0.35777095,0.7155419,-0.59999985,0
-6.534328,-4.7918406,-0.87368041,-0.80175805,-0.58795595,-0.10720006,0
-3.2715528,7.4155188,-0.85411894,-0.40141755,0.90987962,-0.10479987,0
-1.9700222,2.414866,-7.5305996,-0.24172053,0.29630259,-0.92399997,0
0.6388272,-3.06637,-7.5240793,0.078383707,-0.37624174,-0.92319995,0
-1.6563621,3.0966771,-7.3545599,-0.20323461,0.37996039,-0.90240002,0
-1.800689,5.2820206,-5.9397197,-0.22094345,0.64810073,-0.7288,0
-0.90906793,2.3231735,-7.7587986,-0.11154208,0.28505197,-0.95199984,0
0.61260188,5.2071214,6.2396393,0.075165875,0.63891065,0.76559997,0
6.2981982,-3.8488986,-3.4556005,0.77278507,-0.47225752,-0.42400008,0
3.52688,-5.2903199,5.0986395,0.43274602,-0.64911902,0.62559998,0
2.6400368,-7.6801057,0.68460006,0.32393092,-0.94234431,0.084000014,0
-1.5887278,-3.1774547,7.3349996,-0.19493593,-0.38987178,0.89999998,0
6.5077796,3.0035908,-3.8793993,0.7985006,0.36853877,-0.47599992,0
-2.6692214,-5.4719043,-5.4181194,-0.32751185,-0.67139935,-0.66479999,0
-1.5242028,5.1822886,6.1027193,-0.18701877,0.63586366,0.74879998,0
-6.038125,-1.5095315,-5.2616396,-0.74087429,-0.1852186,-0.64559996,0
-5.5033126,1.7510539,-5.7506394,-0.67525309,0.21485326,-0.70559996,0
2.4185603,-7.7393904,0.82151997,0.29675588,-0.94961852,0.1008,0
-7.7393909,-2.4185596,0.82152033,-0.94961858,-0.29675579,0.10080004,0
4.3728733,0.93704355,6.8134003,0.53654891,0.11497467,0.83600008,0
-1.1802469,3.3932099,-7.3154383,-0.14481558,0.41634479,-0.89759982,0
-2.2567885,-0.56419718,-7.8109589,-0.27690658,-0.069226652,-0.95839989,0
4.0035081,-3.0796216,6.3961201,0.49122801,-0.3778677,0.78480005,0
3.9860623,6.9756069,1.3692005,0.48908743,0.85590273,0.16800007,0
4.7918406,6.5343275,-0.87368125,0.58795595,0.80175799,-0.10720016,0
-7.3992662,-3.2063484,1.1801195,-0.90788549,-0.393417,0.14479995,0
-1.2218692,-5.192945,6.1613998,-0.14992261,-0.63717121,0.75600004,0
-7.7032633,-1.7974278,1.9625195,-0.94518572,-0.2205433,0.24079995,0
7.8467054,2.1400101,0.52160102,0.96278596,0.26257795,0.06400013,0
-2.548378,-2.22983,7.4132395,-0.31268442,-0.27359879,0.90959996,0
7.1961389,2.6652374,2.7449203,0.88296187,0.327023,0.33680004,0
7.846705,-2.1400106,0.52160066,0.96278596,-0.26257801,0.064000085,0
4.5268154,5.3755922,4.1271591,0.55543751,0.6595819,0.50639993,0
-3.7972097,5.2576756,4.9356399,-0.46591532,0.64511359,0.6056,0
-7.3835301,0.52739447,-3.4099607,-0.90595466,0.064710982,-0.41840011,0
-3.4638305,-1.9793316,-7.106801,-0.42500991,-0.24286279,-0.87200016,0
-5.2776365,-4.9998665,3.6837997,-0.6475628,-0.61348057,0.45199999,0
-0.27000964,7.560276,3.031801,-0.03313002,0.92764127,0.37200013,0
3.150738,-3.6589217,-6.5656404,0.38659364,-0.44894746,-0.80560011,0
-7.8019638,0.78019559,2.2233195,-0.95729619,0.095729522,0.27279997,0
2.0008855,6.5743394,4.3814392,0.24550743,0.80666745,0.53759992,0
-4.7628498,6.0858641,2.5884392,-0.58439881,0.74673182,0.31759992,0
7.5759478,2.1930377,-2.0537999,0.92956418,0.26908439,-0.252,0
-4.2669797,-6.776968,1.5126408,-0.52355582,-0.83152986,0.18560012,0
6.5809989,-1.5304648,-4.5574803,0.80748457,-0.1877871,-0.55920005,0
-7.9059668,0.76509285,1.8255999,-0.97005731,0.093876429,0.22399999,0
-1.3177824,7.6431365,2.503679,-0.1616911,0.93780822,0.3071999,0
-4.7383084,6.4840012,1.3887603,-0.58138758,0.79558301,0.17040005,0
2.2916572,7.0512528,-3.3838785,0.28118494,0.86518443,-0.41519985,0
-6.1076078,5.089673,-1.7930003,-0.74939978,0.6244998,-0.22000006,0
0.65030193,0.9754529,8.0652399,0.07979165,0.11968748,0.98960006,0
-2.449846,-7.0773325,3.2143602,-0.30059463,-0.86838442,0.39440006,0
-6.8069797,0.15470394,-4.4792395,-0.83521229,0.018982081,-0.54959995,0
-1.7617273,7.8019366,1.5647999,-0.21616288,0.95729285,0.192,0
1.9143498,7.8966942,0.63244087,0.23488955,0.96891958,0.077600107,0
-2.2428701,-1.9224604,7.5957999,-0.27519879,-0.23588473,0.93200004,0
-7.0648489,-0.65719509,-4.0098,-0.86685264,-0.08063744,-0.49200001,0
6.3675237,0.2830008,-5.0790792,0.78129131,0.034724027,-0.62319994,0
-3.5571246,5.0392599,5.3268394,-0.43645704,0.61831415,0.65359998,0
1.6424059,7.9774003,0.29340121,0.2015222,0.97882217,0.036000151,0
-7.4821877,2.3627963,-2.2037597,-0.91805989,0.28991368,-0.27039996,0
-5.2420144,5.7662168,2.3863194,-0.64319199,0.70751131,0.29279995,0
-6.6559262,0.28938785,4.6944003,-0.81667811,0.035507713,0.57600009,0
-5.220675,-1.0214365,-6.1744404,-0.64057362,-0.12532963,-0.75760007,0
-1.9383161,0.96915704,7.8565998,-0.23783021,0.11891498,0.96400005,0
-0.43776372,8.0986242,-0.80196023,-0.053713344,0.99369627,-0.098400034,0
-4.8517208,2.7290924,5.9527602,-0.59530318,0.33485797,0.73040009,0
-5.6825752,5.6825752,-1.3561586,-0.69724852,0.69724852,-0.16639984,0
1.485001,-5.940002,5.3790002,0.18220872,-0.72883463,0.66000003,0
7.0581069,0,4.0749998,0.86602545,0,0.5,0
2.7991986,-3.1490986,-6.9763999,0.34345996,-0.38639247,-0.85600001,0
5.5649562,-3.2218173,5.0073595,0.68281674,-0.39531502,0.61439997,0
0,5.4745641,6.0375195,0,0.67172569,0.74079996,0
3.6024568,-4.4720154,-5.7832413,0.44201925,-0.54871356,-0.70960021,0
-5.7671595,3.4602962,4.6031199,-0.70762694,0.42457622,0.56480002,0
7.9770269,1.5510883,-0.61940056,0.97877634,0.1903176,-0.076000072,0
6.5316601,3.26583,-3.6185997,0.8014307,0.40071535,-0.44399998,0
7.5867982,-1.8312957,2.3471992,0.93089551,-0.22469887,0.28799993,0
-4.4643102,-6.6964645,1.2844404,-0.54776812,-0.82165211,0.15760006,0
3.4946227,-5.5331521,4.8573999,0.4287881,-0.67891443,0.59600002,0
3.1881406,-0.956442,7.4393191,0.39118293,-0.11735485,0.91279995,0
-7.4959445,-2.9983776,-1.1149194,-0.91974783,-0.36789909,-0.13679993,0
-0.32586926,-0.32586926,8.13696,-0.039983962,-0.039983962,0.99840003,0
-3.1914713,0.63829368,7.47192,-0.39159158,0.078318246,0.91680002,0
6.1362267,3.6485677,-3.9315608,0.75291127,0.44767705,-0.48240012,0
4.5268154,5.3755922,4.1271591,0.55543751,0.6595819,0.50639993,0
-1.5437953,-4.3419242,-6.7221189,-0.18942276,-0.53275144,-0.8247999,0
-2.1382713,4.8874788,6.1613994,-0.2623646,0.59969068,0.75599998,0
4.3786449,-6.8112249,0.92583972,0.53725708,-0.83573318,0.11359997,0
-7.6080604,0.55668682,-2.8687994,-0.9335044,0.068305135,-0.35199994,0
4.6169815,0.785869,-6.6699615,0.56650084,0.096425653,-0.8184002,0
7.865747,1.966436,-0.8280403,0.9651224,0.24128051,-0.10160004,0
3.5508292,2.5493131,-6.8785977,0.43568459,0.31279916,-0.84399974,0
5.218483,-0.11103144,-6.2592015,0.64030468,-0.01362349,-0.76800025,0
-3.3839679,-5.143631,-5.3398795,-0.41521081,-0.63112038,-0.65519994,0
-3.5508265,-6.5553727,3.2925997,-0.43568426,-0.80434024,0.40399998,0
-7.7243919,-2.3602312,-1.0888408,-0.94777822,-0.28959894,-0.13360012,0
-0.75685394,-6.6603131,-4.6357198,-0.092865519,-0.8172164,-0.56879997,0
-1.6424059,7.9774003,0.29340121,-0.2015222,0.97882217,0.036000151,0
7.2382212,3.1020954,2.0994408,0.88812536,0.38062522,0.2576001,0
-4.9007473,1.5246768,-6.3309188,-0.60131872,0.18707691,-0.77679992,0
3.7127266,7.2070565,-0.83455962,0.4555493,0.88430148,-0.10239996,0
3.9638326,3.6589227,6.1092396,0.48635986,0.44894758,0.74959999,0
7.5988073,2.9054265,-0.48899874,0.93236905,0.35649407,-0.05999985,0
1.0788215,0.85752481,-8.0326385,0.13237074,0.10521777,-0.98559988,0
-6.0800319,5.2414064,-1.4083208,-0.7460162,0.64311737,-0.17280011,0
6.6628137,1.9036611,-4.2901607,0.81752318,0.23357807,-0.52640009,0
