5.5674734,5.9957399,-1.3943987,0.67077994,0.72237831,-0.16799983,0
-0.50950944,-8.1521463,1.4740803,-0.061386678,-0.98218626,0.17760004,0
2.9080474,7.7547922,0.54448026,0.35036716,0.93431228,0.06560003,0
-7.1860938,0.28744349,4.1433601,-0.86579442,0.034631744,0.49920002,0
-2.9694989,5.9389977,-4.9799986,-0.35777095,0.7155419,-0.59999985,0
4.4620781,0,-6.9985614,0.53759974,0,-0.84320015,0
-0.95232439,4.0690222,-7.1712022,-0.11473788,0.49024361,-0.86400026,0
-7.881834,2.4630737,0.83664,-0.94961852,0.29675585,0.1008,0
4.7369227,4.7369227,4.9003191,0.57071358,0.57071358,0.59039986,0
-2.8566513,6.9630876,-3.4992793,-0.34417486,0.8389262,-0.42159989,0
-7.6178575,-1.1148084,-3.1008799,-0.91781414,-0.13431427,-0.37359998,0
-7.6926861,-0.54947788,3.0676799,-0.92682964,-0.066202149,0.36959997,0
1.9085815,-4.1352596,6.9388003,0.22994958,-0.49822405,0.83600003,0
-4.4818769,6.9469099,-0.7370398,-0.53998518,0.83697706,-0.088799976,0
2.3949602,4.7899213,-6.3412004,0.28854942,0.57709897,-0.764,0
-5.3378744,-6.1919346,-1.4342408,-0.64311737,-0.7460162,-0.17280009,0
-1.9004792,-8.0770359,0.19919971,-0.22897339,-0.97313684,0.023999965,0
2.8176057,-4.3829432,6.4607205,0.33947057,-0.52806544,0.77840006,0
1.4279864,-7.1399302,3.984,0.17204654,-0.86023253,0.47999999,0
0.35634008,-4.2760787,-7.1047997,0.04293254,-0.51519018,-0.85599995,0
6.3134141,-0.90191644,5.3120008,0.7606523,-0.10866463,0.6400001,0
-4.3433313,3.4126182,6.1951203,-0.5232929,0.4111588,0.7464,0
-0.0038120183,-0.0011118386,-8.2999992,-0.00045927931,-0.00013395646,-0.99999988,0
-0.83616567,7.5254903,3.3996809,-0.10074285,0.90668553,0.40960008,0
-0.95343566,-3.4470367,-7.4899201,-0.11487176,-0.41530561,-0.90240002,0
-3.7262642,-3.2087274,-6.686481,-0.44894749,-0.38659364,-0.80560011,0
-0.0011118386,-0.0038120183,-8.2999992,-0.00013395646,-0.00045927931,-0.99999988,0
-2.1612968,-5.1630979,-6.1287208,-0.2603972,-0.62205994,-0.7384001,0
-0.75263739,-7.7145343,-2.9680798,-0.090679199,-0.92946196,-0.35759997,0
7.7636909,-2.3291073,1.7861595,0.93538445,-0.28061533,0.21519993,0
-3.1496847,7.6492343,-0.67727858,-0.37948006,0.9215945,-0.081599824,0
3.4868479,-3.1698611,6.8325601,0.42010215,-0.38191095,0.82319999,0
8.170476,-1.1041187,-0.95616031,0.98439467,-0.13302635,-0.11520004,0
-1.9582371,7.2734523,3.4860005,-0.23593217,0.87631953,0.42000005,0
6.9882588,-0.29117715,4.46872,0.84195888,-0.035081584,0.53839999,0
3.7845905,-3.153825,6.6798401,0.45597476,-0.37997892,0.80479997,0
6.4502063,0.43001336,-5.2057595,0.77713329,0.051808838,-0.62719995,0
1.2869955,6.9176021,-4.4023204,0.1550597,0.83344603,-0.53040004,0
-7.7825785,-2.594193,-1.2616007,-0.93766004,-0.31255338,-0.15200008,0
-4.8951168,-3.3653934,5.79672,-0.58977312,-0.40546909,0.69839996,0
-3.7931724,5.8356495,4.5218406,-0.45700872,0.70309031,0.54480004,0
5.9779329,5.7480125,-0.33863968,0.72023284,0.69253165,-0.04079996,0
-7.6200418,-2.6773119,-1.9123201,-0.91807729,-0.3225677,-0.23040001,0
-8.0232201,2.1237929,0.086320154,-0.96665299,0.25587866,0.010400019,0
7.4329162,3.3319964,1.5935993,0.89553207,0.40144536,0.19199991,0
-8.1803484,-1.4023454,-0.07303974,-0.98558414,-0.16895728,-0.0087999683,0
-7.5177002,-2.4164038,2.5564001,-0.905747,-0.29113299,0.308,0
-1.2057593,8.1991606,0.45816112,-0.1452722,0.98785067,0.055200133,0
-4.7369223,4.7369232,4.9003196,-0.57071352,0.57071364,0.59039992,0
-4.5111361,-5.9208665,3.6719198,-0.54351038,-0.71335739,0.44239998,0
-7.0232496,-4.2641158,1.1752803,-0.84617466,-0.51374888,0.14160004,0
-6.1911545,5.4482169,0.93623918,-0.74592221,0.65641165,0.1127999,0
-0.98920405,-1.6486738,8.0742397,-0.11918121,-0.19863538,0.97279996,0
7.1810312,2.3338351,-3.4461586,0.86518449,0.28118494,-0.41519982,0
-3.8514519,1.255908,-7.2442403,-0.46403033,0.15131421,-0.87279999,0
-7.8083663,2.5188284,1.2549596,-0.94076699,0.30347329,0.15119995,0
7.2998905,-1.780461,-3.5258415,0.87950486,-0.21451336,-0.42480016,0
6.1984463,-4.8425364,-2.6493597,0.74680072,-0.5834381,-0.31919995,0
1.9004786,-8.0770359,0.19920002,0.22897331,-0.97313684,0.024000002,0
2.8089557,7.6607876,1.5205593,0.33842838,0.92298645,0.18319991,0
4.1352596,-1.9085815,6.9388003,0.49822405,-0.22994958,0.83600003,0
7.6776295,-1.9686229,-2.4634392,0.92501557,-0.23718348,-0.2967999,0
4.3669801,-7.0356903,0.564399,0.52614218,-0.84767354,0.067999877,0
3.5043108,7.4466586,-1.0756794,0.4222061,0.89718777,-0.12959993,0
-4.6439905,-6.8437757,0.69720006,-0.55951691,-0.82455128,0.084000006,0
-0.33193329,0,8.2933598,-0.03999196,0,0.99919993,0
4.1799746,4.3105984,-5.730319,0.50361139,0.51934922,-0.69039989,0
-1.5394785,4.0750904,-7.064959,-0.18547934,0.49097472,-0.85119987,0
1.6846246,-7.3000393,3.5723205,0.20296681,-0.8795228,0.43040004,0
-2.7988508,-0.28559706,-7.808641,-0.33721092,-0.034409285,-0.94080007,0
1.4267501,-6.8166966,-4.5152001,0.17189759,-0.8212887,-0.54400003,0
6.1911545,5.4482169,0.93623918,0.74592221,0.65641165,0.1127999,0
-6.7840786,-4.1901665,-2.3040805,-0.81735885,-0.5048393,-0.27760005,0
-5.5610666,-4.0976276,4.6015205,-0.670008,-0.49369007,0.55440003,0
0,-7.1880112,4.1500001,0,-0.86602545,0.5,0
0.30966869,5.5740418,6.1420002,0.037309479,0.67157131,0.74000001,0
3.3653934,-4.8951168,5.79672,0.40546909,-0.58977312,0.69839996,0
7.302793,2.1908381,-3.280159,0.87985456,0.2639564,-0.39519987,0
6.6205826,4.2839074,-2.5895996,0.79766053,0.51613343,-0.31199995,0
-1.5942919,-4.1451578,7.0118403,-0.19208336,-0.49941659,0.8448,0
6.9671893,-4.2225389,-1.586959,0.83942038,-0.50873965,-0.19119987,0
-2.6591516,6.0569568,-5.0132017,-0.3203797,0.72975379,-0.60400021,0
1.9829043,6.0903497,-5.2788005,0.23890413,0.73377705,-0.63600004,0
4.9192686,-3.074542,5.9361596,0.59268296,-0.37042674,0.71519995,0
4.7338815,1.2623693,6.6997604,0.57034713,0.15209268,0.80720001,0
-5.4263468,-4.8551521,3.9840004,-0.65377671,-0.58495808,0.48000005,0
-3.1163819,-7.4793167,-1.7994409,-0.37546769,-0.90112245,-0.21680009,0
3.8141234,7.0260177,-2.2310412,0.45953292,0.84650815,-0.26880014,0
-3.1795483,6.3590965,4.2827992,-0.3830781,0.7661562,0.51599991,0
0.99340612,0.66227072,8.2136803,0.11968748,0.07979165,0.9896,0
-8.1238441,-1.5796361,-0.6308006,-0.9787764,-0.1903176,-0.076000072,0
-2.0062804,-2.4593115,-7.6691999,-0.24172053,-0.29630259,-0.92399997,0
-2.5140977,4.3996696,6.5736003,-0.30290332,0.53008068,0.792,0
-1.3234769,-0.33086896,8.1871204,-0.15945505,-0.039863728,0.98640001,0
4.9532752,4.5029778,-4.90696,0.59678012,0.54252744,-0.59119999,0
5.6029725,6.0901866,0.63743943,0.67505693,0.73375738,0.076799929,0
-3.153825,-3.7845905,6.6798401,-0.37997892,-0.45597476,0.80479997,0
-5.0852609,-6.5381918,0.53120047,-0.61268204,-0.78773391,0.064000055,0
-7.1149545,3.6892354,2.1580009,-0.85722339,0.4444862,0.26000011,0
-2.0554311,6.6406236,-4.535121,-0.24764229,0.80007511,-0.54640013,0
6.2230439,5.0185838,-2.2310402,0.74976432,0.60464865,-0.26880002,0
0.38574889,5.9148216,-5.8099985,0.046475768,0.71262908,-0.69999981,0
-6.6858401,4.7447906,-1.294801,-0.80552286,0.57166147,-0.15600012,0
-7.5606828,0.18001609,-3.419601,-0.91092563,0.021688685,-0.41200012,0
-6.4450426,4.3598819,-2.8884008,-0.77651113,0.52528697,-0.34800008,0
-5.3145313,0.11307503,-6.3744001,-0.64030498,0.013623497,-0.76800001,0
0.64455843,-8.1644144,-1.3479197,0.07765764,-0.98366439,-0.16239996,0
0.27497914,7.6994228,3.0876012,0.033130016,0.92764127,0.37200013,0
8.0813408,-1.5289022,-1.1155202,0.97365552,-0.18420507,-0.13440003,0
5.143528,5.143528,3.9972796,0.61970216,0.61970216,0.48159996,0
8.1648998,1.4408649,0.38512117,0.98372287,0.17359819,0.046400141,0
-3.2274089,7.5306206,-1.3280013,-0.38884443,0.90730369,-0.16000015,0
-1.7558123,-8.0265713,1.1752805,-0.21154365,-0.96705675,0.14160006,0
5.0326829,0,6.6001596,0.60634732,0,0.79519993,0
-6.3744001,-5.0995202,-1.5006409,-0.76800001,-0.61440003,-0.1808001,0
-3.0866344,-0.18897763,-7.7024007,-0.37188366,-0.022768389,-0.92800003,0
-5.7458758,5.1986494,2.97472,-0.69227415,0.62634331,0.35839999,0
6.0088449,-4.916327,2.9348791,0.72395718,-0.59232855,0.35359988,0
-6.1919346,-5.3378744,-1.4342408,-0.7460162,-0.64311737,-0.17280009,0
-1.6846246,-7.3000393,3.5723205,-0.20296681,-0.8795228,0.43040004,0
1.5264785,-5.8006167,5.7369599,0.18391307,-0.69886947,0.69119996,0
4.5464759,-6.8197131,1.3080806,0.54776818,-0.82165217,0.15760006,0
0.23030347,8.2909327,-0.31208068,0.027747406,0.99890751,-0.037600081,0
4.7737126,-4.4753551,5.1061592,0.57514608,-0.53919941,0.61519986,0
6.8828335,0.46928367,-4.6148,0.82925701,0.056540199,-0.55599999,0
5.9427819,-5.1324019,2.6891992,0.71599782,-0.61836165,0.32399991,0
1.6274638,-8.1373196,-0.15935966,0.19607997,-0.98039991,-0.01919996,0
0,-4.4620795,6.9985604,0,-0.53759992,0.84320003,0
2.9589005,-7.7386632,-0.49800009,0.35649401,-0.93236905,-0.06000001,0
1.6561191,1.5641123,-7.9812799,0.19953242,0.18844727,-0.96159995,0
-2.2435927,-3.5256467,7.1711998,-0.27031237,-0.4247767,0.86399996,0
-4.8255172,-6.6033392,1.4143205,-0.58138758,-0.79558301,0.17040005,0
1.8099818,-6.0332723,5.4049606,0.21807009,-0.72690028,0.65120006,0
8.0514755,0.77917433,1.8592,0.97005725,0.093876421,0.22399999,0
0.82421684,8.0361099,-1.9056795,0.099303231,0.96820599,-0.22959992,0
-3.8642743,6.6244712,3.1739199,-0.46557519,0.79812902,0.38239998,0
2.7261221,7.3994751,-2.5895996,0.32844844,0.89150298,-0.31199995,0
-1.5921899,1.4200611,-8.0211201,-0.1918301,0.17109169,-0.96639997,0
-1.274604,4.1879849,-7.0516787,-0.15356673,0.5045765,-0.84959984,0
-1.6815072,6.5731635,-4.7808008,-0.20259123,0.79194736,-0.57600009,0
2.4567103,7.3701315,-2.9215991,0.29598919,0.88796765,-0.35199988,0
6.541698,-4.8535175,-1.5935998,0.78815639,-0.58476114,-0.19199997,0
1.7941519,-7.9455309,1.5936,0.21616288,-0.95729285,0.192,0
-8.0860233,0.41466752,-1.8259993,-0.97421968,0.049959939,-0.21999991,0
5.2478013,-6.0551562,-2.1646402,0.63226521,-0.72953689,-0.2608,0
0,8.2983398,0.16599889,0,0.99979997,0.019999865,0
-1.9386979,-6.7854428,-4.3691211,-0.23357806,-0.81752324,-0.52640009,0
5.7040462,5.9520483,0.96279913,0.68723446,0.71711421,0.11599989,0
6.3203878,-3.447484,4.1300793,0.76149249,-0.4153595,0.4975999,0
0.93551004,-7.6711802,-3.0278399,0.11271205,-0.92423856,-0.36479998,0
1.3234779,-0.33086896,8.1871204,0.15945517,-0.039863728,0.98640001,0
-2.8711765,7.2736468,-2.78216,-0.34592488,0.87634295,-0.33520001,0
2.8647418,-3.5013525,6.9587202,0.34514961,-0.4218497,0.83840001,0
-1.5123324,6.0493279,5.4780002,-0.18220872,0.72883469,0.66000003,0
5.990325,3.9935498,-4.1300812,0.72172588,0.48115057,-0.49760014,0
2.9172423,-1.9448289,7.5231204,0.35147497,-0.23431672,0.90640002,0
6.5573497,-0.29806101,5.0795994,0.7900421,-0.035910964,0.61199993,0
0.33451322,5.2407126,-6.4275217,0.040302798,0.63141114,-0.77440017,0
3.4462497,5.2382994,-5.4381599,0.41521081,0.63112038,-0.6552,0
-4.3829432,2.8176057,6.4607205,-0.52806544,0.33947057,0.77840006,0
-2.6737022,4.9828091,-6.0756016,-0.3221328,0.6003384,-0.73200017,0
5.2371044,4.6552043,4.4487996,0.63097644,0.56086797,0.53599995,0
-3.3151095,6.9064779,3.19384,-0.39941078,0.83210576,0.38479999,0
-6.3475413,4.1712418,-3.3465605,-0.76476401,0.50255924,-0.40320006,0
4.1352596,-1.9085815,6.9388003,0.49822405,-0.22994958,0.83600003,0
4.0594254,-7.1039934,1.3943994,0.48908737,-0.85590279,0.16799992,0
-4.5413671,4.2386088,5.5045605,-0.54715264,0.51067573,0.66320002,0
-3.6782486,-4.5978107,5.8498402,-0.44316247,-0.55395311,0.70480001,0
3.8667386,-0.3222279,7.3372002,0.46587211,-0.038822636,0.884,0
7.302793,-3.8948226,0.62415963,0.87985456,-0.46925572,0.075199954,0
6.4450426,4.3598824,-2.8883994,0.77651113,0.52528703,-0.3479999,0
-6.2861204,5.2803407,1.2217606,-0.75736392,0.63618559,0.14720008,0
4.0579581,3.4336574,6.3744001,0.48891062,0.41369367,0.76800001,0
8.0265713,-1.7558123,1.1752805,0.96705675,-0.21154365,0.14160006,0
-7.4804101,-1.4595925,-3.2867999,-0.90125424,-0.1758545,-0.39599997,0
5.8409662,5.6323605,-1.7463183,0.70373088,0.67859763,-0.21039979,0
-7.2126513,-3.9793935,1.0159193,-0.86899412,-0.47944498,0.12239992,0
5.2643733,1.858014,6.1419997,0.63426185,0.2238571,0.73999995,0
-3.4013398,6.4625459,-3.9441595,-0.40979996,0.77861995,-0.47519994,0
-0.35929719,7.5452371,-3.4395211,-0.043288816,0.90906471,-0.41440013,0
-3.2653613,7.5354495,1.2018397,-0.39341703,0.90788543,0.14479996,0
3.4633062,4.5765123,-5.9959192,0.4172658,0.55138701,-0.72239989,0
-2.3498001,-2.5634186,-7.5364003,-0.28310844,-0.30884561,-0.90799999,0
3.5142796,-2.5558398,7.0716,0.42340717,-0.3079325,0.852,0
-3.5116436,7.0232873,2.6892004,-0.42308959,0.84617919,0.32400003,0
-7.7636909,2.3291066,1.7861599,-0.93538445,0.28061524,0.21519998,0
-5.1023984,5.8583097,-2.9215994,-0.61474681,0.70582044,-0.35199991,0
-4.3584318,0.27240175,-7.0583196,-0.52511227,0.032819487,-0.85039991,0
1.996068,-7.9842739,1.0756805,0.24049011,-0.96196067,0.12960006,0
-3.8514519,1.255908,-7.2442403,-0.46403033,0.15131421,-0.87279999,0
6.7445669,4.8175478,0.43824139,0.81259841,0.58042741,0.052800167,0
1.6105925,1.0999166,-8.0676003,0.19404729,0.13252006,-0.972,0
-3.7262642,3.2087274,-6.686481,-0.44894749,0.38659364,-0.80560011,0
-7.807014,-1.1710521,-2.5630405,-0.94060409,-0.14109062,-0.30880004,0
4.8505101,-6.1978736,2.6360803,0.58439881,-0.74673176,0.31760001,0
2.2818613,7.8597469,1.3811202,0.27492306,0.94695747,0.16640002,0
0.60504484,1.4648453,-8.1472788,0.072896965,0.17648739,-0.98159981,0
2.2285087,-7.2426543,3.3864007,0.26849502,-0.87260896,0.40800008,0
5.0368857,-5.596539,3.4926403,0.60685366,-0.67428178,0.42080003,0
-7.3701315,-2.4567103,-2.9215991,-0.88796765,-0.29598919,-0.35199988,0
3.1975589,-2.8778026,7.0981598,0.38524804,-0.3467232,0.85519993,0
2.7902153,6.5652113,-4.242959,0.33617049,0.79098928,-0.51119989,0
-6.2200184,-5.1833482,-1.8260006,-0.74939978,-0.62449974,-0.22000006,0
5.5726132,-2.7183475,-5.5178413,0.67139918,-0.32751176,-0.66480017,0
3.4013398,-6.4625459,-3.9441595,0.40979996,-0.77861995,-0.47519994,0
7.5425549,0.27935362,3.4528008,0.90874153,0.033657063,0.41600007,0
1.3194742,-1.3194731,8.0875196,0.1589728,-0.15897267,0.97439992,0
0.87330753,1.0986772,-8.18048,0.10521777,0.13237074,-0.98559999,0
7.9984694,-1.0254451,-1.9654394,0.96367097,-0.1235476,-0.23679993,0
-6.5277753,-3.4057961,3.8312802,-0.78647894,-0.41033685,0.46160001,0
3.4145036,7.2307129,-2.224401,0.41138595,0.87117022,-0.26800013,0
-4.2693911,-7.1156516,0.17263936,-0.51438445,-0.85730737,0.020799922,0
4.0315223,-0.50394028,-7.2376013,0.48572555,-0.060715694,-0.87200016,0
2.8362055,-7.7995639,0.11288065,0.34171149,-0.93970644,0.013600078,0
5.7518806,-3.9943612,-4.455441,0.69299763,-0.48124832,-0.53680009,0
-1.3065795,-2.6131589,-7.7687998,-0.1574192,-0.31483841,-0.93599993,0
0.26040292,-8.0724983,1.91232,0.031373844,-0.97259015,0.2304,0
5.7923789,3.505914,-4.8007202,0.69787699,0.42239925,-0.57840002,0
-4.535553,6.5075326,-2.4435191,-0.54645216,0.78404003,-0.29439989,0
5.0354671,5.2033157,-4.0570407,0.60668278,0.6269055,-0.48880008,0
7.6880622,2.9760242,0.96279985,0.92627251,0.35855711,0.11599998,0
-5.7871633,-5.7871633,-1.3811187,-0.69724858,-0.69724858,-0.16639984,0
0.64085484,-3.4178934,-7.5363994,0.077211425,-0.41179436,-0.90799987,0
3.1014063,-6.7667046,3.6719196,0.3736634,-0.8152656,0.44239995,0
8.1017904,-1.0660254,-1.4541599,0.97611928,-0.12843679,-0.17519999,0
-1.2910999,-3.5505259,7.3903198,-0.15555421,-0.42777419,0.89039993,0
-2.5674059,3.2092578,7.2110395,-0.30932602,0.38665757,0.86879992,0
1.7727681,-6.5001497,4.8471999,0.21358652,-0.78315055,0.58399999,0
1.6561191,1.5641123,-7.9812799,0.19953242,0.18844727,-0.96159995,0
1.7084813,7.1186719,3.91096,0.20584112,0.85767132,0.47119999,0
3.7669349,-3.4530239,6.5404,0.45384756,-0.41602698,0.78799999,0
-6.5375347,4.7070251,1.9986398,-0.78765476,0.56711143,0.24079998,0
5.5701966,0.61891013,6.1220798,0.67110801,0.074567482,0.73759997,0
-5.3145313,-0.11307503,-6.3744001,-0.64030498,-0.013623497,-0.76800001,0
7.6902552,-2.7770364,-1.4276006,0.92653674,-0.33458269,-0.17200007,0
2.2007368,-6.9407859,-3.9839997,0.265149,-0.83623922,-0.47999996,0
-4.1613684,-3.0662715,-6.4939198,-0.50136966,-0.3694303,-0.78239995,0
-4.872304,-3.1232719,-5.9494395,-0.58702457,-0.3762978,-0.71679991,0
-0.66333604,0.33166751,8.2667999,-0.079920001,0.039959941,0.99599999,0
7.0471654,2.4665077,-3.6254385,0.84905607,0.2971696,-0.43679979,0
1.6486738,-0.98920405,8.0742397,0.19863538,-0.11918121,0.97279996,0
-5.3747716,-5.0918889,3.7516,-0.6475628,-0.61348057,0.45199999,0
7.8214579,-2.6886265,0.69720012,0.94234431,-0.32393089,0.084000014,0
1.0402362,5.3167639,-6.2880783,0.12532966,0.64057392,-0.75759977,0
4.3186712,5.0632687,-4.9600797,0.52032185,0.61003238,-0.59759992,0
-8.2487402,-0.72783005,0.56439984,-0.99382412,-0.087690368,0.067999981,0
6.0065336,3.234287,-4.7276788,0.72367871,0.38967311,-0.56959987,0
-7.1373668,1.5294353,-3.9508007,-0.85992366,0.18426931,-0.47600007,0
-3.9658086,6.2319865,3.7847996,-0.47780827,0.75084174,0.45599994,0
-0.26040292,8.0724983,1.91232,-0.031373844,0.97259015,0.2304,0
0,6.5589767,5.0862393,0,0.79023814,0.61279988,0
-6.4258599,-2.6287611,4.5483999,-0.77419996,-0.31671819,0.54799998,0
-4.2386088,-4.5413671,5.5045605,-0.51067573,-0.54715264,0.66320002,0
-2.5188277,7.8083663,1.2549601,-0.3034732,0.94076699,0.1512,0
-5.7973704,5.5338531,2.1580007,-0.69847834,0.66672927,0.26000008,0
3.6642814,6.4829602,3.6652796,0.44147968,0.78107953,0.44159994,0
2.5871127,-2.5871136,7.4500804,0.31170031,-0.31170043,0.89760005,0
-4.2438016,2.4841766,-6.68648,-0.5113014,0.29929838,-0.80559999,0
-0.64085412,3.4178886,-7.5364013,-0.077211335,0.4117938,-0.90800011,0
-0.98206961,7.8565545,-2.4899988,-0.11832163,0.94657284,-0.29999986,0
7.1790161,-3.845902,1.6002409,0.86494166,-0.46336168,0.1928001,0
2.9064705,-6.3942337,4.4222398,0.35017717,-0.77038956,0.53279996,0
3.058872,-6.6275554,-3.9507995,0.3685388,-0.79850066,-0.47599992,0
0.25887468,5.954123,-5.7767987,0.031189721,0.71736419,-0.6959998,0
8.1251869,-1.4773068,0.83000076,0.97893816,-0.17798877,0.10000009,0
3.1954896,-6.231205,-4.4554391,0.38499874,-0.75074756,-0.53679991,0
5.030448,-4.4386306,4.8870397,0.60607803,-0.53477478,0.58879995,0
6.0531864,-5.2636395,2.1314397,0.72929955,-0.63417339,0.25679997,0
2.9983118,-5.6967912,5.2389598,0.36124238,-0.68636036,0.63119996,0
-5.5674729,-5.9957399,-1.3943998,-0.67077988,-0.72237831,-0.16799997,0
2.1776261,4.9774327,6.2747998,0.2623646,0.59969068,0.75599998,0
-7.4831352,-0.71267939,-3.519201,-0.90158254,-0.085864983,-0.42400011,0
2.8647418,-3.5013525,6.9587202,0.34514961,-0.4218497,0.83840001,0
-7.4615231,3.6104138,0.42496037,-0.89897865,0.4349896,0.051200043,0
6.8244543,4.342834,-1.8591987,0.82222337,0.523233,-0.22399984,0
2.3212478,7.8078327,-1.5936005,0.27966839,0.94070274,-0.19200006,0
4.3105984,4.1799746,-5.730319,0.51934922,0.50361139,-0.69039989,0
3.2529233,0,7.6359997,0.39191845,0,0.91999996,0
3.6629877,6.9403977,-2.7024808,0.44132382,0.83619249,-0.32560009,0
4.6712532,4.8219385,-4.8803997,0.5628016,0.58095646,-0.58799994,0
5.7675958,2.1249037,5.5776005,0.69489104,0.2560125,0.67200005,0
5.7480125,5.9779329,-0.33863968,0.69253165,0.72023284,-0.04079996,0
-4.2225389,6.9671893,-1.586959,-0.50873965,0.83942038,-0.19119987,0
-1.0999141,1.6105886,-8.0676012,-0.13251977,0.19404681,-0.97200012,0
-1.5639284,-5.0045695,6.4341602,-0.18842509,-0.60296017,0.77520001,0
7.9360642,-2.2320182,0.96280026,0.95615232,-0.26891786,0.11600003,0
0.35634008,-4.2760787,-7.1047997,0.04293254,-0.51519018,-0.85599995,0
-5.1833482,-6.2200184,-1.8260006,-0.62449974,-0.74939978,-0.22000006,0
-6.2780418,-3.7097521,3.9640801,-0.75639057,-0.44695807,0.47760001,0
5.6088858,-5.6088867,2.4435203,0.67576933,-0.67576945,0.29440004,0
3.5013525,-2.8647428,6.9587197,0.4218497,-0.34514973,0.83839995,0
4.2321858,5.9250603,-3.9840012,0.50990188,0.71386266,-0.48000014,0
-3.6997368,2.8234835,-6.8724008,-0.44575143,0.34017873,-0.82800007,0
0.77078378,6.782896,-4.7210402,0.092865512,0.8172164,-0.56880003,0
3.7931724,-5.8356495,4.5218406,0.45700872,-0.70309031,0.54480004,0
-2.0554311,-6.6406236,-4.535121,-0.24764229,-0.80007511,-0.54640013,0
3.4067016,-7.5434113,0.61752015,0.41044596,-0.90884471,0.074400015,0
-0.30421028,6.0842113,5.6373606,-0.036651839,0.73303747,0.67920005,0
2.1972573,-4.0123825,-6.9255219,0.2647298,-0.48341957,-0.83440018,0
0.2535398,1.3803838,-8.180481,0.030546963,0.16631131,-0.98560011,0
3.0275774,3.7340119,-6.766161,0.36476836,0.44988093,-0.81520009,0
-0.90606081,3.0417762,-7.6692019,-0.10916395,0.36647904,-0.9240002,0
0,-7.5658245,-3.412961,0,-0.9115451,-0.41120011,0
-3.1991301,-5.198586,-5.6240797,-0.38543734,-0.62633562,-0.67759997,0
2.2285087,7.2426543,3.3864007,0.26849502,0.87260896,0.40800008,0
7.4950132,3.1013849,1.7595991,0.90301365,0.37366083,0.21199988,0
-7.0054297,-1.1404186,-4.3027205,-0.84402764,-0.13739984,-0.51840007,0
-2.0026288,-8.0105152,-0.84328073,-0.24128057,-0.96512228,-0.10160009,0
-4.1352596,1.9085815,6.9388003,-0.49822405,0.22994958,0.83600003,0
-1.7310928,6.9243712,4.2363195,-0.2085654,0.8342616,0.51039994,0
4.364172,3.1172669,6.3345599,0.52580386,0.37557432,0.76319999,0
5.6745968,2.1114783,-5.6772013,0.68368632,0.25439498,-0.68400013,0
-5.6514163,4.8037043,3.72504,-0.68089354,0.57875955,0.4488,0
-6.8413529,-2.5655074,3.9375198,-0.8242594,-0.30909726,0.47439995,0
7.9280601,1.0570753,2.2177594,0.95518792,0.12735847,0.2671999,0
1.5123324,-6.0493279,5.4780002,0.18220872,-0.72883469,0.66000003,0
-7.2307134,-3.4145031,-2.2244005,-0.87117028,-0.41138589,-0.26800007,0
4.8449254,1.8719032,-6.4740005,0.58372593,0.22553051,-0.78000003,0
-7.7995639,-2.8362055,0.11288065,-0.93970644,-0.34171149,0.013600078,0
3.3952937,-6.9792147,-2.9415205,0.40907153,-0.84086919,-0.35440004,0
3.1496847,7.6492343,-0.67727858,0.37948006,0.9215945,-0.081599824,0
2.8684797,-4.7807994,-6.1486406,0.34559995,-0.57599992,-0.74080008,0
-4.0315256,0.50394076,-7.2375994,-0.48572597,0.060715754,-0.87199992,0
-5.5338535,-5.7973704,2.1579998,-0.66672933,-0.69847834,0.25999996,0
0,-0.99420565,8.2402401,0,-0.11978381,0.9928,0
6.7779541,-3.7655296,-2.9614403,0.81662095,-0.45367825,-0.35680002,0
0.97790676,-2.9337232,7.7024002,0.11782009,-0.35346061,0.92800003,0
-3.7340119,-3.0275774,-6.766161,-0.44988093,-0.36476836,-0.81520009,0
0.84643626,-1.4558704,-8.1273603,0.10198027,-0.17540607,-0.97920001,0
8.2036524,0.88688177,-0.89640039,0.98839182,0.10685322,-0.10800005,0
3.9613261,-4.5707612,5.6838403,0.47726819,-0.55069411,0.68480003,0
-3.203275,2.683825,-7.1712003,-0.38593674,0.3233524,-0.86400002,0
0.97404432,3.2468183,7.5762401,0.11735474,0.39118293,0.91280001,0
4.4476509,-6.6714749,-2.1447201,0.53586155,-0.80379212,-0.25839999,0
5.1752591,-0.44044748,-6.4740019,0.6235252,-0.053065959,-0.78000021,0
1.314117,1.9711745,7.95472,0.15832734,0.23749089,0.95839995,0
1.5639282,5.00457,6.4341593,0.18842508,0.60296023,0.77519989,0
-5.97155,-4.2653928,3.8777597,-0.71946383,-0.51390272,0.46719995,0
-5.1630979,2.1612968,-6.1287208,-0.62205994,0.2603972,-0.7384001,0
6.231205,3.1954896,-4.4554391,0.75074756,0.38499874,-0.53679991,0
0.27497914,-7.6994228,3.0876,0.033130016,-0.92764127,0.37199998,0
1.6594689,-7.4676089,3.2204008,0.199936,-0.89971191,0.3880001,0
-1.3742398,-5.6218891,-5.9494395,-0.16557106,-0.67733604,-0.71679991,0
-5.0873756,-5.4382286,-3.6652811,-0.61293679,-0.65520823,-0.44160011,0
-4.3598824,6.4450431,-2.8883986,-0.52528703,0.77651119,-0.34799984,0
-5.2792139,-4.3993449,4.6546397,-0.63604987,-0.53004152,0.56079996,0
-1.2234191,-7.9522228,-2.0384793,-0.14739989,-0.95809913,-0.24559991,0
-6.2230439,-5.0185838,-2.2310402,-0.74976432,-0.60464865,-0.26880002,0
-1.0950967,7.6656775,2.9880011,-0.13193937,0.92357558,0.36000013,0
2.7988508,-0.28559706,-7.808641,0.33721092,-0.034409285,-0.94080007,0
-5.3050189,-5.4879508,-3.2602413,-0.6391589,-0.66119885,-0.39280015,0
6.0569568,2.6591516,-5.0132017,0.72975379,0.3203797,-0.60400021,0
-6.6386724,4.9790039,0.16600056,-0.79984003,0.59987998,0.020000067,0
-6.3385057,0.70427859,-5.3119993,-0.76367539,0.084852837,-0.63999993,0
-8.0330362,-1.0365206,1.8127199,-0.96783566,-0.124882,0.21839999,0
-4.535553,-6.5075326,-2.4435191,-0.54645216,-0.78404003,-0.29439989,0
-6.3196611,5.3474069,0.59759951,-0.76140493,0.64426589,0.071999937,0
6.7525735,-1.1743603,4.6811996,0.81356305,-0.14148919,0.56399995,0
7.2125807,4.0871291,0.40503916,0.86898559,0.49242517,0.048799898,0
-3.1903126,-1.3470209,-7.5430393,-0.38437501,-0.16229166,-0.90879989,0
3.1163814,7.4793172,-1.7994403,0.37546763,0.90112251,-0.21680003,0
7.302793,-2.1908381,-3.280159,0.87985456,-0.2639564,-0.39519987,0
2.9294586,1.3019826,7.6559205,0.35294682,0.15686537,0.92240006,0
-7.4912443,1.3872678,3.2934406,-0.90255952,0.16714069,0.39680007,0
5.8891339,-5.6330843,1.5736794,0.70953417,-0.67868483,0.18959993,0
-6.1662688,-2.9289777,-4.7210402,-0.74292392,-0.35288888,-0.56880003,0
7.3994751,-2.7261221,-2.5895996,0.89150298,-0.32844844,-0.31199995,0
-5.2096291,2.7580383,5.8432007,-0.62766612,0.33229375,0.70400006,0
1.20197,-1.4273393,-8.0875196,0.14481565,-0.17196859,-0.97439992,0
-6.4258599,2.6287601,4.5484004,-0.77419996,0.31671807,0.54800004,0
-2.9589007,7.7386632,-0.49799874,-0.35649404,0.93236905,-0.059999846,0
-4.4407601,-7.0117269,-0.073040418,-0.53503132,-0.84478635,-0.0088000502,0
3.066272,4.1613698,-6.4939189,0.36943036,0.50136983,-0.78239983,0
0.28820944,6.4847178,-5.1725593,0.034724027,0.78129131,-0.62319988,0
-4.9910321,-4.6974421,4.6812005,-0.60132915,-0.56595689,0.56400007,0
-0.24933156,-8.2279491,1.0624008,-0.030039947,-0.99131918,0.1280001,0
4.918623,-3.3653734,-5.7767997,0.59260517,-0.40546668,-0.69599992,0
6.3203878,3.447484,4.1300793,0.76149249,0.4153595,0.4975999,0
-3.4556584,-1.2019681,-7.4500804,-0.41634437,-0.14481543,-0.89760005,0
-0.88526428,7.4362187,-3.5789611,-0.10665835,0.89592993,-0.43120012,0
5.7458754,-5.1986494,2.9747207,0.69227415,-0.62634331,0.35840008,0
0.14456291,-6.5053372,-5.1526394,0.017417219,-0.78377557,-0.6207999,0
-1.8650007,7.7264328,2.3903992,-0.22469887,0.93089551,0.2879999,0
-4.7570581,4.1974044,-5.351841,-0.57313955,0.50571138,-0.64480013,0
4.1352596,1.9085815,6.9388003,0.49822405,0.22994958,0.83600003,0
-2.2935889,-1.3106221,7.8684001,-0.27633601,-0.15790628,0.94800001,0
6.3181891,5.3821621,-0.053119902,0.76122761,0.64845324,-0.0063999882,0
-3.6104143,7.4615226,0.42495978,-0.43498966,0.89897859,0.051199973,0
2.86848,-6.3743997,-4.4753604,0.34559998,-0.76799995,-0.53920001,0
7.1707392,0.86048788,4.09024,0.86394447,0.10367323,0.4928,0
4.080225,6.9363823,-2.0318387,0.49159336,0.83570868,-0.24479984,0
2.1590517,-7.5566821,2.6692803,0.26012671,-0.9104436,0.32160002,0
-5.1843052,-6.2211666,1.81936,-0.62461507,-0.74953812,0.2192,0
1.6463321,-1.3170651,8.0277605,0.19835326,-0.15868254,0.96720004,0
7.0330853,1.6745445,-4.0769615,0.84735966,0.20175233,-0.49120018,0
4.8664355,6.7203169,-0.21248023,0.58631754,0.80967671,-0.025600027,0
-1.6234493,7.3957138,-3.3996816,-0.19559629,0.89104986,-0.40960017,0
-2.7352853,5.4705706,5.6107998,-0.32955244,0.65910488,0.67599994,0
-1.9085815,-4.1352596,6.9388003,-0.22994958,-0.49822405,0.83600003,0
-1.1399744,-8.2078133,-0.47144076,-0.1373463,-0.98889315,-0.05680009,0
-3.255518,-2.0644746,-7.3504796,-0.39223108,-0.24873187,-0.88559991,0
-2.7601974,-0.63254535,-7.8019996,-0.33255389,-0.076210283,-0.93999994,0
-7.9680004,0,2.3239996,-0.96000004,0,0.27999994,0
7.748086,-0.5669331,-2.9216015,0.93350428,-0.068305194,-0.35200018,0
4.080225,6.9363823,-2.0318387,0.49159336,0.83570868,-0.24479984,0
-5.4482164,-6.191155,0.93624008,-0.65641159,-0.74592227,0.11280001,0
-3.1954896,-6.231205,-4.4554391,-0.38499874,-0.75074756,-0.53679991,0
-6.069098,5.6195354,-0.69055933,-0.73121661,0.67705244,-0.083199918,0
-7.5105267,-1.1126704,3.3532009,-0.90488273,-0.13405667,0.4040001,0
0.967893,-8.2270861,0.51791972,0.11661361,-0.99121517,0.062399965,0
-1.2657002,4.4786315,-6.8723989,-0.152494,0.53959417,-0.82799983,0
4.418211,4.0283694,-5.7568789,0.53231454,0.48534569,-0.69359982,0
4.1181378,3.6474931,-6.2150412,0.49616116,0.439457,-0.7488001,0
-0.97790778,2.9337223,7.7024007,-0.11782021,0.35346049,0.92800003,0
-2.6999421,-5.8261909,-5.2588797,-0.32529423,-0.70195073,-0.63359994,0
7.3328576,-3.6664288,-1.2947985,0.88347679,-0.4417384,-0.15599981,0
-0.65866697,1.9759998,8.0344,-0.079357468,0.23807226,0.96799999,0
-2.4274623,6.6350641,-4.3558416,-0.29246533,0.79940528,-0.52480018,0
2.4726741,-1.3800972,-7.802001,0.29791254,-0.16627677,-0.94000012,0
5.2443728,-6.3369503,-1.1088811,0.63185215,-0.76348799,-0.13360013,0
5.3424582,4.3996711,-4.5815978,0.64366966,0.53008085,-0.55199975,0
-3.966965,5.4927211,-4.7940803,-0.47794756,0.66177362,-0.5776,0
3.7340777,-5.5264349,-4.9401603,0.44988886,-0.6658355,-0.5952,0
-1.2443577,5.2885218,6.2747998,-0.14992261,0.63717127,0.75599998,0
-0.83066392,7.1437078,-4.1433606,-0.10007999,0.86068767,-0.49920008,0
6.0373015,5.4127526,-1.7728806,0.7273857,0.65213883,-0.21360007,0
0.94241279,-8.2461071,0.059760164,0.1135437,-0.99350685,0.0072000194,0
-1.1743604,-6.752573,4.6812005,-0.14148921,-0.81356299,0.56400007,0
7.866559,-2.403671,-1.1088809,0.94777817,-0.28959891,-0.1336001,0
0.64455843,-8.1644144,-1.3479197,0.07765764,-0.98366439,-0.16239996,0
0.92579931,2.3659315,-7.9015989,0.11154208,0.28505197,-0.95199984,0
1.6029108,3.8469849,7.1778402,0.19312178,0.46349216,0.86480004,0
6.7779541,-3.7655296,-2.9614403,0.81662095,-0.45367825,-0.35680002,0
6.5375347,4.7070251,1.9986398,0.78765476,0.56711143,0.24079998,0
-2.3739092,-7.6492629,2.1779191,-0.28601316,-0.9215979,0.26239988,0
4.9910326,4.697443,4.6811991,0.60132921,0.56595695,0.56399989,0
3.1013849,-7.4950132,1.7595991,0.37366083,-0.90301365,0.21199988,0
5.8583097,-5.1023984,-2.9215994,0.70582044,-0.61474681,-0.35199991,0
5.1273875,-6.5257654,-0.11952088,0.6177575,-0.78623676,-0.014400106,0
-2.86848,-6.3743997,-4.4753604,-0.34559998,-0.76799995,-0.53920001,0
3.4530239,-3.7669349,6.5404,0.41602698,-0.45384756,0.78799999,0
-6.405477,5.261642,-0.41832063,-0.77174419,0.63393277,-0.050400075,0
-0.78968549,7.8968563,-2.4302387,-0.095142826,0.95142847,-0.29279983,0
-7.1273222,-4.1780849,0.79679948,-0.85871351,-0.5033837,0.095999934,0
3.9751389,2.5838404,-6.8126388,0.47893238,0.31130606,-0.82079983,0
2.1946979,-7.4071069,3.034481,0.26442143,-0.8924225,0.36560011,0
5.9775801,0.12994727,-5.7568789,0.72019035,0.015656298,-0.69359982,0
-1.8973213,-4.4270825,6.7595205,-0.22859293,-0.53338343,0.81440002,0
-5.0670419,-4.1728582,5.0796008,-0.61048698,-0.50275397,0.61200011,0
7.6607876,2.8089557,1.5205593,0.92298645,0.33842838,0.18319991,0
-2.936765,0.65261376,7.7356,-0.35382709,0.07862816,0.93199998,0
6.1431808,-4.6539254,-3.0809593,0.74014223,-0.56071389,-0.37119991,0
3.8378973,-1.9189487,7.1048002,0.46239725,-0.23119862,0.85600001,0
3.988507,-4.2953153,5.8764005,0.48054302,-0.51750785,0.70800006,0
2.9289777,-6.1662688,-4.7210402,0.35288888,-0.74292392,-0.56880003,0
2.0024226,2.8606038,-7.529758,0.24125573,0.34465104,-0.90719974,0
3.1903126,1.3470209,-7.5430393,0.38437501,0.16229166,-0.90879989,0
4.733882,-1.2623684,6.6997604,0.57034719,-0.15209258,0.80720001,0
1.4790794,-2.0401094,-7.9082413,0.17820233,-0.24579631,-0.95280015,0
5.3543272,-4.8523593,-4.0836005,0.64509964,-0.58462161,-0.49200004,0
6.4342084,-3.9164741,3.4859998,0.77520579,-0.47186434,0.41999996,0
-6.8728333,2.2909439,4.0503998,-0.82805216,0.27601734,0.48799998,0
-7.4615231,3.6104138,0.42496037,-0.89897865,0.4349896,0.051200043,0
-1.9582371,-7.2734523,3.4860005,-0.23593217,-0.87631953,0.42000005,0
2.5188284,-7.8083663,1.2549596,0.30347329,-0.94076699,0.15119995,0
3.4336574,4.0579581,6.3744001,0.41369367,0.48891062,0.76800001,0
2.3739085,7.6492634,2.1779196,0.28601307,0.92159796,0.26239994,0
0.75263792,-7.7145343,-2.96808,0.090679266,-0.92946196,-0.3576,0
-6.5731635,-1.6815072,-4.7808008,-0.79194736,-0.20259123,-0.57600009,0
7.8597465,-2.281862,1.3811198,0.94695741,-0.27492312,0.16639997,0
3.2359366,1.6179683,7.4699998,0.38987187,0.19493593,0.89999998,0
7.2314539,-3.2139797,2.5032806,0.87125951,-0.38722646,0.30160007,0
4.7338815,1.2623693,6.6997604,0.57034713,0.15209268,0.80720001,0
-1.4023453,8.1803484,-0.073041126,-0.16895726,0.98558414,-0.0088001359,0
-3.4530239,3.7669349,6.5404,-0.41602698,0.45384756,0.78799999,0
-5.8733039,-3.5239828,4.6878405,-0.70762694,-0.42457622,0.56480002,0
-7.6903558,-2.1214776,2.2907991,-0.92654884,-0.25559971,0.2759999,0
1.4174495,7.8972192,-2.1247993,0.17077704,0.95147216,-0.25599989,0
-3.9909105,-7.2775431,1.9788742e-07,-0.48083258,-0.8768124,2.3841856e-08,0
0.98699439,-1.9739907,8.0012007,0.11891498,-0.23783019,0.96400005,0
0,2.9391952,7.7621603,0,0.3541199,0.93520004,0
-3.4013398,-6.4625459,-3.9441595,-0.40979996,-0.77861995,-0.47519994,0
-5.6218891,1.3742398,-5.9494395,-0.67733604,0.16557106,-0.71679991,0
-4.3665266,4.6482377,-5.3119993,-0.52608752,0.56002861,-0.63999993,0
2.4430776,-5.4004874,-5.8100009,0.29434669,-0.65066111,-0.70000011,0
-4.1891713,5.430408,-4.6745605,-0.50471944,0.654266,-0.56320006,0
7.5306211,3.2274082,-1.3280007,0.90730369,0.38884434,-0.16000007,0
7.4950132,-3.1013849,1.7595991,0.90301365,-0.37366083,0.21199988,0
-5.5726142,-2.7183483,-5.5178394,-0.6713993,-0.32751182,-0.66479993,0
0.44131187,0.15962344,-8.2867222,0.053170104,0.01923174,-0.99840021,0
4.4270821,-2.3189476,-6.6267209,0.53338337,-0.27939126,-0.7984001,0
-2.1484272,4.8622303,-6.3744006,-0.25884664,0.58581084,-0.76800007,0
6.6406236,-2.0554311,-4.535121,0.80007511,-0.24764229,-0.54640013,0
1.2779204,4.1532388,7.0716,0.15396631,0.50039023,0.852,0
1.3065786,-2.6131568,-7.7688007,0.15741912,-0.31483817,-0.93600005,0
-0.96975833,3.5557809,7.4368,-0.11683835,0.42840731,0.89599997,0
1.5264785,5.8006167,5.7369599,0.18391307,0.69886947,0.69119996,0
-1.4790794,-2.0401094,-7.9082413,-0.17820233,-0.24579631,-0.95280015,0
1.7422903,-0.81306887,-8.0742397,0.20991449,-0.0979601,-0.97279996,0
4.0123839,-2.1972575,-6.9255209,0.48341975,-0.26472983,-0.83440012,0
6.231205,-3.1954896,-4.4554391,0.75074756,-0.38499874,-0.53679991,0
5.4004874,2.4430776,-5.8100009,0.65066111,0.29434669,-0.70000011,0
5.5547881,1.2343979,6.0423999,0.66925156,0.14872263,0.72799999,0
0.25501379,-8.160449,1.4940003,0.030724553,-0.9831866,0.18000004,0
-7.7264328,-1.8650007,2.3903992,-0.93089551,-0.22469887,0.2879999,0
-4.3996696,-2.5140977,6.5736003,-0.53008068,-0.30290332,0.792,0
-2.900054,-2.577826,7.3372002,-0.3494041,-0.31058145,0.884,0
-4.7244444,1.5748147,-6.6399989,-0.56921017,0.18973671,-0.79999983,0
-3.1712158,0.12943725,-7.6692009,-0.38207418,0.015594849,-0.92400008,0
-6.9243712,1.7310928,4.2363195,-0.8342616,0.2085654,0.51039994,0
0.62852377,-1.8462883,-8.0676003,0.075725757,-0.22244437,-0.972,0
8.0232191,-2.1237936,0.086321145,0.96665287,-0.25587875,0.010400138,0
2.4726741,1.3800972,-7.802001,0.29791254,0.16627677,-0.94000012,0
4.0268955,6.7114935,-2.7622406,0.48516813,0.80861366,-0.33280006,0
7.7145338,-0.75263727,-2.9680815,0.9294619,-0.090679184,-0.35760018,0
2.2334006,-7.7153831,-2.0915999,0.26908439,-0.92956418,-0.25199997,0
7.7601638,1.7908065,-2.3372791,0.93495947,0.21575981,-0.28159988,0
4.7373042,6.7319579,1.0624008,0.57075953,0.81107926,0.1280001,0
1.546465,-3.2402127,-7.4832792,0.18632108,-0.39038706,-0.90159988,0
-5.3474064,-6.3196616,0.5976004,-0.64426583,-0.76140499,0.072000049,0
-3.8171632,7.2101965,-1.527199,-0.45989919,0.86869836,-0.18399988,0
-6.938416,0,-4.5550399,-0.83595371,0,-0.54879999,0
8.1017904,1.0660254,-1.4541599,0.97611928,0.12843679,-0.17519999,0
3.7507946,-6.9657621,2.5099206,0.45190296,-0.83924842,0.30240005,0
-0.65692425,2.2992334,7.9480801,-0.079147495,0.27701607,0.9576,0
2.594193,7.7825785,-1.2616007,0.31255338,0.93766004,-0.15200008,0
3.2555153,-2.0644729,-7.350481,0.39223075,-0.24873167,-0.88560009,0
0,-5.5753231,6.1486402,0,-0.67172563,0.74080002,0
-3.6104143,-7.4615226,0.42495978,-0.43498966,-0.89897859,0.051199973,0
-4.6974421,-4.9910321,4.6812005,-0.56595689,-0.60132915,0.56400007,0
-0.96504134,3.8601654,7.28408,-0.11627004,0.46508014,0.87759995,0
-7.4804106,1.459592,-3.2867997,-0.90125424,0.17585444,-0.39599994,0
5.4927211,-2.4412098,5.72368,0.66177362,-0.29412165,0.68959999,0
6.3041682,-2.2514887,-4.906961,0.75953835,-0.27126369,-0.59120011,0
-2.3276014,-6.1099544,-5.1128011,-0.28043389,-0.73613906,-0.61600012,0
2.2320175,7.9360642,0.96280062,0.26891777,0.95615232,0.11600007,0
-8.0420322,1.9495833,0.64408094,-0.96891952,0.23488955,0.077600114,0
0.95428979,4.4533563,6.9388003,0.11497467,0.53654891,0.83600003,0
-0.44134274,0.15963463,-8.2867203,-0.053173821,0.019233089,-0.99840003,0
0,6.5121956,-5.1459994,0,0.78460187,-0.61999995,0
-2.2992334,0.65692329,7.9480801,-0.27701607,0.079147384,0.9576,0
-5.1337547,6.4729958,-0.79680049,-0.61852467,0.77987897,-0.09600006,0
-3.0051272,4.5076909,-6.2880793,-0.3620635,0.54309529,-0.75759989,0
-7.807014,2.0818698,1.8990397,-0.94060409,0.2508277,0.22879997,0
6.4437432,4.5643182,2.5563993,0.77635461,0.54991782,0.30799991,0
-4.5029778,4.9532752,-4.90696,-0.54252744,0.59678012,-0.59119999,0
7.4738913,-2.6692469,2.4302411,0.90046883,-0.321596,0.29280013,0
6.3181891,5.3821621,-0.053119902,0.76122761,0.64845324,-0.0063999882,0
-6.9469099,4.4818769,-0.7370398,-0.83697706,0.53998518,-0.088799976,0
-7.519424,0.53710115,-3.4727209,-0.90595466,0.064710982,-0.41840011,0
-5.6514163,4.8037043,3.72504,-0.68089354,0.57875955,0.4488,0
8.2476797,-0.44582075,-0.81672031,0.99369633,-0.05371334,-0.098400034,0
0.47432902,0.73784518,-8.25352,0.057148073,0.088897005,-0.99439996,0
-6.9879436,-3.1261849,-3.2071195,-0.84192091,-0.37664878,-0.38639992,0
2.2062397,-7.9424615,-0.969441,0.26581201,-0.95692307,-0.11680011,0
-6.5181808,1.481405,4.9202399,-0.78532296,0.17848253,0.59279996,0
-4.9603953,-2.4801981,6.1752,-0.59763795,-0.29881904,0.74399996,0
-0.66133904,1.3226781,8.1672001,-0.0796794,0.1593588,0.98399997,0
6.047287,5.5433469,1.2615989,0.72858876,0.66787308,0.15199988,0
2.6196289,0.65490675,7.8484802,0.31561792,0.078904428,0.94560003,0
4.5095811,-4.509582,5.3120003,0.54332304,-0.5433231,0.64000005,0
4.4460001,5.5986671,-4.2163982,0.53566265,0.6745382,-0.50799978,0
7.1366878,-3.004921,-2.9879997,0.85984188,-0.36203867,-0.35999995,0
-7.6926861,0.54947704,3.0676801,-0.92682964,0.066202052,0.3696,0
4.9910331,-4.6974421,4.6812,0.60132927,-0.56595689,0.56400001,0
5.0225806,-0.94173372,6.5403996,0.6051302,-0.11346189,0.78799993,0
7.2462549,-2.6012194,-3.100879,0.87304276,-0.31339991,-0.37359986,0
7.7838082,1.3420361,2.5497591,0.93780822,0.1616911,0.3071999,0
7.0950508,-4.2126865,-0.89639968,0.85482538,-0.50755256,-0.10799996,0
7.4676089,1.6594689,3.2204008,0.89971191,0.199936,0.3880001,0
-3.8514509,-1.2559079,-7.2442408,-0.46403021,-0.1513142,-0.87280005,0
2.6217496,-7.6030726,2.051759,0.31587344,-0.91603285,0.24719988,0
-7.1756806,-3.4549575,2.3372808,-0.8645398,-0.41625991,0.28160009,0
6.9737077,-0.87171346,4.4155998,0.84020573,-0.10502572,0.53199995,0
5.0918889,-5.3747716,3.7516,0.61348057,-0.6475628,0.45199999,0
-6.2717009,1.7919146,5.13272,-0.75562662,0.21589331,0.61839998,0
0.80915463,-2.5353515,-7.8617597,0.097488508,-0.30546403,-0.94719994,0
-3.6161795,-6.6760244,3.3532,-0.43568426,-0.8043403,0.40399998,0
-4.643991,6.8437753,0.69720113,-0.55951697,0.82455122,0.084000133,0
2.4567103,7.3701315,-2.9215991,0.29598919,0.88796765,-0.35199988,0
-6.5328965,-1.1877996,-4.98,-0.78709596,-0.14310838,-0.59999996,0
-1.2234191,7.9522228,-2.0384793,-0.14739989,0.95809913,-0.24559991,0
-5.4830279,-6.1409917,-1.05576,-0.66060579,-0.73987848,-0.12720001,0
-7.4804106,1.459592,-3.2867997,-0.90125424,0.17585444,-0.39599994,0
0,-5.5753231,6.1486402,0,-0.67172563,0.74080002,0
-0.53710169,-7.519424,-3.4727211,-0.064711042,-0.90595466,-0.41840011,0
-5.787837,3.7542727,-4.6148005,-0.69732976,0.45232201,-0.55600005,0
-5.4323888,-2.1476884,-5.8963203,-0.65450466,-0.25875762,-0.71040004,0
-4.9909453,-1.5527384,-6.4474392,-0.60131872,-0.18707691,-0.77679986,0
2.8606017,-2.0024214,-7.5297589,0.3446508,-0.24125558,-0.90719986,0
7.7910118,0,-2.8618414,0.93867612,0,-0.34480017,0
2.8346667,4.0945187,-6.6399989,0.34152609,0.49331549,-0.79999983,0
1.5294353,7.1373668,-3.9508007,0.18426931,0.85992366,-0.47600007,0
7.1790161,3.8459013,1.6002415,0.86494166,0.46336159,0.19280018,0
5.2097564,-3.9073169,-5.1459999,0.62768149,-0.47076106,-0.61999995,0
6.9176021,1.2869955,-4.4023204,0.83344603,0.1550597,-0.53040004,0
-8.1238441,-1.5796361,-0.6308006,-0.9787764,-0.1903176,-0.076000072,0
-1.5289022,-8.0813408,-1.1155202,-0.18420507,-0.97365552,-0.13440003,0
-2.9172432,-1.9448287,7.5231199,-0.35147509,-0.23431671,0.90639997,0
2.5208223,6.4596062,-4.5616822,0.30371353,0.77826577,-0.54960024,0
-4.4570179,6.1284008,3.3863993,-0.53699011,0.73836154,0.4079999,0
6.0620322,3.752687,4.2496009,0.73036534,0.45213094,0.51200008,0
-2.5413339,2.1979103,-7.58952,-0.3061848,0.26480848,-0.91439998,0
1.6396234,-1.9675477,7.8949599,0.19754498,-0.23705393,0.95119995,0
5.2303782,2.4613535,5.95608,0.63016605,0.2965486,0.71759999,0
-5.0995202,6.3744001,-1.5006409,-0.61440003,0.76800001,-0.1808001,0
4.8622303,2.1484272,-6.3744006,0.58581084,0.25884664,-0.76800007,0
-5.8664317,-4.7490158,3.4528,-0.70679897,-0.57217056,0.41600001,0
2.6578081,6.2015533,4.833921,0.32021782,0.7471751,0.58240008,0
2.5962331,-3.6161821,-7.0051985,0.31279916,-0.43568459,-0.8439998,0
0.50950956,5.8593564,-5.8564792,0.061386693,0.70594656,-0.7055999,0
1.2968252,-3.2420611,7.5297604,0.15624399,-0.39060977,0.90720004,0
-5.8722911,5.4673047,-2.1248002,-0.70750493,0.65871137,-0.25600001,0
-1.8462908,-0.62852454,-8.0676003,-0.22244467,-0.075725846,-0.972,0
3.066272,-4.1613698,-6.4939189,0.36943036,-0.50136983,-0.78239983,0
2.4342637,-5.1119547,-6.0689607,0.29328477,-0.61589813,-0.73120004,0
4.5707607,-3.9613264,5.6838408,0.55069405,-0.47726822,0.68480009,0
-8.2308664,0,1.0690408,-0.99167061,0,0.12880009,0
-7.6200418,2.6773119,-1.9123201,-0.91807729,0.3225677,-0.23040001,0
-0.98437864,-2.2968831,7.9148803,-0.11859983,-0.27673289,0.95359999,0
4.7019572,0.8003329,-6.7927217,0.56650084,0.096425653,-0.8184002,0
4.3996711,-6.3245258,3.0875998,0.53008085,-0.76199102,0.37199995,0
-6.6006241,5.0073705,-0.49800166,-0.7952559,0.60329765,-0.0600002,0
5.8689866,5.8689866,0,0.70710683,0.70710683,0,0
0.92729598,5.5637817,6.0888801,0.1117224,0.67033511,0.73360002,0
7.5461316,3.4300594,-0.4249588,0.90917248,0.41326016,-0.051199853,0
7.551692,2.864435,1.9123191,0.90984237,0.34511265,0.23039988,0
-4.4859824,6.8357825,-1.4275999,-0.54047978,0.82358825,-0.17199999,0
-8.0984545,0.20765248,-1.8060793,-0.97571737,0.02501837,-0.21759991,0
3.9751389,2.5838404,-6.8126388,0.47893238,0.31130606,-0.82079983,0
8.1838856,-0.43073106,-1.3147198,0.98601031,-0.051895306,-0.15839997,0
4.6712532,-4.8219385,-4.8803997,0.5628016,-0.58095646,-0.58799994,0
-7.519424,-0.53710169,-3.4727211,-0.90595466,-0.064711042,-0.41840011,0
5.4542251,5.9736762,1.8592,0.65713555,0.71972001,0.22399999,0
-4.9909453,-1.5527384,-6.4474392,-0.60131872,-0.18707691,-0.77679986,0
2.9289777,-6.1662688,-4.7210402,0.35288888,-0.74292392,-0.56880003,0
-6.4847178,0.28820944,-5.1725593,-0.78129131,0.034724027,-0.62319988,0
-4.3598824,6.4450431,-2.8883986,-0.52528703,0.77651119,-0.34799984,0
4.9921503,1.8720562,6.3611197,0.60146385,0.22554894,0.76639998,0
4.5111365,-5.920866,3.6719193,0.54351044,-0.71335733,0.44239992,0
1.6234491,-7.3957148,-3.3996797,0.19559628,-0.89104992,-0.40959996,0
2.2992334,-0.65692425,7.9480801,0.27701607,-0.079147495,0.9576,0
-5.5726142,-2.7183483,-5.5178394,-0.6713993,-0.32751182,-0.66479993,0
-6.0535684,4.4511533,-3.5258403,-0.72934556,0.53628349,-0.42480004,0
0.72305864,4.8548231,-6.6931219,0.087115496,0.58491844,-0.80640024,0
-0.99200785,-8.1840658,0.9628008,-0.11951902,-0.98603201,0.11600009,0
5.5904717,-0.85072386,-6.0755987,0.67355078,-0.10249685,-0.73199981,0
-1.0365206,-8.0330362,1.8127199,-0.124882,-0.96783566,0.21839999,0
1.9189487,-3.8378973,7.1048002,0.23119862,-0.46239725,0.85600001,0
4.6225553,3.3898749,6.0025606,0.55693436,0.40841866,0.72320008,0
-1.3770279,7.2293954,-3.8379211,-0.16590697,0.8710115,-0.46240014,0
-0.88526428,-7.4362187,-3.5789611,-0.10665835,-0.89592993,-0.43120012,0
7.677629,1.9686234,-2.4634397,0.92501551,0.23718354,-0.29679996,0
6.5443196,-0.89240712,5.0264792,0.78847224,-0.10751893,0.60559988,0
2.5188284,7.8083663,1.2549596,0.30347329,0.94076699,0.15119995,0
6.9781151,4.1351805,1.7596002,0.84073675,0.49821451,0.21200001,0
-2.9239686,-1.6244272,7.5961599,-0.35228536,-0.19571412,0.9152,0
7.2849574,0,-3.9773605,0.87770569,0,-0.47920004,0
6.1492567,-1.5373144,-5.35848,0.74087429,-0.1852186,-0.64559996,0
2.7902153,6.5652113,-4.242959,0.33617049,0.79098928,-0.51119989,0
-4.509582,4.5095811,5.3120003,-0.5433231,0.54332304,0.64000005,0
0.95232517,-4.069025,-7.1712003,0.11473797,-0.49024397,-0.86400002,0
-4.5973072,-5.2314181,-4.5152001,-0.55389243,-0.63029134,-0.54400003,0
-2.0026288,8.0105152,-0.84328073,-0.24128057,0.96512228,-0.10160009,0
4.3996711,5.3424582,-4.5815978,0.53008085,0.64366966,-0.55199975,0
-4.908905,6.4590855,1.7529601,-0.5914343,0.77820307,0.2112,0
-1.8270019,-5.7855058,5.6639204,-0.22012071,-0.69704884,0.68240005,0
6.4596071,-2.520822,-4.5616813,0.77826589,-0.3037135,-0.54960012,0
-1.6274638,-8.1373196,-0.15935966,-0.19607997,-0.98039991,-0.01919996,0
8.0092659,1.2918174,1.7529598,0.96497178,0.15564065,0.21119998,0
-0.19908911,-7.963572,-2.3306403,-0.023986639,-0.95946646,-0.28080004,0
-7.6903558,-2.1214776,2.2907991,-0.92654884,-0.25559971,0.2759999,0
1.5522557,5.2776685,6.2150397,0.18701877,0.63586366,0.74879998,0
7.5606828,-0.18001609,-3.419601,0.91092563,-0.021688685,-0.41200012,0
7.3650742,0.56654364,3.7848005,0.88735831,0.068258271,0.45600006,0
5.3145289,-0.11307497,-6.374402,0.64030468,-0.01362349,-0.76800025,0
-7.3714409,-3.159189,2.1380799,-0.88812536,-0.38062516,0.25759998,0
-4.4582047,0.63688582,6.9720006,-0.5371331,0.076733232,0.84000003,0
4.9452982,-6.3876767,-1.9056804,0.59581906,-0.76959956,-0.22960004,0
-4.7447901,-6.6858406,-1.2948,-0.57166141,-0.80552292,-0.156,0
0.99100655,-1.3213431,8.1340008,0.11939838,-0.15919796,0.98000008,0
-0.57442749,7.1803398,4.1234403,-0.06920813,0.86510116,0.49680004,0
7.4912443,1.3872678,3.2934406,0.90255952,0.16714069,0.39680007,0
-2.4197316,5.7468615,5.4780002,-0.29153392,0.69239295,0.66000003,0
-5.5637813,-0.92729694,6.0888801,-0.67033505,-0.11172252,0.73360002,0
6.1492567,1.5373144,-5.35848,0.74087429,0.1852186,-0.64559996,0
0.32866293,-2.3006425,7.9680004,0.039597943,-0.27718583,0.96000004,0
-4.4044776,-2.7527983,-6.4740005,-0.53065991,-0.33166245,-0.78000003,0
7.6204519,1.6329542,2.855201,0.9181267,0.19674148,0.3440001,0
-4.9979353,-6.5190468,-1.1885601,-0.60216087,-0.78542733,-0.14320001,0
5.2910385,5.878932,-2.5165598,0.63747448,0.70830506,-0.30319998,0
-7.681674,3.1206799,0.3784804,-0.9255029,0.3759855,0.045600049,0
-6.835783,4.4859819,-1.4275991,-0.82358831,0.54047972,-0.17199989,0
0.31447223,5.0315614,6.5935197,0.037888218,0.6062122,0.79439992,0
-1.1877991,-6.5328965,4.98,-0.14310832,-0.78709596,0.59999996,0
-7.6030731,-2.6217489,2.0517592,-0.91603291,-0.31587335,0.24719991,0
3.6825371,5.2405338,-5.2788,0.44367915,0.63138962,-0.63599998,0
-1.8650007,7.7264328,2.3903992,-0.22469887,0.93089551,0.2879999,0
8.1188498,1.0148567,1.3944002,0.97817463,0.12227189,0.16800003,0
-5.2268662,1.5099835,-6.2681594,-0.62974292,0.18192573,-0.75519991,0
0.49813235,8.2191906,1.0424808,0.060015943,0.99026388,0.1256001,0
4.9790039,-6.6386724,0.16600056,0.59987998,-0.79984003,0.020000067,0
-0.64085412,3.4178886,-7.5364013,-0.077211335,0.4117938,-0.90800011,0
-2.3968842,5.992209,5.2190404,-0.28878123,0.72195286,0.62880003,0
-3.4013398,-6.4625459,-3.9441595,-0.40979996,-0.77861995,-0.47519994,0
7.6378331,-3.2402928,-0.232399,0.92022085,-0.39039671,-0.02799988,0
3.7108042,7.421607,-0.19920026,0.44708484,0.89416951,-0.02400003,0
4.6225553,-3.3898749,6.0025606,0.55693436,-0.40841866,0.72320008,0
4.2132568,-6.1443324,-3.6586401,0.50762129,-0.74028099,-0.44080001,0
5.1919026,4.9034638,4.2296796,0.62553042,0.59077877,0.50959992,0
-0.12994727,5.9775801,-5.7568789,-0.015656298,0.72019035,-0.69359982,0
3.3653734,4.918623,-5.7767997,0.40546668,0.59260517,-0.69599992,0
-5.9775782,0.12994723,-5.7568808,-0.72019011,0.015656292,-0.69360006,0
4.7070251,6.5375347,1.9986398,0.56711143,0.78765476,0.24079998,0
2.6007278,-4.6360798,-6.3744006,0.31334069,-0.55856383,-0.76800007,0
