-2.0290167,7.5363483,3.6120005,-0.23593217,0.87631953,0.42000005,0
3.3511891,6.2236371,-4.8985586,0.38967314,0.72367871,-0.56959981,0
-5.8010283,-4.6066985,-4.3687997,-0.67453814,-0.53566259,-0.50799996,0
4.2585087,-2.6206214,6.9969602,0.49517539,-0.30472341,0.8136,0
-4.8511472,-5.9291801,-3.9078388,-0.56408685,-0.68943954,-0.45439985,0
-8.2504482,-2.4266024,-0.041280087,-0.9593544,-0.28216305,-0.00480001,0
7.3340545,-4.0984426,-1.8369588,0.85279697,-0.47656307,-0.21359985,0
6.652957,1.3608317,-5.2769599,0.77359962,0.15823624,-0.61359996,0
-3.721616,5.5824242,5.3801599,-0.43274602,0.64911908,0.62559998,0
-2.157119,-8.0891953,1.9676795,-0.25082779,-0.94060403,0.22879994,0
7.0886312,-2.6582367,4.0798397,0.8242594,-0.30909729,0.47439995,0
-3.137008,3.8689764,-7.0107212,-0.36476836,0.44988096,-0.81520009,0
-1.6290357,4.5816631,-7.0932794,-0.18942274,0.5327515,-0.8247999,0
1.6206465,1.7159789,-8.2697601,0.18844725,0.19953242,-0.96159995,0
-1.733091,8.4178705,0.30960131,-0.2015222,0.97882211,0.036000151,0
4.2425117,2.9371228,6.8800006,0.49331531,0.34152588,0.80000001,0
7.6312819,-0.58702201,3.9216006,0.88735831,-0.068258367,0.45600006,0
-2.4835186,6.2087951,5.4076805,-0.28878123,0.72195286,0.62880003,0
2.4132912,8.0443068,1.8507199,0.28061524,0.93538445,0.21519998,0
8.1822853,0.81822896,-2.5180788,0.95142847,0.095142901,-0.29279986,0
0.28224736,4.5159626,-7.3134413,0.032819461,0.52511191,-0.85040009,0
2.1113641,-6.9373398,4.6233606,0.24550745,-0.80666739,0.53760004,0
2.6760445,1.762273,-7.9808011,0.31116796,0.20491545,-0.92800009,0
5.4383264,-2.2393103,6.27456,0.6323635,-0.26038492,0.72959995,0
-2.8599627,8.1032267,-0.34399888,-0.33255377,0.94223559,-0.039999869,0
2.2370896,-7.8298154,2.7657602,0.26012668,-0.9104436,0.32160002,0
3.3109891,6.456429,-4.6164789,0.38499871,0.7507475,-0.53679985,0
6.6925468,-5.0863352,1.8163202,0.77820307,-0.5914343,0.21120001,0
7.2190156,4.3751612,-1.6443189,0.83942038,0.50873965,-0.19119987,0
-1.1701663,-7.606082,3.8390405,-0.13606584,-0.88442808,0.44640005,0
0.65918881,-5.1636453,-6.8456001,0.07664986,-0.60042381,-0.796,0
1.8448157,-7.5637426,-3.6532803,0.21451345,-0.87950492,-0.42480001,0
0.95257485,6.0329795,6.0544004,0.11076451,0.70150924,0.704,0
8.287571,-1.0625094,-2.0364795,0.96367097,-0.1235476,-0.23679993,0
2.6758051,0.32764962,-8.1665611,0.31114012,0.038098793,-0.9496001,0
1.9324105,8.005702,2.4767992,0.22469889,0.93089557,0.2879999,0
-4.2569585,-6.7724333,-3.1579199,-0.49499515,-0.78749222,-0.36719996,0
8.1041613,-2.7858059,0.72240013,0.94234431,-0.32393092,0.084000014,0
-3.3833864,7.8078156,1.2452797,-0.393417,0.90788549,0.14479995,0
-2.9194479,-4.5413628,6.6942406,-0.33947068,-0.52806544,0.7784,0
-5.9964395,0.65178704,-6.1300807,-0.69726038,0.075789191,-0.71280003,0
-1.733542,-8.2343225,-1.77504,-0.20157464,-0.9574793,-0.20639999,0
-8.1822844,0.81822884,-2.5180805,-0.95142835,0.095142886,-0.29280004,0
-7.5104904,3.7552447,1.8576003,-0.87331277,0.43665636,0.21600004,0
3.2361612,-5.0484114,-6.1644797,0.3762978,-0.58702457,-0.71679991,0
-4.397192,2.5739663,-6.9281602,-0.5113014,0.29929838,-0.80559999,0
5.4983649,-0.32343289,6.6047997,0.63934475,-0.037608474,0.76799995,0
-6.2270656,5.0594907,-3.0959995,-0.72407734,0.58831286,-0.35999992,0
-6.7808609,-0.92466289,5.2081604,-0.78847218,-0.10751893,0.6056,0
4.5159621,-0.28224763,-7.3134418,0.52511185,-0.032819491,-0.85040015,0
-2.1449718,-7.3286538,-3.9560001,-0.24941532,-0.85216904,-0.45999998,0
-5.2846284,6.6057858,1.5480005,-0.61449164,0.76811463,0.18000005,0
-2.7237763,6.6581206,4.7127991,-0.31671816,0.77420002,0.54799986,0
-8.287571,-1.0625094,-2.0364795,-0.96367097,-0.1235476,-0.23679993,0
-7.6630297,-1.6821285,-3.5225599,-0.89104992,-0.19559634,-0.40959996,0
-6.67033,-3.2496481,-4.3481593,-0.77561975,-0.37786603,-0.50559992,0
5.3127141,1.9318963,-6.4809608,0.61775744,0.2246391,-0.75360006,0
5.3294387,-5.3294387,4.1417599,0.61970216,-0.61970216,0.48159996,0
7.2899928,-4.5248227,0.58479899,0.84767354,-0.52614218,0.067999877,0
-5.0949178,6.878139,0.83248109,-0.59243226,0.79978359,0.096800119,0
-5.9301372,-2.8090124,5.5590401,-0.68955082,-0.32662934,0.64639997,0
-6.0367761,2.7975304,-5.4489598,-0.70195067,0.32529423,-0.63359994,0
-3.2356799,-0.67409998,-7.9395194,-0.37624183,-0.078383714,-0.92319989,0
-1.6943532,-2.3720937,8.0908804,-0.1970178,-0.27582484,0.94080001,0
2.2382741,-6.7148237,-4.8848009,0.26026443,-0.78079343,-0.56800008,0
-1.3323065,5.9953794,-6.0199995,-0.15491936,0.69713712,-0.69999993,0
-8.5906057,-0.23862769,-0.32336071,-0.99890763,-0.027747404,-0.037600081,0
-3.8225815,7.3721218,2.236001,-0.4444862,0.85722345,0.26000011,0
-1.9395623,5.0200438,-6.7079997,-0.22553049,0.58372599,-0.77999991,0
4.0580335,-6.66677,3.6120007,0.47186434,-0.77520579,0.42000008,0
-6.6961317,-3.5242798,-4.0867195,-0.77861995,-0.40979996,-0.47519991,0
3.7833748,-5.0444994,5.848,0.43992728,-0.58656967,0.67999995,0
-2.0937138,4.287128,-7.155201,-0.24345508,0.49850324,-0.83200008,0
5.3979297,2.8577263,6.0544,0.62766623,0.33229375,0.70399994,0
-7.980041,0,3.2060802,-0.9279117,0,0.37279999,0
0.63579482,-6.0400562,6.0888004,0.07392963,-0.70233208,0.708,0
-8.2146168,1.0952828,2.2979195,-0.95518798,0.12735845,0.26719993,0
4.499804,-7.0711212,-1.9263988,0.523233,-0.82222337,-0.22399984,0
7.4350429,-3.5798354,2.4217608,0.8645398,-0.41625991,0.28160009,0
8.3166885,-1.8192754,1.2177604,0.96705675,-0.21154363,0.14160004,0
-3.3316402,6.3604026,4.7334404,-0.3874,0.73958164,0.55040002,0
-6.839201,5.1883597,-0.51600176,-0.7952559,0.60329759,-0.060000204,0
4.7359691,-4.104507,5.8892808,0.55069405,-0.47726822,0.68480009,0
5.4546518,-1.9251711,6.3639998,0.63426179,-0.2238571,0.73999995,0
-5.8959632,-3.0953808,-5.442081,-0.68557709,-0.35992798,-0.6328001,0
7.2125511,-1.2020916,4.52704,0.8386687,-0.13977808,0.52639997,0
-0.68399835,1.7099954,8.4004803,-0.079534687,0.19883667,0.97679996,0
-6.2260313,5.0940261,3.0409601,-0.72395712,0.59232861,0.3536,0
3.6905162,0.3355011,7.7606401,0.42912978,0.039011754,0.90239996,0
-2.5455072,-7.6365218,-3.0271993,-0.29598919,-0.88796759,-0.35199991,0
-2.5708935,-8.1801147,-0.66047996,-0.29894111,-0.95117611,-0.076799989,0
2.6482186,-3.6413019,7.3272004,0.30793238,-0.42340717,0.852,0
-1.6630257,8.0379581,2.5662394,-0.19337508,0.93464625,0.29839993,0
-7.8595324,2.2167916,-2.6969595,-0.91389906,0.25776646,-0.31359991,0
-8.0013485,3.1520464,-0.05503916,-0.93038934,0.36651701,-0.006399902,0
7.0407076,-2.4041436,-4.3137612,0.8186869,-0.27955157,-0.50160015,0
-7.4959111,0.52297002,-4.1830406,-0.87161756,0.060810465,-0.48640004,0
-2.9537559,3.3229756,-7.3616009,-0.34345996,0.3863925,-0.85600007,0
-1.0921661,7.6451631,-3.7840011,-0.12699606,0.8889724,-0.44000012,0
7.0481906,-3.072288,-3.8527992,0.81955701,-0.35724279,-0.44799989,0
0.95257485,6.0329795,6.0544004,0.11076451,0.70150924,0.704,0
0.96854085,5.4884038,6.5497599,0.11262102,0.63818645,0.76159996,0
2.7703419,5.1629095,-6.2952027,0.32213277,0.60033828,-0.73200029,0
2.690073,-3.7468874,-7.2583985,0.31279919,-0.43568456,-0.8439998,0
7.9098315,3.1639321,-1.1764809,0.91974783,0.36789906,-0.1368001,0
-4.9962258,4.8400936,-5.0567999,-0.58095646,0.56280154,-0.58799994,0
-2.272213,4.8690276,6.7148809,-0.26421079,0.56616598,0.7808001,0
-1.939721,-5.1725888,6.5910401,-0.22554894,-0.60146379,0.76639998,0
-3.2858381,0.13411571,-7.9464011,-0.38207418,0.015594849,-0.92400008,0
6.6867447,3.7951791,-3.8527999,0.77752841,0.44129989,-0.44799995,0
3.94677,7.0478039,2.9515204,0.45892671,0.81951207,0.34320003,0
2.2091126,8.1737156,-1.5067207,0.25687355,0.950432,-0.17520007,0
-3.8899693,-5.997036,-4.781601,-0.45232201,-0.69732976,-0.55600011,0
0.36921954,4.4306326,-7.3616018,0.042932503,0.51518983,-0.85600019,0
2.2700248,-7.5667491,-3.3987205,0.26395637,-0.8798545,-0.39520004,0
-6.4218931,-5.0258298,2.7313602,-0.7467317,-0.58439881,0.31760001,0
6.091424,-5.4822807,-2.6075199,0.70830506,-0.63747448,-0.30319998,0
-5.3980608,-4.0485454,-5.3320003,-0.62768143,-0.47076106,-0.62,0
-1.9459578,-7.7838316,-3.0960004,-0.22627415,-0.90509665,-0.36000004,0
1.2790146,4.9028888,-6.9487991,0.14872262,0.57010335,-0.80799985,0
4.9125795,0.98251516,6.9900808,0.57123017,0.11424594,0.81280005,0
-4.4865727,7.3201976,-0.49536005,-0.52169448,0.85118574,-0.057600003,0
3.137008,-3.8689764,-7.0107212,0.36476836,-0.44988096,-0.81520009,0
-3.9213831,-3.2678189,6.9212804,-0.45597476,-0.37997892,0.80480003,0
1.0268261,1.3691036,8.4280005,0.11939839,0.15919808,0.98000002,0
-8.3626394,1.8583639,-0.75680053,-0.97239989,0.21608882,-0.088000059,0
4.1188188,2.6772323,-7.0588784,0.47893238,0.31130606,-0.82079977,0
8.2396526,1.267639,-2.1121593,0.95809913,0.14739989,-0.2455999,0
7.1955199,1.4990669,4.4651198,0.83668834,0.1743101,0.51919997,0
-3.7953849,-7.191256,-2.8001609,-0.44132382,-0.83619255,-0.32560009,0
4.8339033,-2.9003427,6.4947209,0.56208175,-0.33724913,0.75520009,0
5.0484114,-3.2361612,-6.1644797,0.58702457,-0.3762978,-0.71679991,0
5.0165052,-4.1565328,-5.6140823,0.58331454,-0.48331773,-0.65280026,0
2.5880504,4.8525949,6.611681,0.30093607,0.56425518,0.76880008,0
-1.245414,3.5805655,-7.7193589,-0.14481558,0.41634479,-0.89759982,0
1.6367315,8.4174776,-0.65360069,0.19031762,0.9787764,-0.07600008,0
3.6550851,-2.0886202,-7.4992018,0.42500988,-0.24286281,-0.87200016,0
-4.9536004,5.2838402,-4.6371202,-0.57600003,0.61439997,-0.53920001,0
7.0229406,-3.9016333,-3.0684805,0.81662095,-0.45367828,-0.35680005,0
3.0443809,1.8121314,-7.8363214,0.35399777,0.21071294,-0.91120011,0
3.8609486,-3.3247056,-6.9281611,0.44894749,-0.38659367,-0.80560011,0
7.2217855,4.5136156,-1.1971194,0.83974248,0.52483898,-0.13919991,0
-5.4946308,-0.64642757,6.5841608,-0.63891053,-0.075165994,0.76560009,0
-6.7893019,0.61720866,5.2425604,-0.78945369,0.071768448,0.60960001,0
3.7202928,-6.8825421,-3.57072,0.43259215,-0.80029553,-0.41519997,0
6.1019945,-5.8366899,1.6305596,0.70953423,-0.67868483,0.18959995,0
-6.1828198,2.7822683,5.2907209,-0.71893251,0.32351956,0.6152001,0
-3.8156409,5.4299507,-5.4696002,-0.44367915,0.63138962,-0.63599998,0
-1.1045564,8.3946266,-1.5067199,-0.12843679,0.97611934,-0.17519999,0
-0.3320978,-4.3172755,7.4304004,-0.03861602,-0.50200874,0.86400002,0
4.418241,-7.277102,1.2177596,0.51374894,-0.8461746,0.14159995,0
5.158968,-6.8786244,0.17200059,0.59987998,-0.79984003,0.020000067,0
5.4194279,2.5503182,6.17136,0.63016599,0.2965486,0.71759999,0
0.42965549,-8.3782902,-1.8919992,0.049959939,-0.97421974,-0.21999991,0
-5.7988238,5.2189417,3.6188803,-0.67428184,0.60685366,0.4208,0
2.6466372,-8.1805143,-0.18576039,0.3077485,-0.95122254,-0.021600045,0
4.7963028,-6.9279928,1.7200003,0.55770957,-0.8055805,0.20000002,0
5.4374814,6.2740173,-2.2428803,0.63226527,0.72953689,-0.26080003,0
0.65540844,-2.8599637,-8.0839996,0.076210283,-0.33255389,-0.93999994,0
3.3359141,-2.335139,7.5748801,0.38789698,-0.2715278,0.88079995,0
-7.8954649,-2.7740822,-1.9814402,-0.91807729,-0.32256767,-0.23040001,0
-6.6925468,-5.0863352,1.8163202,-0.77820307,-0.5914343,0.21120001,0
-0.37228385,7.8179569,-3.5638411,-0.043288816,0.90906471,-0.4144001,0
-5.6912532,-4.1103492,-4.9673605,-0.66177362,-0.47794756,-0.57760006,0
-5.8556843,4.9773326,3.8596802,-0.68089348,0.57875955,0.4488,0
-4.3236842,5.2501893,5.2632003,-0.50275397,0.6104871,0.61199999,0
2.5698431,5.139688,6.3983998,0.29881895,0.59763813,0.74399996,0
6.6867447,3.7951791,-3.8527999,0.77752841,0.44129989,-0.44799995,0
8.3863335,1.310365,1.3828803,0.975155,0.15236801,0.16080002,0
6.4868412,-0.86491221,-5.5796795,0.75428385,-0.10057119,-0.6487999,0
4.6232781,-6.0458255,-4.0041599,0.53759044,-0.70300293,-0.46559998,0
-7.0478039,-3.94677,2.9515204,-0.81951207,-0.45892671,0.34320003,0
1.6821277,7.6630292,-3.5225613,0.19559623,0.89104986,-0.40960014,0
6.8793468,-2.6919184,4.4031997,0.79992402,-0.31301376,0.51199996,0
-4.6115518,0.096073911,-7.2583995,-0.53622693,0.011171385,-0.84399992,0
-2.1810684,-6.2316241,5.5108805,-0.25361261,-0.72460741,0.6408,0
2.9721599,-4.9535995,-6.3708811,0.34559998,-0.57599992,-0.74080008,0
-6.4774756,-2.1591582,5.2288003,-0.75319481,-0.2510649,0.60799998,0
-3.8156409,5.4299507,-5.4696002,-0.44367915,0.63138962,-0.63599998,0
2.2167916,-7.8595324,-2.6969595,0.25776646,-0.91389906,-0.31359991,0
-2.7657259,-7.7440324,2.5180802,-0.32159603,-0.90046883,0.29280001,0
4.3491178,-4.9289999,-5.5452809,0.50571132,-0.57313949,-0.64480007,0
-3.6413019,2.6482186,7.3272004,-0.42340717,0.30793238,0.852,0
-6.2017159,0,-5.9580808,-0.72112972,0,-0.69280005,0
-0.28491816,7.977715,3.1992013,-0.033130016,0.92764121,0.37200013,0
-2.0486696,0.34144461,8.3454399,-0.23821738,0.039702859,0.97039998,0
-5.9535584,5.3865523,3.0822399,-0.69227421,0.62634325,0.35839996,0
0.27511373,8.2534199,2.4011197,0.031989966,0.95969993,0.27919996,0
-5.1396871,2.5698431,6.3984008,-0.59763801,0.29881895,0.74400008,0
-4.4505677,4.1326699,6.0888004,-0.51750785,0.48054299,0.708,0
-7.2175369,3.8863657,2.6006408,-0.83924842,0.45190296,0.30240008,0
-8.1826611,-1.4686826,-2.2015994,-0.95147216,-0.17077704,-0.25599992,0
2.8985963,7.246489,3.6119998,0.33704606,0.84261495,0.41999996,0
1.6821281,-7.6630297,-3.5225596,0.19559628,-0.89104992,-0.40959993,0
-6.8420138,4.9999332,1.4654405,-0.79558295,0.58138758,0.17040005,0
-5.0484114,3.2361612,-6.1644797,-0.58702457,0.3762978,-0.71679991,0
-0.11716202,5.5066204,-6.6048021,-0.01362349,0.64030468,-0.76800019,0
8.0638771,-2.687959,-1.3072008,0.9376601,-0.31255335,-0.15200008,0
-8.090044,-2.4051483,-1.6512005,-0.94070274,-0.27966839,-0.19200005,0
1.2020924,7.2125511,4.52704,0.13977818,0.8386687,0.52639997,0
-5.4700289,4.5583563,4.8228807,-0.63604987,0.5300414,0.56080008,0
-8.5011253,0.77282888,1.0457609,-0.98850292,0.089863822,0.1216001,0
5.4700289,-4.5583572,4.8228798,0.63604987,-0.53004152,0.56079996,0
1.669021,-3.6718457,7.59552,0.1940722,-0.42695877,0.88319999,0
4.2223816,1.5951222,-7.3203201,0.49097458,0.18547931,-0.85119998,0
5.4796734,1.2893355,6.5015998,0.63717127,0.14992273,0.75599992,0
-5.9243474,5.9243479,1.9401592,-0.68887758,0.68887764,0.2255999,0
2.8577263,-5.3979287,6.0544009,0.33229375,-0.62766612,0.70400006,0
3.2733767,-7.6378789,2.2153599,0.38062519,-0.88812542,0.25759998,0
2.2167916,-7.8595324,-2.6969595,0.25776646,-0.91389906,-0.31359991,0
-0.2521309,8.5724583,0.63984126,-0.029317545,0.99679744,0.074400142,0
0.68399733,-1.7099954,8.4004803,0.079534568,-0.19883667,0.97679996,0
6.8639102,-4.0039468,3.28864,0.79812908,-0.46557519,0.38239998,0
-8.0891953,-1.2133793,-2.6556804,-0.94060403,-0.1410906,-0.30880004,0
6.67033,-3.2496481,-4.3481593,0.77561975,-0.37786603,-0.50559992,0
-6.5042753,-5.5750933,-0.75680041,-0.75631106,-0.64826661,-0.088000044,0
4.5413628,-2.9194479,6.6942406,0.52806544,-0.33947068,0.7784,0
-2.2253156,5.6287403,-6.1094403,-0.25875762,0.65450466,-0.71039999,0
-8.3626394,-1.8583646,-0.75680089,-0.97239989,-0.21608889,-0.088000096,0
6.1392193,-4.3851566,-4.1280012,0.71386266,-0.50990194,-0.48000011,0
1.4302752,-0.2627036,-8.476161,0.16631106,-0.030546928,-0.98560005,0
3.930275,6.046577,4.6852808,0.45700869,0.70309031,0.54480004,0
-3.2299383,4.5219135,6.5635204,-0.3755742,0.52580386,0.76320004,0
-4.6869874,-2.1799939,-6.8731203,-0.54499853,-0.25348765,-0.7992,0
2.3956816,3.9289181,-7.2652817,0.27856761,0.45685092,-0.84480017,0
-0.99992234,-3.9996893,7.5473604,-0.11627004,-0.46508014,0.87760001,0
-7.0794473,4.8823767,0.061919473,-0.82319152,0.56771821,0.0071999384,0
-3.8883262,-6.2811427,4.4032001,-0.45213094,-0.7303654,0.51200002,0
-0.34660459,-5.4301381,-6.6598401,-0.040302858,-0.63141137,-0.7744,0
-4.6232791,6.045826,-4.0041585,-0.53759056,0.70300299,-0.46559981,0
5.2462788,4.4747677,-5.13936,0.61003238,0.52032179,-0.59759998,0
5.4301357,-0.34660441,-6.659842,0.63141108,-0.040302835,-0.77440017,0
-0.3320978,-4.3172755,7.4304004,-0.03861602,-0.50200874,0.86400002,0
-8.2396526,1.267639,-2.1121593,-0.95809913,0.14739989,-0.2455999,0
4.8605294,-6.2900963,3.2817597,0.5651778,-0.73140651,0.38159996,0
6.1348729,4.67419,3.8046403,0.71335727,0.54351044,0.44240001,0
-2.8910656,-6.8025079,-4.3963203,-0.33617041,-0.79098928,-0.51120001,0
1.7058382,1.364671,8.3179197,0.19835328,0.15868266,0.96719992,0
-0.30883431,-6.7943616,5.2632003,-0.035910964,-0.79004198,0.61199999,0
-7.8757224,-1.7720375,-2.9652805,-0.91578162,-0.20605086,-0.34480006,0
7.2147655,-2.959904,-3.6257594,0.8389262,-0.34417486,-0.42159989,0
-6.5279856,5.1679883,2.1534398,-0.75906807,0.60092884,0.25039995,0
7.5667496,2.2700253,-3.3987188,0.87985456,0.26395643,-0.39519984,0
-0.46193475,8.5457888,-0.84624028,-0.05371334,0.99369633,-0.098400027,0
3.691292,0,7.76752,0.42921999,0,0.90319997,0
6.0608392,-6.0608392,-0.70175934,0.70474869,-0.70474869,-0.081599921,0
1.1158334,6.2765636,-5.7723193,0.12974806,0.72983295,-0.67119992,0
4.5636773,2.8522985,-6.7079988,0.53066015,0.3316626,-0.77999979,0
-4.3172755,0.3320978,7.4304004,-0.50200874,0.03861602,0.86400002,0
-4.4998045,-7.0711207,-1.9263996,-0.52323306,-0.82222331,-0.22399995,0
8.3132162,2.2005568,0.089441553,0.96665299,0.25587869,0.01040018,0
-2.6350315,3.9525468,7.1689601,-0.30639899,0.45959845,0.83359998,0
-4.4387469,6.8598814,-2.6831989,-0.51613337,0.79766059,-0.31199986,0
-6.6523161,-5.3730249,0.91504014,-0.77352512,-0.62477034,0.10640001,0
4.1724458,6.9540777,-2.8620806,0.4851681,0.80861366,-0.33280006,0
-6.0329795,-0.9525758,6.0544004,-0.70150924,-0.11076462,0.704,0
2.2167916,7.8595324,-2.6969595,0.25776646,0.91389906,-0.31359991,0
5.3127141,1.9318963,-6.4809608,0.61775744,0.2246391,-0.75360006,0
-3.7793303,4.2669859,-6.4396815,-0.439457,0.49616113,-0.74880016,0
-5.595686,-2.5313816,-6.0200009,-0.65066111,-0.29434669,-0.70000011,0
-7.9659443,-3.0835915,0.99759984,-0.92627257,-0.35855713,0.11599997,0
1.8583639,8.3626394,-0.75680053,0.21608882,0.97239989,-0.088000059,0
1.7936624,-7.1746497,4.3894401,0.20856538,-0.83426154,0.5104,0
7.4708061,-3.955133,-1.582399,0.86869836,-0.45989916,-0.18399988,0
5.8386641,-3.6875777,5.1256003,0.67891437,-0.4287881,0.59600002,0
-3.8767085,-1.7621402,-7.4716797,-0.45078003,-0.20490001,-0.86879992,0
6.1936374,0.13464417,-5.9649587,0.72019035,0.015656298,-0.69359982,0
-8.3233871,-1.0739852,1.87824,-0.96783566,-0.124882,0.21839999,0
3.0479186,5.3007269,-6.0475197,0.35440913,0.61636358,-0.70319992,0
-4.0580335,6.6667705,3.6119998,-0.47186434,0.77520585,0.41999996,0
-6.8698106,1.0929242,-5.0567999,-0.79881513,0.12708421,-0.58799994,0
4.4387469,-6.8598809,-2.6832011,0.51613337,-0.79766053,-0.31200013,0
-1.8754029,-6.2513423,5.6003203,-0.2180701,-0.72690022,0.6512,0
-7.8757224,-1.7720375,-2.9652805,-0.91578162,-0.20605086,-0.34480006,0
-4.3649521,-7.3514986,-0.92879969,-0.50755256,-0.85482538,-0.10799996,0
-7.5405869,4.1351609,-4.9209598e-07,-0.8768124,0.48083264,-5.7220461e-08,0
0,-7.2427292,4.6371198,0,-0.84217775,0.53919995,0
6.5133295,5.4711962,1.2659206,0.75736386,0.63618559,0.14720006,0
-7.5979009,-3.79895,-1.3415999,-0.88347679,-0.44173834,-0.15599999,0
-3.2858379,-0.1341159,-7.9464011,-0.38207415,-0.015594872,-0.92400008,0
-5.2145863,0,6.8387203,-0.6063472,0,0.79519999,0
0.30883431,6.7943625,5.2631993,0.035910964,0.7900421,0.61199987,0
5.2967238,2.5222492,-6.288321,0.61589807,0.29328477,-0.7312001,0
6.1873884,4.4195628,4.0179214,0.71946377,0.5139026,0.46720016,0
1.6149695,-6.9443674,-4.8091211,0.18778715,-0.80748457,-0.55920011,0
-3.0131576,-8.0350866,0.56416029,-0.35036716,-0.93431234,0.06560003,0
4.7639961,3.8111975,6.0612807,0.55395299,0.44316247,0.70480007,0
8.1508923,2.4905508,-1.1489609,0.94777811,0.28959891,-0.1336001,0
7.525044,-0.35000223,-4.1486406,0.87500507,-0.040697932,-0.48240006,0
4.4957952,6.7436919,2.8758392,0.52276689,0.78415018,0.33439991,0
-2.2211106,5.7114282,6.0337601,-0.25826865,0.66411954,0.70159996,0
0.62996101,6.2996159,5.8204808,0.073251277,0.73251343,0.67680007,0
-2.9679689,-7.824645,1.981439,-0.34511265,-0.90984243,0.23039988,0
3.0348451,6.3891473,-4.8916788,0.35288894,0.74292409,-0.56879985,0
2.7740822,7.8954649,-1.9814402,0.32256767,0.91807729,-0.23040001,0
-2.569844,-5.1396871,6.3984003,-0.29881907,-0.59763801,0.74400002,0
0.68524188,1.3704858,8.4624004,0.079679288,0.1593588,0.98400003,0
-2.8522973,-4.5636754,-6.7080007,-0.33166248,-0.53065991,-0.78000003,0
-5.4157891,1.5645614,-6.4947195,-0.62974292,0.18192573,-0.75519991,0
-5.7278633,-3.6175983,-5.2976003,-0.66603059,-0.42065096,-0.616,0
-5.5750937,6.5042748,-0.75679922,-0.64826667,0.756311,-0.087999903,0
-7.4398704,-0.59518993,4.27248,-0.86510116,-0.06920813,0.49679998,0
-4.9049869,-1.3079962,6.9419203,-0.57034731,-0.15209258,0.80720001,0
6.1536603,-3.0768301,-5.1599984,0.71554184,-0.35777092,-0.59999979,0
-8.2206039,2.4910929,0.41968045,-0.95588416,0.28966194,0.048800051,0
3.6726186,7.5612736,-1.8163216,0.42704865,0.8792178,-0.21120018,0
4.5870976,-1.9658992,7.0038404,0.53338343,-0.22859292,0.81440002,0
3.3056252,1.3957084,-7.8156796,0.38437501,0.16229168,-0.90879989,0
-5.1275992,-5.1275992,-4.6233606,-0.59623241,-0.59623241,-0.53760004,0
5.27384,-0.5610469,-6.7699223,0.6132372,-0.065238006,-0.78720021,0
0,5.5161066,-6.5979223,0,0.64140773,-0.76720023,0
0.61609566,-8.2146168,-2.4699204,0.071639024,-0.95518798,-0.28720003,0
-5.3007269,-3.0479176,-6.0475202,-0.61636358,-0.35440901,-0.70319998,0
-7.8932018,-1.1551027,-3.21296,-0.91781414,-0.13431427,-0.37359998,0
2.0490854,0,8.3523207,0.23826574,0,0.97120005,0
-3.4521906,-7.824965,-0.90128034,-0.40141749,-0.90987962,-0.10480004,0
-4.8400936,4.9962258,-5.0567999,-0.56280154,0.58095646,-0.58799994,0
6.5769706,-4.3220091,-3.467521,0.76476401,-0.50255919,-0.40320009,0
1.0226688,2.0453398,8.2904005,0.11891498,0.23783021,0.96399999,0
-1.3715895,0,8.4899206,-0.15948714,0,0.98720002,0
-3.2858379,-0.1341159,-7.9464011,-0.38207415,-0.015594872,-0.92400008,0
-0.34331101,1.029933,8.5312004,-0.039919883,0.11975964,0.99199998,0
-5.7435603,-1.5954337,6.1988802,-0.6678558,-0.18551554,0.72079998,0
6.7129493,2.1359379,4.9329596,0.78057545,0.24836487,0.57359993,0
-1.0739852,8.3233871,1.87824,-0.124882,0.96783566,0.21839999,0
0.39969149,-6.1286087,-6.0200005,0.046475753,-0.7126289,-0.70000005,0
1.9459583,-7.7838316,-3.0960009,0.22627421,-0.90509665,-0.3600001,0
0.9189378,-8.5001698,-0.9288004,0.10685323,-0.98839182,-0.10800004,0
8.3206768,-2.1396027,-0.38528121,0.96752053,-0.24879099,-0.04480014,0
-6.4774756,2.1591582,5.2288003,-0.75319481,0.2510649,0.60799998,0
7.0083532,4.5823855,1.9608001,0.81492478,0.53283548,0.228,0
7.0292864,-4.3416185,-2.3873591,0.81735885,-0.50483936,-0.2775999,0
-5.0770626,6.0172601,-3.4606392,-0.59035611,0.6996814,-0.4023999,0
6.091424,5.4822807,-2.6075199,0.70830506,0.63747448,-0.30319998,0
-5.5119839,-5.5119839,3.6326404,-0.64092833,-0.64092833,0.42240003,0
-0.32086155,-5.7755136,6.3640003,-0.037309479,-0.67157131,0.74000001,0
7.3340545,-4.0984426,-1.8369588,0.85279697,-0.47656307,-0.21359985,0
-6.7738309,4.8771586,2.0708799,-0.7876547,0.56711143,0.24079998,0
6.5042748,5.5750937,-0.75679922,0.756311,0.64826667,-0.087999903,0
-5.5119839,-5.5119839,3.6326404,-0.64092833,-0.64092833,0.42240003,0
-2.7975297,6.0367751,-5.4489617,-0.32529414,0.70195055,-0.63360018,0
6.495019,-1.9636103,-5.2838407,0.75523472,-0.22832677,-0.61440003,0
1.8930382,-5.9946203,5.8686404,0.22012071,-0.69704884,0.68240005,0
-5.8386641,-3.6875777,5.1256003,-0.67891437,-0.4287881,0.59600002,0
3.2653842,2.577935,-7.5267205,0.37969583,0.29975986,-0.87520003,0
1.2790147,5.7555637,6.2607999,0.14872263,0.66925156,0.72799993,0
2.3006167,-4.2725744,7.1001606,0.26751357,-0.49681094,0.82560003,0
0.32562074,-7.1636634,-4.7472,0.037862875,-0.83298409,-0.55199999,0
-7.5104904,-3.7552447,1.8576003,-0.87331277,-0.43665636,0.21600004,0
8.2146168,-0.61609632,-2.4699187,0.95518798,-0.071639106,-0.28719983,0
-1.2806787,8.4524775,0.93568075,-0.14891613,0.9828462,0.10880008,0
-5.6912532,4.1103492,-4.9673605,-0.66177362,0.47794756,-0.57760006,0
-8.0905962,2.6098704,1.3003197,-0.94076693,0.30347329,0.15119995,0
-6.4750381,-3.8500226,-4.1486402,-0.75291139,-0.44767702,-0.4824,0
7.8932009,-1.1551026,-3.2129617,0.91781402,-0.13431425,-0.37360018,0
4.1232276,7.4733496,1.0526386,0.47944504,0.86899412,0.12239984,0
-5.0303016,0.74919379,-6.93504,-0.58491874,0.087115556,-0.80639994,0
-0.98878318,4.6143208,7.1896005,-0.11497478,0.53654891,0.83600003,0
-7.3201976,4.4865727,-0.49536005,-0.85118574,0.52169448,-0.057600003,0
5.6912537,2.5294454,5.9305601,0.66177368,0.29412153,0.68959999,0
-6.4055872,4.367445,3.7220807,-0.74483567,0.50784242,0.43280005,0
-2.6919184,6.8793468,4.4031997,-0.31301376,0.79992402,0.51199996,0
-1.4783198,-7.0630832,-4.6784005,-0.17189763,-0.8212887,-0.54400003,0
-0.23127423,-8.5571547,-0.82560027,-0.026892351,-0.99501795,-0.096000023,0
3.5379193,-7.492064,-2.3048012,0.41138595,-0.87117022,-0.26800013,0
6.5606313,4.7713685,-2.8551996,0.76286405,0.55481029,-0.33199993,0
6.0041552,-4.2029085,4.4995208,0.69815755,-0.48871028,0.52320009,0
-2.6812153,7.1499066,-3.9559989,-0.31176922,0.83138448,-0.45999986,0
1.3659877,8.4235907,-1.0664003,0.15883577,0.97948724,-0.12400003,0
8.4917717,-0.22346745,-1.3415998,0.98741525,-0.025984587,-0.15599997,0
7.1511569,4.5025811,1.5961604,0.83152986,0.52355593,0.18560004,0
-7.6898584,3.8449299,-0.20640028,-0.89416957,0.44708484,-0.02400003,0
-1.3079962,4.9049859,6.9419208,-0.15209258,0.57034719,0.80720007,0
1.9318963,5.3127141,-6.4809608,0.2246391,0.61775744,-0.75360006,0
-3.6175983,5.7278633,-5.2976003,-0.42065096,0.66603059,-0.616,0
-5.8386641,3.6875777,5.1256003,-0.67891437,0.4287881,0.59600002,0
6.0520859,5.8359399,-1.8094382,0.70373088,0.67859763,-0.21039979,0
7.2303367,-4.2846441,1.8232008,0.84073681,-0.49821442,0.21200009,0
3.65013,-7.7869449,0.0068808072,0.42443371,-0.90545869,0.00080009381,0
7.5769014,3.5178473,2.0433612,0.88103503,0.40905198,0.23760013,0
2.70257,1.6891071,7.9876804,0.31425232,0.19640779,0.92879999,0
-5.5314517,-6.0845971,2.5180805,-0.64319205,-0.70751125,0.29280004,0
-7.5104904,3.7552447,1.8576003,-0.87331277,0.43665636,0.21600004,0
1.7027076,1.7027076,-8.2560024,0.19798926,0.19798926,-0.96000022,0
0,4.3182015,7.4372802,0,0.50211644,0.86479998,0
7.4854369,4.0829659,-1.1214395,0.87039959,0.47476345,-0.13039993,0
1.0921661,7.6451631,-3.7840011,0.12699606,0.8889724,-0.44000012,0
-4.1103492,5.6912532,-4.9673605,-0.47794756,0.66177362,-0.57760006,0
6.2920976,0.9438138,5.7860808,0.73163921,0.10974579,0.67280006,0
6.6120853,-4.3122292,3.4124794,0.76884711,-0.50142199,0.39679992,0
2.8090124,-5.4842629,-5.9993596,0.32662934,-0.63770497,-0.69759995,0
2.5455065,7.6365213,3.0272012,0.29598913,0.88796759,0.35200012,0
-4.5025802,7.1511569,1.5961611,-0.52355582,0.83152986,0.18560012,0
-0.69348204,-7.4549332,-4.2312007,-0.08063744,-0.86685264,-0.49200007,0
-2.2581711,8.2799597,0.55040073,-0.26257801,0.96278596,0.064000085,0
1.9318963,5.3127141,-6.4809608,0.2246391,0.61775744,-0.75360006,0
-8.4917717,-0.22346745,-1.3415998,-0.98741525,-0.025984587,-0.15599997,0
3.2134831,-7.7659178,1.8231992,0.3736608,-0.90301365,0.21199989,0
-6.456429,3.3109891,-4.6164789,-0.7507475,0.38499871,-0.53679985,0
-6.7148237,-2.2382741,-4.8848009,-0.78079343,-0.26026443,-0.56800008,0
-2.3643389,8.1438341,1.4310399,-0.27492312,0.94695741,0.16639999,0
-3.3591249,-4.7276578,-6.3502393,-0.39059591,-0.54972762,-0.73839986,0
2.9639971,-2.0747981,-7.801919,0.3446508,-0.24125558,-0.90719986,0
-2.3842847,0,8.2628803,-0.27724239,0,0.96079999,0
-4.1739731,4.5779057,-5.9649591,-0.48534569,0.5323146,-0.69359988,0
3.9177241,-7.6049929,-0.88063967,0.4555493,-0.88430148,-0.10239996,0
7.5637422,1.8448155,-3.6532819,0.87950486,0.21451342,-0.42480022,0
2.2563357,5.15734,6.5015998,0.2623646,0.59969068,0.75599992,0
5.6347909,-5.2712564,-3.7977612,0.65520823,-0.61293679,-0.44160011,0
1.5217719,3.8044295,-7.5611196,0.17695022,0.44237551,-0.87919992,0
-2.5071919,-5.9545794,5.6760001,-0.29153392,-0.69239295,0.65999997,0
-6.6185565,-5.1240439,-1.9745605,-0.76959956,-0.59581906,-0.22960004,0
-1.3183776,-8.3497248,-1.5823998,-0.15329972,-0.97089821,-0.18399997,0
2.3643382,-8.1438341,1.4310403,0.27492303,-0.94695741,0.16640003,0
-2.4132919,-8.0443068,1.8507196,-0.28061533,-0.93538445,0.21519995,0
-3.5987077,-2.4291275,-7.4235201,-0.41845435,-0.28245667,-0.86319995,0
-5.8116174,-5.8116174,2.5318396,-0.67576945,-0.67576945,0.29439995,0
-2.6919184,6.8793468,4.4031997,-0.31301376,0.79992402,0.51199996,0
-1.4783198,7.0630832,-4.6784005,-0.17189763,0.8212887,-0.54400003,0
3.3252552,-2.6602039,7.4716797,0.38665757,-0.30932602,0.86879992,0
4.9186897,7.0267005,-0.62607992,0.57194066,0.81705815,-0.072799988,0
-2.7740822,-7.8954649,-1.9814402,-0.32256767,-0.91807729,-0.23040001,0
-8.287571,1.0625094,-2.0364795,-0.96367097,0.1235476,-0.23679993,0
4.9536004,6.6048002,-2.408,0.57600003,0.76800001,-0.28,0
-4.9773316,5.8556843,3.8596809,-0.57875949,0.68089348,0.44880009,0
5.8959651,3.0953815,-5.4420781,0.68557733,0.35992807,-0.63279974,0
4.3130965,-1.8624735,-7.2033601,0.50152284,-0.21656668,-0.83759999,0
7.6207919,0.87932134,3.8872006,0.88613856,0.10224666,0.45200005,0
7.5851431,4.0296078,-0.43344009,0.88199335,0.46855903,-0.050400008,0
6.0845428,-5.6649184,-2.2016003,0.70750493,-0.65871143,-0.25600001,0
3.2844353,-3.6128786,7.0795197,0.38191107,-0.42010215,0.82319993,0
6.101994,5.8366904,1.6305586,0.70953417,0.67868489,0.18959983,0
8.2685556,-1.6003656,1.7406399,0.96145993,-0.18608902,0.20239998,0
0.62376922,6.5495825,5.5384011,0.072531305,0.76157933,0.64400011,0
4.8237004,5.6850758,-4.2862382,0.56089538,0.66105527,-0.49839976,0
1.364671,-1.7058382,8.3179197,0.15868266,-0.19835328,0.96719992,0
1.6988869,-2.0386639,8.1803198,0.19754498,-0.23705393,0.95119995,0
-1.7478179,-3.2676597,-7.7606406,-0.20323463,-0.37996042,-0.90240002,0
0.68247318,2.0474217,8.3248005,0.079357341,0.23807228,0.96799999,0
2.9383328,-7.0519972,3.9491196,0.34166658,-0.81999964,0.45919994,0
1.6919767,6.2039142,-5.7104001,0.19674146,0.72138536,-0.66399997,0
-0.86068791,7.4019146,-4.2931209,-0.10007998,0.86068773,-0.49920008,0
-5.6912537,-2.5294464,5.9305601,-0.66177368,-0.29412165,0.68959999,0
-5.9087944,4.7270365,4.08672,-0.68706906,0.54965538,0.47519997,0
7.7496538,-3.2290223,-1.864481,0.90112251,-0.37546769,-0.21680011,0
-1.5645614,5.4157891,-6.4947195,-0.18192573,0.62974292,-0.75519991,0
-0.45729491,0.16540456,-8.5862408,-0.053173825,0.019233087,-0.99840003,0
7.5769014,-3.5178473,2.0433612,0.88103503,-0.40905198,0.23760013,0
-0.97647518,8.5441599,0.061918899,-0.11354362,0.99350691,0.0071998718,0
7.9659443,3.0835915,0.99759984,0.92627257,0.35855713,0.11599997,0
8.1737156,2.2091126,-1.5067207,0.950432,0.25687355,-0.17520007,0
-7.877883,-2.716511,2.1259193,-0.91603285,-0.31587335,0.24719991,0
-7.5979009,-3.79895,-1.3415999,-0.88347679,-0.44173834,-0.15599999,0
4.7270365,-5.9087944,4.08672,0.54965538,-0.68706906,0.47519997,0
-6.66677,4.0580335,3.6120007,-0.77520579,0.47186434,0.42000008,0
-4.0039477,0.66732395,7.5817604,-0.46557531,0.077595808,0.88160002,0
-5.8332019,6.3193016,-0.013759974,-0.67827928,0.73480248,-0.0015999969,0
-2.5708935,-8.1801147,-0.66047996,-0.29894111,-0.95117611,-0.076799989,0
-7.504437,-2.309058,3.5088003,-0.8726089,-0.26849511,0.40800002,0
8.3863335,1.310365,1.3828803,0.975155,0.15236801,0.16080002,0
1.6862876,8.4314394,-0.16512109,0.19607995,0.98039991,-0.019200126,0
-3.930275,-6.046577,4.6852808,-0.45700869,-0.70309031,0.54480004,0
4.5739322,-2.2869661,6.9144006,0.53185254,-0.26592627,0.80400002,0
-4.5739322,-2.2869661,6.9144006,-0.53185254,-0.26592627,0.80400002,0
-3.0451286,-6.3947706,4.8779202,-0.3540847,-0.74357796,0.56720001,0
6.0845976,-5.5314512,2.5180795,0.70751131,-0.64319199,0.29279992,0
-5.2145863,0,6.8387203,-0.6063472,0,0.79519999,0
-3.2676578,1.747817,-7.7606416,-0.37996018,0.20323452,-0.90240014,0
4.514926,-5.7189069,4.5683208,0.52499139,-0.66498911,0.53120005,0
-3.8370423,4.4765487,6.2608004,-0.44616771,0.52052891,0.72799999,0
-6.456429,-3.3109891,-4.6164789,-0.7507475,-0.38499871,-0.53679985,0
2.660203,3.3252552,7.4716802,0.3093259,0.38665757,0.86879998,0
-5.6287394,2.2253158,-6.1094413,-0.65450454,0.25875765,-0.7104001,0
-0.65178734,5.9964414,-6.1300788,-0.075789221,0.69726062,-0.71279985,0
1.9984949,7.7084804,3.2473609,0.23238312,0.89633489,0.3776001,0
-5.5066228,-0.11716207,-6.6048002,-0.64030492,-0.013623496,-0.76800001,0
2.6919177,-6.8793464,4.4032006,0.31301367,-0.79992396,0.51200002,0
7.5456066,-3.0741367,2.7520006,0.87739611,-0.35745776,0.32000005,0
3.9016333,7.0229406,-3.0684805,0.45367828,0.81662095,-0.35680005,0
-4.1772437,0.52215552,-7.4991999,-0.485726,0.060715757,-0.87199992,0
7.6809897,2.1122727,-3.240479,0.89313829,0.2456131,-0.37679985,0
-8.5724583,-0.2521309,0.63983989,-0.99679744,-0.029317545,0.074399985,0
3.5987062,-4.3184476,-6.5084815,0.4184542,-0.50214505,-0.75680012,0
-1.566995,-6.2679782,5.6760006,-0.18220872,-0.72883463,0.66000003,0
-4.6193447,-0.6599068,7.2240005,-0.5371331,-0.076733343,0.84000003,0
-0.9485423,-6.9559765,-4.96736,-0.11029561,-0.80883443,-0.5776,0
7.9933724,0.7798416,-3.0753617,0.9294619,0.090679251,-0.35760018,0
1.6943532,-2.3720937,8.0908804,0.1970178,-0.27582484,0.94080001,0
3.8825274,6.2458043,-4.458241,0.45145664,0.72625631,-0.51840007,0
8.4957952,0,-1.3347198,0.98788315,0,-0.15519996,0
-7.1212492,2.3737493,4.1968002,-0.82805222,0.27601734,0.48800001,0
-2.0474217,-0.6824742,8.3248005,-0.23807228,-0.07935746,0.96799999,0
-1.0625094,8.287571,-2.0364795,-0.1235476,0.96367097,-0.23679993,0
0.32764962,2.6758051,-8.1665611,0.038098793,0.31114012,-0.9496001,0
-0.44983825,4.3184462,-7.4235215,-0.052306771,0.50214487,-0.86320013,0
-4.6066985,-5.8010283,-4.3687997,-0.53566259,-0.67453814,-0.50799996,0
-3.1771007,4.3117795,-6.7286401,-0.3694303,0.50136971,-0.78239995,0
-7.1212492,2.3737493,4.1968002,-0.82805222,0.27601734,0.48800001,0
-4.8672295,-5.1714311,4.8504004,-0.56595689,-0.60132915,0.56400001,0
0.52297002,-7.4959111,-4.1830406,0.060810465,-0.87161756,-0.48640004,0
-7.9257426,-2.4597132,2.2566392,-0.92159796,-0.28601316,0.26239991,0
2.3799031,-1.0199586,8.2009602,0.27673289,-0.11859983,0.95359999,0
1.669021,3.6718457,7.59552,0.1940722,0.42695877,0.88319999,0
-6.0711389,0.52792537,-6.068161,-0.70594633,0.061386667,-0.70560008,0
1.2790147,-5.7555637,6.2607999,0.14872263,-0.66925156,0.72799993,0
6.0017428,-3.6326337,-4.9742398,0.69787705,-0.42239925,-0.57839996,0
-4.4182405,-7.2771025,1.2177603,-0.51374888,-0.84617466,0.14160003,0
7.6394744,-3.9429545,0.22703999,0.88831091,-0.45848307,0.026399998,0
0.0022535373,0.0030047162,-8.5999994,0.00026203922,0.00034938561,-0.99999988,0
7.4342694,-4.3166728,-0.24080029,0.86444992,-0.5019387,-0.028000033,0
-2.1591582,-6.4774756,5.2288003,-0.2510649,-0.75319481,0.60799998,0
0.90487289,1.1383884,-8.47616,0.10521778,0.13237074,-0.98559994,0
-4.6741891,-6.1348739,3.8046401,-0.54351032,-0.71335739,0.44239998,0
8.0443068,-2.4132919,1.8507196,0.93538445,-0.28061533,0.21519995,0
-1.0226699,-2.0453398,8.2904005,-0.1189151,-0.23783021,0.96399999,0
6.0442986,0.31812069,6.1094403,0.70282537,0.036990777,0.71039999,0
-6.5279856,5.1679883,2.1534398,-0.75906807,0.60092884,0.25039995,0
0.30536634,-7.0234323,4.9536004,0.035507713,-0.81667811,0.57600003,0
-1.2623063,7.5738392,-3.873441,-0.14677981,0.88067895,-0.45040008,0
4.0356002,-7.5667491,0.64671898,0.46925581,-0.8798545,0.07519988,0
-8.5847816,-0.49055925,0.14448026,-0.9982304,-0.057041772,0.016800029,0
1.3691036,-1.0268271,8.4280005,0.15919808,-0.1193985,0.98000002,0
-2.593751,7.9973989,-1.8094404,-0.30159894,0.92993003,-0.21040003,0
7.4733496,-4.1232271,1.0526392,0.86899412,-0.47944498,0.1223999,0
-8.2206039,2.4910929,0.41968045,-0.95588416,0.28966194,0.048800051,0
8.2396526,1.267639,-2.1121593,0.95809913,0.14739989,-0.2455999,0
-1.9096185,-5.7288556,6.1231999,-0.22204866,-0.66614598,0.71199995,0
7.2586384,-1.1816386,-4.4582405,0.8440277,-0.13739984,-0.51840001,0
7.3318982,3.3839533,2.9584005,0.85254627,0.39348292,0.34400004,0
5.7915063,5.0675678,-3.8390388,0.67343092,0.58925205,-0.44639984,0
-1.6649035,8.1164036,-2.3047996,-0.19359343,0.94376785,-0.26799995,0
1.6764491,3.3528981,7.7399998,0.19493593,0.38987187,0.89999992,0
-1.6688083,-1.1396741,-8.3592005,-0.19404747,-0.13252023,-0.972,0
-6.8806467,2.1297238,-4.6990409,-0.80007517,0.24764229,-0.54640007,0
4.2669859,-3.7793303,-6.4396815,0.49616113,-0.439457,-0.74880016,0
-8.0835285,2.1272449,-2.0227201,-0.93994516,0.24735405,-0.2352,0
7.2257695,0.9032203,4.5752001,0.84020573,0.10502561,0.53200001,0
-7.1870952,4.2277026,-2.1052799,-0.83570868,0.4915933,-0.24479999,0
8.1801147,2.5708933,-0.66048139,0.95117611,0.29894108,-0.07680016,0
7.246489,2.8985963,3.6119998,0.84261495,0.33704606,0.41999996,0
5.6912537,2.5294454,5.9305601,0.66177368,0.29412153,0.68959999,0
-8.2560005,0,-2.4080005,-0.96000004,0,-0.28000003,0
-4.3144951,0.66376787,7.4097605,-0.50168544,0.077182308,0.86160004,0
7.8932009,-1.1551026,-3.2129617,0.91781402,-0.13431425,-0.37360018,0
-6.775064,4.8695779,-2.0846403,-0.78779811,0.56622994,-0.24240002,0
-8.1801147,-2.5708935,-0.66047996,-0.95117611,-0.29894111,-0.076799989,0
-5.0594907,-6.2270656,-3.0959995,-0.58831286,-0.72407734,-0.35999992,0
4.2277026,-7.1870952,-2.1052799,0.4915933,-0.83570868,-0.24479999,0
-7.0306997,-2.0087714,-4.5270414,-0.81752318,-0.23357806,-0.52640015,0
0.6868977,0.6868977,8.54496,0.079871818,0.079871818,0.99359995,0
2.9759488,-6.8446803,4.27248,0.34604055,-0.79589301,0.49679998,0
-3.8689764,3.137008,-7.0107212,-0.44988096,0.36476836,-0.81520009,0
-3.4349329,7.1561098,3.3092802,-0.39941078,0.83210576,0.38479999,0
-5.2451148,-6.3493495,2.4768004,-0.60989702,-0.73829645,0.28800005,0
6.6048002,5.2838402,-1.5548809,0.76800001,0.61439997,-0.1808001,0
6.5160317,-1.5514367,5.3939209,0.75767809,-0.1803996,0.62720007,0
7.2851701,-2.6226614,3.7427201,0.84711277,-0.30496061,0.43520001,0
-8.2728624,-2.0682158,1.1145602,-0.96196073,-0.2404902,0.12960002,0
-4.7276578,-3.3591249,-6.3502393,-0.54972762,-0.39059591,-0.73839986,0
-6.0624008,-6.0624008,0.6742394,-0.70493031,-0.70493031,0.078399926,0
3.9016333,7.0229406,-3.0684805,0.45367828,0.81662095,-0.35680005,0
-8.418869,1.5307035,0.86000079,-0.97893822,0.17798878,0.10000009,0
-5.2759333,5.5690403,3.8872001,-0.61348057,0.6475628,0.45199999,0
1.876803,7.1659746,-4.3688016,0.2182329,0.83325285,-0.50800014,0
-0.60293335,-7.2351966,4.6096001,-0.070108525,-0.84130192,0.53600001,0
4.1111956,6.4349146,-3.9560015,0.47804597,0.74824584,-0.46000016,0
-2.6758051,0.32764962,-8.1665611,-0.31114012,0.038098793,-0.9496001,0
-3.319056,2.7808306,-7.4304008,-0.38593674,0.3233524,-0.86400008,0
-6.0041552,-4.2029085,4.4995208,-0.69815755,-0.48871028,0.52320009,0
-7.1499062,2.0853891,4.2999997,-0.83138442,0.2424871,0.49999994,0
-1.9658992,4.5870976,7.0038404,-0.22859292,0.53338343,0.81440002,0
8.5628786,-0.503699,0.61920124,0.99568349,-0.058569647,0.072000138,0
-8.0350866,3.0131576,0.56416029,-0.93431234,0.35036716,0.06560003,0
-3.6326337,6.0017428,-4.9742398,-0.42239925,0.69787705,-0.57839996,0
-0.13464417,6.1936374,-5.9649587,-0.015656298,0.72019035,-0.69359982,0
-8.3327084,2.0200503,0.66736096,-0.96891952,0.23488955,0.077600107,0
6.8060699,4.2537928,3.0891204,0.79140341,0.49462703,0.35920003,0
-4.6405072,-1.3114476,-7.120801,-0.53959382,-0.15249391,-0.82800007,0
1.5816524,6.0102777,5.9443202,0.18391307,0.69886947,0.69120002,0
-7.8942418,-3.3104885,0.82560003,-0.91793507,-0.38494051,0.096000001,0
-1.3691025,-1.0268271,8.4280005,-0.15919796,-0.1193985,0.98000002,0
-0.33949825,-2.7159889,8.1528006,-0.03947654,-0.31581265,0.94800001,0
4.0416589,-5.2852464,5.4489608,0.4699603,-0.61456352,0.63360006,0
-1.8192754,8.3166885,1.2177604,-0.21154363,0.96705675,0.14160004,0
4.8672299,5.1714315,4.850399,0.56595695,0.60132921,0.56399983,0
4.8237004,5.6850758,-4.2862382,0.56089538,0.66105527,-0.49839976,0
6.4460282,5.3716898,1.8851202,0.74953812,0.62461507,0.21920002,0
-0.64128131,-5.7715292,6.3433599,-0.074567594,-0.67110801,0.73759997,0
-4.8400936,-4.9962258,-5.0567999,-0.56280154,-0.58095646,-0.58799994,0
3.3359141,2.335139,7.5748801,0.38789698,0.2715278,0.88079995,0
0.45636782,-5.362319,-6.7080002,0.053066023,-0.62352544,-0.77999997,0
-0.65540844,-2.8599637,-8.0839996,-0.076210283,-0.33255389,-0.93999994,0
-7.1561098,3.4349329,3.3092802,-0.83210576,0.39941078,0.38479999,0
2.3837965,-0.34054232,-8.2560005,0.27718562,-0.039597943,-0.96000004,0
7.0672641,-4.7875013,-1.0457604,0.82177484,-0.55668616,-0.12160004,0
7.7894239,2.5037429,2.6488016,0.90574694,0.2911329,0.30800018,0
-4.1232271,7.4733496,1.0526392,-0.47944498,0.86899412,0.1223999,0
-7.8078156,-3.3833864,1.2452797,-0.90788549,-0.393417,0.14479995,0
-4.4195638,6.1873884,4.0179205,-0.51390272,0.71946377,0.46720004,0
7.525044,-0.35000223,-4.1486406,0.87500507,-0.040697932,-0.48240006,0
6.1060691,2.1300237,-5.6691203,0.71000803,0.24767716,-0.65920001,0
4.8952079,1.6317357,-6.8799992,0.56921017,0.18973669,-0.79999989,0
-4.8339043,-2.9003425,6.49472,-0.56208187,-0.3372491,0.75519997,0
8.5678797,-0.73438966,0.11007885,0.99626505,-0.085394144,0.012799866,0
0,8.0726147,-2.9652817,0,0.93867606,-0.34480017,0
0.33949825,-2.7159889,8.1528006,0.03947654,-0.31581265,0.94800001,0
-1.5349499,-6.753778,5.0980802,-0.17848253,-0.78532296,0.59280002,0
-4.3779941,5.8934541,-4.4788809,-0.50906903,0.68528533,-0.52080005,0
-2.0070744,3.3451245,7.66432,-0.23338073,0.38896793,0.89119995,0
-3.9177237,-7.6049933,-0.88063896,-0.45554924,-0.88430148,-0.10239987,0
-0.31812069,6.0442986,6.1094403,-0.036990777,0.70282537,0.71039999,0
-3.3697956,-0.33697927,7.9051204,-0.39183667,-0.039183635,0.9192,0
-3.9016333,7.0229406,-3.0684805,-0.45367828,0.81662095,-0.35680005,0
-0.29375237,7.6375685,3.9422405,-0.03415725,0.8880893,0.45840004,0
0.13464417,6.1936374,-5.9649587,0.015656298,0.72019035,-0.69359982,0
-2.0750132,8.3000526,-0.87376082,-0.24128059,0.96512234,-0.10160009,0
-3.5178473,7.5769014,2.0433612,-0.40905198,0.88103503,0.23760013,0
-5.3737998,-3.1610587,5.9236808,-0.62486041,-0.36756495,0.68880004,0
6.0041552,-4.2029085,4.4995208,0.69815755,-0.48871028,0.52320009,0
7.5851431,4.0296078,-0.43344009,0.88199335,0.46855903,-0.050400008,0
-2.4347329,2.6560724,-7.8088002,-0.28310847,0.30884561,-0.90799999,0
4.5413628,-2.9194479,6.6942406,0.52806544,-0.33947068,0.7784,0
-7.6748333,-2.2740252,3.1441607,-0.89242244,-0.26442152,0.36560008,0
-1.8966725,-8.1285973,2.0708797,-0.22054331,-0.94518566,0.24079995,0
1.2438926,-6.5304327,5.4558401,0.14463866,-0.75935262,0.63440001,0
1.566466,-8.3544846,1.3072003,0.1821472,-0.97145164,0.15200002,0
2.6772323,4.1188188,-7.0588784,0.31130606,0.47893238,-0.82079977,0
3.9479451,-5.0759301,-5.7103996,0.45906335,-0.59022439,-0.66399992,0
1.6317357,4.8952079,-6.8799992,0.18973669,0.56921017,-0.79999989,0
0.53910357,8.3561134,1.9608001,0.062686458,0.97164106,0.228,0
-4.1091514,-6.4572387,3.9216006,-0.47780827,-0.75084168,0.45600006,0
-7.0662088,-4.7108064,1.3553606,-0.82165217,-0.54776818,0.15760006,0
-0.62377018,-6.5495834,5.5384002,-0.07253141,-0.76157945,0.64399999,0
3.5577657,-4.2046313,6.6048002,0.41369367,-0.48891059,0.76800001,0
-0.68689871,-0.68689871,8.54496,-0.079871938,-0.079871938,0.99359995,0
2.0486696,0.34144461,8.3454399,0.23821738,0.039702859,0.97039998,0
-1.669021,3.6718457,7.59552,-0.1940722,0.42695877,0.88319999,0
4.7875013,7.0672646,-1.0457596,0.55668616,0.8217749,-0.12159994,0
5.9582548,4.4686909,4.3000011,0.69282031,0.51961517,0.50000012,0
-6.9966421,-1.2168071,4.8504004,-0.81356299,-0.14148919,0.56400001,0
2.8522973,-4.5636754,-6.7080007,0.33166248,-0.53065991,-0.78000003,0
-8.2504482,2.4266031,-0.041280497,-0.9593544,0.28216314,-0.0048000575,0
-3.3977027,4.3349996,-6.6048012,-0.3950817,0.50406969,-0.76800013,0
7.0234327,0.30536634,4.9535995,0.81667817,0.035507713,0.57599992,0
3.33164,-6.3604031,4.7334399,0.38739997,-0.7395817,0.55039996,0
1.3538058,2.7076097,8.0496006,0.15741926,0.31483832,0.93600005,0
-2.7165465,0,8.1596804,-0.3158775,0,0.94880003,0
-6.0102777,1.5816524,5.9443202,-0.69886947,0.18391307,0.69120002,0
5.9018822,5.6983676,-2.5799999,0.68626535,0.66260087,-0.29999998,0
-1.0921661,-7.6451631,-3.7840011,-0.12699606,-0.8889724,-0.44000012,0
-6.0784717,4.9206676,3.5775995,-0.70679897,0.57217062,0.41599992,0
6.9373407,2.1113641,4.6233597,0.80666751,0.24550745,0.53759992,0
-5.1039128,-3.7244766,-5.83424,-0.5934782,-0.43307865,-0.67839998,0
-4.5219135,-3.2299383,6.5635204,-0.52580386,-0.3755742,0.76320004,0
-5.4884033,0.96854091,6.5497608,-0.6381864,0.11262103,0.76160008,0
0.52297002,-7.4959111,-4.1830406,0.060810465,-0.87161756,-0.48640004,0
-3.3528972,1.6764491,7.7400002,-0.38987175,0.19493593,0.89999998,0
-7.6535172,3.8267579,0.86000001,-0.88994384,0.44497183,0.099999994,0
2.5503182,-5.4194269,6.171361,0.2965486,-0.63016587,0.71760011,0
-0.91893709,-8.5001698,-0.92880023,-0.10685314,-0.98839182,-0.10800002,0
7.6630287,-1.6821282,-3.5225618,0.8910498,-0.19559629,-0.4096002,0
-6.1392198,4.3851571,-4.1279998,-0.71386272,0.50990194,-0.47999996,0
-0.59534758,2.3813903,-8.2422419,-0.069226459,0.27690583,-0.95840019,0
-4.2358127,-7.3569374,-1.3759992,-0.49253634,-0.85545778,-0.15999991,0
-5.8366899,-6.101994,1.6305604,-0.67868483,-0.70953417,0.18960004,0
7.6748338,2.2740245,3.144161,0.8924225,0.26442143,0.36560011,0
5.3979297,2.8577263,6.0544,0.62766623,0.33229375,0.70399994,0
2.0453398,1.0226688,8.2904005,0.23783021,0.11891498,0.96399999,0
-8.4468021,-0.52792543,1.5273603,-0.98218626,-0.061386675,0.17760003,0
1.9459586,7.7838321,-3.0959992,0.22627425,0.90509671,-0.3599999,0
-6.6867447,3.7951791,-3.8527999,-0.77752841,0.44129989,-0.44799995,0
-3.3591249,-4.7276578,-6.3502393,-0.39059591,-0.54972762,-0.73839986,0
7.5979004,3.7989509,-1.3415992,0.88347673,0.44173846,-0.1559999,0
1.029933,0.34331101,8.5312004,0.11975964,0.039919883,0.99199998,0
-1.5123487,7.7507863,-3.4056017,-0.17585449,0.90125418,-0.39600018,0
3.3666975,-6.1212668,5.0155201,0.39147645,-0.71177518,0.58319998,0
0.99992138,-3.9996893,7.5473604,0.11626992,-0.46508014,0.87760001,0
8.4595137,-0.6678564,-1.3966398,0.98366433,-0.077657714,-0.16239998,0
-3.0296543,1.6831416,7.8707204,-0.35228536,0.19571413,0.9152,0
-8.0406513,1.8555346,-2.4217591,-0.93495941,0.21575983,-0.28159988,0
-5.6224799,5.0306406,4.1279998,-0.65377671,0.5849582,0.47999996,0
4.7963028,6.9279928,1.7200003,0.55770957,0.8055805,0.20000002,0
6.1093006,-2.4728117,-5.524641,0.71038377,-0.28753623,-0.64240009,0
-0.9685418,5.4884038,6.5497599,-0.11262114,0.63818645,0.76159996,0
-1.2806787,8.4524775,0.93568075,-0.14891613,0.9828462,0.10880008,0
-4.4195638,-6.1873889,4.01792,-0.51390272,-0.71946377,0.46719998,0
7.4405866,-2.4181907,-3.5707188,0.86518443,-0.28118494,-0.41519985,0
1.3713144,0.34282809,8.4830399,0.15945515,0.039863732,0.98639995,0
-1.5847166,-7.3953438,-4.0936012,-0.18426935,-0.85992366,-0.47600013,0
-7.6867647,3.5139501,-1.5892804,-0.8938098,0.40859884,-0.18480003,0
-4.3851566,6.1392193,-4.1280012,-0.50990194,0.71386266,-0.48000011,0
-0.85400718,8.3265715,-1.9745593,-0.099303156,0.96820593,-0.22959991,0
4.514926,-5.7189069,4.5683208,0.52499139,-0.66498911,0.53120005,0
-0.98251611,4.9125795,6.9900808,-0.11424606,0.57123017,0.81280005,0
-0.49055922,8.5847816,0.14447883,-0.057041768,0.9982304,0.016799863,0
-2.272213,-4.8690286,6.7148805,-0.26421079,-0.5661661,0.78080004,0
4.8672304,-5.1714311,4.8504,0.56595701,-0.60132915,0.56399995,0
5.0564213,-6.8951192,-0.92192137,0.58795595,-0.80175799,-0.10720015,0
-4.5870976,-1.9658992,7.0038404,-0.53338343,-0.22859292,0.81440002,0
5.8959641,5.5028992,-2.9859195,0.68557721,0.63987195,-0.34719992,0
0.46193406,8.5457888,-0.84624022,0.053713262,0.99369633,-0.098400019,0
-3.319056,-2.7808306,-7.4304008,-0.38593674,-0.3233524,-0.86400008,0
-4.2223816,1.5951222,-7.3203201,-0.49097458,0.18547931,-0.85119998,0
-6.4868412,-0.86491221,-5.5796795,-0.75428385,-0.10057119,-0.6487999,0
6.4983883,-1.8566827,5.3182406,0.7556265,-0.21589333,0.61840004,0
2.3956831,-3.9289203,-7.2652802,0.27856779,-0.45685118,-0.8448,0
0.89158988,-7.4299226,4.2380805,0.10367323,-0.86394447,0.49280003,0
0.36921984,-4.4306355,-7.3615999,0.042932536,-0.51519012,-0.85599995,0
0.59534758,2.3813903,-8.2422419,0.069226459,0.27690583,-0.95840019,0
-3.8438394,-6.5049591,4.1073604,-0.44695807,-0.75639057,0.47760001,0
8.0814762,2.9387188,0.11696068,0.9397065,0.34171146,0.013600078,0
0,-8.2560005,-2.4080005,0,-0.96000004,-0.28000003,0
-7.8078156,3.3833864,1.2452797,-0.90788549,0.393417,0.14479995,0
