3.4348423,-5.8242974,-5.632,0.39032298,-0.66185194,-0.63999999,0
3.0369914,8.0066128,2.027519,0.34511265,0.90984231,0.23039988,0
-5.1900034,-3.5681279,6.1459198,-0.58977312,-0.40546906,0.69839996,0
4.7895188,4.7895188,-5.6179194,0.54426348,0.54426348,-0.6383999,0
0.65777808,8.5511227,-1.9711992,0.07474751,0.97171849,-0.2239999,0
8.2715178,-2.1767151,-2.0697596,0.93994516,-0.24735399,-0.23519994,0
-3.437366,-1.3749461,7.9833603,-0.39060977,-0.15624388,0.90720004,0
2.1023564,-6.4572382,-5.5968003,0.23890413,-0.73377705,-0.63600004,0
-7.5207829,-2.105819,4.0550404,-0.8546344,-0.23929761,0.46080002,0
3.3413234,2.637887,-7.7017603,0.37969583,0.29975989,-0.87520003,0
-6.226099,-5.66009,2.5766404,-0.70751125,-0.64319205,0.29280004,0
3.1957495,7.5535884,3.1891203,0.36315334,0.85836232,0.36240003,0
8.6285477,-0.8089264,1.5276804,0.98051673,-0.091923453,0.17360005,0
4.0471125,-7.6445456,-1.6192003,0.45989913,-0.86869836,-0.18400003,0
-5.7827935,6.3335361,1.9711992,-0.65713561,0.71972001,0.2239999,0
1.2593533,6.9264445,-5.2799997,0.14310832,0.78709596,-0.59999996,0
8.7267017,0,1.1334409,0.99167061,0,0.12880009,0
6.0016475,2.5721347,-5.8995214,0.68200541,0.29228804,-0.67040014,0
-0.69649804,2.4377415,8.4268799,-0.079147503,0.27701607,0.95759994,0
6.343329,-6.0895963,0.34495968,0.72083282,-0.69199955,0.039199963,0
0.6663866,-5.3310976,6.9696002,0.075725749,-0.60580653,0.792,0
-3.6968989,-3.3608165,7.2441602,-0.42010215,-0.38191095,0.82319999,0
4.9852071,-0.84854597,-7.2019224,0.56650078,-0.096425675,-0.81840026,0
5.3964872,0.57409447,-6.927362,0.6132372,0.065238006,-0.78720021,0
8.0007181,3.6366897,-0.45055872,0.90917248,0.41326019,-0.051199853,0
0.84854627,-4.9852104,-7.20192,0.096425712,-0.5665012,-0.81839997,0
-3.1859405,7.5666084,-3.1679997,-0.36203867,0.85984182,-0.35999995,0
7.7700648,-2.8778019,2.963841,0.88296187,-0.32702294,0.3368001,0
-5.8519044,-4.619925,4.6745601,-0.66498911,-0.52499145,0.53119999,0
-4.0216765,-6.1871948,4.7942405,-0.45700869,-0.70309031,0.54480004,0
3.1684217,3.3604476,-7.4905605,0.36004791,0.38186905,-0.85120004,0
4.3024135,-3.6405044,6.7584,0.48891062,-0.41369367,0.76800001,0
-0.46029997,-4.4188786,-7.5961595,-0.052306812,-0.50214529,-0.86319995,0
-3.2431412,-7.0268054,-4.1887994,-0.36853877,-0.7985006,-0.47599992,0
-4.9282517,4.62957,-5.6319995,-0.56002861,0.52608746,-0.63999993,0
1.31932,5.6071076,6.6527996,0.14992271,0.63717133,0.75599992,0
-2.7579195,7.682776,-3.287679,-0.31339994,0.8730427,-0.37359989,0
7.0385919,5.278944,0.17600177,0.79983997,0.59987998,0.020000201,0
1.6804088,-4.705143,7.2441602,0.19095555,-0.5346753,0.82319999,0
3.3114209,5.1658163,-6.3078394,0.37629783,0.58702457,-0.71679991,0
7.8087535,0.60067278,4.0128007,0.88735831,0.068258271,0.45600006,0
-2.9161074,-8.2181196,1.1827197,-0.33137584,-0.93387723,0.13439997,0
-6.3569293,5.9028625,-1.4783998,-0.72237831,0.67077982,-0.16799997,0
-0.3484619,2.4392354,8.448,-0.039597943,0.27718583,0.95999998,0
4.6072922,7.3174624,1.6332804,0.52355593,0.8315298,0.18560004,0
7.913662,3.6930416,1.0841599,0.89927977,0.41966382,0.12319998,0
-5.8960705,4.3444724,4.8787203,-0.670008,0.49369004,0.55440003,0
-1.3408386,8.5813646,1.4150403,-0.15236801,0.97515506,0.16080002,0
5.5046682,-5.1988525,4.4844804,0.62553048,-0.59077871,0.50960004,0
-7.9629679,-1.1796988,3.5552008,-0.90488267,-0.13405669,0.40400007,0
5.4067197,5.0688,-4.7449603,0.61439997,0.57599998,-0.53920001,0
-8.3332253,2.4193227,1.4643203,-0.94695741,0.27492303,0.16640003,0
8.7620144,0.51541221,0.63360131,0.99568343,0.058569569,0.072000146,0
-6.157196,-5.1951337,-3.5411191,-0.69968134,-0.59035611,-0.4023999,0
-0.50290304,0.78229374,-8.75072,-0.057148073,0.088897012,-0.99439996,0
0.30475935,-7.6189914,4.3929601,0.034631744,-0.86579448,0.49919999,0
-0.33784634,4.7298527,7.4131203,-0.038391627,0.53748327,0.84240001,0
-7.3584943,3.8836496,-2.8652806,-0.83619249,0.44132382,-0.32560006,0
-3.105933,-1.3804144,8.1171198,-0.35294691,-0.15686527,0.92239994,0
6.7299228,4.4225206,-3.548162,0.76476395,0.50255913,-0.40320021,0
2.1371927,-3.740087,-7.6736016,0.24286281,-0.42500988,-0.87200016,0
-1.0404682,-2.7745824,8.2860804,-0.11823502,-0.31529343,0.94160002,0
-2.5155571,6.6033359,5.2448006,-0.28585875,0.75037909,0.59600008,0
8.6562462,-0.68338794,-1.4291198,0.98366433,-0.077657722,-0.16239998,0
-0.29154414,-8.1632433,3.2736001,-0.033130016,-0.92764127,0.37200001,0
5.8391185,-5.8391185,-3.0412817,0.66353619,-0.66353619,-0.34560019,0
-5.4081588,4.1356511,5.5756807,-0.61456347,0.46996033,0.63360006,0
-7.6128902,0.60903066,4.37184,-0.86510116,0.069208026,0.49679998,0
8.7903872,-0.24417716,-0.33088073,0.99890763,-0.027747404,-0.037600081,0
-2.0235562,-4.3843718,7.3568001,-0.22994956,-0.49822405,0.83599997,0
7.3802848,-1.2300471,4.6323199,0.8386687,-0.13977808,0.52639997,0
1.632218,4.3205767,-7.4905596,0.18547931,0.49097461,-0.85119992,0
-4.0970626,0.68284309,7.75808,-0.46557528,0.077595808,0.88159996,0
1.9768242,5.4362655,-6.6316805,0.2246391,0.61775744,-0.75360006,0
-4.7267714,0.67525244,7.3920007,-0.5371331,0.076733232,0.84000003,0
6.1864266,4.7307968,-4.0972786,0.70300299,0.53759056,-0.46559983,0
0.24417716,8.7903872,-0.33088073,0.027747404,0.99890763,-0.037600081,0
0,-6.4522662,5.9840007,0,-0.73321205,0.68000007,0
2.2517323,8.506546,0.091521591,0.25587866,0.96665293,0.010400181,0
3.9226124,2.993573,-7.2864008,0.4457514,0.34017873,-0.82800007,0
2.687907,2.6111093,-7.9622402,0.30544397,0.29671696,-0.9048,0
3.2431412,-7.0268054,-4.1887994,0.36853877,-0.7985006,-0.47599992,0
-4.9959202,-7.2440853,0.063359462,-0.56771821,-0.82319152,0.0071999389,0
-8.5636034,-2.014966,0.21119969,-0.97313672,-0.2289734,0.023999963,0
-0.0040416582,-0.0011788168,-8.7999992,-0.00045927934,-0.00013395645,-0.99999988,0
-2.2727644,5.8442521,6.1740799,-0.25826868,0.66411954,0.70159996,0
-1.219365,-2.7435713,-8.2719994,-0.1385642,-0.31176946,-0.93999988,0
-4.1233191,-7.7615418,-0.44351938,-0.468559,-0.88199335,-0.050399929,0
2.2317908,6.3765459,5.6390405,0.25361258,0.72460747,0.64080006,0
-0.7556119,-7.9339266,-3.7312009,-0.085864983,-0.90158254,-0.42400008,0
2.096313,-0.34938517,8.5395203,0.23821738,-0.039702859,0.97040004,0
6.9607058,2.9583006,-4.498559,0.79098928,0.33617052,-0.51119989,0
-4.0088334,7.7818532,-0.90111893,-0.45554924,0.88430148,-0.10239988,0
0.31246787,7.1867685,5.0687995,0.035507713,0.81667823,0.57599992,0
1.8615841,8.5100994,1.2460804,0.21154363,0.96705675,0.14160004,0
0.78797692,-6.0411563,-6.3500805,0.089542829,-0.68649501,-0.72160006,0
-3.7231884,-7.4463768,2.8512006,-0.42308959,-0.84617919,0.32400006,0
2.9264691,-0.67064923,-8.2720013,0.3325533,-0.076210141,-0.94000012,0
1.7828028,6.9691372,-5.0688009,0.20259123,0.79194736,-0.57600009,0
3.0845315,-2.3990805,7.8848004,0.35051495,-0.27262279,0.89600003,0
-8.6615696,1.4435949,-0.57728076,-0.98426926,0.16404487,-0.065600082,0
-7.2355657,4.6044507,-1.9711987,-0.82222337,0.523233,-0.22399984,0
1.7828028,-6.9691372,-5.0688009,0.20259123,-0.79194736,-0.57600009,0
-4.0865974,-1.3621988,7.6736002,-0.46438608,-0.15479532,0.87199998,0
-2.3990805,-3.0845327,7.8848004,-0.27262279,-0.35051507,0.89600003,0
-8.4241772,1.9022334,1.6896,-0.95729285,0.21616288,0.192,0
-5.2134042,7.0380955,0.85184109,-0.59243226,0.79978359,0.096800119,0
-8.714323,-0.52814108,1.1052808,-0.99026394,-0.060016032,0.12560008,0
-3.7644131,1.368878,7.8355198,-0.42777422,0.15555431,0.89039993,0
6.6562381,-3.9332309,4.2028794,0.75639069,-0.44695804,0.47759992,0
-0.99918383,8.7428608,0.063358873,-0.11354361,0.99350691,0.0071998718,0
8.5100994,1.8615841,1.2460804,0.96705675,0.21154363,0.14160004,0
-4.8988385,7.2316189,-1.0700804,-0.55668616,0.82177484,-0.12160004,0
-3.1789322,6.0399714,5.5545602,-0.36124229,0.68636036,0.63120002,0
4.3039694,7.5319443,1.4784006,0.48908743,0.85590273,0.16800006,0
6.5545545,-4.4690142,3.808639,0.74483573,-0.50784248,0.43279988,0
-8.5169544,1.0989624,1.9219198,-0.96783572,0.12488209,0.21839997,0
2.7579195,-7.682776,-3.287679,0.31339994,-0.8730427,-0.37359989,0
-3.3874764,8.0778284,0.8448,-0.38494051,0.91793501,0.096000001,0
2.7871192,-6.8129601,4.8224006,0.31671807,-0.77420002,0.54800004,0
1.6881049,1.505607,-8.5043192,0.1918301,0.17109171,-0.96639991,0
-7.7818532,-4.0088334,-0.90111893,-0.88430148,-0.45554924,-0.10239988,0
-2.439733,0,8.45504,-0.27724239,0,0.96079999,0
8.4917517,-1.3696377,1.8585598,0.96497178,-0.15564065,0.21119998,0
-1.5875165,6.6675673,5.5193605,-0.1803996,0.75767809,0.62720007,0
4.4148321,0.67920434,7.5820804,0.50168544,0.077182308,0.86160004,0
-6.4137449,1.6034367,5.8080006,-0.72883463,0.18220872,0.66000003,0
7.1867685,-0.31246787,5.0687995,0.81667823,-0.035507713,0.57599992,0
-8.1420879,1.6284173,-2.9145603,-0.92523724,0.18504742,-0.33120003,0
6.8070211,-5.4979792,0.93632013,0.77352512,-0.62477034,0.10640001,0
4.6270742,-3.305053,6.7161603,0.52580386,-0.3755742,0.76320004,0
-0.68977672,-3.3109283,-8.1241598,-0.078383714,-0.37624186,-0.92319995,0
-8.3130989,0.28665829,2.8723192,-0.94467032,0.032574806,0.32639989,0
0.43964747,8.5731335,-1.9359992,0.049959939,0.97421968,-0.21999989,0
-5.1367893,-1.9846684,-6.8639998,-0.58372605,-0.22553049,-0.77999997,0
-5.3346667,0.33341634,6.9907203,-0.60621214,0.037888221,0.79440004,0
2.4392354,-0.3484619,8.448,0.27718583,-0.039597943,0.95999998,0
-4.314147,-1.0096942,-7.6032004,-0.49024397,-0.11473798,-0.86400002,0
-1.8877176,7.7396431,-3.7382414,-0.21451336,0.87950486,-0.42480016,0
-8.6520424,0.27037609,1.5840003,-0.9831866,0.030724555,0.18000004,0
-5.5972385,4.6643648,4.9350405,-0.63604981,0.53004146,0.56080002,0
-4.6647105,6.7055221,3.2735996,-0.53008074,0.76199114,0.37199995,0
3.1437368,-7.2121015,-3.9423997,0.35724282,-0.81955695,-0.44799995,0
0.94030839,-8.6978483,-0.95040041,0.10685322,-0.98839182,-0.10800005,0
1.9846684,-5.1367884,-6.8640003,0.22553049,-0.58372593,-0.78000003,0
7.8087535,-0.60067368,4.0128002,0.88735831,-0.068258367,0.456,0
0.0030745934,0.0023059451,-8.7999992,0.00034938561,0.00026203922,-0.99999988,0
-3.4424088,-1.0327227,8.0326405,-0.39118281,-0.11735485,0.91280001,0
5.4240007,-3.1188004,-6.1881585,0.6163637,-0.35440913,-0.7031998,0
-2.8625884,6.177165,-5.5756817,-0.32529414,0.70195055,-0.63360018,0
6.8218117,4.1524062,3.6959999,0.77520585,0.47186434,0.41999999,0
-7.8412395,1.7212472,-3.6044796,-0.89104992,0.19559626,-0.40959993,0
6.1085749,-3.445863,-5.3151994,0.69415623,-0.39157534,-0.60399991,0
-7.9680367,3.7350166,0.0070408261,-0.90545869,0.42443371,0.00080009387,0
3.5691056,3.9037097,-7.0329609,0.40558016,0.44360337,-0.79920006,0
-6.3811421,-4.2540941,4.3155203,-0.72512978,-0.48341978,0.49040002,0
0.3516475,-0.70329607,8.7648001,0.039959941,-0.079920009,0.99599999,0
7.297462,0.49755377,-4.8927999,0.82925701,0.056540199,-0.55599999,0
4.2341251,6.3511877,-4.378881,0.48115057,0.72172588,-0.49760011,0
7.3563929,0,-4.8294401,0.83595371,0,-0.54879999,0
6.7584,-5.0688004,-2.464,0.76800001,-0.57600003,-0.28,0
-5.8442521,-2.2727644,6.1740799,-0.66411954,-0.25826868,0.70159996,0
-1.5435734,0.89742637,-8.6169605,-0.17540607,0.10198027,-0.97920007,0
3.1483843,6.2967687,-5.2799983,0.35777095,0.7155419,-0.59999979,0
1.6669202,4.6882119,-7.2582402,0.18942274,0.53275132,-0.82480001,0
1.400943,-1.0507067,8.6239996,0.15919808,-0.11939849,0.97999996,0
1.7861079,-7.7398005,3.7875204,0.20296681,-0.87952274,0.43040004,0
4.8747864,-3.8998299,6.2022405,0.55395299,-0.44316247,0.70480001,0
-8.37257,-0.83725679,-2.5766404,-0.95142841,-0.095142812,-0.29280004,0
-3.9728186,-6.3910565,-4.5619202,-0.45145664,-0.72625643,-0.51840001,0
4.1294513,-7.7427201,0.6617589,0.46925581,-0.87985456,0.075199872,0
2.0530982,-8.4405174,-1.408,0.2333066,-0.95914966,-0.16,0
-7.9629679,-1.1796988,3.5552008,-0.90488267,-0.13405669,0.40400007,0
-5.1771531,6.371881,-3.1679995,-0.58831286,0.72407734,-0.35999992,0
-0.26435152,8.723608,1.1264008,-0.030039944,0.99131906,0.1280001,0
2.2093713,6.6281137,5.3504009,0.25106493,0.75319475,0.6080001,0
5.9688578,6.4662619,-0.014079973,0.67827928,0.73480248,-0.0015999969,0
5.1988535,-5.5046682,4.4844794,0.59077877,-0.62553048,0.50959992,0
-5.8001232,2.9000607,5.9488001,-0.65910488,0.32955235,0.676,0
0,5.6443877,-6.7513618,0,0.64140767,-0.76720017,0
0,3.4488823,8.0959997,0,0.39191845,0.91999996,0
1.8472475,-0.86204892,-8.5606394,0.20991448,-0.0979601,-0.9727999,0
-7.4545922,-2.6836534,3.8297601,-0.84711272,-0.30496061,0.43520001,0
3.9732554,3.9732554,6.77248,0.45150629,0.45150629,0.76959997,0
1.486824,8.6731405,-0.077441193,0.16895728,0.98558414,-0.008800135,0
-2.014966,8.5636034,0.21120112,-0.2289734,0.97313672,0.024000127,0
-1.7212474,7.8412385,-3.6044817,-0.19559629,0.8910498,-0.4096002,0
-8.5745783,-1.959904,-0.27455986,-0.97438389,-0.22271635,-0.031199982,0
-6.9005222,-4.6003475,2.9427199,-0.78415024,-0.52276677,0.3344,0
-5.0688004,6.7584,-2.464,-0.57600003,0.76800001,-0.28,0
-3.0845327,2.3990805,7.8848004,-0.35051507,0.27262279,0.89600003,0
3.0845315,-2.3990805,7.8848004,0.35051495,-0.27262279,0.89600003,0
6.1631289,1.2975016,6.1459203,0.70035553,0.14744335,0.69840002,0
1.3852881,2.770576,-8.2368011,0.1574191,0.31483817,-0.93600011,0
-2.3228161,-7.7427197,-3.4777606,-0.26395637,-0.8798545,-0.39520004,0
8.5202122,-0.87386781,-2.0204792,0.96820593,-0.099303156,-0.22959991,0
-1.0538859,-0.35129496,8.7296,-0.11975976,-0.039919883,0.99199998,0
0.65777808,8.5511227,-1.9711992,0.07474751,0.97171849,-0.2239999,0
-1.9846684,5.1367893,-6.8639998,-0.22553049,0.58372605,-0.77999997,0
-2.095036,-0.69834566,8.5184002,-0.23807228,-0.07935746,0.96799999,0
1.8472509,0.86205035,-8.5606384,0.20991488,0.097960263,-0.97279978,0
5.9261918,-5.1854177,-3.9283197,0.67343086,-0.589252,-0.44639996,0
1.0368168,-3.1104536,8.1664,0.11782009,-0.35346064,0.92799997,0
8.7226934,-1.0261991,0.54912132,0.99121517,-0.11661353,0.062400147,0
0.34938517,-2.096313,8.5395203,0.039702859,-0.23821738,0.97040004,0
-2.4882994,6.842823,4.9420791,-0.28276128,0.77759349,0.56159991,0
-8.5169544,-1.0989616,1.9219199,-0.96783572,-0.124882,0.21839999,0
-1.7212478,-7.8412395,-3.60448,-0.19559634,-0.89104992,-0.40959999,0
1.9190168,-6.3967223,5.7305603,0.21807009,-0.72690022,0.6512,0
1.7423116,1.7423116,8.448,0.19798996,0.19798996,0.95999998,0
-2.5902507,-5.7258182,-6.1600013,-0.29434666,-0.65066111,-0.70000011,0
-1.6696831,5.009047,7.0400004,-0.18973671,0.56920987,0.80000001,0
1.2855287,-6.4276395,5.8713603,0.1460828,-0.73041356,0.66720003,0
-6.2271175,3.7362709,4.9702406,-0.707627,0.42457622,0.56480008,0
-3.2509866,-4.4120531,-6.8851199,-0.36943027,-0.50136966,-0.78239995,0
-4.1524062,-6.8218107,3.6960008,-0.47186434,-0.77520573,0.42000008,0
2.329622,-4.2540922,-7.3427219,0.26472977,-0.48341957,-0.83440018,0
4.4242349,5.3722863,5.3856001,0.50275397,0.61048704,0.61199999,0
3.867223,-4.3662195,-6.5894399,0.43945715,-0.49616131,-0.74879998,0
-5.3310976,0.6663866,6.9696002,-0.60580653,0.075725749,0.792,0
3.2432482,7.3710179,3.5481598,0.36855093,0.83761567,0.40319997,0
3.4449928,6.2636218,5.1321602,0.39147645,0.71177518,0.58320004,0
2.5882697,5.8236084,6.06848,0.29412156,0.66177368,0.68959999,0
-7.4545922,-2.6836534,3.8297601,-0.84711272,-0.30496061,0.43520001,0
5.9716592,-6.192832,-1.8515193,0.67859763,-0.70373088,-0.21039993,0
7.8686924,-3.9343462,-0.2111996,0.89416957,-0.44708478,-0.023999954,0
-1.2141498,7.5884376,4.2873602,-0.13797157,0.86232245,0.48720002,0
-0.64148951,-1.5530798,-8.6380806,-0.072896533,-0.17648634,-0.98160005,0
-1.0436786,2.4352496,8.3916807,-0.11859984,0.27673289,0.95360005,0
-7.8452268,2.8903465,-2.7455995,-0.89150304,0.32844847,-0.31199995,0
-7.7635722,-1.492995,3.8649604,-0.88222408,-0.16965853,0.43920004,0
1.5681806,-2.1630075,-8.3846416,0.17820233,-0.24579631,-0.95280015,0
-2.3228161,-7.7427197,-3.4777606,-0.26395637,-0.8798545,-0.39520004,0
-8.7794189,-0.48774576,-0.35200077,-0.99766123,-0.055425655,-0.040000089,0
1.2743769,3.6638329,-7.8988795,0.14481555,0.41634464,-0.89759994,0
5.6118026,2.8743374,-6.1388812,0.63770485,0.32662925,-0.69760013,0
-6.7186947,-5.5602989,-1.1756812,-0.76348799,-0.63185215,-0.13360013,0
-6.1348062,1.3632905,-6.1599998,-0.69713706,0.15491937,-0.69999999,0
-3.3041158,-7.9298782,-1.9078408,-0.37546769,-0.90112251,-0.21680009,0
-6.4780235,-2.4678185,-5.4208012,-0.736139,-0.28043392,-0.61600012,0
-6.8190784,5.5562873,0.26047984,-0.77489525,0.63139629,0.029599981,0
-7.2475767,-4.7562222,-1.5136,-0.82358825,-0.54047978,-0.17199999,0
-6.9607053,2.9582999,-4.4985609,-0.79098922,0.33617043,-0.51120007,0
7.4034567,-0.61695504,4.7167997,0.84130186,-0.070108525,0.53599995,0
-6.2967672,-3.1483836,5.2800007,-0.71554172,-0.35777086,0.60000008,0
5.2518039,1.2558663,-6.9484792,0.59679586,0.14271207,-0.7895999,0
-3.9078276,7.5985541,-2.1049614,-0.44407132,0.86347204,-0.23920016,0
-5.3722854,4.4242349,5.3856006,-0.61048698,0.50275397,0.61200005,0
-8.1274662,1.1610671,3.168,-0.9235757,0.13193944,0.35999998,0
5.4240007,-3.1188004,-6.1881585,0.6163637,-0.35440913,-0.7031998,0
-6.5845637,4.2068048,-4.0480013,-0.74824584,0.47804597,-0.46000013,0
-2.0459406,7.6257787,-3.8860819,-0.23249325,0.86656576,-0.4416002,0
8.078927,2.5512402,-2.3795199,0.91805989,0.28991365,-0.27039999,0
3.1291826,8.0464706,-1.7036805,0.35558891,0.91437167,-0.19360006,0
3.5681279,-5.1900034,6.1459198,0.40546906,-0.58977312,0.69839996,0
5.2783108,6.1580281,3.4144006,0.59980804,0.69977593,0.38800007,0
1.0404673,-2.7745824,8.2860804,0.11823491,-0.31529343,0.94160002,0
4.6044507,7.2355657,-1.9711987,0.523233,0.82222337,-0.22399984,0
7.7615418,4.1233196,-0.4435201,0.88199335,0.46855903,-0.050400011,0
3.1564043,1.1664973,-8.1311989,0.3586823,0.13255651,-0.92399985,0
-8.2219486,-3.083231,0.57728028,-0.93431234,-0.35036716,0.06560003,0
-5.2156091,-3.2597556,6.2937603,-0.59268284,-0.37042677,0.71520001,0
-1.492995,7.7635722,3.8649604,-0.16965853,0.88222408,0.43920004,0
3.1437368,-7.2121015,-3.9423997,0.35724282,-0.81955695,-0.44799995,0
-0.35185885,0.35185885,8.7859201,-0.039983958,0.039983958,0.99839997,0
-0.33319312,-2.0408077,-8.5536013,-0.037862856,-0.23190996,-0.97200012,0
-3.8824072,0.64706773,-7.8707194,-0.44118261,0.073530421,-0.89439994,0
-3.6181977,4.6049776,6.5683203,-0.41115883,0.5232929,0.7464,0
-1.0475179,-7.5072117,-4.4704003,-0.11903612,-0.85309219,-0.50800002,0
-5.3722854,-4.4242349,5.3856006,-0.61048698,-0.50275397,0.61200005,0
-4.6185832,7.3897338,-1.2249594,-0.52483898,0.83974248,-0.13919993,0
-2.6880817,-0.85789847,-8.3353605,-0.30546382,-0.097488463,-0.94720006,0
-4.4670668,6.5144725,-3.8790417,-0.50762123,0.74028093,-0.44080019,0
-6.8422503,3.8834388,-3.9423997,-0.77752841,0.44129986,-0.44799995,0
3.2235515,8.0588789,1.4502394,0.36631265,0.91578168,0.16479993,0
8.6988249,-0.79080236,1.0700808,0.9885028,-0.089863904,0.12160008,0
0.58257812,8.1561003,3.2524812,0.066202059,0.92682958,0.36960012,0
-4.6270742,-3.305053,6.7161603,-0.52580386,-0.3755742,0.76320004,0
5.9918628,-5.0930834,3.9494407,0.68089348,-0.57875949,0.44880006,0
-6.1732812,0.97472769,6.1952004,-0.70150924,0.11076451,0.70400006,0
-4.5788312,-5.3682842,-5.2588811,-0.52032173,-0.61003226,-0.5976001,0
8.5863132,0.22016166,-1.9148792,0.97571737,0.02501837,-0.2175999,0
4.2743855,-0.53429818,-7.6736016,0.48572561,-0.060715701,-0.87200016,0
8.7600317,0,-0.83776027,0.99545813,0,-0.095200032,0
-8.0007181,3.6366897,-0.45055872,-0.90917248,0.41326019,-0.051199853,0
-4.5726147,-6.0968184,4.4000001,-0.51961529,-0.69282025,0.5,0
-4.7298527,-0.33784634,7.4131203,-0.53748327,-0.038391627,0.84240001,0
-6.2967677,3.1483836,-5.2800002,-0.71554178,0.35777086,-0.60000002,0
1.6299237,6.5196939,-5.6812801,0.1852186,0.74087429,-0.64560002,0
-7.9680367,3.7350166,0.0070408261,-0.90545869,0.42443371,0.00080009387,0
-5.1771531,-6.371881,-3.1679995,-0.58831286,-0.72407734,-0.35999992,0
6.5434856,3.1159465,4.9913602,0.7435779,0.35408482,0.56720001,0
-8.1420879,-1.6284178,-2.9145606,-0.92523724,-0.18504748,-0.33120006,0
0.60067278,7.8087535,4.0128007,0.068258271,0.88735831,0.45600006,0
3.8850212,6.8734999,3.8860795,0.44147968,0.78107953,0.44159994,0
-1.7497627,0.69990426,8.5958405,-0.19883665,0.079534575,0.97680002,0
-7.7116122,-2.0762031,3.6960006,-0.87631953,-0.23593217,0.42000005,0
-0.67920536,4.4148321,7.5820804,-0.077182427,0.50168544,0.86160004,0
-1.6696831,5.009047,7.0400004,-0.18973671,0.56920987,0.80000001,0
-6.4363775,-4.9735641,3.3580804,-0.73140651,-0.56517774,0.38160002,0
8.5100994,1.8615841,1.2460804,0.96705675,0.21154363,0.14160004,0
3.045157,-7.0038586,4.37184,0.34604055,-0.79589301,0.49679998,0
6.9313617,-4.9905806,2.1190398,0.7876547,-0.56711143,0.24079996,0
-6.8319206,-4.8392763,2.7104001,-0.77635461,-0.54991776,0.308,0
4.0294394,3.0220785,7.2160006,0.45789084,0.343418,0.82000005,0
3.5327191,7.8806825,1.6895993,0.40144536,0.89553207,0.19199991,0
-1.7558876,0.47555289,-8.6099195,-0.19953269,0.0540401,-0.97839993,0
-2.4377415,-0.69649804,8.4268799,-0.27701607,-0.079147503,0.95759994,0
-5.5562868,-6.8190784,0.26048076,-0.63139623,-0.77489525,0.029600086,0
6.2112198,-5.4097714,-3.0975995,0.70582044,-0.61474675,-0.35199994,0
-2.4131904,-8.446167,-0.52799964,-0.27422616,-0.95979166,-0.059999958,0
-5.1427097,-6.5712395,2.7948802,-0.58439881,-0.74673176,0.31760001,0
-7.682776,-2.7579195,-3.287679,-0.8730427,-0.31339994,-0.37359989,0
5.935936,-4.7138314,-4.4703979,0.67453814,-0.53566265,-0.50799978,0
4.3411746,3.0054278,7.0400004,0.49331528,0.34152588,0.80000001,0
-1.6457652,-5.5955997,6.5894403,-0.18701877,-0.6358636,0.74880004,0
-2.0092757,6.6460657,-5.4067206,-0.22832678,0.75523472,-0.61440009,0
4.4176769,0.33982101,7.6032004,0.50200874,0.038616024,0.86400002,0
0.54020196,-8.64324,1.5628804,0.061386585,-0.98218632,0.17760004,0
2.609628,5.5454612,6.3148799,0.29654863,0.63016605,0.71759999,0
1.9912131,-7.9648504,-3.1680007,0.22627421,-0.90509659,-0.36000007,0
2.8505919,-8.2926302,0.73920012,0.32393089,-0.94234431,0.084000014,0
6.6256194,3.939558,-4.245121,0.75291127,0.44767705,-0.48240009,0
1.2728202,6.682302,5.5827208,0.14463866,0.75935251,0.63440007,0
3.3825002,1.4281667,-7.9974394,0.38437501,0.16229168,-0.90879989,0
8.6490459,1.3104619,0.95744073,0.98284608,0.14891613,0.10880008,0
5.299016,6.9117599,-1.2601612,0.60216087,0.78542721,-0.14320013,0
8.078927,2.5512402,-2.3795199,0.91805989,0.28991365,-0.27039999,0
-4.8522058,3.6719391,-6.3571191,-0.55138701,0.4172658,-0.72239989,0
-6.192832,-5.9716592,-1.8515193,-0.70373088,-0.67859763,-0.21039993,0
-1.2593532,6.926445,5.2799993,-0.14310831,0.78709602,0.5999999,0
-3.9157529,7.8315058,0.8799994,-0.44497192,0.88994384,0.099999927,0
5.0323687,-0.67098296,7.1878405,0.57186007,-0.076248065,0.81680006,0
6.8487401,-2.6726787,-4.8364816,0.77826589,-0.30371347,-0.54960018,0
3.912004,-2.0014904,-7.6243205,0.44454589,-0.22744209,-0.86640006,0
7.251296,0.65920907,-4.94208,0.82401091,0.074910119,-0.56159997,0
-1.0759919,8.6079369,1.4784003,-0.1222718,0.97817463,0.16800004,0
-7.4034567,0.61695409,4.7167997,-0.84130186,0.070108421,0.53599995,0
-3.2509866,4.4120531,-6.8851199,-0.36943027,0.50136966,-0.78239995,0
-0.86204892,1.8472475,-8.5606394,-0.0979601,0.20991448,-0.9727999,0
5.6401691,5.6401691,3.7171202,0.64092827,0.64092827,0.4224,0
2.4152226,-2.4152226,8.1100807,0.27445713,-0.27445713,0.92160004,0
5.5786085,-6.7913489,-0.44352067,0.63393277,-0.77174419,-0.050400075,0
7.181294,-0.62446064,5.0476794,0.81605613,-0.070961438,0.57359993,0
-1.3696377,-8.4917517,1.8585598,-0.15564065,-0.96497178,0.21119998,0
-7.5443053,-4.5265832,0.18303932,-0.85730743,-0.51438445,0.020799922,0
0.68284309,-4.0970626,7.75808,0.077595808,-0.46557528,0.88159996,0
8.3176346,-1.9407811,2.1190395,0.94518572,-0.22054331,0.24079995,0
5.8772831,6.411581,1.3375988,0.66787308,0.72858876,0.15199986,0
-7.3984838,4.3842878,1.8656002,-0.84073675,0.49821451,0.21200003,0
-6.226099,5.66009,2.5766404,-0.70751125,0.64319205,0.29280004,0
-0.35814181,-7.7000446,-4.2451205,-0.040697932,-0.87500507,-0.48240006,0
-1.1664978,3.1564059,-8.1311989,-0.13255657,0.35868248,-0.92399985,0
-0.97060108,-8.7354116,-0.4364807,-0.11029557,-0.9926604,-0.04960008,0
-2.2913873,5.5647988,6.4204798,-0.26038492,0.6323635,0.72959995,0
8.714323,0.52814031,1.1052809,0.99026394,0.060015943,0.1256001,0
2.194855,-7.4990873,-4.0479999,0.24941534,-0.85216898,-0.45999998,0
7.0235357,-4.0970621,3.3651199,0.79812902,-0.46557522,0.38239998,0
2.2093713,6.6281137,5.3504009,0.25106493,0.75319475,0.6080001,0
-4.3868289,-2.1424048,-7.3216009,-0.49850327,-0.24345508,-0.83200008,0
-5.6370487,1.1029005,-6.6668801,-0.64057368,0.1253296,-0.75760001,0
5.3722863,-4.4242349,5.3856001,0.61048704,-0.50275397,0.61199999,0
0.79797745,8.179265,-3.1468818,0.090679251,0.9294619,-0.35760021,0
-3.0329263,2.1230483,-7.9833593,-0.34465072,0.24125548,-0.90719992,0
1.547519,7.9310369,-3.4848013,0.17585443,0.90125418,-0.39600015,0
0,7.4111648,4.7449598,0,0.84217781,0.53919995,0
3.4354911,8.0979433,-0.24639894,0.39039671,0.92022079,-0.02799988,0
-7.6079502,3.6630874,2.4780807,-0.8645398,0.41625991,0.28160009,0
-0.33341634,5.3346672,6.9907198,-0.037888221,0.6062122,0.79439998,0
-5.9336801,-5.3403125,3.7030401,-0.67428184,-0.60685366,0.4208,0
2.142405,4.3868299,-7.3216,0.24345511,0.49850339,-0.83199996,0
7.5740519,-0.88070387,-4.3929605,0.86068767,-0.10007998,-0.49920005,0
3.5262954,7.0525908,-3.9071999,0.40071538,0.80143076,-0.44399998,0
-5.1427093,6.5712399,2.7948792,-0.58439875,0.74673182,0.31759989,0
-0.70329607,0.3516475,8.7648001,-0.079920009,0.039959941,0.99599999,0
3.7644131,1.368878,7.8355198,0.42777422,0.15555431,0.89039993,0
-2.1856108,6.8690643,5.0476794,-0.24836485,0.78057545,0.57359993,0
-7.5985541,-3.9078281,-2.10496,-0.86347204,-0.44407135,-0.2392,0
2.7871192,-6.8129601,4.8224006,0.31671807,-0.77420002,0.54800004,0
0.54020196,8.64324,1.5628804,0.061386585,0.98218632,0.17760004,0
-5.0351014,6.219831,3.6608009,-0.57217062,0.70679897,0.4160001,0
4.6647115,-6.7055211,3.2735999,0.53008085,-0.76199102,0.37199998,0
-6.469584,-3.6969051,4.6815996,-0.73517996,-0.42010283,0.53199995,0
2.7256985,7.9674268,-2.5555198,0.30973846,0.90538937,-0.29039997,0
4.2226791,-7.3193116,2.4569609,0.4798499,-0.83173996,0.27920011,0
-1.4599813,-7.6649013,-4.0691214,-0.16590697,-0.8710115,-0.46240014,0
-0.62446064,-7.1812935,5.0476804,-0.070961438,-0.81605607,0.57360005,0
2.6306818,-8.3703499,-0.67583996,0.29894111,-0.95117611,-0.076799996,0
-6.1085744,3.445863,-5.3152003,-0.69415617,0.39157534,-0.60400003,0
-5.3403125,5.9336801,3.7030401,-0.60685366,0.67428184,0.4208,0
0.40195829,8.2401533,-3.0624015,0.045677077,0.93638104,-0.34800017,0
8.7671328,0.7514677,0.11263895,0.99626505,0.085394055,0.01279988,0
4.5223436,6.3312812,4.111361,0.51390266,0.71946377,0.4672001,0
4.9623766,6.2984009,-3.6255989,0.56390643,0.71572733,-0.41199988,0
0,-1.7511784,8.6240005,0,-0.19899754,0.98000002,0
7.5280285,-4.3343196,-1.4079992,0.85545778,-0.49253631,-0.15999991,0
-4.1521087,-7.4737945,2.0838406,-0.47183052,-0.84929478,0.23680006,0
-0.46029958,4.4188752,-7.5961614,-0.052306771,0.50214487,-0.86320013,0
-7.9337869,2.4411654,-2.9215994,-0.90156668,0.27740517,-0.33199993,0
5.2134042,-7.0380955,0.85184109,0.59243226,-0.79978359,0.096800119,0
7.5046139,-4.1937551,-1.8796787,0.85279703,-0.47656307,-0.21359985,0
-1.2558663,5.2518039,-6.9484792,-0.14271207,0.59679586,-0.7895999,0
5.2928824,1.9848306,6.7443194,0.60146391,0.22554892,0.76639992,0
-5.0784707,2.5392349,-6.7232003,-0.57709891,0.28854942,-0.764,0
-1.0487946,-1.7479914,8.5606403,-0.11918121,-0.19863538,0.97280002,0
7.3853865,3.9767461,2.6611207,0.83924842,0.45190296,0.30240008,0
5.9057508,0.65619385,6.49088,0.67110801,0.074567482,0.73759997,0
-0.5402028,-8.64324,1.5628803,-0.061386678,-0.98218632,0.17760003,0
0,-6.1863098,6.2585602,0,-0.70298976,0.7112,0
0.25654978,3.1427331,-8.2156811,0.029153382,0.35712874,-0.93360013,0
-3.4354911,-8.0979433,-0.24639894,-0.39039671,-0.92022079,-0.02799988,0
2.2683449,-8.0423117,-2.7596796,0.25776646,-0.913899,-0.31359994,0
4.8823304,6.7132039,-2.9215996,0.55481029,0.76286405,-0.33199996,0
8.4930773,2.1232686,-0.8940804,0.9651224,0.24128051,-0.10160004,0
-6.0983791,-4.2349854,-4.7238407,-0.69299763,-0.48124832,-0.53680009,0
1.618435,6.1500516,6.0825601,0.18391307,0.69886947,0.69120002,0
-7.3710179,3.2432482,3.5481598,-0.83761567,0.36855093,0.40319997,0
-1.8114018,-7.5475073,4.1465602,-0.20584111,-0.85767126,0.47120002,0
5.8242979,-3.4348423,-5.631999,0.661852,-0.39032298,-0.63999987,0
6.8734999,-3.8850212,3.8860795,0.78107953,-0.44147968,0.44159994,0
3.0066659,-7.2159967,4.0409594,0.34166658,-0.81999964,0.45919991,0
-2.3990805,3.0845315,7.8848004,-0.27262279,0.35051495,0.89600003,0
-4.7959867,2.2306914,-7.0329604,-0.54499847,0.25348765,-0.79920006,0
-1.2593538,6.9264441,-5.2800002,-0.14310838,0.7870959,-0.60000002,0
-2.5392349,-5.0784698,-6.7232013,-0.28854942,-0.57709885,-0.76400012,0
4.4425859,7.1927586,-2.4428782,0.5048393,0.81735891,-0.27759978,0
-5.3132181,-6.9071836,1.2249607,-0.60377479,-0.78490722,0.13920008,0
2.4272587,1.7337568,8.2790403,0.27582484,0.19701782,0.94080001,0
6.5959358,5.4966125,1.9289601,0.74953812,0.62461507,0.2192,0
6.6937404,-0.95624876,5.6320009,0.7606523,-0.10866463,0.6400001,0
2.9000607,5.8001232,5.9488001,0.32955235,0.65910488,0.676,0
-5.6308732,6.0330787,-3.0553606,-0.63987195,0.68557709,-0.34720007,0
5.5972385,-4.6643653,4.93504,0.63604981,-0.53004152,0.56080002,0
2.1163132,-8.4652538,1.1404805,0.24049014,-0.96196061,0.12960006,0
-2.8821034,5.9083128,-5.8502412,-0.32751176,0.67139918,-0.66480011,0
6.0621233,6.0621233,1.9852782,0.68887764,0.68887764,0.2255998,0
-4.4100866,1.0177114,7.5468802,-0.5011462,0.11564902,0.85760003,0
-5.4987717,3.2345724,6.06144,-0.62486041,0.36756504,0.68879998,0
-4.255434,4.255434,6.4204803,-0.48357204,0.48357204,0.72960001,0
8.7428608,-0.99918383,0.063358873,0.99350691,-0.11354361,0.0071998718,0
5.8053327,5.8053327,3.1680007,0.65969688,0.65969688,0.36000007,0
-6.0983791,4.2349854,-4.7238407,-0.69299763,0.48124832,-0.53680009,0
-4.4871368,6.281992,-4.2240014,-0.50990188,0.71386272,-0.48000014,0
4.6823578,6.6333389,-3.3932791,0.53208607,0.75378847,-0.38559988,0
1.4032054,-0.35080084,8.6803198,0.15945515,-0.039863732,0.98639995,0
-6.6333389,4.6823568,-3.3932805,-0.75378847,0.53208601,-0.38560006,0
6.4182415,4.7192955,-3.7382388,0.72934562,0.53628355,-0.42479986,0
6.2513762,2.5303192,-5.6531215,0.71038365,0.28753626,-0.64240015,0
-5.278944,-7.0385919,0.17599972,-0.59987998,-0.79983997,0.019999968,0
2.7745814,1.0404673,8.2860804,0.31529334,0.11823491,0.94160002,0
-1.0521916,-1.0521916,8.6732798,-0.11956722,-0.11956722,0.98559994,0
-4.7987814,-1.9631379,-7.1104002,-0.54531604,-0.22308384,-0.80800003,0
-7.3161831,-4.8774548,-0.35200018,-0.83138442,-0.5542562,-0.040000018,0
-8.2527122,-1.4228817,2.7033591,-0.93780822,-0.1616911,0.3071999,0
5.676877,-5.14467,-4.3296008,0.64509964,-0.58462161,-0.49200007,0
3.8929045,-1.5571619,-7.7369595,0.44237551,-0.17695022,-0.87919992,0
-7.4150119,-2.9660046,3.6960001,-0.84261495,-0.33704597,0.42000002,0
2.3228161,-7.7427197,-3.4777606,0.26395637,-0.8798545,-0.39520004,0
3.0373166,3.7122774,7.3779202,0.34514961,0.4218497,0.83840001,0
2.6482377,4.9654455,6.7654409,0.3009361,0.56425518,0.76880008,0
2.1767156,8.2715178,-2.0697601,0.24735405,0.93994516,-0.2352,0
4.4034343,1.3549036,7.4976001,0.50039023,0.15396631,0.852,0
2.289115,8.0119038,2.8300815,0.26012668,0.9104436,0.32160017,0
6.2017889,6.2017889,-0.71807933,0.70474875,0.70474875,-0.081599921,0
5.8236084,2.5882697,6.06848,0.66177368,0.29412156,0.68959999,0
-0.26435152,-8.723608,1.1264008,-0.030039944,-0.99131906,0.1280001,0
-7.8841834,-0.93859345,-3.7945611,-0.89592993,-0.10665835,-0.43120012,0
-0.33341634,-5.3346667,6.9907203,-0.037888221,-0.60621214,0.79440004,0
3.0927567,-7.8724704,2.4287999,0.35144961,-0.8945989,0.27599999,0
-8.6770821,1.0517682,1.0208007,-0.98603201,0.11951911,0.11600008,0
5.4199033,-2.5809062,-6.4345608,0.61589807,-0.29328477,-0.7312001,0
6.7203436,0.74670506,-5.6319995,0.76367539,0.084852844,-0.63999993,0
8.7456522,0.77167451,0.59840137,0.99382406,0.087690286,0.068000153,0
-5.3722854,-4.4242349,5.3856006,-0.61048698,-0.50275397,0.61200005,0
-1.9057868,4.4134011,-7.3708801,-0.21656667,0.50152284,-0.83759999,0
2.3990805,3.0845315,7.8848004,0.27262279,0.35051495,0.89600003,0
-6.192832,5.9716592,-1.8515193,-0.70373088,0.67859763,-0.21039993,0
-7.2355657,4.6044507,-1.9711987,-0.82222337,0.523233,-0.22399984,0
0.98157036,2.5084574,-8.3775988,0.11154208,0.28505197,-0.95199984,0
-8.6562462,0.68338722,-1.4291197,-0.98366433,0.07765764,-0.16239996,0
-5.960557,1.4570253,-6.3078394,-0.67733598,0.16557105,-0.71679991,0
1.9848306,5.2928824,6.7443194,0.22554892,0.60146391,0.76639992,0
-4.3527188,6.9643502,3.1609597,-0.49462712,0.79140341,0.35919997,0
5.9724274,-6.2439003,1.6684794,0.67868489,-0.70953411,0.18959993,0
-3.1563997,1.1664957,-8.1312008,-0.35868177,0.13255632,-0.92400008,0
8.3566437,-2.6114509,0.88704044,0.94961858,-0.29675579,0.10080004,0
6.3708234,5.2124915,3.1116791,0.72395718,0.59232855,0.35359988,0
7.7398005,1.7861079,3.7875204,0.87952274,0.20296681,0.43040004,0
-8.0937805,-3.2375121,-1.2038394,-0.91974777,-0.36789909,-0.13679993,0
-7.6662984,-3.6201961,-2.3584003,-0.87117028,-0.41138592,-0.26800004,0
1.7212472,-7.8412395,-3.6044796,0.19559626,-0.89104992,-0.40959993,0
-6.1085749,-3.445863,-5.3151994,-0.69415623,-0.39157534,-0.60399991,0
-5.6071067,1.3193201,6.6528006,-0.63717121,0.14992273,0.75600004,0
-5.9744473,-3.7733352,5.2448001,-0.67891443,-0.4287881,0.59600002,0
2.096313,0.34938517,8.5395203,0.23821738,0.039702859,0.97040004,0
-7.0006347,-4.0837035,-3.4284811,-0.79552662,-0.46405721,-0.38960013,0
-5.5779686,5.8715458,3.4425604,-0.63386005,0.66722107,0.39120004,0
-0.47267741,-8.7445278,-0.86592031,-0.05371334,-0.99369633,-0.098400034,0
-2.1630075,-1.5681806,-8.3846416,-0.24579631,-0.17820233,-0.95280015,0
-5.4411635,-3.840822,5.7516804,-0.61831403,-0.43645704,0.65360004,0
1.8542739,3.1151803,-8.0185614,0.21071294,0.35399774,-0.91120011,0
7.9788327,-0.88653708,3.6044807,0.90668553,-0.10074285,0.40960008,0
0,-3.4488814,8.0960007,0,-0.39191833,0.92000008,0
0.89742637,-1.5435734,-8.6169605,0.10198027,-0.17540607,-0.97920007,0
5.4987721,3.2345724,6.0614395,0.62486047,0.36756504,0.68879992,0
-3.7572374,1.7078353,7.7721601,-0.4269588,0.19407219,0.88319999,0
8.5365047,0.82611257,1.9712001,0.97005731,0.093876429,0.22400001,0
-2.8903465,-7.8452268,-2.7455995,-0.32844847,-0.89150304,-0.31199995,0
4.4871368,6.281992,-4.2240014,0.50990188,0.71386272,-0.48000014,0
4.367887,5.4598598,-5.3433599,0.4963508,0.62043864,-0.60719997,0
-6.1563587,1.8189241,-6.0191998,-0.69958621,0.20669591,-0.68399996,0
7.1491537,-4.2894926,2.816,0.8124038,-0.48744234,0.31999999,0
4.4186249,0,7.6102405,0.50211644,0,0.86480004,0
-7.1885915,0,5.0758405,-0.81688535,0,0.57680005,0
-3.738035,2.3787491,7.6032,-0.4247767,0.2703124,0.86399996,0
-0.34739354,-2.7791514,8.3423996,-0.039476536,-0.31581265,0.94799995,0
-0.33571249,5.0356913,7.2089605,-0.038149145,0.57223761,0.81920004,0
-2.6047051,-7.814115,-3.0975993,-0.29598922,-0.88796759,-0.35199991,0
-3.1001112,1.7222843,8.0537596,-0.35228536,0.19571412,0.91519994,0
3.2076461,-5.7737617,5.8150396,0.36450523,-0.65610927,0.66079992,0
7.840405,-3.1785426,-2.4217603,0.89095509,-0.36119801,-0.27520004,0
4.3343196,-7.5280285,-1.4079992,0.49253631,-0.85545778,-0.15999991,0
5.7764225,6.5641155,0.99263912,0.65641165,0.74592221,0.1127999,0
8.5365047,-0.8261134,1.9712,0.97005731,-0.093876518,0.22399999,0
1.3087591,5.0169096,-7.1103988,0.14872262,0.57010335,-0.80799985,0
-0.34617874,-3.1156118,8.2227201,-0.039338492,-0.35404679,0.93440002,0
3.3109236,-0.68977565,-8.1241617,0.3762413,-0.078383595,-0.92320019,0
7.0891085,-4.907845,1.7600002,0.8055805,-0.55770963,0.20000002,0
-7.840405,3.1785421,-2.4217598,-0.89095509,0.36119795,-0.27519998,0
-2.2093711,-6.6281147,5.3504,-0.2510649,-0.75319481,0.60799998,0
1.0177114,-4.4100866,7.5468802,0.11564902,-0.5011462,0.85760003,0
-4.7298527,-0.33784634,7.4131203,-0.53748327,-0.038391627,0.84240001,0
-8.6768913,-0.45667872,-1.3939198,-0.98601037,-0.051895309,-0.15839997,0
-5.6262326,0.33095458,6.7584004,-0.63934457,0.037608474,0.76800001,0
2.2778506,-5.1551356,-6.7584004,0.25884667,-0.58581084,-0.76800001,0
0.79797745,8.179265,-3.1468818,0.090679251,0.9294619,-0.35760021,0
4.4188752,0.46029958,-7.5961614,0.50214487,0.052306771,-0.86320013,0
-5.9057508,-0.65619481,6.49088,-0.67110801,-0.074567594,0.73759997,0
-0.64461225,-6.4461184,5.9558406,-0.073251389,-0.73251343,0.67680007,0
-5.2046223,-6.848187,1.8585601,-0.59143436,-0.77820307,0.2112,0
4.0690961,-2.034548,7.5328002,0.46239728,-0.23119864,0.85600001,0
8.2148085,1.4375916,-2.8089585,0.93350095,0.16336267,-0.31919983,0
-0.94030774,-8.6978483,-0.95040023,-0.10685315,-0.98839182,-0.10800003,0
4.9852076,0.84854573,-7.2019219,0.56650084,0.096425653,-0.8184002,0
3.4449928,-6.2636218,5.1321602,0.39147645,-0.71177518,0.58320004,0
-8.2773161,-1.2415974,-2.7174404,-0.94060409,-0.14109062,-0.30880004,0
7.5046139,-4.1937551,-1.8796787,0.85279703,-0.47656307,-0.21359985,0
0.33571249,5.0356913,7.2089605,0.038149145,0.57223761,0.81920004,0
-5.5647979,2.2913873,6.4204807,-0.63236338,0.26038492,0.72960007,0
-5.7258182,-2.5902507,-6.1600013,-0.65066111,-0.29434666,-0.70000011,0
2.2903271,6.8709822,-4.9984007,0.26026443,0.78079343,-0.56800008,0
2.3983371,-3.2253494,-7.8284802,0.2725383,-0.36651698,-0.88959998,0
5.4955983,6.594718,-1.9360006,0.6244998,0.74939978,-0.22000006,0
-1.3924794,-6.8076768,-5.3996801,-0.15823629,-0.77359962,-0.61360002,0
-6.7203436,0.74670506,-5.6319995,-0.76367539,0.084852844,-0.63999993,0
-4.6209879,-0.28881174,-7.4835196,-0.52511227,-0.032819517,-0.85039991,0
3.9988804,7.7311707,1.2953596,0.45441821,0.87854213,0.14719996,0
-2.3541193,4.3719363,7.2652802,-0.26751354,0.49681094,0.82560003,0
-8.1441822,0.87259007,3.2172801,-0.92547524,0.099157959,0.36560002,0
4.6823578,6.6333389,-3.3932791,0.53208607,0.75378847,-0.38559988,0
-0.34739354,2.7791505,8.3424006,-0.039476536,0.31581256,0.94800001,0
-8.7844276,0.50196683,0.14784035,-0.9982304,0.057041686,0.01680004,0
7.6128902,-0.60903156,4.37184,0.86510116,-0.06920813,0.49679998,0
2.7813797,8.3441372,0.28160056,0.31606588,0.94819736,0.032000065,0
-5.2046223,-6.848187,1.8585601,-0.59143436,-0.77820307,0.2112,0
-6.7011333,3.6551638,4.37888,-0.76149237,0.4153595,0.49759999,0
-1.0108715,-3.6546896,-7.9411201,-0.11487176,-0.41530561,-0.90240002,0
-2.5412748,-6.3531852,5.5334401,-0.28878123,-0.72195286,0.62879997,0
-3.926276,4.5806546,6.4064002,-0.44616771,0.52052891,0.72799999,0
-1.0487946,1.7479914,8.5606403,-0.11918121,0.19863538,0.97280002,0
-2.069329,-2.7591057,8.0959997,-0.23515102,-0.31353474,0.91999996,0
-1.2743777,1.5133235,-8.5747194,-0.14481564,0.17196858,-0.97439992,0
-2.3871205,6.6839371,-5.2025614,-0.27126369,0.75953829,-0.59120017,0
-1.5475198,-7.9310374,-3.4848001,-0.17585452,-0.90125424,-0.396,0
2.1888387,3.4516306,-7.7932816,0.24873167,0.39223075,-0.88560015,0
-8.3176346,-1.9407811,2.1190395,-0.94518572,-0.22054331,0.24079995,0
8.0094347,1.3674642,-3.3792014,0.91016299,0.15539366,-0.38400015,0
-5.2881742,6.6797991,2.2035198,-0.60092884,0.75906807,0.25039998,0
8.472517,2.3106859,0.56320113,0.96278602,0.26257792,0.06400013,0
-3.9332309,6.6562381,4.2028794,-0.44695804,0.75639069,0.47759992,0
-7.3584943,-3.8836496,-2.8652806,-0.83619249,-0.44132382,-0.32560006,0
1.1973803,7.7829676,3.9283204,0.13606595,0.88442808,0.44640005,0
-6.1340299,-1.9370623,6.0051203,-0.69704884,-0.22012071,0.68239999,0
4.8781061,-7.0954256,-1.8163207,0.55433023,-0.80629838,-0.20640007,0
3.6969054,6.4695835,4.6816006,0.42010286,0.7351799,0.53200006,0
6.0087876,-3.4787722,5.4067202,0.68281674,-0.39531502,0.61440003,0
-8.5141811,-2.1893609,-0.39423975,-0.96752053,-0.24879099,-0.044799972,0
5.8610697,-3.7017283,-5.4208002,0.66603065,-0.42065093,-0.616,0
4.4170604,-7.6071591,-0.2464003,0.50193864,-0.86444986,-0.028000033,0
-3.3879888,6.6065784,-4.7238388,-0.38499871,0.7507475,-0.53679985,0
7.5700464,-1.5140096,4.224,0.86023253,-0.17204654,0.47999999,0
-5.14467,5.676877,-4.3296008,-0.58462161,0.64509964,-0.49200007,0
7.181294,0.62445968,5.0476794,0.81605613,0.070961326,0.57359993,0
-5.0688004,-6.7584,-2.464,-0.57600003,-0.76800001,-0.28,0
5.9261923,5.1854181,-3.9283187,0.67343092,0.58925205,-0.44639984,0
-7.6283035,0.70960999,-4.3296008,-0.86685264,0.0806375,-0.49200007,0
-0.67920536,-4.4148321,7.5820804,-0.077182427,-0.50168544,0.86160004,0
2.5490253,8.4117804,0.42944044,0.28966197,0.9558841,0.048800047,0
-0.30475935,7.6189914,4.3929601,-0.034631744,0.86579448,0.49919999,0
4.7307968,6.1864266,-4.0972786,0.53759056,0.70300299,-0.46559983,0
8.0464706,3.1291826,-1.7036805,0.91437167,0.35558891,-0.19360006,0
1.9022075,-6.8162432,-5.2307205,0.21615994,-0.77457309,-0.59440005,0
8.2916737,2.9264734,-0.35199884,0.94223565,0.33255377,-0.039999865,0
-7.1462064,2.8584831,-4.2662411,-0.81206888,0.32482761,-0.4848001,0
0.68284309,-4.0970626,7.75808,0.077595808,-0.46557528,0.88159996,0
3.7801194,-7.2694607,3.2102401,0.42955902,-0.82607508,0.36480001,0
-1.8771873,2.4403431,-8.2438402,-0.21331672,0.27731171,-0.9368,0
7.1713381,4.6889524,2.0064001,0.81492478,0.53283548,0.228,0
4.2226791,-7.3193116,2.4569609,0.4798499,-0.83173996,0.27920011,0
1.9370623,-6.1340299,6.0051203,0.22012071,-0.69704884,0.68239999,0
-3.532474,-8.0069408,-0.92224032,-0.40141749,-0.90987962,-0.10480003,0
-8.0464706,-3.1291826,-1.7036805,-0.91437167,-0.35558891,-0.19360006,0
6.2261,-5.6600895,2.5766394,0.70751137,-0.64319199,0.29279992,0
-6.0164409,-2.2386756,-6.0192003,-0.68368644,-0.25439495,-0.68400002,0
-4.3719363,-2.3541193,7.2652802,-0.49681094,-0.26751354,0.82560003,0
5.6054606,-0.23853035,-6.7795219,0.63698417,-0.027105721,-0.77040023,0
6.5845637,4.2068048,-4.0480013,0.74824584,0.47804597,-0.46000013,0
8.0119038,2.289115,2.8300815,0.9104436,0.26012668,0.32160017,0
1.9022075,-6.8162432,-5.2307205,0.21615994,-0.77457309,-0.59440005,0
1.7017007,-8.2248869,2.6259191,0.19337508,-0.93464619,0.2983999,0
-3.5691056,3.9037097,-7.0329609,-0.40558016,0.44360337,-0.79920006,0
7.7118182,-3.0441389,-2.94976,0.87634295,-0.34592485,-0.33519998,0
-8.0767641,-1.1819656,-3.2876799,-0.91781408,-0.13431427,-0.37359998,0
1.1664973,3.1564043,-8.1311989,0.13255651,0.3586823,-0.92399985,0
-7.5584102,-3.4727826,-2.8723199,-0.8589102,-0.39463437,-0.32639998,0
-1.6322181,-4.3205776,-7.4905591,-0.18547933,-0.49097472,-0.85119987,0
7.7116122,2.0762031,3.6960006,0.87631953,0.23593217,0.42000005,0
1.6881049,1.505607,-8.5043192,0.1918301,0.17109171,-0.96639991,0
3.1151803,-1.8542739,-8.0185614,0.35399774,-0.21071294,-0.91120011,0
-7.2534828,-2.7200561,4.1747198,-0.8242594,-0.30909726,0.47439995,0
-7.1491537,-4.2894926,2.816,-0.8124038,-0.48744234,0.31999999,0
-1.7036222,-8.3051567,-2.3583994,-0.19359343,-0.94376779,-0.26799992,0
3.0815592,6.7794294,4.6886387,0.35017717,0.77038968,0.53279984,0
-6.7186947,5.5602989,-1.1756812,-0.76348799,0.63185215,-0.13360013,0
7.125155,-5.159595,-0.22528113,0.80967671,-0.5863176,-0.025600128,0
-0.23853035,5.6054606,-6.7795219,-0.027105721,0.63698417,-0.77040023,0
-8.0464706,-3.1291826,-1.7036805,-0.91437167,-0.35558891,-0.19360006,0
6.1864266,4.7307968,-4.0972786,0.70300299,0.53759056,-0.46559983,0
-5.6262326,0.33095458,6.7584004,-0.63934457,0.037608474,0.76800001,0
6.926445,-1.2593532,5.2799993,0.78709602,-0.14310831,0.5999999,0
8.6275196,1.7255036,-0.16896111,0.98039991,0.19607994,-0.019200126,0
-4.314147,1.0096942,-7.6032004,-0.49024397,0.11473798,-0.86400002,0
-1.0475179,-7.5072117,-4.4704003,-0.11903612,-0.85309219,-0.50800002,0
4.5209908,-7.4463367,1.2460796,0.51374894,-0.8461746,0.14159995,0
-0.3809416,7.9997697,-3.6467211,-0.043288816,0.90906471,-0.41440013,0
2.4076695,-2.7516229,8.0044804,0.27359882,-0.31268442,0.90960002,0
1.6034367,6.4137449,5.8080006,0.18220872,0.72883463,0.66000003,0
-5.8236079,4.2059388,-5.0828805,-0.66177362,0.47794759,-0.57760006,0
2.7591047,-2.069329,8.0960007,0.31353462,-0.23515102,0.92000008,0
-2.4882994,6.842823,4.9420791,-0.28276128,0.77759349,0.56159991,0
-4.8392763,-6.8319206,2.7104001,-0.54991776,-0.77635461,0.308,0
6.7913485,5.578609,-0.4435195,0.77174413,0.63393283,-0.050399944,0
3.2375121,-8.0937805,-1.2038394,0.36789909,-0.91974777,-0.13679993,0
-4.7518697,-7.3653984,-0.78143978,-0.53998518,-0.83697706,-0.088799976,0
3.3710873,6.7421746,4.5407991,0.3830781,0.7661562,0.51599991,0
-1.2728193,-6.682303,5.5827198,-0.14463855,-0.75935256,0.63439995,0
-3.6538551,-5.5538597,-5.7657599,-0.41521078,-0.63112038,-0.6552,0
2.0120485,-8.0481949,2.9356802,0.22864187,-0.91456759,0.33360001,0
-3.4481628,0.34481597,8.0889606,-0.39183667,0.039183632,0.91920006,0
-7.2159967,-3.006665,4.0409598,-0.81999964,-0.34166646,0.45919997,0
6.1340299,1.9370623,6.0051203,0.69704884,0.22012071,0.68239999,0
3.4218304,7.984273,-1.4080007,0.38884437,0.90730375,-0.16000007,0
0.33526936,2.7380331,-8.3564806,0.03809879,0.31114012,-0.94960004,0
-1.6034367,6.4137449,5.8080006,-0.18220872,0.72883463,0.66000003,0
6.7084179,0,5.6953607,0.76232022,0,0.64720005,0
6.9385557,0.94616568,5.3292794,0.78847224,0.10751882,0.60559994,0
1.0540965,0,8.73664,0.11978368,0,0.9928,0
2.8996768,-7.5391603,-3.4918387,0.32950872,-0.85672271,-0.39679983,0
-6.0569377,-6.2898965,-1.0911989,-0.68828833,-0.71476096,-0.12399987,0
8.0119028,-2.2891159,2.830081,0.91044348,-0.2601268,0.32160011,0
-5.1854177,-5.9261918,-3.9283197,-0.589252,-0.67343086,-0.44639996,0
-1.4023564,-0.70117873,8.6592007,-0.15935868,-0.0796794,0.98400003,0
0.93549836,-7.1721606,5.0124807,0.10630663,-0.81501824,0.56960005,0
-2.1888406,-3.4516335,-7.7932796,-0.24873188,-0.39223108,-0.88559991,0
-6.5959358,5.4966125,1.9289601,-0.74953812,0.62461507,0.2192,0
8.3130989,-0.28665829,2.8723192,0.94467032,-0.032574806,0.32639989,0
6.2261,-5.6600895,2.5766394,0.70751137,-0.64319199,0.29279992,0
-5.9261923,5.1854181,-3.9283187,-0.67343092,0.58925205,-0.44639984,0
0.99186593,8.1332989,-3.2102416,0.11271203,0.9242385,-0.36480016,0
-6.0399714,3.1789331,5.5545597,-0.68636036,0.36124238,0.63119996,0
-3.1156118,-0.34617874,8.2227201,-0.35404679,-0.039338492,0.93440002,0
-4.9639645,-6.0670676,-3.9987185,-0.56408685,-0.68943948,-0.45439982,0
3.105932,-1.3804144,8.1171207,0.35294682,-0.15686527,0.92240006,0
-0.79080236,8.6988249,1.0700808,-0.089863904,0.9885028,0.12160008,0
7.1867685,0.31246787,5.0687995,0.81667823,0.035507713,0.57599992,0
3.0066659,-7.2159967,4.0409594,0.34166658,-0.81999964,0.45919991,0
-4.1937551,7.5046139,-1.8796787,-0.47656307,0.85279703,-0.21359985,0
8.5681686,1.6210047,-1.1827202,0.97365552,0.18420507,-0.13440003,0
2.5619695,7.9705734,2.7104015,0.2911329,0.90574694,0.30800018,0
3.7116892,-7.2280269,-3.3792002,0.42178285,-0.82136667,-0.384,0
-1.6215703,7.5673285,-4.1888013,-0.18426935,0.85992366,-0.47600013,0
-6.0968189,4.5726137,4.400001,-0.69282031,0.51961517,0.50000012,0
-7.4089036,3.3145099,-3.4003203,-0.84192085,0.37664884,-0.38640001,0
-0.65777874,-8.5511227,-1.9711993,-0.074747585,-0.97171849,-0.22399992,0
0,6.9540954,5.3926392,0,0.79023808,0.61279988,0
3.9732554,3.9732554,6.77248,0.45150629,0.45150629,0.76959997,0
4.4188752,-0.46029958,-7.5961614,0.50214487,-0.052306771,-0.86320013,0
0.74670506,-6.7203436,-5.6319995,0.084852844,-0.76367539,-0.63999993,0
-2.615092,-7.4716926,-3.8438401,-0.29716954,-0.84905595,-0.4368,0
8.1332989,-0.99186593,-3.2102416,0.9242385,-0.11271203,-0.36480016,0
-7.9978337,3.6119246,0.65472019,-0.90884471,0.41044599,0.074400023,0
-2.7256985,7.9674268,-2.5555198,-0.30973846,0.90538937,-0.29039997,0
7.1374974,-5.0226836,1.1264008,0.81107926,-0.57075948,0.1280001,0
-5.7737617,3.2076461,5.8150396,-0.65610927,0.36450523,0.66079992,0
0,3.4488823,8.0959997,0,0.39191845,0.91999996,0
-1.4032043,-0.35080084,8.6803198,-0.15945503,-0.039863732,0.98639995,0
6.7018986,-0.63827646,5.6672006,0.76157939,-0.072531417,0.64400005,0
-4.0397573,5.193974,-5.8432007,-0.45906332,0.59022433,-0.66400003,0
-6.1085744,3.445863,-5.3152003,-0.69415617,0.39157534,-0.60400003,0
8.2694178,3.0070612,0.1196807,0.93970656,0.34171149,0.013600078,0
3.9732554,-3.9732554,6.77248,0.45150629,-0.45150629,0.76959997,0
-7.2316194,4.8988385,-1.0700794,-0.8217749,0.55668616,-0.12159993,0
0.69990426,1.7497627,8.5958405,0.079534575,0.19883665,0.97680002,0
0.70216656,1.0532498,8.7084808,0.07979165,0.11968748,0.98960006,0
