0.54327226,6.2476273,-6.2445588,0.061386693,0.70594656,-0.70559984,0
-8.1249847,-2.8547242,-2.0390403,-0.91807735,-0.3225677,-0.23040003,0
4.2016568,7.7030368,-1.1540395,0.47476345,0.87039959,-0.13039994,0
6.7399774,-0.64190304,5.6994009,0.76157933,-0.072531417,0.64400005,0
-0.54327166,-6.2476254,-6.2445607,-0.061386626,-0.70594633,-0.70560002,0
5.0900435,4.771914,5.44452,0.57514614,0.53919929,0.61519998,0
4.5126319,6.3176851,-4.2480016,0.50990188,0.71386272,-0.48000017,0
0.99750155,8.1795111,-3.2284818,0.11271203,0.9242385,-0.36480018,0
8.4619484,-2.3799231,1.0266004,0.95615232,-0.26891786,0.11600003,0
1.8721613,8.5584526,1.2531605,0.21154363,0.96705675,0.14160004,0
0.65992224,-5.9393063,6.52776,0.074567482,-0.67110801,0.73759997,0
6.3464613,-6.0820251,1.0266001,0.71711421,-0.68723446,0.11600001,0
2.3674951,4.3967772,7.3065605,0.26751354,0.49681094,0.82560003,0
-0.64827484,6.4827442,5.9896808,-0.073251389,0.73251343,0.67680007,0
0.51834065,-8.811799,0.63719994,0.058569562,-0.99568349,0.071999989,0
1.408903,1.0566757,8.6730003,0.15919808,0.11939838,0.98000002,0
-5.422236,6.9714456,0.56640053,-0.61268198,0.78773391,0.064000055,0
1.2521803,-7.2000327,4.9914002,0.1414893,-0.81356299,0.56400001,0
-4.3579626,-7.6905231,0.43187982,-0.49242514,-0.86898565,0.048799977,0
0.33508638,2.0524046,-8.6022005,0.037862867,0.23191012,-0.972,0
0.69311655,-3.4655859,8.1136808,0.078318253,-0.39159161,0.91680008,0
-3.4503651,-1.7251831,7.9650002,-0.38987175,-0.19493593,0.89999998,0
-6.3365803,5.4725013,2.8674002,-0.71599776,0.61836171,0.324,0
-6.46416,1.2928329,5.9047203,-0.7304135,0.1460828,0.66720003,0
-7.3389254,0.50038075,-4.9205999,-0.82925707,0.056540195,-0.55599999,0
-7.2323651,0.82185984,-5.0338802,-0.81721634,0.092865512,-0.56879997,0
7.5323849,2.4103627,3.9718804,0.8511169,0.27235734,0.44880003,0
-5.4405093,6.246511,-3.1151996,-0.61474681,0.70582044,-0.35199994,0
1.3590647,-4.4654989,-7.5189605,0.15356663,-0.50457615,-0.84960002,0
2.5557129,6.3892832,5.5648808,0.28878111,0.72195286,0.62880009,0
-2.8353605,6.4583216,-5.3454018,-0.3203797,0.72975379,-0.60400015,0
4.2385516,2.7550588,-7.2640786,0.47893235,0.31130606,-0.82079983,0
-2.2645268,-8.5548792,0.092039786,-0.25587872,-0.96665299,0.010399976,0
-2.4530931,0.35044181,-8.4960012,-0.27718565,0.039597943,-0.9600001,0
4.0575757,7.8615518,0.23363931,0.4584831,0.88831091,0.026399922,0
-7.4513364,-0.31047204,4.7648401,-0.84195888,-0.035081584,0.53839999,0
6.1713681,4.0030499,-4.9206009,0.6973297,0.45232201,-0.55600005,0
-1.5250787,6.7103467,-5.5648799,-0.17232527,0.75823122,-0.62879997,0
-2.9843168,0.30452219,-8.3260813,-0.33721092,0.034409285,-0.94080013,0
-3.4712451,2.2012773,-7.8375597,-0.39223108,0.24873188,-0.88559991,0
-4.0615015,-7.2526822,3.0373204,-0.45892671,-0.81951207,0.34320003,0
5.0375104,1.6791699,-7.079999,0.56921017,0.18973671,-0.79999983,0
-3.9958308,-3.9958308,6.8109603,-0.45150629,-0.45150629,0.76959997,0
-3.7947745,6.0083928,5.2746,-0.42878807,0.67891443,0.59599996,0
-1.3048728,-6.1981468,6.1808405,-0.14744325,-0.70035553,0.69840002,0
-5.2766571,5.2766576,4.75776,-0.59623241,0.59623247,0.53759998,0
0.86277205,-8.3401384,2.8319993,0.097488366,-0.94238847,0.3199999,0
-2.7863202,-1.3931595,8.2835999,-0.31483844,-0.15741915,0.93599993,0
-5.1623344,-4.2773633,-5.7772808,-0.5833146,-0.48331785,-0.65280008,0
7.7225895,2.3761809,3.6108007,0.87260896,0.26849499,0.40800005,0
-1.4056966,-8.6684618,-1.0974003,-0.15883577,-0.97948718,-0.12400003,0
5.9696631,4.7406149,-4.4957981,0.6745382,0.53566265,-0.50799978,0
3.1969953,-6.0742893,5.5861201,0.36124238,-0.68636036,0.63120002,0
7.3981905,0,-4.8568802,0.83595371,0,-0.54879999,0
3.5463312,7.0926623,-3.9294,0.40071538,0.80143076,-0.44399998,0
-3.0685003,3.4094455,7.5685201,-0.34672317,0.38524806,0.85519999,0
-7.6691079,-2.0575657,-3.9081602,-0.86656582,-0.23249328,-0.44159999,0
6.4583216,-2.8353605,-5.3454018,0.72975379,-0.3203797,-0.60400015,0
1.8216939,-7.5903912,4.1701202,0.20584111,-0.85767126,0.47120002,0
-1.3931595,-2.7863202,8.2835999,-0.15741915,-0.31483844,0.93599993,0
2.0647635,-8.4884748,-1.416,0.2333066,-0.95914966,-0.16,0
-8.7224197,1.495272,-0.077879727,-0.98558408,0.16895728,-0.0087999692,0
-2.5446959,6.2868962,-5.6852407,-0.28753623,0.71038371,-0.64240009,0
-5.7902551,4.4667678,-4.9843192,-0.65426606,0.5047195,-0.56319988,0
2.4530947,0.35044181,8.4960003,0.27718583,0.039597943,0.95999998,0
8.6775742,0.8135218,1.5363605,0.98051679,0.091923364,0.17360005,0
5.6543593,0.66521806,6.7755599,0.63891065,0.075165875,0.76559997,0
7.1462383,1.6619163,-4.9489212,0.80748451,0.18778715,-0.55920011,0
0.96610248,-3.2433443,-8.1773996,0.10916412,-0.36647958,-0.92399991,0
0.70388097,1.7597046,8.64468,0.079534568,0.19883667,0.97679996,0
1.3974715,-2.4455738,8.3898001,0.15790638,-0.27633601,0.94799995,0
-8.2262173,-2.7420721,1.7699996,-0.92951602,-0.30983865,0.19999994,0
-7.289196,4.4856601,2.2514398,-0.8236379,0.50685424,0.25439996,0
4.4569607,4.5962405,-6.1100392,0.50361133,0.51934922,-0.69039989,0
-6.220005,-0.32736838,6.2870402,-0.70282543,-0.036990777,0.71039999,0
-3.3238318,4.6533647,6.7543206,-0.3755742,0.52580386,0.76320004,0
-1.5212942,-7.2684054,-4.8144007,-0.17189765,-0.8212887,-0.54400003,0
7.3981905,0,-4.8568802,0.83595371,0,-0.54879999,0
0.33508638,-2.0524046,-8.6022005,0.037862867,-0.23191012,-0.972,0
5.5300155,-3.2529497,6.09588,0.62486047,-0.36756492,0.68879998,0
0.94565105,8.7472677,-0.95580041,0.10685322,0.98839182,-0.10800004,0
-5.6666989,0.12056795,-6.7968001,-0.64030492,0.013623497,-0.76800001,0
-1.0523987,2.1047974,8.5314007,-0.1189151,0.23783021,0.96400005,0
6.4729486,5.0018239,3.3771589,0.73140657,0.5651778,0.38159984,0
7.2270956,-4.0150528,-3.1576805,0.81662095,-0.45367825,-0.35680005,0
7.3972216,4.8464551,0.33983919,0.83584422,0.54762203,0.038399909,0
7.1656394,5.1889105,-0.22656025,0.80967671,0.58631754,-0.025600027,0
-4.2430882,-7.690598,1.0832392,-0.47944498,-0.86899412,0.1223999,0
5.6628671,6.0673585,-3.0727196,0.63987195,0.68557721,-0.34719995,0
3.6871443,6.6719761,-4.4957991,0.41662645,0.75389558,-0.5079999,0
-2.7708948,6.6827469,-5.0976014,-0.31309545,0.75511259,-0.57600015,0
-6.5452986,-3.4284902,4.8710399,-0.7395817,-0.3874,0.55039996,0
-5.438251,-6.7978144,1.5930004,-0.61449164,-0.76811457,0.18000004,0
-3.4284902,-6.5452986,4.8710399,-0.3874,-0.7395817,0.55039996,0
-5.6389656,1.3268162,6.6906004,-0.63717121,0.14992273,0.75599998,0
-2.5227044,-0.98714525,-8.4252014,-0.28505132,-0.11154183,-0.95200014,0
-4.2385497,2.7550571,-7.2640805,-0.47893214,0.31130588,-0.82080001,0
0.16799141,-7.3916287,-4.8639603,0.018982081,-0.83521223,-0.54960001,0
-7.4886861,-3.744343,2.8674006,-0.84617919,-0.42308959,0.32400006,0
-0.96610248,-3.2433443,-8.1773996,-0.10916412,-0.36647958,-0.92399991,0
2.2017999,-8.5625572,-0.3964794,0.24879093,-0.96752053,-0.044799931,0
-1.7986265,3.3626497,-7.9862404,-0.20323463,0.37996039,-0.90240002,0
-3.6746159,-5.5854158,-5.7985201,-0.41521081,-0.63112038,-0.6552,0
6.9657993,1.2665087,-5.3099999,0.78709596,0.14310832,-0.59999996,0
1.522612,7.6130581,4.2480001,0.17204654,0.86023253,0.47999999,0
0.68306345,-4.4399166,7.6251607,0.077182308,-0.5016855,0.86160004,0
2.8747249,7.186811,-4.2904797,0.32482764,0.812069,-0.48479995,0
-6.220005,0.32736838,6.2870402,-0.70282543,0.036990777,0.71039999,0
-2.010072,-5.0251799,7.00212,-0.22712676,-0.56781691,0.79119998,0
8.7263842,1.0577441,1.0266007,0.98603207,0.11951911,0.11600008,0
4.223824,-4.8736434,6.0604801,0.47726822,-0.55069417,0.68479997,0
2.2733312,8.4113235,-1.5505207,0.25687358,0.950432,-0.17520006,0
-1.8290259,8.622551,0.79296088,-0.20666958,0.97429949,0.089600094,0
4.3250861,6.1786947,4.630321,0.48871028,0.69815755,0.52320009,0
-6.9866652,0.63515079,5.3949604,-0.78945369,0.071768448,0.60960001,0
-7.2129116,0.94081366,5.0409608,-0.81501824,0.10630663,0.56960005,0
-5.3987861,-4.6048474,-5.2887611,-0.61003232,-0.52032173,-0.5976001,0
-6.4045568,3.4486072,-5.0409589,-0.72367871,0.38967311,-0.56959987,0
-0.40424281,-8.286973,-3.0797999,-0.045677152,-0.9363811,-0.34799996,0
-1.2210484,7.6315541,4.3117204,-0.13797157,0.86232245,0.48720002,0
-2.2219245,-6.6657743,5.3808002,-0.2510649,-0.75319481,0.60799998,0
-3.7227609,5.894371,-5.4516001,-0.42065093,0.66603059,-0.616,0
-2.219826,8.3243465,2.0248795,-0.25082779,0.94060409,0.22879992,0
5.4271493,0.5773564,-6.9667225,0.6132372,0.065238006,-0.78720027,0
-5.8516102,-5.6565566,-3.4762816,-0.66119885,-0.6391589,-0.39280018,0
-3.6754549,1.0166152,-7.9862404,-0.41530561,0.11487176,-0.90240002,0
-4.3451252,1.641492,-7.5331202,-0.49097458,0.18547931,-0.85119998,0
7.7810783,-3.7793803,-1.869121,0.87921786,-0.42704859,-0.2112001,0
3.7252378,-6.4345007,-4.800241,0.4209308,-0.72706217,-0.54240006,0
-3.7179041,-3.3799121,7.2853203,-0.42010215,-0.38191095,0.82319999,0
8.8440056,0,-0.32568073,0.99932259,0,-0.036800083,0
-7.609601,-3.2040424,-3.1859999,-0.85984188,-0.36203867,-0.35999998,0
-2.4542089,-1.8878531,-8.2906799,-0.27731171,-0.21331672,-0.93679994,0
-0.98026693,-6.2083569,6.2304006,-0.11076462,-0.70150924,0.70400006,0
-3.3069215,7.2151008,3.9152396,-0.37366343,0.8152656,0.44239992,0
6.687295,1.910656,5.4728408,0.7556265,0.21589333,0.61840004,0
-3.0308683,-8.0101528,-2.2302001,-0.34247097,-0.90510195,-0.252,0
7.4510002,-3.3333421,-3.4196396,0.84192091,-0.37664881,-0.38639992,0
-7.6511774,3.6839004,2.492161,-0.8645398,0.41625991,0.28160012,0
-1.2990013,-7.7940092,-3.9860411,-0.14677981,-0.88067895,-0.45040011,0
-7.853323,-3.7912586,1.5080395,-0.88738108,-0.42839077,0.17039993,0
-7.6103249,1.6307834,-4.2126007,-0.85992366,0.18426931,-0.47600007,0
-3.2418671,-8.1046677,1.4584795,-0.36631265,-0.91578162,0.16479994,0
7.7676959,0,-4.2409205,0.87770569,0,-0.47920004,0
6.2868962,-2.5446959,-5.6852407,0.71038371,-0.28753623,-0.64240009,0
3.0684993,-3.4094446,7.5685205,0.34672308,-0.38524795,0.85520005,0
3.350868,7.7488813,-2.6550009,0.37862915,0.87557977,-0.3000001,0
-7.2924967,0.66295457,-4.97016,-0.82401091,0.074910119,-0.56159997,0
0.30730763,6.9144282,-5.5153193,0.034724023,0.78129131,-0.62319988,0
-3.349746,7.004014,4.2479992,-0.37850237,0.79141396,0.4799999,0
-5.4271517,-0.5773567,-6.9667201,-0.61323744,-0.065238044,-0.78719997,0
-0.28828704,8.3603325,2.8886392,-0.032574806,0.94467032,0.32639989,0
1.9313612,7.3742876,-4.4958014,0.2182329,0.83325279,-0.50800014,0
3.3954496,3.3954496,7.4339995,0.3836666,0.3836666,0.83999991,0
-1.3161944,5.9228764,6.4428,-0.14872253,0.66925156,0.72799999,0
-8.0432758,-3.632447,0.65844023,-0.90884471,-0.41044596,0.074400023,0
7.7556357,3.0614347,-2.9665194,0.87634301,0.34592482,-0.33519992,0
7.5609627,-3.7804813,-2.619601,0.85434604,-0.42717302,-0.29600009,0
0,4.7577581,-7.4623218,0,0.53759974,-0.84320015,0
-7.289196,4.4856601,2.2514398,-0.8236379,0.50685424,0.25439996,0
-0.69830519,-2.7932198,8.3685598,-0.078904539,-0.31561804,0.94559991,0
-6.7585273,0.75094771,-5.6639996,-0.76367539,0.084852844,-0.63999993,0
5.9609246,0.90709716,-6.478199,0.67355078,0.10249685,-0.73199987,0
0,8.8098049,-0.8425203,0,0.99545813,-0.095200032,0
7.4915972,-4.0668669,-2.3788812,0.84650815,-0.45953295,-0.26880014,0
-4.7412109,-1.3546315,7.3490405,-0.53573,-0.15306571,0.83040005,0
-6.2370262,-6.2370262,-0.72215933,-0.70474869,-0.70474869,-0.081599921,0
1.5363439,8.7059479,0.41064125,0.17359817,0.98372287,0.046400141,0
-4.7412109,1.3546326,7.3490405,-0.53573,0.15306583,0.83040005,0
8.3243465,-1.2486521,-2.7328787,0.94060409,-0.14109063,-0.30879983,0
6.3695221,-5.8156505,1.9823992,0.71972001,-0.65713561,0.2239999,0
6.091352,-6.3256345,-1.097399,0.68828833,-0.7147609,-0.12399988,0
-7.2129116,0.94081366,5.0409608,-0.81501824,0.10630663,0.56960005,0
-2.6989014,7.4969482,3.8515201,-0.30496061,0.84711277,0.43519998,0
6.8257785,-0.60673571,-5.6002793,0.77127439,-0.068557702,-0.63279992,0
8.5973482,-1.6120028,1.3452004,0.97145176,-0.1821472,0.15200004,0
1.2856591,8.7424784,0.48852119,0.14527221,0.98785061,0.055200133,0
-6.0083928,-3.7947745,5.2746,-0.67891443,-0.42878807,0.59599996,0
-2.0264146,-8.6122608,0.21239969,-0.22897339,-0.97313678,0.023999965,0
4.9517255,7.2972789,0.74340123,0.55951697,0.82455122,0.084000133,0
4.1019058,-1.7091277,7.6534801,0.46349216,-0.19312176,0.86479998,0
1.0821064,-8.656846,1.4868003,0.1222719,-0.97817463,0.16800003,0
-4.5052614,6.0647755,-4.6090808,-0.50906909,0.68528533,-0.52080005,0
-5.9005547,6.1815343,2.3009989,-0.66672933,0.6984784,0.25999987,0
5.825943,1.0132073,-6.5843987,0.65829861,0.11448669,-0.74399984,0
-0.89157426,-8.0241671,3.6249609,-0.10074285,-0.90668553,0.40960008,0
0,-7.3981905,-4.8568802,0,-0.83595371,-0.54879999,0
-3.6443796,-0.68332124,-8.0358,-0.41179428,-0.07721144,-0.90799993,0
5.8373003,-4.9156213,4.4816403,0.6595819,-0.55543739,0.50639999,0
-3.3441145,-6.8642349,-4.4745593,-0.37786603,-0.77561975,-0.50559992,0
-4.6472435,0.29045245,-7.5260396,-0.52511221,0.032819483,-0.85039991,0
-2.0787735,-8.5749388,0.68676066,-0.23488966,-0.96891958,0.077600069,0
7.4416933,-3.6202831,-3.1364405,0.84086925,-0.40907153,-0.35440004,0
-8.3164024,-3.0241468,0.1203607,-0.93970644,-0.34171149,0.013600078,0
3.4269545,-7.7106466,2.6691608,0.38722649,-0.87125945,0.30160007,0
1.3752341,-8.054944,-3.3983998,0.15539367,-0.9101631,-0.38399997,0
-4.0030499,6.1713681,-4.9206009,-0.45232201,0.6973297,-0.55600005,0
4.3910265,3.8891945,-6.6268816,0.49616116,0.439457,-0.74880016,0
-2.1545775,-4.4117541,-7.3632011,-0.24345507,-0.49850327,-0.83200008,0
-7.5652046,4.4918404,-0.95579964,-0.85482532,0.50755256,-0.10799996,0
3.0614347,-7.7556357,-2.9665194,0.34592482,-0.87634301,-0.33519992,0
1.7658583,-1.667755,-8.5101614,0.199532,-0.18844688,-0.96160012,0
-4.5250173,2.6487908,-7.1295605,-0.51130134,0.29929838,-0.80560005,0
-0.27602944,6.3486733,-6.1595988,-0.031189766,0.71736419,-0.69599986,0
7.9749346,3.3228889,-1.9186803,0.90112251,0.37546766,-0.21680002,0
7.884953,3.1966021,-2.4355199,0.89095509,0.36119795,-0.27519998,0
4.7567272,-0.33976594,7.4552407,0.53748327,-0.038391631,0.84240007,0
-3.062458,7.0436544,4.3966799,-0.34604043,0.79589313,0.49679998,0
1.82355,8.1046686,-3.0514784,0.20605084,0.91578174,-0.34479982,0
7.1462383,1.6619163,-4.9489212,0.80748451,0.18778715,-0.55920011,0
0.0030920627,-0.0023190472,-8.8499994,0.00034938561,-0.00026203922,-0.99999988,0
-0.63515174,-6.9866652,5.3949604,-0.071768552,-0.78945369,0.60960001,0
0.96168101,-6.7317739,5.664,0.10866451,-0.76065236,0.63999999,0
-4.6908679,5.6290412,4.9630799,-0.53004158,0.63604981,0.56079996,0
-1.2648062,-6.3240304,-6.0604796,-0.14291595,-0.7145797,-0.68479991,0
-6.4080849,5.2065692,-3.1859994,-0.72407734,0.58831286,-0.35999992,0
6.4937539,-5.9742532,0.67968041,0.7337575,-0.67505682,0.076800041,0
7.4571428,-2.982857,3.7170002,0.84261495,-0.33704597,0.42000002,0
8.1248302,2.5657361,-2.3930399,0.91805989,0.28991365,-0.27039999,0
-5.2430258,-7.0780849,0.85668111,-0.59243226,-0.79978359,0.096800119,0
5.5877981,-3.9265606,-5.6286001,0.63138962,-0.44367915,-0.63599998,0
7.2766767,-4.6306129,-1.9823996,0.82222331,-0.52323306,-0.22399995,0
2.4530947,-0.35044181,8.4960003,0.27718583,-0.039597943,0.95999998,0
-8.5924492,-1.3567026,-1.6283998,-0.97089815,-0.15329972,-0.18399997,0
1.9166151,-4.4384775,-7.4127603,0.21656667,-0.50152284,-0.83759999,0
0,2.7955148,8.3968801,0,0.31587738,0.94879997,0
4.6908669,5.6290412,4.9630804,0.53004146,0.63604981,0.56080002,0
8.4687691,-2.3524358,-1.0336807,0.95692301,-0.26581195,-0.11680007,0
-0.68727082,8.70543,-1.4372398,-0.077657714,0.98366439,-0.16239996,0
3.62011,-7.7971601,2.1027601,0.40905195,-0.88103503,0.2376,0
-3.0609353,8.2409801,-1.0195211,-0.34586838,0.93118417,-0.11520012,0
3.4677558,-0.34677517,8.1349201,0.39183679,-0.039183635,0.9192,0
-2.6878645,6.8876534,-4.8639617,-0.3037135,0.77826589,-0.54960018,0
-6.6243229,5.8599787,0.31859973,-0.74851102,0.66214448,0.035999969,0
-8.5625572,2.2017999,-0.3964794,-0.96752053,0.24879093,-0.044799931,0
-3.6754549,1.0166152,-7.9862404,-0.41530561,0.11487176,-0.90240002,0
-1.5727005,-8.5375175,-1.7204398,-0.17770626,-0.96469122,-0.19439997,0
1.9130416,8.4720421,1.6992,0.21616288,0.95729285,0.192,0
5.9418831,-2.898479,-5.8834815,0.67139918,-0.32751173,-0.66480017,0
-5.6103053,6.8299365,-0.44603854,-0.63393277,0.77174419,-0.050399832,0
5.5278435,6.6334128,1.9399201,0.62461507,0.74953812,0.2192,0
3.6160994,7.9102168,-1.6354818,0.40859878,0.8938098,-0.18480019,0
-0.70615721,-1.0592353,8.7579603,-0.079791769,-0.1196876,0.9896,0
-2.2018003,8.5625572,-0.39648125,-0.24879099,0.96752053,-0.04480014,0
3.9731853,-3.4213541,-7.1295609,0.44894746,-0.38659367,-0.80560005,0
-1.248652,-8.3243465,-2.7328806,-0.14109062,-0.94060409,-0.30880004,0
6.4750075,-0.97125119,5.9542804,0.73163927,-0.10974589,0.6728,0
7.003921,4.3774495,3.1789203,0.79140347,0.49462703,0.3592,0
2.3524363,8.4687691,-1.0336812,0.26581201,0.95692301,-0.11680012,0
6.3365812,5.4725013,2.8673992,0.71599787,0.61836171,0.32399991,0
-8.1975126,-3.1732306,1.0265999,-0.92627257,-0.35855711,0.11599998,0
-6.694057,3.955579,4.2267604,-0.75639057,0.44695807,0.47760004,0
-8.4293642,1.4048944,2.3009994,-0.95247048,0.15874512,0.25999993,0
-3.1020584,-2.4127119,7.9296002,-0.35051507,-0.27262279,0.89599997,0
-6.6125007,2.8339279,5.1542401,-0.74717516,0.32021782,0.58239996,0
-5.5878563,6.8578234,0.26196077,-0.63139617,0.77489525,0.029600086,0
2.5800743,6.1276779,5.8410006,0.2915338,0.69239295,0.66000003,0
-8.6765394,-1.7353078,-0.16991964,-0.98039991,-0.19607997,-0.019199958,0
-7.7098565,3.6407659,-2.3718011,-0.87117016,0.41138595,-0.26800013,0
4.6912146,2.6806936,7.0092006,0.53008074,0.30290323,0.79200006,0
7.690598,-4.2430882,1.0832392,0.86899412,-0.47944498,0.1223999,0
0.27191231,-8.7012024,1.5930004,0.030724553,-0.98318666,0.18000004,0
-1.8216939,7.5903912,4.1701202,-0.20584111,0.85767126,0.47120002,0
3.4412732,-8.0296383,-1.4159993,0.3888444,-0.90730375,-0.15999991,0
4.0627112,5.2234864,-5.8764,0.45906341,0.59022444,-0.66399997,0
-5.447093,-6.0307097,-3.5046003,-0.61549073,-0.68143612,-0.39600003,0
-6.7448964,0.3211852,5.7206402,-0.76213515,0.036292113,0.64639997,0
-2.878854,-6.2122636,-5.6073599,-0.32529423,-0.70195067,-0.63359994,0
8.2781525,-2.4834456,1.9045196,0.93538439,-0.28061533,0.21519995,0
-1.4362813,3.4017189,-8.0428791,-0.16229166,0.38437501,-0.90879989,0
5.6764584,0,-6.789722,0.64140767,0,-0.76720017,0
7.004014,3.349746,4.2479992,0.79141396,0.37850237,0.4799999,0
-0.75573826,-8.816946,0.1132803,-0.085394152,-0.99626505,0.012800033,0
-8.4960003,0,-2.4780004,-0.95999998,0,-0.28000003,0
8.7925367,1.0048618,0.063718699,0.99350691,0.1135437,0.0071998527,0
-6.1289048,-6.3740611,-0.36107966,-0.69253159,-0.72023284,-0.04079996,0
6.149786,-2.2657106,5.9472003,0.69489104,-0.2560125,0.67199999,0
-6.5452986,3.4284902,4.8710399,-0.7395817,0.3874,0.55039996,0
3.1853626,-6.067358,-5.6002798,0.35992795,-0.68557715,-0.63279992,0
0.0011855147,-0.0040646219,-8.8499994,0.00013395646,-0.00045927928,-0.99999988,0
-2.1017945,1.4011971,8.4818401,-0.23749089,0.15832734,0.95839995,0
3.4094455,-3.0685003,7.5685201,0.38524806,-0.34672317,0.85519999,0
-5.8373003,-4.9156213,4.4816403,-0.6595819,-0.55543739,0.50639999,0
0.7599057,7.9790058,-3.7524014,0.085865043,0.90158254,-0.42400014,0
8.453414,0.63400549,-2.5417187,0.95518798,0.071639039,-0.28719985,0
-5.3137512,-0.67835128,-7.0446,-0.60042381,-0.07664986,-0.79599994,0
5.2421083,-6.4070206,3.12936,0.59232861,-0.72395712,0.35359997,0
-7.8585129,2.6195037,3.1152012,-0.88796753,0.2959891,0.35200012,0
6.9918728,0.31781206,5.4161992,0.7900421,0.035910964,0.61199987,0
3.2040429,7.6096005,-3.1860006,0.36203873,0.85984182,-0.36000004,0
0.84201473,8.4201422,-2.5912788,0.095142901,0.95142847,-0.29279986,0
8.8249416,0,0.66552126,0.99716848,0,0.07520014,0
-1.7962563,7.7837768,3.8090405,-0.20296681,0.87952274,0.43040004,0
3.7327785,-7.2690954,-3.3984003,0.42178288,-0.82136667,-0.384,0
-3.1635013,-7.764956,2.8320007,-0.35745776,-0.87739611,0.32000008,0
-6.644949,4.2286034,4.0356007,-0.75084168,0.47780827,0.45600006,0
-3.849854,7.9403238,-0.6725992,-0.43501174,0.89721167,-0.075999908,0
3.3954496,-3.3954487,7.434,0.3836666,-0.38366652,0.83999997,0
4.2286034,-6.644949,4.0356007,0.47780827,-0.75084168,0.45600006,0
-8.1684303,-2.9950914,1.6213193,-0.92298645,-0.33842841,0.18319991,0
0.68672287,4.1203413,7.8021603,0.0775958,0.46557528,0.88159996,0
2.0524046,0.33508638,-8.6022005,0.23191012,0.037862867,-0.972,0
0.51834065,8.811799,0.63720137,0.058569562,0.99568349,0.072000153,0
-8.0616922,-0.19194487,-3.6462011,-0.91092563,-0.021688685,-0.41200012,0
1.3367528,-5.3470082,6.9242401,0.1510455,-0.60418171,0.78239995,0
2.0979273,-1.7482731,8.4181204,0.23705393,-0.19754498,0.95120001,0
-7.1689329,-3.5844665,3.7523997,-0.81004888,-0.40502444,0.42399994,0
-6.3325443,3.1662731,5.3100004,-0.71554172,0.35777095,0.60000002,0
-1.577094,2.1753016,-8.4322796,-0.1782027,0.24579677,-0.95279992,0
1.0234939,-4.4351439,7.5897603,0.11564902,-0.5011462,0.85759997,0
5.6302428,-6.7026706,1.3027207,0.63618559,-0.75736386,0.14720006,0
-6.5063434,3.7179105,4.7082,-0.73518002,0.42010286,0.53199995,0
6.5479245,-5.8463616,-1.125719,0.73987842,-0.66060579,-0.12719987,0
6.6334128,-5.5278435,1.9399201,0.74953812,-0.62461507,0.2192,0
-3.2616758,-7.412899,3.56832,-0.36855093,-0.83761567,0.4032,0
-3.4423656,-2.0654194,7.8871202,-0.38896784,-0.23338072,0.89120001,0
3.7954023,-0.69007343,7.9650002,0.428859,-0.077974394,0.89999998,0
2.6365261,-1.4715494,-8.3190012,0.29791254,-0.16627675,-0.94000012,0
8.453414,-0.63400614,-2.5417187,0.95518798,-0.071639106,-0.28719985,0
0.69369483,3.3297346,-8.1703224,0.078383595,0.37624118,-0.92320025,0
-1.9480683,6.1688828,6.0392404,-0.2201207,0.6970489,0.68239999,0
-6.8907866,3.6267297,-4.2055197,-0.77861995,0.40979996,-0.47519994,0
1.4003909,6.8463569,-5.4303598,0.15823625,0.77359962,-0.61359996,0
7.8260689,-4.031611,-0.90623897,0.88430154,-0.45554924,-0.10239988,0
-4.5508924,-4.5508924,6.0746408,-0.51422513,-0.51422513,0.68640006,0
-8.8059092,0.23799732,-0.84960026,-0.99501795,0.026892351,-0.096000023,0
2.898479,5.9418831,-5.8834815,0.32751173,0.67139918,-0.66480017,0
-7.5019112,4.6563582,0.60179895,-0.84767354,0.52614218,0.067999877,0
3.9953916,-6.4273686,-4.587841,0.45145667,-0.72625631,-0.51840007,0
3.0308683,8.0101528,-2.2302001,0.34247097,0.90510195,-0.252,0
2.0575657,-7.6691079,-3.9081602,0.23249328,-0.86656582,-0.44159999,0
-3.1328802,-1.8648096,-8.0641212,-0.35399774,-0.21071294,-0.91120011,0
1.4103254,0.70516169,8.7084007,0.1593588,0.079679281,0.98400003,0
-1.3367517,5.3470092,6.9242396,-0.15104538,0.60418183,0.78239995,0
-8.5375175,1.5727005,-1.7204398,-0.96469122,0.17770626,-0.19439997,0
-3.7977986,-0.34525406,7.9862399,-0.42912978,-0.039011758,0.90239996,0
-1.717539,3.7785854,7.8163199,-0.19407219,0.4269588,0.88319993,0
2.0737031,3.1105535,8.0216408,0.23431672,0.35147497,0.90640002,0
4.1007504,7.6547341,1.7062817,0.46336162,0.86494166,0.19280018,0
0,7.7676959,-4.2409205,0,0.87770569,-0.47920004,0
-6.0027719,-6.5030022,-0.014159974,-0.67827928,-0.73480248,-0.0015999969,0
-8.7942123,0.47536239,-0.87084025,-0.99369627,0.053713262,-0.098400027,0
-4.001359,-6.4637341,4.5311999,-0.45213094,-0.7303654,0.51199996,0
-3.7977986,0.34525406,7.9862399,-0.42912978,0.039011758,0.90239996,0
-1.3161945,-5.0454121,-7.1508007,-0.14872254,-0.57010305,-0.80800003,0
-7.6716466,-0.71364135,-4.3542004,-0.8668527,-0.08063744,-0.49200001,0
-6.5452986,3.4284902,4.8710399,-0.7395817,0.3874,0.55039996,0
6.6321883,-5.526823,-1.9470006,0.74939978,-0.62449974,-0.22000006,0
7.1357408,4.9058228,-1.8266406,0.80629838,0.55433023,-0.20640007,0
-2.8029561,-6.8516703,4.8498001,-0.31671819,-0.77420002,0.54799998,0
8.8440056,0,-0.32568073,0.99932259,0,-0.036800083,0
-3.7977986,0.34525406,7.9862399,-0.42912978,0.039011758,0.90239996,0
8.2781525,-2.4834456,1.9045196,0.93538439,-0.28061533,0.21519995,0
5.6690798,1.1091676,-6.7047586,0.64057398,0.12532966,-0.75759983,0
-8.3164024,3.0241468,0.1203607,-0.93970644,0.34171149,0.013600078,0
8.3072844,0,-3.0514817,0.93867618,0,-0.34480017,0
2.1283376,8.5133524,1.1469606,0.24049012,0.96196067,0.12960006,0
1.0577441,-8.7263842,1.0266007,0.11951911,-0.98603207,0.11600008,0
-6.5917959,-4.4944062,3.8302801,-0.74483567,-0.50784248,0.43279999,0
-5.0243063,7.2852449,0.063719459,-0.56771821,0.82319146,0.0071999384,0
-6.0754814,-0.79245412,-6.3861609,-0.68649507,-0.089542836,-0.72160006,0
1.7091277,-4.1019058,7.6534801,0.19312176,-0.46349216,0.86479998,0
5.9393063,-0.6599232,6.52776,0.67110801,-0.074567586,0.73759997,0
5.3470092,1.3367528,6.9242396,0.60418183,0.1510455,0.78239995,0
0,2.4535954,8.5030804,0,0.27724239,0.96079999,0
2.2657106,-6.149786,5.9472003,0.2560125,-0.69489104,0.67199999,0
-2.0264146,-8.6122608,0.21239969,-0.22897339,-0.97313678,0.023999965,0
5.932466,0.98874336,6.4923601,0.67033511,0.11172241,0.73359996,0
-3.0225062,-4.3658423,-7.079999,-0.34152612,-0.49331549,-0.79999983,0
1.6551161,-5.6273928,6.6268806,0.18701875,-0.63586354,0.74880004,0
7.0087347,1.7929324,-5.0976009,0.79194736,0.20259123,-0.57600009,0
-0.66521907,-5.6543584,6.7755604,-0.075165994,-0.63891053,0.76560003,0
1.046379,2.7903461,8.3331604,0.11823491,0.31529334,0.94160002,0
-1.3752341,-8.054944,-3.3983998,-0.15539367,-0.9101631,-0.38399997,0
1.4114623,0,8.7367201,0.15948726,0,0.98719996,0
-0.89157426,-8.0241671,3.6249609,-0.10074285,-0.90668553,0.40960008,0
-6.7448964,-0.3211852,5.7206402,-0.76213515,-0.036292113,0.64639997,0
6.5452981,-3.4284902,4.8710408,0.73958164,-0.3874,0.55040008,0
-4.754725,-7.3962388,1.0053598,-0.53725702,-0.83573318,0.11359997,0
-1.5426445,7.4046922,4.5949197,-0.1743101,0.83668834,0.51919997,0
-3.6145053,4.9288697,6.4003205,-0.40841866,0.55693442,0.72320002,0
3.9118707,-4.8561149,-6.2799621,0.44201928,-0.54871351,-0.70960021,0
4.229836,5.8566966,-5.1117606,0.47794756,0.66177362,-0.57760006,0
-0.64827484,6.4827442,5.9896808,-0.073251389,0.73251343,0.67680007,0
3.4518089,0,-8.1490812,0.39003488,0,-0.92080009,0
-2.1047974,-1.0523987,8.5314007,-0.23783021,-0.1189151,0.96400005,0
8.7731743,-0.26585352,1.1328008,0.99131906,-0.030039946,0.12800008,0
1.783935,-8.4736929,-1.8266397,0.20157456,-0.95747936,-0.20639995,0
-0.86694694,-1.8577433,-8.6092796,-0.0979601,-0.20991449,-0.9727999,0
3.9814465,3.2282,-7.2145209,0.44988093,0.36476836,-0.81520009,0
4.6306124,-7.2766771,-1.9823986,0.523233,-0.82222337,-0.22399983,0
1.4517971,-8.710783,-0.5805608,0.16404487,-0.9842692,-0.06560009,0
-8.748251,0.79529482,1.0761609,-0.98850292,0.089863814,0.1216001,0
-3.1105545,2.0737031,8.0216398,-0.35147506,0.23431672,0.90639997,0
-7.1357408,4.9058228,-1.8266406,-0.80629838,0.55433023,-0.20640007,0
-8.0082121,-1.1864017,3.5754008,-0.90488267,-0.13405669,0.40400007,0
2.8339281,6.6125002,5.1542411,0.32021785,0.74717516,0.58240008,0
5.8566971,2.6029758,6.1029601,0.66177368,0.29412156,0.68959999,0
6.8605719,4.1759996,3.7169998,0.77520585,0.47186434,0.41999996,0
-8.0101528,3.0308683,-2.2302001,-0.90510195,0.34247097,-0.252,0
-2.8941531,-7.8142133,2.9806809,-0.32702294,-0.88296193,0.3368001,0
5.7714291,-6.4373636,-1.8903606,0.65213883,-0.7273857,-0.21360005,0
-6.4173985,4.278265,4.3400402,-0.72512972,0.48341975,0.49040002,0
-3.909385,7.8187699,-1.3805984,-0.4417384,0.88347679,-0.15599981,0
6.3240304,-1.2648062,-6.0604796,0.7145797,-0.14291595,-0.68479991,0
0,5.0654168,7.2570009,0,0.57236344,0.82000005,0
7.0695143,-1.1246953,-5.2038002,0.79881513,-0.12708421,-0.588,0
6.8605719,4.1759996,3.7169998,0.77520585,0.47186434,0.41999996,0
-4.6963406,2.9352129,-6.9030008,-0.53065991,0.33166245,-0.78000003,0
-7.5329938,-4.6169963,-0.50976008,-0.85118568,-0.52169448,-0.057600006,0
8.7610531,-1.2515793,-1.2660028e-06,0.98994946,-0.14142138,-1.4305115e-07,0
6.5758309,-1.0229069,-5.8339195,0.74303174,-0.1155827,-0.65919989,0
1.3766558,3.7858019,7.8800402,0.15555432,0.42777422,0.89039999,0
8.1561117,-3.3583987,-0.72215849,0.9215945,-0.37948006,-0.081599824,0
3.4925148,-7.6013551,-2.8886409,0.39463443,-0.85891014,-0.32640007,0
0.57605219,-8.3527651,2.8673992,0.065090641,-0.94381523,0.32399991,0
5.1601505,-4.1926217,5.8409996,0.58306783,-0.47374254,0.65999991,0
6.3930483,-5.9364023,-1.4867985,0.72237831,-0.67077988,-0.16799982,0
0.3536455,0.70729101,8.8146,0.039959941,0.079919882,0.99599993,0
2.622278,-2.1392267,-8.1774006,0.29630259,-0.24172051,-0.92400002,0
-0.70743376,0,8.8216801,-0.079936013,0,0.99679995,0
-1.1271216,-8.453414,2.3647196,-0.12735836,-0.95518798,0.26719993,0
7.6503816,-4.4421573,-0.24780029,0.86444986,-0.50193864,-0.028000033,0
4.1756997,7.5162597,2.0956814,0.47183046,0.84929484,0.23680015,0
6.7026706,5.6302428,1.3027207,0.75736386,0.63618559,0.14720006,0
-3.921988,-4.9024849,6.2374802,-0.44316247,-0.55395305,0.70480001,0
-5.8503385,-4.9639239,-4.4108396,-0.66105515,-0.56089532,-0.49839994,0
-4.7406149,5.9696631,-4.4957981,-0.53566265,0.6745382,-0.50799978,0
6.1762123,-3.7382336,-5.1188397,0.69787705,-0.42239925,-0.57839996,0
-7.2924967,0.66295457,-4.97016,-0.82401091,0.074910119,-0.56159997,0
4.5799446,4.2528057,6.2658005,0.51750785,0.48054299,0.708,0
1.995945,5.1659746,-6.9030004,0.22553049,0.58372593,-0.78000003,0
-6.6091871,5.1634274,-2.8249197,-0.74680078,0.5834381,-0.31919995,0
0,-7.3981905,-4.8568802,0,-0.83595371,-0.54879999,0
-1.4114614,0,8.7367201,-0.15948716,0,0.98719996,0
1.0534698,7.5498667,-4.4958005,0.11903613,0.85309225,-0.50800002,0
-7.85991,-3.3685329,2.2797599,-0.88812536,-0.38062516,0.25759998,0
-3.9815166,5.8926444,-5.2675204,-0.44988886,0.6658355,-0.5952,0
5.6543593,0.66521806,6.7755599,0.63891065,0.075165875,0.76559997,0
2.7672563,2.4213495,8.0499601,0.3126843,0.27359879,0.90959996,0
-3.2616758,7.412899,3.56832,-0.36855093,0.83761567,0.4032,0
-3.9057157,-7.4003038,-2.8815608,-0.44132379,-0.83619249,-0.32560009,0
-2.622278,-2.1392267,-8.1774006,-0.29630259,-0.24172051,-0.92400002,0
-2.3799231,-8.4619484,1.0266004,-0.26891786,-0.95615232,0.11600003,0
8.5400009,-1.3774198,1.8691199,0.96497184,-0.15564065,0.21119998,0
-2.2657106,6.149786,5.9472003,-0.2560125,0.69489104,0.67199999,0
-5.9105244,-1.6418126,6.3790798,-0.66785586,-0.18551554,0.72079992,0
5.8463616,6.5479245,-1.125719,0.66060579,0.73987842,-0.12719987,0
-0.77605987,8.7953434,0.60180128,-0.087690376,0.99382406,0.068000138,0
5.3089375,-7.0785842,0.1770006,0.59987992,-0.79983997,0.020000067,0
7.4455218,-0.62046045,4.7435999,0.84130186,-0.070108525,0.53599995,0
-7.8857918,-1.7310276,-3.6249599,-0.89104986,-0.19559634,-0.40959999,0
0.84720635,-8.4720716,2.4142797,0.09572953,-0.95729619,0.27279997,0
0,8.0671749,-3.6391211,0,0.91154516,-0.41120011,0
-0.83080721,8.5850077,1.9823999,-0.093876518,0.97005731,0.22399998,0
-7.2684059,1.5212938,-4.8144002,-0.82128876,0.17189759,-0.54399997,0
7.0780849,-5.2430258,0.85668111,0.79978359,-0.59243226,0.096800119,0
1.7133013,-8.3523455,-2.3717992,0.19359335,-0.94376779,-0.26799989,0
2.4653251,-4.0431328,-7.47648,0.27856779,-0.45685115,-0.84479994,0
5.3706555,5.9673944,3.7240803,0.60685372,0.67428184,0.42080003,0
5.6389661,1.3268162,6.6905999,0.63717127,0.14992273,0.75599998,0
-6.0259075,5.1220222,3.9718802,-0.68089348,0.57875955,0.4488,0
-0.61265588,-2.4506233,-8.4818401,-0.069226652,-0.27690658,-0.95839995,0
-6.7585273,0.75094771,-5.6639996,-0.76367539,0.084852844,-0.63999993,0
6.4501867,1.6125472,5.8410006,0.72883463,0.18220872,0.66000003,0
8.2743921,1.9094745,-2.4921589,0.93495953,0.21575981,-0.28159985,0
7.8979392,-2.3401306,3.2355607,0.8924225,-0.26442152,0.36560005,0
1.5212938,-7.2684059,-4.8144002,0.17189759,-0.82128876,-0.54399997,0
4.7423749,-7.1135612,-2.2868402,0.53586155,-0.80379218,-0.25840002,0
-4.2307072,6.6219769,-4.0710006,-0.478046,0.74824595,-0.46000004,0
-2.3360143,7.7867136,-3.4975188,-0.2639564,0.87985462,-0.39519984,0
-7.2790117,3.447953,-3.6674402,-0.82248718,0.3895992,-0.41440001,0
0.77097267,-5.1765313,-7.1366401,0.087115549,-0.5849188,-0.8064,0
-8.173645,-1.1676633,3.1860001,-0.92357564,-0.13193935,0.35999998,0
-6.3176856,-4.5126328,-4.2479997,-0.71386278,-0.509902,-0.47999993,0
-5.5359445,5.2283926,4.5099597,-0.62553042,0.59077883,0.50959992,0
4.4755468,5.0722857,-5.7064795,0.5057115,0.57313961,-0.64479995,0
7.4915972,4.0668669,-2.3788812,0.84650815,0.45953295,-0.26880014,0
-2.3804281,4.0807343,7.4835601,-0.2689749,0.46109989,0.84559995,0
4.419837,1.6999378,7.4764805,0.49941659,0.19208336,0.8448,0
3.5463312,7.0926623,-3.9294,0.40071538,0.80143076,-0.44399998,0
-7.5965071,-3.2139072,3.2072403,-0.85836232,-0.36315334,0.36240003,0
-2.9352129,-4.6963406,-6.9030008,-0.33166245,-0.53065991,-0.78000003,0
3.6611891,4.326859,6.7968001,0.41369367,0.48891059,0.76800001,0
0.62045956,7.4455218,4.7435999,0.070108421,0.84130186,0.53599995,0
-2.8353612,-6.4583225,-5.3454003,-0.32037979,-0.72975391,-0.60400003,0
8.0082121,1.1864026,3.5754008,0.90488267,0.13405678,0.40400007,0
1.7482731,-2.0979273,8.4181204,0.19754498,-0.23705393,0.95120001,0
-6.2156396,0.65427721,6.2658005,-0.70233214,0.073929623,0.708,0
-8.1439552,3.4550109,-0.24779895,-0.92022091,0.39039668,-0.02799988,0
-0.70231354,2.1069396,8.5668001,-0.07935746,0.23807226,0.96799999,0
-8.5089207,-1.6468879,1.79124,-0.96145993,-0.18608902,0.20239998,0
-4.4569607,4.5962405,-6.1100392,-0.50361133,0.51934922,-0.69039989,0
5.6302428,6.7026706,1.3027207,0.63618559,0.75736386,0.14720006,0
2.4119639,-3.2436755,-7.8729606,0.27253827,-0.36651698,-0.88960004,0
8.2384253,1.9885851,2.5487993,0.93089545,0.22469887,0.2879999,0
7.0436544,-3.062458,4.3966799,0.79589313,-0.34604043,0.49679998,0
-6.0673585,5.6628671,-3.0727196,-0.68557721,0.63987195,-0.34719995,0
1.2816163,-3.6846466,-7.9437613,0.1448154,-0.41634423,-0.89760011,0
8.6168518,-1.630215,-1.1894403,0.97365552,-0.18420509,-0.13440003,0
-3.4219186,-2.7375355,7.6888804,-0.38665745,-0.30932602,0.86879998,0
2.4530931,0.35044181,-8.4960012,0.27718565,0.039597943,-0.9600001,0
-3.9894035,1.8133651,-7.68888,-0.45078003,0.2049,-0.86879998,0
-6.3464613,-6.0820251,1.0266001,-0.71711421,-0.68723446,0.11600001,0
0.13855824,6.3736849,-6.1383591,0.015656298,0.72019035,-0.69359988,0
7.4510002,-3.3333421,-3.4196396,0.84192091,-0.37664881,-0.38639992,0
-6.1930175,5.308301,3.4337997,-0.69977593,0.59980798,0.38799995,0
5.829596,-6.2614193,-2.2656002,0.65871137,-0.70750499,-0.25600001,0
0.94565105,8.7472677,-0.95580041,0.10685322,0.98839182,-0.10800004,0
-7.5819969,2.9161522,-3.5116789,-0.85672277,0.32950872,-0.39679986,0
-5.3649774,0.33531076,7.0304403,-0.60621208,0.037888218,0.79439998,0
-5.792366,-2.290005,-6.2870402,-0.6545046,-0.25875762,-0.71039999,0
3.2782779,5.245244,6.3295193,0.37042686,0.5926829,0.71519989,0
1.6418126,5.9105244,6.3790798,0.18551554,0.66785586,0.72079992,0
5.1751366,6.9751835,-1.6992007,0.58476114,0.78815627,-0.19200008,0
-0.90488392,7.8423266,4.0002007,-0.10224677,0.88613856,0.45200005,0
-2.8906698,-5.6436882,-6.1737604,-0.32662934,-0.63770485,-0.69760001,0
-4.6448255,-7.4317212,-1.2319194,-0.52483898,-0.83974248,-0.13919993,0
-2.7486458,3.0922253,7.8234005,-0.31058145,0.34940398,0.884,0
-2.3360143,7.7867136,-3.4975188,-0.2639564,0.87985462,-0.39519984,0
-4.1131086,-4.7986264,-6.1950006,-0.46475801,-0.54221767,-0.70000005,0
-3.2436755,-2.4119639,-7.8729606,-0.36651698,-0.27253827,-0.88960004,0
4.5799446,4.2528057,6.2658005,0.51750785,0.48054299,0.708,0
6.8907866,3.6267297,-4.2055197,0.77861995,0.40979996,-0.47519994,0
0,0.35392886,8.8429203,0,0.03999196,0.99919999,0
-4.8423014,-4.5194807,5.8693204,-0.5471527,-0.51067579,0.66320002,0
-4.2773633,-5.1623344,-5.7772808,-0.48331785,-0.5833146,-0.65280008,0
3.2139072,7.5965071,3.2072403,0.36315334,0.85836232,0.36240003,0
-3.3228893,7.9749341,-1.9186809,-0.37546772,0.90112245,-0.21680009,0
1.8721613,8.5584526,1.2531605,0.21154363,0.96705675,0.14160004,0
-8.2982922,-2.7660973,-1.3452009,-0.9376601,-0.31255335,-0.1520001,0
8.1226549,-1.1886811,-3.3063617,0.91781408,-0.13431424,-0.37360018,0
1.7554265,-1.4043406,8.55972,0.19835328,-0.15868255,0.96719998,0
-5.9742532,6.4937539,0.67968041,-0.67505682,0.7337575,0.076800041,0
-8.2298813,-2.6691508,-1.8620404,-0.92993003,-0.30159894,-0.21040003,0
2.7747815,-2.0810866,8.1420002,0.31353462,-0.23515102,0.91999996,0
-3.5462248,-8.1056576,0.21240062,-0.40070334,-0.9158935,0.024000069,0
-3.4423656,-2.0654194,7.8871202,-0.38896784,-0.23338072,0.89120001,0
1.7579232,-1.0547538,8.6092806,0.19863538,-0.11918122,0.97280002,0
-1.8721613,8.5584526,1.2531605,-0.21154363,0.96705675,0.14160004,0
1.8648096,-3.1328802,-8.0641212,0.21071294,-0.35399774,-0.91120011,0
6.1815343,5.9005542,2.3009999,0.6984784,0.66672927,0.25999996,0
5.0976009,-3.0585608,-6.5560794,0.57600009,-0.34560007,-0.7407999,0
3.4328885,-2.4030211,7.7950802,0.38789698,-0.2715278,0.88080001,0
8.6074228,-0.27765852,2.0390401,0.97259009,-0.031373844,0.2304,0
-5.3975887,6.5339241,2.5487995,-0.60989702,0.73829645,0.28799993,0
6.5148301,2.4818404,-5.451602,0.73613894,0.28043392,-0.61600018,0
8.8482304,0,0.17699882,0.99980003,0,0.019999865,0
3.5844665,7.1689329,3.7523997,0.40502444,0.81004888,0.42399994,0
6.6754122,-0.890055,-5.7418795,0.75428385,-0.10057119,-0.6487999,0
5.3089375,-7.0785842,0.1770006,0.59987992,-0.79983997,0.020000067,0
-3.4094446,3.0684993,7.5685205,-0.38524795,0.34672308,0.85520005,0
-3.2258704,-5.8065672,5.8480802,-0.36450511,-0.65610927,0.66079998,0
2.1047974,-1.0523987,8.5314007,0.23783021,-0.1189151,0.96400005,0
-6.220005,0.32736838,6.2870402,-0.70282543,0.036990777,0.71039999,0
3.1281257,1.0427078,8.212801,0.35346052,0.11782008,0.92800009,0
-3.1230671,6.5748782,-5.0338788,-0.35288894,0.74292403,-0.56879985,0
-1.1772832,-8.7118931,-1.0195204,-0.13302635,-0.98439467,-0.11520004,0
-3.3902414,-6.7804818,4.5665998,-0.3830781,-0.76615608,0.51599997,0
7.4003038,-3.9057157,-2.8815608,0.83619249,-0.44132379,-0.32560009,0
-5.6132164,1.9811355,6.5490007,-0.63426173,0.2238571,0.74000007,0
-0.31781209,-6.9918723,5.4162002,-0.035910968,-0.79004204,0.61199999,0
0.62800777,7.2220969,5.0763597,0.070961326,0.81605613,0.57359993,0
0,-2.1086519,8.5951204,0,-0.23826574,0.97119999,0
-5.8566971,-2.6029768,6.1029601,-0.66177368,-0.29412165,0.68959999,0
7.6432004,-2.9396925,3.3559206,0.8636384,-0.33216864,0.37920004,0
5.9418831,2.898479,-5.8834815,0.67139918,0.32751173,-0.66480017,0
0.67017299,-1.9686327,-8.6022005,0.075725757,-0.22244437,-0.972,0
-6.0673585,5.6628671,-3.0727196,-0.68557721,0.63987195,-0.34719995,0
-6.3892832,2.5557129,5.5648808,-0.72195286,0.28878111,0.62880009,0
-3.4712451,2.2012773,-7.8375597,-0.39223108,0.24873188,-0.88559991,0
-5.3072619,-2.3219268,6.6906004,-0.59969062,-0.2623646,0.75599998,0
3.8439922,3.7309337,-7.0445981,0.43434939,0.42157441,-0.79599977,0
-7.5864272,-3.9337029,2.3010011,-0.85722339,-0.4444862,0.26000011,0
-3.7613378,2.1493359,-7.7172017,-0.42500991,0.24286281,-0.87200016,0
8.2781525,-2.4834456,1.9045196,0.93538439,-0.28061533,0.21519995,0
-5.5769687,2.6244555,6.3507609,-0.63016593,0.29654863,0.71760005,0
4.6334701,7.3590393,1.6425604,0.52355593,0.83152986,0.18560003,0
-6.4729481,-5.0018234,3.3771605,-0.73140651,-0.56517774,0.38160005,0
8.3998766,1.6799754,2.2231195,0.94913858,0.18982773,0.25119993,0
8.1237259,-3.4067235,0.84960002,0.91793507,-0.38494051,0.096000001,0
4.4105611,5.6707225,5.1684003,0.49836847,0.64075959,0.58399999,0
-3.6387556,-4.6311426,6.6056404,-0.4111588,-0.5232929,0.7464,0
-0.53817314,-7.7138152,-4.3046408,-0.060810521,-0.8716175,-0.48640007,0
-5.696476,4.691215,-4.8851991,-0.64366955,0.5300808,-0.55199987,0
5.2341938,-6.8870974,1.8691201,0.5914343,-0.77820307,0.2112,0
0.13801442,-3.3813565,-8.1774006,0.015594849,-0.38207415,-0.92400002,0
-5.4374399,-5.0976005,-4.7719202,-0.61439997,-0.57600003,-0.53920001,0
1.015431,-4.3386593,-7.6464005,0.11473797,-0.49024397,-0.86400002,0
6.9581957,-5.4671545,-0.12743883,0.78623676,-0.61775756,-0.014399867,0
8.2781525,2.4834449,1.9045199,0.93538439,0.28061524,0.21519998,0
-8.4687691,2.3524363,-1.0336812,-0.95692301,0.26581201,-0.11680012,0
-8.816946,-0.75573826,0.1132803,-0.99626505,-0.085394152,0.012800033,0
-0.32736838,-6.220005,6.2870402,-0.036990777,-0.70282543,0.71039999,0
5.5300155,-3.2529497,6.09588,0.62486047,-0.36756492,0.68879998,0
-7.8760033,3.9380009,0.88500005,-0.88994384,0.44497183,0.1,0
3.5604029,5.5024409,5.9471998,0.40230539,0.62174469,0.67199993,0
-2.9352129,-4.6963406,-6.9030008,-0.33166245,-0.53065991,-0.78000003,0
-2.2856779,5.8774581,6.2091603,-0.25826868,0.66411954,0.70160002,0
2.3534477,4.7068954,7.1154008,0.26592627,0.53185254,0.80400008,0
-0.99750167,-8.179512,-3.2284801,-0.11271205,-0.92423862,-0.36480001,0
4.8736424,4.223824,6.0604811,0.55069405,0.47726822,0.68480009,0
5.9598641,5.2148805,-3.9506388,0.67343092,0.589252,-0.44639984,0
-2.1392267,-2.622278,-8.1774006,-0.24172051,-0.29630259,-0.92400002,0
0.27034065,1.4718552,-8.7225609,0.030546965,0.16631131,-0.98560005,0
5.6302428,-6.7026706,1.3027207,0.63618559,-0.75736386,0.14720006,0
-8.2266436,-2.381397,-2.2302001,-0.92956418,-0.26908439,-0.252,0
6.7804828,3.3902414,4.5665989,0.7661562,0.3830781,0.51599985,0
-7.9691496,-2.8461246,2.5912802,-0.90046883,-0.321596,0.29280001,0
-3.9044657,-0.65074438,-7.9154396,-0.44118255,-0.073530436,-0.89439994,0
-5.573225,1.6100428,-6.6835194,-0.62974292,0.18192573,-0.75519991,0
3.4645667,-6.299211,5.1613202,0.39147645,-0.71177524,0.58319998,0
-7.2151008,3.3069215,3.9152396,-0.8152656,0.37366343,0.44239992,0
-6.5748773,3.1230667,-5.0338807,-0.74292397,0.35288888,-0.56880003,0
5.1414647,-4.9807944,-5.2038002,0.58095646,-0.5628016,-0.588,0
-4.691215,-6.7436213,3.2922006,-0.5300808,-0.76199108,0.37200004,0
8.6074228,0.27765852,2.0390401,0.97259009,0.031373844,0.2304,0
-2.3674951,4.3967772,7.3065605,-0.26751354,0.49681094,0.82560003,0
8.2686644,3.1007493,0.58056027,0.93431234,0.35036713,0.06560003,0
7.4969482,-2.6989014,3.8515201,0.84711277,-0.30496061,0.43519998,0
4.6912155,6.7436213,3.2921989,0.53008085,0.76199108,0.37199986,0
7.7867136,-2.3360143,-3.4975188,0.87985462,-0.2639564,-0.39519984,0
-3.407239,6.6441159,-4.750679,-0.38499874,0.7507475,-0.53679985,0
-6.4939275,-2.1143017,-5.6286006,-0.73377711,-0.23890413,-0.63600004,0
-2.5227044,0.98714525,-8.4252014,-0.28505132,0.11154183,-0.95200014,0
-7.4317212,-4.6448255,-1.2319194,-0.83974248,-0.52483898,-0.13919993,0
5.4374399,5.0976005,-4.7719202,0.61439997,0.57600003,-0.53920001,0
0.67908913,4.7536278,7.4340005,0.076733232,0.53713304,0.84000003,0
-2.9634941,-5.2684336,6.4640403,-0.33485806,-0.59530318,0.73040003,0
2.6299505,-7.5141454,-3.8656802,0.29716954,-0.84905595,-0.4368,0
-5.2148805,5.9598632,-3.95064,-0.589252,0.67343086,-0.44639999,0
-4.8423014,4.5194807,5.8693204,-0.5471527,0.51067579,0.66320002,0
5.6103053,-6.8299365,-0.44604069,0.63393277,-0.77174419,-0.050400075,0
-7.7264285,-2.7735896,-3.3063591,-0.8730427,-0.31339994,-0.37359989,0
6.4583216,2.8353605,-5.3454018,0.72975379,0.3203797,-0.60400015,0
2.4506166,-0.61265415,-8.481842,0.2769058,-0.069226451,-0.95840019,0
-0.65074438,-3.9044657,-7.9154396,-0.073530436,-0.44118255,-0.89439994,0
-3.9044657,-0.65074438,-7.9154396,-0.44118255,-0.073530436,-0.89439994,0
-3.4568965,-1.3827584,8.0287209,-0.39060977,-0.15624388,0.90720004,0
5.1634274,6.6091871,-2.8249197,0.5834381,0.74680078,-0.31919995,0
-4.8477483,-7.2716217,1.3947606,-0.54776812,-0.82165211,0.15760006,0
1.9130416,8.4720421,1.6992,0.21616288,0.95729285,0.192,0
-0.92947763,7.4358211,4.7082,-0.10502572,0.84020573,0.53199995,0
1.8458037,-7.383215,4.5170398,0.20856538,-0.83426154,0.51039994,0
7.040411,-4.1069064,-3.4479611,0.79552662,-0.46405721,-0.3896001,0
-0.25270718,-8.8447599,0.16992031,-0.028554482,-0.99940789,0.019200034,0
8.2781525,2.4834449,1.9045199,0.93538439,0.28061524,0.21519998,0
4.8561149,3.9118707,-6.2799621,0.54871351,0.44201928,-0.70960021,0
-6.6081662,5.8739262,-0.38939962,-0.74668545,0.66372043,-0.043999955,0
4.7456055,0.098866686,-7.4694018,0.53622657,0.011171376,-0.84400016,0
-5.7583513,-2.6049683,-6.1950011,-0.65066111,-0.29434669,-0.70000011,0
7.003921,4.3774495,3.1789203,0.79140347,0.49462703,0.3592,0
-3.9449,-3.010582,-7.3278008,-0.4457514,-0.34017873,-0.82800007,0
5.2766571,5.2766571,-4.7577605,0.59623241,0.59623241,-0.53760004,0
7.4072471,-4.7788687,-0.78587979,0.83697701,-0.53998512,-0.088799976,0
-0.67017388,5.3613892,7.0091996,-0.075725861,0.60580665,0.79199994,0
-2.4530947,0.35044181,8.4960003,-0.27718583,0.039597943,0.95999998,0
-2.117784,7.5635152,4.0780802,-0.23929761,0.85463446,0.46079999,0
0.7599057,-7.9790058,-3.7524014,0.085865043,-0.90158254,-0.42400014,0
2.5657361,8.1248302,-2.3930399,0.28991365,0.91805989,-0.27039999,0
3.6818388,-4.016551,6.9738002,0.41602695,-0.45384756,0.78799999,0
-8.5413332,2.1353326,-0.89916044,-0.96512234,0.24128051,-0.10160004,0
3.8558071,-2.7682719,-7.4693995,0.43568438,-0.31279907,-0.84399992,0
-1.9710399,-8.6232977,-0.27611986,-0.22271636,-0.97438389,-0.031199982,0
-3.7858019,1.3766558,7.8800402,-0.42777422,0.15555432,0.89039999,0
4.8423004,4.5194807,5.8693209,0.54715258,0.51067579,0.66320008,0
6.804297,4.4375839,3.5116801,0.76884711,0.50142187,0.39680001,0
-5.7309313,5.4293032,4.0002003,-0.6475628,0.61348057,0.45200002,0
-6.6710286,-4.7089615,-3.4125607,-0.75378853,-0.53208601,-0.38560006,0
-1.8458037,-7.383215,4.5170398,-0.20856538,-0.83426154,0.51039994,0
3.133961,0,8.2765207,0.35411987,0,0.93520004,0
-4.1007509,-7.6547346,1.7062799,-0.46336168,-0.86494172,0.19279997,0
8.4770994,-0.42385525,-2.5063188,0.95786428,-0.047893245,-0.28319985,0
-7.7138152,0.53817266,-4.3046403,-0.8716175,0.060810469,-0.48640001,0
5.3706555,5.9673944,3.7240803,0.60685372,0.67428184,0.42080003,0
2.08758,2.4355097,8.2482004,0.23588473,0.27519882,0.93199998,0
-3.6846478,-1.2816166,-7.9437609,-0.41634437,-0.14481543,-0.89760005,0
3.9815166,5.8926444,-5.2675204,0.44988886,0.6658355,-0.5952,0
0.99750155,8.1795111,-3.2284818,0.11271203,0.9242385,-0.36480018,0
-6.9720135,5.0111351,-2.1452403,-0.78779811,0.56622994,-0.24240002,0
-0.57269281,8.0176992,-3.702841,-0.064711049,0.90595466,-0.41840011,0
1.0427078,3.1281257,8.212801,0.11782008,0.35346052,0.92800009,0
-0.45927349,-8.7261915,-1.4018399,-0.051895306,-0.98601031,-0.15839997,0
3.7912586,7.853323,1.5080395,0.42839077,0.88738108,0.17039993,0
-7.5609627,-3.7804813,-2.619601,-0.85434604,-0.42717302,-0.29600009,0
-1.2665092,-6.9657993,-5.3100004,-0.14310837,-0.78709596,-0.60000002,0
-2.9846549,-4.9744248,6.6835203,-0.33724913,-0.56208187,0.75520003,0
-0.37995273,-4.5594335,-7.5755997,-0.04293251,-0.51519018,-0.85599995,0
-1.4114614,0,8.7367201,-0.15948716,0,0.98719996,0
-4.1759996,6.8605719,3.7169998,-0.47186434,0.77520585,0.41999996,0
-2.2073255,7.5416951,-4.071002,-0.24941529,0.85216892,-0.46000022,0
0.8627733,-2.7033567,-8.38272,0.097488508,-0.30546403,-0.94719994,0
-2.6632853,-4.9936595,6.8038802,-0.30093616,-0.5642553,0.76880002,0
-6.9308829,-1.8902408,5.1684003,-0.78315055,-0.21358652,0.58399999,0
-2.982857,7.4571428,3.7170002,-0.33704597,0.84261495,0.42000002,0
8.6386566,-1.1366656,-1.5505199,0.97611934,-0.12843679,-0.17519999,0
-8.3072844,0,-3.0514798,-0.93867618,0,-0.34479997,0
-6.4476342,5.4076929,-2.73996,-0.7285462,0.61103874,-0.3096,0
-3.9380016,-7.8760033,0.88499939,-0.44497192,-0.88994384,0.099999927,0
7.9691491,-2.8461249,2.5912814,0.90046877,-0.32159603,0.29280016,0
3.9993415,-7.4273486,2.6762407,0.45190299,-0.83924842,0.30240005,0
-2.7116313,4.0674462,7.3773599,-0.30639902,0.45959842,0.83359993,0
6.7978144,-5.438251,1.5930004,0.76811457,-0.61449164,0.18000004,0
-4.5194807,4.8423004,5.8693209,-0.51067579,0.54715258,0.66320008,0
5.484364,5.484364,4.2621598,0.6197021,0.6197021,0.48159996,0
-0.96610105,3.2433398,-8.1774015,-0.10916395,0.36647907,-0.92400014,0
4.2286034,-6.644949,4.0356007,0.47780827,-0.75084168,0.45600006,0
-7.8531213,0.60408568,4.0356007,-0.88735831,0.068258263,0.45600006,0
-7.3107648,3.8015974,3.2284803,-0.82607508,0.42955899,0.36480004,0
6.0506253,-2.2513955,-6.0534005,0.68368644,-0.25439495,-0.68400002,0
3.0614347,-7.7556357,-2.9665194,0.34592482,-0.87634301,-0.33519992,0
-6.4637341,4.001359,4.5311999,-0.7303654,0.45213094,0.51199996,0
-3.1605902,-0.25800729,-8.2623606,-0.35712883,-0.029153364,-0.93360001,0
8.1254215,-1.7411621,3.0444012,0.9181267,-0.19674146,0.34400013,0
-0.98714525,-2.5227044,-8.4252014,-0.11154183,-0.28505132,-0.95200014,0
4.3807068,6.9693055,-3.2497222,0.49499509,0.7874921,-0.36720023,0
-0.34175181,-4.4427776,7.6464005,-0.038616024,-0.50200874,0.86400002,0
