-1.5817566,-8.1724091,1.7203999,-0.18608901,-0.96145988,0.20239998,0
8.1912031,1.0501546,-2.0127993,0.96367097,0.1235476,-0.23679991,0
-1.0163214,-1.0163214,8.3775997,-0.11956722,-0.11956722,0.98559999,0
-2.6827533,-0.67068863,8.0375996,-0.31561804,-0.078904547,0.94559997,0
8.405592,-1.1674436,-0.48280078,0.98889315,-0.13734631,-0.056800094,0
-2.7534127,-8.0099268,0.71400011,-0.32393092,-0.94234431,0.084000014,0
5.013072,-3.4464869,5.936399,0.58977318,-0.40546906,0.6983999,0
1.1565605,-7.5176387,3.7944002,0.13606595,-0.88442808,0.44640002,0
-3.0000489,-1.3333547,7.8404002,-0.35294694,-0.15686525,0.9224,0
-7.3864498,4.0752831,1.0403986,-0.86899412,0.47944507,0.12239984,0
-3.4122856,7.6120224,1.6319993,-0.40144536,0.89553207,0.19199991,0
-0.86683232,1.4909515,-8.3232002,-0.10198027,0.17540607,-0.97920001,0
-3.2971234,-2.3079863,7.4868002,-0.38789687,-0.2715278,0.88080001,0
-6.5279999,-5.2223997,-1.5368007,-0.76800001,-0.61439997,-0.18080008,0
-3.2611651,3.2611661,7.1399999,-0.38366649,0.3836666,0.83999997,0
-1.1992704,7.9951348,-2.6247988,-0.14109063,0.94060409,-0.30879986,0
-4.9381299,4.7838135,-4.9979997,-0.58095646,0.5628016,-0.58799994,0
8.1998749,1.5105032,-1.6523997,0.96469116,0.17770626,-0.19439995,0
-7.3297405,1.1727592,4.1412001,-0.86232239,0.13797167,0.48720002,0
0.64778739,-2.8267083,-7.9899993,0.076210283,-0.33255392,-0.93999994,0
1.3512686,1.3512686,8.2824001,0.15897278,0.15897278,0.97440004,0
-0.61003274,-6.7103562,5.1816001,-0.07176856,-0.78945369,0.60960001,0
-0.0022273334,0.0029697774,-8.499999,-0.00026203922,0.00034938558,-0.99999988,0
-0.80871397,-8.087141,-2.4888003,-0.095142819,-0.95142835,-0.29280004,0
-6.7986403,5.0989795,0.17000057,-0.79984003,0.59987992,0.020000067,0
6.3157697,-0.98245299,-5.603199,0.74303174,-0.1155827,-0.65919989,0
3.4730902,-7.597383,-1.5708003,0.40859884,-0.8938098,-0.18480003,0
-7.8335829,2.4311109,2.2303994,-0.92159796,0.28601304,0.26239991,0
-6.4769239,4.5056872,3.1619997,-0.76199102,0.53008085,0.37199998,0
-0.33884171,-1.3553678,8.3844004,-0.039863732,-0.15945503,0.98640007,0
-2.3546367,0.67275274,8.1395998,-0.27701607,0.079147384,0.9576,0
-7.2512841,1.0118071,-4.3180003,-0.85309225,0.11903613,-0.50800002,0
0.93751305,-8.4376135,-0.42160082,0.11029565,-0.9926604,-0.049600095,0
-1.6569555,-3.3139098,7.6500001,-0.19493593,-0.38987175,0.90000004,0
6.0382609,2.4440582,-5.4604015,0.71038365,0.28753626,-0.64240021,0
1.5463687,5.3528147,-6.419199,0.18192573,0.62974292,-0.75519991,0
7.8645172,1.5729033,-2.8151984,0.9252373,0.18504745,-0.33119982,0
-2.1200304,-7.2434363,-3.9099998,-0.24941534,-0.85216898,-0.45999998,0
-3.5292919,-5.3645234,-5.5691996,-0.41521081,-0.63112038,-0.65519994,0
5.6978483,0.94964045,6.2356,0.67033511,0.11172241,0.73360002,0
-5.6713791,5.3878102,3.3252003,-0.66722107,0.63386005,0.39120004,0
0.30848297,-6.4781485,5.4943995,0.036292113,-0.76213509,0.64639997,0
0.32183436,-1.971236,-8.2620001,0.037862867,-0.23191011,-0.972,0
2.5399611,5.0799241,6.3239994,0.29881895,0.59763813,0.74399996,0
1.5657432,-8.2760725,-1.1424001,0.18420509,-0.97365558,-0.13440001,0
-4.2664785,-7.3478241,-0.23800027,-0.50193864,-0.86444992,-0.028000033,0
4.8959999,-6.5279999,2.3799994,0.57599998,-0.76800001,0.27999994,0
7.4529057,-4.0870771,2.0265578e-07,0.87681246,-0.48083261,2.3841856e-08,0
-2.5159082,-7.5477238,2.9920006,-0.29598922,-0.88796753,0.35200006,0
-2.1952837,-5.6450162,5.9635997,-0.25826865,-0.66411954,0.70159996,0
4.8716865,-4.2985473,-5.4807992,0.57313961,-0.50571144,-0.64479989,0
-0.76111406,-5.8352079,-6.1336007,-0.089542829,-0.68649507,-0.72160006,0
5.8414931,6.0954709,0.98599911,0.68723446,0.71711421,0.11599989,0
5.6282277,6.3623438,0.30599973,0.66214442,0.74851102,0.035999969,0
1.563261,-5.9403906,5.8751998,0.18391307,-0.69886947,0.69119996,0
2.4064219,-2.6251876,-7.7179999,0.28310847,-0.30884561,-0.90799999,0
-5.6023912,-2.8011956,5.7459998,-0.65910482,-0.32955241,0.676,0
-5.6023912,-2.8011956,5.7459998,-0.65910482,-0.32955241,0.676,0
-5.7396517,1.8262526,-5.9975996,-0.67525315,0.21485324,-0.70559996,0
2.904166,-6.9699969,3.9031994,0.34166658,-0.81999964,0.45919994,0
-2.6043916,3.9065869,7.0855999,-0.30639902,0.45959845,0.83359998,0
-2.102509,-7.9895344,-1.9991996,-0.247354,-0.93994522,-0.23519996,0
-4.1090665,2.2502031,-7.0924015,-0.4834196,0.26472977,-0.83440018,0
5.4425898,-0.11579967,-6.5280018,0.64030468,-0.01362349,-0.76800019,0
-0.6657061,-3.3285286,7.7927999,-0.078318365,-0.39159161,0.91680002,0
7.4529057,-4.0870771,2.0265578e-07,0.87681246,-0.48083261,2.3841856e-08,0
2.8648915,-7.1622272,3.5699997,0.33704606,-0.84261495,0.41999996,0
-2.8439529,7.8755627,-1.4620006,-0.33458269,0.9265368,-0.17200007,0
3.9396832,1.641535,7.3508,0.46349216,0.19312178,0.86479998,0
-6.6289716,-5.2574596,-0.81600052,-0.77987903,-0.61852467,-0.09600006,0
7.9347868,0.58059353,-2.9920013,0.93350434,0.06830512,-0.35200015,0
-6.9888983,-4.4474812,-1.9039994,-0.82222331,-0.52323306,-0.22399993,0
3.0775397,-4.6163096,-6.439599,0.3620635,-0.54309523,-0.75759989,0
-2.1952837,5.6450162,5.9635997,-0.25826865,0.66411954,0.70159996,0
-7.7243028,0.28608504,3.5360007,-0.90874147,0.033657063,0.4160001,0
-7.3086557,-3.0773287,-3.0599997,-0.85984182,-0.36203867,-0.35999995,0
-5.7653737,-6.245821,-0.013599974,-0.67827928,-0.73480248,-0.0015999969,0
2.1749685,-8.2165499,0.088400155,0.25587866,-0.96665293,0.010400019,0
6.3411379,-5.4664974,-1.4688009,0.7460162,-0.64311737,-0.17280011,0
-6.6962838,4.8129544,-2.0604002,-0.78779811,0.56622994,-0.24240004,0
-7.6040907,-2.9873216,2.3459997,-0.8945989,-0.35144961,0.27599996,0
4.1557403,3.516396,6.5279999,0.48891062,0.41369367,0.76800001,0
-2.8267083,-0.64778739,-7.9899993,-0.33255392,-0.076210283,-0.93999994,0
-7.4989047,-1.4420974,3.7332003,-0.88222408,-0.16965853,0.43920004,0
-4.5644159,6.276073,3.4679992,-0.53699011,0.73836154,0.4079999,0
3.0000479,-1.3333547,7.8404002,0.35294682,-0.15686525,0.9224,0
4.261642,-3.1401575,-6.6503997,0.50136966,-0.3694303,-0.78239995,0
-6.418458,2.6613121,-4.8960004,-0.75511271,0.31309554,-0.57600003,0
-0.90360719,-6.9276547,4.8416004,-0.10630673,-0.81501818,0.56960005,0
-2.6849236,-7.7862792,2.1011992,-0.31587338,-0.91603285,0.24719989,0
7.9044056,2.563591,-1.7884003,0.92993009,0.30159894,-0.21040003,0
5.308248,-6.3698978,-1.8700005,0.6244998,-0.74939972,-0.22000006,0
-8.417244,0.51013553,1.0676008,-0.990264,0.060015947,0.1256001,0
-1.5001339,0.6196205,-8.3436003,-0.17648634,0.072896533,-0.98160005,0
4.8640199,-0.32426775,6.9632006,0.57223761,-0.038149148,0.81920004,0
-6.0975943,0.26511252,-5.9160004,-0.71736401,0.031189708,-0.69600004,0
-7.6120224,3.4122856,1.6319993,-0.89553207,0.40144536,0.19199991,0
0,-7.9787474,-2.9307997,0,-0.93867618,-0.34479997,0
-4.1931801,2.9029701,6.8000002,-0.49331531,0.34152588,0.80000001,0
4.5695195,5.9755254,-3.9575984,0.5375905,0.70300299,-0.46559981,0
-3.6446986,5.7707725,5.066,-0.42878807,0.67891443,0.59600002,0
2.6650443,1.9987837,7.8200002,0.31353462,0.23515102,0.92000002,0
5.7313952,-5.1582565,3.5768001,0.67428178,-0.60685372,0.4208,0
2.8662927,-0.29247892,-7.9968009,0.33721089,-0.034409285,-0.94080013,0
0.67453742,-2.0236142,8.2279997,0.079357341,-0.23807226,0.96799994,0
-1.8710259,5.9249153,5.8004003,-0.2201207,0.69704884,0.68240005,0
8.4801207,0.47111735,-0.34000066,0.99766123,0.055425569,-0.040000077,0
1.420696,-7.6717558,3.3728006,0.16714071,-0.90255952,0.39680007,0
-1.6100934,-4.5283875,-7.0107994,-0.18942274,-0.5327515,-0.82479995,0
-5.0347929,6.153636,3.005599,-0.59232855,0.72395718,0.35359988,0
-8.085391,2.6158624,-0.18360038,-0.95122248,0.30774853,-0.021600045,0
-7.6634517,0.72985291,-3.604001,-0.90158254,0.085865051,-0.42400011,0
4.6262398,-4.6262398,-5.4263992,0.54426348,-0.54426348,-0.6383999,0
1.2641423,4.8458786,-6.8679986,0.14872262,0.57010335,-0.80799985,0
-7.3395123,-3.7746067,-2.0331998,-0.86347204,-0.44407138,-0.23919998,0
7.4787636,3.9886744,0.63919896,0.87985456,0.46925581,0.07519988,0
6.9840431,-4.6560292,1.3396006,0.82165211,-0.54776812,0.15760006,0
-2.0892687,-1.5147198,-8.0988016,-0.24579632,-0.17820233,-0.95280021,0
1.0049968,2.6799932,8.0036001,0.11823492,0.31529331,0.94160002,0
-8.0849972,-2.5409994,-0.6527999,-0.95117617,-0.29894111,-0.076799989,0
-6.0821052,-3.0410523,-5.0999999,-0.71554178,-0.35777086,-0.59999996,0
-1.7133844,-8.1385746,-1.7543999,-0.20157464,-0.95747936,-0.20639999,0
-3.3152966,0,-7.8268008,-0.39003491,0,-0.92080009,0
-2.9403613,7.448915,-2.8491998,-0.34592485,0.87634295,-0.33519998,0
-5.5632887,2.1994398,-6.0384007,-0.65450454,0.25875762,-0.7104001,0
-5.0371437,-3.4464667,-5.9159994,-0.59260511,-0.40546668,-0.69599992,0
6.8149433,4.9976254,-0.91120136,0.80175805,0.58795595,-0.10720016,0
-6.0148292,3.6088979,4.8008003,-0.70762694,0.42457622,0.56480002,0
-2.8191321,4.5106111,-6.6299987,-0.3316626,0.53066015,-0.77999985,0
-7.3119764,1.4623957,4.0799999,-0.86023253,0.17204654,0.47999999,0
-7.3520045,-3.9385741,1.6387998,-0.86494172,-0.46336165,0.19279997,0
-5.7688212,-6.0310402,1.6116004,-0.67868483,-0.70953417,0.18960005,0
-0.52178651,6.000546,-5.9975986,-0.061386649,0.70594656,-0.70559984,0
5.112443,1.917166,6.5143995,0.60146385,0.22554894,0.76639992,0
7.6040902,2.9873219,2.3460009,0.89459884,0.35144964,0.27600011,0
4.3722677,7.2871132,0.17679934,0.51438445,0.85730743,0.020799922,0
4.2450409,1.6327085,7.1808,0.49941659,0.19208336,0.8448,0
-5.8274055,-5.4389114,-2.9512005,-0.68557709,-0.63987195,-0.34720007,0
-6.9840431,-4.6560292,1.3396006,-0.82165211,-0.54776812,0.15760006,0
4.2682314,0.44460756,-7.3372011,0.50214487,0.052306771,-0.86320013,0
-8.3343925,-0.78134936,1.4756004,-0.98051679,-0.091923453,0.17360005,0
5.2223997,6.5279999,-1.5368007,0.61439997,0.76800001,-0.18080008,0
-7.0993042,0.16134767,-4.6715999,-0.83521223,0.018982079,-0.54960001,0
5.8843298,-5.3239179,3.0464008,0.69227409,-0.62634325,0.35840011,0
-6.9463391,-0.78935689,-4.8347998,-0.8172164,-0.092865519,-0.56879997,0
-7.6963983,-3.607687,0.0068001896,-0.90545863,-0.42443377,0.00080002233,0
6.5892496,4.0108466,3.5699997,0.77520585,0.47186431,0.41999996,0
-2.7650001,5.9665794,-5.3856015,-0.32529414,0.70195055,-0.63360018,0
-5.4448762,-1.0653019,-6.4396005,-0.64057368,-0.12532963,-0.75760007,0
-2.8244977,5.3351626,5.9839997,-0.33229384,0.62766618,0.704,0
4.1670709,0.97527194,-7.3440022,0.49024364,0.11473788,-0.86400026,0
5.5477333,3.0512538,-5.6711993,0.6526745,0.35897103,-0.66719991,0
-1.0917127,8.2970142,-1.4891999,-0.12843679,0.97611934,-0.17519999,0
-0.33658251,-2.3560796,8.1599998,-0.039597943,-0.27718583,0.95999998,0
7.8295846,1.3981405,2.998801,0.92112762,0.16448712,0.35280013,0
8.4624357,0.70520222,-0.37400058,0.99558067,0.082964964,-0.044000067,0
-1.3422033,2.348856,8.0580006,-0.15790626,0.27633598,0.94800007,0
6.408112,3.5413249,-4.3179994,0.75389552,0.41662645,-0.5079999,0
-6.8822522,4.9836988,-0.21760023,-0.80967671,0.58631754,-0.025600027,0
5.0679755,-5.0679755,-4.5696001,0.59623241,-0.59623241,-0.53760004,0
-3.9573894,6.7840967,3.2504001,-0.46557522,0.79812902,0.38240001,0
-3.419596,-5.2848291,5.7119999,-0.40230539,-0.62174463,0.67199999,0
2.5185719,2.0546246,-7.8540001,0.29630256,0.24172054,-0.92400002,0
-4.173285,-1.5765743,-7.235199,-0.49097469,-0.18547933,-0.85119987,0
-7.205225,-4.4722085,0.577999,-0.84767354,-0.52614218,0.067999884,0
-2.4859555,6.7949448,-4.4608016,-0.29246536,0.79940528,-0.52480018,0
3.4474313,3.7706285,-6.793201,0.40558016,0.44360334,-0.79920012,0
8.1338463,2.259402,-0.99280101,0.95692307,0.26581201,-0.11680012,0
6.0382619,-2.4440579,-5.4604006,0.71038377,-0.28753623,-0.64240009,0
3.3601775,-5.8039422,5.2223997,0.39531499,-0.68281674,0.61439997,0
8.1527719,1.9831061,-1.3599999,0.95914966,0.2333066,-0.15999998,0
5.3645234,3.5292919,-5.5691996,0.63112038,0.41521081,-0.65519994,0
-2.7650008,-5.9665809,-5.3855996,-0.32529423,-0.70195067,-0.63359994,0
-1.0148872,-1.3531827,8.3299999,-0.1193985,-0.15919796,0.98000002,0
-8.1250153,-2.4621258,0.41480082,-0.95588416,-0.28966185,0.048800096,0
1.3457824,2.0186727,8.1463995,0.15832734,0.23749091,0.95839995,0
-7.2344937,-2.3150384,3.8147998,-0.8511169,-0.27235746,0.44879997,0
6.3813543,-3.2724893,-4.562799,0.75074756,-0.38499874,-0.53679991,0
-3.3283904,-5.9003282,-5.1339993,-0.39157534,-0.69415623,-0.60399991,0
-7.8755627,2.8439529,-1.4620006,-0.9265368,0.33458269,-0.17200007,0
0.52178687,6.0005455,-5.9975986,0.06138669,0.70594651,-0.70559984,0
1.0118071,7.2512841,-4.3180003,0.11903613,0.85309225,-0.50800002,0
-6.4520788,5.1078954,2.1283998,-0.75906807,0.60092884,0.25039998,0
-3.7712729,-5.3668118,-5.4060001,-0.44367915,-0.63138962,-0.63600004,0
-3.5413251,-6.4081116,-4.3179998,-0.41662648,-0.75389546,-0.50799996,0
3.8373816,6.1731787,-4.4064007,0.45145667,0.72625631,-0.51840007,0
2.4297986,-6.3782225,5.066,0.28585866,-0.75037909,0.59600002,0
-6.6993289,-4.9704695,-1.6319997,-0.78815633,-0.58476114,-0.19199997,0
-6.4896479,5.3707428,-1.1356012,-0.76348799,0.63185209,-0.13360013,0
-4.5537052,-1.3010585,7.0584002,-0.53573,-0.15306571,0.83039999,0
4.820447,-6.6950655,2.0467999,0.56711143,-0.78765476,0.24079999,0
8.1998749,-1.5105032,-1.6523997,0.96469116,-0.17770626,-0.19439995,0
-8.1385746,-1.7133844,-1.7543999,-0.95747936,-0.20157464,-0.20639999,0
-3.4948499,4.4479895,6.3443999,-0.4111588,0.5232929,0.7464,0
-4.8608112,-0.64810848,6.9428,-0.57186013,-0.076248057,0.8168,0
2.2976553,3.6106019,7.3439999,0.2703124,0.4247767,0.86399996,0
5.5571022,-4.9721437,4.0800004,0.65377671,-0.58495808,0.48000005,0
1.8907697,0.64366633,-8.262002,0.22244349,0.075725451,-0.97200024,0
-3.5568621,-2.4008818,-7.3371997,-0.41845438,-0.28245667,-0.86319995,0
1.0825468,-8.1190977,2.2711995,0.12735845,-0.95518798,0.26719993,0
0.60317129,6.9364772,4.8755994,0.070961326,0.81605613,0.57359993,0
-0.59592247,7.1510658,4.5559998,-0.070108525,0.84130186,0.53599995,0
4.9976254,-6.8149433,-0.91120136,0.58795595,-0.80175805,-0.10720016,0
5.7096682,0,6.2967997,0.67172569,0,0.74079996,0
-1.8874135,-5.6622405,6.0519996,-0.22204864,-0.66614592,0.71199995,0
6.4560757,-2.3057413,-5.0252008,0.75953829,-0.27126369,-0.59120011,0
-4.8479519,1.2927878,6.8611999,-0.57034731,0.15209268,0.80719995,0
-2.5224242,-8.0717573,0.85680038,-0.29675579,-0.94961852,0.10080004,0
-3.5300977,-0.97640997,-7.6703997,-0.41530561,-0.11487176,-0.90239996,0
7.597383,3.4730897,-1.5708017,0.8938098,0.40859878,-0.18480021,0
1.823364,7.475791,-3.6108017,0.21451342,0.8795048,-0.42480019,0
-3.766881,4.7086005,5.9908004,-0.44316247,0.55395299,0.70480007,0
-8.0090027,-2.8267069,-0.34000024,-0.94223559,-0.33255374,-0.040000029,0
-3.390842,5.5486503,5.4739995,-0.39892259,0.65278238,0.64399993,0
6.8368921,3.7033162,3.4339998,0.80434024,0.43568426,0.40399998,0
7.577776,-2.7918119,-2.6519995,0.89150304,-0.32844847,-0.31199995,0
2.2122476,-6.636744,-4.8280005,0.26026443,-0.78079343,-0.56800008,0
8.1338463,2.259402,-0.99280101,0.95692307,0.26581201,-0.11680012,0
-2.749917,-6.1109262,5.2292004,-0.32351965,-0.71893251,0.61520004,0
-0.65956527,-3.9573898,7.4935999,-0.077595912,-0.46557528,0.88159996,0
-2.0186727,1.3457824,8.1463995,-0.23749091,0.15832734,0.95839995,0
-3.1923807,-4.4693327,6.4872003,-0.3755742,-0.52580386,0.76320004,0
-7.290206,-1.7496494,4.0051999,-0.85767126,-0.20584111,0.47119999,0
2.9375997,-4.8959994,-6.2968006,0.34559995,-0.57599992,-0.74080008,0
2.6567035,7.9701104,-1.2920008,0.31255335,0.93766004,-0.15200008,0
0.31442159,5.9740157,6.0384002,0.036990777,0.70282537,0.71040004,0
7.6606603,-1.4947631,-3.3660016,0.90125418,-0.17585449,-0.39600018,0
-4.0567799,4.6808991,5.8208008,-0.47726822,0.55069399,0.68480009,0
-3.8625555,7.4676075,1.251199,-0.4544183,0.87854207,0.14719988,0
5.8889723,-4.4167299,4.25,0.69282025,-0.51961529,0.5,0
5.5042839,-5.2145848,3.8419998,0.6475628,-0.61348057,0.45199996,0
5.8889728,4.416729,4.250001,0.69282031,0.51961517,0.50000012,0
-3.7786403,-1.9332577,-7.3644004,-0.44454592,-0.22744209,-0.86640006,0
6.2755198,5.1841245,2.4479995,0.73829645,0.60989702,0.28799993,0
-5.0169077,3.9020388,-5.6439996,-0.59022444,0.45906338,-0.66399997,0
-4.9692836,-5.4833469,-4.1820006,-0.58462161,-0.64509964,-0.49200007,0
-0.4411101,-8.3810873,-1.3463998,-0.051895306,-0.98601025,-0.15839997,0
3.2118762,-4.1754379,6.6707997,0.37786779,-0.49122798,0.78479999,0
5.0086422,-5.7241631,-3.7943985,0.589252,-0.67343092,-0.44639984,0
-4.9581742,4.108202,-5.5488005,-0.5833146,0.48331788,-0.65280008,0
7.4087491,0.51688898,-4.1344004,0.87161756,0.060810469,-0.48640004,0
-5.3286967,5.1568036,-4.1548004,-0.6269055,0.60668278,-0.48880005,0
8.2165499,-2.1749694,0.088401169,0.96665293,-0.25587875,0.010400138,0
-8.4682531,0.72584957,0.1088004,-0.99626505,0.08539407,0.012800047,0
4.2717528,6.5004935,-3.4272017,0.50255919,0.76476395,-0.40320021,0
-0.61003268,6.7103572,5.1815991,-0.071768552,0.7894538,0.60959989,0
7.3119764,1.4623957,4.0799999,0.86023253,0.17204654,0.47999999,0
-6.9268603,4.5291018,1.938,-0.81492472,0.53283548,0.228,0
6.500494,-4.2717528,-3.4272008,0.76476401,-0.50255919,-0.40320009,0
4.0354896,7.398397,-1.1083994,0.47476348,0.87039965,-0.13039993,0
-3.1005309,-3.8239882,-6.9292006,-0.36476833,-0.44988096,-0.81520009,0
-2.3761883,6.9588385,-4.2636013,-0.27955157,0.8186869,-0.50160015,0
8.1545124,2.3983867,-0.040799111,0.9593544,0.28216314,-0.0047998955,0
-7.2643929,2.0340297,3.9168,-0.85463446,0.23929761,0.46079999,0
-8.1190977,-1.0825461,2.2711995,-0.95518798,-0.12735836,0.26719993,0
1.5040768,3.7601919,-7.4731994,0.17695022,0.44237551,-0.87919992,0
-0.56271833,7.8780513,3.1416011,-0.066202156,0.92682958,0.36960012,0
-2.9413438,-6.7650909,4.2228003,-0.34604046,-0.79589307,0.49680004,0
5.850451,6.0754681,-1.0539989,0.68828833,0.71476096,-0.12399988,0
-5.5102663,-6.4286437,-0.74800038,-0.64826661,-0.756311,-0.088000044,0
-0.92527574,1.7700928,-8.2619991,-0.10885597,0.20824622,-0.97199988,0
-2.6827533,0.67068762,8.0375996,-0.31561804,0.078904428,0.94559997,0
4.6743016,-6.5990138,2.6179993,0.54991782,-0.77635455,0.30799991,0
-2.6500378,-7.0667672,-3.9100006,-0.31176916,-0.83138436,-0.46000007,0
0.95805246,-7.8560281,-3.1007998,0.11271206,-0.92423862,-0.36479998,0
-3.1761391,6.9297571,3.7603996,-0.37366343,0.81526554,0.44239995,0
-4.0229344,-7.0401354,-2.5499995,-0.47328639,-0.82825124,-0.29999995,0
0.32632884,-4.5686078,7.1604004,0.038391627,-0.53748327,0.84240007,0
1.2294286,-6.4544969,5.3923998,0.14463866,-0.75935256,0.63439995,0
-6.7234087,-2.8574483,-4.3452001,-0.79098928,-0.33617041,-0.51120001,0
-6.8474345,4.7405319,1.7000002,-0.80558056,0.55770963,0.20000002,0
-4.0354896,7.398397,-1.1083994,-0.47476348,0.87039965,-0.13039993,0
3.7033162,-6.8368921,3.4339998,0.43568426,-0.80434024,0.40399998,0
-4.1540375,-5.934339,4.4472008,-0.48871028,-0.69815755,0.52320009,0
-1.126418,1.649398,-8.262001,-0.13251977,0.19404683,-0.97200012,0
3.8160546,4.134059,6.3716002,0.44894761,0.48635986,0.74959999,0
-7.5321779,0.86909664,3.8420005,-0.88613856,0.10224666,0.45200005,0
-1.8962127,-4.6351862,-6.868,-0.22308385,-0.54531604,-0.80800003,0
-4.9053407,2.4526701,-6.4940004,-0.57709891,0.28854942,-0.76400006,0
-5.5175118,-3.6783414,5.3175998,-0.64911902,-0.43274605,0.62559998,0
7.5731182,-3.070183,-2.3392003,0.89095509,-0.36119801,-0.27520004,0
-1.4133525,2.5322566,-7.9900007,-0.16627677,0.29791254,-0.94000006,0
2.6638994,7.4208632,-3.1755989,0.31339994,0.8730427,-0.37359986,0
-6.9699969,-2.904165,3.9031997,-0.81999964,-0.34166646,0.45919997,0
1.3885825,-7.9347577,-2.7132003,0.16336264,-0.93350089,-0.31920004,0
-5.3742542,-6.2010632,-2.2168002,-0.63226521,-0.72953683,-0.26080003,0
-2.7918119,-7.577776,-2.6519995,-0.32844847,-0.89150304,-0.31199995,0
-3.1980557,-0.66626155,-7.8471994,-0.37624186,-0.078383714,-0.92319995,0
-5.3645234,-3.5292919,-5.5691996,-0.63112038,-0.41521081,-0.65519994,0
6.2912092,4.766068,-3.1551993,0.74014229,0.56071389,-0.37119991,0
-2.5795224,7.9965196,1.2852,-0.30347323,0.94076699,0.1512,0
-1.6231221,4.5447402,6.9972,-0.19095553,0.5346753,0.82319999,0
5.0445647,3.6811686,-5.7663994,0.5934782,0.43307865,-0.67839992,0
-2.8855007,4.4885559,6.6164002,-0.33947065,0.52806538,0.7784,0
-1.5765743,-4.173285,-7.235199,-0.18547933,-0.49097469,-0.85119987,0
1.0014708,3.0044143,7.8880005,0.11782009,0.35346052,0.92800003,0
-0.84407681,-8.2297506,-1.9515992,-0.099303156,-0.96820593,-0.22959991,0
5.3878102,5.6713791,3.3252003,0.63386005,0.66722107,0.39120004,0
-3.3499091,7.5372963,-2.0536005,-0.39410695,0.88674074,-0.24160007,0
5.2999644,-0.45106065,-6.630002,0.6235252,-0.053065959,-0.78000021,0
3.3440447,7.7170267,1.2307996,0.39341703,0.90788549,0.14479995,0
-6.6089916,3.7510488,-3.8079996,-0.77752841,0.44129986,-0.44799995,0
-0.13255641,-3.2476304,-7.8540006,-0.015594872,-0.38207415,-0.92400008,0
-1.5662895,7.309351,-4.046001,-0.18426935,0.85992366,-0.4760001,0
0,7.1585112,4.5831995,0,0.84217781,0.53919995,0
-5.3750887,-2.2132719,6.2016006,-0.63236338,-0.26038492,0.72960007,0
4.8650894,0,6.9700003,0.57236344,0,0.82000005,0
0.25964919,1.4136461,-8.3776007,0.030546963,0.16631131,-0.98560005,0
4.5579262,0.094956696,-7.1740012,0.53622663,0.011171376,-0.84400016,0
4.6726847,-3.3200653,-6.2763991,0.54972762,-0.39059591,-0.73839992,0
0.5827409,6.5558319,-5.3787994,0.068557754,0.77127433,-0.63279992,0
6.2085152,1.2417037,5.6712003,0.73041356,0.14608279,0.66720003,0
-1.9233305,7.6933222,-3.0599985,-0.22627418,0.90509671,-0.35999984,0
-8.2760725,-1.5657432,-1.1424001,-0.97365558,-0.18420509,-0.13440001,0
4.3988166,4.0846157,6.0180001,0.51750785,0.48054302,0.708,0
-5.2509379,1.9094324,-6.4056005,-0.61775738,0.2246391,-0.75360006,0
0.58019531,-7.5425458,3.8760004,0.068258271,-0.88735831,0.45600006,0
3.3115931,-6.9911408,-3.5223999,0.38959917,-0.82248718,-0.41439998,0
2.3678262,-3.883235,-7.1808,0.27856779,-0.45685118,-0.8448,0
-6.3698978,-5.308248,-1.8700005,-0.74939972,-0.6244998,-0.22000006,0
3.2462442,3.570868,6.9971995,0.38191107,0.42010212,0.82319993,0
-0.26667768,-8.2670164,1.9583999,-0.031373844,-0.97259015,0.23039998,0
7.2960796,-3.0868034,3.0804002,0.85836232,-0.36315334,0.36240003,0
-3.0982935,5.5769291,5.6167998,-0.36450511,0.65610933,0.66079998,0
-1.5837286,-3.3182883,-7.6636,-0.18632101,-0.39038685,-0.9016,0
2.9995553,-6.3148537,-4.8348002,0.35288885,-0.74292397,-0.56880003,0
-2.0868134,-6.8566728,4.5696006,-0.24550746,-0.80666739,0.53760004,0
-5.4425921,-0.11579972,-6.5279999,-0.64030498,-0.013623497,-0.76800001,0
2.6849244,7.7862792,2.1011989,0.31587344,0.91603285,0.24719988,0
2.5000331,-5.6250758,5.8615999,0.29412153,-0.66177362,0.68959999,0
1.8535957,6.1786518,5.5352001,0.21807009,0.72690022,0.6512,0
7.8626323,2.0160601,-2.5227995,0.92501557,0.23718354,-0.29679993,0
8.2199821,-1.798121,1.2036004,0.96705675,-0.21154365,0.14160004,0
-0.6436671,1.8907722,-8.262002,-0.075725541,0.22244379,-0.97200024,0
7.4887972,3.4769418,2.0196011,0.88103497,0.40905198,0.23760013,0
1.6694661,-2.6711457,7.8947997,0.19640778,-0.31425244,0.92879999,0
-3.3339639,2.1142211,-7.5275993,-0.39223105,0.2487319,-0.88559991,0
-6.0975943,0.26511252,-5.9160004,-0.71736401,0.031189708,-0.69600004,0
1.4361367,8.3774643,-0.074801154,0.16895726,0.98558402,-0.0088001359,0
-3.0773287,-7.3086557,-3.0599997,-0.36203867,-0.85984182,-0.35999995,0
7.9951348,-1.1992704,-2.6247988,0.94060409,-0.14109063,-0.30879986,0
-0.29247892,2.8662927,-7.9968009,-0.034409285,0.33721089,-0.94080013,0
2.7610352,6.9025865,-4.1207991,0.32482767,0.812069,-0.48479989,0
-5.8352079,0.76111406,-6.1336007,-0.68649507,0.089542829,-0.72160006,0
0.33658251,2.3560796,8.1599998,0.039597943,0.27718583,0.95999998,0
1.017957,0.33931899,8.4320002,0.11975964,0.039919883,0.99200004,0
0.33747429,2.0248477,8.2483997,0.039702859,0.23821738,0.97039998,0
3.2015152,-7.1563272,-3.2844002,0.37664884,-0.84192085,-0.38640001,0
6.7801147,4.3871341,-2.6519997,0.79766053,0.51613343,-0.31199998,0
-8.1545124,-2.398386,-0.040800083,-0.9593544,-0.28216305,-0.00480001,0
2.176106,5.9065742,5.7119999,0.25601247,0.6948911,0.67199999,0
0.67275274,-2.3546367,8.1395998,0.079147384,-0.27701607,0.9576,0
-2.9873219,7.6040902,2.3460009,-0.35144964,0.89459884,0.27600011,0
5.9754128,0,6.0451999,0.70298976,0,0.7112,0
-6.3997459,3.8052547,-4.1004009,-0.75291127,0.44767702,-0.48240012,0
2.3079863,3.2971244,7.4867997,0.2715278,0.38789698,0.88079995,0
-8.1418467,0.40709192,-2.4072003,-0.95786428,0.047893167,-0.28320003,0
7.7243028,0.28608504,3.5360007,0.90874147,0.033657063,0.4160001,0
5.4478908,-5.4478908,3.5904002,0.64092833,-0.64092833,0.42240003,0
6.4769244,-4.5056863,3.1619995,0.76199108,-0.53008074,0.37199995,0
5.5571022,-4.9721437,4.0800004,0.65377671,-0.58495808,0.48000005,0
-2.9045477,7.9875054,0.11560067,-0.34171149,0.9397065,0.013600078,0
0.74048173,4.971807,-6.8544016,0.087115496,0.5849185,-0.80640018,0
-1.8367556,-8.265399,-0.74800086,-0.21608889,-0.97239989,-0.088000104,0
-8.4633093,-0.49784201,0.61199981,-0.99568343,-0.058569647,0.071999975,0
-1.5171015,-6.6752453,5.0387998,-0.17848253,-0.78532296,0.59279996,0
-2.5399618,5.0799236,6.3239994,-0.29881904,0.59763807,0.74399996,0
4.2888999,1.3053173,-7.2215981,0.50457644,0.15356673,-0.84959978,0
6.3148546,2.9995561,-4.8347988,0.74292409,0.35288894,-0.56879985,0
-5.2556696,3.7098846,5.5556002,-0.61831409,0.43645701,0.65360004,0
-0.48485506,-8.4849586,0.14280026,-0.057041772,-0.99823046,0.016800031,0
-1.5463687,-5.3528147,-6.419199,-0.18192573,-0.62974292,-0.75519991,0
3.5671425,7.643878,1.0471998,0.41966382,0.89927977,0.12319998,0
5.6769214,6.1930046,1.2919989,0.66787308,0.72858876,0.15199986,0
8.2822628,-1.8930889,-0.26520127,0.97438383,-0.22271635,-0.03120015,0
8.447505,0.74536747,0.57800132,0.99382412,0.087690294,0.068000153,0
8.1554661,-0.20388646,-2.3867986,0.95946658,-0.023986643,-0.28079984,0
7.1462626,-4.2348228,1.8020008,0.84073681,-0.49821445,0.21200009,0
-6.0739274,-1.2147856,-5.8207994,-0.7145797,-0.14291595,-0.68479991,0
6.1950946,1.5487741,5.6100001,0.72883463,0.18220872,0.66000003,0
0.2303984,-5.4143677,-6.5483999,0.027105695,-0.63698441,-0.77039999,0
5.3239179,-5.8843307,3.0463998,0.62634325,-0.69227421,0.35839999,0
1.9965612,-8.235816,0.65960091,0.23488955,-0.96891952,0.077600107,0
-0.85485506,6.4114127,-5.5147991,-0.10057119,0.75428385,-0.6487999,0
2.3678262,-3.883235,-7.1808,0.27856779,-0.45685118,-0.8448,0
-6.9276547,-0.90360719,4.8416004,-0.81501818,-0.10630673,0.56960005,0
-4.6507974,4.3407435,5.6372004,-0.54715264,0.51067573,0.66320002,0
2.3571496,-1.8131922,-7.9627995,0.27731171,-0.21331674,-0.93679994,0
5.5042839,-5.2145848,3.8419998,0.6475628,-0.61348057,0.45199996,0
-7.7336602,2.9334576,1.9583989,-0.90984237,0.34511265,0.23039988,0
-8.2670164,0.26667768,1.9583999,-0.97259015,0.031373844,0.23039998,0
4.1090665,2.2502031,-7.0924015,0.4834196,0.26472977,-0.83440018,0
-7.1566505,-0.29819348,4.5763998,-0.84195888,-0.035081588,0.53839999,0
-3.3306117,-0.33306089,7.8132,-0.39183667,-0.039183635,0.9192,0
1.0118071,7.2512841,-4.3180003,0.11903613,0.85309225,-0.50800002,0
-3.9020383,-5.0169067,-5.6440005,-0.45906332,-0.59022433,-0.66400003,0
-6.0821052,3.0410523,-5.0999999,-0.71554178,0.35777086,-0.59999996,0
-3.3283904,5.9003282,-5.1339993,-0.39157534,0.69415623,-0.60399991,0
-7.9083095,3.1153946,-0.054399166,-0.93038934,0.36651701,-0.006399902,0
-4.1432595,6.9054327,2.7199998,-0.48744228,0.81240386,0.31999996,0
-2.3900716,-7.3540673,-3.5292003,-0.28118491,-0.86518437,-0.41520002,0
2.3309228,8.1582289,-0.51000148,0.27422622,0.95979166,-0.060000174,0
2.5579567,4.7961693,6.5348005,0.30093607,0.56425524,0.76880008,0
0.27896541,4.4634509,-7.2284012,0.032819461,0.52511185,-0.85040015,0
-2.1340518,6.4021554,5.1680007,-0.25106493,0.75319475,0.6080001,0
7.5372958,3.3499095,-2.0536013,0.88674068,0.39410701,-0.24160016,0
4.21737,3.7353845,-6.3648014,0.49616119,0.439457,-0.74880016,0
-4.2597427,-0.98301762,7.2895999,-0.5011462,-0.11564913,0.85759997,0
0.25533953,-8.4262123,1.0880008,0.030039946,-0.99131912,0.1280001,0
-3.3440447,-7.7170267,1.2307996,-0.39341703,-0.90788549,0.14479995,0
-5.6450162,-2.1952837,5.9635997,-0.66411954,-0.25826865,0.70159996,0
7.205225,4.4722085,0.577999,0.84767354,0.52614218,0.067999884,0
5.6713791,5.3878102,3.3252003,0.66722107,0.63386005,0.39120004,0
-2.0693681,-4.2372775,-7.0720005,-0.24345507,-0.49850324,-0.83200008,0
2.3165755,3.1153944,-7.5616002,0.2725383,0.36651698,-0.88960004,0
1.0181614,0,8.4387999,0.1197837,0,0.9928,0
1.0653021,5.4448786,-6.4395986,0.12532966,0.64057398,-0.75759983,0
-7.9713697,-1.3743743,2.6111991,-0.93780822,-0.16169108,0.3071999,0
-8.2035398,2.0508842,-0.86360037,-0.96512234,0.2412805,-0.10160004,0
8.0296974,0.27688584,2.7743993,0.94467026,0.032574803,0.32639992,0
1.5040768,3.7601919,-7.4731994,0.17695022,0.44237551,-0.87919992,0
-7.7336602,2.9334576,1.9583989,-0.90984237,0.34511265,0.23039988,0
0.33993167,0,8.4932003,0.03999196,0,0.99920005,0
-4.6114836,5.0726314,-5.0251999,-0.5425275,0.59678018,-0.59119999,0
6.7949452,2.485955,-4.4608011,0.79940534,0.2924653,-0.52480012,0
0.97728473,-4.5606661,7.1060004,0.11497468,-0.53654897,0.83600003,0
5.2237902,-3.9946628,5.3855996,0.61456352,-0.46996033,0.63359994,0
-3.9886737,-7.4787636,0.63919961,-0.46925572,-0.87985456,0.075199954,0
-1.5961903,6.8636189,-4.7532005,-0.1877871,0.80748457,-0.55920005,0
3.5851543,-6.9816165,-3.2640002,0.42178285,-0.82136667,-0.38400003,0
6.0859814,5.2560744,2.7539992,0.71599782,0.61836171,0.32399991,0
-4.4624271,-5.6524076,4.5152001,-0.52499145,-0.66498911,0.53119999,0
-5.9267135,0.64420813,-6.0588007,-0.69726038,0.075789191,-0.71280009,0
-1.4133525,-2.5322566,-7.9900007,-0.16627677,-0.29791254,-0.94000006,0
-5.5306196,2.5019467,-5.9500008,-0.65066111,0.29434666,-0.70000011,0
1.1251513,0.89435107,-8.3775997,0.13237074,0.10521777,-0.98559999,0
-2.4929206,5.2351341,-6.2152004,-0.29328477,0.61589813,-0.73120004,0
-5.8414927,6.0954709,0.986,-0.6872344,0.71711421,0.116,0
4.0870776,7.4529052,-4.8637389e-07,0.48083267,0.8768124,-5.7220458e-08,0
1.7514318,-7.7841439,-2.9308,0.2060508,-0.91578162,-0.3448,0
-2.6921046,-6.5806999,4.658,-0.31671819,-0.77419996,0.54799998,0
-6.8474345,-4.7405319,1.7000002,-0.80558056,-0.55770963,0.20000002,0
4.5656314,-0.65223342,7.1400003,0.5371331,-0.076733343,0.84000003,0
1.017957,0.33931899,8.4320002,0.11975964,0.039919883,0.99200004,0
7.912612,1.9099405,2.4479992,0.93089551,0.22469889,0.2879999,0
-6.6903157,1.2164208,-5.0999999,-0.78709596,0.14310832,-0.59999996,0
-7.5095525,3.7547765,-1.3260006,-0.88347673,0.4417384,-0.15600006,0
-6.8566728,2.0868134,4.5696006,-0.80666739,0.24550746,0.53760004,0
-0.3882558,-7.9592395,-2.9579999,-0.045677155,-0.9363811,-0.34799999,0
0,-5.7096682,6.2967997,0,-0.67172569,0.74079996,0
-6.1512685,-3.3122218,-4.8415995,-0.72367865,-0.38967314,-0.56959993,0
-4.2629442,-1.8408167,-7.1195998,-0.50152284,-0.21656668,-0.83759999,0
-6.3148537,2.9995553,-4.8348002,-0.74292397,0.35288885,-0.56880003,0
5.7875948,-4.9194555,3.8148007,0.68089348,-0.57875949,0.44880009,0
4.3681726,-6.1154428,3.9712002,0.51390266,-0.71946383,0.46720004,0
-5.8274059,3.0593877,-5.3787999,-0.68557715,0.35992795,-0.63279998,0
4.3460598,2.544035,-6.8476019,0.51130116,0.29929823,-0.80560023,0
1.9434559,-7.7738247,2.8356001,0.22864187,-0.91456759,0.33360001,0
0,-4.5695996,7.1672001,0,-0.53759998,0.84320003,0
8.1574497,0.27191472,2.3731995,0.95969999,0.031989966,0.27919993,0
3.6125841,2.0643337,-7.4120011,0.42500991,0.24286279,-0.87200016,0
-7.4787636,2.243629,-3.3592005,-0.87985456,0.26395634,-0.39520004,0
2.5550535,7.3812675,3.3524005,0.30059454,0.86838442,0.39440006,0
-2.348856,1.3422043,8.0579996,-0.27633598,0.1579064,0.94799995,0
-4.8554573,0.9710905,6.9088001,-0.57123029,0.11424594,0.81279999,0
-5.5102668,6.4286437,-0.74799925,-0.64826667,0.756311,-0.08799991,0
7.9932923,-1.1025229,2.6723993,0.94038731,-0.12970857,0.31439993,0
-1.5961903,-6.8636189,-4.7532005,-0.1877871,-0.80748457,-0.55920005,0
-7.084291,-1.3180078,-4.5084004,-0.83344603,-0.15505974,-0.53040004,0
-1.5657432,8.2760725,-1.1424001,-0.18420509,0.97365558,-0.13440001,0
-6.1827784,5.54318,-1.8156005,-0.7273857,0.65213883,-0.21360005,0
-8.3144846,-1.0393103,1.4280003,-0.97817469,-0.12227181,0.16800004,0
2.40347,-6.6095443,4.7736001,0.28276119,-0.77759343,0.56160003,0
3.0705602,5.8340631,5.3651996,0.36124238,0.68636036,0.63119996,0
0.65152377,-5.1036029,-6.7659998,0.076649852,-0.60042387,-0.796,0
-2.1142192,3.3339615,-7.5276012,-0.24873167,0.39223075,-0.88560015,0
-2.8915193,3.788887,-7.0380006,-0.34017873,0.44575143,-0.82800007,0
-0.26511303,6.0975957,-5.9159985,-0.031189768,0.71736419,-0.6959998,0
-0.55452305,5.2125158,-6.6912017,-0.065238006,0.61323714,-0.78720021,0
3.9504418,4.608849,-5.9500017,0.46475786,0.54221755,-0.70000023,0
-6.0954709,5.8414931,0.98599911,-0.71711421,0.68723446,0.11599989,0
7.4087486,-0.51688945,-4.1344004,0.8716175,-0.060810525,-0.48640004,0
-3.1610112,-0.1935313,-7.8880005,-0.37188366,-0.022768389,-0.92800003,0
-5.0983682,5.9480953,3.2980003,-0.59980804,0.69977593,0.38800004,0
-1.6694661,-2.6711457,7.8947997,-0.19640778,-0.31425244,0.92879999,0
2.1025095,7.9895339,-1.9992001,0.24735406,0.93994516,-0.23520002,0
0.62840182,5.9698229,6.0180001,0.073929623,0.70233208,0.708,0
5.2390904,3.0124774,-5.9771991,0.61636358,0.3544091,-0.70319986,0
1.5729033,7.8645172,-2.8151984,0.18504745,0.9252373,-0.33119982,0
-0.64778739,-2.8267083,-7.9899993,-0.076210283,-0.33255392,-0.93999994,0
-1.1459568,5.2714009,-6.5687985,-0.13481843,0.62016481,-0.77279985,0
1.1251513,-0.89435107,-8.3775997,0.13237074,-0.10521777,-0.98559999,0
-0.63382453,5.7044182,6.2695999,-0.074567594,0.67110801,0.73759997,0
-1.9916921,-2.9875381,7.7044001,-0.23431671,-0.35147506,0.90640002,0
-8.444809,-0.96512085,0.061200328,-0.99350691,-0.11354363,0.0072000385,0
-7.9083095,-3.1153946,-0.054399166,-0.93038934,-0.36651701,-0.006399902,0
-2.4780383,5.8853402,5.6100001,-0.29153392,0.69239295,0.66000003,0
-1.2164211,-6.6903152,-5.0999999,-0.14310837,-0.7870959,-0.59999996,0
-1.0393103,8.3144846,1.4280003,-0.12227181,0.97817469,0.16800004,0
3.5779119,6.1800284,-4.6104007,0.4209308,0.72706217,-0.54240006,0
1.2951281,8.2888174,1.3668002,0.15236801,0.975155,0.16080002,0
-5.0356741,6.7981601,0.82280105,-0.59243226,0.79978353,0.096800126,0
7.1953187,3.9060299,-2.284801,0.84650809,0.45953295,-0.26880011,0
-4.8514557,6.8941736,1.0880008,-0.57075948,0.81107926,0.1280001,0
4.3166604,6.3311038,3.6787996,0.50784242,0.74483573,0.43279997,0
-1.5961903,6.8636189,-4.7532005,-0.1877871,0.80748457,-0.55920005,0
-6.8750925,0.9375127,-4.9095998,-0.80883443,0.11029561,-0.5776,0
-0.64778614,2.8267031,-7.9900017,-0.076210134,0.3325533,-0.94000018,0
0.90659595,-7.6154046,-3.6652009,0.10665835,-0.89592993,-0.43120012,0
-4.8640208,-0.32426772,6.9632001,-0.57223773,-0.038149145,0.81920004,0
-5.0356741,6.7981601,0.82280105,-0.59243226,0.79978353,0.096800126,0
-6.8636184,1.5961907,-4.7532005,-0.80748451,0.18778715,-0.55920005,0
-5.6978483,0.94964045,6.2356,-0.67033511,0.11172241,0.73360002,0
-2.6650453,1.9987837,7.8199997,-0.31353474,0.23515102,0.91999996,0
7.4547663,-0.17336649,-4.0800004,0.87703133,-0.020396058,-0.48000005,0
-3.291425,-7.4057055,2.5636005,-0.38722646,-0.87125945,0.30160007,0
6.2889667,5.6151495,-1.0811989,0.73987842,0.66060585,-0.12719987,0
0.67068762,2.6827524,8.0376005,0.078904428,0.31561792,0.94560003,0
-5.7016287,-6.1402159,-1.4279997,-0.67077982,-0.72237831,-0.16799997,0
4.6324873,-2.154645,-6.7932,0.54499853,-0.25348765,-0.7992,0
-4.1785436,7.1035237,-2.0807984,-0.49159336,0.83570868,-0.24479981,0
-6.2490301,-3.5708742,4.5219998,-0.73518002,-0.42010283,0.53200001,0
-1.2348136,-8.3967304,0.46919975,-0.14527218,-0.98785067,0.05519997,0
5.6596017,3.8240552,-5.0592003,0.6658355,0.44988886,-0.59520006,0
7.0486846,-0.48059216,-4.7259998,0.82925701,-0.056540255,-0.55599999,0
4.6867895,3.5467594,-6.140399,0.55138701,0.4172658,-0.72239989,0
0.53283495,8.2589493,1.938,0.062686466,0.97164106,0.228,0
-5.1355443,-1.2838858,6.6504002,-0.60418171,-0.1510454,0.78240001,0
-5.1320858,-6.6717114,1.1832007,-0.60377479,-0.78490722,0.13920009,0
2.7650008,-5.9665809,-5.3855996,0.32529423,-0.70195067,-0.63359994,0
6.2308187,0.31154066,5.7732005,0.73303747,0.036651842,0.67920005,0
6.9364772,0.60317129,4.8755994,0.81605613,0.070961326,0.57359993,0
-5.4425921,-0.11579972,-6.5279999,-0.64030498,-0.013623497,-0.76800001,0
7.912612,1.9099405,2.4479992,0.93089551,0.22469889,0.2879999,0
7.9965196,2.5795231,1.2851995,0.94076699,0.30347329,0.15119994,0
7.2190061,-4.0105596,2.0128007,0.84929484,-0.47183055,0.23680007,0
0.85631335,-7.7068272,3.4816008,0.10074275,-0.90668553,0.40960008,0
-3.8240552,5.6596017,-5.0592003,-0.44988886,0.6658355,-0.59520006,0
5.7707725,3.6446986,5.066,0.67891443,0.42878807,0.59600002,0
-8.085391,-2.6158624,-0.18360038,-0.95122248,-0.30774853,-0.021600045,0
2.8008242,7.2821436,-3.3727987,0.32950872,0.85672277,-0.39679983,0
5.7970457,2.4844482,-5.698401,0.68200541,0.29228804,-0.67040014,0
-3.5708745,6.2490292,4.5220003,-0.42010286,0.7351799,0.53200006,0
4.416729,5.8889728,4.250001,0.51961517,0.69282031,0.50000012,0
6.1546578,5.0006595,-3.0599995,0.7240774,0.58831286,-0.35999992,0
7.5477242,2.5159075,2.9920011,0.88796759,0.29598913,0.35200012,0
-5.1251612,-1.6016133,6.5892,-0.60296011,-0.18842509,0.77520001,0
-3.8373816,6.1731791,-4.4063997,-0.45145667,0.72625637,-0.51839995,0
-5.9628286,0.94149834,5.9840002,-0.70150924,0.11076451,0.704,0
6.7840967,3.9573894,3.2504001,0.79812902,0.46557522,0.38240001,0
3.516396,-4.1557403,6.5279999,0.41369367,-0.48891062,0.76800001,0
4.672071,-5.8400874,4.0391998,0.54965544,-0.68706912,0.47519997,0
0.2611587,8.3570862,1.5300003,0.030724553,0.9831866,0.18000004,0
-4.4227347,-5.1852746,-5.0796008,-0.52032173,-0.61003232,-0.5976001,0
-7.0697899,4.0787244,2.3732009,-0.83173996,0.47984993,0.27920011,0
8.0040216,2.744236,-0.80920124,0.94164962,0.3228513,-0.095200144,0
-0.0011386299,-0.0039038742,-8.499999,-0.00013395645,-0.00045927931,-0.99999988,0
3.6919696,-3.5833824,-6.7659979,0.43434936,-0.42157438,-0.79599977,0
0.95727873,5.4245853,6.4735999,0.11262102,0.63818651,0.76160002,0
4.9793921,-2.2001965,-6.5280004,0.58581084,-0.25884664,-0.76800007,0
3.2183478,-7.4424281,-2.5500009,0.37862915,-0.87557977,-0.3000001,0
-1.1727583,7.329741,4.1412001,-0.13797157,0.86232245,0.48720002,0
5.4448786,1.0653021,-6.4395986,0.64057398,0.12532966,-0.75759983,0
4.4244957,3.7924254,6.1880002,0.52052891,0.44616771,0.72800004,0
-2.1749692,-8.2165499,0.08839979,-0.25587872,-0.96665293,0.010399975,0
-1.6327085,4.2450409,7.1808,-0.19208336,0.49941659,0.8448,0
5.1852751,-4.4227352,-5.0795999,0.61003238,-0.52032179,-0.59759998,0
-6.0859809,5.2560744,2.7540002,-0.71599776,0.61836171,0.32400003,0
4.0267153,-4.0267153,-6.3103986,0.47373122,-0.47373122,-0.74239981,0
-5.3742542,-6.2010632,-2.2168002,-0.63226521,-0.72953683,-0.26080003,0
-4.2348228,7.1462626,1.8020008,-0.49821445,0.84073681,0.21200009,0
6.1731791,-3.8373816,-4.4063997,0.72625637,-0.45145667,-0.51839995,0
3.1713097,4.7569628,6.29,0.37309527,0.55964267,0.74000001,0
6.4843445,-4.7158875,-2.8219995,0.76286405,-0.55481029,-0.33199996,0
4.5056872,5.4711919,-4.6919975,0.53008085,0.64366961,-0.55199969,0
5.1280298,6.759675,-0.51000172,0.60329765,0.7952559,-0.060000204,0
-7.1035237,4.1785431,-2.0807998,-0.83570868,0.4915933,-0.24479997,0
-5.5088568,1.8780191,-6.1947994,-0.64810079,0.22094342,-0.72879994,0
-5.6074233,5.6074233,3.0600007,-0.65969688,0.65969688,0.36000007,0
-5.5118523,-6.4704347,-0.054398965,-0.64845324,-0.76122761,-0.0063998783,0
-3.344605,-7.2466435,2.9240003,-0.39348292,-0.85254627,0.34400004,0
-3.291425,-7.4057055,2.5636005,-0.38722646,-0.87125945,0.30160007,0
-1.3229455,-8.20226,1.7951999,-0.15564065,-0.96497178,0.21119998,0
-1.5817566,8.1724091,1.7203999,-0.18608901,0.96145988,0.20239998,0
-3.5671425,-7.643878,1.0471998,-0.41966382,-0.89927977,0.12319998,0
-0.20388643,-8.1554651,-2.3868003,-0.023986639,-0.95946646,-0.28080004,0
-3.7601919,-1.5040768,-7.4731994,-0.44237551,-0.17695022,-0.87919992,0
5.5486503,3.390842,5.4739995,0.65278238,0.39892259,0.64399993,0
3.0301995,7.9251366,-0.50999868,0.35649407,0.93236899,-0.059999846,0
-4.6547871,-7.1046758,0.32639921,-0.54762203,-0.83584422,0.038399905,0
5.4204903,-2.7763486,-5.9296017,0.63770473,-0.32662925,-0.69760019,0
-3.1958771,7.8667741,0.38760039,-0.37598553,0.92550284,0.045600045,0
-6.6620922,0.14804636,-5.2767992,-0.78377557,0.017417219,-0.6207999,0
-0.24780361,-3.0355949,-7.9356008,-0.029153366,-0.35712883,-0.93360007,0
4.1358323,3.8925483,-6.3239985,0.48656851,0.45794687,-0.74399984,0
-4.2189813,5.2737269,-5.161201,-0.49635074,0.62043846,-0.60720015,0
-7.3435278,0.88122249,4.1888003,-0.86394447,0.10367323,0.49280003,0
-4.67207,-5.8400874,4.0392003,-0.54965532,-0.68706912,0.47520003,0
5.5612612,-4.2901149,-4.7872005,0.654266,-0.50471938,-0.56320006,0
6.9475503,-4.2911344,-2.3595991,0.81735885,-0.50483936,-0.2775999,0
-2.5000341,5.6250758,5.8615994,-0.29412165,0.66177362,0.68959993,0
0,-2.3565602,8.1668005,0,-0.27724239,0.96080005,0
6.0138464,5.4671321,2.4887996,0.70751137,0.64319199,0.29279995,0
5.7016292,6.1402154,-1.4279985,0.67077988,0.72237825,-0.16799983,0
8.1724091,-1.5817566,1.7203999,0.96145988,-0.18608901,0.20239998,0
7.6595416,3.1914749,-1.8428003,0.90112257,0.37546763,-0.21680003,0
-6.7650905,2.9413445,4.2227998,-0.79589301,0.34604052,0.49679998,0
0,-5.9754128,6.0451999,0,-0.70298976,0.7112,0
-4.9673896,-6.3472195,2.6996002,-0.58439875,-0.7467317,0.31760001,0
7.4733515,3.6299136,-1.7952015,0.8792178,0.42704865,-0.21120018,0
1.9434559,-7.7738247,2.8356001,0.22864187,-0.91456759,0.33360001,0
-2.2822084,-7.4171758,3.4680002,-0.26849511,-0.8726089,0.40800002,0
-5.7688212,-6.0310402,1.6116004,-0.67868483,-0.70953417,0.18960005,0
0.93283916,6.2189336,5.7188005,0.10974579,0.73163927,0.67280006,0
6.4114127,0.85485506,-5.5147991,0.75428385,0.10057119,-0.6487999,0
-6.3997464,-3.8052547,-4.1004,-0.75291133,-0.44767702,-0.4824,0
0,-3.9607534,7.5208001,0,-0.46597099,0.88480002,0
-8.2935972,-0.21265616,-1.8495992,-0.97571731,-0.025018372,-0.21759991,0
-3.0093977,-0.3343772,7.9424,-0.35404679,-0.039338496,0.93440002,0
3.9886744,-7.4787636,0.63919896,0.46925581,-0.87985456,0.07519988,0
-6.5279999,2.9375999,-4.5832005,-0.76800001,0.34559998,-0.53920007,0
0.67068762,-2.6827533,8.0375996,0.078904428,-0.31561804,0.94559997,0
1.213052,-5.0727625,-6.7116008,0.142712,-0.59679556,-0.78960007,0
1.2961982,-4.5865479,-7.0380006,0.15249391,-0.53959388,-0.82800007,0
-6.6348906,-2.1111014,4.8756003,-0.78057534,-0.24836487,0.57360005,0
7.6262994,-3.6975996,-0.64599919,0.89721167,-0.43501171,-0.075999908,0
4.416729,-5.8889728,4.250001,0.51961517,-0.69282031,0.50000012,0
6.3148546,-2.9995561,-4.8347988,0.74292409,-0.35288894,-0.56879985,0
2.6292703,-3.2865884,7.3848004,0.30932593,-0.38665748,0.86880004,0
5.9065742,2.176106,5.7119999,0.6948911,0.25601247,0.67199999,0
-7.8667741,-3.1958771,0.38760039,-0.92550284,-0.37598553,0.045600045,0
-7.9008861,-2.6336284,1.6999996,-0.92951602,-0.30983862,0.19999994,0
-5.9903641,-5.9903641,-0.69359934,-0.70474869,-0.70474869,-0.081599921,0
-3.6974123,-7.6413183,0.43519977,-0.43498969,-0.89897865,0.051199973,0
4.8608103,-0.64810848,6.9428005,0.57186002,-0.076248057,0.81680006,0
-6.6957383,-5.2077971,0.54400045,-0.78773391,-0.61268198,0.064000055,0
-3.7712729,5.3668118,-5.4060001,-0.44367915,0.63138962,-0.63600004,0
-2.2436295,7.4787641,-3.3591988,-0.2639564,0.87985462,-0.39519987,0
5.2560744,-6.0859809,2.7540002,0.61836171,-0.71599776,0.32400003,0
-6.7596755,-5.1280293,-0.51000082,-0.79525596,-0.60329759,-0.060000096,0
-7.9951348,-2.1320362,1.9447994,-0.94060409,-0.25082779,0.22879994,0
-4.134059,-3.8160546,6.3716002,-0.48635986,-0.44894761,0.74959999,0
5.8843298,5.3239179,3.0464008,0.69227409,0.62634325,0.35840011,0
6.0573473,0.39504403,-5.9499984,0.71262908,0.046475768,-0.69999981,0
-4.5584097,-6.1994371,-3.6108003,-0.53628349,-0.72934556,-0.42480004,0
-1.3553678,-0.33884171,8.3844004,-0.15945503,-0.039863732,0.98640007,0
5.5632892,-2.1994398,-6.0384002,0.6545046,-0.25875762,-0.71040004,0
-7.9951348,2.1320355,1.9447997,-0.94060409,0.2508277,0.22879995,0
8.1369896,-1.8373845,1.632,0.95729291,-0.21616288,0.192,0
-3.5362294,-3.8577044,6.6979995,-0.41602698,-0.45384759,0.78799993,0
-0.97728568,4.5606656,7.1060004,-0.11497479,0.53654891,0.83600003,0
7.3485885,-3.5382092,2.3936007,0.8645398,-0.41625991,0.28160009,0
-7.0486846,-0.48059216,-4.7259998,-0.82925701,-0.056540255,-0.55599999,0
4.2620864,-6.5351996,3.3728008,0.50142193,-0.76884699,0.3968001,0
-4.2717528,6.500494,-3.4272008,-0.50255919,0.76476401,-0.40320009,0
-4.4227347,-5.1852746,-5.0796008,-0.52032173,-0.61003232,-0.5976001,0
7.3533597,0.58826822,4.2228003,0.86510116,0.069208026,0.49680004,0
0.18844686,4.5227294,-7.1944013,0.02217022,0.53208584,-0.84640014,0
7.7264843,0,3.5428007,0.90899813,0,0.41680008,0
-0.93284011,6.2189336,5.7188005,-0.1097459,0.73163927,0.67280006,0
7.5165625,3.872169,-0.87039965,0.88430148,0.4555493,-0.10239996,0
-6.382154,4.0613704,3.8760004,-0.75084162,0.47780827,0.45600006,0
3.1136575,-7.7841439,1.4007994,0.36631265,-0.91578162,0.16479993,0
-2.3537059,0.58842653,-8.1463995,-0.27690658,0.069226652,-0.95839995,0
-3.5671425,7.643878,1.0471998,-0.41966382,0.89927977,0.12319998,0
0.33555058,-2.6844075,8.0579996,0.03947654,-0.31581265,0.94799995,0
4.7080855,-5.3574762,-4.6240001,0.55389243,-0.63029134,-0.54400003,0
-3.7500515,-0.6250087,-7.6023993,-0.44118252,-0.073530436,-0.89439994,0
-6.9070864,-4.9336329,0.44880027,-0.81259841,-0.58042741,0.05280003,0
5.5088563,-1.8780192,-6.1947999,0.64810073,-0.22094344,-0.7288,0
-6.2169557,4.8040113,3.2435997,-0.73140657,0.5651778,0.38159996,0
3.7601919,-1.5040768,-7.4731994,0.44237551,-0.17695022,-0.87919992,0
4.3166604,6.3311038,3.6787996,0.50784242,0.74483573,0.43279997,0
7.7850943,3.4059784,0.20400058,0.91589344,0.40070334,0.024000067,0
-2.5579576,4.7961688,6.5348005,-0.30093619,0.56425518,0.76880008,0
5.8602357,-4.7947383,-3.8623986,0.68943948,-0.56408685,-0.45439982,0
-2.2603734,-4.5207467,6.8340001,-0.26592627,-0.53185254,0.80400002,0
2.4311109,7.8335829,2.2303994,0.28601304,0.92159796,0.26239991,0
3.1325796,-6.7872553,-4.0459995,0.36853877,-0.7985006,-0.47599995,0
6.9276552,-0.90360719,4.8415995,0.81501824,-0.10630673,0.56959993,0
-4.5283875,-1.6100934,-7.0107994,-0.5327515,-0.18942274,-0.82479995,0
-4.0613704,-6.382154,3.8760004,-0.47780827,-0.75084162,0.45600006,0
3.4059784,7.7850943,0.20400058,0.40070334,0.91589344,0.024000067,0
-8.4145708,-1.2020818,2.0265578e-07,-0.98994952,-0.14142139,2.3841856e-08,0
-0.20388643,-8.1554651,-2.3868003,-0.023986639,-0.95946646,-0.28080004,0
7.1462626,4.2348232,1.8020002,0.84073681,0.49821448,0.21200001,0
-2.9403613,-7.448915,-2.8491998,-0.34592485,-0.87634295,-0.33519998,0
-5.0356741,6.7981601,0.82280105,-0.59243226,0.79978353,0.096800126,0
3.6811686,-5.0445647,-5.7663994,0.43307865,-0.5934782,-0.67839992,0
0.66833943,3.0075293,7.9220004,0.078628168,0.35382697,0.93200004,0
-0.56271827,-7.8780518,3.1415999,-0.066202149,-0.92682964,0.3696,0
-4.5227308,-6.4072022,-3.2776005,-0.53208596,-0.75378847,-0.38560006,0
-7.7339773,3.4120481,-0.8907997,-0.90987968,0.40141743,-0.10479996,0
-1.3743743,-7.9713697,2.6111991,-0.16169108,-0.93780822,0.3071999,0
0.31967202,-5.4344292,6.5280004,0.037608474,-0.63934463,0.76800007,0
-0.3171306,5.7083564,6.29,-0.037309483,0.67157131,0.74000001,0
-2.5962737,-2.5220945,-7.6907997,-0.30544397,-0.29671699,-0.90479994,0
-6.8298645,-2.3756056,4.4676003,-0.80351347,-0.27948302,0.52560002,0
7.9416547,2.9781208,0.55760026,0.93431234,0.35036716,0.06560003,0
0.87717414,-8.3331499,-1.4279999,0.10319696,-0.98037058,-0.16799998,0
7.7363853,-1.3208461,-3.2640014,0.91016299,-0.15539366,-0.38400015,0
3.6088979,6.0148292,4.8008003,0.42457622,0.70762694,0.56480002,0
3.3250546,-0.99751621,7.7587996,0.3911829,-0.11735485,0.91279995,0
-6.7596755,-5.1280293,-0.51000082,-0.79525596,-0.60329759,-0.060000096,0
4.2734089,5.1891403,5.2019997,0.50275397,0.6104871,0.61199999,0
-0.31967202,5.4344301,6.5279994,-0.037608474,0.63934469,0.76799995,0
-4.505353,5.4064236,4.7667999,-0.53004152,0.63604981,0.56080002,0
8.4253292,-0.99121505,0.53040123,0.99121523,-0.11661354,0.062400144,0
3.3306127,-0.33306086,7.8131995,0.39183679,-0.039183632,0.91919994,0
8.0849972,2.5409992,-0.65280133,0.95117617,0.29894108,-0.07680016,0
-2.3560779,-0.33658251,-8.1600008,-0.27718565,-0.039597943,-0.9600001,0
