-0.30359092,6.9825988,4.9247994,-0.035507709,0.81667823,0.57599992,0
-7.4290338,4.1788316,-0.67031986,-0.86889279,0.48875222,-0.078399979,0
2.562947,3.2463994,-7.4829602,0.29975989,0.37969583,-0.87520003,0
-0.67227185,-3.0252216,7.9686003,-0.078628287,-0.35382709,0.93199998,0
-0.65159792,-2.8433359,-8.0369997,-0.076210283,-0.33255389,-0.93999994,0
5.7103152,6.229434,1.2995988,0.66787308,0.72858876,0.15199986,0
4.8214002,6.1194692,-3.522599,0.56390643,0.71572739,-0.41199988,0
-6.2674708,-0.31337324,5.8071604,-0.73303753,-0.036651839,0.67920005,0
1.5089672,0.62326908,-8.3926792,0.17648739,0.072896965,-0.98159987,0
8.4516993,-0.76833642,1.0396807,0.9885028,-0.089863904,0.12160008,0
5.450407,6.0560083,-2.5923598,0.63747448,0.70830506,-0.30319998,0
-8.2034388,-0.20508577,-2.4008403,-0.95946652,-0.023986639,-0.28080001,0
-5.9350352,3.3479691,-5.1642003,-0.69415617,0.39157531,-0.60400003,0
-7.8320813,2.7007182,2.1135588,-0.91603291,0.31587347,0.24719985,0
-1.6593173,-3.6504977,7.5513597,-0.19407219,-0.42695877,0.88319993,0
6.4073682,-5.3394732,-1.8810005,0.74939978,-0.6244998,-0.22000006,0
7.1464682,4.6821685,0.32831922,0.83584422,0.54762203,0.038399909,0
-4.2933402,3.5777833,-6.4706411,-0.50214505,0.41845417,-0.75680012,0
1.555465,-5.3843021,-6.4569592,0.18192573,-0.62974292,-0.75519991,0
-3.2372787,7.4862075,-2.5650003,-0.37862909,0.87557977,-0.30000004,0
1.52363,-2.1015584,-8.1464415,0.17820233,-0.24579631,-0.95280015,0
6.0856781,3.3471236,4.9863601,0.71177518,0.39147645,0.58319998,0
2.8630357,5.0898433,6.2449198,0.33485797,0.5953033,0.73039997,0
5.3948483,4.7954211,4.5827994,0.63097638,0.56086797,0.53599989,0
0.82443935,4.8435826,-6.9973216,0.096425653,0.5665009,-0.81840014,0
-2.0627353,2.9467645,-7.7565589,-0.24125558,0.3446508,-0.90719986,0
5.3879194,-2.5354917,6.1354795,0.63016599,-0.29654872,0.71759993,0
-6.967607,-4.5557427,1.9494007,-0.81492478,-0.53283542,0.22800007,0
-3.5676222,4.7143579,-6.1765203,-0.41726574,0.55138689,-0.72240001,0
-1.9970925,-6.9898238,-4.500721,-0.23357806,-0.81752324,-0.52640009,0
4.743628,-6.5224881,-2.8385997,0.55481029,-0.76286411,-0.33199996,0
-8.2204819,-1.5910611,1.7305199,-0.96145988,-0.18608901,0.20239998,0
-5.6404085,-5.6404085,3.0780008,-0.65969688,-0.65969688,0.36000007,0
2.578671,-7.950902,-1.7989204,0.30159894,-0.92993003,-0.21040004,0
-2.2450421,8.2318201,0.54720074,-0.26257801,0.96278596,0.064000085,0
-6.0091572,0.31627113,6.0739202,-0.70282537,0.036990773,0.71039999,0
6.985847,-4.8900928,-0.62244076,0.81705809,-0.57194066,-0.072800085,0
5.0130148,6.9227362,-0.21888024,0.58631748,0.80967671,-0.025600027,0
0.22992961,-8.5074043,-0.82080024,0.026892351,-0.99501801,-0.096000023,0
4.6308069,-6.8100095,2.2982397,0.54161483,-0.79649234,0.26879996,0
1.3286158,7.7818937,-3.2832015,0.15539366,0.91016299,-0.38400015,0
2.79268,-5.8956594,5.5267205,0.32662922,-0.68955082,0.64640003,0
-3.325675,1.9954053,7.61976,-0.38896784,0.23338073,0.89120001,0
5.3665462,2.8411117,6.0191998,0.62766618,0.33229375,0.704,0
0.68331504,-0.34165752,8.5158005,0.079919882,-0.039959941,0.99600005,0
-2.1271632,-8.2723007,-0.38303977,-0.24879101,-0.96752053,-0.044799972,0
2.9216332,8.0344906,0.11628067,0.34171149,0.9397065,0.013600078,0
0,7.504384,-4.0971603,0,0.87770569,-0.47920004,0
6.9821091,-3.8789492,-3.0506403,0.81662095,-0.45367825,-0.35680002,0
2.8357141,-4.5371423,-6.6690006,0.33166245,-0.53065991,-0.78000003,0
3.7613783,5.0151715,5.8139997,0.43992728,0.58656973,0.67999995,0
-6.7664995,4.2290616,3.0711603,-0.79140341,0.49462709,0.35920003,0
-4.0746145,7.2914147,-1.8262788,-0.4765631,0.85279703,-0.21359986,0
2.2039032,7.8138375,-2.6812794,0.25776646,0.91389912,-0.31359991,0
-2.1445775,-8.0421648,1.9562395,-0.25082776,-0.94060403,0.22879994,0
5.5084729,-6.5100126,0.61559951,0.64426583,-0.76140499,0.071999945,0
5.9692473,4.178473,4.4733605,0.69815755,0.48871028,0.52320004,0
7.8483453,-3.2912414,0.82080001,0.91793507,-0.38494051,0.096000001,0
6.8100095,-4.630806,2.2982404,0.79649234,-0.54161471,0.26880005,0
2.64063,-2.4205773,-7.7634001,0.30884561,-0.28310844,-0.90799999,0
0.68345195,0,8.5226402,0.079935901,0,0.99680001,0
6.1678448,-1.6821395,-5.6771998,0.72138536,-0.19674146,-0.66399997,0
-4.3039308,-7.3420005,0.82079947,-0.5033837,-0.85871351,0.095999934,0
-0.29689085,6.6800408,-5.3283596,-0.034724075,0.78129131,-0.62319994,0
5.9621692,-3.8673532,-4.7538009,0.6973297,-0.45232201,-0.55600011,0
-1.4703314,-1.2381738,-8.3311195,-0.17196858,-0.14481565,-0.97439992,0
1.9970925,6.9898238,-4.500721,0.23357806,0.81752324,-0.52640009,0
4.9708638,-6.8022346,1.4569204,0.58138758,-0.79558301,0.17040004,0
-3.054426,-7.0072126,-3.830399,-0.35724279,-0.81955701,-0.44799986,0
-4.6101551,4.9174995,5.2599592,-0.53919941,0.57514614,0.61519992,0
-7.1455188,4.5935478,0.9712798,-0.83573318,0.53725702,0.11359997,0
-3.7721107,-0.62868524,-7.6471195,-0.44118252,-0.073530436,-0.89439994,0
-8.4944839,0.97079873,0.061560169,-0.99350685,0.11354371,0.0072000194,0
-2.2262912,5.4067082,6.23808,-0.26038492,0.6323635,0.72960001,0
2.2997355,-3.9424045,7.2298803,0.2689749,-0.46109992,0.84560001,0
-8.0692148,1.6552233,-2.291399,-0.94376779,0.19359335,-0.26799989,0
8.5482903,0,0.17099886,0.99980003,0,0.019999865,0
6.045763,6.045763,0,0.70710677,0.70710677,0,0
0.92908168,6.5035772,5.4720011,0.10866452,0.7606523,0.6400001,0
-5.3425565,-3.1426804,5.8892407,-0.62486041,-0.36756495,0.6888001,0
-3.9534965,1.9767482,7.3188,-0.46239725,0.23119862,0.85600001,0
1.316412,4.2783365,7.2846003,0.15396631,0.50039023,0.852,0
-4.488677,5.685657,4.54176,-0.52499145,0.66498911,0.53119999,0
-7.1770444,-4.3497238,-1.6347589,-0.83942038,-0.50873959,-0.19119987,0
4.2867107,-3.1586289,-6.6895199,0.50136966,-0.36943027,-0.78239995,0
6.7145123,-1.5260257,5.068439,0.78532308,-0.17848253,0.59279984,0
-7.4927325,-2.9576576,-2.8659599,-0.87634295,-0.34592485,-0.33519998,0
8.2062187,-2.3446336,-0.51300108,0.95979166,-0.27422613,-0.060000125,0
6.2400718,1.1093459,-5.738759,0.72983295,0.12974806,-0.67119986,0
7.1498446,-2.2670238,-4.1040015,0.8362391,-0.26514897,-0.48000017,0
-0.64745611,5.179647,6.7715998,-0.075725861,0.60580665,0.79199994,0
-8.4103308,0.6639728,-1.3885196,-0.98366439,0.077657633,-0.16239995,0
-4.2783365,-1.316411,7.2846003,-0.50039023,-0.1539662,0.852,0
1.7805052,-0.9307186,-8.3105993,0.20824622,-0.10885598,-0.97199988,0
0.45371452,-5.3311429,-6.6690001,0.053066023,-0.6235255,-0.77999997,0
2.3977101,-6.2939882,-5.2668018,0.28043392,-0.73613894,-0.61600018,0
-6.1514158,-4.3938684,3.9945598,-0.71946383,-0.51390272,0.46719995,0
-2.7023633,-8.1070881,0.27360055,-0.31606588,-0.94819742,0.032000065,0
1.6552233,-8.0692148,-2.291399,0.19359335,-0.94376779,-0.26799989,0
-6.9821091,3.8789492,-3.0506403,-0.81662095,0.45367825,-0.35680002,0
-1.045424,-8.3633928,1.4364004,-0.12227181,-0.97817457,0.16800004,0
-4.6386099,5.1024704,-5.05476,-0.54252744,0.59678012,-0.59119999,0
-0.32372743,-1.9828302,-8.3106012,-0.037862856,-0.23190996,-0.97200012,0
0.67463285,-2.6985343,8.0848799,0.078904428,-0.31561804,0.94559997,0
3.7768636,-7.5537262,-1.3338006,0.44173843,-0.88347673,-0.15600006,0
5.8695345,0.76559156,-6.1696787,0.68649524,0.089542873,-0.72159982,0
7.427371,3.932138,-1.573199,0.86869836,0.45989916,-0.18399988,0
-1.6845024,2.3583024,8.0438404,-0.19701782,0.27582484,0.94080001,0
7.2348318,3.6174159,2.7702005,0.84617913,0.42308956,0.32400006,0
1.6222488,-4.8667469,-6.8399987,0.18973669,-0.56921017,-0.79999983,0
4.1529536,0.5191192,-7.4556012,0.48572555,0.060715694,-0.8720001,0
2.0764768,-3.6338346,-7.4556012,0.24286278,-0.42500988,-0.8720001,0
-0.89961195,1.1317699,-8.4268799,-0.10521777,0.13237074,-0.98559994,0
-4.2111855,-7.3141642,-1.3679992,-0.49253631,-0.85545778,-0.15999991,0
3.0270991,0.33634412,7.9891205,0.35404667,0.039338492,0.93440002,0
1.6195645,4.5550241,-7.0520401,0.18942274,0.53275132,-0.82480001,0
-6.9477167,4.9626546,0.4514403,-0.81259841,0.58042741,0.052800033,0
-4.2178459,-2.9200473,6.8400002,-0.49331531,-0.341526,0.80000001,0
7.4485059,-3.5173495,-2.2914004,0.87117028,-0.41138589,-0.26800004,0
6.8100095,-4.630806,2.2982404,0.79649234,-0.54161471,0.26880005,0
-6.799438,5.1581945,-0.51300174,-0.7952559,0.60329759,-0.060000204,0
-4.8548346,1.9419339,6.76476,-0.56781691,0.22712676,0.79119998,0
1.1743109,8.4550371,-0.48564079,0.1373463,0.98889321,-0.05680009,0
4.178473,-5.9692473,4.4733605,0.48871028,-0.69815755,0.52320004,0
5.4393868,-6.4754615,1.2585607,0.63618559,-0.75736392,0.14720008,0
-0.30359092,6.9825988,4.9247994,-0.035507709,0.81667823,0.57599992,0
3.3479691,-5.9350352,-5.1642003,0.39157531,-0.69415617,-0.60400003,0
-1.4290531,7.7168841,3.3926406,-0.16714071,0.90255952,0.39680007,0
3.8276386,6.4373918,-4.1245213,0.44767702,0.75291133,-0.48240015,0
-6.8048854,2.9586468,4.2476401,-0.79589301,0.34604055,0.49680001,0
-1.3358852,3.3397145,7.7565598,-0.15624388,0.39060989,0.90719998,0
4.784945,-3.1899636,6.3270006,0.55964267,-0.37309515,0.74000007,0
-1.9544696,-4.5604281,6.9631205,-0.22859293,-0.53338337,0.81440002,0
5.1657543,-1.2914381,6.6895194,0.60418177,-0.15104538,0.78239989,0
0.51313633,-8.4667568,1.0738808,0.060015943,-0.99026394,0.12560008,0
-1.1526971,-5.3024073,-6.6074405,-0.13481838,-0.62016457,-0.77280003,0
4.2102356,-7.4298272,0.41723913,0.4924252,-0.86898559,0.048799898,0
4.6781545,4.3662777,5.670361,0.54715258,0.51067573,0.66320008,0
0,-4.2930961,7.3940401,0,-0.5021165,0.86479998,0
-0.067712449,3.3179133,-7.8796806,-0.0079195844,0.38806003,-0.92160004,0
1.3245608,5.9605217,-5.9849997,0.15491939,0.697137,-0.69999993,0
-4.2178478,2.9200482,-6.8399987,-0.49331552,0.34152609,-0.79999983,0
8.3458204,1.0981345,-1.4979599,0.97611934,0.12843679,-0.17519999,0
-8.2668495,1.7874266,-1.2517201,-0.96688294,0.20905574,-0.1464,0
-3.2864063,-1.3875939,-7.7702394,-0.38437501,-0.16229168,-0.90879989,0
-5.7588573,0.87634772,-6.2586007,-0.67355055,0.10249681,-0.73200005,0
2.6650376,-2.6650386,7.6744804,0.31170031,-0.3117004,0.89760005,0
3.0270991,0.33634412,7.9891205,0.35404667,0.039338492,0.93440002,0
4.3336024,4.9526901,5.4583197,0.50685406,0.57926202,0.63839996,0
-1.5910611,8.2204819,1.7305199,-0.18608901,0.96145988,0.20239998,0
3.8789492,6.9821091,-3.0506403,0.45367825,0.81662095,-0.35680002,0
4.8900924,-6.9858475,-0.62243986,0.5719406,-0.81705815,-0.072799981,0
-2.8433349,8.0561152,-0.34199888,-0.33255377,0.94223565,-0.039999869,0
5.4663973,-0.32155246,6.5663996,0.63934469,-0.037608474,0.76799995,0
-8.4165745,1.1373752,-0.98496032,-0.98439467,0.13302635,-0.11520004,0
1.9211755,7.959157,2.4623992,0.22469889,0.93089551,0.2879999,0
4.7362981,3.7890394,6.0260406,0.55395299,0.4431625,0.70480007,0
-6.1178823,3.0589409,-5.1300001,-0.71554178,0.35777086,-0.60000002,0
-7.8483453,3.2912414,0.82080001,-0.91793507,0.38494051,0.096000001,0
-7.026175,-4.7596669,-1.0396804,-0.82177484,-0.55668616,-0.12160004,0
-0.95368266,-2.4371889,-8.1396008,-0.11154183,-0.28505132,-0.95200008,0
-6.4606075,1.8458879,5.2873197,-0.75562662,0.21589331,0.61839992,0
4.1978331,1.5858482,-7.27776,0.49097461,0.18547931,-0.85119998,0
6.2535267,-4.8322697,3.2626796,0.73140663,-0.56517774,0.38159993,0
0.33355051,-3.6690598,7.7155199,0.039011754,-0.42912978,0.90239996,0
4.3058772,-4.4404359,-5.9029193,0.50361139,-0.51934922,-0.69039989,0
-0.99896795,-3.6628828,7.6608,-0.11683835,-0.42840734,0.89599997,0
1.0109085,2.6957579,8.0506802,0.11823491,0.31529331,0.94160002,0
-4.3336029,-7.0421047,2.1751204,-0.50685412,-0.82363796,0.25440004,0
1.2097335,-6.9559636,4.8222003,0.1414893,-0.81356299,0.56400001,0
1.6112242,1.7060022,-8.2216797,0.18844727,0.19953242,-0.96159995,0
8.0344906,-2.9216332,0.11628067,0.9397065,-0.34171149,0.013600078,0
-4.8407202,2.2590024,6.6758399,-0.5661661,0.26421082,0.78079998,0
4.5318542,-5.4382262,4.7948403,0.5300414,-0.63604981,0.56080002,0
-8.2024803,2.4124949,-0.041040495,-0.9593544,0.28216314,-0.004800058,0
6.2375402,5.4058681,-2.2298403,0.72953683,0.63226527,-0.26080003,0
-6.7154036,-5.1484756,-1.2243602,-0.78542727,-0.60216087,-0.14320002,0
3.7768636,-7.5537262,-1.3338006,0.44173843,-0.88347673,-0.15600006,0
-2.9507132,-7.7791524,1.969919,-0.34511265,-0.90984237,0.23039988,0
6.1631207,-5.9165964,0.33515969,0.72083282,-0.69199955,0.039199963,0
-0.64799786,5.9615784,-6.094439,-0.075789221,0.69726062,-0.71279985,0
-5.7419348,0.31899607,6.3270001,-0.67157131,0.037309483,0.74000001,0
6.734448,4.848803,2.0588398,0.7876547,0.56711143,0.24079998,0
2.5307069,7.5921226,3.0096011,0.2959891,0.88796753,0.35200012,0
-8.2939901,-0.80264425,1.9152,-0.97005731,-0.093876518,0.22399999,0
7.8299332,3.1319733,1.4090395,0.91578162,0.36631265,0.16479994,0
-1.3572707,8.1436224,2.2229996,-0.15874511,0.95247042,0.25999993,0
-2.8433359,-0.65159792,-8.0369997,-0.33255389,-0.076210283,-0.93999994,0
-3.6289086,7.7416716,0.0068401909,-0.42443374,0.90545863,0.00080002233,0
5.4229388,1.9139782,6.3269997,0.63426185,0.22385709,0.73999995,0
0.26117656,1.4219617,-8.4268808,0.030546965,0.16631131,-0.98560005,0
-6.8970065,2.0990887,4.5964804,-0.80666739,0.24550743,0.53760004,0
-0.42715812,-8.3295784,-1.8809993,-0.049960013,-0.97421968,-0.21999991,0
-0.76006949,-0.48861602,-8.50212,-0.088897012,-0.057148073,-0.99439996,0
8.0793667,0,2.7975593,0.94495517,0,0.32719991,0
8.0169935,-2.6723311,-1.2996008,0.93766004,-0.31255335,-0.1520001,0
5.9251299,-4.1146731,-4.5896406,0.69299763,-0.48124832,-0.53680009,0
0,-3.0277259,7.9959602,0,-0.35411999,0.93520004,0
4.1323667,4.987339,-5.5814419,0.48331773,0.58331448,-0.6528002,0
-2.1271629,8.2723007,-0.3830412,-0.24879098,0.96752053,-0.04480014,0
7.6709557,3.6098623,-1.1080794,0.89718777,0.4222061,-0.12959993,0
4.645412,4.645412,5.4720011,0.54332304,0.54332304,0.6400001,0
0.68734276,-8.4772358,-0.87552017,0.080390967,-0.99148953,-0.10240002,0
-3.8276386,-6.4373922,-4.1245203,-0.44767702,-0.75291133,-0.48240003,0
4.0344405,-6.6280093,3.5910008,0.47186437,-0.77520573,0.42000008,0
-0.58616841,6.5943956,-5.4104395,-0.068557709,0.77127433,-0.63279992,0
-3.932138,7.427371,-1.573199,-0.45989916,0.86869836,-0.18399988,0
-6.4073682,5.3394732,-1.8810005,-0.74939978,0.6244998,-0.22000006,0
1.341199,3.0176952,7.8865204,0.15686539,0.35294679,0.9224,0
3.5777872,2.4150064,-7.3803582,0.41845462,0.28245687,-0.86319977,0
5.5631528,-2.5166643,-5.9850011,0.65066111,-0.29434669,-0.70000011,0
3.5513239,-6.5107603,4.2544799,0.4153595,-0.76149243,0.49759999,0
-0.067712449,-3.3179133,-7.8796806,-0.0079195844,-0.38806003,-0.92160004,0
-6.9676065,4.5557437,1.9493999,-0.81492472,0.53283548,0.22799999,0
-5.9822755,5.047545,-3.4405191,-0.69968134,0.59035611,-0.4023999,0
-5.7313652,-0.95522755,6.2722797,-0.67033511,-0.11172252,0.73359996,0
0.85568392,-7.35888,-4.2681608,0.10007999,-0.86068773,-0.49920008,0
3.5777872,-2.4150064,-7.3803582,0.41845462,-0.28245687,-0.86319977,0
-8.3011789,-1.3107126,-1.5731997,-0.97089809,-0.15329972,-0.18399997,0
-4.5321903,-6.5150237,3.1806004,-0.53008074,-0.76199108,0.37200004,0
-0.32617518,-4.892633,7.0041599,-0.038149145,-0.57223779,0.81919998,0
-7.4927325,2.9576573,-2.8659594,-0.87634295,0.34592482,-0.33519992,0
6.1313272,-5.8758545,0.99180007,0.71711427,-0.6872344,0.116,0
-1.4505804,-7.543016,3.7551603,-0.16965851,-0.88222408,0.43920004,0
-6.0492215,5.4992919,2.5034404,-0.70751125,0.64319199,0.29280004,0
7.9468994,-0.77530706,-3.0574815,0.9294619,-0.090679184,-0.35760018,0
-1.01165,8.0931978,-2.5649989,-0.11832163,0.94657284,-0.29999986,0
5.4462147,0.23175357,-6.5869222,0.63698417,0.02710568,-0.77040023,0
-0.11648084,5.4746051,-6.566402,-0.01362349,0.64030468,-0.76800019,0
-7.1220136,0.32372758,-4.7195997,-0.83298403,0.037862875,-0.55199993,0
8.3976927,-0.52485609,1.5184803,0.98218626,-0.061386675,0.17760003,0
-0.9307186,1.7805052,-8.3105993,-0.10885598,0.20824622,-0.97199988,0
-0.16229679,7.1410651,-4.69908,-0.018982081,0.83521229,-0.54960001,0
-7.9939036,1.8447465,-2.4076791,-0.93495947,0.21575981,-0.28159988,0
-3.3165183,2.3215628,7.5308404,-0.38789687,0.2715278,0.88080001,0
5.1024704,-4.6386099,-5.05476,0.59678012,-0.54252744,-0.59119999,0
6.5278225,-5.4023356,-1.1422812,0.76348799,-0.63185209,-0.13360013,0
-5.8262796,5.2624454,-3.3857992,-0.68143618,0.61549067,-0.39599991,0
-0.32824844,4.5954819,7.2025204,-0.038391631,0.53748327,0.84240001,0
-8.0403118,-1.1090083,2.6881192,-0.94038731,-0.12970857,0.3143999,0
-7.1770444,4.3497238,-1.6347589,-0.83942038,0.50873959,-0.19119987,0
5.5426803,6.4664593,-0.75239921,0.64826667,0.756311,-0.087999903,0
-7.7521615,0.86135054,3.5020809,-0.90668553,0.10074275,0.40960011,0
-6.8100095,4.6308069,2.2982397,-0.79649234,0.54161483,0.26879996,0
-7.1894321,3.4975617,-3.0301204,-0.84086925,0.40907153,-0.35440004,0
-0.55778497,5.2431779,-6.7305622,-0.065238006,0.61323714,-0.78720021,0
8.2204819,1.5910611,1.7305199,0.96145988,0.18608901,0.20239998,0
-3.6338346,2.0764768,-7.4556012,-0.42500988,0.24286278,-0.8720001,0
-8.3247547,-1.5749534,-1.1491202,-0.97365552,-0.18420507,-0.13440003,0
-0.73414564,7.7085309,-3.625201,-0.085864983,0.90158254,-0.42400011,0
5.6856575,4.4886761,4.5417604,0.66498917,0.52499133,0.53120005,0
-6.7351255,5.238431,0.54720134,-0.78773397,0.61268198,0.064000152,0
8.305912,-1.5573586,1.2996004,0.9714517,-0.1821472,0.15200004,0
4.9174995,4.6101542,5.2599602,0.57514614,0.53919929,0.61519998,0
-7.0474181,-2.6427817,4.0561199,-0.8242594,-0.30909726,0.47439998,0
-2.0367587,-0.33945945,8.2969198,-0.23821738,-0.039702859,0.97039998,0
-1.1090083,-8.0403118,2.6881192,-0.12970857,-0.94038731,0.3143999,0
3.4975617,-7.1894321,-3.0301204,0.40907153,-0.84086925,-0.35440004,0
-5.0977874,5.0977874,-4.5964804,-0.59623241,0.59623241,-0.53760004,0
-5.2196636,4.2985468,5.2326007,-0.61048698,0.50275397,0.61200005,0
-5.5897908,5.0013924,4.1039996,-0.65377671,0.58495814,0.47999993,0
6.7665896,-3.2361951,4.1039991,0.79141396,-0.37850234,0.4799999,0
-2.9362249,-3.9149668,7.0110002,-0.34341812,-0.45789084,0.81999999,0
-4.7617898,-3.4919796,6.1833596,-0.55693448,-0.40841866,0.72319996,0
8.3699217,1.5218041,0.85500073,0.97893816,0.17798878,0.10000008,0
-3.8599544,6.2094922,-4.4323201,-0.45145664,0.72625637,-0.51840001,0
-3.6999786,5.5499682,5.3488798,-0.43274602,0.64911908,0.62559998,0
3.814734,4.4505224,6.2244005,0.44616771,0.52052891,0.72800004,0
3.6201315,2.632822,7.2846003,0.4234072,0.30793241,0.852,0
2.3193042,-6.4940534,-5.0547605,0.27126366,-0.75953841,-0.59120005,0
7.3420005,-4.3039308,0.82079947,0.85871351,-0.5033837,0.095999934,0
6.9825988,0.30359092,4.9247994,0.81667823,0.035507709,0.57599992,0
2.0764768,3.6338346,-7.4556012,0.24286278,0.42500988,-0.8720001,0
-4.0181608,5.2545185,5.4172797,-0.46996033,0.61456358,0.63359994,0
-4.9708638,-6.8022346,1.4569204,-0.58138758,-0.79558301,0.17040004,0
-5.281826,1.9206643,-6.4432807,-0.61775744,0.2246391,-0.75360006,0
7.8483453,3.2912414,0.82080001,0.91793507,0.38494051,0.096000001,0
6.586832,2.9940147,4.555439,0.77038968,0.35017717,0.5327999,0
0,-7.2006202,4.6101599,0,-0.84217781,0.53919995,0
2.3215628,-3.3165183,7.5308404,0.2715278,-0.38789687,0.88080001,0
2.6918664,1.3459333,-8.0028009,0.31483817,0.1574191,-0.93600011,0
7.3087568,4.3395743,-0.92339963,0.85482532,0.50755256,-0.10799995,0
3.6523294,-7.3046589,-2.5308008,0.42717302,-0.85434604,-0.29600009,0
-4.6586881,-0.89208925,-7.1136003,-0.5448758,-0.10433792,-0.83200002,0
4.4427099,5.9236135,4.275001,0.51961517,0.69282031,0.50000012,0
4.9248004,-6.5664001,2.3939996,0.57600003,-0.76800001,0.27999994,0
7.6636634,1.9868757,3.2284808,0.89633489,0.23238312,0.37760007,0
-1.6667023,3.3334045,7.6949997,-0.19493593,0.38987187,0.89999992,0
-5.179646,0.64745516,6.7716002,-0.60580653,0.075725749,0.792,0
-4.3401623,-6.3294029,-3.7688401,-0.50762129,-0.74028105,-0.44080001,0
5.4676342,0,6.5732398,0.63948935,0,0.76879996,0
6.56738,5.2539034,1.5390004,0.76811463,0.61449158,0.18000004,0
4.3525405,5.8591895,-4.4528408,0.50906903,0.68528533,-0.52080005,0
-2.9467616,-2.0627332,-7.7565603,-0.34465048,-0.24125534,-0.90720004,0
-2.8002255,5.7404628,-5.6840415,-0.32751176,0.67139912,-0.66480017,0
-4.5964799,0,7.2093606,-0.53759998,0,0.84320003,0
-1.6821395,-7.8499842,2.9412,-0.19674146,-0.91812676,0.34399998,0
3.6419585,-1.9865227,7.47612,0.42596003,-0.23234183,0.87439996,0
-7.3292603,-3.8003571,2.223001,-0.85722339,-0.4444862,0.26000011,0
6.2393951,2.7392466,-5.1642017,0.72975379,0.3203797,-0.60400021,0
-0.59172952,-7.396615,4.2476401,-0.06920813,-0.86510116,0.49680001,0
5.7103152,-6.229434,1.2995988,0.66787308,-0.72858876,0.15199986,0
-3.2803485,-3.2803485,7.1820002,-0.38366649,-0.38366649,0.83999997,0
6.9676065,4.5557437,1.9493999,0.81492472,0.53283548,0.22799999,0
1.2715777,-4.8743811,-6.9084005,0.14872253,-0.57010305,-0.80800003,0
3.5676227,-4.7143593,-6.1765194,0.4172658,-0.55138701,-0.72239989,0
8.0430079,2.3911648,-1.6416005,0.94070268,0.27966839,-0.19200005,0
2.01722,7.4925323,3.5910006,0.23593216,0.87631953,0.42000005,0
-7.708395,2.371814,-2.8385994,-0.90156662,0.27740514,-0.33199993,0
5.4366345,1.5990105,6.4022398,0.63586366,0.18701877,0.74879998,0
4.242178,3.7573574,-6.4022412,0.49616116,0.439457,-0.7488001,0
0.6785053,-2.0355179,8.2764006,0.079357341,-0.23807226,0.96800005,0
3.4149623,7.1145043,3.29004,0.39941078,0.83210576,0.38479999,0
-1.5129244,-3.7823107,-7.5171595,-0.17695022,-0.44237551,-0.87919992,0
3.7823107,-1.5129244,-7.5171595,0.44237551,-0.17695022,-0.87919992,0
-4.7388906,-7.1083369,-0.34200016,-0.5542562,-0.83138442,-0.040000018,0
2.2240832,-7.7842927,2.7496803,0.26012668,-0.91044354,0.32160002,0
-2.3599491,7.0798464,4.1723995,-0.27601743,0.82805216,0.48799995,0
8.1347132,-0.8134712,-2.5034387,0.95142841,-0.095142826,-0.29279983,0
-1.2715776,5.7221007,6.2244,-0.14872253,0.66925156,0.72799999,0
7.277638,4.4604878,-0.49248004,0.85118568,0.52169448,-0.057600003,0
1.8481674,6.6226001,-5.0821204,0.21615992,0.77457309,-0.59440005,0
-4.4604878,7.277638,-0.49248004,-0.52169448,0.85118568,-0.057600003,0
-0.63755292,5.7379737,6.3064799,-0.074567594,0.67110801,0.73759997,0
3.8003571,7.3292603,2.223001,0.4444862,0.85722339,0.26000011,0
7.396615,-0.59172952,4.2476401,0.86510116,-0.06920813,0.49680001,0
5.9822755,-5.047545,-3.4405191,0.69968134,-0.59035611,-0.4023999,0
7.6090202,3.8045094,0.85500002,0.88994384,0.44497186,0.1,0
-1.3967508,7.9814339,-2.7291586,-0.16336267,0.93350101,-0.31919983,0
8.4165745,1.1373752,-0.98496032,0.98439467,0.13302635,-0.11520004,0
6.6136398,-5.3417864,0.90972012,0.77352512,-0.62477034,0.10640001,0
-4.6211023,-7.0416794,-1.4706,-0.54047978,-0.82358819,-0.17199999,0
-5.612319,6.3776355,0.96444005,-0.65641159,0.74592227,0.1128,0
-3.5918734,-3.2653389,7.0383601,-0.42010215,-0.38191098,0.82319999,0
2.8935628,-7.8915343,1.5663593,0.33842838,-0.92298645,0.18319991,0
-3.9060776,2.3817546,-7.2230401,-0.45685118,0.27856779,-0.8448,0
2.2997355,3.9424045,7.2298803,0.2689749,0.46109992,0.84560001,0
-3.2997591,-2.764663,-7.3872004,-0.38593674,-0.3233524,-0.86400002,0
-6.801753,-3.9676893,-3.3310809,-0.79552668,-0.46405721,-0.3896001,0
-0.67463386,-2.6985343,8.0848799,-0.078904547,-0.31561804,0.94559997,0
7.0499134,-4.7838702,0.71820116,0.82455128,-0.55951697,0.084000133,0
2.6656258,-7.1083369,-3.9329998,0.3117691,-0.83138442,-0.45999998,0
-0.66962206,3.3481092,7.8386397,-0.078318365,0.39159173,0.91679996,0
-6.9136467,-4.1481881,-2.8454399,-0.80861366,-0.48516819,-0.33279997,0
-8.3699217,-1.5218041,0.85500073,-0.97893816,-0.17798878,0.10000008,0
-0.68002158,-1.7000535,8.3516397,-0.079534687,-0.19883665,0.97679996,0
3.773114,6.6478682,-3.8303998,0.44129986,0.77752841,-0.44799995,0
-2.9571748,7.9616251,-0.98496109,-0.34586838,0.93118417,-0.11520012,0
0.66015691,3.5208378,-7.763401,0.077211335,0.41179389,-0.90800011,0
2.9586465,6.8048863,4.2476392,0.34604052,0.79589313,0.49679989,0
-2.492615,5.9199595,5.6430001,-0.29153392,0.69239289,0.66000003,0
8.4165745,1.1373752,-0.98496032,0.98439467,0.13302635,-0.11520004,0
-3.0220883,1.0073618,7.9344001,-0.35346061,0.11782008,0.92799997,0
-2.5307078,7.592123,-3.0095992,-0.29598922,0.88796759,-0.35199991,0
3.5989585,-6.216382,-4.6375208,0.4209308,-0.72706223,-0.54240006,0
5.450407,-6.0560083,-2.5923598,0.63747448,-0.70830506,-0.30319998,0
6.049222,-5.4992914,2.5034394,0.70751131,-0.64319199,0.29279992,0
2.8817439,-7.2043581,3.5909998,0.33704606,-0.84261495,0.41999999,0
-7.8756418,1.4063649,3.0164399,-0.92112768,0.16448712,0.35279998,0
-1.0073628,3.0220873,7.9344006,-0.11782021,0.35346049,0.92800003,0
-6.0091572,0.31627113,6.0739202,-0.70282537,0.036990773,0.71039999,0
4.9248004,-6.5664001,-2.3940001,0.57600003,-0.76800001,-0.28,0
2.8411117,5.3665462,6.0191998,0.33229375,0.62766618,0.704,0
1.5910611,-8.2204819,1.7305199,0.18608901,-0.96145988,0.20239998,0
3.2912414,7.8483453,0.82080001,0.38494051,0.91793507,0.096000001,0
-5.6097345,-3.1165187,5.6498399,-0.65610927,-0.36450511,0.66079998,0
0.39736769,-6.092977,-5.9850006,0.046475753,-0.7126289,-0.70000005,0
6.3234234,3.3122702,4.7059207,0.73958164,0.3874,0.55040008,0
-1.5218041,8.3699217,0.85500073,-0.17798878,0.97893816,0.10000008,0
-3.5083802,-6.7243948,3.9466803,-0.41033685,-0.78647888,0.46160004,0
7.5197668,1.8340898,-3.6320419,0.87950486,0.21451342,-0.42480022,0
-2.7772763,6.9431906,-4.1450386,-0.32482764,0.81206906,-0.48479983,0
5.5315385,-6.3217592,1.5937203,0.64696354,-0.73938704,0.18640003,0
-4.5745182,7.2229238,-0.075240426,-0.53503138,0.84478641,-0.0088000493,0
8.3689299,1.7230148,0.30780131,0.97882217,0.2015222,0.036000151,0
3.9806664,-0.58051378,-7.5445213,0.46557501,-0.067896344,-0.88240016,0
-5.7351675,-6.1763349,-1.4363997,-0.67077982,-0.72237831,-0.16799997,0
-3.4107883,-5.5812893,5.5061998,-0.39892259,-0.65278238,0.64399999,0
-2.6918685,1.3459347,8.0028,-0.31483841,0.15741926,0.93599999,0
4.2290616,-6.7664995,3.0711603,0.49462709,-0.79140341,0.35920003,0
4.3058772,-4.4404359,-5.9029193,0.50361139,-0.51934922,-0.69039989,0
-4.9248004,-6.5664001,2.3939996,-0.57600003,-0.76800001,0.27999994,0
-6.8298697,-1.08657,-5.0274,-0.79881513,-0.12708421,-0.588,0
-2.2123778,-5.5960145,-6.0739202,-0.25875762,-0.6545046,-0.71039999,0
-4.8119535,4.9671779,-5.0274,-0.5628016,0.58095646,-0.588,0
-0.65159792,-2.8433359,-8.0369997,-0.076210283,-0.33255389,-0.93999994,0
3.3107865,-7.4492688,2.5786808,0.38722649,-0.87125951,0.30160007,0
-2.2641125,2.6178801,-7.81812,-0.26480848,0.3061848,-0.91439998,0
-4.8407202,2.2590024,6.6758399,-0.5661661,0.26421082,0.78079998,0
5.7778282,-5.7778292,2.5171204,0.67576939,-0.67576951,0.29440004,0
-7.592123,-2.5307078,-3.0095992,-0.88796759,-0.29598922,-0.35199991,0
-7.1259637,1.3257604,-4.5349202,-0.83344603,0.1550597,-0.53040004,0
-2.2634401,4.1332388,-7.1341209,-0.26472983,0.48341972,-0.83440012,0
5.0644093,-6.1898336,3.0232799,0.59232855,-0.72395712,0.3536,0
-6.3294029,4.3401623,-3.7688401,-0.74028105,0.50762129,-0.44080001,0
6.5162549,0.31029758,5.5267205,0.76213509,0.036292113,0.64640003,0
-8.2683353,1.8086982,1.2106804,-0.96705675,0.21154363,0.14160004,0
2.6053841,-4.2337499,6.9562802,0.30472329,-0.49517542,0.8136,0
8.0207796,-0.19562857,-2.9548814,0.93810284,-0.022880534,-0.34560016,0
7.981462,0.58400881,-3.0096014,0.93350428,0.06830512,-0.35200015,0
6.9559646,1.2097335,4.8221993,0.81356311,0.1414893,0.56399989,0
2.5005784,6.8349156,-4.487041,0.2924653,0.79940534,-0.52480012,0
-3.0252216,0.67227083,7.9686003,-0.35382709,0.078628168,0.93199998,0
-5.2196636,4.2985468,5.2326007,-0.61048698,0.50275397,0.61200005,0
2.9548798,-4.9247994,-6.3338408,0.34559998,-0.57599992,-0.74080008,0
0.36707321,-4.4048762,-7.3187995,0.042932536,-0.51519018,-0.85599995,0
7.1797981,4.4873738,-1.1901594,0.83974248,0.52483904,-0.13919993,0
-6.741437,0.91928601,5.1778803,-0.78847212,0.10751883,0.6056,0
-8.0403118,-1.1090083,2.6881192,-0.94038731,-0.12970857,0.3143999,0
3.6661382,-5.8047185,5.0957999,0.42878807,-0.67891443,0.59599996,0
-4.5874934,0.98303348,7.1478004,-0.53654891,0.11497467,0.83600003,0
6.7154036,-5.1484756,-1.2243602,0.78542727,-0.60216087,-0.14320002,0
1.1093459,-6.2400718,-5.738759,0.12974806,-0.72983295,-0.67119986,0
6.1908617,5.0300751,-3.0779994,0.7240774,0.58831286,-0.35999992,0
-0.29610142,7.4025426,4.2681603,-0.034631744,0.86579442,0.49920002,0
-6.7565355,0,5.23944,-0.79023808,0,0.6128,0
5.1098061,-2.554903,6.3611994,0.59763813,-0.29881907,0.7439999,0
2.6554704,-2.9874051,7.5582004,0.31058133,-0.3494041,0.884,0
0.37011883,7.7725034,-3.5431211,0.043288752,0.90906471,-0.41440013,0
6.1096568,1.221931,-5.8550391,0.7145797,0.1429159,-0.68479991,0
-5.531539,6.3217587,1.5937195,-0.6469636,0.73938698,0.18639994,0
-8.01826,-1.3824589,2.626559,-0.93780816,-0.1616911,0.30719987,0
-2.6769667,-6.456214,-4.9247994,-0.31309551,-0.75511271,-0.57599992,0
0,4.8937073,7.0110006,0,0.57236344,0.82000005,0
5.1289735,-6.8386321,0.17100057,0.59987992,-0.79983997,0.020000067,0
4.6359601,-3.9736798,-5.9850016,0.54221755,-0.46475786,-0.70000017,0
-7.5934725,-3.2543454,2.2024798,-0.88812542,-0.38062519,0.25759998,0
-5.8683815,-3.0886216,5.3967605,-0.68636042,-0.36124229,0.63120002,0
-3.6512656,7.5173125,-1.8057609,-0.42704859,0.8792178,-0.2112001,0
6.8938518,-4.7395229,-1.7647197,0.80629843,-0.55433017,-0.20639996,0
-1.8458879,-6.4606075,5.2873197,-0.21589331,-0.75562662,0.61839992,0
1.0981345,8.3458204,-1.4979599,0.12843679,0.97611934,-0.17519999,0
-6.0665169,-5.8027558,1.6210804,-0.70953411,-0.67868489,0.18960004,0
8.2062187,2.3446343,-0.5130015,0.95979166,0.27422622,-0.060000174,0
-2.7579536,7.8495612,-1.9699202,-0.32256767,0.91807729,-0.23040001,0
-6.027154,-6.027154,0.67031938,-0.70493025,-0.70493025,0.078399926,0
6.1576276,-0.13386135,-5.9302788,0.72019035,-0.015656298,-0.69359982,0
0.3385624,-2.3699389,8.2080002,0.03959794,-0.27718583,0.95999998,0
-4.4427104,5.9236135,4.2750001,-0.51961523,0.69282031,0.5,0
-6.8022346,4.9708638,1.4569204,-0.79558301,0.58138758,0.17040004,0
-7.0220189,1.4697244,-4.6512003,-0.82128876,0.17189759,-0.54400003,0
5.4462147,0.23175357,-6.5869222,0.63698417,0.02710568,-0.77040023,0
-3.3334036,1.6667023,7.6950002,-0.38987175,0.19493593,0.89999998,0
-6.8877134,-4.7684174,1.7100002,-0.8055805,-0.55770963,0.20000002,0
-1.462834,-1.6401473,-8.2627201,-0.17109169,-0.1918301,-0.96639997,0
-8.1848545,-1.8481927,1.6416,-0.95729291,-0.21616289,0.192,0
6.2393951,2.7392466,-5.1642017,0.72975379,0.3203797,-0.60400021,0
-1.0858163,7.6007142,-3.762001,-0.12699606,0.8889724,-0.44000012,0
-0.97886115,-5.6284509,-6.3612008,-0.11448668,-0.65829831,-0.74400008,0
-5.5631528,-2.5166643,-5.9850011,-0.65066111,-0.29434669,-0.70000011,0
-3.6419585,-1.9865227,7.47612,-0.42596003,-0.23234183,0.87439996,0
0.9887991,4.2848001,7.3324804,0.11564901,0.5011462,0.85760003,0
4.7617888,3.4919796,6.1833606,0.55693436,0.40841866,0.72320002,0
6.9259181,3.4629591,3.6251998,0.81004888,0.40502444,0.42399997,0
3.2102485,-7.7045979,-1.8536402,0.37546766,-0.90112257,-0.21680002,0
1.8516451,4.2880201,-7.1614799,0.21656668,0.50152284,-0.83759999,0
3.814734,4.4505224,6.2244005,0.44616771,0.52052891,0.72800004,0
0.25066501,-8.5226183,0.63611984,0.029317545,-0.99679744,0.074399978,0
-8.2481098,-1.5193886,-1.6621197,-0.96469116,-0.17770626,-0.19439997,0
-4.5473394,2.2736697,6.8742003,-0.53185254,0.26592627,0.80400002,0
-2.8172998,7.3249793,-3.3926394,-0.32950875,0.85672271,-0.39679992,0
5.6748099,6.3841605,-0.3761996,0.66372043,0.74668545,-0.043999951,0
3.4397113,-5.3159165,5.7456002,0.40230542,-0.62174463,0.67199999,0
3.7792647,-4.6915011,-6.0670819,0.44201925,-0.54871356,-0.70960021,0
-0.67850631,-2.0355179,8.2764006,-0.07935746,-0.23807226,0.96800005,0
-5.7717361,6.2736263,0.65664035,-0.67505682,0.73375744,0.076800041,0
1.4185041,7.4471488,-3.9535208,0.16590691,0.87101156,-0.46240008,0
-2.7079406,-6.61941,4.6854,-0.31671819,-0.77419996,0.54799998,0
-0.98100966,-4.191586,-7.3872004,-0.11473797,-0.49024397,-0.86400002,0
-1.9767482,-3.9534965,7.3188,-0.23119862,-0.46239725,0.85600001,0
7.0220184,-1.4697249,-4.6512008,0.8212887,-0.17189765,-0.54400009,0
-7.35888,-0.85568392,-4.2681608,-0.86068773,-0.10007999,-0.49920008,0
-5.132894,2.7542362,-6.2586007,-0.60033846,0.32213289,-0.73200005,0
8.3458204,-1.0981345,-1.4979599,0.97611934,-0.12843679,-0.17519999,0
6.4104853,5.1697459,-2.2982402,0.74976432,0.60464865,-0.26880002,0
8.4550371,1.1743109,-0.48564079,0.98889321,0.1373463,-0.05680009,0
0.54651505,8.1977339,2.3666396,0.063919887,0.95879924,0.27679995,0
7.1083374,2.6656263,-3.9329982,0.83138448,0.31176916,-0.45999977,0
3.8852758,-7.5115352,1.2585597,0.45441821,-0.87854213,0.14719996,0
7.5227561,4.0121374,0.64295894,0.8798545,0.46925583,0.075199872,0
4.805799,2.8834791,6.4569612,0.56208175,0.33724901,0.75520015,0
-3.5597446,-1.2381719,-7.6744804,-0.41634437,-0.14481543,-0.89760005,0
-5.7588573,-0.87634772,-6.2586007,-0.67355055,-0.10249681,-0.73200005,0
8.1897402,-0.40948725,-2.4213588,0.95786434,-0.047893245,-0.28319985,0
4.4980483,4.7882447,-5.4719996,0.52608752,0.56002861,-0.63999993,0
-2.9766028,-2.9766028,7.4419203,-0.34814066,-0.34814066,0.87040001,0
-7.1894321,3.4975617,-3.0301204,-0.84086925,0.40907153,-0.35440004,0
-1.0208572,-1.3611425,8.3790007,-0.1193985,-0.15919796,0.98000008,0
-1.6272155,8.3685379,-0.64980066,-0.1903176,0.97877634,-0.076000072,0
-3.2667341,-0.13333616,-7.9002008,-0.38207415,-0.015594872,-0.92400008,0
2.3977101,6.2939882,-5.2668018,0.28043392,0.73613894,-0.61600018,0
-8.4165745,-1.1373752,-0.98496032,-0.98439467,-0.13302635,-0.11520004,0
2.9510293,3.6068151,7.1683202,0.34514961,0.4218497,0.83840001,0
-4.1481881,-6.9136467,-2.8454399,-0.48516819,-0.80861366,-0.33279997,0
4.134541,-4.134541,6.2380805,0.48357204,-0.48357204,0.72960007,0
1.6845024,2.3583024,8.0438404,0.19701782,0.27582484,0.94080001,0
4.7956553,5.6520228,-4.2613182,0.56089532,0.66105527,-0.49839976,0
2.9969029,-2.330925,7.6608005,0.35051495,-0.27262279,0.89600003,0
-5.4769053,1.0715681,-6.4774804,-0.64057374,0.1253296,-0.75760001,0
8.3081932,-0.63909185,-1.9151993,0.97171849,-0.074747585,-0.22399992,0
-1.6845024,-2.3583024,8.0438404,-0.19701782,-0.27582484,0.94080001,0
-0.98880005,4.2848001,7.3324804,-0.11564913,0.5011462,0.85760003,0
8.0430079,2.3911648,-1.6416005,0.94070268,0.27966839,-0.19200005,0
3.2667344,0.13333596,-7.9002008,0.38207418,0.015594849,-0.92400008,0
0.32372752,-1.9828315,-8.3106003,0.037862867,-0.23191011,-0.972,0
-3.3246202,-7.7574468,-1.3679999,-0.38884446,-0.90730369,-0.15999998,0
5.735168,6.1763344,-1.4363986,0.67077988,0.72237825,-0.16799983,0
-0.29610142,-7.4025426,4.2681603,-0.034631744,-0.86579442,0.49920002,0
8.3976927,-0.52485609,1.5184803,0.98218626,-0.061386675,0.17760003,0
-1.6055797,6.9039931,-4.7811604,-0.1877871,0.80748457,-0.55920005,0
-2.0222354,-2.0222354,8.0575199,-0.23651876,-0.23651876,0.94239998,0
0.48770639,8.5348701,0.14363891,0.057041682,0.9982304,0.016799873,0
-2.3699389,-0.3385624,8.2080002,-0.27718583,-0.03959794,0.95999998,0
-2.7542355,5.1328936,-6.2586017,-0.3221328,0.6003384,-0.73200017,0
0.44370425,-8.4303885,-1.3543197,0.051895231,-0.98601031,-0.15839995,0
5.1553102,1.6110346,6.6279597,0.60296023,0.18842509,0.77519995,0
3.9249921,-5.0464191,-5.6771998,0.45906338,-0.59022444,-0.66399997,0
0,1.3636161,8.4405603,0,0.15948726,0.98720002,0
7.3523479,1.5755025,-4.0698009,0.85992372,0.18426929,-0.4760001,0
-4.8243828,-2.5730045,6.5732398,-0.5642553,-0.30093619,0.76879996,0
0.99410784,-3.9764352,7.5034804,0.11626992,-0.46508014,0.87760001,0
-8.4424,-0.22216822,-1.3337997,-0.98741519,-0.025984587,-0.15599996,0
3.9154446,-4.1601601,-6.3611999,0.45794672,-0.48656842,-0.74399996,0
-3.9617424,7.3952513,1.648441,-0.46336168,0.86494166,0.1928001,0
4.98523,4.0504985,5.6429996,0.58306783,0.47374251,0.65999997,0
5.4799371,-5.4799371,3.6115203,0.64092833,-0.64092833,0.42240003,0
-4.6821685,-7.1464682,0.32831922,-0.54762203,-0.83584422,0.038399909,0
-2.3699389,0.3385624,8.2080002,-0.27718583,0.03959794,0.95999998,0
8.1070881,2.7023633,0.27360055,0.94819742,0.31606588,0.032000065,0
-6.334475,1.583619,-5.5198803,-0.74087423,0.18521859,-0.64560002,0
1.3775417,-2.2252598,-8.1396008,0.16111597,-0.26026431,-0.95200008,0
-7.427371,3.9321377,-1.5732003,-0.86869836,0.45989913,-0.18400003,0
1.2715777,-4.8743811,-6.9084005,0.14872253,-0.57010305,-0.80800003,0
-7.1243119,1.8658913,-4.3434014,-0.83325285,0.2182329,-0.50800014,0
3.8465497,-5.692894,-5.0889602,0.44988886,-0.66583556,-0.5952,0
0.33355051,-3.6690598,7.7155199,0.039011754,-0.42912978,0.90239996,0
2.8606822,7.9218898,-1.4706006,0.33458272,0.9265368,-0.17200007,0
0.44722289,4.2933388,-7.3803616,0.052306768,0.50214487,-0.86320019,0
3.6627414,-7.5871086,1.4569194,0.4283908,-0.88738108,0.17039993,0
-7.3436823,-3.3741241,-2.79072,-0.8589102,-0.3946344,-0.32639998,0
0.6785053,-2.0355179,8.2764006,0.079357341,-0.23807226,0.96800005,0
-7.1220136,-0.32372808,-4.7196002,-0.83298403,-0.037862934,-0.55199999,0
-1.0073628,-3.0220883,7.9344001,-0.11782021,-0.35346061,0.92799997,0
-7.9468999,0.77530771,-3.0574801,-0.92946196,0.090679266,-0.3576,0
1.6423128,-4.2700119,7.2230401,0.19208336,-0.49941659,0.8448,0
3.3107865,-7.4492688,2.5786808,0.38722649,-0.87125951,0.30160007,0
2.0561905,8.2247639,1.1080805,0.24049011,0.96196067,0.12960006,0
-5.2531199,-6.5664001,-1.5458409,-0.61439997,-0.76800001,-0.1808001,0
-2.4760709,8.1035032,-1.1422809,-0.28959894,0.94777811,-0.1336001,0
-3.5173495,-7.4485059,-2.2914004,-0.41138589,-0.87117028,-0.26800004,0
0.330167,-4.2921748,7.3872004,0.03861602,-0.50200874,0.86400002,0
-4.5550241,1.6195645,-7.0520401,-0.53275132,0.18942274,-0.82480001,0
-7.549324,2.796047,2.8796403,-0.88296187,0.32702303,0.33680004,0
4.4741545,-3.5154078,6.3817201,0.5232929,-0.4111588,0.7464,0
7.1797981,-4.4873738,-1.1901594,0.83974248,-0.52483904,-0.13919993,0
-4.086452,5.6581645,-4.9384804,-0.47794759,0.66177362,-0.5776,0
6.4085512,-5.3404589,1.8741601,0.74953812,-0.62461507,0.2192,0
5.0464182,-3.9249916,-5.6772008,0.59022433,-0.45906332,-0.66400009,0
6.5115037,-0.62014359,5.5062008,0.76157933,-0.07253141,0.64400005,0
-5.281827,6.7223248,-0.12311887,-0.6177575,0.78623682,-0.014399868,0
8.3309822,-1.9042248,-0.2667613,0.97438389,-0.22271635,-0.031200152,0
-2.3699372,-0.33856243,-8.2080011,-0.27718562,-0.039597943,-0.9600001,0
5.6319828,6.0491676,-2.1888001,0.65871143,0.70750499,-0.25600001,0
-3.1887019,-3.1887019,-7.2640805,-0.37294757,-0.37294757,-0.84960002,0
7.3087568,4.3395743,-0.92339963,0.85482532,0.50755256,-0.10799995,0
-2.578671,7.950902,-1.7989204,-0.30159894,0.92993003,-0.21040004,0
-3.088243,-7.6176658,-2.3529603,-0.36119801,-0.89095503,-0.27520004,0
-1.023329,0.68221867,8.4610806,-0.1196876,0.079791658,0.98960006,0
6.8938518,-4.7395229,-1.7647197,0.80629843,-0.55433017,-0.20639996,0
1.2235762,-6.7296705,-5.1299996,0.14310832,-0.78709596,-0.59999996,0
-4.4873738,7.1797981,-1.1901594,-0.52483904,0.83974248,-0.13919993,0
0.81347173,-8.1347132,-2.5034406,0.095142893,-0.95142841,-0.29280007,0
1.7249826,7.2449255,-4.1997614,0.20175235,0.84735972,-0.49120015,0
0.70935053,-8.5122147,-0.37620059,0.082964972,-0.99558061,-0.044000067,0
-4.4427104,-5.9236135,4.2750001,-0.51961523,-0.69282031,0.5,0
1.8856453,8.0813379,2.0588396,0.2205433,0.94518572,0.24079995,0
-1.5129244,3.7823107,-7.5171595,-0.17695022,0.44237551,-0.87919992,0
-7.4967461,4.1111193,-4.8923494e-07,-0.8768124,0.48083267,-5.7220458e-08,0
2.7696092,-8.057044,0.71820009,0.32393089,-0.94234431,0.084000006,0
-7.6862674,3.719161,0.43776041,-0.89897859,0.43498957,0.051200047,0
-1.2235762,6.729671,5.1299992,-0.14310832,0.78709602,0.5999999,0
-2.7603786,8.0511045,-0.81396127,-0.3228513,0.94164962,-0.095200144,0
-5.4746075,0.11648089,-6.5664001,-0.64030492,0.013623497,-0.76800001,0
0.48861602,-0.76006949,-8.50212,0.057148073,-0.088897012,-0.99439996,0
-7.8678885,3.3378918,-0.23939897,-0.92022085,0.39039668,-0.02799988,0
-2.2568269,-7.5227561,-3.3789604,-0.26395637,-0.8798545,-0.39520004,0
-2.562947,3.2463994,-7.4829602,-0.29975989,0.37969583,-0.87520003,0
5.5442753,6.5084963,-0.054719895,0.64845324,0.76122761,-0.0063999877,0
1.5129244,-3.7823107,-7.5171595,0.17695022,-0.44237551,-0.87919992,0
-3.7934568,5.3983812,-5.4377999,-0.44367915,0.63138962,-0.63599998,0
-7.062942,-3.6727297,3.1190403,-0.82607508,-0.42955902,0.36480004,0
2.3529499,-2.0168145,7.9686003,0.27519882,-0.23588473,0.93199998,0
1.6845024,2.3583024,8.0438404,0.19701782,0.27582484,0.94080001,0
8.0435581,2.5946968,1.2927597,0.94076699,0.30347329,0.15119995,0
1.5193886,-8.2481098,-1.6621197,0.17770626,-0.96469116,-0.19439997,0
3.7768636,-7.5537262,-1.3338006,0.44173843,-0.88347673,-0.15600006,0
-2.6734519,2.3392699,7.7770801,-0.31268442,0.27359882,0.90959996,0
7.593472,3.2543457,2.202481,0.88812536,0.38062522,0.25760013,0
-0.64799762,-5.9615765,-6.0944409,-0.075789191,-0.69726038,-0.71280009,0
0.64745516,-5.179646,6.7716002,0.075725749,-0.60580653,0.792,0
0.99410784,3.9764352,7.5034804,0.11626992,0.46508014,0.87760001,0
-2.5166643,-5.5631528,-5.9850011,-0.29434669,-0.65066111,-0.70000011,0
-7.026175,-4.7596669,-1.0396804,-0.82177484,-0.55668616,-0.12160004,0
-7.9814625,0.58400893,-3.0095997,-0.93350434,0.068305135,-0.35199997,0
-2.8411126,5.3665462,6.0191998,-0.33229387,0.62766618,0.704,0
4.8667445,-1.6222489,6.8400006,0.56920987,-0.18973671,0.80000007,0
-8.0511045,2.7603788,-0.81395984,-0.94164962,0.32285133,-0.09519998,0
-4.5550241,1.6195645,-7.0520401,-0.53275132,0.18942274,-0.82480001,0
-2.994014,6.586832,4.5554395,-0.35017708,0.77038968,0.5327999,0
-3.8225749,7.6451497,-0.20519961,-0.44708475,0.89416951,-0.023999954,0
1.2381738,-1.4703314,-8.3311195,0.14481565,-0.17196858,-0.97439992,0
3.3310733,7.0322652,-3.5431199,0.3895992,0.82248712,-0.41439998,0
4.5321903,2.5898225,6.7716007,0.53008074,0.30290321,0.79200006,0
3.0220873,-1.0073628,7.9344006,0.35346049,-0.11782021,0.92800003,0
-7.3087568,-4.3395743,-0.92339963,-0.85482532,-0.50755256,-0.10799995,0
-5.0270228,6.8550315,-0.91656047,-0.58795589,0.80175805,-0.10720006,0
7.2914147,4.0746145,-1.8262788,0.85279703,0.4765631,-0.21359986,0
3.3179133,-0.067712449,-7.8796806,0.38806003,-0.0079195844,-0.92160004,0
3.51735,-7.4485054,-2.2914011,0.41138595,-0.87117022,-0.26800013,0
3.8214915,6.4671402,4.0834794,0.44695807,0.75639063,0.47759992,0
3.5597467,1.238173,-7.6744795,0.41634464,0.14481555,-0.89759994,0
-3.4973946,7.5328493,2.0314813,-0.40905198,0.88103497,0.23760015,0
-5.8744411,-4.699553,4.0629606,-0.68706912,-0.54965532,0.47520006,0
-7.7697401,0.28776789,3.5568008,-0.90874153,0.033657063,0.4160001,0
-5.6185098,-6.1536055,1.9152001,-0.65713561,-0.71971995,0.22400001,0
-0.68002158,-1.7000535,8.3516397,-0.079534687,-0.19883665,0.97679996,0
-2.1173415,-6.8406425,-4.671721,-0.24764228,-0.80007511,-0.54640013,0
7.2939386,1.017759,-4.3434005,0.85309219,0.11903613,-0.50800002,0
5.3960795,3.5500524,-5.6019597,0.63112038,0.41521078,-0.65519994,0
-1.5749534,8.3247547,-1.1491202,-0.18420507,0.97365552,-0.13440003,0
2.6616654,-4.0948701,-7.0178399,0.31130588,-0.47893217,-0.82079995,0
0.99896693,-3.6628828,7.6608,0.11683823,-0.42840734,0.89599997,0
-3.4935193,7.6420741,-1.5800411,-0.40859875,0.8938098,-0.18480012,0
3.8541694,-1.7518951,-7.4282398,0.45078003,-0.2049,-0.86879998,0
3.4397113,-5.3159165,5.7456002,0.40230542,-0.62174463,0.67199999,0
4.838932,5.1413651,4.8221993,0.56595695,0.60132921,0.56399989,0
3.698663,-6.8425274,-3.5499599,0.43259215,-0.80029559,-0.41519997,0
-4.1601601,-3.9154446,-6.3611999,-0.48656842,-0.45794672,-0.74399996,0
1.3529199,-6.6142769,-5.2462797,0.15823625,-0.77359962,-0.61359996,0
-7.149446,3.7733185,-2.7838807,-0.83619249,0.44132379,-0.32560009,0
5.9350352,3.3479691,-5.1642003,0.69415617,0.39157531,-0.60400003,0
-4.1999993,3.2307696,6.7100401,-0.49122798,0.37786779,0.78479999,0
-8.2505093,1.3307276,1.8057599,-0.96497184,0.15564065,0.21119998,0
-2.0367587,-0.33945945,8.2969198,-0.23821738,-0.039702859,0.97039998,0
3.4261165,-6.8522329,-3.7961998,0.40071538,-0.80143076,-0.44399998,0
-5.3600421,5.1871376,-4.1792407,-0.6269055,0.60668272,-0.48880008,0
7.427371,-3.932138,-1.573199,0.86869836,-0.45989916,-0.18399988,0
-7.9196305,3.0656633,0.99179983,-0.92627257,0.35855711,0.11599997,0
1.7059987,-1.6112208,-8.2216806,0.199532,-0.18844688,-0.96160007,0
-4.5321903,-6.5150237,3.1806004,-0.53008074,-0.76199108,0.37200004,0
6.8522329,3.4261165,-3.7961998,0.80143076,0.40071538,-0.44399998,0
-8.0696211,0.55652499,2.7701993,-0.94381529,0.065090641,0.32399991,0
-4.2894106,0.65990877,7.3666801,-0.50168544,0.077182308,0.86159998,0
-0.32372808,-7.1220136,-4.7196002,-0.037862934,-0.83298403,-0.55199999,0
0.83352554,8.0574217,2.7359993,0.097488366,0.94238847,0.3199999,0
5.6532502,5.4648089,-3.3584414,0.66119885,0.6391589,-0.39280015,0
-8.1897402,0.40948659,-2.4213603,-0.95786434,0.047893167,-0.28320003,0
2.994015,-6.5868311,4.5554399,0.35017717,-0.77038956,0.53279996,0
-4.3097959,-3.3779485,-6.566401,-0.50406969,-0.3950817,-0.76800013,0
-5.4201255,6.598413,-0.43091857,-0.63393277,0.77174419,-0.050399832,0
8.3375759,1.3027465,1.3748403,0.97515506,0.15236801,0.16080002,0
0.58400881,7.981462,-3.0096014,0.06830512,0.93350428,-0.35200015,0
-1.9865227,-3.6419585,7.47612,-0.23234183,-0.42596003,0.87439996,0
8.0421658,-1.2063249,-2.6402388,0.94060415,-0.14109063,-0.30879986,0
5.0010529,-0.74483752,-6.894722,0.58491844,-0.087115496,-0.80640024,0
-1.575503,-7.3523474,-4.0698013,-0.18426935,-0.85992366,-0.47600013,0
-0.98100966,-4.191586,-7.3872004,-0.11473797,-0.49024397,-0.86400002,0
3.3502047,0.33502007,7.8591599,0.39183679,0.039183632,0.91919994,0
-5.8047185,3.6661382,5.0957999,-0.67891443,0.42878807,0.59599996,0
-2.5407996,-7.2594285,-3.7346401,-0.29716954,-0.84905595,-0.4368,0
-0.59172952,-7.396615,4.2476401,-0.06920813,-0.86510116,0.49680001,0
2.6762669,-6.8393502,4.3776007,0.31301367,-0.79992396,0.51200008,0
1.4290531,7.7168841,3.3926406,0.16714071,0.90255952,0.39680007,0
-6.6782293,-3.7746513,3.7756805,-0.78107941,-0.44147968,0.44160005,0
-4.3979874,7.3299785,0.17783934,-0.51438445,0.85730737,0.020799922,0
-5.7005363,-5.9719901,2.2229998,-0.66672939,-0.69847834,0.25999996,0
-6.9858475,4.8900924,-0.62243986,-0.81705815,0.5719406,-0.072799981,0
4.6721663,-6.7035418,-2.5171199,0.54645216,-0.78403997,-0.29439998,0
-8.5406599,-0.23724031,-0.32148069,-0.99890757,-0.027747404,-0.037600081,0
2.2081971,5.6782222,5.9986801,0.25826865,0.66411954,0.70160002,0
-6.1178823,3.0589409,-5.1300001,-0.71554178,0.35777086,-0.60000002,0
1.5930452,3.3378093,-7.7086792,0.18632108,0.39038706,-0.90159988,0
-5.1885991,5.7651095,3.5978403,-0.60685366,0.67428178,0.42080003,0
-2.1445775,-8.0421648,1.9562395,-0.25082776,-0.94060403,0.22879994,0
-2.9548807,6.5664005,-4.6101589,-0.34560007,0.76800007,-0.53919989,0
-0.77530706,7.9468994,-3.0574815,-0.090679184,0.9294619,-0.35760018,0
5.7101674,-1.5861579,6.1628399,0.6678558,-0.18551554,0.72079998,0
7.981462,0.58400881,-3.0096014,0.93350428,0.06830512,-0.35200015,0
-6.377635,5.6123195,0.96443915,-0.74592221,0.65641165,0.1127999,0
-1.08657,-6.8298697,-5.0274,-0.12708421,-0.79881513,-0.588,0
2.6769669,-6.4562135,-4.9248004,0.31309554,-0.75511265,-0.57600003,0
-4.0504017,-4.0504017,-6.3475184,-0.47373119,-0.47373119,-0.74239981,0
-5.2157764,4.4487505,-5.1094813,-0.61003232,0.52032167,-0.59760016,0
6.1536064,5.6185088,1.9152001,0.71972001,0.65713555,0.22400001,0
-6.2393961,2.7392473,-5.1642003,-0.72975391,0.32037979,-0.60400003,0
1.5821556,7.9107795,-2.8317585,0.18504743,0.92523736,-0.33119982,0
5.8591895,4.3525405,-4.4528408,0.68528533,0.50906903,-0.52080005,0
6.5150242,-4.5321903,3.1805995,0.76199114,-0.53008074,0.37199992,0
-8.3466473,0,-1.8536392,-0.97621602,0,-0.2167999,0
-0.13333616,-3.2667341,-7.9002008,-0.015594872,-0.38207415,-0.92400008,0
3.8214915,-6.4671397,4.0834804,0.44695807,-0.75639057,0.47760004,0
5.4986534,6.3784385,-1.4774408,0.64311737,0.7460162,-0.17280009,0
2.936224,3.9149668,7.0110006,0.343418,0.45789084,0.82000005,0
-7.5410438,-4.0061793,-0.43091938,-0.88199341,-0.46855897,-0.050399926,0
-4.5321903,-6.5150237,3.1806004,-0.53008074,-0.76199108,0.37200004,0
-2.3302026,-3.1337202,-7.6060801,-0.2725383,-0.36651698,-0.88959998,0
5.6353469,2.8176725,5.7798004,0.65910488,0.32955232,0.67600006,0
-2.2039032,-7.8138375,-2.6812794,-0.25776646,-0.91389912,-0.31359991,0
-1.088914,8.1668568,2.2845595,-0.12735836,0.95518792,0.26719993,0
-8.5348701,0.48770642,0.14364034,-0.9982304,0.057041686,0.016800039,0
6.4671402,3.8214915,4.0834794,0.75639063,0.44695807,0.47759992,0
4.3058772,-4.4404359,-5.9029193,0.50361139,-0.51934922,-0.69039989,0
