-2.9587524,-7.1358151,-5.4431992,-0.31309551,-0.75511271,-0.57599992,0
-1.3209028,7.9254189,4.9744797,-0.13977808,0.8386687,0.52639997,0
-7.8716989,-0.35780469,-5.2163997,-0.83298403,-0.03786293,-0.55199999,0
5.6838336,2.1314373,7.2424793,0.60146391,0.22554892,0.76639992,0
4.6948633,2.5280032,7.8019199,0.49681094,0.26751357,0.82560003,0
-5.1705923,-4.8258858,6.26724,-0.54715264,-0.51067573,0.66320002,0
8.5983629,3.793395,-0.99035811,0.90987968,0.40141746,-0.1047998,0
1.6244322,7.7611785,-5.1408,0.17189759,0.82128876,-0.54400003,0
-7.1952772,-6.0883117,0.68040037,-0.76140499,-0.64426577,0.072000042,0
6.050879,-0.12874198,-7.2576017,0.64030468,-0.01362349,-0.76800019,0
-7.4380565,1.3523737,-5.6699996,-0.78709596,0.14310834,-0.59999996,0
-2.6664407,-9.0658998,-0.045360092,-0.28216305,-0.95935452,-0.00480001,0
-2.6167672,-0.65419179,-9.056879,-0.27690658,-0.069226645,-0.95839989,0
-8.1736994,-4.3787675,1.8219597,-0.86494178,-0.46336165,0.19279997,0
-1.8710049,-1.8710049,9.0719995,-0.19798994,-0.19798994,0.95999998,0
1.0855381,-3.924638,-8.5276794,0.11487176,-0.41530561,-0.90239996,0
1.7413448,-8.1262789,-4.4982004,0.18426929,-0.85992372,-0.47600004,0
-4.3950071,-1.0987518,8.2933197,-0.46508014,-0.11627004,0.87760001,0
-1.6472305,7.9067049,4.9064393,-0.1743101,0.83668834,0.51919991,0
-2.2842588,2.8000593,-8.7318001,-0.24172051,0.29630259,-0.92400002,0
7.9995012,4.342586,-2.5401611,0.84650809,0.45953292,-0.26880014,0
-4.6948633,-2.5280032,7.8019199,-0.49681094,-0.26751357,0.82560003,0
-7.5932021,2.6411133,4.9669204,-0.80351347,0.2794829,0.52560008,0
-2.8023853,5.9550686,6.7813191,-0.29654872,0.63016599,0.71759993,0
0.96859521,6.3650546,-6.9173985,0.10249685,0.67355078,-0.73199987,0
-6.2950792,2.0983598,6.7283998,-0.66614598,0.22204867,0.71200001,0
7.6413984,-4.5848389,-3.1449614,0.8086136,-0.48516813,-0.33280015,0
-3.6891577,1.7607342,-8.5201187,-0.39038706,0.18632108,-0.90159988,0
-0.61649948,-5.7950935,-7.4390397,-0.065238044,-0.61323744,-0.78719997,0
2.7373054,-9.0331049,0.46116045,0.28966194,-0.95588416,0.048800047,0
8.7340536,-1.0651287,-3.4473617,0.9242385,-0.11271203,-0.36480018,0
4.7452703,3.954392,-7.1517611,0.50214499,0.41845417,-0.75680012,0
-3.2291734,8.8802261,0.12852074,-0.34171149,0.9397065,0.013600078,0
-3.6817124,-7.7725034,-3.9160798,-0.3895992,-0.82248718,-0.41439998,0
2.0158432,2.6205957,-8.8527594,0.21331674,0.27731171,-0.93679994,0
2.5428476,-8.7843819,-2.3813999,0.26908442,-0.92956424,-0.252,0
5.892313,-0.50147331,-7.3710017,0.6235252,-0.053065959,-0.78000021,0
-2.9850423,0,8.9661598,-0.3158775,0,0.94880003,0
-1.0045986,-7.7019219,5.3827205,-0.10630673,-0.81501824,0.56960005,0
-0.60404384,9.0606527,2.6157594,-0.063919984,0.95879924,0.27679995,0
1.7607342,-3.6891577,-8.5201187,0.18632108,-0.39038706,-0.90159988,0
0.7293728,4.7409277,8.1421204,0.077182308,0.5016855,0.86160004,0
4.6218758,-8.0882807,1.5875993,0.4890874,-0.85590273,0.16799992,0
6.0377054,0.71031755,7.2349195,0.63891065,0.075165883,0.76559997,0
-1.4653145,-7.8760648,-5.0122805,-0.15505974,-0.83344603,-0.53040004,0
4.1106515,8.495348,0.48384041,0.43498957,0.89897865,0.051200043,0
9.0669584,-0.22667377,-2.6535585,0.95946652,-0.023986643,-0.28079984,0
-1.7218723,6.8874874,6.237,-0.18220872,0.72883469,0.66000003,0
8.7434931,1.7486982,-3.1298382,0.92523736,0.18504743,-0.33119982,0
-5.2630305,-3.8595562,6.8342395,-0.55693448,-0.40841866,0.72319996,0
2.3725634,-7.117691,5.7455997,0.2510649,-0.75319481,0.60799998,0
9.0540371,1.3929288,-2.320919,0.95809919,0.14739989,-0.2455999,0
1.3929288,9.0540371,-2.320919,0.14739989,0.95809919,-0.2455999,0
-4.4591179,-7.3256941,3.9690006,-0.47186434,-0.77520573,0.42000008,0
-0.49041066,9.3177977,-1.4968797,-0.051895309,0.98601037,-0.15839997,0
-2.3569748,-8.0529966,-4.3469996,-0.24941534,-0.85216898,-0.45999998,0
-1.0540702,-2.6937351,-8.9964008,-0.11154182,-0.28505135,-0.95200008,0
7.2021761,0.34296048,6.1084805,0.76213503,0.036292113,0.64640003,0
2.4967921,5.3502684,7.3785605,0.26421082,0.56616598,0.78080004,0
2.6083636,7.8250933,4.6115999,0.27601731,0.82805222,0.48800001,0
5.0673413,-0.1055695,-7.975801,0.53622663,-0.011171376,-0.8440001,0
-8.3114901,-1.9180362,4.0672803,-0.8795228,-0.20296679,0.43040004,0
-8.3945379,4.3326654,0.24947925,-0.88831091,0.45848313,0.026399922,0
0.70790064,-7.7869024,-5.3071198,0.074910119,-0.82401085,-0.56159997,0
-5.3981261,-1.0796252,7.6809597,-0.57123029,-0.11424606,0.81279999,0
2.9587522,7.1358137,-5.443202,0.31309548,0.75511259,-0.57600021,0
-8.6744862,-3.6376877,0.90719998,-0.91793507,-0.38494051,0.096000001,0
7.874239,2.0623009,-4.800601,0.83325285,0.2182329,-0.50800014,0
-0.8686766,9.2658834,1.6405203,-0.091923453,0.98051679,0.17360003,0
-7.7920094,-5.2874351,0.7938,-0.82455128,-0.55951697,0.083999999,0
9.3025303,-1.2570989,-1.0886403,0.98439479,-0.13302635,-0.11520004,0
9.1802187,-1.7212911,1.4364003,0.97145176,-0.1821472,0.15200004,0
-8.7413969,-2.2413838,-2.804759,-0.92501557,-0.23718348,-0.2967999,0
-6.400825,1.5646464,-6.7737594,-0.67733598,0.16557105,-0.71679997,0
-8.9815817,2.4274552,-1.6556406,-0.95043194,0.25687358,-0.17520006,0
4.5438685,-8.2858772,-5.4073337e-07,0.48083267,-0.8768124,-5.7220465e-08,0
2.8700926,7.3546119,-5.1937222,0.3037135,0.77826583,-0.54960024,0
-1.49955,1.8744383,9.1400394,-0.15868254,0.19835326,0.96719998,0
-2.1956303,-4.0253224,8.2630796,-0.23234184,-0.42596006,0.87439996,0
-8.7457399,0.93704271,3.4549201,-0.92547512,0.099157959,0.36560002,0
-1.2523161,-1.8337486,-9.1854,-0.13252023,-0.19404747,-0.972,0
-6.1893973,1.650506,-6.947639,-0.65496272,0.17465672,-0.73519993,0
4.3853402,7.5177274,-3.68172,0.46405718,0.79552674,-0.38960001,0
6.1585002,-6.4664259,3.0920401,0.65169317,-0.68427789,0.32720003,0
-2.5980234,-8.9487476,1.5724798,-0.27492312,-0.94695747,0.16639999,0
1.4464719,5.0626488,7.84728,0.15306582,0.53573006,0.83039999,0
-7.4299374,5.8378086,-0.136081,-0.78623676,0.61775756,-0.014400106,0
1.7531219,6.3112373,6.8115597,0.18551554,0.6678558,0.72079998,0
-3.7184136,-8.0565624,3.2508001,-0.39348292,-0.85254633,0.34400001,0
4.7393909,2.046555,-7.9153194,0.50152284,0.21656668,-0.83759993,0
-8.209199,4.3460464,-1.7388003,-0.8686983,0.4598991,-0.18400003,0
-2.279865,3.2569499,-8.5730381,-0.24125557,0.3446508,-0.9071998,0
7.1936007,6.127883,-0.060479883,0.76122761,0.64845324,-0.0063999877,0
-1.0722148,-5.7184792,7.4466,-0.11346189,-0.60513008,0.78799999,0
-5.3658695,-2.1463478,7.4768395,-0.56781691,-0.22712675,0.79119998,0
-8.4204216,1.8483847,-3.8707194,-0.89104992,0.19559628,-0.40959996,0
8.0780993,-4.7963715,-1.0205996,0.85482532,-0.50755256,-0.10799996,0
-2.804342,8.9738951,0.95256042,-0.29675579,0.94961852,0.10080004,0
4.3326654,8.3945379,0.24947925,0.45848313,0.88831091,0.026399922,0
1.0160528,7.4510622,5.722919,0.10751882,0.78847224,0.60559988,0
-1.6258398,8.1291971,4.5359998,-0.17204654,0.86023253,0.47999999,0
-1.8771044,1.1262614,9.1929598,-0.19863538,0.1191811,0.97280002,0
-6.1850686,-2.4452596,-6.7132802,-0.65450466,-0.25875762,-0.71040004,0
-0.074840076,-3.6671672,-8.7091208,-0.0079195853,-0.38806003,-0.9216001,0
1.1294556,-9.3180027,1.0962007,0.11951911,-0.98603207,0.11600008,0
5.3936772,7.6646986,1.2096008,0.57075953,0.8110792,0.12800008,0
0,-8.2943192,-4.5284405,0,-0.87770575,-0.47920007,0
-6.1341748,-4.0894499,5.9119196,-0.64911902,-0.43274602,0.62559998,0
0.17938064,7.892756,-5.1937199,0.018982079,0.83521229,-0.54960001,0
-0.26983982,9.4444036,0.18143874,-0.028554479,0.99940783,0.019199867,0
3.2274218,4.6618314,-7.559998,0.34152612,0.49331549,-0.79999983,0
5.9937739,-2.1154497,6.9929996,0.63426179,-0.2238571,0.73999995,0
5.237721,-7.8565826,-0.37800017,0.5542562,-0.83138442,-0.040000018,0
-8.348855,4.174428,-1.4742006,-0.88347673,0.44173843,-0.15600006,0
-1.1041224,4.048449,8.4671993,-0.11683835,0.42840731,0.89599997,0
-3.4616544,8.6541367,1.5573593,-0.36631265,0.91578168,0.16479993,0
2.8327308,3.5881255,-8.2706404,0.29975986,0.37969583,-0.87520003,0
-5.7274365,-5.0536213,5.5641599,-0.60607797,-0.53477478,0.58880001,0
4.8258858,5.1705914,6.2672405,0.51067573,0.54715252,0.66320008,0
1.0722138,5.7184801,7.4465995,0.11346178,0.6051302,0.78799999,0
7.196104,-3.9251473,4.7023187,0.76149249,-0.4153595,0.49759987,0
9.3916378,0.82867318,0.64260149,0.99382412,0.087690286,0.06800016,0
3.951632,3.951632,7.6204796,0.41816214,0.41816214,0.8064,0
-2.3703225,8.8887081,2.1621592,-0.25082779,0.94060403,0.22879992,0
-5.6824617,1.7678767,-7.3407588,-0.60131872,0.18707691,-0.77679992,0
0.99249202,7.9399438,5.0273995,0.10502561,0.84020573,0.53199995,0
-6.3419704,0.70466268,6.9703197,-0.67110801,0.074567482,0.73759997,0
-0.99249297,-7.9399438,5.0273995,-0.10502572,-0.84020573,0.53199995,0
-3.9658229,8.4981937,1.1642398,-0.41966382,0.89927977,0.12319998,0
5.1942434,6.4928026,4.4906397,0.54965538,0.68706906,0.47519997,0
4.9476032,-7.8579569,1.7539203,0.52355593,-0.83152986,0.18560004,0
-7.3540187,-5.5890541,1.9958401,-0.77820307,-0.5914343,0.21120001,0
-3.0572608,-6.7939119,5.8136401,-0.32351968,-0.71893251,0.61520004,0
6.3244271,1.4054289,6.8795996,0.66925156,0.14872263,0.72799999,0
-1.184365,-6.053421,-7.1593204,-0.12532963,-0.64057368,-0.75760007,0
0.72964793,-3.8914568,-8.5805988,0.077211425,-0.41179439,-0.90799987,0
5.7095175,1.42738,7.3936791,0.60418177,0.1510455,0.78239995,0
-4.7081261,-7.9449625,2.0034008,-0.49821442,-0.84073681,0.21200009,0
-2.50244,2.8934462,-8.6410799,-0.26480848,0.3061848,-0.91439998,0
-3.5708494,-4.6421046,7.4163599,-0.37786767,-0.49122801,0.78479999,0
3.2616637,-3.9864795,7.9228802,0.34514961,-0.4218497,0.83840001,0
1.7191981,5.9510703,-7.1366391,0.18192573,0.62974292,-0.75519991,0
5.260684,7.7657728,-1.1491194,0.55668616,0.8217749,-0.12159993,0
-8.8802261,-3.2291734,0.12852074,-0.9397065,-0.34171149,0.013600078,0
6.6043162,-1.7379785,6.5318398,0.69886947,-0.18391307,0.69120002,0
-5.7139297,-7.0852728,-2.5401602,-0.60464865,-0.74976432,-0.26880002,0
-9.1066904,-1.1675248,-2.2377591,-0.96367097,-0.1235476,-0.23679991,0
-8.1752062,0.65401584,4.6947598,-0.86510122,0.069208026,0.49680001,0
0,9.4232416,0.71064132,0,0.99716842,0.07520014,0
-5.1532364,2.1081424,-7.6356001,-0.54531604,0.22308385,-0.80800003,0
-4.3089614,-3.5908008,7.60536,-0.45597476,-0.37997892,0.80480003,0
-3.7003868,6.5597763,-5.707799,-0.39157534,0.69415623,-0.60399991,0
-2.6205957,-2.0158432,-8.8527594,-0.27731171,-0.21331674,-0.93679994,0
-6.1261196,-7.1471391,-0.83160037,-0.64826661,-0.756311,-0.088000044,0
3.2899282,-3.2899294,8.2252798,0.34814057,-0.34814069,0.87040001,0
6.3052392,-5.9899774,3.6968403,0.66722107,-0.63386005,0.39120004,0
-3.9431612,5.2106061,-6.8266802,-0.41726574,0.55138689,-0.72240001,0
5.2874351,7.7920089,0.79380125,0.55951697,0.82455122,0.084000133,0
-2.8700924,7.3546124,-5.1937213,-0.3037135,0.77826589,-0.54960012,0
8.206233,2.8406184,3.7270806,0.86838448,0.30059454,0.39440006,0
2.8501101,8.7878389,-1.9882803,0.30159897,0.92993009,-0.21040003,0
-1.7503157,-7.0012617,-6.1009197,-0.18521859,-0.74087429,-0.64559996,0
7.1600575,-1.7047762,5.9270406,0.75767809,-0.1803996,0.62720007,0
7.6549621,3.827481,4.0067997,0.81004894,0.40502447,0.42399997,0
-4.4768667,5.5099907,6.2369995,-0.47374251,0.58306783,0.65999997,0
6.7989326,4.85638,4.415041,0.71946377,0.51390266,0.4672001,0
-6.4608369,-2.4040322,-6.4638004,-0.68368644,-0.25439495,-0.68400007,0
1.8709984,1.8709984,-9.0720024,0.19798926,0.19798926,-0.96000028,0
0.82324147,5.5274792,-7.620482,0.087115504,0.58491844,-0.80640024,0
6.2615781,6.4852071,-2.8349996,0.66260087,0.68626529,-0.29999995,0
-7.4603372,0.67821181,5.7607198,-0.78945369,0.071768448,0.60960001,0
-9.2911139,-0.29034704,1.7010003,-0.98318666,-0.030724555,0.18000004,0
-6.9222517,0.69222456,6.3957601,-0.73251343,0.073251277,0.67680001,0
-9.1495457,0.93841553,-2.1697192,-0.96820593,0.099303231,-0.22959992,0
-1.7531219,6.3112373,6.8115597,-0.18551554,0.6678558,0.72079998,0
-5.2429571,-7.2090654,-3.1373994,-0.55481029,-0.76286405,-0.33199996,0
7.6514449,5.5407004,-0.24192025,0.80967671,0.58631754,-0.025600027,0
-4.1264029,8.2528057,2.0412016,-0.43665636,0.87331271,0.21600015,0
6.2939892,3.9751513,-5.8211999,0.66603059,0.42065093,-0.616,0
1.0855368,3.9246337,-8.5276814,0.11487163,0.41530517,-0.90240014,0
2.3006508,4.7108569,-7.8623996,0.24345513,0.49850339,-0.83199996,0
8.3924446,0.322786,4.3318801,0.88808942,0.03415725,0.45840001,0
-0.80185938,7.216732,-6.0479994,-0.084852844,0.76367539,-0.63999993,0
-1.1262624,-1.8771044,9.1929598,-0.11918121,-0.19863538,0.97280002,0
0.34956282,-6.6416998,6.7132797,0.036990777,-0.70282537,0.71039999,0
8.8622875,-1.5279808,2.903039,0.93780822,-0.1616911,0.3071999,0
1.6721795,-4.1804485,-8.3084393,0.17695022,-0.44237551,-0.87919992,0
1.465314,7.8760648,-5.01228,0.1550597,0.83344603,-0.53040004,0
5.9666944,7.3227596,0.27971983,0.63139623,0.77489519,0.029599983,0
1.7930118,-5.3790345,7.5599995,0.18973669,-0.56920999,0.79999995,0
-4.9103642,6.5471516,4.7249999,-0.51961529,0.69282031,0.5,0
-2.1312633,-5.516211,-7.3709993,-0.22553051,-0.58372605,-0.77999997,0
2.5056581,-7.9024606,-4.5359998,0.26514903,-0.83623922,-0.47999999,0
1.3870691,-8.3224163,-4.2562809,0.14677981,-0.88067901,-0.45040011,0
1.2692698,-8.6733427,-3.5305197,0.13431427,-0.91781408,-0.37359998,0
9.1749868,1.4486823,-1.7387997,0.97089809,0.15329972,-0.18399997,0
5.9550686,2.8023844,6.7813196,0.63016599,0.2965486,0.71759999,0
-7.2885423,-0.6478703,-5.979959,-0.77127433,-0.068557702,-0.63279992,0
7.8633995,3.7744317,3.6363599,0.83210576,0.39941078,0.38479999,0
8.6010399,1.46847,-3.6288016,0.91016299,0.15539365,-0.38400018,0
-8.5612717,-0.6115194,-3.953881,-0.90595472,-0.064711049,-0.41840011,0
-6.9943442,-5.2987461,-3.5078392,-0.74014229,-0.56071389,-0.37119994,0
5.4022007,7.6121912,-1.4742011,0.57166147,0.80552292,-0.15600012,0
0.34635988,-6.9272041,6.4184403,0.036651839,-0.73303747,0.67920005,0
1.4398777,-9.2152147,1.5195602,0.15236802,-0.975155,0.16080002,0
8.7843819,2.5428476,-2.3813999,0.92956424,0.26908442,-0.252,0
-9.2498693,-1.9043846,0.34019989,-0.97882217,-0.20152219,0.035999987,0
4.7452703,-3.954392,-7.1517611,0.50214499,-0.41845417,-0.75680012,0
2.4274552,-8.9815817,-1.6556406,0.25687358,-0.95043194,-0.17520006,0
7.9355659,4.9597287,-1.3154392,0.83974242,0.52483904,-0.13919993,0
-6.863122,4.2662654,-4.898881,-0.72625631,0.45145667,-0.51840013,0
-6.6028619,6.6028628,1.4515197,-0.69871557,0.69871569,0.15359998,0
6.5098934,6.5098934,2.131918,0.68887764,0.68887764,0.22559978,0
6.5431132,-2.7549956,6.237,0.69239295,-0.29153392,0.66000003,0
-0.31307864,-8.7662106,3.5153999,-0.033130016,-0.92764133,0.37200001,0
3.9237421,5.964088,-6.1916394,0.41521081,0.63112044,-0.65519994,0
-5.5828586,5.9112625,4.8157201,-0.59077871,0.62553042,0.50960004,0
9.2498693,1.9043847,0.34020141,0.97882217,0.2015222,0.036000151,0
0,-5.4088354,7.7489996,0,-0.57236356,0.81999999,0
9.201045,1.740738,-1.2700802,0.97365558,0.18420509,-0.13440003,0
-6.3639216,-5.5684314,-4.2184796,-0.67343086,-0.589252,-0.44639996,0
-9.0464172,2.0427392,1.8144,-0.95729285,0.21616288,0.192,0
-2.7794495,-6.2537608,6.5167193,-0.29412165,-0.66177362,0.68959993,0
5.7056713,7.4173732,1.3154407,0.60377473,0.78490722,0.13920008,0
2.291503,7.8565826,4.7249994,0.24248709,0.83138442,0.49999994,0
1.2468278,8.7277889,3.4020009,0.13193946,0.92357558,0.3600001,0
6.7131262,-2.7172174,-6.0706806,0.71038371,-0.28753623,-0.64240009,0
4.5152884,-7.0954537,4.3092003,0.4778083,-0.75084168,0.45600003,0
-2.8238399,5.6476798,7.0307989,-0.29881904,0.59763807,0.7439999,0
3.5530632,8.7460022,0.43092042,0.37598553,0.9255029,0.045600045,0
-6.2248225,-6.6859217,-2.4192002,-0.65871137,-0.70750493,-0.25600001,0
-1.7585412,9.0857954,1.9126798,-0.18608902,0.96145988,0.20239998,0
0.36687392,-4.4024911,8.3537998,0.038822636,-0.46587208,0.884,0
-6.863122,4.2662654,-4.898881,-0.72625631,0.45145667,-0.51840013,0
-2.8864453,-2.8039756,-8.5503597,-0.30544394,-0.29671699,-0.9048,0
1.9530275,-9.2071304,0.84672087,0.20666958,-0.97429955,0.089600094,0
0,5.7299819,7.5146394,0,0.60634732,0.79519993,0
-0.96859485,-6.3650522,-6.9174004,-0.10249681,-0.67355049,-0.73200005,0
-1.4486823,-9.1749868,-1.7387997,-0.15329972,-0.97089809,-0.18399997,0
3.3214383,-2.214293,8.5654802,0.35147497,-0.23431672,0.90640002,0
0.61649948,-5.7950935,-7.4390397,0.065238044,-0.61323744,-0.78719997,0
-6.1585002,6.4664249,3.092041,-0.65169317,0.68427777,0.32720011,0
-5.4941125,-7.518259,1.6102804,-0.58138758,-0.79558301,0.17040004,0
-4.7358313,-1.0928843,8.1043196,-0.5011462,-0.11564913,0.85759997,0
-7.0012617,1.7503157,-6.1009197,-0.74087429,0.18521859,-0.64559996,0
4.3460464,-8.209199,-1.7388003,0.4598991,-0.8686983,-0.18400003,0
4.1691713,0.69486171,-8.4520807,0.44118217,0.073530339,-0.89440012,0
0.2364236,-9.2205286,-2.056319,0.02501837,-0.97571731,-0.2175999,0
4.9078498,-4.7591271,-6.5242786,0.51934922,-0.50361133,-0.69039989,0
-4.8563805,-6.798933,4.4150395,-0.51390272,-0.71946383,0.46719995,0
2.4581974,8.6036911,3.0391214,0.26012671,0.91044354,0.32160014,0
9.3886404,1.0729879,0.068038605,0.99350697,0.1135437,0.0071998527,0
-2.9696853,-1.8560535,8.7771597,-0.31425241,-0.19640778,0.92879999,0
0.1055695,5.0673413,-7.975801,0.011171376,0.53622663,-0.8440001,0
-0.71031862,-6.0377045,7.23492,-0.075165994,-0.63891053,0.76560003,0
6.1194682,-5.7973914,4.2714,0.6475628,-0.61348057,0.45199999,0
-8.4204216,1.8483847,-3.8707194,-0.89104992,0.19559628,-0.40959996,0
4.9170399,-5.7648053,-5.6473212,0.52032167,-0.61003232,-0.59760016,0
7.4510622,-1.0160539,5.722919,0.78847224,-0.10751893,0.60559988,0
5.7648058,4.9170408,-5.6473193,0.61003238,0.52032179,-0.59759992,0
2.8043427,8.9738951,0.95255995,0.29675585,0.94961852,0.1008,0
8.3912935,2.7970979,-3.3263991,0.88796759,0.29598922,-0.35199991,0
-1.3523736,7.4380569,5.6699991,-0.14310832,0.78709596,0.5999999,0
7.0852728,-5.7139297,-2.5401602,0.74976432,-0.60464865,-0.26880002,0
5.0088916,6.0106707,5.2995601,0.53004146,0.63604981,0.56080002,0
-1.6575873,0.96371353,-9.2534399,-0.17540607,0.10198027,-0.97920001,0
4.5901065,-0.57376331,-8.2404013,0.48572555,-0.060715694,-0.87200016,0
9.0356388,-2.5412736,1.0962002,0.95615226,-0.26891786,0.11600003,0
7.7448134,-3.3759444,-4.2335987,0.81955701,-0.35724279,-0.44799986,0
-1.3685079,-1.6251031,-9.2080793,-0.14481565,-0.17196859,-0.97439992,0
6.7767296,-6.4943652,1.0962,0.71711427,-0.6872344,0.116,0
7.1881642,1.0268797,6.0480008,0.7606523,0.10866452,0.6400001,0
7.0216494,-1.0922565,-6.2294388,0.74303168,-0.1155827,-0.65919989,0
-3.491116,-4.7379432,-7.3936796,-0.36943027,-0.50136966,-0.78239995,0
2.6214786,-8.519805,-3.1373992,0.27740514,-0.90156668,-0.33199993,0
-7.5211887,3.270083,4.6947598,-0.79589301,0.34604052,0.49680001,0
-2.4594989,-7.3784976,-5.3676004,-0.26026443,-0.78079343,-0.56800008,0
-7.4213018,-1.6866599,5.6019597,-0.78532296,-0.17848253,0.59279996,0
-6.4135718,-6.7050977,1.7917204,-0.67868489,-0.70953417,0.18960005,0
-7.9832311,-5.056046,-0.083160467,-0.84478635,-0.53503132,-0.0088000493,0
4.2662654,-6.863122,-4.898881,0.45145667,-0.72625631,-0.51840013,0
-8.5681782,-0.95201987,3.8707206,-0.90668553,-0.10074285,0.40960008,0
0.49040991,9.3177977,-1.4968797,0.051895231,0.98601037,-0.15839997,0
9.0518179,0.4525905,-2.6762385,0.95786434,0.047893174,-0.28319985,0
6.0106707,5.0088916,5.2995601,0.63604981,0.53004146,0.56080002,0
-4.4767599,4.4767599,-7.0156784,-0.47373122,0.47373122,-0.74239987,0
8.3114901,-1.9180362,4.0672803,0.8795228,-0.20296679,0.43040004,0
-2.5130033,5.0260067,7.5978003,-0.26592627,0.53185254,0.80400002,0
1.0642687,-6.0308614,7.1971202,0.11262103,-0.6381864,0.76160002,0
-8.3566494,-4.3049402,-0.96767879,-0.88430154,-0.45554924,-0.10239987,0
8.7277889,-1.2468269,3.4020011,0.92357558,-0.13193935,0.36000013,0
2.9279759,-8.783926,1.889999,0.30983871,-0.92951602,0.1999999,0
-2.347048,-7.3764372,5.4205198,-0.24836488,-0.78057539,0.57359999,0
6.1781898,5.5278544,4.5359998,0.65377671,0.58495814,0.47999999,0
7.8633995,3.7744317,3.6363599,0.83210576,0.39941078,0.38479999,0
-5.1853428,4.1770821,-6.7057214,-0.54871351,0.44201928,-0.70960015,0
-5.3936772,-7.6646986,1.2096008,-0.57075953,-0.8110792,0.12800008,0
-0.49429938,-4.7452726,-8.157239,-0.052306812,-0.50214529,-0.86319989,0
-9.4435987,0,-0.34776077,-0.99932265,0,-0.036800083,0
-5.0088921,-6.0106707,5.2995596,-0.53004152,-0.63604981,0.56079996,0
8.4786501,4.1108613,-0.71819979,0.89721167,0.43501177,-0.075999983,0
-4.2667346,-4.2667346,7.2727199,-0.45150632,-0.45150632,0.76959997,0
8.2062321,-2.8406191,3.7270803,0.86838436,-0.30059463,0.39440003,0
-2.3703225,-8.8887081,2.1621592,-0.25082779,-0.94060403,0.22879992,0
3.7867601,-7.5735202,-4.1957994,0.40071535,-0.8014307,-0.44399995,0
-1.3486291,5.6397209,-7.4617186,-0.14271207,0.59679586,-0.78959984,0
-7.9399438,0.99249202,5.0273995,-0.84020573,0.10502561,0.53199995,0
7.1570883,-6.0119543,1.3910397,0.75736386,-0.63618565,0.14719997,0
-8.5168524,1.6618246,-3.7421994,-0.90125424,0.17585446,-0.39599994,0
1.0467246,-6.629262,6.6528001,0.1107645,-0.70150924,0.704,0
3.2899282,3.2899282,8.2252808,0.34814057,0.34814057,0.87040007,0
9.0857954,1.7585412,1.9126798,0.96145988,0.18608902,0.20239998,0
8.7091007,-2.7028241,2.4796789,0.92159796,-0.28601313,0.26239988,0
-4.6948633,2.5280032,7.8019199,-0.49681094,0.26751357,0.82560003,0
-0.71560937,5.7248726,7.4843993,-0.075725861,0.60580665,0.79199994,0
-3.3883648,-8.7532749,1.0961998,-0.35855713,-0.92627251,0.11599997,0
1.2668365,8.5511417,3.8178005,0.13405678,0.90488273,0.40400007,0
-4.688724,4.1528697,-7.0761595,-0.49616128,0.43945712,-0.74879998,0
9.0905275,-2.2726324,1.2247201,0.96196061,-0.2404902,0.12960002,0
-8.8215837,-1.543777,-3.0164402,-0.93350095,-0.16336265,-0.31920001,0
3.6423829,-5.9188719,-6.4033194,0.38543734,-0.62633568,-0.67759997,0
0.96371353,-1.6575873,-9.2534399,0.10198027,-0.17540607,-0.97920001,0
5.9049315,-3.4734886,6.5091596,0.62486047,-0.36756495,0.68879998,0
1.6258398,-8.1291971,4.5359998,0.17204654,-0.86023253,0.47999999,0
-3.1644087,-5.6256151,6.9022799,-0.33485806,-0.59530318,0.73040003,0
3.5593314,-7.9561515,-3.6514802,0.37664884,-0.84192079,-0.38640001,0
-0.84617972,-6.4873781,-6.8191204,-0.089542829,-0.68649507,-0.72160006,0
6.5871115,-2.0801406,6.4486799,0.69704884,-0.2201207,0.68239999,0
-5.8163867,-6.4395714,-3.7422001,-0.61549067,-0.68143612,-0.39600003,0
-5.6008525,3.5005338,6.7586398,-0.59268284,0.37042686,0.71520001,0
-2.6214786,8.519805,-3.1373992,-0.27740514,0.90156668,-0.33199993,0
-1.7191981,-5.9510703,-7.1366391,-0.18192573,-0.62974292,-0.75519991,0
5.1028595,-7.9094329,-0.83915973,0.53998512,-0.83697706,-0.088799976,0
-1.0557778,-6.3346667,6.9325194,-0.11172252,-0.67033511,0.73359996,0
6.0534234,-1.1843655,-7.1593184,0.64057392,-0.12532969,-0.75759983,0
3.9336562,-8.1699009,2.6611209,0.41625991,-0.8645398,0.28160009,0
-0.28387749,9.3679657,1.2096008,-0.030039947,0.99131912,0.12800008,0
1.4410673,-5.0991616,-7.8246002,0.15249389,-0.53959382,-0.82800007,0
-8.3224163,1.3870691,-4.2562809,-0.88067901,0.14677981,-0.45040011,0
5.8246369,-3.3491662,-6.6452379,0.6163637,-0.35440913,-0.7031998,0
6.2330489,-5.2488832,4.78548,0.6595819,-0.55543739,0.50639999,0
-6.1687932,-3.7698185,6.0857992,-0.65278238,-0.39892259,0.64399993,0
8.7277889,1.2468278,3.4020009,0.92357558,0.13193946,0.3600001,0
-7.8565826,2.946218,-4.3469996,-0.83138442,0.3117691,-0.45999998,0
-9.4444036,-0.26983985,0.18144032,-0.99940783,-0.028554482,0.019200034,0
-2.9752231,-1.4876115,-8.8451996,-0.31483844,-0.15741922,-0.93599999,0
8.3578453,1.2858231,4.2184801,0.88442808,0.13606595,0.44640002,0
2.0271518,8.3113203,-4.0143619,0.21451342,0.8795048,-0.42480022,0
-5.7973914,6.1194682,4.2714,-0.61348057,0.6475628,0.45199999,0
-6.1781898,-5.527854,4.5360003,-0.65377671,-0.58495808,0.48000005,0
-3.0482645,-8.6758299,-2.1772802,-0.32256767,-0.91807723,-0.23040003,0
-3.270082,7.5211897,4.6947594,-0.34604043,0.79589313,0.49679995,0
-6.2537603,-4.5166044,-5.4583201,-0.66177362,-0.47794756,-0.5776,0
5.0526819,-1.8045298,7.7792401,0.53467536,-0.19095553,0.82320005,0
-5.5890541,7.3540187,1.9958401,-0.5914343,0.77820307,0.21120001,0
0.65419,2.61676,-9.056881,0.069226459,0.27690583,-0.95840013,0
7.6127357,5.2703557,1.8900001,0.8055805,0.55770963,0.20000002,0
-3.1981483,-8.7222223,1.7312392,-0.33842841,-0.92298651,0.18319991,0
-1.0268807,-7.1881647,6.0479994,-0.10866463,-0.76065236,0.63999993,0
9.4444036,0.26983982,0.18143874,0.99940783,0.028554479,0.019199867,0
-1.833753,1.252319,-9.1853981,-0.19404794,0.13252053,-0.97199982,0
-6.6821589,6.6821589,0,-0.70710677,0.70710677,0,0
-3.8914559,-0.72964805,-8.5805988,-0.41179428,-0.077211432,-0.90799987,0
6.9117923,-5.3409295,3.6061194,0.73140663,-0.56517774,0.38159993,0
-8.4784241,-3.9898467,-1.2247201,-0.89718777,-0.42220601,-0.12960002,0
8.1839399,0,4.7249999,0.86602539,0,0.5,0
-8.8108873,3.3688684,-0.56700009,-0.93236905,0.35649401,-0.06000001,0
1.9471804,8.6541367,-3.2583582,0.20605084,0.91578168,-0.34479982,0
-4.5259089,2.9418406,-7.7565598,-0.47893217,0.31130588,-0.82080001,0
-0.62561035,8.7585392,3.4927211,-0.066202156,0.92682958,0.36960012,0
8.1115236,-3.4317992,3.42468,0.85836232,-0.36315337,0.3624,0
0,-8.3947458,4.3394403,0,-0.8883329,0.45920005,0
6.0551777,-4.7095823,5.5187998,0.64075953,-0.4983685,0.58399999,0
-6.801353,-6.2099314,2.1168001,-0.71971989,-0.65713561,0.22400001,0
-9.4278984,0.52377164,-0.37800071,-0.99766123,0.055425573,-0.040000077,0
2.4406388,6.2759295,6.6301198,0.25826865,0.66411954,0.70160002,0
-1.3668343,-7.1758819,5.9950795,-0.14463855,-0.75935256,0.63439995,0
1.4628168,4.3884482,8.2403994,0.15479544,0.46438608,0.87199998,0
4.890449,-4.5411315,6.6906004,0.51750785,-0.48054302,0.70800006,0
-6.4608359,2.4040325,-6.4638009,-0.68368638,0.25439498,-0.68400013,0
-7.9449625,-4.7081261,2.0034008,-0.84073681,-0.49821442,0.21200009,0
-0.322786,8.3924446,4.3318801,-0.03415725,0.88808942,0.45840001,0
-5.6256151,3.1644077,6.9022803,-0.59530318,0.33485797,0.73040003,0
-3.9344542,-1.3685057,-8.4823208,-0.41634437,-0.14481543,-0.89760011,0
7.5458307,-3.4826913,-4.4981995,0.7985006,-0.36853877,-0.47599995,0
7.5211897,-3.270082,4.6947594,0.79589313,-0.34604043,0.49679995,0
-7.0954537,-4.5152884,4.3092003,-0.75084168,-0.4778083,0.45600003,0
-3.4445734,-6.2002325,6.2445598,-0.36450514,-0.65610927,0.66079998,0
4.0894499,6.1341748,5.9119196,0.43274602,0.64911902,0.62559998,0
-2.9099622,4.0011978,8.0513992,-0.30793253,0.4234072,0.85199994,0
-2.6324639,4.3172412,-7.9833612,-0.27856761,0.45685092,-0.84480017,0
-1.8668,-2.2401595,8.9888401,-0.19754498,-0.23705392,0.95120001,0
-6.9872074,6.1138053,1.7614803,-0.73938704,0.64696354,0.18640004,0
-3.3603153,8.6408119,-1.8295205,-0.35558894,0.91437167,-0.19360006,0
3.7933946,-8.5983629,-0.9903596,0.40141743,-0.90987968,-0.10479996,0
-8.5094309,-3.0390821,2.7669599,-0.90046889,-0.321596,0.29280001,0
4.2425547,4.5961003,7.0837197,0.44894758,0.48635983,0.74959999,0
6.127883,7.1936007,-0.060479883,0.64845324,0.76122761,-0.0063999877,0
-0.3605094,-5.4076467,7.7414398,-0.038149145,-0.57223773,0.81919998,0
-1.8805267,0,9.2609997,-0.19899753,0,0.97999996,0
1.0842738,-4.6328058,-8.1647997,0.11473797,-0.490244,-0.86399996,0
-1.4410673,-5.0991616,-7.8246002,-0.15249389,-0.53959382,-0.82800007,0
-8.7532749,3.3883648,1.0961998,-0.92627251,0.35855713,0.11599997,0
-0.40907931,-8.590661,-3.916081,-0.043288816,-0.90906465,-0.4144001,0
-0.90464491,9.0464487,2.5779593,-0.095729619,0.95729619,0.27279994,0
6.3811421,-2.0303631,-6.6679196,0.67525315,-0.21485324,-0.70559996,0
5.6256161,3.1644077,6.9022794,0.5953033,0.33485797,0.73039997,0
0.74303615,-3.3436658,8.8073997,0.078628168,-0.35382709,0.93199998,0
-4.568315,2.5016963,-7.8850818,-0.4834196,0.26472977,-0.83440018,0
-1.4398777,-9.2152147,1.5195602,-0.15236802,-0.975155,0.16080002,0
-4.9597287,7.9355659,-1.3154392,-0.52483904,0.83974242,-0.13919993,0
8.181757,-0.32726997,4.7174401,0.86579442,-0.034631744,0.49920002,0
-3.2569468,-2.2798629,-8.57304,-0.34465045,-0.24125534,-0.90720004,0
-7.5423193,4.3996859,3.6136799,-0.79812902,0.46557522,0.38240001,0
-1.3038312,-8.1489468,4.6040401,-0.13797157,-0.86232245,0.48720002,0
-2.2054479,-3.675746,8.4218397,-0.23338073,-0.38896784,0.89120001,0
3.9314549,4.2888594,7.4465995,0.41602698,0.45384756,0.78799999,0
1.8790064,0.7516017,9.2307596,0.19883665,0.079534575,0.97679996,0
8.9487476,2.5980227,1.5724802,0.94695747,0.27492306,0.16640003,0
-6.0119543,-7.1570883,1.3910397,-0.63618565,-0.75736386,0.14719997,0
-9.0983267,-2.4813621,0.60480076,-0.9627859,-0.26257801,0.064000085,0
-6.5488276,-4.5477967,-5.0727606,-0.69299763,-0.48124835,-0.53680009,0
3.2524529,-7.9278522,-3.9841197,0.34417492,-0.8389262,-0.42159998,0
5.1502357,2.3954582,-7.5524402,0.54499847,0.25348765,-0.79920006,0
-1.0079213,-8.4665375,-4.074841,-0.10665835,-0.89592993,-0.43120012,0
4.2003946,-8.1007614,2.457001,0.4444862,-0.85722345,0.26000011,0
3.3922753,-6.1677728,-6.3050413,0.35897094,-0.65267438,-0.66720015,0
-0.35257459,6.3463488,6.9929996,-0.037309483,0.67157131,0.73999995,0
0.36687392,4.4024911,8.3537998,0.038822636,0.46587208,0.884,0
-7.1961031,-3.9251473,4.7023196,-0.76149243,-0.4153595,0.49759996,0
1.0651288,-8.7340546,-3.4473598,0.11271205,-0.92423862,-0.36479998,0
-0.3628009,-5.079217,7.96068,-0.038391631,-0.53748327,0.84240001,0
-5.3932424,5.3932433,5.5792794,-0.57071346,0.57071358,0.59039998,0
-2.5936196,-2.5936196,8.7091198,-0.2744571,-0.2744571,0.92159998,0
-8.7843819,-2.5428476,-2.3813999,-0.92956424,-0.26908442,-0.252,0
-4.0011978,2.909961,8.0514002,-0.4234072,0.30793238,0.85200006,0
2.4358928,8.6363459,-2.9635193,0.25776646,0.91389906,-0.31359994,0
-0.38459545,-8.2687979,-4.5586805,-0.040697932,-0.87500507,-0.48240006,0
6.0961914,-5.5246739,-4.6494007,0.64509964,-0.58462161,-0.49200007,0
7.3540187,-5.5890541,1.9958401,0.77820307,-0.5914343,0.21120001,0
5.9188719,-3.6423829,-6.4033194,0.62633568,-0.38543734,-0.67759997,0
-1.3523736,7.4380569,5.6699991,-0.14310832,0.78709596,0.5999999,0
-6.1138062,6.9872069,1.7614794,-0.64696366,0.73938698,0.18639994,0
4.2162848,-4.9189982,6.8796,0.44616771,-0.52052891,0.72800004,0
5.2384205,-7.6195192,-1.9504806,0.55433023,-0.80629838,-0.20640007,0
-6.9272041,-0.34635988,6.4184403,-0.73303747,-0.036651839,0.67920005,0
6.2099309,6.8013539,2.1168001,0.65713555,0.71972001,0.22400001,0
-1.6405027,9.2961807,0.43848133,-0.17359817,0.98372287,0.046400141,0
4.8258858,-5.1705923,6.26724,0.51067573,-0.54715264,0.66320002,0
6.9956551,4.7970204,-4.1655617,0.74028099,0.50762123,-0.44080019,0
3.3895493,-1.2526594,-8.7317982,0.35868245,-0.13255656,-0.92399985,0
0.26983982,9.4444036,0.18143874,0.028554479,0.99940783,0.019199867,0
3.345741,-0.37174875,8.83008,0.35404667,-0.039338492,0.93440002,0
-8.3113222,-2.0271516,-4.0143595,-0.87950504,-0.21451341,-0.42479995,0
-6.5889988,-6.5889988,-1.5724784,-0.69724858,-0.69724858,-0.16639984,0
-2.1493278,-4.2009587,-8.18748,-0.2274421,-0.44454589,-0.8664,0
5.3004608,-6.2469721,-4.709878,0.56089532,-0.66105527,-0.49839979,0
-2.9696853,-1.8560535,8.7771597,-0.31425241,-0.19640778,0.92879999,0
-2.1576879,-7.1369681,-5.8060803,-0.22832677,-0.75523472,-0.61440003,0
8.043705,-4.9300127,-0.54432005,0.85118574,-0.52169448,-0.057600006,0
9.2079277,2.1046686,-0.29484105,0.97438389,0.22271626,-0.031200113,0
-6.2427244,-6.9918513,-1.2020401,-0.66060579,-0.73987848,-0.12720001,0
-4.3460469,8.209199,-1.7387989,-0.45989916,0.8686983,-0.18399988,0
-2.9929867,-7.3161898,5.1785998,-0.31671816,-0.77419996,0.54799998,0
-9.2509661,-1.681994,0.94500077,-0.97893822,-0.17798878,0.10000008,0
4.708127,7.9449625,2.0034001,0.49821451,0.84073681,0.21200001,0
3.5906258,-1.9205672,-8.5276794,0.37996042,-0.20323463,-0.90239996,0
4.6544681,-8.0840759,-1.511999,0.49253631,-0.85545778,-0.15999989,0
0.1055695,5.0673413,-7.975801,0.011171376,0.53622663,-0.8440001,0
8.0565624,-3.7184136,3.2508001,0.85254633,-0.39348292,0.34400001,0
0,-7.8997622,-5.1861596,0,-0.83595371,-0.54879999,0
-8.2687979,0.38459489,-4.5586805,-0.87500507,0.040697873,-0.48240006,0
-8.6082468,-0.20495807,-3.8934009,-0.91092563,-0.021688685,-0.41200009,0
-0.3760289,-1.8801467,9.2534399,-0.03979142,-0.19895732,0.97920001,0
-3.691262,1.4765058,8.57304,-0.39060974,0.15624399,0.90720004,0
-6.7460027,-4.8185735,-4.5359998,-0.71386272,-0.50990194,-0.47999999,0
-2.3569748,-8.0529966,-4.3469996,-0.24941534,-0.85216898,-0.45999998,0
1.1237465,2.2474954,9.1098003,0.11891498,0.23783021,0.96400005,0
1.0268797,7.1881642,6.0480008,0.10866452,0.7606523,0.6400001,0
9.4147043,-0.80697465,0.12095873,0.99626505,-0.085394144,0.012799866,0
3.3748667,0.27549946,-8.8225203,0.35712877,0.029153382,-0.93360007,0
0.74992687,-2.2497828,9.1476002,0.079357341,-0.23807226,0.96800005,0
0.074840076,3.6671672,-8.7091208,0.0079195853,0.38806003,-0.9216001,0
-7.7611785,1.6244322,-5.1408,-0.82128876,0.17189759,-0.54400003,0
1.2692698,-8.6733427,-3.5305197,0.13431427,-0.91781408,-0.37359998,0
1.1294556,9.3180027,1.0962007,0.11951911,0.98603207,0.11600008,0
-3.0390821,-8.5094309,2.7669599,-0.321596,-0.90046889,0.29280001,0
-4.1705098,-7.902019,-3.0769207,-0.44132379,-0.83619249,-0.32560009,0
1.8855813,1.7808266,-9.0871191,0.1995324,0.18844727,-0.96159995,0
-4.2726374,6.9019523,4.8384008,-0.45213094,0.73036534,0.51200008,0
8.7662096,0.31307864,3.5154011,0.92764127,0.033130016,0.37200013,0
3.9344583,-1.3685073,-8.4823179,0.41634479,-0.14481559,-0.89759982,0
-5.9937735,-2.1154497,6.993,-0.63426173,-0.2238571,0.74000001,0
1.0722138,5.7184801,7.4465995,0.11346178,0.6051302,0.78799999,0
-6.5871115,-2.0801406,6.4486799,-0.69704884,-0.2201207,0.68239999,0
-8.3439894,-3.0903666,3.1827607,-0.88296187,-0.32702294,0.33680007,0
-8.7277899,1.2468277,3.4019997,-0.92357564,0.13193944,0.35999998,0
-7.0012617,1.7503157,-6.1009197,-0.74087429,0.18521859,-0.64559996,0
8.6010399,-1.46847,-3.6288016,0.91016299,-0.15539365,-0.38400018,0
-5.4432001,-7.2575998,2.6459994,-0.57600003,-0.76800001,0.27999994,0
-3.2659199,-7.2575994,-5.0954404,-0.34560001,-0.76799995,-0.53920007,0
7.1471391,6.1261201,-0.83159912,0.756311,0.64826667,-0.08799991,0
2.8152733,-1.5713154,-8.8830004,0.29791251,-0.16627677,-0.94000006,0
-6.3447232,-3.0949869,-6.2823591,-0.6713993,-0.32751185,-0.66479993,0
-4.2662654,6.8631229,-4.89888,-0.45145667,0.72625643,-0.51840001,0
8.1015549,-4.8609328,0.19655927,0.85730743,-0.51438445,0.020799922,0
-3.682411,-6.8387628,-5.3827195,-0.38967311,-0.72367859,-0.56959999,0
1.1310467,0.75403112,9.3517199,0.11968748,0.079791658,0.9896,0
1.8483847,-8.4204216,-3.8707194,0.19559628,-0.89104992,-0.40959996,0
9.2252417,0,-2.0487592,0.97621608,0,-0.21679991,0
0.92126501,-8.905571,3.0239992,0.097488366,-0.94238847,0.31999993,0
-7.147891,-4.2237535,4.51332,-0.75639063,-0.44695804,0.47760001,0
-6.8387628,-3.682411,-5.3827195,-0.72367859,-0.38967311,-0.56959999,0
5.4161692,-4.7789731,-6.093359,0.57313961,-0.50571144,-0.64479989,0
-8.6363459,2.4358928,-2.9635193,-0.91389906,0.25776646,-0.31359994,0
-8.8985891,-3.0509448,-0.89963973,-0.94164968,-0.3228513,-0.095199972,0
-0.32814252,7.3832026,-5.8892393,-0.034724079,0.78129131,-0.62319994,0
-8.7277899,1.2468277,3.4019997,-0.92357564,0.13193944,0.35999998,0
1.4410673,-5.0991616,-7.8246002,0.15249389,-0.53959382,-0.82800007,0
-7.902019,4.1705098,-3.0769207,-0.83619249,0.44132379,-0.32560009,0
0.50245744,0.18173994,-9.4348822,0.0531701,0.01923174,-0.99840027,0
4.1770821,5.1853428,-6.7057214,0.44201928,0.54871351,-0.70960015,0
4.503521,8.0589314,-2.0185184,0.47656307,0.85279697,-0.21359985,0
0.72964704,3.8914523,-8.5806007,0.077211328,0.41179392,-0.90800011,0
2.0983598,-6.2950792,6.7283998,0.22204867,-0.66614598,0.71200001,0
-5.6824617,-1.7678767,-7.3407588,-0.60131872,-0.18707691,-0.77679992,0
1.2035373,-9.0265255,2.5250392,0.12735845,-0.95518792,0.26719993,0
-7.9067049,1.6472305,4.9064393,-0.83668834,0.1743101,0.51919991,0
-8.5168524,-1.6618252,-3.7421999,-0.90125424,-0.17585452,-0.396,0
-2.3210437,8.4401569,-3.5607588,-0.2456131,0.89313829,-0.37679988,0
-5.4432001,-7.2575998,-2.6459999,-0.57600003,-0.76800001,-0.28,0
-1.3038312,8.1489468,4.6040401,-0.13797157,0.86232245,0.48720002,0
3.2765329,3.6405942,8.0816402,0.34672305,0.38524806,0.85520005,0
5.6824617,1.7678767,-7.3407588,0.60131872,0.18707691,-0.77679992,0
-0.20950903,-5.028214,-7.9984789,-0.022170268,-0.53208613,-0.8463999,0
-4.3996859,-7.5423193,3.6136799,-0.46557522,-0.79812902,0.38240001,0
0.96859485,-6.3650522,-6.9174004,0.10249681,-0.67355049,-0.73200005,0
-5.3508725,-7.4446926,-2.2906792,-0.56622988,-0.78779817,-0.24239992,0
-0.91122264,5.3534322,-7.733882,-0.096425675,0.56650078,-0.8184002,0
0.49040991,9.3177977,-1.4968797,0.051895231,0.98601037,-0.15839997,0
2.2291107,-2.6006286,8.8073997,0.23588474,-0.27519879,0.93199998,0
-4.9597287,7.9355659,-1.3154392,-0.52483904,0.83974242,-0.13919993,0
-9.0639639,2.2047472,-1.5119998,-0.95914966,0.23330659,-0.15999998,0
-4.4725561,-7.8269734,-2.8349993,-0.47328636,-0.82825118,-0.29999992,0
-2.8238401,-5.6476789,7.0307999,-0.29881907,-0.59763801,0.74400002,0
-1.2468269,8.7277889,3.4020011,-0.13193935,0.92357558,0.36000013,0
2.1228395,5.8378077,-7.1215205,0.2246391,0.61775744,-0.75360006,0
7.3812013,-4.1719828,4.1731195,0.78107953,-0.44147965,0.44159997,0
9.3712864,0,1.2171608,0.99167055,0,0.12880009,0
1.9048796,9.0481796,-1.9504795,0.20157456,0.95747936,-0.20639995,0
-5.056046,-7.9832311,-0.083160467,-0.53503132,-0.84478635,-0.0088000493,0
-0.3760289,-1.8801467,9.2534399,-0.03979142,-0.19895732,0.97920001,0
-6.0567727,-6.0567727,3.9916801,-0.64092833,-0.64092833,0.42240003,0
-1.6251031,1.3685079,-9.2080793,-0.17196859,0.14481565,-0.97439992,0
-8.4665375,1.0079213,-4.074841,-0.89592993,0.10665835,-0.43120012,0
3.0740294,6.6334324,-5.9875216,0.32529414,0.70195055,-0.63360018,0
-7.1358147,2.9587526,-5.4432001,-0.75511271,0.31309551,-0.57600003,0
5.5890541,7.3540187,1.9958401,0.5914343,0.77820307,0.21120001,0
-4.087996,7.5627928,-3.9236398,-0.43259218,0.80029553,-0.4152,0
8.4204206,-1.848385,-3.8707216,0.8910498,-0.19559629,-0.40960017,0
-7.3482575,-2.6720941,5.3071198,-0.77759343,-0.28276128,0.56159997,0
3.9336562,8.1699009,2.6611209,0.41625991,0.8645398,0.28160009,0
-4.048449,-1.1041224,8.4671993,-0.42840731,-0.11683835,0.89599997,0
-8.590661,0.40907869,-3.916081,-0.90906465,0.043288752,-0.4144001,0
-6.6128831,5.6681852,3.6665995,-0.69977599,0.59980798,0.38799995,0
3.3464327,0,8.8376398,0.35411987,0,0.93519998,0
-7.5458307,3.4826913,-4.4981995,-0.7985006,0.36853877,-0.47599995,0
-5.4900384,5.3184748,-5.5565996,-0.58095646,0.5628016,-0.588,0
4.1804485,-1.6721795,-8.3084393,0.44237551,-0.17695022,-0.87919992,0
6.2469721,5.3004608,-4.709878,0.66105527,0.56089532,-0.49839979,0
-7.2727156,5.6304898,-2.1697204,-0.76959956,0.59581906,-0.22960004,0
-9.0007668,2.322778,1.7010001,-0.95246214,0.24579662,0.18000001,0
5.9906645,-7.2929826,-0.47628072,0.63393277,-0.77174419,-0.050400078,0
7.2727156,-5.6304898,-2.1697204,0.76959956,-0.59581906,-0.22960004,0
-5.040473,-2.160203,7.6960802,-0.53338337,-0.22859292,0.81440002,0
-8.6960869,3.6892488,-0.26459885,-0.92022085,0.39039671,-0.027999878,0
-3.8017859,-5.8754864,6.3504,-0.40230539,-0.62174457,0.67199999,0
8.9051533,3.061147,0.79380012,0.94234431,0.32393089,0.084000014,0
-8.559309,-2.7512064,2.9105999,-0.905747,-0.29113296,0.308,0
-7.9561524,-3.5593309,-3.6514792,-0.84192091,-0.37664878,-0.38639992,0
5.6670766,2.4793453,7.1441994,0.59969068,0.2623646,0.75599992,0
-9.4396763,-0.26221296,-0.35532075,-0.99890757,-0.027747404,-0.037600081,0
-3.6745796,8.5740194,-1.5120014,-0.3888444,0.90730369,-0.16000015,0
7.7657723,-5.2606845,-1.1491203,0.82177484,-0.55668622,-0.12160004,0
-5.0638909,-7.5958362,-2.441879,-0.53586149,-0.80379218,-0.2583999,0
2.2842588,-2.8000593,-8.7318001,0.24172051,-0.29630259,-0.92400002,0
-5.9026122,7.0831351,2.07144,-0.62461507,0.74953812,0.2192,0
-2.5418129,4.3573942,7.9909196,-0.2689749,0.46109992,0.84559995,0
-6.3792868,-6.9340081,0.72576034,-0.67505682,-0.7337575,0.076800041,0
-2.2842588,2.8000593,-8.7318001,-0.24172051,0.29630259,-0.92400002,0
-4.2049847,8.4099693,0.94499928,-0.44497192,0.88994384,0.099999927,0
6.9139905,1.0370977,6.3579602,0.73163921,0.10974579,0.67280006,0
-4.5411315,-4.890449,6.6906004,-0.48054302,-0.51750785,0.70800006,0
1.6866598,7.4213028,5.6019588,0.17848252,0.78532308,0.5927999,0
6.9769015,-5.7635269,2.7215993,0.73829645,-0.60989702,0.28799993,0
-5.056046,-7.9832311,-0.083160467,-0.53503132,-0.84478635,-0.0088000493,0
-0.3628009,5.079217,7.96068,-0.038391631,0.53748327,0.84240001,0
-6.0119543,7.1570883,1.3910397,-0.63618565,0.75736386,0.14719997,0
2.4943876,-8.3146248,-3.7346404,0.26395637,-0.8798545,-0.39520004,0
-4.0253224,-2.1956303,8.2630796,-0.42596006,-0.23234184,0.87439996,0
-3.7866466,8.6551933,0.22680065,-0.40070334,0.9158935,0.024000069,0
-7.1369681,2.1576879,-5.8060803,-0.75523472,0.22832677,-0.61440003,0
2.7373054,9.0331049,0.46116045,0.28966194,0.95588416,0.048800047,0
-5.9562531,5.2342834,-5.1408,-0.63029134,0.55389243,-0.54400003,0
7.1969247,0.68542081,6.0858006,0.76157933,0.072531305,0.64400005,0
1.6244322,7.7611785,-5.1408,0.17189759,0.82128876,-0.54400003,0
-7.4066787,-0.16459271,-5.866559,-0.78377551,-0.017417219,-0.6207999,0
8.8902483,2.8678226,1.4288394,0.94076705,0.30347329,0.15119995,0
1.028687,-1.9679228,-9.1854,0.10885577,-0.2082458,-0.972,0
-0.96859485,-6.3650522,-6.9174004,-0.10249681,-0.67355049,-0.73200005,0
-6.8851638,-6.3113999,1.4363997,-0.72858876,-0.66787302,0.15199997,0
-7.5378923,-4.8774595,-2.9484,-0.79766059,-0.51613331,-0.31200001,0
-0.72434074,5.6740026,-7.522202,-0.076649815,0.60042357,-0.79600024,0
3.3018675,-2.9349945,8.3537998,0.34940398,-0.31058142,0.884,0
0.16459271,7.4066787,-5.866559,0.017417219,0.78377551,-0.6207999,0
2.6692154,-3.9543936,-8.157239,0.28245667,-0.41845435,-0.86319989,0
-8.3912935,-2.7970979,-3.3263991,-0.88796759,-0.29598922,-0.35199991,0
4.2009587,-2.1493278,-8.18748,0.44454589,-0.2274421,-0.8664,0
4.3460464,-8.209199,-1.7388003,0.4598991,-0.8686983,-0.18400003,0
-4.9720435,8.0105152,0.64259887,-0.52614218,0.84767359,0.067999884,0
2.4358928,8.6363459,-2.9635193,0.25776646,0.91389906,-0.31359994,0
-1.4876115,2.9752231,-8.8451996,-0.15741922,0.31483844,-0.93599999,0
2.4581974,8.6036911,3.0391214,0.26012671,0.91044354,0.32160014,0
-6.9340081,-6.3792868,0.72576034,-0.7337575,-0.67505682,0.076800041,0
-4.2598715,1.936305,-8.2101593,-0.45078006,0.20490001,-0.86879992,0
-2.3505163,-3.7065835,-8.3689194,-0.2487319,-0.39223108,-0.88559997,0
-4.87746,7.5378923,-2.9483986,-0.51613337,0.79766059,-0.31199986,0
-1.6677959,-0.68887222,-9.2761202,-0.17648634,-0.072896533,-0.98160005,0
-4.9300127,8.043705,-0.54432005,-0.52169448,0.85118574,-0.057600006,0
-3.3018684,-2.9349945,8.3537998,-0.34940407,-0.31058142,0.884,0
-3.2456968,3.6514091,-8.0892,-0.34345999,0.3863925,-0.85600001,0
-4.3381486,5.5776196,-6.2748008,-0.45906335,0.59022433,-0.66400009,0
1.5022928,1.5022928,9.2080793,0.15897278,0.15897278,0.97439992,0
5.0536203,5.7274375,5.5641599,0.53477466,0.60607803,0.58880001,0
6.671195,-0.58010381,-6.6679182,0.70594656,-0.061386649,-0.70559984,0
0.72018576,3.1426287,-8.8830013,0.076210134,0.3325533,-0.94000018,0
6.8969212,1.2261192,-6.3428388,0.72983295,0.12974806,-0.67119986,0
-1.9953245,7.6487441,5.1785994,-0.21114546,0.8093909,0.54799992,0
6.1893973,1.650506,-6.947639,0.65496272,0.17465672,-0.73519993,0
4.2003946,-8.1007614,2.457001,0.4444862,-0.85722345,0.26000011,0
-1.4054278,6.3244271,6.8795996,-0.14872253,0.66925156,0.72799999,0
-4.7108555,-2.3006506,-7.8624005,-0.49850324,-0.2434551,-0.83200008,0
5.4022007,-7.6121912,-1.4742011,0.57166147,-0.80552292,-0.15600012,0
-4.0424662,-1.4699872,8.4142799,-0.42777422,-0.15555421,0.89039999,0
1.2984284,7.9760613,-4.8988805,0.13739984,0.8440277,-0.51840007,0
0.99249202,7.9399438,5.0273995,0.10502561,0.84020573,0.53199995,0
-9.4029198,-0.25413272,-0.90720022,-0.99501801,-0.026892351,-0.096000023,0
-7.2575998,-5.8060799,-1.7085608,-0.76800001,-0.61439997,-0.1808001,0
-6.3315754,-4.6653709,5.2390804,-0.670008,-0.49369004,0.55440003,0
-8.1690512,4.74332,-0.26460031,-0.86444986,0.50193864,-0.028000033,0
-6.9024076,1.3804824,6.3050399,-0.7304135,0.1460828,0.66720003,0
6.1677752,-3.3922765,-6.3050385,0.65267462,-0.35897106,-0.66719985,0
2.4987826,-8.4333925,3.454921,0.26442146,-0.8924225,0.36560011,0
-2.8624365,-5.0092626,7.4843998,-0.30290335,-0.53008068,0.792,0
-7.4658971,0.33935863,5.7834001,-0.79004204,0.035910968,0.61200005,0
8.334837,-4.4278822,-0.47627932,0.88199335,-0.46855897,-0.050399929,0
-8.1148424,-4.7569757,0.90719938,-0.85871351,-0.5033837,0.095999934,0
4.1702838,-7.3476434,-4.2335997,0.44129989,-0.77752841,-0.44799998,0
2.7715411,5.8202372,-6.9098406,0.29328477,0.61589813,-0.7312001,0
-9.4082365,0.78401893,-0.41580063,-0.99558061,0.082964972,-0.044000067,0
-0.58010358,-6.6711926,-6.6679206,-0.061386622,-0.70594633,-0.70560008,0
6.1917176,-5.7922525,-4.173121,0.65520823,-0.61293679,-0.44160011,0
-2.2516112,0,9.1778402,-0.23826574,0,0.97120005,0
7.4788618,-3.5768471,4.5359988,0.79141396,-0.37850234,0.47999987,0
7.0206323,3.3348005,-5.3751583,0.74292409,0.35288894,-0.56879985,0
-5.0088921,6.0106707,5.2995596,-0.53004152,0.63604981,0.56079996,0
4.6183119,6.5975885,4.9442406,0.48871025,0.69815755,0.52320009,0
5.8076258,-4.4411249,5.9875197,0.61456358,-0.46996033,0.6336,0
1.8250006,-4.3800006,8.1723595,0.19312176,-0.46349213,0.86479998,0
0.3605094,-5.4076467,7.7414398,0.038149145,-0.57223773,0.81919998,0
-3.5481696,-8.5156069,-2.0487609,-0.37546769,-0.90112245,-0.21680009,0
6.8057985,-0.14795201,-6.5545182,0.72019035,-0.015656298,-0.69359982,0
1.7527795,4.6397099,-8.0438395,0.18547931,0.49097461,-0.85119998,0
-7.4066787,-0.16459271,-5.866559,-0.78377551,-0.017417219,-0.6207999,0
-9.1961422,2.1637979,0.22680001,-0.97313678,0.22897333,0.024000002,0
-2.3374951,-8.8824816,-2.2226396,-0.24735399,-0.93994516,-0.23519996,0
0.37724286,-1.1317297,9.3744001,0.039919879,-0.11975976,0.99200004,0
2.1081424,5.1532364,-7.6356001,0.22308385,0.54531604,-0.80800003,0
-9.3351889,1.3728222,0.5216397,-0.98785067,0.1452722,0.05519997,0
-8.0735703,-4.0367851,-2.7972009,-0.8543461,-0.42717305,-0.29600009,0
-7.5268521,-5.118259,2.5401602,-0.79649228,-0.54161471,0.26880002,0
5.1028595,7.9094329,-0.83915973,0.53998512,0.83697706,-0.088799976,0
6.2099309,6.8013539,2.1168001,0.65713555,0.71972001,0.22400001,0
4.1964746,-8.159811,-2.2604399,0.44407138,-0.8634721,-0.2392,0
-5.9026122,-7.0831351,2.07144,-0.62461507,-0.74953812,0.2192,0
-8.5980101,3.2613144,2.1772788,-0.90984237,0.34511265,0.23039988,0
-0.93841481,9.1495457,-2.169719,-0.099303156,0.96820593,-0.22959989,0
-3.05568,3.6471021,-8.1648006,-0.3233524,0.38593674,-0.86400008,0
0.48959351,-7.3439093,-5.9270391,0.051808838,-0.77713329,-0.62719995,0
6.2704167,-6.2704167,-3.2659218,0.66353619,-0.66353619,-0.34560019,0
0.14795201,6.8057985,-6.5545182,0.015656298,0.72019035,-0.69359982,0
5.3289156,-6.7636232,-3.8933988,0.56390643,-0.71572733,-0.41199988,0
9.0265255,1.2035373,2.5250392,0.95518792,0.12735845,0.26719993,0
0.10556958,-5.0673447,-7.9757991,0.011171384,-0.53622699,-0.84399992,0
6.5897655,4.2744427,-5.2542005,0.6973297,0.45232198,-0.55600005,0
8.1291971,1.6258398,4.5359998,0.86023253,0.17204654,0.47999999,0
2.651814,-8.8393831,2.0336397,0.28061524,-0.93538445,0.21519996,0
3.4024546,-3.6086643,-8.0438385,0.36004812,-0.38186926,-0.85119987,0
5.0620112,-6.3743849,-4.8005991,0.53566259,-0.67453808,-0.5079999,0
-1.8790064,-0.75160277,9.2307596,-0.19883665,-0.079534687,0.97679996,0
0.49429896,4.7452693,-8.1572409,0.052306771,0.50214493,-0.86320013,0
-2.6402473,-5.0404725,-7.5448809,-0.27939126,-0.53338337,-0.7984001,0
1.0079213,-8.4665375,-4.074841,0.10665835,-0.89592993,-0.43120012,0
2.2291107,2.6006286,8.8073997,0.23588474,0.27519879,0.93199998,0
-3.83166,5.6001186,-6.577199,-0.40546668,0.59260517,-0.69599992,0
-6.2545018,-3.6885521,-6.0479984,-0.66185206,-0.39032298,-0.63999987,0
8.8704891,0,-3.2583616,0.93867612,0,-0.34480017,0
-5.3306208,-6.515203,-4.2940784,-0.56408685,-0.68943948,-0.45439982,0
-4.74332,8.1690512,-0.26460031,-0.50193864,0.86444986,-0.028000033,0
4.2888594,3.9314549,7.4465995,0.45384756,0.41602698,0.78799999,0
-0.37174875,3.345741,8.83008,-0.039338492,0.35404667,0.93440002,0
1.7486982,8.7434931,-3.1298382,0.18504743,0.92523736,-0.33119982,0
3.2363508,-8.5532141,-2.3813999,0.34247097,-0.90510201,-0.252,0
