7.4744368,-3.8382242,-3.4944003,0.82136667,-0.42178285,-0.384,0
-5.3820524,-7.0816483,1.9219202,-0.5914343,-0.77820307,0.21120001,0
5.1347222,-2.7385194,6.9960809,0.56425518,-0.30093619,0.76880008,0
0.0012190038,-0.0041794418,-9.0999994,0.00013395646,-0.00045927931,-0.99999988,0
0.29110873,-8.7332697,2.5407195,0.031989969,-0.95969993,0.27919993,0
-8.1646261,3.9586074,-0.69159985,-0.89721161,0.43501177,-0.075999983,0
8.0008821,3.886143,-1.9219217,0.8792178,0.42704865,-0.21120018,0
7.7745495,3.8872747,-2.6936011,0.85434604,0.42717302,-0.29600012,0
-4.7093215,4.3729415,6.4428005,-0.51750785,0.48054299,0.708,0
6.8207974,5.6839972,1.9947201,0.74953812,0.62461507,0.2192,0
1.6416364,-6.8948717,5.70752,0.1803996,-0.75767815,0.62719995,0
-8.508131,-1.963415,-2.5625594,-0.93495941,-0.21575989,-0.28159991,0
-4.8920736,-6.3973269,-4.2369599,-0.5375905,-0.70300293,-0.46559998,0
0.57044685,-8.8419342,2.0748,0.062686466,-0.97164106,0.22799999,0
-0.34715724,-5.2073636,7.45472,-0.038149145,-0.57223773,0.81919998,0
-2.0370998,5.7717829,6.7339997,-0.22385712,0.63426185,0.73999995,0
-6.7665596,3.222172,5.1615195,-0.74357796,0.35408482,0.56719995,0
5.9493685,-5.3231187,4.3680005,0.65377671,-0.58495808,0.48000005,0
-5.626658,-3.9717591,5.9477606,-0.61831403,-0.43645704,0.65360004,0
-4.085423,-4.4258747,6.8213601,-0.44894755,-0.48635983,0.74959999,0
0,8.0838299,4.1787205,0,0.8883329,0.45920002,0
-2.8195317,8.4585962,1.8199997,-0.30983862,0.92951602,0.19999996,0
1.0518026,6.7615891,-5.9987192,0.1155827,0.74303174,-0.65919989,0
3.6301959,5.94032,5.8603997,0.39892259,0.65278238,0.64399993,0
8.5535021,-2.2509215,-2.1403198,0.93994522,-0.247354,-0.23519997,0
-2.199657,-2.6963537,-8.4084005,-0.24172054,-0.29630259,-0.92400002,0
1.8194177,-8.1873789,3.5308008,0.199936,-0.89971191,0.38800007,0
-6.0221405,2.6765063,6.2753601,-0.66177368,0.29412156,0.68959999,0
2.8821347,-7.0452199,4.9868007,0.31671807,-0.77419996,0.54800004,0
-3.7784185,5.743196,-5.9623199,-0.41521081,0.63112044,-0.65519994,0
-3.211817,-1.4274739,8.3938408,-0.35294691,-0.15686525,0.92240006,0
6.2538342,6.5257397,1.0555991,0.68723452,0.71711421,0.11599989,0
7.0662518,4.7801123,-3.1667995,0.77651113,0.52528703,-0.34799993,0
2.2066326,7.5655985,4.5499997,0.24248709,0.83138442,0.49999994,0
0.34223711,5.818037,6.9888,0.037608471,0.63934469,0.76799995,0
3.5313463,0.072068222,-8.3865614,0.38806003,0.0079195844,-0.9216001,0
-4.1493702,3.4578094,7.3236799,-0.45597473,0.37997904,0.80479997,0
5.6215944,7.1547546,-0.13103975,0.61775762,0.78623676,-0.014399973,0
1.0792575,-2.5182695,8.6777601,0.11859972,-0.27673289,0.95359999,0
8.1275587,2.2350793,-3.428879,0.89313829,0.2456131,-0.37679988,0
5.0042524,7.064827,2.8027995,0.54991782,0.77635455,0.30799994,0
-6.2010698,5.6009655,-3.6035991,-0.68143624,0.61549067,-0.39599988,0
-1.5097535,7.9262047,-4.2078414,-0.16590697,0.8710115,-0.46240014,0
5.2818899,7.3946457,0.48048154,0.58042747,0.81259841,0.052800167,0
4.1352062,7.9947333,1.3395196,0.45441824,0.87854207,0.14719996,0
0.96739036,-7.416666,5.1833606,0.10630663,-0.81501824,0.56960005,0
5.3119073,-2.0523276,-7.098,0.58372605,-0.22553051,-0.77999997,0
-0.51451635,7.5462394,-5.0595999,-0.056540255,0.82925701,-0.55599993,0
8.4845581,-3.244096,-0.54599863,0.93236899,-0.35649407,-0.059999846,0
-8.8044376,2.2639976,-0.40767938,-0.96752059,0.24879093,-0.044799931,0
0.31598866,-7.1097512,-5.6711192,0.034724027,-0.78129131,-0.62319988,0
-5.5777249,-5.9623952,-4.0185614,-0.61293679,-0.65520823,-0.44160014,0
-0.34715724,-5.2073636,7.45472,-0.038149145,-0.57223773,0.81919998,0
7.4579687,3.2509098,-4.0767999,0.81955695,0.35724282,-0.44799995,0
4.3109541,4.3109541,-6.7558389,0.47373119,0.47373119,-0.74239987,0
3.5806949,7.7581716,3.1304004,0.39348295,0.85254627,0.34400004,0
8.0396385,4.0198202,-1.4195992,0.88347673,0.44173846,-0.1559999,0
1.4968328,-8.3822622,3.21048,0.16448712,-0.92112768,0.35279998,0
1.6580994,6.6323957,6.0060005,0.18220872,0.72883469,0.66000003,0
-0.39392826,8.2724895,-3.7710412,-0.043288819,0.90906477,-0.4144001,0
-8.9378958,0.55861795,1.6161605,-0.98218632,0.061386585,0.17760006,0
-3.1078877,-4.4891715,-7.2799988,-0.34152612,-0.49331552,-0.79999983,0
7.3145089,4.8763404,-2.3514402,0.80379218,0.53586155,-0.25840002,0
-3.4636893,-8.0819416,2.3441601,-0.38062519,-0.88812542,0.25760001,0
-4.8890395,-7.6051722,1.0337598,-0.53725708,-0.83573318,0.11359998,0
8.8653994,0.45463547,-2.0019991,0.97421968,0.049959939,-0.21999989,0
-2.1322823,-3.1984234,8.2482405,-0.23431672,-0.35147509,0.90640002,0
-0.36275995,-1.4510409,8.9762402,-0.039863728,-0.15945503,0.98639995,0
1.8343287,8.7130623,-1.8782396,0.20157456,0.95747936,-0.20639995,0
-2.5432954,7.3119736,4.7829595,-0.27948299,0.80351353,0.5255999,0
1.3219771,8.9894419,0.50232124,0.14527221,0.98785073,0.055200133,0
4.8879113,0.69827247,7.6440005,0.5371331,0.076733232,0.84000003,0
-0.3445527,-7.5801549,-5.0232,-0.03786293,-0.83298403,-0.55199999,0
-1.8647307,2.8316286,-8.4448013,-0.20491545,0.31116796,-0.92800009,0
2.5198431,-0.62996078,-8.7214422,0.27690583,-0.069226459,-0.95840019,0
8.5743446,3.0262396,-0.3639988,0.94223565,0.3325538,-0.039999865,0
1.432514,2.8650274,-8.517601,0.15741912,0.31483817,-0.93600005,0
0.33353177,6.6706414,6.1807208,0.036651842,0.73303747,0.67920005,0
3.2057958,-1.7809986,8.3283205,0.35228524,-0.19571412,0.9152,0
-7.4575601,-4.1762333,3.1231203,-0.81951207,-0.45892671,0.34320003,0
-6.3679619,-5.4582529,3.5307996,-0.69977599,-0.59980798,0.38799995,0
1.432514,2.8650274,-8.517601,0.15741912,0.31483817,-0.93600005,0
5.2155704,-4.6019745,-5.8676796,0.57313961,-0.50571144,-0.64479995,0
-4.7785215,-0.29865763,-7.7386394,-0.52511221,-0.032819517,-0.85039991,0
-2.4784529,-7.7451644,4.0840802,-0.27235746,-0.85111696,0.4488,0
-1.9859195,7.5826011,-4.6228013,-0.2182329,0.83325285,-0.50800014,0
1.3876954,4.9103069,-7.5347986,0.152494,0.53959417,-0.82799983,0
2.3284957,-8.7965422,0.094640173,0.25587863,-0.96665293,0.010400019,0
1.3551368,8.9439001,0.99008077,0.14891613,0.98284614,0.10880008,0
-3.791301,6.8604493,-4.6228004,-0.41662645,0.75389552,-0.50800002,0
-5.5754066,-7.1683788,0.5824005,-0.61268198,-0.78773391,0.064000055,0
7.6051717,4.8890395,1.033761,0.83573312,0.53725708,0.11360011,0
-8.8044376,-2.2639983,-0.40767977,-0.96752059,-0.24879101,-0.044799972,0
4.8053956,3.0891821,7.0834408,0.52806544,0.33947057,0.77840006,0
0.80896282,-0.52004749,-9.0490408,0.088897012,-0.057148073,-0.99440002,0
4.3793602,6.3062787,-4.884881,0.48124835,0.69299763,-0.53680009,0
-3.5384848,-8.256464,-1.4559999,-0.38884446,-0.90730369,-0.15999998,0
-6.2387519,-3.2753446,-5.758481,-0.68557709,-0.35992795,-0.6328001,0
-5.2712831,4.6123724,5.8094406,-0.57926184,0.50685412,0.63840002,0
1.0721629,-3.2164917,8.4448004,0.11782009,-0.35346061,0.92799997,0
-7.4352293,-5.2046604,-0.66248083,-0.81705815,-0.57194066,-0.072800085,0
-3.3353047,2.4800987,-8.0953608,-0.36651698,0.2725383,-0.88960004,0
7.0105467,-3.1866114,4.8484793,0.77038974,-0.35017705,0.5327999,0
-4.8921614,0,-7.6731195,-0.5376001,0,-0.84319991,0
-5.6046729,2.6688917,-6.6539211,-0.61589807,0.29328477,-0.7312001,0
-2.1469829,-7.9745083,3.8220005,-0.23593217,-0.87631953,0.42000005,0
8.2704878,-3.7350583,0.67704022,0.90884477,-0.41044596,0.074400023,0
7.3194966,-3.9647269,3.6763999,0.80434024,-0.43568426,0.40399998,0
3.2112887,-6.7606082,-5.1760807,0.35288885,-0.74292397,-0.56880003,0
1.0079571,-6.3837342,6.4064007,0.11076451,-0.70150924,0.70400006,0
7.8857484,-2.1156888,-4.0185618,0.8665657,-0.23249327,-0.44160017,0
-0.72215295,-2.1664577,8.8088007,-0.07935746,-0.23807226,0.96800005,0
-5.814086,-0.68401057,6.9669604,-0.63891053,-0.075165994,0.76560003,0
1.0880607,1.0880607,8.9689608,0.11956711,0.11956711,0.98560005,0
8.2695484,0.3062793,3.7856009,0.90874153,0.033657067,0.41600007,0
-7.6677966,-3.0671184,3.8220003,-0.84261495,-0.33704597,0.42000002,0
8.9469986,-0.27959347,1.6380004,0.9831866,-0.030724555,0.18000004,0
8.1834459,-3.8189409,1.1211199,0.89927971,-0.41966382,0.12319998,0
0.71269614,-3.5634837,8.3428802,0.078318253,-0.39159161,0.91679996,0
5.0681033,-3.71661,6.5811205,0.55693442,-0.40841866,0.72320002,0
4.3109541,-4.3109541,-6.7558389,0.47373119,-0.47373119,-0.74239987,0
1.0611839,-9.0200586,0.56783974,0.11661361,-0.99121517,0.062399969,0
-8.5119991,2.5535989,1.9583199,-0.93538445,0.28061524,0.21519998,0
0.36363548,-0.72727203,9.0636005,0.039959941,-0.079920001,0.99599999,0
2.5676849,8.7301254,-0.043679051,0.28216317,0.9593544,-0.0047998955,0
5.3419237,-3.4243102,-6.5228796,0.58702457,-0.3762978,-0.71679991,0
-1.7148666,-1.8157413,-8.7505617,-0.18844688,-0.199532,-0.96160012,0
-4.8233781,5.7880535,5.1032801,-0.53004152,0.63604981,0.56079996,0
-1.8435802,7.2067218,-5.241601,-0.20259123,0.79194742,-0.57600009,0
-8.9688158,1.5375113,-0.080079719,-0.98558414,0.16895728,-0.0087999692,0
-5.8180361,0.34223711,6.9888005,-0.63934457,0.037608471,0.76800001,0
5.4796643,7.1473885,-1.3031212,0.60216087,0.78542727,-0.14320013,0
3.1405251,8.2795658,2.0966389,0.34511262,0.90984237,0.23039988,0
0.48386022,-0.17501324,-9.0854416,0.053171452,-0.019232225,-0.99840015,0
5.9905171,-1.0418293,-6.7703991,0.65829855,-0.11448674,-0.7439999,0
5.4638548,0.69751334,-7.2436023,0.60042357,0.076649815,-0.79600024,0
-7.7001896,4.6751156,1.2885596,-0.84617466,0.51374894,0.14159994,0
6.4394059,-3.8636439,5.1396804,0.707627,-0.42457622,0.56480002,0
-5.2712831,-4.6123724,5.8094406,-0.57926184,-0.50685412,0.63840002,0
8.8835669,0,-1.9728793,0.97621608,0,-0.21679991,0
5.7456455,-4.0374804,-5.7876,0.63138962,-0.44367915,-0.63599998,0
-6.9888,-5.2416005,-2.5480001,-0.76799995,-0.57600003,-0.28,0
5.9493685,-5.3231187,4.3680005,0.65377671,-0.58495808,0.48000005,0
8.9013891,1.1126742,1.5288002,0.97817457,0.12227189,0.16800003,0
-2.1740277,-6.6773715,-5.7876005,-0.23890413,-0.73377705,-0.63600004,0
-0.88714314,2.7797153,-8.6195221,-0.097488254,0.30546319,-0.94720018,0
1.8157451,1.7148701,-8.7505598,0.19953242,0.18844725,-0.96159995,0
-5.3911338,7.2780309,0.88088113,-0.59243226,0.79978359,0.096800119,0
-4.580792,7.8142929,0.87359947,-0.5033837,0.85871345,0.095999941,0
6.2269282,-5.930408,2.9775212,0.68427777,-0.65169317,0.32720011,0
9.0546637,-0.24472041,-0.8736003,0.99501795,-0.026892353,-0.096000031,0
7.622303,3.3538136,3.6691198,0.83761567,0.36855093,0.40319997,0
6.3597126,-1.673609,6.2899203,0.69886947,-0.18391307,0.69120002,0
-5.4172592,-3.0472085,6.6466403,-0.59530318,-0.33485806,0.73040003,0
-6.7352948,5.1024966,-3.3779194,-0.74014229,0.56071389,-0.37119994,0
-0.94947445,4.9583669,-7.5712023,-0.10433785,0.54487544,-0.8320002,0
-3.1866117,-7.0105457,4.8484802,-0.35017708,-0.77038962,0.53280002,0
-5.0025215,3.5544229,-6.719439,-0.54972762,0.39059591,-0.73839986,0
0.69751334,5.4638548,-7.2436023,0.076649815,0.60042357,-0.79600024,0
-7.416666,-0.96739131,5.1833606,-0.81501824,-0.10630673,0.56960005,0
8.8073053,1.136427,1.9874399,0.96783572,0.12488209,0.21839997,0
0.35500699,3.905081,8.2118397,0.039011754,0.42912978,0.9023999,0
2.4343736,-4.5209799,7.5129604,0.26751357,-0.49681094,0.82560003,0
-2.51985,0.6299625,-8.7214394,-0.27690658,0.069226645,-0.95839989,0
-2.4128561,-7.6097775,-4.368,-0.265149,-0.83623922,-0.47999999,0
-0.66912627,4.0147572,-8.1390419,-0.073530354,0.44118208,-0.89440018,0
5.6215935,-2.0442159,-6.85776,0.6177575,-0.2246391,-0.75359994,0
-7.500761,-2.8127854,4.31704,-0.8242594,-0.30909729,0.47439998,0
-5.8704066,-5.3200569,-4.477201,-0.64509958,-0.58462161,-0.49200007,0
6.3457007,-4.1161304,-5.0596008,0.6973297,-0.45232201,-0.55600005,0
-7.2480803,-4.9286942,2.4460804,-0.79649228,-0.54161471,0.26880005,0
6.71909,-4.88661,3.7127993,0.73836148,-0.53699011,0.4079999,0
-4.3666353,-7.5688338,2.5407202,-0.47985002,-0.83173996,0.27920002,0
-9.0546637,-0.24472041,-0.8736003,-0.99501795,-0.026892353,-0.096000031,0
1.610247,4.0256171,-8.00072,0.17695022,0.44237548,-0.87919998,0
6.736557,-4.6193533,-4.0112815,0.74028099,-0.50762123,-0.44080016,0
7.8110976,-3.3046956,3.2978404,0.85836232,-0.36315334,0.36240003,0
7.1473885,-5.4796643,-1.3031203,0.78542727,-0.60216087,-0.14320002,0
-1.8108777,0,8.9180002,-0.19899754,0,0.97999996,0
-0.5190801,9.0838976,0.15287876,-0.057041768,0.99823046,0.016799863,0
-5.6740818,0.48290086,-7.0980005,-0.62352544,0.053066026,-0.78000003,0
-4.6123729,7.4951057,2.3150406,-0.50685412,0.82363796,0.25440004,0
4.5624642,-3.3618157,-7.1198401,0.50136966,-0.36943027,-0.78240001,0
6.959352,4.5732884,-3.669122,0.76476395,0.50255913,-0.40320021,0
8.8106747,0.90365946,-2.0893593,0.96820599,0.099303231,-0.22959991,0
5.1607141,7.1676583,2.1912799,0.56711143,0.78765476,0.24079998,0
-5.94032,3.6301959,5.8603997,-0.65278238,0.39892259,0.64399993,0
0.97059101,-8.1529627,-3.9239213,0.10665835,-0.89592993,-0.43120012,0
0.88714415,-8.575736,2.9119992,0.097488366,-0.94238853,0.3199999,0
4.276639,-5.5925279,5.7657604,0.4699603,-0.61456347,0.6336,0
-0.20821291,-8.5367374,-3.1449599,-0.022880539,-0.93810296,-0.34559998,0
-4.891098,-0.34936383,7.6658406,-0.53748327,-0.038391627,0.84240001,0
-1.392898,4.8751435,7.5566406,-0.15306571,0.53573006,0.83040005,0
0,-0.36392686,9.09272,0,-0.03999196,0.99919999,0
-3.6907797,4.0367908,-7.2727213,-0.40558016,0.44360337,-0.79920012,0
-7.7087264,2.7751408,3.9603205,-0.84711277,0.30496052,0.43520004,0
-2.0069442,8.6011906,2.1912796,-0.22054331,0.94518572,0.24079995,0
-1.0611832,9.0200586,0.56784135,-0.11661354,0.99121517,0.062400147,0
2.9440281,6.5422864,5.598321,0.32351956,0.71893257,0.6152001,0
-6.719089,4.886611,3.7127995,-0.73836142,0.53699023,0.40799993,0
5.5777249,5.9623952,-4.0185614,0.61293679,0.65520823,-0.44160014,0
-3.5185828,-2.814867,7.9060802,-0.38665745,-0.30932602,0.86879998,0
3.2509098,7.4579687,-4.0767999,0.35724282,0.81955695,-0.44799995,0
-4.2394361,-0.353286,8.0444002,-0.46587208,-0.038822636,0.884,0
-0.9574818,1.2045738,-8.9689598,-0.10521778,0.13237074,-0.98559994,0
0.353286,-4.2394361,8.0444002,0.038822636,-0.46587208,0.884,0
-6.6301584,-6.0776448,1.3831998,-0.72858882,-0.66787302,0.15199998,0
-0.25984579,9.0946112,0.17471881,-0.028554482,0.99940777,0.019199869,0
0.3445521,-2.1103821,-8.8452005,0.037862867,-0.23191011,-0.972,0
-7.1032362,2.2601204,5.2197604,-0.78057539,0.24836487,0.57359999,0
1.8017061,-1.8017058,-8.736001,0.19798967,-0.19798964,-0.9600001,0
-4.5653381,0.70235902,7.8405604,-0.5016855,0.077182308,0.86160004,0
-2.7795401,-2.7001247,-8.2336798,-0.30544394,-0.29671699,-0.90479994,0
-5.4869375,1.7146684,7.0543203,-0.60296017,0.18842509,0.77520001,0
-8.842639,0.68020236,-2.0383992,-0.97171855,0.07474751,-0.2239999,0
2.0668535,-5.1671338,7.1999202,0.22712675,-0.56781685,0.79119998,0
-6.6370449,4.8801799,-3.8656805,-0.72934556,0.53628349,-0.42480004,0
7.4158154,4.848803,2.0748,0.81492472,0.53283548,0.22799999,0
5.1901593,1.3840435,7.3455205,0.57034713,0.15209268,0.80720001,0
4.8480377,1.723747,-7.5056801,0.53275138,0.18942274,-0.82479995,0
-3.8985069,1.063228,8.1536007,-0.42840734,0.11683824,0.89600003,0
4.2394361,-0.353286,8.0444002,0.46587208,-0.038822636,0.884,0
2.6279082,-6.5697713,5.7220807,0.28878111,-0.72195286,0.62880003,0
-1.3005351,6.5026751,-6.2316794,-0.14291593,0.71457964,-0.68479991,0
8.9083376,1.6196979,0.9100008,0.97893816,0.17798878,0.10000008,0
-7.2930198,3.6465099,-4.0404,-0.8014307,0.40071535,-0.44399998,0
-5.0025215,-3.5544229,-6.719439,-0.54972762,-0.39059591,-0.73839986,0
6.8318028,-3.5034885,-4.8848791,0.75074756,-0.38499874,-0.53679991,0
6.7615891,1.0518026,-5.9987192,0.74303174,0.1155827,-0.65919989,0
2.1146865,-8.1566477,3.436161,0.23238312,-0.89633489,0.3776001,0
6.2634239,-6.5043249,-1.1283989,0.68828833,-0.71476096,-0.12399987,0
-5.68541,-7.0390787,0.96824014,-0.62477028,-0.77352512,0.10640001,0
-2.5535996,-8.5119982,1.9583195,-0.28061533,-0.93538439,0.21519995,0
4.4734998,7.6049495,-2.2276785,0.49159336,0.83570868,-0.24479982,0
2.9723263,6.2749128,5.8822408,0.32662925,0.68955082,0.64640003,0
7.8007331,4.0448246,2.3660011,0.85722339,0.4444862,0.26000011,0
2.6935019,8.0805054,-3.2031991,0.29598922,0.88796759,-0.35199988,0
-2.7203639,8.6557026,-0.69888145,-0.29894108,0.95117605,-0.076800153,0
0,-6.9371147,5.8895202,0,-0.76232028,0.64719999,0
-3.7797716,6.9295821,4.5281591,-0.4153595,0.76149249,0.49759987,0
4.5732894,-6.9593525,-3.6691206,0.50255924,-0.76476395,-0.40320003,0
-0.29865763,-4.7785215,-7.7386394,-0.032819517,-0.52511221,-0.85039991,0
-2.3456748,8.3164816,-2.8537595,-0.25776646,0.91389906,-0.31359994,0
-7.477035,4.9846907,1.4341606,-0.82165217,0.54776818,0.15760006,0
-1.8017086,-1.8017086,8.7360001,-0.19798994,-0.19798994,0.95999998,0
4.7801123,7.0662518,-3.1667995,0.52528703,0.77651113,-0.34799993,0
1.0898129,-0.36327094,9.0272007,0.11975965,-0.039919883,0.99200004,0
7.5034165,-5.0916047,0.76440126,0.82455122,-0.55951697,0.084000133,0
7.1750975,0.97842133,5.5109596,0.78847224,0.10751882,0.60559994,0
-5.6839972,6.8207974,1.9947201,-0.62461507,0.74953812,0.2192,0
-5.4869375,-1.7146684,7.0543203,-0.60296017,-0.18842509,0.77520001,0
-6.8114505,6.0255146,0.32759973,-0.74851102,0.66214442,0.035999969,0
-3.2873049,6.2458797,5.7439203,-0.36124226,0.68636036,0.63120002,0
0.33661607,-6.3957114,6.4646401,0.036990777,-0.70282543,0.71039999,0
-5.2415996,-3.1449597,-6.741281,-0.57599992,-0.34559995,-0.74080008,0
3.5313463,-0.072068222,-8.3865614,0.38806003,-0.0079195844,-0.9216001,0
8.9726944,-0.47224733,-1.4414399,0.98601031,-0.051895309,-0.15839998,0
-2.0523276,5.3119073,-7.098,-0.22553051,0.58372605,-0.77999997,0
3.5544229,-5.0025215,-6.719439,0.39059591,-0.54972762,-0.73839986,0
0.36034128,-2.5223894,-8.736001,0.03959794,-0.27718565,-0.9600001,0
8.0749607,0.62115026,4.1496005,0.88735831,0.068258271,0.45600003,0
-0.27336353,-9.0210047,1.1648009,-0.030039947,-0.99131918,0.1280001,0
-6.9303732,0.66003489,5.8604002,-0.76157945,0.072531305,0.64399999,0
-0.70956701,-3.9026172,8.1900005,-0.077974394,-0.42885903,0.90000004,0
-1.0865264,1.4487026,8.9180002,-0.1193985,0.15919808,0.97999996,0
0.47599164,4.5695186,-7.8551216,0.052306771,0.50214487,-0.86320013,0
-1.0524071,-4.5604305,7.8041606,-0.11564913,-0.5011462,0.85760003,0
-2.8596973,-1.787311,8.4520798,-0.31425244,-0.19640779,0.92879993,0
0.85427552,-8.8275223,2.0384002,0.093876429,-0.97005737,0.22400001,0
-7.7547383,2.2696795,-4.1859999,-0.85216904,0.24941532,-0.45999998,0
-6.9888,-5.5910401,-1.645281,-0.76799995,-0.61439997,-0.1808001,0
0,-0.72741777,9.0708799,0,-0.079936013,0.99679995,0
-3.7291796,7.0854416,-4.3243194,-0.40979993,0.77861995,-0.47519991,0
-0.3703512,-7.9625463,-4.3898406,-0.040697932,-0.87500507,-0.48240006,0
-1.0898139,-0.36327094,9.0272007,-0.11975977,-0.039919883,0.99200004,0
6.4132133,6.4132133,-0.74255931,0.70474869,0.70474869,-0.081599921,0
5.6923275,-5.3760862,4.6373601,0.62553048,-0.59077871,0.50959998,0
-6.6557994,5.1431184,3.4725597,-0.73140651,0.5651778,0.38159996,0
1.745654,1.5569345,-8.79424,0.1918301,0.17109169,-0.96639997,0
2.6614344,7.2745891,-4.775681,0.2924653,0.79940534,-0.52480006,0
8.0751686,3.8983564,1.5506395,0.88738114,0.4283908,0.17039993,0
7.1473885,5.4796643,-1.3031212,0.78542727,0.60216087,-0.14320013,0
3.6609793,-5.657876,6.1152005,0.40230539,-0.62174457,0.67200005,0
5.6046729,2.6688917,-6.6539211,0.61589807,0.29328477,-0.7312001,0
-1.0396391,5.198195,7.396481,-0.11424606,0.57123017,0.81280011,0
-0.10165953,4.879662,-7.6804018,-0.011171376,0.53622657,-0.84400016,0
-4.5870347,3.5952435,-6.9888015,-0.50406975,0.39508167,-0.76800013,0
-2.8442357,-8.5327072,-1.3832009,-0.31255335,-0.9376601,-0.15200008,0
8.3545036,-2.9353662,-2.0966403,0.91807729,-0.3225677,-0.23040003,0
-1.8017097,-1.8017097,-8.7360001,-0.19799006,-0.19799006,-0.95999998,0
-2.8104951,-2.576287,-8.2628002,-0.30884561,-0.28310844,-0.90799999,0
6.6988654,-2.5519485,-5.6056013,0.736139,-0.28043389,-0.61600012,0
1.386549,-8.8739109,1.4632803,0.15236801,-0.975155,0.16080002,0
-3.5911729,7.8160834,-2.9702401,-0.39463437,0.8589102,-0.32640001,0
8.2734699,3.7606678,-0.46591869,0.90917248,0.41326019,-0.051199853,0
1.2268481,5.6434994,-7.0324793,0.13481846,0.62016475,-0.77279991,0
0,-7.1398773,-5.6419992,0,-0.78460187,-0.61999989,0
0.17500885,0.48384798,-9.0854425,0.01923174,0.053170104,-0.99840021,0
4.4734993,-7.6049495,-2.22768,0.4915933,-0.83570868,-0.24479999,0
-0.81776154,8.9953766,1.1065608,-0.089863904,0.98850286,0.12160008,0
-0.77708673,9.0660124,0.11647879,-0.085394144,0.99626505,0.012799866,0
-0.34478283,-5.5165305,7.2290406,-0.037888221,-0.60621214,0.79440004,0
7.3928752,4.4357247,2.9120007,0.81240386,0.48744226,0.32000005,0
-5.4980536,-1.3745131,7.1198406,-0.60418171,-0.1510454,0.78240001,0
-7.8673124,-3.7879655,2.562561,-0.8645398,-0.41625994,0.28160009,0
-6.5891042,5.3536472,-3.2759995,-0.72407734,0.58831286,-0.35999992,0
7.0968986,5.6285748,-0.87360156,0.77987891,0.61852467,-0.096000165,0
6.1448035,1.9551647,-6.4209599,0.67525309,0.21485326,-0.70559996,0
-6.8604493,-3.791301,-4.6228004,-0.75389552,-0.41662645,-0.50800002,0
-5.9799342,6.5494518,2.0383992,-0.65713561,0.71971995,0.2239999,0
-5.7498546,6.947741,-1.2157613,-0.63185215,0.76348799,-0.13360013,0
8.3822613,-1.496833,3.2104812,0.92112756,-0.16448714,0.3528001,0
-5.7456455,4.0374804,-5.7876,-0.63138962,0.44367915,-0.63599998,0
-5.0927491,3.3951669,6.7339997,-0.55964273,0.37309524,0.73999995,0
-0.70668525,8.9513454,-1.4778398,-0.077657714,0.98366427,-0.16239998,0
7.8007331,-4.0448246,2.3660011,0.85722339,-0.4444862,0.26000011,0
-1.0891572,0.72610408,9.0053606,-0.1196876,0.07979165,0.9896,0
-7.3928752,4.4357247,2.9120007,-0.81240386,0.48744226,0.32000005,0
4.8290071,3.0181298,-7.0979991,0.53066009,0.3316626,-0.77999985,0
-6.5537305,-0.14247227,-6.3117609,-0.72019011,-0.015656292,-0.69360006,0
-5.0444045,7.337316,-1.8782398,-0.55433017,0.80629843,-0.20639996,0
8.5594978,2.2825322,2.0820796,0.94060409,0.2508277,0.22879995,0
1.509753,7.9262052,-4.2078409,0.16590692,0.8710115,-0.46240008,0
-7.1398773,0,-5.6419992,-0.78460187,0,-0.61999989,0
-3.6301959,-5.94032,5.8603997,-0.39892259,-0.65278238,0.64399993,0
-4.0256171,1.610247,-8.00072,-0.44237548,0.17695022,-0.87919998,0
-8.5887194,0.59232485,2.9483993,-0.94381529,0.065090641,0.32399991,0
-8.5575256,-1.180348,2.8610392,-0.94038737,-0.12970857,0.3143999,0
6.2634239,-6.5043249,-1.1283989,0.68828833,-0.71476096,-0.12399987,0
-7.9276495,-3.7436118,-2.4388006,-0.87117022,-0.41138589,-0.26800007,0
1.6878618,-4.4678688,-7.7459202,0.18547931,-0.49097458,-0.85119998,0
0.72610408,-1.0891572,9.0053606,0.07979165,-0.1196876,0.9896,0
5.3377852,4.0033383,6.1879997,0.58656979,0.43992728,0.67999995,0
1.4086385,-4.2259135,7.9352002,0.15479542,-0.46438608,0.87199998,0
-8.1566477,2.1146865,3.436161,-0.89633489,0.23238312,0.3776001,0
1.2986799,5.4308429,-7.185359,0.14271207,0.59679592,-0.78959984,0
-7.082221,-2.7637935,-5.0013599,-0.77826601,-0.30371356,-0.54959995,0
-2.6279092,-6.5697713,5.7220802,-0.28878123,-0.72195286,0.62879997,0
-0.99339205,3.3349595,-8.4084024,-0.10916395,0.36647904,-0.9240002,0
-2.7564204,4.8237348,7.2072005,-0.30290332,0.53008074,0.792,0
2.4090412,-4.3991184,-7.5930419,0.2647298,-0.4834196,-0.83440018,0
-0.10165953,4.879662,-7.6804018,-0.011171376,0.53622657,-0.84400016,0
0.91072792,-7.8322582,-4.5427208,0.10007998,-0.86068767,-0.49920008,0
3.973573,-7.9471469,1.9656004,0.43665636,-0.87331283,0.21600004,0
6.6323957,1.6580994,6.0060005,0.72883469,0.18220872,0.66000003,0
-6.9898429,-5.5918741,1.6380004,-0.76811457,-0.61449164,0.18000004,0
6.0619283,2.0206428,6.4791999,0.66614592,0.22204864,0.71199995,0
7.1032372,-2.2601204,5.2197595,0.78057545,-0.24836487,0.57359993,0
-3.3538136,7.622303,3.6691198,-0.36855093,0.83761567,0.40319997,0
-8.0066767,-4.2702274,0.68431962,-0.87985456,-0.46925575,0.075199954,0
1.509753,-7.9262052,-4.2078409,0.16590692,-0.8710115,-0.46240008,0
-7.8048086,1.8731542,4.28792,-0.85767126,0.20584111,0.47119999,0
3.1091659,7.461997,4.1787195,0.34166658,0.81999964,0.45919994,0
1.0332478,-9.0409136,0.065520182,0.11354371,-0.99350697,0.0072000199,0
0.92802048,-1.5961952,-8.9107208,0.10198027,-0.17540605,-0.97920007,0
-5.3213267,-7.1722231,-1.7471998,-0.58476114,-0.78815633,-0.19199997,0
-3.2164917,-1.0721639,8.4448004,-0.35346061,-0.11782021,0.92799997,0
-4.1082559,-6.6089334,-4.7174401,-0.45145667,-0.72625637,-0.51840001,0
0.27959347,8.9469986,1.6380004,0.030724555,0.9831866,0.18000004,0
-6.6192102,-5.9344635,-1.9437606,-0.7273857,-0.65213883,-0.21360005,0
-5.5512943,4.7349277,-5.4381614,-0.61003232,0.52032173,-0.5976001,0
-2.9601774,-6.3877516,-5.7657599,-0.3252942,-0.70195067,-0.6336,0
1.2222596,8.352108,-3.3997617,0.13431424,0.91781402,-0.37360016,0
8.4845581,3.244096,-0.54599863,0.93236899,0.35649407,-0.059999846,0
2.8484244,-7.2793083,4.6592007,0.31301367,-0.79992396,0.51200002,0
-7.3230977,-4.6867824,2.6863203,-0.80473596,-0.51503098,0.29520002,0
-8.7538424,2.1884601,1.1793606,-0.96196067,0.24049011,0.12960006,0
7.2793093,2.8484242,4.6591997,0.79992408,0.31301364,0.51199996,0
-7.8724208,-0.629794,4.5208802,-0.86510116,-0.06920813,0.49680001,0
-1.3022858,-7.1625733,5.4600005,-0.14310832,-0.78709596,0.60000002,0
-5.9493685,5.3231196,4.368,-0.65377671,0.5849582,0.47999999,0
0.14191313,3.4768751,-8.4084005,0.015594848,0.38207418,-0.92400002,0
1.815738,-0.49176231,-8.9034414,0.19953163,-0.054039814,-0.97840011,0
0.33025825,-6.93543,5.8822398,0.036292113,-0.76213515,0.64639997,0
3.423795,0.71329075,-8.4011221,0.37624118,0.078383595,-0.92320019,0
6.71909,-4.88661,3.7127993,0.73836148,-0.53699011,0.4079999,0
-7.3808217,-5.1939116,1.1648009,-0.81107926,-0.57075948,0.1280001,0
4.2367353,-0.70612288,8.0225601,0.46557531,-0.077595919,0.88159996,0
-4.3582826,2.8328836,-7.4692802,-0.47893214,0.31130588,-0.82080001,0
6.6407599,2.9154556,-5.4964018,0.72975379,0.32037973,-0.60400015,0
-6.5880098,5.3901901,3.2177601,-0.72395712,0.59232855,0.3536,0
-6.8594756,-4.8419828,-3.5089607,-0.75378847,-0.53208601,-0.38560006,0
7.9809856,-0.18560413,-4.3680005,0.87703133,-0.020396058,-0.48000005,0
0.20821287,8.5367365,-3.1449616,0.022880534,0.9381029,-0.34560016,0
-0.6299625,-2.51985,-8.7214394,-0.069226645,-0.27690658,-0.95839989,0
6.8326602,-4.3480554,4.1495996,0.75084174,-0.47780827,0.45599994,0
4.2177787,-1.7574081,7.8696799,0.46349216,-0.19312176,0.86479998,0
-7.8673124,-3.7879655,2.562561,-0.8645398,-0.41625994,0.28160009,0
-6.8831544,-4.0673184,4.3461604,-0.75639057,-0.44695807,0.47760004,0
-4.5535512,-1.4010924,7.7532005,-0.50039023,-0.15396619,0.852,0
-4.2259135,-1.4086374,7.9352002,-0.46438608,-0.15479532,0.87199998,0
3.7473238,-0.70262319,-8.2628021,0.4117938,-0.077211335,-0.90800017,0
-2.7236154,-4.6528425,-7.3309603,-0.29929838,-0.51130134,-0.80559999,0
5.832448,5.832448,3.8438404,0.64092833,0.64092833,0.42240003,0
8.2695484,-0.3062793,3.7856009,0.90874153,-0.033657067,0.41600007,0
-4.5446911,-1.7479587,7.6876802,-0.49941659,-0.19208336,0.8448,0
7.4158158,-4.8488026,2.0748007,0.81492478,-0.53283542,0.22800007,0
-5.5128398,-0.68910539,7.2072005,-0.60580653,-0.075725861,0.792,0
-5.7456455,-4.0374804,-5.7876,-0.63138962,-0.44367915,-0.63599998,0
-8.1076918,3.2869015,-2.5043199,-0.89095509,0.36119795,-0.27519998,0
8.334631,-3.6464007,0.21840063,0.9158935,-0.40070337,0.024000067,0
0.90365946,-8.8106747,-2.0893593,0.099303231,-0.96820599,-0.22959991,0
2.4090412,4.3991184,-7.5930419,0.2647298,0.4834196,-0.83440018,0
0.67856413,6.1070833,6.7121601,0.074567482,0.67110801,0.73759997,0
-7.0662518,4.7801118,-3.166801,-0.77651113,0.52528697,-0.34800008,0
-4.5446911,-1.7479587,7.6876802,-0.49941659,-0.19208336,0.8448,0
-6.8824306,5.8992267,-0.80080044,-0.756311,0.64826661,-0.088000044,0
-0.61785674,4.2367325,-8.0298414,-0.067896344,0.46557498,-0.8824001,0
3.4913664,-3.4913652,7.6440001,0.38366663,-0.38366649,0.83999997,0
6.8284497,-2.6013148,5.4236007,0.75037909,-0.28585875,0.59600008,0
4.4734998,7.6049495,-2.2276785,0.49159336,0.83570868,-0.24479982,0
-7.9317198,0.55337524,-4.4262404,-0.8716175,0.060810465,-0.48640004,0
-8.3336134,3.3334453,1.4996794,-0.91578168,0.36631265,0.16479993,0
-8.9894419,-1.321977,0.50231975,-0.98785073,-0.1452722,0.05519997,0
0.81484014,6.247107,-6.5665588,0.089542866,0.68649524,-0.72159982,0
8.7301254,2.5676849,-0.043679051,0.9593544,0.28216317,-0.0047998955,0
5.198195,1.0396382,7.396481,0.57123017,0.11424594,0.81280011,0
-5.7982583,1.3642969,6.8796005,-0.63717121,0.14992273,0.75600004,0
0,-7.9871221,-4.3607206,0,-0.87770569,-0.47920004,0
-2.2154415,4.5363798,-7.5712008,-0.2434551,0.49850327,-0.83200008,0
-7.0397568,-1.4399502,-5.5837603,-0.77359962,-0.15823628,-0.61360002,0
-4.6751151,7.7001891,1.2885616,-0.51374888,0.8461746,0.14160016,0
6.6089325,4.1082559,-4.7174411,0.72625631,0.45145667,-0.51840007,0
4.5060964,2.7729821,7.4037604,0.49517539,0.30472329,0.8136,0
-2.7001224,2.7795379,-8.2336817,-0.29671672,0.3054437,-0.90480012,0
-2.4784529,7.7451644,4.0840802,-0.27235746,0.85111696,0.4488,0
8.5882874,1.7616997,-2.4387991,0.94376779,0.19359337,-0.26799989,0
3.2164907,-1.0721639,8.4448004,0.35346052,-0.11782021,0.92799997,0
-3.5384848,-8.256464,-1.4559999,-0.38884446,-0.90730369,-0.15999998,0
-1.7274323,-8.6371613,2.2859197,-0.18982771,-0.94913858,0.25119996,0
-7.2018666,3.4443717,4.3680005,-0.7914139,0.37850237,0.48000005,0
-7.6677966,3.0671194,3.8219998,-0.84261495,0.33704606,0.41999996,0
4.9286952,7.2480803,2.4460797,0.54161483,0.79649228,0.26879996,0
6.1070828,-0.67856514,6.7121601,0.67110795,-0.074567594,0.73759997,0
-6.947741,-5.7498546,-1.2157613,-0.76348799,-0.63185215,-0.13360013,0
1.8194177,8.1873789,3.5308008,0.199936,0.89971191,0.38800007,0
-5.4582529,6.3679609,3.5308006,-0.59980798,0.69977587,0.38800004,0
1.9844379,-6.6147923,5.9259205,0.21807009,-0.72690022,0.6512,0
-1.6196979,-8.9083376,0.9100008,-0.17798878,-0.97893816,0.10000008,0
0.93272102,-6.1293101,-6.661201,0.10249681,-0.67355055,-0.73200005,0
2.1740277,6.6773715,-5.7876005,0.23890413,0.73377705,-0.63600004,0
6.7665591,3.222172,5.1615205,0.7435779,0.35408482,0.56720001,0
3.2251229,5.6089087,-6.3991194,0.3544091,0.61636358,-0.70319992,0
-8.508131,-1.963415,-2.5625594,-0.93495941,-0.21575989,-0.28159991,0
4.7774215,-6.0514016,4.833921,0.52499133,-0.66498917,0.53120011,0
-2.1956534,8.7826138,-0.92456084,-0.24128059,0.96512234,-0.10160009,0
2.3297136,-6.3235087,6.1152005,0.25601247,-0.69489104,0.67200005,0
6.4610734,2.2538624,-5.9987202,0.71000803,0.24767718,-0.65920001,0
2.9759097,8.0349531,3.0648806,0.32702303,0.88296187,0.33680004,0
-1.7024,5.4720001,-7.0688791,-0.18707691,0.60131866,-0.77679986,0
8.2132921,-1.5209805,3.6108809,0.90255952,-0.16714071,0.39680007,0
8.262537,0.61203927,3.763761,0.90797108,0.067257062,0.41360009,0
-1.7903473,-8.3549538,3.1304002,-0.19674146,-0.91812676,0.34400001,0
4.1774769,5.3710427,-6.0423999,0.45906338,0.59022444,-0.66399997,0
3.7473247,0.70262313,-8.2628012,0.41179392,0.077211328,-0.90800011,0
-0.34936383,4.891098,7.6658406,-0.038391627,0.53748327,0.84240001,0
4.8664494,5.5153108,5.3580804,0.53477466,0.60607809,0.58880001,0
6.64148,1.1807073,-6.1079192,0.72983295,0.12974805,-0.67119986,0
8.8835669,0,-1.9728793,0.97621608,0,-0.21679991,0
6.6706414,-0.33353177,6.1807208,0.73303747,-0.036651842,0.67920005,0
-7.2793083,2.8484244,4.6592007,-0.79992396,0.31301367,0.51200002,0
-8.5210686,-0.41566211,-3.1668,-0.9363811,-0.045677152,-0.34799999,0
-0.66658765,-6.6658726,6.1588807,-0.073251389,-0.73251343,0.67680007,0
6.1070828,-0.67856514,6.7121601,0.67110795,-0.074567594,0.73759997,0
7.9077692,4.4810696,0.44407907,0.86898559,0.4924252,0.048799895,0
-5.6607461,-2.3696146,-6.7194409,-0.62206,-0.2603972,-0.7384001,0
-1.4140825,-8.2824841,-3.4943998,-0.15539367,-0.91016304,-0.38399997,0
-0.39392826,-8.2724895,-3.7710412,-0.043288819,-0.90906477,-0.4144001,0
-7.1266704,-1.9436375,5.3144002,-0.78315055,-0.21358652,0.58399999,0
5.1502085,-5.4720955,5.1324,0.56595695,-0.60132915,0.56399995,0
-0.19736703,-8.2894239,-3.7492011,-0.021688683,-0.91092569,-0.41200009,0
-4.3991203,6.5986805,4.4626412,-0.48341981,0.72512972,0.49040011,0
-7.6097775,2.4128561,-4.368,-0.83623922,0.265149,-0.47999999,0
-3.8079333,4.56952,-6.8868814,-0.4184542,0.50214505,-0.75680012,0
-5.2067523,-6.4318714,3.7856002,-0.57217056,-0.70679903,0.41600001,0
7.9276495,-3.7436118,-2.4388006,0.87117022,-0.41138589,-0.26800007,0
3.8189409,8.1834459,1.1211199,0.41966382,0.89927971,0.12319998,0
8.8351736,-1.3950275,-1.6743999,0.97089815,-0.15329972,-0.18399997,0
-7.0761003,-2.5731277,5.1105599,-0.77759343,-0.28276128,0.56159997,0
1.8194177,8.1873789,3.5308008,0.199936,0.89971191,0.38800007,0
5.4796643,-7.1473885,-1.3031212,0.60216087,-0.78542727,-0.14320013,0
5.6839972,6.8207974,1.9947201,0.62461507,0.74953812,0.2192,0
-1.4325149,-2.8650298,-8.5176001,-0.15741922,-0.31483844,-0.93599999,0
-1.0767269,8.6138124,-2.7299988,-0.11832163,0.94657278,-0.29999986,0
-7.2368293,-5.4900084,-0.5460009,-0.79525596,-0.60329759,-0.060000096,0
-0.7155174,-3.2198267,8.4812002,-0.078628279,-0.35382709,0.93199998,0
5.1502085,-5.4720955,5.1324,0.56595695,-0.60132915,0.56399995,0
1.2609342,-2.8371022,-8.5539989,0.1385642,-0.31176946,-0.93999982,0
4.2638874,8.0261402,-0.4586401,0.46855903,0.88199341,-0.050400008,0
-1.673609,-6.3597126,6.2899203,-0.18391307,-0.69886947,0.69120002,0
-7.9276495,-3.7436118,-2.4388006,-0.87117022,-0.41138589,-0.26800007,0
-6.9965081,4.5629396,3.6108811,-0.76884699,0.50142193,0.3968001,0
-6.8726363,-2.0777736,-5.5910406,-0.75523472,-0.22832675,-0.61440003,0
-4.7619658,3.7415452,6.7922401,-0.5232929,0.4111588,0.7464,0
2.8514006,-5.082931,-6.9888005,0.31334072,-0.55856383,-0.76800001,0
8.7113657,-1.9670823,1.7472,0.95729291,-0.21616288,0.19199999,0
8.5513296,3.1095746,0.12376072,0.9397065,0.34171146,0.013600078,0
-0.28550199,8.8505707,2.0966401,-0.031373844,0.97259015,0.2304,0
0.66003489,6.9303722,5.8604012,0.072531305,0.76157933,0.64400011,0
-4.0563378,3.0956266,-7.534801,-0.4457514,0.34017873,-0.82800007,0
-5.233829,-4.9067149,5.59832,-0.57514602,-0.53919941,0.61519998,0
9.0438004,0.79798162,0.61880147,0.99382418,0.087690286,0.06800016,0
5.6997242,-6.2996955,3.26144,0.62634331,-0.69227421,0.35839999,0
-4.6471496,-4.9790893,6.0351205,-0.51067573,-0.54715264,0.66320002,0
-5.9978547,2.9989264,6.1516004,-0.65910488,0.32955235,0.676,0
1.610247,-4.0256171,-8.00072,0.17695022,-0.44237548,-0.87919998,0
-2.8313751,0.34669903,-8.6413612,-0.31114012,0.038098793,-0.9496001,0
0.49176493,-1.8157474,-8.9034395,0.0540401,-0.19953267,-0.97839993,0
7.4579687,3.2509098,-4.0767999,0.81955695,0.35724282,-0.44799995,0
7.4336581,0,5.2488794,0.81688547,0,0.57679993,0
5.9069839,-3.937989,5.6929598,0.64911908,-0.43274602,0.62559992,0
8.8073053,1.136427,1.9874399,0.96783572,0.12488209,0.21839997,0
-7.3230977,4.6867833,2.6863196,-0.80473596,0.5150311,0.29519993,0
3.2118161,-1.4274739,8.3938408,0.35294682,-0.15686525,0.92240006,0
-0.47146091,7.0719128,-5.7075195,-0.05180889,0.77713323,-0.62719995,0
8.42908,3.2628698,1.0555998,0.92627251,0.35855711,0.11599997,0
-7.1980028,-3.0591509,-4.6519203,-0.79098928,-0.33617041,-0.51120001,0
1.8338521,8.9072819,0.32760137,0.2015222,0.97882217,0.036000151,0
-3.5057564,-3.1551812,7.7823205,-0.38524795,-0.3467232,0.85519999,0
6.3439474,1.4097664,-6.3699999,0.69713706,0.15491939,-0.69999993,0
6.3561535,-6.0672369,2.365999,0.6984784,-0.66672933,0.25999987,0
3.2440958,-8.4845581,-0.54600012,0.35649404,-0.93236899,-0.06000001,0
-8.9083376,-1.6196979,0.9100008,-0.97893816,-0.17798878,0.10000008,0
3.2628698,8.42908,1.0555998,0.35855711,0.92627251,0.11599997,0
-2.0590949,-8.2363796,-3.2760005,-0.22627416,-0.90509665,-0.36000004,0
6.8114505,6.0255146,0.32759973,0.74851102,0.66214442,0.035999969,0
-7.7581716,-3.5806949,3.1304004,-0.85254627,-0.39348295,0.34400004,0
5.2416005,-6.9888,-2.5480001,0.57600003,-0.76799995,-0.28,0
2.5731268,7.0761013,5.1105595,0.28276119,0.77759349,0.56159991,0
-4.6123729,-7.4951057,2.3150406,-0.50685412,-0.82363796,0.25440004,0
-7.9407415,2.4433048,3.7128007,-0.8726089,0.26849502,0.40800005,0
0.90233755,8.4218245,3.3269615,0.099157967,0.92547518,0.36560014,0
6.9354291,-0.33025825,5.8822408,0.76213503,-0.036292113,0.64640003,0
-6.795887,5.3092871,-2.9047198,-0.74680072,0.5834381,-0.31919998,0
8.6985464,-2.6359231,0.44408092,0.95588416,-0.28966188,0.0488001,0
-2.1954236,-3.1363194,-8.2555208,-0.24125533,-0.34465048,-0.90720004,0
0.70262313,3.7473247,-8.2628012,0.077211328,0.41179392,-0.90800011,0
4.3109541,4.3109541,-6.7558389,0.47373119,0.47373119,-0.74239987,0
-4.5060964,-2.7729831,7.4037604,-0.49517539,-0.30472341,0.8136,0
-2.0590951,8.2363806,-3.2759986,-0.22627418,0.90509671,-0.35999984,0
-6.6706414,0.33353177,6.1807208,-0.73303747,0.036651842,0.67920005,0
-3.4750102,-3.276438,-7.7459192,-0.38186923,-0.36004812,-0.85119987,0
7.622303,-3.3538136,3.6691198,0.83761567,-0.36855093,0.40319997,0
6.7878928,-5.9733458,1.0264801,0.74592227,-0.65641159,0.1128,0
-5.8873692,-6.7284222,1.6962395,-0.6469636,-0.73938704,0.18639994,0
-4.5604305,-1.0524071,7.8041606,-0.5011462,-0.11564913,0.85760003,0
-2.9759088,-8.0349531,3.0648808,-0.32702294,-0.88296187,0.33680007,0
-8.5022421,3.1883411,0.59696025,-0.93431228,0.35036713,0.065600023,0
5.9538207,4.592947,-5.1251206,0.654266,0.50471944,-0.56320006,0
-3.4552321,-2.7278152,-7.9643207,-0.37969583,-0.29975989,-0.87520003,0
3.8229361,-6.6901383,4.8411999,0.42010283,-0.73518002,0.53199995,0
7.1266713,-1.9436374,5.3143992,0.78315067,-0.21358651,0.58399987,0
0.97236437,8.9943657,-0.98280042,0.10685322,0.98839182,-0.10800004,0
3.5253401,-6.7301941,5.0086398,0.3874,-0.73958176,0.55039996,0
3.3618164,4.5624657,-7.1198387,0.36943036,0.50136983,-0.78239983,0
-8.4948902,-0.62157738,-3.2031999,-0.9335044,-0.068305202,-0.35199997,0
-2.2350793,8.1275587,-3.428879,-0.2456131,0.89313829,-0.37679988,0
-6.1611776,6.6540713,-0.7571193,-0.67705244,0.73121661,-0.083199918,0
5.6089096,-3.2251232,-6.3991184,0.61636364,-0.35440913,-0.7031998,0
-0.33353177,-6.6706414,6.1807208,-0.036651842,-0.73303747,0.67920005,0
-1.4454056,8.9133339,-1.1284003,-0.15883577,0.97948718,-0.12400003,0
-0.36129603,2.1677783,8.8306408,-0.039702859,0.23821738,0.97040004,0
-7.0486155,1.9670554,-5.4090409,-0.77457309,0.21615992,-0.59440005,0
-6.5114303,3.2557149,-5.46,-0.71554178,0.35777086,-0.59999996,0
-2.1146865,-8.1566477,3.436161,-0.23238312,-0.89633489,0.3776001,0
4.5732894,-6.9593525,-3.6691206,0.50255924,-0.76476395,-0.40320003,0
-5.9623952,5.5777249,-4.0185614,-0.65520823,0.61293679,-0.44160014,0
1.353376,-6.0901895,6.6247997,0.14872263,-0.66925156,0.72799993,0
-6.2062492,-2.6598213,-6.1006413,-0.68200541,-0.29228804,-0.67040008,0
6.7184982,5.5500631,2.6207995,0.73829645,0.60989702,0.28799993,0
-3.6465099,-7.2930198,-4.0404,-0.40071535,-0.8014307,-0.44399998,0
-0.27797708,-1.5134307,-8.9689608,-0.03054693,-0.16631106,-0.98560005,0
-2.5439193,7.4500508,-4.5645614,-0.27955157,0.81868684,-0.50160015,0
3.7340655,-7.1569586,4.2005606,0.41033685,-0.78647894,0.46160004,0
3.1078877,-4.4891715,-7.2799988,0.34152612,-0.49331552,-0.79999983,0
-3.4532688,8.3865099,-0.74255842,-0.37948006,0.92159444,-0.081599824,0
-7.8471346,-1.2555413,4.4335203,-0.86232245,-0.13797157,0.48720002,0
-4.563858,1.9707569,-7.62216,-0.50152284,0.21656668,-0.83759993,0
-7.6061826,-4.9833608,0.34943917,-0.83584422,-0.54762203,0.038399909,0
-4.8053951,-3.0891831,7.0834403,-0.52806538,-0.33947065,0.7784,0
-5.3092871,-6.795887,-2.9047198,-0.5834381,-0.74680072,-0.31919998,0
-3.8388324,3.1408615,7.6294403,-0.4218497,0.34514961,0.83840001,0
4.5682797,0.35140583,7.8624005,0.50200874,0.038616024,0.86400002,0
1.0150307,-2.5939672,-8.6632013,0.11154184,-0.28505132,-0.95200008,0
-6.2471051,0.81483978,-6.5665607,-0.68649507,0.089542829,-0.72160006,0
-0.70668525,8.9513454,-1.4778398,-0.077657714,0.98366427,-0.16239998,0
-0.86579967,-8.657999,-2.6644804,-0.095142819,-0.95142841,-0.29280004,0
4.9286952,7.2480803,2.4460797,0.54161483,0.79649228,0.26879996,0
-8.8790283,0.22766718,-1.9801593,-0.97571737,0.02501837,-0.21759991,0
5.7457061,-7.0515471,0.26935986,0.63139623,-0.77489525,0.029599983,0
-0.19736703,-8.2894239,-3.7492011,-0.021688683,-0.91092569,-0.41200009,0
-8.7301254,2.5676847,-0.043680526,-0.9593544,0.28216314,-0.0048000575,0
0.35798031,-3.2218258,8.5030403,0.039338496,-0.35404679,0.93440002,0
-5.1662359,7.4910426,0.065519445,-0.56771821,0.82319146,0.0071999389,0
5.6046729,2.6688917,-6.6539211,0.61589807,0.29328477,-0.7312001,0
8.6138124,1.0767269,-2.7299988,0.94657278,0.11832163,-0.29999986,0
7.3119736,2.5432944,4.7829599,0.80351353,0.2794829,0.52559996,0
-4.4891715,3.1078877,-7.2799988,-0.49331552,0.34152612,-0.79999983,0
5.4172602,3.0472076,6.6466398,0.5953033,0.33485797,0.73039997,0
-8.3740101,3.5526102,-0.25479892,-0.92022085,0.39039671,-0.02799988,0
-4.3981915,5.3081622,-5.9404821,-0.48331773,0.58331448,-0.6528002,0
-3.8927455,-1.4155433,8.1026402,-0.42777422,-0.15555421,0.89039999,0
-0.71329182,-3.4238009,-8.4011192,-0.078383714,-0.37624183,-0.92319989,0
5.1551576,-0.87747371,-7.4474425,0.56650078,-0.096425682,-0.81840026,0
-7.6875563,4.8687854,-0.080080457,-0.84478635,0.53503132,-0.0088000502,0
-7.6387258,4.6295309,-1.7399189,-0.83942038,0.50873965,-0.19119987,0
-6.1961312,-5.2667112,4.0840807,-0.68089354,-0.57875943,0.44880006,0
5.2867041,5.1214948,-5.3508,0.58095646,0.5628016,-0.588,0
-3.8279238,-6.0608788,-5.6056004,-0.42065096,-0.66603059,-0.616,0
-7.0854416,3.7291796,-4.3243194,-0.77861995,0.40979993,-0.47519991,0
-4.1587791,-6.3981218,4.9576807,-0.45700869,-0.70309031,0.54480004,0
-1.180348,-8.5575256,2.8610392,-0.12970857,-0.94038737,0.3143999,0
-7.8664942,-4.5676417,-0.25480032,-0.86444986,-0.50193864,-0.028000034,0
-7.461997,3.1091659,4.1787195,-0.81999964,0.34166658,0.45919994,0
8.9068651,-1.7318902,-0.69160068,0.97877634,-0.1903176,-0.076000072,0
-4.4734993,-7.6049495,-2.22768,-0.4915933,-0.83570868,-0.24479999,0
-6.8326592,4.3480554,4.1496005,-0.75084162,0.47780827,0.45600003,0
0,1.4513341,8.9835205,0,0.15948726,0.98720002,0
4.2839255,-5.7119017,-5.6420002,0.47076103,-0.62768149,-0.62,0
3.1078877,-4.4891715,-7.2799988,0.34152612,-0.49331552,-0.79999983,0
-8.9728918,1.0876238,1.0556008,-0.98603201,0.1195191,0.11600008,0
5.0658441,7.4781518,-1.1065595,0.55668616,0.8217749,-0.12159994,0
6.3439474,1.4097664,-6.3699999,0.69713706,0.15491939,-0.69999993,0
-8.8488398,1.9664084,-0.80080056,-0.97239995,0.21608882,-0.088000059,0
6.0221405,2.6765063,6.2753601,0.66177368,0.29412156,0.68959999,0
-2.7564204,-4.8237348,7.2072005,-0.30290332,-0.53008074,0.792,0
-4.0256171,1.610247,-8.00072,-0.44237548,0.17695022,-0.87919998,0
6.129312,-0.93272138,-6.6611986,0.67355072,-0.10249685,-0.73199981,0
-3.3353047,2.4800987,-8.0953608,-0.36651698,0.2725383,-0.88960004,0
-1.7318902,-8.9068651,-0.69160068,-0.1903176,-0.97877634,-0.076000072,0
-6.0776448,6.6301584,1.3831998,-0.66787302,0.72858882,0.15199998,0
-4.8655457,-1.7376955,7.4911203,-0.53467536,-0.19095553,0.82319999,0
-2.2154415,-4.5363798,-7.5712008,-0.2434551,-0.49850327,-0.83200008,0
6.6192102,5.9344635,-1.9437606,0.7273857,0.65213883,-0.21360005,0
5.754508,-2.3695028,6.63936,0.6323635,-0.26038492,0.72959995,0
6.6558003,-5.1431174,3.4725595,0.73140663,-0.56517774,0.38159993,0
-2.5223911,-0.36034128,8.7360001,-0.27718583,-0.03959794,0.95999998,0
4.2292967,4.9341798,-6.3700018,0.46475786,0.54221755,-0.70000017,0
-4.4005055,-4.4005055,6.6393604,-0.48357201,-0.48357201,0.72960001,0
0.75498128,9.0597839,-0.40040064,0.082964972,0.99558061,-0.044000067,0
4.4166446,-4.8440619,-6.3117604,0.48534554,-0.53231448,-0.6936,0
-7.6806521,1.2503386,-4.7174406,-0.8440277,0.13739984,-0.51840007,0
-4.9833608,-7.6061826,0.34943917,-0.54762203,-0.83584422,0.038399909,0
8.1834459,3.8189409,1.1211199,0.89927971,0.41966382,0.12319998,0
8.7301254,2.5676849,-0.043679051,0.9593544,0.28216317,-0.0047998955,0
-5.5941958,-6.422966,-3.2031994,-0.61474675,-0.70582038,-0.35199991,0
8.9688158,1.5375112,-0.080081239,0.98558414,0.16895728,-0.0088001359,0
-8.7341042,2.4954591,-0.54600006,-0.9597916,0.27422625,-0.060000006,0
-6.5280128,0.28382638,-6.333601,-0.71736401,0.031189712,-0.6960001,0
-0.69385737,-5.2039275,7.4328799,-0.076248057,-0.57186013,0.81679994,0
-7.2480803,-4.9286942,2.4460804,-0.79649228,-0.54161471,0.26880005,0
4.9583669,-0.94947445,-7.5712023,0.54487544,-0.10433785,-0.8320002,0
2.1523209,2.1523209,8.57584,0.23651877,0.23651877,0.94239998,0
1.4218204,-3.554549,8.2555199,0.15624399,-0.39060977,0.90719992,0
-8.7965422,2.3284957,0.094640173,-0.96665293,0.25587863,0.010400019,0
4.8890395,7.6051717,1.033761,0.53725708,0.83573312,0.11360011,0
-1.386549,8.8739109,1.4632803,-0.15236801,0.975155,0.16080002,0
6.0296683,-6.2450147,-2.7299998,0.66260087,-0.68626529,-0.29999995,0
1.0524061,4.5604305,7.8041606,0.11564901,0.5011462,0.85760003,0
8.0349531,-2.9759088,3.0648808,0.88296187,-0.32702294,0.33680007,0
-5.8704066,5.3200569,-4.477201,-0.64509958,0.58462161,-0.49200007,0
-2.1156888,7.8857484,-4.0185618,-0.23249327,0.8665657,-0.44160017,0
-2.9353662,8.3545036,-2.0966403,-0.3225677,0.91807729,-0.23040003,0
8.2174244,3.4003134,1.9291991,0.90301365,0.3736608,0.21199989,0
5.4900084,7.2368293,-0.54600185,0.60329759,0.79525596,-0.0600002,0
-7.7457905,4.7474198,-0.52416009,-0.85118574,0.52169448,-0.057600006,0
-6.8195381,5.6829481,-2.0020006,-0.74939978,0.62449974,-0.22000006,0
-6.5595789,6.2971964,0.35671967,-0.72083282,0.69199955,0.039199963,0
8.3697052,-3.3478816,-1.244881,0.91974777,-0.36789906,-0.13680011,0
6.5155807,-5.6270914,2.9483993,0.71599782,-0.61836165,0.32399991,0
6.6722302,0,6.1880007,0.73321211,0,0.68000007,0
4.1721964,8.0836296,0.24023929,0.4584831,0.88831091,0.026399922,0
3.244096,8.4845581,-0.54599863,0.35649407,0.93236899,-0.059999846,0
-8.9854784,0.23645975,-1.4195998,-0.98741519,0.025984587,-0.15599997,0
0.66335845,-1.6060258,-8.9325609,0.072896533,-0.17648634,-0.98160005,0
-2.8364739,2.836473,8.1681604,-0.31170043,0.31170031,0.8976,0
-4.6019735,-5.21557,-5.867681,-0.50571138,-0.57313955,-0.64480007,0
0.41566142,8.5210676,-3.1668017,0.045677077,0.93638104,-0.34800017,0
7.1661787,4.5044556,-3.3415222,0.78749216,0.49499509,-0.36720023,0
5.3059177,4.3110571,6.0059996,0.58306783,0.47374251,0.65999991,0
1.8338521,8.9072819,0.32760137,0.2015222,0.97882217,0.036000151,0
5.6997242,-6.2996955,3.26144,0.62634331,-0.69227421,0.35839999,0
5.657877,-3.6609793,6.1151996,0.62174469,-0.40230539,0.67199993,0
-5.4582529,6.3679609,3.5308006,-0.59980798,0.69977587,0.38800004,0
-9.0938368,0,-0.33488077,-0.99932265,0,-0.036800083,0
2.8104951,-2.576287,-8.2628002,0.30884561,-0.28310844,-0.90799999,0
-6.7887478,5.8523684,-1.5724809,-0.7460162,0.64311737,-0.17280009,0
4.9790883,4.6471496,6.035121,0.54715252,0.51067573,0.66320008,0
3.7792771,-1.0453318,-8.2118425,0.41530517,-0.11487163,-0.90240026,0
-5.0444045,-7.337316,-1.8782398,-0.55433017,-0.80629843,-0.20639996,0
-4.8488026,-7.4158158,2.0748007,-0.53283542,-0.81492478,0.22800007,0
1.6216446,2.2367508,-8.6704798,0.1782027,0.24579678,-0.95279992,0
5.3354897,7.3680587,-0.23296025,0.58631754,0.80967677,-0.025600027,0
8.1529627,0.97059101,-3.9239213,0.89592993,0.10665835,-0.43120012,0
0,-7.9871221,-4.3607206,0,-0.87770569,-0.47920004,0
-2.4128556,7.6097765,-4.3680015,-0.26514897,0.83623916,-0.48000014,0
5.3536472,-6.5891042,-3.2759995,0.58831286,-0.72407734,-0.35999992,0
4.879662,-0.10165953,-7.6804018,0.53622657,-0.011171376,-0.84400016,0
-8.7986355,-1.902408,-1.3322405,-0.966883,-0.20905581,-0.14640005,0
0.7250815,-1.4501641,8.9544001,0.079679281,-0.15935868,0.98399997,0
-1.7274323,8.6371613,2.2859197,-0.18982771,0.94913858,0.25119996,0
-7.6049495,4.4734993,-2.22768,-0.83570868,0.4915933,-0.24479999,0
-7.6618261,-0.31924245,4.8994398,-0.84195888,-0.035081588,0.53839993,0
-1.4325143,2.8650286,8.517601,-0.15741915,0.31483829,0.93600005,0
3.125104,4.1668067,7.4620004,0.343418,0.45789084,0.81999999,0
9.0900593,0.2525014,-0.34216076,0.99890757,0.027747406,-0.037600081,0
3.5034885,6.8318028,-4.8848791,0.38499874,0.75074756,-0.53679991,0
2.478452,7.7451644,4.0840802,0.27235734,0.85111696,0.4488,0
-7.3302584,5.2021198,-1.4196011,-0.80552286,0.57166147,-0.15600011,0
-7.4744368,3.8382242,-3.4944003,-0.82136667,0.42178285,-0.384,0
-8.3865414,2.6027188,2.3878396,-0.9215979,0.28601304,0.26239994,0
8.9894419,-1.3219771,0.50232124,0.98785073,-0.14527221,0.055200133,0
5.8140869,-0.68401051,6.96696,0.63891065,-0.075165987,0.76559997,0
-7.9947333,4.1352062,1.3395196,-0.87854207,0.45441824,0.14719996,0
