-2.3097932,7.2593517,5.3344793,-0.24836487,0.78057545,0.57359993,0
4.1262164,-5.8719234,-5.9148002,0.44367918,-0.63138962,-0.63599998,0
-6.6691623,6.3912807,1.078799,-0.71711421,0.68723446,0.11599989,0
-7.7812018,1.621084,4.8285599,-0.83668834,0.1743101,0.51919997,0
-5.6437392,-6.2708211,3.9134402,-0.60685366,-0.67428184,0.42080003,0
1.6598876,-7.3035035,5.5130401,0.17848253,-0.78532296,0.59280002,0
-5.7987871,-0.4935137,-7.2540002,-0.6235255,-0.053065989,-0.78000003,0
-8.9230385,-0.22307575,-2.6114404,-0.95946646,-0.023986639,-0.28080004,0
2.696197,-8.5379572,-2.51472,0.28991365,-0.91805989,-0.27039999,0
2.406446,-6.0868921,-6.6067209,0.25875762,-0.65450454,-0.7104001,0
9.1188059,0.85488725,1.6144805,0.98051673,0.091923356,0.17360005,0
0.59445494,8.9168329,2.5742395,0.063919887,0.95879924,0.27679995,0
2.1791456,-3.2687182,8.4295197,0.23431672,-0.35147506,0.90639997,0
0.58298409,-9.0362625,2.1204,0.062686458,-0.97164112,0.22799999,0
-2.932229,-1.0995858,8.7568798,-0.31529343,-0.11823503,0.94159997,0
-1.967356,-8.9936275,1.3168805,-0.21154365,-0.96705669,0.14160004,0
3.641803,-0.72836083,8.5262394,0.39159173,-0.078318365,0.9167999,0
-5.48489,-3.7708623,6.49512,-0.58977312,-0.40546906,0.69840002,0
-3.1636622,-4.1454883,-7.7004008,-0.34017873,-0.44575143,-0.82800007,0
-0.63758671,-7.1728516,-5.8850393,-0.068557709,-0.77127433,-0.63279992,0
7.7120905,0.52582389,-5.1707997,0.82925701,0.056540202,-0.55599993,0
-0.1788597,0.4944945,-9.2851219,-0.019232225,0.053171452,-0.99840021,0
-0.74763674,-9.2208529,-0.95232028,-0.080391042,-0.99148953,-0.10240003,0
-6.8460927,2.6080356,-5.7288017,-0.736139,0.28043392,-0.61600018,0
-8.6169052,-2.3770773,2.5667989,-0.92654896,-0.25559971,0.27599987,0
-6.9728084,-5.6232324,-2.4998403,-0.74976432,-0.60464865,-0.26880002,0
-6.8003144,6.2965879,-0.77375925,-0.73121661,0.67705244,-0.083199918,0
-6.9452472,5.4259744,-2.9685597,-0.74680078,0.5834381,-0.31919998,0
-1.4530681,3.6326718,8.4369602,-0.15624388,0.39060986,0.90719998,0
-3.176193,4.5878344,-7.4399986,-0.34152612,0.49331552,-0.79999983,0
-6.4432287,-4.8324223,4.6500001,-0.69282025,-0.51961529,0.5,0
-3.3153944,-8.671032,-0.55800009,-0.35649401,-0.93236899,-0.06000001,0
-3.2140796,-5.3567996,-6.889441,-0.34559995,-0.57599998,-0.74080008,0
7.491363,5.316452,-1.4508011,0.80552292,0.57166147,-0.15600012,0
-6.6389236,4.7420883,-4.4639997,-0.71386272,0.50990194,-0.47999996,0
6.1579432,6.9611526,0.33479974,0.66214442,0.74851102,0.035999972,0
-0.66744757,7.3419199,5.6692791,-0.071768552,0.78945374,0.60959989,0
-2.5798678,-8.3845701,-3.0875993,-0.27740514,-0.90156668,-0.33199993,0
0,-8.7296886,-3.2066398,0,-0.93867618,-0.34479997,0
6.4902558,3.9283133,-5.3791203,0.69787693,0.42239925,-0.57840002,0
-1.9981352,-6.2798543,-6.5620799,-0.21485324,-0.67525315,-0.70559996,0
-0.28573835,9.1436357,1.6740004,-0.030724553,0.9831866,0.18000004,0
-6.7339196,-5.4713097,-3.3479993,-0.72407734,-0.58831286,-0.35999992,0
7.0826883,-0.67454213,5.9892006,0.76157939,-0.07253141,0.64400005,0
-8.4992619,2.397228,-2.9164793,-0.91389912,0.25776646,-0.31359991,0
4.840919,-4.1493597,6.7704005,0.52052891,-0.44616771,0.72800004,0
7.0464063,-1.6777164,5.8329606,0.75767809,-0.18039961,0.62720007,0
4.2207823,-3.869051,7.3283997,0.45384756,-0.41602698,0.78799993,0
3.9283133,6.4902558,-5.3791203,0.42239925,0.69787693,-0.57840002,0
4.8666244,-3.823777,6.9415202,0.52329296,-0.4111588,0.7464,0
6.7928462,1.35857,6.2049603,0.73041356,0.14608279,0.66720003,0
-1.0914001,3.6380012,8.4890394,-0.11735485,0.39118293,0.91279989,0
6.4624872,2.3809161,6.2496004,0.6948911,0.25601247,0.67200005,0
7.0047112,2.3349037,5.6544008,0.75319475,0.2510649,0.6080001,0
4.1567097,7.0344334,4.4416795,0.44695801,0.75639069,0.47759995,0
-3.0817955,8.6850586,1.2499197,-0.33137584,0.93387723,0.13439997,0
-0.72164208,4.3298502,8.1988802,-0.077595919,0.46557528,0.88160002,0
8.7491331,2.8223016,1.4061595,0.94076699,0.30347329,0.15119995,0
0,-1.1139895,9.2330399,0,-0.11978381,0.99279994,0
-4.024538,6.0368075,5.8180799,-0.43274602,0.64911908,0.62559998,0
0.67454112,-7.0826888,5.9892001,0.072531298,-0.76157945,0.64399999,0
5.1655688,6.1341119,4.7095194,0.55543751,0.6595819,0.50639993,0
-8.2526445,-3.9840345,1.5847194,-0.88738114,-0.4283908,0.17039993,0
7.3251891,5.2741365,2.23944,0.7876547,0.56711143,0.24079999,0
-0.37849078,8.1375475,-4.4863205,-0.040697932,0.87500507,-0.48240003,0
-7.9498758,4.7202392,-1.0043997,-0.85482532,0.50755256,-0.10799996,0
0,-2.9376607,8.8238401,0,-0.3158775,0.94879997,0
-7.2925968,4.861732,3.1099191,-0.78415018,0.52276689,0.33439988,0
-2.8722644,-2.6329086,-8.4443998,-0.30884564,-0.28310844,-0.90799999,0
-0.79416561,-9.2652645,0.11904031,-0.085394152,-0.99626499,0.012800033,0
5.6421499,5.8302212,-4.5458407,0.60668278,0.6269055,-0.48880008,0
8.0001631,1.6000329,4.4640002,0.86023247,0.17204653,0.47999996,0
6.5797963,6.1260161,-2.3808002,0.70750499,0.65871137,-0.25600001,0
1.2999371,7.7996187,4.8955197,0.13977818,0.83866864,0.52639997,0
8.9103222,-1.3708189,-2.2840793,0.95809913,-0.14739987,-0.24559993,0
-2.5444689,-2.9079652,8.45928,-0.27359879,-0.31268442,0.90959996,0
7.5819697,3.4750698,4.1143193,0.81526554,0.3736634,0.44239992,0
0,9.2937012,-0.34224078,0,0.99932271,-0.036800083,0
-6.1341119,-5.1655679,4.7095203,-0.6595819,-0.55543739,0.50640005,0
-8.1826477,-4.3640785,0.6993596,-0.87985456,-0.46925575,0.075199954,0
2.5762496,-0.73607177,8.9056807,0.27701607,-0.079147503,0.95760006,0
-4.2770624,8.0788946,-1.7111989,-0.45989919,0.8686983,-0.18399988,0
1.1489927,-8.9621401,-2.2022393,0.1235476,-0.96367097,-0.23679991,0
2.2842014,-8.3061857,-3.5042408,0.24561305,-0.89313823,-0.37680006,0
-1.0824625,-4.2396445,-8.2063198,-0.11639382,-0.45587575,-0.88239998,0
1.1614034,9.0008717,2.0311198,0.12488209,0.96783566,0.21839997,0
-1.4763296,8.857976,2.4179995,-0.15874511,0.95247054,0.25999993,0
-7.5273352,-1.9636528,5.0964003,-0.80939084,-0.21114546,0.54800004,0
-1.4685284,-2.5699248,8.8164005,-0.15790628,-0.27633598,0.94800001,0
2.899456,-1.2886471,-8.7419987,0.31176946,-0.1385642,-0.93999982,0
-4.5120645,-7.5201068,-3.0950401,-0.48516822,-0.8086136,-0.3328,0
-1.010581,-7.0740671,5.9519997,-0.10866462,-0.76065236,0.63999993,0
5.8809805,2.4215798,6.7852798,0.6323635,0.26038492,0.72959995,0
4.6445746,1.7863753,7.8566403,0.49941662,0.19208336,0.8448,0
-0.21174601,-3.4585183,-8.6304007,-0.022768388,-0.37188369,-0.92800003,0
2.9322281,1.0995847,8.7568808,0.31529334,0.11823491,0.94160008,0
-5.6075296,1.7523534,7.2093601,-0.60296017,0.18842509,0.77520001,0
-5.0546465,-6.6342239,4.1143198,-0.54351038,-0.71335739,0.44239998,0
4.1985469,-6.7541838,-4.8211212,0.45145664,-0.72625631,-0.51840013,0
2.0650525,6.1951575,6.6216002,0.22204866,0.66614598,0.71200001,0
-2.4878762,-4.6203418,7.6780806,-0.26751357,-0.49681094,0.82560003,0
8.9539099,2.4419749,0.59520119,0.96278596,0.26257795,0.06400013,0
-2.9370577,-0.3671318,8.8163996,-0.31581265,-0.039476536,0.94799995,0
-7.4726753,-2.5991919,4.8880801,-0.80351347,-0.27948299,0.52560002,0
8.6069193,-0.92217004,3.4000812,0.92547518,-0.099158064,0.36560011,0
-1.7960324,4.3104773,8.0426397,-0.19312176,0.46349216,0.86479998,0
2.5998302,-7.6137891,-4.6648798,0.27955163,-0.81868696,-0.50159997,0
-0.48645297,4.6699476,-8.0277615,-0.052306771,0.50214487,-0.86320013,0
-5.6733007,4.8389921,-5.5576811,-0.61003232,0.52032173,-0.5976001,0
7.7733512,-5.092885,0.35711914,0.83584422,-0.54762203,0.038399909,0
-1.8473092,1.1083841,9.04704,-0.1986354,0.11918109,0.97279996,0
5.8721237,0.37481603,-7.2019219,0.63141114,0.040302798,-0.77440017,0
2.461987,4.4958019,-7.759922,0.26472977,0.48341954,-0.83440018,0
0.69904268,-5.9418678,7.1200805,0.075165875,-0.63891053,0.76560003,0
2.7112646,-6.4392548,6.1380005,0.29153383,-0.69239295,0.66000003,0
7.6214623,-4.2680182,3.1917603,0.81951207,-0.45892668,0.34320003,0
-5.8089199,-6.9707046,2.0385602,-0.62461501,-0.74953812,0.21920002,0
6.9487286,-2.9780269,5.4163208,0.7471751,-0.32021794,0.58240008,0
-5.7053695,-6.0223341,4.2035999,-0.61348057,-0.6475628,0.45199999,0
4.1990085,-4.1990085,7.15728,0.45150629,-0.45150629,0.76959997,0
-2.421694,-5.7851582,-6.8671207,-0.2603972,-0.62206,-0.73840004,0
-2.0103147,8.9028234,1.7855999,-0.21616286,0.9572928,0.19199999,0
2.862061,-8.8463697,-0.20088042,0.3077485,-0.95122254,-0.021600045,0
7.5893221,0.65994036,5.3344793,0.81605613,0.070961326,0.57359993,0
-6.5760932,-6.5760932,0,-0.70710677,-0.70710677,0,0
-3.4086084,8.6526213,-0.05951909,-0.36651704,0.93038934,-0.006399902,0
-7.4344707,2.719928,-4.8806396,-0.79940546,0.29246536,-0.52479994,0
7.1252527,-3.5626264,4.798799,0.7661562,-0.3830781,0.51599991,0
-2.0510528,-8.7902269,2.2394395,-0.22054331,-0.94518566,0.24079993,0
-4.1107793,-5.1030359,-6.5992818,-0.44201928,-0.54871351,-0.70960015,0
5.7522798,-7.2528744,-0.89280158,0.61852467,-0.77987897,-0.096000165,0
-6.2051563,-5.8948984,3.6381605,-0.66722107,-0.63386005,0.39120004,0
7.5487008,-1.6410222,5.1782393,0.81168824,-0.17645399,0.55679989,0
0.71361905,4.995338,7.8120008,0.076733232,0.5371331,0.84000009,0
-4.1214113,5.151763,6.5546408,-0.4431625,0.55395299,0.70480007,0
-3.5028338,-7.8298645,-3.5935194,-0.37664878,-0.84192091,-0.38639992,0
-9.010952,2.1844728,0.72168106,-0.96891958,0.23488954,0.077600114,0
5.1552711,-7.4985747,-1.9195206,0.55433023,-0.80629832,-0.20640007,0
-2.5798678,-8.3845701,-3.0875993,-0.27740514,-0.90156668,-0.33199993,0
7.1937838,5.8103638,0.98952109,0.77352512,0.62477028,0.10640012,0
-6.6977682,-0.14560352,-6.4504805,-0.72019011,-0.015656292,-0.69360006,0
-1.5256174,9.1537037,-0.61008078,-0.16404487,0.9842692,-0.065600082,0
-4.4153004,-8.094717,-1.2127194,-0.47476348,-0.87039965,-0.13039994,0
-6.5133066,1.3712232,6.49512,-0.70035553,0.14744335,0.69840002,0
4.9874372,6.7829142,-3.9506388,0.53628355,0.72934562,-0.42479986,0
4.0231071,-7.442749,-3.8613601,0.43259215,-0.80029559,-0.4152,0
-5.6232324,-6.9728084,-2.4998403,-0.60464865,-0.74976432,-0.26880002,0
5.3229799,0,7.6260009,0.57236344,0,0.82000005,0
8.5664873,1.5297303,3.2810411,0.92112768,0.16448712,0.3528001,0
-3.9206405,-4.0394483,-7.4027996,-0.42157423,-0.43434927,-0.79599994,0
-6.5446973,6.3109579,-1.9567193,-0.70373088,0.67859763,-0.21039991,0
4.1567101,-7.0344324,4.4416804,0.44695807,-0.75639057,0.47760004,0
9.1480789,-0.72221678,-1.5103197,0.98366439,-0.077657714,-0.16239996,0
-5.4225302,4.4058056,6.1380005,-0.58306777,0.47374251,0.66000003,0
-4.8000402,7.4182439,-2.9015987,-0.51613337,0.79766059,-0.31199986,0
1.6026254,-7.0515499,-5.8478403,0.1723253,-0.75823116,-0.62880003,0
1.621084,7.7812018,4.8285599,0.1743101,0.83668834,0.51919997,0
7.0180073,-5.187222,3.2140799,0.75462443,-0.55776578,0.34559998,0
-5.4550982,-4.0913239,6.3240004,-0.58656967,-0.43992728,0.68000001,0
-1.480541,1.110405,9.1140003,-0.15919796,0.11939838,0.98000002,0
8.3633013,3.9028735,1.1457598,0.89927971,0.41966382,0.12319998,0
0.74206239,1.1130936,9.2032804,0.07979165,0.11968748,0.9896,0
-6.1552243,-3.6300039,-5.9519987,-0.66185206,-0.39032298,-0.63999987,0
-1.9055701,-4.1922545,-8.0798397,-0.20490001,-0.45078006,-0.86879992,0
-1.8446854,-1.4757477,8.9949598,-0.19835328,-0.15868254,0.96719998,0
-1.4763296,-8.857976,2.4179995,-0.15874511,-0.95247054,0.25999993,0
-0.66744757,-7.3419194,5.6692801,-0.071768552,-0.78945369,0.60960001,0
7.3259258,-5.6979427,0.59520054,0.78773397,-0.61268198,0.064000055,0
-4.9293861,5.9152637,5.2154398,-0.53004152,0.63604987,0.56079996,0
1.8556442,-0.50257027,-9.0991211,0.19953163,-0.054039814,-0.97840011,0
8.8031273,-1.1003913,-2.7899988,0.94657278,-0.11832164,-0.29999986,0
1.722533,6.890131,-6.0040803,0.1852186,0.74087429,-0.64560002,0
5.4382792,7.3298535,-1.7856008,0.5847612,0.78815627,-0.19200008,0
7.6593714,5.0264621,-1.599599,0.82358831,0.54047978,-0.17199989,0
7.7733512,5.092885,0.35711914,0.83584422,0.54762203,0.038399909,0
1.8875914,-8.1795616,4.0027204,0.20296681,-0.87952274,0.43040004,0
-3.2597902,2.535392,8.3327999,-0.35051507,0.27262279,0.89599997,0
2.8722644,-2.6329086,-8.4443998,0.30884564,-0.28310844,-0.90799999,0
2.911027,7.4392939,4.7616,0.31301364,0.79992408,0.51199996,0
-4.0518637,7.4803643,3.7571998,-0.43568426,0.80434024,0.40399995,0
-3.1263855,7.3562012,-4.7541585,-0.33617046,0.79098934,-0.51119983,0
7.2372885,-5.5003395,1.9641601,0.77820307,-0.59143436,0.2112,0
-7.4018054,-3.2181761,4.6202407,-0.79589301,-0.34604043,0.49680007,0
-6.6587791,5.7507639,3.0132003,-0.71599776,0.61836171,0.32400003,0
-4.2583847,-3.1937885,7.6259999,-0.45789081,-0.34341812,0.81999999,0
-8.671032,-3.3153944,-0.55800009,-0.93236899,-0.35649401,-0.06000001,0
0.72896856,-3.499048,-8.5857601,0.078383714,-0.37624171,-0.92320001,0
-5.0455055,-5.5500555,-5.4981599,-0.54252744,-0.59678012,-0.59119999,0
8.2595663,3.5398145,2.3956811,0.88812542,0.38062522,0.25760013,0
5.1597357,7.094636,-3.0875995,0.55481029,0.76286405,-0.33199993,0
-3.6232727,-7.6491308,-3.85392,-0.3895992,-0.82248718,-0.41439998,0
0.73802334,-2.2140722,9.0024004,0.079357348,-0.23807228,0.96799999,0
4.8810029,-7.8096051,-1.2945594,0.52483898,-0.83974248,-0.13919993,0
8.7456026,-1.2062896,2.9239192,0.94038737,-0.12970856,0.3143999,0
-1.5466951,0.28408676,-9.1660805,-0.16631129,0.030546963,-0.98560005,0
-3.3345814,8.6143351,1.0787998,-0.35855713,0.92627257,0.11599998,0
-5.991672,7.0810666,0.66960043,-0.64426577,0.76140499,0.072000042,0
-8.538579,-1.8296956,3.1991999,-0.91812676,-0.19674146,0.34399998,0
2.7199273,7.4344697,-4.880641,0.2924653,0.79940534,-0.52480012,0
8.6439953,-0.84331644,-3.3256817,0.92946184,-0.090679184,-0.35760018,0
-5.042624,-4.3222494,-6.5100002,-0.54221761,-0.46475798,-0.69999999,0
-7.8781486,-2.8361337,4.0473599,-0.84711272,-0.30496061,0.43519998,0
1.100391,-8.8031263,-2.7900004,0.11832161,-0.94657272,-0.30000004,0
0.56553733,-8.1060429,-4.5235205,0.060810465,-0.8716175,-0.48640004,0
0.88482898,8.8482847,-2.7230387,0.095142901,0.95142847,-0.29279986,0
3.2566478,-7.1646233,4.95504,0.35017717,-0.77038956,0.53279996,0
-8.2595663,3.5398142,2.39568,-0.88812542,0.38062519,0.25759998,0
-2.4215798,5.8809805,6.7852798,-0.26038492,0.6323635,0.72959995,0
4.9724808,1.7758865,7.6557603,0.53467536,0.19095553,0.82319999,0
7.2660093,0.32293344,-5.7957592,0.78129131,0.034724023,-0.62319988,0
-3.4684124,-3.4684124,-7.9012804,-0.37294757,-0.37294757,-0.84960002,0
2.535392,-3.2597902,8.3327999,0.27262279,-0.35051507,0.89599997,0
2.995836,-5.583148,-6.807601,0.32213289,-0.60033846,-0.73200011,0
2.3809161,6.4624872,6.2496004,0.25601247,0.6948911,0.67200005,0
3.5934503,-3.1941779,-7.9608006,0.3863925,-0.34345996,-0.85600007,0
-0.36440778,3.6440823,8.5485601,-0.039183632,0.39183679,0.9192,0
2.7877669,3.5311713,-8.1393604,0.29975986,0.37969583,-0.87520003,0
6.2780294,6.8239441,0.71423936,0.67505693,0.73375744,0.076799929,0
-7.0236831,2.1234388,-5.7139206,-0.75523472,0.22832675,-0.61440003,0
6.7781625,1.6945411,6.1380005,0.72883469,0.18220872,0.66000003,0
-5.2146392,-6.8833232,-3.4521592,-0.56071389,-0.74014229,-0.37119991,0
-2.7705865,-1.546374,-8.7420006,-0.29791251,-0.16627677,-0.94000006,0
1.2467281,-8.4154091,3.7572007,0.13405678,-0.90488267,0.40400007,0
6.5061517,1.9222721,-6.3611999,0.69958621,0.20669591,-0.68399996,0
5.8800669,-6.7846928,-2.4254403,0.63226527,-0.72953683,-0.26080003,0
6.8172488,-0.34086213,6.3165603,0.73303747,-0.036651842,0.67919999,0
-5.9816856,-6.579855,2.7230403,-0.64319199,-0.70751125,0.29280004,0
4.5718179,-7.7720909,-2.2766399,0.4915933,-0.83570868,-0.24479999,0
-1.3451387,7.0619783,5.8999209,-0.14463857,0.75935251,0.63440007,0
6.2382531,6.7181182,-1.5623984,0.67077988,0.72237831,-0.16799983,0
0.71806628,-3.8296878,-8.4443989,0.077211425,-0.41179439,-0.90799987,0
0.85488725,-9.1188059,1.6144805,0.091923356,-0.98051673,0.17360005,0
-1.9442191,8.992012,-1.3615204,-0.20905581,0.966883,-0.14640003,0
1.3942814,5.925693,7.0307994,0.14992273,0.63717127,0.75599992,0
-5.550199,1.3272216,-7.3432808,-0.59679556,0.142712,-0.78960007,0
-2.9998796,8.5381193,-2.1427202,-0.3225677,0.91807735,-0.23040003,0
7.5661368,1.3158505,5.2451992,0.81356311,0.1414893,0.56399989,0
-0.63143665,-4.3298516,-8.2063189,-0.067896411,-0.46557543,-0.88239986,0
-4.2065945,-6.4851665,-5.1708007,-0.45232198,-0.6973297,-0.55600005,0
-5.5839419,0.71284372,-7.4028001,-0.60042387,0.07664986,-0.796,0
1.6312765,-0.94841653,-9.1065607,0.17540607,-0.10198027,-0.97920007,0
-7.98277,-3.3773263,3.3703203,-0.85836232,-0.36315334,0.36240003,0
6.6274509,0.43222466,-6.5099983,0.71262914,0.046475768,-0.69999981,0
2.4072738,-5.448041,-7.1424007,0.25884664,-0.58581084,-0.76800007,0
1.5544086,-8.3938036,3.6902409,0.16714071,-0.90255952,0.39680007,0
-5.807848,-6.969418,-2.0460005,-0.6244998,-0.74939978,-0.22000004,0
-5.7240634,-6.3373561,-3.6828003,-0.61549067,-0.68143612,-0.39600003,0
2.9454782,-7.2000599,5.0964003,0.31671807,-0.77419996,0.54800004,0
-3.0648377,-6.1296754,6.2867999,-0.32955244,-0.65910488,0.676,0
6.3109584,6.5446973,-1.9567181,0.67859769,0.70373088,-0.21039979,0
7.3492146,0,5.699039,0.79023808,0,0.61279988,0
2.7594702,-2.8406312,-8.4146385,0.29671723,-0.30544421,-0.90479982,0
-7.1572762,-5.5411172,-2.1352806,-0.76959956,-0.59581906,-0.22960006,0
9.1486225,-1.6144631,0.43152133,0.98372281,-0.17359819,0.046400141,0
4.138238,8.2764778,0.93000001,0.4449718,0.88994384,0.1,0
-3.9883888,0.72516084,8.3699999,-0.428859,0.077974282,0.89999998,0
-4.9995923,6.5379281,-4.3300786,-0.53759056,0.70300299,-0.46559983,0
-4.7492843,-5.0885196,6.1677604,-0.51067573,-0.54715264,0.66320002,0
-5.8694201,3.8614607,-6.0933599,-0.63112044,0.41521081,-0.6552,0
-4.883544,0.30522123,-7.9087191,-0.52511227,0.032819487,-0.85039991,0
5.3301983,4.7031169,-5.9966393,0.57313961,0.5057115,-0.64479989,0
-6.5079169,5.5782142,3.6083996,-0.69977599,0.59980798,0.38799995,0
-0.77157503,9.2588997,-0.40920079,-0.082965054,0.99558061,-0.044000085,0
-5.092885,7.7733512,0.35711914,-0.54762203,0.83584422,0.038399909,0
8.1563911,0.18968333,-4.4640007,0.87703127,0.020396058,-0.48000008,0
-1.010581,7.0740666,5.9520006,-0.10866462,0.7606523,0.64000005,0
-8.7476177,-1.3121427,-2.8718405,-0.94060403,-0.14109062,-0.30880004,0
-0.59445584,-8.9168329,2.5742395,-0.063919984,-0.95879924,0.27679995,0
-7.491363,5.316452,-1.4508011,-0.80552292,0.57166147,-0.15600012,0
1.107036,-7.9337578,-4.7244005,0.11903612,-0.85309219,-0.50800002,0
-5.7851582,2.421694,-6.8671207,-0.62206,0.2603972,-0.73840004,0
-2.7199283,-7.4344702,-4.88064,-0.29246539,-0.7994054,-0.5248,0
7.5020075,-2.2832193,4.9996796,0.80666745,-0.24550745,0.53759992,0
-1.9949746,-8.1793966,-3.9506397,-0.21451339,-0.87950498,-0.42479995,0
5.9809918,-6.9379506,-1.607041,0.64311737,-0.7460162,-0.17280011,0
-5.397975,-7.5571656,0.49104032,-0.58042741,-0.81259847,0.052800033,0
-7.3651114,1.8840984,-5.356801,-0.79194742,0.20259123,-0.57600009,0
-3.4585185,0.21174583,-8.6304007,-0.37188369,0.022768369,-0.92800003,0
2.2218084,-6.8241267,-5.9148002,0.23890413,-0.73377705,-0.63599998,0
-2.3574352,5.0684862,-7.4325604,-0.25348765,0.54499853,-0.79920006,0
-7.5096068,-1.74642,-5.2005606,-0.80748457,-0.1877871,-0.55920005,0
-1.1083853,1.8473092,9.04704,-0.11918122,0.1986354,0.97279996,0
-1.5993079,-1.3467855,-9.0619192,-0.17196859,-0.14481565,-0.97439992,0
-6.9446054,5.4349089,2.9536803,-0.74673176,0.58439881,0.31760001,0
-4.4747005,6.7120509,-4.6276813,-0.48115057,0.72172588,-0.49760014,0
-0.74763674,-9.2208529,-0.95232028,-0.080391042,-0.99148953,-0.10240003,0
1.4771726,9.109231,-1.1532003,0.15883577,0.97948718,-0.12400003,0
-5.2460079,6.4117875,-4.2259183,-0.56408685,0.68943948,-0.45439979,0
2.4018986,6.176312,6.5248799,0.25826865,0.66411954,0.70159996,0
5.5580344,2.7790163,6.9191999,0.59763807,0.29881895,0.74399996,0
-5.1511998,5.8617096,-5.0592003,-0.55389243,0.63029134,-0.54400003,0
0,1.4832315,9.1809597,0,0.15948726,0.98719996,0
7.6824985,3.994899,3.3926401,0.82607508,0.42955902,0.36480001,0
-1.6312765,0.94841653,-9.1065607,-0.17540607,0.10198027,-0.97920007,0
4.6938915,-6.0846748,-5.2377591,0.5047195,-0.65426612,-0.56319988,0
-9.2782497,0.51545781,-0.37200072,-0.99766123,0.055425569,-0.040000077,0
2.565171,1.8322657,8.7494402,0.27582484,0.19701782,0.94080001,0
-1.9143224,7.9763432,4.3821602,-0.20584111,0.85767126,0.47120002,0
5.0529046,5.0529046,5.9520011,0.54332304,0.54332304,0.6400001,0
-7.7318745,-2.8994532,-4.2780004,-0.83138436,-0.31176916,-0.46000004,0
1.2886471,-2.899456,-8.7419987,0.1385642,-0.31176946,-0.93999982,0
-4.9940081,6.8667622,3.7943993,-0.53699011,0.73836148,0.4079999,0
-5.8249216,-3.5845675,-6.3016796,-0.62633562,-0.38543737,-0.67759997,0
4.9757915,-7.8565135,-0.081840463,0.53503132,-0.84478641,-0.0088000493,0
4.0869503,4.6142988,-6.9638414,0.439457,0.49616116,-0.74880016,0
-8.4645166,1.4451612,-3.5711999,-0.91016304,0.15539367,-0.38399997,0
-6.2742186,-4.2928863,5.3568001,-0.67464715,-0.46160066,0.57599998,0
-8.5167694,-3.4067078,1.5326394,-0.91578162,-0.36631265,0.16479993,0
-9.1829615,-0.24165666,-1.4507997,-0.98741519,-0.025984587,-0.15599996,0
0.37481621,-5.8721261,-7.20192,0.040302817,-0.63141137,-0.7744,0
-8.8482838,-0.88482821,-2.7230403,-0.95142835,-0.095142819,-0.29280004,0
-3.8628438,-7.0818796,4.6276798,-0.41535953,-0.76149243,0.49759996,0
4.6656747,-0.71779656,8.0128803,0.50168544,-0.077182427,0.86160004,0
3.2165759,8.6600132,-1.0713612,0.34586838,0.93118417,-0.11520012,0
1.8741564,-9.1030464,0.33479989,0.20152219,-0.97882217,0.035999987,0
6.8239446,-6.2780285,0.71424037,0.73375744,-0.67505682,0.076800041,0
5.6340022,-0.70425051,7.3655996,0.60580665,-0.075725861,0.79199994,0
-5.1517639,-4.1214108,6.5546398,-0.55395311,-0.44316244,0.70479995,0
-3.6174011,-2.1704409,8.2881603,-0.38896784,-0.23338073,0.89120001,0
1.3121427,-8.7476177,-2.8718405,0.14109062,-0.94060403,-0.30880004,0
8.5892534,-1.2270361,3.3480012,0.92357564,-0.13193937,0.36000013,0
7.7120905,0.52582389,-5.1707997,0.82925701,0.056540202,-0.55599993,0
8.777482,0.60534298,3.0131991,0.94381523,0.065090641,0.32399988,0
-0.0042712977,-0.0012457951,-9.2999992,-0.00045927931,-0.00013395645,-0.99999988,0
-7.7318754,-5.154583,-0.37200019,-0.83138442,-0.5542562,-0.040000018,0
-3.1473842,8.5837746,1.7037593,-0.33842841,0.92298651,0.18319993,0
3.6074419,2.5252085,8.1914396,0.38789698,0.2715278,0.88079995,0
-7.3327909,-0.99992609,5.6320801,-0.78847212,-0.10751893,0.6056,0
-1.0551956,5.6277103,7.3283997,-0.11346189,0.60513014,0.78799993,0
-0.74763674,9.2208529,-0.95232028,-0.080391042,0.99148953,-0.10240003,0
-4.9351373,-3.0844607,-7.2540007,-0.53065991,-0.33166245,-0.78000003,0
-5.7503209,4.0590506,6.0784802,-0.61831409,0.43645704,0.65360004,0
2.535392,-3.2597902,8.3327999,0.27262279,-0.35051507,0.89599997,0
-4.1262164,5.8719234,-5.9148002,-0.44367918,0.63138962,-0.63599998,0
8.0815668,-4.5795541,0.45383981,0.86898565,-0.49242517,0.048799977,0
5.837296,3.090332,6.5472002,0.62766623,0.33229375,0.704,0
7.8725257,4.2736564,-2.4998412,0.84650815,0.45953295,-0.26880014,0
-0.73381227,2.9352469,8.7940807,-0.078904547,0.31561795,0.94560003,0
3.1263857,7.3562007,-4.754159,0.33617049,0.79098928,-0.51119989,0
-0.96416205,8.0346832,4.5830402,-0.10367334,0.86394441,0.49280003,0
8.0346832,-0.96416205,4.5830402,0.86394441,-0.10367334,0.49280003,0
-2.5669622,7.7008853,4.5383997,-0.27601743,0.82805216,0.48799995,0
-1.3467835,-3.8720028,-8.347681,-0.14481543,-0.41634437,-0.89760011,0
0.29177675,-9.0450878,2.14272,0.031373844,-0.97259009,0.2304,0
5.5119514,3.4449699,6.6513591,0.59268296,0.37042686,0.71519989,0
3.5959153,-2.8767321,8.0798397,0.38665757,-0.30932602,0.86879992,0
3.4585183,-0.21174601,-8.6304007,0.37188369,-0.022768388,-0.92800003,0
1.7983882,8.6922102,2.7751191,0.19337508,0.93464625,0.2983999,0
-4.8690691,-7.7332277,1.7260811,-0.52355582,-0.83152986,0.18560012,0
-1.0482219,8.595418,-3.3926418,-0.11271203,0.92423844,-0.36480018,0
-7.2833004,-1.9863547,5.4312,-0.78315055,-0.21358652,0.58399999,0
0.57089627,6.5653028,-6.562079,0.061386693,0.70594651,-0.70559984,0
4.4756098,6.4448781,-4.9922409,0.48124835,0.69299763,-0.53680009,0
-5.3211865,6.5732303,3.8688011,-0.57217056,0.70679891,0.4160001,0
-5.4679899,-7.4563503,-0.99696052,-0.58795589,-0.80175811,-0.10720006,0
6.0648913,6.7646871,-1.9864806,0.65213883,0.7273857,-0.21360005,0
-1.722533,6.890131,-6.0040803,-0.1852186,0.74087429,-0.64560002,0
-2.61502,8.0462151,-3.8613586,-0.28118494,0.86518443,-0.41519985,0
-7.7723184,-4.9964905,1.0564798,-0.83573312,-0.53725702,0.11359998,0
3.9225807,-7.63871,-3.5712004,0.42178285,-0.82136667,-0.38400003,0
2.0471225,-6.4825544,6.3463202,0.2201207,-0.69704884,0.68239999,0
-8.1826468,2.4547942,-3.6753604,-0.8798545,0.26395637,-0.39520004,0
8.7854338,-0.3029457,3.0355191,0.94467026,-0.032574806,0.32639989,0
2.2218084,-6.8241267,-5.9148002,0.23890413,-0.73377705,-0.63599998,0
-4.9297504,-2.8170011,7.3656001,-0.53008068,-0.30290332,0.792,0
-6.5281415,3.0252364,-5.8924799,-0.70195067,0.32529423,-0.6336,0
-8.6483498,-2.8048701,-1.9567204,-0.92993009,-0.30159894,-0.21040003,0
8.6951227,-2.006567,-2.6188793,0.93495941,-0.21575989,-0.28159991,0
5.8249927,-6.4381499,3.3331199,0.62634331,-0.69227415,0.35839999,0
8.6449471,2.502485,-2.3436,0.92956418,0.26908439,-0.252,0
6.9728084,-5.6232324,-2.4998403,0.74976432,-0.60464865,-0.26880002,0
0.29750669,8.92521,2.5965595,0.031989966,0.95969999,0.27919996,0
5.8978128,6.782486,2.3882399,0.63417339,0.72929955,0.25679997,0
2.7199273,7.4344697,-4.880641,0.2924653,0.79940534,-0.52480012,0
-4.024538,6.0368075,5.8180799,-0.43274602,0.64911908,0.62559998,0
1.1818832,7.4289808,-5.4684,0.12708421,0.79881513,-0.588,0
0.29750669,-8.92521,2.5965595,0.031989966,-0.95969999,0.27919996,0
2.3809161,-6.4624872,6.2496004,0.25601247,-0.6948911,0.67200005,0
5.092885,-7.7733512,0.35711914,0.54762203,-0.83584422,0.038399909,0
-1.6243075,-6.0911531,-6.8373594,-0.17465672,-0.65496272,-0.73519993,0
7.0434837,-5.9165268,1.3689598,0.75736386,-0.63618565,0.14719997,0
8.119298,2.9146194,-3.474479,0.87304276,0.31339994,-0.37359989,0
-2.9090314,-4.0518651,-7.8491993,-0.31279907,-0.43568441,-0.84399992,0
-1.100391,-8.8031263,-2.7900004,-0.11832161,-0.94657272,-0.30000004,0
5.7451458,7.3120017,-0.13391975,0.61775762,0.7862367,-0.014399973,0
5.5193477,-4.0276318,-6.3091197,0.5934782,-0.43307868,-0.67839998,0
-0.31766245,8.2592306,4.2631207,-0.03415725,0.8880893,0.45840007,0
5.9573379,1.1655658,-7.0456781,0.64057398,0.12532966,-0.75759977,0
-5.6277099,-1.0551956,7.3284001,-0.60513008,-0.11346189,0.78799999,0
8.6573286,-2.0896995,2.6783991,0.93089551,-0.22469887,0.2879999,0
-5.3301973,-4.7031155,-5.9966407,-0.57313949,-0.50571132,-0.64480007,0
-5.0714393,-2.0746799,-7.5144,-0.54531604,-0.22308385,-0.80799997,0
5.316452,7.491363,-1.4508011,0.57166147,0.80552292,-0.15600012,0
-8.7485352,2.6009161,-1.7856005,-0.94070268,0.27966839,-0.19200006,0
2.8408079,-0.90664077,-8.8089619,0.30546322,-0.097488254,-0.94720018,0
7.2593517,-2.3097932,5.3344793,0.78057545,-0.24836487,0.57359993,0
-0.57089585,6.5653033,-6.5620785,-0.061386649,0.70594656,-0.70559984,0
4.6738005,7.1123047,-3.7497621,0.50255919,0.76476395,-0.40320021,0
4.8000407,7.4182434,-2.9015996,0.51613343,0.79766059,-0.31199995,0
1.0282279,4.8326702,-7.8789625,0.11056214,0.51964194,-0.84720027,0
3.6174021,2.1704409,8.2881594,0.38896796,0.23338073,0.89119989,0
2.160779,-3.9614286,8.1319199,0.23234183,-0.42596006,0.87439996,0
-3.1116192,8.6167917,-1.5996007,-0.33458272,0.92653674,-0.17200007,0
-1.722533,-6.890131,-6.0040803,-0.1852186,-0.74087429,-0.64560002,0
3.2762527,-1.8201414,8.5113602,0.35228524,-0.19571413,0.9152,0
-3.9877291,-6.3139043,5.5427999,-0.42878807,-0.67891443,0.59599996,0
8.6270638,0.30810916,3.4596012,0.92764127,0.033130016,0.37200013,0
-1.8875914,8.1795616,4.0027204,-0.20296681,0.87952274,0.43040004,0
-3.9877291,6.3139043,5.5427999,-0.42878807,0.67891443,0.59599996,0
6.7437062,-4.4958043,4.5607209,0.72512966,-0.48341981,0.49040008,0
1.4072235,4.315486,-8.1170378,0.15131435,0.46403074,-0.87279975,0
-8.1936264,-3.8041832,2.2096801,-0.88103509,-0.40905195,0.2376,0
4.8926139,-5.2082663,-5.9519992,0.52608752,-0.56002861,-0.63999993,0
-8.5167694,-1.9162731,-3.2066405,-0.91578162,-0.20605087,-0.34480006,0
5.0546474,6.634223,4.1143203,0.5435105,0.71335727,0.44240001,0
0,-7.8322535,5.0145597,0,-0.84217775,0.53919995,0
-1.2491227,-8.5356712,-3.4744799,-0.13431427,-0.91781408,-0.37359998,0
-7.7674742,0.17653334,-5.11128,-0.83521223,0.018982079,-0.54960001,0
1.3712232,-6.5133066,6.49512,0.14744335,-0.70035553,0.69840002,0
-9.109231,-1.4771726,-1.1532003,-0.97948718,-0.15883577,-0.12400003,0
4.8926139,-5.2082663,-5.9519992,0.52608752,-0.56002861,-0.63999993,0
-6.2110591,1.7252946,6.7034397,-0.6678558,0.18551554,0.72079998,0
1.2371449,-9.154871,-1.0713603,0.13302633,-0.98439473,-0.11520004,0
-7.7351818,4.4626045,2.596561,-0.83173996,0.47984993,0.27920011,0
-7.8494573,-1.2778184,-4.8211203,-0.84402764,-0.13739982,-0.51840001,0
8.9716282,1.6526682,-1.8079197,0.96469116,0.17770626,-0.19439997,0
2.01407,-4.6641626,-7.78968,0.21656667,-0.50152284,-0.83759999,0
-8.8459377,-2.7801523,-0.71423995,-0.95117611,-0.29894111,-0.076799996,0
-8.9200916,2.1697514,-1.4879999,-0.9591496,0.2333066,-0.15999998,0
-0.65200931,-7.8241076,4.9847999,-0.070108525,-0.84130186,0.53599995,0
-9.2396145,1.0559565,0.066960186,-0.99350691,0.1135437,0.0072000199,0
-3.7982936,-5.1794906,6.72576,-0.40841866,-0.55693448,0.72319996,0
8.2526445,-3.9840345,1.5847194,0.88738114,-0.4283908,0.17039993,0
1.2831365,-8.019599,4.5309601,0.13797167,-0.86232245,0.48719999,0
5.7822256,3.7414403,6.2495995,0.62174469,0.40230539,0.67199993,0
7.9878645,3.6701002,-3.0355208,0.85891014,0.39463443,-0.32640007,0
0.79854494,-8.3847179,-3.9432013,0.085865043,-0.90158254,-0.42400014,0
5.7522798,-7.2528744,-0.89280158,0.61852467,-0.77987897,-0.096000165,0
-1.0813113,-4.3252454,8.1616802,-0.11627004,-0.46508014,0.87760001,0
-9.2598562,-0.54469776,0.66959977,-0.99568343,-0.058569651,0.071999975,0
0,-1.8506771,9.1140003,0,-0.19899754,0.98000002,0
-0.365848,-3.2926352,8.6899204,-0.039338496,-0.35404679,0.93440002,0
3.8916242,4.6699491,-7.0382414,0.4184542,0.50214505,-0.75680012,0
-0.92351937,-9.0043154,-2.1352792,-0.099303156,-0.96820593,-0.22959991,0
-2.2436769,3.2052524,-8.4369593,-0.24125558,0.34465078,-0.90719992,0
-7.0810666,-5.991672,0.66960043,-0.76140499,-0.64426577,0.072000042,0
-1.4715976,-7.1944766,-5.70648,-0.15823629,-0.77359962,-0.61360002,0
-4.1382389,-8.2764778,0.92999935,-0.44497192,-0.88994384,0.099999927,0
1.5297302,-8.5664873,3.28104,0.16448711,-0.92112768,0.35279998,0
-3.869051,4.2207823,7.3283997,-0.41602698,0.45384756,0.78799993,0
-6.2310743,4.5913177,5.1559205,-0.670008,0.49369007,0.55440003,0
7.8066096,-4.7312784,-1.7781589,0.83942038,-0.50873959,-0.19119988,0
-5.3568006,-7.1423998,-2.6040001,-0.57600003,-0.76799995,-0.28,0
4.4436173,-6.9828277,4.2408004,0.4778083,-0.75084168,0.45600003,0
-8.3124313,3.7999692,-1.7186403,-0.8938098,0.40859884,-0.18480003,0
6.5240359,-1.030111,6.5472002,0.70150924,-0.11076462,0.704,0
0.69904268,5.9418688,7.12008,0.075165875,0.63891059,0.76559997,0
2.5669613,-7.7008858,4.5384002,0.27601734,-0.82805222,0.48800001,0
2.2365582,8.9462347,1.2052805,0.24049012,0.96196067,0.12960006,0
-1.6312765,-0.94841653,-9.1065607,-0.17540607,-0.10198027,-0.97920007,0
-7.8241076,-0.65200931,4.9847999,-0.84130186,-0.070108525,0.53599995,0
8.8182364,2.9394126,0.2976006,0.94819742,0.31606588,0.032000065,0
-8.5837746,-3.1473842,1.7037593,-0.92298651,-0.33842841,0.18319993,0
-4.9110084,3.1570761,7.239121,-0.52806538,0.33947054,0.77840006,0
-7.972178,-4.1337218,2.4180012,-0.85722345,-0.4444862,0.26000011,0
-0.32207522,-8.0518885,4.64256,-0.034631744,-0.86579442,0.49919999,0
0.98865163,-7.5796695,5.2972808,0.10630663,-0.81501818,0.56960005,0
1.7960324,4.3104773,8.0426397,0.19312176,0.46349216,0.86479998,0
-4.5332136,-7.555356,2.9759998,-0.48744231,-0.81240386,0.31999996,0
-1.7653978,-8.8269892,2.3361595,-0.18982771,-0.94913858,0.25119993,0
-5.4679899,7.4563503,-0.99696052,-0.58795589,0.80175811,-0.10720006,0
3.6300039,-6.1552234,-5.9520001,0.39032298,-0.66185194,-0.63999999,0
1.1083841,1.8473092,9.04704,0.11918109,0.1986354,0.97279996,0
0.49351379,5.7987843,-7.2540021,0.053065997,0.6235252,-0.78000021,0
3.799969,8.3124313,-1.7186419,0.40859881,0.8938098,-0.18480019,0
3.7667274,-7.5334549,3.9431996,0.40502444,-0.81004888,0.42399997,0
-1.5986481,-7.6379852,-5.0592008,-0.17189763,-0.8212887,-0.54400009,0
3.8296833,0.71806538,-8.4444008,0.41179389,0.077211328,-0.90800005,0
-5.8605433,2.7579021,6.6736808,-0.63016593,0.2965486,0.71760005,0
0.98865163,-7.5796695,5.2972808,0.10630663,-0.81501818,0.56960005,0
-8.4645166,1.4451612,-3.5711999,-0.91016304,0.15539367,-0.38399997,0
2.6150196,-8.0462151,-3.8613603,0.28118488,-0.86518443,-0.41520002,0
2.2218084,6.8241267,-5.9148002,0.23890413,0.73377705,-0.63599998,0
1.0257492,7.5221605,-5.3716798,0.11029561,0.80883443,-0.57759994,0
-0.92216998,-8.6069193,3.40008,-0.099158064,-0.92547518,0.36559999,0
-5.9995565,4.3330126,5.6320801,-0.64511359,0.46591532,0.6056,0
-3.0087328,6.6860723,5.7213602,-0.32351965,0.71893251,0.61519998,0
1.0865957,-3.9841883,8.3327999,0.11683824,-0.42840734,0.89599997,0
-4.5120645,-7.5201068,-3.0950401,-0.48516822,-0.8086136,-0.3328,0
1.9143224,-7.9763432,4.3821602,0.20584111,-0.85767126,0.47120002,0
-2.3132067,-3.6477489,-8.2360792,-0.2487319,-0.39223105,-0.88559991,0
0.66744661,-7.3419194,5.6692801,0.071768455,-0.78945369,0.60960001,0
6.3501959,3.6764297,5.7139201,0.68281674,0.39531502,0.61440003,0
-3.3153949,8.671032,-0.5579986,-0.35649407,0.93236899,-0.05999985,0
-6.6472769,-6.4010816,-1.1531988,-0.71476096,-0.68828833,-0.12399987,0
8.0590611,-2.1621873,-4.1068821,0.8665657,-0.23249325,-0.4416002,0
-3.9265158,-8.3438463,-1.2052801,-0.42220598,-0.89718777,-0.1296,0
5.2659388,-7.3265228,-2.2543204,0.56622994,-0.78779817,-0.24240004,0
8.7880831,0,3.0429592,0.94495517,0,0.32719991,0
3.9840345,-8.2526445,1.5847194,0.4283908,-0.88738114,0.17039993,0
-5.3568001,-5.7139196,-5.0145602,-0.57599998,-0.61439997,-0.53920001,0
-1.2327743,-3.3357425,-8.5932007,-0.13255636,-0.35868198,-0.92400002,0
3.3223584,7.6218801,-4.1663995,0.35724282,0.81955695,-0.44799992,0
-3.037652,5.930654,-6.4876819,-0.32662925,0.63770473,-0.69760019,0
0.3497588,-5.9459052,7.1424003,0.037608474,-0.63934463,0.76800001,0
5.3190479,-7.5986414,-0.67703986,0.5719406,-0.81705821,-0.072799981,0
-1.641323,0.67793775,-9.1288805,-0.17648634,0.072896533,-0.98160005,0
-5.9351335,-1.0473766,7.0828805,-0.6381864,-0.11262114,0.76160002,0
-0.63758671,7.1728516,-5.8850393,-0.068557709,0.77127433,-0.63279992,0
-7.6593714,5.0264621,-1.599599,-0.82358831,0.54047978,-0.17199989,0
5.3218102,-0.35478705,7.6185608,0.57223767,-0.038149145,0.81920004,0
-7.5299935,-5.4527535,-0.23808119,-0.80967671,-0.5863176,-0.025600128,0
2.3574352,5.0684862,-7.4325604,0.25348765,0.54499853,-0.79920006,0
-0.83573431,9.1930771,1.1308808,-0.089863904,0.98850292,0.12160008,0
-1.0390195,-6.2341166,6.8224797,-0.11172252,-0.67033511,0.73359996,0
7.0593333,5.5886388,2.3287199,0.75906807,0.6009289,0.25039998,0
2.5329235,-7.9153876,4.17384,0.27235734,-0.85111696,0.4488,0
5.9548335,-0.12669846,-7.1424022,0.64030468,-0.013623491,-0.76800025,0
-4.3252454,1.0813103,8.1616802,-0.46508014,0.11626992,0.87760001,0
5.5096202,-7.4379873,0.90024114,0.59243226,-0.79978359,0.096800119,0
3.0252354,6.5281401,-5.8924818,0.32529414,0.70195055,-0.63360018,0
5.4397416,-0.81017417,-7.4995222,0.58491844,-0.087115496,-0.80640024,0
5.4382792,-7.3298535,-1.7856008,0.5847612,-0.78815627,-0.19200008,0
6.7616787,3.9146564,-5.0443206,0.72706223,0.42093077,-0.54240006,0
-6.787446,-1.2066573,-6.2421594,-0.72983289,-0.12974809,-0.67119992,0
4.5684204,3.5141704,7.2986398,0.49122798,0.37786779,0.78479993,0
2.1122789,5.2806964,7.3581605,0.22712676,0.56781679,0.79120004,0
-7.1869011,-4.391995,-3.9432008,-0.77278507,-0.47225752,-0.42400008,0
2.8339267,-4.6051316,7.5664806,0.30472329,-0.49517542,0.81360006,0
0.22307575,-8.9230385,-2.6114404,0.023986639,-0.95946646,-0.28080004,0
5.5782142,-6.5079169,3.6083996,0.59980798,-0.69977599,0.38799995,0
7.1937838,-5.8103642,0.98952013,0.77352512,-0.62477034,0.10640001,0
-3.8161328,7.3142548,4.2928796,-0.41033685,0.786479,0.46159995,0
-7.8694663,3.9347332,3.0132005,-0.84617913,0.42308956,0.32400006,0
-4.9899049,-1.0692655,7.7748003,-0.53654891,-0.11497478,0.83600003,0
-0.71806633,-3.8296869,-8.4443998,-0.077211432,-0.41179428,-0.90799999,0
-7.9454184,-3.9727092,-2.7528009,-0.85434604,-0.42717302,-0.29600009,0
-2.8805678,8.4201212,-2.7007196,-0.30973846,0.90538937,-0.29039994,0
9.2425642,-0.81552047,0.63240135,0.99382406,-0.087690368,0.068000145,0
-7.555356,-4.5332136,2.9759998,-0.81240386,-0.48744231,0.31999996,0
1.1818832,7.4289808,-5.4684,0.12708421,0.79881513,-0.588,0
-4.0394483,-3.9206405,-7.4027996,-0.43434927,-0.42157423,-0.79599994,0
-6.5070367,-5.4903121,-3.7423189,-0.69968134,-0.59035611,-0.40239987,0
-2.4878762,4.6203418,7.6780806,-0.26751357,0.49681094,0.82560003,0
4.1454883,3.1636622,-7.7004008,0.44575143,0.34017873,-0.82800007,0
2.8805678,8.4201212,-2.7007196,0.30973846,0.90538937,-0.29039994,0
3.9504235,2.5139053,8.0352001,0.4247767,0.2703124,0.86400002,0
-4.4153004,8.094717,-1.2127194,-0.47476348,0.87039965,-0.13039994,0
-4.6878486,-3.6742597,-7.1424012,-0.50406975,-0.39508167,-0.76800013,0
-4.8690691,7.7332277,1.7260811,-0.52355582,0.83152986,0.18560012,0
-1.3831196,-6.2240396,6.7704,-0.14872253,-0.66925156,0.72799999,0
-1.4724432,-2.2086654,8.9131203,-0.15832722,-0.23749089,0.95840001,0
-7.9675217,3.0644312,-3.6902387,-0.85672277,0.32950872,-0.39679986,0
-4.6203418,-2.4878762,7.6780806,-0.49681094,-0.26751357,0.82560003,0
-0.72516191,3.9883888,8.3699999,-0.077974394,0.428859,0.89999998,0
3.8889079,3.8889079,7.4995198,0.41816214,0.41816214,0.80639994,0
0.73967153,-1.8491811,9.08424,0.079534568,-0.19883667,0.97679996,0
-2.0976052,5.5936146,7.1275196,-0.22554894,0.60146391,0.76639992,0
3.7999692,-8.3124313,-1.7186403,0.40859884,-0.8938098,-0.18480003,0
4.5231466,-4.1752129,6.9712801,0.48635983,-0.44894761,0.74959999,0
-9.1698961,-0.48262638,-1.4731197,-0.98601031,-0.051895309,-0.15839997,0
-9.2065306,1.3152189,2.2172927e-07,-0.98994952,0.14142139,2.3841856e-08,0
0,-9.257761,-0.8853603,0,-0.99545813,-0.095200032,0
-8.9230385,0.22307575,-2.6114404,-0.95946646,0.023986639,-0.28080004,0
-7.2310138,-4.1040893,-4.1664004,-0.77752835,-0.44129992,-0.44800004,0
2.5699248,-1.4685284,8.8164005,0.27633598,-0.15790628,0.94800001,0
2.1791456,-3.2687182,8.4295197,0.23431672,-0.35147506,0.90639997,0
-5.6437392,6.2708211,3.9134402,-0.60685366,0.67428184,0.42080003,0
-8.2466888,3.6651952,-2.2468815,-0.88674074,0.39410701,-0.24160016,0
5.7451458,7.3120017,-0.13391975,0.61775762,0.7862367,-0.014399973,0
-8.8993845,-2.4720511,-1.0862406,-0.95692307,-0.26581195,-0.11680007,0
1.8556476,-1.752556,-8.9428816,0.19953199,-0.18844688,-0.96160012,0
0.98865163,7.5796704,5.2972794,0.10630663,0.8150183,0.56959993,0
5.1214547,4.4385943,6.3686409,0.55069405,0.47726819,0.68480009,0
-7.2996373,-5.6151056,1.2945608,-0.78490722,-0.60377479,0.13920008,0
-1.7523534,-5.6075296,7.2093601,-0.18842509,-0.60296017,0.77520001,0
7.6598334,-4.7137437,2.3659205,0.82363796,-0.50685418,0.25440004,0
-5.0264626,-7.6593709,-1.5996,-0.54047984,-0.82358825,-0.17199999,0
7.6824985,-3.994899,3.3926401,0.82607508,-0.42955902,0.36480001,0
1.5986476,-7.6379857,-5.0592003,0.17189759,-0.82128876,-0.54400003,0
-2.1611631,-8.3359146,3.5116808,-0.23238312,-0.89633489,0.37760007,0
-9.1174459,-0.95973098,-1.5623997,-0.98037052,-0.10319687,-0.16799997,0
-1.8046459,1.2324409,-9.0395985,-0.19404794,0.13252053,-0.97199982,0
-2.755614,2.2480009,-8.5931997,-0.29630259,0.24172051,-0.92399997,0
-1.8046459,1.2324409,-9.0395985,-0.19404794,0.13252053,-0.97199982,0
-0.90664274,8.7642136,2.9759991,-0.097488463,0.94238853,0.3199999,0
-2.7877669,-3.5311713,-8.1393604,-0.29975986,-0.37969583,-0.87520003,0
-0.89675879,5.2684574,-7.6111221,-0.096425675,0.56650078,-0.8184002,0
-2.8637724,-3.9376869,7.9235997,-0.3079325,-0.4234072,0.85199994,0
-5.8249927,6.4381495,3.3331208,-0.62634331,0.69227409,0.35840008,0
-7.8363194,3.1345284,3.9059997,-0.84261495,0.33704606,0.41999996,0
5.9239526,-0.25208321,-7.164722,0.63698411,-0.027105721,-0.77040017,0
3.2597892,2.535392,8.3328009,0.35051498,0.27262279,0.89600009,0
1.0824625,-4.2396445,-8.2063198,0.11639382,-0.45587575,-0.88239998,0
-5.2741365,7.3251891,2.23944,-0.56711143,0.7876547,0.24079999,0
-0.365848,-3.2926352,8.6899204,-0.039338496,-0.35404679,0.93440002,0
4.4747005,-6.7120509,-4.6276813,0.48115057,-0.72172588,-0.49760014,0
-2.5762496,-0.73607177,8.9056807,-0.27701607,-0.079147503,0.95760006,0
-8.3816643,-1.635447,-3.6828001,-0.90125418,-0.17585452,-0.396,0
-5.2659383,7.3265233,-2.2543194,-0.56622994,0.78779817,-0.24239993,0
1.2062906,-8.7456026,2.923919,0.12970866,-0.94038737,0.31439987,0
8.7854338,-0.3029457,3.0355191,0.94467026,-0.032574806,0.32639989,0
-8.5167694,-3.4067078,1.5326394,-0.91578162,-0.36631265,0.16479993,0
-1.2324382,-1.8046416,-9.0396004,-0.13252023,-0.19404748,-0.972,0
-3.6028202,6.8781095,5.1187205,-0.3874,0.73958164,0.55040002,0
-5.991672,-7.0810666,0.66960043,-0.64426577,-0.76140499,0.072000042,0
1.0913991,3.6380012,8.4890404,0.11735474,0.39118293,0.91280001,0
3.3212976,0.27112648,-8.6824808,0.35712877,0.029153384,-0.93360007,0
1.1059093,2.2118208,8.9652004,0.11891498,0.23783019,0.96400005,0
-7.4913635,-5.3164515,-1.4508001,-0.80552292,-0.57166147,-0.156,0
6.792398,4.2048178,4.761601,0.73036534,0.45213094,0.51200008,0
-6.7328014,-5.508656,3.2884798,-0.72395712,-0.59232861,0.35359997,0
1.2778184,-7.8494573,-4.8211203,0.13739982,-0.84402764,-0.51840001,0
1.7392745,-5.9135313,6.9638405,0.18701877,-0.63586354,0.74880004,0
-5.094244,7.6413651,1.4656806,-0.54776818,0.82165211,0.15760006,0
-0.37006021,1.8503032,9.1065598,-0.03979142,0.19895732,0.97919995,0
6.6933961,-6.111361,2.083199,0.71972001,-0.65713561,0.22399989,0
7.2528749,-5.7522793,-0.89280057,0.77987897,-0.61852467,-0.09600006,0
6.6545396,-3.3272698,-5.5799985,0.7155419,-0.35777095,-0.59999985,0
-1.7249578,4.5660648,-7.9161592,-0.18547933,0.49097469,-0.85119987,0
9.2208529,0.74763602,-0.95232016,0.99148953,0.080390967,-0.10240001,0
7.9153876,2.5329235,4.17384,0.85111696,0.27235734,0.4488,0
4.9351392,-3.0844622,-7.2539988,0.53066009,-0.3316626,-0.77999985,0
4.2882295,2.5014668,7.86408,0.46109992,0.2689749,0.84559995,0
8.848691,-1.5882266,-2.3807991,0.9514721,-0.17077705,-0.25599989,0
0,-4.9996815,-7.8417592,0,-0.53760016,-0.84319991,0
-4.9297504,2.8170002,7.3656006,-0.53008068,0.30290323,0.79200006,0
4.1838927,-3.3923457,-7.5813608,0.44988093,-0.36476836,-0.81520009,0
3.5892117,3.0071774,-8.0352001,0.38593674,0.3233524,-0.86400002,0
5.5922642,-1.7398154,-7.2242389,0.60131872,-0.18707691,-0.77679986,0
-4.2928863,6.2742186,5.3568001,-0.46160066,0.67464715,0.57599998,0
-8.0807028,4.5453959,-0.72911984,-0.86889273,0.48875225,-0.078399979,0
-0.72836083,3.641803,8.5262394,-0.078318365,0.39159173,0.9167999,0
1.2773206,9.1967068,-0.52824086,0.1373463,0.98889315,-0.05680009,0
7.7765903,-4.1043115,-3.0280807,0.83619249,-0.44132382,-0.32560006,0
-2.2086654,1.4724443,8.9131203,-0.23749089,0.15832734,0.95840001,0
-3.6651947,8.2466888,-2.2468808,-0.39410695,0.88674074,-0.24160008,0
-6.2456136,-0.34697819,6.882,-0.67157131,-0.037309483,0.74000001,0
8.3847179,-0.79854435,-3.9432011,0.90158254,-0.085864983,-0.42400011,0
-7.0810666,-5.991672,0.66960043,-0.76140499,-0.64426577,0.072000042,0
2.138531,4.6334834,7.7748003,0.22994956,0.49822402,0.83600003,0
-2.5778265,-0.36826086,-8.9280005,-0.27718565,-0.03959794,-0.96000004,0
-0.70483977,6.4845238,-6.6290388,-0.075789221,0.69726062,-0.71279985,0
-5.8680806,-5.2160716,4.9847999,-0.63097638,-0.56086791,0.53599995,0
-9.222537,0,1.1978408,-0.99167061,0,0.12880008,0
0.35478705,5.3218102,7.6185608,0.038149145,0.57223767,0.81920004,0
-2.397228,8.4992619,-2.9164793,-0.25776646,0.91389912,-0.31359991,0
-0.70910692,-5.3182993,7.59624,-0.076248057,-0.57186013,0.8168,0
4.3154845,-1.4072233,-8.1170387,0.46403059,-0.15131433,-0.87279987,0
-7.3120027,-5.7451448,-0.13392001,-0.78623682,-0.6177575,-0.014400002,0
4.0394492,-3.9206421,-7.4027982,0.43434936,-0.42157441,-0.79599977,0
-6.6389236,-4.7420883,-4.4639997,-0.71386272,-0.50990194,-0.47999996,0
1.8594049,-8.367321,3.6084008,0.199936,-0.89971191,0.38800007,0
3.8258893,8.1018829,-2.4924011,0.41138595,0.87117016,-0.26800013,0
6.1046281,6.9370766,1.0490391,0.65641159,0.74592221,0.11279991,0
-0.32625875,-7.8302178,5.0071197,-0.035081584,-0.84195888,0.53839993,0
-1.1489927,-8.9621401,-2.2022393,-0.1235476,-0.96367097,-0.23679991,0
8.9168329,-0.59445584,2.5742395,0.95879924,-0.063919984,0.27679995,0
-5.3164515,-7.4913635,-1.4508001,-0.57166147,-0.80552292,-0.156,0
-3.8712173,8.0402203,2.618881,-0.41625991,0.8645398,0.28160009,0
1.3152188,9.2065306,-1.3303758e-06,0.14142138,0.98994952,-1.4305115e-07,0
-7.0112281,-3.8746262,-4.7244,-0.75389546,-0.41662645,-0.50800002,0
-7.659833,4.7137442,2.3659198,-0.82363796,0.50685418,0.25439999,0
-2.0650525,-6.1951575,6.6216002,-0.22204866,-0.66614598,0.71200001,0
-2.9158731,2.1869047,8.5559998,-0.31353474,0.23515104,0.91999996,0
0.78913146,7.1021814,-5.9519992,0.084852844,0.76367539,-0.63999993,0
7.9763432,1.9143224,4.3821602,0.85767126,0.20584111,0.47120002,0
6.7758756,6.2112198,1.4135988,0.72858876,0.66787308,0.15199986,0
-9.0008717,1.1614034,2.0311198,-0.96783566,0.12488209,0.21839997,0
-8.9168329,-0.59445584,2.5742395,-0.95879924,-0.063919984,0.27679995,0
3.2960038,-5.7321801,-6.5397611,0.35440901,-0.61636347,-0.7032001,0
5.9285131,6.5872374,-2.8197598,0.63747454,0.70830506,-0.30319998,0
-8.059062,2.1621878,-4.1068802,-0.86656576,0.23249331,-0.44160002,0
-4.5684204,3.5141704,7.2986398,-0.49122798,0.37786779,0.78479993,0
-4.1633964,-7.0020757,-4.4863205,-0.44767702,-0.75291133,-0.48240003,0
-6.7758756,6.2112198,1.4135988,-0.72858876,0.66787308,0.15199986,0
-1.3152189,-9.2065306,2.2172927e-07,-0.14142139,-0.98994952,2.3841856e-08,0
1.9442184,8.992012,-1.3615201,0.20905574,0.966883,-0.1464,0
5.316452,7.491363,-1.4508011,0.57166147,0.80552292,-0.15600012,0
4.6878486,3.6742597,-7.1424012,0.50406975,0.39508167,-0.76800013,0
-4.5120645,-7.5201068,-3.0950401,-0.48516822,-0.8086136,-0.3328,0
2.5252085,3.6074419,8.1914396,0.2715278,0.38789698,0.88079995,0
4.5718184,7.7720909,-2.2766383,0.49159336,0.83570868,-0.24479981,0
-8.4379253,3.6162529,-1.4879992,-0.90730381,0.3888444,-0.15999991,0
-6.4405441,6.6981654,-0.37943965,-0.69253159,0.72023284,-0.04079996,0
4.2692895,-5.4890871,-6.1751995,0.45906338,-0.59022439,-0.66399992,0
-1.9981352,-6.2798543,-6.5620799,-0.21485324,-0.67525315,-0.70559996,0
8.3980274,3.4750457,1.971599,0.90301371,0.37366083,0.21199989,0
-5.5003395,-7.2372885,1.9641601,-0.59143436,-0.77820307,0.2112,0
8.4234467,-2.7075367,2.8644011,0.90574694,-0.29113299,0.30800012,0
0.0012457951,-0.0042712977,-9.2999992,0.00013395645,-0.00045927931,-0.99999988,0
-6.0934367,-5.7003121,-4.1068811,-0.65520823,-0.61293679,-0.44160011,0
-7.3199925,1.3309075,-5.5799999,-0.78709596,0.14310832,-0.59999996,0
-4.5120645,-7.5201068,-3.0950401,-0.48516822,-0.8086136,-0.3328,0
-1.3467855,1.5993079,-9.0619192,-0.14481565,0.17196859,-0.97439992,0
0,9.1873131,-1.4433597,0,0.98788309,-0.15519997,0
-7.555356,4.5332131,2.9760005,-0.81240386,0.48744226,0.32000005,0
-7.8066096,-4.7312784,-1.7781589,-0.83942038,-0.50873959,-0.19119988,0
-0.95322073,6.2640224,-6.8075986,-0.10249685,0.67355078,-0.73199981,0
3.9525921,-2.2586241,-8.109602,0.42500991,-0.24286281,-0.87200022,0
5.895575,-7.1772208,-0.4687207,0.63393277,-0.77174413,-0.050400075,0
5.7503219,-4.0590506,6.0784798,0.61831415,-0.43645704,0.65359998,0
-8.0759754,-2.7955301,3.6679204,-0.86838442,-0.30059463,0.39440003,0
-1.3309079,-7.3199921,-5.5799999,-0.14310838,-0.7870959,-0.59999996,0
-1.2371449,-9.154871,-1.0713603,-0.13302633,-0.98439473,-0.11520004,0
2.6835096,-5.3670201,-7.1052003,0.28854942,-0.57709891,-0.764,0
3.347331,6.3758688,-5.8850379,0.35992807,0.68557727,-0.63279974,0
-0.3029457,-8.7854338,3.0355191,-0.032574806,-0.94467026,0.32639989,0
-5.8089199,6.9707046,2.0385602,-0.62461501,0.74953812,0.21920002,0
-2.696197,8.5379572,-2.51472,-0.28991365,0.91805989,-0.27039999,0
7.398922,-5.4069047,1.5847205,0.79558301,-0.58138758,0.17040005,0
7.5487008,-1.6410222,5.1782393,0.81168824,-0.17645399,0.55679989,0
