-8.4402742,-1.4552199,2.7647991,-0.93780828,-0.1616911,0.3071999,0
1.9198506,2.4958055,-8.4312,0.21331674,0.27731171,-0.9368,0
8.4801207,2.9929841,-0.35999879,0.94223565,0.33255377,-0.039999865,0
6.1998987,-6.1998978,2.0303991,0.68887764,-0.68887752,0.2255999,0
7.0888925,5.104003,2.1671999,0.7876547,0.56711143,0.24079998,0
8.2442961,-2.8428602,2.2247992,0.91603291,-0.31587335,0.24719991,0
7.3351645,0.95675963,5.1263995,0.8150183,0.10630663,0.56959993,0
-1.9448,-8.7515993,-0.79200089,-0.21608889,-0.97239995,-0.088000096,0
-5.9566684,-3.512907,-5.7599988,-0.66185206,-0.39032301,-0.63999987,0
6.4202156,4.8915939,3.9816,0.71335727,0.54351044,0.44240001,0
6.0005631,6.2863059,2.3399997,0.66672921,0.69847846,0.25999996,0
-1.0648947,8.5191555,-2.6999986,-0.11832163,0.94657284,-0.29999983,0
-7.5618515,-0.94523144,4.7879996,-0.84020573,-0.10502572,0.53199995,0
6.3523836,5.532721,-3.1679993,0.70582038,0.61474681,-0.35199991,0
-6.6039939,2.1501372,-5.724,-0.73377711,0.23890413,-0.63599998,0
2.3198981,8.2250919,-2.8223994,0.25776646,0.91389912,-0.31359994,0
6.5595117,-1.6398784,5.9400001,0.72883463,-0.18220872,0.66000003,0
0.71013981,-2.8405623,8.5103998,0.07890442,-0.31561804,0.94559997,0
5.5667224,7.0189104,-0.86400151,0.61852473,0.77987891,-0.096000165,0
4.7090974,7.4000101,-2.0159986,0.52323306,0.82222337,-0.22399984,0
1.9447994,-8.7515993,-0.79200053,0.21608883,-0.97239995,-0.088000059,0
-0.29317325,-8.5020323,2.9375992,-0.032574806,-0.94467026,0.32639992,0
-4.4865308,2.1910961,-7.4879999,-0.49850342,0.24345511,-0.83200002,0
8.6341896,-2.5394678,-0.04319863,0.9593544,-0.28216308,-0.004799848,0
-5.0751576,-6.4415464,-3.7079988,-0.56390643,-0.71572739,-0.41199985,0
0.35877356,-1.4350953,8.8775997,0.039863728,-0.15945503,0.98639995,0
4.1714292,1.7380959,7.7831998,0.46349213,0.19312176,0.86479998,0
-2.2261858,8.459507,-2.1167996,-0.24735397,0.93994522,-0.23519996,0
8.9939041,0,-0.33120075,0.99932265,0,-0.036800083,0
-1.76767,2.8282709,8.3592005,-0.19640778,0.31425232,0.92880005,0
8.9095449,1.2727925,-1.2874603e-06,0.98994946,0.14142138,-1.4305115e-07,0
-3.9931123,5.6825066,-5.724,-0.44367915,0.63138962,-0.63599998,0
5.0767817,-6.2049556,-4.0895987,0.56408685,-0.68943954,-0.45439985,0
3.0352411,5.0587358,6.7968011,0.33724901,0.56208175,0.75520015,0
-1.3033389,-3.7470994,-8.0784006,-0.14481543,-0.41634437,-0.89760005,0
-7.07831,-3.6930318,4.1544003,-0.78647888,-0.41033685,0.46160004,0
-5.0198922,-6.7916193,3.1104007,-0.55776578,-0.75462437,0.34560007,0
0.94695997,1.1913366,-8.8703995,0.10521778,0.13237074,-0.98559994,0
8.4939098,1.7423402,-2.411999,0.94376779,0.19359335,-0.26799989,0
-6.8240809,-1.5509274,-5.6591997,-0.75823122,-0.17232527,-0.62879997,0
-1.0726309,-1.7877185,8.7551994,-0.11918121,-0.1986354,0.97279996,0
-6.7960148,-2.8178596,-5.1839995,-0.75511277,-0.31309551,-0.57599998,0
-1.0745865,1.4327826,8.8199997,-0.1193985,0.15919808,0.97999996,0
-1.7647196,8.8235989,-0.17280114,-0.19607995,0.98039985,-0.019200126,0
3.6207485,5.5957022,6.0479994,0.40230539,0.62174469,0.67199993,0
-7.6729164,-3.5413463,3.0960002,-0.85254627,-0.39348292,0.34400001,0
3.4368215,3.2404313,-7.6608005,0.38186905,0.36004794,-0.85120004,0
1.6235964,6.8191028,5.6448007,0.1803996,0.75767809,0.62720007,0
8.6822205,1.5993563,-1.7495997,0.96469116,0.17770626,-0.19439997,0
3.4995997,-8.1657333,-1.4399992,0.3888444,-0.90730369,-0.15999991,0
-1.0780543,0,8.9351997,-0.11978381,0,0.9928,0
1.8892304,-0.88164091,-8.7551994,0.20991449,-0.0979601,-0.97279996,0
-2.5394678,8.6341896,-0.04319863,-0.28216308,0.9593544,-0.004799848,0
8.8955269,-0.96167833,-0.97200018,0.98839188,-0.10685315,-0.10800002,0
7.8868761,-2.1233895,3.7800004,0.87631959,-0.23593217,0.42000005,0
-6.747879,5.4418378,-2.4192002,-0.74976432,0.60464865,-0.26880002,0
-3.1515937,-6.9335065,4.7952003,-0.35017708,-0.77038962,0.53280002,0
-7.6262374,-1.8157706,-4.4208007,-0.84735972,-0.20175229,-0.49120009,0
-5.4522591,0.68153173,7.1280003,-0.60580659,0.075725749,0.79200006,0
6.8592153,-0.32662901,5.8176007,0.76213503,-0.036292113,0.64640009,0
8.7582312,-2.0607607,0.21600114,0.97313678,-0.22897342,0.024000127,0
6.5658317,-5.6903872,-2.3472002,0.72953683,-0.63226527,-0.2608,0
0.35812277,-1.7906159,8.8127995,0.03979142,-0.19895732,0.97919995,0
-0.72351944,8.9234056,-0.92160028,-0.080391049,0.99148953,-0.10240003,0
3.2829151,4.0489287,-7.3368006,0.36476836,0.44988096,-0.81520009,0
-7.4837685,4.7120032,1.6704004,-0.83152986,0.52355593,0.18560004,0
8.9901676,0.24972664,-0.33840072,0.99890751,0.027747404,-0.037600081,0
1.5719105,-5.8946638,-6.6167994,0.17465672,-0.65496266,-0.73519993,0
0.0031444703,-0.002358353,-8.999999,0.00034938558,-0.00026203922,-0.99999988,0
5.8420715,3.8947144,5.6303997,0.64911908,0.43274605,0.62559998,0
-8.4402742,1.4552199,2.7647991,-0.93780828,0.1616911,0.3071999,0
6.5214672,2.2825134,5.7672005,0.72460747,0.25361261,0.64080006,0
-0.10054246,-4.8260427,-7.5959992,-0.011171384,-0.53622699,-0.84399992,0
-0.94523144,7.5618515,4.7879996,-0.10502572,0.84020573,0.53199995,0
0.35927895,-1.0778378,8.9280005,0.039919883,-0.11975976,0.99200004,0
-7.3923001,-3.7960458,-3.4560001,-0.82136667,-0.42178285,-0.384,0
-5.213357,-4.561687,5.7456002,-0.5792619,-0.50685412,0.63840002,0
0,-8.6400003,2.5199995,0,-0.96000004,0.27999994,0
8.0185957,3.2507815,-2.4767997,0.89095509,0.36119795,-0.27519998,0
-7.1226311,4.4516435,3.2328002,-0.79140347,0.49462706,0.35920003,0
5.7668362,4.4853163,5.256,0.64075959,0.49836847,0.58399999,0
0.34754419,4.5180788,7.776,0.03861602,0.50200874,0.86400002,0
8.7582312,-2.0607607,0.21600114,0.97313678,-0.22897342,0.024000127,0
-1.7076303,-5.1228905,-7.1999993,-0.18973669,-0.56921005,-0.79999995,0
-5.9942756,-3.7858584,-5.5440001,-0.66603065,-0.42065093,-0.616,0
5.0124092,3.6757679,6.5088005,0.55693436,0.40841866,0.72320008,0
-6.7762022,-4.0290933,-4.3416004,-0.75291133,-0.44767702,-0.48240006,0
4.9180694,-7.0563598,-2.6495998,0.54645216,-0.78403997,-0.29439998,0
4.3312349,6.2369785,-4.8312006,0.48124832,0.69299763,-0.53680009,0
-0.43103915,-8.6207781,-2.5488005,-0.047893241,-0.95786422,-0.28320006,0
7.57763,0.31573427,4.8455997,0.84195888,0.035081584,0.53839993,0
2.3832762,-2.7556632,-8.2296,0.26480848,-0.3061848,-0.91439998,0
-8.6341896,2.5394683,-0.043200519,-0.9593544,0.28216314,-0.0048000575,0
7.8598146,-3.9299073,1.9440014,0.87331271,-0.43665636,0.21600015,0
-5.2948155,6.5166965,-3.2399993,-0.58831286,0.7240774,-0.35999992,0
0.35110581,3.8621681,8.1216002,0.039011758,0.42912978,0.90240002,0
-4.301528,5.9559627,-5.1984005,-0.47794756,0.66177362,-0.57760006,0
-5.5295997,5.184,-4.8528004,-0.61439997,0.57599998,-0.53920007,0
-1.3147442,-6.5737219,6.0048003,-0.1460827,-0.73041356,0.66720003,0
-6.2962756,1.8602632,-6.1559997,-0.69958615,0.20669591,-0.68399996,0
-1.6578457,8.7629004,-1.2096002,-0.18420509,0.97365558,-0.13440003,0
2.2287805,-7.2006764,-4.9176011,0.24764228,-0.80007517,-0.54640013,0
-7.69171,-2.1536784,4.1472001,-0.85463446,-0.2392976,0.46080002,0
-6.1851096,-6.4540281,1.044,-0.6872344,-0.71711421,0.116,0
-6.9941993,0.46627954,-5.6447992,-0.77713323,0.051808838,-0.62719989,0
3.5153632,4.9475484,-6.6455989,0.39059591,0.54972762,-0.73839986,0
2.3288186,5.8905411,-6.3936009,0.25875762,0.65450454,-0.7104001,0
-5.7256708,-6.8162746,1.3247998,-0.63618565,-0.75736386,0.14719997,0
5.7524304,5.9507895,-3.5352013,0.63915896,0.66119885,-0.39280015,0
-1.0475444,-4.1028819,-7.9415998,-0.11639382,-0.45587575,-0.88239998,0
-8.7430649,1.6393248,1.3680003,-0.97145164,0.1821472,0.15200002,0
-3.6127574,-8.1889172,-0.94320029,-0.40141749,-0.90987968,-0.10480003,0
8.7515993,-1.9448,-0.79200089,0.97239995,-0.21608889,-0.088000096,0
5.5164309,5.896874,-3.974401,0.61293674,0.65520823,-0.44160011,0
-4.8129725,5.4547024,5.2991996,-0.53477472,0.60607803,0.58879995,0
-3.0907631,4.1210175,7.3799996,-0.34341812,0.45789084,0.81999993,0
-7.4542608,4.2595773,-2.6999993,-0.82825118,0.47328636,-0.29999992,0
7.9806666,-3.5469627,-2.1744006,0.88674074,-0.39410698,-0.24160007,0
2.9031091,8.2626953,-2.0736001,0.32256767,0.91807723,-0.23040001,0
8.8535061,-1.5623835,0.41760126,0.98372293,-0.17359817,0.046400141,0
4.6575704,4.3248873,6.3720002,0.51750779,0.48054302,0.708,0
2.8335447,1.4167734,8.4239998,0.31483829,0.15741926,0.93599999,0
-0.70765454,-3.1844437,8.3879995,-0.078628279,-0.35382709,0.93199992,0
7.1980519,-5.3318906,0.8712011,0.79978353,-0.59243226,0.096800119,0
1.5477173,-1.3033409,-8.769599,0.17196859,-0.14481565,-0.97439986,0
6.3675447,-5.9284029,-2.3040001,0.70750499,-0.65871143,-0.25600001,0
7.087429,4.4549556,-3.3048022,0.7874921,0.49499506,-0.36720026,0
5.5839472,4.4671569,-5.4647999,0.62043858,0.49635077,-0.60719997,0
6.8542142,0.65278172,5.7960005,0.76157933,0.072531305,0.64400005,0
-0.41109437,-8.4274302,-3.1319997,-0.045677152,-0.9363811,-0.34799996,0
-3.723243,4.4001956,6.9119997,-0.41369367,0.48891062,0.76799995,0
-7.2673607,1.6900842,-5.0328007,-0.80748451,0.18778713,-0.55920005,0
-3.0754035,8.4573584,0.12240071,-0.34171149,0.9397065,0.013600078,0
-8.8089876,1.7128584,-0.68400067,-0.9787764,0.1903176,-0.076000072,0
6.9740572,5.6825662,0.26639983,0.77489525,0.63139623,0.029599981,0
4.7096362,-3.7004292,6.7175999,0.5232929,-0.4111588,0.7464,0
5.7668362,4.4853163,5.256,0.64075959,0.49836847,0.58399999,0
-0.17309001,0.47854304,-8.9856014,-0.019232223,0.053171448,-0.99840015,0
-1.1673771,-8.4634867,2.8295991,-0.12970857,-0.94038743,0.3143999,0
-6.7840962,-4.788774,-3.4704006,-0.75378847,-0.53208601,-0.38560006,0
-0.34288913,-2.800261,-8.546401,-0.038098793,-0.31114012,-0.9496001,0
0,8.756156,2.0807998,0,0.97290623,0.23119998,0
-5.2595887,6.7205863,2.8583992,-0.58439875,0.74673182,0.31759989,0
4.8799577,4.1828208,-6.3000016,0.54221749,0.46475786,-0.70000017,0
6.4415464,-5.0751576,-3.7079988,0.71572739,-0.56390643,-0.41199985,0
1.5883864,-0.65607268,-8.8343983,0.17648739,-0.072896965,-0.98159981,0
-2.0807877,-4.1615753,7.704,-0.23119862,-0.46239725,0.85600001,0
-3.8106647,2.7713916,7.6679997,-0.4234072,0.30793241,0.852,0
-1.0055027,6.0330157,6.6023998,-0.11172252,0.67033505,0.73359996,0
-6.0718246,4.1544061,5.184,-0.67464715,0.46160066,0.57599998,0
3.5265312,0.3526527,8.2727995,0.39183679,0.039183632,0.91919994,0
-2.0469787,4.0009131,-7.7976003,-0.22744209,0.44454589,-0.8664,0
-0.31573427,7.57763,4.8455997,-0.035081584,0.84195888,0.53839993,0
-8.1101027,3.3792088,-1.9512002,-0.90112251,0.37546766,-0.21680003,0
0.71013981,2.8405614,8.5103998,0.07890442,0.31561792,0.94559997,0
-8.7763948,1.3713121,1.4472003,-0.975155,0.15236801,0.16080004,0
-3.8629799,0,8.1287994,-0.42921999,0,0.90319991,0
-5.7983923,-6.8526449,0.64800042,-0.64426583,-0.76140499,0.072000049,0
-2.4931448,0.71232647,8.6184006,-0.27701607,0.079147384,0.95760006,0
-2.4512172,-7.6600523,4.0391998,-0.27235746,-0.8511169,0.44879997,0
2.8335457,-1.4167728,-8.4239998,0.31483841,-0.1574192,-0.93599999,0
-6.9414687,0.61701983,-5.6951995,-0.77127433,0.068557762,-0.63279992,0
-5.6297741,-5.3170085,4.5864,-0.62553048,-0.59077871,0.50959998,0
2.311862,-8.5538874,-1.5768006,0.25687355,-0.95043194,-0.17520006,0
6.2979832,5.398272,3.4920006,0.69977593,0.59980798,0.38800007,0
-8.3364525,3.2270141,1.0439998,-0.92627251,0.35855711,0.11599997,0
-1.7706732,-6.4924679,-5.9759998,-0.19674146,-0.7213853,-0.66399997,0
-1.8602632,-6.2962756,-6.1559997,-0.20669591,-0.69958615,-0.68399996,0
-1.7994241,-8.0974073,3.4920008,-0.199936,-0.89971191,0.3880001,0
-1.2361168,8.9000387,-0.51120085,-0.13734631,0.98889321,-0.056800094,0
-2.4946706,-0.35638148,-8.6400003,-0.27718562,-0.039597943,-0.96000004,0
-7.0962491,-0.96767038,5.4503999,-0.78847212,-0.10751893,0.6056,0
-7.5666313,-4.4839296,1.9080008,-0.84073681,-0.49821439,0.21200009,0
1.0726298,1.7877185,8.7552004,0.11918109,0.1986354,0.97280002,0
-8.7447701,0.56417817,2.052,-0.97164112,0.062686466,0.228,0
7.2128768,-3.6064384,-3.9959996,0.80143076,-0.40071538,-0.44399995,0
4.9855771,-3.9884622,6.3432002,0.55395299,-0.44316247,0.70480001,0
-0.46705776,8.8740931,-1.4255998,-0.051895306,0.98601031,-0.15839998,0
-5.8905411,2.3288186,-6.3936009,-0.65450454,0.25875762,-0.7104001,0
-8.4669027,-2.7312589,1.3608,-0.94076699,-0.3034732,0.1512,0
-3.5135703,8.2819881,-0.25199893,-0.39039671,0.92022091,-0.027999882,0
6.5641103,-4.8265524,-3.8231988,0.72934556,-0.53628361,-0.42479986,0
6.247406,-3.524178,-5.4359994,0.69415623,-0.39157534,-0.60399991,0
-0.68623251,-5.1467414,7.3511996,-0.076248057,-0.57186013,0.81679994,0
-1.2470778,2.8059251,-8.4599991,-0.1385642,0.31176946,-0.93999988,0
-0.71812594,1.0771873,8.9063997,-0.079791769,0.11968748,0.98959994,0
1.0778369,-0.35927895,8.9280005,0.11975965,-0.039919883,0.99200004,0
7.521378,4.4243402,-2.2031984,0.83570868,0.49159336,-0.24479982,0
7.4023843,-3.5063927,-3.7296,0.82248712,-0.3895992,-0.41439998,0
2.8376398,-1.0641153,8.4744005,0.31529331,-0.11823503,0.94160008,0
0.23386128,-8.8867369,-1.4039997,0.025984587,-0.98741519,-0.15599996,0
7.0896058,5.5141377,0.57600141,0.78773397,0.61268198,0.06400016,0
0.89372909,8.7138538,-2.0663993,0.099303231,0.96820599,-0.22959992,0
-1.5719105,5.8946638,-6.6167994,-0.17465672,0.65496266,-0.73519993,0
6.11023,-3.8590927,5.3639998,0.67891443,-0.42878807,0.59599996,0
-6.2353826,-4.6765375,4.5,-0.69282031,-0.51961529,0.5,0
-2.2261858,-8.459507,-2.1167996,-0.24735397,-0.93994522,-0.23519996,0
8.546567,-2.6708021,0.9072004,0.94961858,-0.29675579,0.10080004,0
3.6773896,-8.0442877,-1.6632003,0.40859884,-0.89380974,-0.18480003,0
-2.515347,-7.2316213,4.7304001,-0.27948299,-0.80351347,0.52560002,0
-8.944417,-0.7892133,0.61199981,-0.99382412,-0.087690368,0.067999981,0
7.9862247,0.61432439,4.1040006,0.88735831,0.068258263,0.45600006,0
-8.243041,3.6063302,0.21600062,-0.91589344,0.40070334,0.024000069,0
7.1789455,-4.6452003,-2.8079987,0.79766059,-0.51613337,-0.31199986,0
-7.7105045,-2.9655788,-3.5711994,-0.85672271,-0.32950875,-0.39679992,0
-3.1205087,-3.4672315,7.6968002,-0.3467232,-0.38524795,0.85520005,0
2.8335447,-1.4167724,8.4239998,0.31483829,-0.15741915,0.93599999,0
-5.4118681,1.6836922,-6.991199,-0.60131866,0.18707691,-0.77679992,0
-1.7076303,5.1228905,-7.1999993,-0.18973669,0.56921005,-0.79999995,0
3.5007117,2.1004264,8.0207996,0.38896796,0.23338072,0.89119995,0
-2.9234486,7.3086214,-4.3631988,-0.32482761,0.81206906,-0.48479986,0
4.6017103,-2.6936841,-7.250402,0.51130116,-0.29929823,-0.80560023,0
4.3150053,-7.8209467,1.1015985,0.47944504,-0.86899406,0.12239984,0
-1.6584241,-7.7393131,-4.2840009,-0.18426935,-0.85992366,-0.4760001,0
-0.41109437,-8.4274302,-3.1319997,-0.045677152,-0.9363811,-0.34799996,0
-2.3423786,1.4500438,-8.5680008,-0.26026428,0.16111597,-0.95200008,0
3.3629708,-7.3373899,3.9815993,0.37366343,-0.81526554,0.44239992,0
-0.93904066,4.9038792,-7.4880018,-0.10433785,0.54487544,-0.8320002,0
0.55248004,-6.3535171,-6.3504004,0.061386671,-0.70594633,-0.70560002,0
8.9663849,-0.7685473,0.11519879,0.99626499,-0.085394144,0.012799866,0
5.264266,-0.7840395,-7.2576017,0.58491844,-0.087115496,-0.80640018,0
-4.4853163,-5.7668362,5.256,-0.49836847,-0.64075959,0.58399999,0
-7.4824595,2.8059218,-4.1399999,-0.83138442,0.3117691,-0.45999998,0
2.416455,7.8534803,3.6720006,0.26849499,0.8726089,0.40800008,0
-3.0112443,8.3388309,-1.5480007,-0.33458269,0.9265368,-0.17200008,0
3.842629,-1.7466497,7.9487996,0.42695877,-0.19407219,0.88319993,0
3.9211583,7.2390623,3.6359997,0.43568426,0.80434024,0.40399995,0
-8.0974073,1.7994241,3.4920008,-0.89971191,0.199936,0.3880001,0
6.2863054,-6.0005641,2.3399987,0.6984784,-0.66672933,0.25999987,0
-8.6822205,1.5993563,-1.7495997,-0.96469116,0.17770626,-0.19439997,0
1.8442415,-2.8005152,-8.3519993,0.20491572,-0.31116834,-0.92799991,0
0.59581846,-8.3414669,3.3264,0.066202052,-0.92682964,0.3696,0
1.0648946,-8.5191545,-2.7000005,0.11832162,-0.94657272,-0.30000007,0
-5.9770756,-2.3244181,6.3143997,-0.66411948,-0.25826868,0.70159996,0
7.1893363,-1.1437579,-5.2919998,0.79881513,-0.12708421,-0.588,0
3.3080854,-5.6237435,6.1992002,0.36756504,-0.62486041,0.68880004,0
7.6185732,4.1357965,-2.4192011,0.84650815,0.45953295,-0.26880014,0
-4.5035119,-1.3856958,7.6680002,-0.50039023,-0.1539662,0.852,0
5.45226,0.68153173,7.1279993,0.60580665,0.075725749,0.79199994,0
-1.9198506,2.4958055,-8.4312,-0.21331674,0.27731171,-0.9368,0
1.8157711,7.6262369,-4.4208012,0.20175235,0.84735966,-0.49120012,0
-7.0934067,5.2628503,-1.7280008,-0.78815627,0.58476114,-0.19200009,0
-3.4386673,-0.14035384,-8.3160009,-0.38207415,-0.015594872,-0.92400008,0
-5.4376349,1.3594096,7.0415998,-0.60418165,0.1510455,0.78239995,0
6.5737219,-1.3147442,6.0048003,0.73041356,-0.1460827,0.66720003,0
-6.7212067,-5.2509427,-2.8727996,-0.74680072,-0.5834381,-0.31919995,0
-8.1983309,0.19519816,-3.7080009,-0.91092563,0.021688685,-0.41200009,0
-1.424945,-2.137418,8.6255999,-0.15832722,-0.23749089,0.95840001,0
1.287975,-7.0838637,-5.3999996,0.14310832,-0.78709596,-0.59999996,0
1.1926806,1.7464255,-8.7480001,0.13252006,0.19404727,-0.972,0
2.4076221,4.4712982,7.4304004,0.26751357,0.49681091,0.82560003,0
-8.8529787,-0.69891942,-1.4615997,-0.98366427,-0.077657714,-0.16239996,0
3.5578351,-6.1453505,5.5295997,0.39531502,-0.68281674,0.61439997,0
-8.3656445,2.7885485,1.7999991,-0.92951608,0.30983871,0.1999999,0
-2.6936841,4.6017103,-7.250402,-0.29929823,0.51130116,-0.80560023,0
5.2498307,4.3498597,-5.8752022,0.58331454,0.48331773,-0.65280026,0
-2.9823825,-8.4048948,1.2095996,-0.33137584,-0.93387723,0.13439995,0
6.2759676,-4.0708981,-5.0040007,0.69732976,-0.45232201,-0.55600005,0
0.95992512,-8.0633698,-3.8808012,0.10665835,-0.89592999,-0.43120015,0
8.7305155,0.84488785,2.016,0.97005725,0.093876429,0.22400001,0
0.61474609,8.4015388,-3.1680014,0.06830512,0.93350434,-0.35200015,0
2.3632014,8.6650734,0.57600111,0.26257792,0.96278596,0.064000122,0
7.693428,4.5679731,-0.97199959,0.85482532,0.50755256,-0.10799995,0
4.726007,-0.29537544,-7.6536012,0.52511191,-0.032819495,-0.85040015,0
-8.6998768,2.3029079,0.093600161,-0.96665299,0.25587866,0.010400018,0
7.615571,4.6237407,1.2744007,0.84617454,0.51374894,0.14160007,0
8.2039061,0,-3.7008009,0.9115451,0,-0.41120011,0
7.4087234,5.1094637,0.06479945,0.82319146,0.56771821,0.0071999389,0
-2.72613,4.7707262,7.1280003,-0.30290332,0.53008068,0.79200006,0
0,8.756156,2.0807998,0,0.97290623,0.23119998,0
8.1889172,-3.6127577,-0.94319886,0.90987968,-0.40141752,-0.10479987,0
-2.4870241,1.4211575,8.5319996,-0.27633601,0.15790638,0.94799995,0
8.5966921,-1.1462252,2.4047995,0.95518804,-0.12735836,0.26719993,0
-6.1453505,-3.5578351,5.5295997,-0.68281674,-0.39531502,0.61439997,0
-5.398272,-6.2979836,3.4919996,-0.59980798,-0.69977593,0.38799995,0
-2.5394676,-8.6341906,-0.043200091,-0.28216305,-0.95935452,-0.00480001,0
3.8434379,7.9129601,-1.9008017,0.42704865,0.8792178,-0.21120018,0
5.7436786,-1.0135902,6.8543997,0.63818651,-0.11262114,0.76159996,0
1.0144085,-8.3181477,-3.2831998,0.11271206,-0.92423862,-0.36479998,0
1.6373316,-5.667686,-6.7967992,0.18192573,-0.62974286,-0.75519991,0
-0.34076568,2.0871897,-8.7480011,-0.037862852,0.23190996,-0.97200012,0
6.9711576,-1.9454395,-5.3496003,0.77457309,-0.21615994,-0.59440005,0
0.78921258,8.944417,0.61200142,0.087690286,0.99382412,0.06800016,0
4.3024139,6.7342129,-4.1400013,0.478046,0.74824589,-0.46000016,0
8.2819881,3.5135703,-0.25199893,0.92022091,0.39039671,-0.027999882,0
1.2844081,-5.3711605,-7.106401,0.14271201,-0.59679562,-0.78960013,0
-1.9430398,-6.8006392,5.5655999,-0.21589331,-0.75562656,0.61839998,0
5.184,6.9119997,-2.52,0.57599998,0.76799995,-0.28,0
3.4793429,-4.0405273,-7.250401,0.38659367,-0.44894749,-0.80560011,0
3.4925404,-0.071276262,-8.2944002,0.38806003,-0.0079195844,-0.92160004,0
-0.36628139,-7.8750458,-4.3416004,-0.040697932,-0.87500507,-0.48240006,0
8.0597887,3.6130083,1.7279992,0.89553207,0.40144536,0.19199991,0
4.246779,6.9768524,3.7799997,0.47186434,0.77520585,0.41999996,0
4.4712982,2.4076221,7.4304004,0.49681091,0.26751357,0.82560003,0
-3.2141588,0.26238045,-8.402401,-0.35712874,0.029153384,-0.93360013,0
3.0112443,-8.3388309,-1.5480007,0.33458269,-0.9265368,-0.17200008,0
2.7713916,3.8106647,7.6679997,0.30793241,0.4234072,0.852,0
2.8335447,1.4167734,8.4239998,0.31483829,0.15741926,0.93599999,0
-2.647095,-5.9559627,6.2063994,-0.29412165,-0.66177362,0.68959993,0
4.8878574,-3.2585716,-6.818399,0.54309529,-0.36206353,-0.75759989,0
7.3519692,0,5.1911993,0.81688547,0,0.57679993,0
2.5153461,7.2316217,4.7303996,0.2794829,0.80351353,0.52559996,0
2.4076221,-4.4712982,7.4304004,0.26751357,-0.49681091,0.82560003,0
-3.9299071,-7.8598151,1.9440002,-0.43665636,-0.87331277,0.21600002,0
-8.6351986,0.21587975,-2.5272002,-0.95946652,0.023986639,-0.28080001,0
-5.40836,6.8316126,2.2535996,-0.6009289,0.75906807,0.25039995,0
5.104003,-7.0888925,2.1671999,0.56711143,-0.7876547,0.24079998,0
-3.1018543,-2.171298,-8.1648006,-0.34465048,-0.24125534,-0.9072001,0
0.89372909,-8.7138538,-2.0663993,0.099303231,-0.96820599,-0.22959992,0
5.2948155,-6.5166965,-3.2399993,0.58831286,-0.7240774,-0.35999992,0
3.8977079,5.3413038,-6.1055994,0.43307865,0.5934782,-0.67839992,0
7.9864297,-3.8555171,1.5335994,0.88738108,-0.4283908,0.17039993,0
3.4196417,1.8291109,-8.1216011,0.37996018,0.20323454,-0.90240014,0
4.3987699,7.820035,-0.70559984,0.48875222,0.86889279,-0.078399986,0
-6.1545811,-6.1545811,-2.2896001,-0.68384236,-0.68384236,-0.25440001,0
4.988306,7.4824595,-0.36000016,0.5542562,0.83138442,-0.040000018,0
4.2890677,7.6751733,-1.9223987,0.4765631,0.85279703,-0.21359986,0
-3.4995997,8.1657333,-1.4400014,-0.3888444,0.90730369,-0.16000015,0
-7.3549471,0.83578968,-5.1191998,-0.81721634,0.092865519,-0.56879997,0
-6.9119997,3.1104,-4.8528004,-0.76799995,0.34560001,-0.53920007,0
-6.2353826,4.6765366,4.500001,-0.69282031,0.51961517,0.50000012,0
-5.9559627,2.647094,6.2063999,-0.66177362,0.29412156,0.68959999,0
-2.6321886,-7.1946483,-4.7231998,-0.29246539,-0.79940534,-0.5248,0
-1.6958258,5.4266424,6.9767995,-0.18842509,0.60296029,0.77519995,0
-1.7466497,-3.842629,7.9487996,-0.19407219,-0.42695877,0.88319993,0
-3.6492214,5.3079586,6.2855992,-0.40546906,0.58977318,0.6983999,0
7.0297155,-3.9733169,3.9743996,0.78107953,-0.44147965,0.44159997,0
-1.3724461,4.8563476,-7.4519987,-0.15249401,0.53959417,-0.82799983,0
1.5470784,-7.3915987,-4.8959999,0.17189759,-0.82128876,-0.54399997,0
-2.0469787,-4.0009131,-7.7976003,-0.22744209,-0.44454589,-0.8664,0
-0.68589121,2.9929795,-8.4600019,-0.076210134,0.33255327,-0.94000024,0
-2.4437501,-3.4910719,7.9272003,-0.2715278,-0.3878969,0.88080001,0
7.557682,-4.7235513,-1.2527993,0.83974242,-0.52483904,-0.13919991,0
-3.7368972,5.6800838,-5.8967996,-0.41521081,0.63112044,-0.65519994,0
-6.2742338,-1.3942741,-6.2999992,-0.69713712,-0.15491934,-0.69999993,0
-7.3799968,-3.0749984,4.1327996,-0.81999964,-0.34166649,0.45919997,0
0,7.112143,5.5151992,0,0.79023814,0.61279988,0
-7.4633131,-0.50886232,-5.0039997,-0.82925701,-0.056540258,-0.55599999,0
4.4947495,-1.7287502,7.6032,0.49941662,-0.19208336,0.8448,0
-8.1459179,-3.0822389,-2.2679999,-0.90510201,-0.342471,-0.25199997,0
-0.68153262,-2.002002,-8.7480001,-0.075725846,-0.22244467,-0.972,0
8.9209366,-1.0495218,0.56160134,0.99121517,-0.11661354,0.062400147,0
-7.4824595,2.8059218,-4.1399999,-0.83138442,0.3117691,-0.45999998,0
1.0778369,-0.35927895,8.9280005,0.11975965,-0.039919883,0.99200004,0
-8.9840736,-0.51337594,0.15120026,-0.9982304,-0.057041772,0.016800029,0
-0.86783111,5.0985069,-7.365602,-0.096425682,0.56650078,-0.8184002,0
5.5394163,-6.132926,-3.5639989,0.61549067,-0.68143624,-0.39599988,0
-4.3248873,4.6575704,6.3720002,-0.48054302,0.51750779,0.708,0
-7.7461891,-0.90071988,-4.4928007,-0.86068767,-0.10007998,-0.49920008,0
-5.7668362,4.4853163,5.256,-0.64075959,0.49836847,0.58399999,0
8.686101,2.1715245,-0.9144004,0.96512234,0.2412805,-0.10160004,0
-4.5411854,-1.3820997,-7.6464005,-0.50457615,-0.15356664,-0.84960008,0
-2.0217519,5.5598178,-6.7823997,-0.2246391,0.61775756,-0.75359994,0
-3.3338408,5.3341465,6.4367995,-0.37042677,0.59268296,0.71519995,0
-2.1501372,6.6039939,-5.724,-0.23890413,0.73377711,-0.63599998,0
8.2614155,-3.4644644,0.86399996,0.91793507,-0.38494051,0.095999993,0
8.5431576,-2.0233796,-1.9799998,0.94923973,-0.22481996,-0.21999997,0
7.0901828,5.0960693,-2.1816003,0.78779811,0.56622994,-0.24240004,0
2.014714,5.7083564,6.6599994,0.2238571,0.63426185,0.73999995,0
7.0483556,-1.9222786,5.2559991,0.78315061,-0.21358651,0.58399987,0
4.7703729,-5.7244487,5.0472002,0.53004146,-0.63604987,0.56080002,0
-1.7906159,0.35812277,8.8127995,-0.19895732,0.03979142,0.97919995,0
-7.3501029,-0.31956941,5.1840005,-0.81667811,-0.035507713,0.57600003,0
6.9871912,4.9492607,2.7719994,0.77635455,0.54991788,0.30799994,0
-8.4748468,2.9056618,-0.85679978,-0.94164968,0.3228513,-0.095199972,0
-1.7264708,1.5398253,-8.6975994,-0.1918301,0.17109171,-0.96639991,0
1.9884908,-5.8329072,-6.5591993,0.22094342,-0.64810079,-0.72879994,0
-1.7076304,5.122889,7.2000003,-0.18973671,0.56920987,0.80000001,0
6.9456978,-5.7053947,-0.4535985,0.77174419,-0.63393277,-0.050399832,0
1.1239388,-8.7105207,1.9655998,0.12488209,-0.96783566,0.21839997,0
5.8060222,-4.1932383,5.4503999,0.64511359,-0.46591535,0.6056,0
3.1859798,-1.8964164,-8.2008009,0.35399777,-0.21071294,-0.91120011,0
-3.5300796,2.2385869,-7.9703994,-0.39223108,0.24873188,-0.88559991,0
-3.8199039,-8.149128,0.007200201,-0.42443377,-0.90545869,0.00080002233,0
6.2742333,1.3942745,-6.2999997,0.69713706,0.15491939,-0.69999999,0
4.1037726,3.4198112,7.2431993,0.45597473,0.37997901,0.80479991,0
3.4644644,-8.2614155,0.86399996,0.38494051,-0.91793507,0.095999993,0
-7.3577089,-2.1022027,-4.7376013,-0.81752324,-0.23357807,-0.52640015,0
5.9925199,4.0489998,-5.3568001,0.66583556,0.44988886,-0.5952,0
0.71884638,0.71884638,8.9424,0.079871818,0.079871818,0.99360001,0
2.42026,-8.6053705,1.0440006,0.26891777,-0.95615226,0.11600007,0
2.8218117,2.1163592,8.2799997,0.31353462,0.23515102,0.91999996,0
-2.9655788,7.7105045,-3.5711994,-0.32950875,0.85672271,-0.39679992,0
-3.7496383,6.7850595,-4.572,-0.41662648,0.75389552,-0.50800002,0
-4.6451998,-7.1789451,-2.8080001,-0.51613331,-0.79766059,-0.31200001,0
7.2502246,5.0193868,1.8000002,0.8055805,0.55770963,0.20000002,0
-4.7249231,5.9849024,4.7807999,-0.52499145,0.66498917,0.53119999,0
-7.3519683,0,5.1912003,-0.81688535,0,0.57680005,0
7.8870864,-3.1133237,-3.0167999,0.87634295,-0.34592485,-0.33519998,0
-3.1143639,-7.1630373,4.4712005,-0.34604043,-0.79589301,0.49680007,0
6.1763873,-5.963408,-2.700001,0.68626523,-0.66260087,-0.3000001,0
3.9781733,-4.9384217,-6.3864017,0.44201925,-0.54871351,-0.70960021,0
8.3660774,-2.4217596,-2.2679999,0.92956418,-0.26908439,-0.25199997,0
5.8839903,5.2646236,4.3199997,0.65377671,0.5849582,0.47999996,0
3.7024736,-7.8405318,-2.4120011,0.41138595,-0.87117022,-0.26800013,0
7.1893363,-1.1437579,-5.2919998,0.79881513,-0.12708421,-0.588,0
-3.914907,8.0908079,0.46079975,-0.43498966,0.89897865,0.051199973,0
4.6847601,4.0155091,6.552,0.52052891,0.44616768,0.72799999,0
-6.3135829,0.99688059,6.336,-0.70150924,0.11076451,0.704,0
0,7.112143,5.5151992,0,0.79023814,0.61279988,0
-5.8750415,3.5903034,5.7959995,-0.65278238,0.39892259,0.64399993,0
-8.2819881,3.5135703,-0.25199893,-0.92022091,0.39039671,-0.027999882,0
-4.5705824,-6.7035208,3.8952,-0.50784248,-0.74483562,0.43279999,0
0.96167904,-8.8955259,-0.97200036,0.10685322,-0.98839176,-0.10800004,0
-4.5685911,6.6625285,-3.9672015,-0.50762123,0.74028093,-0.44080016,0
7.7284212,4.5304537,0.86399871,0.85871345,0.50338376,0.095999859,0
7.9928041,-0.30741525,4.1256003,0.88808936,-0.03415725,0.45840004,0
7.8405318,3.7024736,-2.4120011,0.87117022,0.41138595,-0.26800013,0
-3.9593456,5.2791281,6.1199994,-0.43992728,0.58656979,0.67999995,0
2.7697368,8.5610027,-0.19439894,0.30774853,0.95122254,-0.021599881,0
4.4516435,7.1226311,3.2328002,0.49462706,0.79140347,0.35920003,0
8.2442961,2.8428609,2.2247987,0.91603291,0.31587344,0.24719985,0
-8.0935173,3.7769744,1.1087998,-0.89927971,0.41966382,0.12319998,0
7.0297155,-3.9733169,3.9743996,0.78107953,-0.44147965,0.44159997,0
-2.5145214,-4.8004498,-7.1856008,-0.27939126,-0.53338331,-0.7984001,0
-8.0749054,-3.9151056,-0.68399912,-0.89721173,-0.43501174,-0.075999901,0
0.8816424,-1.8892338,-8.7551985,0.097960263,-0.20991486,-0.97279984,0
4.5103159,-1.0408422,7.7184,0.5011462,-0.11564913,0.85759997,0
1.4350964,-0.35877356,8.8775997,0.15945515,-0.039863728,0.98639995,0
5.4376359,1.3594095,7.0415993,0.60418177,0.1510455,0.78239989,0
6.1784573,0.80588579,-6.4943986,0.68649524,0.089542866,-0.72159982,0
7.0251789,2.2352839,5.1623993,0.78057545,0.24836487,0.57359993,0
-2.6708021,8.546567,0.9072004,-0.29675579,0.94961858,0.10080004,0
1.0561926,-3.5206451,8.2152004,0.11735474,-0.39118278,0.91280007,0
-6.0108571,6.5572991,1.3679997,-0.66787302,0.72858882,0.15199997,0
-6.41366,0.41828176,-6.3000007,-0.7126289,0.046475753,-0.70000005,0
3.2084465,8.3913212,-0.53999865,0.35649407,0.93236899,-0.05999985,0
3.2270141,8.3364525,1.0439998,0.35855711,0.92627251,0.11599997,0
3.6881995,7.0075793,-4.2767992,0.40979993,0.77861995,-0.47519991,0
-0.95992512,8.0633698,-3.8808012,-0.10665835,0.89592999,-0.43120015,0
7.5010142,1.3955373,-4.7736001,0.83344603,0.1550597,-0.53040004,0
-5.3120198,4.1315703,-5.9759994,-0.59022444,0.45906338,-0.66399992,0
-8.8595524,1.1972371,-1.0368004,-0.98439473,0.13302635,-0.11520004,0
-5.6370211,3.4689362,-6.0983996,-0.62633568,0.38543737,-0.67759997,0
4.7090974,-7.4000101,-2.0159986,0.52323306,-0.82222337,-0.22399984,0
-8.9901676,0.24972664,-0.33840072,-0.99890751,0.027747404,-0.037600081,0
-2.2595842,6.7787528,5.4720006,-0.2510649,0.75319475,0.60800004,0
-3.1630466,8.0513897,2.4840009,-0.35144961,0.89459884,0.27600011,0
2.647094,5.9559627,6.2063999,0.29412156,0.66177362,0.68959999,0
7.2904401,3.64522,3.8159995,0.81004888,0.40502444,0.42399994,0
-1.0603819,-3.1811457,8.3520002,-0.11782021,-0.35346064,0.92800003,0
8.1142435,-0.77278489,-3.8160009,0.9015826,-0.085864991,-0.42400011,0
6.5464711,-5.8692493,-1.9224006,0.7273857,-0.65213883,-0.21360007,0
8.5966921,-1.1462252,2.4047995,0.95518804,-0.12735836,0.26719993,0
-5.8360786,-6.8510485,-0.057598904,-0.64845318,-0.76122761,-0.0063998783,0
-7.8335967,-4.2728715,-1.1735994,-0.87039965,-0.47476351,-0.13039993,0
6.5569158,-5.4993486,-2.7863998,0.7285462,-0.61103874,-0.3096,0
0,7.3519692,5.1911993,0,0.81688547,0.57679993,0
0.81611335,-8.3651571,-3.2184,0.090679258,-0.9294619,-0.3576,0
-2.6201968,8.151722,2.772001,-0.29113299,0.90574688,0.30800012,0
-8.8955259,0.96167904,-0.97200036,-0.98839176,0.10685322,-0.10800004,0
4.5137057,1.9491001,-7.5383997,0.50152284,0.21656668,-0.83759999,0
-3.4172626,-2.697839,-7.8768001,-0.37969583,-0.29975989,-0.87520003,0
8.6650734,2.3632014,0.57600111,0.96278596,0.26257792,0.064000122,0
-5.9925199,4.0489998,-5.3568001,-0.66583556,0.44988886,-0.5952,0
1.6578457,-8.7629004,-1.2096002,0.18420509,-0.97365558,-0.13440003,0
0.94695997,-1.1913366,-8.8703995,0.10521778,-0.13237074,-0.98559994,0
3.6492,-5.3334465,-6.2639995,0.40546668,-0.59260517,-0.69599992,0
2.0044465,-8.769455,-0.28079951,0.22271627,-0.97438389,-0.031199945,0
7.0563602,-4.9180694,-2.6495988,0.78404003,-0.54645216,-0.29439986,0
-1.0347731,4.8289404,7.5240002,-0.11497479,0.53654891,0.83600003,0
-6.4817114,-0.14090663,-6.2424006,-0.72019017,-0.015656292,-0.69360006,0
8.4939098,1.7423402,-2.411999,0.94376779,0.19359335,-0.26799989,0
-6.6863155,-3.1759996,-5.1192002,-0.74292397,-0.35288885,-0.56880003,0
5.6800838,3.7368972,-5.8967996,0.63112044,0.41521081,-0.65519994,0
-3.3838696,8.3295259,0.41040042,-0.3759855,0.9255029,0.045600045,0
6.4817133,-0.14090668,-6.2423987,0.72019035,-0.015656298,-0.69359988,0
3.2805469,5.9049835,5.9471993,0.3645052,0.65610927,0.66079992,0
1.3713121,-8.7763948,1.4472003,0.15236801,-0.975155,0.16080004,0
2.1754847,2.6667233,-8.316,0.24172051,0.29630259,-0.92400002,0
-3.1533043,8.4088106,0.59040022,-0.35036716,0.93431228,0.065600023,0
-8.7202759,-2.1140068,0.69840062,-0.96891952,-0.23488964,0.077600069,0
0.50886178,7.4633136,-5.0039997,0.056540199,0.82925707,-0.55599999,0
-4.4398375,-3.073734,7.1999998,-0.49331528,-0.341526,0.79999995,0
5.6215353,-6.7458429,1.9728,0.62461501,-0.74953812,0.2192,0
-7.4127417,4.5616879,2.2895997,-0.82363796,0.50685424,0.25439996,0
-5.5667219,7.0189109,-0.86400056,-0.61852467,0.77987897,-0.09600006,0
-0.92877191,8.8233347,-1.5119997,-0.10319688,0.98037052,-0.16799997,0
3.3469534,0.20491531,-8.3520002,0.37188372,0.022768369,-0.92800003,0
-2.0997601,8.6323462,-1.4400003,-0.23330668,0.9591496,-0.16000003,0
8.2420349,-1.8544581,-3.1031988,0.91578168,-0.2060509,-0.34479988,0
-7.2673607,1.6900842,-5.0328007,-0.80748451,0.18778713,-0.55920005,0
0.41109371,8.4274292,-3.1320014,0.045677081,0.93638104,-0.34800017,0
3.4910729,-2.4437501,7.9271998,0.38789698,-0.2715278,0.88080001,0
-6.093472,6.5809493,-0.74879926,-0.67705244,0.73121661,-0.083199918,0
-2.3863411,-7.5261531,-4.3199997,-0.265149,-0.83623922,-0.47999996,0
-5.184,-6.9120002,2.5199995,-0.57599998,-0.76800001,0.27999994,0
0.38959876,-8.1815825,-3.7296009,0.043288752,-0.90906471,-0.4144001,0
-1.7403756,8.4118156,2.6855991,-0.19337507,0.93464619,0.2983999,0
-3.8106647,-2.7713926,7.6679997,-0.4234072,-0.3079325,0.852,0
5.5648274,-3.9281132,5.8823996,0.61831415,-0.43645704,0.65359998,0
6.5261669,-4.3507781,4.4136009,0.72512966,-0.48341978,0.49040011,0
4.6847601,4.0155091,6.552,0.52052891,0.44616768,0.72799999,0
-5.7887278,6.3676019,2.6351995,-0.64319199,0.70751131,0.29279995,0
-7.703125,-4.4017859,1.5120001,-0.85590279,-0.48908731,0.16800001,0
-8.0442886,-3.6773889,-1.6631997,-0.89380985,-0.40859878,-0.18479997,0
-6.6922016,-3.1867623,5.1047997,-0.74357796,-0.3540847,0.56719995,0
4.5247855,5.4943838,5.5079999,0.50275397,0.6104871,0.61199999,0
1.1437579,-7.1893363,-5.2919998,0.12708421,-0.79881513,-0.588,0
7.1993165,-2.8171237,4.6079993,0.79992408,-0.31301373,0.51199991,0
6.0708437,4.8209639,-4.5719981,0.6745382,0.53566265,-0.50799978,0
2.4437501,-3.4910719,7.9272003,0.2715278,-0.3878969,0.88080001,0
5.6229324,6.9617262,0.95760101,0.62477028,0.77352512,0.10640011,0
-4.5679731,-7.693428,-0.97199959,-0.50755256,-0.85482532,-0.10799995,0
1.3713121,-8.7763948,1.4472003,0.15236801,-0.975155,0.16080004,0
-8.3913212,-3.2084463,-0.54000008,-0.93236899,-0.35649404,-0.06000001,0
6.7787528,2.2595842,5.4720006,0.75319475,0.2510649,0.60800004,0
0,8.7859449,-1.9511992,0,0.97621608,-0.21679991,0
-8.6291933,0.575279,2.4911995,-0.95879924,0.063919887,0.27679995,0
6.5131078,-3.5070581,-5.1263995,0.72367865,-0.38967311,-0.56959993,0
1.9447994,-8.7515993,-0.79200053,0.21608883,-0.97239995,-0.088000059,0
1.6768897,3.5134835,-8.114399,0.18632108,0.39038706,-0.90159988,0
-1.9222786,7.0483556,5.2559991,-0.21358651,0.78315061,0.58399987,0
5.122889,-1.7076304,7.2000003,0.56920987,-0.18973671,0.80000001,0
4.4432106,-6.0300722,4.9896002,0.49369007,-0.670008,0.55440003,0
0,-8.756156,2.0807998,0,-0.97290623,0.23119998,0
0,5.755404,6.9191995,0,0.63948935,0.76879996,0
2.3041122,-6.2540197,6.0480003,0.25601247,-0.6948911,0.67200005,0
0,-5.4571247,7.1568003,0,-0.6063472,0.79520005,0
-5.2791271,3.9593456,6.1199999,-0.58656967,0.43992728,0.68000001,0
-1.4606251,-3.4593751,-8.1791992,-0.16229168,-0.38437501,-0.90879989,0
1.8525701,7.7190413,4.2407999,0.20584112,0.85767126,0.47119999,0
-6.1585007,-5.8652382,2.9448001,-0.68427783,-0.65169311,0.32720003,0
-7.0838633,-1.2879748,5.4000001,-0.7870959,-0.14310831,0.60000002,0
7.8868761,2.1233895,3.7800004,0.87631959,0.23593217,0.42000005,0
6.8240809,-1.5509274,-5.6591997,0.75823122,-0.17232527,-0.62879997,0
8.6730394,-1.1119283,-2.1311994,0.96367103,-0.12354759,-0.23679993,0
3.6940136,-8.1796026,0.66960019,0.41044596,-0.90884471,0.074400023,0
5.6726217,-4.9850321,-4.8959999,0.63029128,-0.55389243,-0.54399997,0
0,8.9981995,0.1799988,0,0.99979997,0.019999867,0
-6.8358445,-2.4413731,-5.3208013,-0.75953829,-0.27126369,-0.59120011,0
-3.2986531,8.3735037,-0.057599116,-0.36651701,0.93038929,-0.0063999016,0
8.0194483,-1.7603667,-3.6864016,0.8910498,-0.19559629,-0.40960017,0
1.3402451,8.8456154,0.97920072,0.14891613,0.98284614,0.10880008,0
8.3295259,3.3838696,0.41040042,0.9255029,0.3759855,0.045600045,0
2.7261291,4.7707262,7.1280003,0.30290323,0.53008068,0.79200006,0
6.4924679,-1.7706732,-5.9759998,0.7213853,-0.19674146,-0.66399997,0
-3.1018543,-2.171298,-8.1648006,-0.34465048,-0.24125534,-0.9072001,0
6.6872854,1.0402443,-5.9327993,0.74303174,0.1155827,-0.65919995,0
4.0155091,-4.6847601,6.552,0.44616768,-0.52052891,0.72799999,0
-6.8579192,4.7707276,3.3479998,-0.76199102,0.53008085,0.37199998,0
-2.0695462,4.4840164,7.5240002,-0.22994958,0.49822405,0.83600003,0
-3.8499677,-1.3999878,8.0135994,-0.42777419,-0.15555421,0.89039993,0
-0.71812594,-1.0771884,8.9063997,-0.079791769,-0.11968759,0.98959994,0
-5.5648265,-3.9281132,5.8824,-0.61831403,-0.43645704,0.65359998,0
-5.3229089,-7.0038276,1.9008001,-0.5914343,-0.77820307,0.21120001,0
7.5225978,-4.9285984,0.34559917,0.83584422,-0.54762203,0.038399909,0
0,-5.1512718,7.3799996,0,-0.57236356,0.81999993,0
5.0936127,-5.4119625,5.0759997,0.56595695,-0.60132915,0.56399995,0
0,-7.9949961,4.1328006,0,-0.8883329,0.45920005,0
5.4038119,-0.68984836,-7.1640019,0.60042357,-0.076649815,-0.79600024,0
-8.686101,2.1715245,-0.9144004,-0.96512234,0.2412805,-0.10160004,0
2.7334223,-7.0043931,-4.9464002,0.30371359,-0.77826589,-0.54960001,0
-5.1582556,4.5514021,-5.8032007,-0.57313949,0.50571132,-0.64480007,0
8.8867369,-0.23386128,-1.4039997,0.98741519,-0.025984587,-0.15599996,0
6.5435605,-3.788377,-4.8815999,0.72706228,-0.42093077,-0.5424,0
-0.44964013,8.7679777,-1.9799992,-0.049960013,0.97421974,-0.21999991,0
-5.2628503,7.0934072,-1.7279998,-0.58476114,0.78815633,-0.19199997,0
-3.1896811,-5.5472717,-6.3288002,-0.35440901,-0.61636353,-0.70320004,0
-7.0838637,1.287975,-5.3999996,-0.78709596,0.14310832,-0.59999996,0
7.3915987,1.5470784,-4.8959999,0.82128876,0.17189759,-0.54399997,0
-2.8218126,-2.1163592,8.2799997,-0.31353474,-0.23515102,0.91999996,0
-2.6321881,7.1946473,-4.7232018,-0.29246533,0.79940528,-0.52480018,0
-3.52653,-0.3526527,8.2728004,-0.39183667,-0.039183632,0.91920006,0
-3.7061493,0.69490284,-8.171999,-0.41179436,0.077211425,-0.90799987,0
-6.5131083,3.5070581,-5.1263986,-0.72367871,0.38967311,-0.56959987,0
-2.0924397,-7.7990923,-3.9744,-0.2324933,-0.86656582,-0.44159999,0
-3.1705682,-1.7614272,8.2368002,-0.35228536,-0.19571413,0.9152,0
-4.946898,-6.1836219,4.2768006,-0.54965532,-0.68706912,0.47520006,0
-1.241744,7.7609019,4.3848,-0.13797157,0.86232245,0.48719999,0
-8.3913212,-3.2084463,-0.54000008,-0.93236899,-0.35649404,-0.06000001,0
-0.5524801,8.8396769,1.5984004,-0.061386678,0.98218632,0.17760004,0
0.5472942,7.8445578,-4.3776002,0.060810465,0.87161756,-0.48640001,0
-0.35638148,2.4946706,-8.6400003,-0.039597943,0.27718562,-0.96000004,0
0.76854652,8.9663849,0.11519893,0.085394055,0.99626499,0.01279988,0
-4.0290933,6.7762022,-4.3416004,-0.44767702,0.75291133,-0.48240006,0
-3.0754035,8.4573584,0.12240071,-0.34171149,0.9397065,0.013600078,0
-1.4350953,-0.35877356,8.8775997,-0.15945503,-0.039863728,0.98639995,0
0.99266088,8.9339437,-0.44640085,0.11029565,0.9926604,-0.049600095,0
-0.65607268,1.5883864,-8.8343983,-0.072896965,0.17648739,-0.98159981,0
7.0896053,-5.5141382,0.57600051,0.78773391,-0.61268204,0.064000055,0
-3.8977079,5.3413038,-6.1055994,-0.43307865,0.5934782,-0.67839992,0
-7.7252607,-3.2683802,3.2616,-0.85836232,-0.36315334,0.3624,0
-4.6352792,-7.2426238,2.6568,-0.51503104,-0.80473596,0.29519999,0
-5.3341455,-3.3338408,6.4368,-0.59268284,-0.37042677,0.71520001,0
-6.0608783,5.3032684,-4.0175986,-0.67343092,0.58925205,-0.44639984,0
-3.2171197,-7.896565,2.8800006,-0.35745776,-0.87739611,0.32000005,0
5.7524304,-5.9507895,-3.5352013,0.63915896,-0.66119885,-0.39280015,0
0.33847627,-5.7541018,6.9120002,0.037608474,-0.63934463,0.76800001,0
-3.524178,6.247406,-5.4359994,-0.39157534,0.69415623,-0.60399991,0
-7.9379406,-4.2170305,-0.45359936,-0.88199341,-0.46855894,-0.050399929,0
-1.76767,-2.8282719,8.3591995,-0.19640778,-0.31425244,0.92879993,0
5.5598178,-7.0761309,-0.12960096,0.61775756,-0.78623676,-0.014400106,0
6.9623966,1.4241261,-5.5223994,0.77359962,0.15823624,-0.61359996,0
0.276521,-8.8486795,1.6200004,0.030724555,-0.9831866,0.18000004,0
1.8544575,8.2420359,-3.1031983,0.20605083,0.91578174,-0.34479982,0
2.6812127,-1.4964908,-8.460001,0.29791251,-0.16627675,-0.94000012,0
-8.348772,-0.29817015,3.348,-0.92764133,-0.033130016,0.37200001,0
-1.603821,-2.2121668,-8.575201,-0.17820233,-0.24579631,-0.9528001,0
4.9384217,3.9781733,-6.3864017,0.54871351,0.44201925,-0.70960021,0
-7.4837685,4.7120032,1.6704004,-0.83152986,0.52355593,0.18560004,0
5.6297741,-5.3170085,4.5864,0.62553048,-0.59077871,0.50959998,0
7.1227255,-3.4065211,4.3199992,0.79141396,-0.37850234,0.4799999,0
-7.557682,4.7235513,-1.2527993,-0.83974242,0.52483904,-0.13919991,0
-5.6714931,-2.6689386,6.4584002,-0.63016587,-0.29654872,0.71760005,0
3.859731,0.70176852,8.0999994,0.428859,0.077974282,0.89999992,0
3.296814,-8.2420349,1.4831994,0.36631265,-0.91578168,0.16479993,0
7.27951,0.99266046,-5.1984,0.80883443,0.11029561,-0.5776,0
3.1060138,-8.1885815,2.0735989,0.34511265,-0.90984237,0.23039988,0
-5.8692493,-6.5464711,-1.9224006,-0.65213883,-0.7273857,-0.21360007,0
7.5301952,-1.5687909,4.6727996,0.83668834,-0.1743101,0.51919997,0
8.5337772,2.8445928,0.28800055,0.94819748,0.31606588,0.032000061,0
-0.91782242,-1.5786546,-8.8128004,-0.10198027,-0.17540607,-0.97920007,0
-7.0679069,-1.6063428,5.3351998,-0.78532296,-0.17848253,0.59279996,0
8.1535921,0.58239883,-3.7656009,0.90595466,0.064710982,-0.41840011,0
-2.674526,-7.6415038,-3.9312,-0.29716957,-0.84905601,-0.4368,0
-7.1980519,5.3318906,0.8712011,-0.79978353,0.59243226,0.096800119,0
3.723243,4.4001956,6.9119997,0.41369367,0.48891062,0.76799995,0
-3.7660894,-2.5421102,-7.7687998,-0.41845438,-0.2824567,-0.86319995,0
-5.0954947,2.3778973,7.0271997,-0.5661661,0.26421082,0.78079998,0
7.7284217,-4.5304532,0.86399943,0.85871351,-0.5033837,0.095999934,0
1.428144,1.7851794,8.7047997,0.15868266,0.19835326,0.96719998,0
4.126348,7.9947982,0.23759928,0.4584831,0.88831091,0.02639992,0
-3.4925404,-0.071276262,-8.2944002,-0.38806003,-0.0079195844,-0.92160004,0
-2.3411412,8.1939917,2.8944011,-0.2601268,0.91044354,0.32160011,0
-5.5430832,2.6395631,-6.5808005,-0.61589813,0.29328477,-0.73120004,0
3.7368972,-5.6800838,-5.8967996,0.41521081,-0.63112044,-0.65519994,0
0.62303811,2.4921525,-8.6256018,0.069226459,0.27690583,-0.95840019,0
-5.0936117,5.411963,5.0759997,-0.56595683,0.60132921,0.56399995,0
5.4943838,-4.5247855,5.5079999,0.6104871,-0.50275397,0.61199999,0
-6.7133002,-5.9077044,1.0152,-0.74592227,-0.65641159,0.1128,0
-2.002002,-0.68153262,-8.7480001,-0.22244467,-0.075725846,-0.972,0
-7.2497063,-5.1449528,-1.404,-0.80552292,-0.57166141,-0.156,0
-6.0108571,-6.5572991,1.3679997,-0.66787302,-0.72858882,0.15199997,0
-6.6039939,-2.1501372,-5.724,-0.73377711,-0.23890413,-0.63599998,0
7.0539799,-0.15675497,-5.5871992,0.78377557,-0.017417219,-0.6207999,0
3.2393527,6.1701956,-5.6951981,0.35992807,0.68557727,-0.6327998,0
0.54644126,4.3715301,-7.8480015,0.060715694,0.48572555,-0.87200016,0
-2.9056618,-8.4748468,-0.85679978,-0.3228513,-0.94164968,-0.095199972,0
-4.5816221,-6.1675682,-4.6871991,-0.50906914,-0.68528533,-0.52079988,0
0.26238045,3.2141588,-8.402401,0.029153384,0.35712874,-0.93360013,0
-8.4429264,0.20592484,-3.1103997,-0.93810296,0.022880537,-0.34559998,0
5.5295997,5.184,-4.8528004,0.61439997,0.57599998,-0.53920007,0
8.1271229,3.3629472,1.907999,0.90301365,0.3736608,0.21199989,0
-6.4924679,1.7706732,-5.9759998,-0.7213853,0.19674146,-0.66399997,0
-8.1101027,3.3792088,-1.9512002,-0.90112251,0.37546766,-0.21680003,0
3.0737331,-4.4398379,7.2000003,0.34152591,-0.49331534,0.80000001,0
-5.0124102,3.6757679,6.5087996,-0.55693448,0.40841866,0.72319996,0
-0.30291358,8.1786737,3.7440007,-0.033657063,0.90874153,0.41600007,0
0.31956941,7.3501039,5.1839995,0.035507713,0.81667823,0.57599998,0
-2.1404717,-1.0702358,8.6759996,-0.23783019,-0.1189151,0.96399999,0
-0.19953226,4.7887721,-7.6176014,-0.022170251,0.53208578,-0.84640014,0
-0.81611276,-8.3651581,-3.2183998,-0.090679199,-0.92946202,-0.35759997,0
0.0031444703,0.002358353,-8.999999,0.00034938558,0.00026203922,-0.99999988,0
-2.8405623,-0.71014088,8.5103998,-0.31561804,-0.078904539,0.94559997,0
7.0614171,0,-5.5799994,0.78460193,0,-0.61999995,0
-8.9339437,-0.99266016,-0.4464007,-0.9926604,-0.11029557,-0.04960008,0
-7.710505,2.9655783,-3.5711987,-0.85672277,0.32950869,-0.39679986,0
-5.2286081,-5.0652142,-5.2919998,-0.58095646,-0.5628016,-0.588,0
5.7148223,-5.7148223,-3.960001,0.63498026,-0.63498026,-0.44000012,0
-2.4202607,8.6053705,1.0440003,-0.26891786,0.95615226,0.11600003,0
5.5191345,-0.58714205,-7.0848022,0.61323714,-0.065238006,-0.78720021,0
0.90071988,7.7461891,-4.4928007,0.10007998,0.86068767,-0.49920008,0
8.0007515,1.1429645,-3.960001,0.8889724,0.12699606,-0.44000012,0
7.6695204,-2.2447376,-4.1400018,0.85216892,-0.24941529,-0.46000019,0
2.2290945,6.3900723,-5.9327998,0.24767716,0.71000803,-0.65919995,0
2.2813888,-4.9049864,-7.1928,0.25348765,-0.54499847,-0.7992,0
-3.7368972,-5.6800838,-5.8967996,-0.41521081,-0.63112044,-0.65519994,0
1.7084495,-8.5422468,2.2607994,0.18982773,-0.94913852,0.25119993,0
-5.3120189,-4.1315699,-5.9760008,-0.59022433,-0.45906332,-0.66400009,0
4.8915939,6.4202156,3.9816,0.54351044,0.71335727,0.44240001,0
-4.3002744,6.7575755,4.1039996,-0.47780827,0.75084174,0.45599997,0
-6.1280417,-5.2088351,4.0392008,-0.68089354,-0.57875943,0.44880009,0
6.5131083,3.5070581,-5.1263986,0.72367871,0.38967311,-0.56959987,0
-8.4748468,-2.9056618,-0.85679978,-0.94164968,-0.3228513,-0.095199972,0
-6.0708432,-4.8209634,-4.5719995,-0.67453814,-0.53566259,-0.50799996,0
-6.1772432,3.2511814,5.6807995,-0.68636036,0.36124238,0.63119996,0
6.7141457,5.7880564,-1.5552009,0.7460162,0.64311737,-0.17280011,0
0,-2.1443918,8.7407999,0,-0.23826575,0.97119999,0
-5.7148223,-5.7148223,-3.960001,-0.63498026,-0.63498026,-0.44000012,0
-6.2753434,-0.68210268,-6.4152007,-0.69726038,-0.075789183,-0.71280009,0
-5.213357,-4.561687,5.7456002,-0.5792619,-0.50685412,0.63840002,0
6.2834182,-4.3983922,4.7088008,0.69815755,-0.48871025,0.52320009,0
5.3787432,2.6893704,6.6959996,0.59763813,0.29881895,0.74399996,0
-6.8954048,-3.4477029,4.6439996,-0.76615608,-0.3830781,0.51599997,0
0.99688059,6.3135829,6.336,0.11076451,0.70150924,0.704,0
3.296814,-8.2420349,1.4831994,0.36631265,-0.91578168,0.16479993,0
3.2511814,-6.1772432,5.6807995,0.36124238,-0.68636036,0.63119996,0
-2.470114,-2.470114,8.2944002,-0.2744571,-0.2744571,0.92160004,0
-2.0577769,-8.2311087,3.0023999,-0.22864188,-0.91456765,0.33359998,0
1.8441,4.0570202,-7.8191996,0.2049,0.45078003,-0.86879992,0
4.6352797,7.2426238,2.6567993,0.5150311,0.80473596,0.29519993,0
8.8867369,0.23386128,-1.4039997,0.98741519,0.025984587,-0.15599996,0
-0.29317325,-8.5020323,2.9375992,-0.032574806,-0.94467026,0.32639992,0
3.5134835,1.6768897,-8.114399,0.39038706,0.18632108,-0.90159988,0
7.557682,4.7235513,-1.2527993,0.83974242,0.52483904,-0.13919991,0
-5.8420715,3.8947144,5.6303997,-0.64911908,0.43274605,0.62559998,0
3.723243,-4.4001956,6.9119997,0.41369367,-0.48891062,0.76799995,0
6.4415464,5.0751576,-3.7079988,0.71572739,0.56390643,-0.41199985,0
2.8141589,-2.4623892,8.1864004,0.31268433,-0.27359879,0.90960002,0
0.27492267,-1.4968017,-8.8704004,0.030546963,-0.16631131,-0.98560005,0
-0.68589252,-2.9929852,-8.4599991,-0.076210283,-0.33255392,-0.93999988,0
2.2385869,-3.5300796,-7.9703994,0.24873188,-0.39223108,-0.88559991,0
-0.71812594,-1.0771884,8.9063997,-0.079791769,-0.11968759,0.98959994,0
0.51337516,-8.9840736,0.15120035,0.057041686,-0.9982304,0.016800039,0
-8.1042194,-2.8943641,2.6352,-0.90046883,-0.32159603,0.29280001,0
2.7334223,-7.0043931,-4.9464002,0.30371359,-0.77826589,-0.54960001,0
-4.386981,7.3116345,2.8799999,-0.48744234,0.81240386,0.31999999,0
-6.5636954,5.707561,2.3112006,-0.72929949,0.63417345,0.25680006,0
-3.7377505,-1.0338459,-8.1216002,-0.41530561,-0.11487177,-0.90240002,0
5.2791281,3.9593456,6.1199994,0.58656979,0.43992728,0.67999995,0
4.8129716,5.4547029,5.2992001,0.5347746,0.60607809,0.58880001,0
3.4076624,-7.880218,-2.7000008,0.37862915,-0.87557977,-0.30000007,0
-3.4775324,-3.0911398,-7.7040005,-0.38639247,-0.34345996,-0.85600007,0
2.697839,3.4172626,-7.8768001,0.29975989,0.37969583,-0.87520003,0
