2.6812685,3.0643063,8.9140806,0.27359882,0.3126843,0.90960002,0
7.3441176,-6.1200981,-2.1560006,0.74939972,-0.6244998,-0.22000006,0
-9.7770805,-0.54317141,-0.39200085,-0.99766123,-0.055425651,-0.040000085,0
-2.2376022,-7.4013004,-6.0211205,-0.22832675,-0.75523472,-0.61440003,0
-5.8788242,-7.8384318,0.19599968,-0.59988004,-0.79983997,0.019999968,0
7.460031,-6.3548412,-0.062718809,0.76122767,-0.64845318,-0.0063998783,0
-2.105562,-6.6174808,-6.9148798,-0.21485326,-0.67525315,-0.70559996,0
-3.9746857,4.3473129,-7.8321609,-0.40558016,0.44360334,-0.79920006,0
4.0541978,4.7913241,7.5264001,0.41369364,0.48891062,0.76800001,0
2.6060777,5.2121553,7.8792005,0.2659263,0.5318526,0.80400002,0
4.0213013,-7.7074933,4.5236802,0.41033685,-0.78647888,0.46160001,0
5.7841997,4.4988213,-6.5071998,0.59022444,0.45906338,-0.66399997,0
7.0301695,0.30565926,-6.8207984,0.71736419,0.031189721,-0.6959998,0
-8.1757631,2.0439408,5.0019197,-0.83426154,0.20856538,0.51039994,0
8.7020826,2.9006941,-3.449599,0.88796759,0.29598919,-0.35199991,0
4.4786854,6.890285,5.3390408,0.45700869,0.70309031,0.54480004,0
9.4817019,-2.4381518,-0.43904138,0.96752059,-0.24879099,-0.04480014,0
1.6258878,8.5359125,-4.5315208,0.16590691,0.87101144,-0.46240008,0
-4.1251221,7.1252103,-5.3155198,-0.4209308,0.72706228,-0.54239994,0
-1.5845728,9.1905203,3.0105591,-0.1616911,0.93780816,0.3071999,0
8.9746609,2.0192983,-3.3790381,0.91578168,0.20605084,-0.34479979,0
-3.0898757,-1.1587032,9.2276802,-0.31529343,-0.11823502,0.94160002,0
-8.8171768,1.9593729,3.8024008,-0.89971191,0.199936,0.38800007,0
7.0277195,6.7348981,1.136799,0.71711421,0.68723446,0.11599989,0
-4.139513,-6.8391953,-5.6683192,-0.42239928,-0.69787705,-0.5783999,0
0.33939111,8.484786,4.8921599,0.034631744,0.86579448,0.49919999,0
-6.6104736,5.2494931,-4.9783993,-0.67453814,0.53566253,-0.5079999,0
-1.5904584,-3.766875,-8.9062395,-0.16229168,-0.38437501,-0.90879995,0
8.878356,-0.63416827,-4.1003213,0.90595466,-0.064711049,-0.41840014,0
7.5805459,-6.1227493,1.0427201,0.77352506,-0.62477034,0.10640001,0
-3.3483317,8.0359964,4.5001597,-0.34166649,0.81999964,0.45919997,0
-4.8043914,-1.1244321,-8.4672003,-0.490244,-0.11473797,-0.86400002,0
-3.0177386,4.1493907,8.3495998,-0.3079325,0.4234072,0.85199994,0
8.2263203,4.9856486,-1.8737588,0.83942044,0.50873965,-0.19119987,0
-0.30746368,9.5313835,2.25792,-0.031373844,0.97259015,0.2304,0
-0.38231522,-4.205472,8.8435202,-0.039011758,-0.42912978,0.90240002,0
-3.8013895,-2.6609726,8.6318407,-0.38789687,-0.2715278,0.88080007,0
0.26354507,-9.7511768,-0.94080031,0.026892353,-0.99501801,-0.096000031,0
7.6304755,-4.0160398,-4.6569595,0.77861995,-0.40979996,-0.47519994,0
8.5984821,-3.5030859,3.1360006,0.87739611,-0.35745773,0.32000005,0
3.61168,7.8253064,-4.6647992,0.36853877,0.79850066,-0.47599992,0
-4.6242709,-7.5970168,4.1160007,-0.47186437,-0.77520579,0.42000005,0
6.802731,-3.8374383,-5.919199,0.69415623,-0.39157534,-0.60399991,0
1.1653669,-2.3307359,9.4471998,0.118915,-0.23783022,0.96400005,0
1.8176973,4.8115511,-8.3417597,0.18547931,0.49097461,-0.85119992,0
-8.1923466,0,-5.3782401,-0.83595371,0,-0.54879999,0
-9.5565195,1.4932066,1.5758404,-0.97515506,0.15236802,0.16080004,0
-5.112606,-8.3416204,-0.56448007,-0.52169448,-0.85118574,-0.057600006,0
4.6056113,-6.0227222,6.2092805,0.46996033,-0.61456347,0.63360006,0
-3.0630229,-9.1890688,-1.4896009,-0.31255335,-0.93766004,-0.15200008,0
-4.8642373,6.0802975,-5.9505615,-0.49635074,0.62043852,-0.60720015,0
-2.405973,7.9053411,5.2684793,-0.24550743,0.80666745,0.53759992,0
-8.4951563,0.7902475,-4.8216009,-0.86685264,0.0806375,-0.49200007,0
7.476068,-5.4371409,-3.2535996,0.76286405,-0.55481029,-0.33199996,0
0,9.5669174,-2.1246393,0,0.97621602,-0.21679991,0
6.2472501,-6.9413896,-2.9713597,0.63747448,-0.70830506,-0.30319998,0
5.0924911,1.083509,-8.3025627,0.51964194,0.11056214,-0.84720027,0
-2.1386824,8.1658773,-4.9784017,-0.21823289,0.83325279,-0.50800014,0
9.7139091,1.1428134,0.6115213,0.99121523,0.11661361,0.062400132,0
7.3175173,6.5044608,-0.43119955,0.74668545,0.66372049,-0.043999955,0
5.6975985,7.7967134,1.6699204,0.58138758,0.79558295,0.17040004,0
1.1119255,5.9302754,7.7223997,0.11346179,0.60513014,0.78799993,0
-6.7186565,6.2707453,-3.4025593,-0.68557721,0.63987195,-0.34719992,0
3.6806283,5.1528778,7.4793601,0.37557432,0.52580386,0.76319999,0
0.38805985,2.7164211,9.408,0.039597943,0.27718583,0.95999998,0
7.6566548,0.34029546,-6.1073594,0.78129131,0.034724027,-0.62319994,0
6.8331542,0.74273437,-6.9854388,0.69726062,0.075789221,-0.71279985,0
2.7500293,9.1667681,2.1089599,0.28061524,0.93538445,0.21519999,0
9.1519976,3.2474833,1.3171197,0.93387729,0.33137584,0.13439997,0
-1.746383,-2.4088039,-9.3374414,-0.17820235,-0.24579632,-0.95280015,0
5.5154557,-5.6933732,-5.7623997,0.5628016,-0.58095646,-0.58799994,0
-6.2472501,-6.9413896,-2.9713597,-0.63747448,-0.70830506,-0.30319998,0
2.1183674,-7.5908165,-5.8251204,0.21615994,-0.77457309,-0.59440005,0
2.0649869,3.4691782,-8.9297609,0.21071295,0.35399777,-0.91120011,0
-1.2990544,3.5150883,-9.0551987,-0.13255657,0.35868248,-0.92399985,0
-4.1008511,4.9210215,-7.4166417,-0.41845417,0.50214505,-0.75680017,0
-6.4853816,-4.6838861,-5.6604805,-0.66177362,-0.47794753,-0.57760006,0
2.8380694,9.2882261,-1.3092811,0.28959891,0.94777817,-0.13360012,0
1.2711449,-9.2157965,3.0811191,0.12970866,-0.94038737,0.3143999,0
0,-7.6890984,-6.0759993,0,-0.78460187,-0.61999989,0
-6.0403628,-3.4732084,-6.8913603,-0.61636353,-0.35440901,-0.70320004,0
1.0854923,6.8747907,6.8992004,0.11076451,0.70150924,0.70400006,0
2.3645489,9.4581995,-0.99568045,0.2412805,0.9651224,-0.10160004,0
6.0211201,5.6448002,-5.2841601,0.61439997,0.57600003,-0.53920001,0
0.31350169,-9.4050598,2.7361596,0.031989966,-0.95969999,0.27919996,0
4.331789,-5.3773928,-6.954082,0.44201928,-0.54871356,-0.70960021,0
-4.100853,2.7680755,-8.4593601,-0.41845438,0.28245667,-0.86320001,0
0.33474106,8.7032757,4.4923205,0.03415725,0.88808936,0.45840004,0
1.1267518,5.2581797,8.1928005,0.11497467,0.53654891,0.83600003,0
8.8915768,3.8106749,-1.5680008,0.90730375,0.38884437,-0.16000007,0
-8.9971581,3.1611633,-2.2579203,-0.91807735,0.32256767,-0.23040003,0
-6.9958549,4.9970393,-4.704,-0.71386272,0.50990194,-0.47999999,0
-2.8823922,6.4853816,6.7580795,-0.29412165,0.66177362,0.68959993,0
-1.4191912,-4.0801749,-8.7964811,-0.14481543,-0.41634437,-0.89760011,0
6.1961994,7.1494613,-2.5558403,0.63226521,0.72953683,-0.26080003,0
0,1.9501759,9.6040001,0,0.19899754,0.98000002,0
-0.63416827,-8.878356,-4.1003213,-0.064711049,-0.90595466,-0.41840014,0
6.0802975,-4.8642373,-5.9505615,0.62043852,-0.49635074,-0.60720015,0
9.2882261,-2.8380694,-1.3092811,0.94777817,-0.28959891,-0.13360012,0
-1.4174579,7.4416547,6.2171206,-0.14463857,0.75935251,0.63440007,0
7.7961612,-4.547761,-3.8180811,0.79552662,-0.46405724,-0.3896001,0
1.1982646,9.5861111,1.6464002,0.1222719,0.97817457,0.16800001,0
-4.1334724,-8.0493937,-3.7632003,-0.42178288,-0.82136667,-0.38400003,0
-8.5881615,3.3900633,-3.2849593,-0.87634301,0.34592482,-0.33519992,0
-9.5481348,2.025362,0.87808096,-0.97429943,0.20666958,0.089600094,0
9.3870707,0.46935311,-2.7753584,0.95786434,0.047893174,-0.28319985,0
3.4317362,7.549819,5.2214389,0.35017717,0.77038968,0.5327999,0
-0.42073825,5.0488605,-8.3888016,-0.042932473,0.51518983,-0.85600013,0
5.3440971,-2.1862218,-7.9184003,0.54531604,-0.22308385,-0.80800003,0
-4.6056113,-6.0227222,6.2092805,-0.46996033,-0.61456347,0.63360006,0
8.8915758,-3.8106754,-1.5680015,0.90730363,-0.38884443,-0.16000015,0
2.317884,2.317884,9.2355204,0.23651877,0.23651877,0.94240004,0
-1.1622784,-2.7119825,9.3452806,-0.11859984,-0.27673289,0.95360005,0
-2.9061775,-6.1756258,7.0324802,-0.29654872,-0.63016587,0.71759999,0
-8.4779911,-0.6782397,4.8686399,-0.8651011,-0.06920813,0.49679998,0
2.8644228,-6.6836529,-6.5699215,0.29228804,-0.68200541,-0.67040014,0
3.589864,8.9746599,1.6150393,0.36631265,0.91578162,0.16479993,0
-7.62639,-5.7960563,2.0697601,-0.77820307,-0.5914343,0.2112,0
-4.0213013,-7.7074933,4.5236802,-0.41033685,-0.78647888,0.46160001,0
7.5939736,-6.1876826,0.29008085,0.77489525,-0.63139617,0.029600086,0
-6.138164,-6.784287,3.5123198,-0.62634325,-0.69227415,0.35839999,0
5.5646048,-2.2258422,7.7537608,0.56781679,-0.22712675,0.79120004,0
-3.0930569,-0.77326453,9.26688,-0.31561804,-0.078904539,0.94559997,0
8.592762,-4.7121592,2.336502e-07,0.87681246,-0.48083255,2.3841856e-08,0
-2.2864053,-9.3996668,-1.5680003,-0.23330666,-0.95914966,-0.16000003,0
-4.4643826,8.6661549,-1.0035188,-0.45554924,0.88430148,-0.10239988,0
8.6580725,4.3290367,-1.5287991,0.88347679,0.44173843,-0.1559999,0
-9.5861111,-1.1982638,1.6464005,-0.97817457,-0.12227181,0.16800004,0
2.7164192,-0.38805985,-9.4080009,0.27718562,-0.039597943,-0.9600001,0
-7.1575813,-4.4308834,5.0176001,-0.73036546,-0.45213094,0.51200002,0
-9.6873283,0.88066542,1.191681,-0.98850286,0.089863814,0.1216001,0
8.4264507,-3.5479791,-3.5279996,0.85984188,-0.36203867,-0.35999995,0
-2.02562,6.8559446,-6.7031999,-0.20669591,0.69958615,-0.68399996,0
6.4650297,6.4650297,3.5280008,0.65969688,0.65969688,0.36000007,0
8.7762146,-3.9341645,1.8815992,0.89553207,-0.40144536,0.19199991,0
3.0955598,-8.9771223,2.4225588,0.31587344,-0.91603285,0.24719988,0
-4.9210238,-0.5126068,-8.4593592,-0.50214529,-0.052306816,-0.86319989,0
0.37336817,-3.0491734,-9.3060808,0.038098793,-0.31114012,-0.94960004,0
-7.9133487,-1.8403136,-5.4801607,-0.80748457,-0.1877871,-0.55920005,0
-7.3441176,-6.1200981,-2.1560006,-0.74939972,-0.6244998,-0.22000006,0
-3.589864,-8.9746599,1.6150393,-0.36631265,-0.91578162,0.16479993,0
-6.2228069,-6.2228069,-4.3120012,-0.63498026,-0.63498026,-0.44000012,0
-8.8322916,-1.7233742,-3.8808,-0.90125424,-0.17585452,-0.396,0
-6.1921506,7.4821825,-1.3092813,-0.63185209,0.76348799,-0.13360013,0
-0.81305754,-9.75669,-0.43120083,-0.082965054,-0.99558061,-0.044000085,0
1.4445188,-9.3893719,-2.4068792,0.14739987,-0.95809913,-0.24559991,0
9.5659695,-1.2586806,-1.7169598,0.97611934,-0.12843679,-0.17519999,0
1.673615,-9.3244276,-2.5087991,0.17077704,-0.95147216,-0.25599989,0
6.3221135,-4.5659704,5.9348798,0.64511359,-0.46591535,0.60559994,0
8.2392206,4.8825021,2.0776002,0.84073681,0.49821448,0.21200003,0
1.7012621,9.6404848,0.45472139,0.17359817,0.98372293,0.046400141,0
2.9458265,8.5101671,3.8651209,0.30059454,0.86838436,0.39440009,0
-9.193409,-0.22422928,-3.3868799,-0.93810296,-0.022880537,-0.34559998,0
-0.61432827,9.5220833,2.2343998,-0.062686555,0.97164112,0.22799997,0
3.4583108,-7.2806549,-5.5742402,0.35288885,-0.74292397,-0.56880003,0
-8.8981161,-0.65912014,4.0532808,-0.90797102,-0.067257158,0.41360009,0
4.2697072,-3.0654309,-8.2711992,0.43568441,-0.31279907,-0.84399992,0
-8.2023754,5.2918549,-0.87023973,-0.83697706,0.53998518,-0.088799968,0
-9.3778458,2.6049578,-1.1446412,-0.95692301,0.26581201,-0.11680011,0
5.3681283,-8.0521908,1.5444807,0.54776818,-0.82165211,0.15760006,0
7.1062708,-4.737514,4.8059211,0.72512966,-0.48341978,0.49040011,0
3.2048256,-8.6530266,3.3006406,0.32702303,-0.88296187,0.33680004,0
-6.307961,-5.1947913,-5.4096003,-0.64366949,-0.53008074,-0.55199999,0
8.8450832,-1.6379789,3.8886409,0.90255952,-0.16714071,0.39680007,0
-3.25648,-6.1511278,6.8992004,-0.33229387,-0.62766612,0.70400006,0
2.5867727,8.6225748,-3.8729587,0.2639564,0.87985456,-0.39519987,0
6.62254,6.62254,2.8851216,0.67576939,0.67576939,0.29440016,0
7.713541,-1.4024615,5.8799992,0.78709602,-0.14310832,0.5999999,0
-9.1519976,3.2474833,1.3171197,-0.93387729,0.33137584,0.13439997,0
6.1301985,-5.7896314,4.9940801,0.62553042,-0.59077871,0.50959998,0
5.1528778,-3.6806273,7.4793606,0.52580386,-0.3755742,0.76320004,0
2.1370869,-7.1236224,6.3817606,0.21807009,-0.72690022,0.65120006,0
0.98727894,-8.8855181,4.014081,0.10074275,-0.90668547,0.40960011,0
-8.4264498,3.5479796,-3.5280004,-0.85984182,0.36203873,-0.36000001,0
6.1849804,4.069066,-6.4209599,0.63112044,0.41521081,-0.6552,0
-7.4221659,-6.2346196,1.4425597,-0.75736386,-0.63618565,0.14719997,0
6.9170403,-6.0245185,-3.4495993,0.70582044,-0.61474675,-0.35199991,0
8.6163349,4.1850767,-2.0697618,0.8792178,0.42704862,-0.21120018,0
-7.7135406,1.4024616,-5.8799996,-0.78709596,0.14310832,-0.59999996,0
-6.5251884,-4.4089108,-5.8329606,-0.66583556,-0.44988886,-0.59520006,0
-8.592762,-4.7121592,2.336502e-07,-0.87681246,-0.48083255,2.3841856e-08,0
-8.1475668,-3.0553377,-4.5080004,-0.83138436,-0.31176916,-0.46000004,0
5.5490537,-7.7204218,-2.3755205,0.56622994,-0.78779811,-0.24240005,0
4.7769341,-7.9615579,3.1360006,0.48744226,-0.81240386,0.32000005,0
3.8257933,1.8259466,-8.8356791,0.39038706,0.18632108,-0.90159988,0
-0.52959019,1.95541,-9.5883217,-0.054039814,0.19953163,-0.97840017,0
4.1008554,2.7680774,-8.4593582,0.41845462,0.28245687,-0.86319983,0
4.974689,-7.2547541,-4.31984,0.50762129,-0.74028099,-0.44079998,0
3.3050404,-5.5084023,7.4009604,0.33724901,-0.56208187,0.75520003,0
2.5943518,4.7375121,-8.1771221,0.26472977,0.4834196,-0.83440018,0
2.8570313,6.7854509,6.4680004,0.2915338,0.69239295,0.66000003,0
8.3754177,-2.3451166,4.5158401,0.85463446,-0.23929761,0.46079999,0
-4.0223703,8.9066782,0.72912019,-0.41044596,0.90884471,0.074400015,0
0.22313,-3.6444604,-9.0944004,0.022768367,-0.37188372,-0.92800003,0
2.7389324,7.874433,5.1508799,0.2794829,0.80351359,0.52559996,0
-4.4532995,-8.6097126,1.4425589,-0.4544183,-0.87854207,0.14719988,0
3.7599328,3.7599328,8.2319994,0.3836666,0.3836666,0.83999991,0
5.0107512,-2.9331226,-7.8948822,0.51130116,-0.29929823,-0.80560023,0
-3.0630229,9.1890688,-1.4896009,-0.31255335,0.93766004,-0.15200008,0
-0.38046184,-4.5655465,8.6632004,-0.038822636,-0.46587208,0.884,0
5.5870128,-1.4574817,-7.9183989,0.57010335,-0.14872262,-0.80799985,0
-1.9403026,-1.9403026,-9.408,-0.19799006,-0.19799006,-0.95999998,0
1.3698262,8.2189531,5.1587195,0.13977818,0.83866864,0.52639997,0
0,-7.7443328,6.0054402,0,-0.79023802,0.6128,0
6.1236329,3.6021376,6.7502394,0.62486047,0.36756504,0.68879992,0
1.3459938,9.6911535,-0.55664092,0.1373463,0.98889321,-0.056800094,0
-3.1569026,-5.8833184,-7.1735997,-0.32213292,-0.60033858,-0.73199993,0
9.1133146,-2.9556696,-2.0619204,0.92993003,-0.30159894,-0.21040003,0
-5.1231146,7.6846724,3.2771199,-0.52276677,0.78415024,0.33439997,0
1.5507152,7.5812764,-6.0132794,0.15823624,0.77359962,-0.61359996,0
6.4328341,-7.3100376,1.1054391,0.65641165,-0.74592221,0.11279991,0
3.5918665,-2.6708753,-8.7180805,0.36651698,-0.2725383,-0.88960004,0
-9.1256056,-3.3895104,-1.1289597,-0.93118423,-0.34586841,-0.11519996,0
1.2282301,-6.2776227,-7.4244804,0.1253296,-0.64057374,-0.75760001,0
-7.3354087,-6.4890151,0.35280079,-0.74851108,-0.66214436,0.03600008,0
-6.421041,6.0067806,-4.3276811,-0.65520823,0.61293679,-0.44160011,0
6.0227232,-4.6056113,6.2092795,0.61456358,-0.46996033,0.63359994,0
-1.2715313,7.1523628,-6.5777593,-0.12974809,0.72983295,-0.67119992,0
8.4620256,-4.3518991,-2.3441615,0.86347198,-0.44407132,-0.23920015,0
0.75116819,5.884151,-7.8008022,0.076649815,0.60042357,-0.79600018,0
7.5871606,-3.1038382,5.370399,0.77420002,-0.31671819,0.54799986,0
4.1251221,7.1252098,-5.3155208,0.4209308,0.72706223,-0.54240006,0
5.1947923,6.3079624,-5.4095974,0.53008085,0.64366961,-0.55199975,0
-0.75116861,-5.8841538,-7.8008003,-0.07664986,-0.60042387,-0.796,0
1.4191934,-1.6852922,-9.5491199,0.14481565,-0.17196859,-0.97439998,0
9.1626024,-2.1144469,-2.7596793,0.93495941,-0.21575989,-0.28159994,0
7.9244137,4.7546477,-3.2614408,0.8086136,0.48516813,-0.33280006,0
6.2424445,0.26563567,-7.549922,0.63698411,0.02710568,-0.77040017,0
3.7599328,-3.7599318,8.2320004,0.3836666,-0.38366652,0.84000003,0
-5.1947923,6.3079615,-5.4095988,-0.53008085,0.64366955,-0.55199987,0
-2.830056,-7.0751381,6.1622405,-0.28878123,-0.72195286,0.62880003,0
6.1436739,-5.9454913,-4.7902408,0.6269055,-0.60668278,-0.48880008,0
-5.8390265,7.5420761,-2.2500806,-0.595819,0.76959962,-0.22960006,0
-9.534481,0,2.2657599,-0.97290623,0,0.23119999,0
8.1757631,-2.0439408,5.0019197,0.83426154,-0.20856538,0.51039994,0
-4.5577855,1.1394452,8.6004801,-0.46508014,0.11626992,0.87760001,0
-7.2993894,-4.9768567,4.2414398,-0.74483562,-0.50784254,0.43279997,0
-8.1658773,-2.1386824,-4.9784017,-0.83325279,-0.21823289,-0.50800014,0
0.38687009,-3.094964,9.2904005,0.03947654,-0.31581265,0.94800001,0
-5.0924954,-1.0835096,-8.3025599,-0.51964235,-0.1105622,-0.84719998,0
3.8554869,8.8972778,1.4190396,0.39341703,0.90788549,0.14479996,0
3.4691782,2.0649869,-8.9297609,0.35399777,0.21071295,-0.91120011,0
-5.9123163,7.7935085,-0.58800095,-0.60329759,0.79525596,-0.060000096,0
2.0081742,-3.0494499,-9.0943995,0.20491573,-0.31116834,-0.92799991,0
-2.4604361,7.3813086,5.9584007,-0.2510649,0.75319475,0.60800004,0
-9.6587238,-1.6557814,-0.086239696,-0.98558402,-0.16895728,-0.0087999692,0
-6.2118287,-6.5387669,3.8337605,-0.63386005,-0.66722107,0.39120004,0
-4.3814311,8.7628622,-0.23519956,-0.44708478,0.89416957,-0.023999954,0
7.4626265,-4.0705233,4.8764791,0.76149249,-0.4153595,0.4975999,0
8.1995459,1.7082391,5.0881596,0.83668834,0.1743101,0.51919997,0
2.3643062,3.3775804,-8.8905573,0.24125573,0.34465104,-0.90719968,0
7.3881764,4.0829391,-4.9783993,0.75389552,0.41662642,-0.5079999,0
-9.3676653,2.8386872,0.47824049,-0.95588422,0.28966194,0.048800047,0
-9.6911535,1.3459938,-0.55664092,-0.98889321,0.1373463,-0.056800094,0
1.9247963,-3.079674,9.1022396,0.19640778,-0.31425244,0.92879993,0
-5.4965053,-6.183569,5.2528,-0.56086785,-0.63097644,0.53600001,0
9.7165976,-0.78783226,-1.0035203,0.99148953,-0.080391042,-0.10240003,0
1.6258878,8.5359125,-4.5315208,0.16590691,0.87101144,-0.46240008,0
-7.1475868,-5.2555785,-4.1630402,-0.72934556,-0.53628349,-0.42480001,0
9.1097288,-2.6370273,-2.4696,0.92956412,-0.26908442,-0.252,0
-6.0067806,-6.421041,-4.3276811,-0.61293679,-0.65520823,-0.44160011,0
0.55409396,8.1267195,-5.4487996,0.056540199,0.82925707,-0.55599993,0
-1.5557021,9.3342113,2.5479994,-0.15874511,0.95247054,0.25999993,0
3.7729876,7.357326,-5.2606387,0.38499874,0.75074756,-0.53679985,0
7.8283887,1.2454253,-5.7623997,0.79881513,0.12708421,-0.58799994,0
2.1157546,-7.4051409,6.0603199,0.21589333,-0.75562662,0.61839998,0
-2.2032354,-9.3025494,-2.1559999,-0.22481993,-0.94923973,-0.21999998,0
-7.7174239,-4.8509521,-3.5985596,-0.78749222,-0.49499512,-0.36719996,0
2.9886129,-8.3017054,4.2649603,0.30496049,-0.84711277,0.43520004,0
6.6511121,-6.9534345,1.8580794,0.67868489,-0.70953411,0.18959993,0
0.38231522,4.205472,8.8435202,0.039011758,0.42912978,0.90240002,0
-7.9017239,5.432436,-2.0227206,-0.80629832,0.55433017,-0.20640005,0
-6.4298711,-3.5721502,6.4758401,-0.65610927,-0.36450511,0.66079998,0
4.331789,5.3773928,-6.954082,0.44201928,0.54871356,-0.70960021,0
6.1512785,4.6134586,-6.0760002,0.62768149,0.47076109,-0.62,0
-9.2349739,-3.1745229,0.82320011,-0.94234425,-0.32393089,0.084000006,0
-5.3552313,7.6835923,-2.8851187,-0.54645216,0.78404003,-0.29439986,0
-7.476068,5.4371409,-3.2535996,-0.76286405,0.55481029,-0.33199996,0
3.4691782,-2.0649869,-8.9297609,0.35399777,-0.21071295,-0.91120011,0
1.8327839,-6.2314634,7.3382406,0.18701877,-0.6358636,0.74880004,0
-4.4786854,6.890285,5.3390408,-0.45700869,0.70309031,0.54480004,0
-9.738224,-0.52639073,-0.9643203,-0.99369633,-0.05371334,-0.098400027,0
-0.55900931,9.7826586,0.16463867,-0.057041764,0.99823046,0.016799863,0
5.0488605,-0.42073825,-8.3888016,0.51518983,-0.042932473,-0.85600013,0
-7.9485769,-5.5934434,1.2544008,-0.81107926,-0.57075953,0.12800008,0
-4.5509834,1.5169953,8.5455999,-0.46438605,0.15479544,0.87199998,0
5.6975985,7.7967134,1.6699204,0.58138758,0.79558295,0.17040004,0
1.6766987,1.879935,-9.4707193,0.17109171,0.1918301,-0.96639991,0
-8.0034456,-0.34797558,5.6448007,-0.81667811,-0.035507713,0.57600003,0
-6.3613667,4.240911,6.1308799,-0.64911902,0.43274602,0.62559998,0
7.1494613,-6.1961994,-2.5558403,0.72953683,-0.63226521,-0.26080003,0
8.7313595,-3.5397406,-2.6969604,0.89095503,-0.36119801,-0.27520004,0
-3.0494499,2.0081742,-9.0943995,-0.31116834,0.20491573,-0.92799991,0
2.5492415,-8.9223471,3.1516802,0.26012668,-0.91044354,0.32160002,0
-8.541852,0.59594256,-4.7667203,-0.87161756,0.060810465,-0.48640001,0
2.6812685,3.0643063,8.9140806,0.27359882,0.3126843,0.90960002,0
0.6264149,9.3962326,2.7126396,0.063919887,0.95879924,0.27679995,0
5.6718435,6.6727562,4.3982401,0.57875955,0.68089348,0.4488,0
2.9935393,-0.95538491,-9.2825623,0.30546319,-0.097488254,-0.94720024,0
-4.6935353,3.0507977,-8.0438404,-0.47893217,0.31130588,-0.82080001,0
8.5151501,4.789772,-0.76831985,0.86889285,0.48875225,-0.078399986,0
-3.5284717,-3.7423186,-8.3417587,-0.36004812,-0.38186923,-0.85119987,0
0,1.1738802,9.7294407,0,0.11978369,0.99280006,0
-6.123632,3.6021376,6.7502403,-0.62486041,0.36756504,0.68880004,0
3.6877186,-5.752841,-7.0246391,0.3762978,-0.58702457,-0.71679991,0
-8.7628622,-4.3814311,-0.23519956,-0.89416957,-0.44708478,-0.023999954,0
4.4974818,8.0312185,3.3633604,0.45892671,0.81951207,0.34320003,0
6.6836529,2.8644228,-6.5699215,0.68200541,0.29228804,-0.67040014,0
-6.4141455,-2.5358248,-6.9619203,-0.65450466,-0.25875762,-0.71039999,0
3.4588788,-1.5372796,9.0395203,0.35294682,-0.15686527,0.9224,0
-2.2406905,8.9627619,3.2692814,-0.22864188,0.91456753,0.33360013,0
4.5409436,8.476429,1.8894418,0.46336159,0.86494172,0.19280018,0
6.581399,-0.36563292,7.2519999,0.67157131,-0.037309483,0.73999995,0
-9.7183714,0,1.2622409,-0.99167055,0,0.12880009,0
-9.2349739,3.1745229,0.82320011,-0.94234425,0.32393089,0.084000006,0
1.5557021,-9.3342113,2.5479994,0.15874511,-0.95247054,0.25999993,0
-9.3778467,-2.6049571,-1.1446407,-0.95692313,-0.26581195,-0.11680007,0
9.2801828,-2.6942468,1.6307199,0.94695741,-0.27492315,0.16639999,0
0.077611931,3.8029883,-9.0316811,0.0079195844,0.38806003,-0.9216001,0
5.2555785,-7.1475868,-4.1630402,0.53628349,-0.72934556,-0.42480001,0
-7.3179712,5.7271085,3.1124802,-0.74673176,0.58439881,0.31760001,0
-3.4847715,8.9608421,-1.8972806,-0.35558891,0.91437161,-0.19360006,0
-3.64446,-0.22313021,-9.0944014,-0.37188366,-0.022768388,-0.92800009,0
-3.42416,-3.0436981,8.6632004,-0.34940407,-0.31058142,0.884,0
1.746383,-2.4088039,-9.3374414,0.17820235,-0.24579632,-0.95280015,0
5.484498,3.6563334,7.2520003,0.55964267,0.37309524,0.74000001,0
3.5918667,9.117816,-0.06271904,0.36651701,0.93038934,-0.006399902,0
7.1471357,6.2148995,2.5166397,0.72929955,0.63417339,0.25679997,0
-4.8043914,-1.1244321,-8.4672003,-0.490244,-0.11473797,-0.86400002,0
-8.3207483,-2.9122617,-4.2806401,-0.84905595,-0.29716957,-0.4368,0
8.9746599,3.589864,1.6150393,0.91578162,0.36631265,0.16479993,0
9.514802,1.5023372,-1.8031998,0.97089815,0.15329972,-0.18399997,0
-6.6727562,5.6718435,4.3982401,-0.68089348,0.57875955,0.4488,0
8.0716524,4.9671717,2.4931197,0.82363796,0.50685424,0.25439996,0
0.98727894,8.8855181,4.014081,0.10074275,0.90668547,0.40960011,0
-2.9331226,5.0107512,-7.8948822,-0.29929823,0.51130116,-0.80560023,0
8.372591,4.1862955,-2.9008012,0.85434598,0.42717299,-0.29600012,0
-5.6364312,5.2841535,6.0289607,-0.57514602,0.53919929,0.61520004,0
-5.8058362,7.8378792,0.94864118,-0.59243226,0.79978359,0.096800119,0
8.9746609,-2.0192988,-3.3790386,0.91578168,-0.20605089,-0.34479985,0
8.6341429,4.0087094,2.3284814,0.88103497,0.40905198,0.23760015,0
-8.0316591,-3.5009794,-4.390399,-0.81955701,-0.35724279,-0.44799989,0
-5.4967742,6.4783411,-4.8843193,-0.56089532,0.66105521,-0.49839991,0
-2.7407503,-9.2188864,-1.8816006,-0.27966839,-0.94070268,-0.19200006,0
-4.7546482,-7.9244137,-3.26144,-0.48516819,-0.8086136,-0.3328,0
-4.789772,8.5151501,-0.76831985,-0.48875225,0.86889285,-0.078399986,0
-1.9438621,-1.555089,9.4785604,-0.19835328,-0.15868255,0.96720004,0
5.3681283,-8.0521908,1.5444807,0.54776818,-0.82165211,0.15760006,0
-2.2376022,-7.4013004,-6.0211205,-0.22832675,-0.75523472,-0.61440003,0
-2.2773545,-8.7840824,3.7004809,-0.2323831,-0.89633495,0.37760007,0
6.6511121,6.9534349,1.8580784,0.67868489,0.70953417,0.18959983,0
3.1397212,7.1515875,-5.9192019,0.3203797,0.72975379,-0.60400015,0
-1.3859297,-9.7015047,2.336502e-07,-0.14142139,-0.98994946,2.3841856e-08,0
4.5070119,8.5132437,-1.8031988,0.45989916,0.8686983,-0.18399988,0
0.52638996,-9.738224,-0.96432024,0.053713258,-0.99369633,-0.098400019,0
-6.8876886,-0.36250961,6.9619203,-0.70282537,-0.036990777,0.71039999,0
3.2296128,6.459228,6.6248002,0.32955232,0.65910488,0.676,0
-7.7967134,-5.6975985,1.6699204,-0.79558295,-0.58138758,0.17040004,0
-2.9886138,-8.3017054,4.2649598,-0.30496058,-0.84711277,0.43519998,0
-5.748383,4.3112874,6.664,-0.58656967,0.43992728,0.68000001,0
5.8781185,-6.8578048,3.8023996,0.59980798,-0.69977599,0.38799995,0
-6.5271001,4.1223793,-6.0368004,-0.66603059,0.42065093,-0.61600006,0
-4.1127057,-8.8129416,1.2073598,-0.41966385,-0.89927971,0.12319998,0
1.2238445,9.4847898,2.1403198,0.12488209,0.96783566,0.21839997,0
6.8338313,4.4327555,-5.4488006,0.6973297,0.45232198,-0.55600005,0
5.194406,6.2332888,5.4958405,0.5300414,0.63604987,0.56080002,0
-7.9485769,5.5934434,1.2544008,-0.81107926,0.57075953,0.12800008,0
-6.2314634,1.8327839,7.3382406,-0.6358636,0.18701877,0.74880004,0
2.1799462,0.74210942,-9.5256033,0.22244349,0.075725451,-0.9720003,0
3.9341645,-8.7762146,1.8815992,0.40144536,-0.89553207,0.19199991,0
-0.15343167,-7.0578637,-6.7972808,-0.015656292,-0.72019017,-0.69360006,0
-8.7628613,4.3814316,-0.2352003,-0.89416951,0.44708484,-0.02400003,0
-8.3834867,-4.8268561,-1.5679991,-0.85545784,-0.49253634,-0.15999991,0
8.6306543,1.4384421,-4.4139209,0.88067901,0.14677981,-0.45040008,0
7.7935085,-5.9123163,-0.58800095,0.79525596,-0.60329759,-0.060000096,0
8.2392206,-4.8825016,2.077601,0.84073681,-0.49821445,0.21200009,0
3.3911974,-7.7997518,4.8686399,0.34604055,-0.79589301,0.49679998,0
-4.7093215,-5.0715766,6.9384007,-0.48054299,-0.51750779,0.70800006,0
-0.71786362,7.1786318,6.6326404,-0.073251389,0.73251343,0.67680001,0
6.2669959,0,7.5342398,0.63948935,0,0.76879996,0
-1.9554136,-1.8467795,-9.4236813,-0.19953199,-0.18844688,-0.96160012,0
5.3681283,8.0521908,1.5444807,0.54776818,0.82165211,0.15760006,0
-4.5236869,6.6115422,5.6448002,-0.46160069,0.67464715,0.57600003,0
-5.9395642,-5.2407928,5.7702403,-0.60607797,-0.53477478,0.58880001,0
-7.6566548,0.34029546,-6.1073594,-0.78129131,0.034724027,-0.62319994,0
1.029251,8.2340164,5.2135997,0.10502561,0.84020573,0.53199995,0
9.6318922,-1.459378,1.0662408,0.98284614,-0.14891613,0.10880008,0
-6.6533613,4.2021232,5.8408003,-0.67891443,0.42878807,0.59600002,0
-8.0359964,3.3483324,4.5001593,-0.81999964,0.34166658,0.45919991,0
-0.74723095,-5.6042295,8.0046396,-0.076248057,-0.57186013,0.81679994,0
8.4119511,3.558903,3.5515201,0.85836232,0.36315337,0.3624,0
4.0699906,1.125742,-8.8435221,0.41530517,0.11487163,-0.9024002,0
-5.1528778,-3.6806273,7.4793606,-0.52580386,-0.3755742,0.76320004,0
9.5565195,1.4932066,1.5758404,0.97515506,0.15236802,0.16080004,0
-3.0930569,-0.77326453,9.26688,-0.31561804,-0.078904539,0.94559997,0
3.5272942,-6.7186565,-6.2014399,0.35992798,-0.68557721,-0.63279998,0
0.56005114,-0.87119073,-9.74512,0.057148073,-0.088897012,-0.99439996,0
-3.4583108,-7.2806549,-5.5742402,-0.35288885,-0.74292397,-0.56880003,0
5.8929234,-1.8333538,-7.612639,0.60131872,-0.18707691,-0.77679986,0
1.1406584,4.4675789,-8.647522,0.11639371,0.4558754,-0.88240016,0
-1.9403015,-1.9403015,9.408,-0.19798996,-0.19798996,0.95999998,0
-7.3881764,4.0829391,-4.9783993,-0.75389552,0.41662642,-0.5079999,0
3.2816081,-5.8339715,7.1579208,0.33485797,-0.59530318,0.73040009,0
6.8474135,6.8474135,1.5052787,0.69871563,0.69871563,0.15359986,0
3.7301269,-8.7036295,2.5244799,0.38062519,-0.88812542,0.25759998,0
-1.1219695,-6.4513235,-7.2912011,-0.11448668,-0.65829831,-0.74400008,0
6.789639,5.0922289,4.900001,0.69282031,0.51961517,0.50000012,0
-8.4507599,-1.3521214,4.77456,-0.86232245,-0.13797157,0.48719999,0
-4.9671707,-8.0716524,2.4931204,-0.50685412,-0.82363796,0.25440004,0
-9.4050598,-0.31350169,2.7361596,-0.95969999,-0.031989966,0.27919996,0
5.6448002,-7.5264001,-2.744,0.57600003,-0.76800001,-0.28,0
7.0695763,-1.9280664,-6.5072002,0.7213853,-0.19674146,-0.66400003,0
-3.4675055,0.77055603,9.1336002,-0.35382709,0.078628168,0.93199998,0
-5.2144442,0.21726832,-8.2947197,-0.53208613,0.022170236,-0.84639996,0
-3.8561327,8.3549538,3.3712003,-0.39348292,0.85254627,0.34400001,0
8.6341429,-4.0087094,2.3284814,0.88103497,-0.40905198,0.23760015,0
-8.2086334,3.6117992,3.9513597,-0.83761567,0.36855093,0.40319997,0
1.2972332,-1.0311342,-9.6588793,0.13237074,-0.10521778,-0.98559994,0
3.2291853,-8.3958836,-3.8886387,0.32950869,-0.85672277,-0.39679986,0
8.4620256,-4.3518991,-2.3441615,0.86347198,-0.44407132,-0.23920015,0
-6.2148995,7.1471357,2.5166397,-0.63417339,0.72929955,0.25679997,0
4.1314278,-4.2566228,-7.8007994,0.42157426,-0.43434927,-0.79599994,0
-0.38995591,1.9497819,9.5961599,-0.03979142,0.19895734,0.97919995,0
4.7769341,7.9615579,3.1360006,0.48744226,0.81240386,0.32000005,0
4.139513,-6.8391943,-5.6683207,0.42239928,-0.69787693,-0.57840008,0
5.2407913,5.9395652,5.7702403,0.5347746,0.60607809,0.58880001,0
4.8840113,6.2794437,5.7232003,0.4983685,0.64075953,0.58400005,0
-0.75116819,5.884151,-7.8008022,-0.076649815,0.60042357,-0.79600018,0
-8.5132437,4.5070114,-1.8032005,-0.8686983,0.45989913,-0.18400005,0
-8.271471,1.3465184,-5.0803204,-0.84402764,0.13739984,-0.51840001,0
6.8391943,4.139513,-5.6683207,0.69787693,0.42239928,-0.57840008,0
-7.6971869,5.9011769,-1.4033613,-0.78542721,0.60216087,-0.14320013,0
2.025362,9.5481348,0.87808096,0.20666958,0.97429943,0.089600094,0
-3.5397406,8.7313595,-2.6969604,-0.36119801,0.89095503,-0.27520004,0
1.7850426,-9.5202265,1.4896004,0.1821472,-0.97145164,0.15200004,0
1.9247963,3.0796728,9.1022406,0.19640778,0.31425232,0.92880005,0
7.0277195,6.7348981,1.136799,0.71711421,0.68723446,0.11599989,0
9.7941971,0.27983391,0.18815871,0.99940783,0.028554481,0.019199867,0
-3.7886178,4.3996854,-7.8948812,-0.38659364,0.44894749,-0.80560011,0
1.3859297,-9.7015047,2.336502e-07,0.14142139,-0.98994946,2.3841856e-08,0
4.4643831,-8.6661549,-1.0035197,0.4555493,-0.88430148,-0.10239996,0
3.8207443,1.9103721,8.8199997,0.38987187,0.19493593,0.89999998,0
-2.4088078,9.3341284,1.7639997,-0.24579671,0.95246208,0.17999996,0
3.6054113,-9.0135288,-1.3406394,0.36789909,-0.91974783,-0.13679993,0
-4.0213013,7.7074943,4.5236793,-0.41033685,0.786479,0.46159992,0
9.6911535,-1.3459938,-0.55664092,0.98889321,-0.1373463,-0.056800094,0
9.3676653,2.8386872,0.47824049,0.95588422,0.28966194,0.048800047,0
-8.5151501,4.789772,-0.76831985,-0.86889285,0.48875225,-0.078399986,0
3.4523954,1.9179984,8.9689608,0.35228524,0.19571412,0.91520005,0
-6.6780748,6.0318089,-3.8807988,-0.68143618,0.61549067,-0.39599988,0
-8.0117273,-2.2890651,-5.1587214,-0.81752318,-0.23357807,-0.52640015,0
-9.1372166,3.4936416,-0.58800012,-0.93236899,0.35649404,-0.06000001,0
1.1736445,0.39121485,9.7216005,0.11975964,0.039919883,0.99200004,0
8.6580725,4.3290367,-1.5287991,0.88347679,0.44173843,-0.1559999,0
-4.5626373,-7.8216648,3.74752,-0.46557522,-0.79812902,0.38239998,0
5.5280514,-6.7565074,-4.4531183,0.56408685,-0.68943954,-0.45439982,0
-5.2407923,5.9395652,5.7702394,-0.53477472,0.60607809,0.58879989,0
2.4088085,-1.7463864,-9.3374395,0.24579678,-0.17820269,-0.95279992,0
-6.8391943,4.139513,-5.6683207,-0.69787693,0.42239928,-0.57840008,0
-4.4643826,8.6661549,-1.0035188,-0.45554924,0.88430148,-0.10239988,0
-3.4523966,-1.9179984,8.9689598,-0.35228536,-0.19571412,0.91519994,0
-2.9556696,-9.1133146,-2.0619204,-0.30159894,-0.92993003,-0.21040003,0
-8.8855181,-0.98727995,4.014081,-0.90668547,-0.10074285,0.40960011,0
0.38231522,-4.205472,8.8435202,0.039011758,-0.42912978,0.90240002,0
4.5187793,2.6359541,8.2868805,0.46109992,0.2689749,0.84560001,0
-2.6312521,8.551568,3.9984002,-0.26849511,0.87260896,0.40800002,0
-8.7032757,-0.33474106,4.4923205,-0.88808936,-0.03415725,0.45840004,0
8.1946869,4.3249731,-3.1908808,0.83619255,0.44132379,-0.32560009,0
3.8106751,-8.8915768,-1.5679991,0.3888444,-0.90730375,-0.15999991,0
-5.2625031,-7.2359424,3.9984002,-0.53699011,-0.73836148,0.40800002,0
-9.0510416,-1.2930057,3.5280001,-0.92357564,-0.13193935,0.36000001,0
1.1653669,2.3307359,9.4471998,0.118915,0.23783022,0.96400005,0
-7.4543934,-1.0649134,6.2719998,-0.76065236,-0.10866463,0.63999999,0
3.2552533,8.4636564,3.7161601,0.3321687,0.8636384,0.37920001,0
-1.0311342,-1.2972332,-9.6588793,-0.10521778,-0.13237074,-0.98559994,0
-8.6163349,-4.1850767,-2.0697594,-0.8792178,-0.42704862,-0.21119992,0
-9.2179203,-1.382688,-3.0262403,-0.94060409,-0.14109062,-0.30880004,0
-7.0920515,3.8187966,-5.5820785,-0.72367871,0.38967311,-0.56959981,0
6.7854509,-2.8570325,6.4679999,0.69239295,-0.29153392,0.65999997,0
-0.37130457,-5.9408789,7.7851205,-0.037888221,-0.60621214,0.79440004,0
9.5418243,-1.8052099,-1.3171202,0.97365552,-0.18420509,-0.13440001,0
-9.2339096,3.259027,-0.39200029,-0.94223565,0.33255377,-0.040000029,0
3.377578,-2.3643048,-8.8905592,0.34465078,-0.24125557,-0.9071998,0
-8.0711651,5.2967019,-1.685599,-0.82358825,0.54047978,-0.17199989,0
6.1381645,6.7842865,3.5123208,0.62634331,0.69227409,0.35840008,0
-2.4604361,-7.3813095,5.9583998,-0.2510649,-0.75319481,0.60799998,0
-1.1394464,4.5577855,8.6004801,-0.11627004,0.46508014,0.87760001,0
-0.52639073,-9.738224,-0.9643203,-0.05371334,-0.99369633,-0.098400027,0
3.2502921,-5.2004676,-7.6440005,0.33166245,-0.53065997,-0.78000003,0
8.7054472,4.4931345,0.25871924,0.88831091,0.4584831,0.026399922,0
5.942204,0,7.7929597,0.60634732,0,0.79519993,0
3.5721512,6.4298711,6.4758396,0.3645052,0.65610927,0.66079992,0
-4.4786854,6.890285,5.3390408,-0.45700869,0.70309031,0.54480004,0
1.9890747,-8.6193228,4.2179203,0.20296681,-0.87952274,0.43040001,0
-6.1876183,-4.3480558,-6.2328,-0.63138962,-0.44367915,-0.63599998,0
9.6911535,1.3459938,-0.55664092,0.98889321,0.1373463,-0.056800094,0
-1.5516068,2.3274107,9.3923206,-0.15832722,0.23749088,0.95840007,0
-4.9250803,-7.494688,-3.9513593,-0.50255919,-0.76476407,-0.40319991,0
6.7253995,-6.4934888,-2.940001,0.68626523,-0.66260087,-0.3000001,0
-1.9280665,8.9976425,3.3712013,-0.19674148,0.91812676,0.34400013,0
-2.9006941,8.7020826,-3.449599,-0.29598919,0.88796759,-0.35199991,0
6.1714807,1.7828722,-7.400959,0.62974292,0.18192573,-0.75519991,0
7.7239318,5.7306595,-1.8816009,0.78815627,0.58476114,-0.19200009,0
9.0801792,-2.5048773,2.7047989,0.9265489,-0.25559974,0.27599987,0
-2.5076115,-9.4731989,0.10191976,-0.25587872,-0.96665293,0.010399976,0
-9.6766691,-0.25464895,-1.5287998,-0.98741519,-0.025984587,-0.15599997,0
3.4691782,-2.0649869,-8.9297609,0.35399777,-0.21071295,-0.91120011,0
6.061542,7.6428137,-0.94080168,0.61852467,0.77987891,-0.096000172,0
6.1436739,-5.9454913,-4.7902408,0.6269055,-0.60668278,-0.48880008,0
9.3142338,2.5173609,-1.7169607,0.950432,0.25687355,-0.17520006,0
8.4173193,3.8674176,-3.1987207,0.85891014,0.39463443,-0.32640007,0
8.5151501,-4.789772,-0.76831985,0.86889285,-0.48875225,-0.078399986,0
-1.7463864,2.4088085,-9.3374395,-0.17820269,0.24579678,-0.95279992,0
2.0172429,8.405179,4.6177602,0.20584111,0.85767132,0.47120002,0
-9.4027719,0.23506907,-2.7518404,-0.95946652,0.023986639,-0.28080004,0
7.5264006,3.3868806,-5.2841587,0.76800007,0.34560007,-0.53919983,0
7.8572288,5.7619681,-1.0505615,0.80175799,0.58795589,-0.10720015,0
-3.4117787,3.4117775,8.5299206,-0.34814069,0.34814057,0.87040007,0
-8.6900597,-3.8622484,-2.3676808,-0.88674074,-0.39410698,-0.24160008,0
6.473937,7.2508092,-1.2465588,0.66060579,0.73987848,-0.12719987,0
8.6661549,4.4643831,-1.0035197,0.88430148,0.4555493,-0.10239996,0
-5.732204,0.85373241,-7.90272,-0.58491874,0.087115549,-0.8064,0
-7.2047639,-4.1170082,5.2135997,-0.73517996,-0.42010286,0.53199995,0
2.5089223,-6.8099327,6.5856004,0.25601247,-0.6948911,0.67200005,0
0,8.0054779,5.6526394,0,0.81688547,0.57679993,0
6.2776251,1.2282307,-7.4244781,0.64057398,0.12532966,-0.75759977,0
-3.4732096,6.0403643,-6.8913584,-0.35440913,0.6163637,-0.7031998,0
-5.3137331,-4.5546284,-6.8600001,-0.54221767,-0.46475798,-0.69999999,0
-0.30746368,9.5313835,2.25792,-0.031373844,0.97259015,0.2304,0
1.6626536,8.6457958,4.3041606,0.16965853,0.88222402,0.43920004,0
3.3654966,-4.4873304,8.0360003,0.34341803,-0.45789084,0.81999999,0
-1.1701053,-1.56014,9.6040001,-0.1193985,-0.15919796,0.98000002,0
0.35192749,-7.7424121,5.9976001,0.035910968,-0.79004204,0.61199999,0
9.7394762,-0.8593657,0.66640139,0.99382406,-0.087690376,0.068000138,0
-0.98078388,8.4347391,-4.8921609,-0.10007998,0.86068767,-0.49920008,0
-3.4700303,7.2870636,5.5585608,-0.35408473,0.7435779,0.56720006,0
0.5126068,-4.9210238,-8.4593592,0.052306816,-0.50214529,-0.86319989,0
-8.6900597,-3.8622484,-2.3676808,-0.88674074,-0.39410698,-0.24160008,0
4.8853321,-2.38586,-8.1536007,0.49850327,-0.2434551,-0.83200008,0
0.73411918,8.0753069,-5.5036802,0.074910119,0.82401091,-0.56160003,0
-6.4553719,-6.9335489,-2.5088003,-0.65871137,-0.70750499,-0.25600001,0
-9.2923346,-3.0974455,0.31360063,-0.94819736,-0.31606585,0.032000065,0
-7.7135401,1.4024626,5.8800001,-0.7870959,0.14310843,0.60000002,0
6.7913771,-4.7162337,-5.2606411,0.69299763,-0.48124832,-0.53680009,0
0,-1.9501759,9.6040001,0,-0.19899754,0.98000002,0
-1.7442901,9.5935946,0.98000085,-0.17798878,0.97893822,0.10000008,0
-9.5418243,-1.8052099,-1.3171202,-0.97365552,-0.18420509,-0.13440001,0
-4.4974818,8.0312185,3.3633604,-0.45892671,0.81951207,0.34320003,0
-7.0028815,1.4005759,-6.7110391,-0.71457976,0.1429159,-0.68479991,0
-0.38805985,2.7164211,9.408,-0.039597943,0.27718583,0.95999998,0
-4.638206,8.1168613,-2.940001,-0.47328633,0.82825112,-0.3000001,0
0.37336817,3.0491734,-9.3060808,0.038098793,0.31114012,-0.94960004,0
-8.2246351,-4.4286489,2.9635208,-0.83924848,-0.45190296,0.30240008,0
-6.4186344,1.7116359,-7.2049594,-0.65496266,0.17465672,-0.73519993,0
-6.5660787,-4.8381629,5.4331207,-0.670008,-0.49369007,0.55440009,0
-6.2613235,0.73662561,7.5028806,-0.63891053,0.075165875,0.76560003,0
-6.0961881,2.5518928,-7.236321,-0.62206,0.26039723,-0.7384001,0
2.7164211,0.38805985,9.408,0.27718583,0.039597943,0.95999998,0
-1.8403136,7.9133487,-5.4801607,-0.1877871,0.80748457,-0.55920005,0
1.0808975,9.7280722,-0.48608094,0.11029565,0.9926604,-0.049600095,0
5.1011834,4.3724437,7.1344004,0.52052891,0.44616771,0.72800004,0
-4.4685526,-3.7237935,7.8870401,-0.45597476,-0.37997892,0.80479997,0
2.7164192,-0.38805985,-9.4080009,0.27718562,-0.039597943,-0.9600001,0
1.2586806,-9.5659695,-1.7169598,0.12843679,-0.97611934,-0.17519999,0
-8.6225748,-4.5987062,0.73695952,-0.87985456,-0.46925572,0.075199947,0
-8.9195986,-1.5228581,-3.7631998,-0.9101631,-0.15539369,-0.38399997,0
7.8540215,3.9270108,-4.3511996,0.80143076,0.40071538,-0.44399995,0
4.2697058,-7.8825345,3.9591999,0.43568426,-0.80434024,0.40399998,0
4.4532986,-8.6097126,1.4425596,0.45441821,-0.87854207,0.14719996,0
8.7840824,2.2773545,3.7004809,0.89633495,0.2323831,0.37760007,0
2.7482526,-7.2141619,-6.0368018,0.28043392,-0.73613894,-0.61600018,0
1.4174589,7.4416547,6.2171206,0.14463866,0.75935251,0.63440007,0
9.3142338,2.5173609,-1.7169607,0.950432,0.25687355,-0.17520006,0
2.7147577,0.77564436,9.3844805,0.27701607,0.079147384,0.95760006,0
-8.8855181,-0.98727995,4.014081,-0.90668547,-0.10074285,0.40960011,0
-1.9280664,-8.9976425,3.3712001,-0.19674146,-0.91812676,0.34400001,0
-0.37105674,-8.1632433,-5.4095998,-0.037862934,-0.83298409,-0.55200005,0
3.4732082,-6.0403619,-6.8913612,0.35440898,-0.61636347,-0.7032001,0
8.6097126,4.4532986,1.4425596,0.87854207,0.45441821,0.14719996,0
-3.8118849,-2.2871311,8.7337599,-0.38896784,-0.23338072,0.89119995,0
-4.2021232,6.6533613,5.8408003,-0.42878807,0.67891443,0.59600002,0
0.60158938,-6.9182739,-6.9148808,0.061386671,-0.70594633,-0.70560008,0
-7.2870641,3.4700313,5.5585594,-0.74357796,0.35408482,0.56719995,0
-5.3552313,-7.6835923,-2.8851187,-0.54645216,-0.78404003,-0.29439986,0
-8.7762146,-3.9341645,1.8815992,-0.89553207,-0.40144536,0.19199991,0
6.831079,-2.1571829,6.68752,0.69704884,-0.2201207,0.68239999,0
8.9168205,3.9338913,-1.0270381,0.90987962,0.40141746,-0.10479981,0
-7.3186474,5.7176933,-3.1281598,-0.74680072,0.5834381,-0.31919998,0
1.4828794,-4.5474973,-8.5534401,0.15131423,-0.46403033,-0.87279999,0
-2.1183963,-9.3814697,1.8816,-0.21616288,-0.9572928,0.192,0
3.9094415,6.3972673,6.3111997,0.39892259,0.65278238,0.64399993,0
-7.2047639,4.1170082,5.2135997,-0.73517996,0.42010286,0.53199995,0
9.306262,2.9082074,0.98784,0.94961858,0.29675585,0.1008,0
7.4821825,6.1921506,-1.3092813,0.76348799,0.63185209,-0.13360013,0
2.025362,-9.5481348,0.87808096,0.20666958,-0.97429943,0.089600094,0
-1.673615,-9.3244276,-2.5087991,-0.17077704,-0.95147216,-0.25599989,0
-7.5630932,6.2125411,-0.49392074,-0.77174419,0.63393277,-0.050400075,0
-1.6258883,8.5359125,-4.5315213,-0.16590697,0.87101144,-0.46240014,0
-4.3996863,4.7663264,7.3460803,-0.44894758,0.48635983,0.74959999,0
5.3873305,-3.8278401,-7.2363191,0.54972762,-0.39059591,-0.73839986,0
-1.5427083,-3.0854166,-9.1728001,-0.1574192,-0.31483841,-0.93599999,0
-0.37105674,-8.1632433,-5.4095998,-0.037862934,-0.83298409,-0.55200005,0
5.7176933,-7.3186474,-3.1281598,0.5834381,-0.74680072,-0.31919998,0
-2.4375725,-3.8438644,-8.6788797,-0.24873188,-0.39223105,-0.88559997,0
-6.8489208,1.8023481,6.7737603,-0.69886947,0.18391307,0.69120002,0
6.2125416,7.5630927,-0.49391943,0.63393283,0.77174413,-0.05039994,0
3.64446,-0.22313021,-9.0944014,0.37188366,-0.022768388,-0.92800009,0
0.32467416,-9.0908852,3.6456001,0.033130016,-0.92764133,0.37200001,0
-0.77943999,-1.9485993,9.5726404,-0.079534695,-0.19883667,0.97680002,0
3.8674176,8.4173193,-3.1987207,0.39463443,0.85891014,-0.32640007,0
-8.7801132,1.0452518,-4.2257614,-0.89592993,0.10665835,-0.43120015,0
-8.4788065,-2.7556121,-4.0689602,-0.86518431,-0.28118491,-0.41520002,0
-9.3778458,2.6049578,-1.1446412,-0.95692301,0.26581201,-0.11680011,0
6.8568773,5.78549,-3.9435189,0.69968134,0.59035611,-0.40239987,0
-4.9856486,8.2263203,-1.8737588,-0.50873965,0.83942044,-0.19119987,0
5.4882803,-5.1556578,-6.2719994,0.56002861,-0.52608752,-0.63999993,0
7.8253064,3.61168,-4.6647992,0.79850066,0.36853877,-0.47599992,0
-6.1436739,-5.9454913,-4.7902408,-0.6269055,-0.60668278,-0.48880008,0
-8.9270716,-0.21254911,-4.037601,-0.91092563,-0.021688683,-0.41200009,0
9.2801828,2.6942458,1.6307203,0.94695741,0.27492303,0.16640003,0
-0.5739826,9.7576981,0.70560139,-0.058569651,0.99568343,0.072000138,0
-1.4191928,4.0801792,-8.7964783,-0.14481559,0.41634482,-0.89759982,0
-5.4287405,-4.3429923,6.9070401,-0.55395311,-0.44316247,0.70480001,0
-6.2125406,-7.5630937,-0.49391967,-0.63393271,-0.77174425,-0.050399967,0
3.0027092,4.504065,8.1692801,0.3063989,0.45959845,0.83359998,0
0.25464895,9.6766691,-1.5287998,0.025984587,0.98741519,-0.15599997,0
-1.8594197,-5.578258,7.8400002,-0.18973669,-0.56920999,0.80000001,0
2.1144464,9.1626034,-2.7596788,0.21575983,0.93495953,-0.28159988,0
6.2424445,-0.26563606,-7.5499225,0.63698411,-0.027105719,-0.77040023,0
4.3249731,8.1946869,-3.1908808,0.44132379,0.83619255,-0.32560009,0
6.0042834,7.7197928,0.6272015,0.61268198,0.78773397,0.064000152,0
-5.6042295,0.74722987,8.0046396,-0.57186013,0.076247945,0.81679994,0
8.3958826,-3.2291858,-3.8886395,0.85672271,-0.32950875,-0.39679992,0
4.8344922,-3.346956,-7.8399982,0.49331552,-0.34152612,-0.79999983,0
8.0577888,5.1276836,-2.1951985,0.82222337,0.523233,-0.22399984,0
-5.9881797,-7.1397529,-3.0340798,-0.61103874,-0.7285462,-0.30959997,0
3.0159357,9.3219805,-0.21167885,0.30774853,0.95122248,-0.021599881,0
3.61168,7.8253064,-4.6647992,0.36853877,0.79850066,-0.47599992,0
3.0291524,-8.0777426,4.6491203,0.30909717,-0.82425946,0.47440001,0
0.23506907,-9.4027719,-2.7518404,0.023986639,-0.95946652,-0.28080004,0
5.9369054,-0.74211347,7.7615995,0.60580665,-0.075725861,0.79199994,0
-1.7828722,6.1714807,-7.400959,-0.18192573,0.62974292,-0.75519991,0
8.2340164,-1.0292521,5.2135997,0.84020573,-0.10502572,0.53199995,0
-4.4643826,8.6661549,-1.0035188,-0.45554924,0.88430148,-0.10239988,0
-6.1961994,-7.1494613,-2.5558403,-0.63226521,-0.72953683,-0.26080003,0
1.7679161,-7.4252462,6.1465597,0.1803996,-0.75767815,0.62719995,0
-5.1282706,-4.0293565,7.3147202,-0.5232929,-0.41115883,0.7464,0
3.0177376,4.1493907,8.3495998,0.30793241,0.4234072,0.85199994,0
-0.34379953,-8.2511969,5.27632,-0.035081584,-0.84195882,0.53839999,0
0,-8.9331417,-4.0297613,0,-0.91154504,-0.41120014,0
-7.6159062,0.50772661,-6.1465592,-0.77713329,0.051808838,-0.62719989,0
5.8058362,-7.8378792,0.94864118,0.59243226,-0.79978359,0.096800119,0
-0.22422925,9.193408,-3.3868818,-0.022880536,0.93810284,-0.34560019,0
4.2096786,8.0955353,3.5750401,0.42955905,0.82607502,0.36480001,0
-4.0213013,-7.7074933,4.5236802,-0.41033685,-0.78647888,0.46160001,0
6.3032818,6.9336109,2.8694394,0.64319199,0.70751131,0.29279992,0
4.5509834,-1.5169941,8.5455999,0.46438605,-0.15479532,0.87199998,0
-6.8828549,-0.72451144,6.9384003,-0.70233214,-0.073929735,0.708,0
-3.8740871,-6.6916041,6.0211201,-0.39531499,-0.68281674,0.61439997,0
-9.7511768,-0.26354507,-0.94080031,-0.99501801,-0.026892353,-0.096000031,0
7.5908165,2.1183674,-5.8251204,0.77457309,0.21615994,-0.59440005,0
-8.1901855,-5.2651191,1.1132798,-0.83573318,-0.53725702,0.11359998,0
0.59501439,-4.7601147,-8.545599,0.060715754,-0.48572597,-0.87199986,0
3.8013904,2.6609724,8.6318398,0.38789698,0.2715278,0.88079995,0
1.7189795,0.99940664,-9.5961609,0.17540607,0.10198027,-0.97920007,0
-4.5070119,8.5132437,-1.8031988,-0.45989916,0.8686983,-0.18399988,0
1.5579333,1.5579333,9.5491199,0.15897278,0.15897278,0.97439998,0
2.1571829,6.831079,6.68752,0.2201207,0.69704884,0.68239999,0
4.0829391,-7.3881764,-4.9783993,0.41662642,-0.75389552,-0.5079999,0
2.278434,8.4923439,-4.327682,0.23249327,0.8665657,-0.4416002,0
-3.9692397,7.9384794,4.1551995,-0.40502444,0.81004888,0.42399994,0
-3.5401745,-6.7263317,6.1857605,-0.36124229,-0.68636036,0.63120002,0
8.0603743,3.8180723,-4.06112,0.82248718,0.3895992,-0.41439998,0
1.746383,-2.4088039,-9.3374414,0.17820235,-0.24579632,-0.95280015,0
-4.0042682,-8.7593365,-1.8110396,-0.40859878,-0.89380985,-0.18479995,0
4.360724,8.7214499,0.98000002,0.44497183,0.88994384,0.1,0
-3.094964,-0.38687009,9.2904005,-0.31581265,-0.03947654,0.94800001,0
1.0698068,3.5914948,-9.0552015,0.10916395,0.36647904,-0.92400014,0
1.7491288,7.696166,5.8094392,0.17848253,0.78532302,0.5927999,0
-8.5101671,-2.9458275,3.8651204,-0.86838436,-0.30059463,0.39440003,0
-6.9413896,6.2472501,-2.9713597,-0.70830506,0.63747448,-0.30319998,0
3.5150883,-1.2990544,-9.0551987,0.35868248,-0.13255657,-0.92399985,0
6.2332883,-5.194407,5.4958396,0.63604981,-0.53004152,0.56079996,0
1.9168435,-8.7322893,-4.0140796,0.19559628,-0.89104992,-0.40959996,0
-9.6090641,-0.90084982,1.7012804,-0.98051673,-0.091923445,0.17360003,0
-6.2495079,-3.2009676,-6.8364801,-0.63770485,-0.32662934,-0.69760001,0
-4.0829396,-7.388176,-4.9784002,-0.41662648,-0.75389552,-0.50800002,0
-4.3724437,5.1011834,7.1344004,-0.44616771,0.52052891,0.72800004,0
9.1905203,1.5845728,3.0105591,0.93780816,0.1616911,0.3071999,0
-6.831943,1.5182099,-6.8599997,-0.69713706,0.15491937,-0.69999993,0
4.0160398,-7.6304755,-4.6569595,0.40979996,-0.77861995,-0.47519994,0
-9.1092567,3.0364196,1.9599991,-0.92951596,0.30983874,0.1999999,0
-2.484179,5.3409853,-7.8321605,-0.25348765,0.54499847,-0.79920006,0
-4.0087094,8.6341429,2.3284814,-0.40905198,0.88103497,0.23760015,0
4.3290367,8.6580725,-1.5287991,0.44173843,0.88347679,-0.1559999,0
9.6587238,-1.6557813,-0.086241335,0.98558402,-0.16895726,-0.0088001359,0
-1.8176975,4.8115525,-8.3417587,-0.18547934,0.49097472,-0.85119987,0
-8.0955353,4.2096786,3.5750401,-0.82607502,0.42955905,0.36480001,0
3.3469539,4.8344903,7.8400006,0.34152591,0.49331534,0.80000007,0
8.849534,-3.661876,2.077599,0.90301365,-0.3736608,0.21199989,0
6.2346187,7.4221659,1.4425608,0.63618559,0.75736386,0.14720008,0
-5.3223338,3.5482223,-7.424479,-0.54309529,0.3620635,-0.75759989,0
3.0006111,2.5951231,-8.9611197,0.3061848,0.26480848,-0.91439992,0
-3.2048247,-8.6530266,3.3006411,-0.32702291,-0.88296187,0.3368001,0
-8.7670698,3.4442062,2.7047997,-0.89459896,0.35144961,0.27599996,0
1.2711449,-9.2157965,3.0811191,0.12970866,-0.94038737,0.3143999,0
8.5299168,-4.6526823,-1.2779194,0.87039965,-0.47476348,-0.13039994,0
9.2493896,-0.63788927,3.175199,0.94381523,-0.065090738,0.32399988,0
-9.5861111,-1.1982638,1.6464005,-0.97817457,-0.12227181,0.16800004,0
-6.5282307,2.1760769,6.9776001,-0.66614598,0.22204866,0.71200001,0
-2.3568041,-9.4272146,1.2700802,-0.24049021,-0.96196067,0.12960002,0
0.36856306,6.2655783,7.5263996,0.037608474,0.63934469,0.76799995,0
