4.9712343,0.51783699,-8.545681,0.50214487,0.052306768,-0.86320013,0
5.62041,-8.1495953,0.071279392,0.56771821,-0.82319146,0.0071999389,0
-8.1179962,3.382499,4.5460792,-0.81999964,0.34166658,0.45919994,0
-3.6264951,9.0662374,1.6315193,-0.36631265,0.91578162,0.16479994,0
6.5251379,3.262568,6.6924,0.65910488,0.32955232,0.676,0
-7.2643929,-2.3651509,-6.2964001,-0.73377711,-0.23890415,-0.63600004,0
-7.3549466,-3.4935997,-5.6311202,-0.74292392,-0.35288888,-0.56880003,0
1.9411914,9.7059593,-0.19008124,0.19607995,0.98039997,-0.019200126,0
2.9358313,6.2386432,7.1042395,0.29654863,0.63016599,0.71759999,0
4.9613471,-1.1449263,8.4902401,0.5011462,-0.11564913,0.85760003,0
2.2485549,5.6213861,7.83288,0.22712678,0.56781679,0.79120004,0
8.2511148,-1.5350914,-5.2509604,0.83344597,-0.15505974,-0.53040004,0
8.6755629,-2.3357284,4.1580005,0.87631953,-0.23593217,0.42000008,0
6.1728992,-0.52535301,-7.7220016,0.6235252,-0.053065963,-0.78000021,0
4.5433741,8.1131687,3.3976803,0.45892668,0.81951201,0.34320003,0
3.116899,1.5584507,9.2663994,0.31483829,0.15741926,0.93599999,0
1.9477404,9.0894547,3.405601,0.19674146,0.91812676,0.34400013,0
-9.1727133,3.3123686,-1.7028006,-0.92653674,0.33458272,-0.17200007,0
5.2750711,8.0677547,2.2571998,0.53283548,0.81492478,0.22799999,0
8.246542,0.37484246,-5.4647994,0.83298409,0.037862878,-0.55199999,0
-9.8824806,0.56471264,0.16632038,-0.9982304,0.057041682,0.016800039,0
-4.3706484,7.732687,4.371839,-0.44147965,0.78107953,0.44159994,0
0.96980661,2.0781572,-9.6307182,0.097960271,0.20991488,-0.97279984,0
-2.2022021,-0.74968582,-9.6227999,-0.22244467,-0.075725846,-0.972,0
7.5064883,1.7060205,-6.2251201,0.75823116,0.17232531,-0.62880003,0
0.53176129,-9.8375931,-0.97416019,0.053713262,-0.99369633,-0.098400027,0
0.7873922,-1.9684829,9.6703196,0.079534568,-0.19883665,0.97679996,0
1.5408423,9.5532207,2.0908797,0.15564065,0.96497184,0.21119997,0
-1.5337015,-6.9016571,-6.9299989,-0.15491936,-0.69713712,-0.69999993,0
-8.012969,2.0903399,5.4252,-0.80939084,0.21114545,0.54800004,0
9.0662374,-3.6264951,1.6315193,0.91578162,-0.36631265,0.16479994,0
-8.405654,-2.9419785,-4.3243198,-0.84905601,-0.29716957,-0.4368,0
-6.9597287,5.3221455,-4.6094398,-0.70300293,0.53759044,-0.46560001,0
0.29739547,9.8140593,1.2672008,0.030039947,0.99131918,0.1280001,0
-6.9888687,-0.60772759,-6.9854403,-0.70594639,-0.061386626,-0.70560002,0
-4.3063974,-8.899888,0.50687975,-0.43498966,-0.89897865,0.051199976,0
0,-8.5736513,4.9499998,0,-0.86602545,0.5,0
-1.6007417,-9.2843008,3.0412788,-0.16169108,-0.93780822,0.3071999,0
-9.4921122,-0.63280779,2.7403193,-0.95879924,-0.063919984,0.27679995,0
-8.5132446,1.824266,-4.7124004,-0.85992372,0.18426929,-0.47600007,0
3.9113085,-4.9902897,-7.6032009,0.3950817,-0.50406969,-0.76800013,0
2.2329345,-5.9544916,7.5873599,0.22554895,-0.60146379,0.76640004,0
-3.7471731,7.8349981,4.7519989,-0.37850234,0.79141396,0.4799999,0
-5.2804947,-2.7659733,-7.904161,-0.53338331,-0.27939126,-0.7984001,0
-2.6881251,3.8401799,8.7199192,-0.2715278,0.38789698,0.88079995,0
0.37484238,2.2959101,-9.6227999,0.037862867,0.23191012,-0.972,0
-5.3221455,-6.9597287,-4.6094398,-0.53759044,-0.70300293,-0.46560001,0
-7.4807029,-2.1373436,6.1221595,-0.75562656,-0.2158933,0.61839998,0
5.41681,-5.0556898,6.5656805,0.54715258,-0.51067579,0.66320008,0
-5.2535329,-3.2834582,-7.7220001,-0.53065991,-0.33166245,-0.78000003,0
-0.49460411,9.6447744,-2.177999,-0.049960013,0.97421968,-0.21999991,0
-1.4723531,-5.6440201,-7.9992003,-0.14872254,-0.57010305,-0.80800009,0
5.309207,7.220521,-4.2055182,0.53628355,0.72934556,-0.42479983,0
4.9902897,-3.9113085,-7.6032009,0.50406969,-0.3950817,-0.76800013,0
7.8058748,-1.0644374,5.9954386,0.78847224,-0.10751893,0.60559988,0
3.3387651,5.5646095,7.4764805,0.33724901,0.56208181,0.75520009,0
4.7001581,-8.6169558,-1.2909592,0.47476345,-0.87039959,-0.13039993,0
5.1805997,-4.0704722,7.38936,0.5232929,-0.41115883,0.7464,0
8.7413225,-3.2375269,3.3343208,0.88296193,-0.32702294,0.3368001,0
1.0919265,-8.0074606,-5.7182398,0.11029561,-0.80883443,-0.5776,0
-4.6714568,7.6745377,4.1579995,-0.47186434,0.77520585,0.41999996,0
7.6356158,-0.67872125,-6.264719,0.77127433,-0.068557702,-0.63279992,0
8.0789557,0.70251715,5.6786389,0.81605613,0.070961334,0.57359993,0
-5.180007,8.1400108,-2.2175994,-0.52323306,0.82222337,-0.22399995,0
-7.6031995,3.4214399,-5.3380804,-0.76800001,0.34560001,-0.53920007,0
2.0942819,9.5738611,1.4018403,0.21154363,0.96705669,0.14160004,0
-9.6340542,2.2668357,0.23760001,-0.97313684,0.22897331,0.024000002,0
6.5399971,-7.3247967,-1.25928,0.66060579,-0.73987848,-0.12720001,0
-1.1158491,9.1499605,-3.6115217,-0.11271204,0.92423844,-0.36480018,0
3.7681892,-8.7924414,2.5502398,0.38062519,-0.88812542,0.25759998,0
-6.2752142,6.6054883,3.8728802,-0.63386005,0.66722107,0.39120004,0
5.9027009,-5.9027009,-5.3222399,0.59623241,-0.59623241,-0.53759998,0
-2.458812,-7.7276959,5.6786399,-0.24836485,-0.78057539,0.57359999,0
2.452004,7.029079,-6.5260797,0.24767718,0.71000803,-0.65920001,0
6.6669655,-5.8335948,-4.4193597,0.67343086,-0.589252,-0.44639999,0
2.8466089,-7.0327978,-6.3597612,0.28753626,-0.71038365,-0.64240015,0
-1.9411914,9.7059593,-0.19008124,-0.19607995,0.98039997,-0.019200126,0
-8.6804428,-4.7602425,2.3603437e-07,-0.87681246,-0.48083258,2.3841856e-08,0
-6.2007227,3.8158298,-6.7082391,-0.62633562,0.38543737,-0.67759991,0
3.7617922,-4.5141497,7.9675193,0.37997901,-0.45597473,0.80479997,0
6.6681523,1.0147188,-7.246798,0.67355078,0.10249685,-0.73199981,0
-3.5419314,-7.0838633,-5.9399996,-0.35777086,-0.71554178,-0.59999996,0
9.1375656,3.350441,1.8136791,0.92298645,0.33842841,0.18319991,0
-4.049808,-8.324605,-3.5085604,-0.40907153,-0.84086925,-0.35440007,0
-5.5218811,-7.4707808,3.4214406,-0.55776578,-0.75462437,0.34560007,0
-5.1511846,-6.0393195,-5.9162412,-0.52032167,-0.61003232,-0.59760016,0
1.9601004,1.9601004,9.5039997,0.19798996,0.19798996,0.95999998,0
3.4120429,-2.3884301,-8.9812784,0.3446508,-0.24125558,-0.90719986,0
-3.7805054,-3.5644763,-8.4268789,-0.38186926,-0.36004812,-0.85119992,0
7.1174316,3.2028434,6.0904803,0.71893251,0.32351956,0.61520004,0
1.0578469,9.785079,-1.0692004,0.10685322,0.98839188,-0.10800005,0
-6.2007227,-3.8158298,-6.7082391,-0.62633562,-0.38543737,-0.67759991,0
-7.6031995,6.0825596,-1.7899208,-0.76800001,0.61439997,-0.1808001,0
-9.8375931,-0.53176206,-0.97416025,-0.99369633,-0.05371334,-0.098400027,0
9.2416592,-1.6172904,-3.1600783,0.93350095,-0.16336267,-0.31919983,0
-4.3132753,-3.0967107,-8.3555984,-0.43568438,-0.31279907,-0.84399986,0
2.3352587,-2.724468,9.2268,0.23588473,-0.27519879,0.93200004,0
-6.310997,7.0122199,-3.0016797,-0.63747448,0.70830506,-0.30319998,0
-1.3347025,6.1396317,-7.6507182,-0.13481843,0.62016487,-0.77279985,0
-4.8534155,-1.1359059,-8.5535994,-0.490244,-0.11473797,-0.86399996,0
5.1647749,-8.4267387,-0.57024002,0.52169448,-0.85118574,-0.057600003,0
-8.2492027,-2.1605055,-5.029201,-0.83325285,-0.21823289,-0.50800014,0
8.7222462,4.0496144,2.3522413,0.88103503,0.40905198,0.23760013,0
-7.9192472,-3.0988359,5.0688,-0.79992396,-0.31301373,0.51200002,0
-0.3024146,1.6464794,-9.7574406,-0.03054693,0.16631106,-0.98560011,0
-9.5698633,-2.5331993,0.10295975,-0.96665287,-0.25587872,0.010399976,0
8.0918522,-4.9979095,-2.7482388,0.81735885,-0.50483936,-0.2775999,0
-3.0988359,-7.9192472,5.0688,-0.31301373,-0.79992396,0.51200002,0
-0.35551855,-7.8214159,6.0587997,-0.035910968,-0.79004204,0.61199999,0
5.8650794,-7.9178567,0.95832115,0.59243226,-0.79978353,0.096800119,0
-8.7942772,4.5389829,0.26135921,-0.88831085,0.45848313,0.026399922,0
2.2635546,-9.0542192,3.30264,0.22864188,-0.91456765,0.33360001,0
2.4006221,-8.2307053,4.9499993,0.24248709,-0.83138442,0.49999994,0
7.029079,2.452004,-6.5260797,0.71000803,0.24767718,-0.65920001,0
-6.8254509,-5.5844598,-4.498558,-0.68943954,-0.56408685,-0.45439982,0
4.4987402,-8.697567,1.4572796,0.45441821,-0.87854213,0.14719996,0
-0.62059689,9.6192465,2.2571998,-0.062686555,0.97164112,0.22799999,0
-8.458025,-4.2290125,-2.9304008,-0.8543461,-0.42717305,-0.29600012,0
-9.3119793,1.3967969,-3.0571203,-0.94060403,0.1410906,-0.30880004,0
3.3150938,-5.8935018,7.2309604,0.33485797,-0.59530324,0.73040009,0
3.7809196,4.1590109,8.1496792,0.38191107,0.42010212,0.82319993,0
-5.2942696,6.0001726,5.8291192,-0.53477472,0.60607809,0.58879995,0
-0.74160963,-8.1577072,-5.5598397,-0.074910067,-0.82401085,-0.56159997,0
-6.4049397,7.319931,1.8453593,-0.6469636,0.73938698,0.18639994,0
6.2344546,1.8010646,-7.4764786,0.62974292,0.18192573,-0.75519991,0
-9.6898861,-1.8841442,-0.7524007,-0.9787764,-0.1903176,-0.076000072,0
-3.3904626,8.9605093,-2.4947999,-0.34247097,0.90510195,-0.252,0
9.0181637,-0.21471797,-4.0788012,0.91092569,-0.021688685,-0.41200012,0
-0.374843,-8.246542,-5.4647999,-0.03786293,-0.83298409,-0.55199999,0
4.2349644,-1.5399865,8.8149595,0.42777419,-0.15555419,0.89039999,0
-0.86244339,5.7906923,-7.9833617,-0.087115496,0.58491844,-0.80640018,0
3.4073315,8.3053684,-4.1738396,0.34417492,0.83892614,-0.42159998,0
0.64585656,-6.0710506,-7.7932796,0.065238036,-0.61323744,-0.78719997,0
7.2643929,-2.3651509,-6.2964001,0.73377711,-0.23890415,-0.63600004,0
2.7837305,-8.5653248,-4.1104803,0.28118491,-0.86518437,-0.41520005,0
7.8349981,3.7471731,4.7519989,0.79141396,0.37850234,0.4799999,0
7.9752469,5.5213251,1.9800001,0.80558056,0.55770963,0.20000002,0
4.7303019,7.4333329,4.5143991,0.4778083,0.75084174,0.45599991,0
5.1444559,-1.0945649,-8.3872814,0.51964206,-0.11056212,-0.84720016,0
-4.6855345,8.1996861,-2.9700007,-0.47328633,0.82825112,-0.3000001,0
-6.6119428,7.2130289,1.5047996,-0.66787302,0.72858882,0.15199997,0
-5.0178556,8.1540155,2.5185604,-0.50685412,0.82363796,0.25440004,0
9.4921122,-0.63280779,2.7403193,0.95879924,-0.063919984,0.27679995,0
7.0003567,7.0003567,0,0.70710677,0.70710677,0,0
5.6614141,0.75485462,8.0863199,0.57186002,0.076247945,0.8168,0
-3.4941745,-1.552966,9.1317596,-0.35294694,-0.15686525,0.9224,0
-1.5203096,-4.9953036,-8.4110403,-0.15356663,-0.50457615,-0.84960008,0
-8.0934792,2.3124228,-5.2113609,-0.81752318,0.23357807,-0.52640009,0
-9.2108545,3.6285183,-0.06335903,-0.9303894,0.36651701,-0.006399902,0
-6.944941,-1.0965697,6.9695997,-0.70150924,-0.11076462,0.704,0
-5.9081235,5.3710217,-5.8528795,-0.59678018,0.5425275,-0.59119999,0
-6.0825596,-5.7023997,-5.3380799,-0.61439997,-0.57599998,-0.53920001,0
-0.34376836,-7.7347836,-6.1696792,-0.034724079,-0.78129131,-0.62319994,0
0.66584486,-8.9889135,4.0946407,0.067257062,-0.90797108,0.41360009,0
-6.3295116,-0.37232387,7.6032,-0.63934463,-0.037608474,0.76800001,0
1.1832391,-9.7617168,1.1484007,0.11951911,-0.98603207,0.11600007,0
1.5337018,6.9016566,-6.9299994,0.15491937,0.69713706,-0.69999999,0
0.33815676,-8.7920837,4.5381603,0.03415725,-0.8880893,0.45840004,0
2.9118032,6.551559,6.8270397,0.29412156,0.66177368,0.68959999,0
-2.0056531,7.8402791,-5.7024007,-0.20259124,0.79194742,-0.57600009,0
-5.4587297,-4.1309309,-7.1517601,-0.55138689,-0.41726577,-0.72240001,0
-2.6622865,9.4659071,1.1484003,-0.26891783,0.95615226,0.11600003,0
1.5408423,9.5532207,2.0908797,0.15564065,0.96497184,0.21119997,0
-5.5218811,7.4707813,3.4214394,-0.55776578,0.75462443,0.34559995,0
1.1705256,3.1214037,9.3218403,0.11823491,0.31529331,0.94160008,0
-4.3916745,4.015245,-7.9120789,-0.44360352,0.40558031,-0.79919994,0
-8.5645008,-0.68516046,4.9183197,-0.8651011,-0.06920813,0.49679998,0
9.730176,-1.4742696,1.0771208,0.98284608,-0.14891613,0.10880008,0
-1.5242653,-4.9538631,8.4348001,-0.1539662,-0.50039023,0.85200006,0
1.9477404,-7.1417146,-6.5735998,0.19674146,-0.72138536,-0.66400003,0
6.3723292,5.2478004,-5.464797,0.64366966,0.53008085,-0.55199975,0
1.8783933,-5.6351786,7.9199996,0.18973671,-0.56920999,0.80000001,0
1.5057175,5.6464367,7.9912801,0.15209268,0.57034719,0.80720001,0
3.262568,6.5251379,6.6924,0.32955232,0.65910488,0.676,0
0,7.2587991,6.7320004,0,0.73321205,0.68000007,0
-4.5099373,8.7545843,-1.0137588,-0.45554924,0.88430148,-0.10239988,0
-3.0191097,-8.3864155,4.3084798,-0.30496058,-0.84711272,0.43520001,0
-4.2052894,2.6760924,8.5535994,-0.42477673,0.27031237,0.86399996,0
1.4723531,-5.6440201,-7.9992003,0.14872254,-0.57010305,-0.80800009,0
7.2224145,-6.2594256,-2.5819201,0.72953683,-0.63226527,-0.26080003,0
4.4170599,5.1532359,7.2072001,0.44616768,0.52052891,0.72800004,0
1.1832391,-9.7617168,1.1484007,0.11951911,-0.98603207,0.11600007,0
9.730176,1.4742696,1.0771208,0.98284608,0.14891613,0.10880008,0
1.1705256,-3.1214049,9.3218393,0.11823491,-0.31529343,0.94159997,0
-6.4561744,-7.201118,-2.1146405,-0.65213883,-0.7273857,-0.21360005,0
-2.2245188,9.2158651,2.8511989,-0.22469887,0.93089551,0.2879999,0
-8.8420687,-2.4315691,-3.7303205,-0.89313829,-0.24561305,-0.37680006,0
-9.7388563,1.7186217,0.45935977,-0.98372293,0.17359816,0.046399977,0
-5.4423032,-3.8668993,-7.3101587,-0.54972762,-0.39059591,-0.73839992,0
7.2200651,6.2783165,2.5423195,0.72929955,0.63417339,0.25679997,0
5.3788977,-5.3788986,6.336,0.54332304,-0.5433231,0.64000005,0
-8.2832146,-1.72567,5.1400795,-0.8366884,-0.1743101,0.51919997,0
3.033349,4.5500245,8.2526398,0.3063989,0.45959845,0.83359998,0
-1.6461399,2.9493339,-9.3060007,-0.16627675,0.29791254,-0.94000012,0
-8.6169558,-4.7001581,-1.2909592,-0.87039959,-0.47476345,-0.13039993,0
0.9293766,9.6035671,2.2175999,0.093876429,0.97005731,0.22399999,0
-1.7024889,1.4336749,-9.6465588,-0.17196858,0.14481565,-0.97439992,0
7.6975303,-4.3688688,-4.4352002,0.77752835,-0.44129989,-0.44800004,0
-1.1372304,-4.1115255,-8.9337597,-0.11487176,-0.41530561,-0.90240002,0
-4.970953,0,8.5615196,-0.5021165,0,0.86479998,0
2.3884292,-3.4120419,-8.9812784,0.24125548,-0.34465072,-0.90719986,0
7.753191,-2.1145065,5.7815986,0.78315061,-0.21358652,0.58399987,0
6.349936,0,-7.5952816,0.64140773,0,-0.76720017,0
-4.6121335,0.3843441,8.7515993,-0.46587208,0.03882264,0.88399994,0
-8.0789547,-0.70251822,5.6786404,-0.81605607,-0.070961438,0.57360005,0
-2.5995221,9.5315809,0.63360077,-0.26257801,0.96278602,0.064000078,0
2.7453859,2.1118355,-9.2743196,0.27731171,0.21331672,-0.9368,0
8.6388283,-2.6581016,4.0392003,0.87260896,-0.26849511,0.40800005,0
4.5228238,-2.7578192,-8.3635216,0.45685092,-0.27856761,-0.84480017,0
-6.5309987,-6.5309987,3.5640006,-0.65969688,-0.65969688,0.36000007,0
-5.3986287,2.2085299,-7.9991999,-0.54531604,0.22308384,-0.80800003,0
-5.9544916,-2.2329345,7.5873599,-0.60146379,-0.22554895,0.76640004,0
4.0570192,-7.7083373,-4.7044792,0.40979993,-0.77861995,-0.47519994,0
0.74161017,8.1577072,-5.5598397,0.074910119,0.82401085,-0.56159997,0
-8.9997406,0.42855862,-4.102561,-0.90906477,0.043288752,-0.41440013,0
-0.60108536,4.8086829,-8.6328011,-0.060715694,0.48572555,-0.87200016,0
-8.6682396,-3.7484279,-2.97,-0.87557977,-0.37862909,-0.30000001,0
3.5644763,-3.7805054,-8.4268789,0.36004812,-0.38186926,-0.85119992,0
0,9.8550358,-0.94248027,0,0.99545819,-0.095200032,0
2.4006221,-8.2307053,4.9499993,0.24248709,-0.83138442,0.49999994,0
8.2860727,5.3458529,-0.87911969,0.83697706,0.53998518,-0.088799976,0
7.3846297,6.4984751,1.116719,0.74592221,0.65641165,0.11279991,0
-3.7253482,5.811543,-7.0963187,-0.3762978,0.58702457,-0.71679991,0
-0.67872125,7.6356158,-6.264719,-0.068557702,0.77127433,-0.63279992,0
1.1837143,1.1837143,9.7574396,0.1195671,0.1195671,0.98559999,0
8.9255095,2.7463109,-3.2867992,0.90156662,0.27740514,-0.33199993,0
1.9411914,9.7059593,-0.19008124,0.19607995,0.98039997,-0.019200126,0
-7.7083373,4.0570192,-4.7044792,-0.77861995,0.40979993,-0.47519994,0
-3.6112065,-4.4538212,-8.0704803,-0.36476836,-0.44988096,-0.81520009,0
1.1522988,-4.5131698,-8.7357597,0.11639383,-0.45587575,-0.88240004,0
2.1118355,-2.7453859,-9.2743196,0.21331672,-0.27731171,-0.9368,0
8.1495953,-5.62041,0.071279392,0.82319146,-0.56771821,0.0071999389,0
0,9.7800417,-1.5364797,0,0.98788303,-0.15519997,0
2.5331988,9.5698643,0.10296178,0.25587869,0.96665299,0.01040018,0
-8.8697062,1.0559176,-4.2688808,-0.89592993,0.10665835,-0.43120009,0
-3.3811073,4.8838215,7.9199996,-0.341526,0.49331531,0.80000001,0
-7.475615,3.0996456,-5.7024002,-0.75511265,0.31309554,-0.57600003,0
0.42855862,-8.9997406,-4.102561,0.043288752,-0.90906477,-0.41440013,0
-9.6267586,2.1392791,-0.87120056,-0.97239989,0.2160888,-0.088000059,0
-8.2307053,5.4871364,-0.39600018,-0.83138442,0.5542562,-0.040000018,0
-2.5331995,9.5698633,0.10296135,-0.25587875,0.96665287,0.010400137,0
8.2492027,2.1605055,-5.029201,0.83325285,0.21823289,-0.50800014,0
6.1728988,0.52535337,-7.722002,0.62352514,0.053066,-0.78000021,0
4.8382316,-6.9117594,5.1796803,0.48871028,-0.69815755,0.52320004,0
-3.7589886,-2.9676228,-8.6644802,-0.37969583,-0.29975989,-0.87520003,0
6.0393205,-5.1511855,-5.9162393,0.61003238,-0.52032179,-0.59759992,0
-6.6681499,-1.0147184,-7.2468004,-0.67355055,-0.10249681,-0.73200005,0
0,-1.1858597,9.8287191,0,-0.11978381,0.99279994,0
4.0141201,-5.8667908,-6.890399,0.40546671,-0.59260517,-0.69599992,0
4.6456323,8.7105598,0.74447876,0.46925581,0.87985456,0.07519988,0
5.8207636,7.9374042,-1.0612816,0.58795595,0.80175805,-0.10720016,0
-3.1962276,9.3223305,-0.9424814,-0.32285127,0.94164956,-0.095200144,0
-2.9419785,-8.405654,-4.3243198,-0.29716957,-0.84905601,-0.4368,0
1.6284225,9.1191626,3.4927211,0.16448712,0.92112756,0.35280013,0
8.2096443,-0.55974847,-5.5043998,0.82925701,-0.056540251,-0.55599999,0
-4.2170043,-2.300184,8.656559,-0.42596003,-0.23234183,0.87439996,0
1.1772583,2.3545189,9.5436001,0.11891498,0.23783021,0.96400005,0
6.4178395,-7.4874787,-0.87120038,0.64826667,-0.756311,-0.088000044,0
0.54871315,9.8768463,-0.39600074,0.055425573,0.99766129,-0.040000077,0
-2.9987428,-5.2477989,7.8407998,-0.30290332,-0.53008074,0.792,0
3.8670375,-1.5468143,8.9812794,0.39060986,-0.15624388,0.90719998,0
-6.2968931,5.2474098,5.5519199,-0.63604981,0.5300414,0.56080002,0
-8.3053694,-3.407331,-4.1738391,-0.83892626,-0.34417486,-0.42159992,0
3.3904626,8.9605093,-2.4947999,0.34247097,0.90510195,-0.252,0
-1.4462186,-7.2310939,6.6052804,-0.1460827,-0.73041356,0.66720009,0
-5.5717354,-5.7514687,-5.8211994,-0.5628016,-0.58095646,-0.58799994,0
4.9022365,3.0167603,8.0546398,0.49517542,0.30472329,0.8136,0
3.4214399,-7.6031995,-5.3380804,0.34560001,-0.76800001,-0.53920007,0
-7.2306175,4.4760962,5.0687995,-0.73036546,0.45213094,0.51199996,0
2.5345235,6.8794212,6.6528001,0.25601247,0.69489104,0.67200005,0
-7.8852735,-5.3619857,2.6611202,-0.79649228,-0.54161471,0.26880002,0
8.0052738,-4.8031645,-3.2947214,0.80861354,-0.48516816,-0.33280015,0
6.5056419,-7.125227,2.2176011,0.65713555,-0.71971995,0.22400011,0
-8.4690313,-4.8761091,-1.583999,-0.85545772,-0.49253631,-0.15999991,0
-8.335393,-0.34730768,5.3301597,-0.84195894,-0.035081584,0.53839999,0
-0.38229862,-4.9698863,8.5535994,-0.038616024,-0.50200874,0.86399996,0
5.824297,7.1683655,-3.5639992,0.58831286,0.72407734,-0.35999992,0
1.1772583,2.3545189,9.5436001,0.11891498,0.23783021,0.96400005,0
3.7681892,-8.7924414,2.5502398,0.38062519,-0.88812542,0.25759998,0
2.8466089,7.0327978,-6.3597612,0.28753626,0.71038365,-0.64240015,0
-4.1885867,8.3771734,3.2076004,-0.42308959,0.84617919,0.32400006,0
-2.4315696,8.8420687,-3.7303185,-0.2456131,0.89313829,-0.37679988,0
-6.185226,-7.6578984,1.0533601,-0.62477034,-0.77352512,0.10640001,0
0.38007712,-5.321084,8.3397598,0.038391631,-0.53748327,0.84240001,0
6.6779275,5.3030601,-5.0291977,0.67453814,0.53566265,-0.50799978,0
-4.3209243,-6.1213088,6.4706402,-0.43645701,-0.61831403,0.65360004,0
-7.1450858,4.7633905,-4.9262409,-0.72172588,0.48115057,-0.49760011,0
-0.94191396,9.4191408,-2.8987184,-0.095142826,0.95142841,-0.29279983,0
1.0919265,8.0074606,-5.7182398,0.11029561,0.80883443,-0.5776,0
5.5525928,6.246666,5.3063989,0.56086797,0.63097638,0.53599989,0
5.2942686,-6.0001717,5.8291206,0.5347746,-0.60607797,0.58880007,0
-9.7056675,1.0216498,-1.6631998,-0.98037052,0.10319696,-0.16799998,0
3.6486542,-8.2923946,3.9916797,0.36855096,-0.83761567,0.40319997,0
-8.3804302,-4.5493765,-2.6611195,-0.84650815,-0.45953301,-0.26879996,0
-8.1540155,-5.0178556,2.5185604,-0.82363796,-0.50685412,0.25440004,0
6.9597292,5.3221464,-4.6094379,0.70300299,0.53759056,-0.46559981,0
-8.2737579,5.3188448,1.1246397,-0.83573318,0.53725708,0.11359998,0
4.564889,-2.6628516,8.3714399,0.46109992,-0.26897493,0.84560001,0
0.26834637,-6.3061457,-7.6269593,0.027105695,-0.63698441,-0.77039999,0
-2.1588938,7.196312,6.4468803,-0.21807009,0.72690022,0.65120006,0
3.2336304,-6.3132792,-6.9062386,0.32662934,-0.63770497,-0.69759989,0
1.8783933,-5.6351786,7.9199996,0.18973671,-0.56920999,0.80000001,0
3.8649273,-9.1101856,-0.27719879,0.39039671,-0.92022079,-0.02799988,0
2.6315389,-9.4735374,-1.1563212,0.26581201,-0.95692301,-0.11680012,0
-7.3274083,5.5510669,-3.6748791,-0.74014229,0.56071383,-0.37119994,0
4.3677025,-0.72795051,-8.8545609,0.44118208,-0.073530361,-0.89440012,0
3.2069159,9.3292084,0.83160007,0.32393092,0.94234431,0.084000014,0
6.9117594,-4.8382316,5.1796803,0.69815755,-0.48871028,0.52320004,0
0,8.5736513,4.9499998,0,0.86602545,0.5,0
-0.26834676,-6.3061452,-7.6269598,-0.027105734,-0.63698441,-0.77039999,0
-0.79587132,9.8157463,-1.0137602,-0.080391042,0.99148959,-0.10240003,0
-7.251883,-0.72518873,6.7003202,-0.73251349,-0.073251389,0.67680007,0
4.3552799,-5.8070397,6.7319999,0.43992728,-0.58656967,0.68000001,0
0.37484246,-8.246542,-5.4647994,0.037862878,-0.83298409,-0.55199999,0
2.3690462,8.4608803,4.5619197,0.23929761,0.8546344,0.46079999,0
-7.9051557,-3.6485338,-4.712399,-0.7985006,-0.3685388,-0.47599992,0
6.9876218,-6.0859928,-3.4847991,0.70582038,-0.61474675,-0.35199994,0
8.7222462,4.0496144,2.3522413,0.88103503,0.40905198,0.23760013,0
9.4987183,-0.23746775,-2.7799184,0.95946652,-0.023986643,-0.28079987,0
9.3030939,-3.3829436,0.13464078,0.9397065,-0.34171149,0.013600079,0
-3.5203302,9.0522795,-1.9166404,-0.35558891,0.91437173,-0.19360004,0
9.2828341,3.0942781,-1.5048008,0.93766004,0.31255335,-0.15200008,0
-9.0074396,3.416615,2.2809587,-0.90984243,0.34511265,0.23039988,0
-7.319931,-6.4049397,1.8453593,-0.73938698,-0.6469636,0.18639994,0
-8.0904417,0.91936857,-5.6311197,-0.81721634,0.092865512,-0.56879997,0
6.6485558,0.36936384,7.3259997,0.67157131,0.037309479,0.74000001,0
5.5525928,6.246666,5.3063989,0.56086797,0.63097638,0.53599989,0
9.2158651,2.2245188,2.8511989,0.93089551,0.22469887,0.2879999,0
6.7212524,4.2450018,5.9003997,0.67891443,0.42878807,0.59600002,0
-1.1741383,2.7396557,9.4406395,-0.11859983,0.27673292,0.95359999,0
-0.78993851,-1.1849072,9.79704,-0.079791769,-0.1196876,0.98960006,0
4.4538994,6.5917716,-5.8924799,0.44988886,0.66583556,-0.5952,0
3.9493334,-6.4625454,6.3755994,0.39892259,-0.65278238,0.64399993,0
8.3232937,-4.9323225,2.0988009,0.84073675,-0.49821442,0.2120001,0
-6.0859928,-6.9876218,-3.4847991,-0.61474675,-0.70582038,-0.35199994,0
6.0680737,6.4865613,-4.371841,0.61293679,0.65520823,-0.44160011,0
6.3866243,-4.6125617,5.9954395,0.64511359,-0.46591535,0.6056,0
-3.2516396,8.8258801,-3.0887992,-0.32844844,0.8915031,-0.31199995,0
9.4851809,1.4592588,-2.4314392,0.95809913,0.14739989,-0.24559993,0
9.7900419,1.3597283,-0.56232089,0.98889315,0.1373463,-0.056800094,0
-8.042798,4.8256779,3.1680005,-0.81240386,0.48744223,0.32000005,0
-9.7056684,-1.0216491,-1.6631995,-0.98037058,-0.10319688,-0.16799995,0
-3.8765955,-6.8721466,-5.979599,-0.39157531,-0.69415623,-0.60399991,0
2.8861847,-6.8546901,6.5339999,0.29153383,-0.69239295,0.66000003,0
4.4248843,7.4882674,4.7282391,0.44695804,0.75639069,0.47759992,0
2.2604349,7.4768233,-6.0825601,0.22832677,0.75523472,-0.61440003,0
1.7024889,1.4336749,-9.6465588,0.17196858,0.14481565,-0.97439992,0
8.8104439,4.405221,0.98999995,0.88994384,0.44497183,0.1,0
8.9668941,2.8822155,3.0492015,0.90574694,0.2911329,0.30800015,0
2.2021935,-0.74968284,-9.6228018,0.22244379,-0.075725541,-0.97200024,0
5.5297794,3.1020715,-7.6032023,0.55856359,0.31334057,-0.76800025,0
6.1583939,2.5779324,-7.3101606,0.62206,0.26039723,-0.7384001,0
-4.5500245,3.033349,8.2526398,-0.45959845,0.3063989,0.83359998,0
5.6500645,5.6500645,5.8449583,0.57071358,0.57071358,0.59039986,0
6.2752142,6.6054883,3.8728802,0.63386005,0.66722107,0.39120004,0
0.94191456,-9.4191408,-2.8987205,0.095142886,-0.95142841,-0.29280007,0
0.59415781,-9.8036127,1.2434409,0.060015943,-0.99026394,0.1256001,0
1.944437,3.1110978,9.1951199,0.19640779,0.31425232,0.92880005,0
9.0894547,-1.9477404,3.405601,0.91812676,-0.19674146,0.34400013,0
-3.8139546,3.4325583,8.4664803,-0.38524795,0.34672308,0.85520005,0
3.8352599,7.3218579,5.4489603,0.3874,0.73958164,0.55040008,0
-9.4659071,2.6622858,1.1484007,-0.95615226,0.26891777,0.11600007,0
6.4723892,5.7910857,4.7519994,0.65377671,0.5849582,0.47999996,0
-1.9556952,2.3468337,9.4168797,-0.19754498,0.23705392,0.95120001,0
0.76881057,9.7382765,-1.6077595,0.07765764,0.98366433,-0.16239995,0
2.3690462,8.4608803,4.5619197,0.23929761,0.8546344,0.46079999,0
-4.0097418,-8.0194836,4.1975994,-0.40502444,-0.81004888,0.42399997,0
-1.4000716,9.8004999,-1.4162064e-06,-0.14142138,0.98994952,-1.4305115e-07,0
-1.1705267,3.1214037,9.3218403,-0.11823503,0.31529331,0.94160008,0
6.944941,-1.0965697,6.9695997,0.70150924,-0.11076462,0.704,0
3.0623264,3.8279097,8.601119,0.3093259,0.38665757,0.86879992,0
-5.4229045,8.1343555,1.5602405,-0.54776818,0.82165211,0.15760006,0
7.5175896,1.4319227,6.2805605,0.75935251,0.14463866,0.63440007,0
2.8220143,1.1042666,-9.424798,0.28505197,0.11154209,-0.95199984,0
1.5383972,9.0106134,-3.8016014,0.15539366,0.91016299,-0.38400015,0
4.5500245,3.033349,8.2526398,0.45959845,0.3063989,0.83359998,0
-4.9184279,-2.6483841,8.17344,-0.49681091,-0.26751354,0.82560003,0
-2.4630306,9.5784531,-0.44352135,-0.24879098,0.96752053,-0.04480014,0
0.70922631,-9.4563599,-2.8432801,0.071639024,-0.95518792,-0.28720003,0
4.9635596,-3.6573596,-7.7457595,0.50136966,-0.36943027,-0.78239995,0
-8.8420687,-2.4315691,-3.7303205,-0.89313829,-0.24561305,-0.37680006,0
8.6001129,4.5530014,-1.8215988,0.8686983,0.45989916,-0.18399988,0
-2.2668366,9.6340532,0.23760124,-0.2289734,0.97313672,0.024000125,0
8.5713644,-0.34285426,4.94208,0.86579442,-0.034631744,0.49920002,0
3.4936004,7.3549476,-5.6311183,0.35288894,0.74292403,-0.56879985,0
-7.8402791,2.0056531,-5.7024007,-0.79194742,0.20259124,-0.57600009,0
9.2416592,-1.6172904,-3.1600783,0.93350095,-0.16336267,-0.31919983,0
0.31670067,9.501029,2.7640793,0.031989969,0.95969993,0.27919996,0
5.540462,-3.6936419,7.3260002,0.55964267,-0.37309515,0.74000007,0
0.84004313,-7.5603862,-6.335999,0.084852844,-0.76367539,-0.63999993,0
-3.0575714,-2.8027735,-8.9891996,-0.30884561,-0.28310844,-0.90799999,0
-2.3588307,0,9.6148796,-0.23826574,0,0.97119999,0
-1.7291015,6.4841304,-7.2784791,-0.17465673,0.65496272,-0.73519993,0
-3.2011886,3.8207736,-8.5536003,-0.3233524,0.38593674,-0.86400008,0
-6.2138944,3.2897081,6.9696007,-0.62766612,0.33229378,0.70400012,0
6.0933576,6.7462182,-3.9203987,0.61549067,0.68143618,-0.39599988,0
-6.6753898,-6.0078511,4.1659198,-0.67428184,-0.60685366,0.4208,0
6.2344546,-1.8010646,-7.4764786,0.62974292,-0.18192573,-0.75519991,0
7.668273,-2.1399832,-5.8845606,0.77457303,-0.21615992,-0.59440011,0
-5.7514687,-5.5717354,-5.8211994,-0.58095646,-0.5628016,-0.58799994,0
-2.9792681,-5.5861273,7.6111193,-0.30093619,-0.5642553,0.76879996,0
1.0329444,5.3942676,-8.2368011,0.10433783,0.5448755,-0.83200014,0
-3.382498,-8.1179962,4.5460796,-0.34166649,-0.81999964,0.45919999,0
6.0438218,-4.9772639,6.0587997,0.6104871,-0.50275397,0.61199999,0
-1.6066874,3.8053124,-8.9971189,-0.16229166,0.38437501,-0.90879995,0
-2.8822165,8.9668941,3.049201,-0.29113299,0.90574694,0.30800012,0
-7.1644192,3.8577638,-5.6390381,-0.72367871,0.38967311,-0.56959981,0
3.0600619,8.1601677,4.6965599,0.30909717,0.8242594,0.47440001,0
3.0819297,4.7414303,-8.1259174,0.31130603,0.47893238,-0.82079977,0
9.343771,0.64439732,3.2075989,0.94381529,0.065090641,0.32399991,0
2.8701451,-9.0887928,-2.6769598,0.28991365,-0.91805989,-0.27039999,0
-0.31670067,9.501029,2.7640793,-0.031989969,0.95969993,0.27919996,0
-3.1717589,7.2245622,-5.9796019,-0.3203797,0.72975379,-0.60400021,0
6.2603984,-2.5778105,7.2230392,0.6323635,-0.26038492,0.72959995,0
-1.8590921,-7.9940968,-5.5360804,-0.18778709,-0.80748457,-0.55920005,0
2.5625818,-5.7995272,-7.6032,0.25884664,-0.58581084,-0.76800001,0
7.6356158,-0.67872125,-6.264719,0.77127433,-0.068557702,-0.63279992,0
4.3228979,8.6457958,2.1384015,0.43665639,0.87331277,0.21600015,0
8.4734373,-4.8419642,1.6632013,0.85590279,-0.48908731,0.16800015,0
9.4955807,-2.309736,-1.5840002,0.9591496,-0.23330668,-0.16000003,0
6.2466664,-5.5525918,5.3063998,0.63097644,-0.56086791,0.53600001,0
6.5937028,-4.164444,-6.0983996,0.66603059,-0.42065093,-0.616,0
2.9118032,6.551559,6.8270397,0.29412156,0.66177368,0.68959999,0
6.3347321,-6.7872138,-3.4372792,0.63987195,-0.68557715,-0.34719995,0
7.7757301,-5.9613924,-1.4176801,0.78542733,-0.60216087,-0.14320002,0
0.75965899,5.3176174,8.316,0.076733232,0.5371331,0.84000003,0
5.3458529,-8.2860727,-0.87911969,0.53998518,-0.83697706,-0.088799976,0
-7.9207435,2.4516585,-5.4093609,-0.80007511,0.24764228,-0.54640013,0
6.9669356,6.7181168,-2.0829577,0.70373088,0.67859769,-0.21039978,0
6.2783165,7.2200651,2.5423195,0.63417339,0.72929955,0.25679997,0
4.4538994,6.5917716,-5.8924799,0.44988886,0.66583556,-0.5952,0
0.36620864,6.9579711,7.0329599,0.036990773,0.70282537,0.71040004,0
-0.62059689,9.6192465,2.2571998,-0.062686555,0.97164112,0.22799999,0
1.3169607,9.7455072,-1.1404803,0.13302633,0.98439473,-0.11520004,0
4.4779878,-6.903564,-5.5044003,0.45232201,-0.6973297,-0.55600005,0
9.6464005,-2.2048917,-0.30888146,0.97438395,-0.22271635,-0.031200148,0
-1.0397545,-8.3180361,5.2667994,-0.10502571,-0.84020567,0.53199995,0
6.8794212,2.5345235,6.6528001,0.69489104,0.25601247,0.67200005,0
-0.28861833,3.5355752,-9.2426405,-0.029153368,0.35712883,-0.93360007,0
-5.9388123,7.9184151,0.19800098,-0.59988004,0.79983991,0.0200001,0
6.0680737,6.4865613,-4.371841,0.61293679,0.65520823,-0.44160011,0
-2.7441397,-0.3920196,9.5039997,-0.27718583,-0.03959794,0.95999998,0
0.26834637,-6.3061457,-7.6269593,0.027105695,-0.63698441,-0.77039999,0
-7.7083373,-4.0570192,-4.7044792,-0.77861995,-0.40979993,-0.47519994,0
-6.2968931,-5.2474108,5.5519195,-0.63604981,-0.53004152,0.56079996,0
1.0559176,-8.8697062,-4.2688808,0.10665835,-0.89592993,-0.43120009,0
-5.9388118,-7.9184155,0.19799966,-0.59987998,-0.79983997,0.019999966,0
-4.0704722,-5.1805997,7.38936,-0.41115883,-0.5232929,0.7464,0
-0.39465091,-1.5786048,9.7653599,-0.039863728,-0.15945503,0.98640001,0
-8.9997406,-0.42855927,-4.102561,-0.90906477,-0.043288816,-0.41440013,0
6.9149361,-6.6006203,2.5739987,0.6984784,-0.66672933,0.25999987,0
2.0942819,-9.5738611,1.4018403,0.21154363,-0.96705669,0.14160004,0
4.1426964,4.9712358,-7.492321,0.4184542,0.50214505,-0.75680012,0
5.3942676,1.0329444,-8.2368011,0.5448755,0.10433783,-0.83200014,0
6.1861186,-3.6388927,6.8191195,0.62486047,-0.36756492,0.68879998,0
3.8352599,7.3218579,5.4489603,0.3874,0.73958164,0.55040008,0
-9.6118908,1.5176672,-1.8215997,-0.97089809,0.15329972,-0.18399999,0
-3.7171302,8.9211121,-2.1463208,-0.37546772,0.90112245,-0.21680009,0
-1.9753667,-1.8656241,-9.5198402,-0.199532,-0.18844688,-0.96160007,0
1.5337018,-6.9016566,-6.9299994,0.15491937,-0.69713706,-0.69999999,0
1.0965686,6.944941,6.9695997,0.11076451,0.70150924,0.704,0
7.5175896,1.4319227,6.2805605,0.75935251,0.14463866,0.63440007,0
-8.4426899,-4.7179737,-2.11464,-0.85279697,-0.47656301,-0.21360001,0
1.9298657,-3.8597302,8.9099998,0.19493593,-0.38987175,0.90000004,0
2.4488051,-9.3054571,-2.32848,0.24735406,-0.93994522,-0.2352,0
3.4325583,-3.8139546,8.4664803,0.34672308,-0.38524795,0.85520005,0
0.60772717,-9.7236443,1.7582403,0.061386585,-0.98218632,0.17760004,0
-2.4692111,8.4364719,-4.5540018,-0.24941528,0.85216892,-0.46000019,0
8.3053684,3.4073315,-4.1738396,0.83892614,0.34417492,-0.42159998,0
-8.3375597,0,5.3380795,-0.84217781,0,0.53919995,0
-6.4561744,7.201118,-2.1146405,-0.65213883,0.7273857,-0.21360005,0
0.96980661,2.0781572,-9.6307182,0.097960271,0.20991488,-0.97279984,0
9.3830032,-2.8670292,-1.322641,0.94777817,-0.28959891,-0.1336001,0
-8.1601677,-3.0600629,4.6965594,-0.8242594,-0.30909726,0.47439995,0
9.0662374,-3.6264951,1.6315193,0.91578162,-0.36631265,0.16479994,0
0.67622072,9.2416925,-3.4848015,0.068305127,0.93350434,-0.35200018,0
-7.251883,0.72518766,6.7003202,-0.73251349,0.073251285,0.67680007,0
-8.996541,0.33320493,4.1184006,-0.90874153,0.033657063,0.41600007,0
-1.0919261,9.8273382,-0.49104074,-0.11029557,0.99266046,-0.049600076,0
2.1982815,6.5948448,7.0487995,0.22204864,0.66614598,0.71199995,0
-6.5309987,-6.5309987,3.5640006,-0.65969688,-0.65969688,0.36000007,0
8.4608803,2.3690462,4.5619197,0.8546344,0.23929761,0.46079999,0
9.6118908,1.5176672,-1.8215997,0.97089809,0.15329972,-0.18399999,0
-1.3838029,8.3028193,5.2113595,-0.13977808,0.83866864,0.52639997,0
-1.0644374,7.8058748,5.9954386,-0.10751893,0.78847224,0.60559988,0
-5.7748141,4.7848468,-6.4627204,-0.5833146,0.48331788,-0.65280008,0
4.2450018,6.7212524,5.9003997,0.42878807,0.67891443,0.59600002,0
2.9035194,6.0973911,-7.2388806,0.2932848,0.61589813,-0.7312001,0
6.123394,-7.7208014,-0.95040166,0.61852467,-0.77987897,-0.096000172,0
6.1157994,-7.7837439,-0.14256105,0.61775756,-0.78623676,-0.014400107,0
3.8756166,7.0465741,5.7736797,0.39147642,0.71177518,0.58319998,0
9.2872181,-0.22651729,-3.4214416,0.9381029,-0.022880536,-0.34560016,0
-6.2553358,-7.5585308,-1.3226413,-0.63185215,-0.76348799,-0.13360013,0
-6.6363173,1.1060518,7.2626395,-0.67033511,0.11172241,0.73359996,0
8.6457958,4.3228979,2.1384015,0.87331277,0.43665639,0.21600015,0
7.8233571,0,6.0667186,0.79023814,0,0.61279988,0
8.0711288,3.6992676,4.3797593,0.8152656,0.37366343,0.44239995,0
6.6669655,-5.8335948,-4.4193597,0.67343086,-0.589252,-0.44639999,0
-7.5010133,1.7859559,6.2092795,-0.75767815,0.1803996,0.62719995,0
-2.8220081,1.104264,-9.4248009,-0.28505135,0.11154182,-0.95200014,0
-7.8348937,4.8968077,3.5560801,-0.79140341,0.49462706,0.35920003,0
-4.3063974,8.899888,0.50687975,-0.43498966,0.89897865,0.051199976,0
5.9027014,-5.9027004,5.3222399,0.59623247,-0.59623241,0.53759998,0
-4.4248843,7.4882674,4.7282391,-0.44695804,0.75639069,0.47759992,0
0.45220312,-9.2701731,-3.4451995,0.045677084,-0.93638116,-0.34799996,0
9.6286421,-0.31060106,2.2809598,0.97259015,-0.031373844,0.2304,0
2.7217381,9.3748779,1.6473602,0.27492306,0.94695741,0.16640003,0
-4.8838215,-3.3811073,7.9199996,-0.49331531,-0.341526,0.80000001,0
-2.2021992,0.74968493,-9.6227999,-0.22244437,0.075725757,-0.972,0
-0.21948548,5.2676487,-8.3793612,-0.022170251,0.53208578,-0.84640014,0
-9.1756124,0.65540028,3.65904,-0.92682958,0.066202052,0.3696,0
7.0465741,3.8756166,5.7736797,0.71177518,0.39147642,0.58319998,0
9.5504427,1.7592919,-1.9245596,0.96469122,0.17770626,-0.19439997,0
-2.6581016,8.6388283,4.0392003,-0.26849511,0.87260896,0.40800005,0
2.8027735,3.0575714,-8.9891996,0.28310844,0.30884561,-0.90799999,0
-8.9823065,-3.84956,-1.5839998,-0.90730369,-0.38884446,-0.15999998,0
7.0743384,-1.4148678,-6.7795191,0.71457964,-0.14291593,-0.68479991,0
6.4772334,4.9967222,-5.5756803,0.654266,0.50471944,-0.56320006,0
9.3119802,-1.3967972,-3.0571184,0.94060409,-0.14109063,-0.30879986,0
-6.4614773,-3.5538123,-6.6052799,-0.6526745,-0.35897094,-0.66720003,0
-4.7249551,5.4518709,6.7795205,-0.47726822,0.55069405,0.68480009,0
-1.0919261,9.8273382,-0.49104074,-0.11029557,0.99266046,-0.049600076,0
-8.3804302,4.5493765,-2.6611195,-0.84650815,0.45953301,-0.26879996,0
4.0570192,-7.7083373,-4.7044792,0.40979993,-0.77861995,-0.47519994,0
-0.70922703,-9.4563599,-2.8432803,-0.071639098,-0.95518792,-0.28720003,0
3.8114872,7.4324002,-5.3143187,0.38499871,0.7507475,-0.53679991,0
8.8204546,-3.5758603,-2.7244804,0.89095503,-0.36119801,-0.27520004,0
-4.3228974,-8.6457958,2.1384001,-0.43665636,-0.87331283,0.21600004,0
-9.3522358,0.32249054,3.231359,-0.94467032,0.032574803,0.32639992,0
-6.9493113,3.2204125,-6.2726393,-0.70195067,0.3252942,-0.63359994,0
-8.0052748,-4.803165,-3.2947199,-0.80861366,-0.48516819,-0.3328,0
-8.2378464,3.9541667,3.8095198,-0.83210576,0.39941078,0.38479999,0
-9.5019369,-2.714839,-0.59399956,-0.95979166,-0.27422616,-0.059999958,0
9.645565,2.0460289,0.88704091,0.97429955,0.20666958,0.089600094,0
6.2783165,7.2200651,2.5423195,0.63417339,0.72929955,0.25679997,0
4.9613471,1.1449252,8.4902401,0.5011462,0.11564901,0.85760003,0
-0.53499693,-1.9753734,-9.6861591,-0.054040097,-0.19953267,-0.97839993,0
-3.0600629,8.1601677,4.6965594,-0.30909726,0.8242594,0.47439995,0
-8.4402075,3.8954809,3.4056001,-0.85254622,0.39348292,0.34400001,0
8.2321453,-5.1832023,1.8374411,0.83152986,-0.52355582,0.18560012,0
8.3102617,5.0365219,-1.8928787,0.83942044,0.50873959,-0.19119987,0
6.0061593,6.2063642,-4.8391204,0.60668278,0.6269055,-0.48880005,0
2.7993355,7.6981754,5.5598388,0.28276116,0.77759349,0.56159991,0
-3.0988359,7.9192476,5.068799,-0.31301373,0.79992402,0.51199991,0
8.324605,4.049808,-3.5085604,0.84086925,0.40907153,-0.35440007,0
4.9967222,6.4772334,-5.5756803,0.50471944,0.654266,-0.56320006,0
-8.0686798,-1.0524366,5.63904,-0.81501818,-0.10630673,0.56960005,0
1.5665388,7.6586361,-6.0746393,0.15823625,0.77359962,-0.61359996,0
5.0618811,2.9630523,-7.9754419,0.51130116,0.29929823,-0.80560023,0
-7.6645794,-3.13551,5.4252,-0.77419996,-0.31671819,0.54800004,0
1.5715766,9.4294577,2.5739992,0.15874511,0.95247048,0.25999993,0
-4.8402147,-4.0955672,7.6031995,-0.48891059,-0.41369367,0.76800001,0
7.5849462,3.7924731,5.1083984,0.7661562,0.3830781,0.51599985,0
-2.9583085,5.9166169,7.3655987,-0.29881904,0.59763807,0.7439999,0
7.4625058,-5.267652,-3.8174388,0.75378847,-0.53208607,-0.38559991,0
-9.7059593,-1.9411916,-0.19007958,-0.98039997,-0.19607997,-0.019199958,0
-6.6006203,-6.9149351,2.5739996,-0.66672933,-0.69847834,0.25999996,0
5.4926214,7.5523539,-3.2867994,0.55481029,0.76286405,-0.33199996,0
-7.1450858,4.7633905,-4.9262409,-0.72172588,0.48115057,-0.49760011,0
5.2477989,-2.9987428,7.8407998,0.53008074,-0.30290332,0.792,0
-8.7042561,4.2277818,-2.0908802,-0.8792178,0.42704868,-0.21120003,0
-1.3271611,-8.9583387,3.9996006,-0.13405667,-0.90488273,0.40400007,0
4.588572,1.9119054,8.5615196,0.46349216,0.19312176,0.86479998,0
-6.9888682,0.607728,-6.9854403,-0.70594633,0.061386671,-0.70560002,0
-0.98310125,9.5852385,-2.2730389,-0.099303164,0.96820593,-0.22959989,0
-6.4625454,3.9493334,6.3755994,-0.65278238,0.39892259,0.64399993,0
-6.1927514,-5.8487091,5.0450401,-0.62553048,-0.59077871,0.50960004,0
-7.3346553,1.8336641,-6.3914399,-0.74087429,0.1852186,-0.64560002,0
-4.2277813,-8.7042561,-2.0908792,-0.42704862,-0.8792178,-0.21119992,0
2.1400125,9.4771986,1.9007999,0.21616289,0.9572928,0.192,0
-9.730176,1.4742696,1.0771208,-0.98284608,0.14891613,0.10880008,0
-1.7472147,0.72167563,-9.7178402,-0.17648634,0.072896533,-0.98160005,0
-8.7848473,-0.67575783,4.5144,-0.88735837,-0.068258367,0.45600003,0
1.45312,8.7187214,-4.458961,0.14677981,0.88067895,-0.45040011,0
-0.77194649,4.2457042,8.9099998,-0.077974387,0.428859,0.89999992,0
0,9.8175383,1.2751209,0,0.99167055,0.12880009,0
-8.8821583,4.1798401,-1.2830408,-0.89718771,0.42220607,-0.12960008,0
-9.3522358,-0.32249054,3.231359,-0.94467032,-0.032574803,0.32639992,0
3.5758595,8.8204556,-2.7244797,0.36119795,0.89095515,-0.27519998,0
-8.3633852,5.2968102,-0.087120488,-0.84478641,0.53503138,-0.0088000493,0
-5.8650794,7.9178567,0.95832115,-0.59243226,0.79978353,0.096800119,0
6.1019993,3.5086501,-6.961679,0.61636358,0.3544091,-0.70319992,0
-1.1149492,6.3180461,7.5398393,-0.11262114,0.63818651,0.76159996,0
-4.3132753,-3.0967107,-8.3555984,-0.43568438,-0.31279907,-0.84399986,0
6.1350508,6.1350508,4.7678394,0.6197021,0.6197021,0.48159996,0
-1.4167724,-7.7922492,5.9400001,-0.14310832,-0.7870959,0.60000002,0
-4.5131698,1.1522988,-8.7357597,-0.45587575,0.11639383,-0.88240004,0
8.246542,0.37484246,-5.4647994,0.83298409,0.037862878,-0.55199999,0
-8.3350163,3.7288234,-3.8253601,-0.84192085,0.37664884,-0.38640001,0
2.2765007,4.9324179,8.2763996,0.22994958,0.49822405,0.83599997,0
-2.6581016,8.6388283,4.0392003,-0.26849511,0.87260896,0.40800005,0
-5.7855477,7.3926444,3.1442389,-0.58439881,0.74673176,0.31759989,0
1.026365,8.55305,4.8787198,0.10367324,0.86394447,0.4928,0
-0.28861833,-3.5355752,-9.2426405,-0.029153368,-0.35712883,-0.93360007,0
-2.4831951,-9.3119802,2.2651191,-0.25082779,-0.94060409,0.22879991,0
2.7396557,1.1741371,9.4406395,0.27673292,0.11859971,0.95359999,0
-2.6963387,8.4260569,4.4431195,-0.27235746,0.8511169,0.44879997,0
-9.2304535,3.5292907,-0.5940001,-0.93236905,0.35649401,-0.060000014,0
5.6440229,1.4723539,-7.9991984,0.57010335,0.14872262,-0.80799985,0
9.2872181,0.22651729,-3.4214416,0.9381029,0.022880536,-0.34560016,0
4.7316809,6.5515585,-5.7182403,0.47794759,0.66177362,-0.57760006,0
-1.8242666,-8.5132437,-4.7124009,-0.18426935,-0.85992366,-0.4760001,0
7.2409248,5.5952601,3.7778385,0.73140657,0.5651778,0.38159987,0
-8.2591896,2.0647974,5.0529594,-0.8342616,0.2085654,0.51039994,0
6.441545,-2.914032,-6.9300008,0.65066111,-0.29434669,-0.70000011,0
7.220521,-5.309207,-4.2055182,0.72934556,-0.53628355,-0.42479983,0
-9.3433008,-1.9165748,-2.6531992,-0.94376779,-0.19359343,-0.26799992,0
6.944941,-1.0965697,6.9695997,0.70150924,-0.11076462,0.704,0
6.5833921,5.1974144,5.2588806,0.66498911,0.52499139,0.53120011,0
-8.707099,2.123683,-4.2055202,-0.87950498,0.21451344,-0.42480004,0
4.549376,8.3804302,-2.6611211,0.45953295,0.84650815,-0.26880011,0
9.7335472,0.30417308,1.7820003,0.9831866,0.030724555,0.18000004,0
0.9907918,-8.5208082,-4.9420805,0.10007998,-0.86068773,-0.49920008,0
6.2553358,7.5585308,-1.3226413,0.63185215,0.76348799,-0.13360013,0
2.9333954,-2.393033,-9.1475992,0.29630259,-0.24172051,-0.92399997,0
-6.7872138,3.5632868,-6.2647195,-0.68557715,0.35992798,-0.63279998,0
-0.35152632,8.0851135,5.7023993,-0.035507709,0.81667817,0.57599998,0
2.7453859,2.1118355,-9.2743196,0.27731171,0.21331672,-0.9368,0
-6.8546901,2.8861847,6.5339999,-0.69239295,0.29153383,0.66000003,0
8.3085594,-4.4738393,2.9937606,0.83924848,-0.45190299,0.30240008,0
-9.7455072,-1.3169607,-1.1404803,-0.98439473,-0.13302633,-0.11520004,0
3.8641975,-6.5523338,-6.3359995,0.39032298,-0.66185194,-0.63999999,0
4.8761091,8.4690313,-1.583999,0.49253631,0.85545772,-0.15999991,0
3.126544,0.3908177,9.3851995,0.31581253,0.039476536,0.94800001,0
3.0623264,-3.8279085,8.60112,0.3093259,-0.38665745,0.86880004,0
-1.4000716,9.8004999,-1.4162064e-06,-0.14142138,0.98994952,-1.4305115e-07,0
-8.6804428,-4.7602425,2.3603437e-07,-0.87681246,-0.48083258,2.3841856e-08,0
1.8422812,9.5184526,2.0037599,0.18608902,0.96145988,0.2024,0
2.0942819,-9.5738611,1.4018403,0.21154363,-0.96705669,0.14160004,0
7.9141126,2.8954065,-5.1955209,0.79940534,0.2924653,-0.52480012,0
6.8606763,4.7643585,-5.3143206,0.69299763,0.48124835,-0.53680009,0
-4.3924236,-6.2507567,-6.2963996,-0.44367918,-0.63138962,-0.63599998,0
-8.0789547,0.70251715,5.6786404,-0.81605607,0.070961334,0.57360005,0
-4.1218076,1.4336724,-8.886241,-0.41634423,0.1448154,-0.89760011,0
-8.7105589,2.6131678,-3.9124804,-0.87985444,0.26395634,-0.39520004,0
7.257071,-0.36285323,6.7240801,0.73303753,-0.036651842,0.67920005,0
-5.8207631,7.9374046,-1.0612805,-0.58795589,0.80175805,-0.10720006,0
6.2007227,-3.8158298,-6.7082391,0.62633562,-0.38543737,-0.67759991,0
-9.463253,2.8676531,0.48312047,-0.95588416,0.28966194,0.048800051,0
3.098835,7.9192476,5.0687995,0.31301364,0.79992402,0.51199996,0
-3.262569,6.5251379,6.6923995,-0.32955244,0.65910488,0.676,0
7.8348937,-4.8968086,3.5560794,0.79140341,-0.49462715,0.35919994,0
-3.4246559,-8.6757946,-3.3184798,-0.34592485,-0.87634295,-0.33519998,0
3.3811083,4.8838234,-7.9199982,0.34152609,0.49331552,-0.79999983,0
4.5243859,-6.9605937,5.3935204,0.45700869,-0.70309031,0.54480004,0
-7.0838628,3.5419323,5.9399996,-0.71554172,0.35777095,0.59999996,0
1.8841442,9.6898861,-0.7524007,0.1903176,0.9787764,-0.076000072,0
8.5012627,4.9834991,0.9503985,0.85871345,0.50338376,0.095999852,0
4.9691925,8.558053,-0.27720031,0.50193864,0.86444986,-0.028000033,0
-7.4566283,2.4855425,6.0191994,-0.75319481,0.25106493,0.60799998,0
-8.6290131,-0.6020242,-4.8153601,-0.8716175,-0.060810529,-0.48640004,0
-5.1415567,-4.9857526,-6.8349586,-0.51934916,-0.50361139,-0.69039989,0
7.6981754,2.7993355,5.5598388,0.77759349,0.28276116,0.56159991,0
8.9605093,3.3904626,-2.4947999,0.90510195,0.34247097,-0.252,0
-4.4320021,-7.4538221,-4.7757602,-0.44767699,-0.75291133,-0.48240003,0
0.38007712,5.321084,8.3397598,0.038391631,0.53748327,0.84240001,0
4.1309314,-5.4587312,-7.1517587,0.4172658,-0.55138701,-0.72239989,0
-8.0357132,1.7468946,5.51232,-0.81168824,0.17645401,0.55680001,0
1.9753709,1.8656278,-9.5198393,0.19953242,0.18844725,-0.96159995,0
-5.7906957,-0.86244392,-7.9833593,-0.5849188,-0.087115549,-0.80639994,0
6.8019838,-5.4415874,4.7044802,0.68706912,-0.54965532,0.47520003,0
3.8335419,-8.6254683,2.9858406,0.38722646,-0.87125945,0.30160007,0
8.3102617,-5.0365219,-1.8928787,0.83942044,-0.50873959,-0.19119987,0
-4.5939002,1.4980106,-8.6407194,-0.46403036,0.15131421,-0.87279999,0
-2.5518878,-9.0476007,-3.1046393,-0.25776646,-0.91389912,-0.31359994,0
5.2804956,2.2630699,8.0625601,0.53338343,0.22859293,0.81440002,0
2.393033,2.9333954,-9.1475992,0.24172051,0.29630259,-0.92399997,0
5.5525928,6.246666,5.3063989,0.56086797,0.63097638,0.53599989,0
-7.0550256,-0.46011037,-6.9300003,-0.7126289,-0.046475798,-0.70000005,0
-5.969305,1.8654084,7.6744795,-0.60296011,0.18842509,0.77519995,0
3.4214406,7.6032004,-5.3380785,0.34560007,0.76800007,-0.53919989,0
5.6644893,6.9973092,4.1184001,0.57217067,0.70679891,0.41600004,0
-7.4768233,-2.2604349,-6.0825601,-0.75523472,-0.22832677,-0.61440003,0
7.2782807,4.159018,5.2668004,0.7351799,0.42010283,0.53200006,0
8.7187214,1.45312,-4.458961,0.88067895,0.14677981,-0.45040011,0
-5.5826731,7.0857005,-4.0787988,-0.56390637,0.71572733,-0.41199988,0
-9.2022085,-3.0674024,1.9799994,-0.92951608,-0.30983862,0.19999994,0
-7.6981745,2.7993357,5.5598402,-0.77759343,0.28276119,0.56160003,0
-8.3771286,-5.0861135,1.4018402,-0.84617466,-0.51374882,0.14160003,0
8.1426229,3.8570318,-4.1025596,0.82248718,0.38959917,-0.41439998,0
3.0485306,-4.191731,8.4347992,0.30793241,-0.4234072,0.85199994,0
-2.8936515,6.7518535,-6.636961,-0.29228804,0.68200541,-0.67040014,0
4.8534117,-1.1359049,-8.5536022,0.49024361,-0.11473788,-0.86400026,0
6.9530878,0.73190325,7.0092001,0.70233214,0.073929623,0.70800006,0
3.1838012,-8.9146414,2.8987195,0.32159609,-0.90046889,0.29279998,0
8.697566,-4.4987411,1.4572788,0.87854207,-0.4544183,0.14719988,0
9.7754107,0.25724739,-1.5443996,0.98741525,0.025984585,-0.15599997,0
6.3668618,7.38556,-1.7107209,0.64311737,0.7460162,-0.17280009,0
-4.3706489,-7.732686,4.3718405,-0.44147971,-0.78107941,0.44160005,0
7.6975303,-4.3688688,-4.4352002,0.77752835,-0.44129989,-0.44800004,0
2.1399832,-7.668273,-5.8845606,0.21615992,-0.77457303,-0.59440011,0
-4.0623345,7.7861414,4.569839,-0.41033685,0.78647894,0.46159992,0
1.8783932,5.6351805,-7.9199982,0.18973669,0.56921017,-0.79999983,0
4.5974216,-1.5324736,8.6328001,0.46438605,-0.15479532,0.87200004,0
5.7995272,-2.5625818,-7.6032,0.58581084,-0.25884664,-0.76800001,0
0,-7.7675581,-6.1379991,0,-0.78460187,-0.61999995,0
1.5324748,4.5974216,8.6327991,0.15479544,0.46438605,0.87199992,0
6.339016,-0.13487254,-7.6032019,0.64030468,-0.013623489,-0.76800025,0
-4.252634,-8.1781425,3.6115201,-0.42955902,-0.82607502,0.36480001,0
-7.4287529,-2.8300016,5.9003992,-0.75037909,-0.28585875,0.59599996,0
5.5717354,-5.7514687,-5.8211994,0.5628016,-0.58095646,-0.58799994,0
-8.1495953,5.62041,0.071279392,-0.82319146,0.56771821,0.0071999389,0
3.3280878,7.8307939,-5.0608788,0.33617049,0.79098928,-0.51119989,0
-6.903564,4.4779878,-5.5044003,-0.6973297,0.45232201,-0.55600005,0
-9.6464005,2.2048912,-0.30887944,-0.97438395,0.22271629,-0.031199943,0
2.9583075,5.9166169,7.3655992,0.29881895,0.59763807,0.74399996,0
-9.1055031,3.6422009,-1.3543193,-0.91974783,0.36789909,-0.13679993,0
7.2224145,6.2594256,-2.5819201,0.72953683,0.63226527,-0.26080003,0
-0.35929191,-7.5451374,6.3993597,-0.036292113,-0.76213515,0.64639997,0
-8.0194836,-4.0097418,4.1975994,-0.81004888,-0.40502444,0.42399997,0
0.79831123,-8.5818405,-4.8708005,0.0806375,-0.86685258,-0.49200007,0
-6.2968931,-5.2474108,5.5519195,-0.63604981,-0.53004152,0.56079996,0
2.7086279,-3.0955758,9.0050392,0.27359879,-0.31268445,0.90959996,0
5.6050429,2.6156869,7.7299204,0.56616598,0.26421082,0.78080004,0
4.8667741,8.2735157,-2.4235182,0.49159336,0.83570868,-0.24479982,0
