-0.0081646442,-0.2834993,0.52329731,-0.30390999,0.2495299,0.919442,0
-1.0166764,-0.56096762,0.34772187,0.21042049,-0.92367506,0.32023054,0
-0.90853071,-0.20232825,-0.51332182,-0.92917269,-0.29079074,-0.22820789,0
-0.49159059,-0.84206975,-0.35461143,0.21042049,-0.92367506,0.32023054,0
-0.53065085,0.14147218,-0.75416559,-0.21042049,0.92367506,-0.32023054,0
1.0688719,-0.31049877,0.21089125,0.21042049,-0.92367506,0.32023054,0
0.94216502,0.20528197,-0.29420143,0.30390999,-0.2495299,-0.919442,0
-0.97412753,-0.30093378,-0.18091905,-0.92917269,-0.29079074,-0.22820789,0
-0.94717544,-0.3722223,-0.31265992,-0.92917269,-0.29079074,-0.22820789,0
-0.7096898,0.25749403,0.16666448,-0.30390999,0.2495299,0.919442,0
0.59470743,0.84600806,0.32940751,-0.21042049,0.92367506,-0.32023054,0
-0.30614066,0.41624606,-0.25447673,-0.21042049,0.92367506,-0.32023054,0
-0.14428788,0.33443782,-0.74275023,-0.21042049,0.92367506,-0.32023054,0
0.86019808,0.32225865,0.42584229,0.92917269,0.29079074,0.22820789,0
-0.77593195,0.27169663,0.041981399,-0.21042049,0.92367506,-0.32023054,0
-0.4621315,-0.25042778,-0.66920507,0.30390999,-0.2495299,-0.919442,0
0.27443647,-0.49363893,-0.2101285,0.21042049,-0.92367506,0.32023054,0
0.78058207,-0.50833774,-0.10978943,0.21042049,-0.92367506,0.32023054,0
-0.84900057,-0.65477484,-0.29650164,-0.92917269,-0.29079074,-0.22820789,0
-0.71531385,-0.60208595,0.090809464,0.21042049,-0.92367506,0.32023054,0
-0.37824276,-0.12385768,0.5464468,-0.30390999,0.2495299,0.919442,0
0.35588384,0.58731866,-0.29605463,-0.21042049,0.92367506,-0.32023054,0
0.24134827,0.078487158,-0.43859792,0.30390999,-0.2495299,-0.919442,0
0.65617961,0.50532538,-0.4239516,-0.21042049,0.92367506,-0.32023054,0
-0.59978241,0.48651442,0.14312977,-0.21042049,0.92367506,-0.32023054,0
-0.58902043,-0.49954662,0.32410741,0.21042049,-0.92367506,0.32023054,0
-0.89004052,-0.3294124,-0.23936933,-0.92917269,-0.29079074,-0.22820789,0
-0.38712841,-0.58062273,0.33986315,0.21042049,-0.92367506,0.32023054,0
1.0823731,-0.07613945,-0.030779243,0.92917269,0.29079074,0.22820789,0
-0.4118492,-0.33084461,0.5528037,-0.30390999,0.2495299,0.919442,0
0.55163974,0.10054865,0.80537093,-0.30390999,0.2495299,0.919442,0
0.2713469,0.52613944,-0.080295242,-0.21042049,0.92367506,-0.32023054,0
0.91728741,-0.35753757,0.11044997,0.21042049,-0.92367506,0.32023054,0
-0.68540132,-0.3540104,0.4726941,-0.30390999,0.2495299,0.919442,0
0.76585549,0.73465389,0.36595643,0.92917269,0.29079074,0.22820789,0
0.54376423,0.45293877,-0.48866582,0.30390999,-0.2495299,-0.919442,0
-0.37352818,-0.654652,-0.19422747,0.21042049,-0.92367506,0.32023054,0
-0.91507447,0.19099241,-0.40974486,-0.21042049,0.92367506,-0.32023054,0
-1.0606368,0.10737234,-0.24171591,-0.92917269,-0.29079074,-0.22820789,0
-0.21803309,0.48050112,0.21174923,-0.21042049,0.92367506,-0.32023054,0
0.87869847,-0.090080656,0.75030905,0.92917269,0.29079074,0.22820789,0
0.025216997,-0.35759816,0.6378485,0.21042049,-0.92367506,0.32023054,0
0.89365071,0.050679296,0.38230824,0.92917269,0.29079074,0.22820789,0
1.0573778,-0.05739814,-0.052190065,0.92917269,0.29079074,0.22820789,0
-0.30278209,-0.74560738,-0.22511777,0.21042049,-0.92367506,0.32023054,0
-1.032555,0.17269287,-0.66972786,-0.92917269,-0.29079074,-0.22820789,0
-0.80491787,-0.26908502,-0.50519764,-0.92917269,-0.29079074,-0.22820789,0
-0.88534069,0.33552492,-0.01660794,-0.21042049,0.92367506,-0.32023054,0
-0.63421941,-0.59906167,0.12307039,0.21042049,-0.92367506,0.32023054,0
-0.49280724,0.38262153,0.039013922,-0.21042049,0.92367506,-0.32023054,0
0.1612125,0.49629879,-0.38420129,-0.21042049,0.92367506,-0.32023054,0
0.16920668,-0.51232123,0.23572898,0.21042049,-0.92367506,0.32023054,0
-0.31336525,-0.25280398,-0.49091873,0.30390999,-0.2495299,-0.919442,0
-0.88968343,0.1351625,-0.29965758,-0.21042049,0.92367506,-0.32023054,0
-0.80008388,-0.66994607,-0.5877341,-0.92917269,-0.29079074,-0.22820789,0
-0.40217119,0.58418667,0.23443308,-0.21042049,0.92367506,-0.32023054,0
1.012596,0.30982476,-0.013004243,0.92917269,0.29079074,0.22820789,0
1.1179736,0.34348577,-0.22188222,0.92917269,0.29079074,0.22820789,0
0.22327241,-0.4805474,0.075271755,0.21042049,-0.92367506,0.32023054,0
-0.74968773,-0.28502169,-0.60559618,0.30390999,-0.2495299,-0.919442,0
0.95258456,-0.15335906,0.38658261,0.92917269,0.29079074,0.22820789,0
0.5226891,-0.34108475,0.49776751,0.21042049,-0.92367506,0.32023054,0
1.0410738,0.3450852,-0.26556915,0.92917269,0.29079074,0.22820789,0
0.55699915,0.68649864,0.50645328,-0.30390999,0.2495299,0.919442,0
-1.0584459,0.16778463,0.084816039,-0.92917269,-0.29079074,-0.22820789,0
-0.63131261,-0.5886879,-0.57868952,0.30390999,-0.2495299,-0.919442,0
0.069600731,-0.41861796,0.052685186,0.21042049,-0.92367506,0.32023054,0
-0.58285958,-0.62817264,-0.4632057,0.30390999,-0.2495299,-0.919442,0
-0.0089782737,0.42512989,0.5069322,-0.30390999,0.2495299,0.919442,0
0.41135001,0.62179601,0.6002667,-0.30390999,0.2495299,0.919442,0
0.49333131,0.54612452,-0.034172267,-0.21042049,0.92367506,-0.32023054,0
-1.0819348,-0.12792498,0.014769554,-0.92917269,-0.29079074,-0.22820789,0
0.83780164,0.71727735,0.05258441,0.92917269,0.29079074,0.22820789,0
1.0062248,-0.18882281,0.1194371,0.92917269,0.29079074,0.22820789,0
0.81160045,0.69977593,-0.33214995,-0.21042049,0.92367506,-0.32023054,0
-0.39161548,0.23679841,-0.41525555,-0.21042049,0.92367506,-0.32023054,0
-0.27157924,-0.12857321,0.53226715,-0.30390999,0.2495299,0.919442,0
-1.094418,-0.27089775,0.021879613,-0.92917269,-0.29079074,-0.22820789,0
1.0705197,-0.21194339,0.0026679039,0.92917269,0.29079074,0.22820789,0
1.074299,0.018150926,0.086678505,0.92917269,0.29079074,0.22820789,0
0.86743712,-0.14802074,0.32434744,0.21042049,-0.92367506,0.32023054,0
0.10430235,-0.1937374,0.64112025,-0.30390999,0.2495299,0.919442,0
-1.0144573,-0.45261908,0.14201641,-0.92917269,-0.29079074,-0.22820789,0
-0.1854156,-0.58384383,-0.28537002,0.21042049,-0.92367506,0.32023054,0
0.15258455,0.636446,0.20001233,-0.21042049,0.92367506,-0.32023054,0
-0.43961787,-0.41670546,0.41516277,-0.30390999,0.2495299,0.919442,0
-0.74885261,-0.56208026,0.15763506,0.21042049,-0.92367506,0.32023054,0
0.44623667,0.585334,0.084100336,-0.21042049,0.92367506,-0.32023054,0
-0.81748354,-0.72075075,-0.40417981,-0.92917269,-0.29079074,-0.22820789,0
0.78717828,0.16835885,0.78780049,-0.30390999,0.2495299,0.919442,0
0.53251445,0.28155825,-0.39584327,0.30390999,-0.2495299,-0.919442,0
0.072502494,-0.53781074,-0.21351996,0.21042049,-0.92367506,0.32023054,0
0.69101512,-0.27658719,-0.27527082,0.30390999,-0.2495299,-0.919442,0
-0.76736063,0.20144093,0.2182433,-0.30390999,0.2495299,0.919442,0
0.84449339,0.38319153,0.092420459,0.92917269,0.29079074,0.22820789,0
0.30660868,0.66145515,0.52359843,-0.30390999,0.2495299,0.919442,0
-0.91450727,-0.32566833,-0.19299269,-0.92917269,-0.29079074,-0.22820789,0
0.28267509,0.41748607,0.60964835,-0.30390999,0.2495299,0.919442,0
-1.0318285,-0.33459979,0.059297562,-0.92917269,-0.29079074,-0.22820789,0
-1.0111296,-0.65167511,0.31977737,-0.92917269,-0.29079074,-0.22820789,0
-0.39816362,-0.69274712,-0.056040064,0.21042049,-0.92367506,0.32023054,0
-0.017595619,-0.1741876,-0.41480702,0.30390999,-0.2495299,-0.919442,0
0.9054476,0.26836738,0.099570632,0.92917269,0.29079074,0.22820789,0
0.041762561,0.022359073,0.44722456,-0.30390999,0.2495299,0.919442,0
0.77988374,0.86769646,0.19189656,0.92917269,0.29079074,0.22820789,0
0.91510397,-0.11901727,0.75405264,0.21042049,-0.92367506,0.32023054,0
-0.75025964,0.13373177,-0.75438058,-0.21042049,0.92367506,-0.32023054,0
-0.91832662,-0.39527753,-0.35580993,-0.92917269,-0.29079074,-0.22820789,0
1.0025154,-0.097871751,0.50435925,0.92917269,0.29079074,0.22820789,0
-0.18023649,0.53012311,0.39704782,-0.30390999,0.2495299,0.919442,0
0.57403803,0.65493768,0.48102218,-0.30390999,0.2495299,0.919442,0
-0.83068293,-0.36773896,-0.32338661,-0.92917269,-0.29079074,-0.22820789,0
-0.46470645,-0.59292245,-0.46179992,0.30390999,-0.2495299,-0.919442,0
-0.36300674,0.074057072,0.2950322,-0.30390999,0.2495299,0.919442,0
-0.44116241,-0.84615797,-0.41308799,0.21042049,-0.92367506,0.32023054,0
0.48562151,-0.26492882,0.6802848,0.21042049,-0.92367506,0.32023054,0
-0.60130239,-0.40628481,0.54345202,-0.30390999,0.2495299,0.919442,0
-0.038112521,-0.40080383,0.40860224,0.21042049,-0.92367506,0.32023054,0
-0.94776922,-0.29297,0.26543361,-0.92917269,-0.29079074,-0.22820789,0
1.1773233,-0.23855245,-0.1386621,0.30390999,-0.2495299,-0.919442,0
0.4131518,-0.41718286,0.2942878,0.21042049,-0.92367506,0.32023054,0
0.95434737,-0.030231804,0.81424123,0.92917269,0.29079074,0.22820789,0
0.28381237,-0.64586157,-0.18870851,0.21042049,-0.92367506,0.32023054,0
0.46648031,0.61167312,0.0056955516,-0.21042049,0.92367506,-0.32023054,0
-0.43245396,-0.23707604,0.53796989,-0.30390999,0.2495299,0.919442,0
-0.70734978,-0.57218271,-0.52885467,-0.92917269,-0.29079074,-0.22820789,0
0.45201617,0.29706752,0.676404,-0.30390999,0.2495299,0.919442,0
0.88276613,0.1576817,0.29803449,0.92917269,0.29079074,0.22820789,0
-1.0255286,-0.017967939,-0.28758049,-0.92917269,-0.29079074,-0.22820789,0
0.37664491,-0.42365345,0.068671912,0.21042049,-0.92367506,0.32023054,0
0.82347232,0.30185333,0.36238408,0.92917269,0.29079074,0.22820789,0
0.36305687,-0.2702857,0.3343527,0.21042049,-0.92367506,0.32023054,0
-1.02694,-0.54880059,0.18153644,-0.92917269,-0.29079074,-0.22820789,0
0.73295516,0.5104785,-0.36416098,0.30390999,-0.2495299,-0.919442,0
-0.70606208,-0.70104092,-0.36395442,-0.92917269,-0.29079074,-0.22820789,0
-0.55131263,0.52189738,0.034192264,-0.21042049,0.92367506,-0.32023054,0
0.72276258,0.93817765,0.58791721,0.92917269,0.29079074,0.22820789,0
0.85808331,-0.021922916,0.74184769,-0.30390999,0.2495299,0.919442,0
-0.90537065,-0.63737828,0.073028624,-0.92917269,-0.29079074,-0.22820789,0
0.21947059,-0.65860844,-0.20782846,0.21042049,-0.92367506,0.32023054,0
0.68817186,-0.15560636,0.86361766,0.21042049,-0.92367506,0.32023054,0
0.93678075,-0.041576564,0.7079978,0.92917269,0.29079074,0.22820789,0
0.59045708,0.48886156,-0.51716977,-0.21042049,0.92367506,-0.32023054,0
-0.65177119,-0.56300926,-0.64531457,-0.92917269,-0.29079074,-0.22820789,0
1.0896528,-0.13785094,-0.20717686,0.30390999,-0.2495299,-0.919442,0
-0.87069184,-0.61364281,0.010312378,-0.92917269,-0.29079074,-0.22820789,0
0.14967525,-0.35352504,0.52920109,0.21042049,-0.92367506,0.32023054,0
-0.15425169,-0.33983964,0.54809749,0.21042049,-0.92367506,0.32023054,0
-1.119099,-0.1244086,-0.035983086,-0.92917269,-0.29079074,-0.22820789,0
-0.62823039,0.31850857,-0.17616737,-0.21042049,0.92367506,-0.32023054,0
-0.051646322,0.010718793,0.63243949,-0.30390999,0.2495299,0.919442,0
0.19026983,-0.29227853,0.3070541,0.21042049,-0.92367506,0.32023054,0
-0.74371046,0.045230668,-0.77893597,0.30390999,-0.2495299,-0.919442,0
-0.6694091,0.10293709,-0.5811587,-0.21042049,0.92367506,-0.32023054,0
-0.69631046,-0.36958647,0.43451098,-0.30390999,0.2495299,0.919442,0
0.43770641,0.50556672,0.55347288,-0.30390999,0.2495299,0.919442,0
-0.31292653,-0.38070711,0.48525858,0.21042049,-0.92367506,0.32023054,0
-0.36172104,-0.59336013,-0.19858326,0.21042049,-0.92367506,0.32023054,0
0.76446223,0.2134729,0.71597534,-0.30390999,0.2495299,0.919442,0
0.48874664,0.33811367,0.50763524,-0.30390999,0.2495299,0.919442,0
-0.54613531,0.071207784,-0.785393,0.30390999,-0.2495299,-0.919442,0
0.89728981,0.32895994,0.20158535,0.92917269,0.29079074,0.22820789,0
0.37410945,-0.44659868,-0.38160992,0.30390999,-0.2495299,-0.919442,0
-1.0628616,-0.2330758,-0.0066431761,-0.92917269,-0.29079074,-0.22820789,0
0.48685077,0.19295238,0.6839993,-0.30390999,0.2495299,0.919442,0
0.18665001,0.14864331,0.49347237,-0.30390999,0.2495299,0.919442,0
-0.90388787,-0.16124013,-0.25461876,-0.92917269,-0.29079074,-0.22820789,0
0.52499115,0.48267192,0.69387484,-0.30390999,0.2495299,0.919442,0
0.57710606,-0.33246392,-0.32040209,0.30390999,-0.2495299,-0.919442,0
0.96958244,0.72499466,-0.20217252,0.92917269,0.29079074,0.22820789,0
-0.49734738,0.10220319,0.41795823,-0.30390999,0.2495299,0.919442,0
1.0498333,0.36998713,-0.23811752,0.92917269,0.29079074,0.22820789,0
-0.3848502,-0.549348,0.2585012,0.21042049,-0.92367506,0.32023054,0
-0.35272741,0.4906829,0.29801869,-0.21042049,0.92367506,-0.32023054,0
0.10423987,0.16565855,0.47539422,-0.30390999,0.2495299,0.919442,0
0.48206776,0.5621134,0.65042019,-0.30390999,0.2495299,0.919442,0
-0.88553542,-0.51013184,-0.25800937,-0.92917269,-0.29079074,-0.22820789,0
-0.63044393,-0.59358728,-0.0065781772,0.21042049,-0.92367506,0.32023054,0
-0.77146828,-0.37700525,-0.42347521,-0.92917269,-0.29079074,-0.22820789,0
-0.93103838,-0.12213203,-0.2956863,-0.92917269,-0.29079074,-0.22820789,0
-0.15527248,-0.55503559,0.33572936,0.21042049,-0.92367506,0.32023054,0
-0.15934443,0.54697764,0.44767123,-0.30390999,0.2495299,0.919442,0
0.82809055,0.54825819,0.62816864,0.92917269,0.29079074,0.22820789,0
1.0296272,0.42111,-0.028834045,0.92917269,0.29079074,0.22820789,0
-0.34952232,0.26640037,0.39539903,-0.30390999,0.2495299,0.919442,0
-0.92069334,-0.071920112,-0.73225224,0.30390999,-0.2495299,-0.919442,0
-0.93180811,-0.2656067,-0.5835467,-0.92917269,-0.29079074,-0.22820789,0
0.31921813,-0.042377234,0.69518411,-0.30390999,0.2495299,0.919442,0
-0.69847804,-0.64576715,-0.099972308,0.21042049,-0.92367506,0.32023054,0
-0.29467255,-0.38201162,-0.47989622,0.30390999,-0.2495299,-0.919442,0
-1.0081751,0.0181216,-0.10902601,-0.92917269,-0.29079074,-0.22820789,0
-0.29944319,-0.40317601,0.44052675,0.21042049,-0.92367506,0.32023054,0
-0.43618757,0.25993049,-0.59268939,-0.21042049,0.92367506,-0.32023054,0
-0.079064354,-0.1275624,-0.55820775,0.30390999,-0.2495299,-0.919442,0
-0.53787339,0.24108882,-0.62477922,-0.21042049,0.92367506,-0.32023054,0
0.43603545,0.60446709,0.48117846,-0.30390999,0.2495299,0.919442,0
-1.2107568,0.1789661,0.041459203,-0.92917269,-0.29079074,-0.22820789,0
-0.9256922,-0.30755243,-0.55729359,-0.92917269,-0.29079074,-0.22820789,0
0.56775004,-0.6001327,-0.25095397,0.21042049,-0.92367506,0.32023054,0
-0.72782528,-0.16410178,0.27505443,-0.30390999,0.2495299,0.919442,0
0.95234179,0.56439275,-0.03543371,0.92917269,0.29079074,0.22820789,0
0.080174714,-0.06387201,0.61280626,-0.30390999,0.2495299,0.919442,0
0.63162029,0.57865065,-0.18395585,-0.21042049,0.92367506,-0.32023054,0
0.94797313,0.21281332,-0.2437318,0.30390999,-0.2495299,-0.919442,0
-0.14179359,0.15837523,0.50141269,-0.30390999,0.2495299,0.919442,0
-0.41802651,0.37043768,0.37977237,-0.30390999,0.2495299,0.919442,0
0.24848813,-0.31938711,0.50325036,0.21042049,-0.92367506,0.32023054,0
-0.016970783,0.0370242,-0.45595324,0.30390999,-0.2495299,-0.919442,0
-0.79254323,-0.18738145,0.31353015,-0.30390999,0.2495299,0.919442,0
0.92061591,0.083356768,0.18767148,0.92917269,0.29079074,0.22820789,0
0.89797276,0.19480033,0.77333248,0.92917269,0.29079074,0.22820789,0
0.88581645,0.081811398,0.45499915,0.92917269,0.29079074,0.22820789,0
0.98309195,-0.13329971,0.26173604,0.21042049,-0.92367506,0.32023054,0
1.0474589,0.27292138,-0.047212183,0.92917269,0.29079074,0.22820789,0
1.0619395,0.29536653,-0.11796713,0.92917269,0.29079074,0.22820789,0
-0.83816028,0.17949966,-0.67498839,-0.21042049,0.92367506,-0.32023054,0
-1.0498511,0.053764582,-0.10622573,-0.92917269,-0.29079074,-0.22820789,0
0.98254406,0.19387293,-0.19130892,0.92917269,0.29079074,0.22820789,0
0.15592785,0.57799822,0.4003287,-0.30390999,0.2495299,0.919442,0
-0.52062559,0.10356063,0.30018258,-0.30390999,0.2495299,0.919442,0
1.1079108,-0.22855866,0.022158265,0.92917269,0.29079074,0.22820789,0
-0.53045654,-0.61713082,0.069837183,0.21042049,-0.92367506,0.32023054,0
0.84340656,0.10436974,0.63219941,0.92917269,0.29079074,0.22820789,0
-0.72036779,-0.60116029,0.50167203,-0.30390999,0.2495299,0.919442,0
-1.0376018,0.24823225,0.11070079,-0.21042049,0.92367506,-0.32023054,0
-0.29554668,0.34660956,0.44088906,-0.30390999,0.2495299,0.919442,0
0.81606805,0.54900479,0.49094111,0.92917269,0.29079074,0.22820789,0
0.68590581,0.71829396,0.028581798,-0.21042049,0.92367506,-0.32023054,0
0.93567681,0.0046817362,0.37595296,0.92917269,0.29079074,0.22820789,0
-0.65979546,0.43910521,0.31527507,-0.30390999,0.2495299,0.919442,0
-0.49912813,0.47098586,0.20113268,-0.21042049,0.92367506,-0.32023054,0
0.75320774,0.047589093,0.7967943,-0.30390999,0.2495299,0.919442,0
0.88009274,0.12894046,0.56102365,0.92917269,0.29079074,0.22820789,0
-0.16053869,0.32665512,0.44277465,-0.30390999,0.2495299,0.919442,0
-0.89303958,-0.5036422,-0.017356873,-0.92917269,-0.29079074,-0.22820789,0
0.074032009,-0.14533883,-0.38573915,0.30390999,-0.2495299,-0.919442,0
0.010874152,-0.47191101,0.2822012,0.21042049,-0.92367506,0.32023054,0
-0.54891527,0.33508718,-0.11980128,-0.21042049,0.92367506,-0.32023054,0
0.63814068,0.63780731,0.020935625,-0.21042049,0.92367506,-0.32023054,0
0.15919057,0.64024663,0.18072182,-0.21042049,0.92367506,-0.32023054,0
0.68106401,0.34182104,0.68310982,-0.30390999,0.2495299,0.919442,0
-0.11309049,0.55180413,0.21685383,-0.21042049,0.92367506,-0.32023054,0
-0.43319923,0.49623573,0.073869646,-0.21042049,0.92367506,-0.32023054,0
0.32409281,0.71818447,0.38516986,-0.30390999,0.2495299,0.919442,0
0.94032645,-0.022169381,0.35438985,0.92917269,0.29079074,0.22820789,0
0.1122438,0.3099812,0.44481486,-0.30390999,0.2495299,0.919442,0
-0.71967494,0.17027453,-0.65512663,-0.21042049,0.92367506,-0.32023054,0
-0.93888444,-0.012023121,-0.55860639,-0.92917269,-0.29079074,-0.22820789,0
-0.20081151,0.42734569,-0.37674639,-0.21042049,0.92367506,-0.32023054,0
-0.92446637,-0.64286232,-0.025371969,-0.92917269,-0.29079074,-0.22820789,0
-1.1023099,-0.30860764,0.21615833,-0.92917269,-0.29079074,-0.22820789,0
-0.86467564,-0.090243816,-0.46446174,-0.92917269,-0.29079074,-0.22820789,0
0.24551287,0.10532567,-0.4656308,0.30390999,-0.2495299,-0.919442,0
-0.64500916,0.18422931,0.26401511,-0.30390999,0.2495299,0.919442,0
-0.083800316,0.20404649,-0.71565652,0.30390999,-0.2495299,-0.919442,0
-0.94828457,-0.23247522,0.28000808,-0.30390999,0.2495299,0.919442,0
0.97754574,0.50599825,0.096775115,0.92917269,0.29079074,0.22820789,0
0.38036644,0.17548716,-0.40475088,0.30390999,-0.2495299,-0.919442,0
0.95115972,-0.26054126,0.098680615,0.21042049,-0.92367506,0.32023054,0
-0.48027855,0.40844354,0.085720152,-0.21042049,0.92367506,-0.32023054,0
0.56436211,0.70358324,-0.11915109,-0.21042049,0.92367506,-0.32023054,0
1.2095797,-0.18057704,-0.18697691,0.30390999,-0.2495299,-0.919442,0
0.53383231,0.25256395,-0.53165472,0.30390999,-0.2495299,-0.919442,0
0.7789216,0.30505446,0.3990258,0.92917269,0.29079074,0.22820789,0
0.60004771,0.40762353,-0.53104985,0.30390999,-0.2495299,-0.919442,0
-1.0952808,0.39564103,0.1428324,-0.30390999,0.2495299,0.919442,0
0.64521104,0.21328193,0.6997664,-0.30390999,0.2495299,0.919442,0
0.76636845,0.11253214,-0.39504883,0.30390999,-0.2495299,-0.919442,0
-0.19879763,-0.70624089,-0.52398777,0.30390999,-0.2495299,-0.919442,0
-0.69586158,-0.17109311,0.43706483,-0.30390999,0.2495299,0.919442,0
-0.61598575,0.49509156,0.15564454,-0.21042049,0.92367506,-0.32023054,0
0.28917,-0.6127609,-0.32220829,0.21042049,-0.92367506,0.32023054,0
0.30274174,-0.52185011,0.039498538,0.21042049,-0.92367506,0.32023054,0
-1.0051624,-0.084005773,0.11673373,-0.92917269,-0.29079074,-0.22820789,0
-0.75608206,-0.44421309,0.51689768,-0.30390999,0.2495299,0.919442,0
0.83724511,0.49307749,0.47416097,0.92917269,0.29079074,0.22820789,0
0.24448991,0.57557845,0.084050059,-0.21042049,0.92367506,-0.32023054,0
-0.41493219,-0.52747226,0.081203893,0.21042049,-0.92367506,0.32023054,0
-0.79376239,0.3019135,-0.11138982,-0.21042049,0.92367506,-0.32023054,0
1.0040529,0.36878377,-0.28921688,0.30390999,-0.2495299,-0.919442,0
-0.078228377,0.39313471,0.3868531,-0.30390999,0.2495299,0.919442,0
0.1633538,0.39136863,-0.51460671,-0.21042049,0.92367506,-0.32023054,0
-0.39786491,-0.089705691,-0.63787347,0.30390999,-0.2495299,-0.919442,0
0.67546928,-0.46725625,-0.032514393,0.21042049,-0.92367506,0.32023054,0
0.21444824,0.076034099,-0.57126415,0.30390999,-0.2495299,-0.919442,0
-1.0238389,0.16170293,-0.42822725,-0.21042049,0.92367506,-0.32023054,0
-0.097478062,0.11927876,0.55179048,-0.30390999,0.2495299,0.919442,0
0.0022156835,0.44833151,-0.42685768,-0.21042049,0.92367506,-0.32023054,0
-0.88898575,-0.044986129,-0.44063103,-0.92917269,-0.29079074,-0.22820789,0
0.24710542,0.47089583,-0.54158187,-0.21042049,0.92367506,-0.32023054,0
1.1194218,-0.0016340017,0.0584203,0.92917269,0.29079074,0.22820789,0
-0.3659898,-0.6797421,-0.39309049,0.30390999,-0.2495299,-0.919442,0
-0.40759271,-0.39525816,-0.63285261,0.30390999,-0.2495299,-0.919442,0
0.19033942,0.70374221,0.24226767,-0.21042049,0.92367506,-0.32023054,0
0.96465933,0.2745741,0.52058268,0.92917269,0.29079074,0.22820789,0
-0.45568305,-0.66044629,-0.3456189,0.21042049,-0.92367506,0.32023054,0
0.85215557,0.49740845,0.44142067,0.92917269,0.29079074,0.22820789,0
1.1047653,-0.20747131,0.032398939,0.92917269,0.29079074,0.22820789,0
0.92605674,0.58399999,-0.11340201,0.92917269,0.29079074,0.22820789,0
0.96452272,0.50008976,-0.45862362,0.30390999,-0.2495299,-0.919442,0
-0.2548413,0.49668196,0.23565002,-0.21042049,0.92367506,-0.32023054,0
-0.67517054,0.089585841,0.28938612,-0.30390999,0.2495299,0.919442,0
-1.0242748,-0.37742794,0.067159653,-0.92917269,-0.29079074,-0.22820789,0
1.122769,-0.089411139,0.062375665,0.92917269,0.29079074,0.22820789,0
0.54817295,-0.44178846,-0.21609661,0.21042049,-0.92367506,0.32023054,0
0.95581669,0.036119431,0.34016603,0.92917269,0.29079074,0.22820789,0
1.0158947,-0.27672607,0.2111128,0.21042049,-0.92367506,0.32023054,0
0.76539135,0.44014177,0.34273332,0.92917269,0.29079074,0.22820789,0
-0.18019778,-0.67063648,-0.45573092,0.30390999,-0.2495299,-0.919442,0
-0.65654099,-0.43414521,0.51120758,-0.30390999,0.2495299,0.919442,0
0.14843744,-0.32554322,0.38452193,0.21042049,-0.92367506,0.32023054,0
0.032174587,-0.62220609,0.014929906,0.21042049,-0.92367506,0.32023054,0
-0.60754585,-0.70713514,0.07225576,0.21042049,-0.92367506,0.32023054,0
1.003963,0.25230366,0.22122449,0.92917269,0.29079074,0.22820789,0
0.57151163,0.77147496,-0.0023913085,-0.21042049,0.92367506,-0.32023054,0
-0.081777632,0.44052836,-0.52120066,-0.21042049,0.92367506,-0.32023054,0
-1.1700352,0.2381081,0.1933738,-0.92917269,-0.29079074,-0.22820789,0
-0.37181497,-0.67420638,0.10431293,0.21042049,-0.92367506,0.32023054,0
-0.65685451,-0.7515806,-0.40259364,0.21042049,-0.92367506,0.32023054,0
-0.62628073,-0.68874204,-0.01925832,0.21042049,-0.92367506,0.32023054,0
1.0443075,0.53207517,-0.21218109,0.92917269,0.29079074,0.22820789,0
0.44707796,0.50218487,0.48220143,-0.30390999,0.2495299,0.919442,0
-0.84338832,-0.78669125,-0.35133964,-0.92917269,-0.29079074,-0.22820789,0
-0.5768289,-0.55909532,0.1482816,0.21042049,-0.92367506,0.32023054,0
-0.76995683,-0.59273726,-0.18331766,-0.92917269,-0.29079074,-0.22820789,0
0.082238525,0.6474607,0.24413738,-0.21042049,0.92367506,-0.32023054,0
-0.54048359,-0.65316665,0.21863608,0.21042049,-0.92367506,0.32023054,0
0.31032473,-0.63288665,-0.3441031,0.30390999,-0.2495299,-0.919442,0
0.94142276,0.67772388,0.061418116,0.92917269,0.29079074,0.22820789,0
-0.68886238,-0.68164003,-0.4495666,-0.92917269,-0.29079074,-0.22820789,0
0.92140114,-0.16634014,0.53325641,0.92917269,0.29079074,0.22820789,0
-1.2387385,0.24850279,-0.081858993,-0.92917269,-0.29079074,-0.22820789,0
-1.0431061,-0.46816051,0.3117978,-0.30390999,0.2495299,0.919442,0
-0.91090262,0.19029111,0.12894529,-0.30390999,0.2495299,0.919442,0
0.6467911,0.76852596,-0.0018236935,-0.21042049,0.92367506,-0.32023054,0
0.039217889,-0.44083729,0.37252152,0.21042049,-0.92367506,0.32023054,0
-0.88916355,-0.25239298,-0.72127205,-0.92917269,-0.29079074,-0.22820789,0
-0.17742556,0.029153556,-0.61523765,0.30390999,-0.2495299,-0.919442,0
0.12051928,0.33110458,-0.53981531,0.30390999,-0.2495299,-0.919442,0
-0.55310017,-0.015667975,0.33998933,-0.30390999,0.2495299,0.919442,0
-0.27617842,0.23417793,-0.66949844,-0.21042049,0.92367506,-0.32023054,0
-0.65506238,-0.033906791,-0.80361974,0.30390999,-0.2495299,-0.919442,0
1.0314298,0.35989997,0.071244955,0.92917269,0.29079074,0.22820789,0
0.39940399,0.48282516,0.52778423,-0.30390999,0.2495299,0.919442,0
-1.0205522,0.27744848,-0.001306057,-0.21042049,0.92367506,-0.32023054,0
-0.010840178,-0.14556965,0.61650395,-0.30390999,0.2495299,0.919442,0
-0.86980569,-0.43182999,0.14215297,-0.92917269,-0.29079074,-0.22820789,0
0.50931633,0.048135281,-0.37261403,0.30390999,-0.2495299,-0.919442,0
-0.043937147,0.070243806,0.56413054,-0.30390999,0.2495299,0.919442,0
0.72880983,0.57017076,0.3952902,0.92917269,0.29079074,0.22820789,0
-0.85649496,-0.83233678,-0.21964681,-0.92917269,-0.29079074,-0.22820789,0
-0.78503615,0.36940473,0.20564455,-0.30390999,0.2495299,0.919442,0
-1.108592,0.07587105,-0.31388932,-0.92917269,-0.29079074,-0.22820789,0
0.89003706,0.17469472,0.31683505,0.92917269,0.29079074,0.22820789,0
-0.93645477,-0.099545136,-0.64879602,-0.92917269,-0.29079074,-0.22820789,0
-0.18689641,-0.4694331,0.035882644,0.21042049,-0.92367506,0.32023054,0
0.89053035,0.18256205,0.20759839,0.92917269,0.29079074,0.22820789,0
-0.7122876,-0.57533997,0.15550864,0.21042049,-0.92367506,0.32023054,0
1.1563368,-0.0019709468,0.047608614,0.92917269,0.29079074,0.22820789,0
-0.99729002,-0.19268012,0.078080893,-0.92917269,-0.29079074,-0.22820789,0
-0.70912504,0.22410195,-0.37220377,-0.21042049,0.92367506,-0.32023054,0
-0.64599383,-0.68811619,-0.031041771,0.21042049,-0.92367506,0.32023054,0
-0.92419082,0.13214348,-0.73983663,-0.21042049,0.92367506,-0.32023054,0
0.85197985,0.59191251,-0.01648587,0.92917269,0.29079074,0.22820789,0
0.52927238,0.46104723,-0.43623421,0.30390999,-0.2495299,-0.919442,0
-0.77008939,-0.721331,0.20626265,0.21042049,-0.92367506,0.32023054,0
-0.99719477,-0.36341846,0.28814006,-0.92917269,-0.29079074,-0.22820789,0
0.58803457,-0.40772063,0.17245817,0.21042049,-0.92367506,0.32023054,0
-0.20934206,0.56487107,0.016088098,-0.21042049,0.92367506,-0.32023054,0
0.19451666,0.75184172,0.35971293,-0.30390999,0.2495299,0.919442,0
-0.39190593,0.30672997,-0.44078422,-0.21042049,0.92367506,-0.32023054,0
0.54570341,-0.1696412,-0.3831608,0.30390999,-0.2495299,-0.919442,0
0.76292491,0.22399576,0.621526,0.92917269,0.29079074,0.22820789,0
0.4834829,-0.17133904,0.80414474,0.21042049,-0.92367506,0.32023054,0
0.90603894,0.663867,-0.17396331,0.92917269,0.29079074,0.22820789,0
0.34412944,0.06866087,0.6951642,-0.30390999,0.2495299,0.919442,0
0.0048130751,-0.30302691,0.42779911,0.21042049,-0.92367506,0.32023054,0
1.1310948,-0.011492312,-0.059636116,0.92917269,0.29079074,0.22820789,0
0.46495378,-0.027017057,-0.48696059,0.30390999,-0.2495299,-0.919442,0
-0.86729604,-0.65898639,-0.35749429,-0.92917269,-0.29079074,-0.22820789,0
-0.54173821,0.036266923,0.29448557,-0.30390999,0.2495299,0.919442,0
-1.0024123,-0.26144439,0.099103689,-0.92917269,-0.29079074,-0.22820789,0
0.78758115,-0.20271789,0.62477887,0.21042049,-0.92367506,0.32023054,0
-0.68965095,0.18676727,-0.61068964,-0.21042049,0.92367506,-0.32023054,0
-0.16638577,-0.52973294,0.2216818,0.21042049,-0.92367506,0.32023054,0
-1.1036025,-0.40144944,0.34792316,-0.92917269,-0.29079074,-0.22820789,0
-0.97997272,0.22770068,-0.26199746,-0.92917269,-0.29079074,-0.22820789,0
-0.99453515,-0.18144321,-0.011911154,-0.92917269,-0.29079074,-0.22820789,0
-1.1467834,0.067746639,-0.083915353,-0.92917269,-0.29079074,-0.22820789,0
-1.0969815,-0.37397122,0.17127138,-0.92917269,-0.29079074,-0.22820789,0
0.97066063,0.019323349,0.14246196,0.92917269,0.29079074,0.22820789,0
-0.58239138,0.081150621,-0.7295953,0.30390999,-0.2495299,-0.919442,0
-0.9976213,-0.0016181618,-0.7435658,-0.92917269,-0.29079074,-0.22820789,0
0.094378591,0.79164082,0.43981248,-0.21042049,0.92367506,-0.32023054,0
0.94963574,-0.062165856,0.22979099,0.92917269,0.29079074,0.22820789,0
-0.65395063,0.010136306,0.33651593,-0.30390999,0.2495299,0.919442,0
-0.84162915,0.10122305,0.2284053,-0.30390999,0.2495299,0.919442,0
0.39441097,-0.033858016,0.70997488,-0.30390999,0.2495299,0.919442,0
0.66754067,0.66824347,0.19990414,-0.21042049,0.92367506,-0.32023054,0
0.70283616,0.71949965,0.048305094,-0.21042049,0.92367506,-0.32023054,0
-0.44809121,-0.38552633,-0.57908332,0.30390999,-0.2495299,-0.919442,0
-0.35982746,0.41944724,0.30161935,-0.30390999,0.2495299,0.919442,0
-1.0066514,-0.0069642663,0.29311061,-0.30390999,0.2495299,0.919442,0
1.1266999,-0.044944465,0.13039565,0.92917269,0.29079074,0.22820789,0
-0.81883538,-0.46220613,-0.23236942,-0.92917269,-0.29079074,-0.22820789,0
-0.78357708,-0.33746877,-0.63031191,-0.92917269,-0.29079074,-0.22820789,0
-0.02107951,0.38033977,-0.18062183,-0.21042049,0.92367506,-0.32023054,0
-9.7524375e-05,0.35762206,0.40405822,-0.30390999,0.2495299,0.919442,0
0.096343309,0.69302469,0.36903414,-0.30390999,0.2495299,0.919442,0
-0.66192907,0.26833978,-0.11240709,-0.21042049,0.92367506,-0.32023054,0
0.19356304,-0.19277623,0.57440323,0.21042049,-0.92367506,0.32023054,0
-0.78179681,-0.36158502,-0.35325915,-0.92917269,-0.29079074,-0.22820789,0
-0.8866539,-0.21112603,-0.19518501,-0.92917269,-0.29079074,-0.22820789,0
0.37175635,-0.063556179,0.58325708,-0.30390999,0.2495299,0.919442,0
0.81035304,0.65814686,0.65454042,0.92917269,0.29079074,0.22820789,0
0.38572079,0.66947705,0.55128002,-0.30390999,0.2495299,0.919442,0
-0.72468179,-0.21916139,0.3915202,-0.30390999,0.2495299,0.919442,0
-0.52699983,-0.51779473,0.406764,0.21042049,-0.92367506,0.32023054,0
0.75240326,-0.46392143,-0.067871928,0.30390999,-0.2495299,-0.919442,0
0.82403147,0.57556862,0.30498916,0.92917269,0.29079074,0.22820789,0
-0.43405262,0.17606072,-0.47496793,-0.21042049,0.92367506,-0.32023054,0
0.045468241,0.10158426,-0.51144159,0.30390999,-0.2495299,-0.919442,0
-0.75632191,-0.20822138,-0.80627435,0.30390999,-0.2495299,-0.919442,0
0.28055739,0.25314465,0.60500902,-0.30390999,0.2495299,0.919442,0
-0.045277178,-0.35588866,0.53323513,0.21042049,-0.92367506,0.32023054,0
0.043450058,0.45096678,-0.21031833,-0.21042049,0.92367506,-0.32023054,0
-0.73335946,-0.57146037,-0.30793923,-0.92917269,-0.29079074,-0.22820789,0
0.1167244,0.45171869,-0.10261293,-0.21042049,0.92367506,-0.32023054,0
1.0023794,0.50866073,0.074229956,0.92917269,0.29079074,0.22820789,0
0.77303511,-0.088255942,0.65277928,0.21042049,-0.92367506,0.32023054,0
-0.063646853,0.53095639,-0.11695248,-0.21042049,0.92367506,-0.32023054,0
-0.53112304,-0.75144899,-0.21584666,0.21042049,-0.92367506,0.32023054,0
0.25149894,0.63324457,-0.16636087,-0.21042049,0.92367506,-0.32023054,0
0.2422975,0.46147513,-0.078011751,-0.21042049,0.92367506,-0.32023054,0
-0.12314779,0.45807829,-0.43194103,-0.21042049,0.92367506,-0.32023054,0
0.99348795,-0.140944,0.21900463,0.92917269,0.29079074,0.22820789,0
0.045320213,0.39453688,-0.65242809,0.30390999,-0.2495299,-0.919442,0
-0.52008075,-0.52453005,0.30500734,0.21042049,-0.92367506,0.32023054,0
-0.85467744,-0.56969005,-0.56308144,-0.92917269,-0.29079074,-0.22820789,0
-0.39791358,-0.73062503,-0.11722551,0.21042049,-0.92367506,0.32023054,0
-0.70237899,-0.46839422,-0.52819347,-0.92917269,-0.29079074,-0.22820789,0
0.61175305,0.70701826,0.3764061,-0.21042049,0.92367506,-0.32023054,0
-0.56714368,-0.53449398,0.089066893,0.21042049,-0.92367506,0.32023054,0
-0.89362162,0.034835532,-0.69687724,-0.92917269,-0.29079074,-0.22820789,0
0.69241613,0.69965613,0.47815272,0.92917269,0.29079074,0.22820789,0
0.37498373,0.51720524,-0.29689059,-0.21042049,0.92367506,-0.32023054,0
0.05323267,-0.2113602,0.54580373,-0.30390999,0.2495299,0.919442,0
0.4238919,0.86098373,0.54658169,-0.30390999,0.2495299,0.919442,0
0.94547796,0.40289015,-0.24482352,0.92917269,0.29079074,0.22820789,0
-0.58614761,-0.42943871,-0.60782325,0.30390999,-0.2495299,-0.919442,0
0.79875553,0.56010485,0.061473548,0.92917269,0.29079074,0.22820789,0
-0.9052068,-0.1098448,-0.63907152,-0.92917269,-0.29079074,-0.22820789,0
-1.0251852,0.066769153,-0.46318948,-0.92917269,-0.29079074,-0.22820789,0
0.82539392,0.26408765,0.67615473,0.92917269,0.29079074,0.22820789,0
0.77191341,-0.13006923,0.61648142,0.21042049,-0.92367506,0.32023054,0
-0.10169843,-0.68674481,-0.26704681,0.21042049,-0.92367506,0.32023054,0
-0.50807422,0.48798972,0.055507064,-0.21042049,0.92367506,-0.32023054,0
-0.51360071,0.40796554,-0.02708602,-0.21042049,0.92367506,-0.32023054,0
-0.21683699,-0.40587401,0.37855297,0.21042049,-0.92367506,0.32023054,0
0.1803509,-0.47563845,0.28926826,0.21042049,-0.92367506,0.32023054,0
0.73640102,0.10579966,0.75360751,-0.30390999,0.2495299,0.919442,0
-0.32864475,-0.35912794,0.49228966,0.21042049,-0.92367506,0.32023054,0
0.81757957,0.53977507,0.19947422,0.92917269,0.29079074,0.22820789,0
-0.99654222,0.16228104,-0.65968716,-0.92917269,-0.29079074,-0.22820789,0
-1.1881797,0.16360271,0.020307422,-0.92917269,-0.29079074,-0.22820789,0
0.95578247,0.58364987,0.038509607,0.92917269,0.29079074,0.22820789,0
0.39989519,0.048825286,0.58146054,-0.30390999,0.2495299,0.919442,0
-0.80757332,-0.4766193,-0.61585408,-0.92917269,-0.29079074,-0.22820789,0
-0.56227207,0.44023702,-0.10824251,-0.21042049,0.92367506,-0.32023054,0
1.0857563,-0.16681331,-0.13514632,0.92917269,0.29079074,0.22820789,0
0.92108607,8.2373619e-05,-0.28880459,0.30390999,-0.2495299,-0.919442,0
-0.97227526,-0.039130449,-0.0072333217,-0.92917269,-0.29079074,-0.22820789,0
1.0296049,-0.03518337,0.20411801,0.92917269,0.29079074,0.22820789,0
-0.6913451,-0.79314864,-0.35392886,-0.92917269,-0.29079074,-0.22820789,0
0.67725682,0.83344841,0.41494986,0.92917269,0.29079074,0.22820789,0
0.27692899,0.28064165,0.50318033,-0.30390999,0.2495299,0.919442,0
0.33665401,0.14158151,-0.54331028,0.30390999,-0.2495299,-0.919442,0
0.93782532,0.59994107,-0.11071378,0.92917269,0.29079074,0.22820789,0
0.40548125,-0.41817623,-0.19880795,0.21042049,-0.92367506,0.32023054,0
-0.88491243,-0.46588713,-0.19569445,-0.92917269,-0.29079074,-0.22820789,0
0.66406661,0.69088781,0.55963647,0.92917269,0.29079074,0.22820789,0
-1.0905228,0.22661376,-0.051603079,-0.21042049,0.92367506,-0.32023054,0
-0.80066895,0.23533183,0.14876598,-0.30390999,0.2495299,0.919442,0
1.1638103,-0.18026078,0.006070137,0.92917269,0.29079074,0.22820789,0
0.9481895,-0.12967053,0.50986171,0.21042049,-0.92367506,0.32023054,0
0.44072452,-0.47216368,0.18404099,0.21042049,-0.92367506,0.32023054,0
0.71602106,0.49744964,0.72906739,-0.30390999,0.2495299,0.919442,0
0.97479439,0.16401336,0.48105794,0.92917269,0.29079074,0.22820789,0
0.63469744,-0.07586991,0.83463144,0.21042049,-0.92367506,0.32023054,0
-0.96615916,0.1435194,-0.32297266,-0.92917269,-0.29079074,-0.22820789,0
-0.8528052,0.36084989,-0.16499829,-0.21042049,0.92367506,-0.32023054,0
-0.8881855,-0.59377575,0.12281382,-0.92917269,-0.29079074,-0.22820789,0
-1.0936823,0.17463642,0.050236106,-0.92917269,-0.29079074,-0.22820789,0
0.33054432,-0.062188327,0.74990618,-0.30390999,0.2495299,0.919442,0
0.93078375,-0.06392774,0.30964923,0.92917269,0.29079074,0.22820789,0
0.85038811,0.36599857,0.41330248,0.92917269,0.29079074,0.22820789,0
-0.074250579,0.39205816,-0.29008022,-0.21042049,0.92367506,-0.32023054,0
0.54232258,-0.29184371,-0.28171149,0.30390999,-0.2495299,-0.919442,0
0.014624,-0.41974688,0.42375666,0.21042049,-0.92367506,0.32023054,0
-0.86364394,-0.14309016,-0.29699451,-0.92917269,-0.29079074,-0.22820789,0
-0.025887489,0.38863835,-0.24257548,-0.21042049,0.92367506,-0.32023054,0
-0.32320023,-0.70965874,-0.038525224,0.21042049,-0.92367506,0.32023054,0
0.75948066,0.54426342,0.35931009,0.92917269,0.29079074,0.22820789,0
-0.97514915,-0.40397757,0.30731779,-0.92917269,-0.29079074,-0.22820789,0
-0.31168091,0.38982534,-0.12584019,-0.21042049,0.92367506,-0.32023054,0
0.70880038,-0.26753885,0.16642874,0.21042049,-0.92367506,0.32023054,0
0.74833924,0.69360733,-0.26253104,-0.21042049,0.92367506,-0.32023054,0
-0.32403675,0.27512303,-0.32860371,-0.21042049,0.92367506,-0.32023054,0
-0.8188864,-0.10816103,-0.65612245,-0.92917269,-0.29079074,-0.22820789,0
-0.40320525,0.18603152,-0.73178065,-0.21042049,0.92367506,-0.32023054,0
0.049746156,-0.39862567,0.23436737,0.21042049,-0.92367506,0.32023054,0
-0.95083535,0.082908273,-0.44995844,-0.92917269,-0.29079074,-0.22820789,0
1.1796139,-0.1428687,-0.14140952,0.30390999,-0.2495299,-0.919442,0
-0.92267656,-0.062845111,-0.16473413,-0.92917269,-0.29079074,-0.22820789,0
-1.0199568,-0.56977415,0.33398885,-0.92917269,-0.29079074,-0.22820789,0
0.62435746,0.45452654,0.56986821,-0.30390999,0.2495299,0.919442,0
-0.95706749,-0.33623177,-0.39465165,-0.92917269,-0.29079074,-0.22820789,0
-0.37711835,0.024876058,0.44699994,-0.30390999,0.2495299,0.919442,0
-0.01186204,-0.36780733,0.40083307,0.21042049,-0.92367506,0.32023054,0
0.27294797,-0.27569872,0.54606599,0.21042049,-0.92367506,0.32023054,0
0.3956674,0.74925518,0.14069952,-0.21042049,0.92367506,-0.32023054,0
-1.0141022,-0.089123815,-0.34839278,-0.92917269,-0.29079074,-0.22820789,0
0.86115831,0.25078249,0.5223971,0.92917269,0.29079074,0.22820789,0
1.0247868,-0.036099017,-0.12179554,0.92917269,0.29079074,0.22820789,0
0.70758605,0.71503383,0.13315964,-0.21042049,0.92367506,-0.32023054,0
0.64088386,0.55309761,-0.29723948,-0.21042049,0.92367506,-0.32023054,0
-0.52692437,-0.37070438,0.46513182,-0.30390999,0.2495299,0.919442,0
0.59883952,-0.33786055,-0.16107684,0.30390999,-0.2495299,-0.919442,0
0.90722257,0.37838894,0.24452096,0.92917269,0.29079074,0.22820789,0
-0.4678902,-0.65294421,-0.087629318,0.21042049,-0.92367506,0.32023054,0
0.13215296,-0.29053634,-0.38738489,0.30390999,-0.2495299,-0.919442,0
-0.110636,-0.33996356,0.68459284,-0.30390999,0.2495299,0.919442,0
-0.9294796,-0.54866028,0.42134327,-0.92917269,-0.29079074,-0.22820789,0
-0.039337412,-0.31473517,-0.3722119,0.30390999,-0.2495299,-0.919442,0
0.85474193,0.42547989,0.079035997,0.92917269,0.29079074,0.22820789,0
0.94738901,-0.11768335,0.35498261,0.92917269,0.29079074,0.22820789,0
-0.93036675,0.32017308,-0.14242911,-0.21042049,0.92367506,-0.32023054,0
-0.858935,0.086079508,-0.77048659,-0.21042049,0.92367506,-0.32023054,0
-0.01021561,-0.46652836,0.015509911,0.21042049,-0.92367506,0.32023054,0
0.78632534,0.68526852,-0.056045771,-0.21042049,0.92367506,-0.32023054,0
-0.37075904,-0.11593816,-0.61180955,0.30390999,-0.2495299,-0.919442,0
0.4146176,0.2858012,-0.4753575,0.30390999,-0.2495299,-0.919442,0
0.93273473,-0.3205663,0.040921509,0.21042049,-0.92367506,0.32023054,0
0.74128282,0.69957942,-0.320086,-0.21042049,0.92367506,-0.32023054,0
0.86178529,0.40402353,-0.41586527,0.30390999,-0.2495299,-0.919442,0
-0.886051,0.039182171,-0.67970121,-0.92917269,-0.29079074,-0.22820789,0
-0.050258696,0.33042887,-0.41998982,-0.21042049,0.92367506,-0.32023054,0
-0.44866145,0.24102819,-0.77057803,0.30390999,-0.2495299,-0.919442,0
0.6320762,0.86591208,0.57139057,-0.21042049,0.92367506,-0.32023054,0
0.6547296,-0.09503603,-0.27239278,0.30390999,-0.2495299,-0.919442,0
0.93122602,0.08669626,0.79459691,0.92917269,0.29079074,0.22820789,0
-0.67020714,-0.33749485,-0.61059517,0.30390999,-0.2495299,-0.919442,0
-0.17240632,0.6366204,0.26796135,-0.21042049,0.92367506,-0.32023054,0
0.86399949,0.34473062,0.79401994,0.92917269,0.29079074,0.22820789,0
-0.81762981,-0.19041878,-0.51050448,-0.92917269,-0.29079074,-0.22820789,0
-1.009629,0.2168898,0.05299741,-0.30390999,0.2495299,0.919442,0
-0.091772795,-0.29969484,0.523844,0.21042049,-0.92367506,0.32023054,0
-0.90719116,0.2642495,0.055216432,-0.21042049,0.92367506,-0.32023054,0
-0.19925964,0.24147485,-0.49056607,-0.21042049,0.92367506,-0.32023054,0
-0.91970062,-0.67655832,0.29126668,-0.92917269,-0.29079074,-0.22820789,0
1.0573815,-0.12651402,0.17544287,0.92917269,0.29079074,0.22820789,0
-0.42742789,0.55213761,0.27745378,-0.21042049,0.92367506,-0.32023054,0
-0.96447736,-0.52397484,-0.030981779,-0.92917269,-0.29079074,-0.22820789,0
0.86849833,0.25528523,0.096634746,0.92917269,0.29079074,0.22820789,0
-0.88970268,-0.65960908,0.16101414,0.21042049,-0.92367506,0.32023054,0
-0.54263496,0.47932604,0.14662248,-0.30390999,0.2495299,0.919442,0
0.034007132,-0.60690486,-0.15083082,0.21042049,-0.92367506,0.32023054,0
-0.10356009,0.26169705,0.45239514,-0.30390999,0.2495299,0.919442,0
-0.99349773,-0.23738244,-0.31992477,-0.92917269,-0.29079074,-0.22820789,0
0.82831764,0.60903347,0.45837539,0.92917269,0.29079074,0.22820789,0
0.89976561,0.52229553,0.35599536,0.92917269,0.29079074,0.22820789,0
1.1637251,-0.032031,-0.12674689,0.92917269,0.29079074,0.22820789,0
0.98885608,0.54893064,-0.052608371,0.92917269,0.29079074,0.22820789,0
-0.0065691471,-0.52350438,0.20283179,0.21042049,-0.92367506,0.32023054,0
-0.84522587,-0.37564257,-0.33770233,-0.92917269,-0.29079074,-0.22820789,0
-0.66374469,0.37257749,-0.23186696,-0.21042049,0.92367506,-0.32023054,0
0.1477837,0.39064032,-0.52677238,0.30390999,-0.2495299,-0.919442,0
0.60173082,0.88532197,0.52018178,-0.21042049,0.92367506,-0.32023054,0
-0.4531087,-0.28902167,-0.57237649,0.30390999,-0.2495299,-0.919442,0
0.70409966,-0.37117425,-0.080857992,0.21042049,-0.92367506,0.32023054,0
-0.44906157,0.33242261,-0.33561552,-0.21042049,0.92367506,-0.32023054,0
-1.0761642,0.15194839,-0.091563582,-0.92917269,-0.29079074,-0.22820789,0
-0.10641475,0.55462438,0.3587473,-0.30390999,0.2495299,0.919442,0
0.44264722,0.4365741,-0.43868604,0.30390999,-0.2495299,-0.919442,0
0.34774768,-0.44151428,0.078082889,0.21042049,-0.92367506,0.32023054,0
-0.84019256,-0.51493549,-0.138735,-0.92917269,-0.29079074,-0.22820789,0
0.19986805,0.030753493,-0.5300163,0.30390999,-0.2495299,-0.919442,0
1.138211,-0.33686006,0.012232542,0.21042049,-0.92367506,0.32023054,0
-0.1730153,-0.43275797,0.58392215,0.21042049,-0.92367506,0.32023054,0
0.042419195,-0.1741488,0.63771713,-0.30390999,0.2495299,0.919442,0
-1.0549387,0.086687624,-0.1360423,-0.92917269,-0.29079074,-0.22820789,0
-0.21961242,-0.48236483,0.056367643,0.21042049,-0.92367506,0.32023054,0
-0.93633699,-0.49819165,-0.032938957,-0.92917269,-0.29079074,-0.22820789,0
-0.38589215,0.57077825,0.071703941,-0.21042049,0.92367506,-0.32023054,0
1.0560505,0.50273132,-0.41580617,0.92917269,0.29079074,0.22820789,0
-0.83434027,-0.56842709,-0.056865275,-0.92917269,-0.29079074,-0.22820789,0
-0.55581182,-0.19340041,0.33681488,-0.30390999,0.2495299,0.919442,0
0.93251598,-0.28534704,-0.23089492,0.30390999,-0.2495299,-0.919442,0
-0.87720609,-0.33724782,-0.55097055,-0.92917269,-0.29079074,-0.22820789,0
-0.77019954,-0.55637389,0.24620751,0.21042049,-0.92367506,0.32023054,0
-0.23562837,-0.30359972,0.53550744,0.21042049,-0.92367506,0.32023054,0
-0.033082169,0.35345051,0.44973361,-0.30390999,0.2495299,0.919442,0
0.86358154,-0.25324637,-0.2173543,0.30390999,-0.2495299,-0.919442,0
0.27449471,-0.30238351,0.81893957,0.21042049,-0.92367506,0.32023054,0
-0.96407598,0.30525124,-0.0046138167,-0.21042049,0.92367506,-0.32023054,0
1.0200267,-0.084380299,0.36443019,0.92917269,0.29079074,0.22820789,0
-0.90337187,0.087353334,-0.64815634,-0.92917269,-0.29079074,-0.22820789,0
0.46262112,0.6283192,-0.065650642,-0.21042049,0.92367506,-0.32023054,0
-0.58392698,0.081442587,-0.65914905,0.30390999,-0.2495299,-0.919442,0
-0.71548408,-0.58029628,-0.55589581,-0.92917269,-0.29079074,-0.22820789,0
0.5811187,0.6683901,-0.24458832,-0.21042049,0.92367506,-0.32023054,0
1.0022396,0.33084136,-0.28123832,0.30390999,-0.2495299,-0.919442,0
-0.42110699,-0.29575852,0.53986079,-0.30390999,0.2495299,0.919442,0
0.96753657,0.087970853,0.20344365,0.92917269,0.29079074,0.22820789,0
0.40039086,-0.35481125,-0.25802571,0.30390999,-0.2495299,-0.919442,0
0.53369027,-0.5006541,-0.072619498,0.21042049,-0.92367506,0.32023054,0
0.8644554,0.11837669,0.46902543,0.92917269,0.29079074,0.22820789,0
1.0047401,-0.16728151,0.24893767,0.92917269,0.29079074,0.22820789,0
0.12290263,-0.53153956,0.12606452,0.21042049,-0.92367506,0.32023054,0
-0.63824517,-0.14647567,0.29174891,-0.30390999,0.2495299,0.919442,0
-0.88975233,-0.48975796,-0.56122345,-0.92917269,-0.29079074,-0.22820789,0
-0.83350223,-0.75427461,-0.29147148,-0.92917269,-0.29079074,-0.22820789,0
-0.25096533,-0.42710027,-0.4660404,0.30390999,-0.2495299,-0.919442,0
0.85944557,0.33439019,0.55709225,0.92917269,0.29079074,0.22820789,0
-0.6387952,-0.56016588,-0.6032486,0.30390999,-0.2495299,-0.919442,0
0.32040095,-0.20857124,0.62980539,-0.30390999,0.2495299,0.919442,0
-0.86263812,-0.42341489,-0.12016267,-0.92917269,-0.29079074,-0.22820789,0
-0.74274385,-0.62160581,0.28151762,0.21042049,-0.92367506,0.32023054,0
0.79094547,0.60330749,-0.013579965,0.92917269,0.29079074,0.22820789,0
-0.056924164,-0.61019814,-0.06762445,0.21042049,-0.92367506,0.32023054,0
0.50095457,0.56857425,-0.099359661,-0.21042049,0.92367506,-0.32023054,0
-0.4085927,-0.28400895,-0.58719391,0.30390999,-0.2495299,-0.919442,0
0.97755188,0.46810257,-0.35338795,0.92917269,0.29079074,0.22820789,0
-0.40084839,-0.79557133,-0.410528,0.30390999,-0.2495299,-0.919442,0
-0.43434536,0.50090981,0.22822466,-0.21042049,0.92367506,-0.32023054,0
0.86874717,0.57487291,0.063848495,0.92917269,0.29079074,0.22820789,0
-1.0948675,0.2748583,0.052892208,-0.21042049,0.92367506,-0.32023054,0
-0.97393364,0.050168961,-0.43328637,-0.92917269,-0.29079074,-0.22820789,0
0.10578239,0.46720797,-0.013834732,-0.21042049,0.92367506,-0.32023054,0
1.0007255,0.40860721,-0.034824073,0.92917269,0.29079074,0.22820789,0
0.22719216,0.46287134,-0.29690462,-0.21042049,0.92367506,-0.32023054,0
0.12136263,0.6234082,-0.059485324,-0.21042049,0.92367506,-0.32023054,0
0.080545306,-0.43714291,0.068910897,0.21042049,-0.92367506,0.32023054,0
0.75218105,0.47666875,-0.34469399,0.30390999,-0.2495299,-0.919442,0
-0.81790507,-0.71702123,-0.4401775,-0.92917269,-0.29079074,-0.22820789,0
0.98282784,0.51249164,0.029304266,0.92917269,0.29079074,0.22820789,0
-0.57370567,0.4305501,0.11727965,-0.21042049,0.92367506,-0.32023054,0
0.95955378,-0.015202373,0.43849468,0.92917269,0.29079074,0.22820789,0
-0.86671746,-0.56746888,-0.47891951,-0.92917269,-0.29079074,-0.22820789,0
-0.45814416,-0.3098464,-0.66628152,0.30390999,-0.2495299,-0.919442,0
0.16382903,0.68332124,0.044257998,-0.21042049,0.92367506,-0.32023054,0
-0.1039786,-0.0067343414,0.57966924,-0.30390999,0.2495299,0.919442,0
0.85338402,0.61218244,-0.045453668,0.92917269,0.29079074,0.22820789,0
0.13482171,0.46536615,-0.28804302,-0.21042049,0.92367506,-0.32023054,0
1.0538906,-0.0043197274,0.19265956,0.92917269,0.29079074,0.22820789,0
-0.66465867,0.39900047,0.28937036,-0.30390999,0.2495299,0.919442,0
-0.62055272,0.38379329,-0.16325587,-0.21042049,0.92367506,-0.32023054,0
0.6522122,0.8013494,0.53901899,0.92917269,0.29079074,0.22820789,0
-0.82044435,-0.80681133,-0.026745617,-0.92917269,-0.29079074,-0.22820789,0
0.20805752,0.39203227,-0.46709496,-0.21042049,0.92367506,-0.32023054,0
-0.94566464,-0.099259436,0.16404516,-0.30390999,0.2495299,0.919442,0
0.91935831,-0.011379004,0.3519417,0.92917269,0.29079074,0.22820789,0
-0.80024683,0.31236538,-0.076863706,-0.21042049,0.92367506,-0.32023054,0
0.72459012,-0.20774166,0.6437974,0.21042049,-0.92367506,0.32023054,0
-1.0099999,-0.0087082982,-0.49602115,-0.92917269,-0.29079074,-0.22820789,0
-0.88193154,-0.48415574,0.18722403,-0.92917269,-0.29079074,-0.22820789,0
-0.65709031,-0.34721589,-0.60058874,0.30390999,-0.2495299,-0.919442,0
0.63406634,0.076711208,0.77076375,-0.30390999,0.2495299,0.919442,0
0.88481128,0.3336851,0.46421224,0.92917269,0.29079074,0.22820789,0
0.9747529,0.23408771,0.3277126,0.92917269,0.29079074,0.22820789,0
0.79787302,0.18077688,0.72077322,0.92917269,0.29079074,0.22820789,0
0.64542508,-0.28879297,-0.15966326,0.30390999,-0.2495299,-0.919442,0
0.76847368,0.75065655,0.28200585,0.92917269,0.29079074,0.22820789,0
0.72154021,0.55579185,-0.32744411,-0.21042049,0.92367506,-0.32023054,0
0.71851134,0.63353086,-0.18865654,-0.21042049,0.92367506,-0.32023054,0
-1.0605261,-0.029550493,0.043878078,-0.92917269,-0.29079074,-0.22820789,0
-0.90076208,-0.6092695,0.14816225,-0.92917269,-0.29079074,-0.22820789,0
0.14106026,0.081919223,-0.54920548,0.30390999,-0.2495299,-0.919442,0
-1.0558022,0.2310614,-0.37696618,-0.92917269,-0.29079074,-0.22820789,0
0.92264104,0.10318123,0.54201835,0.92917269,0.29079074,0.22820789,0
-0.22847062,0.23575695,-0.77163404,0.30390999,-0.2495299,-0.919442,0
0.80424631,0.67273813,0.14680767,-0.21042049,0.92367506,-0.32023054,0
0.17747849,0.4669266,-0.10335703,-0.21042049,0.92367506,-0.32023054,0
0.52811396,0.69364703,0.58762765,-0.30390999,0.2495299,0.919442,0
-0.071437001,-0.21005249,0.56267643,-0.30390999,0.2495299,0.919442,0
