0.3316251,-0.61952621,-0.8601706,0.45350683,-0.45967448,-0.76356471,0
1.1147277,0.18966943,-0.76009309,0.45350683,-0.45967448,-0.76356471,0
-0.45934799,-0.23372927,-0.18053278,-0.80149972,0.16433752,-0.5749709,0
-0.15821937,-1.0576016,-0.046905518,-0.38978183,-0.8727501,0.29390073,0
1.1210215,0.019218817,-0.7048254,0.80149972,-0.16433752,0.5749709,0
-0.46941781,-0.36260432,1.196501,-0.45350683,0.45967448,0.76356471,0
-0.26376057,-0.4830212,1.035153,0.80149972,-0.16433752,0.5749709,0
-0.67626834,-0.81921107,-0.27946353,-0.80149972,0.16433752,-0.5749709,0
0.11603171,-1.0418633,0.30858672,-0.38978183,-0.8727501,0.29390073,0
-0.60407609,-0.82455283,0.31861401,-0.38978183,-0.8727501,0.29390073,0
0.51367795,0.83446771,-0.31863737,0.38978183,0.8727501,-0.29390073,0
0.08944878,0.96082944,-0.42081285,0.38978183,0.8727501,-0.29390073,0
0.53386503,-1.0917056,-0.2058149,0.80149972,-0.16433752,0.5749709,0
0.093233347,1.0386225,-0.082223296,0.38978183,0.8727501,-0.29390073,0
-0.19457775,0.77788389,0.69807661,-0.45350683,0.45967448,0.76356471,0
-0.24921262,0.71944964,0.77676499,-0.45350683,0.45967448,0.76356471,0
0.81322342,0.45467454,-0.6345492,0.38978183,0.8727501,-0.29390073,0
0.35032791,0.35075396,-1.2671553,0.45350683,-0.45967448,-0.76356471,0
-0.23172858,1.3139521,0.26774263,0.38978183,0.8727501,-0.29390073,0
-0.99412447,-0.37768245,0.62443209,-0.38978183,-0.8727501,0.29390073,0
0.31274933,-0.30422428,0.22215357,0.80149972,-0.16433752,0.5749709,0
0.52267534,0.67150706,-0.94202048,0.38978183,0.8727501,-0.29390073,0
-0.31600237,0.94436842,0.47355378,-0.45350683,0.45967448,0.76356471,0
0.16844615,1.1287237,-0.027333498,0.38978183,0.8727501,-0.29390073,0
-0.15814877,1.1236632,0.5884648,-0.45350683,0.45967448,0.76356471,0
0.24953124,-1.1244121,-0.5268079,0.45350683,-0.45967448,-0.76356471,0
-0.43990207,0.86553156,0.57362884,-0.45350683,0.45967448,0.76356471,0
0.7576645,0.66318589,0.090967536,0.80149972,-0.16433752,0.5749709,0
0.26347083,-0.30308652,0.38023993,0.80149972,-0.16433752,0.5749709,0
-0.26876861,-0.46535105,1.1507179,0.80149972,-0.16433752,0.5749709,0
0.93646747,0.55539,-0.28021288,0.38978183,0.8727501,-0.29390073,0
-0.24174984,-1.2325461,-0.48555529,-0.38978183,-0.8727501,0.29390073,0
-0.72354162,-0.827245,0.2905674,-0.38978183,-0.8727501,0.29390073,0
0.25808722,-0.3636263,-0.99958009,0.45350683,-0.45967448,-0.76356471,0
0.59616989,-0.9370122,-0.36546159,0.45350683,-0.45967448,-0.76356471,0
-0.49043983,-0.63459253,0.74061775,-0.38978183,-0.8727501,0.29390073,0
1.0165616,-0.27044868,-0.65981215,0.45350683,-0.45967448,-0.76356471,0
0.27754372,-0.37973827,0.21141869,0.80149972,-0.16433752,0.5749709,0
0.43469658,0.20113811,0.4643541,0.80149972,-0.16433752,0.5749709,0
-0.67392915,-0.73045087,0.3448652,-0.38978183,-0.8727501,0.29390073,0
-0.39571029,-1.0585128,-0.17275548,-0.38978183,-0.8727501,0.29390073,0
0.080158889,-0.46349514,-0.96915746,0.45350683,-0.45967448,-0.76356471,0
-0.51467007,-0.62708271,1.038074,-0.38978183,-0.8727501,0.29390073,0
-0.31290475,0.30307704,-0.21998851,-0.80149972,0.16433752,-0.5749709,0
0.55613369,-1.1643671,-0.22112983,0.45350683,-0.45967448,-0.76356471,0
1.0304378,-0.27805859,-0.52263391,0.45350683,-0.45967448,-0.76356471,0
0.56651264,-0.98327464,-0.16139704,0.80149972,-0.16433752,0.5749709,0
-0.93481779,-0.081294537,0.88174903,-0.45350683,0.45967448,0.76356471,0
-0.38521445,-0.99488962,-0.34994471,-0.38978183,-0.8727501,0.29390073,0
-0.089100331,0.94553477,-0.49450612,0.38978183,0.8727501,-0.29390073,0
0.033964962,-0.6218015,0.48850811,0.80149972,-0.16433752,0.5749709,0
0.88472867,0.62533867,-0.4637388,0.38978183,0.8727501,-0.29390073,0
0.20349053,-1.2748506,-0.32571256,-0.38978183,-0.8727501,0.29390073,0
-0.42009455,-0.96551448,0.023118615,-0.38978183,-0.8727501,0.29390073,0
-0.77048576,-0.65518439,0.39398313,-0.38978183,-0.8727501,0.29390073,0
-0.35893375,-0.96913415,-0.5409857,-0.80149972,0.16433752,-0.5749709,0
0.14809936,0.23241669,-1.1710749,-0.80149972,0.16433752,-0.5749709,0
0.15299964,0.86853349,0.94961739,-0.45350683,0.45967448,0.76356471,0
0.87440401,-0.23623592,-0.33497071,0.80149972,-0.16433752,0.5749709,0
0.36436573,0.83035779,-0.63574404,0.38978183,0.8727501,-0.29390073,0
-0.34693378,0.42048919,-0.095539585,-0.80149972,0.16433752,-0.5749709,0
1.0800785,-0.033098243,-0.53781396,0.80149972,-0.16433752,0.5749709,0
0.28952184,0.79875726,0.77616102,0.80149972,-0.16433752,0.5749709,0
-0.11500844,0.98300678,0.62058961,-0.45350683,0.45967448,0.76356471,0
-0.53737473,0.82582927,0.27445826,-0.80149972,0.16433752,-0.5749709,0
-0.029279053,1.2751253,0.41995585,-0.45350683,0.45967448,0.76356471,0
-0.37109435,1.1938967,0.38348418,-0.45350683,0.45967448,0.76356471,0
0.57565975,-1.1764389,-0.36685425,0.45350683,-0.45967448,-0.76356471,0
0.98308182,-0.11596823,-0.7223776,0.45350683,-0.45967448,-0.76356471,0
-0.44788498,-0.86376083,0.022574663,-0.38978183,-0.8727501,0.29390073,0
-0.47135317,0.28731915,0.95875847,-0.45350683,0.45967448,0.76356471,0
-0.27193916,-0.25936741,1.1746724,-0.45350683,0.45967448,0.76356471,0
-0.16400473,-1.0106205,0.23824346,-0.38978183,-0.8727501,0.29390073,0
-0.42327917,-0.87600261,0.46132863,-0.38978183,-0.8727501,0.29390073,0
0.13978523,0.86372817,0.76513904,-0.45350683,0.45967448,0.76356471,0
-0.38862234,-0.52277017,-0.62253284,-0.80149972,0.16433752,-0.5749709,0
0.83393061,-0.44710547,-0.58655679,0.80149972,-0.16433752,0.5749709,0
0.00088852644,0.67356068,0.94588232,-0.45350683,0.45967448,0.76356471,0
-0.90042657,-0.36807662,0.87983525,-0.38978183,-0.8727501,0.29390073,0
-0.63336456,-0.88274133,-0.091614366,-0.38978183,-0.8727501,0.29390073,0
-0.4001556,0.14216912,1.0308771,-0.45350683,0.45967448,0.76356471,0
-0.35757458,-0.079342306,1.1403544,-0.45350683,0.45967448,0.76356471,0
0.66129154,-0.70964348,-0.1657519,0.80149972,-0.16433752,0.5749709,0
-1.0611837,-0.39204702,0.99533677,-0.38978183,-0.8727501,0.29390073,0
0.22344649,0.72364277,-0.90328085,0.38978183,0.8727501,-0.29390073,0
0.29516703,-0.15993679,-1.1141624,0.45350683,-0.45967448,-0.76356471,0
-0.56648898,-0.29722124,1.1997073,-0.45350683,0.45967448,0.76356471,0
0.05577305,1.0471112,0.61431521,-0.45350683,0.45967448,0.76356471,0
0.62409127,-1.1418929,-0.20666409,0.45350683,-0.45967448,-0.76356471,0
-0.31295401,-0.51169366,1.1359206,-0.38978183,-0.8727501,0.29390073,0
0.027105004,0.9235428,-0.40015912,0.38978183,0.8727501,-0.29390073,0
0.29795924,0.93417138,0.078461409,0.38978183,0.8727501,-0.29390073,0
-0.20734179,0.09596622,1.0683305,-0.45350683,0.45967448,0.76356471,0
0.13637459,0.97396016,-0.65441942,0.38978183,0.8727501,-0.29390073,0
-0.15003705,-1.0180148,0.45517564,-0.38978183,-0.8727501,0.29390073,0
0.19977075,-0.29051757,-1.0122247,0.45350683,-0.45967448,-0.76356471,0
-0.61528659,-0.28594863,1.2463578,-0.45350683,0.45967448,0.76356471,0
-0.39479113,-0.98718899,-0.29882145,-0.38978183,-0.8727501,0.29390073,0
0.27268186,0.99721342,-0.0080711842,0.38978183,0.8727501,-0.29390073,0
1.08321,0.37694368,-0.52648723,0.80149972,-0.16433752,0.5749709,0
-0.58975768,0.92252654,0.20283145,-0.80149972,0.16433752,-0.5749709,0
0.24269541,1.0915747,0.27263188,0.38978183,0.8727501,-0.29390073,0
-0.35224366,-0.64070314,0.96609974,-0.38978183,-0.8727501,0.29390073,0
0.20011884,0.68839705,-1.0315177,0.38978183,0.8727501,-0.29390073,0
0.52822149,-0.67876369,-0.21563242,0.80149972,-0.16433752,0.5749709,0
0.26674351,0.84861666,0.60697377,0.80149972,-0.16433752,0.5749709,0
0.26143423,0.26922652,0.42968792,0.80149972,-0.16433752,0.5749709,0
-0.23172456,-0.59083891,1.1255062,0.80149972,-0.16433752,0.5749709,0
-0.72977042,-0.53640783,1.0178514,-0.38978183,-0.8727501,0.29390073,0
-0.35791105,-0.81093717,0.8419134,-0.38978183,-0.8727501,0.29390073,0
0.56539834,0.74318773,-0.14424956,0.38978183,0.8727501,-0.29390073,0
-0.4677729,-0.034179688,-0.23066753,-0.80149972,0.16433752,-0.5749709,0
-0.084362686,-1.1172774,-0.19404054,-0.38978183,-0.8727501,0.29390073,0
-0.074317336,1.0910244,-0.16172731,0.38978183,0.8727501,-0.29390073,0
0.32269782,-0.20447779,-0.99125129,0.45350683,-0.45967448,-0.76356471,0
0.56017655,-1.2047843,-0.30043381,0.45350683,-0.45967448,-0.76356471,0
0.096019864,0.29402602,0.81658375,0.80149972,-0.16433752,0.5749709,0
0.12336159,0.79727376,-0.61672652,0.38978183,0.8727501,-0.29390073,0
-0.33566085,-0.84280646,0.25037837,-0.38978183,-0.8727501,0.29390073,0
0.83163297,-0.48518443,-0.56933331,0.45350683,-0.45967448,-0.76356471,0
-0.45013654,-0.22194302,1.2256076,-0.45350683,0.45967448,0.76356471,0
-0.59537214,-0.89965218,0.12465549,-0.38978183,-0.8727501,0.29390073,0
0.067127526,1.0346977,0.70439851,-0.45350683,0.45967448,0.76356471,0
-0.5841257,-0.19395119,1.1674303,-0.45350683,0.45967448,0.76356471,0
0.3277781,0.18697727,-1.2378792,0.45350683,-0.45967448,-0.76356471,0
-0.050300539,-0.39654887,-0.79758048,-0.80149972,0.16433752,-0.5749709,0
-0.28188384,0.5198338,-0.22763252,-0.80149972,0.16433752,-0.5749709,0
-0.71779341,0.90085185,0.44355381,-0.45350683,0.45967448,0.76356471,0
-0.33895975,-0.80995679,0.84610784,-0.38978183,-0.8727501,0.29390073,0
-0.17114645,-0.79871833,0.70558125,-0.38978183,-0.8727501,0.29390073,0
0.47236645,-0.07995984,0.25476941,0.80149972,-0.16433752,0.5749709,0
-0.65360832,-0.68038929,-0.202124,-0.80149972,0.16433752,-0.5749709,0
-0.11826977,-0.58035123,-0.69926846,-0.80149972,0.16433752,-0.5749709,0
0.26659006,-0.98205495,0.20644712,0.80149972,-0.16433752,0.5749709,0
1.0885706,0.22423987,-0.79117215,0.45350683,-0.45967448,-0.76356471,0
-0.41865572,-0.72893977,0.56225431,-0.38978183,-0.8727501,0.29390073,0
-0.85800606,0.14893997,0.42986253,-0.80149972,0.16433752,-0.5749709,0
0.55164385,0.62153536,-1.0559112,0.38978183,0.8727501,-0.29390073,0
0.53533125,-0.48129988,-0.82472342,0.45350683,-0.45967448,-0.76356471,0
0.38201365,-0.96168399,-0.47090006,0.45350683,-0.45967448,-0.76356471,0
-0.38481739,-0.94688976,-0.59388942,-0.80149972,0.16433752,-0.5749709,0
0.11123228,0.31751394,-0.82147038,-0.80149972,0.16433752,-0.5749709,0
1.0036293,0.40388462,-0.70252138,0.38978183,0.8727501,-0.29390073,0
-0.63994735,0.77422428,0.41419089,-0.45350683,0.45967448,0.76356471,0
-0.74295497,-0.68961096,0.40227151,-0.38978183,-0.8727501,0.29390073,0
-0.17137167,-0.56994581,-0.76399112,-0.80149972,0.16433752,-0.5749709,0
-0.49553162,0.59421724,0.70827651,-0.45350683,0.45967448,0.76356471,0
0.34737355,0.79601413,-0.6468448,0.38978183,0.8727501,-0.29390073,0
0.69045413,-0.66233957,-0.48217729,0.45350683,-0.45967448,-0.76356471,0
0.36991543,0.79135185,-0.35932148,0.38978183,0.8727501,-0.29390073,0
0.5509752,1.0535494,0.47584414,0.38978183,0.8727501,-0.29390073,0
-0.1417481,-0.96899867,0.47084123,-0.38978183,-0.8727501,0.29390073,0
-1.030834,-0.45012969,0.44213307,-0.38978183,-0.8727501,0.29390073,0
0.66371572,0.4072898,-1.0468032,0.45350683,-0.45967448,-0.76356471,0
-0.90127838,0.040661961,0.65693521,-0.45350683,0.45967448,0.76356471,0
-0.0076273084,1.0523416,-0.59194326,0.38978183,0.8727501,-0.29390073,0
-0.1164965,0.20236355,1.0251749,0.80149972,-0.16433752,0.5749709,0
-0.70995462,0.36124691,0.36453035,-0.80149972,0.16433752,-0.5749709,0
0.83524388,0.27714545,-0.3140893,0.80149972,-0.16433752,0.5749709,0
-0.16668609,1.1897883,0.18422616,0.38978183,0.8727501,-0.29390073,0
0.096268713,0.57208979,1.0293136,0.80149972,-0.16433752,0.5749709,0
0.58319354,0.60225272,-0.63561141,0.38978183,0.8727501,-0.29390073,0
-0.57494777,0.021307111,0.95988286,-0.45350683,0.45967448,0.76356471,0
-0.44683647,-0.27209562,1.1962576,-0.45350683,0.45967448,0.76356471,0
0.11853924,0.99642158,-0.57113099,0.38978183,0.8727501,-0.29390073,0
0.030142307,0.78801715,-0.71937335,0.38978183,0.8727501,-0.29390073,0
0.92417741,-0.12214547,-0.73328996,0.45350683,-0.45967448,-0.76356471,0
-1.0052192,-0.44926861,1.0670743,-0.38978183,-0.8727501,0.29390073,0
-0.10582304,-0.33538193,0.82603639,0.80149972,-0.16433752,0.5749709,0
1.0382303,-0.10333804,-0.6098088,0.45350683,-0.45967448,-0.76356471,0
0.67731673,-0.58924365,-0.49179551,0.45350683,-0.45967448,-0.76356471,0
0.86956704,-0.11212777,-0.40791595,0.80149972,-0.16433752,0.5749709,0
0.5032832,0.16286296,0.17465273,0.80149972,-0.16433752,0.5749709,0
-0.91913253,0.22140969,0.40078738,-0.80149972,0.16433752,-0.5749709,0
0.46454892,-0.93002206,-0.36768505,0.45350683,-0.45967448,-0.76356471,0
0.87651414,0.39904964,-0.81753159,0.38978183,0.8727501,-0.29390073,0
-0.035178959,-0.92540306,0.49445713,-0.38978183,-0.8727501,0.29390073,0
0.46889791,-1.0436525,-0.1784113,0.80149972,-0.16433752,0.5749709,0
0.20145905,0.80010223,-0.81928289,0.38978183,0.8727501,-0.29390073,0
-0.025817102,1.1129419,-0.026335239,0.38978183,0.8727501,-0.29390073,0
0.33833575,1.0380028,0.15160906,0.38978183,0.8727501,-0.29390073,0
0.0031096935,1.2853234,0.4746784,-0.45350683,0.45967448,0.76356471,0
0.73755395,-0.63097805,-0.50332683,0.45350683,-0.45967448,-0.76356471,0
-0.37326586,1.4425814,0.20928001,0.38978183,0.8727501,-0.29390073,0
0.35877609,0.4254787,-1.3567626,0.45350683,-0.45967448,-0.76356471,0
0.0084037781,-0.22061002,-0.93186575,-0.80149972,0.16433752,-0.5749709,0
0.27444911,0.83796871,0.59626484,0.80149972,-0.16433752,0.5749709,0
0.50852573,0.91102862,0.2892127,0.38978183,0.8727501,-0.29390073,0
-0.41698354,-0.37141186,1.2042949,-0.45350683,0.45967448,0.76356471,0
0.80178595,-0.54474437,-0.51771683,0.45350683,-0.45967448,-0.76356471,0
-0.56956756,0.11210054,0.93025959,-0.45350683,0.45967448,0.76356471,0
0.090406001,1.1126112,0.70226747,-0.45350683,0.45967448,0.76356471,0
0.35925925,-1.2436234,-0.057192028,-0.38978183,-0.8727501,0.29390073,0
-0.04313007,0.97709763,-0.40339303,0.38978183,0.8727501,-0.29390073,0
0.85887283,0.62917876,-0.66187972,0.38978183,0.8727501,-0.29390073,0
-0.84822369,0.16455179,0.32917553,-0.80149972,0.16433752,-0.5749709,0
-0.17898428,-0.62176484,0.86411881,0.80149972,-0.16433752,0.5749709,0
0.090040028,0.65957165,0.97915649,-0.45350683,0.45967448,0.76356471,0
0.47813696,0.83516759,-0.56060982,0.38978183,0.8727501,-0.29390073,0
0.12254292,0.62476134,0.89545673,0.80149972,-0.16433752,0.5749709,0
-0.39950395,0.07157886,1.1350784,-0.45350683,0.45967448,0.76356471,0
0.26685998,1.3086271,0.62082052,0.38978183,0.8727501,-0.29390073,0
0.02940613,0.92102873,0.7772994,-0.45350683,0.45967448,0.76356471,0
1.0708554,0.10936157,-0.48863739,0.80149972,-0.16433752,0.5749709,0
0.12991816,0.40947151,-0.98460782,-0.80149972,0.16433752,-0.5749709,0
-0.35698599,0.58895075,0.79452437,-0.45350683,0.45967448,0.76356471,0
-0.72007692,-0.7578823,0.1101054,-0.38978183,-0.8727501,0.29390073,0
-0.03634128,1.0552979,-0.24599856,0.38978183,0.8727501,-0.29390073,0
-0.26730758,-0.92073649,0.3034451,-0.38978183,-0.8727501,0.29390073,0
-0.26070571,0.073861897,1.0971234,-0.45350683,0.45967448,0.76356471,0
-0.31252652,0.21500653,1.019562,-0.45350683,0.45967448,0.76356471,0
-0.44558969,-0.18401545,-0.43572176,-0.80149972,0.16433752,-0.5749709,0
0.25997794,-1.246707,-0.26849151,-0.38978183,-0.8727501,0.29390073,0
-0.83728534,0.46031657,0.60592997,-0.45350683,0.45967448,0.76356471,0
0.4687956,-0.38584417,-0.67403239,0.45350683,-0.45967448,-0.76356471,0
-0.38278857,1.1068496,0.46993303,-0.45350683,0.45967448,0.76356471,0
-0.041427553,-0.7967965,0.69451123,0.80149972,-0.16433752,0.5749709,0
-0.38999051,0.93107831,-0.15466869,-0.80149972,0.16433752,-0.5749709,0
0.2800414,-0.45387414,-0.99796462,0.45350683,-0.45967448,-0.76356471,0
0.47725561,0.70700645,-0.6664952,0.38978183,0.8727501,-0.29390073,0
0.26441631,-0.57727098,0.18625405,0.80149972,-0.16433752,0.5749709,0
-0.2855942,1.2747383,0.083450437,0.38978183,0.8727501,-0.29390073,0
0.93312991,-0.31436628,-0.54208249,0.80149972,-0.16433752,0.5749709,0
-0.40011841,-0.66800898,1.2164266,-0.38978183,-0.8727501,0.29390073,0
0.18236536,0.96439403,-0.21042955,0.38978183,0.8727501,-0.29390073,0
-0.95819098,-0.26528603,0.97881144,-0.45350683,0.45967448,0.76356471,0
-0.48483542,-0.99077106,-0.47906506,-0.80149972,0.16433752,-0.5749709,0
-0.10287619,1.20209,0.23753953,0.38978183,0.8727501,-0.29390073,0
0.34387237,-0.58899301,0.29813099,0.80149972,-0.16433752,0.5749709,0
0.020455897,0.74745452,0.80567491,-0.45350683,0.45967448,0.76356471,0
0.62652302,0.077076018,-0.8883779,0.45350683,-0.45967448,-0.76356471,0
0.24826694,0.29343069,0.47612706,0.80149972,-0.16433752,0.5749709,0
0.50998557,-0.72500157,0.0072905421,0.80149972,-0.16433752,0.5749709,0
0.64364624,-0.60358131,-0.65715146,0.45350683,-0.45967448,-0.76356471,0
0.12099808,0.93935776,-0.39081663,0.38978183,0.8727501,-0.29390073,0
0.96599871,0.18323019,-0.9066925,0.45350683,-0.45967448,-0.76356471,0
0.71457487,0.73926044,0.047412038,0.80149972,-0.16433752,0.5749709,0
-0.25326061,0.67106396,0.7245484,-0.45350683,0.45967448,0.76356471,0
-0.41797429,-0.079441249,1.0184751,-0.45350683,0.45967448,0.76356471,0
-0.90681672,-0.73091048,0.26626968,-0.38978183,-0.8727501,0.29390073,0
-0.38838997,-0.68530786,0.60012424,-0.38978183,-0.8727501,0.29390073,0
-0.69513023,0.37945917,0.74201882,-0.45350683,0.45967448,0.76356471,0
-0.8747943,-0.018398643,0.23225582,-0.80149972,0.16433752,-0.5749709,0
-0.65409654,0.058012277,0.20521933,-0.80149972,0.16433752,-0.5749709,0
-0.22545385,1.1263572,0.54158014,-0.45350683,0.45967448,0.76356471,0
-0.057292223,-1.2303257,-0.3968153,-0.38978183,-0.8727501,0.29390073,0
-0.26149419,-0.80910015,-0.59971368,-0.80149972,0.16433752,-0.5749709,0
-0.18440962,-0.19500047,0.98659205,0.80149972,-0.16433752,0.5749709,0
0.58866584,-0.85926259,-0.54995596,0.45350683,-0.45967448,-0.76356471,0
0.089850515,-1.3011022,-0.42823434,0.45350683,-0.45967448,-0.76356471,0
1.0773315,0.3830443,-0.79989308,0.45350683,-0.45967448,-0.76356471,0
0.93303204,0.40978515,-1.0003697,0.38978183,0.8727501,-0.29390073,0
-0.82000482,-0.61663699,0.51984334,-0.38978183,-0.8727501,0.29390073,0
-0.66718066,-0.63184571,0.43569767,-0.38978183,-0.8727501,0.29390073,0
-0.86713964,0.11022434,0.81300706,-0.45350683,0.45967448,0.76356471,0
-0.15820137,-0.96457344,0.43585092,-0.38978183,-0.8727501,0.29390073,0
-0.50787461,0.081932485,1.005426,-0.45350683,0.45967448,0.76356471,0
0.72586757,-0.14624676,-0.81741607,0.45350683,-0.45967448,-0.76356471,0
-0.60478002,1.0648046,0.19785506,-0.80149972,0.16433752,-0.5749709,0
-0.064572558,-1.199971,-0.32369435,-0.38978183,-0.8727501,0.29390073,0
0.38427714,-1.0742471,-0.5518086,0.45350683,-0.45967448,-0.76356471,0
0.54823416,0.88202047,-0.067099333,0.38978183,0.8727501,-0.29390073,0
-0.47442439,-0.99030411,-0.15537894,-0.38978183,-0.8727501,0.29390073,0
-0.2218861,0.3201561,0.86913729,-0.45350683,0.45967448,0.76356471,0
0.093659282,-1.1882391,0.26276755,-0.38978183,-0.8727501,0.29390073,0
0.58974993,-0.70774317,-0.4890753,0.45350683,-0.45967448,-0.76356471,0
0.45616743,-0.59501219,-0.63798779,0.45350683,-0.45967448,-0.76356471,0
0.2545234,0.87345034,0.6623354,0.80149972,-0.16433752,0.5749709,0
-0.91837311,0.43946993,0.45072913,-0.45350683,0.45967448,0.76356471,0
-0.8574959,0.031170085,0.65246415,-0.45350683,0.45967448,0.76356471,0
0.74869454,0.62645018,-0.13617253,0.80149972,-0.16433752,0.5749709,0
0.11188745,0.65710312,0.85064572,-0.45350683,0.45967448,0.76356471,0
0.31321055,0.78208232,0.49967206,0.80149972,-0.16433752,0.5749709,0
-0.81759131,-0.53545398,0.73599261,-0.38978183,-0.8727501,0.29390073,0
0.72072446,0.67696142,-0.58962303,0.38978183,0.8727501,-0.29390073,0
-0.91737807,0.14573623,0.77833086,-0.45350683,0.45967448,0.76356471,0
-0.98747569,0.10155182,0.54546332,-0.45350683,0.45967448,0.76356471,0
0.23228106,1.1248997,0.77112907,-0.45350683,0.45967448,0.76356471,0
0.80112958,0.86843026,0.15552461,0.80149972,-0.16433752,0.5749709,0
-0.25687337,0.47390229,0.87142462,-0.45350683,0.45967448,0.76356471,0
0.12913199,-1.211125,-0.016443849,-0.38978183,-0.8727501,0.29390073,0
0.14721107,-0.072492659,0.76387084,0.80149972,-0.16433752,0.5749709,0
0.16906869,-0.51566398,-0.90513498,0.45350683,-0.45967448,-0.76356471,0
0.72745383,0.77959913,0.16106236,0.38978183,0.8727501,-0.29390073,0
-0.49519223,0.037667572,0.93915236,-0.45350683,0.45967448,0.76356471,0
-0.313039,1.4351449,0.28228402,0.38978183,0.8727501,-0.29390073,0
-0.28400537,1.0255612,-0.10336632,-0.80149972,0.16433752,-0.5749709,0
-0.34983507,-1.2465858,-0.60453629,-0.38978183,-0.8727501,0.29390073,0
-0.20858923,-1.0599544,-0.24855661,-0.38978183,-0.8727501,0.29390073,0
0.64340234,1.0271325,0.20185888,0.38978183,0.8727501,-0.29390073,0
0.49163038,0.42640764,-1.296304,-0.80149972,0.16433752,-0.5749709,0
0.24325669,0.68607092,-0.76578331,0.38978183,0.8727501,-0.29390073,0
0.38140392,-1.3844945,-0.20992768,0.45350683,-0.45967448,-0.76356471,0
-0.40085191,-0.042987168,1.1441443,-0.45350683,0.45967448,0.76356471,0
-0.73844808,0.92445612,0.30751967,-0.80149972,0.16433752,-0.5749709,0
-0.38615981,0.90037012,0.61684668,-0.45350683,0.45967448,0.76356471,0
0.44596446,-0.22460744,0.027493283,0.80149972,-0.16433752,0.5749709,0
-0.7714113,-0.29992563,0.04681915,-0.80149972,0.16433752,-0.5749709,0
-0.31581736,-0.70417953,0.7374028,-0.38978183,-0.8727501,0.29390073,0
0.93568504,0.088303119,-0.2679584,0.80149972,-0.16433752,0.5749709,0
-0.31158012,-0.78076518,0.66489661,-0.38978183,-0.8727501,0.29390073,0
0.2670216,-1.1445339,-0.3654964,0.45350683,-0.45967448,-0.76356471,0
0.53370005,-0.62804407,-0.64498734,0.45350683,-0.45967448,-0.76356471,0
0.73140818,-0.62141418,-0.58927411,0.45350683,-0.45967448,-0.76356471,0
-1.0824642,-0.59202349,0.524189,-0.38978183,-0.8727501,0.29390073,0
-0.067263186,-1.0197495,0.024235249,-0.38978183,-0.8727501,0.29390073,0
0.48426685,1.1466802,0.35595679,0.38978183,0.8727501,-0.29390073,0
-0.34851852,-0.34192103,-0.40725306,-0.80149972,0.16433752,-0.5749709,0
-0.069565296,-0.21856827,-0.93094617,-0.80149972,0.16433752,-0.5749709,0
-0.37858659,-0.65298998,0.69388914,-0.38978183,-0.8727501,0.29390073,0
0.50689989,0.061970025,0.11260191,0.80149972,-0.16433752,0.5749709,0
0.23957232,-0.12067616,0.62850547,0.80149972,-0.16433752,0.5749709,0
-0.65663433,-0.45937556,1.0642853,-0.38978183,-0.8727501,0.29390073,0
-0.031122148,-0.14699304,-1.0043495,-0.80149972,0.16433752,-0.5749709,0
-0.1807918,1.3299743,0.40074277,0.38978183,0.8727501,-0.29390073,0
-0.96181786,-0.56902176,0.35757029,-0.38978183,-0.8727501,0.29390073,0
-0.46169323,1.1859957,0.066975951,-0.80149972,0.16433752,-0.5749709,0
-0.37350672,-0.32361281,1.1779797,0.80149972,-0.16433752,0.5749709,0
0.64548206,-0.80167335,-0.44711542,0.45350683,-0.45967448,-0.76356471,0
0.64811689,0.69317204,-0.4381631,0.38978183,0.8727501,-0.29390073,0
0.81391919,-0.00051032007,-0.21558413,0.80149972,-0.16433752,0.5749709,0
-0.74540514,-0.62154317,0.76789111,-0.38978183,-0.8727501,0.29390073,0
-0.41219401,-0.80804503,0.71908081,-0.38978183,-0.8727501,0.29390073,0
0.24647985,-0.60762465,0.52316308,0.80149972,-0.16433752,0.5749709,0
-0.716676,0.75216913,0.54745549,-0.45350683,0.45967448,0.76356471,0
-0.7073856,-0.2488867,1.1223335,-0.45350683,0.45967448,0.76356471,0
0.31895906,-0.23775941,-0.90002537,0.45350683,-0.45967448,-0.76356471,0
-0.22939211,-0.390064,-0.63074005,-0.80149972,0.16433752,-0.5749709,0
-0.16467014,-1.0028579,0.26412851,-0.38978183,-0.8727501,0.29390073,0
0.023326576,-0.69750667,-0.88935554,0.45350683,-0.45967448,-0.76356471,0
-0.020226777,-0.4232707,0.76542509,0.80149972,-0.16433752,0.5749709,0
-0.90116727,0.02036221,0.43761367,-0.80149972,0.16433752,-0.5749709,0
-0.32145602,-0.57819331,-0.57439578,-0.80149972,0.16433752,-0.5749709,0
0.45596015,0.96841693,0.24157071,0.38978183,0.8727501,-0.29390073,0
-0.50516063,-0.27682996,1.1759189,-0.45350683,0.45967448,0.76356471,0
0.67211729,0.79438877,-0.36270165,0.38978183,0.8727501,-0.29390073,0
-1.1356134,-0.42121893,0.7519421,-0.38978183,-0.8727501,0.29390073,0
0.52049983,0.97001243,0.1065737,0.38978183,0.8727501,-0.29390073,0
-0.27851787,1.1561728,-0.0428527,0.38978183,0.8727501,-0.29390073,0
-0.17690355,-0.14776212,1.0272605,0.80149972,-0.16433752,0.5749709,0
-0.048739538,-1.3071587,-0.29503024,-0.38978183,-0.8727501,0.29390073,0
0.4396618,0.96682018,0.12803352,0.38978183,0.8727501,-0.29390073,0
0.77774262,-0.17418329,-0.78046018,0.45350683,-0.45967448,-0.76356471,0
-0.1461519,-1.2257869,-0.46748269,-0.38978183,-0.8727501,0.29390073,0
0.68209726,0.45707464,-1.0183473,0.38978183,0.8727501,-0.29390073,0
0.45552155,-0.96502519,-0.53172225,0.45350683,-0.45967448,-0.76356471,0
0.34026867,0.64775962,-0.99091941,-0.80149972,0.16433752,-0.5749709,0
-0.69001776,-0.86520267,0.096317887,-0.38978183,-0.8727501,0.29390073,0
-0.28838485,-0.90244907,0.65499228,-0.38978183,-0.8727501,0.29390073,0
0.16847748,0.71678418,-0.72858703,-0.80149972,0.16433752,-0.5749709,0
0.54026228,-0.76160073,-0.42225862,0.45350683,-0.45967448,-0.76356471,0
0.63211089,0.53766948,-1.2311562,0.38978183,0.8727501,-0.29390073,0
-0.42903653,-0.1032376,-0.41343844,-0.80149972,0.16433752,-0.5749709,0
0.7470488,0.79087746,-0.07030797,0.38978183,0.8727501,-0.29390073,0
0.30555278,-0.8936106,0.30096555,0.80149972,-0.16433752,0.5749709,0
0.043855816,1.3101325,0.54931605,0.38978183,0.8727501,-0.29390073,0
-0.099793494,-1.1318157,-0.13392699,-0.38978183,-0.8727501,0.29390073,0
0.96141976,0.43829468,-0.48584157,0.38978183,0.8727501,-0.29390073,0
0.36691624,-0.050228417,0.47917691,0.80149972,-0.16433752,0.5749709,0
1.0006205,0.32053903,-0.42478746,0.80149972,-0.16433752,0.5749709,0
0.31733406,-1.1429818,-0.37648374,0.45350683,-0.45967448,-0.76356471,0
-0.61056745,-0.74821389,-0.32550788,-0.80149972,0.16433752,-0.5749709,0
-0.019178091,-1.1695651,-0.062222481,-0.38978183,-0.8727501,0.29390073,0
-0.39757553,1.0484807,0.11128056,-0.80149972,0.16433752,-0.5749709,0
0.6118682,0.062656403,-1.0403358,0.45350683,-0.45967448,-0.76356471,0
0.78941715,-0.50674039,-0.65875375,0.45350683,-0.45967448,-0.76356471,0
-0.046277229,1.1688774,0.010457635,0.38978183,0.8727501,-0.29390073,0
-0.4751541,-0.05674541,1.0952551,-0.45350683,0.45967448,0.76356471,0
0.17062694,0.14362246,0.58833134,0.80149972,-0.16433752,0.5749709,0
-0.58213514,0.089525282,0.89020669,-0.45350683,0.45967448,0.76356471,0
1.0730437,-0.091769777,-0.60275865,0.45350683,-0.45967448,-0.76356471,0
0.16283193,0.19735652,0.66956669,0.80149972,-0.16433752,0.5749709,0
-0.69668609,-0.014592022,0.78768694,-0.45350683,0.45967448,0.76356471,0
-0.37934372,0.94040263,0.43665624,-0.45350683,0.45967448,0.76356471,0
-1.0714173,-0.5093022,0.38031423,-0.80149972,0.16433752,-0.5749709,0
0.67813671,0.70542997,-0.32115364,0.38978183,0.8727501,-0.29390073,0
0.3192797,0.74589616,-0.57415313,0.38978183,0.8727501,-0.29390073,0
0.60694426,0.036662996,-0.84803993,0.45350683,-0.45967448,-0.76356471,0
-0.79286093,0.33065441,0.68847275,-0.45350683,0.45967448,0.76356471,0
-0.44041115,-0.43766236,1.2164069,-0.45350683,0.45967448,0.76356471,0
0.039835632,0.20191914,0.97030967,0.80149972,-0.16433752,0.5749709,0
-0.57010734,-0.55586171,-0.20365489,-0.80149972,0.16433752,-0.5749709,0
-0.1829831,0.3927018,0.97827989,-0.45350683,0.45967448,0.76356471,0
0.84059393,-0.053286836,-0.17427212,0.80149972,-0.16433752,0.5749709,0
0.042738929,-1.3328152,-0.20142257,-0.38978183,-0.8727501,0.29390073,0
-0.13684452,-1.0151447,-0.78353792,0.45350683,-0.45967448,-0.76356471,0
0.94585466,0.29921195,-0.8475889,0.45350683,-0.45967448,-0.76356471,0
-0.36384064,0.62340558,0.69740617,-0.45350683,0.45967448,0.76356471,0
0.74190241,0.52139074,-0.98183751,0.38978183,0.8727501,-0.29390073,0
-0.57060385,0.58989751,0.54666537,-0.45350683,0.45967448,0.76356471,0
0.29104933,-1.3757678,-0.4085201,-0.38978183,-0.8727501,0.29390073,0
0.079026759,0.92515802,-0.62932396,0.38978183,0.8727501,-0.29390073,0
0.34665754,-1.2116635,-0.0099553466,-0.38978183,-0.8727501,0.29390073,0
0.56819409,0.44570827,-1.1613955,0.38978183,0.8727501,-0.29390073,0
-0.55365658,-0.87081099,-0.14785504,-0.38978183,-0.8727501,0.29390073,0
-0.3915098,0.90475512,0.05002445,-0.80149972,0.16433752,-0.5749709,0
-0.24896282,1.2340949,0.5330767,-0.45350683,0.45967448,0.76356471,0
-0.41458929,0.037482381,-0.37324572,-0.80149972,0.16433752,-0.5749709,0
0.27935749,0.59166998,-1.0034497,0.38978183,0.8727501,-0.29390073,0
-0.51531672,0.74828279,0.51396281,-0.45350683,0.45967448,0.76356471,0
-0.90595949,0.046904504,0.79161406,-0.45350683,0.45967448,0.76356471,0
-0.061977148,0.90141821,-0.54117256,-0.80149972,0.16433752,-0.5749709,0
0.42828101,-0.95309961,-0.54368806,0.45350683,-0.45967448,-0.76356471,0
0.22442687,0.81167471,-0.56228548,0.38978183,0.8727501,-0.29390073,0
-1.0154262,-0.30178645,0.88760602,-0.45350683,0.45967448,0.76356471,0
0.0067575574,-0.40147138,-0.89736652,-0.80149972,0.16433752,-0.5749709,0
-0.051978111,-0.79056412,-0.76803648,0.45350683,-0.45967448,-0.76356471,0
-0.12274018,1.4501662,0.44321465,-0.45350683,0.45967448,0.76356471,0
-0.20764941,0.43989259,1.0201254,-0.45350683,0.45967448,0.76356471,0
-0.059709743,-0.97244477,0.28419793,-0.38978183,-0.8727501,0.29390073,0
0.45891935,-0.14714253,-0.95058644,0.45350683,-0.45967448,-0.76356471,0
-0.47792658,0.82132196,0.53462613,-0.45350683,0.45967448,0.76356471,0
-0.52603424,0.89058703,0.52332407,-0.45350683,0.45967448,0.76356471,0
-0.37454915,-0.53319025,0.98911279,-0.38978183,-0.8727501,0.29390073,0
0.72514522,-0.071624845,-0.039866537,0.80149972,-0.16433752,0.5749709,0
0.26969242,1.1323117,0.097939849,0.38978183,0.8727501,-0.29390073,0
0.83475202,0.37944672,-1.0063184,0.38978183,0.8727501,-0.29390073,0
-0.44130114,-0.96285069,-0.27172959,-0.38978183,-0.8727501,0.29390073,0
-1.1129408,-0.56741798,0.4178046,-0.38978183,-0.8727501,0.29390073,0
-0.37087756,1.2344964,0.05517751,0.38978183,0.8727501,-0.29390073,0
-0.26289338,-0.70331538,-0.81642175,-0.80149972,0.16433752,-0.5749709,0
-0.6239996,-0.81956488,-0.069857597,-0.80149972,0.16433752,-0.5749709,0
0.6412158,0.65581226,-0.43431681,0.38978183,0.8727501,-0.29390073,0
-0.36408025,0.31807074,0.86943316,-0.45350683,0.45967448,0.76356471,0
-0.2869224,-0.17763591,-0.66913581,-0.80149972,0.16433752,-0.5749709,0
-0.98584563,-0.075970203,0.85122871,-0.45350683,0.45967448,0.76356471,0
0.11071216,1.1173797,0.047844052,0.38978183,0.8727501,-0.29390073,0
0.25672993,-0.91929346,0.23621547,0.80149972,-0.16433752,0.5749709,0
-0.7454915,-0.55832911,0.66581511,-0.38978183,-0.8727501,0.29390073,0
0.42026395,-0.58044642,0.12808052,0.80149972,-0.16433752,0.5749709,0
-0.62451011,-0.30127513,1.0271102,-0.45350683,0.45967448,0.76356471,0
0.64672089,0.62165105,-0.64238006,0.38978183,0.8727501,-0.29390073,0
-0.9651221,-0.11037934,0.68495011,-0.45350683,0.45967448,0.76356471,0
0.14734599,1.0538594,0.72522461,-0.45350683,0.45967448,0.76356471,0
-0.13921899,-0.4915584,-0.79908371,-0.80149972,0.16433752,-0.5749709,0
-0.26343435,-0.67445552,0.90835172,-0.38978183,-0.8727501,0.29390073,0
-0.018646657,-0.30375791,-0.79715413,-0.80149972,0.16433752,-0.5749709,0
-0.27136409,-0.67391598,-0.81135482,-0.80149972,0.16433752,-0.5749709,0
0.31729063,-1.2816038,-0.32262182,-0.38978183,-0.8727501,0.29390073,0
0.48208386,0.18499029,-1.2482526,0.45350683,-0.45967448,-0.76356471,0
-0.48004502,-0.75639486,0.46465343,-0.38978183,-0.8727501,0.29390073,0
0.40825117,-0.27115375,0.25586841,0.80149972,-0.16433752,0.5749709,0
0.58741415,-0.37231147,0.11751384,0.80149972,-0.16433752,0.5749709,0
-0.67736167,-0.40062582,1.0707455,-0.38978183,-0.8727501,0.29390073,0
-0.57091445,-0.91007537,0.14666915,-0.38978183,-0.8727501,0.29390073,0
-0.53209984,-0.61767644,0.60300678,-0.38978183,-0.8727501,0.29390073,0
-0.10426807,-1.1009114,-0.26617026,-0.38978183,-0.8727501,0.29390073,0
0.47025275,-0.10015449,0.21077439,0.80149972,-0.16433752,0.5749709,0
0.28240657,0.91659653,-0.33589846,0.38978183,0.8727501,-0.29390073,0
-1.1063459,-0.11391446,0.81567228,-0.45350683,0.45967448,0.76356471,0
-0.24242148,0.94596159,0.4950738,-0.45350683,0.45967448,0.76356471,0
0.31532431,0.82373768,0.81237131,0.80149972,-0.16433752,0.5749709,0
-0.031554222,-1.0071592,0.30123752,-0.38978183,-0.8727501,0.29390073,0
-0.35034496,-0.95315045,-0.62231666,-0.80149972,0.16433752,-0.5749709,0
-0.54815429,1.0988069,0.35326076,-0.45350683,0.45967448,0.76356471,0
0.68511742,-0.5453651,-0.65955645,0.45350683,-0.45967448,-0.76356471,0
0.39262977,-1.441339,-0.12321472,-0.38978183,-0.8727501,0.29390073,0
0.68974948,-0.060782343,-0.85184062,0.45350683,-0.45967448,-0.76356471,0
-0.53974849,-0.53497773,1.0436679,-0.38978183,-0.8727501,0.29390073,0
0.013571978,0.028955698,0.84717119,0.80149972,-0.16433752,0.5749709,0
-0.24079724,0.4626424,-0.34652522,-0.80149972,0.16433752,-0.5749709,0
0.84771931,-0.0037706494,-0.70197356,0.45350683,-0.45967448,-0.76356471,0
-0.97685707,0.23601858,0.55370617,-0.80149972,0.16433752,-0.5749709,0
0.32097572,-0.53257585,-0.79976028,0.45350683,-0.45967448,-0.76356471,0
-0.26537246,-1.0947285,0.12506592,-0.38978183,-0.8727501,0.29390073,0
0.21475095,-0.26753724,-1.0279689,0.45350683,-0.45967448,-0.76356471,0
0.39947933,1.2824409,0.71368003,0.38978183,0.8727501,-0.29390073,0
-0.75545478,-0.77089971,0.17680407,-0.38978183,-0.8727501,0.29390073,0
0.63125402,0.45943654,-1.173388,0.45350683,-0.45967448,-0.76356471,0
0.3471967,-0.70244092,-0.59679133,0.45350683,-0.45967448,-0.76356471,0
0.80697745,0.0031110048,-0.16690305,0.80149972,-0.16433752,0.5749709,0
-0.099959254,0.44287729,-0.71981776,-0.80149972,0.16433752,-0.5749709,0
-0.67217302,-0.42240691,1.0620708,-0.38978183,-0.8727501,0.29390073,0
0.45824486,0.08702299,0.12920782,0.80149972,-0.16433752,0.5749709,0
0.16206312,-0.99174452,-0.68858033,0.45350683,-0.45967448,-0.76356471,0
0.2623468,0.14841646,-1.1473639,0.45350683,-0.45967448,-0.76356471,0
-0.48664993,0.64974958,-0.16746321,-0.80149972,0.16433752,-0.5749709,0
0.50992513,-0.36895272,-0.86271942,0.45350683,-0.45967448,-0.76356471,0
0.51960558,-0.013674498,-0.90268719,0.45350683,-0.45967448,-0.76356471,0
-0.39144889,-0.76114947,-0.57871258,-0.80149972,0.16433752,-0.5749709,0
-0.2276385,1.3309331,0.25349689,0.38978183,0.8727501,-0.29390073,0
-0.21958905,1.3555777,0.157776,0.38978183,0.8727501,-0.29390073,0
-0.4440285,-0.14291048,1.2336135,-0.45350683,0.45967448,0.76356471,0
0.55344802,-0.19297615,-0.74498808,0.45350683,-0.45967448,-0.76356471,0
0.6368261,0.23240268,-1.1407557,0.45350683,-0.45967448,-0.76356471,0
-0.14843047,0.60168397,0.87146008,-0.45350683,0.45967448,0.76356471,0
-0.36851782,1.0145752,0.41838801,-0.45350683,0.45967448,0.76356471,0
-0.19110441,0.28210032,0.97256315,-0.45350683,0.45967448,0.76356471,0
0.50896823,-0.025646329,-0.97509277,0.45350683,-0.45967448,-0.76356471,0
-0.15914446,1.1125101,-0.17340404,-0.80149972,0.16433752,-0.5749709,0
-0.52745068,-0.89383554,-0.26602054,-0.80149972,0.16433752,-0.5749709,0
-0.55572766,-0.44441497,1.1250014,-0.38978183,-0.8727501,0.29390073,0
-0.050396144,-0.86601239,0.85917282,0.80149972,-0.16433752,0.5749709,0
0.56080878,0.36208296,-1.0647449,0.45350683,-0.45967448,-0.76356471,0
0.95165223,0.43025082,-0.19607365,0.80149972,-0.16433752,0.5749709,0
0.92279887,-0.28555989,-0.48523429,0.80149972,-0.16433752,0.5749709,0
-0.3746621,1.0914397,0.35424989,-0.45350683,0.45967448,0.76356471,0
-0.8804242,-0.52112114,0.35040855,-0.38978183,-0.8727501,0.29390073,0
-0.14842016,0.98852777,0.53845531,-0.45350683,0.45967448,0.76356471,0
0.58583093,0.67060268,-0.84207404,0.38978183,0.8727501,-0.29390073,0
-0.3924371,0.78971642,-0.054663867,-0.80149972,0.16433752,-0.5749709,0
-0.48000544,1.4737549,0.15254557,0.38978183,0.8727501,-0.29390073,0
-0.7245025,-0.35842538,1.2257894,-0.45350683,0.45967448,0.76356471,0
0.15194684,0.023474813,-1.1741948,-0.80149972,0.16433752,-0.5749709,0
-0.59194881,-0.4440881,1.2353511,-0.45350683,0.45967448,0.76356471,0
-0.36527401,-0.18622053,-0.39222336,-0.80149972,0.16433752,-0.5749709,0
0.29780656,0.10428929,-1.1456544,0.45350683,-0.45967448,-0.76356471,0
0.88180155,0.28750089,-0.86122763,0.45350683,-0.45967448,-0.76356471,0
0.96432114,0.37439737,-0.86581945,0.45350683,-0.45967448,-0.76356471,0
1.1035064,0.31111449,-0.52861053,0.80149972,-0.16433752,0.5749709,0
0.081068218,-1.0897239,0.27498782,-0.38978183,-0.8727501,0.29390073,0
-0.75437433,-0.38303781,1.0570211,-0.38978183,-0.8727501,0.29390073,0
0.10014915,-0.6160655,0.54175878,0.80149972,-0.16433752,0.5749709,0
-0.41487885,1.0749209,0.29792494,-0.45350683,0.45967448,0.76356471,0
-0.11426353,1.1250358,0.53056902,-0.45350683,0.45967448,0.76356471,0
0.87107182,0.23719764,-0.82952374,0.45350683,-0.45967448,-0.76356471,0
0.91460663,-0.25144213,-0.4561218,0.80149972,-0.16433752,0.5749709,0
0.22398899,-0.23805198,0.50636935,0.80149972,-0.16433752,0.5749709,0
0.7613914,0.0993599,-0.90702462,0.45350683,-0.45967448,-0.76356471,0
-1.0387969,-0.02279212,0.49530447,-0.80149972,0.16433752,-0.5749709,0
-0.26216808,-0.24283886,-0.69672805,-0.80149972,0.16433752,-0.5749709,0
0.17457834,0.86854607,-0.34553444,0.38978183,0.8727501,-0.29390073,0
-0.41132611,0.23351806,-0.20160621,-0.80149972,0.16433752,-0.5749709,0
-0.79857033,0.58760285,0.4486855,-0.45350683,0.45967448,0.76356471,0
0.43494678,0.53940374,-1.263211,-0.80149972,0.16433752,-0.5749709,0
0.043155372,-1.3402386,-0.39543796,-0.38978183,-0.8727501,0.29390073,0
0.34864175,0.69907236,-0.71464223,0.38978183,0.8727501,-0.29390073,0
-0.90218771,-0.50178194,0.99973905,-0.38978183,-0.8727501,0.29390073,0
-0.11709976,-1.1850294,-0.77388024,0.45350683,-0.45967448,-0.76356471,0
0.073067158,-1.2634833,-0.44768167,-0.38978183,-0.8727501,0.29390073,0
-0.64038897,-0.87048,0.0819906,-0.38978183,-0.8727501,0.29390073,0
-0.95379168,-0.35381663,1.0756841,-0.45350683,0.45967448,0.76356471,0
-0.71129215,-0.51312327,0.95861638,-0.38978183,-0.8727501,0.29390073,0
0.5061909,-0.61585999,-0.096035272,0.80149972,-0.16433752,0.5749709,0
-0.55230188,-0.86239159,0.16399443,-0.38978183,-0.8727501,0.29390073,0
-0.43913263,1.2171458,0.26680446,-0.45350683,0.45967448,0.76356471,0
0.59976453,-0.97252417,-0.24529761,0.45350683,-0.45967448,-0.76356471,0
0.38920629,0.97098124,-0.31005716,0.38978183,0.8727501,-0.29390073,0
-0.24119526,0.94111991,0.55395746,-0.45350683,0.45967448,0.76356471,0
-0.24327713,-0.75531322,0.89746881,-0.38978183,-0.8727501,0.29390073,0
-0.30100036,-0.85223573,0.77945995,-0.38978183,-0.8727501,0.29390073,0
-0.27581358,-0.35467392,1.3026185,0.80149972,-0.16433752,0.5749709,0
0.22248226,0.835522,-0.36822546,0.38978183,0.8727501,-0.29390073,0
-0.61521268,0.70819783,0.61954337,-0.45350683,0.45967448,0.76356471,0
0.30263627,-0.21698236,-1.0526389,0.45350683,-0.45967448,-0.76356471,0
-0.76356465,0.16140434,0.79444957,-0.45350683,0.45967448,0.76356471,0
-0.44561571,-0.77628684,0.54455489,-0.38978183,-0.8727501,0.29390073,0
0.68598944,0.33423823,-1.0967224,0.45350683,-0.45967448,-0.76356471,0
0.47413626,1.0631474,0.33890033,0.38978183,0.8727501,-0.29390073,0
-0.10169679,1.3826725,0.51453805,0.38978183,0.8727501,-0.29390073,0
0.099821374,-1.1906074,-0.042846441,-0.38978183,-0.8727501,0.29390073,0
0.056574881,0.78356361,-0.60045505,-0.80149972,0.16433752,-0.5749709,0
-1.0579109,-0.086109757,0.73956716,-0.45350683,0.45967448,0.76356471,0
0.26628157,-1.3578384,-0.44821823,-0.38978183,-0.8727501,0.29390073,0
-0.01755029,0.31385958,-0.84101123,-0.80149972,0.16433752,-0.5749709,0
0.59521031,-0.75093043,-0.054600835,0.80149972,-0.16433752,0.5749709,0
-1.1586351,-0.21341284,0.7824403,-0.45350683,0.45967448,0.76356471,0
0.52694196,0.91259861,-0.038797975,0.38978183,0.8727501,-0.29390073,0
-0.61364853,0.65308154,0.50153059,-0.45350683,0.45967448,0.76356471,0
0.14668894,0.0697878,0.77271652,0.80149972,-0.16433752,0.5749709,0
0.29492009,-1.3316014,0.0047866106,0.80149972,-0.16433752,0.5749709,0
0.38840562,-1.2766377,-0.32473534,0.45350683,-0.45967448,-0.76356471,0
0.49439645,0.75293326,-0.40189642,0.38978183,0.8727501,-0.29390073,0
-0.46069646,-0.19722891,1.2635564,-0.45350683,0.45967448,0.76356471,0
-1.0124534,-0.38535601,0.46541607,-0.80149972,0.16433752,-0.5749709,0
-0.38874352,-0.4996165,1.1549623,-0.38978183,-0.8727501,0.29390073,0
-0.74106586,-0.3962571,1.0425717,-0.45350683,0.45967448,0.76356471,0
-1.1083225,-0.062853932,0.7902534,-0.45350683,0.45967448,0.76356471,0
-0.19880779,0.97010905,-0.2875157,-0.80149972,0.16433752,-0.5749709,0
-0.13596599,1.0963863,-0.16614467,0.38978183,0.8727501,-0.29390073,0
-0.56306815,-0.65278316,0.7881071,-0.38978183,-0.8727501,0.29390073,0
-0.63275421,-0.73465693,0.05415535,-0.38978183,-0.8727501,0.29390073,0
-0.44004685,1.1375797,0.36037207,-0.45350683,0.45967448,0.76356471,0
0.88780051,0.39037403,-0.95790339,0.45350683,-0.45967448,-0.76356471,0
0.59827352,-0.17182368,-0.92862672,0.45350683,-0.45967448,-0.76356471,0
0.53857768,0.63607335,-0.61723959,0.38978183,0.8727501,-0.29390073,0
0.68248034,-0.056304872,-0.92549622,0.45350683,-0.45967448,-0.76356471,0
-0.36243507,-0.99777889,-0.30357265,-0.38978183,-0.8727501,0.29390073,0
0.50921893,0.76008654,-0.42298156,0.38978183,0.8727501,-0.29390073,0
-0.45564181,1.2425872,0.34512806,-0.45350683,0.45967448,0.76356471,0
-0.21400043,-1.0849934,0.10617292,-0.38978183,-0.8727501,0.29390073,0
-0.71726042,0.83850729,0.50051641,-0.45350683,0.45967448,0.76356471,0
-0.095622495,1.0137222,-0.23450267,0.38978183,0.8727501,-0.29390073,0
0.10886806,0.81049788,0.99935251,-0.45350683,0.45967448,0.76356471,0
0.67589879,-0.49660903,-0.076232724,0.80149972,-0.16433752,0.5749709,0
0.82879537,0.32239568,-0.30234241,0.80149972,-0.16433752,0.5749709,0
-0.90947878,-0.5257619,0.68669242,-0.38978183,-0.8727501,0.29390073,0
-0.19334677,1.2751237,0.082237601,0.38978183,0.8727501,-0.29390073,0
0.40090111,0.85144132,-0.55197316,0.38978183,0.8727501,-0.29390073,0
0.013466913,1.2242402,0.10137987,0.38978183,0.8727501,-0.29390073,0
-0.14966044,-1.1253023,0.036591291,-0.38978183,-0.8727501,0.29390073,0
0.5340929,-0.7047177,-0.68438381,0.45350683,-0.45967448,-0.76356471,0
-0.34446201,0.89748418,0.67050815,-0.45350683,0.45967448,0.76356471,0
-0.66467404,-0.079804465,-0.0069113374,-0.80149972,0.16433752,-0.5749709,0
-0.1819832,-0.8517496,0.45036352,-0.38978183,-0.8727501,0.29390073,0
0.77943206,-0.46154535,-0.65643585,0.45350683,-0.45967448,-0.76356471,0
0.17327428,-0.72934711,0.42220539,0.80149972,-0.16433752,0.5749709,0
-0.12898344,-0.26722878,-0.92500228,-0.80149972,0.16433752,-0.5749709,0
0.53008276,0.037309051,-1.0675957,0.45350683,-0.45967448,-0.76356471,0
-0.49791569,1.1705199,0.21134967,-0.45350683,0.45967448,0.76356471,0
-0.41636783,1.3613179,0.25478595,0.38978183,0.8727501,-0.29390073,0
-0.59574014,1.0455654,0.38843063,-0.45350683,0.45967448,0.76356471,0
0.66741943,0.75452137,-0.0133183,0.38978183,0.8727501,-0.29390073,0
0.76392019,0.19298418,-0.070119917,0.80149972,-0.16433752,0.5749709,0
0.77634007,-0.45065528,-0.46473888,0.80149972,-0.16433752,0.5749709,0
-0.66186368,-0.50495654,-0.14022732,-0.80149972,0.16433752,-0.5749709,0
-1.0426902,-0.36461774,0.83057332,-0.45350683,0.45967448,0.76356471,0
0.94637275,0.11406727,-0.75206065,0.45350683,-0.45967448,-0.76356471,0
0.40068629,0.56504792,0.54850984,0.80149972,-0.16433752,0.5749709,0
0.86402524,0.67742205,-0.29363298,0.80149972,-0.16433752,0.5749709,0
0.88028479,0.59587771,-0.78167194,0.38978183,0.8727501,-0.29390073,0
0.56602275,-0.15345353,-0.94971299,0.45350683,-0.45967448,-0.76356471,0
-0.12656778,0.94414771,-0.50863951,-0.80149972,0.16433752,-0.5749709,0
-0.82970047,0.043112405,0.39901257,-0.80149972,0.16433752,-0.5749709,0
-0.15662187,-0.84172034,-0.7837289,-0.80149972,0.16433752,-0.5749709,0
0.97505885,0.63988912,-0.29181671,0.38978183,0.8727501,-0.29390073,0
-0.60607529,-0.4788084,1.1075488,-0.38978183,-0.8727501,0.29390073,0
0.45085359,-1.3202631,-0.14974749,-0.38978183,-0.8727501,0.29390073,0
-0.16756326,1.1106013,-0.098049581,0.38978183,0.8727501,-0.29390073,0
0.42102784,-1.2438973,-0.17860842,0.80149972,-0.16433752,0.5749709,0
0.78906488,0.20520285,-0.96431535,0.45350683,-0.45967448,-0.76356471,0
0.14221206,-0.50653899,0.69360757,0.80149972,-0.16433752,0.5749709,0
-0.29235786,-0.76522052,0.99842584,-0.38978183,-0.8727501,0.29390073,0
0.3601191,-0.71001792,-0.75028771,0.45350683,-0.45967448,-0.76356471,0
0.024727434,1.2252932,0.4315815,0.38978183,0.8727501,-0.29390073,0
0.070513546,0.11624771,-0.88243639,-0.80149972,0.16433752,-0.5749709,0
-0.38992319,0.59814936,0.6610961,-0.45350683,0.45967448,0.76356471,0
0.27514791,0.66691995,-0.93324852,0.38978183,0.8727501,-0.29390073,0
0.80021024,0.48471025,-0.084516168,0.80149972,-0.16433752,0.5749709,0
-0.81018126,-0.50853187,0.12280858,-0.80149972,0.16433752,-0.5749709,0
0.62116766,-0.61515522,-0.023541734,0.80149972,-0.16433752,0.5749709,0
-0.6332612,-0.10453621,0.86733454,-0.45350683,0.45967448,0.76356471,0
-1.0370893,-0.39753821,0.87907875,-0.38978183,-0.8727501,0.29390073,0
0.40294954,-1.1089584,0.13662606,0.80149972,-0.16433752,0.5749709,0
0.56072021,0.27422357,-1.2246525,0.45350683,-0.45967448,-0.76356471,0
-0.85055017,-0.057427883,0.80217159,-0.45350683,0.45967448,0.76356471,0
-0.33713579,0.76650083,-0.10465878,-0.80149972,0.16433752,-0.5749709,0
0.29081342,-1.174484,-0.0015313625,-0.38978183,-0.8727501,0.29390073,0
-0.92325997,-0.44003522,0.66863495,-0.38978183,-0.8727501,0.29390073,0
-0.21639232,0.42641091,-0.3982771,-0.80149972,0.16433752,-0.5749709,0
0.30310625,-0.60574126,-0.81712645,0.45350683,-0.45967448,-0.76356471,0
0.55304015,0.78979015,-0.58127624,0.38978183,0.8727501,-0.29390073,0
0.54559124,0.27730128,0.1178605,0.80149972,-0.16433752,0.5749709,0
0.34079498,0.93573618,0.14024162,0.38978183,0.8727501,-0.29390073,0
0.029100209,1.3322465,0.28613091,0.38978183,0.8727501,-0.29390073,0
-0.49207366,0.77874678,0.58420134,-0.45350683,0.45967448,0.76356471,0
0.28452456,1.0262003,-0.098709702,0.38978183,0.8727501,-0.29390073,0
-0.19301492,-0.028716028,1.1080014,-0.45350683,0.45967448,0.76356471,0
-0.68053091,-0.51177746,1.1886272,-0.38978183,-0.8727501,0.29390073,0
-0.78137302,0.052948229,0.30662292,-0.80149972,0.16433752,-0.5749709,0
-0.44170344,0.010764956,1.0696621,-0.45350683,0.45967448,0.76356471,0
0.54850328,0.94028264,0.29364812,0.38978183,0.8727501,-0.29390073,0
0.69002688,0.64833236,-0.51417512,0.38978183,0.8727501,-0.29390073,0
0.35816205,-0.59556365,-0.86219293,0.45350683,-0.45967448,-0.76356471,0
0.6744768,-0.79405749,-0.40765578,0.80149972,-0.16433752,0.5749709,0
-0.35647199,1.1089987,0.48917401,-0.45350683,0.45967448,0.76356471,0
-0.3613627,0.51126772,-0.10245751,-0.80149972,0.16433752,-0.5749709,0
0.59665084,0.26050901,-1.1230839,0.45350683,-0.45967448,-0.76356471,0
-0.14149028,-0.61249113,0.99334496,0.80149972,-0.16433752,0.5749709,0
0.49327481,0.50637025,0.20061332,0.80149972,-0.16433752,0.5749709,0
0.53047109,-1.0532362,-0.054941237,0.80149972,-0.16433752,0.5749709,0
-0.074697793,0.32289594,1.0576334,-0.45350683,0.45967448,0.76356471,0
-0.47438759,-0.63385481,0.66508377,-0.38978183,-0.8727501,0.29390073,0
0.31542405,-1.1131943,0.20866627,0.80149972,-0.16433752,0.5749709,0
0.79803336,-0.13745505,-0.37875119,0.80149972,-0.16433752,0.5749709,0
0.46490729,-0.63284522,-0.65702826,0.45350683,-0.45967448,-0.76356471,0
-0.3728151,-0.89688307,0.092891455,-0.38978183,-0.8727501,0.29390073,0
0.44551504,0.56258398,-1.2776704,0.45350683,-0.45967448,-0.76356471,0
-0.60162336,0.66257548,0.42385852,-0.45350683,0.45967448,0.76356471,0
0.070631981,-0.094233871,-1.0402108,-0.80149972,0.16433752,-0.5749709,0
-0.5850693,0.96220368,0.2947199,-0.45350683,0.45967448,0.76356471,0
-0.47777712,-0.20744759,1.2632034,-0.45350683,0.45967448,0.76356471,0
-0.063355207,-0.059447408,1.0585508,0.80149972,-0.16433752,0.5749709,0
-0.83736151,-0.43965381,0.93191946,-0.38978183,-0.8727501,0.29390073,0
-0.34364998,0.30256757,0.89777255,-0.45350683,0.45967448,0.76356471,0
-0.9379583,-0.28200549,0.85166824,-0.45350683,0.45967448,0.76356471,0
0.20176548,-0.070206404,-1.004534,-0.80149972,0.16433752,-0.5749709,0
-1.1158593,-0.22881776,0.90675342,-0.45350683,0.45967448,0.76356471,0
-0.51488388,-0.63625705,0.89115268,-0.38978183,-0.8727501,0.29390073,0
0.72264147,-0.10721311,-0.84699601,0.45350683,-0.45967448,-0.76356471,0
0.29104561,-0.018827498,-1.2004032,0.45350683,-0.45967448,-0.76356471,0
0.58719611,-0.98011535,-0.2039552,0.80149972,-0.16433752,0.5749709,0
0.39239219,-1.1902791,-0.26042706,0.45350683,-0.45967448,-0.76356471,0
0.97615784,0.049092531,-0.80760825,0.45350683,-0.45967448,-0.76356471,0
0.76728719,-0.43539667,-0.31668523,0.80149972,-0.16433752,0.5749709,0
