-4.6326609,0.58160996,-1.8817596,-0.93195522,0.079400063,-0.35377276,0
-3.9379904,-0.45966709,-0.69134879,-0.21272796,-0.90987861,0.35618484,0
-4.5009685,0.71768844,-1.8791318,-0.93195522,0.079400063,-0.35377276,0
-4.7574301,0.23644078,-1.5563536,-0.93195522,0.079400063,-0.35377276,0
-1.5886377,0.70039678,-1.4951117,0.29360911,-0.4072057,-0.86485678,0
2.3013988,-1.10432,1.383724,-0.21272796,-0.90987861,0.35618484,0
2.8555923,-0.78556418,1.8918774,-0.29360911,0.4072057,0.86485678,0
4.8776693,0.30481303,1.2394004,0.93195522,-0.079400063,0.35377276,0
3.7486963,-1.4653616,1.571692,-0.21272796,-0.90987861,0.35618484,0
3.9272585,-0.93977344,1.204524,0.29360911,-0.4072057,-0.86485678,0
-4.6869106,0.32465088,-1.6227059,-0.93195522,0.079400063,-0.35377276,0
4.5070734,-1.2144674,2.2087812,0.93195522,-0.079400063,0.35377276,0
-4.8858891,-0.18452132,-1.0696559,-0.93195522,0.079400063,-0.35377276,0
4.6751647,-1.2299666,1.6915603,0.93195522,-0.079400063,0.35377276,0
0.059230268,0.76691419,-0.71950847,0.21272796,0.90987861,-0.35618484,0
0.19014859,0.7651031,0.17853418,-0.29360911,0.4072057,0.86485678,0
0.04444012,-0.4530836,0.78729141,-0.29360911,0.4072057,0.86485678,0
-1.3479805,-0.66602886,0.34662247,-0.21272796,-0.90987861,0.35618484,0
-4.7209992,0.3628093,-1.6608543,-0.93195522,0.079400063,-0.35377276,0
1.6376154,-1.2205766,0.80990744,-0.21272796,-0.90987861,0.35618484,0
-4.7544222,0.19137335,-1.3283424,-0.93195522,0.079400063,-0.35377276,0
2.3804653,0.73387897,0.42083025,0.21272796,0.90987861,-0.35618484,0
-3.9220259,1.4487725,-1.5868998,0.21272796,0.90987861,-0.35618484,0
-2.9178181,1.3188797,-1.092325,0.21272796,0.90987861,-0.35618484,0
2.3437901,-0.93309826,0.66153193,0.29360911,-0.4072057,-0.86485678,0
-2.1029334,0.83273292,-0.52063584,-0.29360911,0.4072057,0.86485678,0
-3.7748892,1.3129829,-1.9865456,0.21272796,0.90987861,-0.35618484,0
-2.6140172,1.2773185,-1.2615669,0.21272796,0.90987861,-0.35618484,0
0.64329433,-0.54973769,1.0731783,-0.29360911,0.4072057,0.86485678,0
3.3707349,-0.7481277,0.89960766,0.29360911,-0.4072057,-0.86485678,0
4.4156566,-1.0252086,2.0862317,0.93195522,-0.079400063,0.35377276,0
4.5894141,-0.4527694,1.8289957,0.93195522,-0.079400063,0.35377276,0
4.1335206,0.69454992,1.3644907,0.21272796,0.90987861,-0.35618484,0
1.7045434,-0.42950308,1.4265573,-0.29360911,0.4072057,0.86485678,0
4.3691177,0.53234839,1.2085886,0.21272796,0.90987861,-0.35618484,0
-4.7247953,-0.12340498,-1.7117548,-0.93195522,0.079400063,-0.35377276,0
-4.7888279,0.17150295,-1.1036668,-0.29360911,0.4072057,0.86485678,0
-2.8689046,-0.50450671,-1.3941586,0.29360911,-0.4072057,-0.86485678,0
3.0988193,-1.2047849,1.3323982,-0.21272796,-0.90987861,0.35618484,0
4.8614545,-0.67963219,1.3724232,0.93195522,-0.079400063,0.35377276,0
0.88801301,0.79741579,0.54981875,-0.29360911,0.4072057,0.86485678,0
-1.7754917,0.42916244,-0.15939021,-0.29360911,0.4072057,0.86485678,0
2.1578741,-0.1155234,0.31415343,0.29360911,-0.4072057,-0.86485678,0
4.9746718,-0.15557194,1.2058458,0.93195522,-0.079400063,0.35377276,0
-0.45052898,0.95385545,-0.4777559,0.21272796,0.90987861,-0.35618484,0
-4.8029537,0.20916522,-1.5089321,-0.93195522,0.079400063,-0.35377276,0
-4.5210075,1.4424338,-1.8270211,-0.93195522,0.079400063,-0.35377276,0
-4.4319553,0.2458806,-2.1223259,-0.93195522,0.079400063,-0.35377276,0
-4.7684579,-0.37231755,-1.5719872,-0.93195522,0.079400063,-0.35377276,0
-1.6874126,-0.78792483,0.046754837,-0.21272796,-0.90987861,0.35618484,0
-4.3255653,0.89849567,-2.4594245,-0.93195522,0.079400063,-0.35377276,0
1.4611213,-1.1755806,0.62613773,-0.21272796,-0.90987861,0.35618484,0
0.91680884,-1.025176,0.49977398,-0.21272796,-0.90987861,0.35618484,0
-3.420177,1.3012618,-1.6002078,0.21272796,0.90987861,-0.35618484,0
2.585923,-0.95797741,1.8310707,-0.21272796,-0.90987861,0.35618484,0
-0.043198347,0.83693069,-0.54825199,0.21272796,0.90987861,-0.35618484,0
-4.6404467,-0.5867219,-1.7023506,-0.21272796,-0.90987861,0.35618484,0
4.5969391,-0.55498052,2.0194039,0.93195522,-0.079400063,0.35377276,0
-1.1433692,-0.13761537,0.16465217,-0.29360911,0.4072057,0.86485678,0
-4.5269122,1.1871706,-1.979888,-0.93195522,0.079400063,-0.35377276,0
2.9666386,0.030378878,0.52685165,0.29360911,-0.4072057,-0.86485678,0
-0.19128615,-1.0098244,0.266114,-0.21272796,-0.90987861,0.35618484,0
1.0970583,-0.29133821,1.0966816,-0.29360911,0.4072057,0.86485678,0
-4.4800711,-0.53120661,-1.0428772,-0.21272796,-0.90987861,0.35618484,0
-4.3722801,0.97793615,-2.2337461,-0.93195522,0.079400063,-0.35377276,0
-4.4377642,-0.22729754,-1.941565,0.29360911,-0.4072057,-0.86485678,0
-0.85866851,0.065200925,-0.97357422,0.29360911,-0.4072057,-0.86485678,0
-4.6951017,0.80096519,-1.831903,-0.93195522,0.079400063,-0.35377276,0
-4.6475739,0.65220773,-1.7246647,-0.93195522,0.079400063,-0.35377276,0
1.9501023,0.85073602,0.69895375,0.21272796,0.90987861,-0.35618484,0
-4.7933655,0.43404305,-1.4789891,-0.93195522,0.079400063,-0.35377276,0
2.8782015,0.7003994,0.96426368,0.21272796,0.90987861,-0.35618484,0
-4.5160003,0.7172029,-2.2397647,-0.93195522,0.079400063,-0.35377276,0
0.92339593,-0.89119971,0.84970629,-0.21272796,-0.90987861,0.35618484,0
4.715333,-0.10917926,1.73454,0.93195522,-0.079400063,0.35377276,0
-3.855845,-0.41813231,-0.84008074,-0.21272796,-0.90987861,0.35618484,0
-4.8971939,-0.23662686,-1.1812706,-0.93195522,0.079400063,-0.35377276,0
-4.9143195,0.16436958,-1.3204427,-0.93195522,0.079400063,-0.35377276,0
2.0159163,0.17383027,1.1884651,-0.29360911,0.4072057,0.86485678,0
4.6125956,0.023248076,0.96814156,0.29360911,-0.4072057,-0.86485678,0
-4.9400606,0.15334952,-1.214889,-0.93195522,0.079400063,-0.35377276,0
-2.3356955,0.72044611,-1.7540176,0.29360911,-0.4072057,-0.86485678,0
3.2752075,-1.2596699,1.7245102,-0.21272796,-0.90987861,0.35618484,0
-0.95718801,0.023325205,-0.889117,0.29360911,-0.4072057,-0.86485678,0
4.7452526,-0.8373847,1.4562168,0.93195522,-0.079400063,0.35377276,0
-4.747786,0.18657422,-1.8509927,-0.93195522,0.079400063,-0.35377276,0
-3.2315922,0.52956772,-0.74253607,-0.29360911,0.4072057,0.86485678,0
3.930357,-0.17822886,1.9480782,-0.29360911,0.4072057,0.86485678,0
-3.0953486,0.83747184,-0.97030258,-0.29360911,0.4072057,0.86485678,0
-0.37783855,1.0038824,-0.67813152,0.21272796,0.90987861,-0.35618484,0
-4.5219321,0.88964045,-2.0996222,-0.93195522,0.079400063,-0.35377276,0
2.7818022,0.60643113,1.1278791,-0.29360911,0.4072057,0.86485678,0
3.5128791,0.78809714,1.4925508,-0.29360911,0.4072057,0.86485678,0
-0.12880501,-0.50528675,-0.30073398,0.29360911,-0.4072057,-0.86485678,0
3.6911778,-0.98141909,2.1907377,-0.29360911,0.4072057,0.86485678,0
2.8044424,0.72399473,0.87464237,0.21272796,0.90987861,-0.35618484,0
4.6085634,-0.58988905,1.8688393,0.93195522,-0.079400063,0.35377276,0
4.7257571,0.10442638,1.6779466,0.93195522,-0.079400063,0.35377276,0
4.8308787,0.1557616,1.1610374,0.93195522,-0.079400063,0.35377276,0
4.1685028,-0.99219239,1.281106,0.29360911,-0.4072057,-0.86485678,0
1.7503942,-0.96200585,0.49077082,0.29360911,-0.4072057,-0.86485678,0
3.2948384,-0.52748775,1.98563,-0.29360911,0.4072057,0.86485678,0
4.7993526,0.56493902,1.6960325,0.93195522,-0.079400063,0.35377276,0
2.134784,-0.59223258,0.4316833,0.29360911,-0.4072057,-0.86485678,0
-4.6187396,-0.56697035,-1.9299498,0.29360911,-0.4072057,-0.86485678,0
4.9213414,-0.16144633,1.3105297,0.93195522,-0.079400063,0.35377276,0
-4.5397921,1.2690027,-2.043756,-0.93195522,0.079400063,-0.35377276,0
-2.6136525,-0.61217183,-0.35956311,-0.21272796,-0.90987861,0.35618484,0
-4.516901,0.32833266,-2.0633788,-0.93195522,0.079400063,-0.35377276,0
1.1575254,-0.93075317,0.14246678,0.29360911,-0.4072057,-0.86485678,0
-3.1140735,1.0680996,-1.837992,0.21272796,0.90987861,-0.35618484,0
-1.967164,1.0153203,-1.6439559,0.21272796,0.90987861,-0.35618484,0
1.4808054,0.86788452,0.30555272,0.21272796,0.90987861,-0.35618484,0
-0.74313074,0.76825565,-0.14563131,-0.29360911,0.4072057,0.86485678,0
4.3409138,0.60184813,1.6806254,-0.29360911,0.4072057,0.86485678,0
-4.640686,0.092427492,-2.099422,-0.93195522,0.079400063,-0.35377276,0
-4.7456179,-0.20441389,-1.7208529,-0.93195522,0.079400063,-0.35377276,0
-2.7580302,0.86405647,-1.9000664,0.29360911,-0.4072057,-0.86485678,0
0.8558476,-0.50860643,0.01512146,0.29360911,-0.4072057,-0.86485678,0
4.6276608,-0.62945616,1.969079,0.93195522,-0.079400063,0.35377276,0
-1.2754921,0.43281311,0.029616475,-0.29360911,0.4072057,0.86485678,0
4.6383257,-0.45358729,1.6357756,0.93195522,-0.079400063,0.35377276,0
-2.3313739,-0.92937291,-0.70831728,-0.21272796,-0.90987861,0.35618484,0
-0.38937587,1.1026263,-0.013700604,0.21272796,0.90987861,-0.35618484,0
4.5463538,-0.60868073,2.2456918,0.93195522,-0.079400063,0.35377276,0
-2.1294112,-0.75571698,-0.48993623,-0.21272796,-0.90987861,0.35618484,0
-4.7926221,0.59182799,-1.603054,-0.93195522,0.079400063,-0.35377276,0
-2.2482858,0.15449905,-0.24837899,-0.29360911,0.4072057,0.86485678,0
-4.8677015,0.018710136,-1.2128797,-0.93195522,0.079400063,-0.35377276,0
4.9364843,0.16615081,1.4371424,0.93195522,-0.079400063,0.35377276,0
-1.0679805,-0.88160866,-0.15006435,-0.21272796,-0.90987861,0.35618484,0
4.597105,-0.58457041,1.6474242,0.93195522,-0.079400063,0.35377276,0
1.2551622,-1.0784979,0.87274516,-0.21272796,-0.90987861,0.35618484,0
-4.5881176,-0.37349951,-0.98152876,-0.21272796,-0.90987861,0.35618484,0
4.5401859,0.012385607,2.0475087,0.93195522,-0.079400063,0.35377276,0
0.41930488,-0.21505463,0.71384436,-0.29360911,0.4072057,0.86485678,0
2.8812001,-0.63320303,0.77836442,0.29360911,-0.4072057,-0.86485678,0
-2.2181954,0.57716286,-1.5277369,0.29360911,-0.4072057,-0.86485678,0
4.7342782,-0.10282254,1.6415105,0.93195522,-0.079400063,0.35377276,0
3.4757206,-0.38237643,1.8283734,-0.29360911,0.4072057,0.86485678,0
-3.4077077,0.31415248,-1.9623151,0.29360911,-0.4072057,-0.86485678,0
-4.7881508,0.17403734,-1.4302983,-0.93195522,0.079400063,-0.35377276,0
2.9587417,0.69029081,0.58250451,0.21272796,0.90987861,-0.35618484,0
3.7966869,-0.25200701,1.9493818,-0.29360911,0.4072057,0.86485678,0
4.5586553,-1.1799314,1.7051601,0.93195522,-0.079400063,0.35377276,0
1.2679487,1.0348356,0.43069935,0.21272796,0.90987861,-0.35618484,0
-0.014429808,1.1247113,-0.16556293,0.21272796,0.90987861,-0.35618484,0
-1.9280736,-0.96709204,-0.82481468,-0.21272796,-0.90987861,0.35618484,0
2.6652098,0.59238988,0.027304411,0.21272796,0.90987861,-0.35618484,0
-5.0746861,-0.36960316,-1.0122833,-0.93195522,0.079400063,-0.35377276,0
-2.958704,-0.34190369,-1.3216383,0.29360911,-0.4072057,-0.86485678,0
-3.0822673,1.0329322,-1.7949784,0.21272796,0.90987861,-0.35618484,0
-2.960052,1.0941443,-1.9770653,0.21272796,0.90987861,-0.35618484,0
-0.40049601,1.1199664,-0.42696524,0.21272796,0.90987861,-0.35618484,0
1.6906424,-1.1208446,0.73184562,-0.21272796,-0.90987861,0.35618484,0
5.0554171,0.21727538,1.134995,0.93195522,-0.079400063,0.35377276,0
-2.1985273,-0.77458179,-0.72508633,-0.21272796,-0.90987861,0.35618484,0
2.0596082,-0.91338968,1.6248083,-0.21272796,-0.90987861,0.35618484,0
-4.6660805,1.0063649,-1.5108418,-0.93195522,0.079400063,-0.35377276,0
-4.912221,0.5191741,-1.354218,-0.93195522,0.079400063,-0.35377276,0
4.6256542,-1.4885746,1.7676606,0.93195522,-0.079400063,0.35377276,0
3.8045402,-0.22828031,0.80773067,0.29360911,-0.4072057,-0.86485678,0
4.5924025,-0.66468239,1.987833,0.93195522,-0.079400063,0.35377276,0
4.5223727,0.59634733,1.6822629,0.21272796,0.90987861,-0.35618484,0
3.5840621,-1.2032295,1.1955137,0.29360911,-0.4072057,-0.86485678,0
0.091761917,-0.012880683,-0.5791415,0.29360911,-0.4072057,-0.86485678,0
-1.5636075,0.38832593,-1.2949189,0.29360911,-0.4072057,-0.86485678,0
-0.76141763,0.0051436424,-0.95238888,0.29360911,-0.4072057,-0.86485678,0
-3.0923371,-0.80273485,-1.1444643,0.29360911,-0.4072057,-0.86485678,0
4.7506795,-0.87503362,1.4130511,0.93195522,-0.079400063,0.35377276,0
3.3683941,0.72001314,1.2162013,0.21272796,0.90987861,-0.35618484,0
-0.1376965,1.1857128,-0.060126364,-0.29360911,0.4072057,0.86485678,0
-1.9149934,-0.68106389,-0.25719273,-0.21272796,-0.90987861,0.35618484,0
-1.4490992,0.84477317,-1.3628234,0.21272796,0.90987861,-0.35618484,0
3.704654,0.53538954,1.0278513,0.21272796,0.90987861,-0.35618484,0
4.0653105,-0.45106363,2.1675911,-0.29360911,0.4072057,0.86485678,0
-4.4821806,0.79804754,-1.9379587,-0.93195522,0.079400063,-0.35377276,0
-4.3403926,1.2280128,-2.1904917,-0.93195522,0.079400063,-0.35377276,0
4.1430335,-1.2286597,2.353518,-0.21272796,-0.90987861,0.35618484,0
-3.3770375,-0.5549897,-0.89074993,-0.21272796,-0.90987861,0.35618484,0
-2.85706,-0.6328665,-1.3212836,0.29360911,-0.4072057,-0.86485678,0
-4.9086061,0.31787109,-1.3242803,-0.93195522,0.079400063,-0.35377276,0
-2.7106686,-0.0028051138,-1.4344683,0.29360911,-0.4072057,-0.86485678,0
4.894505,-0.19708622,1.361659,0.93195522,-0.079400063,0.35377276,0
-1.8958083,0.69986314,-0.4226079,-0.29360911,0.4072057,0.86485678,0
1.59929,-0.41130435,0.18712342,0.29360911,-0.4072057,-0.86485678,0
4.7206616,0.12918997,1.5335975,0.93195522,-0.079400063,0.35377276,0
1.7664139,0.33880508,1.0763335,-0.29360911,0.4072057,0.86485678,0
2.7613063,0.74654424,1.1402612,-0.29360911,0.4072057,0.86485678,0
-1.0590892,0.24210572,-1.0757051,0.29360911,-0.4072057,-0.86485678,0
-4.7533703,-0.62820911,-1.5354257,-0.93195522,0.079400063,-0.35377276,0
-4.4226451,0.82189345,-2.3238845,-0.93195522,0.079400063,-0.35377276,0
-4.5515952,1.3952193,-1.8102808,-0.93195522,0.079400063,-0.35377276,0
-4.9328985,-0.26507044,-1.4709129,-0.93195522,0.079400063,-0.35377276,0
-1.3244787,0.13644624,-1.0203037,0.29360911,-0.4072057,-0.86485678,0
4.3510284,-1.2267823,2.3816819,0.93195522,-0.079400063,0.35377276,0
1.8036685,-0.41141903,0.28238893,0.29360911,-0.4072057,-0.86485678,0
4.8069057,0.15043437,1.2751937,0.93195522,-0.079400063,0.35377276,0
4.4183254,-0.54055738,2.2228823,0.93195522,-0.079400063,0.35377276,0
1.2923032,0.76164693,-0.12302035,0.21272796,0.90987861,-0.35618484,0
-1.0095942,-0.91388726,0.087230623,-0.21272796,-0.90987861,0.35618484,0
4.4536042,-0.80835032,2.2327242,0.93195522,-0.079400063,0.35377276,0
1.2958866,-0.65640634,0.19848657,0.29360911,-0.4072057,-0.86485678,0
4.8538384,0.29235196,1.4504399,0.93195522,-0.079400063,0.35377276,0
4.5192523,0.2023778,2.0348492,0.93195522,-0.079400063,0.35377276,0
4.5114107,-1.0330108,2.2309294,0.93195522,-0.079400063,0.35377276,0
2.297224,0.58463061,0.025239468,0.21272796,0.90987861,-0.35618484,0
4.5656929,-0.25290084,2.0790367,0.93195522,-0.079400063,0.35377276,0
1.057308,-0.97179937,1.183632,-0.21272796,-0.90987861,0.35618484,0
-3.7214947,0.56302106,-1.0646229,-0.29360911,0.4072057,0.86485678,0
2.0985923,-1.2008271,0.66975141,0.29360911,-0.4072057,-0.86485678,0
1.9013846,0.53713739,-0.16462553,0.21272796,0.90987861,-0.35618484,0
-4.5845089,0.34348822,-2.007576,-0.93195522,0.079400063,-0.35377276,0
-1.9396529,0.18872821,-1.3671944,0.29360911,-0.4072057,-0.86485678,0
4.6001959,-0.96875119,1.6522145,0.93195522,-0.079400063,0.35377276,0
-2.8683648,-0.022636652,-0.29246116,-0.29360911,0.4072057,0.86485678,0
4.3454261,-1.1539849,2.1910381,0.93195522,-0.079400063,0.35377276,0
0.27944487,0.8818562,-0.12166129,0.21272796,0.90987861,-0.35618484,0
4.1042032,-1.5073014,1.5136762,-0.21272796,-0.90987861,0.35618484,0
4.9269485,0.069884181,1.0551143,0.93195522,-0.079400063,0.35377276,0
-3.7490354,1.1374787,-2.3263841,0.21272796,0.90987861,-0.35618484,0
3.2315595,-1.0865088,1.8928249,-0.21272796,-0.90987861,0.35618484,0
-4.3668189,0.79630446,-2.294137,-0.93195522,0.079400063,-0.35377276,0
-4.8511095,0.44449842,-1.5330725,-0.93195522,0.079400063,-0.35377276,0
4.6366348,-0.97652626,1.5707874,0.93195522,-0.079400063,0.35377276,0
-1.8723905,0.68570447,-0.37447143,-0.29360911,0.4072057,0.86485678,0
1.7554421,0.62153471,0.093998313,0.21272796,0.90987861,-0.35618484,0
-1.2552638,0.54642773,-1.3551021,0.29360911,-0.4072057,-0.86485678,0
4.4510608,-0.38649082,2.1676669,0.93195522,-0.079400063,0.35377276,0
3.6931329,-0.67141938,2.1719975,-0.29360911,0.4072057,0.86485678,0
-4.8536329,0.23223341,-1.4546156,-0.93195522,0.079400063,-0.35377276,0
-0.38628024,-0.58693582,0.81940717,-0.29360911,0.4072057,0.86485678,0
-1.7684933,0.13045442,-1.3224189,0.29360911,-0.4072057,-0.86485678,0
4.5558081,-0.80725396,1.4543681,0.29360911,-0.4072057,-0.86485678,0
3.3165607,0.27687907,1.6282485,-0.29360911,0.4072057,0.86485678,0
-4.6440411,0.29921079,-2.1067462,-0.93195522,0.079400063,-0.35377276,0
-4.6620646,0.68882704,-1.4866667,-0.93195522,0.079400063,-0.35377276,0
4.5214438,-1.1199069,1.9406371,0.93195522,-0.079400063,0.35377276,0
-4.1947107,-0.55072153,-1.2047987,-0.21272796,-0.90987861,0.35618484,0
-1.746491,-0.775702,-0.7678721,0.29360911,-0.4072057,-0.86485678,0
0.27881074,-0.72667539,-0.14057565,0.29360911,-0.4072057,-0.86485678,0
-4.6817918,0.35899591,-1.7521687,-0.93195522,0.079400063,-0.35377276,0
-2.4132202,-0.5798161,-0.37794352,-0.21272796,-0.90987861,0.35618484,0
-4.8257151,-0.26939237,-1.2594151,-0.93195522,0.079400063,-0.35377276,0
-4.8419085,0.28130186,-1.3242211,-0.93195522,0.079400063,-0.35377276,0
-2.7310011,0.28707212,-0.4942894,-0.29360911,0.4072057,0.86485678,0
-2.4917703,0.98852903,-1.545886,0.21272796,0.90987861,-0.35618484,0
-4.9923887,-0.25439656,-1.0995889,-0.93195522,0.079400063,-0.35377276,0
-2.048475,-0.83254451,-0.47670674,-0.21272796,-0.90987861,0.35618484,0
-3.1240828,1.2664554,-1.5338829,0.21272796,0.90987861,-0.35618484,0
4.5993032,-0.32580817,1.6723661,0.93195522,-0.079400063,0.35377276,0
4.7027111,-0.5279516,1.6745205,0.93195522,-0.079400063,0.35377276,0
-4.7782478,-0.11606812,-1.5743103,-0.93195522,0.079400063,-0.35377276,0
4.7192249,0.33263278,2.0311203,0.93195522,-0.079400063,0.35377276,0
0.34527898,0.54091519,0.47508594,-0.29360911,0.4072057,0.86485678,0
0.89642596,-0.26785803,-0.14845079,0.29360911,-0.4072057,-0.86485678,0
-4.0175419,1.0079994,-1.323679,-0.29360911,0.4072057,0.86485678,0
-4.4995189,0.49446034,-2.1448731,-0.93195522,0.079400063,-0.35377276,0
2.3371217,0.74616969,0.6757319,0.21272796,0.90987861,-0.35618484,0
3.1378644,-1.1018473,1.7699826,-0.21272796,-0.90987861,0.35618484,0
4.6366429,0.18373537,1.9438858,0.93195522,-0.079400063,0.35377276,0
4.473084,-1.2625649,2.3226538,0.93195522,-0.079400063,0.35377276,0
-1.1564126,0.92442942,-1.2534786,0.21272796,0.90987861,-0.35618484,0
-4.5179973,0.5222342,-1.9403429,-0.93195522,0.079400063,-0.35377276,0
-1.4533824,-0.72065234,0.36686367,-0.21272796,-0.90987861,0.35618484,0
-0.13762039,-0.81127018,0.63311863,-0.21272796,-0.90987861,0.35618484,0
4.7697229,0.079844236,1.8037472,0.93195522,-0.079400063,0.35377276,0
-4.4604683,1.3949847,-1.6537185,0.21272796,0.90987861,-0.35618484,0
-4.6810718,1.3621628,-1.7052989,-0.93195522,0.079400063,-0.35377276,0
-4.6948414,-0.2409935,-1.857811,-0.93195522,0.079400063,-0.35377276,0
-3.3344727,-0.63343883,-1.0454192,-0.21272796,-0.90987861,0.35618484,0
-3.5369573,1.3200898,-1.6634631,0.21272796,0.90987861,-0.35618484,0
4.6564121,0.79096723,1.8215413,0.21272796,0.90987861,-0.35618484,0
-4.7406092,0.25612664,-1.8219891,-0.93195522,0.079400063,-0.35377276,0
4.551363,-0.26978946,2.1775584,0.93195522,-0.079400063,0.35377276,0
3.9618213,-1.3452539,1.718286,-0.21272796,-0.90987861,0.35618484,0
-1.0827491,0.7399838,-1.3304694,0.29360911,-0.4072057,-0.86485678,0
0.95075566,-0.97123569,0.85447788,-0.21272796,-0.90987861,0.35618484,0
-3.6202579,1.2512304,-1.9947023,0.21272796,0.90987861,-0.35618484,0
-2.8796659,-0.47274208,-1.2826314,0.29360911,-0.4072057,-0.86485678,0
-4.372148,1.0999132,-2.3125911,-0.93195522,0.079400063,-0.35377276,0
1.600343,0.85639298,0.4469161,0.21272796,0.90987861,-0.35618484,0
0.14081776,-0.65273494,-0.31432754,0.29360911,-0.4072057,-0.86485678,0
4.4929171,-0.89111626,2.2273941,0.93195522,-0.079400063,0.35377276,0
0.60134351,0.84224641,0.31384674,-0.29360911,0.4072057,0.86485678,0
-1.9923151,-0.60946387,0.14089596,-0.21272796,-0.90987861,0.35618484,0
0.95234895,-0.88773197,1.3278571,-0.21272796,-0.90987861,0.35618484,0
0.91157705,0.56112486,-0.63818794,0.29360911,-0.4072057,-0.86485678,0
-0.049377739,0.97611356,-0.46606982,0.21272796,0.90987861,-0.35618484,0
-0.10126919,0.25861228,0.52859974,-0.29360911,0.4072057,0.86485678,0
-4.6481318,0.70448124,-1.8743072,-0.93195522,0.079400063,-0.35377276,0
-2.5763497,0.80988359,-0.75929236,-0.29360911,0.4072057,0.86485678,0
4.2130756,0.78057051,1.6232591,-0.29360911,0.4072057,0.86485678,0
0.59551311,1.0277102,0.25635734,-0.29360911,0.4072057,0.86485678,0
-2.92624,-0.63342094,-0.78636289,-0.21272796,-0.90987861,0.35618484,0
0.13904038,-0.27893752,0.86105818,-0.29360911,0.4072057,0.86485678,0
2.681015,-0.93172443,1.9451189,-0.29360911,0.4072057,0.86485678,0
4.933331,0.286219,0.98355246,0.21272796,0.90987861,-0.35618484,0
-0.56496763,-0.44339299,0.49671829,-0.29360911,0.4072057,0.86485678,0
4.6122236,-0.76131797,1.553544,0.93195522,-0.079400063,0.35377276,0
4.5541172,-0.3880651,2.2005334,0.93195522,-0.079400063,0.35377276,0
4.5179219,-0.47936964,2.0072379,0.93195522,-0.079400063,0.35377276,0
-0.83175093,0.99525422,-0.91541636,0.21272796,0.90987861,-0.35618484,0
-1.045522,0.10807677,0.26029801,-0.29360911,0.4072057,0.86485678,0
-4.5791736,-0.33158565,-1.9133134,-0.93195522,0.079400063,-0.35377276,0
4.7112522,-0.26224434,1.6142569,0.93195522,-0.079400063,0.35377276,0
-4.2363544,1.4310677,-1.757751,0.21272796,0.90987861,-0.35618484,0
4.7682495,0.32166243,1.7906675,0.93195522,-0.079400063,0.35377276,0
4.8228869,0.21487403,1.3560586,0.93195522,-0.079400063,0.35377276,0
-3.1449523,0.98504007,-2.1011362,0.21272796,0.90987861,-0.35618484,0
0.11890602,-1.1859915,0.12142372,-0.21272796,-0.90987861,0.35618484,0
-4.7230091,-0.0074276924,-1.7112255,-0.93195522,0.079400063,-0.35377276,0
1.717584,0.84467542,0.51580381,0.21272796,0.90987861,-0.35618484,0
4.785305,-0.32554829,1.3912544,0.93195522,-0.079400063,0.35377276,0
4.5661139,-0.93400431,1.9422703,0.93195522,-0.079400063,0.35377276,0
2.1222746,-0.80925655,1.729147,-0.21272796,-0.90987861,0.35618484,0
4.7335167,-0.030718565,1.7123089,0.93195522,-0.079400063,0.35377276,0
-1.935653,-0.66418386,-0.090950012,-0.21272796,-0.90987861,0.35618484,0
-4.8303099,-0.51537931,-1.3676343,-0.93195522,0.079400063,-0.35377276,0
0.55085051,-1.1528305,0.24660981,-0.21272796,-0.90987861,0.35618484,0
4.3869586,0.66247058,1.7521644,0.21272796,0.90987861,-0.35618484,0
-4.7781343,0.012029886,-1.824079,-0.93195522,0.079400063,-0.35377276,0
-4.8377018,0.13453412,-1.5277362,-0.93195522,0.079400063,-0.35377276,0
4.5991912,-0.8739146,1.5828657,0.93195522,-0.079400063,0.35377276,0
-2.8406179,0.049653292,-1.6533656,0.29360911,-0.4072057,-0.86485678,0
0.024264395,-0.94601369,0.16665816,-0.21272796,-0.90987861,0.35618484,0
-3.5257745,-0.78074479,-1.4562814,-0.21272796,-0.90987861,0.35618484,0
4.7813816,0.24472713,1.843533,0.93195522,-0.079400063,0.35377276,0
-4.8517437,0.13755465,-1.599401,-0.93195522,0.079400063,-0.35377276,0
0.41846967,1.0301392,0.11717597,0.21272796,0.90987861,-0.35618484,0
4.1798916,0.31880045,1.7974572,-0.29360911,0.4072057,0.86485678,0
-2.9168959,-0.73104918,-0.93354774,-0.21272796,-0.90987861,0.35618484,0
1.3794951,-0.57303655,0.18754315,0.29360911,-0.4072057,-0.86485678,0
1.9442736,-0.91722077,0.41800857,0.29360911,-0.4072057,-0.86485678,0
-3.2801397,0.11746025,-1.84745,0.29360911,-0.4072057,-0.86485678,0
-4.5344443,0.79555464,-1.8833246,-0.93195522,0.079400063,-0.35377276,0
4.8321123,0.38081551,0.93334627,0.21272796,0.90987861,-0.35618484,0
-3.7281022,-0.4849329,-0.70033693,-0.21272796,-0.90987861,0.35618484,0
0.43185461,0.79451114,-0.71179074,0.21272796,0.90987861,-0.35618484,0
-3.7738404,1.2867706,-1.8045673,0.21272796,0.90987861,-0.35618484,0
-4.7440548,0.028922796,-1.7218504,-0.93195522,0.079400063,-0.35377276,0
-1.0882076,-0.77940929,0.34388423,-0.21272796,-0.90987861,0.35618484,0
-4.7655382,-0.10511708,-1.680552,-0.93195522,0.079400063,-0.35377276,0
-1.0194099,-0.36591631,-0.68314874,0.29360911,-0.4072057,-0.86485678,0
1.908113,0.65466344,-0.098257899,0.21272796,0.90987861,-0.35618484,0
-2.6223471,0.45584774,-1.7198875,0.29360911,-0.4072057,-0.86485678,0
-0.16314757,-1.0204337,0.16266698,-0.21272796,-0.90987861,0.35618484,0
-2.4411433,-0.86287045,-0.6730473,-0.21272796,-0.90987861,0.35618484,0
-4.0505762,-0.0053033829,-0.81205416,-0.29360911,0.4072057,0.86485678,0
4.4321923,-0.43139791,2.3889074,0.93195522,-0.079400063,0.35377276,0
2.794672,0.73547268,0.48779416,0.21272796,0.90987861,-0.35618484,0
-1.7056326,1.0679559,-1.1841884,0.21272796,0.90987861,-0.35618484,0
0.1439988,-0.89844322,0.37019253,-0.21272796,-0.90987861,0.35618484,0
4.5019922,-0.56938887,1.1124978,0.29360911,-0.4072057,-0.86485678,0
-4.5603299,-0.45925736,-1.0869818,-0.21272796,-0.90987861,0.35618484,0
0.10049772,0.5527814,-0.89798433,0.29360911,-0.4072057,-0.86485678,0
-2.17472,1.3130366,-0.8934381,0.21272796,0.90987861,-0.35618484,0
4.6856565,0.47137928,1.6645899,0.93195522,-0.079400063,0.35377276,0
4.569098,-0.80828738,1.9716091,0.93195522,-0.079400063,0.35377276,0
-1.1752951,-0.86700028,-0.5916335,0.29360911,-0.4072057,-0.86485678,0
1.1549833,-0.16008306,-0.15939677,0.29360911,-0.4072057,-0.86485678,0
1.3312664,0.61340773,0.7392236,-0.29360911,0.4072057,0.86485678,0
-4.3389401,1.0768814,-2.5903225,-0.93195522,0.079400063,-0.35377276,0
-4.5690441,-0.67929339,-1.376471,-0.21272796,-0.90987861,0.35618484,0
-1.4254732,0.43340528,-1.1828296,0.29360911,-0.4072057,-0.86485678,0
-2.9067538,0.047581911,-1.5390046,0.29360911,-0.4072057,-0.86485678,0
1.6034853,-0.98172748,1.2341864,-0.21272796,-0.90987861,0.35618484,0
-4.5591965,0.57957768,-2.0931363,-0.93195522,0.079400063,-0.35377276,0
-4.5962358,1.0440106,-1.9250588,-0.93195522,0.079400063,-0.35377276,0
-0.70842576,-0.75393844,0.446711,-0.21272796,-0.90987861,0.35618484,0
3.7331069,-0.023272753,0.67089415,0.29360911,-0.4072057,-0.86485678,0
-2.8980877,-0.7940253,-0.92673135,-0.21272796,-0.90987861,0.35618484,0
4.7950344,0.31466782,1.3399415,0.93195522,-0.079400063,0.35377276,0
-4.5154872,0.8133229,-2.1224494,-0.93195522,0.079400063,-0.35377276,0
4.9965124,0.16422284,1.2015724,0.93195522,-0.079400063,0.35377276,0
4.6652856,-1.1467423,1.5645418,0.93195522,-0.079400063,0.35377276,0
4.3669844,-1.2273659,2.2470708,0.93195522,-0.079400063,0.35377276,0
-1.4463673,-0.83899432,-0.4317944,-0.21272796,-0.90987861,0.35618484,0
-4.3267965,0.15961194,-2.1251779,0.29360911,-0.4072057,-0.86485678,0
-4.6764607,-0.53038847,-1.1053715,-0.21272796,-0.90987861,0.35618484,0
-1.1173981,-0.02983284,-0.98911071,0.29360911,-0.4072057,-0.86485678,0
-0.0011358857,0.93667209,-0.15218365,0.21272796,0.90987861,-0.35618484,0
-4.4271021,0.91174698,-2.2710948,-0.93195522,0.079400063,-0.35377276,0
-4.4909272,0.40992618,-2.2127428,-0.93195522,0.079400063,-0.35377276,0
4.7237368,-0.6912353,1.6054997,0.93195522,-0.079400063,0.35377276,0
-3.9834032,0.54107475,-2.2698274,0.29360911,-0.4072057,-0.86485678,0
4.816329,-0.4397589,1.3743963,0.93195522,-0.079400063,0.35377276,0
1.9830637,0.79638499,0.4829725,0.21272796,0.90987861,-0.35618484,0
-2.0524142,-0.106287,-0.1266222,-0.29360911,0.4072057,0.86485678,0
1.8372951,-1.1196826,1.2359433,-0.21272796,-0.90987861,0.35618484,0
0.38247371,0.8645705,0.30291113,-0.29360911,0.4072057,0.86485678,0
-3.7131124,0.6266492,-0.91579151,-0.29360911,0.4072057,0.86485678,0
-2.6575358,-0.76865065,-0.90487313,-0.21272796,-0.90987861,0.35618484,0
4.5942683,-1.1863751,1.8098598,0.93195522,-0.079400063,0.35377276,0
-2.6836045,0.20861328,-0.43704796,-0.29360911,0.4072057,0.86485678,0
-0.45443225,-0.89623111,-0.32083872,0.29360911,-0.4072057,-0.86485678,0
-1.5215553,0.57441574,-0.2564106,-0.29360911,0.4072057,0.86485678,0
-2.6666119,-0.23220187,-0.32623506,-0.29360911,0.4072057,0.86485678,0
4.7604008,0.3901515,1.9066401,0.93195522,-0.079400063,0.35377276,0
0.12331426,-1.0415881,0.11873382,-0.21272796,-0.90987861,0.35618484,0
4.2838731,0.79142189,1.5419123,0.21272796,0.90987861,-0.35618484,0
2.1023331,0.90088928,0.69002485,0.21272796,0.90987861,-0.35618484,0
4.7900505,0.48400378,1.831255,0.93195522,-0.079400063,0.35377276,0
-4.7398052,-0.428177,-1.0225229,-0.21272796,-0.90987861,0.35618484,0
2.6861911,0.77214974,0.54589796,0.21272796,0.90987861,-0.35618484,0
4.7616472,-0.26995456,1.3941693,0.93195522,-0.079400063,0.35377276,0
-3.8176696,0.1516099,-1.8452029,0.29360911,-0.4072057,-0.86485678,0
3.2303176,0.6958015,0.64139557,0.21272796,0.90987861,-0.35618484,0
-1.2703791,-1.0579364,-0.47498667,0.29360911,-0.4072057,-0.86485678,0
-4.3479314,0.77704239,-2.2562966,-0.93195522,0.079400063,-0.35377276,0
-1.5497667,-0.86198056,-0.19211388,-0.21272796,-0.90987861,0.35618484,0
-1.3991296,-0.49360099,0.2545346,-0.29360911,0.4072057,0.86485678,0
2.8371885,0.59873486,0.48836541,0.21272796,0.90987861,-0.35618484,0
4.2446876,-1.385818,1.8052411,-0.21272796,-0.90987861,0.35618484,0
-4.9156823,0.01367712,-1.3627157,-0.93195522,0.079400063,-0.35377276,0
1.1874496,0.82790458,0.12922859,0.21272796,0.90987861,-0.35618484,0
-4.0868306,0.73790646,-1.1780448,-0.29360911,0.4072057,0.86485678,0
1.1380715,0.83864665,-0.25464883,0.21272796,0.90987861,-0.35618484,0
-2.4229736,-0.58537567,0.028182745,-0.29360911,0.4072057,0.86485678,0
-1.7339438,1.143531,-0.95378494,0.21272796,0.90987861,-0.35618484,0
4.8122005,-0.54189849,1.2684431,0.93195522,-0.079400063,0.35377276,0
1.7731717,-0.96352792,1.3655622,-0.21272796,-0.90987861,0.35618484,0
-1.7548342,-0.35817546,0.25315595,-0.29360911,0.4072057,0.86485678,0
-3.2931356,-0.44596457,-0.30270147,-0.21272796,-0.90987861,0.35618484,0
-0.80260444,1.0675511,-0.66928542,0.21272796,0.90987861,-0.35618484,0
-4.7866325,0.45529795,-1.1907301,-0.29360911,0.4072057,0.86485678,0
4.0631995,0.42466545,1.7776453,-0.29360911,0.4072057,0.86485678,0
0.48919773,0.27454337,-0.54596883,0.29360911,-0.4072057,-0.86485678,0
4.580163,-0.84679174,1.7744789,0.93195522,-0.079400063,0.35377276,0
4.7345371,0.23807216,1.8646073,0.93195522,-0.079400063,0.35377276,0
-1.3691677,0.54954141,-1.2027531,0.29360911,-0.4072057,-0.86485678,0
-1.5166943,0.83214605,-1.3975139,0.29360911,-0.4072057,-0.86485678,0
-3.4679122,-0.59046721,-1.5507915,0.29360911,-0.4072057,-0.86485678,0
-2.1615222,-0.66021347,-0.19420731,-0.21272796,-0.90987861,0.35618484,0
1.6866463,0.89059079,0.52772915,0.21272796,0.90987861,-0.35618484,0
-1.2290201,-0.85779858,-0.66083437,0.29360911,-0.4072057,-0.86485678,0
-1.4620619,-0.42634249,-0.94968224,0.29360911,-0.4072057,-0.86485678,0
-4.4670053,0.81095672,-2.323617,-0.93195522,0.079400063,-0.35377276,0
4.0292344,-1.0608743,2.2417822,-0.21272796,-0.90987861,0.35618484,0
-2.8512602,-0.76969028,-1.0350134,-0.21272796,-0.90987861,0.35618484,0
1.6212221,0.87074912,0.77358484,-0.29360911,0.4072057,0.86485678,0
4.6477871,-0.45362997,1.9312353,0.93195522,-0.079400063,0.35377276,0
-4.8583565,0.22172737,-1.1184921,-0.93195522,0.079400063,-0.35377276,0
1.2781543,-1.074199,1.0411378,-0.21272796,-0.90987861,0.35618484,0
-3.6975324,0.82654917,-2.2670851,0.29360911,-0.4072057,-0.86485678,0
2.4783037,-1.1575654,1.5637007,-0.21272796,-0.90987861,0.35618484,0
-3.4470391,1.251574,-1.7467904,0.21272796,0.90987861,-0.35618484,0
0.19907516,0.9217698,-0.55940998,0.21272796,0.90987861,-0.35618484,0
3.2908597,-0.99131644,2.249599,-0.29360911,0.4072057,0.86485678,0
0.99554414,-1.1526049,0.50495601,-0.21272796,-0.90987861,0.35618484,0
0.63080621,-0.46233523,1.0763687,-0.29360911,0.4072057,0.86485678,0
-0.46842575,-0.29063749,-0.50130153,0.29360911,-0.4072057,-0.86485678,0
2.1621871,0.52764738,-0.17529655,0.29360911,-0.4072057,-0.86485678,0
2.534251,0.88636768,1.0404408,-0.29360911,0.4072057,0.86485678,0
4.7205281,0.48168969,1.7572355,0.93195522,-0.079400063,0.35377276,0
4.8508234,0.29456246,1.1793599,0.93195522,-0.079400063,0.35377276,0
1.436985,0.96075153,0.41126847,0.21272796,0.90987861,-0.35618484,0
1.122462,0.79830366,0.50957125,-0.29360911,0.4072057,0.86485678,0
4.4929318,-0.41624808,2.1316986,0.93195522,-0.079400063,0.35377276,0
-4.775209,0.29565811,-1.6776586,-0.93195522,0.079400063,-0.35377276,0
-3.1140137,-0.85742342,-0.98957443,-0.21272796,-0.90987861,0.35618484,0
-3.3513913,-0.85253549,-1.2803333,-0.21272796,-0.90987861,0.35618484,0
-5.0583944,-0.42202652,-1.1694775,-0.93195522,0.079400063,-0.35377276,0
1.0871934,0.76475471,-0.26991016,0.21272796,0.90987861,-0.35618484,0
-4.4801784,0.079178572,-2.0321894,-0.93195522,0.079400063,-0.35377276,0
-2.2787795,0.32861659,-0.3567059,-0.29360911,0.4072057,0.86485678,0
0.17238539,-0.14164662,-0.53189468,0.29360911,-0.4072057,-0.86485678,0
-4.7761645,0.70832396,-1.5962882,-0.93195522,0.079400063,-0.35377276,0
-0.54999799,-0.73014623,0.46719062,-0.21272796,-0.90987861,0.35618484,0
4.4750724,-1.4083035,1.7895532,0.93195522,-0.079400063,0.35377276,0
4.5115743,-0.62646246,1.8650627,0.93195522,-0.079400063,0.35377276,0
0.6917454,0.80151546,0.35380086,-0.29360911,0.4072057,0.86485678,0
-3.6697276,-0.68179083,-1.4921899,0.29360911,-0.4072057,-0.86485678,0
4.8780875,0.065325737,1.2302155,0.93195522,-0.079400063,0.35377276,0
-1.5117838,-0.85199201,-0.51783884,-0.21272796,-0.90987861,0.35618484,0
-4.5693946,0.29880071,-2.1369143,-0.93195522,0.079400063,-0.35377276,0
-1.2581242,-0.6787197,0.2520079,-0.21272796,-0.90987861,0.35618484,0
-4.6624069,0.56804132,-1.9993896,-0.93195522,0.079400063,-0.35377276,0
4.670352,-1.1163421,1.6625223,0.93195522,-0.079400063,0.35377276,0
1.9151887,-0.91747546,1.583185,-0.21272796,-0.90987861,0.35618484,0
4.6866465,0.69746327,1.8602214,0.93195522,-0.079400063,0.35377276,0
4.7374239,-0.75426102,1.6472859,0.93195522,-0.079400063,0.35377276,0
-2.523068,0.89819252,-1.8233061,0.21272796,0.90987861,-0.35618484,0
-4.5248961,1.5296668,-1.8425617,0.21272796,0.90987861,-0.35618484,0
3.6944437,0.66246676,1.0691049,0.21272796,0.90987861,-0.35618484,0
3.0391426,-1.4224234,1.2319252,-0.21272796,-0.90987861,0.35618484,0
-2.8720179,0.044831693,-0.40325379,-0.29360911,0.4072057,0.86485678,0
-2.4960246,-0.50333226,-0.022798777,-0.21272796,-0.90987861,0.35618484,0
4.6891279,-0.7453928,1.8794847,0.93195522,-0.079400063,0.35377276,0
1.6191291,-0.21520323,0.16838753,0.29360911,-0.4072057,-0.86485678,0
3.6214719,-0.99970472,2.2212133,-0.21272796,-0.90987861,0.35618484,0
4.0204382,0.67731452,1.6289907,-0.29360911,0.4072057,0.86485678,0
-0.83451968,-0.18036348,0.29431933,-0.29360911,0.4072057,0.86485678,0
3.4941726,-0.58383131,2.0165687,-0.29360911,0.4072057,0.86485678,0
-3.724689,1.4108865,-1.3285074,-0.29360911,0.4072057,0.86485678,0
-4.8957038,-0.28340888,-1.1847944,-0.93195522,0.079400063,-0.35377276,0
-4.9643464,-0.14051318,-1.1837268,-0.93195522,0.079400063,-0.35377276,0
-4.4066949,0.99826598,-2.4779735,-0.93195522,0.079400063,-0.35377276,0
4.441061,-0.31584811,2.2779794,0.93195522,-0.079400063,0.35377276,0
-0.69558758,0.11636996,-0.89496571,0.29360911,-0.4072057,-0.86485678,0
4.2400842,-0.01418674,0.98117685,0.29360911,-0.4072057,-0.86485678,0
3.013741,-1.1966417,1.0914044,0.29360911,-0.4072057,-0.86485678,0
-4.6401272,0.91744304,-1.8641977,-0.93195522,0.079400063,-0.35377276,0
2.2479205,-1.3035851,0.87349629,-0.21272796,-0.90987861,0.35618484,0
-4.6133747,-0.14655519,-2.0528069,-0.93195522,0.079400063,-0.35377276,0
1.4950029,0.9141615,0.68612134,-0.29360911,0.4072057,0.86485678,0
-4.8791704,-0.17944396,-1.3416381,-0.93195522,0.079400063,-0.35377276,0
2.240032,0.72491074,0.36616242,0.21272796,0.90987861,-0.35618484,0
4.4767747,-0.22609067,2.0281291,0.93195522,-0.079400063,0.35377276,0
2.2782915,0.9140079,0.89596367,-0.29360911,0.4072057,0.86485678,0
-2.6448367,-0.4305023,-1.3794813,0.29360911,-0.4072057,-0.86485678,0
2.5235348,0.63259041,0.31799769,0.21272796,0.90987861,-0.35618484,0
-3.6579947,1.0951366,-1.1468434,-0.29360911,0.4072057,0.86485678,0
-0.32776272,0.1951248,-0.72040969,0.29360911,-0.4072057,-0.86485678,0
0.71093357,-0.95960939,0.015848517,0.29360911,-0.4072057,-0.86485678,0
-4.7754254,0.19322705,-1.367095,-0.93195522,0.079400063,-0.35377276,0
-3.9347253,1.4564959,-1.671957,0.21272796,0.90987861,-0.35618484,0
1.0428671,-1.1282792,0.77176726,-0.21272796,-0.90987861,0.35618484,0
0.83777869,0.28604996,0.80618316,-0.29360911,0.4072057,0.86485678,0
-2.2483394,0.82727808,-0.58739471,-0.29360911,0.4072057,0.86485678,0
-4.2833238,1.4545634,-1.9016643,0.21272796,0.90987861,-0.35618484,0
2.7058167,0.68423343,0.76283693,0.21272796,0.90987861,-0.35618484,0
-4.6620941,0.29953861,-1.8367848,-0.93195522,0.079400063,-0.35377276,0
3.179405,-1.3680718,1.4137206,-0.21272796,-0.90987861,0.35618484,0
4.5643167,0.11133409,2.0817046,0.93195522,-0.079400063,0.35377276,0
-3.1383035,1.1825945,-1.1340644,-0.29360911,0.4072057,0.86485678,0
-4.7011404,-0.17169607,-0.87153864,-0.29360911,0.4072057,0.86485678,0
4.9650192,0.20775008,1.1480131,0.93195522,-0.079400063,0.35377276,0
3.1641614,0.59959632,0.54753995,0.21272796,0.90987861,-0.35618484,0
4.6108618,-0.094112158,1.8996339,0.93195522,-0.079400063,0.35377276,0
4.5618806,-0.91702831,1.9401336,0.93195522,-0.079400063,0.35377276,0
-0.45506984,0.52119541,0.2898545,-0.29360911,0.4072057,0.86485678,0
-4.741509,-0.039139748,-1.6707401,-0.93195522,0.079400063,-0.35377276,0
-4.7740183,0.88859057,-1.6288047,-0.93195522,0.079400063,-0.35377276,0
-0.4036158,-0.63052249,-0.34471321,0.29360911,-0.4072057,-0.86485678,0
-3.2849975,-0.65332282,-1.000773,-0.21272796,-0.90987861,0.35618484,0
-2.958158,1.4156125,-1.123215,0.21272796,0.90987861,-0.35618484,0
2.9018011,-1.1446182,1.8015363,-0.21272796,-0.90987861,0.35618484,0
4.6833997,0.36721563,1.9768424,0.93195522,-0.079400063,0.35377276,0
-0.60364217,-0.96331835,0.034399223,-0.21272796,-0.90987861,0.35618484,0
4.6901784,-0.10142231,1.6974955,0.93195522,-0.079400063,0.35377276,0
-4.5494523,0.7403779,-2.1396775,-0.93195522,0.079400063,-0.35377276,0
4.3526282,-0.98252702,2.5035138,0.93195522,-0.079400063,0.35377276,0
3.3579888,0.21523005,0.39194107,0.29360911,-0.4072057,-0.86485678,0
-4.7148256,0.76295531,-1.6274428,-0.93195522,0.079400063,-0.35377276,0
1.855659,-0.76060379,1.4573789,-0.29360911,0.4072057,0.86485678,0
0.6750254,-0.67969406,1.0172198,-0.29360911,0.4072057,0.86485678,0
-3.4050255,1.1270962,-1.9793372,0.21272796,0.90987861,-0.35618484,0
4.8173752,0.31091619,1.0864887,0.21272796,0.90987861,-0.35618484,0
0.11381292,-0.94143152,0.20029205,-0.21272796,-0.90987861,0.35618484,0
-1.4988916,1.1739209,-0.43109822,-0.29360911,0.4072057,0.86485678,0
4.6186113,-0.89771724,1.6677861,0.93195522,-0.079400063,0.35377276,0
4.6987982,-0.57485604,1.8899541,0.93195522,-0.079400063,0.35377276,0
-4.2805204,0.857517,-2.4667697,-0.93195522,0.079400063,-0.35377276,0
-4.6667004,-0.65077782,-1.4477291,-0.21272796,-0.90987861,0.35618484,0
-3.8115573,-0.34517264,-1.6260138,0.29360911,-0.4072057,-0.86485678,0
1.0075045,0.77385598,-0.34107921,0.21272796,0.90987861,-0.35618484,0
-4.5862246,0.50343728,-2.0104518,-0.93195522,0.079400063,-0.35377276,0
0.068582803,-0.29475242,0.83863211,-0.29360911,0.4072057,0.86485678,0
4.6578364,-0.075574875,0.9442606,0.29360911,-0.4072057,-0.86485678,0
-3.4690683,0.725573,-1.054548,-0.29360911,0.4072057,0.86485678,0
-1.9323306,0.87437713,-1.683706,0.21272796,0.90987861,-0.35618484,0
4.3816881,-1.0306733,2.4335155,0.93195522,-0.079400063,0.35377276,0
-4.6117897,0.64487004,-1.9202294,-0.93195522,0.079400063,-0.35377276,0
4.5273714,-0.83530343,2.1291571,0.93195522,-0.079400063,0.35377276,0
-4.3507953,-0.31048095,-0.83274269,-0.29360911,0.4072057,0.86485678,0
-4.4376011,0.83068419,-2.314477,-0.93195522,0.079400063,-0.35377276,0
-1.8967896,-0.53446895,0.15167868,-0.21272796,-0.90987861,0.35618484,0
3.2624578,0.21121144,1.6548326,-0.29360911,0.4072057,0.86485678,0
4.5205026,-1.0111508,1.7470531,0.93195522,-0.079400063,0.35377276,0
-4.2859554,0.90500355,-2.427187,0.29360911,-0.4072057,-0.86485678,0
-1.7809043,-0.84646225,-0.59236252,-0.21272796,-0.90987861,0.35618484,0
-4.2456932,1.2527847,-1.5013523,-0.29360911,0.4072057,0.86485678,0
4.0847802,0.16050541,0.71550512,0.29360911,-0.4072057,-0.86485678,0
0.12118089,0.88736153,0.15675804,-0.29360911,0.4072057,0.86485678,0
0.03576532,0.34764737,-0.78598195,0.29360911,-0.4072057,-0.86485678,0
-2.4785285,0.28509021,-1.5433404,0.29360911,-0.4072057,-0.86485678,0
-3.3125427,0.70991457,-2.1399972,0.29360911,-0.4072057,-0.86485678,0
-4.571373,0.55316055,-1.7014222,-0.93195522,0.079400063,-0.35377276,0
-4.1627874,1.3280147,-2.0205231,0.21272796,0.90987861,-0.35618484,0
1.0625819,0.92673945,-0.036991894,0.21272796,0.90987861,-0.35618484,0
-3.0768909,-0.56092441,-0.50326157,-0.21272796,-0.90987861,0.35618484,0
4.4413738,-1.033325,2.4434047,0.93195522,-0.079400063,0.35377276,0
-1.2511573,-0.1460945,0.29770517,-0.29360911,0.4072057,0.86485678,0
1.7175441,0.8442679,0.39211524,0.21272796,0.90987861,-0.35618484,0
-4.7620993,0.49891269,-1.6179643,-0.93195522,0.079400063,-0.35377276,0
-4.7275362,-0.4335736,-1.1295919,-0.21272796,-0.90987861,0.35618484,0
-2.0033126,-0.31176078,-1.165337,0.29360911,-0.4072057,-0.86485678,0
1.0731812,0.21508989,-0.25074971,0.29360911,-0.4072057,-0.86485678,0
-4.5646753,-0.55765653,-1.4759116,-0.21272796,-0.90987861,0.35618484,0
-0.99497145,-0.0083005056,0.15881693,-0.29360911,0.4072057,0.86485678,0
2.8965783,0.704561,0.66014862,0.21272796,0.90987861,-0.35618484,0
2.1513526,0.68178129,-0.061780334,0.21272796,0.90987861,-0.35618484,0
4.9219961,-0.092277765,1.4172716,0.93195522,-0.079400063,0.35377276,0
-2.5436754,-0.85106599,-0.67860627,-0.21272796,-0.90987861,0.35618484,0
2.3825889,0.94274867,0.84362662,0.21272796,0.90987861,-0.35618484,0
-4.6807094,0.32044029,-1.8971152,-0.93195522,0.079400063,-0.35377276,0
-1.2119231,1.0500799,-0.77883387,0.21272796,0.90987861,-0.35618484,0
3.6935568,0.56429291,0.99514294,0.21272796,0.90987861,-0.35618484,0
3.3522801,-0.39711666,1.922678,-0.29360911,0.4072057,0.86485678,0
-0.29781049,0.84599012,-0.65161812,0.21272796,0.90987861,-0.35618484,0
-4.5642653,-0.25309801,-1.953258,-0.93195522,0.079400063,-0.35377276,0
-0.25156453,-0.36447799,-0.55765045,0.29360911,-0.4072057,-0.86485678,0
-0.093836904,-0.80996346,-0.21293312,0.29360911,-0.4072057,-0.86485678,0
-4.0914063,-0.65229833,-1.3246927,-0.21272796,-0.90987861,0.35618484,0
-4.557662,0.7636925,-1.3954811,-0.29360911,0.4072057,0.86485678,0
-2.1746221,-0.77323604,-0.87051618,0.29360911,-0.4072057,-0.86485678,0
0.15406835,1.1037425,0.12223473,-0.29360911,0.4072057,0.86485678,0
0.18058687,0.93053675,-0.14587203,0.21272796,0.90987861,-0.35618484,0
-0.98731011,-0.88332152,-0.18068427,-0.21272796,-0.90987861,0.35618484,0
-3.6621978,-0.62012064,-0.72582293,-0.21272796,-0.90987861,0.35618484,0
-2.5415738,-0.65502536,-1.0702908,0.29360911,-0.4072057,-0.86485678,0
4.7716208,-0.58116925,1.5284939,0.93195522,-0.079400063,0.35377276,0
-1.152159,0.61797756,-1.1537161,0.29360911,-0.4072057,-0.86485678,0
4.964612,0.073553085,1.3124433,0.93195522,-0.079400063,0.35377276,0
0.56197643,0.7272681,-0.46644729,0.21272796,0.90987861,-0.35618484,0
-1.8008641,0.011025965,-0.052698016,-0.29360911,0.4072057,0.86485678,0
1.9221913,0.58104759,-0.13839912,0.21272796,0.90987861,-0.35618484,0
1.6091475,0.30538085,-0.16309786,0.29360911,-0.4072057,-0.86485678,0
1.9966149,-1.2991821,0.8492372,-0.21272796,-0.90987861,0.35618484,0
-4.6061287,0.30670691,-1.8681388,-0.93195522,0.079400063,-0.35377276,0
-4.5210457,0.55678821,-1.9626021,-0.93195522,0.079400063,-0.35377276,0
3.0325093,0.40810645,1.4815311,-0.29360911,0.4072057,0.86485678,0
-1.8577315,0.81907845,-1.5497069,0.21272796,0.90987861,-0.35618484,0
3.1669266,-1.2600538,1.381459,-0.21272796,-0.90987861,0.35618484,0
4.6179681,-0.83804131,1.8455019,0.93195522,-0.079400063,0.35377276,0
-4.2231965,-0.19531631,-1.8596082,0.29360911,-0.4072057,-0.86485678,0
-4.3763318,-0.59360862,-1.7142487,0.29360911,-0.4072057,-0.86485678,0
4.7078962,0.30722499,1.7593412,0.93195522,-0.079400063,0.35377276,0
-4.7439251,-0.002395153,-1.6102514,-0.93195522,0.079400063,-0.35377276,0
4.6912694,-0.49658108,1.4784036,0.93195522,-0.079400063,0.35377276,0
3.3625195,-0.92947745,1.0098157,0.29360911,-0.4072057,-0.86485678,0
0.59492546,0.92200381,0.3141062,-0.29360911,0.4072057,0.86485678,0
-0.10414147,-0.81998831,0.6963408,-0.21272796,-0.90987861,0.35618484,0
-0.92914522,1.1577064,-0.31350183,-0.29360911,0.4072057,0.86485678,0
4.2625093,-0.48533344,1.1972342,0.29360911,-0.4072057,-0.86485678,0
-4.3146095,-0.38907754,-0.81802893,-0.21272796,-0.90987861,0.35618484,0
0.81369901,-0.79905891,1.2967848,-0.21272796,-0.90987861,0.35618484,0
2.5621161,-0.32194746,1.5377588,-0.29360911,0.4072057,0.86485678,0
4.838119,0.01380229,1.4863958,0.93195522,-0.079400063,0.35377276,0
-3.5935223,-0.48729575,-0.44507194,-0.29360911,0.4072057,0.86485678,0
4.5669451,-1.2774208,1.6204777,0.93195522,-0.079400063,0.35377276,0
-3.6274095,0.84988213,-0.95963573,-0.29360911,0.4072057,0.86485678,0
1.9603095,0.91455287,0.59646475,0.21272796,0.90987861,-0.35618484,0
-3.3967738,0.55626941,-0.73195267,-0.29360911,0.4072057,0.86485678,0
4.1239491,-1.1371579,2.5033355,-0.21272796,-0.90987861,0.35618484,0
-2.2706389,1.1451328,-0.7755053,-0.29360911,0.4072057,0.86485678,0
3.5364649,-1.2766514,1.4908786,-0.21272796,-0.90987861,0.35618484,0
1.2621593,-1.2174171,0.69078898,-0.21272796,-0.90987861,0.35618484,0
-0.99140984,0.97847378,-0.31904066,-0.29360911,0.4072057,0.86485678,0
-2.0745802,1.0625956,-1.0527852,0.21272796,0.90987861,-0.35618484,0
-2.9658418,1.0357989,-1.881284,0.21272796,0.90987861,-0.35618484,0
1.3751343,0.66814053,0.71292734,-0.29360911,0.4072057,0.86485678,0
0.4152832,-0.88952291,0.76843321,-0.21272796,-0.90987861,0.35618484,0
-2.3525252,-0.81553346,-0.50078738,-0.21272796,-0.90987861,0.35618484,0
4.3747959,-1.3076389,2.0434699,-0.21272796,-0.90987861,0.35618484,0
4.5462255,-0.93664575,2.1032948,0.93195522,-0.079400063,0.35377276,0
4.4594073,-0.31660843,2.2596464,-0.29360911,0.4072057,0.86485678,0
-3.6130133,1.1860888,-1.7988734,0.21272796,0.90987861,-0.35618484,0
-3.343508,0.47925091,-2.0234621,0.29360911,-0.4072057,-0.86485678,0
-4.2826881,0.56790233,-2.2450047,0.29360911,-0.4072057,-0.86485678,0
-2.1764858,0.8253063,-0.44003415,-0.29360911,0.4072057,0.86485678,0
-2.7173514,1.192144,-0.80565929,-0.29360911,0.4072057,0.86485678,0
-3.0525103,-0.84706128,-1.0271113,-0.21272796,-0.90987861,0.35618484,0
-1.2901156,-0.72584748,0.21577036,-0.21272796,-0.90987861,0.35618484,0
2.9914331,0.36851621,1.4860682,-0.29360911,0.4072057,0.86485678,0
-4.7572241,0.16932619,-1.3854308,-0.93195522,0.079400063,-0.35377276,0
-4.6917648,0.74018753,-1.3960032,-0.93195522,0.079400063,-0.35377276,0
-4.6558824,0.81264734,-1.5116429,-0.93195522,0.079400063,-0.35377276,0
4.6422868,-0.46116793,1.7149868,0.93195522,-0.079400063,0.35377276,0
1.7879875,0.14237045,-0.070004702,0.29360911,-0.4072057,-0.86485678,0
-4.2304044,-0.37955022,-0.59812021,-0.29360911,0.4072057,0.86485678,0
-4.6791072,0.57295299,-1.8139782,-0.93195522,0.079400063,-0.35377276,0
-4.7167535,0.11094117,-1.5701632,-0.93195522,0.079400063,-0.35377276,0
-2.0714288,0.48218739,-1.5350544,0.29360911,-0.4072057,-0.86485678,0
4.8600497,0.29271674,1.6517949,0.93195522,-0.079400063,0.35377276,0
4.1204367,0.70847321,1.4215457,0.21272796,0.90987861,-0.35618484,0
-4.5634799,0.31198835,-2.1515398,-0.93195522,0.079400063,-0.35377276,0
4.5299559,0.7065382,1.4853115,0.21272796,0.90987861,-0.35618484,0
0.73096395,1.0238823,-0.00039336085,0.21272796,0.90987861,-0.35618484,0
-4.0939169,1.4863776,-1.727345,0.21272796,0.90987861,-0.35618484,0
-0.8014015,-0.74157572,0.63738281,-0.29360911,0.4072057,0.86485678,0
-4.4623699,1.1647042,-1.9157262,-0.93195522,0.079400063,-0.35377276,0
1.0090356,-0.43098855,1.2298367,-0.29360911,0.4072057,0.86485678,0
1.3818249,-0.69865167,0.29747856,0.29360911,-0.4072057,-0.86485678,0
-4.639255,1.1018724,-1.5764093,-0.93195522,0.079400063,-0.35377276,0
1.639437,0.17704977,-0.18877065,0.29360911,-0.4072057,-0.86485678,0
-4.7188597,-0.37779832,-1.8014698,-0.93195522,0.079400063,-0.35377276,0
4.5320077,-0.93368161,1.8609819,0.93195522,-0.079400063,0.35377276,0
-4.2481756,-0.55390942,-1.3724461,-0.21272796,-0.90987861,0.35618484,0
4.8350039,-0.22444129,1.3043189,0.93195522,-0.079400063,0.35377276,0
2.0191181,0.45290008,-0.17683375,0.29360911,-0.4072057,-0.86485678,0
4.5531106,-0.45437217,1.8955188,0.93195522,-0.079400063,0.35377276,0
-4.1697068,0.40222836,-2.1005921,0.29360911,-0.4072057,-0.86485678,0
