-0.81201065,1.9114844,1.1847732,0.47544956,0.75373602,-0.4536846,0
1.7889985,-1.0516169,1.2673737,-0.47544956,-0.75373602,0.4536846,0
1.1708553,-1.676989,-1.8148773,0.68308073,-0.64126998,-0.34953326,0
1.2954762,-0.0093277693,1.5218321,0.55439013,0.14371777,0.81975406,0
-1.1716315,1.6232178,1.9768416,-0.68308073,0.64126998,0.34953326,0
-1.223798,1.7243941,1.839769,-0.68308073,0.64126998,0.34953326,0
-1.073555,0.97775966,1.7965652,-0.47544956,-0.75373602,0.4536846,0
1.9128553,-1.439131,-0.60156214,0.68308073,-0.64126998,-0.34953326,0
0.93851274,-1.9423618,-1.7235835,0.68308073,-0.64126998,-0.34953326,0
1.3130383,-1.7166082,-1.2636032,0.68308073,-0.64126998,-0.34953326,0
0.29235077,0.16766009,1.4812279,-0.47544956,-0.75373602,0.4536846,0
2.0187619,-1.4641576,0.60417551,-0.47544956,-0.75373602,0.4536846,0
-1.7768524,0.16686651,-0.68525374,-0.47544956,-0.75373602,0.4536846,0
-0.8363148,-0.47738722,-0.35831171,-0.47544956,-0.75373602,0.4536846,0
2.6450984,-1.5107422,0.5795449,0.68308073,-0.64126998,-0.34953326,0
0.65951288,-1.5856609,-2.6650498,-0.55439013,-0.14371777,-0.81975406,0
-1.5352051,1.1138968,-0.71453035,0.47544956,0.75373602,-0.4536846,0
-0.8775332,1.3629019,0.29781616,0.47544956,0.75373602,-0.4536846,0
0.39161485,-2.2486086,-2.0095263,-0.47544956,-0.75373602,0.4536846,0
-0.39850909,1.7596271,2.5094965,0.55439013,0.14371777,0.81975406,0
0.95960152,-1.5989659,-2.603209,0.68308073,-0.64126998,-0.34953326,0
2.3282442,-0.29787013,1.0015084,0.55439013,0.14371777,0.81975406,0
-1.6476198,0.80235702,0.5060997,-0.47544956,-0.75373602,0.4536846,0
1.162004,-0.83417821,1.0212983,-0.47544956,-0.75373602,0.4536846,0
-0.24271204,1.6652305,1.2983562,0.47544956,0.75373602,-0.4536846,0
1.1721449,-0.75194335,0.89786029,-0.47544956,-0.75373602,0.4536846,0
0.7367937,0.017861605,1.7668709,-0.47544956,-0.75373602,0.4536846,0
-1.2568123,-0.23287836,-1.4916555,-0.55439013,-0.14371777,-0.81975406,0
1.4787486,0.18974778,0.54757285,0.47544956,0.75373602,-0.4536846,0
1.0574951,-1.8542826,-1.8453988,0.68308073,-0.64126998,-0.34953326,0
1.7073863,-1.7660785,-0.30808425,0.68308073,-0.64126998,-0.34953326,0
-0.62448472,1.4095336,2.5368111,0.55439013,0.14371777,0.81975406,0
0.93035573,-1.6790427,-0.56700575,-0.47544956,-0.75373602,0.4536846,0
0.41297829,0.53786945,2.113637,0.55439013,0.14371777,0.81975406,0
0.99774486,-1.6065265,-2.4053121,0.68308073,-0.64126998,-0.34953326,0
-2.1782041,1.7212299,-0.13856256,-0.68308073,0.64126998,0.34953326,0
-0.6365118,2.0093176,2.1590338,-0.68308073,0.64126998,0.34953326,0
-2.3283553,0.70269132,-0.90662223,-0.55439013,-0.14371777,-0.81975406,0
1.642432,-1.8555013,-0.48301017,0.68308073,-0.64126998,-0.34953326,0
-0.48899826,0.19284347,0.94009149,-0.47544956,-0.75373602,0.4536846,0
-0.17581064,-0.46404094,0.12558472,-0.47544956,-0.75373602,0.4536846,0
-0.48413098,0.13247229,0.77727866,-0.47544956,-0.75373602,0.4536846,0
-2.3019288,1.1239983,0.49429643,-0.68308073,0.64126998,0.34953326,0
-0.07492429,1.7118349,2.2632143,0.55439013,0.14371777,0.81975406,0
-0.042317331,0.87911123,2.2080002,0.55439013,0.14371777,0.81975406,0
2.7799025,-1.2167227,0.35725927,0.68308073,-0.64126998,-0.34953326,0
1.7244581,-1.3583318,-1.3396586,0.68308073,-0.64126998,-0.34953326,0
-0.10417794,1.2681048,0.95626247,0.47544956,0.75373602,-0.4536846,0
-1.9952064,0.0052012205,-1.1175568,-0.47544956,-0.75373602,0.4536846,0
-0.37745318,1.2220342,2.3804064,0.55439013,0.14371777,0.81975406,0
-0.54933834,0.057383522,0.71485496,-0.47544956,-0.75373602,0.4536846,0
-0.55000156,1.8207743,1.1910453,0.47544956,0.75373602,-0.4536846,0
1.9722507,-1.4949429,-0.36826909,0.68308073,-0.64126998,-0.34953326,0
-0.8292973,2.1252129,1.7193525,-0.68308073,0.64126998,0.34953326,0
-2.0830693,1.6503137,-0.15761483,-0.68308073,0.64126998,0.34953326,0
2.0725293,-1.3041514,-0.44197631,0.68308073,-0.64126998,-0.34953326,0
2.5371239,-1.1871741,0.02751565,0.68308073,-0.64126998,-0.34953326,0
1.8709959,-0.64834273,1.2456002,0.55439013,0.14371777,0.81975406,0
-1.4498265,1.720158,1.1871961,-0.68308073,0.64126998,0.34953326,0
0.11555225,1.4198545,1.4755262,0.47544956,0.75373602,-0.4536846,0
-1.3100359,0.3181752,0.39215618,-0.47544956,-0.75373602,0.4536846,0
-0.14640814,-1.3522191,-2.2248614,-0.55439013,-0.14371777,-0.81975406,0
-2.0165789,1.5675488,0.58360767,-0.68308073,0.64126998,0.34953326,0
-1.0260307,0.11366373,-1.8337696,-0.55439013,-0.14371777,-0.81975406,0
-1.6309351,1.8965709,0.76382792,-0.68308073,0.64126998,0.34953326,0
-0.70521498,-0.41163555,-1.9109885,-0.55439013,-0.14371777,-0.81975406,0
1.2973365,-1.3497502,-1.8648305,0.47544956,0.75373602,-0.4536846,0
-2.3961034,1.318943,-1.0509074,-0.55439013,-0.14371777,-0.81975406,0
-1.109005,-0.5483247,-1.4850535,-0.55439013,-0.14371777,-0.81975406,0
-2.178704,1.7792919,-0.18015182,-0.68308073,0.64126998,0.34953326,0
-1.7734568,1.593086,0.71147239,-0.68308073,0.64126998,0.34953326,0
-1.5288062,0.31489545,-1.460485,-0.55439013,-0.14371777,-0.81975406,0
2.3370173,-1.4038215,-0.12971985,0.68308073,-0.64126998,-0.34953326,0
-0.10733461,-0.1227845,0.74179411,-0.47544956,-0.75373602,0.4536846,0
0.40221912,-1.234418,-0.69208771,-0.47544956,-0.75373602,0.4536846,0
0.15341678,0.0016517639,-0.82166153,0.47544956,0.75373602,-0.4536846,0
-1.0454097,2.0225351,1.4399461,-0.68308073,0.64126998,0.34953326,0
-0.59918755,-1.1729369,-1.9268289,-0.55439013,-0.14371777,-0.81975406,0
2.2650862,-1.5739945,0.31769931,0.68308073,-0.64126998,-0.34953326,0
1.0577126,-2.0656214,-1.5651048,0.68308073,-0.64126998,-0.34953326,0
1.7594078,-1.6966209,-0.53534007,0.68308073,-0.64126998,-0.34953326,0
-2.7774186,1.244642,-0.52666414,-0.68308073,0.64126998,0.34953326,0
-0.15057278,0.84991854,2.4261146,0.55439013,0.14371777,0.81975406,0
1.8785471,-1.3183889,-0.94450045,0.68308073,-0.64126998,-0.34953326,0
-1.7218319,1.8131284,0.10893142,0.47544956,0.75373602,-0.4536846,0
2.7319708,-1.1530225,0.83475083,0.55439013,0.14371777,0.81975406,0
-2.9409471,1.1721625,-0.57439482,-0.68308073,0.64126998,0.34953326,0
-2.3710854,1.7563267,-0.42969358,-0.68308073,0.64126998,0.34953326,0
0.6145193,-0.086638331,1.7149856,-0.47544956,-0.75373602,0.4536846,0
-2.1661749,1.4312834,0.46965587,-0.68308073,0.64126998,0.34953326,0
-0.72448289,-0.22775298,-2.0125115,-0.55439013,-0.14371777,-0.81975406,0
2.499845,-1.3547359,0.15435421,0.68308073,-0.64126998,-0.34953326,0
0.46619418,0.45306736,0.09012489,0.47544956,0.75373602,-0.4536846,0
-1.5366514,1.4373655,1.4714741,-0.68308073,0.64126998,0.34953326,0
0.95736921,-1.630246,-2.3620777,0.68308073,-0.64126998,-0.34953326,0
-1.5601964,1.5712072,1.4002273,-0.68308073,0.64126998,0.34953326,0
-1.3762982,0.45368648,-1.6490053,-0.55439013,-0.14371777,-0.81975406,0
-1.8055298,0.47762454,-1.3878112,-0.55439013,-0.14371777,-0.81975406,0
-0.9317103,1.9471037,1.2708315,0.47544956,0.75373602,-0.4536846,0
-1.0716026,1.7482183,1.6598076,-0.68308073,0.64126998,0.34953326,0
-2.0733063,0.4125393,-0.26374567,-0.47544956,-0.75373602,0.4536846,0
1.2242012,0.58423513,1.6078337,0.55439013,0.14371777,0.81975406,0
-0.81900758,-0.11872959,-1.8119994,-0.55439013,-0.14371777,-0.81975406,0
-0.084163725,1.2434779,2.1599851,0.55439013,0.14371777,0.81975406,0
-1.9825932,1.096194,-1.406253,-0.55439013,-0.14371777,-0.81975406,0
-1.1582023,0.21463591,-1.8136015,-0.55439013,-0.14371777,-0.81975406,0
2.0358644,-1.3790879,-0.4937309,0.68308073,-0.64126998,-0.34953326,0
-1.1806836,-0.21574903,-1.6207821,-0.55439013,-0.14371777,-0.81975406,0
1.3825109,-1.5091579,-1.5680851,0.68308073,-0.64126998,-0.34953326,0
-0.07933259,0.37603444,1.4912037,-0.47544956,-0.75373602,0.4536846,0
1.1412646,-0.43895686,1.6784756,0.55439013,0.14371777,0.81975406,0
-1.4005437,1.586713,1.2187176,-0.68308073,0.64126998,0.34953326,0
0.92312831,0.53992403,1.8247755,0.55439013,0.14371777,0.81975406,0
-1.7126652,1.3197994,1.3760124,-0.68308073,0.64126998,0.34953326,0
0.53396219,-0.99710017,-0.13545209,-0.47544956,-0.75373602,0.4536846,0
0.85590827,-1.3767042,-0.38794059,-0.47544956,-0.75373602,0.4536846,0
-0.44885683,1.5988482,1.1421102,0.47544956,0.75373602,-0.4536846,0
-1.2644874,1.4486856,1.8291925,-0.68308073,0.64126998,0.34953326,0
-0.14330518,0.80188048,2.298028,0.55439013,0.14371777,0.81975406,0
-0.57932675,-1.3279717,-1.720536,-0.55439013,-0.14371777,-0.81975406,0
1.6074713,-1.5469745,-1.2601008,0.68308073,-0.64126998,-0.34953326,0
2.4625068,-0.81025505,0.17082977,0.47544956,0.75373602,-0.4536846,0
1.7403841,-1.0253875,1.4054606,-0.47544956,-0.75373602,0.4536846,0
-2.4713333,1.5954175,-0.8051517,-0.68308073,0.64126998,0.34953326,0
0.21526241,-1.1875763,-2.2614796,-0.55439013,-0.14371777,-0.81975406,0
2.6544399,-0.88112199,0.85216743,0.55439013,0.14371777,0.81975406,0
-0.69050276,0.79090428,-0.57601494,0.47544956,0.75373602,-0.4536846,0
0.47027707,-1.7868407,-2.3729773,-0.55439013,-0.14371777,-0.81975406,0
1.6373278,-1.8743535,-0.62840641,0.68308073,-0.64126998,-0.34953326,0
0.51698405,-2.2578371,-1.9346883,0.68308073,-0.64126998,-0.34953326,0
-0.078788847,-1.3681893,-1.4116344,-0.47544956,-0.75373602,0.4536846,0
-0.75834012,-0.25525591,-1.9600129,-0.55439013,-0.14371777,-0.81975406,0
-0.23670207,-0.0356161,0.82273304,-0.47544956,-0.75373602,0.4536846,0
-1.0623261,-0.46793324,-0.92517364,-0.47544956,-0.75373602,0.4536846,0
-0.32646498,1.8727891,2.4405932,0.55439013,0.14371777,0.81975406,0
0.92616379,-0.86198235,-1.7473788,0.47544956,0.75373602,-0.4536846,0
-0.37324849,1.5988798,2.3818977,0.55439013,0.14371777,0.81975406,0
0.056932807,0.20106497,1.6309749,-0.47544956,-0.75373602,0.4536846,0
2.1667907,-0.56884825,1.0802672,0.55439013,0.14371777,0.81975406,0
1.1476159,-1.7262447,-1.876739,0.68308073,-0.64126998,-0.34953326,0
-0.94334364,-0.1613698,-1.7531883,-0.55439013,-0.14371777,-0.81975406,0
-1.4235587,0.70649612,0.63693535,-0.47544956,-0.75373602,0.4536846,0
-2.2752779,1.3181664,0.29005647,-0.68308073,0.64126998,0.34953326,0
-2.1202285,1.3212817,0.55300426,-0.68308073,0.64126998,0.34953326,0
-1.2412161,0.10553993,-0.12270319,-0.47544956,-0.75373602,0.4536846,0
-1.2891154,-0.42281681,-1.381097,-0.55439013,-0.14371777,-0.81975406,0
-0.20552009,0.4020679,-0.81608146,0.47544956,0.75373602,-0.4536846,0
-0.8454389,0.090254359,0.31083232,-0.47544956,-0.75373602,0.4536846,0
1.7475448,0.17319745,1.2551525,0.55439013,0.14371777,0.81975406,0
1.0263133,0.86675411,1.6471815,0.55439013,0.14371777,0.81975406,0
-0.92595726,-0.3215062,-1.8585026,-0.55439013,-0.14371777,-0.81975406,0
0.69464362,-0.056611001,1.8810652,-0.47544956,-0.75373602,0.4536846,0
-0.17594928,1.6797591,1.3895345,0.47544956,0.75373602,-0.4536846,0
-2.4529815,1.4178106,-0.077251077,-0.68308073,0.64126998,0.34953326,0
0.4458704,1.4603348,1.9978557,0.55439013,0.14371777,0.81975406,0
0.79582489,0.12741876,1.942693,0.55439013,0.14371777,0.81975406,0
1.2393193,-0.96502078,-1.2180583,0.47544956,0.75373602,-0.4536846,0
0.68462175,-2.0111456,-1.9125279,0.68308073,-0.64126998,-0.34953326,0
0.30410081,-1.4892107,-2.3656948,-0.55439013,-0.14371777,-0.81975406,0
-2.4175644,0.23682222,-0.94031799,-0.55439013,-0.14371777,-0.81975406,0
0.78223681,0.28554818,1.8822957,0.55439013,0.14371777,0.81975406,0
0.42067438,-0.96708387,-2.2809367,0.47544956,0.75373602,-0.4536846,0
-1.9358944,1.3647,0.69001067,-0.68308073,0.64126998,0.34953326,0
-1.8308644,1.7769877,0.27127004,-0.68308073,0.64126998,0.34953326,0
-0.033414274,0.19856867,-0.77844661,0.47544956,0.75373602,-0.4536846,0
-1.682058,1.8189714,0.75451529,-0.68308073,0.64126998,0.34953326,0
-0.98294759,1.2184236,2.0167315,-0.47544956,-0.75373602,0.4536846,0
-0.049363196,1.7156659,2.1635599,0.55439013,0.14371777,0.81975406,0
-0.0018147528,0.090974748,-0.9760837,0.47544956,0.75373602,-0.4536846,0
-1.7259701,0.56142199,-1.4166083,-0.55439013,-0.14371777,-0.81975406,0
0.49535805,0.42226645,2.0627184,0.55439013,0.14371777,0.81975406,0
1.277576,0.28231582,1.5164906,0.55439013,0.14371777,0.81975406,0
1.6588264,-1.9581252,-0.21983397,-0.47544956,-0.75373602,0.4536846,0
0.3464343,-0.45100421,0.87795019,-0.47544956,-0.75373602,0.4536846,0
-1.7153723,0.78780043,-1.4276764,-0.55439013,-0.14371777,-0.81975406,0
-0.914024,-0.79694486,-1.2796826,-0.47544956,-0.75373602,0.4536846,0
0.44900054,-2.0076964,-2.4158413,-0.55439013,-0.14371777,-0.81975406,0
1.4609941,-1.610249,-0.021736145,-0.47544956,-0.75373602,0.4536846,0
-1.3892522,1.4872283,-0.16453969,0.47544956,0.75373602,-0.4536846,0
-1.9843093,1.1849616,0.82725799,-0.47544956,-0.75373602,0.4536846,0
-0.5475896,-0.72806334,-1.8593719,-0.55439013,-0.14371777,-0.81975406,0
-1.4659408,1.4410183,1.3927797,-0.68308073,0.64126998,0.34953326,0
-0.61414945,0.23718742,0.98890305,-0.47544956,-0.75373602,0.4536846,0
2.7373662,-1.4377903,0.64491165,0.68308073,-0.64126998,-0.34953326,0
0.83786422,0.47405174,1.8895988,0.55439013,0.14371777,0.81975406,0
-0.25491551,1.9786694,2.2770014,0.55439013,0.14371777,0.81975406,0
1.6985656,-0.064890385,0.75047415,0.47544956,0.75373602,-0.4536846,0
-0.56765109,2.0739217,1.6745843,0.47544956,0.75373602,-0.4536846,0
1.5323498,-1.5638732,0.076737285,-0.47544956,-0.75373602,0.4536846,0
0.47683406,0.80108035,1.8891625,0.55439013,0.14371777,0.81975406,0
-2.481353,1.0150063,-0.93131357,-0.55439013,-0.14371777,-0.81975406,0
1.1751454,0.28622651,0.48923182,0.47544956,0.75373602,-0.4536846,0
2.3003786,-1.4690009,0.32188725,0.68308073,-0.64126998,-0.34953326,0
0.52757394,0.82491547,1.8479953,0.55439013,0.14371777,0.81975406,0
0.25346261,0.94787478,2.0008514,0.55439013,0.14371777,0.81975406,0
0.098687768,0.80346036,2.1299396,0.55439013,0.14371777,0.81975406,0
0.81587696,0.94404179,1.6100811,0.55439013,0.14371777,0.81975406,0
-2.3318834,1.2542562,0.44635844,-0.68308073,0.64126998,0.34953326,0
-0.29268026,-1.4779456,-1.9736472,-0.55439013,-0.14371777,-0.81975406,0
1.297542,0.43478149,1.4924142,0.55439013,0.14371777,0.81975406,0
0.010347784,-0.89243138,-2.3164051,-0.55439013,-0.14371777,-0.81975406,0
-1.8637275,0.74322665,-1.2184328,-0.55439013,-0.14371777,-0.81975406,0
-0.28120995,0.13968965,-1.0019763,0.47544956,0.75373602,-0.4536846,0
0.3045733,1.6317203,1.9138138,0.47544956,0.75373602,-0.4536846,0
1.4265548,-1.4003363,-1.7217236,0.68308073,-0.64126998,-0.34953326,0
-0.56028897,0.030210987,0.38651916,-0.47544956,-0.75373602,0.4536846,0
1.567351,-0.61057842,1.6032958,0.55439013,0.14371777,0.81975406,0
-0.048831925,-1.0339323,-0.77934897,-0.47544956,-0.75373602,0.4536846,0
1.405244,0.52802116,1.2984349,0.55439013,0.14371777,0.81975406,0
-0.22294158,-0.69477278,-2.2749517,-0.55439013,-0.14371777,-0.81975406,0
-2.4601903,1.5077446,-0.38878953,-0.68308073,0.64126998,0.34953326,0
2.1053662,-1.3126055,-0.49476445,0.68308073,-0.64126998,-0.34953326,0
0.62709796,-1.5563252,-2.5517426,-0.55439013,-0.14371777,-0.81975406,0
-1.0183173,1.94408,1.4332445,-0.68308073,0.64126998,0.34953326,0
-0.30609035,-1.6459438,-1.8620238,-0.55439013,-0.14371777,-0.81975406,0
1.1521506,0.18869655,0.60719055,0.47544956,0.75373602,-0.4536846,0
0.94053578,-0.13201004,1.9235479,0.55439013,0.14371777,0.81975406,0
-1.3905882,1.0375757,1.4583105,-0.47544956,-0.75373602,0.4536846,0
2.4271762,-0.98484594,0.89912212,0.55439013,0.14371777,0.81975406,0
2.004549,-1.3406178,-1.0378134,0.68308073,-0.64126998,-0.34953326,0
-2.3412404,0.73784077,-1.0397404,-0.55439013,-0.14371777,-0.81975406,0
-2.685039,0.66648006,-0.70858806,-0.55439013,-0.14371777,-0.81975406,0
0.061557889,1.4576447,2.1907043,0.55439013,0.14371777,0.81975406,0
2.3218389,-1.3481714,-0.12864494,0.68308073,-0.64126998,-0.34953326,0
1.5092847,-1.284844,-1.4451342,0.47544956,0.75373602,-0.4536846,0
0.59570557,1.2320795,1.9115212,0.55439013,0.14371777,0.81975406,0
-1.6472574,0.58468509,0.15051687,-0.47544956,-0.75373602,0.4536846,0
-1.0422997,-0.083521962,-1.6614522,-0.55439013,-0.14371777,-0.81975406,0
-1.4402515,0.019449294,-1.4848876,-0.55439013,-0.14371777,-0.81975406,0
-0.87922472,2.0498223,1.2951977,0.47544956,0.75373602,-0.4536846,0
-0.51983869,1.7034267,1.1328506,0.47544956,0.75373602,-0.4536846,0
-0.12113346,-0.89368469,-0.31942558,-0.47544956,-0.75373602,0.4536846,0
2.5854025,-1.6435659,0.89037579,0.68308073,-0.64126998,-0.34953326,0
-2.6242976,1.0977442,-0.90946811,-0.55439013,-0.14371777,-0.81975406,0
-0.038058698,-0.56174648,-2.2413881,-0.55439013,-0.14371777,-0.81975406,0
-1.9268094,1.6298106,0.28913212,-0.68308073,0.64126998,0.34953326,0
0.21148616,0.70141321,2.0826018,0.55439013,0.14371777,0.81975406,0
-2.0582938,0.15049559,-1.0730733,-0.55439013,-0.14371777,-0.81975406,0
1.8426307,-1.8967489,-0.33283257,0.68308073,-0.64126998,-0.34953326,0
1.9639502,-1.7504416,0.18100035,0.68308073,-0.64126998,-0.34953326,0
1.5729861,-0.2619791,1.3902545,0.55439013,0.14371777,0.81975406,0
-0.62403744,1.8658788,1.1868092,0.47544956,0.75373602,-0.4536846,0
1.4234463,-1.5546353,-1.5022358,0.68308073,-0.64126998,-0.34953326,0
2.1935027,-0.69766623,-0.038836718,0.47544956,0.75373602,-0.4536846,0
-1.8538036,0.23326111,-0.60730249,-0.47544956,-0.75373602,0.4536846,0
1.8583319,-1.4286705,-0.84232295,0.68308073,-0.64126998,-0.34953326,0
-0.41924942,-0.75138903,-2.0523281,-0.55439013,-0.14371777,-0.81975406,0
-1.0587229,-0.55517435,-1.1357157,-0.47544956,-0.75373602,0.4536846,0
0.56243718,-1.7477914,-1.2539788,-0.47544956,-0.75373602,0.4536846,0
-0.22810736,1.9412473,1.9485106,0.47544956,0.75373602,-0.4536846,0
1.6178286,-0.23103121,0.2238071,0.47544956,0.75373602,-0.4536846,0
2.8154471,-1.1494384,0.5722245,0.68308073,-0.64126998,-0.34953326,0
-1.2006977,1.3023305,-0.37036711,0.47544956,0.75373602,-0.4536846,0
0.76254046,-1.40864,-2.5371194,0.47544956,0.75373602,-0.4536846,0
0.76882714,0.65365332,1.8361056,0.55439013,0.14371777,0.81975406,0
-0.80776262,1.9254408,1.8422128,-0.68308073,0.64126998,0.34953326,0
2.3259187,-1.2532669,1.1052775,0.55439013,0.14371777,0.81975406,0
0.049800396,0.78393012,2.1638258,0.55439013,0.14371777,0.81975406,0
0.57690889,0.79172242,1.9998361,0.55439013,0.14371777,0.81975406,0
-1.1035529,-0.70730996,-1.6714549,-0.55439013,-0.14371777,-0.81975406,0
-1.909664,0.38008314,-0.40694147,-0.47544956,-0.75373602,0.4536846,0
-1.944828,0.66939235,-1.1289642,-0.55439013,-0.14371777,-0.81975406,0
-0.4628768,1.731729,2.3610735,0.55439013,0.14371777,0.81975406,0
1.2527062,-2.0317369,-0.98615944,0.68308073,-0.64126998,-0.34953326,0
0.4452087,0.98781133,0.85493177,0.47544956,0.75373602,-0.4536846,0
-0.84462118,1.8518353,2.0316851,-0.68308073,0.64126998,0.34953326,0
1.3947411,-2.0411758,-0.82804191,0.68308073,-0.64126998,-0.34953326,0
0.1383464,1.3763511,1.1364176,0.47544956,0.75373602,-0.4536846,0
2.141027,-1.321184,-0.26687729,0.68308073,-0.64126998,-0.34953326,0
-0.76483393,1.0956285,0.047731638,0.47544956,0.75373602,-0.4536846,0
0.84827584,-0.377379,1.4128333,-0.47544956,-0.75373602,0.4536846,0
-2.0373933,1.5121835,0.60628378,-0.68308073,0.64126998,0.34953326,0
-0.27723205,0.28253889,1.372492,-0.47544956,-0.75373602,0.4536846,0
-0.47716838,-0.9315058,-1.9120365,-0.55439013,-0.14371777,-0.81975406,0
-1.9805615,1.7252961,-0.11275828,-0.68308073,0.64126998,0.34953326,0
2.6978226,-1.4885144,0.86174971,0.55439013,0.14371777,0.81975406,0
-0.0058174729,1.0455339,2.3669226,0.55439013,0.14371777,0.81975406,0
-0.014298245,1.0882818,0.76414156,0.47544956,0.75373602,-0.4536846,0
0.11807993,0.019869059,-1.1474515,0.47544956,0.75373602,-0.4536846,0
1.9247333,-0.4274689,1.2685349,0.55439013,0.14371777,0.81975406,0
2.2899804,-1.3880039,1.2153555,0.55439013,0.14371777,0.81975406,0
0.37822306,1.4880371,1.8033812,0.55439013,0.14371777,0.81975406,0
1.9691765,-0.41159791,1.2084118,0.55439013,0.14371777,0.81975406,0
-2.1982584,0.73775053,-0.01263535,-0.47544956,-0.75373602,0.4536846,0
1.433865,-1.7539201,-1.1504467,0.68308073,-0.64126998,-0.34953326,0
-0.75175476,1.9383835,2.3640721,-0.68308073,0.64126998,0.34953326,0
-0.30293924,0.93361175,2.4822805,0.55439013,0.14371777,0.81975406,0
-0.73845369,1.7515328,2.4690704,-0.68308073,0.64126998,0.34953326,0
1.0944836,-1.7566996,-1.9438186,0.68308073,-0.64126998,-0.34953326,0
-1.8969243,-0.11732653,-1.2354044,-0.55439013,-0.14371777,-0.81975406,0
-1.9457963,1.711699,0.24167347,-0.68308073,0.64126998,0.34953326,0
-0.58653283,0.55175889,-0.90773225,0.47544956,0.75373602,-0.4536846,0
0.97854137,0.73730671,1.7178736,0.55439013,0.14371777,0.81975406,0
0.74724275,-1.8938551,-2.214293,0.68308073,-0.64126998,-0.34953326,0
-1.6655781,1.7676835,0.90279377,-0.68308073,0.64126998,0.34953326,0
-0.39390218,-1.2305417,-1.2202456,-0.47544956,-0.75373602,0.4536846,0
0.6874761,-2.0636396,-1.8638734,0.68308073,-0.64126998,-0.34953326,0
-0.88491011,-0.17739266,0.03288275,-0.47544956,-0.75373602,0.4536846,0
-1.8874863,1.7402786,0.36190772,-0.68308073,0.64126998,0.34953326,0
-2.1923287,1.2650081,0.69695807,-0.68308073,0.64126998,0.34953326,0
-1.0301709,1.9216037,1.3943393,-0.68308073,0.64126998,0.34953326,0
2.4545946,-1.6365433,0.46131885,0.68308073,-0.64126998,-0.34953326,0
-1.3551843,-0.25654334,-1.4171364,-0.55439013,-0.14371777,-0.81975406,0
-1.0665324,1.4372299,2.3534763,-0.68308073,0.64126998,0.34953326,0
-1.977149,0.75692195,-1.3327837,-0.55439013,-0.14371777,-0.81975406,0
-0.39097473,0.80060941,-0.37427303,0.47544956,0.75373602,-0.4536846,0
1.1717944,-1.6485496,-1.6361712,0.68308073,-0.64126998,-0.34953326,0
1.9013522,-0.24978347,0.44170022,0.47544956,0.75373602,-0.4536846,0
-0.15136835,-1.6439168,-1.716285,-0.47544956,-0.75373602,0.4536846,0
-2.3367,1.1340175,0.3548429,-0.68308073,0.64126998,0.34953326,0
-1.7174795,-0.16759762,-1.2908111,-0.55439013,-0.14371777,-0.81975406,0
-2.1174259,1.0683053,-1.1966913,-0.55439013,-0.14371777,-0.81975406,0
-0.64776266,-0.85195267,-1.8296514,-0.55439013,-0.14371777,-0.81975406,0
-2.5530348,1.4809883,-1.0724683,-0.55439013,-0.14371777,-0.81975406,0
1.84629,-1.455312,-0.61088884,0.68308073,-0.64126998,-0.34953326,0
0.32929468,-0.89165527,-2.19396,0.47544956,0.75373602,-0.4536846,0
1.3484868,-1.9179494,-1.1525923,0.68308073,-0.64126998,-0.34953326,0
1.1100259,-1.5516267,-1.878499,0.68308073,-0.64126998,-0.34953326,0
-1.0769436,1.9910008,1.3248352,-0.68308073,0.64126998,0.34953326,0
-2.7931726,0.93031335,-0.74427593,-0.55439013,-0.14371777,-0.81975406,0
-1.9728421,1.549274,0.6227175,-0.68308073,0.64126998,0.34953326,0
1.8815883,-0.66274798,-0.20068944,0.47544956,0.75373602,-0.4536846,0
1.1784383,-1.2027363,0.43027282,-0.47544956,-0.75373602,0.4536846,0
2.4722941,-1.2851033,0.045711756,0.68308073,-0.64126998,-0.34953326,0
0.91373289,-1.7164896,-2.2946405,0.68308073,-0.64126998,-0.34953326,0
-1.9162152,0.78569865,-1.2536333,-0.55439013,-0.14371777,-0.81975406,0
1.9227219,-0.86213833,1.3080003,0.55439013,0.14371777,0.81975406,0
-0.49306649,-1.0385454,-1.3124197,-0.47544956,-0.75373602,0.4536846,0
-1.5138052,1.6069516,1.3697993,-0.68308073,0.64126998,0.34953326,0
-0.040386736,0.84559822,2.3922677,0.55439013,0.14371777,0.81975406,0
1.0203533,-2.058804,-1.4683425,0.68308073,-0.64126998,-0.34953326,0
0.051512539,0.040656328,-1.1299734,0.47544956,0.75373602,-0.4536846,0
-0.40143687,-0.42819008,0.073341489,-0.47544956,-0.75373602,0.4536846,0
0.74783272,-2.171088,-1.8729596,0.68308073,-0.64126998,-0.34953326,0
-1.042058,1.6690034,1.9759309,-0.68308073,0.64126998,0.34953326,0
0.56355798,0.92933226,0.92636889,0.47544956,0.75373602,-0.4536846,0
-1.6632545,0.27829832,-0.35764456,-0.47544956,-0.75373602,0.4536846,0
0.92879951,-2.0998313,-1.6135408,0.68308073,-0.64126998,-0.34953326,0
-0.81989831,-0.79065299,-1.7189592,-0.55439013,-0.14371777,-0.81975406,0
-0.56455106,1.7078342,2.4401572,0.55439013,0.14371777,0.81975406,0
1.2899994,-0.3732807,1.5439696,0.55439013,0.14371777,0.81975406,0
-1.7942789,1.4831939,0.78872585,-0.68308073,0.64126998,0.34953326,0
-1.0699437,-0.31629121,-1.5578418,-0.55439013,-0.14371777,-0.81975406,0
1.1623119,-1.6227171,-1.8738465,0.68308073,-0.64126998,-0.34953326,0
-1.3570479,1.179271,1.499866,-0.47544956,-0.75373602,0.4536846,0
-1.9243882,1.6194179,0.30077684,-0.68308073,0.64126998,0.34953326,0
-2.5517154,1.5446906,-0.65715563,-0.68308073,0.64126998,0.34953326,0
-2.1430907,0.96999878,0.57567811,-0.47544956,-0.75373602,0.4536846,0
-1.3492002,0.49371499,0.70512831,-0.47544956,-0.75373602,0.4536846,0
-0.14206982,-0.86306238,-2.2019377,-0.55439013,-0.14371777,-0.81975406,0
1.0367478,0.36323917,0.60522205,0.47544956,0.75373602,-0.4536846,0
-1.8767101,1.8301084,-0.017022014,0.47544956,0.75373602,-0.4536846,0
-0.58232331,2.0164564,2.0305517,-0.68308073,0.64126998,0.34953326,0
-1.1048973,-0.68228388,-1.5486711,-0.55439013,-0.14371777,-0.81975406,0
-0.37061739,-0.80059803,-2.0511951,-0.55439013,-0.14371777,-0.81975406,0
-0.99542344,-0.42494726,-0.8241998,-0.47544956,-0.75373602,0.4536846,0
1.8338361,0.0090831518,0.77015787,0.47544956,0.75373602,-0.4536846,0
0.43578088,1.1689932,1.4511205,0.47544956,0.75373602,-0.4536846,0
0.22917831,1.6166723,1.7991493,0.47544956,0.75373602,-0.4536846,0
-1.7254767,0.54313171,-1.4084427,-0.55439013,-0.14371777,-0.81975406,0
1.9715555,-1.4376781,0.62531346,-0.47544956,-0.75373602,0.4536846,0
-0.87301683,2.0740204,1.6476301,-0.68308073,0.64126998,0.34953326,0
-2.8947318,1.2134156,-0.68389916,-0.68308073,0.64126998,0.34953326,0
-1.027058,-0.46391785,-0.82914054,-0.47544956,-0.75373602,0.4536846,0
-0.04654938,1.5349579,2.1817899,0.55439013,0.14371777,0.81975406,0
-2.146904,1.8071179,-0.49280679,0.47544956,0.75373602,-0.4536846,0
0.7594977,0.53367043,1.7578294,0.55439013,0.14371777,0.81975406,0
0.17473376,-0.53895354,-1.837759,0.47544956,0.75373602,-0.4536846,0
-1.6659915,1.5528493,0.88446319,-0.68308073,0.64126998,0.34953326,0
-0.64760035,1.2523607,2.5449486,-0.47544956,-0.75373602,0.4536846,0
2.2776582,-0.70890218,0.9838953,0.55439013,0.14371777,0.81975406,0
1.4109924,-1.6080484,-1.2043854,0.68308073,-0.64126998,-0.34953326,0
0.70344698,-1.8982733,-1.2764773,-0.47544956,-0.75373602,0.4536846,0
2.1425738,-1.187592,1.1284893,0.55439013,0.14371777,0.81975406,0
-1.2244039,1.7704964,1.6839676,-0.68308073,0.64126998,0.34953326,0
1.3432672,-1.6734215,-1.4326146,0.68308073,-0.64126998,-0.34953326,0
-2.4264247,1.3114265,-1.1328564,-0.55439013,-0.14371777,-0.81975406,0
-1.2544863,1.8953464,1.0420488,-0.68308073,0.64126998,0.34953326,0
-0.37451816,-0.68352312,-1.9893472,-0.55439013,-0.14371777,-0.81975406,0
1.1997651,-0.015546918,1.659182,0.55439013,0.14371777,0.81975406,0
0.86013049,-1.6645794,-2.4648542,0.68308073,-0.64126998,-0.34953326,0
0.32257903,-0.60772061,-1.6680639,0.47544956,0.75373602,-0.4536846,0
-2.2606199,1.4039803,0.11361659,-0.68308073,0.64126998,0.34953326,0
2.7772484,-0.66237128,0.58861864,0.55439013,0.14371777,0.81975406,0
-0.31778139,-1.5866306,-1.9964523,-0.55439013,-0.14371777,-0.81975406,0
-0.31568366,1.2082146,2.4341583,0.55439013,0.14371777,0.81975406,0
-1.7652266,0.26443046,-1.3812795,-0.55439013,-0.14371777,-0.81975406,0
0.055600107,-1.2332027,-2.2748175,-0.55439013,-0.14371777,-0.81975406,0
-0.95651293,-0.70493984,-0.96484977,-0.47544956,-0.75373602,0.4536846,0
0.61102211,-1.9377781,-2.1370764,0.68308073,-0.64126998,-0.34953326,0
-2.8199701,1.1090019,-0.10745764,-0.68308073,0.64126998,0.34953326,0
-0.78026503,-0.55341274,-1.7262576,-0.55439013,-0.14371777,-0.81975406,0
-2.371213,0.94578254,-0.88931519,-0.55439013,-0.14371777,-0.81975406,0
1.3066719,-0.65001047,1.2513106,-0.47544956,-0.75373602,0.4536846,0
2.2152689,-1.4038372,-0.48888111,0.68308073,-0.64126998,-0.34953326,0
1.5853786,-1.8118075,-0.5700525,0.68308073,-0.64126998,-0.34953326,0
1.9214891,-0.49560761,1.3391905,0.55439013,0.14371777,0.81975406,0
-2.6674578,1.2621402,-0.39174247,-0.68308073,0.64126998,0.34953326,0
0.81188798,-0.08238437,-0.37057799,0.47544956,0.75373602,-0.4536846,0
0.054348171,1.478375,2.2328279,0.55439013,0.14371777,0.81975406,0
2.714442,-1.0464687,0.69895202,0.55439013,0.14371777,0.81975406,0
-0.020610556,1.4313928,1.1406431,0.47544956,0.75373602,-0.4536846,0
0.0092345476,-0.92098969,-2.2901559,-0.55439013,-0.14371777,-0.81975406,0
-2.2977986,0.66941011,-1.0482986,-0.55439013,-0.14371777,-0.81975406,0
-2.8663087,0.96104598,-0.70981681,-0.55439013,-0.14371777,-0.81975406,0
-0.57235378,2.0629783,2.0766387,-0.68308073,0.64126998,0.34953326,0
-0.46940842,2.223881,2.2662797,0.47544956,0.75373602,-0.4536846,0
-1.7183952,0.11002281,-0.57459795,-0.47544956,-0.75373602,0.4536846,0
1.5229769,-1.717398,-0.33036017,-0.47544956,-0.75373602,0.4536846,0
1.112922,-1.8323653,-0.87801778,-0.47544956,-0.75373602,0.4536846,0
-0.92504638,1.7364346,0.81991065,0.47544956,0.75373602,-0.4536846,0
-1.0366232,1.9619085,1.2441467,-0.68308073,0.64126998,0.34953326,0
2.3448105,-0.57567239,0.96435499,0.55439013,0.14371777,0.81975406,0
-0.5605315,-0.52495492,-2.018713,-0.55439013,-0.14371777,-0.81975406,0
-1.7936943,-0.059740692,-1.0117853,-0.47544956,-0.75373602,0.4536846,0
-0.8644293,2.0902452,1.3998346,0.47544956,0.75373602,-0.4536846,0
2.0979147,-1.6069939,0.11017394,0.68308073,-0.64126998,-0.34953326,0
2.023829,-1.3858099,-0.46024978,0.68308073,-0.64126998,-0.34953326,0
-0.38323024,0.88081533,-0.1517185,0.47544956,0.75373602,-0.4536846,0
-0.35504279,2.1522474,2.2382674,0.55439013,0.14371777,0.81975406,0
1.8173473,-1.5845749,-0.87510037,0.68308073,-0.64126998,-0.34953326,0
-2.4622998,1.2665744,-1.0533299,-0.55439013,-0.14371777,-0.81975406,0
0.49958849,-0.59943283,0.51658028,-0.47544956,-0.75373602,0.4536846,0
0.52737838,-1.5329146,-2.5745244,-0.55439013,-0.14371777,-0.81975406,0
-1.994997,0.60133857,-1.2705668,-0.55439013,-0.14371777,-0.81975406,0
-0.5998714,-0.40521067,0.0083676726,-0.47544956,-0.75373602,0.4536846,0
-0.52864343,1.3588934,2.5846376,0.55439013,0.14371777,0.81975406,0
1.959224,-0.47596389,1.2530869,0.55439013,0.14371777,0.81975406,0
0.69842583,-1.7588274,-2.4868867,0.68308073,-0.64126998,-0.34953326,0
1.6997302,-1.7197901,-0.43404698,0.68308073,-0.64126998,-0.34953326,0
-0.41045022,-0.73328131,-2.0350151,-0.55439013,-0.14371777,-0.81975406,0
1.3581868,0.58374846,1.4468027,0.55439013,0.14371777,0.81975406,0
1.6010797,0.28018457,1.2969754,0.55439013,0.14371777,0.81975406,0
2.7114353,-1.2523504,0.23262763,0.68308073,-0.64126998,-0.34953326,0
-1.8428311,1.6578417,0.48233593,-0.68308073,0.64126998,0.34953326,0
-0.14076847,-1.4800216,-2.1700811,-0.55439013,-0.14371777,-0.81975406,0
0.13468535,-0.93403989,-0.11134341,-0.47544956,-0.75373602,0.4536846,0
-2.0917792,1.6505604,-0.064091921,-0.68308073,0.64126998,0.34953326,0
1.9213657,-0.87493551,1.3655112,0.55439013,0.14371777,0.81975406,0
-0.19807142,1.0856292,2.4123921,0.55439013,0.14371777,0.81975406,0
2.3223941,-1.5092599,-0.045337796,0.68308073,-0.64126998,-0.34953326,0
-1.5259328,-0.070305347,-1.5155995,-0.55439013,-0.14371777,-0.81975406,0
1.3525895,-1.4151843,-1.8359857,0.68308073,-0.64126998,-0.34953326,0
1.8564948,-1.4597898,-1.0729069,0.68308073,-0.64126998,-0.34953326,0
0.44327992,-1.6800442,-1.3743283,-0.47544956,-0.75373602,0.4536846,0
-2.2654498,1.1480929,-1.2251617,-0.55439013,-0.14371777,-0.81975406,0
2.0113804,-0.28950673,0.37503743,0.47544956,0.75373602,-0.4536846,0
-2.2999825,1.0219095,-1.1095091,-0.55439013,-0.14371777,-0.81975406,0
-1.9861268,0.63517839,0.113873,-0.47544956,-0.75373602,0.4536846,0
-2.806246,1.2065824,-0.69936347,-0.68308073,0.64126998,0.34953326,0
0.20217624,-1.8023652,-1.5267509,-0.47544956,-0.75373602,0.4536846,0
-0.012339115,-1.5676248,-2.0482938,-0.55439013,-0.14371777,-0.81975406,0
-0.83850074,0.21696967,0.45211512,-0.47544956,-0.75373602,0.4536846,0
2.1365242,-1.60238,0.071320653,0.68308073,-0.64126998,-0.34953326,0
-1.9199762,1.629191,0.25821221,-0.68308073,0.64126998,0.34953326,0
0.13911505,-0.86080271,-0.14073524,-0.47544956,-0.75373602,0.4536846,0
-2.5747929,0.49857068,-0.89335871,-0.55439013,-0.14371777,-0.81975406,0
-1.4019506,1.5248688,1.4482042,-0.68308073,0.64126998,0.34953326,0
-0.49026501,2.04072,1.7449248,0.47544956,0.75373602,-0.4536846,0
1.7260804,-1.4364195,-1.3316886,0.68308073,-0.64126998,-0.34953326,0
-1.4463514,-0.22225329,-0.89182144,-0.47544956,-0.75373602,0.4536846,0
1.9662328,-1.7546151,-0.2306962,0.68308073,-0.64126998,-0.34953326,0
-0.58734626,1.8827339,1.4121637,0.47544956,0.75373602,-0.4536846,0
1.3437529,-1.5050917,-1.8019927,0.68308073,-0.64126998,-0.34953326,0
2.8958416,-1.0802858,0.49600351,0.68308073,-0.64126998,-0.34953326,0
-2.5113072,1.4213604,-0.42493737,-0.68308073,0.64126998,0.34953326,0
1.5216813,-1.7305204,0.019474268,-0.47544956,-0.75373602,0.4536846,0
-0.74333286,-0.42121544,-0.18563567,-0.47544956,-0.75373602,0.4536846,0
1.5380095,-0.70975804,1.3755932,-0.47544956,-0.75373602,0.4536846,0
-1.1694944,-0.38706768,-0.68817806,-0.47544956,-0.75373602,0.4536846,0
2.7325754,-1.0546751,0.79815334,0.55439013,0.14371777,0.81975406,0
-1.5695096,1.9517952,0.73826957,-0.68308073,0.64126998,0.34953326,0
0.053062439,-0.68769932,-2.1212432,0.47544956,0.75373602,-0.4536846,0
1.2223761,-0.13574129,-0.16228038,0.47544956,0.75373602,-0.4536846,0
-0.09325926,-0.82910466,-0.4924871,-0.47544956,-0.75373602,0.4536846,0
-1.3516845,1.6167392,1.7614963,-0.68308073,0.64126998,0.34953326,0
0.16265547,-0.12113273,-1.0545604,0.47544956,0.75373602,-0.4536846,0
0.71103251,-2.1009498,-1.9262687,0.68308073,-0.64126998,-0.34953326,0
2.5224288,-1.5709567,0.86029106,0.68308073,-0.64126998,-0.34953326,0
-0.89238781,1.731926,2.4954653,-0.68308073,0.64126998,0.34953326,0
-0.28906789,1.0318763,0.34032655,0.47544956,0.75373602,-0.4536846,0
-1.9142559,1.3952645,0.89939058,-0.68308073,0.64126998,0.34953326,0
1.1094942,-1.6835272,-2.0307174,0.68308073,-0.64126998,-0.34953326,0
2.0248852,-0.48387167,1.1044844,0.55439013,0.14371777,0.81975406,0
-2.1135349,0.65215522,-0.024864674,-0.47544956,-0.75373602,0.4536846,0
1.0553955,-0.46098399,-0.84641403,0.47544956,0.75373602,-0.4536846,0
0.27728337,-1.2614748,-2.475975,-0.55439013,-0.14371777,-0.81975406,0
0.78257769,1.2334301,1.7017388,0.55439013,0.14371777,0.81975406,0
-0.89053434,1.8473947,2.227273,-0.68308073,0.64126998,0.34953326,0
1.3611693,-0.96720761,-1.3681644,0.47544956,0.75373602,-0.4536846,0
3.039005,-0.80085433,0.56566858,0.55439013,0.14371777,0.81975406,0
0.94983655,0.72401702,1.2586175,0.47544956,0.75373602,-0.4536846,0
-0.040857673,1.8846279,2.1612701,0.55439013,0.14371777,0.81975406,0
-0.54901582,0.33950508,-1.0121311,0.47544956,0.75373602,-0.4536846,0
-2.5276794,1.2563659,0.083359003,-0.68308073,0.64126998,0.34953326,0
-0.025914848,1.1475954,2.2670114,0.55439013,0.14371777,0.81975406,0
1.6035684,-1.41901,-1.2359631,0.68308073,-0.64126998,-0.34953326,0
2.538018,-1.2964332,0.015136242,0.68308073,-0.64126998,-0.34953326,0
1.4812686,0.53146195,1.4029708,0.55439013,0.14371777,0.81975406,0
-0.20974022,1.8889436,2.2759433,0.55439013,0.14371777,0.81975406,0
-0.52900672,-1.1240665,-1.9556109,-0.55439013,-0.14371777,-0.81975406,0
-0.030754268,0.88593698,2.3432889,0.55439013,0.14371777,0.81975406,0
-1.0168695,-0.50406456,-1.734145,-0.55439013,-0.14371777,-0.81975406,0
-2.023632,0.25838387,-1.0268701,-0.55439013,-0.14371777,-0.81975406,0
1.566612,-0.20394367,1.4177442,0.55439013,0.14371777,0.81975406,0
-1.6109306,1.472667,1.0666754,-0.68308073,0.64126998,0.34953326,0
2.4953694,-0.73031288,0.96309924,0.55439013,0.14371777,0.81975406,0
-0.96625614,1.7015533,2.1563606,-0.68308073,0.64126998,0.34953326,0
-0.97022831,1.3969607,0.2727679,0.47544956,0.75373602,-0.4536846,0
2.5974312,-1.4625835,0.60537052,0.68308073,-0.64126998,-0.34953326,0
2.8580403,-0.89825678,0.75670856,0.55439013,0.14371777,0.81975406,0
-1.6144315,1.6866783,1.1244392,-0.68308073,0.64126998,0.34953326,0
-1.7381732,0.85581291,-1.4282243,-0.55439013,-0.14371777,-0.81975406,0
-1.6766756,1.4271431,1.3185235,-0.68308073,0.64126998,0.34953326,0
0.91195357,-1.6853242,-2.0048473,0.68308073,-0.64126998,-0.34953326,0
-1.4153937,1.147108,-0.51080209,0.47544956,0.75373602,-0.4536846,0
-2.730664,0.69871378,-0.63556218,-0.55439013,-0.14371777,-0.81975406,0
1.8548663,-0.78028202,1.3100604,0.55439013,0.14371777,0.81975406,0
-0.59128058,0.15410483,0.79564798,-0.47544956,-0.75373602,0.4536846,0
-0.50691354,1.1088475,2.6268654,0.55439013,0.14371777,0.81975406,0
-1.6638823,1.8150797,0.8103168,-0.68308073,0.64126998,0.34953326,0
1.1857944,-2.138118,-1.0689461,-0.47544956,-0.75373602,0.4536846,0
1.562517,0.13779861,0.82985026,0.47544956,0.75373602,-0.4536846,0
0.14228798,0.56912118,0.16441448,0.47544956,0.75373602,-0.4536846,0
-2.1119931,1.8821852,-0.18501711,-0.68308073,0.64126998,0.34953326,0
1.3605739,0.12867898,1.3764416,0.55439013,0.14371777,0.81975406,0
-0.19164686,1.5087786,1.2195487,0.47544956,0.75373602,-0.4536846,0
-0.22643939,1.6429138,2.289855,0.55439013,0.14371777,0.81975406,0
-1.6331482,1.4104636,-0.36557877,0.47544956,0.75373602,-0.4536846,0
-0.1946314,-1.6425512,-1.8975517,-0.47544956,-0.75373602,0.4536846,0
-1.3434322,0.39843655,-1.6885153,-0.55439013,-0.14371777,-0.81975406,0
-1.1789267,1.7174776,1.8726141,-0.68308073,0.64126998,0.34953326,0
2.3124025,-1.6398376,0.18584061,0.68308073,-0.64126998,-0.34953326,0
-1.4480214,1.6429292,1.399093,-0.68308073,0.64126998,0.34953326,0
-1.6921543,1.6532321,0.70981419,-0.68308073,0.64126998,0.34953326,0
2.383426,-0.5172807,0.7098031,0.47544956,0.75373602,-0.4536846,0
0.045355797,1.4284551,2.1037798,0.55439013,0.14371777,0.81975406,0
1.8522303,-1.5951629,-0.55615091,0.68308073,-0.64126998,-0.34953326,0
1.6795589,-1.7830257,-0.4106946,0.68308073,-0.64126998,-0.34953326,0
0.3730503,-1.1096343,-0.18702304,-0.47544956,-0.75373602,0.4536846,0
1.2436011,0.56758189,1.5726602,0.55439013,0.14371777,0.81975406,0
1.536764,-0.5397473,1.5343535,0.55439013,0.14371777,0.81975406,0
1.3556957,-1.7685647,-0.59675109,-0.47544956,-0.75373602,0.4536846,0
-1.7261323,1.6565036,0.80161452,-0.68308073,0.64126998,0.34953326,0
0.1262804,-1.9485955,-2.1886084,-0.55439013,-0.14371777,-0.81975406,0
-2.8806925,1.0449412,-0.51194298,-0.68308073,0.64126998,0.34953326,0
0.28458118,-0.45628142,0.71630442,-0.47544956,-0.75373602,0.4536846,0
0.72261858,-0.17282152,-0.44038337,0.47544956,0.75373602,-0.4536846,0
0.12412524,0.86488593,2.227813,0.55439013,0.14371777,0.81975406,0
0.77943408,-0.79991102,0.71546018,-0.47544956,-0.75373602,0.4536846,0
-2.1337097,0.43799624,-1.0492584,-0.55439013,-0.14371777,-0.81975406,0
2.4753928,-1.5431646,0.57713068,0.68308073,-0.64126998,-0.34953326,0
-2.2052488,1.1761601,0.51304281,-0.68308073,0.64126998,0.34953326,0
-0.12963875,-0.66655177,-0.35227621,-0.47544956,-0.75373602,0.4536846,0
-1.157486,0.79254937,-0.9891746,0.47544956,0.75373602,-0.4536846,0
2.5757399,-0.46109837,0.78951347,0.47544956,0.75373602,-0.4536846,0
-1.2527336,0.62545365,0.68691075,-0.47544956,-0.75373602,0.4536846,0
-1.0575142,0.27520859,-1.7786813,0.47544956,0.75373602,-0.4536846,0
-1.9770372,1.4100432,0.56239629,-0.68308073,0.64126998,0.34953326,0
-1.1910449,1.8173454,1.7303071,-0.68308073,0.64126998,0.34953326,0
-0.92657518,2.0571363,1.5723045,-0.68308073,0.64126998,0.34953326,0
-0.61847794,1.9873507,2.4348533,0.55439013,0.14371777,0.81975406,0
-0.030555904,1.2094531,2.3541293,0.55439013,0.14371777,0.81975406,0
-2.1850955,0.26902074,-0.91365123,-0.47544956,-0.75373602,0.4536846,0
0.77186084,0.31880784,0.39078653,0.47544956,0.75373602,-0.4536846,0
1.5721184,-0.72175241,-0.87051082,0.47544956,0.75373602,-0.4536846,0
-0.18341708,-1.338625,-2.1687126,-0.55439013,-0.14371777,-0.81975406,0
0.72833288,1.3314717,1.7837242,0.55439013,0.14371777,0.81975406,0
0.9901017,-0.79788786,0.66855818,-0.47544956,-0.75373602,0.4536846,0
-2.2048705,0.7213099,-0.22853351,-0.47544956,-0.75373602,0.4536846,0
2.2048111,-1.452484,-0.15330529,0.68308073,-0.64126998,-0.34953326,0
-1.5192547,1.9310393,0.63289475,-0.68308073,0.64126998,0.34953326,0
0.15410143,-0.5280574,0.43854362,-0.47544956,-0.75373602,0.4536846,0
0.29090983,-1.5980124,-2.4653234,-0.55439013,-0.14371777,-0.81975406,0
-2.7188334,0.98292845,-0.20153975,-0.68308073,0.64126998,0.34953326,0
-1.008496,1.8966675,1.5038477,-0.68308073,0.64126998,0.34953326,0
-0.76643473,0.10600497,0.32770061,-0.47544956,-0.75373602,0.4536846,0
2.0177612,-1.3806353,-0.81220829,0.68308073,-0.64126998,-0.34953326,0
-2.0008478,0.95294696,-1.2369601,-0.55439013,-0.14371777,-0.81975406,0
1.0740017,-0.23324871,1.7679212,0.55439013,0.14371777,0.81975406,0
0.37084666,0.050526559,-0.50306046,0.47544956,0.75373602,-0.4536846,0
1.6697652,-1.8330756,-0.7820338,0.68308073,-0.64126998,-0.34953326,0
-1.7732841,1.7113087,0.64197516,-0.68308073,0.64126998,0.34953326,0
1.2135137,-0.23518628,1.6585777,0.55439013,0.14371777,0.81975406,0
-0.469138,-1.0878787,-1.2856605,-0.47544956,-0.75373602,0.4536846,0
1.5376027,-1.2154511,-1.6358651,0.47544956,0.75373602,-0.4536846,0
-0.9252072,1.1604394,-0.20081776,0.47544956,0.75373602,-0.4536846,0
-2.010236,1.6725693,-0.46359444,0.47544956,0.75373602,-0.4536846,0
-2.1776004,1.5990595,-0.11985791,-0.68308073,0.64126998,0.34953326,0
1.8891077,-1.5691236,-0.75237226,0.68308073,-0.64126998,-0.34953326,0
-1.2754943,1.6575698,1.5212425,-0.68308073,0.64126998,0.34953326,0
0.95150459,-1.702125,-2.2607009,0.68308073,-0.64126998,-0.34953326,0
0.9106766,0.52997708,0.62531674,0.47544956,0.75373602,-0.4536846,0
1.7351497,-0.37773675,1.4457052,0.55439013,0.14371777,0.81975406,0
-1.3388655,0.31054229,-1.5107747,-0.55439013,-0.14371777,-0.81975406,0
0.41284651,-1.3798676,-2.4610157,-0.55439013,-0.14371777,-0.81975406,0
-0.33792549,-0.99904138,-2.0098081,-0.55439013,-0.14371777,-0.81975406,0
-1.7403316,1.4745829,0.86874819,-0.68308073,0.64126998,0.34953326,0
0.93390661,0.49940324,1.8099263,0.55439013,0.14371777,0.81975406,0
0.12394851,1.5925221,2.0925264,0.55439013,0.14371777,0.81975406,0
2.086642,-1.1748812,-0.67760694,0.68308073,-0.64126998,-0.34953326,0
0.81388146,-1.9541198,-2.2070727,0.68308073,-0.64126998,-0.34953326,0
0.80718821,0.66858864,1.8077809,0.55439013,0.14371777,0.81975406,0
1.8666762,-1.6345285,-0.34474444,0.68308073,-0.64126998,-0.34953326,0
-1.8243918,1.5020378,0.64676952,-0.68308073,0.64126998,0.34953326,0
-0.19870126,0.75039923,2.3383517,-0.47544956,-0.75373602,0.4536846,0
2.4214609,-1.0985116,1.0811175,0.55439013,0.14371777,0.81975406,0
0.99272746,-0.29579425,1.6142781,-0.47544956,-0.75373602,0.4536846,0
1.3555833,-1.8344588,-1.0384283,0.68308073,-0.64126998,-0.34953326,0
0.98513782,-1.0505925,-1.8317105,0.47544956,0.75373602,-0.4536846,0
2.4047656,-1.2786975,1.158193,0.55439013,0.14371777,0.81975406,0
0.85466444,-1.9777141,-2.0219162,0.68308073,-0.64126998,-0.34953326,0
2.3570638,-0.41725859,0.67473,0.47544956,0.75373602,-0.4536846,0
2.1039157,-0.51238513,0.24841917,0.47544956,0.75373602,-0.4536846,0
2.6017962,-1.4684513,0.75904506,0.68308073,-0.64126998,-0.34953326,0
-0.34705669,1.0812457,2.3745179,0.55439013,0.14371777,0.81975406,0
-2.4685645,1.5152344,-0.34439135,-0.68308073,0.64126998,0.34953326,0
0.88004112,-1.793249,-2.3445544,0.68308073,-0.64126998,-0.34953326,0
-2.4057605,1.0606122,0.43063533,-0.47544956,-0.75373602,0.4536846,0
1.0372438,-0.22756451,1.6641986,0.55439013,0.14371777,0.81975406,0
2.3396645,-1.3360945,-0.019764304,0.68308073,-0.64126998,-0.34953326,0
-1.8384813,1.1160102,-1.2397709,0.47544956,0.75373602,-0.4536846,0
1.4627613,-1.87694,-0.81048632,0.68308073,-0.64126998,-0.34953326,0
-2.0110512,0.46055171,-0.074817061,-0.47544956,-0.75373602,0.4536846,0
2.4280312,-0.3632938,0.62023258,0.47544956,0.75373602,-0.4536846,0
0.38303596,1.2132428,1.896626,0.55439013,0.14371777,0.81975406,0
1.8287238,-1.599457,-0.80967712,0.68308073,-0.64126998,-0.34953326,0
0.38615867,1.1078906,1.3603027,0.47544956,0.75373602,-0.4536846,0
1.2907419,-0.10545981,1.5453449,0.55439013,0.14371777,0.81975406,0
-1.1371644,-0.3142705,-1.5847603,-0.55439013,-0.14371777,-0.81975406,0
1.1476996,-1.8737146,-1.3931345,0.68308073,-0.64126998,-0.34953326,0
1.193755,-0.82612646,-1.0665793,0.47544956,0.75373602,-0.4536846,0
-0.82085454,1.7569108,2.2425365,-0.68308073,0.64126998,0.34953326,0
0.55483139,0.70802426,2.0494807,0.55439013,0.14371777,0.81975406,0
0.40761852,0.65723157,2.1690202,0.55439013,0.14371777,0.81975406,0
-0.50676072,0.81237495,-0.370866,0.47544956,0.75373602,-0.4536846,0
0.71847999,0.63205677,1.8547052,0.55439013,0.14371777,0.81975406,0
-0.018562511,0.91690218,0.61822188,0.47544956,0.75373602,-0.4536846,0
1.9443774,-1.3296914,-0.90900433,0.68308073,-0.64126998,-0.34953326,0
0.31965667,0.45780629,1.9916204,-0.47544956,-0.75373602,0.4536846,0
1.7233815,-1.4435705,-1.1350478,0.68308073,-0.64126998,-0.34953326,0
0.37715772,-1.6833825,-2.4799685,-0.55439013,-0.14371777,-0.81975406,0
-1.7816017,0.30355111,-0.30125582,-0.47544956,-0.75373602,0.4536846,0
0.60451245,-0.269227,-1.0300431,0.47544956,0.75373602,-0.4536846,0
0.14951801,1.1563517,2.0348282,0.55439013,0.14371777,0.81975406,0
-1.6895369,1.4515274,1.1316044,-0.68308073,0.64126998,0.34953326,0
2.9060183,-1.2871019,0.79764366,0.55439013,0.14371777,0.81975406,0
0.88136393,-0.0023817476,-0.04231149,0.47544956,0.75373602,-0.4536846,0
-2.2592502,1.2165006,0.24864018,-0.68308073,0.64126998,0.34953326,0
-1.0430701,-0.1805239,-1.7403708,-0.55439013,-0.14371777,-0.81975406,0
-2.662683,0.81636673,-0.8401047,-0.55439013,-0.14371777,-0.81975406,0
1.6063962,-0.37065899,1.4602926,0.55439013,0.14371777,0.81975406,0
-1.2834659,0.035372108,-0.40262997,-0.47544956,-0.75373602,0.4536846,0
1.161785,-1.7637389,-0.51936936,-0.47544956,-0.75373602,0.4536846,0
-0.72806615,1.0850667,2.2638278,-0.47544956,-0.75373602,0.4536846,0
-2.2957537,0.56073415,-1.0533092,-0.55439013,-0.14371777,-0.81975406,0
-1.6740985,0.3226454,-0.29088247,-0.47544956,-0.75373602,0.4536846,0
1.6115843,-0.26071459,-0.030770719,0.47544956,0.75373602,-0.4536846,0
-2.145761,0.088803291,-1.1258128,-0.55439013,-0.14371777,-0.81975406,0
-0.066036224,1.9954636,1.9389639,0.47544956,0.75373602,-0.4536846,0
-2.2596722,1.5018159,0.26417685,-0.68308073,0.64126998,0.34953326,0
-1.5555294,1.4643394,1.205593,-0.68308073,0.64126998,0.34953326,0
-1.5152166,0.74289113,0.73170483,-0.47544956,-0.75373602,0.4536846,0
-2.1584032,0.68449235,-0.99724114,-0.55439013,-0.14371777,-0.81975406,0
-1.1839123,1.6161284,1.7328176,-0.68308073,0.64126998,0.34953326,0
1.0671356,0.4603563,1.6244518,0.55439013,0.14371777,0.81975406,0
-1.6696982,-0.014904618,-1.2687347,-0.55439013,-0.14371777,-0.81975406,0
0.3788521,-1.6216997,-2.3827167,-0.55439013,-0.14371777,-0.81975406,0
2.6582506,-1.0115194,0.74626106,0.55439013,0.14371777,0.81975406,0
1.2556179,-0.48480934,-0.54882789,0.47544956,0.75373602,-0.4536846,0
-1.3812026,0.57009822,0.44227469,-0.47544956,-0.75373602,0.4536846,0
-0.30211997,-1.1968304,-2.0768628,-0.55439013,-0.14371777,-0.81975406,0
2.4109216,-1.3875599,-0.098249316,0.68308073,-0.64126998,-0.34953326,0
-1.9220706,0.88761771,-1.2590233,-0.55439013,-0.14371777,-0.81975406,0
-1.633563,1.8058152,0.5301801,-0.68308073,0.64126998,0.34953326,0
-2.0168855,1.7193176,0.097954392,-0.68308073,0.64126998,0.34953326,0
-1.3664767,0.96989274,1.1240385,-0.47544956,-0.75373602,0.4536846,0
0.92486173,0.84343022,1.6609467,0.55439013,0.14371777,0.81975406,0
-1.1656947,0.19052947,-0.021048546,-0.47544956,-0.75373602,0.4536846,0
0.99759269,-1.2132591,-2.0984883,0.47544956,0.75373602,-0.4536846,0
0.48207444,0.41793194,2.0844359,0.55439013,0.14371777,0.81975406,0
1.8446379,-1.3556885,0.75807583,-0.47544956,-0.75373602,0.4536846,0
-1.3154316,0.35252148,0.16009182,-0.47544956,-0.75373602,0.4536846,0
-2.3215458,0.85035837,-1.1003007,-0.55439013,-0.14371777,-0.81975406,0
-1.1095518,2.0513608,1.2468626,-0.68308073,0.64126998,0.34953326,0
-1.5902658,0.082104623,-1.3042173,-0.55439013,-0.14371777,-0.81975406,0
-2.9534461,1.0862877,-0.64376962,-0.55439013,-0.14371777,-0.81975406,0
-1.5811121,1.6835079,-0.13019753,0.47544956,0.75373602,-0.4536846,0
-0.12919086,-1.3570468,-2.1183579,-0.55439013,-0.14371777,-0.81975406,0
-1.4811599,0.20158066,0.030597627,-0.47544956,-0.75373602,0.4536846,0
-0.19156675,-0.92304862,-0.47690526,-0.47544956,-0.75373602,0.4536846,0
-0.10861209,0.80956781,-0.069075987,0.47544956,0.75373602,-0.4536846,0
0.66696656,-0.42119044,-1.1148431,0.47544956,0.75373602,-0.4536846,0
0.83608973,0.13041139,1.738723,0.55439013,0.14371777,0.81975406,0
1.1842136,-0.4566679,1.6834162,-0.47544956,-0.75373602,0.4536846,0
-2.6225388,0.68836486,-0.82754368,-0.55439013,-0.14371777,-0.81975406,0
-2.258327,1.5345502,-0.077383876,-0.68308073,0.64126998,0.34953326,0
-2.1298213,1.2003105,-1.156515,0.47544956,0.75373602,-0.4536846,0
