1.4360952,-1.6537911,3.5739923,0.52625692,-0.593512,0.6089313,0
2.8062844,-2.5872543,1.5309939,0.78340483,0.61687386,-0.075788856,0
0.41521609,0.18886918,1.911786,-0.33065224,0.51692414,0.78959405,0
0.60631675,-1.5573219,1.0868384,-0.78340483,-0.61687386,0.075788856,0
-2.8150861,3.0355721,-1.3377943,-0.52625692,0.593512,-0.6089313,0
1.9101555,-2.8411584,2.156002,-0.78340483,-0.61687386,0.075788856,0
1.1398184,-0.90719515,2.9037366,-0.33065224,0.51692414,0.78959405,0
-2.3722737,2.5003726,-2.0996141,-0.52625692,0.593512,-0.6089313,0
2.2915907,-2.5293202,0.58942223,0.33065224,-0.51692414,-0.78959405,0
2.0235596,-2.4191122,2.5929298,0.52625692,-0.593512,0.6089313,0
-0.48042858,0.16010803,-2.2649431,0.33065224,-0.51692414,-0.78959405,0
1.5267527,-1.6870418,3.6523104,0.52625692,-0.593512,0.6089313,0
-0.086870134,0.5952279,-2.2367861,0.33065224,-0.51692414,-0.78959405,0
0.95700884,-1.7784855,-0.41711068,0.33065224,-0.51692414,-0.78959405,0
2.4559495,-2.6826162,1.7892489,0.52625692,-0.593512,0.6089313,0
2.1719518,-2.9107251,0.98641515,0.33065224,-0.51692414,-0.78959405,0
1.4196706,-1.1618004,-0.36682439,0.78340483,0.61687386,-0.075788856,0
2.1672812,-3.0151148,1.7202451,0.52625692,-0.593512,0.6089313,0
-1.6570286,1.0489621,-1.9973426,-0.78340483,-0.61687386,0.075788856,0
2.4033599,-2.3621173,2.2348824,0.52625692,-0.593512,0.6089313,0
-0.84538794,1.2629164,0.63876736,-0.33065224,0.51692414,0.78959405,0
-0.61158085,1.0863401,0.93008745,-0.33065224,0.51692414,0.78959405,0
-2.3544943,2.7291725,-1.860491,-0.52625692,0.593512,-0.6089313,0
1.9703616,-2.4884815,0.62348509,0.33065224,-0.51692414,-0.78959405,0
0.3535521,-1.0644171,2.0759742,-0.78340483,-0.61687386,0.075788856,0
-1.1896296,2.4054623,-0.31172955,0.78340483,0.61687386,-0.075788856,0
0.79803598,-1.3707881,3.1963749,-0.33065224,0.51692414,0.78959405,0
1.1878877,-1.8161745,2.8835926,-0.78340483,-0.61687386,0.075788856,0
-2.510376,2.8082683,-1.113045,-0.33065224,0.51692414,0.78959405,0
-1.7518169,2.6113353,-0.63665366,-0.33065224,0.51692414,0.78959405,0
0.86569154,-1.7096498,1.10201,-0.78340483,-0.61687386,0.075788856,0
0.98749423,-1.7780094,1.9621756,-0.78340483,-0.61687386,0.075788856,0
-1.9184227,1.527421,-1.9561673,-0.78340483,-0.61687386,0.075788856,0
2.1323662,-2.1170714,0.27726662,0.33065224,-0.51692414,-0.78959405,0
2.0367455,-2.1436486,2.6658752,0.52625692,-0.593512,0.6089313,0
-2.4729848,2.3682902,-2.266407,-0.52625692,0.593512,-0.6089313,0
0.42293179,-1.3898592,0.31956649,-0.78340483,-0.61687386,0.075788856,0
-2.0552726,2.1527641,-2.6803737,-0.52625692,0.593512,-0.6089313,0
2.0439143,-1.7340746,0.038781524,0.33065224,-0.51692414,-0.78959405,0
1.9787252,-2.2040317,2.6510515,0.52625692,-0.593512,0.6089313,0
1.7694418,-2.6892514,2.4602938,0.52625692,-0.593512,0.6089313,0
-2.6135881,2.4170766,-1.9044951,-0.52625692,0.593512,-0.6089313,0
2.2467506,-1.6343228,2.8858738,0.52625692,-0.593512,0.6089313,0
-1.4283421,2.2779951,-1.9990823,0.78340483,0.61687386,-0.075788856,0
1.9828366,-2.1957145,0.27531981,0.33065224,-0.51692414,-0.78959405,0
2.0229115,-2.2255793,2.5271983,0.52625692,-0.593512,0.6089313,0
1.5960464,-2.2973108,0.37561405,0.33065224,-0.51692414,-0.78959405,0
-1.8369634,1.211161,-2.4386404,-0.78340483,-0.61687386,0.075788856,0
0.30479312,-0.025840104,2.1087129,-0.33065224,0.51692414,0.78959405,0
-2.430732,2.1711922,-2.466054,-0.52625692,0.593512,-0.6089313,0
0.979972,-2.0362446,-0.0079885721,-0.78340483,-0.61687386,0.075788856,0
-2.4137774,3.0539169,-1.2072344,-0.33065224,0.51692414,0.78959405,0
1.0176342,-0.22496359,2.1552539,0.78340483,0.61687386,-0.075788856,0
0.28376639,0.23082431,1.8529103,-0.33065224,0.51692414,0.78959405,0
-2.2063658,3.3099313,-1.3883142,-0.52625692,0.593512,-0.6089313,0
0.45272845,-1.3194782,0.89709365,-0.78340483,-0.61687386,0.075788856,0
0.66790783,-1.5229299,-0.74728012,0.33065224,-0.51692414,-0.78959405,0
1.8406146,-2.4816232,2.5183992,0.52625692,-0.593512,0.6089313,0
1.6991398,-1.7985749,3.34885,0.52625692,-0.593512,0.6089313,0
-1.8280479,2.204134,-2.9551373,-0.52625692,0.593512,-0.6089313,0
-1.7429816,1.5434862,-3.6449132,-0.52625692,0.593512,-0.6089313,0
-1.0569972,0.66981047,-2.6876962,0.33065224,-0.51692414,-0.78959405,0
1.9953231,-1.6132863,0.73295653,0.78340483,0.61687386,-0.075788856,0
0.60011619,-1.0775015,2.8810089,-0.33065224,0.51692414,0.78959405,0
-0.13168263,1.0184126,0.8472935,0.78340483,0.61687386,-0.075788856,0
-1.7688453,1.7797234,-3.381918,-0.52625692,0.593512,-0.6089313,0
1.3476679,-1.3294063,3.3860207,-0.33065224,0.51692414,0.78959405,0
1.8772451,-1.5951964,0.81307805,0.78340483,0.61687386,-0.075788856,0
-1.1733909,2.2494836,-0.39942324,0.78340483,0.61687386,-0.075788856,0
-1.2849454,1.6019009,0.238711,-0.33065224,0.51692414,0.78959405,0
-2.0775084,3.1605825,-1.7307851,-0.52625692,0.593512,-0.6089313,0
1.6425281,-2.3805349,2.7737122,0.52625692,-0.593512,0.6089313,0
0.047281742,-0.7411145,-0.16948736,-0.78340483,-0.61687386,0.075788856,0
-1.3037591,1.4220911,0.41363311,-0.33065224,0.51692414,0.78959405,0
-0.23585165,1.3084109,0.80438876,0.78340483,0.61687386,-0.075788856,0
-1.1428645,0.78983057,0.68281299,-0.78340483,-0.61687386,0.075788856,0
-1.4166733,2.5389132,-0.67706811,0.78340483,0.61687386,-0.075788856,0
0.65788543,-0.7741785,2.673722,-0.33065224,0.51692414,0.78959405,0
0.52716351,-1.3112596,-0.89114869,0.33065224,-0.51692414,-0.78959405,0
2.0458879,-1.6462775,0.73030376,0.78340483,0.61687386,-0.075788856,0
1.4331236,-2.4505589,2.1952672,-0.78340483,-0.61687386,0.075788856,0
-1.6670632,1.2372551,-1.804425,-0.78340483,-0.61687386,0.075788856,0
-1.7989824,1.498327,-0.021321774,-0.78340483,-0.61687386,0.075788856,0
-2.183913,2.008563,-2.8629308,-0.52625692,0.593512,-0.6089313,0
-1.4195472,1.0109645,-0.92133737,-0.78340483,-0.61687386,0.075788856,0
-1.9397087,2.8106446,-0.76340413,-0.33065224,0.51692414,0.78959405,0
-1.5795568,1.505933,0.34463763,-0.33065224,0.51692414,0.78959405,0
-1.4388002,1.6850425,0.25568724,-0.33065224,0.51692414,0.78959405,0
-2.521641,3.0367644,-1.1749666,-0.33065224,0.51692414,0.78959405,0
-1.5315505,2.0823796,-3.3055625,-0.52625692,0.593512,-0.6089313,0
0.34160721,-0.14005286,-1.6876321,0.33065224,-0.51692414,-0.78959405,0
2.1417887,-1.6442394,1.3509946,0.78340483,0.61687386,-0.075788856,0
0.18882942,0.63018411,0.27658182,0.78340483,0.61687386,-0.075788856,0
-0.45279998,1.0024481,-2.6272767,0.33065224,-0.51692414,-0.78959405,0
0.30581224,-0.95428956,2.2551217,-0.78340483,-0.61687386,0.075788856,0
-2.5741553,2.9951522,-1.5193594,-0.52625692,0.593512,-0.6089313,0
0.54821396,0.25984198,0.41010416,0.78340483,0.61687386,-0.075788856,0
0.42774689,0.15185386,-1.2393875,0.78340483,0.61687386,-0.075788856,0
1.9828998,-2.8310223,2.0357668,0.52625692,-0.593512,0.6089313,0
-2.1668947,3.0463121,-1.627583,-0.52625692,0.593512,-0.6089313,0
-2.1978142,2.0543118,-2.8177395,-0.52625692,0.593512,-0.6089313,0
1.5706538,-1.2005224,-0.44003713,0.33065224,-0.51692414,-0.78959405,0
-2.4117093,1.7900834,-2.6984091,-0.78340483,-0.61687386,0.075788856,0
1.7008605,-1.5778067,-0.17079842,0.33065224,-0.51692414,-0.78959405,0
-2.4693158,2.3487728,-2.2087746,-0.52625692,0.593512,-0.6089313,0
-2.3033381,2.452975,-2.2656336,-0.52625692,0.593512,-0.6089313,0
-1.8928831,2.2705069,-2.6996021,-0.52625692,0.593512,-0.6089313,0
2.3379428,-2.143995,1.4043598,0.78340483,0.61687386,-0.075788856,0
1.6734233,-2.6777511,2.5024757,0.52625692,-0.593512,0.6089313,0
-1.6496447,1.2397428,-3.5224731,0.33065224,-0.51692414,-0.78959405,0
1.5723751,-2.660584,2.2851491,-0.78340483,-0.61687386,0.075788856,0
1.9658012,-2.6960135,2.3259242,0.52625692,-0.593512,0.6089313,0
-2.6011095,2.2045763,-1.9538605,-0.78340483,-0.61687386,0.075788856,0
0.28528666,-1.1664231,-0.68980217,-0.78340483,-0.61687386,0.075788856,0
-1.2744731,0.65889382,-1.416905,-0.78340483,-0.61687386,0.075788856,0
1.8890681,-1.8856566,3.0261147,0.52625692,-0.593512,0.6089313,0
-0.012907147,-0.45412576,2.2597256,-0.33065224,0.51692414,0.78959405,0
1.3319324,-2.2401345,2.2798471,-0.78340483,-0.61687386,0.075788856,0
1.2575154,-0.61996317,0.31686908,0.78340483,0.61687386,-0.075788856,0
-0.38677067,0.4841682,-2.2789903,0.33065224,-0.51692414,-0.78959405,0
2.3779392,-2.823848,1.65242,0.52625692,-0.593512,0.6089313,0
-2.1108265,3.0332165,-1.7500865,-0.52625692,0.593512,-0.6089313,0
-0.56225532,1.1643128,-2.5069537,0.78340483,0.61687386,-0.075788856,0
-1.0430168,1.8583183,-2.6482034,0.78340483,0.61687386,-0.075788856,0
-0.90020001,0.36957443,1.3253397,-0.78340483,-0.61687386,0.075788856,0
-0.8019098,1.6364312,-0.51249504,0.78340483,0.61687386,-0.075788856,0
-2.3021805,1.8564478,-2.7617352,-0.52625692,0.593512,-0.6089313,0
1.380919,-1.0397589,-0.5215947,0.33065224,-0.51692414,-0.78959405,0
-1.9614089,2.2863879,-2.5222783,-0.52625692,0.593512,-0.6089313,0
1.1769079,-1.9959279,1.9766482,-0.78340483,-0.61687386,0.075788856,0
0.1254369,-0.7210815,-1.2683288,0.33065224,-0.51692414,-0.78959405,0
0.35571322,-1.1706301,1.5875063,-0.78340483,-0.61687386,0.075788856,0
-1.3212802,1.5079027,0.26874816,-0.33065224,0.51692414,0.78959405,0
-1.5085571,0.99452507,-1.9785858,-0.78340483,-0.61687386,0.075788856,0
1.9094585,-1.8102981,0.13714039,0.33065224,-0.51692414,-0.78959405,0
-2.1003659,1.9146451,-2.9173613,-0.52625692,0.593512,-0.6089313,0
-1.8896689,1.3367648,-2.8042543,-0.78340483,-0.61687386,0.075788856,0
-0.86128545,0.74238873,1.0873222,-0.33065224,0.51692414,0.78959405,0
-0.95950234,1.661653,0.42918348,-0.33065224,0.51692414,0.78959405,0
0.89932156,-0.72548723,-1.0245645,0.33065224,-0.51692414,-0.78959405,0
-0.47868478,1.184659,0.91743457,-0.33065224,0.51692414,0.78959405,0
1.8432606,-1.3263394,1.7702732,0.78340483,0.61687386,-0.075788856,0
1.3558463,-0.62774074,2.3010945,0.78340483,0.61687386,-0.075788856,0
-2.9026031,2.7371955,-1.4752836,-0.52625692,0.593512,-0.6089313,0
-1.8738345,2.1341991,-2.9807787,-0.52625692,0.593512,-0.6089313,0
-1.9895685,2.5011635,-2.3662038,-0.52625692,0.593512,-0.6089313,0
-1.5606432,2.5905719,-0.75213051,0.78340483,0.61687386,-0.075788856,0
0.44611442,-1.068855,-0.96244031,0.33065224,-0.51692414,-0.78959405,0
-2.3216677,1.7255937,-2.9136782,-0.52625692,0.593512,-0.6089313,0
2.2476554,-3.0395999,1.6792119,0.52625692,-0.593512,0.6089313,0
-1.5059197,2.6811042,-1.6433685,0.78340483,0.61687386,-0.075788856,0
-2.1600268,3.2951293,-1.3789616,-0.52625692,0.593512,-0.6089313,0
-0.66180778,0.76521444,1.1373452,-0.33065224,0.51692414,0.78959405,0
1.1920249,-0.36853209,1.646145,0.78340483,0.61687386,-0.075788856,0
0.9358722,-1.7631092,2.3155444,-0.78340483,-0.61687386,0.075788856,0
1.9689791,-1.8789694,2.9988956,0.52625692,-0.593512,0.6089313,0
-0.25483406,-0.034261107,-2.0211759,0.33065224,-0.51692414,-0.78959405,0
1.5133429,-1.9280287,3.2601852,0.52625692,-0.593512,0.6089313,0
-1.8933649,1.3706987,-3.4465842,-0.52625692,0.593512,-0.6089313,0
0.29681358,-0.97253454,0.72084886,-0.78340483,-0.61687386,0.075788856,0
-1.223918,2.0254714,-2.7032819,0.78340483,0.61687386,-0.075788856,0
0.9020288,-1.2886057,3.050734,-0.33065224,0.51692414,0.78959405,0
0.86441416,-0.15095401,0.054950535,0.78340483,0.61687386,-0.075788856,0
2.0394123,-3.0507591,1.6492376,-0.78340483,-0.61687386,0.075788856,0
2.3876803,-1.8022499,2.632226,0.52625692,-0.593512,0.6089313,0
-0.50596654,1.2729509,0.74580729,-0.33065224,0.51692414,0.78959405,0
1.6267995,-1.1540987,1.4501796,0.78340483,0.61687386,-0.075788856,0
-1.594829,1.7724026,-3.4426851,-0.52625692,0.593512,-0.6089313,0
1.7547786,-2.0373755,0.1846472,0.33065224,-0.51692414,-0.78959405,0
-2.0314076,2.4888849,-2.4028034,-0.52625692,0.593512,-0.6089313,0
1.0188684,-0.44708121,-0.17045042,0.78340483,0.61687386,-0.075788856,0
0.37224561,-0.50018322,2.3717985,-0.33065224,0.51692414,0.78959405,0
0.9173826,-0.7989763,-0.87625515,0.33065224,-0.51692414,-0.78959405,0
-1.6809255,2.2806702,-2.8585598,-0.52625692,0.593512,-0.6089313,0
-0.54542398,1.2517114,-2.9382391,0.33065224,-0.51692414,-0.78959405,0
2.1654546,-2.58568,2.3328738,0.52625692,-0.593512,0.6089313,0
1.723833,-2.1175385,3.1325269,0.52625692,-0.593512,0.6089313,0
-1.9445218,2.9680057,-1.9051485,-0.52625692,0.593512,-0.6089313,0
-1.7581806,1.1022224,-2.6257777,-0.78340483,-0.61687386,0.075788856,0
-1.5615197,1.4861124,-3.6111188,0.33065224,-0.51692414,-0.78959405,0
0.16381228,0.51136577,1.5612195,-0.33065224,0.51692414,0.78959405,0
2.1530528,-2.2441585,2.5861025,0.52625692,-0.593512,0.6089313,0
-0.45214462,-0.45663318,-1.2697229,-0.78340483,-0.61687386,0.075788856,0
-0.93582344,2.0536714,0.19650602,0.78340483,0.61687386,-0.075788856,0
-0.80037659,0.099051118,-0.63815039,-0.78340483,-0.61687386,0.075788856,0
0.47451949,0.24287675,1.9350388,-0.33065224,0.51692414,0.78959405,0
2.2058659,-2.7785807,0.88643432,0.33065224,-0.51692414,-0.78959405,0
-1.5074403,2.3304787,-2.8949573,-0.52625692,0.593512,-0.6089313,0
-2.5036759,2.4796867,-2.0851512,-0.52625692,0.593512,-0.6089313,0
1.2644001,-0.95487326,-0.45341372,0.78340483,0.61687386,-0.075788856,0
-1.1018635,0.67775553,-0.068248093,-0.78340483,-0.61687386,0.075788856,0
2.4526005,-2.3526053,2.2479761,0.52625692,-0.593512,0.6089313,0
-2.1752758,1.7705609,-2.2093744,-0.78340483,-0.61687386,0.075788856,0
1.4141245,-2.4492929,0.70329356,-0.78340483,-0.61687386,0.075788856,0
-1.0476516,0.28763828,-1.6321161,-0.78340483,-0.61687386,0.075788856,0
1.8039585,-1.1383743,1.5500828,0.78340483,0.61687386,-0.075788856,0
1.6284502,-1.6020491,3.5971022,0.52625692,-0.593512,0.6089313,0
2.1316111,-2.8020003,0.90537071,0.33065224,-0.51692414,-0.78959405,0
-1.7563719,2.1711495,-2.9232612,-0.52625692,0.593512,-0.6089313,0
1.4611439,-1.0060967,1.3920803,0.78340483,0.61687386,-0.075788856,0
1.213738,-2.1111023,1.7686476,-0.78340483,-0.61687386,0.075788856,0
2.3668234,-2.1534019,0.55547202,0.33065224,-0.51692414,-0.78959405,0
-0.85707092,1.8044325,-0.46217716,0.78340483,0.61687386,-0.075788856,0
-1.2340795,1.0840493,-3.1179523,0.33065224,-0.51692414,-0.78959405,0
0.27202582,-0.42385322,-1.4203057,0.33065224,-0.51692414,-0.78959405,0
1.2319243,-0.59436285,2.6999631,-0.33065224,0.51692414,0.78959405,0
-0.21077466,-0.19426492,-1.7761571,0.33065224,-0.51692414,-0.78959405,0
-0.67905325,0.35108855,-2.3506694,0.33065224,-0.51692414,-0.78959405,0
0.6602391,-0.21539032,-1.4322648,0.78340483,0.61687386,-0.075788856,0
2.2355671,-2.04111,2.790472,0.52625692,-0.593512,0.6089313,0
2.2458827,-1.8916435,2.7676222,0.52625692,-0.593512,0.6089313,0
2.128289,-1.7429316,3.033937,0.52625692,-0.593512,0.6089313,0
2.8399277,-2.8893037,1.4054132,0.52625692,-0.593512,0.6089313,0
1.9433717,-1.3460972,1.2826701,0.78340483,0.61687386,-0.075788856,0
2.2357981,-1.7503287,2.4734502,0.78340483,0.61687386,-0.075788856,0
-2.4691863,2.4817061,-0.66976357,-0.33065224,0.51692414,0.78959405,0
1.9486507,-2.283772,2.5520422,0.52625692,-0.593512,0.6089313,0
-1.9940619,2.8046489,-2.2618639,-0.52625692,0.593512,-0.6089313,0
-2.0052319,2.4536996,-2.4636803,-0.52625692,0.593512,-0.6089313,0
-2.1220798,3.1957893,-1.5875671,-0.52625692,0.593512,-0.6089313,0
0.6153779,-0.93314469,-1.0226073,0.33065224,-0.51692414,-0.78959405,0
-0.96612597,2.0519366,-0.89452708,0.78340483,0.61687386,-0.075788856,0
-1.1835032,2.3463418,-0.15814233,-0.33065224,0.51692414,0.78959405,0
-2.9115188,2.9153039,-1.3329146,-0.52625692,0.593512,-0.6089313,0
-1.6363674,1.267509,-3.461026,0.33065224,-0.51692414,-0.78959405,0
-1.0042771,1.8052146,0.28327942,-0.33065224,0.51692414,0.78959405,0
-1.5262682,1.8157822,-3.4750443,-0.52625692,0.593512,-0.6089313,0
1.0039797,-0.99086237,-0.92097998,0.33065224,-0.51692414,-0.78959405,0
2.3711658,-3.1435089,1.370508,0.52625692,-0.593512,0.6089313,0
-2.1582346,1.6499205,-3.0457702,-0.52625692,0.593512,-0.6089313,0
0.76812077,-0.69461417,2.7064648,-0.33065224,0.51692414,0.78959405,0
0.27011168,0.72534561,1.5442305,0.78340483,0.61687386,-0.075788856,0
1.3270068,-0.76341891,3.0327296,-0.33065224,0.51692414,0.78959405,0
-0.38312548,-0.094737172,1.1238673,-0.78340483,-0.61687386,0.075788856,0
1.2365075,-1.8643432,-0.22855508,0.33065224,-0.51692414,-0.78959405,0
1.9562032,-2.3767154,2.5927079,0.52625692,-0.593512,0.6089313,0
2.1166158,-2.4195132,2.5031896,0.52625692,-0.593512,0.6089313,0
-2.253963,2.8888755,-0.98851562,-0.33065224,0.51692414,0.78959405,0
-0.9061904,1.7794527,-0.74128628,0.78340483,0.61687386,-0.075788856,0
-0.49039516,1.1790508,-2.5582104,0.78340483,0.61687386,-0.075788856,0
2.619262,-2.8403172,1.0565271,0.33065224,-0.51692414,-0.78959405,0
0.33068502,0.35825652,1.8479409,-0.33065224,0.51692414,0.78959405,0
-0.24002144,0.90716368,-1.5234144,0.78340483,0.61687386,-0.075788856,0
-1.228788,0.50212514,-1.4487427,-0.78340483,-0.61687386,0.075788856,0
-2.0233927,2.5271146,-0.49480271,-0.33065224,0.51692414,0.78959405,0
1.5890709,-1.8293478,3.4303844,0.52625692,-0.593512,0.6089313,0
-2.1589131,2.308964,-2.4521427,-0.52625692,0.593512,-0.6089313,0
1.6772052,-2.1647491,2.9571314,0.52625692,-0.593512,0.6089313,0
1.3587074,-0.89217627,0.51580638,0.78340483,0.61687386,-0.075788856,0
-2.3348453,1.9161645,-2.8152027,-0.52625692,0.593512,-0.6089313,0
-2.6060588,2.1066496,-1.9793752,-0.78340483,-0.61687386,0.075788856,0
1.4787953,-1.3332112,3.415549,-0.33065224,0.51692414,0.78959405,0
1.139454,-1.0197201,3.138422,-0.33065224,0.51692414,0.78959405,0
0.026683062,-0.79588246,0.49499917,-0.78340483,-0.61687386,0.075788856,0
-0.19870132,-0.59292048,0.92057586,-0.78340483,-0.61687386,0.075788856,0
0.46210611,-0.90791214,-1.1321715,0.33065224,-0.51692414,-0.78959405,0
2.4489775,-2.2408199,0.83701074,0.78340483,0.61687386,-0.075788856,0
-2.6427753,2.5467756,-1.7982843,-0.52625692,0.593512,-0.6089313,0
1.2529432,-2.0876997,3.1431656,-0.78340483,-0.61687386,0.075788856,0
-1.4617286,2.598371,-0.39920664,-0.33065224,0.51692414,0.78959405,0
1.6543001,-0.89709908,2.2983022,0.78340483,0.61687386,-0.075788856,0
2.826798,-2.8027904,1.0710156,0.33065224,-0.51692414,-0.78959405,0
1.8958309,-1.8161389,3.3054776,0.52625692,-0.593512,0.6089313,0
1.562667,-2.0323679,3.2303662,0.52625692,-0.593512,0.6089313,0
0.50994825,0.32293314,0.2827903,0.78340483,0.61687386,-0.075788856,0
-2.2173986,2.3771009,-2.250237,-0.52625692,0.593512,-0.6089313,0
0.43166393,-0.79491824,2.635623,-0.33065224,0.51692414,0.78959405,0
-0.93348336,0.62645298,1.1203867,-0.33065224,0.51692414,0.78959405,0
-1.3367023,1.1688831,-3.2795324,0.33065224,-0.51692414,-0.78959405,0
-1.4713227,2.2534804,-0.24644506,-0.33065224,0.51692414,0.78959405,0
1.4677851,-2.0999932,3.2115455,0.52625692,-0.593512,0.6089313,0
-0.27916616,0.82877719,-1.8385121,0.78340483,0.61687386,-0.075788856,0
-1.6183898,1.695603,-3.3798327,-0.52625692,0.593512,-0.6089313,0
0.57669723,-0.40508038,-1.3413534,0.33065224,-0.51692414,-0.78959405,0
-1.2785289,0.57548273,-1.8575649,-0.78340483,-0.61687386,0.075788856,0
1.276866,-1.4582355,3.4665062,-0.33065224,0.51692414,0.78959405,0
0.84425032,0.066197947,1.955886,0.78340483,0.61687386,-0.075788856,0
0.26823604,0.38898557,1.7291241,-0.33065224,0.51692414,0.78959405,0
0.62864846,-0.19939423,-0.61512744,0.78340483,0.61687386,-0.075788856,0
-0.49790484,0.53968894,-2.5619583,0.33065224,-0.51692414,-0.78959405,0
-0.15522599,1.0150391,0.34300435,0.78340483,0.61687386,-0.075788856,0
0.51458406,-0.71756667,2.5607724,-0.33065224,0.51692414,0.78959405,0
-1.3964926,0.67061353,-2.1457357,-0.78340483,-0.61687386,0.075788856,0
1.3539088,-2.1444037,3.4421802,0.52625692,-0.593512,0.6089313,0
-1.8912463,2.2415912,-0.34196663,-0.33065224,0.51692414,0.78959405,0
1.7915192,-2.7155464,0.69336772,0.33065224,-0.51692414,-0.78959405,0
-2.1864696,3.0368309,-1.7167697,-0.52625692,0.593512,-0.6089313,0
0.57441276,0.001372382,2.1699984,-0.33065224,0.51692414,0.78959405,0
-0.9029026,0.50582707,-2.6395202,0.33065224,-0.51692414,-0.78959405,0
0.19025791,-0.26097322,-1.6543128,0.33065224,-0.51692414,-0.78959405,0
1.582697,-1.2688922,3.3737845,-0.33065224,0.51692414,0.78959405,0
-2.587158,2.200732,-2.3129244,-0.52625692,0.593512,-0.6089313,0
-1.3038195,1.9423494,0.052700043,-0.33065224,0.51692414,0.78959405,0
0.013499022,0.21908155,1.856463,-0.33065224,0.51692414,0.78959405,0
1.5430665,-0.95362008,3.0849352,-0.33065224,0.51692414,0.78959405,0
-2.0580769,1.4058304,-3.2723269,-0.52625692,0.593512,-0.6089313,0
-0.34135652,0.62221503,1.2652347,-0.33065224,0.51692414,0.78959405,0
1.6471831,-2.7475047,1.7428709,-0.78340483,-0.61687386,0.075788856,0
-0.62230217,-0.036486208,-0.82825214,-0.78340483,-0.61687386,0.075788856,0
-0.57616621,-0.17841263,-1.9714117,0.33065224,-0.51692414,-0.78959405,0
-1.6055565,2.4538376,-2.7656775,-0.52625692,0.593512,-0.6089313,0
-2.6510115,2.5469449,-1.3810422,-0.78340483,-0.61687386,0.075788856,0
1.5228717,-1.3023726,3.3646472,-0.33065224,0.51692414,0.78959405,0
-2.5287437,2.0458658,-2.4775567,-0.52625692,0.593512,-0.6089313,0
-0.75290006,1.6797721,-1.5100003,0.78340483,0.61687386,-0.075788856,0
0.46035087,-1.0955794,1.5435561,-0.78340483,-0.61687386,0.075788856,0
-1.1620817,0.96261132,-2.9338017,0.33065224,-0.51692414,-0.78959405,0
2.6447115,-3.0724797,1.2230878,0.52625692,-0.593512,0.6089313,0
0.39979142,-0.68259382,2.4011981,-0.33065224,0.51692414,0.78959405,0
1.6198144,-2.5554473,2.5547118,0.52625692,-0.593512,0.6089313,0
1.2162112,-0.44671988,2.7256062,-0.33065224,0.51692414,0.78959405,0
0.97175956,-0.84429598,-1.0582139,0.33065224,-0.51692414,-0.78959405,0
2.4598608,-2.3141472,2.1896784,0.52625692,-0.593512,0.6089313,0
1.8467433,-1.7210708,3.4078178,0.52625692,-0.593512,0.6089313,0
2.427855,-2.781394,1.6812506,0.52625692,-0.593512,0.6089313,0
-1.2436763,1.5950316,0.45480359,-0.33065224,0.51692414,0.78959405,0
-1.785938,1.6148734,-3.4041176,-0.52625692,0.593512,-0.6089313,0
-1.3591229,2.0773828,-2.6817369,0.78340483,0.61687386,-0.075788856,0
1.3462718,-2.1982787,0.10033607,0.33065224,-0.51692414,-0.78959405,0
1.6562898,-2.4919281,2.7570839,0.52625692,-0.593512,0.6089313,0
-0.89668918,0.24781232,-2.4832265,0.33065224,-0.51692414,-0.78959405,0
1.9283239,-1.9876907,3.0014026,0.52625692,-0.593512,0.6089313,0
1.7959772,-1.1462934,2.6789651,0.78340483,0.61687386,-0.075788856,0
1.7715538,-1.9692789,2.9859908,0.52625692,-0.593512,0.6089313,0
-2.2836473,2.3722692,-2.3371372,-0.52625692,0.593512,-0.6089313,0
-1.5452039,2.1525307,-2.9973078,-0.52625692,0.593512,-0.6089313,0
2.0668666,-2.4485669,2.5169466,0.52625692,-0.593512,0.6089313,0
1.1684309,-1.6326587,-0.2388078,0.33065224,-0.51692414,-0.78959405,0
1.8412875,-2.8809578,1.029418,-0.78340483,-0.61687386,0.075788856,0
1.1209438,-1.7982519,-0.35205841,0.33065224,-0.51692414,-0.78959405,0
-1.6832154,1.3171499,-1.2602543,-0.78340483,-0.61687386,0.075788856,0
-1.7227428,1.5199214,0.094660401,-0.33065224,0.51692414,0.78959405,0
2.6617856,-2.9162731,1.1762013,0.33065224,-0.51692414,-0.78959405,0
0.9512006,-1.4749069,3.3474805,-0.33065224,0.51692414,0.78959405,0
1.007621,-0.38965571,1.4443277,0.78340483,0.61687386,-0.075788856,0
0.33220637,-1.3265923,0.11029768,-0.78340483,-0.61687386,0.075788856,0
1.1907729,-1.3042353,-0.47138661,0.33065224,-0.51692414,-0.78959405,0
2.3066103,-2.25577,2.4035006,0.52625692,-0.593512,0.6089313,0
0.09942317,-1.1476634,-0.52323461,-0.78340483,-0.61687386,0.075788856,0
-0.77095252,0.28987575,1.1055222,-0.78340483,-0.61687386,0.075788856,0
0.026040792,0.65623719,1.444752,-0.33065224,0.51692414,0.78959405,0
-2.1648455,2.1368873,-2.7056434,-0.52625692,0.593512,-0.6089313,0
-2.2543697,2.1294699,-2.3992906,-0.52625692,0.593512,-0.6089313,0
2.1144416,-1.7046107,2.9213922,0.52625692,-0.593512,0.6089313,0
1.9970877,-1.3795764,2.5773902,0.78340483,0.61687386,-0.075788856,0
0.15547979,0.57288527,1.5410472,-0.33065224,0.51692414,0.78959405,0
1.8881172,-2.3048933,0.38508511,0.33065224,-0.51692414,-0.78959405,0
-0.90410125,0.32233131,0.63398677,-0.78340483,-0.61687386,0.075788856,0
-2.2367713,1.8131657,-2.8036289,-0.52625692,0.593512,-0.6089313,0
-0.52701819,-0.31112731,-0.7462154,-0.78340483,-0.61687386,0.075788856,0
1.4712102,-1.5079069,3.4814057,-0.33065224,0.51692414,0.78959405,0
-2.6864729,3.1257272,-1.2199454,-0.33065224,0.51692414,0.78959405,0
-1.5609899,2.696471,-2.1008766,0.78340483,0.61687386,-0.075788856,0
2.5195746,-2.4559212,2.0157712,0.52625692,-0.593512,0.6089313,0
2.3365724,-2.3680182,0.61033797,0.33065224,-0.51692414,-0.78959405,0
-1.9245764,1.2688427,-2.2605915,-0.78340483,-0.61687386,0.075788856,0
2.0529511,-2.0296218,2.7581966,0.52625692,-0.593512,0.6089313,0
-1.9529119,1.4584494,-3.3190196,-0.52625692,0.593512,-0.6089313,0
-0.71349263,0.2808584,-2.2802577,0.33065224,-0.51692414,-0.78959405,0
-1.2851284,2.4242501,-0.51646471,0.78340483,0.61687386,-0.075788856,0
-1.8757743,2.6942205,-2.2108312,-0.52625692,0.593512,-0.6089313,0
0.30367741,0.49655318,-0.021761388,0.78340483,0.61687386,-0.075788856,0
2.3471851,-2.2737041,0.58830857,0.33065224,-0.51692414,-0.78959405,0
1.2639048,-2.2966681,0.20003641,0.33065224,-0.51692414,-0.78959405,0
2.2635176,-2.8676229,1.9790096,0.52625692,-0.593512,0.6089313,0
0.91358888,-1.2919465,-0.60555476,0.33065224,-0.51692414,-0.78959405,0
-1.7695832,2.6053271,-2.5683115,-0.52625692,0.593512,-0.6089313,0
-0.49027383,0.99407816,1.1098492,-0.33065224,0.51692414,0.78959405,0
-2.1035113,2.4708042,-2.4172902,-0.52625692,0.593512,-0.6089313,0
-0.073040366,1.1156366,1.2625294,-0.33065224,0.51692414,0.78959405,0
0.78091121,-1.423269,-0.61796016,0.33065224,-0.51692414,-0.78959405,0
1.6464581,-1.1956604,-0.23062694,0.78340483,0.61687386,-0.075788856,0
2.707808,-2.6527514,1.0581579,0.33065224,-0.51692414,-0.78959405,0
-0.68688858,0.164002,0.45970905,-0.78340483,-0.61687386,0.075788856,0
1.5954759,-2.3967814,0.39400864,0.33065224,-0.51692414,-0.78959405,0
1.864899,-2.0474098,2.8113053,0.52625692,-0.593512,0.6089313,0
2.5731056,-2.3863819,1.9448421,0.52625692,-0.593512,0.6089313,0
-0.59708774,0.015734456,-2.1004093,0.33065224,-0.51692414,-0.78959405,0
1.0290066,-0.45087397,2.5416791,-0.33065224,0.51692414,0.78959405,0
2.0325012,-3.111402,1.8077083,0.52625692,-0.593512,0.6089313,0
-1.5692518,1.7069299,0.027604222,-0.33065224,0.51692414,0.78959405,0
1.9084635,-2.7019603,0.61262679,0.33065224,-0.51692414,-0.78959405,0
2.0394156,-1.4977667,3.405272,0.52625692,-0.593512,0.6089313,0
1.6731371,-1.8233846,0.063801289,0.33065224,-0.51692414,-0.78959405,0
1.5176713,-1.2275567,3.4184906,-0.33065224,0.51692414,0.78959405,0
-0.20338666,0.097388029,1.7939647,-0.33065224,0.51692414,0.78959405,0
0.5960989,-1.4930423,-0.77495652,0.33065224,-0.51692414,-0.78959405,0
0.53216028,-1.2862289,-0.85003859,0.33065224,-0.51692414,-0.78959405,0
0.42685294,-0.82762647,-1.0872146,0.33065224,-0.51692414,-0.78959405,0
-0.53415865,-0.11394578,-0.80648988,-0.78340483,-0.61687386,0.075788856,0
-0.73179454,0.62670636,-2.7378833,0.33065224,-0.51692414,-0.78959405,0
2.3328345,-1.9223748,1.9279336,0.78340483,0.61687386,-0.075788856,0
-2.8410521,2.7349334,-1.4120555,-0.52625692,0.593512,-0.6089313,0
2.4071441,-2.2699771,2.3135023,0.52625692,-0.593512,0.6089313,0
-2.9320827,2.8508368,-1.3954835,-0.52625692,0.593512,-0.6089313,0
0.6407088,-1.6378802,-0.5514617,0.33065224,-0.51692414,-0.78959405,0
-1.6349745,1.8550402,-0.0038274527,-0.33065224,0.51692414,0.78959405,0
1.3539335,-1.3733972,-0.4017638,0.33065224,-0.51692414,-0.78959405,0
-0.64218378,0.78584862,1.106149,-0.33065224,0.51692414,0.78959405,0
0.55820566,-0.24975534,2.173306,-0.33065224,0.51692414,0.78959405,0
-2.0699,1.7370076,-1.7795546,-0.78340483,-0.61687386,0.075788856,0
1.2385452,-0.46933666,1.30338,0.78340483,0.61687386,-0.075788856,0
-1.7125099,1.3643019,-3.5826161,0.33065224,-0.51692414,-0.78959405,0
0.4911496,0.3792091,0.4397577,0.78340483,0.61687386,-0.075788856,0
-1.1864377,2.0304568,-3.2348733,0.78340483,0.61687386,-0.075788856,0
0.94035685,-0.59817255,2.6906192,-0.33065224,0.51692414,0.78959405,0
0.52253079,-0.6928404,-1.2975886,0.33065224,-0.51692414,-0.78959405,0
-2.2769818,2.7862525,-1.8175285,-0.52625692,0.593512,-0.6089313,0
2.4456911,-2.7377923,1.7516341,0.52625692,-0.593512,0.6089313,0
-0.25119734,0.5354377,1.3300686,-0.33065224,0.51692414,0.78959405,0
2.7104766,-2.5271502,1.1756067,0.78340483,0.61687386,-0.075788856,0
0.24521947,0.091343045,-1.8642989,0.33065224,-0.51692414,-0.78959405,0
0.033250682,0.68262136,-0.84495437,0.78340483,0.61687386,-0.075788856,0
0.99610615,-0.52545255,0.10221303,0.78340483,0.61687386,-0.075788856,0
2.2513001,-3.2731738,1.1436069,0.33065224,-0.51692414,-0.78959405,0
0.98834503,-1.9318652,0.40599632,-0.78340483,-0.61687386,0.075788856,0
0.7043798,-0.22910142,-0.66148114,0.78340483,0.61687386,-0.075788856,0
-1.5776407,1.73871,0.033048034,-0.33065224,0.51692414,0.78959405,0
-1.160766,1.5117048,-3.443749,0.33065224,-0.51692414,-0.78959405,0
2.0935788,-2.5829973,2.2101853,0.52625692,-0.593512,0.6089313,0
-0.52425456,0.34534794,1.360159,-0.33065224,0.51692414,0.78959405,0
-2.6465166,2.1917417,-2.0273919,-0.78340483,-0.61687386,0.075788856,0
-0.059307277,0.76039588,0.069349766,0.78340483,0.61687386,-0.075788856,0
0.47599465,-0.4373585,2.4812083,-0.33065224,0.51692414,0.78959405,0
1.9288845,-2.4652622,2.4875326,0.52625692,-0.593512,0.6089313,0
-2.0279965,2.6825373,-2.0534775,-0.52625692,0.593512,-0.6089313,0
2.2618663,-2.6449335,2.0005469,0.52625692,-0.593512,0.6089313,0
-0.95334345,1.7301247,-2.9505482,0.78340483,0.61687386,-0.075788856,0
0.77529454,-0.66507125,-1.1558967,0.33065224,-0.51692414,-0.78959405,0
-2.6342771,2.4466684,-2.0410786,-0.52625692,0.593512,-0.6089313,0
0.50990158,-0.57711166,2.4189484,-0.33065224,0.51692414,0.78959405,0
-2.7104549,2.5876589,-1.8250265,-0.52625692,0.593512,-0.6089313,0
-1.8138381,2.3110991,-2.7276456,-0.52625692,0.593512,-0.6089313,0
2.2452769,-2.9680343,1.7931447,0.52625692,-0.593512,0.6089313,0
-0.19937527,-0.0075426996,-1.9068344,0.33065224,-0.51692414,-0.78959405,0
1.7108383,-2.7201633,0.63162303,0.33065224,-0.51692414,-0.78959405,0
-1.7914469,2.2389464,-2.9659159,-0.52625692,0.593512,-0.6089313,0
2.4049163,-2.8326993,1.5765164,0.52625692,-0.593512,0.6089313,0
-0.6703096,1.6080624,-1.2159206,0.78340483,0.61687386,-0.075788856,0
-0.21674907,0.38943982,-2.1904278,0.33065224,-0.51692414,-0.78959405,0
1.9779147,-1.6240737,3.2345133,0.52625692,-0.593512,0.6089313,0
1.7652618,-2.2782824,2.9079137,0.52625692,-0.593512,0.6089313,0
2.0166645,-2.9560385,0.87995148,0.33065224,-0.51692414,-0.78959405,0
2.173975,-2.8142271,2.110167,0.52625692,-0.593512,0.6089313,0
-1.6666493,1.2105374,-1.8506609,-0.78340483,-0.61687386,0.075788856,0
1.8605154,-3.1616445,1.2457778,-0.78340483,-0.61687386,0.075788856,0
-1.2756326,2.2155707,-2.2802954,0.78340483,0.61687386,-0.075788856,0
2.2543373,-2.8922923,1.9353495,0.52625692,-0.593512,0.6089313,0
2.5579443,-2.4276736,1.9024243,0.52625692,-0.593512,0.6089313,0
-0.23692703,0.089149475,1.7131174,-0.33065224,0.51692414,0.78959405,0
0.50991583,-1.097735,2.262049,-0.78340483,-0.61687386,0.075788856,0
-0.6616503,1.2827187,-2.9017546,0.33065224,-0.51692414,-0.78959405,0
1.2388021,-2.0466857,-0.087076187,0.33065224,-0.51692414,-0.78959405,0
2.0940075,-2.9525318,2.0189126,0.52625692,-0.593512,0.6089313,0
1.815371,-2.0583618,2.9314008,0.52625692,-0.593512,0.6089313,0
-1.1159754,2.1939435,-1.3591653,0.78340483,0.61687386,-0.075788856,0
-0.24515724,-0.76984197,-1.469429,0.33065224,-0.51692414,-0.78959405,0
0.64188951,-0.043369234,0.87948376,0.78340483,0.61687386,-0.075788856,0
2.1917696,-3.0720797,1.6116548,0.52625692,-0.593512,0.6089313,0
-1.4179696,1.6707535,-3.5394144,0.33065224,-0.51692414,-0.78959405,0
1.555829,-0.93443251,1.3540465,0.78340483,0.61687386,-0.075788856,0
1.5044045,-0.78055334,2.3037064,0.78340483,0.61687386,-0.075788856,0
-0.012331128,0.82219768,-0.75975442,0.78340483,0.61687386,-0.075788856,0
0.47020006,-0.80795372,-1.1084456,0.33065224,-0.51692414,-0.78959405,0
-0.84351504,0.30643004,0.038507789,-0.78340483,-0.61687386,0.075788856,0
2.187397,-2.6040227,2.2579603,0.52625692,-0.593512,0.6089313,0
0.36926174,0.51890779,1.7546166,-0.33065224,0.51692414,0.78959405,0
-0.24657571,1.2497373,0.99234551,0.78340483,0.61687386,-0.075788856,0
-1.7742273,2.5177708,-2.4679441,-0.52625692,0.593512,-0.6089313,0
0.82474744,-0.23875183,-0.41461825,0.78340483,0.61687386,-0.075788856,0
-1.4754246,1.7880378,0.18449461,-0.33065224,0.51692414,0.78959405,0
2.3876781,-2.5752413,0.72995734,0.33065224,-0.51692414,-0.78959405,0
-2.4028058,2.0294213,-2.5203612,-0.52625692,0.593512,-0.6089313,0
1.9292063,-2.7615869,2.1048708,0.52625692,-0.593512,0.6089313,0
-0.75753117,0.7769835,0.95374614,-0.33065224,0.51692414,0.78959405,0
0.27125657,0.0032320023,-1.8626151,0.33065224,-0.51692414,-0.78959405,0
-1.6534175,1.0665426,-0.61662906,-0.78340483,-0.61687386,0.075788856,0
2.2678902,-2.8512025,1.9797735,0.52625692,-0.593512,0.6089313,0
-1.8631976,2.4791529,-2.6039267,-0.52625692,0.593512,-0.6089313,0
-2.2162144,1.7406579,-1.8073636,-0.78340483,-0.61687386,0.075788856,0
-0.24400806,-0.11465085,-2.0078132,0.33065224,-0.51692414,-0.78959405,0
-2.6008787,2.6592994,-0.96773124,-0.33065224,0.51692414,0.78959405,0
-0.71521938,0.3217732,-2.4404836,0.33065224,-0.51692414,-0.78959405,0
1.0376585,-2.0915477,-0.0031210184,-0.78340483,-0.61687386,0.075788856,0
1.6455377,-1.6966064,3.3450935,0.52625692,-0.593512,0.6089313,0
-2.5281687,2.6718957,-1.8225119,-0.52625692,0.593512,-0.6089313,0
-0.57449991,1.2412896,-2.7638566,0.78340483,0.61687386,-0.075788856,0
0.96197546,-0.56606638,-1.2103453,0.33065224,-0.51692414,-0.78959405,0
-2.1850486,2.3474376,-0.64261198,-0.33065224,0.51692414,0.78959405,0
2.3069811,-2.5742412,2.0328794,0.52625692,-0.593512,0.6089313,0
2.3663108,-2.0117133,2.4308558,0.52625692,-0.593512,0.6089313,0
-1.5145376,0.72289473,-2.9916024,0.33065224,-0.51692414,-0.78959405,0
0.29171216,-1.0874119,-0.95187443,0.33065224,-0.51692414,-0.78959405,0
1.2243873,-1.4251698,-0.52993214,0.33065224,-0.51692414,-0.78959405,0
-2.0047274,2.3022959,-2.4973168,-0.52625692,0.593512,-0.6089313,0
-1.7927095,2.2116814,-2.8904512,-0.52625692,0.593512,-0.6089313,0
-1.3122033,1.3816016,0.55874395,-0.33065224,0.51692414,0.78959405,0
-1.9557335,3.0163212,-1.7552149,0.78340483,0.61687386,-0.075788856,0
-0.47218633,-0.20966357,-1.9516912,0.33065224,-0.51692414,-0.78959405,0
1.9457436,-1.9516401,2.8852324,0.52625692,-0.593512,0.6089313,0
0.6678642,-0.75886077,-1.2232314,0.33065224,-0.51692414,-0.78959405,0
-0.51023448,-0.04293716,1.8116719,-0.33065224,0.51692414,0.78959405,0
0.43897969,-1.2613994,0.39638442,-0.78340483,-0.61687386,0.075788856,0
2.637907,-2.5899975,1.6226435,0.52625692,-0.593512,0.6089313,0
0.87365222,-1.7482265,0.79360604,-0.78340483,-0.61687386,0.075788856,0
2.9948592,-2.7549753,1.1866918,0.52625692,-0.593512,0.6089313,0
-2.1641202,2.4209239,-0.54160023,-0.33065224,0.51692414,0.78959405,0
-0.015817404,0.7475298,-0.00209409,0.78340483,0.61687386,-0.075788856,0
-2.7251034,2.6213479,-1.5974684,-0.52625692,0.593512,-0.6089313,0
-2.3812897,2.0688641,-2.571713,-0.52625692,0.593512,-0.6089313,0
-0.50928992,0.10111251,-2.2681367,0.33065224,-0.51692414,-0.78959405,0
-1.0479199,1.4436893,-3.2924848,0.33065224,-0.51692414,-0.78959405,0
-0.5920977,0.52031618,-2.3681273,0.33065224,-0.51692414,-0.78959405,0
2.034236,-2.0743701,0.35788655,0.33065224,-0.51692414,-0.78959405,0
-2.3726606,2.8964674,-1.7038047,-0.52625692,0.593512,-0.6089313,0
-1.9608909,2.5750761,-2.4453998,-0.52625692,0.593512,-0.6089313,0
-2.4695821,3.1963968,-1.4223242,-0.52625692,0.593512,-0.6089313,0
-0.451985,-0.17894268,1.6082218,-0.78340483,-0.61687386,0.075788856,0
0.89286697,-1.4367474,-0.68399531,0.33065224,-0.51692414,-0.78959405,0
-0.74995768,0.84421414,1.0616957,-0.33065224,0.51692414,0.78959405,0
-2.1470141,2.7616267,-1.8763235,-0.52625692,0.593512,-0.6089313,0
0.75876915,-1.351115,3.1848018,-0.78340483,-0.61687386,0.075788856,0
-1.4616047,1.9315426,0.08477366,-0.33065224,0.51692414,0.78959405,0
-2.8441489,2.9862478,-1.2911267,-0.52625692,0.593512,-0.6089313,0
1.9013891,-3.0336704,1.8203399,0.52625692,-0.593512,0.6089313,0
0.34568316,-0.73444003,2.6215589,-0.33065224,0.51692414,0.78959405,0
-0.28101361,1.1327698,0.4433524,0.78340483,0.61687386,-0.075788856,0
1.9349933,-1.6761897,3.4075966,0.52625692,-0.593512,0.6089313,0
1.5604331,-2.2617338,2.8537049,0.52625692,-0.593512,0.6089313,0
2.1308346,-1.9126934,2.7248559,0.52625692,-0.593512,0.6089313,0
-3.010884,2.7806578,-1.2097127,-0.33065224,0.51692414,0.78959405,0
-1.8943892,2.8518538,-2.0320964,-0.52625692,0.593512,-0.6089313,0
1.6565219,-2.0731292,0.10417473,0.33065224,-0.51692414,-0.78959405,0
-1.9180174,2.6722584,-0.73562622,-0.33065224,0.51692414,0.78959405,0
-1.6198301,2.1926253,-3.0230241,-0.52625692,0.593512,-0.6089313,0
2.0946567,-2.4970434,2.2809854,0.52625692,-0.593512,0.6089313,0
-1.9881227,2.8756416,-2.0638561,-0.52625692,0.593512,-0.6089313,0
1.830534,-2.9008484,0.7646606,0.33065224,-0.51692414,-0.78959405,0
2.0861197,-1.664173,1.9531223,0.78340483,0.61687386,-0.075788856,0
1.6227596,-2.553962,0.48556376,0.33065224,-0.51692414,-0.78959405,0
-2.0136812,3.0681129,-1.6987548,-0.52625692,0.593512,-0.6089313,0
0.10734046,0.61157465,1.4385153,-0.33065224,0.51692414,0.78959405,0
2.1070564,-2.0902376,2.7744951,0.52625692,-0.593512,0.6089313,0
-0.24682575,0.86355484,-2.4487877,0.33065224,-0.51692414,-0.78959405,0
0.79871869,-1.530784,1.7059796,-0.78340483,-0.61687386,0.075788856,0
1.9556078,-2.7234085,2.1233516,0.52625692,-0.593512,0.6089313,0
-0.20924139,0.71941376,-2.4290059,0.33065224,-0.51692414,-0.78959405,0
1.7451599,-2.2463679,3.0214076,0.52625692,-0.593512,0.6089313,0
-2.2976155,3.3454108,-1.2735839,-0.33065224,0.51692414,0.78959405,0
1.2218461,-0.41927943,1.5020186,0.78340483,0.61687386,-0.075788856,0
0.25181806,0.17656958,-1.9994555,0.33065224,-0.51692414,-0.78959405,0
-1.9275081,1.9315715,-2.9543211,-0.52625692,0.593512,-0.6089313,0
-1.1950328,0.89639747,0.83549559,-0.33065224,0.51692414,0.78959405,0
0.59693044,-0.55010068,2.5255129,-0.33065224,0.51692414,0.78959405,0
1.1368144,-0.59153724,0.48570836,0.78340483,0.61687386,-0.075788856,0
1.4148659,-2.0813847,3.1672955,0.52625692,-0.593512,0.6089313,0
-1.1114414,0.3010031,-1.422451,-0.78340483,-0.61687386,0.075788856,0
2.2658498,-1.8598199,2.8282099,0.52625692,-0.593512,0.6089313,0
-1.7848035,1.8129711,-0.14425445,-0.33065224,0.51692414,0.78959405,0
2.381269,-3.1843138,1.3325808,0.52625692,-0.593512,0.6089313,0
-2.4358873,2.1143403,-1.5196686,-0.78340483,-0.61687386,0.075788856,0
-2.0061576,2.6482587,-2.3495324,-0.52625692,0.593512,-0.6089313,0
1.0044637,-0.86244601,2.9791412,-0.33065224,0.51692414,0.78959405,0
-2.558959,2.2628417,-2.226939,-0.52625692,0.593512,-0.6089313,0
-2.0532129,2.7441158,-2.0493817,-0.52625692,0.593512,-0.6089313,0
0.22463715,-0.86902815,-1.3422713,0.33065224,-0.51692414,-0.78959405,0
-0.36257172,1.1107773,1.0048447,-0.33065224,0.51692414,0.78959405,0
-0.89970076,1.7938882,-1.8307182,0.78340483,0.61687386,-0.075788856,0
-2.7521524,2.93872,-1.1665359,-0.33065224,0.51692414,0.78959405,0
-1.2775941,1.7589483,0.11485255,-0.33065224,0.51692414,0.78959405,0
-1.2248843,2.0746157,-0.023828268,-0.33065224,0.51692414,0.78959405,0
-0.31003743,0.15892953,-2.090415,0.33065224,-0.51692414,-0.78959405,0
0.22761989,-0.32588387,-1.5928775,0.33065224,-0.51692414,-0.78959405,0
2.0557551,-2.1064868,2.8831697,0.52625692,-0.593512,0.6089313,0
-1.1626494,0.90327692,0.88470459,-0.78340483,-0.61687386,0.075788856,0
0.63936645,-1.0594811,2.9220209,-0.33065224,0.51692414,0.78959405,0
2.1989446,-2.5023694,2.2038035,0.52625692,-0.593512,0.6089313,0
1.31516,-1.2681808,3.3051491,-0.33065224,0.51692414,0.78959405,0
-0.48875916,0.17849851,1.6486048,-0.33065224,0.51692414,0.78959405,0
0.74445748,-0.35341746,2.3509374,-0.33065224,0.51692414,0.78959405,0
-2.5845518,2.6063056,-1.9588108,-0.52625692,0.593512,-0.6089313,0
0.3137908,-0.36547452,-1.5684804,0.33065224,-0.51692414,-0.78959405,0
1.5786198,-2.2907665,3.0892801,0.52625692,-0.593512,0.6089313,0
0.34548765,-1.0642003,1.2772341,-0.78340483,-0.61687386,0.075788856,0
2.1831789,-3.0619712,1.5614517,0.52625692,-0.593512,0.6089313,0
1.0694761,-0.35067827,2.5318692,-0.33065224,0.51692414,0.78959405,0
0.76672393,-0.21896642,0.28764474,0.78340483,0.61687386,-0.075788856,0
-2.4182935,2.2531862,-2.3794336,-0.52625692,0.593512,-0.6089313,0
0.71659058,-1.2618324,2.547658,-0.78340483,-0.61687386,0.075788856,0
-1.3642998,0.93457115,0.611929,-0.78340483,-0.61687386,0.075788856,0
-2.0478549,1.9087646,-2.9879131,-0.52625692,0.593512,-0.6089313,0
1.4690943,-1.9526772,3.4183106,0.52625692,-0.593512,0.6089313,0
-2.1848178,3.3390861,-1.4755311,-0.52625692,0.593512,-0.6089313,0
-0.6375128,0.81791449,-2.6026404,0.33065224,-0.51692414,-0.78959405,0
-1.5783457,2.0836644,-3.0266685,-0.52625692,0.593512,-0.6089313,0
-1.8365774,2.2719195,-0.26299274,-0.33065224,0.51692414,0.78959405,0
-0.10189846,-0.56700104,1.0535393,-0.78340483,-0.61687386,0.075788856,0
-0.97790247,0.90939188,-2.8564987,0.33065224,-0.51692414,-0.78959405,0
0.44664025,0.25999296,-0.37305045,0.78340483,0.61687386,-0.075788856,0
-2.3550615,2.2045074,-2.5395222,-0.52625692,0.593512,-0.6089313,0
2.398941,-2.770021,1.6462131,0.52625692,-0.593512,0.6089313,0
1.797802,-1.318765,0.62583554,0.78340483,0.61687386,-0.075788856,0
1.5810926,-2.5089545,0.44552994,0.33065224,-0.51692414,-0.78959405,0
1.9538755,-2.4332318,2.6452072,0.52625692,-0.593512,0.6089313,0
-0.7071597,0.098178297,-1.0531452,-0.78340483,-0.61687386,0.075788856,0
0.20839685,0.57460827,0.65838128,0.78340483,0.61687386,-0.075788856,0
1.8874484,-2.0317161,0.33983243,0.33065224,-0.51692414,-0.78959405,0
2.5585353,-2.4041092,0.83151269,0.78340483,0.61687386,-0.075788856,0
-1.6311131,1.5394422,-3.4842446,0.33065224,-0.51692414,-0.78959405,0
-2.2876265,3.3141069,-1.4610951,-0.52625692,0.593512,-0.6089313,0
2.1573386,-3.2429624,1.586417,0.52625692,-0.593512,0.6089313,0
1.2779787,-1.2316335,3.2275524,-0.33065224,0.51692414,0.78959405,0
-0.7267524,0.52459747,1.234641,-0.33065224,0.51692414,0.78959405,0
2.202116,-3.0475929,1.8415759,0.52625692,-0.593512,0.6089313,0
1.674199,-0.83118141,3.0258417,0.78340483,0.61687386,-0.075788856,0
0.67984891,-1.3737493,-0.59190184,0.33065224,-0.51692414,-0.78959405,0
2.2322459,-2.5180004,2.3112659,0.52625692,-0.593512,0.6089313,0
-2.1618221,2.0755472,-2.6688237,-0.52625692,0.593512,-0.6089313,0
1.2798084,-1.9683964,-0.045785546,0.33065224,-0.51692414,-0.78959405,0
0.97019589,-0.3983444,2.557821,-0.33065224,0.51692414,0.78959405,0
0.65412986,-1.5368409,-0.22610974,-0.78340483,-0.61687386,0.075788856,0
1.6580073,-2.2329574,3.0351129,0.52625692,-0.593512,0.6089313,0
-1.555794,2.1286361,-3.0031505,-0.52625692,0.593512,-0.6089313,0
0.97829998,-0.23248082,0.67238104,0.78340483,0.61687386,-0.075788856,0
-0.62703061,0.1350202,0.33231762,-0.78340483,-0.61687386,0.075788856,0
0.70739996,-1.7467406,-0.11865366,-0.78340483,-0.61687386,0.075788856,0
-2.531054,3.0163355,-1.3704548,-0.52625692,0.593512,-0.6089313,0
2.3936787,-2.0432196,2.2701807,0.78340483,0.61687386,-0.075788856,0
-1.4998205,1.7749296,0.10548544,-0.33065224,0.51692414,0.78959405,0
-1.2502395,0.90119553,-3.0978136,0.33065224,-0.51692414,-0.78959405,0
1.8201387,-1.7148533,3.4658575,0.52625692,-0.593512,0.6089313,0
1.654186,-1.0778275,2.8156822,0.78340483,0.61687386,-0.075788856,0
-2.1164315,1.6862026,-1.3300478,-0.78340483,-0.61687386,0.075788856,0
-2.1013296,2.128809,-2.5877376,-0.52625692,0.593512,-0.6089313,0
-0.099702239,-0.33343476,-1.6298404,0.33065224,-0.51692414,-0.78959405,0
-1.0618638,0.87521094,-2.9139738,0.33065224,-0.51692414,-0.78959405,0
0.64530075,0.17411235,2.0161321,-0.33065224,0.51692414,0.78959405,0
-2.259464,3.137188,-1.4384389,-0.52625692,0.593512,-0.6089313,0
-0.25030178,0.3718375,-2.2224154,0.33065224,-0.51692414,-0.78959405,0
2.0396264,-2.7407591,2.1625195,0.52625692,-0.593512,0.6089313,0
-1.2437595,1.9717569,-2.3756604,0.78340483,0.61687386,-0.075788856,0
2.5314393,-2.2261095,1.9164976,0.78340483,0.61687386,-0.075788856,0
1.8726422,-2.1703286,2.9193587,0.52625692,-0.593512,0.6089313,0
-1.9307688,3.1008205,-1.3904724,0.78340483,0.61687386,-0.075788856,0
-2.8964889,2.6447897,-1.5814245,-0.52625692,0.593512,-0.6089313,0
-0.1456877,-0.6130296,0.72677869,-0.78340483,-0.61687386,0.075788856,0
0.74174333,-0.82866216,2.6941159,-0.33065224,0.51692414,0.78959405,0
2.2260752,-2.1815472,2.3562744,0.52625692,-0.593512,0.6089313,0
2.202199,-1.6571389,1.3767173,0.78340483,0.61687386,-0.075788856,0
-1.063401,0.43459159,-2.5506427,0.33065224,-0.51692414,-0.78959405,0
-0.94581598,0.55790597,0.36799297,-0.78340483,-0.61687386,0.075788856,0
1.8233732,-2.653456,2.2883868,0.52625692,-0.593512,0.6089313,0
0.11776346,-0.99122214,0.89430577,-0.78340483,-0.61687386,0.075788856,0
2.1146414,-3.2451015,1.4088225,-0.78340483,-0.61687386,0.075788856,0
2.3329728,-2.1940656,0.68843615,0.78340483,0.61687386,-0.075788856,0
-2.288378,3.2009311,-1.5308845,-0.52625692,0.593512,-0.6089313,0
0.4628787,-1.2354033,1.4579568,-0.78340483,-0.61687386,0.075788856,0
-2.8597293,2.6982474,-1.3360078,-0.52625692,0.593512,-0.6089313,0
2.7447882,-2.7974565,1.1342156,0.33065224,-0.51692414,-0.78959405,0
2.2909346,-2.3236148,2.2286525,0.52625692,-0.593512,0.6089313,0
-1.5584147,2.200995,-3.024229,-0.52625692,0.593512,-0.6089313,0
-1.6450958,1.418069,0.21702361,-0.33065224,0.51692414,0.78959405,0
1.6270177,-2.2800932,2.8903103,0.52625692,-0.593512,0.6089313,0
-0.50772178,0.95430458,1.0644107,-0.33065224,0.51692414,0.78959405,0
-2.4206204,2.8553672,-1.5407016,-0.52625692,0.593512,-0.6089313,0
-1.8522004,2.4115641,-2.5242033,-0.52625692,0.593512,-0.6089313,0
1.0318145,-2.0358691,0.4234978,-0.78340483,-0.61687386,0.075788856,0
2.3812511,-3.2502663,1.3262286,0.52625692,-0.593512,0.6089313,0
1.4972295,-2.6193035,1.3400728,-0.78340483,-0.61687386,0.075788856,0
1.766866,-2.6989448,2.385937,0.52625692,-0.593512,0.6089313,0
0.95031917,-1.5961674,2.686609,-0.78340483,-0.61687386,0.075788856,0
1.3658655,-0.93445796,0.2810747,0.78340483,0.61687386,-0.075788856,0
-2.2887568,2.1967716,-0.38551593,-0.33065224,0.51692414,0.78959405,0
-1.3325287,2.1816428,-3.2017953,-0.52625692,0.593512,-0.6089313,0
-0.90046334,0.11915236,-2.4004688,0.33065224,-0.51692414,-0.78959405,0
0.65609753,-1.4792317,-0.62437969,0.33065224,-0.51692414,-0.78959405,0
-2.2007234,3.3929269,-1.2823145,-0.52625692,0.593512,-0.6089313,0
0.8360849,-0.19733655,0.062261403,0.78340483,0.61687386,-0.075788856,0
1.8280368,-1.9738398,3.1127005,0.52625692,-0.593512,0.6089313,0
-2.2149084,2.2387488,-2.6258383,-0.52625692,0.593512,-0.6089313,0
2.0916212,-1.5048201,1.707086,0.78340483,0.61687386,-0.075788856,0
-1.6760062,2.1018541,-3.0575323,-0.52625692,0.593512,-0.6089313,0
2.2210045,-3.2802033,1.3926046,0.52625692,-0.593512,0.6089313,0
2.8992152,-2.6620796,1.3387654,0.52625692,-0.593512,0.6089313,0
1.7169913,-1.9003633,3.1463094,0.52625692,-0.593512,0.6089313,0
1.8493443,-2.4892642,2.6430969,0.52625692,-0.593512,0.6089313,0
-1.8705944,1.2230914,-3.1171334,-0.78340483,-0.61687386,0.075788856,0
-0.75466257,1.3961154,-1.757278,0.78340483,0.61687386,-0.075788856,0
-1.2305676,0.81947011,0.83346039,-0.33065224,0.51692414,0.78959405,0
-1.9044094,1.4726335,-0.37470579,-0.78340483,-0.61687386,0.075788856,0
-0.26976302,-0.37415296,0.72747093,-0.78340483,-0.61687386,0.075788856,0
-0.21657562,-0.3386907,0.90322524,-0.78340483,-0.61687386,0.075788856,0
-1.0568725,1.6802447,0.29152203,-0.33065224,0.51692414,0.78959405,0
-0.54227865,1.5512267,-0.32484353,0.78340483,0.61687386,-0.075788856,0
-2.681221,2.55057,-1.7305872,-0.52625692,0.593512,-0.6089313,0
-0.7656039,0.057543367,-1.8564408,-0.78340483,-0.61687386,0.075788856,0
-2.5048227,2.9748552,-1.4395993,-0.52625692,0.593512,-0.6089313,0
-1.6532637,1.3379602,-3.4324551,0.33065224,-0.51692414,-0.78959405,0
-1.883463,2.0750506,-0.30565834,-0.33065224,0.51692414,0.78959405,0
-1.5831641,1.983452,-3.4303865,-0.52625692,0.593512,-0.6089313,0
-1.4599594,2.3304899,-1.5250686,0.78340483,0.61687386,-0.075788856,0
-1.9581654,2.9357092,-1.8723426,-0.52625692,0.593512,-0.6089313,0
1.6210763,-1.7850457,0.0539428,0.33065224,-0.51692414,-0.78959405,0
-0.47683048,1.5389564,0.70458609,-0.33065224,0.51692414,0.78959405,0
-0.69056278,0.54584688,-2.6357832,0.33065224,-0.51692414,-0.78959405,0
-1.8774105,1.7387047,-3.1912131,-0.52625692,0.593512,-0.6089313,0
0.0086340904,-0.60859346,-1.4547508,0.33065224,-0.51692414,-0.78959405,0
