-0.59056598,1.6245019,-1.1069195,-0.59646547,0.1791963,-0.78237951,0
0.0078198314,-3.5719361,1.1159945,0.59646547,-0.1791963,0.78237951,0
1.543448,2.7210917,-0.044845581,0.74036556,-0.25361907,-0.6225242,0
-1.145382,-4.2434411,0.7274785,-0.30998048,-0.95056099,0.018604219,0
1.9181283,1.6767551,0.77705133,0.74036556,-0.25361907,-0.6225242,0
-0.79542089,-4.488946,0.19143915,-0.30998048,-0.95056099,0.018604219,0
-0.37970155,-2.6323476,1.4353471,-0.74036556,0.25361907,0.6225242,0
-1.6553038,-4.2891188,-0.67819142,-0.30998048,-0.95056099,0.018604219,0
0.24129324,-0.94768274,-0.17348337,0.74036556,-0.25361907,-0.6225242,0
1.0716984,4.4138522,0.17154932,0.30998048,0.95056099,-0.018604219,0
1.2335947,4.394268,-1.2458215,0.30998048,0.95056099,-0.018604219,0
0.086141706,4.3595958,-1.0439568,-0.59646547,0.1791963,-0.78237951,0
0.35768622,4.5111074,-0.81869864,0.30998048,0.95056099,-0.018604219,0
1.4016922,-0.08919023,0.88177466,0.59646547,-0.1791963,0.78237951,0
1.7093296,0.98830533,0.87196708,0.59646547,-0.1791963,0.78237951,0
-1.9648501,-3.6972086,-1.3925078,-0.59646547,0.1791963,-0.78237951,0
-1.8284509,-3.6629703,0.18358469,-0.74036556,0.25361907,0.6225242,0
-0.42398286,-0.71975935,0.71645665,-0.74036556,0.25361907,0.6225242,0
-2.2543747,-4.0315337,-0.96398807,-0.30998048,-0.95056099,0.018604219,0
-1.2081326,-0.94868577,-1.3326679,-0.59646547,0.1791963,-0.78237951,0
1.0116634,4.2781219,-1.4715586,0.30998048,0.95056099,-0.018604219,0
-0.60973936,1.315552,-0.53403974,-0.74036556,0.25361907,0.6225242,0
-1.8262463,-1.6314945,-0.78860164,-0.59646547,0.1791963,-0.78237951,0
0.68910992,-1.4460818,0.6893748,0.74036556,-0.25361907,-0.6225242,0
0.081219792,-2.6766908,1.1277142,0.59646547,-0.1791963,0.78237951,0
-1.9383433,-4.1885424,-0.12695169,-0.30998048,-0.95056099,0.018604219,0
2.4169087,3.6504102,0.87650108,0.59646547,-0.1791963,0.78237951,0
-0.097062826,2.2789187,-0.33418608,-0.74036556,0.25361907,0.6225242,0
1.4574364,4.2921429,0.10454464,0.30998048,0.95056099,-0.018604219,0
0.071363002,-2.9514315,0.61182737,0.74036556,-0.25361907,-0.6225242,0
-0.0088350773,-1.7140062,1.4642268,0.59646547,-0.1791963,0.78237951,0
-1.0693176,-4.4474192,1.209857,-0.30998048,-0.95056099,0.018604219,0
-0.814502,-4.437377,0.46031666,-0.30998048,-0.95056099,0.018604219,0
1.4014705,4.3120184,0.52849555,0.30998048,0.95056099,-0.018604219,0
2.3304868,4.0659704,0.67367554,0.30998048,0.95056099,-0.018604219,0
2.3417804,3.6353631,0.3736062,0.74036556,-0.25361907,-0.6225242,0
-2.1219425,-3.963171,-0.40445995,-0.30998048,-0.95056099,0.018604219,0
-2.0821252,-2.1713483,-0.92472172,-0.59646547,0.1791963,-0.78237951,0
1.6210674,0.67145622,0.82850569,0.59646547,-0.1791963,0.78237951,0
1.3272555,4.2130604,-0.21596813,0.30998048,0.95056099,-0.018604219,0
-2.1764164,-4.1123643,-0.52452946,-0.30998048,-0.95056099,0.018604219,0
0.18085027,3.5944052,-1.3573251,-0.59646547,0.1791963,-0.78237951,0
-0.51343131,1.0280924,-1.1902493,-0.59646547,0.1791963,-0.78237951,0
0.69880885,3.538619,-1.4127767,0.74036556,-0.25361907,-0.6225242,0
0.53194016,-1.909404,1.1676664,0.59646547,-0.1791963,0.78237951,0
-1.2735245,-0.31231838,-1.0102856,-0.59646547,0.1791963,-0.78237951,0
0.75472206,4.3906107,-1.2098765,0.30998048,0.95056099,-0.018604219,0
-0.19953626,2.3960707,-0.54886782,-0.74036556,0.25361907,0.6225242,0
-0.014940642,-2.6828322,1.3394089,0.59646547,-0.1791963,0.78237951,0
0.76361358,-1.6040459,0.96576571,0.59646547,-0.1791963,0.78237951,0
1.5463009,4.2071581,0.44001913,0.30998048,0.95056099,-0.018604219,0
1.4885263,4.1910686,0.29263258,0.30998048,0.95056099,-0.018604219,0
-0.12531996,-4.3679848,1.1034603,0.59646547,-0.1791963,0.78237951,0
-2.2842109,-3.9589806,-0.73254442,-0.30998048,-0.95056099,0.018604219,0
0.75605857,1.3619324,-0.30062032,0.74036556,-0.25361907,-0.6225242,0
-1.0495567,-4.2917428,1.1097784,-0.30998048,-0.95056099,0.018604219,0
-1.6606143,-1.7517856,-1.0317855,-0.59646547,0.1791963,-0.78237951,0
0.10223687,4.6624479,-0.85407186,0.30998048,0.95056099,-0.018604219,0
-1.6389229,-4.1736612,0.20483971,-0.30998048,-0.95056099,0.018604219,0
-0.36485285,-3.6830707,1.4084892,0.59646547,-0.1791963,0.78237951,0
-1.6416907,-4.0966511,0.1562233,-0.30998048,-0.95056099,0.018604219,0
1.3812649,4.3668699,0.033967018,0.30998048,0.95056099,-0.018604219,0
1.3220031,3.1092989,-0.3922739,0.74036556,-0.25361907,-0.6225242,0
-0.69033581,-0.019373775,-1.2935264,-0.59646547,0.1791963,-0.78237951,0
0.1831589,4.221961,-1.1690917,-0.59646547,0.1791963,-0.78237951,0
-0.63651073,0.60148585,-1.2116001,-0.59646547,0.1791963,-0.78237951,0
-1.7479731,-4.2127705,-0.3148241,-0.30998048,-0.95056099,0.018604219,0
0.88783848,2.7358255,0.66896963,-0.74036556,0.25361907,0.6225242,0
1.6619051,1.9906507,1.0627558,0.59646547,-0.1791963,0.78237951,0
-0.4373261,2.1104417,-1.0176203,-0.59646547,0.1791963,-0.78237951,0
1.3529198,3.0487773,1.2497766,-0.74036556,0.25361907,0.6225242,0
-1.425065,-4.3306837,0.36432171,-0.30998048,-0.95056099,0.018604219,0
1.9425179,4.0592341,0.67126918,0.30998048,0.95056099,-0.018604219,0
1.6782219,2.08125,1.0252081,0.59646547,-0.1791963,0.78237951,0
1.6277241,2.0287807,1.013569,0.59646547,-0.1791963,0.78237951,0
0.41157538,4.4207492,-0.51497483,-0.74036556,0.25361907,0.6225242,0
1.3706028,0.88362825,0.6130138,0.74036556,-0.25361907,-0.6225242,0
-0.93522477,-4.4983897,0.42790651,-0.30998048,-0.95056099,0.018604219,0
1.4877477,1.8021005,1.158735,0.59646547,-0.1791963,0.78237951,0
1.0871968,0.16681293,1.0449728,0.59646547,-0.1791963,0.78237951,0
-1.5035739,-3.3368862,-1.0717528,0.74036556,-0.25361907,-0.6225242,0
-0.14236614,2.0292654,-1.3692745,-0.59646547,0.1791963,-0.78237951,0
-2.1660933,-3.5843616,-0.27912426,-0.74036556,0.25361907,0.6225242,0
1.1577275,3.2524202,0.72395396,-0.74036556,0.25361907,0.6225242,0
-0.32996523,2.8368211,-0.83730578,-0.74036556,0.25361907,0.6225242,0
1.1049514,4.3220215,0.040148258,0.30998048,0.95056099,-0.018604219,0
0.14339945,4.2423592,-1.1704719,-0.59646547,0.1791963,-0.78237951,0
-2.1814773,-3.982779,-0.82809973,-0.30998048,-0.95056099,0.018604219,0
-1.1260415,-4.0026522,-0.45207644,0.74036556,-0.25361907,-0.6225242,0
-0.22643846,-4.5997605,1.0123503,-0.30998048,-0.95056099,0.018604219,0
-1.4676869,-2.2806125,-1.3702976,-0.59646547,0.1791963,-0.78237951,0
-0.3746376,1.5344353,-0.3241595,-0.74036556,0.25361907,0.6225242,0
-0.71729076,-1.3247676,0.60764468,-0.74036556,0.25361907,0.6225242,0
-0.94026595,-4.3169322,0.39935827,-0.30998048,-0.95056099,0.018604219,0
-0.30272889,-4.4241705,1.1320779,0.59646547,-0.1791963,0.78237951,0
0.18558115,-2.9729681,0.51604509,0.74036556,-0.25361907,-0.6225242,0
-1.2050978,-0.74334437,-0.38933051,-0.74036556,0.25361907,0.6225242,0
-1.3068446,-0.075720251,-0.89027786,-0.59646547,0.1791963,-0.78237951,0
-1.4399596,-4.3219991,-0.542454,-0.30998048,-0.95056099,0.018604219,0
0.77948737,3.7991829,-1.4184394,0.74036556,-0.25361907,-0.6225242,0
1.8004966,2.2659216,1.0467931,0.59646547,-0.1791963,0.78237951,0
-0.74717581,-0.40957326,-1.4726703,-0.59646547,0.1791963,-0.78237951,0
-1.3284461,-1.232935,-1.0938194,-0.59646547,0.1791963,-0.78237951,0
-0.89676178,-3.5386581,1.290488,-0.74036556,0.25361907,0.6225242,0
-0.9027102,-4.3344631,0.8924427,-0.30998048,-0.95056099,0.018604219,0
1.3112965,4.3444877,-0.26384544,0.30998048,0.95056099,-0.018604219,0
0.25514573,1.5175806,0.6477142,-0.74036556,0.25361907,0.6225242,0
-0.3753193,1.2298504,-0.24996048,-0.74036556,0.25361907,0.6225242,0
1.3062825,4.3398547,-0.12264252,0.30998048,0.95056099,-0.018604219,0
-0.27259958,-4.7241654,0.9560976,-0.30998048,-0.95056099,0.018604219,0
1.0387114,0.85294056,0.06382215,0.74036556,-0.25361907,-0.6225242,0
-0.033473358,-3.3384681,1.2837982,0.59646547,-0.1791963,0.78237951,0
-0.18336311,3.3728321,-1.0995297,-0.59646547,0.1791963,-0.78237951,0
-0.07319542,-2.6001067,1.3084097,0.59646547,-0.1791963,0.78237951,0
-1.1122589,-4.405623,0.5951643,-0.30998048,-0.95056099,0.018604219,0
1.1760159,4.2706251,-0.43488312,0.30998048,0.95056099,-0.018604219,0
-1.703899,-4.2061472,-0.6101203,-0.30998048,-0.95056099,0.018604219,0
-0.61573881,2.1525457,-1.0421152,-0.59646547,0.1791963,-0.78237951,0
-2.304183,-3.4048357,-1.0022399,-0.59646547,0.1791963,-0.78237951,0
-0.85781229,-4.4641352,0.032269001,-0.30998048,-0.95056099,0.018604219,0
0.31392777,4.586647,-0.90268135,0.30998048,0.95056099,-0.018604219,0
-1.7517436,-4.0725269,0.26176453,-0.30998048,-0.95056099,0.018604219,0
0.32564402,4.3623247,-1.1231623,-0.59646547,0.1791963,-0.78237951,0
-0.067311615,-3.9722152,1.1420007,0.59646547,-0.1791963,0.78237951,0
-0.84709877,-0.39219731,0.066564977,-0.74036556,0.25361907,0.6225242,0
-2.4563825,-3.430932,-0.68824553,-0.74036556,0.25361907,0.6225242,0
-1.3612878,0.23332512,-0.80975789,-0.74036556,0.25361907,0.6225242,0
0.58591872,4.5270224,-0.63831091,0.30998048,0.95056099,-0.018604219,0
0.048580021,-2.4994681,0.29413295,0.74036556,-0.25361907,-0.6225242,0
0.35873029,-1.6676039,1.3753568,0.59646547,-0.1791963,0.78237951,0
-1.1718791,0.13126111,-0.9155215,-0.59646547,0.1791963,-0.78237951,0
1.38796,2.770916,1.2345164,-0.74036556,0.25361907,0.6225242,0
-0.88838923,-4.3406272,-0.0063176155,-0.30998048,-0.95056099,0.018604219,0
-1.5883932,-4.1698818,0.3500843,-0.30998048,-0.95056099,0.018604219,0
0.56614596,3.8983262,-0.184304,-0.74036556,0.25361907,0.6225242,0
-1.504216,-3.4286716,-1.0567119,0.74036556,-0.25361907,-0.6225242,0
2.1090665,4.0312147,0.64358711,0.30998048,0.95056099,-0.018604219,0
-0.21591496,2.7037015,-1.0116968,-0.59646547,0.1791963,-0.78237951,0
-0.3116,-2.2756002,1.3588758,-0.74036556,0.25361907,0.6225242,0
1.4034259,4.3042612,-0.72062254,0.30998048,0.95056099,-0.018604219,0
0.74920821,0.51536548,1.3684974,0.59646547,-0.1791963,0.78237951,0
0.22770827,2.9452963,-1.5403576,-0.59646547,0.1791963,-0.78237951,0
2.299829,4.0377541,0.75504589,0.30998048,0.95056099,-0.018604219,0
2.2330914,3.9706097,0.62585545,0.30998048,0.95056099,-0.018604219,0
0.1199697,3.7690814,-1.1262579,-0.59646547,0.1791963,-0.78237951,0
1.9520762,4.1406374,1.1421154,0.30998048,0.95056099,-0.018604219,0
-1.1528268,-4.381578,0.64931107,-0.30998048,-0.95056099,0.018604219,0
-1.6814673,-4.1755595,-0.29473066,-0.30998048,-0.95056099,0.018604219,0
0.64678639,1.8676696,-0.90237439,0.74036556,-0.25361907,-0.6225242,0
-0.86649579,0.6548332,-1.021695,-0.59646547,0.1791963,-0.78237951,0
0.77737319,3.0450478,-1.1303308,0.74036556,-0.25361907,-0.6225242,0
-0.026857197,-3.8973799,1.0997398,0.59646547,-0.1791963,0.78237951,0
-1.8878192,-3.5572448,-1.1787317,-0.59646547,0.1791963,-0.78237951,0
-1.3782444,-4.3117695,0.075657368,-0.30998048,-0.95056099,0.018604219,0
-0.19534957,1.4288409,-1.3251735,-0.59646547,0.1791963,-0.78237951,0
-2.0599351,-2.1655777,-0.89091086,-0.59646547,0.1791963,-0.78237951,0
1.0540297,0.73335558,1.2707384,0.59646547,-0.1791963,0.78237951,0
0.37097102,-0.76176798,1.3345566,0.59646547,-0.1791963,0.78237951,0
-1.3810824,-2.081399,-1.3058721,-0.59646547,0.1791963,-0.78237951,0
-0.14965606,-0.4539786,-0.88923967,0.74036556,-0.25361907,-0.6225242,0
-0.045973212,-0.33694905,-0.66314852,0.74036556,-0.25361907,-0.6225242,0
-1.1166556,-3.0208852,-0.8423202,0.74036556,-0.25361907,-0.6225242,0
1.889783,3.124794,0.25295329,0.74036556,-0.25361907,-0.6225242,0
-0.96434247,-4.2826271,1.4198937,-0.74036556,0.25361907,0.6225242,0
1.6218034,4.196856,1.0081046,-0.74036556,0.25361907,0.6225242,0
-1.0688252,-4.3220487,0.72020102,-0.30998048,-0.95056099,0.018604219,0
-0.58476132,0.33710176,-1.3354146,-0.59646547,0.1791963,-0.78237951,0
-0.09668076,-3.9183743,0.70369172,0.74036556,-0.25361907,-0.6225242,0
-0.48485419,-0.61385018,0.38364691,-0.74036556,0.25361907,0.6225242,0
-2.2613606,-3.8105924,-0.26005316,-0.74036556,0.25361907,0.6225242,0
-0.45693636,-4.6612062,0.84411001,-0.30998048,-0.95056099,0.018604219,0
1.7037278,4.0851431,-0.43472052,0.30998048,0.95056099,-0.018604219,0
0.70220804,4.5144539,-0.52473116,0.30998048,0.95056099,-0.018604219,0
0.84303606,4.5327201,-0.24648666,0.30998048,0.95056099,-0.018604219,0
-0.37700433,-4.4943094,1.1606195,-0.30998048,-0.95056099,0.018604219,0
1.3063486,4.298224,0.42580986,0.30998048,0.95056099,-0.018604219,0
-0.28324103,-4.586555,0.76550484,-0.30998048,-0.95056099,0.018604219,0
1.6131376,4.1253414,0.1614275,0.30998048,0.95056099,-0.018604219,0
1.9525743,1.9095531,0.83895409,0.59646547,-0.1791963,0.78237951,0
-0.68914336,0.37722751,-1.2172922,-0.59646547,0.1791963,-0.78237951,0
0.14161012,-3.0084839,1.211463,0.59646547,-0.1791963,0.78237951,0
-0.44883418,-3.3035107,1.509419,0.59646547,-0.1791963,0.78237951,0
1.2836179,4.2713771,0.18584776,0.30998048,0.95056099,-0.018604219,0
-2.2844424,-3.9828069,-0.68033981,-0.30998048,-0.95056099,0.018604219,0
0.2164281,4.5425596,-0.95821619,0.30998048,0.95056099,-0.018604219,0
0.57637841,1.5028975,0.91482717,-0.74036556,0.25361907,0.6225242,0
-2.5643921,-3.8700171,-0.64896774,-0.30998048,-0.95056099,0.018604219,0
-1.8885372,-4.1139979,0.11421061,-0.30998048,-0.95056099,0.018604219,0
-0.84827709,-0.5655458,-1.368634,-0.59646547,0.1791963,-0.78237951,0
1.0678884,3.2192519,0.66345978,-0.74036556,0.25361907,0.6225242,0
-0.87580061,-4.3975468,1.1093988,-0.30998048,-0.95056099,0.018604219,0
1.2811496,0.41103905,0.45895588,0.74036556,-0.25361907,-0.6225242,0
0.93963087,0.3641727,1.2489593,0.59646547,-0.1791963,0.78237951,0
-0.58040261,1.4427617,-1.1576792,-0.59646547,0.1791963,-0.78237951,0
-1.857084,-4.2094626,-0.35980701,-0.30998048,-0.95056099,0.018604219,0
-1.8827122,-1.712422,-0.90583611,-0.59646547,0.1791963,-0.78237951,0
-1.3727896,-4.2442608,-0.64645839,-0.30998048,-0.95056099,0.018604219,0
-1.4697303,-2.998975,-1.3662984,0.74036556,-0.25361907,-0.6225242,0
-1.7389401,-4.179986,-0.71141076,-0.30998048,-0.95056099,0.018604219,0
-2.1256127,-4.1313772,-0.28253126,-0.30998048,-0.95056099,0.018604219,0
1.1164601,4.4772873,0.22668743,0.30998048,0.95056099,-0.018604219,0
1.6932092,4.1075425,0.18560266,0.30998048,0.95056099,-0.018604219,0
0.13730094,-3.7087436,0.89585447,0.74036556,-0.25361907,-0.6225242,0
-0.51560903,0.082525432,0.20527916,-0.74036556,0.25361907,0.6225242,0
1.2343355,0.33417004,0.59760654,0.74036556,-0.25361907,-0.6225242,0
-1.4615929,-2.6472683,0.26829433,-0.74036556,0.25361907,0.6225242,0
0.096011758,1.4983239,0.20111954,-0.74036556,0.25361907,0.6225242,0
-1.8990643,-4.1739688,-1.0913675,-0.30998048,-0.95056099,0.018604219,0
0.11726874,3.51966,-0.38349962,-0.74036556,0.25361907,0.6225242,0
2.0482907,4.1209249,1.0719178,0.30998048,0.95056099,-0.018604219,0
-0.82798147,-2.2586484,0.68461108,-0.74036556,0.25361907,0.6225242,0
0.45978415,3.0044684,-1.6006978,-0.59646547,0.1791963,-0.78237951,0
0.82865894,0.71242362,1.4889927,0.59646547,-0.1791963,0.78237951,0
-0.76627648,-4.4217615,0.76003885,-0.30998048,-0.95056099,0.018604219,0
1.9464755,1.9930449,0.97909141,0.59646547,-0.1791963,0.78237951,0
-0.17281041,-2.1885867,1.4217749,-0.74036556,0.25361907,0.6225242,0
1.2581251,3.4670835,-0.63011265,0.74036556,-0.25361907,-0.6225242,0
1.1272273,3.4416704,-0.70705295,0.74036556,-0.25361907,-0.6225242,0
-1.8579897,-4.0370021,-0.24570227,-0.30998048,-0.95056099,0.018604219,0
0.18882334,2.3805618,-1.4334896,0.74036556,-0.25361907,-0.6225242,0
-0.76445544,-0.63513339,-1.2929611,0.74036556,-0.25361907,-0.6225242,0
-0.15510905,2.6620896,-1.1346369,-0.59646547,0.1791963,-0.78237951,0
1.6356392,4.2318449,-0.18698168,0.30998048,0.95056099,-0.018604219,0
1.6673101,4.2147336,0.67140222,0.30998048,0.95056099,-0.018604219,0
1.1806297,0.1020909,1.090711,0.59646547,-0.1791963,0.78237951,0
2.2692192,4.0393939,0.80338192,0.30998048,0.95056099,-0.018604219,0
-2.5741429,-3.559896,-0.725456,-0.74036556,0.25361907,0.6225242,0
-0.42665172,-3.1757236,0.0020098686,0.74036556,-0.25361907,-0.6225242,0
0.64505398,-1.2820837,1.1013463,0.59646547,-0.1791963,0.78237951,0
-2.3232474,-3.8930712,-0.28843832,-0.30998048,-0.95056099,0.018604219,0
-1.2772797,-4.0088291,-0.79428673,0.74036556,-0.25361907,-0.6225242,0
-1.1489625,1.0126204,-0.86556721,-0.59646547,0.1791963,-0.78237951,0
-2.4324417,-3.9287422,-0.82354832,-0.30998048,-0.95056099,0.018604219,0
0.65543973,4.5167794,-0.73442411,0.30998048,0.95056099,-0.018604219,0
-1.2504984,-1.1293108,-1.2295845,-0.59646547,0.1791963,-0.78237951,0
-2.0984001,-4.159667,-0.40160036,-0.30998048,-0.95056099,0.018604219,0
-1.8294334,-4.2255268,0.3629303,-0.30998048,-0.95056099,0.018604219,0
-1.2413738,-4.2296915,-0.43667006,0.74036556,-0.25361907,-0.6225242,0
1.0443633,-0.72552979,0.93349618,0.59646547,-0.1791963,0.78237951,0
-0.68512893,1.0471811,-1.1491137,-0.59646547,0.1791963,-0.78237951,0
1.5009948,1.6635959,1.25632,0.59646547,-0.1791963,0.78237951,0
0.35986263,4.5556188,-0.72656822,0.30998048,0.95056099,-0.018604219,0
-0.22842836,-4.744483,1.0043688,-0.30998048,-0.95056099,0.018604219,0
0.4639692,2.7555623,-1.3847787,0.74036556,-0.25361907,-0.6225242,0
-2.0979948,-3.9605093,-0.020681381,-0.30998048,-0.95056099,0.018604219,0
-0.84212393,-4.5190392,1.3207545,-0.30998048,-0.95056099,0.018604219,0
-0.5470866,-4.4716821,0.38982201,0.74036556,-0.25361907,-0.6225242,0
1.3209116,0.37577266,1.0779387,0.59646547,-0.1791963,0.78237951,0
-1.4646654,-2.2610545,-0.15127778,-0.74036556,0.25361907,0.6225242,0
-0.70862192,-4.4719443,1.0125542,-0.30998048,-0.95056099,0.018604219,0
-0.13491596,1.1494251,0.014253438,-0.74036556,0.25361907,0.6225242,0
-1.9617974,-3.7559056,-1.4074752,-0.59646547,0.1791963,-0.78237951,0
-0.3022092,-3.4780028,0.25789905,0.74036556,-0.25361907,-0.6225242,0
-0.38519019,1.358794,-1.3406725,-0.59646547,0.1791963,-0.78237951,0
-1.0717998,-4.375813,0.43043041,-0.30998048,-0.95056099,0.018604219,0
-0.28240675,-4.076776,1.0909243,0.59646547,-0.1791963,0.78237951,0
-0.42790723,-4.2753158,1.2056901,0.59646547,-0.1791963,0.78237951,0
-0.72842765,-4.3999891,1.252985,-0.30998048,-0.95056099,0.018604219,0
1.078415,4.3062997,-0.40946054,0.30998048,0.95056099,-0.018604219,0
0.24295837,-0.095475972,-0.42420143,0.74036556,-0.25361907,-0.6225242,0
-1.9198115,-4.0706005,-0.095982075,-0.30998048,-0.95056099,0.018604219,0
-0.72572261,-2.5232844,0.80979896,-0.74036556,0.25361907,0.6225242,0
2.2190328,4.1243777,0.51254368,0.30998048,0.95056099,-0.018604219,0
1.0175502,4.4588833,-0.85626984,0.30998048,0.95056099,-0.018604219,0
-1.3215761,-0.17374516,-0.87558615,-0.59646547,0.1791963,-0.78237951,0
-0.83896196,-0.3628363,-1.4587054,-0.59646547,0.1791963,-0.78237951,0
1.4940351,4.206727,0.58477521,0.30998048,0.95056099,-0.018604219,0
-0.48026973,-0.26387644,-1.128378,0.74036556,-0.25361907,-0.6225242,0
-0.56568658,2.3971465,-1.0310304,-0.59646547,0.1791963,-0.78237951,0
-0.68508005,1.1558774,-1.0404675,-0.59646547,0.1791963,-0.78237951,0
1.3561671,1.6565477,0.24433947,0.74036556,-0.25361907,-0.6225242,0
1.0196999,4.413269,-0.67215681,0.30998048,0.95056099,-0.018604219,0
-0.48017448,0.22617018,-1.3830019,0.74036556,-0.25361907,-0.6225242,0
-0.52631098,1.6884258,-1.2570229,-0.59646547,0.1791963,-0.78237951,0
0.94243753,0.89135438,1.5237548,0.59646547,-0.1791963,0.78237951,0
1.9838784,4.1258268,0.75253916,0.30998048,0.95056099,-0.018604219,0
-1.3947989,-0.96723789,-0.44464886,-0.74036556,0.25361907,0.6225242,0
-0.82879686,-4.5489335,0.30463552,-0.30998048,-0.95056099,0.018604219,0
-1.988735,-4.0156693,-0.94740248,-0.30998048,-0.95056099,0.018604219,0
0.29086429,4.538311,-1.158051,-0.59646547,0.1791963,-0.78237951,0
0.59341568,-1.3117093,0.32881063,0.74036556,-0.25361907,-0.6225242,0
1.5830673,1.3999584,1.0769503,0.59646547,-0.1791963,0.78237951,0
0.53040737,-0.57031345,1.2567559,0.59646547,-0.1791963,0.78237951,0
0.74237472,4.2195778,-1.5467062,-0.59646547,0.1791963,-0.78237951,0
0.6029017,4.5275664,-0.60061407,0.30998048,0.95056099,-0.018604219,0
-0.18586513,2.2875693,-1.1577206,-0.59646547,0.1791963,-0.78237951,0
0.42775288,-2.1282163,1.0503638,0.59646547,-0.1791963,0.78237951,0
1.896059,4.1041746,0.43306875,0.30998048,0.95056099,-0.018604219,0
-1.1600411,-4.4465361,0.60491896,-0.30998048,-0.95056099,0.018604219,0
1.6138431,4.1738372,-0.13150167,0.30998048,0.95056099,-0.018604219,0
1.1863853,4.3489881,-0.95906258,0.30998048,0.95056099,-0.018604219,0
0.86953557,-1.4052646,0.93245018,0.59646547,-0.1791963,0.78237951,0
0.38116211,2.1349065,0.29072547,-0.74036556,0.25361907,0.6225242,0
0.20718026,-1.7785958,1.4051476,0.59646547,-0.1791963,0.78237951,0
-1.7830356,-4.118268,-0.71055198,-0.30998048,-0.95056099,0.018604219,0
0.6515922,-0.26390666,1.4201049,0.59646547,-0.1791963,0.78237951,0
-1.7362072,-1.3524942,-0.69906747,-0.74036556,0.25361907,0.6225242,0
-0.51306087,-1.1488931,0.50541139,-0.74036556,0.25361907,0.6225242,0
0.85960305,-1.3222405,0.88171852,0.59646547,-0.1791963,0.78237951,0
0.27739251,2.5296845,0.04230094,-0.74036556,0.25361907,0.6225242,0
-2.1505582,-2.8835607,-0.8114543,-0.59646547,0.1791963,-0.78237951,0
0.90554821,2.8165526,0.72300124,-0.74036556,0.25361907,0.6225242,0
1.3546503,1.4825535,0.13020539,0.74036556,-0.25361907,-0.6225242,0
0.53214329,1.390518,1.0261688,-0.74036556,0.25361907,0.6225242,0
0.41182709,-0.34664965,1.321597,-0.74036556,0.25361907,0.6225242,0
0.32606715,-1.6471157,1.3257481,0.59646547,-0.1791963,0.78237951,0
-1.934746,-3.7278154,-1.1848884,-0.59646547,0.1791963,-0.78237951,0
-0.18568581,-4.6424403,0.99275231,-0.30998048,-0.95056099,0.018604219,0
2.3559947,4.0379329,0.70159912,0.30998048,0.95056099,-0.018604219,0
2.0856647,2.6614382,0.6559484,0.74036556,-0.25361907,-0.6225242,0
-1.6179283,-3.664423,0.2368288,-0.74036556,0.25361907,0.6225242,0
1.7968372,4.1959214,1.0240843,0.30998048,0.95056099,-0.018604219,0
1.4374154,1.1173396,1.0814583,0.59646547,-0.1791963,0.78237951,0
-1.0129753,-4.4369841,0.12914944,-0.30998048,-0.95056099,0.018604219,0
-0.67398238,-4.4537511,1.0757914,-0.30998048,-0.95056099,0.018604219,0
-1.7543478,-1.9459761,-0.37645769,-0.74036556,0.25361907,0.6225242,0
0.34413588,-1.8335454,0.42405665,0.74036556,-0.25361907,-0.6225242,0
-1.5914207,-3.0960631,-1.3077686,-0.59646547,0.1791963,-0.78237951,0
-0.15334958,-3.2739131,1.2920861,0.59646547,-0.1791963,0.78237951,0
-2.3488445,-3.8916259,-0.34610605,-0.30998048,-0.95056099,0.018604219,0
1.5956293,1.9280424,1.2413976,0.59646547,-0.1791963,0.78237951,0
-0.43652669,-3.7952802,1.35728,0.59646547,-0.1791963,0.78237951,0
-1.4686046,-1.3846641,-1.0489384,-0.59646547,0.1791963,-0.78237951,0
-1.0856252,-4.3733068,0.93787193,-0.30998048,-0.95056099,0.018604219,0
-0.13539708,-1.9289273,-0.23809552,0.74036556,-0.25361907,-0.6225242,0
1.6451044,4.1982603,-0.55973148,0.30998048,0.95056099,-0.018604219,0
0.78563797,4.5029888,-1.3160572,0.30998048,0.95056099,-0.018604219,0
0.15025744,-3.231766,1.1027441,0.59646547,-0.1791963,0.78237951,0
0.93550611,4.4270015,-1.1790714,0.30998048,0.95056099,-0.018604219,0
-1.0421784,-4.308506,1.2663493,-0.30998048,-0.95056099,0.018604219,0
-0.073584825,-1.515317,1.2357635,-0.74036556,0.25361907,0.6225242,0
-0.97242606,-4.4172659,0.042914391,-0.30998048,-0.95056099,0.018604219,0
-0.40274057,-3.1734056,1.4411139,0.59646547,-0.1791963,0.78237951,0
1.6646433,3.7605281,-0.4415555,0.74036556,-0.25361907,-0.6225242,0
-0.77634382,-3.6763446,-0.20835161,0.74036556,-0.25361907,-0.6225242,0
-2.354264,-4.0591049,-0.88560534,-0.30998048,-0.95056099,0.018604219,0
-1.4425926,-4.2399182,-0.012773037,-0.30998048,-0.95056099,0.018604219,0
1.8476937,1.5385606,0.79894328,0.59646547,-0.1791963,0.78237951,0
2.3010392,3.9960766,0.81856322,0.30998048,0.95056099,-0.018604219,0
0.017910004,4.1104164,-1.0833755,-0.59646547,0.1791963,-0.78237951,0
-1.625049,-0.74980098,-0.68884939,-0.74036556,0.25361907,0.6225242,0
1.8850991,4.1972265,0.72724795,0.30998048,0.95056099,-0.018604219,0
0.90506864,4.3987393,-1.1583004,0.30998048,0.95056099,-0.018604219,0
0.38124204,-0.38236684,-0.10034923,0.74036556,-0.25361907,-0.6225242,0
0.15623379,4.5986385,-1.0007725,0.30998048,0.95056099,-0.018604219,0
0.23134583,-3.3949676,0.95503163,0.59646547,-0.1791963,0.78237951,0
-2.385932,-3.924278,-1.0236363,-0.30998048,-0.95056099,0.018604219,0
-0.29138097,1.2765985,-1.365993,-0.59646547,0.1791963,-0.78237951,0
1.8352718,1.3835799,0.90150332,0.59646547,-0.1791963,0.78237951,0
1.2405682,3.3765755,1.0614533,-0.74036556,0.25361907,0.6225242,0
-0.65293747,-4.5909367,0.70177507,-0.30998048,-0.95056099,0.018604219,0
-0.88713717,-4.4824548,1.3009548,-0.30998048,-0.95056099,0.018604219,0
-0.85675156,-4.040493,-0.29365373,0.74036556,-0.25361907,-0.6225242,0
-0.24533784,-1.4062974,-0.64385474,0.74036556,-0.25361907,-0.6225242,0
0.87580848,3.5662816,-1.3590193,0.74036556,-0.25361907,-0.6225242,0
1.676729,4.2680631,0.89859343,0.30998048,0.95056099,-0.018604219,0
-0.083888501,3.8505888,-1.056843,-0.59646547,0.1791963,-0.78237951,0
0.70381963,-2.0596201,0.88206089,0.74036556,-0.25361907,-0.6225242,0
-0.5827015,-4.490767,0.60400009,-0.30998048,-0.95056099,0.018604219,0
0.76286817,4.4792347,-0.95697546,0.30998048,0.95056099,-0.018604219,0
-0.56759793,2.3787308,-0.90707886,-0.59646547,0.1791963,-0.78237951,0
1.5798815,4.2665415,0.27475739,0.30998048,0.95056099,-0.018604219,0
-0.80534911,-4.5220704,0.55417728,-0.30998048,-0.95056099,0.018604219,0
-1.156065,-0.6827172,-0.31892014,-0.74036556,0.25361907,0.6225242,0
1.4776921,2.6697569,1.4047351,0.59646547,-0.1791963,0.78237951,0
0.26955235,3.7246919,-0.26213408,-0.74036556,0.25361907,0.6225242,0
2.102576,3.985956,0.20301056,0.30998048,0.95056099,-0.018604219,0
-0.044236809,-0.37067294,0.93484986,-0.74036556,0.25361907,0.6225242,0
-0.40823966,0.90924519,-1.4180055,-0.59646547,0.1791963,-0.78237951,0
0.37225172,-2.6528049,1.064644,0.59646547,-0.1791963,0.78237951,0
0.44283694,-1.2771735,1.3787237,0.59646547,-0.1791963,0.78237951,0
1.3462451,1.6918819,1.2404358,0.59646547,-0.1791963,0.78237951,0
2.0057378,4.1401558,1.2029717,0.30998048,0.95056099,-0.018604219,0
0.54283923,-0.78995979,1.2778087,0.59646547,-0.1791963,0.78237951,0
-1.7571228,-2.2647715,-0.98711038,-0.59646547,0.1791963,-0.78237951,0
-0.14131019,3.5144298,-0.66107082,-0.74036556,0.25361907,0.6225242,0
-1.5283773,-1.8096495,-0.25240088,-0.74036556,0.25361907,0.6225242,0
-1.2820928,-4.3724551,0.87327528,-0.30998048,-0.95056099,0.018604219,0
-0.22644836,-1.0141217,-0.59385586,0.74036556,-0.25361907,-0.6225242,0
0.76631123,0.32423329,1.446251,0.59646547,-0.1791963,0.78237951,0
0.26150286,4.5831075,-0.92613888,0.30998048,0.95056099,-0.018604219,0
-1.016929,-3.9626329,-0.54268599,0.74036556,-0.25361907,-0.6225242,0
1.4925184,1.6313686,1.2286612,0.59646547,-0.1791963,0.78237951,0
1.6657656,3.0561187,0.066426039,0.74036556,-0.25361907,-0.6225242,0
-1.0297375,-4.373992,0.8134141,-0.30998048,-0.95056099,0.018604219,0
-0.40077329,0.024102181,0.41942251,-0.74036556,0.25361907,0.6225242,0
0.42688572,4.4985228,-0.97239113,0.30998048,0.95056099,-0.018604219,0
0.23436779,-0.42302519,1.3225821,-0.74036556,0.25361907,0.6225242,0
0.84487069,2.2997026,-0.69951701,0.74036556,-0.25361907,-0.6225242,0
-0.42882657,-3.805846,0.11706018,0.74036556,-0.25361907,-0.6225242,0
0.85657346,4.4043956,-0.17207289,0.30998048,0.95056099,-0.018604219,0
-1.9463557,-2.0176079,-0.59186292,-0.74036556,0.25361907,0.6225242,0
0.40546733,4.5990973,-1.0570679,0.30998048,0.95056099,-0.018604219,0
-0.61843461,-2.3409495,0.89718413,-0.74036556,0.25361907,0.6225242,0
1.401603,4.3295851,-0.96808672,0.30998048,0.95056099,-0.018604219,0
-1.5162667,-4.3184061,-0.12857628,-0.30998048,-0.95056099,0.018604219,0
-1.8256829,-4.1901102,0.31629086,-0.30998048,-0.95056099,0.018604219,0
-1.4701668,-4.2141008,0.30492353,-0.30998048,-0.95056099,0.018604219,0
0.037587345,3.8057284,-0.75317407,-0.74036556,0.25361907,0.6225242,0
1.894127,4.1020164,0.4464612,0.30998048,0.95056099,-0.018604219,0
1.5703849,4.0424042,0.99190426,-0.74036556,0.25361907,0.6225242,0
0.013733476,-2.3380296,1.4163469,0.59646547,-0.1791963,0.78237951,0
-1.3609921,-4.3597012,0.67211676,-0.30998048,-0.95056099,0.018604219,0
0.71403188,4.5348186,-0.41749573,0.30998048,0.95056099,-0.018604219,0
0.25399077,4.0378261,-0.58953381,-0.74036556,0.25361907,0.6225242,0
-2.4634039,-3.8647153,-1.0429792,-0.59646547,0.1791963,-0.78237951,0
0.24276727,3.490715,-1.4191091,-0.59646547,0.1791963,-0.78237951,0
-0.95653039,-0.70004839,-0.010472178,-0.74036556,0.25361907,0.6225242,0
0.12729329,3.7560868,-0.44603968,-0.74036556,0.25361907,0.6225242,0
-0.48578992,2.1718576,-1.0565722,-0.59646547,0.1791963,-0.78237951,0
-0.13970515,1.693228,-1.3840353,-0.59646547,0.1791963,-0.78237951,0
0.8450439,3.7491508,0.31063986,-0.74036556,0.25361907,0.6225242,0
-0.8442204,1.4070547,-0.90719056,-0.59646547,0.1791963,-0.78237951,0
-1.3717442,-4.2112408,-0.41018391,-0.30998048,-0.95056099,0.018604219,0
-0.1395191,-3.782829,0.51951218,0.74036556,-0.25361907,-0.6225242,0
1.7202897,0.9100123,0.91936129,0.74036556,-0.25361907,-0.6225242,0
0.9389838,2.9882288,0.81470537,-0.74036556,0.25361907,0.6225242,0
0.4628602,-2.2570047,0.69758749,0.74036556,-0.25361907,-0.6225242,0
-0.1131829,1.8630576,-1.4110296,-0.59646547,0.1791963,-0.78237951,0
-1.2971578,-0.8874132,-1.134052,-0.59646547,0.1791963,-0.78237951,0
-1.8741157,-3.7682564,-1.2342474,-0.59646547,0.1791963,-0.78237951,0
0.078452051,1.9346409,-1.3538889,0.74036556,-0.25361907,-0.6225242,0
0.033690244,4.0002565,-1.1128132,-0.59646547,0.1791963,-0.78237951,0
-1.8185244,-4.1498265,0.12468719,-0.30998048,-0.95056099,0.018604219,0
2.0653489,3.380348,1.1895621,0.59646547,-0.1791963,0.78237951,0
-0.097069368,-3.1695485,1.317486,0.59646547,-0.1791963,0.78237951,0
-1.812323,-4.0663557,-1.0623758,-0.30998048,-0.95056099,0.018604219,0
0.73620254,4.5803576,-0.36925077,0.30998048,0.95056099,-0.018604219,0
-0.9331035,0.48926431,-1.149326,-0.59646547,0.1791963,-0.78237951,0
-2.4474459,-4.0150561,-0.58952618,-0.30998048,-0.95056099,0.018604219,0
1.6399838,4.1076269,0.056978226,0.30998048,0.95056099,-0.018604219,0
1.1473899,3.9265695,0.47937632,-0.74036556,0.25361907,0.6225242,0
-0.29211599,-4.6231322,0.99071884,-0.30998048,-0.95056099,0.018604219,0
1.2735584,4.2063766,-0.92212629,0.30998048,0.95056099,-0.018604219,0
1.5671117,4.1310029,-0.64687109,0.30998048,0.95056099,-0.018604219,0
0.33918607,0.037577689,1.1087844,-0.74036556,0.25361907,0.6225242,0
-0.96623057,-4.437849,0.41313028,-0.30998048,-0.95056099,0.018604219,0
-0.94418609,-4.3924189,0.75727224,-0.30998048,-0.95056099,0.018604219,0
1.7564229,4.2225633,0.78652549,0.30998048,0.95056099,-0.018604219,0
-1.0964743,-1.4154255,-1.3010561,-0.59646547,0.1791963,-0.78237951,0
0.98650897,4.4945722,0.078827381,0.30998048,0.95056099,-0.018604219,0
-1.9366362,-4.002398,-0.10127258,-0.30998048,-0.95056099,0.018604219,0
-1.9182611,-2.0785718,-0.64791822,-0.74036556,0.25361907,0.6225242,0
0.96095753,4.3969326,-0.20733976,0.30998048,0.95056099,-0.018604219,0
-1.5381329,-1.8576648,-0.40096617,-0.74036556,0.25361907,0.6225242,0
0.77239597,-1.4085231,0.57416171,0.74036556,-0.25361907,-0.6225242,0
-1.2548616,-3.2337263,-0.9289701,0.74036556,-0.25361907,-0.6225242,0
0.22145255,-2.0181644,0.26051009,0.74036556,-0.25361907,-0.6225242,0
0.36346927,-0.34012985,-0.28300589,0.74036556,-0.25361907,-0.6225242,0
-1.7815739,-3.9768748,0.21344566,-0.74036556,0.25361907,0.6225242,0
-2.5253763,-3.4344168,-0.73938489,-0.74036556,0.25361907,0.6225242,0
0.98715383,1.5259504,-0.38745522,0.74036556,-0.25361907,-0.6225242,0
0.28851473,-1.7536554,1.2150956,0.59646547,-0.1791963,0.78237951,0
0.41826084,-1.6626892,1.3103421,0.59646547,-0.1791963,0.78237951,0
-1.0412135,-4.417532,0.36379814,-0.30998048,-0.95056099,0.018604219,0
-0.94015729,-1.2129229,-1.4266179,-0.59646547,0.1791963,-0.78237951,0
0.046475694,-3.2582653,1.0320032,0.59646547,-0.1791963,0.78237951,0
-1.2465146,-4.3536553,0.54270411,-0.30998048,-0.95056099,0.018604219,0
0.65238249,2.4876287,-1.1905849,0.74036556,-0.25361907,-0.6225242,0
1.7142626,4.1055164,0.53224134,0.30998048,0.95056099,-0.018604219,0
0.00047343969,-3.7123027,0.99648714,0.59646547,-0.1791963,0.78237951,0
-1.4779961,-1.0796511,-1.0597124,-0.59646547,0.1791963,-0.78237951,0
1.0008444,0.093287706,0.34392715,0.74036556,-0.25361907,-0.6225242,0
1.1313972,0.078465998,1.1473389,0.59646547,-0.1791963,0.78237951,0
1.3296847,4.272388,-0.7300334,0.30998048,0.95056099,-0.018604219,0
0.19236299,-1.7453082,1.2911723,0.59646547,-0.1791963,0.78237951,0
1.8937643,4.0440874,-0.16381693,0.30998048,0.95056099,-0.018604219,0
-1.6657908,-4.104795,-0.24741793,-0.30998048,-0.95056099,0.018604219,0
-0.92330509,1.298936,-0.99885446,-0.59646547,0.1791963,-0.78237951,0
-0.66460919,-0.34662879,0.26439303,-0.74036556,0.25361907,0.6225242,0
-0.62524742,-0.9034217,-1.2359062,0.74036556,-0.25361907,-0.6225242,0
1.28837,1.8892326,1.4236287,0.59646547,-0.1791963,0.78237951,0
-1.6841612,-0.94787651,-0.9444949,-0.59646547,0.1791963,-0.78237951,0
-1.814348,-2.0328362,-0.59936285,-0.74036556,0.25361907,0.6225242,0
-0.95303166,-4.4403968,1.3554444,-0.30998048,-0.95056099,0.018604219,0
0.23011692,-3.2132092,1.0803154,0.59646547,-0.1791963,0.78237951,0
-0.96776485,-4.303978,1.4535246,-0.74036556,0.25361907,0.6225242,0
-1.709213,-3.1391735,-1.2965784,-0.59646547,0.1791963,-0.78237951,0
1.569644,4.1890354,-0.170784,0.30998048,0.95056099,-0.018604219,0
0.26957065,-0.78127706,1.3887848,-0.74036556,0.25361907,0.6225242,0
-0.65204155,-0.79372317,0.28865612,-0.74036556,0.25361907,0.6225242,0
-0.19454414,-3.2913802,0.28976417,0.74036556,-0.25361907,-0.6225242,0
-0.97747469,-1.4757781,0.10944152,-0.74036556,0.25361907,0.6225242,0
-1.2192683,-4.3637562,0.57463646,-0.30998048,-0.95056099,0.018604219,0
0.37222821,-1.5128595,0.21878195,0.74036556,-0.25361907,-0.6225242,0
0.67379677,-0.13941292,0.1848014,0.74036556,-0.25361907,-0.6225242,0
0.97280777,-0.74207288,1.0771594,0.59646547,-0.1791963,0.78237951,0
-0.82497603,0.91739357,-0.9544822,-0.59646547,0.1791963,-0.78237951,0
1.622741,4.2702413,-0.42633152,0.30998048,0.95056099,-0.018604219,0
-1.0981514,-3.3901243,0.9535265,-0.74036556,0.25361907,0.6225242,0
0.35416007,4.4136672,-0.69025588,-0.74036556,0.25361907,0.6225242,0
-1.9728762,-4.1613169,-1.0826569,-0.30998048,-0.95056099,0.018604219,0
0.66774184,4.4762197,-1.0239649,0.30998048,0.95056099,-0.018604219,0
1.0698309,4.4028502,-1.1876807,0.30998048,0.95056099,-0.018604219,0
1.9004499,3.9737175,1.4604645,0.59646547,-0.1791963,0.78237951,0
1.5088054,4.3523846,0.48919964,0.30998048,0.95056099,-0.018604219,0
2.1828713,3.1606786,0.89945793,0.59646547,-0.1791963,0.78237951,0
0.36015332,4.175806,-1.2320023,-0.59646547,0.1791963,-0.78237951,0
-0.4463608,2.0886552,-0.42889702,-0.74036556,0.25361907,0.6225242,0
1.7235825,4.1407909,1.0998533,0.30998048,0.95056099,-0.018604219,0
-1.0785005,0.87027633,-0.99706739,-0.59646547,0.1791963,-0.78237951,0
0.12459484,-1.5102768,1.4016186,0.59646547,-0.1791963,0.78237951,0
0.70348841,4.3235574,-1.5438173,-0.59646547,0.1791963,-0.78237951,0
-0.17123805,-2.8601708,1.4257991,0.59646547,-0.1791963,0.78237951,0
-1.8453304,-4.106123,-0.1752243,-0.30998048,-0.95056099,0.018604219,0
-1.8974755,-4.0561743,-1.2511756,-0.30998048,-0.95056099,0.018604219,0
0.45757908,3.9955218,-0.29332471,-0.74036556,0.25361907,0.6225242,0
0.20897341,1.531073,0.51731807,-0.74036556,0.25361907,0.6225242,0
0.7668668,-1.596675,1.0407343,0.59646547,-0.1791963,0.78237951,0
-2.0045562,-4.1125526,-0.031361103,-0.30998048,-0.95056099,0.018604219,0
0.59962356,4.4611244,-0.70583105,0.30998048,0.95056099,-0.018604219,0
0.93564111,4.4013114,-1.2605991,0.30998048,0.95056099,-0.018604219,0
2.0969923,2.9731061,0.99130583,0.59646547,-0.1791963,0.78237951,0
0.30267656,4.4626522,-1.2431498,-0.59646547,0.1791963,-0.78237951,0
2.3740404,2.9268961,0.73464799,0.74036556,-0.25361907,-0.6225242,0
2.2114868,4.1213369,0.4045043,0.30998048,0.95056099,-0.018604219,0
0.62933642,3.7899382,-0.058558464,-0.74036556,0.25361907,0.6225242,0
-1.4779423,-4.3524704,-0.17850351,-0.30998048,-0.95056099,0.018604219,0
0.74371332,-1.1421258,0.9860062,0.59646547,-0.1791963,0.78237951,0
2.4789343,3.6290159,0.60298133,0.74036556,-0.25361907,-0.6225242,0
2.3240092,3.6766515,0.89535666,0.59646547,-0.1791963,0.78237951,0
-0.63267076,-3.9025433,-0.065672874,0.74036556,-0.25361907,-0.6225242,0
-1.2343974,-1.2569065,-0.15664673,-0.74036556,0.25361907,0.6225242,0
-0.61997133,-3.387325,-0.1042099,0.74036556,-0.25361907,-0.6225242,0
0.071667358,3.4545665,-1.255187,-0.59646547,0.1791963,-0.78237951,0
-0.46449465,-2.649029,-0.22944331,0.74036556,-0.25361907,-0.6225242,0
-0.71081114,-4.5204439,0.81094265,-0.30998048,-0.95056099,0.018604219,0
-2.0532422,-4.0498323,0.047456741,-0.30998048,-0.95056099,0.018604219,0
1.5445625,4.1785164,-0.64146996,0.30998048,0.95056099,-0.018604219,0
-0.88679755,-4.4875021,0.46068001,-0.30998048,-0.95056099,0.018604219,0
1.6645762,1.7411181,1.1608253,0.59646547,-0.1791963,0.78237951,0
1.8595965,4.0917554,1.0009427,0.30998048,0.95056099,-0.018604219,0
-1.6852254,-4.3028774,-1.07763,-0.30998048,-0.95056099,0.018604219,0
-1.4071032,-4.3570838,-0.007373333,-0.30998048,-0.95056099,0.018604219,0
-1.5375993,-4.2321205,-0.073545933,-0.30998048,-0.95056099,0.018604219,0
-1.7589478,-2.8316302,-1.2891359,-0.59646547,0.1791963,-0.78237951,0
0.63571846,4.5091939,-0.95685482,0.30998048,0.95056099,-0.018604219,0
1.042941,4.3596306,-0.45420694,0.30998048,0.95056099,-0.018604219,0
0.6418798,3.3912311,0.30581903,-0.74036556,0.25361907,0.6225242,0
-0.55881673,-4.5495062,0.92690706,-0.30998048,-0.95056099,0.018604219,0
0.10803255,-3.7554889,1.0618629,0.59646547,-0.1791963,0.78237951,0
1.0875931,1.8962646,-0.31537557,0.74036556,-0.25361907,-0.6225242,0
0.15656602,4.7375226,-0.96454668,0.30998048,0.95056099,-0.018604219,0
-0.30917084,-1.6993952,-0.51120269,0.74036556,-0.25361907,-0.6225242,0
1.0577919,-0.030754685,1.0653471,0.59646547,-0.1791963,0.78237951,0
0.19149703,-2.5247386,0.49739838,0.74036556,-0.25361907,-0.6225242,0
0.56525391,-2.073307,0.95030582,0.59646547,-0.1791963,0.78237951,0
-0.21171957,-4.7160888,0.97015762,-0.30998048,-0.95056099,0.018604219,0
-0.20624112,2.7989712,-0.71905971,-0.74036556,0.25361907,0.6225242,0
-1.6705813,-3.4736378,-1.3881209,-0.59646547,0.1791963,-0.78237951,0
-0.77294862,0.11322872,-0.28420916,-0.74036556,0.25361907,0.6225242,0
-0.5397433,1.6364849,-0.54292858,-0.74036556,0.25361907,0.6225242,0
-1.1704131,-1.0280998,-0.29760218,-0.74036556,0.25361907,0.6225242,0
-1.6815904,-3.6803274,-1.2219837,0.74036556,-0.25361907,-0.6225242,0
1.8040181,3.7436936,1.4644494,0.59646547,-0.1791963,0.78237951,0
0.33899403,4.530158,-1.2381191,0.30998048,0.95056099,-0.018604219,0
-1.8604155,-3.6272192,0.0082120895,-0.74036556,0.25361907,0.6225242,0
-1.0911043,-0.71328181,-1.1691834,-0.59646547,0.1791963,-0.78237951,0
-1.0460565,-2.4316092,0.65646029,-0.74036556,0.25361907,0.6225242,0
-1.0670316,0.05011189,-1.0401003,-0.59646547,0.1791963,-0.78237951,0
-0.45232075,2.7193141,-0.86582065,-0.59646547,0.1791963,-0.78237951,0
-2.327714,-4.0931058,-0.79912663,-0.30998048,-0.95056099,0.018604219,0
0.38696146,1.0172268,0.86502433,-0.74036556,0.25361907,0.6225242,0
0.8718608,-0.68005443,0.98139852,0.59646547,-0.1791963,0.78237951,0
2.1484277,3.5959229,1.0087631,0.59646547,-0.1791963,0.78237951,0
-0.25936437,1.2804695,-0.13677174,-0.74036556,0.25361907,0.6225242,0
1.0765377,1.0078557,1.3491011,0.59646547,-0.1791963,0.78237951,0
-0.30148923,-1.3280441,-0.48921543,0.74036556,-0.25361907,-0.6225242,0
-0.39993107,0.82055676,-1.4406463,-0.59646547,0.1791963,-0.78237951,0
-1.106032,-4.4565215,1.1021857,-0.30998048,-0.95056099,0.018604219,0
-1.6627432,-4.1972151,-0.420784,-0.30998048,-0.95056099,0.018604219,0
-0.73803669,-4.5281525,0.60745907,-0.30998048,-0.95056099,0.018604219,0
2.2967229,3.100908,0.79119182,0.74036556,-0.25361907,-0.6225242,0
2.210619,4.0469031,0.34073877,0.30998048,0.95056099,-0.018604219,0
0.40658134,2.9420614,-1.3903341,0.74036556,-0.25361907,-0.6225242,0
-1.8074626,-4.1114135,-0.46140385,-0.30998048,-0.95056099,0.018604219,0
1.6374669,3.3671305,1.3149812,-0.74036556,0.25361907,0.6225242,0
-1.1936114,-4.3011632,0.19877338,-0.30998048,-0.95056099,0.018604219,0
2.020155,3.2494428,1.1712043,0.59646547,-0.1791963,0.78237951,0
0.61037183,4.5625124,-1.3325319,0.30998048,0.95056099,-0.018604219,0
1.2017307,-0.17907944,1.0333575,0.59646547,-0.1791963,0.78237951,0
-0.71920002,1.2668233,-1.1612444,-0.59646547,0.1791963,-0.78237951,0
-0.63790542,-4.5646715,0.67210865,-0.30998048,-0.95056099,0.018604219,0
-0.55141616,-4.5442734,1.0235009,-0.30998048,-0.95056099,0.018604219,0
0.4770484,-0.69435269,1.299727,0.59646547,-0.1791963,0.78237951,0
-0.55001354,0.38470951,-0.13786127,-0.74036556,0.25361907,0.6225242,0
-1.8220543,-4.203589,-0.75343108,-0.30998048,-0.95056099,0.018604219,0
1.0782264,-1.2204287,0.84457481,0.59646547,-0.1791963,0.78237951,0
-1.643731,-3.3229287,0.33475137,-0.74036556,0.25361907,0.6225242,0
-0.82903868,-4.3840108,0.46296501,-0.30998048,-0.95056099,0.018604219,0
1.2594507,-0.1447279,0.92991519,0.59646547,-0.1791963,0.78237951,0
1.0333023,4.4730959,-0.35062361,0.30998048,0.95056099,-0.018604219,0
0.48494071,3.5997767,0.07012105,-0.74036556,0.25361907,0.6225242,0
-1.032701,-0.85763824,-1.2611452,-0.59646547,0.1791963,-0.78237951,0
0.18572414,2.5796947,-0.12657332,-0.74036556,0.25361907,0.6225242,0
0.52186555,2.1810555,-0.9866097,0.74036556,-0.25361907,-0.6225242,0
-0.67458737,-4.5240254,1.2942591,-0.30998048,-0.95056099,0.018604219,0
2.3270473,4.0823736,0.43078613,0.30998048,0.95056099,-0.018604219,0
-0.54980266,1.3228617,-1.1992948,-0.59646547,0.1791963,-0.78237951,0
1.3168154,4.2054296,0.20573759,0.30998048,0.95056099,-0.018604219,0
1.5246861,1.961171,0.34699082,0.74036556,-0.25361907,-0.6225242,0
-1.4304457,-4.254714,0.65895653,-0.30998048,-0.95056099,0.018604219,0
0.47032076,1.674129,0.63521504,-0.74036556,0.25361907,0.6225242,0
-1.9653258,-4.1742177,-0.49665356,-0.30998048,-0.95056099,0.018604219,0
0.22702116,0.69843704,0.94048786,-0.74036556,0.25361907,0.6225242,0
-1.7132927,-4.1258869,-0.59042001,-0.30998048,-0.95056099,0.018604219,0
-1.3272973,-4.3838406,0.68127918,-0.30998048,-0.95056099,0.018604219,0
-1.6595416,-4.2957773,0.035217762,-0.30998048,-0.95056099,0.018604219,0
-0.42476374,2.7562661,-0.97529197,-0.59646547,0.1791963,-0.78237951,0
0.43044621,-1.4477444,1.3105299,0.59646547,-0.1791963,0.78237951,0
-1.9181627,-3.1254454,-1.1683421,-0.59646547,0.1791963,-0.78237951,0
-0.81125551,0.87863624,-1.0796777,-0.59646547,0.1791963,-0.78237951,0
-1.5004733,-4.3036146,-0.84581041,-0.30998048,-0.95056099,0.018604219,0
0.95000309,-1.1642939,0.89148039,0.59646547,-0.1791963,0.78237951,0
1.7849134,4.2143593,0.82887936,0.30998048,0.95056099,-0.018604219,0
0.31624913,-1.7275474,0.19015193,0.74036556,-0.25361907,-0.6225242,0
-0.80736911,-4.4423137,1.3414755,-0.30998048,-0.95056099,0.018604219,0
-1.1486821,-2.1092668,-1.404905,0.74036556,-0.25361907,-0.6225242,0
0.77727306,4.4863853,-0.094347477,0.30998048,0.95056099,-0.018604219,0
1.8680905,1.6733471,0.87079704,0.74036556,-0.25361907,-0.6225242,0
0.93116969,-0.089514077,1.1736673,0.59646547,-0.1791963,0.78237951,0
0.82742786,-1.6568351,0.89139378,0.59646547,-0.1791963,0.78237951,0
2.2320745,4.030386,0.43228579,0.30998048,0.95056099,-0.018604219,0
0.41414803,4.5817871,-0.86860514,0.30998048,0.95056099,-0.018604219,0
-0.8962552,0.2829994,-1.2300438,-0.59646547,0.1791963,-0.78237951,0
-0.18689349,-3.4005322,1.278558,0.59646547,-0.1791963,0.78237951,0
-1.6185355,-1.6569197,-0.97274375,-0.59646547,0.1791963,-0.78237951,0
0.68220222,3.4533827,-1.3073866,0.74036556,-0.25361907,-0.6225242,0
1.2224677,4.2305422,-0.48173046,0.30998048,0.95056099,-0.018604219,0
-0.47548914,-4.5039358,0.92010307,-0.30998048,-0.95056099,0.018604219,0
-2.2518694,-4.1074367,-0.33351374,-0.30998048,-0.95056099,0.018604219,0
-0.38983494,-1.9980996,1.2290777,-0.74036556,0.25361907,0.6225242,0
-1.225929,-4.3750982,0.97011089,-0.30998048,-0.95056099,0.018604219,0
1.7039322,2.8296368,-0.04592967,0.74036556,-0.25361907,-0.6225242,0
-0.13983065,-4.4106641,0.99200273,0.59646547,-0.1791963,0.78237951,0
0.71756476,1.2310456,-0.56150758,0.74036556,-0.25361907,-0.6225242,0
-1.4254522,-3.559906,0.65944552,-0.74036556,0.25361907,0.6225242,0
-0.57290649,0.95345825,-0.12360409,-0.74036556,0.25361907,0.6225242,0
-0.1168129,3.7225032,-1.0892887,-0.59646547,0.1791963,-0.78237951,0
-0.51300728,-4.6300993,0.98599577,-0.30998048,-0.95056099,0.018604219,0
1.7795169,1.205604,0.86533761,0.59646547,-0.1791963,0.78237951,0
0.72374606,3.5280967,-1.4525414,0.74036556,-0.25361907,-0.6225242,0
-0.018877815,2.6271906,-1.2618799,-0.59646547,0.1791963,-0.78237951,0
0.85791731,4.3822269,-0.055976391,0.30998048,0.95056099,-0.018604219,0
-1.7563879,-2.1773267,-1.0016028,-0.59646547,0.1791963,-0.78237951,0
1.3547707,2.4896753,1.3271022,0.59646547,-0.1791963,0.78237951,0
-1.6828701,-2.0200527,-0.28436184,-0.74036556,0.25361907,0.6225242,0
-0.3771283,0.50396216,-1.4025501,0.74036556,-0.25361907,-0.6225242,0
-0.8968237,-4.4996662,0.70661068,-0.30998048,-0.95056099,0.018604219,0
-0.28548557,0.84457481,0.022060573,-0.74036556,0.25361907,0.6225242,0
2.2613497,3.4310985,0.61207008,0.74036556,-0.25361907,-0.6225242,0
-1.9792295,-4.1111727,-0.027496815,-0.30998048,-0.95056099,0.018604219,0
1.2167408,4.3759956,-0.27573109,0.30998048,0.95056099,-0.018604219,0
2.3387656,3.4638333,0.65323138,0.74036556,-0.25361907,-0.6225242,0
-0.29567403,1.0471476,0.14402032,-0.74036556,0.25361907,0.6225242,0
1.4423748,4.2898941,-0.1328845,0.30998048,0.95056099,-0.018604219,0
0.019679382,-2.0935946,1.3025595,0.59646547,-0.1791963,0.78237951,0
1.7557052,3.983032,-0.38725185,0.74036556,-0.25361907,-0.6225242,0
0.63069445,3.8467984,-1.4940786,-0.59646547,0.1791963,-0.78237951,0
0.026872367,2.4027071,-1.2638673,-0.59646547,0.1791963,-0.78237951,0
-1.3031244,-0.72227693,-0.35064495,-0.74036556,0.25361907,0.6225242,0
0.56823719,-2.548594,0.80793631,0.59646547,-0.1791963,0.78237951,0
1.7453626,4.1165309,0.41695261,0.30998048,0.95056099,-0.018604219,0
-0.60174429,-3.453716,-0.24665141,0.74036556,-0.25361907,-0.6225242,0
0.91172945,0.4545961,1.2130055,0.59646547,-0.1791963,0.78237951,0
1.6314046,1.0731852,0.99344784,0.59646547,-0.1791963,0.78237951,0
0.83604276,2.8118558,0.76096821,-0.74036556,0.25361907,0.6225242,0
-0.36170346,-3.9679279,1.3503087,0.59646547,-0.1791963,0.78237951,0
-1.5623016,-4.2205639,-0.42086649,-0.30998048,-0.95056099,0.018604219,0
0.018040597,3.6423242,-0.7633431,-0.74036556,0.25361907,0.6225242,0
-0.2800765,-4.4073243,1.115041,0.59646547,-0.1791963,0.78237951,0
-0.26410162,-4.3725405,0.59445953,0.74036556,-0.25361907,-0.6225242,0
0.11380988,0.63801003,0.63949776,-0.74036556,0.25361907,0.6225242,0
2.3476849,3.9812813,0.60293245,0.30998048,0.95056099,-0.018604219,0
0.22079617,-1.1848214,1.5435736,0.59646547,-0.1791963,0.78237951,0
2.2145185,2.6992497,0.84649038,0.59646547,-0.1791963,0.78237951,0
0.33341879,3.3605595,-1.3435924,-0.59646547,0.1791963,-0.78237951,0
-1.7490127,-4.1706486,-1.2838132,-0.30998048,-0.95056099,0.018604219,0
1.6315551,1.1593112,0.52662981,0.74036556,-0.25361907,-0.6225242,0
0.56446677,-0.7059235,0.14895415,0.74036556,-0.25361907,-0.6225242,0
-1.4251434,0.073672861,-0.93504328,-0.59646547,0.1791963,-0.78237951,0
-0.20431232,2.3874478,-0.25817442,-0.74036556,0.25361907,0.6225242,0
-1.1460606,-4.3164773,0.034830093,-0.30998048,-0.95056099,0.018604219,0
2.0997345,2.6556132,0.95859861,0.59646547,-0.1791963,0.78237951,0
-0.51565635,-4.0041747,1.478354,0.59646547,-0.1791963,0.78237951,0
-0.82447743,0.94138956,-0.97950202,-0.59646547,0.1791963,-0.78237951,0
0.47596371,3.0946732,-1.5025589,0.74036556,-0.25361907,-0.6225242,0
-0.97970116,-1.0614794,-0.0099486113,-0.74036556,0.25361907,0.6225242,0
1.1621352,0.68057525,1.1084222,0.59646547,-0.1791963,0.78237951,0
1.483893,4.3134775,-0.28225899,0.30998048,0.95056099,-0.018604219,0
-0.47470146,-3.3475916,-0.00735116,0.74036556,-0.25361907,-0.6225242,0
-0.1088143,-1.0847449,-0.44007224,0.74036556,-0.25361907,-0.6225242,0
-2.1685519,-4.0881267,-0.86003709,-0.30998048,-0.95056099,0.018604219,0
1.0409173,1.8277347,1.1642184,-0.74036556,0.25361907,0.6225242,0
-2.1641994,-3.4546831,-1.0399499,-0.59646547,0.1791963,-0.78237951,0
1.3645408,4.3294177,0.57209325,0.30998048,0.95056099,-0.018604219,0
-2.0157788,-2.2367737,-0.80877256,-0.59646547,0.1791963,-0.78237951,0
1.5864824,4.2366686,0.36418962,0.30998048,0.95056099,-0.018604219,0
