0.004386425,-1.9611785,0.12933469,0.069596797,-0.97663844,0.20330739,0
-0.34284806,-1.8251803,1.4782512,0.069596797,-0.97663844,0.20330739,0
0.58071506,-1.9314916,0.25114799,0.069596797,-0.97663844,0.20330739,0
-0.63631845,-1.7769504,1.4302865,0.069596797,-0.97663844,0.20330739,0
-0.68724424,2.2210877,1.2602162,-0.069596797,0.97663844,-0.20330739,0
0.30019474,1.2659274,0.16325349,0.86529291,0.1605162,0.4748714,0
0.87137246,0.32469156,-1.7916549,0.4964118,-0.14287078,-0.85624969,0
0.35749304,-0.95180231,-1.4046055,-0.86529291,-0.1605162,-0.4748714,0
0.69413328,1.107337,-2.0582881,0.4964118,-0.14287078,-0.85624969,0
-0.5305593,-1.7660182,1.7890987,0.069596797,-0.97663844,0.20330739,0
0.9186464,-2.0439794,-0.28572583,0.069596797,-0.97663844,0.20330739,0
-1.4396772,2.0937338,1.0534459,-0.069596797,0.97663844,-0.20330739,0
-0.32558465,-0.56673765,1.9831758,0.86529291,0.1605162,0.4748714,0
-0.34068203,1.5583506,-1.131541,-0.86529291,-0.1605162,-0.4748714,0
0.20393467,2.0204182,-0.55191422,-0.069596797,0.97663844,-0.20330739,0
0.40245318,-1.7208244,-1.2446699,-0.86529291,-0.1605162,-0.4748714,0
-1.1331416,1.5180722,1.5145504,-0.4964118,0.14287078,0.85624969,0
-0.6038661,0.86037087,1.6591938,0.86529291,0.1605162,0.4748714,0
0.43170738,0.9627775,-2.1470876,0.4964118,-0.14287078,-0.85624969,0
-0.85362363,-0.21891785,1.8653024,-0.4964118,0.14287078,0.85624969,0
-0.82704991,1.9491053,-0.19769812,-0.069596797,0.97663844,-0.20330739,0
-0.45238042,-1.5204031,2.2260733,-0.4964118,0.14287078,0.85624969,0
-0.9538601,2.0274677,0.42295027,-0.069596797,0.97663844,-0.20330739,0
-1.2637761,-0.14933109,1.6683569,-0.4964118,0.14287078,0.85624969,0
-0.78288436,-1.1311812,2.1692286,-0.4964118,0.14287078,0.85624969,0
-0.47999108,1.2684199,-0.43411875,-0.86529291,-0.1605162,-0.4748714,0
0.91597164,-2.1239552,-0.6345551,0.069596797,-0.97663844,0.20330739,0
-0.49572849,-0.69468397,2.0791614,-0.4964118,0.14287078,0.85624969,0
-1.1842237,-0.16412526,1.7564356,-0.4964118,0.14287078,0.85624969,0
-0.1100015,-2.0786436,0.073880434,0.069596797,-0.97663844,0.20330739,0
0.80641329,-2.0007694,-0.25694704,0.069596797,-0.97663844,0.20330739,0
-1.1644802,1.5094695,0.48057115,-0.86529291,-0.1605162,-0.4748714,0
1.1587772,-1.6856434,-0.57278895,0.86529291,0.1605162,0.4748714,0
-0.060362339,0.83907115,0.91315222,0.86529291,0.1605162,0.4748714,0
-0.89356947,2.2642679,1.5361141,-0.4964118,0.14287078,0.85624969,0
-0.39367568,0.97641885,1.3725061,0.86529291,0.1605162,0.4748714,0
-0.16768563,1.9604305,0.10960007,-0.069596797,0.97663844,-0.20330739,0
0.63250709,-1.5804276,-1.5978081,-0.86529291,-0.1605162,-0.4748714,0
-0.5521636,-1.8457854,0.8599838,0.069596797,-0.97663844,0.20330739,0
-0.61722231,2.2660737,0.8131454,-0.069596797,0.97663844,-0.20330739,0
-0.39645123,-1.6716995,2.2432117,0.069596797,-0.97663844,0.20330739,0
-0.32056841,2.0944726,0.44915879,-0.069596797,0.97663844,-0.20330739,0
-1.2237253,-0.29123002,1.6406996,-0.4964118,0.14287078,0.85624969,0
0.90668583,0.83928406,-1.0219616,0.86529291,0.1605162,0.4748714,0
1.0338559,0.13107121,-1.7501068,0.4964118,-0.14287078,-0.85624969,0
0.72056007,1.5997663,-2.2189803,-0.069596797,0.97663844,-0.20330739,0
-0.52064729,-1.4556947,2.2397168,-0.4964118,0.14287078,0.85624969,0
0.86588407,-0.42719042,-1.8530025,0.4964118,-0.14287078,-0.85624969,0
-0.0024333596,2.0263293,-0.3962543,-0.069596797,0.97663844,-0.20330739,0
-0.97317314,0.12102634,1.7024891,-0.4964118,0.14287078,0.85624969,0
-1.0812835,0.59238338,1.7195356,-0.4964118,0.14287078,0.85624969,0
0.99069285,-2.0644813,-1.4564505,0.4964118,-0.14287078,-0.85624969,0
0.73694468,-0.27875882,-0.20305082,0.86529291,0.1605162,0.4748714,0
-0.37014285,1.9631072,0.1349535,-0.069596797,0.97663844,-0.20330739,0
0.96058029,-0.17464232,-0.62497598,0.86529291,0.1605162,0.4748714,0
0.034824133,1.0514269,-1.6209431,-0.86529291,-0.1605162,-0.4748714,0
0.82936954,1.314684,-1.9895022,0.4964118,-0.14287078,-0.85624969,0
0.38023072,1.7043722,-0.13738298,0.86529291,0.1605162,0.4748714,0
1.0005958,-1.7334499,-0.16928101,0.86529291,0.1605162,0.4748714,0
-0.77012491,1.3527223,-0.28958511,-0.86529291,-0.1605162,-0.4748714,0
1.1138743,0.23119164,-0.91288859,0.86529291,0.1605162,0.4748714,0
0.27079523,-1.1346784,0.94063687,0.86529291,0.1605162,0.4748714,0
-0.40940452,1.8700374,-0.30446911,-0.069596797,0.97663844,-0.20330739,0
0.33114153,-0.25075173,0.62051862,0.86529291,0.1605162,0.4748714,0
-0.66940165,0.33319044,1.9723166,-0.4964118,0.14287078,0.85624969,0
0.060552955,1.0050812,0.62862915,0.86529291,0.1605162,0.4748714,0
0.479123,-1.5404147,-1.407665,-0.86529291,-0.1605162,-0.4748714,0
0.97462606,-1.4852698,-1.4087292,0.4964118,-0.14287078,-0.85624969,0
-1.0303065,1.5372277,1.4710104,-0.4964118,0.14287078,0.85624969,0
-1.3664422,0.001136899,1.5766714,-0.86529291,-0.1605162,-0.4748714,0
1.3537349,0.3008666,-1.3541701,0.86529291,0.1605162,0.4748714,0
0.56035835,-0.81773281,0.13669503,0.86529291,0.1605162,0.4748714,0
-0.4552747,-1.8624086,0.96224105,0.069596797,-0.97663844,0.20330739,0
1.2026609,-1.3222334,-1.3537321,0.4964118,-0.14287078,-0.85624969,0
1.0977678,-1.3859266,-1.4175287,0.4964118,-0.14287078,-0.85624969,0
-1.0293924,2.0094781,0.63694096,-0.069596797,0.97663844,-0.20330739,0
-0.72991538,-0.23321009,0.35351658,-0.86529291,-0.1605162,-0.4748714,0
-1.3215594,-0.81900829,1.7755592,-0.4964118,0.14287078,0.85624969,0
-0.17454672,-1.7469172,1.1792831,0.069596797,-0.97663844,0.20330739,0
-0.92166317,-0.25965315,0.7116251,-0.86529291,-0.1605162,-0.4748714,0
0.14400136,0.44317585,-1.4508893,-0.86529291,-0.1605162,-0.4748714,0
0.84778529,-2.1616817,-1.1117316,0.069596797,-0.97663844,0.20330739,0
0.42859685,1.2074146,-0.24876988,0.86529291,0.1605162,0.4748714,0
-0.30710363,-1.9037619,0.56887078,0.069596797,-0.97663844,0.20330739,0
0.33316457,-0.38373369,-1.65415,-0.86529291,-0.1605162,-0.4748714,0
-1.0115805,-0.84683919,1.9527076,-0.4964118,0.14287078,0.85624969,0
0.45492911,0.86757112,-2.0494938,-0.86529291,-0.1605162,-0.4748714,0
0.80122602,-1.9308738,-1.6028337,0.4964118,-0.14287078,-0.85624969,0
1.4621801,-2.2455933,-1.1431113,0.069596797,-0.97663844,0.20330739,0
-0.90129972,-1.7667869,1.6625515,0.069596797,-0.97663844,0.20330739,0
0.6103189,1.1369936,-2.1687837,0.4964118,-0.14287078,-0.85624969,0
-1.0796747,0.58460075,1.5061462,-0.4964118,0.14287078,0.85624969,0
-0.053336501,-1.9474996,0.89156783,0.069596797,-0.97663844,0.20330739,0
-0.49489701,-1.9695088,0.87378716,0.069596797,-0.97663844,0.20330739,0
-0.29338336,-2.0157518,0.49060452,0.069596797,-0.97663844,0.20330739,0
0.70088649,-0.17358559,-1.7942116,0.4964118,-0.14287078,-0.85624969,0
-0.34539151,-1.5850716,2.3088617,-0.4964118,0.14287078,0.85624969,0
-0.3576932,2.1579852,0.50161445,-0.069596797,0.97663844,-0.20330739,0
-0.65999615,-0.63834065,0.48545998,-0.86529291,-0.1605162,-0.4748714,0
1.249356,0.56088728,-1.3439364,0.86529291,0.1605162,0.4748714,0
-0.78726089,1.2579775,1.6103203,-0.4964118,0.14287078,0.85624969,0
0.72053552,-0.79607928,-1.7063907,0.4964118,-0.14287078,-0.85624969,0
1.4197551,-1.8315626,-1.144798,0.4964118,-0.14287078,-0.85624969,0
-0.39658594,-0.63228309,1.8252342,0.86529291,0.1605162,0.4748714,0
-0.06968689,-1.9429622,0.22231853,0.069596797,-0.97663844,0.20330739,0
-0.35479021,2.0240831,0.24734342,-0.069596797,0.97663844,-0.20330739,0
-0.86981797,0.014669716,0.54986978,-0.86529291,-0.1605162,-0.4748714,0
0.30022097,0.60125995,0.22540271,0.86529291,0.1605162,0.4748714,0
-0.6998353,-0.27750587,1.8671299,-0.4964118,0.14287078,0.85624969,0
-0.23834765,1.6789029,-0.99453545,-0.86529291,-0.1605162,-0.4748714,0
1.3318664,-0.025812984,-1.1807361,0.86529291,0.1605162,0.4748714,0
0.26564085,-1.5516,-0.83087939,-0.86529291,-0.1605162,-0.4748714,0
1.4017192,-1.1611983,-1.2639729,0.4964118,-0.14287078,-0.85624969,0
-1.1020314,-0.53903985,1.317657,-0.86529291,-0.1605162,-0.4748714,0
-1.4015372,-1.0261419,1.8080339,-0.4964118,0.14287078,0.85624969,0
0.33947235,-2.1494055,-0.27718186,0.069596797,-0.97663844,0.20330739,0
-0.25332475,-0.12878531,1.4092565,0.86529291,0.1605162,0.4748714,0
-1.2430987,-0.38528442,1.7819616,-0.4964118,0.14287078,0.85624969,0
0.89226258,-0.81046724,-1.6099412,0.4964118,-0.14287078,-0.85624969,0
-0.80456328,-1.6966773,1.8595012,0.069596797,-0.97663844,0.20330739,0
-0.26798651,1.9758983,0.73839939,0.86529291,0.1605162,0.4748714,0
1.3062921,-2.1163907,-1.0909123,0.069596797,-0.97663844,0.20330739,0
-0.53211832,-1.9679816,0.8732233,0.069596797,-0.97663844,0.20330739,0
0.95589691,-2.1813514,-0.83989465,0.069596797,-0.97663844,0.20330739,0
0.29178733,-0.74802959,0.72898787,0.86529291,0.1605162,0.4748714,0
0.76655054,1.4813199,-2.1391308,0.4964118,-0.14287078,-0.85624969,0
1.5662085,-1.5788703,-1.2720041,0.4964118,-0.14287078,-0.85624969,0
-0.45476758,1.6605817,1.2446916,0.86529291,0.1605162,0.4748714,0
0.42023051,1.8538885,-1.1287317,-0.069596797,0.97663844,-0.20330739,0
0.061888695,1.7183356,-1.6207904,-0.069596797,0.97663844,-0.20330739,0
-0.93130398,1.8206623,1.4874315,-0.4964118,0.14287078,0.85624969,0
-0.87547874,-0.086642504,1.9133813,-0.4964118,0.14287078,0.85624969,0
-0.60935217,1.8521101,-0.56244421,-0.069596797,0.97663844,-0.20330739,0
1.0128591,0.041918516,-1.6612647,0.4964118,-0.14287078,-0.85624969,0
0.45063189,-2.0616324,-0.29434037,0.069596797,-0.97663844,0.20330739,0
-1.3059881,-0.45215899,1.7675374,-0.4964118,0.14287078,0.85624969,0
0.731655,-1.5646729,-1.5655603,0.4964118,-0.14287078,-0.85624969,0
0.7907896,1.6960859,-2.2541976,-0.069596797,0.97663844,-0.20330739,0
-1.4322457,0.014395237,1.6060307,-0.4964118,0.14287078,0.85624969,0
1.0305356,-2.1321993,-1.3782026,0.4964118,-0.14287078,-0.85624969,0
0.98147464,0.83429456,-1.1654711,0.86529291,0.1605162,0.4748714,0
-0.62298274,0.30895853,-0.038309455,-0.86529291,-0.1605162,-0.4748714,0
0.95854449,0.16438502,-1.8588254,0.4964118,-0.14287078,-0.85624969,0
-0.66878319,0.62648726,1.8468965,-0.4964118,0.14287078,0.85624969,0
-1.1021304,-1.5978369,1.4632158,-0.86529291,-0.1605162,-0.4748714,0
0.51470798,-0.68439478,0.52754271,0.86529291,0.1605162,0.4748714,0
-1.196049,-1.6318928,1.4876084,-0.86529291,-0.1605162,-0.4748714,0
1.2093508,1.6802753,-1.8084089,0.86529291,0.1605162,0.4748714,0
-1.0201941,-0.49966824,1.9052823,-0.4964118,0.14287078,0.85624969,0
0.45484287,-2.2694459,-1.1518172,0.069596797,-0.97663844,0.20330739,0
-0.082303166,1.6383884,-1.2783946,-0.86529291,-0.1605162,-0.4748714,0
-0.4844296,1.4874973,1.4359622,0.86529291,0.1605162,0.4748714,0
-0.10423619,1.453221,0.76342463,0.86529291,0.1605162,0.4748714,0
-0.7328949,0.27600807,1.9145013,-0.4964118,0.14287078,0.85624969,0
1.3026628,-0.15161335,-1.2506175,0.86529291,0.1605162,0.4748714,0
1.1429688,-1.6333454,-0.64205289,0.86529291,0.1605162,0.4748714,0
0.33529705,2.0473392,-0.10854876,-0.069596797,0.97663844,-0.20330739,0
1.4225276,-1.3529181,-1.2792133,0.4964118,-0.14287078,-0.85624969,0
0.93091822,-2.2094269,-0.7475214,0.069596797,-0.97663844,0.20330739,0
-0.55348873,-1.831291,0.9928081,0.069596797,-0.97663844,0.20330739,0
0.012859583,-1.7978864,1.6607598,0.069596797,-0.97663844,0.20330739,0
0.7081933,-0.30115324,-1.9832853,0.4964118,-0.14287078,-0.85624969,0
-0.30826283,-2.0273929,0.63905871,0.069596797,-0.97663844,0.20330739,0
1.3305863,-1.3845484,-1.2228045,0.4964118,-0.14287078,-0.85624969,0
0.52658057,1.1115397,-0.32048643,0.86529291,0.1605162,0.4748714,0
0.93502855,-1.8331089,-0.13261557,0.86529291,0.1605162,0.4748714,0
-1.0720854,-1.3223751,1.9398303,-0.4964118,0.14287078,0.85624969,0
-1.1559075,0.42641342,0.95181423,-0.86529291,-0.1605162,-0.4748714,0
1.2500919,-0.40745628,-1.2864397,0.86529291,0.1605162,0.4748714,0
0.80441666,1.7294095,-1.4920698,-0.069596797,0.97663844,-0.20330739,0
-0.25519401,2.0047555,-0.32370543,-0.069596797,0.97663844,-0.20330739,0
1.0061557,-2.1950285,-1.2971693,0.4964118,-0.14287078,-0.85624969,0
-1.3535149,2.2399976,1.0486375,-0.069596797,0.97663844,-0.20330739,0
-0.67882019,1.5541477,-0.53257382,-0.86529291,-0.1605162,-0.4748714,0
-0.73634899,-1.661726,0.67166162,-0.86529291,-0.1605162,-0.4748714,0
0.017763138,-1.4900379,1.5503609,0.86529291,0.1605162,0.4748714,0
-0.26344252,1.70096,-1.1510644,-0.069596797,0.97663844,-0.20330739,0
0.23926783,1.6152067,-1.929005,-0.069596797,0.97663844,-0.20330739,0
0.068225145,-1.7760112,0.95412564,0.069596797,-0.97663844,0.20330739,0
0.39956093,-0.28020132,-1.5597203,-0.86529291,-0.1605162,-0.4748714,0
-0.77513576,-0.11795139,2.0179729,-0.4964118,0.14287078,0.85624969,0
0.83814991,-2.2669208,-1.382383,0.069596797,-0.97663844,0.20330739,0
-0.49890995,0.4255943,-0.44492257,-0.86529291,-0.1605162,-0.4748714,0
0.068086386,-1.9342453,0.99927878,0.069596797,-0.97663844,0.20330739,0
1.0318865,-1.6892366,-1.5546803,0.4964118,-0.14287078,-0.85624969,0
-0.81833959,0.70236111,1.6302781,-0.4964118,0.14287078,0.85624969,0
0.2784189,0.15986775,-1.514066,-0.86529291,-0.1605162,-0.4748714,0
-0.0070318282,-2.140862,-0.21068227,0.069596797,-0.97663844,0.20330739,0
1.4615945,-2.0758734,-1.0340353,0.069596797,-0.97663844,0.20330739,0
-0.080389142,1.9150522,-1.074162,-0.069596797,0.97663844,-0.20330739,0
0.78843474,1.6563295,-1.9101593,-0.069596797,0.97663844,-0.20330739,0
1.000952,-2.3223281,-1.3209752,0.069596797,-0.97663844,0.20330739,0
0.87355494,1.6935542,-2.1089592,-0.069596797,0.97663844,-0.20330739,0
0.44682574,0.16959123,-1.9354777,-0.86529291,-0.1605162,-0.4748714,0
-0.45091414,-1.7450463,1.9313815,0.069596797,-0.97663844,0.20330739,0
-0.63182783,-0.66791856,2.1920953,-0.4964118,0.14287078,0.85624969,0
-0.85551232,2.0792415,0.34484076,-0.069596797,0.97663844,-0.20330739,0
-0.60271871,0.72612345,1.7201763,0.86529291,0.1605162,0.4748714,0
0.74321598,-1.4479492,0.24525154,0.86529291,0.1605162,0.4748714,0
-0.49036026,-1.7067096,1.3315247,0.069596797,-0.97663844,0.20330739,0
-0.53336143,1.6033186,-0.63081443,-0.86529291,-0.1605162,-0.4748714,0
-0.39071026,2.1822622,0.48412585,-0.069596797,0.97663844,-0.20330739,0
1.064284,1.0238516,-1.2317059,0.86529291,0.1605162,0.4748714,0
0.96197796,-1.2542018,-1.6278733,0.4964118,-0.14287078,-0.85624969,0
-1.3844928,0.85712188,1.3528893,-0.4964118,0.14287078,0.85624969,0
0.19586158,-0.50148976,1.0107589,0.86529291,0.1605162,0.4748714,0
0.17248642,1.9076977,-1.0898528,-0.069596797,0.97663844,-0.20330739,0
0.34712148,-1.6880921,1.067335,0.86529291,0.1605162,0.4748714,0
-0.41183257,2.0261405,0.93262005,0.86529291,0.1605162,0.4748714,0
-1.3466234,2.1520815,0.65329885,-0.069596797,0.97663844,-0.20330739,0
0.38741526,0.086111993,0.46139771,0.86529291,0.1605162,0.4748714,0
0.56577182,0.41803968,-2.040571,0.4964118,-0.14287078,-0.85624969,0
0.42918062,-0.48312786,-1.5697811,-0.86529291,-0.1605162,-0.4748714,0
0.75937724,1.394742,-2.2323043,0.4964118,-0.14287078,-0.85624969,0
1.0286148,1.2949992,-2.0459719,0.4964118,-0.14287078,-0.85624969,0
-0.41018546,1.1421015,1.3049875,0.86529291,0.1605162,0.4748714,0
0.44273669,-1.9143517,0.077309608,0.069596797,-0.97663844,0.20330739,0
-0.54237843,-1.9052265,0.420838,-0.86529291,-0.1605162,-0.4748714,0
-0.057051897,1.7178456,-1.6333268,-0.86529291,-0.1605162,-0.4748714,0
-0.12413895,-0.2007024,-0.78579366,-0.86529291,-0.1605162,-0.4748714,0
-0.9967103,-0.9280926,1.9608754,-0.4964118,0.14287078,0.85624969,0
0.17738521,-1.7959893,0.77059615,0.069596797,-0.97663844,0.20330739,0
0.10426092,1.8483205,-1.0768104,-0.069596797,0.97663844,-0.20330739,0
1.4066131,0.82757038,-1.6253734,0.86529291,0.1605162,0.4748714,0
-0.80121958,2.1546323,0.49550796,-0.069596797,0.97663844,-0.20330739,0
0.2340008,-1.0962073,0.9262315,0.86529291,0.1605162,0.4748714,0
0.21879721,0.1536696,0.62774068,0.86529291,0.1605162,0.4748714,0
-1.1286812,1.5352339,1.3538401,-0.4964118,0.14287078,0.85624969,0
-1.4946672,1.7506857,1.1270357,-0.86529291,-0.1605162,-0.4748714,0
0.092861176,-0.01145399,-1.3229021,-0.86529291,-0.1605162,-0.4748714,0
-0.8909083,1.2665248,0.026165962,-0.86529291,-0.1605162,-0.4748714,0
0.54854834,1.7981405,-1.2174094,-0.069596797,0.97663844,-0.20330739,0
-0.6443786,2.0964441,0.83618605,-0.069596797,0.97663844,-0.20330739,0
-0.82122409,-1.8125196,1.2028177,0.069596797,-0.97663844,0.20330739,0
-1.4035935,1.6736003,1.1147908,-0.86529291,-0.1605162,-0.4748714,0
0.030824304,-1.891278,1.2231458,0.069596797,-0.97663844,0.20330739,0
-0.22352725,1.8720522,-0.61474228,-0.069596797,0.97663844,-0.20330739,0
0.11258066,-1.1640635,1.1782949,0.86529291,0.1605162,0.4748714,0
-1.3569534,2.0060065,0.67519307,-0.86529291,-0.1605162,-0.4748714,0
-0.4560582,1.8980908,-0.28973222,-0.069596797,0.97663844,-0.20330739,0
0.6782887,1.223506,-2.1170924,0.4964118,-0.14287078,-0.85624969,0
0.091802835,1.5095477,-1.5303422,-0.86529291,-0.1605162,-0.4748714,0
1.3697084,-0.39884555,-1.1138127,0.86529291,0.1605162,0.4748714,0
-0.9638828,2.1337888,1.2152365,-0.069596797,0.97663844,-0.20330739,0
-0.69058537,0.6974076,1.7559965,-0.4964118,0.14287078,0.85624969,0
0.88420773,-1.2995888,-1.6419352,0.4964118,-0.14287078,-0.85624969,0
-0.32539526,2.0838764,0.17910123,-0.069596797,0.97663844,-0.20330739,0
-0.9191463,1.0986581,1.7198639,-0.4964118,0.14287078,0.85624969,0
1.1720548,0.17621863,-1.7139053,0.4964118,-0.14287078,-0.85624969,0
0.7536633,-0.46574903,-1.7110274,0.4964118,-0.14287078,-0.85624969,0
-0.57439303,-0.084566891,1.9322605,-0.4964118,0.14287078,0.85624969,0
0.57796663,-2.2232199,-1.1081717,0.069596797,-0.97663844,0.20330739,0
0.92027807,-0.95939451,-1.6415133,0.4964118,-0.14287078,-0.85624969,0
0.82635176,-2.2368269,-1.2906613,0.069596797,-0.97663844,0.20330739,0
-1.1315479,1.5228708,0.61119437,-0.86529291,-0.1605162,-0.4748714,0
-0.7300899,-0.40190563,1.9326718,-0.4964118,0.14287078,0.85624969,0
0.80732965,0.63638228,-1.9184589,0.4964118,-0.14287078,-0.85624969,0
-0.0077358782,-2.1044242,-0.11847579,0.069596797,-0.97663844,0.20330739,0
1.4204669,-0.60207343,-1.2032368,0.86529291,0.1605162,0.4748714,0
0.60584569,-0.012550443,-1.8957965,0.4964118,-0.14287078,-0.85624969,0
1.5031395,-1.9888951,-1.1219379,0.4964118,-0.14287078,-0.85624969,0
-0.49039507,-0.72696561,2.2624872,-0.4964118,0.14287078,0.85624969,0
0.62008631,-1.6931524,-1.5383074,-0.86529291,-0.1605162,-0.4748714,0
-0.11164403,-1.1544925,1.5260918,0.86529291,0.1605162,0.4748714,0
1.0169312,-1.5870758,-0.43697178,0.86529291,0.1605162,0.4748714,0
0.073338747,1.8029988,-1.2004874,-0.069596797,0.97663844,-0.20330739,0
0.6987536,-0.4680301,-1.9582937,0.4964118,-0.14287078,-0.85624969,0
0.80164975,-0.88626862,0.075609684,0.86529291,0.1605162,0.4748714,0
-0.6098491,2.2306769,0.65211689,-0.069596797,0.97663844,-0.20330739,0
-1.1878297,-1.158953,1.783334,-0.4964118,0.14287078,0.85624969,0
-0.81903064,0.59354722,1.8046856,-0.4964118,0.14287078,0.85624969,0
0.32420972,-0.070831954,0.53246558,0.86529291,0.1605162,0.4748714,0
-1.095964,1.358264,1.3868325,-0.4964118,0.14287078,0.85624969,0
0.12230867,-1.9093688,0.54912972,0.069596797,-0.97663844,0.20330739,0
-0.5018158,-1.7571199,1.6885153,0.069596797,-0.97663844,0.20330739,0
-0.43352342,-1.9249167,0.44846988,0.069596797,-0.97663844,0.20330739,0
0.5140174,-0.42932364,0.095824301,0.86529291,0.1605162,0.4748714,0
-1.4720395,-0.099167347,1.5018599,-0.86529291,-0.1605162,-0.4748714,0
1.176627,-0.66568506,-0.68308568,0.86529291,0.1605162,0.4748714,0
-0.94202101,1.8992428,1.3985429,-0.4964118,0.14287078,0.85624969,0
0.068107247,0.62818956,0.64861614,0.86529291,0.1605162,0.4748714,0
0.44600403,-0.77102488,0.31465328,0.86529291,0.1605162,0.4748714,0
0.65072656,-0.79489416,-1.8756145,-0.86529291,-0.1605162,-0.4748714,0
0.1567291,0.38348812,-1.6410919,-0.86529291,-0.1605162,-0.4748714,0
-0.22993076,-1.8718393,0.6523968,0.069596797,-0.97663844,0.20330739,0
0.49887744,-1.9988648,-0.19234204,0.069596797,-0.97663844,0.20330739,0
0.98169219,-1.4087992,-1.6030312,0.4964118,-0.14287078,-0.85624969,0
-1.0768051,-1.809041,1.9890316,0.069596797,-0.97663844,0.20330739,0
0.57948387,-2.258975,-0.97319853,0.069596797,-0.97663844,0.20330739,0
1.425956,-2.1512761,-1.1328981,0.069596797,-0.97663844,0.20330739,0
-0.70247304,2.3957415,1.4621094,-0.4964118,0.14287078,0.85624969,0
-0.25291348,-0.10310389,1.3485973,0.86529291,0.1605162,0.4748714,0
1.0573597,0.12746608,-1.6761798,0.4964118,-0.14287078,-0.85624969,0
1.0458212,1.3248669,-1.4046948,0.86529291,0.1605162,0.4748714,0
-1.4452785,0.08331418,1.3895084,-0.4964118,0.14287078,0.85624969,0
-0.36902142,-1.6889809,1.6421188,0.069596797,-0.97663844,0.20330739,0
0.54861569,-0.2034038,-2.0691509,0.4964118,-0.14287078,-0.85624969,0
1.2816973,-1.4231098,-1.393263,0.4964118,-0.14287078,-0.85624969,0
0.6146934,1.4027148,-0.62807441,0.86529291,0.1605162,0.4748714,0
-0.39614803,-1.4770728,0.21997333,-0.86529291,-0.1605162,-0.4748714,0
0.76924324,-2.0175323,0.17036843,0.86529291,0.1605162,0.4748714,0
-0.86016679,-1.8469901,1.4714622,0.069596797,-0.97663844,0.20330739,0
-0.82098782,-1.9147682,0.91081643,0.069596797,-0.97663844,0.20330739,0
0.54102182,0.8344202,-2.2357836,0.4964118,-0.14287078,-0.85624969,0
0.86262465,0.22975183,-1.8817172,0.4964118,-0.14287078,-0.85624969,0
1.3488619,0.39170796,-1.5821804,0.4964118,-0.14287078,-0.85624969,0
-0.88450515,0.71405077,1.7664407,-0.4964118,0.14287078,0.85624969,0
-0.68837857,-0.49027914,1.9143357,-0.4964118,0.14287078,0.85624969,0
0.017517328,-1.8870993,0.70520031,0.069596797,-0.97663844,0.20330739,0
1.1652794,1.7388166,-1.6366439,0.86529291,0.1605162,0.4748714,0
0.33378881,-1.2122518,-1.099986,-0.86529291,-0.1605162,-0.4748714,0
-0.36014539,2.0443335,-0.26497865,-0.069596797,0.97663844,-0.20330739,0
-1.1314033,0.95055139,1.4734843,-0.4964118,0.14287078,0.85624969,0
-1.4121559,0.26705885,1.3921384,-0.4964118,0.14287078,0.85624969,0
-0.87128758,-1.6638712,1.7172467,0.069596797,-0.97663844,0.20330739,0
0.57504129,-1.2620331,0.45975685,0.86529291,0.1605162,0.4748714,0
-1.0425562,0.57844359,1.6048642,-0.4964118,0.14287078,0.85624969,0
-0.22284818,-0.57703626,1.4857686,0.86529291,0.1605162,0.4748714,0
-0.060231388,1.0220132,0.99359596,0.86529291,0.1605162,0.4748714,0
-0.7157743,-1.6710629,2.0955019,-0.4964118,0.14287078,0.85624969,0
-1.1084712,0.4924103,1.5223501,-0.4964118,0.14287078,0.85624969,0
-0.3950147,0.052317649,-0.19394021,-0.86529291,-0.1605162,-0.4748714,0
-1.3358781,-1.1845132,1.8383578,-0.4964118,0.14287078,0.85624969,0
-1.064393,-1.6867032,1.3504367,-0.86529291,-0.1605162,-0.4748714,0
-0.54809618,-1.6057084,1.8926225,0.069596797,-0.97663844,0.20330739,0
-1.3156172,-0.72679728,1.4139878,-0.86529291,-0.1605162,-0.4748714,0
0.34467959,1.7067463,-1.4460661,-0.069596797,0.97663844,-0.20330739,0
0.60991514,-0.76331866,0.10328639,0.86529291,0.1605162,0.4748714,0
-1.0712889,-1.070363,1.0938329,-0.86529291,-0.1605162,-0.4748714,0
0.161955,-2.0087316,0.283108,0.069596797,-0.97663844,0.20330739,0
0.72497553,-0.76160777,-0.026359916,0.86529291,0.1605162,0.4748714,0
-0.80975991,0.34397155,0.27916038,-0.86529291,-0.1605162,-0.4748714,0
0.94172645,1.1783803,-1.9093423,0.4964118,-0.14287078,-0.85624969,0
0.76368403,1.7869933,-0.80401945,0.86529291,0.1605162,0.4748714,0
0.62572056,-2.0790427,-0.34405565,0.069596797,-0.97663844,0.20330739,0
0.58462965,1.8648626,-0.91556633,-0.069596797,0.97663844,-0.20330739,0
0.55063599,-1.7919319,0.80862522,0.86529291,0.1605162,0.4748714,0
0.7651031,-1.9024837,0.15833759,0.069596797,-0.97663844,0.20330739,0
0.84270656,-1.5213225,0.1352005,0.86529291,0.1605162,0.4748714,0
-0.48048389,-1.1675762,0.32417363,-0.86529291,-0.1605162,-0.4748714,0
-1.3024151,1.4033039,1.304703,-0.4964118,0.14287078,0.85624969,0
0.32991326,1.9657091,-0.69894719,-0.069596797,0.97663844,-0.20330739,0
-0.095251739,-2.0843058,0.053710699,0.069596797,-0.97663844,0.20330739,0
-0.68363333,-1.6771069,2.0874064,0.069596797,-0.97663844,0.20330739,0
0.33909559,-1.7542746,1.0541348,0.069596797,-0.97663844,0.20330739,0
0.73346055,-2.2440956,-1.5516769,0.4964118,-0.14287078,-0.85624969,0
1.1206123,-2.1569719,-1.1384807,0.069596797,-0.97663844,0.20330739,0
1.4414245,-1.3195723,-1.3156807,0.4964118,-0.14287078,-0.85624969,0
-0.20792866,1.2735226,1.1263559,0.86529291,0.1605162,0.4748714,0
-0.84989095,0.96367091,1.7392958,-0.4964118,0.14287078,0.85624969,0
1.0116891,-0.84985089,-1.6020933,0.4964118,-0.14287078,-0.85624969,0
0.16266686,1.1327543,0.22697318,0.86529291,0.1605162,0.4748714,0
-0.069301605,1.8176568,-0.81164813,-0.069596797,0.97663844,-0.20330739,0
0.74486506,-1.6610237,0.35743618,0.86529291,0.1605162,0.4748714,0
-1.0502217,0.36203182,1.6641169,-0.4964118,0.14287078,0.85624969,0
-0.94856083,0.92500716,0.25655091,-0.86529291,-0.1605162,-0.4748714,0
1.407383,-1.624485,-1.2232329,0.4964118,-0.14287078,-0.85624969,0
1.0571303,0.71972179,-1.1933351,0.86529291,0.1605162,0.4748714,0
0.74631727,-1.9743423,-0.030893326,0.069596797,-0.97663844,0.20330739,0
-0.9983561,-1.8140835,1.6029507,0.069596797,-0.97663844,0.20330739,0
0.12983894,1.6576731,-1.7532631,-0.069596797,0.97663844,-0.20330739,0
1.2014245,-0.99869096,-0.68776971,0.86529291,0.1605162,0.4748714,0
1.1775713,0.21710443,-1.6188451,0.4964118,-0.14287078,-0.85624969,0
-0.96172857,2.0481052,0.48384619,-0.069596797,0.97663844,-0.20330739,0
1.4745904,-1.0479183,-1.2057046,0.4964118,-0.14287078,-0.85624969,0
0.58456135,1.8269856,-0.95090616,-0.069596797,0.97663844,-0.20330739,0
-0.48124838,-0.32820949,2.1523118,0.86529291,0.1605162,0.4748714,0
-0.73759544,2.0014296,1.4622262,-0.4964118,0.14287078,0.85624969,0
-0.78326535,2.1595025,1.4437526,-0.4964118,0.14287078,0.85624969,0
-0.76372027,-1.750597,1.8552591,0.069596797,-0.97663844,0.20330739,0
0.65034008,0.24097326,-2.035069,0.4964118,-0.14287078,-0.85624969,0
1.0225796,-1.9970833,-0.33472681,0.069596797,-0.97663844,0.20330739,0
-0.3138651,1.9955778,0.12295938,-0.069596797,0.97663844,-0.20330739,0
-0.38638932,-1.4123582,0.2283498,-0.86529291,-0.1605162,-0.4748714,0
-1.2312286,-1.0792406,1.8820703,-0.4964118,0.14287078,0.85624969,0
-0.87158942,-0.97317362,2.0630987,-0.4964118,0.14287078,0.85624969,0
-0.35530478,1.2585828,-0.93857539,-0.86529291,-0.1605162,-0.4748714,0
0.84883755,-2.1445439,-0.58213186,0.069596797,-0.97663844,0.20330739,0
0.58706141,1.219301,-2.2096784,0.4964118,-0.14287078,-0.85624969,0
-0.0088498592,-1.6715882,1.4067599,0.069596797,-0.97663844,0.20330739,0
-0.36250854,-1.8889381,1.1273422,0.069596797,-0.97663844,0.20330739,0
-1.2775619,0.83611518,1.492501,-0.4964118,0.14287078,0.85624969,0
-0.79726958,-1.354226,2.0802879,-0.4964118,0.14287078,0.85624969,0
-0.40330052,0.061487451,1.710284,0.86529291,0.1605162,0.4748714,0
1.3914832,-0.45674038,-1.1178827,0.86529291,0.1605162,0.4748714,0
-1.4337012,0.89091408,1.0664432,-0.86529291,-0.1605162,-0.4748714,0
-0.72499645,0.60660428,1.779967,-0.4964118,0.14287078,0.85624969,0
0.26809645,-1.3837892,-1.0208526,-0.86529291,-0.1605162,-0.4748714,0
0.19197214,1.8309319,-0.70459509,-0.069596797,0.97663844,-0.20330739,0
0.91578519,-1.6527935,-1.6358459,0.4964118,-0.14287078,-0.85624969,0
-0.066498339,-2.0791855,0.20357394,0.069596797,-0.97663844,0.20330739,0
0.16493928,-1.8107867,1.1210034,0.069596797,-0.97663844,0.20330739,0
0.7469604,0.2868799,-1.9876297,0.4964118,-0.14287078,-0.85624969,0
-1.4979533,0.87998426,1.4091749,-0.4964118,0.14287078,0.85624969,0
1.1395187,1.4016497,-1.9908504,0.4964118,-0.14287078,-0.85624969,0
-0.17862993,1.4902294,0.86169088,0.86529291,0.1605162,0.4748714,0
1.0149055,-0.69983089,-1.6087523,0.4964118,-0.14287078,-0.85624969,0
0.7958138,1.6783366,-1.7525754,-0.069596797,0.97663844,-0.20330739,0
-0.54253113,-0.84031498,0.19893444,-0.86529291,-0.1605162,-0.4748714,0
-0.31128037,1.9035403,-0.92229962,-0.069596797,0.97663844,-0.20330739,0
1.2956707,0.092932463,-1.6171095,0.4964118,-0.14287078,-0.85624969,0
1.3943781,-0.26680517,-1.4667751,0.4964118,-0.14287078,-0.85624969,0
1.0387622,-0.22508061,-1.6686841,0.4964118,-0.14287078,-0.85624969,0
-1.1729388,0.23511797,1.5272553,-0.4964118,0.14287078,0.85624969,0
0.2929574,-1.9675508,-0.1278882,0.069596797,-0.97663844,0.20330739,0
0.77213025,0.8470028,-2.1422884,0.4964118,-0.14287078,-0.85624969,0
-1.045378,-1.3222127,1.2643553,-0.86529291,-0.1605162,-0.4748714,0
-1.109139,-0.59482884,1.7889583,-0.4964118,0.14287078,0.85624969,0
1.183603,1.6377615,-1.8356223,0.4964118,-0.14287078,-0.85624969,0
-0.2069881,1.9531472,-0.84405732,-0.069596797,0.97663844,-0.20330739,0
0.0041065812,-1.9590095,0.034729004,0.069596797,-0.97663844,0.20330739,0
-1.0727696,1.164144,1.4447722,-0.4964118,0.14287078,0.85624969,0
-1.3052275,0.44816959,1.4180088,-0.4964118,0.14287078,0.85624969,0
-0.44632483,-0.079933658,2.0422518,0.86529291,0.1605162,0.4748714,0
1.0547953,0.86771786,-1.7550217,0.4964118,-0.14287078,-0.85624969,0
-1.0881841,2.1460116,0.72130299,-0.069596797,0.97663844,-0.20330739,0
-1.2140329,2.0313451,0.58028507,-0.069596797,0.97663844,-0.20330739,0
-1.038282,-0.35287142,1.1666256,-0.86529291,-0.1605162,-0.4748714,0
-0.25440487,2.2021277,0.5617789,-0.069596797,0.97663844,-0.20330739,0
-1.4268515,-0.12869501,1.5542042,-0.4964118,0.14287078,0.85624969,0
1.4361187,-1.6150179,-1.1488819,0.86529291,0.1605162,0.4748714,0
0.66272259,0.58383,-2.0861182,0.4964118,-0.14287078,-0.85624969,0
0.55654693,0.070920169,-1.9212873,0.4964118,-0.14287078,-0.85624969,0
-0.50201523,-1.8182896,1.0370851,0.069596797,-0.97663844,0.20330739,0
1.2996118,-2.0768087,-0.94938409,0.069596797,-0.97663844,0.20330739,0
1.4680196,-2.251904,-1.0651658,0.069596797,-0.97663844,0.20330739,0
-0.66257524,-1.8372395,1.3222556,0.069596797,-0.97663844,0.20330739,0
0.073970556,0.021201983,0.97574675,0.86529291,0.1605162,0.4748714,0
0.93555307,0.89282513,-2.0056281,0.4964118,-0.14287078,-0.85624969,0
-1.0331542,-1.7505643,1.6261034,0.069596797,-0.97663844,0.20330739,0
0.25295401,0.34412345,-1.6384512,-0.86529291,-0.1605162,-0.4748714,0
-0.75820136,-1.8160102,1.0255635,-0.86529291,-0.1605162,-0.4748714,0
0.81221604,1.1335269,-1.9740152,0.4964118,-0.14287078,-0.85624969,0
1.2603886,-2.031008,-1.2201127,0.4964118,-0.14287078,-0.85624969,0
-0.95349914,2.0442314,0.62722039,-0.069596797,0.97663844,-0.20330739,0
0.20591402,-0.93266791,-0.98935378,-0.86529291,-0.1605162,-0.4748714,0
-0.25781015,-0.1548461,-0.58923858,-0.86529291,-0.1605162,-0.4748714,0
-0.88664979,0.45612341,0.4383266,-0.86529291,-0.1605162,-0.4748714,0
0.16797233,2.0752263,-0.20874488,-0.069596797,0.97663844,-0.20330739,0
-0.76524258,2.1237156,0.91974378,-0.069596797,0.97663844,-0.20330739,0
-0.49430823,0.12779516,1.9224238,-0.4964118,0.14287078,0.85624969,0
0.94652796,0.44613796,-0.79750824,0.86529291,0.1605162,0.4748714,0
-1.4492162,1.125226,1.2299247,-0.4964118,0.14287078,0.85624969,0
0.6004039,1.9295464,-1.2570474,-0.069596797,0.97663844,-0.20330739,0
0.54728138,1.4318392,-0.22346926,0.86529291,0.1605162,0.4748714,0
-0.40907741,-1.883072,1.148223,0.069596797,-0.97663844,0.20330739,0
-0.80357504,0.29177606,1.7948228,-0.4964118,0.14287078,0.85624969,0
-0.81002522,-1.2406203,1.9918604,-0.4964118,0.14287078,0.85624969,0
0.68290615,0.55985373,-2.0858302,0.4964118,-0.14287078,-0.85624969,0
-0.57787108,-0.63161933,2.0177984,-0.4964118,0.14287078,0.85624969,0
-0.17687953,2.1838105,0.45695078,-0.069596797,0.97663844,-0.20330739,0
-0.67174697,-0.18154064,2.0156054,-0.4964118,0.14287078,0.85624969,0
0.092686057,-1.7693119,1.2886101,0.069596797,-0.97663844,0.20330739,0
-1.1526846,0.93541944,1.4065213,-0.4964118,0.14287078,0.85624969,0
1.5091051,-1.6645129,-1.2618059,0.4964118,-0.14287078,-0.85624969,0
-0.20837927,1.963421,-0.44259429,-0.069596797,0.97663844,-0.20330739,0
0.021261036,-1.8901556,0.47528672,0.069596797,-0.97663844,0.20330739,0
-0.73100448,-1.7326953,1.9624058,0.069596797,-0.97663844,0.20330739,0
1.0496686,0.21047634,-1.0658497,0.86529291,0.1605162,0.4748714,0
-1.2614384,-1.5396955,1.8189199,-0.4964118,0.14287078,0.85624969,0
1.0401378,-0.18861836,-1.6925907,0.4964118,-0.14287078,-0.85624969,0
0.79357958,-0.6460731,-1.7331614,0.4964118,-0.14287078,-0.85624969,0
-0.37796411,1.9945383,0.032655001,-0.069596797,0.97663844,-0.20330739,0
0.0083312988,-1.9062488,0.53343511,0.069596797,-0.97663844,0.20330739,0
-0.64991319,0.96297014,-0.0013326406,-0.86529291,-0.1605162,-0.4748714,0
1.1551788,-2.1572869,-1.0901997,0.069596797,-0.97663844,0.20330739,0
-1.0491714,1.5774033,0.27479279,-0.86529291,-0.1605162,-0.4748714,0
1.3224877,-1.2567096,-1.2540855,0.4964118,-0.14287078,-0.85624969,0
-0.53191638,-1.31148,2.3058877,-0.4964118,0.14287078,0.85624969,0
-0.4035542,-2.0022326,0.74291384,0.069596797,-0.97663844,0.20330739,0
-0.56258619,-1.8750731,0.78918278,0.069596797,-0.97663844,0.20330739,0
1.0368168,-0.34762216,-1.7321606,0.4964118,-0.14287078,-0.85624969,0
-0.42654788,2.0874743,0.48109651,-0.069596797,0.97663844,-0.20330739,0
-0.45279169,-0.55530941,2.1686168,0.86529291,0.1605162,0.4748714,0
0.639503,-0.098824203,-1.9734378,0.4964118,-0.14287078,-0.85624969,0
0.51548147,1.468976,-0.56517279,0.86529291,0.1605162,0.4748714,0
-0.36454058,0.44474089,-0.45097095,-0.86529291,-0.1605162,-0.4748714,0
-0.9139446,1.106584,1.5889578,-0.4964118,0.14287078,0.85624969,0
-0.27291989,-0.61291575,-0.5116716,-0.86529291,-0.1605162,-0.4748714,0
0.29025567,-2.0509751,-0.17407608,0.069596797,-0.97663844,0.20330739,0
0.0001231432,1.5303293,-1.3995991,-0.86529291,-0.1605162,-0.4748714,0
0.45148605,-2.166333,-0.37280464,0.069596797,-0.97663844,0.20330739,0
-1.3164146,1.0658836,0.87064737,-0.86529291,-0.1605162,-0.4748714,0
-0.50173032,1.7646545,1.5380474,0.86529291,0.1605162,0.4748714,0
-0.58281958,-1.9315867,1.1947623,0.069596797,-0.97663844,0.20330739,0
1.4046614,-1.0251648,-1.3112719,0.4964118,-0.14287078,-0.85624969,0
-1.2436868,0.29271305,1.4699533,-0.4964118,0.14287078,0.85624969,0
1.1177524,-0.05451113,-1.5680749,0.4964118,-0.14287078,-0.85624969,0
-0.86672103,2.2846825,1.3356147,-0.069596797,0.97663844,-0.20330739,0
-0.61805677,-0.45770818,0.36407754,-0.86529291,-0.1605162,-0.4748714,0
0.96702993,-0.2431165,-1.6430135,0.4964118,-0.14287078,-0.85624969,0
-1.0849719,2.1875203,0.86559546,-0.069596797,0.97663844,-0.20330739,0
0.94493914,-0.50570405,-0.62958682,0.86529291,0.1605162,0.4748714,0
-0.93762839,2.2523336,1.3650177,-0.4964118,0.14287078,0.85624969,0
-1.2347546,-0.37761039,1.6258984,-0.4964118,0.14287078,0.85624969,0
0.55730367,1.920771,-1.2860738,-0.069596797,0.97663844,-0.20330739,0
0.90766549,1.5157779,-0.97047979,0.86529291,0.1605162,0.4748714,0
1.3587643,-1.7980458,-0.63096714,0.86529291,0.1605162,0.4748714,0
0.1954875,2.0938623,-0.12146115,-0.069596797,0.97663844,-0.20330739,0
0.020166799,1.7509441,0.6059581,0.86529291,0.1605162,0.4748714,0
-0.89695907,1.451925,1.6266068,-0.4964118,0.14287078,0.85624969,0
0.241202,-1.2684458,0.95399058,0.86529291,0.1605162,0.4748714,0
-0.78016067,-1.4487349,2.1376896,-0.4964118,0.14287078,0.85624969,0
0.63483477,-0.26824507,-1.8737733,0.4964118,-0.14287078,-0.85624969,0
0.67020583,1.7043369,-2.2584081,0.4964118,-0.14287078,-0.85624969,0
-1.3723596,1.1301419,1.1382411,-0.86529291,-0.1605162,-0.4748714,0
0.16187692,1.9805555,-0.69324362,-0.069596797,0.97663844,-0.20330739,0
-0.22683674,1.9809062,-0.54706788,-0.069596797,0.97663844,-0.20330739,0
-0.32679647,1.7532824,1.0795672,0.86529291,0.1605162,0.4748714,0
-1.4982482,1.525085,1.2328621,-0.4964118,0.14287078,0.85624969,0
0.60096008,0.89110291,-0.53385609,0.86529291,0.1605162,0.4748714,0
-0.18386239,2.1336503,0.17869091,-0.069596797,0.97663844,-0.20330739,0
-1.0078728,-1.7392168,2.0283933,0.069596797,-0.97663844,0.20330739,0
-0.30805504,1.9099472,-0.75211048,-0.069596797,0.97663844,-0.20330739,0
0.59439826,1.812351,-1.0181817,-0.069596797,0.97663844,-0.20330739,0
0.6405282,0.17841089,-0.11861707,0.86529291,0.1605162,0.4748714,0
-0.7165246,-0.78560531,2.1288972,-0.4964118,0.14287078,0.85624969,0
-0.69256139,-1.7334416,2.0322556,0.069596797,-0.97663844,0.20330739,0
-0.78259867,0.54579729,0.093230844,-0.86529291,-0.1605162,-0.4748714,0
-0.092417836,2.0160341,-0.14922738,-0.069596797,0.97663844,-0.20330739,0
0.43810397,-1.885985,0.57154369,0.069596797,-0.97663844,0.20330739,0
-1.152693,-0.36203873,1.6792822,-0.4964118,0.14287078,0.85624969,0
-0.69617373,0.85268736,-0.065994263,-0.86529291,-0.1605162,-0.4748714,0
1.2029516,-1.2444291,-1.5014828,0.4964118,-0.14287078,-0.85624969,0
1.4436669,-1.8235483,-0.79856265,0.86529291,0.1605162,0.4748714,0
-1.0802066,-1.1544101,1.2425821,-0.86529291,-0.1605162,-0.4748714,0
-1.0021079,0.065835238,1.7536104,-0.4964118,0.14287078,0.85624969,0
0.57329589,-1.6905628,0.74302232,0.86529291,0.1605162,0.4748714,0
0.053606331,-2.0453887,0.16283607,0.069596797,-0.97663844,0.20330739,0
0.19939435,-0.58447492,-1.2675337,-0.86529291,-0.1605162,-0.4748714,0
0.6795252,-2.2212722,-1.0809234,0.069596797,-0.97663844,0.20330739,0
-0.5942452,2.1200073,1.4262174,0.86529291,0.1605162,0.4748714,0
-0.09658885,-0.87948275,1.6854922,0.86529291,0.1605162,0.4748714,0
-0.49009782,0.03585732,-0.20564935,-0.86529291,-0.1605162,-0.4748714,0
-0.65797877,-0.17389074,1.8986051,-0.4964118,0.14287078,0.85624969,0
-0.45838705,1.3432119,-0.53140414,-0.86529291,-0.1605162,-0.4748714,0
1.011914,0.0054537654,-1.8484244,0.4964118,-0.14287078,-0.85624969,0
1.0157456,1.8827491,-1.4657956,-0.069596797,0.97663844,-0.20330739,0
-0.891074,2.1346524,0.45203924,-0.069596797,0.97663844,-0.20330739,0
-0.76284647,0.85215449,1.671654,-0.4964118,0.14287078,0.85624969,0
0.44238761,-0.30654502,0.17104822,0.86529291,0.1605162,0.4748714,0
0.59004068,0.56319815,-1.9757496,0.4964118,-0.14287078,-0.85624969,0
1.3458179,-0.6047349,-1.4041077,0.86529291,0.1605162,0.4748714,0
-1.3868402,1.5419627,1.2113742,-0.4964118,0.14287078,0.85624969,0
-1.0886607,1.9023213,1.4149921,-0.4964118,0.14287078,0.85624969,0
-0.97293043,-0.27252233,1.9283177,-0.4964118,0.14287078,0.85624969,0
-0.1748153,-1.7116075,1.2615486,0.069596797,-0.97663844,0.20330739,0
-0.27174303,2.2913842,0.81308162,-0.069596797,0.97663844,-0.20330739,0
1.3500246,-1.988088,-1.1855651,0.4964118,-0.14287078,-0.85624969,0
1.4361768,-1.123523,-1.2999736,0.4964118,-0.14287078,-0.85624969,0
-1.4325442,0.1725105,1.5514948,-0.4964118,0.14287078,0.85624969,0
0.758075,-0.34963903,-1.7475467,0.4964118,-0.14287078,-0.85624969,0
0.34913826,-1.7828878,0.86210763,0.069596797,-0.97663844,0.20330739,0
-1.3603925,0.19926047,1.574011,-0.4964118,0.14287078,0.85624969,0
-1.0017796,-0.1750738,1.8419946,-0.4964118,0.14287078,0.85624969,0
-0.39868271,1.7355939,-0.97562933,-0.069596797,0.97663844,-0.20330739,0
0.99285734,-0.56756002,-1.6811141,0.4964118,-0.14287078,-0.85624969,0
0.85587204,-1.2313308,-1.6115849,0.4964118,-0.14287078,-0.85624969,0
-0.16102743,-1.8715901,1.0919278,0.069596797,-0.97663844,0.20330739,0
-1.3226941,0.96645731,1.1036923,-0.86529291,-0.1605162,-0.4748714,0
-1.037107,-1.4467129,2.0016832,-0.4964118,0.14287078,0.85624969,0
0.66977555,1.1583735,-0.42494893,0.86529291,0.1605162,0.4748714,0
0.10717222,-2.0655766,0.049568892,0.069596797,-0.97663844,0.20330739,0
-0.43863308,1.7782198,-0.93017459,-0.86529291,-0.1605162,-0.4748714,0
-0.54187459,1.8977143,-0.061600208,-0.069596797,0.97663844,-0.20330739,0
-0.83232427,-1.6769733,1.7658918,0.069596797,-0.97663844,0.20330739,0
1.0889937,-1.3959956,-0.51809371,0.86529291,0.1605162,0.4748714,0
0.13323069,-0.44075739,-1.2320035,-0.86529291,-0.1605162,-0.4748714,0
-0.64481699,1.9418859,1.4284849,0.86529291,0.1605162,0.4748714,0
-0.1415782,2.0861816,0.53585958,-0.069596797,0.97663844,-0.20330739,0
-1.0197287,2.0794573,0.40298605,-0.069596797,0.97663844,-0.20330739,0
0.47337151,0.8219862,-2.2951205,0.4964118,-0.14287078,-0.85624969,0
-0.23918071,-0.59020805,-0.62155217,-0.86529291,-0.1605162,-0.4748714,0
-1.3980938,0.7155751,1.4403975,-0.86529291,-0.1605162,-0.4748714,0
0.81416535,-0.48448494,-1.8774656,0.4964118,-0.14287078,-0.85624969,0
-0.62638879,-1.7351325,1.2607279,0.069596797,-0.97663844,0.20330739,0
-0.21566808,2.1090455,0.8858403,0.86529291,0.1605162,0.4748714,0
-1.3219042,0.074677706,1.3337451,-0.86529291,-0.1605162,-0.4748714,0
-0.27217522,1.9666994,-0.21716332,-0.069596797,0.97663844,-0.20330739,0
-0.37269753,2.203527,0.58625674,-0.069596797,0.97663844,-0.20330739,0
1.177038,0.18702227,-1.1593007,0.86529291,0.1605162,0.4748714,0
0.53933406,-1.0249991,0.3192755,0.86529291,0.1605162,0.4748714,0
0.31411126,-2.1572685,-0.70495725,0.069596797,-0.97663844,0.20330739,0
-0.61816812,-1.8764874,0.8979615,0.069596797,-0.97663844,0.20330739,0
1.3362054,-0.81569016,-1.5047308,0.4964118,-0.14287078,-0.85624969,0
-0.47160435,-0.34204349,2.0177555,0.86529291,0.1605162,0.4748714,0
-0.36710334,-0.59421116,1.8787862,0.86529291,0.1605162,0.4748714,0
-0.69592452,2.2557571,1.3193858,-0.069596797,0.97663844,-0.20330739,0
0.57306725,-1.5285888,0.52576518,0.86529291,0.1605162,0.4748714,0
1.3912311,-1.3079153,-1.3985262,0.4964118,-0.14287078,-0.85624969,0
1.1163526,1.7151104,-1.8221546,-0.069596797,0.97663844,-0.20330739,0
-0.47614425,-0.85750961,0.23913825,-0.86529291,-0.1605162,-0.4748714,0
0.74049544,0.16975734,-2.0489933,0.4964118,-0.14287078,-0.85624969,0
-0.61898381,1.9746557,-0.25654173,-0.069596797,0.97663844,-0.20330739,0
0.28753367,-1.9542532,0.24539399,0.069596797,-0.97663844,0.20330739,0
-0.8660078,2.1625388,1.1440481,-0.069596797,0.97663844,-0.20330739,0
-0.52128863,-1.6240252,2.1275306,0.069596797,-0.97663844,0.20330739,0
-0.33356071,-1.7044958,1.9004117,0.069596797,-0.97663844,0.20330739,0
0.95828736,-1.9460821,0.0030009747,0.069596797,-0.97663844,0.20330739,0
-0.97486901,2.1172953,0.45743656,-0.069596797,0.97663844,-0.20330739,0
-1.4193379,0.64014363,1.4883107,-0.86529291,-0.1605162,-0.4748714,0
0.47612381,-2.1394775,-0.86737633,0.069596797,-0.97663844,0.20330739,0
-0.63425171,0.89750445,1.7652814,-0.4964118,0.14287078,0.85624969,0
-1.3503025,1.5633831,1.3121787,-0.4964118,0.14287078,0.85624969,0
-0.94734883,2.1513093,0.92913353,-0.069596797,0.97663844,-0.20330739,0
-0.76880264,-1.7470763,1.9124305,0.069596797,-0.97663844,0.20330739,0
0.64328194,-0.59783077,-1.749881,0.4964118,-0.14287078,-0.85624969,0
-0.15808779,-1.9949132,0.066452265,0.069596797,-0.97663844,0.20330739,0
0.62156284,1.6468799,-0.44223332,0.86529291,0.1605162,0.4748714,0
0.71563816,-0.2799477,-1.792613,0.4964118,-0.14287078,-0.85624969,0
1.2109461,-1.8408319,-1.297393,0.4964118,-0.14287078,-0.85624969,0
-0.085054159,1.7823789,-1.6187857,-0.86529291,-0.1605162,-0.4748714,0
-0.58460832,-0.0085187554,2.0052929,-0.4964118,0.14287078,0.85624969,0
0.8106243,0.080518544,-0.65238625,0.86529291,0.1605162,0.4748714,0
0.49911749,0.79394889,-0.21898502,0.86529291,0.1605162,0.4748714,0
-0.65434241,1.6321141,-0.56343019,-0.86529291,-0.1605162,-0.4748714,0
0.76482916,1.7595538,-1.9123241,-0.069596797,0.97663844,-0.20330739,0
-1.3916866,1.0437012,1.1129229,-0.86529291,-0.1605162,-0.4748714,0
0.062764645,-0.23574933,1.1944652,0.86529291,0.1605162,0.4748714,0
-0.40439057,2.0576437,0.56700933,-0.069596797,0.97663844,-0.20330739,0
-0.15488917,2.0295529,-0.30001521,-0.069596797,0.97663844,-0.20330739,0
0.092208862,-1.8836457,1.0002024,0.069596797,-0.97663844,0.20330739,0
-0.5824784,1.9752045,-0.28820634,-0.069596797,0.97663844,-0.20330739,0
-0.11384749,-2.0025706,0.45863509,0.069596797,-0.97663844,0.20330739,0
-0.99670148,-1.6928735,1.9570949,-0.4964118,0.14287078,0.85624969,0
0.26583862,0.29389358,-1.8052607,-0.86529291,-0.1605162,-0.4748714,0
-1.0295262,-0.25373721,1.7768791,-0.4964118,0.14287078,0.85624969,0
0.41794634,1.620695,-2.2406321,-0.069596797,0.97663844,-0.20330739,0
-0.48376203,-1.3766814,2.3862073,-0.4964118,0.14287078,0.85624969,0
0.46258903,1.6841137,-1.7725885,-0.069596797,0.97663844,-0.20330739,0
-1.0088773,0.062390566,1.8558667,-0.4964118,0.14287078,0.85624969,0
0.53927326,1.478474,-2.360714,0.4964118,-0.14287078,-0.85624969,0
0.78574729,-0.95715249,-1.6795769,0.4964118,-0.14287078,-0.85624969,0
-0.18007565,-1.7777953,1.363543,0.069596797,-0.97663844,0.20330739,0
-0.53774989,0.91234773,1.5873802,0.86529291,0.1605162,0.4748714,0
-0.47778118,-0.20844302,-0.10491507,-0.86529291,-0.1605162,-0.4748714,0
-0.067505479,1.4681544,-1.4800829,-0.86529291,-0.1605162,-0.4748714,0
-0.59329712,1.5388883,1.6759491,0.86529291,0.1605162,0.4748714,0
-1.2626743,1.0453072,0.75055575,-0.86529291,-0.1605162,-0.4748714,0
-0.49677864,2.0016885,-0.084725618,-0.069596797,0.97663844,-0.20330739,0
-0.68910134,-1.7074289,0.6972605,-0.86529291,-0.1605162,-0.4748714,0
0.91109657,0.96120125,-1.9704716,0.4964118,-0.14287078,-0.85624969,0
0.39259911,1.7646472,-1.8149203,-0.069596797,0.97663844,-0.20330739,0
-0.37773651,0.72997111,-0.54056543,-0.86529291,-0.1605162,-0.4748714,0
0.42287371,-1.9439683,-0.07598424,0.069596797,-0.97663844,0.20330739,0
-0.64389253,0.84987098,1.9055495,-0.4964118,0.14287078,0.85624969,0
0.69897538,-2.2375946,-0.67985082,0.069596797,-0.97663844,0.20330739,0
-0.68421912,-1.4995971,0.6677078,-0.86529291,-0.1605162,-0.4748714,0
1.1707999,-0.14993095,-0.97270399,0.86529291,0.1605162,0.4748714,0
1.0817556,-0.11949015,-1.6881968,0.4964118,-0.14287078,-0.85624969,0
-0.32968557,-1.8670874,0.62743592,0.069596797,-0.97663844,0.20330739,0
-0.53574657,-1.334429,2.2084665,-0.4964118,0.14287078,0.85624969,0
-0.31741512,-1.8068764,0.93607986,0.069596797,-0.97663844,0.20330739,0
0.081046581,-1.6706023,1.6579344,0.069596797,-0.97663844,0.20330739,0
-1.3482673,-1.1365856,1.8074208,-0.4964118,0.14287078,0.85624969,0
-0.79874456,2.1674185,1.2123843,-0.069596797,0.97663844,-0.20330739,0
-0.49654055,-1.4257586,2.2073097,-0.4964118,0.14287078,0.85624969,0
0.23067057,-1.8777066,0.96865594,0.069596797,-0.97663844,0.20330739,0
-0.67528653,-1.4469504,2.1048756,-0.4964118,0.14287078,0.85624969,0
-1.0752337,-1.754072,1.7087606,0.069596797,-0.97663844,0.20330739,0
-0.7400682,0.42033219,1.8597112,-0.4964118,0.14287078,0.85624969,0
-1.4295132,0.048450589,1.5663729,-0.4964118,0.14287078,0.85624969,0
0.67764747,-0.98826766,-1.6644191,0.4964118,-0.14287078,-0.85624969,0
-0.41373682,-1.8870847,0.64091301,0.069596797,-0.97663844,0.20330739,0
-0.60536397,0.67890716,-0.16761756,-0.86529291,-0.1605162,-0.4748714,0
0.49268505,-1.606257,0.52600849,0.86529291,0.1605162,0.4748714,0
-1.0763664,2.0515707,0.52591515,-0.069596797,0.97663844,-0.20330739,0
-0.15900373,-1.7648718,0.95076466,0.069596797,-0.97663844,0.20330739,0
-1.2517653,0.49511015,0.94376147,-0.86529291,-0.1605162,-0.4748714,0
0.24211121,-1.8396211,0.93856883,0.069596797,-0.97663844,0.20330739,0
1.4894425,-2.2249649,-0.92997622,0.069596797,-0.97663844,0.20330739,0
0.97653222,1.2068253,-2.0427802,0.4964118,-0.14287078,-0.85624969,0
1.0579549,-1.6268193,-1.5554929,0.4964118,-0.14287078,-0.85624969,0
-1.1480433,0.96639222,0.89387476,-0.86529291,-0.1605162,-0.4748714,0
1.1499882,-0.16081911,-1.5351191,0.4964118,-0.14287078,-0.85624969,0
0.038941383,0.18033573,-1.2952166,-0.86529291,-0.1605162,-0.4748714,0
0.84734964,-1.9145048,-0.13676095,0.069596797,-0.97663844,0.20330739,0
-1.4518783,-0.48616868,1.6898961,-0.4964118,0.14287078,0.85624969,0
-1.1484804,-1.5158211,1.9168704,-0.4964118,0.14287078,0.85624969,0
-0.11810279,-1.8213329,1.5219531,0.069596797,-0.97663844,0.20330739,0
1.2237231,-0.78404361,-0.8872087,0.86529291,0.1605162,0.4748714,0
0.41423535,1.0626965,-2.2173448,-0.86529291,-0.1605162,-0.4748714,0
0.28972149,1.7756418,-1.4238206,-0.069596797,0.97663844,-0.20330739,0
1.352809,0.33095092,-1.5387601,0.4964118,-0.14287078,-0.85624969,0
-0.15003228,-1.0256071,1.7832634,0.86529291,0.1605162,0.4748714,0
-1.0776525,-1.6856616,1.8786085,-0.4964118,0.14287078,0.85624969,0
1.1193526,0.20721674,-1.7326376,0.4964118,-0.14287078,-0.85624969,0
-1.23068,-1.0251169,1.5161774,-0.86529291,-0.1605162,-0.4748714,0
-1.1724005,-0.029555678,1.6366671,-0.4964118,0.14287078,0.85624969,0
-0.22949433,-1.7597067,1.4578059,0.069596797,-0.97663844,0.20330739,0
1.2086823,0.61684322,-1.5523914,0.86529291,0.1605162,0.4748714,0
-0.35028386,2.0385056,0.11835599,-0.069596797,0.97663844,-0.20330739,0
-0.66168809,0.044486105,1.8583696,-0.4964118,0.14287078,0.85624969,0
-1.1198542,-1.7088182,1.5334495,0.069596797,-0.97663844,0.20330739,0
-1.3551092,1.1004584,1.3852499,-0.4964118,0.14287078,0.85624969,0
-0.022504807,-1.3491172,1.5797489,0.86529291,0.1605162,0.4748714,0
-1.3036872,1.2829242,1.0521984,-0.86529291,-0.1605162,-0.4748714,0
1.2892847,0.73581421,-1.7359719,0.4964118,-0.14287078,-0.85624969,0
0.39973497,0.91131723,-0.0063335896,0.86529291,0.1605162,0.4748714,0
