-3.8724408,0.50261688,3.2908592,-0.70227242,0.25818846,0.66343963,0
0.47839552,-1.151721,-1.5020733,-0.60264134,0.28051746,-0.74708331,0
3.7862315,-1.0417267,-3.1145449,0.70227242,-0.25818846,-0.66343963,0
-2.3425007,-0.32379031,1.0698776,-0.60264134,0.28051746,-0.74708331,0
-1.0374317,0.41634905,0.36533844,-0.60264134,0.28051746,-0.74708331,0
0.0046313405,-0.55266964,0.53594625,0.60264134,-0.28051746,0.74708331,0
3.6628788,0.15786362,-2.5638952,0.3789947,0.92447221,0.041404575,0
-3.4031429,0.69331121,3.685236,-0.70227242,0.25818846,0.66343963,0
0.057487704,-0.09263292,-0.81205761,-0.60264134,0.28051746,-0.74708331,0
0.43059397,-1.6846876,-1.3418211,-0.3789947,-0.92447221,-0.041404575,0
3.2696898,-2.2168906,-3.2335486,0.70227242,-0.25818846,-0.66343963,0
2.4544034,-0.027591944,-2.7727075,-0.60264134,0.28051746,-0.74708331,0
-0.38097656,-1.4233726,0.29103571,-0.3789947,-0.92447221,-0.041404575,0
-3.3740559,1.2996585,2.4862547,-0.60264134,0.28051746,-0.74708331,0
-0.12003911,-1.5562247,0.023166269,-0.3789947,-0.92447221,-0.041404575,0
-0.4122538,1.3136568,1.5340052,0.60264134,-0.28051746,0.74708331,0
3.6372099,-0.9280206,-3.2810273,0.70227242,-0.25818846,-0.66343963,0
0.15250242,1.4358042,0.43963492,0.3789947,0.92447221,0.041404575,0
-3.5417831,1.2480879,3.3895247,-0.70227242,0.25818846,0.66343963,0
-3.8083556,0.41015792,3.4742093,-0.70227242,0.25818846,0.66343963,0
3.0313525,-1.7069869,-2.3553224,0.60264134,-0.28051746,0.74708331,0
3.5717411,-0.44172072,-2.2859409,0.60264134,-0.28051746,0.74708331,0
-3.1947267,1.7186265,3.4675155,-0.70227242,0.25818846,0.66343963,0
-3.7646232,-0.14215934,3.1470904,-0.3789947,-0.92447221,-0.041404575,0
-1.0429469,-1.2566648,0.57841837,-0.3789947,-0.92447221,-0.041404575,0
-0.35933137,0.032740474,-0.48054379,-0.60264134,0.28051746,-0.74708331,0
0.14710295,-1.5964026,-0.064179502,0.60264134,-0.28051746,0.74708331,0
-3.6003029,1.1457915,3.4017656,-0.70227242,0.25818846,0.66343963,0
-1.0339901,-0.88063896,1.0394959,0.60264134,-0.28051746,0.74708331,0
2.8726187,-2.3597918,-3.4401331,0.70227242,-0.25818846,-0.66343963,0
-0.61834788,-1.3550277,-0.32623705,-0.3789947,-0.92447221,-0.041404575,0
3.7866685,-0.58550024,-3.1558568,0.70227242,-0.25818846,-0.66343963,0
-3.4390211,1.3403174,3.4510441,-0.70227242,0.25818846,0.66343963,0
-1.1599011,-1.2152513,1.0410856,-0.3789947,-0.92447221,-0.041404575,0
-0.44829595,0.67461818,-0.048969358,-0.60264134,0.28051746,-0.74708331,0
1.7116256,1.0724776,-1.0739036,0.3789947,0.92447221,0.041404575,0
-3.7017028,0.61351633,3.2991209,-0.70227242,0.25818846,0.66343963,0
-2.3172193,-0.76726735,1.4600981,-0.3789947,-0.92447221,-0.041404575,0
-1.0946455,-1.0816498,0.32960701,-0.3789947,-0.92447221,-0.041404575,0
-1.1296911,0.98007363,0.72587889,-0.60264134,0.28051746,-0.74708331,0
-1.7337201,0.73035908,1.0008628,-0.60264134,0.28051746,-0.74708331,0
0.38934076,1.5127671,-0.39898208,0.3789947,0.92447221,0.041404575,0
-2.9742444,-0.45714998,2.0643649,-0.3789947,-0.92447221,-0.041404575,0
-1.7518202,2.2315087,1.9586232,0.3789947,0.92447221,0.041404575,0
-4.1867585,0.11421776,2.9585674,-0.70227242,0.25818846,0.66343963,0
3.6534352,-1.1928787,-3.3189998,0.70227242,-0.25818846,-0.66343963,0
1.2582644,-2.0636692,-2.4917486,-0.3789947,-0.92447221,-0.041404575,0
-1.6508166,-1.1044456,1.4464777,-0.3789947,-0.92447221,-0.041404575,0
-2.4355831,2.5915403,2.7598934,0.3789947,0.92447221,0.041404575,0
2.1200042,-1.7055047,-1.7141869,0.60264134,-0.28051746,0.74708331,0
-1.3082093,1.5321767,2.3227029,0.60264134,-0.28051746,0.74708331,0
-3.4290586,0.47792339,2.2600961,-0.60264134,0.28051746,-0.74708331,0
1.7261992,-0.68892646,-2.3284264,-0.60264134,0.28051746,-0.74708331,0
-2.4127471,0.089863777,1.3902315,-0.60264134,0.28051746,-0.74708331,0
1.0594977,1.2222761,0.035653949,0.3789947,0.92447221,0.041404575,0
4.0390124,-0.69124937,-2.9784453,0.70227242,-0.25818846,-0.66343963,0
-3.4065943,1.9407871,3.2517214,-0.70227242,0.25818846,0.66343963,0
-3.4058075,1.9782083,3.2398357,-0.70227242,0.25818846,0.66343963,0
0.260162,-0.47177711,0.2736868,0.60264134,-0.28051746,0.74708331,0
3.5160186,-1.5710729,-2.638741,0.60264134,-0.28051746,0.74708331,0
1.6038725,-2.2586522,-2.134069,-0.3789947,-0.92447221,-0.041404575,0
-2.0858059,-0.86579108,1.2192028,-0.3789947,-0.92447221,-0.041404575,0
0.00034058094,1.5609665,0.18406771,0.3789947,0.92447221,0.041404575,0
-1.42805,2.0363195,1.4285046,0.3789947,0.92447221,0.041404575,0
-1.6835508,2.2470715,2.3583124,0.3789947,0.92447221,0.041404575,0
1.5153345,1.0502242,-0.83021462,0.3789947,0.92447221,0.041404575,0
-2.515147,0.12638187,1.3957256,-0.60264134,0.28051746,-0.74708331,0
-0.44538295,-1.4404175,0.41485912,-0.3789947,-0.92447221,-0.041404575,0
1.2989483,0.59790224,-0.24419808,0.60264134,-0.28051746,0.74708331,0
3.8838377,-1.2768368,-2.8896103,0.70227242,-0.25818846,-0.66343963,0
2.7042496,0.62399596,-2.5961475,0.3789947,0.92447221,0.041404575,0
0.88685334,-1.9591086,-1.5934379,-0.3789947,-0.92447221,-0.041404575,0
-1.491395,-1.083343,1.0173454,-0.3789947,-0.92447221,-0.041404575,0
-0.44941297,-0.55233699,-0.62500715,-0.60264134,0.28051746,-0.74708331,0
-4.0588422,0.97823119,2.9652817,-0.70227242,0.25818846,0.66343963,0
-3.3207061,-0.37573123,2.2045302,-0.3789947,-0.92447221,-0.041404575,0
-1.5938624,-0.99036944,1.0976353,-0.3789947,-0.92447221,-0.041404575,0
2.0989242,0.77685666,-1.5543672,0.3789947,0.92447221,0.041404575,0
3.8109756,-0.067848086,-3.551393,0.70227242,-0.25818846,-0.66343963,0
-3.1310935,1.836587,3.6413751,-0.70227242,0.25818846,0.66343963,0
1.7588952,-2.3400917,-2.4024355,-0.3789947,-0.92447221,-0.041404575,0
3.8214126,-0.46684456,-3.1847823,0.70227242,-0.25818846,-0.66343963,0
0.32052553,-1.7823114,-0.75387263,-0.3789947,-0.92447221,-0.041404575,0
3.7205706,-1.2353795,-3.2528353,0.70227242,-0.25818846,-0.66343963,0
1.1540607,0.65772605,-1.3731561,-0.60264134,0.28051746,-0.74708331,0
-2.429002,2.4614332,2.9326451,0.3789947,0.92447221,0.041404575,0
2.133857,-1.794101,-1.6410527,0.60264134,-0.28051746,0.74708331,0
0.073541164,-1.5748733,-0.97717243,-0.3789947,-0.92447221,-0.041404575,0
1.1501573,-1.9840969,-1.8477933,-0.3789947,-0.92447221,-0.041404575,0
1.0519483,0.077444553,-0.056365252,0.60264134,-0.28051746,0.74708331,0
0.21289253,-1.5923269,-0.89378721,-0.3789947,-0.92447221,-0.041404575,0
-1.064792,2.0230556,1.5315788,0.3789947,0.92447221,0.041404575,0
-2.912066,1.2795701,2.2371845,-0.60264134,0.28051746,-0.74708331,0
0.85169148,-1.9213997,-1.1432399,-0.3789947,-0.92447221,-0.041404575,0
-3.4613822,1.6685145,3.1336532,-0.70227242,0.25818846,0.66343963,0
-0.30452693,0.55886906,-0.20885749,-0.60264134,0.28051746,-0.74708331,0
-2.128113,2.4775653,2.757865,0.3789947,0.92447221,0.041404575,0
4.1503248,-0.28812385,-2.9963174,0.70227242,-0.25818846,-0.66343963,0
2.9687233,-2.1838312,-3.636025,0.70227242,-0.25818846,-0.66343963,0
-0.39926648,1.8487178,0.40083307,0.3789947,0.92447221,0.041404575,0
2.8848515,0.47129512,-2.4113705,0.3789947,0.92447221,0.041404575,0
0.39671767,-1.4790767,-1.4231143,-0.60264134,0.28051746,-0.74708331,0
-0.29988468,-1.4749358,-0.18498173,-0.3789947,-0.92447221,-0.041404575,0
-2.262157,1.2992094,2.8777435,0.60264134,-0.28051746,0.74708331,0
1.1408099,-1.5813527,-0.97463167,0.60264134,-0.28051746,0.74708331,0
-2.6152656,1.3866049,1.8807113,-0.60264134,0.28051746,-0.74708331,0
-0.21147537,-1.6221148,-0.35788938,-0.3789947,-0.92447221,-0.041404575,0
-3.1064048,1.6073291,3.7280912,-0.70227242,0.25818846,0.66343963,0
1.3481245,-1.4372807,-2.4179881,-0.60264134,0.28051746,-0.74708331,0
1.8033264,-0.58873439,-2.3319759,-0.60264134,0.28051746,-0.74708331,0
-1.2131112,-1.1870103,0.31230801,-0.3789947,-0.92447221,-0.041404575,0
2.4693489,0.61724746,-1.0204651,0.3789947,0.92447221,0.041404575,0
3.6359637,-0.72508264,-3.5305533,0.70227242,-0.25818846,-0.66343963,0
3.1951985,-2.6371012,-3.0015998,0.70227242,-0.25818846,-0.66343963,0
-0.12535298,-0.70267814,-0.95388895,-0.60264134,0.28051746,-0.74708331,0
1.9832852,0.86508226,-0.67264223,0.3789947,0.92447221,0.041404575,0
-1.2890538,-1.1307399,1.1237557,-0.3789947,-0.92447221,-0.041404575,0
-1.893525,2.221663,2.5739558,0.3789947,0.92447221,0.041404575,0
-3.2621353,1.2005255,3.6706629,-0.70227242,0.25818846,0.66343963,0
-3.991281,0.24575353,3.2053823,-0.70227242,0.25818846,0.66343963,0
3.7539725,-0.75456512,-3.4111233,0.70227242,-0.25818846,-0.66343963,0
3.3237898,-2.3921027,-3.1028986,0.70227242,-0.25818846,-0.66343963,0
3.6558037,0.32026052,-2.5108199,0.3789947,0.92447221,0.041404575,0
1.4642607,-2.2292848,-2.2620168,-0.3789947,-0.92447221,-0.041404575,0
-3.6450915,0.4584254,3.3882537,-0.70227242,0.25818846,0.66343963,0
2.9829817,-2.5581002,-3.4921851,0.70227242,-0.25818846,-0.66343963,0
3.9064059,-1.1131839,-3.0372577,0.70227242,-0.25818846,-0.66343963,0
3.9301009,0.182423,-3.3715472,0.3789947,0.92447221,0.041404575,0
3.8492951,-1.3661475,-3.0657921,0.70227242,-0.25818846,-0.66343963,0
-1.8462512,1.6826606,2.7277679,0.60264134,-0.28051746,0.74708331,0
-1.5058346,-1.0061985,1.3539904,-0.3789947,-0.92447221,-0.041404575,0
1.8951695,0.91392028,-0.8000989,0.3789947,0.92447221,0.041404575,0
-0.57516479,1.7545573,1.7116572,0.3789947,0.92447221,0.041404575,0
3.7192073,-1.2535636,-3.2292192,0.70227242,-0.25818846,-0.66343963,0
1.1378361,-2.1307869,-1.3092635,-0.3789947,-0.92447221,-0.041404575,0
0.21970356,-1.6300759,-1.1415638,-0.3789947,-0.92447221,-0.041404575,0
-3.6478288,0.28296161,2.2940443,-0.60264134,0.28051746,-0.74708331,0
0.53377569,1.3256387,0.45117408,0.3789947,0.92447221,0.041404575,0
1.1069459,-0.68636835,-0.44369096,0.60264134,-0.28051746,0.74708331,0
3.5168891,-2.2265553,-2.9624066,0.70227242,-0.25818846,-0.66343963,0
-1.5038489,0.78343332,0.9100191,-0.60264134,0.28051746,-0.74708331,0
-2.7092388,2.1653917,3.7270899,-0.70227242,0.25818846,0.66343963,0
-3.7076552,-0.35235095,3.3196137,-0.3789947,-0.92447221,-0.041404575,0
-3.0938766,1.1922827,3.4825478,0.60264134,-0.28051746,0.74708331,0
0.48247325,-1.7613966,-0.84107488,-0.3789947,-0.92447221,-0.041404575,0
-0.84547436,-1.2691714,-0.36530748,-0.3789947,-0.92447221,-0.041404575,0
0.8970176,-1.4041165,-0.52569008,0.60264134,-0.28051746,0.74708331,0
-2.9746871,2.6412807,2.8318648,0.3789947,0.92447221,0.041404575,0
2.3596039,-2.3178222,-3.5168564,-0.60264134,0.28051746,-0.74708331,0
-1.3275024,0.083075851,1.6482627,0.60264134,-0.28051746,0.74708331,0
2.437489,0.61152613,-1.2293677,0.3789947,0.92447221,0.041404575,0
-2.8253832,2.1649547,3.7412379,-0.70227242,0.25818846,0.66343963,0
3.3924372,-1.9327524,-3.0703626,0.70227242,-0.25818846,-0.66343963,0
-1.9851042,2.3851802,2.7524381,0.3789947,0.92447221,0.041404575,0
-2.6054635,-0.20064151,1.2377043,-0.60264134,0.28051746,-0.74708331,0
-1.9479672,-0.86178082,0.96519434,-0.3789947,-0.92447221,-0.041404575,0
2.3306003,-0.08868587,-1.188508,0.60264134,-0.28051746,0.74708331,0
-1.5887945,1.0917622,2.4579997,0.60264134,-0.28051746,0.74708331,0
2.7410772,-2.5576847,-3.7449949,0.70227242,-0.25818846,-0.66343963,0
-2.9991753,1.4513218,3.5846004,0.60264134,-0.28051746,0.74708331,0
-3.5091276,1.3166872,3.3305316,-0.70227242,0.25818846,0.66343963,0
-2.815239,-0.54744089,2.0515246,-0.3789947,-0.92447221,-0.041404575,0
-2.3340094,1.8992755,1.8197682,-0.60264134,0.28051746,-0.74708331,0
-0.4506284,1.6627769,1.5753036,0.3789947,0.92447221,0.041404575,0
2.4025841,-0.82158077,-1.7070312,0.60264134,-0.28051746,0.74708331,0
3.1585584,-0.74942213,-3.5147338,-0.60264134,0.28051746,-0.74708331,0
-1.2858468,0.064221382,0.2736122,-0.60264134,0.28051746,-0.74708331,0
3.6352322,-1.6108999,-2.918684,0.70227242,-0.25818846,-0.66343963,0
-2.6004405,0.45389605,2.933773,0.60264134,-0.28051746,0.74708331,0
-2.9071012,1.0930579,3.4156163,0.60264134,-0.28051746,0.74708331,0
0.53226161,-1.7150779,-0.95210749,-0.3789947,-0.92447221,-0.041404575,0
0.38617086,-1.8217986,-0.31292838,-0.3789947,-0.92447221,-0.041404575,0
3.4923983,0.37644756,-3.2055259,0.3789947,0.92447221,0.041404575,0
-0.31907445,1.0998302,1.408049,0.60264134,-0.28051746,0.74708331,0
-1.5416491,-1.0361977,0.40641832,-0.3789947,-0.92447221,-0.041404575,0
-0.98816681,-1.3471467,0.76415265,-0.3789947,-0.92447221,-0.041404575,0
0.45251095,1.40933,-0.4267537,-0.60264134,0.28051746,-0.74708331,0
1.2525843,0.35261756,-0.2005254,0.60264134,-0.28051746,0.74708331,0
-3.5583892,0.32568109,3.6997929,-0.70227242,0.25818846,0.66343963,0
-3.4938829,0.86224866,3.5050969,-0.70227242,0.25818846,0.66343963,0
3.0204673,-2.3482718,-3.5233979,0.70227242,-0.25818846,-0.66343963,0
1.5441163,-2.2215171,-1.9690847,-0.3789947,-0.92447221,-0.041404575,0
1.2099167,-2.0153379,-1.9064987,-0.3789947,-0.92447221,-0.041404575,0
3.5059059,-1.560959,-3.2026474,0.70227242,-0.25818846,-0.66343963,0
3.45366,-0.90820944,-3.5305724,0.70227242,-0.25818846,-0.66343963,0
1.1638932,-0.80460858,-0.60936749,0.60264134,-0.28051746,0.74708331,0
-1.4506712,0.039304227,1.821779,0.60264134,-0.28051746,0.74708331,0
3.728178,-1.1504704,-3.1025152,0.70227242,-0.25818846,-0.66343963,0
2.8396683,-2.4453058,-3.6777866,0.70227242,-0.25818846,-0.66343963,0
3.2879405,-2.0877852,-3.3882961,0.70227242,-0.25818846,-0.66343963,0
3.5630112,-1.3315717,-3.0968628,0.70227242,-0.25818846,-0.66343963,0
-0.45999438,0.40438014,1.1002953,0.60264134,-0.28051746,0.74708331,0
-0.006259799,-1.4230326,-1.0851119,-0.60264134,0.28051746,-0.74708331,0
-3.9636002,0.8250587,2.9294074,-0.70227242,0.25818846,0.66343963,0
-4.1964951,0.27389503,2.9533322,-0.70227242,0.25818846,0.66343963,0
-2.9096484,0.93621457,2.0327849,-0.60264134,0.28051746,-0.74708331,0
2.3520658,-1.3349297,-3.0726728,-0.60264134,0.28051746,-0.74708331,0
-3.8747225,0.74107552,3.027941,-0.70227242,0.25818846,0.66343963,0
-2.1748636,1.5812578,1.5659394,-0.60264134,0.28051746,-0.74708331,0
4.0900526,-0.21079302,-3.0639946,0.70227242,-0.25818846,-0.66343963,0
1.9597512,0.98953724,-1.6490664,0.3789947,0.92447221,0.041404575,0
-3.7709401,0.97816968,3.2853527,-0.70227242,0.25818846,0.66343963,0
-0.37663296,0.87719935,1.3039806,0.60264134,-0.28051746,0.74708331,0
-1.3633711,-0.83297098,0.13202751,-0.60264134,0.28051746,-0.74708331,0
-1.1763554,0.80753452,1.8326572,0.60264134,-0.28051746,0.74708331,0
0.11656725,1.5204173,0.27114284,0.3789947,0.92447221,0.041404575,0
-1.2384701,-1.2011569,-0.0086050034,-0.3789947,-0.92447221,-0.041404575,0
3.7162967,-0.24514413,-3.4286833,0.70227242,-0.25818846,-0.66343963,0
-3.811353,0.25252736,3.331754,-0.70227242,0.25818846,0.66343963,0
-1.6947207,-0.99999094,0.50534129,-0.3789947,-0.92447221,-0.041404575,0
3.0926428,-0.30120277,-1.8275638,0.60264134,-0.28051746,0.74708331,0
-1.2545272,2.1497438,1.6242666,0.3789947,0.92447221,0.041404575,0
-2.3071039,2.1319954,3.3418164,0.60264134,-0.28051746,0.74708331,0
2.0942781,0.76961303,-1.6232059,0.3789947,0.92447221,0.041404575,0
0.74930847,-0.81725574,-0.27487451,0.60264134,-0.28051746,0.74708331,0
3.4805455,-1.1562033,-3.448977,0.70227242,-0.25818846,-0.66343963,0
3.5657668,-1.8441838,-3.1841178,0.70227242,-0.25818846,-0.66343963,0
-4.1764202,0.49437785,2.976299,-0.70227242,0.25818846,0.66343963,0
-2.8626695,1.8067816,3.5435195,0.60264134,-0.28051746,0.74708331,0
3.827069,-0.18654215,-3.36674,0.70227242,-0.25818846,-0.66343963,0
3.2950144,0.33981013,-2.6477699,0.3789947,0.92447221,0.041404575,0
-3.0538917,-0.5159713,1.7069187,-0.3789947,-0.92447221,-0.041404575,0
3.0079079,-2.284971,-3.4523273,0.70227242,-0.25818846,-0.66343963,0
-2.5381508,0.65405869,1.7380378,-0.60264134,0.28051746,-0.74708331,0
2.784601,-2.6384444,-3.04353,-0.3789947,-0.92447221,-0.041404575,0
-4.175179,-0.0046269894,3.0111666,-0.70227242,0.25818846,0.66343963,0
0.78214025,-1.2136035,-1.7209156,-0.60264134,0.28051746,-0.74708331,0
1.4704756,-0.40635535,-2.0145764,-0.60264134,0.28051746,-0.74708331,0
1.2573273,0.69353116,-1.3459933,-0.60264134,0.28051746,-0.74708331,0
-2.7807813,2.4035916,3.6798158,-0.70227242,0.25818846,0.66343963,0
-0.91932333,-1.2774704,0.57973832,-0.3789947,-0.92447221,-0.041404575,0
3.2910461,0.27372396,-2.2863383,0.3789947,0.92447221,0.041404575,0
-4.0818224,0.62072921,3.03774,-0.70227242,0.25818846,0.66343963,0
-2.5314991,0.013782024,2.6707001,0.60264134,-0.28051746,0.74708331,0
3.2885332,-2.1732464,-3.2660599,0.70227242,-0.25818846,-0.66343963,0
2.8559532,-1.2458787,-2.2061789,0.60264134,-0.28051746,0.74708331,0
-2.5773339,0.023870468,2.8252301,0.60264134,-0.28051746,0.74708331,0
-0.023916364,1.6357741,0.21322827,0.3789947,0.92447221,0.041404575,0
-3.1567791,2.3959274,3.3075905,-0.70227242,0.25818846,0.66343963,0
1.3562189,1.1041414,-0.095992327,0.3789947,0.92447221,0.041404575,0
3.6507578,-0.48506796,-3.5234585,0.70227242,-0.25818846,-0.66343963,0
3.0643702,-1.4456248,-3.6087244,0.70227242,-0.25818846,-0.66343963,0
2.5296838,-2.4567134,-3.2609792,-0.3789947,-0.92447221,-0.041404575,0
-3.5964921,0.3139205,3.7053719,-0.70227242,0.25818846,0.66343963,0
3.7271175,-1.254577,-3.111403,0.70227242,-0.25818846,-0.66343963,0
-1.6773154,0.77975625,0.91494912,-0.60264134,0.28051746,-0.74708331,0
0.27282298,1.4832488,-0.0055645406,0.3789947,0.92447221,0.041404575,0
-2.857132,-0.14784551,1.4779075,-0.60264134,0.28051746,-0.74708331,0
1.1822392,-1.7377473,-1.0630788,0.60264134,-0.28051746,0.74708331,0
-1.2215192,-1.2429173,1.0402634,-0.3789947,-0.92447221,-0.041404575,0
-3.0001438,0.089883566,3.2440896,0.60264134,-0.28051746,0.74708331,0
0.24388006,0.11463118,0.39754599,0.60264134,-0.28051746,0.74708331,0
3.3696606,-1.5931203,-3.2863612,0.70227242,-0.25818846,-0.66343963,0
-1.1805024,0.3671158,0.51011789,-0.60264134,0.28051746,-0.74708331,0
1.2950265,1.1173604,0.087672293,0.3789947,0.92447221,0.041404575,0
1.964959,0.84690344,-1.8582406,0.3789947,0.92447221,0.041404575,0
-0.89249027,1.7066164,0.70221543,-0.60264134,0.28051746,-0.74708331,0
1.988879,0.80782568,-1.2643749,0.3789947,0.92447221,0.041404575,0
-2.7428522,2.6850922,3.3541989,0.3789947,0.92447221,0.041404575,0
-3.9012165,-0.061603189,3.4597185,-0.70227242,0.25818846,0.66343963,0
-2.3949394,-0.7812041,1.2924439,-0.3789947,-0.92447221,-0.041404575,0
3.3339226,-2.4424343,-3.0617521,0.70227242,-0.25818846,-0.66343963,0
-3.8076267,1.4280715,2.9208956,-0.70227242,0.25818846,0.66343963,0
3.2868793,-1.8487908,-2.5952539,0.60264134,-0.28051746,0.74708331,0
1.1534784,-0.60545957,-1.764123,-0.60264134,0.28051746,-0.74708331,0
-1.6068108,1.1250005,2.3162227,0.60264134,-0.28051746,0.74708331,0
-1.1915197,-1.2305518,0.16273749,-0.3789947,-0.92447221,-0.041404575,0
0.44257033,-1.7443728,-1.0150841,-0.3789947,-0.92447221,-0.041404575,0
1.9684601,0.7862922,-1.2331711,0.3789947,0.92447221,0.041404575,0
-0.40272009,1.7381866,1.2340199,0.3789947,0.92447221,0.041404575,0
-2.4547195,-0.29573679,1.3232682,-0.60264134,0.28051746,-0.74708331,0
0.642259,-1.5073693,-1.6618105,-0.60264134,0.28051746,-0.74708331,0
-2.5275981,2.5649226,2.697654,0.3789947,0.92447221,0.041404575,0
-1.8986721,0.74349201,1.1148695,-0.60264134,0.28051746,-0.74708331,0
-3.8755393,1.2611563,2.9726138,-0.70227242,0.25818846,0.66343963,0
0.98670763,0.74026376,0.034588695,0.60264134,-0.28051746,0.74708331,0
3.321229,-1.7142348,-3.4482148,0.70227242,-0.25818846,-0.66343963,0
0.15799391,-1.7302916,-0.41627145,-0.3789947,-0.92447221,-0.041404575,0
3.9901133,-0.48989654,-3.2704909,0.70227242,-0.25818846,-0.66343963,0
-1.3431592,-0.5438394,0.31603152,-0.60264134,0.28051746,-0.74708331,0
-2.466383,1.4936726,1.8865654,-0.60264134,0.28051746,-0.74708331,0
3.3466468,-1.7146711,-3.368938,0.70227242,-0.25818846,-0.66343963,0
2.4912672,0.6633389,-2.3482971,0.3789947,0.92447221,0.041404575,0
3.2945826,-2.1382229,-3.3599615,0.70227242,-0.25818846,-0.66343963,0
-3.4460187,0.73976648,3.6820765,-0.70227242,0.25818846,0.66343963,0
-4.1938338,0.4815073,2.9479146,-0.70227242,0.25818846,0.66343963,0
2.2120073,0.65763211,-0.85193455,0.3789947,0.92447221,0.041404575,0
0.35747373,0.61405075,-0.60032058,-0.60264134,0.28051746,-0.74708331,0
2.8812728,-1.8799294,-3.7336912,0.70227242,-0.25818846,-0.66343963,0
2.3681173,0.75009561,-1.4886892,0.3789947,0.92447221,0.041404575,0
3.5591598,0.3555001,-2.9789805,0.3789947,0.92447221,0.041404575,0
3.1882453,-0.038940907,-2.023036,0.60264134,-0.28051746,0.74708331,0
1.1556365,1.2628794,-0.47189277,0.3789947,0.92447221,0.041404575,0
2.9849803,-1.9627136,-3.6614256,0.70227242,-0.25818846,-0.66343963,0
-3.4468188,-0.26947701,2.8639133,-0.3789947,-0.92447221,-0.041404575,0
4.0117135,-0.52566791,-3.0694666,0.70227242,-0.25818846,-0.66343963,0
3.8070927,-0.79727972,-3.1006906,0.70227242,-0.25818846,-0.66343963,0
2.2381108,0.81787455,-2.187465,0.3789947,0.92447221,0.041404575,0
-3.1163154,1.2457281,2.3920646,-0.60264134,0.28051746,-0.74708331,0
-1.9758837,2.3560634,2.8854208,0.3789947,0.92447221,0.041404575,0
3.531126,-0.71215594,-3.4958589,0.70227242,-0.25818846,-0.66343963,0
3.7099776,-1.4793457,-3.0898483,0.70227242,-0.25818846,-0.66343963,0
0.73973703,0.06420128,-1.159104,-0.60264134,0.28051746,-0.74708331,0
-2.533901,2.4291813,3.172595,0.3789947,0.92447221,0.041404575,0
-0.10973072,-1.6764469,-0.001095444,-0.3789947,-0.92447221,-0.041404575,0
-2.1636031,-0.65717602,0.84407926,-0.60264134,0.28051746,-0.74708331,0
-3.3907404,0.66684198,3.6464818,-0.70227242,0.25818846,0.66343963,0
-1.6330484,1.8337374,1.2067406,-0.60264134,0.28051746,-0.74708331,0
3.0513978,0.35786462,-1.5423846,0.60264134,-0.28051746,0.74708331,0
-1.7000885,2.1651769,1.6480553,0.3789947,0.92447221,0.041404575,0
-3.5122242,-0.04684341,3.6057723,0.60264134,-0.28051746,0.74708331,0
3.145329,-1.4662807,-3.5734901,0.70227242,-0.25818846,-0.66343963,0
-3.408,-0.23520207,1.9079163,-0.60264134,0.28051746,-0.74708331,0
-3.4615645,0.068150043,2.1656466,-0.60264134,0.28051746,-0.74708331,0
-2.5036705,-0.68357342,2.5235329,0.60264134,-0.28051746,0.74708331,0
3.981081,-0.21879053,-3.2026513,0.70227242,-0.25818846,-0.66343963,0
2.3570435,-0.74904299,-1.4155613,0.60264134,-0.28051746,0.74708331,0
0.6639365,-1.7664342,-1.0931053,-0.3789947,-0.92447221,-0.041404575,0
1.0263104,0.34510422,-0.029836714,0.60264134,-0.28051746,0.74708331,0
-3.04494,0.86450589,3.4280334,0.60264134,-0.28051746,0.74708331,0
-2.2754433,1.4908696,2.9519148,0.60264134,-0.28051746,0.74708331,0
-3.5726268,1.4511392,3.1065953,-0.70227242,0.25818846,0.66343963,0
-1.9982916,1.3645289,2.7740724,0.60264134,-0.28051746,0.74708331,0
-3.6217952,1.5890704,3.1662302,-0.70227242,0.25818846,0.66343963,0
0.22093666,-1.6247768,-1.4415052,-0.3789947,-0.92447221,-0.041404575,0
3.4581752,-2.2466702,-2.8871281,0.60264134,-0.28051746,0.74708331,0
0.16709492,0.37880799,0.5873841,0.60264134,-0.28051746,0.74708331,0
-3.0324466,1.6545783,3.6133883,-0.70227242,0.25818846,0.66343963,0
-3.7567928,0.22659361,3.3236341,-0.70227242,0.25818846,0.66343963,0
2.766048,-1.7573619,-3.6651249,-0.60264134,0.28051746,-0.74708331,0
3.6828432,-0.72709382,-3.4605122,0.70227242,-0.25818846,-0.66343963,0
-0.22708815,0.61545175,-0.20126197,-0.60264134,0.28051746,-0.74708331,0
3.9810448,-0.78653121,-2.7831111,0.60264134,-0.28051746,0.74708331,0
-2.0181665,-0.86642855,0.97923887,-0.3789947,-0.92447221,-0.041404575,0
-1.9462005,-0.90658146,1.0936133,-0.3789947,-0.92447221,-0.041404575,0
2.7950211,-2.3489394,-3.6761856,0.70227242,-0.25818846,-0.66343963,0
-1.6465729,1.3294256,2.509531,0.60264134,-0.28051746,0.74708331,0
-2.2280645,1.2041055,1.4519205,-0.60264134,0.28051746,-0.74708331,0
3.1013744,-2.5676053,-3.2296853,0.70227242,-0.25818846,-0.66343963,0
3.4959803,-0.24652839,-3.4844875,-0.60264134,0.28051746,-0.74708331,0
2.0880935,0.76027775,-1.9632806,0.3789947,0.92447221,0.041404575,0
-3.5525398,1.9736246,3.0440774,-0.70227242,0.25818846,0.66343963,0
-3.9441044,-0.14281034,3.009481,-0.3789947,-0.92447221,-0.041404575,0
-2.873342,2.6418748,2.7724566,0.3789947,0.92447221,0.041404575,0
-3.7564435,0.15332639,3.5321369,-0.70227242,0.25818846,0.66343963,0
-1.1375878,-0.65015095,1.4067087,0.60264134,-0.28051746,0.74708331,0
-0.50109696,1.3495861,0.19961038,-0.60264134,0.28051746,-0.74708331,0
-3.0126476,2.5220654,3.4934473,-0.70227242,0.25818846,0.66343963,0
2.8441145,-2.5874114,-3.230408,-0.3789947,-0.92447221,-0.041404575,0
1.1110935,1.1835639,-0.41538393,0.3789947,0.92447221,0.041404575,0
3.4007165,-0.71655297,-3.530004,0.70227242,-0.25818846,-0.66343963,0
3.8240244,0.14657784,-2.7194502,0.3789947,0.92447221,0.041404575,0
-0.20189118,-1.4947453,-0.22956586,-0.3789947,-0.92447221,-0.041404575,0
-3.228893,1.8878148,3.4945493,-0.70227242,0.25818846,0.66343963,0
0.5070467,-1.7188716,-1.2387388,-0.3789947,-0.92447221,-0.041404575,0
-0.14644134,-1.3395506,-1.0005395,-0.60264134,0.28051746,-0.74708331,0
0.95980132,-2.0233965,-1.2314798,-0.3789947,-0.92447221,-0.041404575,0
-3.159409,2.2285573,3.3102407,-0.70227242,0.25818846,0.66343963,0
-1.0019561,1.988996,1.7763785,0.3789947,0.92447221,0.041404575,0
-1.2728069,-0.63127619,0.011374652,-0.60264134,0.28051746,-0.74708331,0
0.99719787,-1.8785737,-1.2151312,-0.3789947,-0.92447221,-0.041404575,0
-2.5711331,-0.71306419,1.3573989,-0.3789947,-0.92447221,-0.041404575,0
3.7349849,-0.41988587,-3.3294921,0.70227242,-0.25818846,-0.66343963,0
-0.8444258,-1.2425702,0.46464455,-0.3789947,-0.92447221,-0.041404575,0
3.9354794,-0.21381688,-3.2756891,0.70227242,-0.25818846,-0.66343963,0
-3.5403123,1.8042612,3.1705637,-0.70227242,0.25818846,0.66343963,0
3.0845504,-2.7754853,-2.8118496,-0.3789947,-0.92447221,-0.041404575,0
0.8101747,-1.7884262,-1.3744191,-0.3789947,-0.92447221,-0.041404575,0
-1.325417,2.032268,2.438261,0.60264134,-0.28051746,0.74708331,0
-2.648396,0.042153597,2.9249535,0.60264134,-0.28051746,0.74708331,0
-2.2907555,2.5121551,2.5313191,0.3789947,0.92447221,0.041404575,0
2.9117398,-2.4698846,-3.6164765,0.70227242,-0.25818846,-0.66343963,0
0.26005423,0.68020427,0.6535387,0.60264134,-0.28051746,0.74708331,0
-3.2695704,2.5695486,3.0284925,-0.70227242,0.25818846,0.66343963,0
3.1257033,-0.8309145,-2.0750794,0.60264134,-0.28051746,0.74708331,0
3.1739371,-2.0689862,-3.3540125,0.70227242,-0.25818846,-0.66343963,0
0.770769,1.3835018,0.65771121,0.3789947,0.92447221,0.041404575,0
-3.1647658,2.4777901,3.2526388,-0.70227242,0.25818846,0.66343963,0
-2.9119067,2.2829525,3.4578347,-0.70227242,0.25818846,0.66343963,0
0.2750448,1.5319755,0.61835188,0.3789947,0.92447221,0.041404575,0
2.8622534,-0.45824695,-1.7337025,0.60264134,-0.28051746,0.74708331,0
-3.7596755,1.1478219,2.9966021,-0.70227242,0.25818846,0.66343963,0
2.7178321,0.65790665,-1.7672106,0.3789947,0.92447221,0.041404575,0
-1.1322442,1.8785616,2.3758976,0.60264134,-0.28051746,0.74708331,0
-4.0788951,0.11299872,2.5928423,-0.60264134,0.28051746,-0.74708331,0
-3.736444,-0.27136779,2.8632302,-0.3789947,-0.92447221,-0.041404575,0
-3.6146355,1.6468313,3.1791263,-0.70227242,0.25818846,0.66343963,0
-1.1469195,-1.1174423,-0.17224246,-0.3789947,-0.92447221,-0.041404575,0
-3.9076617,-0.25404489,3.563797,-0.70227242,0.25818846,0.66343963,0
-2.1701825,-0.68681741,0.83851111,-0.3789947,-0.92447221,-0.041404575,0
-0.011362433,-1.6526395,-0.20584308,-0.3789947,-0.92447221,-0.041404575,0
2.3780291,-2.5154402,-2.937099,-0.3789947,-0.92447221,-0.041404575,0
0.68001163,-1.77021,-1.1222541,-0.3789947,-0.92447221,-0.041404575,0
0.47417223,0.98279452,0.77860153,0.60264134,-0.28051746,0.74708331,0
3.7082043,-0.10681605,-2.4350584,0.60264134,-0.28051746,0.74708331,0
2.4999371,-2.5406413,-2.2495701,0.60264134,-0.28051746,0.74708331,0
3.2648046,0.4467144,-2.867631,0.3789947,0.92447221,0.041404575,0
-3.6040049,1.4005711,3.1095934,-0.70227242,0.25818846,0.66343963,0
-3.6006255,1.2468289,3.1913438,-0.70227242,0.25818846,0.66343963,0
-0.56527257,-1.2826476,-0.75500441,-0.3789947,-0.92447221,-0.041404575,0
-3.3855212,1.3971218,3.3679404,-0.70227242,0.25818846,0.66343963,0
-3.2694192,1.7746675,3.3396111,-0.70227242,0.25818846,0.66343963,0
-1.641847,2.2919667,1.8502057,0.3789947,0.92447221,0.041404575,0
-3.5983737,0.44442248,2.4877696,-0.60264134,0.28051746,-0.74708331,0
0.61225271,-1.8573767,-0.76796395,-0.3789947,-0.92447221,-0.041404575,0
3.602129,0.18190598,-2.9062295,0.3789947,0.92447221,0.041404575,0
3.7391682,-0.86455309,-3.3498607,0.70227242,-0.25818846,-0.66343963,0
3.4102249,-1.4118731,-3.3182826,0.70227242,-0.25818846,-0.66343963,0
-2.9509282,2.5192988,3.367919,-0.70227242,0.25818846,0.66343963,0
1.9281932,-2.401927,-1.7679944,0.60264134,-0.28051746,0.74708331,0
-1.2167157,1.9892029,2.2560155,0.3789947,0.92447221,0.041404575,0
2.292587,0.60039622,-2.196012,-0.60264134,0.28051746,-0.74708331,0
-2.9369099,2.6011083,3.2669234,-0.70227242,0.25818846,0.66343963,0
3.4337642,-0.56588662,-3.5508542,0.70227242,-0.25818846,-0.66343963,0
-2.8803322,2.3577819,2.4226546,-0.60264134,0.28051746,-0.74708331,0
-3.7401452,0.93887067,3.0951407,-0.70227242,0.25818846,0.66343963,0
2.4434152,0.5118022,-2.4992762,-0.60264134,0.28051746,-0.74708331,0
-4.0915146,0.84811234,3.0237119,-0.70227242,0.25818846,0.66343963,0
1.8534733,0.71727884,-2.0198922,-0.60264134,0.28051746,-0.74708331,0
-3.1131711,1.7054913,3.7053556,-0.70227242,0.25818846,0.66343963,0
0.095633268,1.5494723,0.59441388,0.3789947,0.92447221,0.041404575,0
-2.3745661,2.403312,2.7059095,0.3789947,0.92447221,0.041404575,0
-2.5072041,1.4033613,3.1037345,0.60264134,-0.28051746,0.74708331,0
-0.0034240484,-1.0321887,0.33143821,0.60264134,-0.28051746,0.74708331,0
3.6924138,-1.2688833,-3.1052907,0.70227242,-0.25818846,-0.66343963,0
3.6202135,0.31751847,-2.9140701,0.3789947,0.92447221,0.041404575,0
1.249308,-0.45280647,-0.5485307,0.60264134,-0.28051746,0.74708331,0
-0.26214695,1.7797856,0.42512423,0.3789947,0.92447221,0.041404575,0
0.38658774,1.5618937,-0.35794958,0.3789947,0.92447221,0.041404575,0
3.9759381,-0.42299795,-3.083288,0.70227242,-0.25818846,-0.66343963,0
2.2899933,-1.2743852,-2.8767118,-0.60264134,0.28051746,-0.74708331,0
-3.1205156,2.5198014,3.3583622,-0.70227242,0.25818846,0.66343963,0
3.4518518,-0.86819696,-2.4271495,0.60264134,-0.28051746,0.74708331,0
1.3261116,0.55214703,-1.584878,-0.60264134,0.28051746,-0.74708331,0
-3.9084289,0.01074481,3.4526761,-0.70227242,0.25818846,0.66343963,0
1.3545315,-0.51492345,-0.57346874,0.60264134,-0.28051746,0.74708331,0
0.8156054,-1.4712728,-0.56924558,0.60264134,-0.28051746,0.74708331,0
-2.0077393,2.3177156,2.1552584,0.3789947,0.92447221,0.041404575,0
-1.1477857,-0.17052245,0.13601804,-0.60264134,0.28051746,-0.74708331,0
-1.4693317,2.0035682,2.5793231,0.60264134,-0.28051746,0.74708331,0
-3.3369269,1.1136516,3.5527749,-0.70227242,0.25818846,0.66343963,0
2.8590941,-2.5005383,-3.4830279,0.70227242,-0.25818846,-0.66343963,0
-2.1985476,1.5408905,3.1291695,0.60264134,-0.28051746,0.74708331,0
2.5055337,0.65085971,-1.2666333,0.3789947,0.92447221,0.041404575,0
-1.0466918,-1.161388,0.65884072,-0.3789947,-0.92447221,-0.041404575,0
-3.3100436,1.5250887,3.3678098,-0.70227242,0.25818846,0.66343963,0
2.8564897,-2.0912268,-3.5686827,0.70227242,-0.25818846,-0.66343963,0
1.675939,-1.2133762,-2.550931,-0.60264134,0.28051746,-0.74708331,0
4.114665,-0.39359283,-2.919585,0.70227242,-0.25818846,-0.66343963,0
-1.6179066,-0.96704423,0.26342702,-0.3789947,-0.92447221,-0.041404575,0
1.2437865,-1.2901691,-2.0239258,-0.60264134,0.28051746,-0.74708331,0
3.0768454,-2.7323837,-3.196713,-0.3789947,-0.92447221,-0.041404575,0
-1.0356507,0.83331931,1.9259899,0.60264134,-0.28051746,0.74708331,0
-3.2549937,2.781338,3.0822563,-0.70227242,0.25818846,0.66343963,0
-1.447469,2.242244,1.7700036,0.3789947,0.92447221,0.041404575,0
-2.7663815,-0.47157466,1.5748177,-0.3789947,-0.92447221,-0.041404575,0
0.78278899,1.349339,-0.18192708,0.3789947,0.92447221,0.041404575,0
0.52525377,1.5095779,-0.11460584,0.3789947,0.92447221,0.041404575,0
-3.628094,1.4294436,3.2230568,-0.70227242,0.25818846,0.66343963,0
2.5407691,-2.5500212,-3.0554068,-0.3789947,-0.92447221,-0.041404575,0
3.4551535,-0.66679752,-3.7179267,0.70227242,-0.25818846,-0.66343963,0
3.2338262,-1.9512323,-3.3810852,0.70227242,-0.25818846,-0.66343963,0
-3.2774067,1.6097255,3.4342163,-0.70227242,0.25818846,0.66343963,0
-3.8961704,-0.082679033,3.0019555,-0.3789947,-0.92447221,-0.041404575,0
3.6735468,-0.85651839,-3.1689696,0.70227242,-0.25818846,-0.66343963,0
-3.694859,1.0964643,3.2676959,-0.70227242,0.25818846,0.66343963,0
0.74104643,1.3344028,-0.39279115,0.3789947,0.92447221,0.041404575,0
-3.2716384,0.51824307,2.0449243,-0.60264134,0.28051746,-0.74708331,0
-0.77527297,1.9586949,1.8620611,0.3789947,0.92447221,0.041404575,0
3.174407,-2.3115537,-3.2895195,0.70227242,-0.25818846,-0.66343963,0
-3.8727624,1.1034327,2.8622134,-0.70227242,0.25818846,0.66343963,0
1.4122195,-2.0104012,-2.0675104,-0.3789947,-0.92447221,-0.041404575,0
-2.917336,0.36863232,1.7707765,-0.60264134,0.28051746,-0.74708331,0
3.7484579,-0.92497873,-3.179121,0.70227242,-0.25818846,-0.66343963,0
-0.25308168,-1.4397935,-0.52940106,-0.3789947,-0.92447221,-0.041404575,0
3.6590052,-1.6408578,-3.1107008,0.70227242,-0.25818846,-0.66343963,0
-1.0779265,-1.2642496,-0.36579871,-0.3789947,-0.92447221,-0.041404575,0
2.5012202,-1.3161739,-3.304996,-0.60264134,0.28051746,-0.74708331,0
3.3645358,-2.1277268,-3.2602692,0.70227242,-0.25818846,-0.66343963,0
-0.80453038,-1.1983752,0.78947848,0.60264134,-0.28051746,0.74708331,0
1.5649712,-1.8707244,-2.5986629,-0.60264134,0.28051746,-0.74708331,0
-0.41191593,0.55648065,1.1668702,0.60264134,-0.28051746,0.74708331,0
3.4751391,-1.0074177,-3.5179648,0.70227242,-0.25818846,-0.66343963,0
3.052665,0.41986883,-2.8931975,0.3789947,0.92447221,0.041404575,0
1.4279845,-0.65261221,-0.85888165,0.60264134,-0.28051746,0.74708331,0
0.49319142,-1.0095115,-0.1427947,0.60264134,-0.28051746,0.74708331,0
0.99564886,0.5807817,0.093389273,0.60264134,-0.28051746,0.74708331,0
1.5266316,-2.1507459,-2.2923162,-0.3789947,-0.92447221,-0.041404575,0
4.0698094,-0.35052657,-3.232043,0.70227242,-0.25818846,-0.66343963,0
2.9897456,-2.6636322,-3.3130994,0.70227242,-0.25818846,-0.66343963,0
1.77274,0.91131628,-0.90800798,0.3789947,0.92447221,0.041404575,0
-2.9923177,-0.44716167,2.9208169,-0.3789947,-0.92447221,-0.041404575,0
-1.6449553,-0.17301929,0.54006147,-0.60264134,0.28051746,-0.74708331,0
3.9933052,-0.29106236,-3.1341004,0.70227242,-0.25818846,-0.66343963,0
-1.937875,-0.92086071,1.0154593,-0.3789947,-0.92447221,-0.041404575,0
-2.8558474,1.7642462,3.6820683,-0.70227242,0.25818846,0.66343963,0
3.6776118,-1.5201199,-2.816216,0.60264134,-0.28051746,0.74708331,0
0.62833154,-1.7922739,-0.97764808,-0.3789947,-0.92447221,-0.041404575,0
3.8518546,-0.79035616,-3.0278306,0.70227242,-0.25818846,-0.66343963,0
-3.6586967,1.2511102,3.153728,-0.70227242,0.25818846,0.66343963,0
-3.5100682,1.1028696,3.4085383,-0.70227242,0.25818846,0.66343963,0
2.9625425,-1.1692852,-2.0914087,0.60264134,-0.28051746,0.74708331,0
1.178508,1.2372649,-0.55743736,0.3789947,0.92447221,0.041404575,0
0.65412378,-0.6575706,-0.17157477,0.60264134,-0.28051746,0.74708331,0
-3.721662,0.99141431,3.2642727,-0.70227242,0.25818846,0.66343963,0
1.5322685,-1.929538,-1.394372,0.60264134,-0.28051746,0.74708331,0
-3.5649948,1.7555728,2.8977227,-0.60264134,0.28051746,-0.74708331,0
2.202605,-0.6719532,-2.670455,-0.60264134,0.28051746,-0.74708331,0
3.5060029,-0.98425281,-3.3777294,0.70227242,-0.25818846,-0.66343963,0
1.5130334,-0.73512864,-0.85417318,0.60264134,-0.28051746,0.74708331,0
-3.5754514,0.68997371,3.6149502,-0.70227242,0.25818846,0.66343963,0
0.67737365,-1.7233074,-1.5460434,-0.3789947,-0.92447221,-0.041404575,0
1.2856002,1.0597236,-1.0547507,0.3789947,0.92447221,0.041404575,0
1.6463835,0.60667348,-0.41775954,0.60264134,-0.28051746,0.74708331,0
3.4727628,-2.1855111,-3.0606585,0.70227242,-0.25818846,-0.66343963,0
-4.1697059,0.66145658,2.9159214,-0.70227242,0.25818846,0.66343963,0
-3.1389005,1.7183547,3.5918868,-0.70227242,0.25818846,0.66343963,0
-3.6378732,-0.23437929,2.4073076,-0.3789947,-0.92447221,-0.041404575,0
3.0901008,-1.805196,-3.4932263,0.70227242,-0.25818846,-0.66343963,0
-3.9224021,0.59604669,3.2921021,-0.70227242,0.25818846,0.66343963,0
-2.9669056,2.1913843,3.4021664,-0.70227242,0.25818846,0.66343963,0
-3.1550977,2.5635691,3.2620735,-0.70227242,0.25818846,0.66343963,0
-1.5593524,0.98677772,2.3870144,0.60264134,-0.28051746,0.74708331,0
3.685698,-0.69211221,-3.4171937,0.70227242,-0.25818846,-0.66343963,0
3.5891495,-0.56227398,-3.6315408,0.70227242,-0.25818846,-0.66343963,0
1.2237501,-2.1202805,-1.2547805,-0.3789947,-0.92447221,-0.041404575,0
-3.6114926,1.2103825,3.2925696,-0.70227242,0.25818846,0.66343963,0
3.7354026,0.20573997,-3.2388678,0.3789947,0.92447221,0.041404575,0
2.9845519,-0.91488719,-2.1573839,0.60264134,-0.28051746,0.74708331,0
-0.12307441,-0.75394642,0.57071078,0.60264134,-0.28051746,0.74708331,0
-2.6808922,-0.18799078,2.7845693,0.60264134,-0.28051746,0.74708331,0
-1.8761228,2.2890608,2.1882465,0.3789947,0.92447221,0.041404575,0
3.8385262,-0.90689814,-3.1492915,0.70227242,-0.25818846,-0.66343963,0
-3.1407416,1.5530252,3.4669552,-0.70227242,0.25818846,0.66343963,0
3.7798934,-1.1608943,-3.0514553,0.70227242,-0.25818846,-0.66343963,0
0.73589373,1.2907183,-0.58392948,0.3789947,0.92447221,0.041404575,0
1.3912523,0.98412448,-0.2903595,0.3789947,0.92447221,0.041404575,0
1.9205964,-1.0648787,-1.2037004,0.60264134,-0.28051746,0.74708331,0
-1.2396231,-0.59406137,1.3229549,0.60264134,-0.28051746,0.74708331,0
2.0200856,0.76562959,-1.4398546,0.3789947,0.92447221,0.041404575,0
3.504689,0.22231197,-3.1811657,0.3789947,0.92447221,0.041404575,0
-1.0068991,1.7994682,0.93620938,-0.60264134,0.28051746,-0.74708331,0
-0.72459745,1.86309,0.79374713,0.3789947,0.92447221,0.041404575,0
1.9560655,-0.41731644,-1.0640118,0.60264134,-0.28051746,0.74708331,0
3.5548372,-1.8305924,-3.1650364,0.70227242,-0.25818846,-0.66343963,0
0.8256681,1.2859068,-0.80200118,0.3789947,0.92447221,0.041404575,0
-0.85601103,-1.1890428,-0.22722173,-0.3789947,-0.92447221,-0.041404575,0
-1.5743246,-1.1244018,1.3801861,-0.3789947,-0.92447221,-0.041404575,0
2.8273225,-0.6305443,-1.7509118,0.60264134,-0.28051746,0.74708331,0
0.53654826,-1.8294795,-1.3395016,-0.3789947,-0.92447221,-0.041404575,0
-3.8081446,1.3776013,2.854707,-0.70227242,0.25818846,0.66343963,0
2.4031138,0.74926603,-1.3464359,0.3789947,0.92447221,0.041404575,0
-2.2500415,-0.7241112,1.0973097,-0.3789947,-0.92447221,-0.041404575,0
-0.47050816,0.87254792,0.14968953,-0.60264134,0.28051746,-0.74708331,0
-3.7995908,0.27972758,3.4352999,-0.70227242,0.25818846,0.66343963,0
-3.6001916,1.5658473,3.0611751,-0.70227242,0.25818846,0.66343963,0
-3.1036777,1.1188068,3.660459,0.60264134,-0.28051746,0.74708331,0
-2.3663301,1.0167391,3.0540395,0.60264134,-0.28051746,0.74708331,0
3.2818336,0.25649095,-1.9286022,0.60264134,-0.28051746,0.74708331,0
4.0327344,-0.81716228,-2.9467459,0.70227242,-0.25818846,-0.66343963,0
-2.5561767,2.4679251,3.3064833,0.3789947,0.92447221,0.041404575,0
3.4856505,-0.80910611,-3.397634,0.70227242,-0.25818846,-0.66343963,0
-3.4243748,1.5539598,3.2361946,-0.70227242,0.25818846,0.66343963,0
1.2605672,-2.1410942,-1.255589,-0.3789947,-0.92447221,-0.041404575,0
-3.7509882,-0.24868703,2.3265321,-0.3789947,-0.92447221,-0.041404575,0
3.1604915,-1.9465286,-3.4610434,0.70227242,-0.25818846,-0.66343963,0
-1.4402878,2.1950047,2.1388292,0.3789947,0.92447221,0.041404575,0
2.5873978,-0.99794197,-1.8564302,0.60264134,-0.28051746,0.74708331,0
-0.65440977,-1.280018,0.58417398,-0.3789947,-0.92447221,-0.041404575,0
0.85387409,1.2765681,-0.29607487,0.3789947,0.92447221,0.041404575,0
1.5672891,1.0267324,-0.74112761,0.3789947,0.92447221,0.041404575,0
0.38168263,-0.95791864,0.10252292,0.60264134,-0.28051746,0.74708331,0
-1.1146419,-1.2296464,1.0463575,-0.3789947,-0.92447221,-0.041404575,0
3.9315457,-0.65402234,-3.1552556,0.70227242,-0.25818846,-0.66343963,0
-3.7017841,0.058158636,3.4828691,-0.70227242,0.25818846,0.66343963,0
3.655273,-1.4136553,-3.1288939,0.70227242,-0.25818846,-0.66343963,0
2.1131287,-1.8374772,-1.7421352,0.60264134,-0.28051746,0.74708331,0
3.1426759,-2.3273301,-2.7583461,0.60264134,-0.28051746,0.74708331,0
-1.5501401,-0.033177555,1.9128039,0.60264134,-0.28051746,0.74708331,0
-3.1470232,-0.44151497,2.5505648,-0.3789947,-0.92447221,-0.041404575,0
-2.6953797,1.1236967,1.8051887,-0.60264134,0.28051746,-0.74708331,0
-3.4231381,1.2168742,3.2936277,-0.70227242,0.25818846,0.66343963,0
-3.0388761,1.5460126,3.6570082,-0.70227242,0.25818846,0.66343963,0
-3.1162975,1.2233512,3.6975965,0.60264134,-0.28051746,0.74708331,0
2.6835093,0.69392717,-2.0736458,0.3789947,0.92447221,0.041404575,0
-3.0083544,1.4586388,3.6351986,-0.70227242,0.25818846,0.66343963,0
-0.19422269,0.37378302,-0.41565382,-0.60264134,0.28051746,-0.74708331,0
1.0410299,-1.9752553,-1.8198856,-0.3789947,-0.92447221,-0.041404575,0
3.1152658,-2.5922787,-3.246103,0.70227242,-0.25818846,-0.66343963,0
-1.3009205,2.0684068,1.7799803,0.3789947,0.92447221,0.041404575,0
4.2302647,-0.21519923,-2.9395869,0.70227242,-0.25818846,-0.66343963,0
3.7390432,-1.0744635,-2.8703687,0.60264134,-0.28051746,0.74708331,0
3.4061003,-1.9799654,-3.283613,0.70227242,-0.25818846,-0.66343963,0
3.7731795,0.20754433,-3.411062,0.3789947,0.92447221,0.041404575,0
-1.8118378,-0.98356611,0.84297073,-0.3789947,-0.92447221,-0.041404575,0
1.1268584,-1.9898229,-1.177874,-0.3789947,-0.92447221,-0.041404575,0
3.3862829,-2.1630366,-2.9509878,0.60264134,-0.28051746,0.74708331,0
-1.3737942,2.2062895,1.9108598,0.3789947,0.92447221,0.041404575,0
2.9851356,0.59374368,-2.8272834,-0.60264134,0.28051746,-0.74708331,0
-3.7848444,0.83725941,3.0795484,-0.70227242,0.25818846,0.66343963,0
-2.0485704,2.3278556,2.8358278,0.3789947,0.92447221,0.041404575,0
0.90567005,1.2365782,-0.80629534,-0.60264134,0.28051746,-0.74708331,0
2.8414235,-0.29511929,-1.7878712,0.60264134,-0.28051746,0.74708331,0
3.4889157,-0.88480484,-3.3691065,0.70227242,-0.25818846,-0.66343963,0
0.35884988,1.4309936,0.81594574,0.3789947,0.92447221,0.041404575,0
-2.2320449,2.1302216,1.9665186,-0.60264134,0.28051746,-0.74708331,0
-4.0496969,0.58349228,2.9390907,-0.60264134,0.28051746,-0.74708331,0
1.7236595,0.3773571,-1.9894547,-0.60264134,0.28051746,-0.74708331,0
-2.676158,2.6873214,2.9131498,0.3789947,0.92447221,0.041404575,0
1.9701324,0.84786522,-0.99111474,0.3789947,0.92447221,0.041404575,0
1.2082562,-2.0442984,-1.213299,-0.3789947,-0.92447221,-0.041404575,0
-0.7659409,1.9086035,1.3787613,0.3789947,0.92447221,0.041404575,0
3.9286654,-1.1504625,-3.0558352,0.70227242,-0.25818846,-0.66343963,0
1.0467353,-0.33334178,-0.2870242,0.60264134,-0.28051746,0.74708331,0
-3.5903091,1.1528031,3.4200425,-0.70227242,0.25818846,0.66343963,0
-2.3467605,0.37585133,2.587853,0.60264134,-0.28051746,0.74708331,0
3.8813162,-1.306649,-3.0543854,0.70227242,-0.25818846,-0.66343963,0
1.2006378,0.87921172,0.070900321,0.60264134,-0.28051746,0.74708331,0
-0.89886022,1.8240268,1.8620704,0.3789947,0.92447221,0.041404575,0
-2.4549458,1.3230696,1.7404276,-0.60264134,0.28051746,-0.74708331,0
-3.225682,1.9087336,3.4150755,-0.70227242,0.25818846,0.66343963,0
2.5086608,-1.9141546,-3.3471365,-0.60264134,0.28051746,-0.74708331,0
-2.3603632,2.3930311,2.5974898,0.3789947,0.92447221,0.041404575,0
1.6467593,0.93826002,-1.4692204,0.3789947,0.92447221,0.041404575,0
-0.52276802,-1.161298,0.60806084,0.60264134,-0.28051746,0.74708331,0
-3.9625545,0.84715343,3.0682406,-0.70227242,0.25818846,0.66343963,0
-0.21743846,0.39880073,-0.26102382,-0.60264134,0.28051746,-0.74708331,0
-0.44176567,0.98193181,-0.048807696,-0.60264134,0.28051746,-0.74708331,0
0.044496894,0.88879287,-0.48801124,-0.60264134,0.28051746,-0.74708331,0
0.78424889,0.68239975,0.19832209,0.60264134,-0.28051746,0.74708331,0
2.9723911,-2.5887065,-3.4026875,0.70227242,-0.25818846,-0.66343963,0
3.8324037,-1.0688134,-3.0090384,0.70227242,-0.25818846,-0.66343963,0
-3.021513,1.7092539,3.5302379,-0.70227242,0.25818846,0.66343963,0
1.1142875,-2.0973747,-1.9115307,-0.3789947,-0.92447221,-0.041404575,0
-3.9363434,0.40758491,3.2576969,-0.70227242,0.25818846,0.66343963,0
-0.45673668,1.8102562,0.82576185,0.3789947,0.92447221,0.041404575,0
1.0868059,1.1682594,-0.44121248,0.3789947,0.92447221,0.041404575,0
-3.6197052,1.4054694,3.0949552,-0.70227242,0.25818846,0.66343963,0
-1.1619179,2.0430679,1.2362374,0.3789947,0.92447221,0.041404575,0
-0.17657375,1.6807771,1.1907037,0.3789947,0.92447221,0.041404575,0
2.0260839,-1.1123241,-2.6029968,-0.60264134,0.28051746,-0.74708331,0
2.7016881,-1.5725738,-2.1449559,0.60264134,-0.28051746,0.74708331,0
1.0913135,1.2624584,-0.10747761,0.3789947,0.92447221,0.041404575,0
3.8913126,-0.18271112,-3.3230245,0.70227242,-0.25818846,-0.66343963,0
3.5519867,-1.1409466,-3.4475422,0.70227242,-0.25818846,-0.66343963,0
-2.2578862,0.090825319,1.1481985,-0.60264134,0.28051746,-0.74708331,0
-4.220686,0.013226986,3.1274812,-0.70227242,0.25818846,0.66343963,0
-4.1727681,-0.040322065,3.0561318,-0.70227242,0.25818846,0.66343963,0
0.67413729,-0.20890164,-1.2561127,-0.60264134,0.28051746,-0.74708331,0
-3.5546446,1.3072108,3.1833177,-0.70227242,0.25818846,0.66343963,0
-2.6970177,2.6879318,3.1381602,0.3789947,0.92447221,0.041404575,0
1.4288582,0.95994997,-1.4946694,-0.60264134,0.28051746,-0.74708331,0
1.5912683,1.0765274,-0.7372551,0.3789947,0.92447221,0.041404575,0
-2.9999778,2.6557136,3.074811,0.3789947,0.92447221,0.041404575,0
2.4703259,-0.40885752,-2.8010712,-0.60264134,0.28051746,-0.74708331,0
0.36932707,1.4460903,0.82799542,0.3789947,0.92447221,0.041404575,0
-3.618686,1.0755857,3.4081287,-0.70227242,0.25818846,0.66343963,0
3.4748487,-1.346099,-3.2174931,0.70227242,-0.25818846,-0.66343963,0
1.8063171,-2.19573,-2.7866106,-0.3789947,-0.92447221,-0.041404575,0
2.974277,-2.6050618,-3.1291077,-0.3789947,-0.92447221,-0.041404575,0
3.6928241,-0.88648331,-3.3370924,0.70227242,-0.25818846,-0.66343963,0
3.6905136,-1.602293,-2.9704266,0.70227242,-0.25818846,-0.66343963,0
1.9507623,-2.2363973,-2.7700229,-0.3789947,-0.92447221,-0.041404575,0
-1.8553946,2.3449264,2.1550946,0.3789947,0.92447221,0.041404575,0
3.3716795,-1.4100657,-3.5294614,0.70227242,-0.25818846,-0.66343963,0
3.1512418,-2.2510045,-3.4024267,0.70227242,-0.25818846,-0.66343963,0
3.321568,-2.3396561,-3.1271634,0.70227242,-0.25818846,-0.66343963,0
-3.2967772,1.689528,3.4095769,-0.70227242,0.25818846,0.66343963,0
3.6276217,-1.8029466,-2.9969006,0.70227242,-0.25818846,-0.66343963,0
4.0655875,0.10561323,-2.8716156,0.3789947,0.92447221,0.041404575,0
4.0840836,-0.11357546,-3.3071246,0.70227242,-0.25818846,-0.66343963,0
-2.9031918,2.141304,3.6475971,-0.70227242,0.25818846,0.66343963,0
4.3340535,-0.13493347,-2.9198742,0.70227242,-0.25818846,-0.66343963,0
3.1830187,-1.4035702,-2.550189,0.60264134,-0.28051746,0.74708331,0
-1.9758149,-0.74814808,0.87771142,-0.3789947,-0.92447221,-0.041404575,0
0.90432703,1.386243,-0.85326338,0.3789947,0.92447221,0.041404575,0
-0.77728158,0.92759055,0.27287585,-0.60264134,0.28051746,-0.74708331,0
-3.9966915,0.37477756,2.8053498,-0.60264134,0.28051746,-0.74708331,0
0.44274309,-0.39008507,0.041857868,0.60264134,-0.28051746,0.74708331,0
-1.9736567,-0.84782588,0.53018522,-0.3789947,-0.92447221,-0.041404575,0
0.80647606,-0.81099343,-1.5603384,-0.60264134,0.28051746,-0.74708331,0
-0.94996178,1.9686942,2.048625,0.3789947,0.92447221,0.041404575,0
-2.9173837,2.7437534,3.3645639,0.3789947,0.92447221,0.041404575,0
3.2292013,-1.9372506,-3.3722329,0.70227242,-0.25818846,-0.66343963,0
0.46740294,1.3925045,0.084839314,0.3789947,0.92447221,0.041404575,0
1.4158189,-2.0766718,-1.3816298,-0.3789947,-0.92447221,-0.041404575,0
-1.4790126,2.1426702,2.4932106,0.3789947,0.92447221,0.041404575,0
-3.6934843,1.7442166,3.0817027,-0.70227242,0.25818846,0.66343963,0
-1.8285303,-0.99738842,1.0980377,-0.3789947,-0.92447221,-0.041404575,0
-2.8746638,2.268316,3.7528844,-0.70227242,0.25818846,0.66343963,0
3.6946671,-1.8383383,-3.0101352,0.70227242,-0.25818846,-0.66343963,0
2.3044705,-2.4321444,-2.7404497,-0.3789947,-0.92447221,-0.041404575,0
-0.754933,0.76422799,1.6636411,0.60264134,-0.28051746,0.74708331,0
-2.962456,-0.55552065,1.7860868,-0.3789947,-0.92447221,-0.041404575,0
-2.8759177,2.7555456,3.2273359,0.3789947,0.92447221,0.041404575,0
1.6027396,0.9046191,-0.7777344,0.3789947,0.92447221,0.041404575,0
-1.8733299,-0.58396959,0.58796406,-0.60264134,0.28051746,-0.74708331,0
-2.1326733,0.87936831,2.7653384,0.60264134,-0.28051746,0.74708331,0
3.5539908,-2.2476859,-3.0124612,0.70227242,-0.25818846,-0.66343963,0
-0.52125609,-0.63408279,0.93715012,0.60264134,-0.28051746,0.74708331,0
