-0.5096693,-0.80610931,-0.3197034,-0.46538931,-0.039156318,-0.88423961,0
2.6264851,-3.212306,-0.97078347,0.77838266,-0.49368101,-0.38781381,0
-3.6094236,0.19465816,2.2862749,-0.4213469,-0.86876112,0.26023242,0
-2.8144894,1.9737834,1.9008873,-0.77838266,0.49368101,0.38781381,0
-1.9970014,3.5177386,0.52091575,0.4213469,0.86876112,-0.26023242,0
-3.89326,0.54656577,1.9298129,-0.77838266,0.49368101,0.38781381,0
-3.358387,0.30901492,1.1904409,-0.46538931,-0.039156318,-0.88423961,0
-2.6795292,2.7856758,1.4757378,-0.77838266,0.49368101,0.38781381,0
3.009136,-1.7124605,-1.9045928,0.77838266,-0.49368101,-0.38781381,0
2.7555714,-1.8332309,-1.953866,-0.46538931,-0.039156318,-0.88423961,0
-0.44379896,1.5357554,0.74928391,0.46538931,0.039156318,0.88423961,0
-1.7485036,2.6233866,1.4384203,0.46538931,0.039156318,0.88423961,0
2.6046076,-2.6874778,-1.5956404,0.77838266,-0.49368101,-0.38781381,0
2.8199997,-2.3155007,-1.6156783,0.77838266,-0.49368101,-0.38781381,0
2.6468322,0.47607282,-1.5158863,0.4213469,0.86876112,-0.26023242,0
1.7320641,1.2357988,-0.66794002,0.4213469,0.86876112,-0.26023242,0
-2.1117086,-0.93053424,1.5175664,-0.4213469,-0.86876112,0.26023242,0
-2.9149117,-0.43370223,1.4503064,-0.4213469,-0.86876112,0.26023242,0
3.9045191,-0.13891309,-1.7699838,0.4213469,0.86876112,-0.26023242,0
2.4874315,-3.2096279,-1.2438848,0.77838266,-0.49368101,-0.38781381,0
2.6648903,0.31155896,-2.0097165,-0.46538931,-0.039156318,-0.88423961,0
3.3329527,-1.8629844,-1.2717299,0.77838266,-0.49368101,-0.38781381,0
-2.1635563,3.659097,1.3563528,-0.77838266,0.49368101,0.38781381,0
1.5114602,1.4870657,-0.58345604,0.4213469,0.86876112,-0.26023242,0
-0.13552284,2.2744658,-0.19602332,0.4213469,0.86876112,-0.26023242,0
-2.8517165,1.9981368,1.9302044,-0.77838266,0.49368101,0.38781381,0
-2.6849766,-0.51792634,0.97446656,-0.46538931,-0.039156318,-0.88423961,0
1.2049839,-1.0077832,0.023430467,0.46538931,0.039156318,0.88423961,0
-2.9493375,2.3127131,1.6649344,-0.77838266,0.49368101,0.38781381,0
-3.4992919,1.5290411,1.5342956,-0.77838266,0.49368101,0.38781381,0
3.1818612,-1.8782539,-1.6888099,0.77838266,-0.49368101,-0.38781381,0
2.1558883,-0.73723996,-0.53243136,0.46538931,0.039156318,0.88423961,0
0.35820413,2.2085948,0.046749681,0.4213469,0.86876112,-0.26023242,0
-2.3192747,2.7452784,0.42373729,-0.46538931,-0.039156318,-0.88423961,0
-1.723065,1.758085,0.36982894,-0.46538931,-0.039156318,-0.88423961,0
3.323091,0.10592496,-2.1779356,0.4213469,0.86876112,-0.26023242,0
0.69088376,-2.7054064,-0.017931104,-0.4213469,-0.86876112,0.26023242,0
-0.36414063,2.287401,-0.27079135,0.4213469,0.86876112,-0.26023242,0
-2.763097,2.7498016,1.3030267,-0.77838266,0.49368101,0.38781381,0
2.4683118,0.68770128,-1.3705814,0.4213469,0.86876112,-0.26023242,0
0.52328891,-1.1928236,0.25158274,0.46538931,0.039156318,0.88423961,0
2.4244461,-3.3465285,-1.4006252,0.77838266,-0.49368101,-0.38781381,0
-2.752562,2.7669115,1.2228985,-0.77838266,0.49368101,0.38781381,0
2.3115354,-3.383121,-1.4983318,0.77838266,-0.49368101,-0.38781381,0
-1.8356851,-1.1335568,0.45149529,-0.46538931,-0.039156318,-0.88423961,0
-3.0706496,1.9243255,1.9259968,-0.77838266,0.49368101,0.38781381,0
2.6856039,-2.7860472,-0.78982234,0.46538931,0.039156318,0.88423961,0
3.4506569,-0.0073285699,-1.2864835,0.46538931,0.039156318,0.88423961,0
-3.6987438,-0.072288871,1.8159637,-0.4213469,-0.86876112,0.26023242,0
-3.4049902,1.603623,1.6130099,-0.77838266,0.49368101,0.38781381,0
3.0330703,-1.844467,-1.6823637,0.77838266,-0.49368101,-0.38781381,0
-3.5498431,1.3710957,1.3641191,-0.77838266,0.49368101,0.38781381,0
1.0733531,-0.84122604,-0.99036181,-0.46538931,-0.039156318,-0.88423961,0
3.6384859,0.1017248,-1.4540904,0.4213469,0.86876112,-0.26023242,0
0.12330878,1.9637203,-0.65183109,0.4213469,0.86876112,-0.26023242,0
-3.123971,1.7889681,1.0637994,-0.46538931,-0.039156318,-0.88423961,0
2.4693499,-3.73579,-0.70525312,0.77838266,-0.49368101,-0.38781381,0
-0.92555296,2.5104218,0.9556601,0.46538931,0.039156318,0.88423961,0
-1.4709578,-1.42036,0.4258579,-0.4213469,-0.86876112,0.26023242,0
-0.97492075,0.064595014,-0.043105185,-0.46538931,-0.039156318,-0.88423961,0
2.468859,-1.1605419,-0.60704637,0.46538931,0.039156318,0.88423961,0
-3.7001274,0.26449299,2.3917146,-0.77838266,0.49368101,0.38781381,0
2.1884561,-3.4716747,-0.32950902,0.46538931,0.039156318,0.88423961,0
3.3167765,-1.7823052,-1.4689016,0.77838266,-0.49368101,-0.38781381,0
2.6466711,-3.2702808,-0.93567538,0.77838266,-0.49368101,-0.38781381,0
-1.3290473,3.122905,0.50561047,0.4213469,0.86876112,-0.26023242,0
3.7214494,-1.0332859,-1.7712226,0.77838266,-0.49368101,-0.38781381,0
-2.8640723,3.1655424,0.78742838,-0.77838266,0.49368101,0.38781381,0
2.9848995,-2.1161723,-1.4988506,0.77838266,-0.49368101,-0.38781381,0
-3.0429804,1.803705,1.8860946,-0.77838266,0.49368101,0.38781381,0
-2.5078385,2.7588158,1.6541288,-0.77838266,0.49368101,0.38781381,0
-2.624001,3.2940042,0.70750785,-0.77838266,0.49368101,0.38781381,0
3.5667191,-0.073584318,-2.3553004,0.4213469,0.86876112,-0.26023242,0
2.5675125,-3.4986715,-0.94545865,0.77838266,-0.49368101,-0.38781381,0
3.2328188,-1.6572127,-1.5718408,0.77838266,-0.49368101,-0.38781381,0
2.5745933,-2.9575291,-1.1965818,0.77838266,-0.49368101,-0.38781381,0
-2.8766797,2.1201601,1.6357763,-0.77838266,0.49368101,0.38781381,0
3.3829579,0.3843767,-1.2160556,0.4213469,0.86876112,-0.26023242,0
-3.5636175,0.10742617,1.8988752,-0.4213469,-0.86876112,0.26023242,0
-0.77504963,1.6329207,-0.18867487,-0.46538931,-0.039156318,-0.88423961,0
2.4450529,-3.5718067,-1.0332544,0.77838266,-0.49368101,-0.38781381,0
-2.0399375,-0.86691713,1.5450778,-0.4213469,-0.86876112,0.26023242,0
-3.1311371,1.1384542,0.97002721,-0.46538931,-0.039156318,-0.88423961,0
2.398042,-1.7173967,-0.64085364,0.46538931,0.039156318,0.88423961,0
3.1280222,-2.2425454,-1.2644343,0.77838266,-0.49368101,-0.38781381,0
0.10321796,-1.3315854,-0.65139329,-0.46538931,-0.039156318,-0.88423961,0
-2.5932217,2.8580806,1.253418,-0.77838266,0.49368101,0.38781381,0
1.0277481,0.47623438,-0.021277308,0.46538931,0.039156318,0.88423961,0
2.0309606,-3.3623686,-0.47228169,-0.4213469,-0.86876112,0.26023242,0
-2.1291656,3.3279598,0.34940243,-0.46538931,-0.039156318,-0.88423961,0
2.9896474,-0.030330598,-1.078377,0.46538931,0.039156318,0.88423961,0
3.3354044,-1.3962556,-1.0645461,0.46538931,0.039156318,0.88423961,0
4.0706725,-0.57729053,-1.4703493,0.77838266,-0.49368101,-0.38781381,0
3.100832,-1.7071985,-1.8167012,0.77838266,-0.49368101,-0.38781381,0
2.3455002,-3.5172362,-0.91161466,0.77838266,-0.49368101,-0.38781381,0
-0.87971461,3.0464699,0.7854588,0.46538931,0.039156318,0.88423961,0
-0.2552104,1.331847,0.53401476,0.46538931,0.039156318,0.88423961,0
0.84674227,-1.2020712,-1.0289801,-0.46538931,-0.039156318,-0.88423961,0
3.4543781,-1.6142652,-1.5110216,0.77838266,-0.49368101,-0.38781381,0
1.2197489,-2.6022277,-1.1930227,-0.46538931,-0.039156318,-0.88423961,0
-2.5027912,3.1860752,1.2445748,-0.77838266,0.49368101,0.38781381,0
-3.9401381,0.43794227,1.7379017,-0.77838266,0.49368101,0.38781381,0
-0.38327646,1.9546092,0.64568186,0.46538931,0.039156318,0.88423961,0
-0.64224112,-0.91643715,-0.2028351,-0.46538931,-0.039156318,-0.88423961,0
-3.2751207,1.4583741,2.0520849,-0.77838266,0.49368101,0.38781381,0
-0.29833126,2.5338812,-0.063001812,0.4213469,0.86876112,-0.26023242,0
0.78778219,2.0190239,0.16383453,0.46538931,0.039156318,0.88423961,0
-1.9902197,-0.9900052,1.0027162,-0.4213469,-0.86876112,0.26023242,0
2.1825604,0.37390843,-0.59311628,0.46538931,0.039156318,0.88423961,0
-3.7098689,1.3930926,1.3021941,-0.77838266,0.49368101,0.38781381,0
-2.8015084,2.9787998,1.1319995,-0.77838266,0.49368101,0.38781381,0
-3.150182,0.69205976,2.2900019,0.46538931,0.039156318,0.88423961,0
1.1393089,-2.8163681,0.07071507,-0.4213469,-0.86876112,0.26023242,0
1.8365022,-2.523339,-1.4695888,-0.46538931,-0.039156318,-0.88423961,0
-2.0567942,3.6414819,1.4166887,-0.77838266,0.49368101,0.38781381,0
-2.1214261,3.7748535,1.2588124,0.4213469,0.86876112,-0.26023242,0
-1.8797188,3.3813291,0.41228557,0.4213469,0.86876112,-0.26023242,0
-2.186708,-0.24488163,1.7634354,0.46538931,0.039156318,0.88423961,0
-2.0759809,-1.137676,0.80974615,-0.4213469,-0.86876112,0.26023242,0
-1.9101094,2.5881886,1.4278646,0.46538931,0.039156318,0.88423961,0
3.4426091,-0.11409533,-1.1997569,0.46538931,0.039156318,0.88423961,0
3.2284694,-2.2412703,-1.1445394,0.77838266,-0.49368101,-0.38781381,0
0.60114908,-2.656143,0.04656136,-0.4213469,-0.86876112,0.26023242,0
1.7607689,-1.0032959,-1.4021809,-0.46538931,-0.039156318,-0.88423961,0
2.796205,-2.2191467,-1.8783963,0.77838266,-0.49368101,-0.38781381,0
-0.32405043,-2.2141788,-0.29191655,-0.4213469,-0.86876112,0.26023242,0
-2.8615842,2.5920274,1.3315642,-0.77838266,0.49368101,0.38781381,0
3.2255986,-1.4870398,-1.762115,0.77838266,-0.49368101,-0.38781381,0
1.3417095,1.4950793,-0.86047912,0.4213469,0.86876112,-0.26023242,0
3.771683,-0.68540812,-1.7481656,0.77838266,-0.49368101,-0.38781381,0
-1.3776939,3.0676482,0.46621013,0.4213469,0.86876112,-0.26023242,0
-1.1902943,-1.4298265,0.68337756,-0.4213469,-0.86876112,0.26023242,0
-0.26713753,-2.1059012,-0.036804527,-0.4213469,-0.86876112,0.26023242,0
-2.3978829,3.2089434,1.2793317,-0.77838266,0.49368101,0.38781381,0
1.5720062,-3.3133445,-1.092133,-0.4213469,-0.86876112,0.26023242,0
3.1098261,-2.0479286,-1.3981445,0.77838266,-0.49368101,-0.38781381,0
1.871048,-2.7322817,-1.5246577,-0.46538931,-0.039156318,-0.88423961,0
2.2822127,-0.99425077,-0.60862994,0.46538931,0.039156318,0.88423961,0
0.84457171,-2.8847289,-0.80231237,-0.4213469,-0.86876112,0.26023242,0
1.8194258,-1.402957,-1.4963684,-0.46538931,-0.039156318,-0.88423961,0
2.3472383,0.32097006,-1.8514493,-0.46538931,-0.039156318,-0.88423961,0
1.3095148,-3.0650103,-0.41726542,-0.4213469,-0.86876112,0.26023242,0
-1.4272079,3.0255213,0.074896574,0.4213469,0.86876112,-0.26023242,0
0.14705741,-1.1036988,-0.67695153,-0.46538931,-0.039156318,-0.88423961,0
2.94521,0.22484219,-1.9932535,0.4213469,0.86876112,-0.26023242,0
1.4002728,1.2983444,-0.83498967,0.4213469,0.86876112,-0.26023242,0
0.89055932,0.19706392,-1.1095685,-0.46538931,-0.039156318,-0.88423961,0
3.4241962,-1.8398056,-1.3305011,0.77838266,-0.49368101,-0.38781381,0
1.1285539,1.0797441,-1.3103138,-0.46538931,-0.039156318,-0.88423961,0
-3.6519148,0.90365565,2.077373,-0.77838266,0.49368101,0.38781381,0
2.9542637,-2.1854157,-1.462153,0.77838266,-0.49368101,-0.38781381,0
0.68682575,0.94375181,0.068994671,0.46538931,0.039156318,0.88423961,0
1.6096735,-0.45600474,-1.4880493,-0.46538931,-0.039156318,-0.88423961,0
2.3094606,1.0222566,-0.90937066,0.4213469,0.86876112,-0.26023242,0
-0.98172355,-1.7352682,0.53302681,-0.4213469,-0.86876112,0.26023242,0
1.1649336,-0.1504152,-0.092022657,0.46538931,0.039156318,0.88423961,0
-0.81097442,1.668514,0.91450715,0.46538931,0.039156318,0.88423961,0
-3.7648678,0.65179038,1.9533215,-0.77838266,0.49368101,0.38781381,0
-3.6075122,1.024241,1.5649858,-0.77838266,0.49368101,0.38781381,0
-1.3184898,-1.3614104,1.1324788,-0.4213469,-0.86876112,0.26023242,0
-3.7704134,0.69725883,1.9893179,-0.77838266,0.49368101,0.38781381,0
2.4448504,-3.0519066,-1.2991664,0.77838266,-0.49368101,-0.38781381,0
3.4770443,-1.0753819,-1.2033653,0.46538931,0.039156318,0.88423961,0
3.756784,-1.1331571,-1.5126238,0.77838266,-0.49368101,-0.38781381,0
-3.5003812,0.018260866,1.2550089,-0.46538931,-0.039156318,-0.88423961,0
-1.976864,3.5742061,1.0455186,0.4213469,0.86876112,-0.26023242,0
-3.1583734,-0.1032933,2.0709999,-0.4213469,-0.86876112,0.26023242,0
-1.3046795,0.36570597,1.3352309,0.46538931,0.039156318,0.88423961,0
-4.0216384,0.43429136,1.5714421,-0.77838266,0.49368101,0.38781381,0
-4.0052781,0.44138873,1.8422613,-0.77838266,0.49368101,0.38781381,0
-0.59604192,-2.0632787,0.13665661,-0.4213469,-0.86876112,0.26023242,0
3.9609594,-0.24480641,-1.8534851,0.77838266,-0.49368101,-0.38781381,0
2.5123539,0.64157951,-1.4570289,0.4213469,0.86876112,-0.26023242,0
1.0028418,-1.5369351,-1.0056914,-0.46538931,-0.039156318,-0.88423961,0
-1.4412043,2.9758554,0.017084122,-0.46538931,-0.039156318,-0.88423961,0
-3.3737974,1.85431,1.4250407,-0.77838266,0.49368101,0.38781381,0
-3.1154671,1.6812247,1.9822407,-0.77838266,0.49368101,0.38781381,0
-3.4470129,-0.056794167,2.2163899,-0.4213469,-0.86876112,0.26023242,0
-3.9010954,0.6586194,1.8090954,-0.77838266,0.49368101,0.38781381,0
-2.5752149,-0.57752526,1.8644054,-0.4213469,-0.86876112,0.26023242,0
-0.1781248,0.26508516,0.55422974,0.46538931,0.039156318,0.88423961,0
0.71025348,1.7508078,-0.56688929,0.4213469,0.86876112,-0.26023242,0
-1.0808687,-1.5795008,0.36493278,-0.4213469,-0.86876112,0.26023242,0
3.4930644,-1.4225223,-1.2936668,0.77838266,-0.49368101,-0.38781381,0
-1.2104838,3.085218,0.53479218,0.4213469,0.86876112,-0.26023242,0
-2.5701048,3.0775375,1.3888488,-0.77838266,0.49368101,0.38781381,0
2.3391938,-0.56127661,-0.53353381,0.46538931,0.039156318,0.88423961,0
-1.3824679,3.2301025,1.1457002,0.4213469,0.86876112,-0.26023242,0
-1.7947496,3.5682483,0.94614363,0.4213469,0.86876112,-0.26023242,0
3.163516,-2.0294285,-1.4887381,0.77838266,-0.49368101,-0.38781381,0
3.3818982,-0.10873938,-1.265326,0.46538931,0.039156318,0.88423961,0
-2.5552037,2.8369803,1.809521,-0.77838266,0.49368101,0.38781381,0
-3.0373905,0.81881118,0.98338795,-0.46538931,-0.039156318,-0.88423961,0
2.8418369,-2.1647122,-1.6179059,0.77838266,-0.49368101,-0.38781381,0
2.666043,-2.7209845,-1.4623351,0.77838266,-0.49368101,-0.38781381,0
1.1333122,1.7125714,-0.17595899,0.4213469,0.86876112,-0.26023242,0
1.3537498,1.4743794,-0.19538426,0.46538931,0.039156318,0.88423961,0
-0.52729928,-1.7534614,0.80218792,-0.4213469,-0.86876112,0.26023242,0
0.41878945,-1.057725,-0.69231755,-0.46538931,-0.039156318,-0.88423961,0
1.6321684,-3.4897413,-1.0567977,-0.4213469,-0.86876112,0.26023242,0
2.1788983,-3.6215346,-0.65224481,-0.4213469,-0.86876112,0.26023242,0
0.54825449,1.8049638,-0.69601941,0.4213469,0.86876112,-0.26023242,0
-3.2766643,-0.1084851,2.3469906,0.46538931,0.039156318,0.88423961,0
1.5014496,-2.3152418,-0.02612257,0.46538931,0.039156318,0.88423961,0
2.8368013,-1.0428419,-0.81425333,0.46538931,0.039156318,0.88423961,0
1.9989604,0.98136634,-1.0163456,0.4213469,0.86876112,-0.26023242,0
-2.3648412,2.4097362,1.6073534,0.46538931,0.039156318,0.88423961,0
2.7197933,-0.9453789,-0.78625584,0.46538931,0.039156318,0.88423961,0
2.86254,-1.4522126,-1.9153378,-0.46538931,-0.039156318,-0.88423961,0
-1.2201717,-1.3550212,1.1757129,-0.4213469,-0.86876112,0.26023242,0
-2.9762256,1.3210129,0.99102449,-0.46538931,-0.039156318,-0.88423961,0
1.1323376,-0.34080148,-1.0338472,-0.46538931,-0.039156318,-0.88423961,0
3.1583664,-1.800598,-0.9155128,0.46538931,0.039156318,0.88423961,0
0.24321651,-2.5861771,-0.26062691,-0.4213469,-0.86876112,0.26023242,0
2.3802161,-3.3005798,-1.4073274,0.77838266,-0.49368101,-0.38781381,0
3.5559907,-1.4051479,-1.3918571,0.77838266,-0.49368101,-0.38781381,0
2.11712,-3.3322005,-0.34957838,-0.4213469,-0.86876112,0.26023242,0
-1.183728,-1.2607272,1.1900194,0.46538931,0.039156318,0.88423961,0
-1.7764398,0.58278036,1.4672985,0.46538931,0.039156318,0.88423961,0
3.2708135,-1.8112466,-1.5717192,0.77838266,-0.49368101,-0.38781381,0
-3.3777456,1.2655495,2.1000566,-0.77838266,0.49368101,0.38781381,0
-2.3873706,3.2382834,1.5201459,-0.77838266,0.49368101,0.38781381,0
2.6604149,-3.3511639,-0.95445538,0.77838266,-0.49368101,-0.38781381,0
-0.030348063,-2.1958189,0.29206002,-0.4213469,-0.86876112,0.26023242,0
1.0558476,-0.258356,-0.011240125,0.46538931,0.039156318,0.88423961,0
-2.8735833,-0.37893933,1.5508633,-0.4213469,-0.86876112,0.26023242,0
-2.2688026,3.4282455,1.5092883,-0.77838266,0.49368101,0.38781381,0
-3.7034869,0.42354846,2.2633119,-0.77838266,0.49368101,0.38781381,0
-2.2074025,3.6159964,1.4688561,-0.77838266,0.49368101,0.38781381,0
-0.37429523,-2.047837,0.21464276,-0.4213469,-0.86876112,0.26023242,0
0.24722004,-2.4554417,-0.46562088,-0.4213469,-0.86876112,0.26023242,0
3.2439094,-2.1018813,-1.3285656,0.77838266,-0.49368101,-0.38781381,0
2.9057019,0.30956745,-1.9697199,0.4213469,0.86876112,-0.26023242,0
1.9785513,1.1975353,-0.70947349,0.4213469,0.86876112,-0.26023242,0
1.8542287,0.98355401,-1.0707465,0.4213469,0.86876112,-0.26023242,0
-1.14396,-1.753859,0.25677705,-0.4213469,-0.86876112,0.26023242,0
-1.1735134,2.9082885,0.060592294,0.4213469,0.86876112,-0.26023242,0
-1.2123659,1.4135563,-0.058844209,-0.46538931,-0.039156318,-0.88423961,0
-1.350518,-1.5230143,0.37750685,-0.4213469,-0.86876112,0.26023242,0
2.6326642,-1.3414848,-0.73904085,0.46538931,0.039156318,0.88423961,0
2.9029608,-2.2143366,-1.8941138,0.77838266,-0.49368101,-0.38781381,0
2.9412079,-2.0487304,-2.023035,0.77838266,-0.49368101,-0.38781381,0
-1.3803173,1.8006632,0.10179877,-0.46538931,-0.039156318,-0.88423961,0
3.724108,-0.8661316,-1.3907042,0.46538931,0.039156318,0.88423961,0
1.4829282,1.3535483,-0.61139178,0.4213469,0.86876112,-0.26023242,0
-0.32089138,-2.0685029,0.32215148,-0.4213469,-0.86876112,0.26023242,0
0.81299746,1.694187,-0.76720363,0.4213469,0.86876112,-0.26023242,0
1.2358595,-0.20165175,-1.1247946,-0.46538931,-0.039156318,-0.88423961,0
3.5831401,-1.3056002,-1.6972065,0.77838266,-0.49368101,-0.38781381,0
-0.81474304,2.7400153,0.069033027,0.4213469,0.86876112,-0.26023242,0
-0.75896645,2.4325039,0.82068372,0.46538931,0.039156318,0.88423961,0
3.5896895,-0.85339355,-1.988802,0.77838266,-0.49368101,-0.38781381,0
0.65574574,-2.8791251,-0.76196039,-0.4213469,-0.86876112,0.26023242,0
-1.3563346,2.1727953,1.0838442,0.46538931,0.039156318,0.88423961,0
1.7439146,-1.9492116,-0.18565989,0.46538931,0.039156318,0.88423961,0
3.1952891,-2.1709511,-1.3820753,0.77838266,-0.49368101,-0.38781381,0
-2.4372191,1.240092,0.55106044,-0.46538931,-0.039156318,-0.88423961,0
-3.9368656,0.57728881,1.7764897,-0.77838266,0.49368101,0.38781381,0
3.4614213,-1.2233813,-1.8152924,0.77838266,-0.49368101,-0.38781381,0
-1.0517054,1.6033683,1.0254737,0.46538931,0.039156318,0.88423961,0
2.5728986,-2.5835729,-1.8542116,0.77838266,-0.49368101,-0.38781381,0
3.9410367,-0.90898788,-1.3576956,0.46538931,0.039156318,0.88423961,0
2.777204,-0.78997362,-1.9460423,-0.46538931,-0.039156318,-0.88423961,0
2.4132113,-0.016482979,-0.67049813,0.46538931,0.039156318,0.88423961,0
-3.2971416,1.7662416,1.6651077,-0.77838266,0.49368101,0.38781381,0
0.61902273,-2.6814685,-0.52423501,-0.4213469,-0.86876112,0.26023242,0
-3.9126196,0.53201002,1.5775614,-0.77838266,0.49368101,0.38781381,0
-2.1279783,3.6595693,1.4025159,-0.77838266,0.49368101,0.38781381,0
0.16805649,-2.5159075,-0.2157346,-0.4213469,-0.86876112,0.26023242,0
1.5741765,1.3967739,-0.55088437,0.4213469,0.86876112,-0.26023242,0
3.5265725,-1.1184406,-1.2335277,0.46538931,0.039156318,0.88423961,0
-2.3418441,-0.74759138,1.6441166,-0.4213469,-0.86876112,0.26023242,0
3.0141053,-1.5992594,-1.9775975,0.77838266,-0.49368101,-0.38781381,0
2.2917876,-3.4178696,-1.3112733,0.77838266,-0.49368101,-0.38781381,0
0.69782794,-1.3142953,-0.77306533,-0.46538931,-0.039156318,-0.88423961,0
3.2132115,-2.128648,-1.1789227,0.77838266,-0.49368101,-0.38781381,0
-3.5059626,1.3494761,1.6031046,-0.77838266,0.49368101,0.38781381,0
1.2444518,-2.8392472,-0.13220537,-0.4213469,-0.86876112,0.26023242,0
0.11289668,-2.387773,0.075692058,-0.4213469,-0.86876112,0.26023242,0
-3.161469,1.5893956,2.1555948,-0.77838266,0.49368101,0.38781381,0
0.087405443,-2.2227569,0.53326815,-0.4213469,-0.86876112,0.26023242,0
-3.4512792,-0.070784807,2.1462879,-0.4213469,-0.86876112,0.26023242,0
1.131264,-2.2491438,-1.1416144,-0.46538931,-0.039156318,-0.88423961,0
-1.1508521,-0.95541781,1.1817532,0.46538931,0.039156318,0.88423961,0
-0.14878953,-1.0674913,0.67232203,0.46538931,0.039156318,0.88423961,0
2.2555358,-3.6382041,-0.72624016,-0.4213469,-0.86876112,0.26023242,0
-0.85342836,2.855094,0.79429531,0.46538931,0.039156318,0.88423961,0
0.012091637,-2.1450737,0.47441408,-0.4213469,-0.86876112,0.26023242,0
0.15409613,2.2633581,0.27282751,0.4213469,0.86876112,-0.26023242,0
1.7517837,-0.71623975,-1.4083021,-0.46538931,-0.039156318,-0.88423961,0
0.28854084,0.55477363,-0.82810485,-0.46538931,-0.039156318,-0.88423961,0
-3.7231116,0.78676033,1.9278364,-0.77838266,0.49368101,0.38781381,0
-0.078992188,-0.28354686,-0.61052251,-0.46538931,-0.039156318,-0.88423961,0
2.6636791,-0.75497484,-2.0371823,-0.46538931,-0.039156318,-0.88423961,0
2.3030488,-1.4712682,-0.61801863,0.46538931,0.039156318,0.88423961,0
-0.88618112,0.089513391,-0.1046409,-0.46538931,-0.039156318,-0.88423961,0
-1.3084787,3.0410514,0.62269497,0.4213469,0.86876112,-0.26023242,0
0.91380894,-0.31395814,-0.011215627,0.46538931,0.039156318,0.88423961,0
-3.9963756,0.29558057,1.7826357,-0.77838266,0.49368101,0.38781381,0
-2.0889862,-1.1033882,0.81128669,-0.4213469,-0.86876112,0.26023242,0
-0.46122646,-1.9100461,0.41753244,-0.4213469,-0.86876112,0.26023242,0
-3.9699049,0.45324719,2.0024509,-0.77838266,0.49368101,0.38781381,0
-1.0080945,-1.7143177,-0.0038493872,-0.46538931,-0.039156318,-0.88423961,0
3.5823865,-1.1347353,-1.8390574,0.77838266,-0.49368101,-0.38781381,0
-3.2752142,1.6708584,1.6565051,-0.77838266,0.49368101,0.38781381,0
2.3341699,-0.33037233,-1.7850616,-0.46538931,-0.039156318,-0.88423961,0
-0.74803054,2.152173,0.77035785,0.46538931,0.039156318,0.88423961,0
-3.2952664,1.0279059,2.2680769,-0.77838266,0.49368101,0.38781381,0
3.2163527,-1.0045646,-2.1130023,-0.46538931,-0.039156318,-0.88423961,0
-3.2231252,1.4764613,1.9454737,-0.77838266,0.49368101,0.38781381,0
0.75693464,-2.6420236,-0.21032035,-0.4213469,-0.86876112,0.26023242,0
0.014209986,1.0409279,0.55825096,0.46538931,0.039156318,0.88423961,0
-2.0984035,2.1307843,1.4868677,0.46538931,0.039156318,0.88423961,0
-0.51392651,-1.8302195,-0.20282492,-0.46538931,-0.039156318,-0.88423961,0
-3.4210615,1.0237373,2.007134,-0.77838266,0.49368101,0.38781381,0
-3.14885,-0.41612771,1.3386035,-0.4213469,-0.86876112,0.26023242,0
-1.686753,1.2034718,0.34746909,-0.46538931,-0.039156318,-0.88423961,0
1.8712242,-3.0228987,-0.33828092,0.46538931,0.039156318,0.88423961,0
0.45124352,-2.5514145,0.050308466,-0.4213469,-0.86876112,0.26023242,0
1.6645114,-3.4157281,-1.2614191,-0.46538931,-0.039156318,-0.88423961,0
3.4156623,-1.2861407,-1.8017001,0.77838266,-0.49368101,-0.38781381,0
1.4167426,-3.3473735,-1.0628984,-0.4213469,-0.86876112,0.26023242,0
2.4208241,-3.5771928,-0.65242052,-0.4213469,-0.86876112,0.26023242,0
2.085274,-3.7713416,-1.4767485,-0.4213469,-0.86876112,0.26023242,0
0.66283822,-2.8892808,-0.7653898,-0.4213469,-0.86876112,0.26023242,0
-3.7574759,0.6106838,2.0208302,-0.77838266,0.49368101,0.38781381,0
-1.5448558,-1.2860895,0.53949189,-0.4213469,-0.86876112,0.26023242,0
2.3048177,0.82522345,-1.5171537,0.4213469,0.86876112,-0.26023242,0
0.87593353,1.6241194,-0.61395442,0.4213469,0.86876112,-0.26023242,0
-2.658555,-0.059660912,1.9485483,0.46538931,0.039156318,0.88423961,0
-0.14489114,-1.3318006,-0.42460528,-0.46538931,-0.039156318,-0.88423961,0
1.0150639,-1.4110243,-1.0721415,-0.46538931,-0.039156318,-0.88423961,0
2.2846525,-2.437552,-0.60668898,0.46538931,0.039156318,0.88423961,0
-1.7008137,0.27437049,0.3298645,-0.46538931,-0.039156318,-0.88423961,0
0.49466896,2.0545871,0.16402149,0.4213469,0.86876112,-0.26023242,0
1.3645418,-2.8317597,0.068981647,-0.4213469,-0.86876112,0.26023242,0
2.6967275,-1.5934289,-0.75436783,0.46538931,0.039156318,0.88423961,0
-0.62991381,2.458051,-0.25273615,0.4213469,0.86876112,-0.26023242,0
-2.82236,2.9793751,0.99006963,-0.77838266,0.49368101,0.38781381,0
3.6426611,-1.0879769,-1.745223,0.77838266,-0.49368101,-0.38781381,0
1.5522861,-0.75913572,-1.3326521,-0.46538931,-0.039156318,-0.88423961,0
3.439913,-1.6378126,-1.4077992,0.77838266,-0.49368101,-0.38781381,0
0.16467834,-2.2565715,0.47723907,-0.4213469,-0.86876112,0.26023242,0
-3.0768011,-0.24492234,1.9039915,-0.4213469,-0.86876112,0.26023242,0
3.4551182,-1.5281296,-1.1032128,0.46538931,0.039156318,0.88423961,0
-3.6135187,0.67583561,2.0522971,-0.77838266,0.49368101,0.38781381,0
-2.7959318,-0.46656781,1.705889,-0.4213469,-0.86876112,0.26023242,0
-0.64486581,1.7852492,0.76136065,0.46538931,0.039156318,0.88423961,0
-0.98838592,-1.7211993,0.68753457,-0.4213469,-0.86876112,0.26023242,0
-3.4971015,0.95127547,2.2624755,-0.77838266,0.49368101,0.38781381,0
-3.5408905,1.2253075,1.3049402,-0.46538931,-0.039156318,-0.88423961,0
0.011700153,-2.3880818,0.075440705,-0.4213469,-0.86876112,0.26023242,0
0.98763025,-2.903199,-0.38917172,-0.4213469,-0.86876112,0.26023242,0
3.6956007,-1.0465879,-1.3711104,0.77838266,-0.49368101,-0.38781381,0
2.1916242,-3.1879663,-0.46702743,0.46538931,0.039156318,0.88423961,0
0.71480441,1.839889,-0.055825308,0.4213469,0.86876112,-0.26023242,0
-0.92846596,2.5707986,-0.22828507,0.4213469,0.86876112,-0.26023242,0
-2.7242436,3.2888343,0.70080709,-0.77838266,0.49368101,0.38781381,0
1.353817,-0.071594536,-1.2642936,-0.46538931,-0.039156318,-0.88423961,0
-2.7665482,3.1083272,0.84845281,-0.77838266,0.49368101,0.38781381,0
2.4867158,-3.2307293,-1.3695464,0.77838266,-0.49368101,-0.38781381,0
1.0345715,-2.7305253,0.069611669,-0.4213469,-0.86876112,0.26023242,0
2.5424306,0.56511778,-1.4985857,0.4213469,0.86876112,-0.26023242,0
3.7770629,-0.33485162,-2.1538186,0.77838266,-0.49368101,-0.38781381,0
-1.3723198,-1.3093579,1.1538821,-0.4213469,-0.86876112,0.26023242,0
-2.4672999,-0.62158054,1.7058718,-0.4213469,-0.86876112,0.26023242,0
-2.1083913,1.5562612,1.5446851,0.46538931,0.039156318,0.88423961,0
-3.4274557,1.9054106,1.2477889,-0.77838266,0.49368101,0.38781381,0
-3.6421707,0.0072555542,2.0596128,-0.4213469,-0.86876112,0.26023242,0
-2.2066133,3.6479161,1.1836205,-0.77838266,0.49368101,0.38781381,0
-3.4541495,1.5728091,1.4981747,-0.77838266,0.49368101,0.38781381,0
2.4666348,0.73223889,-1.5631537,0.4213469,0.86876112,-0.26023242,0
-3.6398482,0.031977236,1.7556329,-0.4213469,-0.86876112,0.26023242,0
2.3742359,0.84509385,-1.0917976,0.4213469,0.86876112,-0.26023242,0
3.7621713,-1.0960799,-1.4366393,0.77838266,-0.49368101,-0.38781381,0
-1.7466861,1.3981698,0.31866026,-0.46538931,-0.039156318,-0.88423961,0
-2.0003135,2.2187142,1.5359335,0.46538931,0.039156318,0.88423961,0
0.38821191,-1.39889,0.51539421,0.46538931,0.039156318,0.88423961,0
-2.9893227,2.1024938,1.6398377,-0.77838266,0.49368101,0.38781381,0
0.61060214,-2.7011142,0.022362709,-0.4213469,-0.86876112,0.26023242,0
-3.5927823,1.4592986,1.4124155,-0.77838266,0.49368101,0.38781381,0
0.6650359,0.45758575,0.1706292,0.46538931,0.039156318,0.88423961,0
1.3577322,-0.68910849,-1.1987113,-0.46538931,-0.039156318,-0.88423961,0
-2.3345709,-0.67217004,1.3224108,-0.4213469,-0.86876112,0.26023242,0
-0.071221709,0.66362524,-0.51585305,-0.46538931,-0.039156318,-0.88423961,0
-2.3414121,-0.93720216,0.73256516,-0.4213469,-0.86876112,0.26023242,0
3.8504221,-0.30242205,-2.0038352,0.77838266,-0.49368101,-0.38781381,0
-0.74334812,-1.9415044,0.24758044,-0.4213469,-0.86876112,0.26023242,0
-1.3897239,1.412125,0.12901771,-0.46538931,-0.039156318,-0.88423961,0
-4.0615087,0.42325222,1.6156373,-0.46538931,-0.039156318,-0.88423961,0
-0.97033012,2.779464,-0.015420318,0.4213469,0.86876112,-0.26023242,0
-3.7225816,0.13440114,1.4719973,-0.46538931,-0.039156318,-0.88423961,0
3.7881618,-1.0698775,-1.4635706,0.77838266,-0.49368101,-0.38781381,0
2.9653344,-2.652564,-0.95340729,0.77838266,-0.49368101,-0.38781381,0
-1.0842299,0.13209966,0.09599483,-0.46538931,-0.039156318,-0.88423961,0
0.2584821,1.0248117,-0.7855829,-0.46538931,-0.039156318,-0.88423961,0
1.3197256,-2.9490118,-0.29612279,-0.4213469,-0.86876112,0.26023242,0
-3.0449488,-0.44543639,1.4838066,-0.4213469,-0.86876112,0.26023242,0
1.4058957,-3.2555962,-1.2319524,-0.46538931,-0.039156318,-0.88423961,0
-3.4908042,0.012893915,1.9757612,-0.4213469,-0.86876112,0.26023242,0
-3.3859639,1.5242039,1.8168302,-0.77838266,0.49368101,0.38781381,0
-1.3809041,-0.28499883,1.2032593,0.46538931,0.039156318,0.88423961,0
-3.0813074,1.7736607,1.732394,-0.77838266,0.49368101,0.38781381,0
0.74780583,-2.1824389,-0.84014714,-0.46538931,-0.039156318,-0.88423961,0
-3.1311703,2.2489357,1.0680907,-0.77838266,0.49368101,0.38781381,0
-1.9990213,-1.0389087,0.90225124,-0.4213469,-0.86876112,0.26023242,0
2.5009103,-1.4793917,-0.71092558,0.46538931,0.039156318,0.88423961,0
-1.7209818,-1.3405684,0.68500984,-0.4213469,-0.86876112,0.26023242,0
0.5761857,0.27367038,-0.91718173,-0.46538931,-0.039156318,-0.88423961,0
3.1482356,-1.8955866,-1.3891673,0.77838266,-0.49368101,-0.38781381,0
1.3186315,-3.1649337,-0.50131369,-0.4213469,-0.86876112,0.26023242,0
0.92403173,0.73079669,-0.062363684,0.46538931,0.039156318,0.88423961,0
-3.1833825,2.0087495,1.248832,-0.77838266,0.49368101,0.38781381,0
2.7079644,-3.3524685,-0.72416401,0.77838266,-0.49368101,-0.38781381,0
3.7489598,-0.88287431,-1.6948118,0.77838266,-0.49368101,-0.38781381,0
3.1763434,-1.6304862,-0.98234963,0.46538931,0.039156318,0.88423961,0
3.3717294,-0.63990021,-2.397768,-0.46538931,-0.039156318,-0.88423961,0
-2.8734894,2.2731464,1.5431197,-0.77838266,0.49368101,0.38781381,0
0.21770978,-2.2981019,0.61801469,0.46538931,0.039156318,0.88423961,0
-1.9058611,3.4008749,0.86061001,0.4213469,0.86876112,-0.26023242,0
-3.2627246,1.4944081,1.7228799,-0.77838266,0.49368101,0.38781381,0
1.9447099,-2.5828619,-1.571352,-0.46538931,-0.039156318,-0.88423961,0
-0.73579621,2.8382459,0.56408882,0.4213469,0.86876112,-0.26023242,0
-0.29435635,-2.0693479,0.52489942,-0.4213469,-0.86876112,0.26023242,0
-1.4564997,2.9776073,0.094079971,0.4213469,0.86876112,-0.26023242,0
-2.6586757,2.9882686,0.94127369,-0.77838266,0.49368101,0.38781381,0
-3.5745482,1.2176329,1.5105553,-0.77838266,0.49368101,0.38781381,0
1.5589386,-3.2401066,-0.97889733,-0.4213469,-0.86876112,0.26023242,0
0.036118269,-2.1776111,0.20967823,-0.4213469,-0.86876112,0.26023242,0
1.3911272,-2.5087039,-0.093696833,0.46538931,0.039156318,0.88423961,0
0.89465868,-2.7401767,-0.38105309,-0.4213469,-0.86876112,0.26023242,0
-3.7232366,0.51426101,1.2923937,-0.46538931,-0.039156318,-0.88423961,0
-0.089421034,-2.2177844,-0.050448537,-0.4213469,-0.86876112,0.26023242,0
-0.37680078,1.6323199,0.71344483,0.46538931,0.039156318,0.88423961,0
-1.0513453,-1.6275697,0.82193983,-0.4213469,-0.86876112,0.26023242,0
0.55938494,-1.0336263,0.26712888,0.46538931,0.039156318,0.88423961,0
2.847187,-2.6105115,-1.0646977,0.77838266,-0.49368101,-0.38781381,0
1.3264748,-1.6453197,0.052973628,0.46538931,0.039156318,0.88423961,0
2.8533235,-2.1442688,-1.6198099,0.77838266,-0.49368101,-0.38781381,0
2.6790702,-3.0886328,-1.1724415,0.77838266,-0.49368101,-0.38781381,0
1.0447425,1.405488,-0.0054720044,0.46538931,0.039156318,0.88423961,0
1.651401,-3.4734805,-1.1352119,-0.4213469,-0.86876112,0.26023242,0
-3.164854,0.45991862,2.1210048,0.46538931,0.039156318,0.88423961,0
-3.6733589,0.90985054,1.8304133,-0.77838266,0.49368101,0.38781381,0
-3.5007236,0.68526387,2.2035737,-0.77838266,0.49368101,0.38781381,0
-2.9013786,2.0403636,1.9770098,-0.77838266,0.49368101,0.38781381,0
-2.6520202,-0.29563326,0.83567715,-0.46538931,-0.039156318,-0.88423961,0
-2.7818334,2.7703788,1.2260628,-0.77838266,0.49368101,0.38781381,0
3.1533022,-2.1172252,-1.1950631,0.77838266,-0.49368101,-0.38781381,0
-3.0255141,1.9285119,1.9075375,-0.77838266,0.49368101,0.38781381,0
2.6996789,0.77678597,-1.0277917,0.4213469,0.86876112,-0.26023242,0
-1.2570814,2.9293451,0.17695522,0.4213469,0.86876112,-0.26023242,0
3.5013199,-0.27488124,-2.4685607,-0.46538931,-0.039156318,-0.88423961,0
-2.287225,0.34832942,0.68351054,-0.46538931,-0.039156318,-0.88423961,0
2.8366499,0.68482959,-1.1127815,0.4213469,0.86876112,-0.26023242,0
-0.83202744,0.80605042,-0.16793776,-0.46538931,-0.039156318,-0.88423961,0
1.3704814,1.2185913,-1.3210306,0.4213469,0.86876112,-0.26023242,0
1.9403067,-3.1052823,-0.39871621,0.46538931,0.039156318,0.88423961,0
0.48356533,2.1061661,-0.10181232,0.4213469,0.86876112,-0.26023242,0
1.2146603,-2.1869402,-1.1945701,-0.46538931,-0.039156318,-0.88423961,0
-0.31961107,-2.0566604,0.5673362,-0.4213469,-0.86876112,0.26023242,0
-2.9678123,0.73607206,2.116255,0.46538931,0.039156318,0.88423961,0
0.65106964,-1.3387294,0.39204898,0.46538931,0.039156318,0.88423961,0
1.9146369,1.0024265,-1.5290673,0.4213469,0.86876112,-0.26023242,0
-0.4345659,2.4542637,-0.12469912,0.4213469,0.86876112,-0.26023242,0
-0.19732559,0.64487422,-0.42387539,-0.46538931,-0.039156318,-0.88423961,0
-0.10461712,-2.2724528,-0.080075979,-0.4213469,-0.86876112,0.26023242,0
2.1855476,0.17495751,-1.6331475,-0.46538931,-0.039156318,-0.88423961,0
2.3890529,0.51992261,-1.7217155,0.4213469,0.86876112,-0.26023242,0
0.017878175,-1.1476951,-0.47710493,-0.46538931,-0.039156318,-0.88423961,0
-2.5610566,3.5961843,0.82693267,-0.77838266,0.49368101,0.38781381,0
1.2819643,-3.2777362,-0.82226014,-0.4213469,-0.86876112,0.26023242,0
2.8084638,-1.763081,-1.9058084,-0.46538931,-0.039156318,-0.88423961,0
1.6479002,-3.2839758,-0.72367597,-0.4213469,-0.86876112,0.26023242,0
0.71291089,1.5465412,-1.0569497,0.4213469,0.86876112,-0.26023242,0
2.3805711,-3.0794621,-1.4747844,0.77838266,-0.49368101,-0.38781381,0
-2.9548626,1.4825941,2.0309319,0.46538931,0.039156318,0.88423961,0
2.7532446,-2.2801685,-1.6277556,0.77838266,-0.49368101,-0.38781381,0
-0.97638774,-1.8959072,0.067049533,-0.46538931,-0.039156318,-0.88423961,0
2.0167065,-3.5645251,-1.0932362,-0.4213469,-0.86876112,0.26023242,0
-0.34522557,-2.2900703,-0.15313405,-0.4213469,-0.86876112,0.26023242,0
0.1593886,-0.074389398,-0.67159653,-0.46538931,-0.039156318,-0.88423961,0
1.786962,-1.5236168,-0.33753991,0.46538931,0.039156318,0.88423961,0
2.8438797,-2.7888012,-1.0815723,0.77838266,-0.49368101,-0.38781381,0
-2.6861072,-0.64525962,1.3815162,-0.4213469,-0.86876112,0.26023242,0
2.0349352,0.89480543,-1.6853426,0.4213469,0.86876112,-0.26023242,0
0.1496042,1.8523512,0.44228801,0.46538931,0.039156318,0.88423961,0
2.4075902,-3.2785702,-1.1755822,0.77838266,-0.49368101,-0.38781381,0
2.656671,-1.9290842,-1.8354998,-0.46538931,-0.039156318,-0.88423961,0
-1.7159724,2.6246195,0.13841915,-0.46538931,-0.039156318,-0.88423961,0
3.3585305,0.23869467,-1.6667962,0.4213469,0.86876112,-0.26023242,0
2.5301778,-1.7945465,-0.61883235,0.46538931,0.039156318,0.88423961,0
-3.5034285,-0.046800882,1.2674391,-0.46538931,-0.039156318,-0.88423961,0
2.6833541,0.68568826,-1.2222428,0.4213469,0.86876112,-0.26023242,0
-3.6230109,0.85115731,2.1787434,-0.77838266,0.49368101,0.38781381,0
-2.371285,3.2349565,1.1797349,-0.77838266,0.49368101,0.38781381,0
-3.0515823,2.1372325,1.3233206,-0.77838266,0.49368101,0.38781381,0
0.79974139,-2.8398552,-0.15388501,-0.4213469,-0.86876112,0.26023242,0
-3.4910183,1.058831,1.7079339,-0.77838266,0.49368101,0.38781381,0
1.6129553,-3.0109096,-0.055084944,0.46538931,0.039156318,0.88423961,0
-0.31243229,-2.0070353,0.77151579,-0.4213469,-0.86876112,0.26023242,0
-1.9598085,-0.21572357,0.49705553,-0.46538931,-0.039156318,-0.88423961,0
-0.040540218,-2.0308366,0.46172619,-0.4213469,-0.86876112,0.26023242,0
2.4588864,-1.2481649,-0.66783023,0.46538931,0.039156318,0.88423961,0
2.7622623,-2.4618244,-1.8722296,0.77838266,-0.49368101,-0.38781381,0
-2.7301655,2.4823203,1.8547676,-0.77838266,0.49368101,0.38781381,0
3.5420797,-0.43330997,-1.296093,0.46538931,0.039156318,0.88423961,0
-0.42178726,-2.2063589,-0.11047064,-0.4213469,-0.86876112,0.26023242,0
-2.3620872,3.1284192,1.4809754,-0.77838266,0.49368101,0.38781381,0
-2.4832969,3.2916081,1.2631018,-0.77838266,0.49368101,0.38781381,0
3.6082458,-1.0784848,-1.8784132,0.77838266,-0.49368101,-0.38781381,0
2.4728642,-2.8440571,-1.747206,0.77838266,-0.49368101,-0.38781381,0
-2.0804186,-1.1371778,0.57502377,-0.4213469,-0.86876112,0.26023242,0
-0.32863271,2.4055102,-0.10831553,0.4213469,0.86876112,-0.26023242,0
1.186075,1.1789271,-1.2492777,-0.46538931,-0.039156318,-0.88423961,0
2.4573369,0.54450142,-1.882041,0.4213469,0.86876112,-0.26023242,0
1.095193,0.69882613,-0.12523156,0.46538931,0.039156318,0.88423961,0
-0.89688444,2.7996588,-0.024458885,0.4213469,0.86876112,-0.26023242,0
1.9131442,0.92833227,-1.3399472,0.4213469,0.86876112,-0.26023242,0
2.9646912,-2.7151296,-0.99747992,0.77838266,-0.49368101,-0.38781381,0
1.9689468,1.1857604,-0.83469689,0.4213469,0.86876112,-0.26023242,0
3.8037424,-0.54422021,-1.8869548,0.77838266,-0.49368101,-0.38781381,0
-2.8459144,-0.28850317,1.7948475,-0.4213469,-0.86876112,0.26023242,0
-1.2342281,-0.58810711,1.2375046,0.46538931,0.039156318,0.88423961,0
-1.2614429,-1.4321666,0.53226066,-0.4213469,-0.86876112,0.26023242,0
-3.8043404,0.98048437,1.3112111,-0.77838266,0.49368101,0.38781381,0
1.2138132,-2.396529,-1.0693543,-0.46538931,-0.039156318,-0.88423961,0
0.30300319,0.99796104,-0.72117478,-0.46538931,-0.039156318,-0.88423961,0
3.150872,-1.6115463,-1.827354,0.77838266,-0.49368101,-0.38781381,0
2.2305315,-3.5733898,-0.5568676,-0.4213469,-0.86876112,0.26023242,0
-2.4961939,-0.33076823,1.9213083,0.46538931,0.039156318,0.88423961,0
1.6055309,-3.4965827,-1.1534107,-0.46538931,-0.039156318,-0.88423961,0
0.44068417,0.24744043,0.22769064,0.46538931,0.039156318,0.88423961,0
-0.78792393,2.9756331,0.86391699,0.46538931,0.039156318,0.88423961,0
0.10991216,-0.67907578,-0.52423668,-0.46538931,-0.039156318,-0.88423961,0
1.6718245,-1.1275207,-0.35914016,0.46538931,0.039156318,0.88423961,0
-1.2866591,3.2839208,0.99241519,0.4213469,0.86876112,-0.26023242,0
-0.077256918,-1.991704,0.56668603,-0.4213469,-0.86876112,0.26023242,0
-2.6818767,2.7151778,1.2487869,-0.77838266,0.49368101,0.38781381,0
3.4898231,-1.1903784,-1.9131832,0.77838266,-0.49368101,-0.38781381,0
2.4895611,-3.3996041,-0.83924723,0.77838266,-0.49368101,-0.38781381,0
-0.99831808,2.8321266,0.4297756,0.4213469,0.86876112,-0.26023242,0
-2.4443831,-0.64119661,1.685508,-0.4213469,-0.86876112,0.26023242,0
-1.2777309,2.3651433,0.077513099,-0.46538931,-0.039156318,-0.88423961,0
-2.1867137,1.0077698,1.6317356,0.46538931,0.039156318,0.88423961,0
3.1429574,-1.756695,-0.92033195,0.46538931,0.039156318,0.88423961,0
2.4755838,-3.0987275,-1.2549601,0.77838266,-0.49368101,-0.38781381,0
-1.3400071,-1.5817089,0.55000257,-0.4213469,-0.86876112,0.26023242,0
3.126267,-1.9238114,-1.8440785,0.77838266,-0.49368101,-0.38781381,0
-0.16773677,-2.1622744,-0.13431367,-0.4213469,-0.86876112,0.26023242,0
2.7358797,-2.5798354,-1.7521887,0.77838266,-0.49368101,-0.38781381,0
0.76511109,-2.7118802,0.052127719,-0.4213469,-0.86876112,0.26023242,0
-1.2302361,3.1155193,0.63773918,0.4213469,0.86876112,-0.26023242,0
-3.836551,0.19985449,2.4620824,-0.4213469,-0.86876112,0.26023242,0
2.6611061,-0.11477196,-1.8910191,-0.46538931,-0.039156318,-0.88423961,0
0.023920536,2.2896304,0.11816591,0.4213469,0.86876112,-0.26023242,0
-0.24791074,2.4495389,-0.05361867,0.4213469,0.86876112,-0.26023242,0
-0.87166572,-1.7506495,0.73544955,-0.4213469,-0.86876112,0.26023242,0
1.8922925,-3.5558968,-1.1872909,-0.4213469,-0.86876112,0.26023242,0
-1.6379913,0.47006053,0.35800421,-0.46538931,-0.039156318,-0.88423961,0
2.109992,-3.6191452,-1.3196869,0.77838266,-0.49368101,-0.38781381,0
1.0889034,-2.9736862,-0.11716986,-0.4213469,-0.86876112,0.26023242,0
-2.7100081,2.8438287,1.458447,-0.77838266,0.49368101,0.38781381,0
-3.4247906,1.7411112,1.1906247,-0.77838266,0.49368101,0.38781381,0
-2.4894223,1.1509479,0.59345961,-0.46538931,-0.039156318,-0.88423961,0
-0.24780846,2.5461874,0.58587384,0.46538931,0.039156318,0.88423961,0
-2.8906746,-0.18231058,2.0515959,-0.4213469,-0.86876112,0.26023242,0
3.472954,-0.65167689,-2.2924643,0.77838266,-0.49368101,-0.38781381,0
-0.077488899,-2.166513,-0.36954546,-0.46538931,-0.039156318,-0.88423961,0
-3.0705156,-0.35024548,1.4122415,-0.4213469,-0.86876112,0.26023242,0
-3.2045484,-0.41669908,1.418823,-0.4213469,-0.86876112,0.26023242,0
2.2225327,-3.8085816,-1.1808288,0.77838266,-0.49368101,-0.38781381,0
3.0655248,-0.93744659,-2.2177012,-0.46538931,-0.039156318,-0.88423961,0
-0.013065785,-0.43528685,-0.46684593,-0.46538931,-0.039156318,-0.88423961,0
0.0079848766,0.6343869,-0.6366722,-0.46538931,-0.039156318,-0.88423961,0
3.4143968,-1.2291739,-1.8407207,0.77838266,-0.49368101,-0.38781381,0
-1.4051619,-1.2887564,1.2165827,-0.4213469,-0.86876112,0.26023242,0
2.9406428,-2.2617848,-1.5439241,0.77838266,-0.49368101,-0.38781381,0
-1.8008666,3.3119292,0.51391387,0.4213469,0.86876112,-0.26023242,0
2.5602989,-2.8680868,-1.4197452,0.77838266,-0.49368101,-0.38781381,0
-3.70434,0.65133822,1.893681,-0.77838266,0.49368101,0.38781381,0
3.2080984,0.45119786,-1.2141049,0.4213469,0.86876112,-0.26023242,0
0.40734506,2.1692278,0.061076596,0.4213469,0.86876112,-0.26023242,0
-2.1069577,0.8330555,1.7037525,0.46538931,0.039156318,0.88423961,0
-3.3723269,1.6814017,1.3701539,-0.77838266,0.49368101,0.38781381,0
0.40780497,1.3104324,0.26945567,0.46538931,0.039156318,0.88423961,0
3.1647224,-1.6534183,-1.7441549,0.77838266,-0.49368101,-0.38781381,0
0.14307296,1.1757295,0.42635733,0.46538931,0.039156318,0.88423961,0
-2.8744266,2.4223676,1.2725081,-0.77838266,0.49368101,0.38781381,0
-1.1834865,-1.4235058,0.73225993,-0.4213469,-0.86876112,0.26023242,0
3.5136974,-1.710741,-1.1414762,0.77838266,-0.49368101,-0.38781381,0
-2.929013,1.2351916,2.1546931,0.46538931,0.039156318,0.88423961,0
3.2202868,-0.5436663,-1.1745195,0.46538931,0.039156318,0.88423961,0
1.124023,-2.6505346,-0.95663261,-0.46538931,-0.039156318,-0.88423961,0
-2.9834619,2.1810653,1.323781,-0.77838266,0.49368101,0.38781381,0
3.5276186,-1.2638514,-1.6500311,0.77838266,-0.49368101,-0.38781381,0
3.8094802,-0.69620597,-1.6709332,0.77838266,-0.49368101,-0.38781381,0
-0.54540622,-1.6635063,0.91283888,-0.4213469,-0.86876112,0.26023242,0
-2.528336,3.0552082,1.4370034,-0.77838266,0.49368101,0.38781381,0
2.9315774,-2.0207887,-1.7867196,0.77838266,-0.49368101,-0.38781381,0
1.1980798,-0.18610075,-0.0077410936,0.46538931,0.039156318,0.88423961,0
-3.3344915,1.126469,2.0987911,-0.77838266,0.49368101,0.38781381,0
2.5050478,0.59921026,-1.2540073,0.4213469,0.86876112,-0.26023242,0
-2.1490524,3.7589669,1.4589479,-0.77838266,0.49368101,0.38781381,0
-0.49165523,-1.3773746,-0.33836681,-0.46538931,-0.039156318,-0.88423961,0
2.4168913,-3.5372694,-1.1284845,0.77838266,-0.49368101,-0.38781381,0
-0.19959188,-2.1627181,0.43108708,-0.4213469,-0.86876112,0.26023242,0
-2.4696436,-0.84908807,0.70296645,-0.4213469,-0.86876112,0.26023242,0
2.516058,0.78685069,-1.1488316,0.4213469,0.86876112,-0.26023242,0
2.839612,-2.1507671,-0.76965284,0.46538931,0.039156318,0.88423961,0
1.9425514,-0.047419548,-1.6568675,-0.46538931,-0.039156318,-0.88423961,0
-0.20153251,0.23982042,0.69096583,0.46538931,0.039156318,0.88423961,0
3.147171,0.25191295,-2.0738845,0.4213469,0.86876112,-0.26023242,0
-1.5694648,3.2605722,0.73187733,0.4213469,0.86876112,-0.26023242,0
0.82643318,1.849427,-0.059730291,0.4213469,0.86876112,-0.26023242,0
1.4954238,-2.8676775,-1.2127616,-0.46538931,-0.039156318,-0.88423961,0
-3.0133803,-0.55759251,1.1924925,-0.4213469,-0.86876112,0.26023242,0
-0.58000195,-0.18706226,-0.28678536,-0.46538931,-0.039156318,-0.88423961,0
-2.8266916,1.9949024,1.9453595,-0.77838266,0.49368101,0.38781381,0
1.0141683,-3.0980074,-0.71522832,-0.4213469,-0.86876112,0.26023242,0
-3.9386642,0.50995767,1.9892087,-0.77838266,0.49368101,0.38781381,0
2.3923683,-1.8192432,-0.59847903,0.46538931,0.039156318,0.88423961,0
-0.70594108,2.8482862,0.55274546,0.4213469,0.86876112,-0.26023242,0
-0.20690787,1.5151392,0.53796309,0.46538931,0.039156318,0.88423961,0
-0.89938343,1.9273655,1.0390586,0.46538931,0.039156318,0.88423961,0
2.8564534,-2.6023343,-1.4379044,0.77838266,-0.49368101,-0.38781381,0
-0.21126962,0.8574152,-0.51446944,-0.46538931,-0.039156318,-0.88423961,0
-2.5345626,1.8195341,1.7505534,0.46538931,0.039156318,0.88423961,0
-2.8508704,0.57877433,1.9404807,0.46538931,0.039156318,0.88423961,0
-3.2773299,0.19064134,1.1272829,-0.46538931,-0.039156318,-0.88423961,0
3.6883407,-0.051254988,-1.2891841,0.46538931,0.039156318,0.88423961,0
-0.61869735,1.4185543,-0.24421227,-0.46538931,-0.039156318,-0.88423961,0
-1.5665835,-1.3663028,0.40722966,-0.4213469,-0.86876112,0.26023242,0
-3.5746229,0.077594519,1.9143963,-0.4213469,-0.86876112,0.26023242,0
-2.5858271,3.4679101,0.73427415,-0.77838266,0.49368101,0.38781381,0
3.4742184,-1.3007009,-1.7573624,0.77838266,-0.49368101,-0.38781381,0
2.9383781,-0.75346768,-0.97388148,0.46538931,0.039156318,0.88423961,0
-3.7628047,0.80708957,1.4700723,-0.46538931,-0.039156318,-0.88423961,0
-2.544241,-0.53547931,1.7282538,-0.4213469,-0.86876112,0.26023242,0
2.9221163,0.47537267,-1.547173,0.4213469,0.86876112,-0.26023242,0
3.5785792,-0.51600218,-2.4062681,0.77838266,-0.49368101,-0.38781381,0
-0.11893582,-2.042841,-0.46083945,-0.46538931,-0.039156318,-0.88423961,0
-2.3465855,1.7098309,1.6937227,0.46538931,0.039156318,0.88423961,0
-1.2899333,-1.3690623,1.2795348,-0.4213469,-0.86876112,0.26023242,0
-2.4367208,-0.31536606,0.81042314,-0.46538931,-0.039156318,-0.88423961,0
2.0375059,-3.5619173,-1.238395,-0.4213469,-0.86876112,0.26023242,0
-1.9569913,-0.96914595,0.45625722,-0.46538931,-0.039156318,-0.88423961,0
0.98190904,1.6258465,-0.72251302,0.4213469,0.86876112,-0.26023242,0
-2.4893939,-0.49499106,1.6250989,-0.4213469,-0.86876112,0.26023242,0
-0.50611258,-1.8871435,0.19489938,-0.4213469,-0.86876112,0.26023242,0
-0.16465092,-2.0688403,0.80743146,-0.4213469,-0.86876112,0.26023242,0
-3.2719631,1.8493047,1.4654379,-0.77838266,0.49368101,0.38781381,0
2.4694333,-3.3645768,-0.55663276,0.46538931,0.039156318,0.88423961,0
-0.19394302,-2.3208325,-0.23946089,-0.4213469,-0.86876112,0.26023242,0
-2.9773564,0.31253603,0.91925788,-0.46538931,-0.039156318,-0.88423961,0
2.9131913,-2.5967338,-1.0175641,0.77838266,-0.49368101,-0.38781381,0
0.48769855,-2.7220144,-0.63569796,-0.4213469,-0.86876112,0.26023242,0
-0.34254074,2.454082,0.18621993,0.4213469,0.86876112,-0.26023242,0
2.0183868,0.99600589,-0.76612437,0.4213469,0.86876112,-0.26023242,0
-0.9786557,-1.5522599,1.0643635,-0.4213469,-0.86876112,0.26023242,0
-3.666595,1.3005958,1.270134,-0.77838266,0.49368101,0.38781381,0
-0.73080713,-0.55125695,-0.075351954,-0.46538931,-0.039156318,-0.88423961,0
-0.96081638,-1.3899776,1.0706823,0.46538931,0.039156318,0.88423961,0
-2.346658,-0.76018345,1.6493759,-0.4213469,-0.86876112,0.26023242,0
-2.9900913,2.0128028,1.8590386,-0.77838266,0.49368101,0.38781381,0
3.4644833,-0.080230832,-2.4810538,-0.46538931,-0.039156318,-0.88423961,0
0.73419833,1.7073941,0.00096273422,0.46538931,0.039156318,0.88423961,0
-2.7155855,2.9735522,1.1560764,-0.77838266,0.49368101,0.38781381,0
-1.1150767,-1.2248385,1.1240029,0.46538931,0.039156318,0.88423961,0
3.4936419,0.093522966,-1.7469964,0.4213469,0.86876112,-0.26023242,0
-2.9414365,0.63346571,0.85128856,-0.46538931,-0.039156318,-0.88423961,0
-1.6336442,3.1508303,0.54145503,0.4213469,0.86876112,-0.26023242,0
3.3975646,-1.448941,-1.409555,0.77838266,-0.49368101,-0.38781381,0
4.0435629,-0.70794934,-1.4885058,0.77838266,-0.49368101,-0.38781381,0
3.1981821,-2.0000203,-1.4732752,0.77838266,-0.49368101,-0.38781381,0
-0.41667557,-0.59262502,0.82674402,0.46538931,0.039156318,0.88423961,0
-2.6567929,-0.16199374,1.8835981,0.46538931,0.039156318,0.88423961,0
0.86269951,-0.068676323,0.09392941,0.46538931,0.039156318,0.88423961,0
3.2272167,0.080483466,-1.2462564,0.46538931,0.039156318,0.88423961,0
2.0568175,1.0808549,-0.90447533,0.4213469,0.86876112,-0.26023242,0
-0.076958895,2.1903148,-0.50272006,0.4213469,0.86876112,-0.26023242,0
-2.3792245,3.6962862,0.77308297,-0.77838266,0.49368101,0.38781381,0
-2.5461082,1.4994248,1.8096032,0.46538931,0.039156318,0.88423961,0
-3.6472371,1.0698172,1.5166879,-0.77838266,0.49368101,0.38781381,0
-3.3496711,0.65156353,2.3743429,0.46538931,0.039156318,0.88423961,0
0.052977443,1.1604216,-0.68970203,-0.46538931,-0.039156318,-0.88423961,0
2.0923111,-2.081877,-1.6160841,-0.46538931,-0.039156318,-0.88423961,0
-1.2903581,2.9027939,-0.031272054,0.4213469,0.86876112,-0.26023242,0
0.72620475,-0.044561714,0.092857242,0.46538931,0.039156318,0.88423961,0
-2.0333848,-1.07506,0.96355569,-0.4213469,-0.86876112,0.26023242,0
-3.8149617,0.69910556,1.8211532,-0.77838266,0.49368101,0.38781381,0
-3.0353653,2.4205074,0.98352361,-0.46538931,-0.039156318,-0.88423961,0
1.6309102,1.2053953,-1.1418062,0.4213469,0.86876112,-0.26023242,0
2.4235079,-1.5925405,-0.64036846,0.46538931,0.039156318,0.88423961,0
3.6285279,-0.87746471,-1.7651606,0.77838266,-0.49368101,-0.38781381,0
-3.4560204,-0.033208013,2.1245608,-0.4213469,-0.86876112,0.26023242,0
