-3.4780281,0.23151185,0.43898624,-0.79777867,-0.13181299,-0.58836597,0
-0.67944717,0.32210824,-0.99817336,-0.0070396326,0.9777813,-0.20950939,0
2.3430603,-0.55635709,-1.8581147,0.60290927,-0.16300024,-0.78098094,0
3.1014783,0.34779671,-0.45641768,-0.0070396326,0.9777813,-0.20950939,0
2.859921,-0.8119576,-1.4686778,0.60290927,-0.16300024,-0.78098094,0
3.1787162,-0.026157528,-0.18578207,0.79777867,0.13181299,0.58836597,0
-1.2836038,-0.047141112,2.0210078,0.0070396326,-0.9777813,0.20950939,0
0.13459319,0.49408668,3.8230648,-0.60290927,0.16300024,0.78098094,0
2.4655209,-0.11144926,0.83945811,0.79777867,0.13181299,0.58836597,0
-1.7086942,0.15983376,2.5174985,-0.60290927,0.16300024,0.78098094,0
-0.27589637,-0.75847685,-3.7032781,-0.79777867,-0.13181299,-0.58836597,0
-0.13618425,0.52434206,-0.14803475,-0.0070396326,0.9777813,-0.20950939,0
2.6677721,-0.70387936,-1.570907,0.60290927,-0.16300024,-0.78098094,0
-2.5928733,0.61530501,0.65683663,-0.0070396326,0.9777813,-0.20950939,0
-0.41712052,-0.86423755,-1.2943863,0.0070396326,-0.9777813,0.20950939,0
1.2303534,0.069689527,-1.6283822,-0.0070396326,0.9777813,-0.20950939,0
-1.1479709,-1.0475005,-2.5571568,-0.79777867,-0.13181299,-0.58836597,0
2.2427316,-0.26886287,-1.9872061,0.60290927,-0.16300024,-0.78098094,0
0.37471938,0.75586128,3.4800282,0.79777867,0.13181299,0.58836597,0
0.7564795,0.90872532,1.438467,-0.0070396326,0.9777813,-0.20950939,0
2.2406607,-0.68864244,-2.0258305,0.60290927,-0.16300024,-0.78098094,0
-1.5256162,-0.015483245,-2.1426291,-0.0070396326,0.9777813,-0.20950939,0
2.1840906,0.13303965,-1.6241342,-0.0070396326,0.9777813,-0.20950939,0
-1.2126523,0.97621894,2.7565854,-0.60290927,0.16300024,0.78098094,0
1.8871098,0.76983845,1.5351838,0.79777867,0.13181299,0.58836597,0
1.2705909,0.014823475,-2.4735124,-0.0070396326,0.9777813,-0.20950939,0
-1.6696723,-0.2575835,-2.0149913,-0.79777867,-0.13181299,-0.58836597,0
-0.9401685,0.043458678,-2.5448906,-0.0070396326,0.9777813,-0.20950939,0
3.2366319,-0.0066698194,0.023479968,0.79777867,0.13181299,0.58836597,0
-0.29489386,-1.240296,-3.6652513,-0.79777867,-0.13181299,-0.58836597,0
-0.11400476,1.0452715,3.5107505,-0.60290927,0.16300024,0.78098094,0
1.2667676,-1.0087922,-2.559813,0.60290927,-0.16300024,-0.78098094,0
0.47838986,0.48252386,3.4499454,0.79777867,0.13181299,0.58836597,0
-0.44101447,-0.83677179,-1.2649965,0.0070396326,-0.9777813,0.20950939,0
3.5667794,-0.27348936,-1.1325915,0.60290927,-0.16300024,-0.78098094,0
3.0405226,0.2401861,-1.4162534,-0.0070396326,0.9777813,-0.20950939,0
-0.78624737,-0.061153419,2.464931,0.0070396326,-0.9777813,0.20950939,0
0.79945636,-0.27456337,-3.0524988,0.60290927,-0.16300024,-0.78098094,0
1.2359203,0.28250468,-1.2555919,-0.0070396326,0.9777813,-0.20950939,0
-0.44927844,0.54030645,3.4010253,-0.60290927,0.16300024,0.78098094,0
-1.656136,-0.18545522,-1.8488952,-0.79777867,-0.13181299,-0.58836597,0
1.5328523,0.70071399,1.9298187,0.79777867,0.13181299,0.58836597,0
0.57271183,-0.12438378,-3.234515,-0.0070396326,0.9777813,-0.20950939,0
-0.36760801,0.037406191,-2.5448043,-0.0070396326,0.9777813,-0.20950939,0
-3.5509889,0.44563937,1.0634861,-0.60290927,0.16300024,0.78098094,0
-1.3857808,0.37981048,2.6483238,-0.60290927,0.16300024,0.78098094,0
2.5580299,-0.79860157,-0.9841733,0.0070396326,-0.9777813,0.20950939,0
0.81860733,0.9598574,3.0832975,0.79777867,0.13181299,0.58836597,0
3.696177,0.10329031,-0.98505533,0.60290927,-0.16300024,-0.78098094,0
1.3963786,0.97870564,2.0824594,0.79777867,0.13181299,0.58836597,0
3.6707118,0.23270854,-0.81336176,0.79777867,0.13181299,0.58836597,0
0.29637447,-1.0400858,-3.4516959,0.60290927,-0.16300024,-0.78098094,0
0.50588471,-1.1138246,-2.5669198,0.0070396326,-0.9777813,0.20950939,0
3.229672,-0.27922088,-1.3670366,0.60290927,-0.16300024,-0.78098094,0
-0.81683528,-0.77467054,-2.8352754,-0.79777867,-0.13181299,-0.58836597,0
2.6792948,-0.24889717,-1.7981777,0.60290927,-0.16300024,-0.78098094,0
3.1194174,-0.43042392,-1.3173521,0.60290927,-0.16300024,-0.78098094,0
0.738478,0.28567612,3.160111,0.79777867,0.13181299,0.58836597,0
-3.5631816,0.0099489242,0.54157442,-0.79777867,-0.13181299,-0.58836597,0
0.62692118,-0.38085172,-3.2667055,0.60290927,-0.16300024,-0.78098094,0
-2.1736083,0.23945579,2.0815914,-0.60290927,0.16300024,0.78098094,0
2.9857666,0.20573309,0.24820668,0.79777867,0.13181299,0.58836597,0
-0.29000843,-1.3023332,-3.653852,-0.79777867,-0.13181299,-0.58836597,0
-2.423913,0.71833879,1.8814325,-0.60290927,0.16300024,0.78098094,0
-2.3759456,0.71706909,1.7343823,-0.60290927,0.16300024,0.78098094,0
-1.714983,-0.1293758,-1.8885849,-0.79777867,-0.13181299,-0.58836597,0
1.5187768,-0.2974005,-2.6159391,0.60290927,-0.16300024,-0.78098094,0
0.35510349,0.58847916,0.032414477,-0.0070396326,0.9777813,-0.20950939,0
0.43641293,-0.98424983,-3.42135,0.60290927,-0.16300024,-0.78098094,0
0.77683264,-0.7152704,-3.1028452,0.60290927,-0.16300024,-0.78098094,0
-2.9823568,-0.028426126,1.4457402,-0.60290927,0.16300024,0.78098094,0
1.7451032,0.54157686,1.7239684,0.79777867,0.13181299,0.58836597,0
2.4820559,0.47393274,0.71781808,0.79777867,0.13181299,0.58836597,0
-1.473495,-0.71160465,-2.0900917,-0.79777867,-0.13181299,-0.58836597,0
1.8105779,-0.022909928,-2.3343906,0.60290927,-0.16300024,-0.78098094,0
-0.60914671,-0.78050876,-3.2515237,-0.79777867,-0.13181299,-0.58836597,0
-1.7636199,-0.52943802,-1.8554398,-0.79777867,-0.13181299,-0.58836597,0
2.0762329,0.038009223,-2.2014966,0.60290927,-0.16300024,-0.78098094,0
-3.473388,-0.23022491,0.62878263,-0.79777867,-0.13181299,-0.58836597,0
-2.840162,-0.3754732,1.1545743,0.0070396326,-0.9777813,0.20950939,0
-2.8043218,-0.12917918,-0.39333901,-0.79777867,-0.13181299,-0.58836597,0
-1.1308901,-0.14495316,1.6054299,0.0070396326,-0.9777813,0.20950939,0
3.4648092,0.11016336,-0.34082705,0.79777867,0.13181299,0.58836597,0
3.1468554,-0.16413984,0.016565204,0.79777867,0.13181299,0.58836597,0
0.34996617,1.0675387,3.6561685,0.79777867,0.13181299,0.58836597,0
3.2029171,-0.34833255,-1.3404222,0.60290927,-0.16300024,-0.78098094,0
-0.68438542,1.0077251,3.0943413,-0.60290927,0.16300024,0.78098094,0
3.646302,0.014819682,-0.56033731,0.79777867,0.13181299,0.58836597,0
-1.0643971,0.0013181195,-2.3986471,-0.0070396326,0.9777813,-0.20950939,0
-1.268749,-0.54697245,-2.2672212,-0.79777867,-0.13181299,-0.58836597,0
-2.0584333,-0.27560866,-1.4347142,-0.79777867,-0.13181299,-0.58836597,0
1.3344001,0.83536029,2.2632673,0.79777867,0.13181299,0.58836597,0
0.11716861,0.24300161,3.2050304,0.0070396326,-0.9777813,0.20950939,0
2.0977767,0.61639833,1.1862754,0.79777867,0.13181299,0.58836597,0
2.8865829,-0.23810355,-1.4732442,0.60290927,-0.16300024,-0.78098094,0
0.89396513,0.40945223,-0.068371952,-0.0070396326,0.9777813,-0.20950939,0
-0.03750968,0.9238714,2.1300061,-0.0070396326,0.9777813,-0.20950939,0
-2.7562804,0.65400898,1.6228437,-0.60290927,0.16300024,0.78098094,0
-1.6946685,-0.56037843,-1.6710341,-0.79777867,-0.13181299,-0.58836597,0
0.70948672,-0.97731775,-2.1237228,0.0070396326,-0.9777813,0.20950939,0
-1.8691278,-0.6720314,-1.4782573,-0.79777867,-0.13181299,-0.58836597,0
1.1518661,0.31323591,-0.89894688,-0.0070396326,0.9777813,-0.20950939,0
-1.481998,0.89457166,2.428061,-0.60290927,0.16300024,0.78098094,0
-3.2554433,0.12423879,1.1854627,-0.60290927,0.16300024,0.78098094,0
0.10968885,-0.85530436,-3.5004768,0.60290927,-0.16300024,-0.78098094,0
-0.095926046,0.28492352,3.5481038,0.0070396326,-0.9777813,0.20950939,0
1.1313,-1.0351121,-2.7205207,0.0070396326,-0.9777813,0.20950939,0
0.12577295,-1.245051,-3.2641087,0.0070396326,-0.9777813,0.20950939,0
0.720281,-0.33943275,-3.1149938,0.60290927,-0.16300024,-0.78098094,0
-2.8232214,-0.13320808,1.3950188,0.0070396326,-0.9777813,0.20950939,0
-1.8705387,-0.28273314,-1.7733648,-0.79777867,-0.13181299,-0.58836597,0
2.1874151,-0.05686675,1.3157438,0.79777867,0.13181299,0.58836597,0
0.61908168,-0.60495889,-0.7285282,0.0070396326,-0.9777813,0.20950939,0
-3.3297842,-0.3004756,0.33229879,-0.79777867,-0.13181299,-0.58836597,0
0.2607097,-0.59746456,-3.480665,0.60290927,-0.16300024,-0.78098094,0
-1.0308824,-0.42714354,-2.809262,-0.79777867,-0.13181299,-0.58836597,0
-0.42402869,-0.83247948,-3.3371525,-0.79777867,-0.13181299,-0.58836597,0
1.2382898,0.96876979,2.3439009,0.79777867,0.13181299,0.58836597,0
2.1745992,-0.27527341,-2.0092895,0.60290927,-0.16300024,-0.78098094,0
-3.8548622,0.17234148,0.79506046,-0.79777867,-0.13181299,-0.58836597,0
-1.0091391,0.15240531,3.1217096,-0.60290927,0.16300024,0.78098094,0
-0.68442112,-0.64680034,-3.0458906,-0.79777867,-0.13181299,-0.58836597,0
-1.0347856,0.90214914,2.25389,-0.0070396326,0.9777813,-0.20950939,0
-1.4930356,-0.7730999,-1.8839046,-0.79777867,-0.13181299,-0.58836597,0
-1.0118665,0.077869914,2.5869503,0.0070396326,-0.9777813,0.20950939,0
-1.7791164,-0.50364292,-1.7484857,-0.79777867,-0.13181299,-0.58836597,0
0.33067212,-0.34917474,-3.5252016,0.60290927,-0.16300024,-0.78098094,0
-0.042526662,-1.1268921,-3.2237322,0.0070396326,-0.9777813,0.20950939,0
-3.2290263,0.049224168,1.3545276,-0.60290927,0.16300024,0.78098094,0
-0.84832102,-1.0194104,-2.6909015,0.0070396326,-0.9777813,0.20950939,0
2.5834918,-0.12303065,0.66347176,0.79777867,0.13181299,0.58836597,0
-0.1933465,1.0309365,3.5551751,-0.60290927,0.16300024,0.78098094,0
-0.073236018,0.086704992,3.0159917,0.0070396326,-0.9777813,0.20950939,0
1.7959578,-0.20337746,-2.5304801,0.60290927,-0.16300024,-0.78098094,0
-0.38878047,-1.2019006,-3.4765513,-0.79777867,-0.13181299,-0.58836597,0
3.2497675,-0.71836823,-1.1242445,0.60290927,-0.16300024,-0.78098094,0
0.13109615,-0.25935736,1.3350005,0.0070396326,-0.9777813,0.20950939,0
0.78971988,0.61818397,3.141933,0.79777867,0.13181299,0.58836597,0
1.5947754,0.83548307,1.8885432,0.79777867,0.13181299,0.58836597,0
0.84671164,0.88806438,2.9180529,0.79777867,0.13181299,0.58836597,0
-0.82003593,-0.20773408,1.7196819,0.0070396326,-0.9777813,0.20950939,0
0.055186734,0.56297046,0.12201212,-0.0070396326,0.9777813,-0.20950939,0
0.96714073,-0.71178025,-0.80571556,0.0070396326,-0.9777813,0.20950939,0
-0.21738313,0.95738369,3.4265745,-0.60290927,0.16300024,0.78098094,0
2.940424,-0.62625235,-0.55404449,0.0070396326,-0.9777813,0.20950939,0
-0.26804081,1.1181899,3.3062148,-0.60290927,0.16300024,0.78098094,0
0.22620295,0.77755302,1.1144809,-0.0070396326,0.9777813,-0.20950939,0
-1.6391098,0.76015174,2.3233881,-0.60290927,0.16300024,0.78098094,0
0.68784827,-1.0811067,-2.9074817,0.0070396326,-0.9777813,0.20950939,0
-0.21602681,0.60107094,3.592978,-0.60290927,0.16300024,0.78098094,0
-2.1995037,0.034334511,-1.2874823,-0.79777867,-0.13181299,-0.58836597,0
-2.4272535,0.26226589,-0.69232082,-0.0070396326,0.9777813,-0.20950939,0
0.69684708,1.0503596,2.8407018,-0.0070396326,0.9777813,-0.20950939,0
-1.0024176,-0.76637483,-1.5320868,0.0070396326,-0.9777813,0.20950939,0
3.5216451,0.27396303,-0.71543944,0.79777867,0.13181299,0.58836597,0
-2.9446061,0.039582834,-0.32181931,-0.79777867,-0.13181299,-0.58836597,0
1.6944983,-0.38679406,0.056142911,0.0070396326,-0.9777813,0.20950939,0
2.2781863,0.29453629,0.95685267,0.79777867,0.13181299,0.58836597,0
-2.681087,0.57274967,1.6702154,-0.60290927,0.16300024,0.78098094,0
0.40601641,-0.31115356,0.68459988,0.0070396326,-0.9777813,0.20950939,0
-1.6394604,0.47610721,2.4860494,-0.60290927,0.16300024,0.78098094,0
-0.56420958,-1.0027437,-1.9252739,0.0070396326,-0.9777813,0.20950939,0
-1.3923808,-0.26991302,1.1852757,0.0070396326,-0.9777813,0.20950939,0
-3.4610953,0.26804656,0.2772187,-0.79777867,-0.13181299,-0.58836597,0
0.57337451,-1.0421835,-3.3054698,0.60290927,-0.16300024,-0.78098094,0
2.9346783,-0.28569788,-1.5334969,0.60290927,-0.16300024,-0.78098094,0
-1.8808658,-0.66631776,-0.45783487,0.0070396326,-0.9777813,0.20950939,0
2.7148838,-0.55487102,-0.60810995,0.0070396326,-0.9777813,0.20950939,0
1.1667812,-0.70862025,-2.7244909,0.60290927,-0.16300024,-0.78098094,0
-2.5359516,0.81733018,1.4444376,-0.0070396326,0.9777813,-0.20950939,0
-1.6100647,0.82029343,2.3170278,-0.60290927,0.16300024,0.78098094,0
2.2139344,-0.48412853,-0.40949047,0.0070396326,-0.9777813,0.20950939,0
0.26521769,0.32714912,-1.0454292,-0.0070396326,0.9777813,-0.20950939,0
-1.6736472,0.46540147,2.3360002,-0.60290927,0.16300024,0.78098094,0
2.6206417,0.29343894,0.73841453,0.79777867,0.13181299,0.58836597,0
2.2013206,0.66567236,1.1241385,0.79777867,0.13181299,0.58836597,0
-0.38332933,0.28872186,3.3931241,-0.60290927,0.16300024,0.78098094,0
-1.9196637,-0.74522638,-0.74201965,0.0070396326,-0.9777813,0.20950939,0
0.67837584,0.97042489,2.5560031,-0.0070396326,0.9777813,-0.20950939,0
0.90566969,0.045951143,2.349546,0.0070396326,-0.9777813,0.20950939,0
-1.7922442,0.87015039,2.1937854,-0.60290927,0.16300024,0.78098094,0
2.3704972,-0.89921737,-1.8344963,0.0070396326,-0.9777813,0.20950939,0
2.141314,-0.66310376,-0.69674134,0.0070396326,-0.9777813,0.20950939,0
-0.3002634,-0.80162954,-1.4719782,0.0070396326,-0.9777813,0.20950939,0
2.8187428,-0.29277417,0.39483887,0.79777867,0.13181299,0.58836597,0
-2.1128719,-0.36465609,-1.390415,-0.79777867,-0.13181299,-0.58836597,0
3.0182567,-0.45199424,0.092257053,0.0070396326,-0.9777813,0.20950939,0
-0.24521895,-0.66716033,-0.87232494,0.0070396326,-0.9777813,0.20950939,0
-0.42854601,-0.96330732,-3.4812069,-0.79777867,-0.13181299,-0.58836597,0
-2.9448409,-0.48197597,-0.29923308,-0.79777867,-0.13181299,-0.58836597,0
2.2097809,0.1170326,-2.1551926,0.60290927,-0.16300024,-0.78098094,0
-0.93678528,-0.62627238,-0.68763316,0.0070396326,-0.9777813,0.20950939,0
-1.6803508,-0.61027348,-1.8850172,-0.79777867,-0.13181299,-0.58836597,0
-1.2942671,-0.014105834,-2.3540516,-0.0070396326,0.9777813,-0.20950939,0
3.3135457,-0.33310062,-0.12293231,0.79777867,0.13181299,0.58836597,0
0.71860504,0.075028636,-2.4645934,-0.0070396326,0.9777813,-0.20950939,0
-0.98355317,-1.0711526,-2.7849455,-0.79777867,-0.13181299,-0.58836597,0
0.94832182,0.04766034,-2.3987651,-0.0070396326,0.9777813,-0.20950939,0
3.1756923,-0.76766527,-1.2258379,0.60290927,-0.16300024,-0.78098094,0
1.1577661,0.99952447,2.3709204,0.79777867,0.13181299,0.58836597,0
-0.66307771,0.60559493,3.145679,-0.60290927,0.16300024,0.78098094,0
2.619523,0.34716207,0.77954435,0.79777867,0.13181299,0.58836597,0
0.03814882,-1.1121184,-3.5000355,0.60290927,-0.16300024,-0.78098094,0
1.2878017,0.51602399,2.2450001,0.79777867,0.13181299,0.58836597,0
-0.92715567,0.89576972,2.8809128,-0.60290927,0.16300024,0.78098094,0
2.5115879,0.21857858,-1.5109432,-0.0070396326,0.9777813,-0.20950939,0
1.73733,0.19265056,1.7864342,0.79777867,0.13181299,0.58836597,0
-0.95690715,0.07339301,-1.6621941,-0.0070396326,0.9777813,-0.20950939,0
0.43719891,-0.65505439,-3.4330411,0.60290927,-0.16300024,-0.78098094,0
-0.52852136,1.0879285,3.0409036,-0.0070396326,0.9777813,-0.20950939,0
-2.5545149,-0.25222898,-0.77714562,-0.79777867,-0.13181299,-0.58836597,0
1.7951802,0.079178274,1.9306486,0.79777867,0.13181299,0.58836597,0
-1.6423811,0.082119629,2.4725308,-0.60290927,0.16300024,0.78098094,0
1.1641781,0.34752131,-0.57410318,-0.0070396326,0.9777813,-0.20950939,0
2.5080502,0.34285337,0.80542964,0.79777867,0.13181299,0.58836597,0
3.6623783,-0.70588684,-0.8716985,0.0070396326,-0.9777813,0.20950939,0
-1.1447244,0.49581471,2.9421279,-0.60290927,0.16300024,0.78098094,0
2.582212,0.46668354,0.77485567,0.79777867,0.13181299,0.58836597,0
-1.9419416,-0.49755779,0.05192402,0.0070396326,-0.9777813,0.20950939,0
-2.1754217,-0.5099563,-1.2600937,-0.79777867,-0.13181299,-0.58836597,0
-2.343219,0.10247772,2.0155716,-0.60290927,0.16300024,0.78098094,0
3.1166844,0.55663365,-0.14573479,0.79777867,0.13181299,0.58836597,0
1.0575464,-0.23125294,1.1033562,0.0070396326,-0.9777813,0.20950939,0
-0.91935813,0.20895435,3.1420894,-0.60290927,0.16300024,0.78098094,0
-0.049806476,-0.40076059,-3.7332292,0.60290927,-0.16300024,-0.78098094,0
0.15890324,-1.0664455,-3.4580882,0.60290927,-0.16300024,-0.78098094,0
-2.3530083,0.149592,-0.9661296,-0.79777867,-0.13181299,-0.58836597,0
2.558228,0.061196253,0.63485783,0.79777867,0.13181299,0.58836597,0
-3.0169454,0.025037408,-0.27130005,-0.79777867,-0.13181299,-0.58836597,0
0.83412963,-0.36787981,-3.1947489,0.60290927,-0.16300024,-0.78098094,0
-1.2148418,-1.0597092,-2.2199168,0.0070396326,-0.9777813,0.20950939,0
-0.5739097,-0.2610642,-3.2660801,-0.79777867,-0.13181299,-0.58836597,0
-3.451395,-0.067624047,0.5573349,-0.79777867,-0.13181299,-0.58836597,0
-0.59203625,-0.25417072,1.0293508,0.0070396326,-0.9777813,0.20950939,0
-1.2030098,0.95428193,2.1845236,-0.0070396326,0.9777813,-0.20950939,0
0.24613583,1.275423,3.6709113,-0.60290927,0.16300024,0.78098094,0
3.5763733,0.40892726,-0.98583001,-0.0070396326,0.9777813,-0.20950939,0
0.94668752,-0.0093442686,-2.193053,-0.0070396326,0.9777813,-0.20950939,0
-0.34831655,-0.15930578,-3.2799551,-0.0070396326,0.9777813,-0.20950939,0
-3.2221718,0.16625094,1.3981607,-0.60290927,0.16300024,0.78098094,0
0.95612407,0.32921541,2.9439206,0.79777867,0.13181299,0.58836597,0
-3.2784276,0.14253274,1.2389957,-0.60290927,0.16300024,0.78098094,0
-2.7963862,0.42277765,-0.3822858,-0.0070396326,0.9777813,-0.20950939,0
3.7244821,-0.57373136,-0.70854735,0.79777867,0.13181299,0.58836597,0
-3.1303456,-0.39574072,0.11031806,-0.79777867,-0.13181299,-0.58836597,0
2.8315451,-0.39219344,-1.5903084,0.60290927,-0.16300024,-0.78098094,0
1.7072864,0.090087637,1.7678049,0.79777867,0.13181299,0.58836597,0
-3.5589061,0.27735734,0.39043123,-0.79777867,-0.13181299,-0.58836597,0
-0.93565643,0.66309297,3.0813625,-0.60290927,0.16300024,0.78098094,0
0.82400167,-0.92184711,-2.3310432,0.0070396326,-0.9777813,0.20950939,0
-2.2414732,0.71848184,1.0658823,-0.0070396326,0.9777813,-0.20950939,0
-2.0548863,-0.67502701,-0.39306006,0.0070396326,-0.9777813,0.20950939,0
-1.5462787,0.57281196,2.6357229,-0.60290927,0.16300024,0.78098094,0
1.3076468,0.87635893,2.1922116,0.79777867,0.13181299,0.58836597,0
-1.0905713,0.18456964,2.8439939,-0.60290927,0.16300024,0.78098094,0
-3.0372713,0.15794142,1.5430475,-0.60290927,0.16300024,0.78098094,0
1.3942726,-0.11342874,-2.8416967,0.60290927,-0.16300024,-0.78098094,0
-2.6472273,-0.67643237,-0.39052004,0.0070396326,-0.9777813,0.20950939,0
3.2040401,-0.61637747,-1.3325431,0.60290927,-0.16300024,-0.78098094,0
0.87904787,-0.36466566,-3.1927173,0.60290927,-0.16300024,-0.78098094,0
1.9893218,0.43595022,-0.018043086,-0.0070396326,0.9777813,-0.20950939,0
1.4828215,0.44028378,-0.76173872,-0.0070396326,0.9777813,-0.20950939,0
3.2066903,-0.72026938,-0.90634203,0.0070396326,-0.9777813,0.20950939,0
-1.0392593,0.25156054,2.9098139,-0.60290927,0.16300024,0.78098094,0
2.1762133,0.34180105,1.2237731,0.79777867,0.13181299,0.58836597,0
-2.8478236,0.065122649,-0.27015138,-0.79777867,-0.13181299,-0.58836597,0
-1.707095,-0.84516126,-1.1904525,0.0070396326,-0.9777813,0.20950939,0
0.27899545,0.1259937,-1.5924557,-0.0070396326,0.9777813,-0.20950939,0
1.2024035,-0.70847166,-0.63436037,0.0070396326,-0.9777813,0.20950939,0
-2.1181102,-0.0057611018,-1.5068994,-0.79777867,-0.13181299,-0.58836597,0
1.3946892,0.0031836331,2.030499,0.0070396326,-0.9777813,0.20950939,0
1.452527,0.58739573,2.006938,0.79777867,0.13181299,0.58836597,0
2.2183666,-0.56888175,-0.70463741,0.0070396326,-0.9777813,0.20950939,0
0.88613915,-1.0563205,-3.0125649,0.60290927,-0.16300024,-0.78098094,0
1.1960558,-0.98908615,-2.2938783,0.0070396326,-0.9777813,0.20950939,0
2.0863702,-0.6246739,-2.1753936,0.60290927,-0.16300024,-0.78098094,0
0.53342587,0.19413337,2.8085909,0.0070396326,-0.9777813,0.20950939,0
3.097883,-0.026392296,0.19419624,0.79777867,0.13181299,0.58836597,0
0.70605671,-0.68603081,-0.48523754,0.0070396326,-0.9777813,0.20950939,0
-0.95607847,0.6663298,2.8438561,-0.60290927,0.16300024,0.78098094,0
3.5390325,-0.059491411,-0.99584746,0.60290927,-0.16300024,-0.78098094,0
-2.8957191,-0.38753235,0.20228088,0.0070396326,-0.9777813,0.20950939,0
-0.91843736,0.42238864,3.0361872,-0.60290927,0.16300024,0.78098094,0
-0.14868486,-0.34414512,-3.8972874,-0.0070396326,0.9777813,-0.20950939,0
-3.813926,0.52433598,0.81847984,-0.60290927,0.16300024,0.78098094,0
0.84840572,0.6692456,0.99188679,-0.0070396326,0.9777813,-0.20950939,0
-1.4383426,-0.1617192,-2.2474346,-0.79777867,-0.13181299,-0.58836597,0
3.4910724,-0.29053712,-0.39088488,0.79777867,0.13181299,0.58836597,0
2.7539713,-0.14723268,-1.7775929,0.60290927,-0.16300024,-0.78098094,0
-0.83342367,-1.0648403,-3.0381143,-0.79777867,-0.13181299,-0.58836597,0
-2.361737,-0.10916321,-1.1155676,-0.79777867,-0.13181299,-0.58836597,0
-2.8262055,0.53884733,1.6671066,-0.60290927,0.16300024,0.78098094,0
-0.66939485,-0.94320571,-2.1865096,0.0070396326,-0.9777813,0.20950939,0
-1.8277776,-0.043916211,-1.6694509,-0.79777867,-0.13181299,-0.58836597,0
-3.6577046,0.5298996,0.6308136,-0.0070396326,0.9777813,-0.20950939,0
2.6594524,0.21082035,-1.8370583,0.60290927,-0.16300024,-0.78098094,0
-0.88706958,-0.3103058,1.1164587,0.0070396326,-0.9777813,0.20950939,0
-0.2464685,0.72406942,0.63826096,-0.0070396326,0.9777813,-0.20950939,0
3.0589979,-0.56940567,-0.5518226,0.0070396326,-0.9777813,0.20950939,0
0.29910648,0.87702799,3.5024507,0.79777867,0.13181299,0.58836597,0
-0.68121254,-0.17313857,1.140233,0.0070396326,-0.9777813,0.20950939,0
3.4129314,-0.39330935,-0.25461692,0.79777867,0.13181299,0.58836597,0
-0.0040252805,0.26121864,3.8887124,-0.60290927,0.16300024,0.78098094,0
0.2043725,0.96699858,2.4771485,-0.0070396326,0.9777813,-0.20950939,0
-2.9859393,-0.11536568,1.625133,-0.60290927,0.16300024,0.78098094,0
-1.1286249,-0.4075706,-2.5514636,-0.79777867,-0.13181299,-0.58836597,0
0.16860086,0.82631528,3.8219471,-0.60290927,0.16300024,0.78098094,0
2.7679071,-0.28755775,-1.6198373,0.60290927,-0.16300024,-0.78098094,0
-1.5218697,0.54862237,2.5735061,-0.60290927,0.16300024,0.78098094,0
3.1709106,0.095288567,-1.5104868,0.60290927,-0.16300024,-0.78098094,0
0.20167351,0.1246642,2.8647671,0.0070396326,-0.9777813,0.20950939,0
0.0052817464,1.2330208,3.6042323,-0.60290927,0.16300024,0.78098094,0
0.31163648,0.19671175,-1.3644416,-0.0070396326,0.9777813,-0.20950939,0
-0.30103749,-0.73421717,-1.4871039,0.0070396326,-0.9777813,0.20950939,0
-2.6750491,0.7229017,1.0383224,-0.0070396326,0.9777813,-0.20950939,0
0.011492714,-0.16100568,1.1634375,0.0070396326,-0.9777813,0.20950939,0
-1.3363099,0.35660645,2.7833233,-0.60290927,0.16300024,0.78098094,0
-0.52688366,-0.7606166,-3.3882914,-0.79777867,-0.13181299,-0.58836597,0
-0.79966491,-0.17280164,1.3015735,0.0070396326,-0.9777813,0.20950939,0
0.46920961,0.92307091,3.4116254,0.79777867,0.13181299,0.58836597,0
-2.7924852,-0.019852743,1.5835867,-0.60290927,0.16300024,0.78098094,0
1.8138098,-0.37155464,-2.3792086,0.60290927,-0.16300024,-0.78098094,0
-3.3940582,-0.2124235,0.30212888,-0.79777867,-0.13181299,-0.58836597,0
2.8726587,-0.69429135,-0.8270036,0.0070396326,-0.9777813,0.20950939,0
-0.053257316,0.89669162,3.7407112,-0.60290927,0.16300024,0.78098094,0
2.2035339,-0.54131347,-0.43189135,0.0070396326,-0.9777813,0.20950939,0
3.4880962,-0.12529139,-1.0745695,0.60290927,-0.16300024,-0.78098094,0
1.7497344,-0.057786204,-2.4628429,0.60290927,-0.16300024,-0.78098094,0
-0.23725571,0.37552884,-0.90488809,-0.0070396326,0.9777813,-0.20950939,0
0.89201552,0.13529231,2.520606,0.0070396326,-0.9777813,0.20950939,0
-1.8520528,-0.045441784,2.4851665,-0.60290927,0.16300024,0.78098094,0
3.2272344,-0.15260269,-1.4354105,0.60290927,-0.16300024,-0.78098094,0
-3.4473138,0.28342485,1.0466714,-0.60290927,0.16300024,0.78098094,0
-2.3012757,-0.6866858,-1.0349472,-0.79777867,-0.13181299,-0.58836597,0
1.4156857,-0.57874411,-0.34862143,0.0070396326,-0.9777813,0.20950939,0
-2.6635561,0.64459276,1.7623899,-0.60290927,0.16300024,0.78098094,0
1.944795,-0.2733376,-2.408916,0.60290927,-0.16300024,-0.78098094,0
2.5900388,-0.81860894,-1.5684462,0.60290927,-0.16300024,-0.78098094,0
0.31550533,1.2535206,3.6273134,-0.0070396326,0.9777813,-0.20950939,0
1.2928479,-0.042399239,-2.4087777,-0.0070396326,0.9777813,-0.20950939,0
-1.7660557,-0.24146692,1.3413039,0.0070396326,-0.9777813,0.20950939,0
-2.4052742,0.6728158,1.7196388,-0.60290927,0.16300024,0.78098094,0
-2.8918984,-0.097953744,-0.31084508,-0.79777867,-0.13181299,-0.58836597,0
-3.0927033,0.40655017,-0.19296889,-0.79777867,-0.13181299,-0.58836597,0
-2.1427312,-0.65275097,-1.0898858,-0.79777867,-0.13181299,-0.58836597,0
-0.89508998,-0.68153292,-2.9808466,-0.79777867,-0.13181299,-0.58836597,0
2.9708977,0.14977255,-1.4812239,0.60290927,-0.16300024,-0.78098094,0
0.89803267,0.35030937,-0.37782562,-0.0070396326,0.9777813,-0.20950939,0
-1.380191,0.8630622,1.3760539,-0.0070396326,0.9777813,-0.20950939,0
-2.7885985,-0.066395484,-0.54993939,-0.79777867,-0.13181299,-0.58836597,0
-0.36129329,1.1124049,2.3657129,-0.0070396326,0.9777813,-0.20950939,0
-2.0912189,0.8343358,1.9522271,-0.60290927,0.16300024,0.78098094,0
-0.89552683,0.88264179,3.0363016,-0.60290927,0.16300024,0.78098094,0
3.0533304,0.066098019,0.22026816,0.79777867,0.13181299,0.58836597,0
-2.542907,-0.018346965,-0.89246333,-0.79777867,-0.13181299,-0.58836597,0
3.2256069,-0.0089685768,-1.2741501,0.60290927,-0.16300024,-0.78098094,0
-0.095600128,0.5480864,3.7219682,-0.60290927,0.16300024,0.78098094,0
0.074183092,0.54818755,0.038473044,-0.0070396326,0.9777813,-0.20950939,0
0.27639067,-0.27131072,1.0705936,0.0070396326,-0.9777813,0.20950939,0
-0.62580204,-1.1798897,-2.8785779,0.0070396326,-0.9777813,0.20950939,0
0.066628218,0.09847156,3.0123141,0.0070396326,-0.9777813,0.20950939,0
0.63280368,1.0710274,3.2790828,0.79777867,0.13181299,0.58836597,0
-0.1887708,0.44763839,3.6946669,-0.60290927,0.16300024,0.78098094,0
-2.6630404,0.36579019,1.6002924,-0.60290927,0.16300024,0.78098094,0
3.4318774,-0.51474595,-1.1116282,0.60290927,-0.16300024,-0.78098094,0
-1.0777738,-0.047346368,-2.7526808,-0.79777867,-0.13181299,-0.58836597,0
-1.7304389,0.45626679,2.4892597,-0.60290927,0.16300024,0.78098094,0
-2.9363599,-0.57664847,-0.20160687,-0.79777867,-0.13181299,-0.58836597,0
-0.8953765,-0.51814723,-2.8482614,-0.79777867,-0.13181299,-0.58836597,0
-3.4627745,0.40139228,1.0938946,-0.60290927,0.16300024,0.78098094,0
-1.9420723,0.37251258,2.2279444,-0.60290927,0.16300024,0.78098094,0
0.61630547,0.84664261,3.2486045,0.79777867,0.13181299,0.58836597,0
-1.3528702,0.013283789,-2.1465049,-0.0070396326,0.9777813,-0.20950939,0
1.304204,-0.84394425,-1.3518069,0.0070396326,-0.9777813,0.20950939,0
-3.0079765,-0.42280594,-0.029746622,-0.79777867,-0.13181299,-0.58836597,0
0.84588635,-1.0989826,-3.0769815,0.60290927,-0.16300024,-0.78098094,0
1.3405882,0.85148907,1.5646387,-0.0070396326,0.9777813,-0.20950939,0
3.1952679,-0.049485192,-1.2475395,0.60290927,-0.16300024,-0.78098094,0
-3.6933248,0.14365983,1.0206796,-0.60290927,0.16300024,0.78098094,0
-1.7129083,-0.26131392,0.80707026,0.0070396326,-0.9777813,0.20950939,0
-3.1802115,0.71752632,0.79458153,-0.0070396326,0.9777813,-0.20950939,0
-0.55278289,0.84538418,3.1357927,-0.60290927,0.16300024,0.78098094,0
0.22187465,1.2582247,3.5460184,0.79777867,0.13181299,0.58836597,0
-0.92442,1.0013458,2.8627155,-0.60290927,0.16300024,0.78098094,0
0.012133151,-0.62735468,-3.695714,0.60290927,-0.16300024,-0.78098094,0
-1.4120507,0.48296759,-0.20734417,-0.0070396326,0.9777813,-0.20950939,0
-1.016794,-1.1286362,-2.4122915,0.0070396326,-0.9777813,0.20950939,0
-1.3629119,1.0454021,2.3067796,-0.0070396326,0.9777813,-0.20950939,0
-0.47698286,0.42213464,3.324517,-0.60290927,0.16300024,0.78098094,0
-0.63482726,0.57338256,3.1592207,-0.60290927,0.16300024,0.78098094,0
2.0756865,0.40621448,1.1954261,0.79777867,0.13181299,0.58836597,0
-0.62433881,-0.28299889,-3.2631006,-0.79777867,-0.13181299,-0.58836597,0
-2.6890709,-0.54576403,0.21137935,0.0070396326,-0.9777813,0.20950939,0
-0.48052424,0.18446451,-1.3388649,-0.0070396326,0.9777813,-0.20950939,0
2.3401167,-0.31727529,-1.9840591,0.60290927,-0.16300024,-0.78098094,0
3.4870923,-0.63864607,-0.29193664,0.0070396326,-0.9777813,0.20950939,0
-1.5274893,0.28753924,2.528163,-0.60290927,0.16300024,0.78098094,0
2.7571476,0.6377871,0.34542939,-0.0070396326,0.9777813,-0.20950939,0
-2.8514004,0.23185809,-0.32757556,-0.79777867,-0.13181299,-0.58836597,0
0.091404647,0.92682654,3.6669872,-0.60290927,0.16300024,0.78098094,0
2.7891145,-0.022650346,0.55159342,0.79777867,0.13181299,0.58836597,0
-0.66332424,1.0972649,3.0148156,-0.60290927,0.16300024,0.78098094,0
3.1767876,-0.53512383,-1.1987879,0.60290927,-0.16300024,-0.78098094,0
-1.719252,-0.57872331,0.16856903,0.0070396326,-0.9777813,0.20950939,0
-0.98159337,0.13014829,2.6681051,0.0070396326,-0.9777813,0.20950939,0
1.245348,-0.83635539,-1.3174347,0.0070396326,-0.9777813,0.20950939,0
-1.9264183,0.9957031,2.1883452,-0.60290927,0.16300024,0.78098094,0
1.8477101,0.60177952,1.5262932,0.79777867,0.13181299,0.58836597,0
-1.2842875,0.39120817,-0.52357656,-0.0070396326,0.9777813,-0.20950939,0
3.3151665,-0.36457592,-1.2891845,0.60290927,-0.16300024,-0.78098094,0
1.1864756,-0.47480464,-2.7144928,0.60290927,-0.16300024,-0.78098094,0
-1.2278763,-0.95768893,-1.5857835,0.0070396326,-0.9777813,0.20950939,0
0.23399833,-1.1615868,-3.3385215,0.60290927,-0.16300024,-0.78098094,0
-0.28876424,-0.86943871,-3.5159807,-0.79777867,-0.13181299,-0.58836597,0
2.3700671,0.59746218,1.0215436,0.79777867,0.13181299,0.58836597,0
-3.6852567,0.46046105,0.965119,-0.60290927,0.16300024,0.78098094,0
-3.3118675,0.17598923,0.048754334,-0.79777867,-0.13181299,-0.58836597,0
-0.094142735,-0.42024562,-3.8579674,0.60290927,-0.16300024,-0.78098094,0
0.8429811,0.52450091,2.9423418,0.79777867,0.13181299,0.58836597,0
-3.3346839,0.46738455,0.11060145,-0.79777867,-0.13181299,-0.58836597,0
1.6416286,0.53701609,0.061227329,-0.0070396326,0.9777813,-0.20950939,0
-3.2387438,0.50833035,1.1956925,-0.60290927,0.16300024,0.78098094,0
1.0648879,-0.59961671,-0.099501163,0.0070396326,-0.9777813,0.20950939,0
-3.2671914,-4.4852495e-06,0.029151231,-0.79777867,-0.13181299,-0.58836597,0
-0.84711349,0.18978196,3.2394881,-0.60290927,0.16300024,0.78098094,0
0.60864592,0.73874837,1.3370312,-0.0070396326,0.9777813,-0.20950939,0
-2.3316693,0.18727046,2.0050402,-0.60290927,0.16300024,0.78098094,0
-2.8741369,-0.13393,1.592798,-0.60290927,0.16300024,0.78098094,0
1.1796783,0.33782309,2.6049209,0.79777867,0.13181299,0.58836597,0
-2.0466709,0.19621187,2.1806998,-0.60290927,0.16300024,0.78098094,0
3.3980691,0.011088118,-0.39894602,0.79777867,0.13181299,0.58836597,0
-3.5197122,0.37683621,0.92729193,-0.60290927,0.16300024,0.78098094,0
2.2987883,-0.55314052,-1.9893968,0.60290927,-0.16300024,-0.78098094,0
1.4882071,0.61424452,2.0919039,0.79777867,0.13181299,0.58836597,0
-1.5273063,-0.74243152,-1.4633769,0.0070396326,-0.9777813,0.20950939,0
1.1787971,0.45687923,0.098665051,-0.0070396326,0.9777813,-0.20950939,0
1.3148029,0.64629638,2.4063129,0.79777867,0.13181299,0.58836597,0
-0.5779658,0.15595534,3.3135941,0.0070396326,-0.9777813,0.20950939,0
-2.2280006,-0.63353819,-0.56576234,0.0070396326,-0.9777813,0.20950939,0
-1.317129,0.15303728,2.7297652,0.0070396326,-0.9777813,0.20950939,0
2.2131469,-0.30190617,-2.0124838,0.60290927,-0.16300024,-0.78098094,0
2.4332023,0.086401612,0.78059924,0.79777867,0.13181299,0.58836597,0
3.7292855,-0.10244633,-0.82653821,0.60290927,-0.16300024,-0.78098094,0
1.7407047,-0.9531765,-2.2731619,0.60290927,-0.16300024,-0.78098094,0
1.5714369,0.20612827,-1.1181831,-0.0070396326,0.9777813,-0.20950939,0
-2.1062741,0.58904332,1.9973028,-0.60290927,0.16300024,0.78098094,0
1.6503274,-0.40498132,-2.405549,0.60290927,-0.16300024,-0.78098094,0
-3.0609841,0.39790484,-0.044996262,-0.79777867,-0.13181299,-0.58836597,0
1.3412352,0.47837722,-0.31187505,-0.0070396326,0.9777813,-0.20950939,0
0.0062824432,-0.57122624,-0.083764635,0.0070396326,-0.9777813,0.20950939,0
0.10349777,-1.2771051,-3.5903397,0.60290927,-0.16300024,-0.78098094,0
-0.051269937,0.5261941,0.50851339,-0.0070396326,0.9777813,-0.20950939,0
0.91407233,-1.0567485,-2.333847,0.0070396326,-0.9777813,0.20950939,0
-0.18842861,-1.2330025,-2.8893497,0.0070396326,-0.9777813,0.20950939,0
1.1044493,0.1213163,-1.5731435,-0.0070396326,0.9777813,-0.20950939,0
1.7233399,-0.03067793,1.7638116,0.79777867,0.13181299,0.58836597,0
-0.63656408,0.53334713,-0.08119376,-0.0070396326,0.9777813,-0.20950939,0
-3.4467843,0.47859946,0.47846437,-0.79777867,-0.13181299,-0.58836597,0
2.0232239,-0.63757485,-2.1983197,0.60290927,-0.16300024,-0.78098094,0
-3.1315541,0.0061393827,-0.034101874,-0.79777867,-0.13181299,-0.58836597,0
-3.4736156,-0.28484952,1.2735415,-0.60290927,0.16300024,0.78098094,0
0.69129723,-1.065519,-2.2006488,0.0070396326,-0.9777813,0.20950939,0
-2.558248,0.36766431,-0.85282958,-0.79777867,-0.13181299,-0.58836597,0
-2.2619193,0.93071944,1.7011583,-0.0070396326,0.9777813,-0.20950939,0
-1.1257279,-1.0136909,-2.6348841,-0.79777867,-0.13181299,-0.58836597,0
-0.17708357,-0.61329317,-0.76945448,0.0070396326,-0.9777813,0.20950939,0
-3.1882122,-0.28132364,0.2917186,-0.79777867,-0.13181299,-0.58836597,0
0.58100998,0.99821556,3.2149811,0.79777867,0.13181299,0.58836597,0
-3.4357274,-0.22168572,1.109797,-0.60290927,0.16300024,0.78098094,0
-0.45756435,-0.87863058,-3.3635893,-0.79777867,-0.13181299,-0.58836597,0
0.33553869,0.84010357,3.5751624,0.79777867,0.13181299,0.58836597,0
-1.6360948,0.98871827,2.3018727,-0.0070396326,0.9777813,-0.20950939,0
-2.7631073,-0.069363289,1.7006149,-0.60290927,0.16300024,0.78098094,0
0.26508018,-0.50485748,0.14545521,0.0070396326,-0.9777813,0.20950939,0
-0.11588192,0.11645751,2.9125404,0.0070396326,-0.9777813,0.20950939,0
0.54414356,0.81498396,3.2099373,0.79777867,0.13181299,0.58836597,0
-0.21279706,0.37894058,3.6138105,-0.60290927,0.16300024,0.78098094,0
0.80052727,0.57070136,2.9332852,0.79777867,0.13181299,0.58836597,0
0.78737807,-0.026560854,-2.8709826,-0.0070396326,0.9777813,-0.20950939,0
2.9054005,-0.094827503,0.34049278,0.79777867,0.13181299,0.58836597,0
2.8089266,-0.13588876,0.55918407,0.79777867,0.13181299,0.58836597,0
-0.67703766,-0.93121076,-3.1567316,-0.79777867,-0.13181299,-0.58836597,0
3.3904915,-0.15083978,-0.22000179,0.79777867,0.13181299,0.58836597,0
-0.80007285,-0.8970837,-1.5469743,0.0070396326,-0.9777813,0.20950939,0
1.1843871,0.86839753,1.7019358,-0.0070396326,0.9777813,-0.20950939,0
-2.3567262,-0.32006311,1.3943528,0.0070396326,-0.9777813,0.20950939,0
1.2513573,-0.38401788,-2.7056503,0.60290927,-0.16300024,-0.78098094,0
1.9234124,-0.6087535,-0.53106219,0.0070396326,-0.9777813,0.20950939,0
-3.5337965,0.32010871,0.56054372,-0.79777867,-0.13181299,-0.58836597,0
-0.54426038,-0.27384543,-3.4161594,-0.79777867,-0.13181299,-0.58836597,0
2.209316,-0.054823391,-2.0275321,0.60290927,-0.16300024,-0.78098094,0
0.044101119,0.50371736,3.6489639,-0.60290927,0.16300024,0.78098094,0
-0.67920983,0.85775065,1.2455872,-0.0070396326,0.9777813,-0.20950939,0
3.6577144,-0.35767835,-0.49258429,0.79777867,0.13181299,0.58836597,0
-0.32860598,-1.1626248,-3.1748619,0.0070396326,-0.9777813,0.20950939,0
-0.10151204,0.74604654,3.5418971,-0.60290927,0.16300024,0.78098094,0
1.4519956,-0.65986431,-0.95114255,0.0070396326,-0.9777813,0.20950939,0
2.0578368,-0.63616145,-1.0134761,0.0070396326,-0.9777813,0.20950939,0
-0.40379143,0.65244812,3.3831284,-0.60290927,0.16300024,0.78098094,0
-0.40475228,0.6344282,3.3113899,-0.60290927,0.16300024,0.78098094,0
3.5452805,0.19934839,-0.56832379,0.79777867,0.13181299,0.58836597,0
0.16861865,-0.02247525,2.2740533,0.0070396326,-0.9777813,0.20950939,0
-0.77525681,-0.87441838,-2.900389,-0.79777867,-0.13181299,-0.58836597,0
-1.7357624,-0.17049053,1.8697674,0.0070396326,-0.9777813,0.20950939,0
-2.0819125,-0.55920237,-1.393576,-0.79777867,-0.13181299,-0.58836597,0
2.325722,0.052040324,1.0773925,0.79777867,0.13181299,0.58836597,0
-2.2625558,0.16483152,-1.2374558,-0.79777867,-0.13181299,-0.58836597,0
0.90345436,0.27633047,-0.98336858,-0.0070396326,0.9777813,-0.20950939,0
-3.0179296,0.24684086,1.5161932,-0.60290927,0.16300024,0.78098094,0
0.51027483,-0.23068142,-3.3963349,-0.0070396326,0.9777813,-0.20950939,0
-0.65963364,0.93275869,3.2127798,-0.60290927,0.16300024,0.78098094,0
-2.5244231,0.24300708,-0.84241074,-0.79777867,-0.13181299,-0.58836597,0
0.6856187,-0.021603664,-2.4804602,-0.0070396326,0.9777813,-0.20950939,0
-1.0945921,0.81709599,2.7359681,-0.60290927,0.16300024,0.78098094,0
1.8971602,-0.56241435,-2.196295,0.60290927,-0.16300024,-0.78098094,0
1.7335174,0.63771701,1.7031336,0.79777867,0.13181299,0.58836597,0
-2.9785838,0.41049284,-0.20425636,-0.79777867,-0.13181299,-0.58836597,0
0.79805475,-0.649225,-2.9628448,0.60290927,-0.16300024,-0.78098094,0
-1.4861262,0.54789519,0.00041772425,-0.0070396326,0.9777813,-0.20950939,0
-0.29352486,1.1530124,3.4515338,-0.60290927,0.16300024,0.78098094,0
0.67501241,0.6479646,0.14490451,-0.0070396326,0.9777813,-0.20950939,0
-3.4040186,0.18144,1.2814331,-0.60290927,0.16300024,0.78098094,0
-2.6914756,0.067425475,1.7351501,-0.60290927,0.16300024,0.78098094,0
-2.794523,-0.039239392,-0.48886234,-0.79777867,-0.13181299,-0.58836597,0
2.5749438,0.56562424,0.741202,0.79777867,0.13181299,0.58836597,0
-0.5242148,-0.44707143,-3.5744147,-0.79777867,-0.13181299,-0.58836597,0
0.97218478,-0.80558652,-1.3759464,0.0070396326,-0.9777813,0.20950939,0
2.4647217,0.37761885,0.9701364,0.79777867,0.13181299,0.58836597,0
0.92319071,0.22151232,2.8104346,0.79777867,0.13181299,0.58836597,0
1.3071259,-0.20966461,-2.9143841,0.60290927,-0.16300024,-0.78098094,0
-0.1412434,0.13581645,2.6485791,0.0070396326,-0.9777813,0.20950939,0
-2.1564727,0.42947051,1.9701785,-0.60290927,0.16300024,0.78098094,0
0.16120714,1.0864685,3.6391766,-0.60290927,0.16300024,0.78098094,0
-2.6692877,0.075417832,1.8259284,-0.60290927,0.16300024,0.78098094,0
-0.52033931,-0.25295383,-3.6214733,-0.79777867,-0.13181299,-0.58836597,0
0.59041166,-1.08797,-3.0455747,0.60290927,-0.16300024,-0.78098094,0
-1.359478,-0.77826518,-2.1700325,-0.79777867,-0.13181299,-0.58836597,0
0.65763402,-0.19730368,0.9855904,0.0070396326,-0.9777813,0.20950939,0
-1.5003058,0.6834839,0.8390367,-0.0070396326,0.9777813,-0.20950939,0
-0.72196251,-0.46298629,-3.1329424,-0.79777867,-0.13181299,-0.58836597,0
2.7149091,-0.47617716,-0.27121225,0.0070396326,-0.9777813,0.20950939,0
0.38546151,1.2241566,3.3390594,0.79777867,0.13181299,0.58836597,0
1.9787476,0.25296032,1.4379524,0.79777867,0.13181299,0.58836597,0
0.78575128,0.44941068,3.104264,0.79777867,0.13181299,0.58836597,0
2.4422235,-0.89472634,-1.6988702,0.60290927,-0.16300024,-0.78098094,0
0.1306538,-0.52464885,-3.6288793,0.60290927,-0.16300024,-0.78098094,0
-1.816577,0.059370592,-1.7148637,-0.79777867,-0.13181299,-0.58836597,0
-2.011066,-0.2270177,-1.6338308,-0.79777867,-0.13181299,-0.58836597,0
0.54875976,0.81164283,1.5196137,-0.0070396326,0.9777813,-0.20950939,0
-1.3265972,-0.69535846,-1.2902045,0.0070396326,-0.9777813,0.20950939,0
0.33649734,1.093228,2.3134181,-0.0070396326,0.9777813,-0.20950939,0
-0.93596697,0.74609202,2.9912412,-0.60290927,0.16300024,0.78098094,0
2.6281428,-0.39351928,0.85009128,0.79777867,0.13181299,0.58836597,0
-1.6534942,0.25032592,2.5156453,-0.60290927,0.16300024,0.78098094,0
-0.11088842,-0.35284343,0.95330358,0.0070396326,-0.9777813,0.20950939,0
2.0229735,0.65177834,1.320918,0.79777867,0.13181299,0.58836597,0
1.5059053,0.20328471,-1.6383299,-0.0070396326,0.9777813,-0.20950939,0
1.0962678,-0.064578883,1.936806,0.0070396326,-0.9777813,0.20950939,0
1.6584795,-0.7460658,-0.97775328,0.0070396326,-0.9777813,0.20950939,0
1.4138515,0.79542702,2.112612,0.79777867,0.13181299,0.58836597,0
-1.5237983,0.57161498,0.1638487,-0.0070396326,0.9777813,-0.20950939,0
-0.76418412,-0.3364588,-3.2989817,-0.79777867,-0.13181299,-0.58836597,0
-0.15368676,-0.60299051,-3.8867364,0.60290927,-0.16300024,-0.78098094,0
-0.28202286,1.0316955,2.8426158,-0.0070396326,0.9777813,-0.20950939,0
3.022408,0.21890661,-1.1916648,-0.0070396326,0.9777813,-0.20950939,0
-2.9859881,-0.12031785,1.6129975,-0.60290927,0.16300024,0.78098094,0
2.1510494,-0.38357052,-2.1859291,0.60290927,-0.16300024,-0.78098094,0
0.83130246,-0.93522775,-2.8972259,0.60290927,-0.16300024,-0.78098094,0
1.1145896,0.6161564,2.7285857,0.79777867,0.13181299,0.58836597,0
-0.44259673,0.93424773,3.3995361,-0.60290927,0.16300024,0.78098094,0
1.597872,0.20433296,-1.9490979,-0.0070396326,0.9777813,-0.20950939,0
-1.4708014,0.014894366,-2.0086336,-0.0070396326,0.9777813,-0.20950939,0
-0.30566105,0.12110256,-2.1460924,-0.0070396326,0.9777813,-0.20950939,0
-1.3104299,-0.21360388,-2.5296686,-0.79777867,-0.13181299,-0.58836597,0
0.18617564,0.099956527,2.3903339,0.0070396326,-0.9777813,0.20950939,0
-0.19924942,0.33921301,3.4944692,-0.60290927,0.16300024,0.78098094,0
1.4326172,-0.9248789,-2.0963588,0.0070396326,-0.9777813,0.20950939,0
1.8325378,-0.20495087,1.3766494,0.0070396326,-0.9777813,0.20950939,0
3.4318674,-0.62952262,-0.9797529,0.60290927,-0.16300024,-0.78098094,0
1.5901155,0.16728975,2.1575079,0.79777867,0.13181299,0.58836597,0
1.235487,-0.5159685,-2.8316913,0.60290927,-0.16300024,-0.78098094,0
-2.2405603,0.58467513,1.9557725,-0.60290927,0.16300024,0.78098094,0
2.2278931,0.7033332,0.40143937,-0.0070396326,0.9777813,-0.20950939,0
-0.0089018643,0.0012321398,2.0924144,0.0070396326,-0.9777813,0.20950939,0
-0.35904944,-0.45916206,-3.7739077,-0.79777867,-0.13181299,-0.58836597,0
2.896158,0.42255265,-0.32796979,-0.0070396326,0.9777813,-0.20950939,0
0.48531306,0.60736579,0.77245873,-0.0070396326,0.9777813,-0.20950939,0
-0.19904669,0.84477925,3.5371618,-0.60290927,0.16300024,0.78098094,0
-0.91585636,0.4455272,2.9519477,-0.60290927,0.16300024,0.78098094,0
0.18320066,0.2174027,3.7399902,0.0070396326,-0.9777813,0.20950939,0
1.8206487,0.7008158,1.6260118,0.79777867,0.13181299,0.58836597,0
-2.1919408,-0.011195585,-1.3631952,-0.79777867,-0.13181299,-0.58836597,0
1.7497504,0.56569058,1.7938697,0.79777867,0.13181299,0.58836597,0
0.1329359,0.28338984,-0.62364691,-0.0070396326,0.9777813,-0.20950939,0
-1.8404934,0.90822685,2.3464277,-0.60290927,0.16300024,0.78098094,0
0.82910693,0.53594959,3.1126163,0.79777867,0.13181299,0.58836597,0
1.6965339,-0.26187927,-2.4314103,0.60290927,-0.16300024,-0.78098094,0
2.5335388,-0.55925405,-1.6539682,0.60290927,-0.16300024,-0.78098094,0
0.59823799,0.35497034,-0.39137536,-0.0070396326,0.9777813,-0.20950939,0
-0.29938024,0.17261778,3.1716919,0.0070396326,-0.9777813,0.20950939,0
2.383693,0.44669688,-0.5061155,-0.0070396326,0.9777813,-0.20950939,0
-0.85491246,-0.60888064,-0.41549444,0.0070396326,-0.9777813,0.20950939,0
0.42567199,0.69570333,3.5782986,0.79777867,0.13181299,0.58836597,0
-3.3333459,0.4312773,0.015040815,-0.79777867,-0.13181299,-0.58836597,0
0.35029957,-0.056398422,2.5457995,0.0070396326,-0.9777813,0.20950939,0
3.2544241,-0.38084921,-0.06429708,0.79777867,0.13181299,0.58836597,0
0.41493762,-1.0711519,-3.2833729,0.60290927,-0.16300024,-0.78098094,0
-2.9758804,0.79954302,1.4359984,-0.60290927,0.16300024,0.78098094,0
-1.6324524,0.68555057,2.350575,-0.60290927,0.16300024,0.78098094,0
-0.035149246,-1.3021744,-3.7089338,0.60290927,-0.16300024,-0.78098094,0
-1.0404217,-0.36631867,-2.7069678,-0.79777867,-0.13181299,-0.58836597,0
1.1813729,-0.067685574,1.5804387,0.0070396326,-0.9777813,0.20950939,0
-2.4517794,0.57398188,1.8475306,-0.60290927,0.16300024,0.78098094,0
0.16195203,-0.06573043,-2.8031137,-0.0070396326,0.9777813,-0.20950939,0
0.14062607,0.93670398,3.6661463,-0.60290927,0.16300024,0.78098094,0
-0.82706261,0.94573843,2.255996,-0.0070396326,0.9777813,-0.20950939,0
2.7589283,-0.82266188,-1.6536355,0.60290927,-0.16300024,-0.78098094,0
0.89822316,-0.84367144,-3.0995233,0.60290927,-0.16300024,-0.78098094,0
2.6351881,-0.55624139,-0.068089962,0.0070396326,-0.9777813,0.20950939,0
-0.79707754,0.92610848,3.1432328,-0.60290927,0.16300024,0.78098094,0
1.3452766,-0.073059201,1.7321091,0.0070396326,-0.9777813,0.20950939,0
-0.036355078,-0.62657917,-3.6690755,0.60290927,-0.16300024,-0.78098094,0
-0.12670341,-1.1636393,-3.6997356,-0.79777867,-0.13181299,-0.58836597,0
2.5908844,-0.78546977,-1.7131191,0.60290927,-0.16300024,-0.78098094,0
2.0735524,-0.66062129,-0.99506474,0.0070396326,-0.9777813,0.20950939,0
2.3190904,0.56525147,0.85926104,0.79777867,0.13181299,0.58836597,0
0.57073849,-0.77305639,-1.5247644,0.0070396326,-0.9777813,0.20950939,0
-0.39964843,-0.87675524,-1.3166704,0.0070396326,-0.9777813,0.20950939,0
3.0085745,0.60628474,0.095824808,0.79777867,0.13181299,0.58836597,0
2.2423306,-0.50133324,-0.025888145,0.0070396326,-0.9777813,0.20950939,0
0.087484866,-0.40478814,-3.8125911,0.60290927,-0.16300024,-0.78098094,0
-0.66307622,-0.69758385,-1.1631118,0.0070396326,-0.9777813,0.20950939,0
-1.807657,-0.63216466,-1.4965093,-0.79777867,-0.13181299,-0.58836597,0
0.43790174,-0.62377691,-3.3669214,0.60290927,-0.16300024,-0.78098094,0
2.3988347,0.50361621,0.90602261,0.79777867,0.13181299,0.58836597,0
0.41998172,1.0293013,3.4616826,0.79777867,0.13181299,0.58836597,0
-1.5601807,-0.86309803,-1.7831523,-0.79777867,-0.13181299,-0.58836597,0
-1.6782709,-0.82405818,-1.7435676,-0.79777867,-0.13181299,-0.58836597,0
1.6453853,0.20156527,-1.3214362,-0.0070396326,0.9777813,-0.20950939,0
-1.4252334,0.85895455,2.6687555,-0.60290927,0.16300024,0.78098094,0
0.4920004,0.7437036,1.2714158,-0.0070396326,0.9777813,-0.20950939,0
1.3793164,-0.23821217,0.93763685,0.0070396326,-0.9777813,0.20950939,0
0.13558388,0.45564568,3.7865086,-0.60290927,0.16300024,0.78098094,0
3.1468875,0.06733685,-1.512217,0.60290927,-0.16300024,-0.78098094,0
-0.62443507,0.95704591,3.2714462,-0.60290927,0.16300024,0.78098094,0
-2.7661855,0.2825039,-0.6407541,-0.79777867,-0.13181299,-0.58836597,0
-3.0616534,-0.57491803,0.21320096,0.0070396326,-0.9777813,0.20950939,0
1.6663499,0.17460711,1.8709329,0.79777867,0.13181299,0.58836597,0
2.9022882,0.2239829,-1.5894637,-0.0070396326,0.9777813,-0.20950939,0
0.51671183,-0.6754269,-0.51813948,0.0070396326,-0.9777813,0.20950939,0
0.64926147,-0.099125408,2.2666812,0.0070396326,-0.9777813,0.20950939,0
-0.50816309,0.46930289,3.2882659,-0.60290927,0.16300024,0.78098094,0
-3.3671675,0.31987488,1.2203977,-0.60290927,0.16300024,0.78098094,0
-1.8814361,-0.066975512,-1.8117188,-0.79777867,-0.13181299,-0.58836597,0
0.48751554,0.71540856,1.345677,-0.0070396326,0.9777813,-0.20950939,0
1.2163043,0.29916951,2.551028,0.79777867,0.13181299,0.58836597,0
-1.966557,0.44658893,-0.54876024,-0.0070396326,0.9777813,-0.20950939,0
-1.9866581,0.36353028,-0.21994494,-0.0070396326,0.9777813,-0.20950939,0
-2.7125068,0.67821503,1.0472102,-0.0070396326,0.9777813,-0.20950939,0
0.20630008,1.1480443,3.6398921,-0.60290927,0.16300024,0.78098094,0
-1.44208,-0.20617512,-2.3485518,-0.79777867,-0.13181299,-0.58836597,0
0.14830348,-0.50250357,-3.6214099,0.60290927,-0.16300024,-0.78098094,0
-2.5234509,-0.48631623,-0.56343299,-0.79777867,-0.13181299,-0.58836597,0
0.54555571,0.4441855,3.5639803,0.79777867,0.13181299,0.58836597,0
-0.4678801,-0.95041299,-2.305181,0.0070396326,-0.9777813,0.20950939,0
0.93502492,-1.0654925,-2.9115956,0.60290927,-0.16300024,-0.78098094,0
1.8852415,-0.52048928,-2.282619,0.60290927,-0.16300024,-0.78098094,0
1.6143086,-0.47647649,-2.5190973,0.60290927,-0.16300024,-0.78098094,0
1.3659755,0.3817803,2.3148413,0.79777867,0.13181299,0.58836597,0
-1.5951955,0.96343118,2.0788844,-0.0070396326,0.9777813,-0.20950939,0
2.5501719,0.078967229,-1.7785718,-0.0070396326,0.9777813,-0.20950939,0
3.7719343,-0.42458001,-0.85404062,0.79777867,0.13181299,0.58836597,0
-2.2521119,-0.62756604,-0.827797,0.0070396326,-0.9777813,0.20950939,0
2.2468278,0.30420333,1.092859,0.79777867,0.13181299,0.58836597,0
1.6092372,0.45541048,-0.51288694,-0.0070396326,0.9777813,-0.20950939,0
1.5084118,-0.17504896,1.7861768,0.0070396326,-0.9777813,0.20950939,0
-0.054312408,1.1211272,3.6281662,-0.60290927,0.16300024,0.78098094,0
0.66666692,0.99833512,2.4947696,-0.0070396326,0.9777813,-0.20950939,0
0.086738467,0.37301397,3.7243671,-0.60290927,0.16300024,0.78098094,0
-1.0228498,-0.1417297,1.6180338,0.0070396326,-0.9777813,0.20950939,0
2.0997722,0.26437199,1.2026687,0.79777867,0.13181299,0.58836597,0
-0.73789108,0.73270202,3.2021141,-0.60290927,0.16300024,0.78098094,0
-0.038168266,-0.024500567,1.8801363,0.0070396326,-0.9777813,0.20950939,0
-3.7306352,-0.23400353,0.69549215,-0.79777867,-0.13181299,-0.58836597,0
0.30504453,-0.37583566,-3.5360365,0.60290927,-0.16300024,-0.78098094,0
1.022084,-0.18120822,-3.0472012,0.60290927,-0.16300024,-0.78098094,0
0.53986394,-0.98122543,-3.2714715,0.60290927,-0.16300024,-0.78098094,0
3.7070217,-0.23800899,-0.6406793,0.79777867,0.13181299,0.58836597,0
