0.18320274,-1.9054585,-2.4483297,-0.1792323,-0.086490333,-0.97999752,0
-1.6903926,3.0965466,-1.0573351,-0.45681953,0.88954502,0.005040586,0
-1.2549466,3.3659277,0.90662885,-0.45681953,0.88954502,0.005040586,0
0.55810928,0.32782862,0.6745193,0.87131602,0.44858551,-0.19894558,0
-2.0827742,2.8776598,-2.0003328,-0.45681953,0.88954502,0.005040586,0
1.8249888,-3.0272028,-0.53225374,0.45681953,-0.88954502,-0.005040586,0
-0.094283819,0.94496697,-0.35502633,0.87131602,0.44858551,-0.19894558,0
-1.0972044,2.4469295,-2.1575623,0.87131602,0.44858551,-0.19894558,0
-1.9521129,3.0447278,-1.83727,-0.45681953,0.88954502,0.005040586,0
0.80107939,-3.262197,-1.3931201,-0.87131602,-0.44858551,0.19894558,0
-1.7104278,3.0152111,-0.70346403,-0.45681953,0.88954502,0.005040586,0
-1.2459773,1.3061959,-0.49970067,-0.87131602,-0.44858551,0.19894558,0
-1.9298682,1.9391254,-1.1708287,-0.87131602,-0.44858551,0.19894558,0
-1.3514836,2.141824,-2.4039266,-0.1792323,-0.086490333,-0.97999752,0
-0.51864767,2.9943879,2.4701982,0.1792323,0.086490333,0.97999752,0
-1.6080928,3.0509655,-2.0066812,-0.45681953,0.88954502,0.005040586,0
-1.4184387,3.2159989,0.91515279,-0.45681953,0.88954502,0.005040586,0
1.4745131,-3.0746489,-2.2032151,0.45681953,-0.88954502,-0.005040586,0
-0.65871119,1.6559166,2.5946028,0.1792323,0.086490333,0.97999752,0
-0.73036885,1.7136148,-2.3324125,0.87131602,0.44858551,-0.19894558,0
1.1504543,-2.1314549,2.5831323,0.1792323,0.086490333,0.97999752,0
-1.7242603,3.1226168,-0.24619198,-0.45681953,0.88954502,0.005040586,0
-1.7180934,2.2810922,-0.082326651,-0.87131602,-0.44858551,0.19894558,0
-0.49524149,2.4922199,0.89783812,0.87131602,0.44858551,-0.19894558,0
0.61509198,-3.1722853,-2.001842,-0.87131602,-0.44858551,0.19894558,0
1.1591368,-3.3067131,0.037108183,0.45681953,-0.88954502,-0.005040586,0
1.6075144,-2.5065088,2.5256884,0.1792323,0.086490333,0.97999752,0
-1.1628724,3.2813184,1.6716261,-0.45681953,0.88954502,0.005040586,0
-2.0655394,2.8354754,-2.3303273,-0.1792323,-0.086490333,-0.97999752,0
1.6640105,-3.1499746,-0.49275899,0.45681953,-0.88954502,-0.005040586,0
-0.88410234,1.0127602,1.3310323,-0.87131602,-0.44858551,0.19894558,0
1.0102537,-3.3177109,-0.88314652,0.45681953,-0.88954502,-0.005040586,0
1.8140799,-3.0066743,0.34143591,0.45681953,-0.88954502,-0.005040586,0
1.6216274,-3.0602198,-1.8854856,0.87131602,0.44858551,-0.19894558,0
-0.020394802,-0.071483612,-2.3603892,0.87131602,0.44858551,-0.19894558,0
1.5647843,-3.0260177,-1.499779,0.45681953,-0.88954502,-0.005040586,0
0.96059787,-1.7651497,-1.8428365,0.87131602,0.44858551,-0.19894558,0
-1.8089397,1.6535702,-1.8793162,-0.87131602,-0.44858551,0.19894558,0
-1.8146365,2.6267452,-2.5159321,-0.1792323,-0.086490333,-0.97999752,0
2.2297099,-2.133904,1.9722358,0.87131602,0.44858551,-0.19894558,0
-2.0645845,2.9367449,-1.4332826,-0.45681953,0.88954502,0.005040586,0
-0.43249199,3.0503545,2.0424576,0.87131602,0.44858551,-0.19894558,0
1.2968721,-2.8175769,1.8258159,-0.87131602,-0.44858551,0.19894558,0
-1.5318749,3.2192636,0.95011568,-0.45681953,0.88954502,0.005040586,0
1.5412195,-3.081521,-1.8889718,0.45681953,-0.88954502,-0.005040586,0
-1.5528772,2.3541892,1.1412327,-0.87131602,-0.44858551,0.19894558,0
-1.3755184,2.7264853,2.3442695,-0.87131602,-0.44858551,0.19894558,0
-1.0692096,3.3109856,1.5840521,-0.45681953,0.88954502,0.005040586,0
1.7797105,-2.9619362,-0.45214081,0.45681953,-0.88954502,-0.005040586,0
2.2374721,-2.7388663,1.6154006,0.45681953,-0.88954502,-0.005040586,0
0.59812403,0.066530466,2.4140139,0.1792323,0.086490333,0.97999752,0
-1.7986579,1.6089875,-2.3999703,-0.1792323,-0.086490333,-0.97999752,0
0.3575325,-0.2565397,2.5842197,0.1792323,0.086490333,0.97999752,0
1.2712823,-3.2181635,-1.9905713,0.45681953,-0.88954502,-0.005040586,0
0.086330652,0.53480375,2.5058575,0.1792323,0.086490333,0.97999752,0
1.9220623,-2.8472819,-0.28778553,0.45681953,-0.88954502,-0.005040586,0
-2.1337426,2.8120234,-1.1882069,-0.45681953,0.88954502,0.005040586,0
1.8720549,-2.8996005,1.1566601,0.45681953,-0.88954502,-0.005040586,0
-1.624799,2.5485942,-2.5179095,-0.1792323,-0.086490333,-0.97999752,0
-0.10081291,-0.9321205,-2.4272845,-0.1792323,-0.086490333,-0.97999752,0
-1.5740268,3.1675155,-0.93625975,-0.45681953,0.88954502,0.005040586,0
-0.66953915,2.7969036,1.1657879,0.87131602,0.44858551,-0.19894558,0
0.30647302,-2.0537834,-1.0552719,-0.87131602,-0.44858551,0.19894558,0
-1.5278951,3.0796406,-0.12888932,-0.45681953,0.88954502,0.005040586,0
1.9156158,-2.9508085,1.4653864,0.45681953,-0.88954502,-0.005040586,0
-1.4660814,3.2889364,-1.2293689,-0.45681953,0.88954502,0.005040586,0
-0.93996072,1.0912812,-2.4123483,-0.1792323,-0.086490333,-0.97999752,0
0.70904779,-2.3455005,0.52578688,-0.87131602,-0.44858551,0.19894558,0
1.1320486,-0.32657269,1.8196784,0.87131602,0.44858551,-0.19894558,0
-1.6055074,3.1073844,-2.1661608,-0.45681953,0.88954502,0.005040586,0
-0.99391747,1.1762969,-2.3794358,-0.1792323,-0.086490333,-0.97999752,0
0.16248441,-0.89312935,-2.4831314,-0.1792323,-0.086490333,-0.97999752,0
0.084149361,-0.66065449,-2.4836087,-0.1792323,-0.086490333,-0.97999752,0
1.7279932,-2.9434171,0.56466985,0.45681953,-0.88954502,-0.005040586,0
1.7882476,-2.7526314,2.3877883,0.1792323,0.086490333,0.97999752,0
-1.6592684,1.1718583,-2.4015081,-0.1792323,-0.086490333,-0.97999752,0
0.63136649,-1.1846411,2.5037959,0.1792323,0.086490333,0.97999752,0
-1.3035851,0.61429125,-2.0019255,-0.87131602,-0.44858551,0.19894558,0
-0.92224818,0.02811186,-1.130807,-0.87131602,-0.44858551,0.19894558,0
-0.39701879,-0.7927466,-2.336235,-0.1792323,-0.086490333,-0.97999752,0
2.0100737,-2.8736937,2.1999044,0.45681953,-0.88954502,-0.005040586,0
-1.3171482,0.73572469,-1.5697645,-0.87131602,-0.44858551,0.19894558,0
-1.6641161,2.9732308,0.53034163,-0.45681953,0.88954502,0.005040586,0
0.16728878,-1.7278495,-0.37856448,-0.87131602,-0.44858551,0.19894558,0
-1.4816875,0.93807149,-2.4548273,-0.1792323,-0.086490333,-0.97999752,0
1.3913219,-2.7891746,2.0975976,-0.87131602,-0.44858551,0.19894558,0
1.1500512,-3.2463055,-2.0704138,0.45681953,-0.88954502,-0.005040586,0
0.2034905,0.060203433,2.4221616,0.1792323,0.086490333,0.97999752,0
1.8688469,-2.7479846,2.4285674,0.1792323,0.086490333,0.97999752,0
0.4734385,-1.3315217,-2.5094261,-0.1792323,-0.086490333,-0.97999752,0
0.51843715,-2.5577691,-2.3717899,-0.1792323,-0.086490333,-0.97999752,0
-2.1279075,2.3368707,-1.635087,-0.87131602,-0.44858551,0.19894558,0
-1.9166045,2.2630992,-0.68039966,-0.87131602,-0.44858551,0.19894558,0
-1.3514955,1.7522086,-2.4674907,-0.1792323,-0.086490333,-0.97999752,0
-1.2866392,3.2642546,1.0354116,-0.45681953,0.88954502,0.005040586,0
-0.87131459,1.6924987,2.3177223,-0.87131602,-0.44858551,0.19894558,0
-1.7140137,3.1414051,0.92663002,-0.45681953,0.88954502,0.005040586,0
1.1951282,-3.2866502,-0.50525188,0.45681953,-0.88954502,-0.005040586,0
1.3371999,-3.3490736,0.49777722,0.45681953,-0.88954502,-0.005040586,0
-1.0296476,3.3045006,1.1764338,-0.45681953,0.88954502,0.005040586,0
0.57236528,-3.2852132,-2.2586834,-0.87131602,-0.44858551,0.19894558,0
0.79648829,-0.22589976,2.3615518,0.1792323,0.086490333,0.97999752,0
-0.79571557,2.5638413,0.027569532,0.87131602,0.44858551,-0.19894558,0
1.4291949,-3.160599,-1.1012354,0.45681953,-0.88954502,-0.005040586,0
1.8852599,-3.0484743,2.032696,0.45681953,-0.88954502,-0.005040586,0
1.2472003,-1.7048676,-1.369521,0.87131602,0.44858551,-0.19894558,0
1.7412968,-1.7842362,1.5580713,0.87131602,0.44858551,-0.19894558,0
-2.0336659,2.9340615,-1.729598,-0.45681953,0.88954502,0.005040586,0
-1.8835948,2.4681847,-2.4596791,-0.1792323,-0.086490333,-0.97999752,0
2.3066308,-2.7997122,1.1609159,0.45681953,-0.88954502,-0.005040586,0
0.58271384,0.85341483,2.4234343,0.1792323,0.086490333,0.97999752,0
0.94817924,-0.40625107,1.2053879,0.87131602,0.44858551,-0.19894558,0
-0.33119941,0.17969537,-2.4554768,-0.1792323,-0.086490333,-0.97999752,0
-0.59359539,-0.68244809,-1.6097029,-0.87131602,-0.44858551,0.19894558,0
-1.3999493,1.6934203,-2.465379,-0.1792323,-0.086490333,-0.97999752,0
-0.18400946,-1.0694945,-0.37821591,-0.87131602,-0.44858551,0.19894558,0
-1.8461807,2.8945303,0.087218523,-0.45681953,0.88954502,0.005040586,0
1.7369089,-3.0750153,-0.85505247,0.45681953,-0.88954502,-0.005040586,0
1.618875,-2.9962559,0.022260427,0.45681953,-0.88954502,-0.005040586,0
-1.8022391,2.9658365,-1.0697281,-0.45681953,0.88954502,0.005040586,0
-0.27374387,1.4265924,2.4661987,0.1792323,0.086490333,0.97999752,0
0.86978817,-0.54813665,2.5091641,0.1792323,0.086490333,0.97999752,0
-1.5776401,3.2047105,-0.85936999,-0.45681953,0.88954502,0.005040586,0
0.29136741,-1.1938527,1.2016336,-0.87131602,-0.44858551,0.19894558,0
0.25468826,-0.22965682,2.4338374,0.1792323,0.086490333,0.97999752,0
-0.36581266,-0.11241651,1.0030032,-0.87131602,-0.44858551,0.19894558,0
-0.51410913,0.90693486,-2.5837741,-0.1792323,-0.086490333,-0.97999752,0
-0.73290491,0.75693738,1.0072205,-0.87131602,-0.44858551,0.19894558,0
-0.66213983,2.6065736,0.67390466,0.87131602,0.44858551,-0.19894558,0
0.38295591,-0.78604054,-2.6103284,-0.1792323,-0.086490333,-0.97999752,0
-0.46166849,1.5113528,2.5780535,0.1792323,0.086490333,0.97999752,0
-1.6206731,1.4769425,-1.241593,-0.87131602,-0.44858551,0.19894558,0
1.0336237,-3.3398063,-1.7087641,0.45681953,-0.88954502,-0.005040586,0
0.9528172,-0.32784075,2.4533553,0.1792323,0.086490333,0.97999752,0
-1.1939293,0.13434798,-2.163717,-0.87131602,-0.44858551,0.19894558,0
-0.57548642,2.3919663,2.3685927,0.1792323,0.086490333,0.97999752,0
-0.1547724,-0.82620418,-2.3914721,-0.1792323,-0.086490333,-0.97999752,0
0.96846831,-3.2864919,-2.4229801,-0.1792323,-0.086490333,-0.97999752,0
-1.517159,3.1610012,1.5925782,-0.45681953,0.88954502,0.005040586,0
1.7961036,-2.9336534,0.27804804,0.45681953,-0.88954502,-0.005040586,0
-0.48593521,-0.45157146,-0.61621314,-0.87131602,-0.44858551,0.19894558,0
-0.39377916,-0.43097275,-2.3470938,-0.1792323,-0.086490333,-0.97999752,0
-1.198825,3.4065065,0.49681377,-0.45681953,0.88954502,0.005040586,0
-1.1403966,0.99193227,-2.3967333,-0.1792323,-0.086490333,-0.97999752,0
-1.2612675,3.3381343,0.45910621,-0.45681953,0.88954502,0.005040586,0
0.48298225,-2.8873813,-1.8849409,-0.87131602,-0.44858551,0.19894558,0
0.76573908,-3.569921,-2.0059931,0.45681953,-0.88954502,-0.005040586,0
-0.5118193,2.949533,2.3212864,0.1792323,0.086490333,0.97999752,0
-0.11783111,0.64410019,2.5767863,0.1792323,0.086490333,0.97999752,0
1.0754629,-3.2693977,-2.3484049,0.45681953,-0.88954502,-0.005040586,0
1.9167907,-2.5055602,0.05257082,0.87131602,0.44858551,-0.19894558,0
1.8971257,-2.9316506,1.2353981,0.45681953,-0.88954502,-0.005040586,0
0.47646892,0.40280092,2.4398448,0.1792323,0.086490333,0.97999752,0
0.30673242,-0.90870994,-2.5811257,-0.1792323,-0.086490333,-0.97999752,0
0.84232837,-2.3297307,-2.5230598,-0.1792323,-0.086490333,-0.97999752,0
1.3332527,-3.3038049,-2.0342155,0.45681953,-0.88954502,-0.005040586,0
-2.3924577,2.4832158,-2.2005441,-0.87131602,-0.44858551,0.19894558,0
-0.27456445,2.6659021,2.2682214,0.87131602,0.44858551,-0.19894558,0
-0.54993743,-0.75053519,-1.4996086,-0.87131602,-0.44858551,0.19894558,0
1.8579829,-3.0224853,-0.40377212,0.45681953,-0.88954502,-0.005040586,0
-1.985657,2.8505418,-1.7851686,-0.45681953,0.88954502,0.005040586,0
0.41562378,-2.1899621,-2.4510589,-0.1792323,-0.086490333,-0.97999752,0
-1.8572603,2.8805506,-1.1409936,-0.45681953,0.88954502,0.005040586,0
0.89159727,-3.4378619,-2.2628605,0.45681953,-0.88954502,-0.005040586,0
-1.6064268,3.1764579,2.2803109,-0.45681953,0.88954502,0.005040586,0
1.8882393,-2.9561367,-0.95037365,0.45681953,-0.88954502,-0.005040586,0
1.6111009,-3.2041183,-2.4901392,0.45681953,-0.88954502,-0.005040586,0
0.92663407,-1.426589,-1.8756837,0.87131602,0.44858551,-0.19894558,0
1.4025563,-0.81444925,1.7945585,0.87131602,0.44858551,-0.19894558,0
-1.1269026,0.58733624,-2.4017382,-0.1792323,-0.086490333,-0.97999752,0
-1.4060633,3.1470299,0.030032158,-0.45681953,0.88954502,0.005040586,0
1.0109062,-3.3712111,-1.9239583,0.45681953,-0.88954502,-0.005040586,0
-0.29998672,2.078078,2.3378258,0.1792323,0.086490333,0.97999752,0
0.38950014,-0.7749759,-2.5208561,-0.1792323,-0.086490333,-0.97999752,0
1.5107207,-2.4863198,2.3966169,0.1792323,0.086490333,0.97999752,0
0.64211965,-1.2784157,2.6229436,-0.87131602,-0.44858551,0.19894558,0
1.4090008,-2.2172582,-1.8199601,0.87131602,0.44858551,-0.19894558,0
-0.14622462,0.051855922,1.60507,-0.87131602,-0.44858551,0.19894558,0
-1.4846828,1.4423354,-2.371882,-0.1792323,-0.086490333,-0.97999752,0
-1.6239917,3.0828068,-1.0972719,-0.45681953,0.88954502,0.005040586,0
-1.591804,3.1609409,0.64002538,-0.45681953,0.88954502,0.005040586,0
-1.1538131,3.4134076,1.1644802,-0.45681953,0.88954502,0.005040586,0
1.4756036,-3.1602492,-1.8573778,0.45681953,-0.88954502,-0.005040586,0
-1.4947206,3.2130322,-1.110986,-0.45681953,0.88954502,0.005040586,0
-1.2897174,3.2174945,-0.2560513,-0.45681953,0.88954502,0.005040586,0
1.880816,-2.9837117,-0.034369946,0.45681953,-0.88954502,-0.005040586,0
1.1246793,-2.1306069,2.3086751,-0.87131602,-0.44858551,0.19894558,0
-1.6616242,3.0584064,-0.11604834,-0.45681953,0.88954502,0.005040586,0
-0.98279476,0.86911774,-2.5156181,-0.1792323,-0.086490333,-0.97999752,0
1.905669,-2.3065112,2.466819,0.1792323,0.086490333,0.97999752,0
-0.52678466,1.2588052,-2.3145237,0.87131602,0.44858551,-0.19894558,0
1.7878969,-2.9707508,-0.88100624,0.45681953,-0.88954502,-0.005040586,0
2.0211797,-1.7799064,2.0066576,0.87131602,0.44858551,-0.19894558,0
0.79611039,-1.1423407,2.4615431,0.1792323,0.086490333,0.97999752,0
0.96749473,-1.5375147,2.6095669,0.1792323,0.086490333,0.97999752,0
-1.9894876,2.1136122,-1.9229221,-0.87131602,-0.44858551,0.19894558,0
1.1017584,-3.3013849,-0.75329375,0.45681953,-0.88954502,-0.005040586,0
-0.11515772,1.7247584,2.4044755,0.1792323,0.086490333,0.97999752,0
1.8555962,-3.0602593,-0.31227231,0.45681953,-0.88954502,-0.005040586,0
0.11622709,-0.97924995,0.69394463,-0.87131602,-0.44858551,0.19894558,0
0.8063153,0.17205942,2.2990041,0.1792323,0.086490333,0.97999752,0
1.6731694,-3.0439596,-0.48860383,0.45681953,-0.88954502,-0.005040586,0
1.267759,-3.3684902,-1.0235357,0.45681953,-0.88954502,-0.005040586,0
-0.28879309,0.21482134,-2.4852982,-0.1792323,-0.086490333,-0.97999752,0
-0.9368856,2.7887726,2.4089274,0.1792323,0.086490333,0.97999752,0
1.3572249,-0.55294991,1.7242084,0.87131602,0.44858551,-0.19894558,0
1.0730081,-0.4736101,1.0320282,0.87131602,0.44858551,-0.19894558,0
-0.34101045,1.1321096,2.4457431,0.1792323,0.086490333,0.97999752,0
-1.9055769,2.9768567,-0.048514128,-0.45681953,0.88954502,0.005040586,0
1.4189405,-3.1495605,2.0421588,-0.87131602,-0.44858551,0.19894558,0
-0.64620197,0.63793558,0.92620397,-0.87131602,-0.44858551,0.19894558,0
-0.19128573,-1.4077643,-2.4465537,-0.1792323,-0.086490333,-0.97999752,0
0.66952765,-2.6124339,-2.4875264,-0.1792323,-0.086490333,-0.97999752,0
1.0622692,-2.3318906,1.765402,-0.87131602,-0.44858551,0.19894558,0
1.7637267,-1.71333,2.3846574,0.1792323,0.086490333,0.97999752,0
-1.9926884,2.287693,-2.3125031,-0.1792323,-0.086490333,-0.97999752,0
-1.7460222,3.001406,-2.1829004,-0.45681953,0.88954502,0.005040586,0
2.0821497,-2.935122,1.9417422,0.45681953,-0.88954502,-0.005040586,0
2.1715934,-2.2748184,2.378901,0.1792323,0.086490333,0.97999752,0
0.50210214,-0.22645903,2.3882344,0.1792323,0.086490333,0.97999752,0
0.063340902,0.21370876,2.4659054,0.1792323,0.086490333,0.97999752,0
-0.49291015,1.6941211,2.5212903,0.1792323,0.086490333,0.97999752,0
-0.84523487,3.403872,1.6348221,-0.45681953,0.88954502,0.005040586,0
-1.5116873,3.2204638,-1.881989,-0.45681953,0.88954502,0.005040586,0
2.0459473,-2.6166961,2.3185344,0.1792323,0.086490333,0.97999752,0
2.3254111,-2.6721823,2.3410764,0.45681953,-0.88954502,-0.005040586,0
-2.1712978,2.8148613,-2.150526,-0.45681953,0.88954502,0.005040586,0
1.2062619,-1.113133,2.3765182,0.1792323,0.086490333,0.97999752,0
0.8622297,-3.4214563,-2.0449405,0.45681953,-0.88954502,-0.005040586,0
0.10756421,-1.0316304,0.49436677,-0.87131602,-0.44858551,0.19894558,0
2.4085114,-2.5484354,2.4029369,0.1792323,0.086490333,0.97999752,0
0.0026427805,-1.6500028,-1.1804019,-0.87131602,-0.44858551,0.19894558,0
0.1427691,1.2447013,1.384366,0.87131602,0.44858551,-0.19894558,0
-1.9937131,2.6572387,-2.4042675,-0.1792323,-0.086490333,-0.97999752,0
0.62098122,0.55232882,2.4332359,0.1792323,0.086490333,0.97999752,0
-1.7314985,3.1188421,1.2274859,-0.45681953,0.88954502,0.005040586,0
0.6085127,-2.9661379,-2.4336731,-0.1792323,-0.086490333,-0.97999752,0
0.93565059,-0.67256916,0.35222596,0.87131602,0.44858551,-0.19894558,0
-1.1188271,1.6648754,1.5135218,-0.87131602,-0.44858551,0.19894558,0
1.4960322,-1.4555242,2.3634706,0.1792323,0.086490333,0.97999752,0
-1.4586185,1.2765855,-1.465999,-0.87131602,-0.44858551,0.19894558,0
-1.116785,-0.047222793,-2.3286643,-0.1792323,-0.086490333,-0.97999752,0
1.1846254,-0.76235068,0.78702611,0.87131602,0.44858551,-0.19894558,0
0.12890303,-1.3350043,-2.4222579,-0.1792323,-0.086490333,-0.97999752,0
-2.129894,2.915482,-1.9699419,-0.45681953,0.88954502,0.005040586,0
-1.6354737,2.8882747,-2.5694566,-0.1792323,-0.086490333,-0.97999752,0
-1.3640835,2.6294587,-2.6225286,-0.1792323,-0.086490333,-0.97999752,0
-0.89632273,3.1002457,2.3684988,0.1792323,0.086490333,0.97999752,0
0.3370139,-2.5995955,-2.4850862,-0.1792323,-0.086490333,-0.97999752,0
0.44820094,0.9430868,1.7858442,0.87131602,0.44858551,-0.19894558,0
-1.2544961,2.0349998,-2.4440646,-0.1792323,-0.086490333,-0.97999752,0
0.80093849,-0.65022594,-0.45808387,0.87131602,0.44858551,-0.19894558,0
1.504028,-3.0870233,-0.92810488,0.45681953,-0.88954502,-0.005040586,0
-2.0648246,2.0025823,-1.6467123,-0.87131602,-0.44858551,0.19894558,0
0.66154921,0.61716008,2.4127665,0.1792323,0.086490333,0.97999752,0
-0.43141711,0.095977783,0.89792806,-0.87131602,-0.44858551,0.19894558,0
-1.9159039,1.9893836,-1.6773342,-0.87131602,-0.44858551,0.19894558,0
0.10270169,1.3123063,0.8580699,0.87131602,0.44858551,-0.19894558,0
-0.054654717,-1.9890696,-2.3795099,-0.1792323,-0.086490333,-0.97999752,0
0.76947904,-2.1255963,-2.486587,-0.1792323,-0.086490333,-0.97999752,0
1.4299664,-3.2693024,-2.1413791,0.45681953,-0.88954502,-0.005040586,0
0.17726517,-1.658851,-2.4806755,-0.1792323,-0.086490333,-0.97999752,0
-0.20851894,1.8638737,0.84360695,0.87131602,0.44858551,-0.19894558,0
0.55359828,-1.1585197,-2.509968,-0.1792323,-0.086490333,-0.97999752,0
-0.12892151,1.0635355,2.4346056,0.1792323,0.086490333,0.97999752,0
0.67480516,-2.5542972,-0.1988306,-0.87131602,-0.44858551,0.19894558,0
1.4114573,-3.1871142,1.6125956,0.45681953,-0.88954502,-0.005040586,0
1.0728208,-0.66563553,1.1081381,0.87131602,0.44858551,-0.19894558,0
1.8325549,-3.0701354,0.12348151,0.45681953,-0.88954502,-0.005040586,0
-0.15155602,0.98552328,2.4800141,0.1792323,0.086490333,0.97999752,0
1.0789216,-2.1898425,-2.526931,-0.1792323,-0.086490333,-0.97999752,0
0.41880393,-0.79511935,-2.4323001,0.87131602,0.44858551,-0.19894558,0
-1.4590563,3.1279628,2.3238175,-0.45681953,0.88954502,0.005040586,0
-0.28071433,2.3116236,1.3355639,0.87131602,0.44858551,-0.19894558,0
0.88359326,-0.65719241,-0.48768771,0.87131602,0.44858551,-0.19894558,0
-0.75704718,2.05825,-0.6954155,0.87131602,0.44858551,-0.19894558,0
1.6899519,-3.1326709,-0.96651173,0.45681953,-0.88954502,-0.005040586,0
0.77811486,-2.4035885,-2.5580912,-0.1792323,-0.086490333,-0.97999752,0
1.1777806,-2.136179,2.4737067,0.1792323,0.086490333,0.97999752,0
1.1320879,-1.9174287,2.5426111,0.1792323,0.086490333,0.97999752,0
0.33256412,-0.41073191,2.5001225,0.1792323,0.086490333,0.97999752,0
-0.32257923,1.8617136,0.70039713,0.87131602,0.44858551,-0.19894558,0
1.0576913,-2.3119488,2.3394971,-0.87131602,-0.44858551,0.19894558,0
-1.6368532,3.0711732,0.16645527,-0.45681953,0.88954502,0.005040586,0
-0.67462468,-0.59029287,-2.3546059,-0.1792323,-0.086490333,-0.97999752,0
1.2090042,-3.2187991,-1.1298852,0.45681953,-0.88954502,-0.005040586,0
-0.40583014,0.1481688,-2.532932,-0.1792323,-0.086490333,-0.97999752,0
-0.73885489,0.35011429,-2.3682129,-0.1792323,-0.086490333,-0.97999752,0
0.10897362,-2.1615887,-2.0736539,-0.87131602,-0.44858551,0.19894558,0
0.84768748,-3.4281597,-1.9558003,0.45681953,-0.88954502,-0.005040586,0
1.7326356,-2.6045294,-0.74458027,0.87131602,0.44858551,-0.19894558,0
1.0326605,-0.01975745,2.3175864,0.1792323,0.086490333,0.97999752,0
-0.50272477,-1.0111866,-2.3589063,-0.87131602,-0.44858551,0.19894558,0
2.3102188,-2.4551702,2.1566253,0.87131602,0.44858551,-0.19894558,0
-1.6548731,1.6502167,-1.0952315,-0.87131602,-0.44858551,0.19894558,0
-1.8819973,1.9270195,-1.8424047,-0.87131602,-0.44858551,0.19894558,0
1.3349218,-0.92334557,2.352586,0.1792323,0.086490333,0.97999752,0
1.9453673,-2.9558814,1.7107625,0.45681953,-0.88954502,-0.005040586,0
0.69648236,-0.18355539,-0.21042597,0.87131602,0.44858551,-0.19894558,0
1.4188232,-2.4222078,-1.8128901,0.87131602,0.44858551,-0.19894558,0
-1.1513424,1.7697306,-2.4841838,-0.1792323,-0.086490333,-0.97999752,0
-1.4426792,3.1620831,1.5022867,-0.45681953,0.88954502,0.005040586,0
1.0596368,-1.4559058,2.4451184,0.1792323,0.086490333,0.97999752,0
1.2195987,-3.2276676,0.60940433,0.45681953,-0.88954502,-0.005040586,0
2.0378001,-2.5506659,0.36662555,0.87131602,0.44858551,-0.19894558,0
1.0215417,-1.1466327,-0.16502023,0.87131602,0.44858551,-0.19894558,0
1.5235639,-3.2440934,2.2151678,0.45681953,-0.88954502,-0.005040586,0
-0.29555118,0.065832496,1.7335819,-0.87131602,-0.44858551,0.19894558,0
1.7772803,-1.766697,2.2804244,0.1792323,0.086490333,0.97999752,0
1.4837897,-2.8161805,2.613337,0.1792323,0.086490333,0.97999752,0
0.60201764,-1.2192904,2.3777227,-0.87131602,-0.44858551,0.19894558,0
1.7173979,-3.0897236,1.5859523,0.45681953,-0.88954502,-0.005040586,0
0.64416331,-1.9753466,-2.4549885,-0.1792323,-0.086490333,-0.97999752,0
-0.010969162,-2.1253901,-2.3818283,-0.1792323,-0.086490333,-0.97999752,0
1.3388352,-0.30911011,2.4066992,0.1792323,0.086490333,0.97999752,0
1.485289,-3.2745881,-0.60525131,0.45681953,-0.88954502,-0.005040586,0
-1.0128068,2.3349142,2.5571191,0.1792323,0.086490333,0.97999752,0
0.38818726,-2.2577703,-0.46413839,-0.87131602,-0.44858551,0.19894558,0
-1.7797648,3.0272877,-0.7712214,-0.45681953,0.88954502,0.005040586,0
-1.5785356,3.0933557,0.24848199,-0.45681953,0.88954502,0.005040586,0
-1.7714291,1.3195937,-2.3383944,-0.1792323,-0.086490333,-0.97999752,0
0.45809907,-2.2742786,-2.4506755,-0.1792323,-0.086490333,-0.97999752,0
-0.9978919,1.9996552,-2.1793787,0.87131602,0.44858551,-0.19894558,0
1.6834874,-2.9803984,1.8917705,0.45681953,-0.88954502,-0.005040586,0
-0.25453997,-0.10203129,1.4407649,-0.87131602,-0.44858551,0.19894558,0
-1.2669451,3.149122,-1.2370536,0.87131602,0.44858551,-0.19894558,0
-0.70636725,-0.014669895,-2.5043972,-0.1792323,-0.086490333,-0.97999752,0
-0.049538732,1.5047917,2.3878188,0.1792323,0.086490333,0.97999752,0
-1.0866181,2.451741,2.5175884,0.1792323,0.086490333,0.97999752,0
0.8994205,-1.0685874,2.5547872,0.1792323,0.086490333,0.97999752,0
1.4777458,-3.1530626,-1.6636429,0.45681953,-0.88954502,-0.005040586,0
-1.3285396,2.3977947,-2.5173364,0.87131602,0.44858551,-0.19894558,0
1.5044584,-3.0666533,0.52143955,0.45681953,-0.88954502,-0.005040586,0
0.79130292,-3.4290891,-1.8445237,0.45681953,-0.88954502,-0.005040586,0
-1.5196157,3.0497408,2.0155785,-0.45681953,0.88954502,0.005040586,0
1.241864,-1.3776798,0.046910405,0.87131602,0.44858551,-0.19894558,0
1.1220384,-3.3597627,-1.9148026,0.45681953,-0.88954502,-0.005040586,0
1.8071175,-2.5907745,-0.1574831,0.87131602,0.44858551,-0.19894558,0
2.2843506,-2.4099398,2.2568097,0.1792323,0.086490333,0.97999752,0
-1.477968,3.1072073,1.0268004,-0.45681953,0.88954502,0.005040586,0
-1.5478044,3.0395122,-1.6073203,-0.45681953,0.88954502,0.005040586,0
1.0944873,-3.3376198,-0.92631125,0.45681953,-0.88954502,-0.005040586,0
0.66439915,-2.5499101,-0.34839225,-0.87131602,-0.44858551,0.19894558,0
1.1215061,-0.89170825,0.2518785,0.87131602,0.44858551,-0.19894558,0
0.26365948,0.84378797,2.4461441,0.1792323,0.086490333,0.97999752,0
-0.87121511,3.2335896,1.3022435,0.87131602,0.44858551,-0.19894558,0
1.6662018,-1.0952307,2.3825896,0.1792323,0.086490333,0.97999752,0
1.2414501,-3.2472403,0.052706957,0.45681953,-0.88954502,-0.005040586,0
1.0519795,-0.990107,2.3686612,0.1792323,0.086490333,0.97999752,0
0.24812293,0.22212899,2.5001419,0.1792323,0.086490333,0.97999752,0
-1.7634299,2.5123703,-2.4920189,-0.1792323,-0.086490333,-0.97999752,0
-0.98550433,3.5276074,1.184376,-0.45681953,0.88954502,0.005040586,0
-0.1417408,-0.30214852,1.4705263,-0.87131602,-0.44858551,0.19894558,0
-2.3628139,2.6747897,-2.0541267,-0.45681953,0.88954502,0.005040586,0
-0.63989067,-0.41590568,-1.4631009,-0.87131602,-0.44858551,0.19894558,0
-2.3550856,2.488996,-2.0572698,-0.87131602,-0.44858551,0.19894558,0
1.9810364,-2.9445086,0.30005217,0.45681953,-0.88954502,-0.005040586,0
1.4089122,-1.9223201,-0.96600604,0.87131602,0.44858551,-0.19894558,0
0.037398815,-0.18881261,-2.5941806,-0.1792323,-0.086490333,-0.97999752,0
-1.0474809,1.9319251,1.9806325,-0.87131602,-0.44858551,0.19894558,0
0.42747319,1.2825456,1.8045111,0.87131602,0.44858551,-0.19894558,0
-1.131745,0.12587023,-1.8992031,-0.87131602,-0.44858551,0.19894558,0
-1.1112893,3.1805515,2.5639019,0.1792323,0.086490333,0.97999752,0
-1.7706008,2.9662299,-2.0446844,-0.45681953,0.88954502,0.005040586,0
2.145962,-2.3617544,1.2865913,0.87131602,0.44858551,-0.19894558,0
-1.659549,1.1731539,-2.3610582,-0.1792323,-0.086490333,-0.97999752,0
2.1108546,-2.9644809,1.405669,0.45681953,-0.88954502,-0.005040586,0
-1.1658839,3.2850385,2.4341915,-0.45681953,0.88954502,0.005040586,0
-0.44833338,-0.88476145,-1.0403029,-0.87131602,-0.44858551,0.19894558,0
0.50843132,0.37016928,2.3990588,0.1792323,0.086490333,0.97999752,0
0.043176293,-0.92541778,-2.3810246,-0.1792323,-0.086490333,-0.97999752,0
0.3308351,0.618828,2.4264109,0.1792323,0.086490333,0.97999752,0
-1.3682982,1.2872726,-0.98826051,-0.87131602,-0.44858551,0.19894558,0
-1.3345995,3.1541247,-0.96904111,-0.45681953,0.88954502,0.005040586,0
-0.63185215,0.59102416,-2.413976,-0.1792323,-0.086490333,-0.97999752,0
0.61414456,-2.6444268,-0.58992267,-0.87131602,-0.44858551,0.19894558,0
-1.0213521,1.9713286,-2.4750555,-0.1792323,-0.086490333,-0.97999752,0
-0.58931327,1.1005924,-2.5776491,-0.1792323,-0.086490333,-0.97999752,0
-2.0896518,2.0163321,-2.2551789,-0.1792323,-0.086490333,-0.97999752,0
1.2868905,-2.4542317,-2.5458388,-0.1792323,-0.086490333,-0.97999752,0
-0.42548156,0.7399081,-2.598371,-0.1792323,-0.086490333,-0.97999752,0
-0.97070146,3.4037533,1.1645663,-0.45681953,0.88954502,0.005040586,0
-0.15309346,-1.5863502,-1.6922741,-0.87131602,-0.44858551,0.19894558,0
-1.9938742,2.9675562,-0.0736835,-0.45681953,0.88954502,0.005040586,0
-1.3102102,1.0288337,-2.4446831,-0.1792323,-0.086490333,-0.97999752,0
1.2459927,-3.3915973,-2.0625091,0.45681953,-0.88954502,-0.005040586,0
1.9930099,-2.9514744,1.1367257,0.45681953,-0.88954502,-0.005040586,0
-1.5085367,3.2539301,1.1940289,-0.45681953,0.88954502,0.005040586,0
0.3909359,-0.50424135,-2.3130329,0.87131602,0.44858551,-0.19894558,0
-2.2594626,2.7239177,-2.1085293,-0.45681953,0.88954502,0.005040586,0
0.39767098,-1.2057766,2.0047855,-0.87131602,-0.44858551,0.19894558,0
-2.1048455,2.847039,-1.8526137,-0.45681953,0.88954502,0.005040586,0
-1.8909812,2.9035332,0.24933767,-0.45681953,0.88954502,0.005040586,0
-2.1818287,2.7447109,-1.810483,-0.45681953,0.88954502,0.005040586,0
0.73264146,-1.9520419,-2.5176792,-0.1792323,-0.086490333,-0.97999752,0
-0.45035851,-0.74286515,-1.3496511,-0.87131602,-0.44858551,0.19894558,0
-0.11461294,0.67148721,2.4152932,0.1792323,0.086490333,0.97999752,0
1.0349478,-3.3831859,-1.7215269,0.45681953,-0.88954502,-0.005040586,0
1.604404,-3.0491014,-0.96159101,0.45681953,-0.88954502,-0.005040586,0
1.2525713,-3.2087059,-2.1175997,0.45681953,-0.88954502,-0.005040586,0
0.90874964,-3.4042225,-1.1504319,0.45681953,-0.88954502,-0.005040586,0
2.4536142,-2.6899784,1.8646116,0.45681953,-0.88954502,-0.005040586,0
-0.86851114,0.55172169,-0.52257365,-0.87131602,-0.44858551,0.19894558,0
1.7480536,-3.1557007,1.5855446,0.45681953,-0.88954502,-0.005040586,0
-2.2559009,2.8164725,-1.5893502,-0.45681953,0.88954502,0.005040586,0
-1.1662403,3.2549143,0.69698882,-0.45681953,0.88954502,0.005040586,0
-1.5894722,3.2154951,2.4941664,-0.45681953,0.88954502,0.005040586,0
-1.5594244,3.0926433,1.0909693,-0.45681953,0.88954502,0.005040586,0
1.4566748,-2.0745063,2.5244458,0.1792323,0.086490333,0.97999752,0
0.22956991,-1.7398998,-2.3624704,-0.1792323,-0.086490333,-0.97999752,0
-1.8801877,2.9971676,-1.1970146,-0.45681953,0.88954502,0.005040586,0
-0.44312268,0.28268796,1.3604189,-0.87131602,-0.44858551,0.19894558,0
-1.5252522,3.2571692,-0.27145028,-0.45681953,0.88954502,0.005040586,0
1.544703,-3.2231007,0.9839344,0.45681953,-0.88954502,-0.005040586,0
-0.95831156,0.14400806,-0.99468023,-0.87131602,-0.44858551,0.19894558,0
1.3335299,-1.3892002,2.3738341,0.1792323,0.086490333,0.97999752,0
0.84320825,-2.5723052,-2.4987409,-0.1792323,-0.086490333,-0.97999752,0
-1.2811205,2.3656006,-2.5828354,-0.1792323,-0.086490333,-0.97999752,0
-0.40755713,1.3676846,2.4830713,0.1792323,0.086490333,0.97999752,0
0.36148715,-0.26529241,2.4308758,0.1792323,0.086490333,0.97999752,0
1.5119197,-1.3770776,2.3656042,0.1792323,0.086490333,0.97999752,0
2.2956092,-2.8379672,1.7707877,0.45681953,-0.88954502,-0.005040586,0
-1.754312,3.1264915,1.1249549,-0.45681953,0.88954502,0.005040586,0
-2.244628,2.8766575,-1.6649435,-0.45681953,0.88954502,0.005040586,0
0.89681554,-3.5115035,-2.019963,0.45681953,-0.88954502,-0.005040586,0
0.71345794,-2.8371599,-0.91372585,-0.87131602,-0.44858551,0.19894558,0
0.96219838,-3.3575273,-2.4137979,-0.1792323,-0.086490333,-0.97999752,0
2.0324433,-2.7497005,-0.019932032,0.87131602,0.44858551,-0.19894558,0
2.2469661,-2.1909115,2.0332134,0.87131602,0.44858551,-0.19894558,0
-0.58947587,1.1001449,-2.4433479,-0.1792323,-0.086490333,-0.97999752,0
0.63989842,-2.2390103,-2.4990478,-0.1792323,-0.086490333,-0.97999752,0
0.68793273,-2.1335013,0.95922744,-0.87131602,-0.44858551,0.19894558,0
-2.0922749,2.1280119,-2.1958435,-0.87131602,-0.44858551,0.19894558,0
-0.41899219,0.017477274,0.68490851,-0.87131602,-0.44858551,0.19894558,0
-0.17732982,-1.1950098,-0.77040851,-0.87131602,-0.44858551,0.19894558,0
0.5205617,0.36492574,0.15624693,0.87131602,0.44858551,-0.19894558,0
1.423948,-1.6499478,2.3581562,0.1792323,0.086490333,0.97999752,0
-0.1152823,-0.26722753,-2.523998,-0.1792323,-0.086490333,-0.97999752,0
1.7678818,-3.0311401,-0.89278221,0.45681953,-0.88954502,-0.005040586,0
-1.2015197,3.2278309,0.34683323,-0.45681953,0.88954502,0.005040586,0
0.021597981,1.4442612,2.4536278,0.1792323,0.086490333,0.97999752,0
2.1270289,-2.5666656,2.3665853,0.1792323,0.086490333,0.97999752,0
-1.4885402,3.1436393,-1.0515771,-0.45681953,0.88954502,0.005040586,0
-0.02165246,1.5513546,1.0967661,0.87131602,0.44858551,-0.19894558,0
0.43127435,-0.3016687,-1.3316795,0.87131602,0.44858551,-0.19894558,0
1.9601034,-2.9337378,0.85166049,0.45681953,-0.88954502,-0.005040586,0
-1.8253775,3.0992312,0.22228575,-0.45681953,0.88954502,0.005040586,0
1.326111,-1.0970832,1.2124028,0.87131602,0.44858551,-0.19894558,0
-0.89136112,1.115209,1.296512,-0.87131602,-0.44858551,0.19894558,0
1.0552471,-1.4149505,2.4650509,0.1792323,0.086490333,0.97999752,0
0.24606073,-0.15575302,-2.0221071,0.87131602,0.44858551,-0.19894558,0
1.3431087,-0.60872698,2.4515347,0.1792323,0.086490333,0.97999752,0
-1.919258,2.8737702,0.18653655,-0.45681953,0.88954502,0.005040586,0
-2.2534373,2.1612718,-2.25511,-0.1792323,-0.086490333,-0.97999752,0
-0.31181931,0.80847317,-2.0790942,0.87131602,0.44858551,-0.19894558,0
-1.3083184,2.6094756,2.528558,0.1792323,0.086490333,0.97999752,0
-1.2243285,0.32670221,-1.6931686,-0.87131602,-0.44858551,0.19894558,0
0.27625036,-0.67716473,-2.4749684,-0.1792323,-0.086490333,-0.97999752,0
0.96173817,-3.447042,-2.336026,-0.1792323,-0.086490333,-0.97999752,0
-0.13290286,-1.8865151,-1.999459,-0.87131602,-0.44858551,0.19894558,0
-1.0247433,2.0972288,-2.1883574,0.87131602,0.44858551,-0.19894558,0
0.1478914,-1.386885,0.47973138,-0.87131602,-0.44858551,0.19894558,0
0.22590244,-0.69849664,1.7752094,-0.87131602,-0.44858551,0.19894558,0
2.1372108,-2.9380231,0.72827959,0.45681953,-0.88954502,-0.005040586,0
1.524596,-3.2023249,1.2777591,0.45681953,-0.88954502,-0.005040586,0
-0.38831437,-1.0890133,-1.7847211,-0.87131602,-0.44858551,0.19894558,0
0.27875721,-0.97545773,-2.5122945,-0.1792323,-0.086490333,-0.97999752,0
0.87264299,-1.5070454,-1.7504578,0.87131602,0.44858551,-0.19894558,0
-0.039156437,0.21816194,-1.8097844,0.87131602,0.44858551,-0.19894558,0
-1.7943859,1.9687613,-2.3024902,-0.1792323,-0.086490333,-0.97999752,0
0.64327061,0.65932977,2.4048319,0.1792323,0.086490333,0.97999752,0
-1.5318882,3.0694265,-2.3459091,0.87131602,0.44858551,-0.19894558,0
-0.26825893,1.6276102,-0.2961725,0.87131602,0.44858551,-0.19894558,0
2.1649013,-2.8052688,0.72396588,0.87131602,0.44858551,-0.19894558,0
-1.9168198,2.8489232,-1.0900788,-0.45681953,0.88954502,0.005040586,0
-0.70578873,2.2921331,2.5455365,0.1792323,0.086490333,0.97999752,0
1.8038998,-3.0696158,0.17632437,0.45681953,-0.88954502,-0.005040586,0
-0.20459875,1.4117669,0.24980855,0.87131602,0.44858551,-0.19894558,0
-2.1021216,2.8687191,-0.60786915,-0.45681953,0.88954502,0.005040586,0
1.6146647,-3.208096,-1.2677073,0.45681953,-0.88954502,-0.005040586,0
0.30264732,0.12873131,-0.61851478,0.87131602,0.44858551,-0.19894558,0
1.2023969,-1.86415,2.572649,0.1792323,0.086490333,0.97999752,0
1.8936163,-2.0783396,1.5107266,0.87131602,0.44858551,-0.19894558,0
0.10599661,0.24907422,2.4890037,0.1792323,0.086490333,0.97999752,0
1.2890776,-3.2305045,1.021606,-0.87131602,-0.44858551,0.19894558,0
-0.91643131,-0.25854433,-2.1624289,-0.87131602,-0.44858551,0.19894558,0
-0.85362691,3.3438907,1.1410279,0.87131602,0.44858551,-0.19894558,0
2.1067743,-2.4308383,1.1749775,0.87131602,0.44858551,-0.19894558,0
1.0411279,-0.3561548,2.3697939,0.1792323,0.086490333,0.97999752,0
0.35137415,-0.14668894,2.4338737,0.1792323,0.086490333,0.97999752,0
-1.3282523,2.0862579,0.98359275,-0.87131602,-0.44858551,0.19894558,0
1.6672326,-1.4184079,1.2583767,0.87131602,0.44858551,-0.19894558,0
0.026067376,0.74948335,-0.35838306,0.87131602,0.44858551,-0.19894558,0
-2.4249296,2.5646391,-2.3548963,-0.1792323,-0.086490333,-0.97999752,0
0.026600957,-0.86129332,-2.4555886,-0.1792323,-0.086490333,-0.97999752,0
-1.4364897,3.0811105,2.4966891,0.1792323,0.086490333,0.97999752,0
-0.92559618,0.86263347,-0.097597718,-0.87131602,-0.44858551,0.19894558,0
-0.8920002,3.374368,1.3755744,-0.45681953,0.88954502,0.005040586,0
1.8019807,-2.2037864,2.419167,0.1792323,0.086490333,0.97999752,0
1.5320733,-2.3329101,-1.4330895,0.87131602,0.44858551,-0.19894558,0
-1.9258815,2.2473547,-0.92535472,-0.87131602,-0.44858551,0.19894558,0
1.1114068,-1.6305747,2.5878727,0.1792323,0.086490333,0.97999752,0
-1.6493256,3.1189456,2.345417,-0.45681953,0.88954502,0.005040586,0
1.1063359,-0.37333429,1.6266934,0.87131602,0.44858551,-0.19894558,0
-1.8386822,3.0198174,-2.035814,-0.45681953,0.88954502,0.005040586,0
2.0152206,-2.91717,0.80820417,0.45681953,-0.88954502,-0.005040586,0
1.6344655,-2.9970732,-0.57819104,0.45681953,-0.88954502,-0.005040586,0
-1.3992181,2.1997266,1.6274755,-0.87131602,-0.44858551,0.19894558,0
2.0165231,-2.517853,2.3631282,0.1792323,0.086490333,0.97999752,0
0.28927159,0.31818962,2.4645944,0.1792323,0.086490333,0.97999752,0
-0.011464,-0.73640037,-2.3972394,-0.1792323,-0.086490333,-0.97999752,0
-1.506508,3.1002722,-1.1390812,-0.45681953,0.88954502,0.005040586,0
1.9775128,-2.8208098,-0.36483741,0.87131602,0.44858551,-0.19894558,0
-1.7186739,2.5258293,-2.5306921,-0.1792323,-0.086490333,-0.97999752,0
0.13170332,0.87984705,0.45127827,0.87131602,0.44858551,-0.19894558,0
-1.8401771,1.5465673,-1.6328428,-0.87131602,-0.44858551,0.19894558,0
-0.2125752,1.3855675,-0.35677445,0.87131602,0.44858551,-0.19894558,0
1.5697309,-3.2398791,0.32021642,0.45681953,-0.88954502,-0.005040586,0
0.29257762,0.74315047,2.5275068,0.1792323,0.086490333,0.97999752,0
0.75303042,-3.0852034,-0.99574041,-0.87131602,-0.44858551,0.19894558,0
-0.13665748,-1.5186054,-2.3268886,-0.1792323,-0.086490333,-0.97999752,0
1.6194702,-3.1209168,-1.837851,0.45681953,-0.88954502,-0.005040586,0
-1.2990079,3.2402356,-0.27704644,-0.45681953,0.88954502,0.005040586,0
-1.1160669,2.7250695,2.5678401,0.1792323,0.086490333,0.97999752,0
-1.7283642,2.0562184,-0.17263579,-0.87131602,-0.44858551,0.19894558,0
0.41830993,-0.41389918,2.5629208,0.1792323,0.086490333,0.97999752,0
-1.2766404,2.969399,-1.0659764,0.87131602,0.44858551,-0.19894558,0
-1.5705156,3.0878592,2.3516905,-0.45681953,0.88954502,0.005040586,0
-0.37537074,1.2325413,-0.95441419,0.87131602,0.44858551,-0.19894558,0
-0.24434972,-1.0866536,-1.0601816,-0.87131602,-0.44858551,0.19894558,0
-1.2085806,2.470336,2.5451229,-0.87131602,-0.44858551,0.19894558,0
0.82464761,-1.6935141,-2.5528345,-0.1792323,-0.086490333,-0.97999752,0
-1.9649578,2.931447,-1.2989855,-0.45681953,0.88954502,0.005040586,0
-1.7235848,1.6630803,-1.5333998,-0.87131602,-0.44858551,0.19894558,0
1.6002088,-3.0748765,2.2217784,0.45681953,-0.88954502,-0.005040586,0
1.5205448,-3.1571393,-1.0572729,0.45681953,-0.88954502,-0.005040586,0
0.91711587,-0.7748611,0.19558799,0.87131602,0.44858551,-0.19894558,0
-0.62788385,-0.51623595,-1.3874397,-0.87131602,-0.44858551,0.19894558,0
1.1762453,-2.0295467,-1.8992581,0.87131602,0.44858551,-0.19894558,0
-1.1854174,3.3965416,0.96203589,-0.45681953,0.88954502,0.005040586,0
1.7117772,-1.9806532,0.31433773,0.87131602,0.44858551,-0.19894558,0
-0.14246345,1.8238851,2.4525809,0.1792323,0.086490333,0.97999752,0
2.3346047,-2.6542711,1.352154,0.87131602,0.44858551,-0.19894558,0
0.034396648,1.0013444,2.4557176,0.1792323,0.086490333,0.97999752,0
-1.7032483,2.9904513,-2.2528985,-0.45681953,0.88954502,0.005040586,0
-0.096132979,1.5655463,0.57671547,0.87131602,0.44858551,-0.19894558,0
0.83552724,-1.9910805,-2.6059821,-0.1792323,-0.086490333,-0.97999752,0
0.78578717,-2.5879788,-0.17882156,-0.87131602,-0.44858551,0.19894558,0
0.4606061,-0.55754209,2.4269161,0.1792323,0.086490333,0.97999752,0
-2.2660229,2.8415527,-2.1196175,-0.45681953,0.88954502,0.005040586,0
-1.8482183,3.0857646,-0.7263608,-0.45681953,0.88954502,0.005040586,0
2.1623681,-2.8801181,2.0427065,0.45681953,-0.88954502,-0.005040586,0
-0.90084505,3.4657505,2.2997928,-0.45681953,0.88954502,0.005040586,0
-0.27140558,1.1506271,2.4402509,0.1792323,0.086490333,0.97999752,0
0.97908986,-0.71347433,0.15075922,0.87131602,0.44858551,-0.19894558,0
-1.1067244,3.3596282,0.59217501,-0.45681953,0.88954502,0.005040586,0
-0.097413659,-0.71764922,0.89396584,-0.87131602,-0.44858551,0.19894558,0
0.96262002,-0.094392538,2.4036467,0.1792323,0.086490333,0.97999752,0
-0.88471496,0.56072497,-0.23025876,-0.87131602,-0.44858551,0.19894558,0
-1.8607354,2.8979461,-2.2043962,-0.45681953,0.88954502,0.005040586,0
-0.49705338,1.252978,2.6327617,0.1792323,0.086490333,0.97999752,0
-0.23361674,2.2663901,1.6688881,0.87131602,0.44858551,-0.19894558,0
-1.5646844,3.088573,-1.0917213,-0.45681953,0.88954502,0.005040586,0
-1.4590421,0.83484024,-2.3038776,-0.1792323,-0.086490333,-0.97999752,0
-1.3205516,3.1624603,2.0363171,-0.45681953,0.88954502,0.005040586,0
0.030702263,-1.3646588,-0.34910893,-0.87131602,-0.44858551,0.19894558,0
-1.453081,3.2064157,1.9502835,-0.45681953,0.88954502,0.005040586,0
-1.063345,2.655082,2.5339038,0.1792323,0.086490333,0.97999752,0
-1.6232374,1.3457522,-2.3526809,-0.1792323,-0.086490333,-0.97999752,0
0.64911568,0.31146204,0.5323959,0.87131602,0.44858551,-0.19894558,0
-1.8435477,3.0329332,-0.18988395,-0.45681953,0.88954502,0.005040586,0
-1.1049203,3.3348274,1.7438784,-0.45681953,0.88954502,0.005040586,0
0.57750213,0.82449996,1.8776903,0.87131602,0.44858551,-0.19894558,0
-0.82736886,0.51205224,-0.44986129,-0.87131602,-0.44858551,0.19894558,0
1.1617157,-2.5373113,-2.5332501,-0.1792323,-0.086490333,-0.97999752,0
0.51927257,0.5374279,0.97353822,0.87131602,0.44858551,-0.19894558,0
-1.9590083,2.9590461,1.0470669,-0.87131602,-0.44858551,0.19894558,0
1.4481347,-3.2209098,-2.0227942,0.45681953,-0.88954502,-0.005040586,0
-1.3289731,3.2919011,0.88991833,-0.45681953,0.88954502,0.005040586,0
-0.21434915,0.9813168,-1.4838295,0.87131602,0.44858551,-0.19894558,0
-0.11433935,0.58728993,-1.9763389,0.87131602,0.44858551,-0.19894558,0
-1.6920646,1.2559233,-1.6555405,-0.87131602,-0.44858551,0.19894558,0
-1.3690964,3.3257306,-0.38948679,-0.45681953,0.88954502,0.005040586,0
2.0117447,-2.8469412,1.4454889,0.45681953,-0.88954502,-0.005040586,0
-2.1686239,2.8185027,-2.3972707,-0.1792323,-0.086490333,-0.97999752,0
-1.3651416,2.161263,1.7496583,-0.87131602,-0.44858551,0.19894558,0
-1.3662633,1.6245319,0.66985226,-0.87131602,-0.44858551,0.19894558,0
0.02715499,-1.3389301,-0.45241284,-0.87131602,-0.44858551,0.19894558,0
1.1631198,-3.347903,-2.2449749,0.45681953,-0.88954502,-0.005040586,0
-1.603138,3.2146945,-1.6267745,-0.45681953,0.88954502,0.005040586,0
1.3680432,-3.1239886,-2.0116067,0.45681953,-0.88954502,-0.005040586,0
-0.86115807,-0.21692516,-1.29361,-0.87131602,-0.44858551,0.19894558,0
-1.0693822,3.3806767,0.94368434,-0.45681953,0.88954502,0.005040586,0
-0.35345262,0.376266,1.4327614,-0.87131602,-0.44858551,0.19894558,0
-0.94034308,3.48634,1.1602323,-0.45681953,0.88954502,0.005040586,0
-1.6203332,1.5169976,-2.4496062,-0.1792323,-0.086490333,-0.97999752,0
1.1999636,-2.7162204,-2.4987152,-0.1792323,-0.086490333,-0.97999752,0
-0.70442879,2.3412654,2.4009662,0.1792323,0.086490333,0.97999752,0
-2.0175581,2.4801483,-2.4598584,-0.1792323,-0.086490333,-0.97999752,0
-0.77887797,0.074558467,-1.0332286,-0.87131602,-0.44858551,0.19894558,0
0.53590083,-0.55753994,2.5012629,0.1792323,0.086490333,0.97999752,0
1.9299144,-2.9318991,0.22741723,0.45681953,-0.88954502,-0.005040586,0
1.9542217,-2.8568883,-0.47221112,0.87131602,0.44858551,-0.19894558,0
-1.8819723,1.9680071,-1.2267821,-0.87131602,-0.44858551,0.19894558,0
-1.3287108,1.4749866,-2.3502891,-0.1792323,-0.086490333,-0.97999752,0
-1.5349348,3.0958366,-1.4777339,-0.45681953,0.88954502,0.005040586,0
-0.82513243,1.83434,2.5384068,0.1792323,0.086490333,0.97999752,0
-0.54338133,-0.74190533,-1.6587646,-0.87131602,-0.44858551,0.19894558,0
0.13571489,-1.8152152,-2.419785,-0.1792323,-0.086490333,-0.97999752,0
1.1165724,-2.050945,-1.8154736,0.87131602,0.44858551,-0.19894558,0
-0.99863577,2.3978951,-1.6965117,0.87131602,0.44858551,-0.19894558,0
-1.5441728,3.0826242,-0.92699289,-0.45681953,0.88954502,0.005040586,0
1.2068777,-0.26927787,2.3796194,0.1792323,0.086490333,0.97999752,0
1.3399539,-1.6162173,2.5317941,0.1792323,0.086490333,0.97999752,0
1.2135887,-2.2888896,2.459806,-0.87131602,-0.44858551,0.19894558,0
-0.5922004,-1.1715819,-2.3836901,-0.1792323,-0.086490333,-0.97999752,0
1.5579987,-3.185791,-0.19289207,0.45681953,-0.88954502,-0.005040586,0
1.8587372,-1.9994738,2.3056483,0.1792323,0.086490333,0.97999752,0
-0.1985122,0.72087276,2.4860172,0.1792323,0.086490333,0.97999752,0
0.17947882,0.78703296,0.22530356,0.87131602,0.44858551,-0.19894558,0
1.1718798,-0.92370552,2.3294582,0.1792323,0.086490333,0.97999752,0
2.2573967,-2.7853479,1.7662539,0.45681953,-0.88954502,-0.005040586,0
-0.17916846,-1.7482764,-2.4599543,-0.1792323,-0.086490333,-0.97999752,0
1.6444765,-3.0345259,-1.0203185,0.45681953,-0.88954502,-0.005040586,0
1.7832918,-3.006521,2.2150855,0.45681953,-0.88954502,-0.005040586,0
1.0113454,-3.431962,-2.166461,0.45681953,-0.88954502,-0.005040586,0
1.1418495,-1.3859524,-1.0593902,0.87131602,0.44858551,-0.19894558,0
-1.0912049,3.4652464,1.5041382,-0.45681953,0.88954502,0.005040586,0
1.7411394,-2.9724369,2.0859151,0.45681953,-0.88954502,-0.005040586,0
-0.88253093,1.7273021,-2.6294434,-0.1792323,-0.086490333,-0.97999752,0
0.96729243,-1.7198191,-2.2590723,0.87131602,0.44858551,-0.19894558,0
0.03847231,1.0810318,0.20078695,0.87131602,0.44858551,-0.19894558,0
0.17225695,-1.0331411,-2.5908389,-0.1792323,-0.086490333,-0.97999752,0
-1.7607838,3.0884037,0.82437897,-0.45681953,0.88954502,0.005040586,0
-0.28621846,1.7201979,0.028098106,0.87131602,0.44858551,-0.19894558,0
-0.38548374,1.2023318,-1.2867758,0.87131602,0.44858551,-0.19894558,0
-1.3581166,1.9157776,1.0381429,-0.87131602,-0.44858551,0.19894558,0
-0.91226894,3.1433992,0.44217443,0.87131602,0.44858551,-0.19894558,0
-1.8630805,2.8748298,0.54618049,-0.87131602,-0.44858551,0.19894558,0
1.6554835,-1.2943854,1.641727,0.87131602,0.44858551,-0.19894558,0
1.1807377,-2.8200557,0.91382313,-0.87131602,-0.44858551,0.19894558,0
1.2329082,-3.320333,-0.082227468,0.45681953,-0.88954502,-0.005040586,0
1.1241697,-3.3166604,-0.2730484,0.45681953,-0.88954502,-0.005040586,0
-1.4542469,3.0764639,1.9232962,-0.45681953,0.88954502,0.005040586,0
-0.7388221,2.7151396,2.5104175,0.1792323,0.086490333,0.97999752,0
1.0584942,-3.4570808,-1.7893403,0.45681953,-0.88954502,-0.005040586,0
-0.51471984,0.75229067,2.1387384,-0.87131602,-0.44858551,0.19894558,0
2.2249563,-2.8537629,2.0984464,0.45681953,-0.88954502,-0.005040586,0
1.5050101,-2.0755203,2.4607728,0.1792323,0.086490333,0.97999752,0
1.4537921,-2.9296043,2.0545187,-0.87131602,-0.44858551,0.19894558,0
-1.2571216,0.79191643,-0.72532254,-0.87131602,-0.44858551,0.19894558,0
1.6079929,-3.1284263,2.445879,0.1792323,0.086490333,0.97999752,0
1.3252389,-1.1434882,0.92042243,0.87131602,0.44858551,-0.19894558,0
1.3037866,-1.5776592,0.096259594,0.87131602,0.44858551,-0.19894558,0
-0.18374944,-0.70731497,0.55250973,-0.87131602,-0.44858551,0.19894558,0
-0.79457819,-0.49837199,-1.9533193,-0.87131602,-0.44858551,0.19894558,0
0.48766053,0.93344963,2.3558173,0.1792323,0.086490333,0.97999752,0
-0.67035121,-0.31108242,-0.99863207,-0.87131602,-0.44858551,0.19894558,0
0.34347498,-1.2142577,-2.4115772,-0.1792323,-0.086490333,-0.97999752,0
-1.2148547,3.0277889,2.5927322,0.1792323,0.086490333,0.97999752,0
1.120645,-2.348649,2.3622944,-0.87131602,-0.44858551,0.19894558,0
1.5025002,-3.2421923,0.77857995,0.45681953,-0.88954502,-0.005040586,0
0.041619062,-0.5203464,1.3200332,-0.87131602,-0.44858551,0.19894558,0
-1.6443239,3.1776609,-0.31280231,-0.45681953,0.88954502,0.005040586,0
-1.4448502,3.1910512,2.0605602,-0.45681953,0.88954502,0.005040586,0
0.76335752,0.48137656,1.9387164,0.87131602,0.44858551,-0.19894558,0
-1.6835178,3.0556414,0.25135326,-0.45681953,0.88954502,0.005040586,0
1.5687444,-1.6563101,0.5795511,0.87131602,0.44858551,-0.19894558,0
-2.037251,2.9515569,-1.2013528,-0.45681953,0.88954502,0.005040586,0
0.011380196,1.2723193,2.4123034,0.1792323,0.086490333,0.97999752,0
-0.2915448,-0.73167962,-2.4472625,-0.1792323,-0.086490333,-0.97999752,0
0.25624037,-0.31367791,-2.0406106,0.87131602,0.44858551,-0.19894558,0
0.73891461,-1.4118078,-2.6160145,-0.1792323,-0.086490333,-0.97999752,0
1.1668396,-2.9242237,-2.5181007,-0.1792323,-0.086490333,-0.97999752,0
0.88427246,-3.561657,-1.7618122,0.45681953,-0.88954502,-0.005040586,0
-0.73778915,0.35569653,-0.26551151,-0.87131602,-0.44858551,0.19894558,0
-1.5602267,1.0156543,-2.1928802,-0.87131602,-0.44858551,0.19894558,0
1.9406053,-1.9932609,1.0373707,0.87131602,0.44858551,-0.19894558,0
-0.38287437,0.92985994,2.6116602,0.1792323,0.086490333,0.97999752,0
-0.81701899,0.92676985,-2.5406723,-0.1792323,-0.086490333,-0.97999752,0
-0.29452538,0.50490254,2.1823859,-0.87131602,-0.44858551,0.19894558,0
-1.7470882,2.9621143,-0.8179009,-0.45681953,0.88954502,0.005040586,0
-1.6634669,3.1604674,-1.6473739,-0.45681953,0.88954502,0.005040586,0
2.4036283,-2.7385845,2.1296678,0.45681953,-0.88954502,-0.005040586,0
-2.4552965,2.7170238,-2.2576513,-0.45681953,0.88954502,0.005040586,0
-1.5063558,3.0978105,0.20614243,-0.45681953,0.88954502,0.005040586,0
1.9997623,-2.8096404,2.3414943,0.45681953,-0.88954502,-0.005040586,0
-1.7042698,3.0139186,1.1923623,-0.45681953,0.88954502,0.005040586,0
1.4993904,-0.95311135,2.1927798,0.87131602,0.44858551,-0.19894558,0
1.2434042,-2.3044889,2.4957843,0.1792323,0.086490333,0.97999752,0
-2.0035934,2.2324507,-2.3758073,-0.1792323,-0.086490333,-0.97999752,0
-0.31972814,-1.1918648,-2.4253883,-0.1792323,-0.086490333,-0.97999752,0
0.18992186,-0.83512366,1.0674516,-0.87131602,-0.44858551,0.19894558,0
-0.59585118,1.0368428,1.9605,-0.87131602,-0.44858551,0.19894558,0
-2.2000005,2.160373,-2.1422572,-0.87131602,-0.44858551,0.19894558,0
