-1.3999474,-3.2278285,1.7874353,-0.41019005,-0.77419686,0.48204058,0
1.2313139,3.3199651,-1.9255838,0.41019005,0.77419686,-0.48204058,0
2.0509229,2.7325232,-2.0798206,0.41019005,0.77419686,-0.48204058,0
3.6229906,2.8907535,-0.68394232,0.41019005,0.77419686,-0.48204058,0
-0.53082478,-1.3138454,0.26323128,0.31794059,-0.61678672,-0.72006071,0
-2.9523573,-2.960274,1.1359756,-0.41019005,-0.77419686,0.48204058,0
-1.611151,1.4975458,-1.8286353,-0.85478497,0.14210151,-0.49914855,0
3.5994575,2.490953,-1.1050441,0.41019005,0.77419686,-0.48204058,0
-1.5903332,-2.4889174,0.62610292,0.31794059,-0.61678672,-0.72006071,0
2.7956722,0.35545486,0.21809804,0.85478497,-0.14210151,0.49914855,0
-1.9342291,1.2740355,-1.1173089,-0.31794059,0.61678672,0.72006071,0
1.3858654,0.76711774,0.58194888,-0.31794059,0.61678672,0.72006071,0
2.9244432,0.92345452,0.13791561,0.85478497,-0.14210151,0.49914855,0
1.6738037,-0.027395368,0.19518018,0.31794059,-0.61678672,-0.72006071,0
2.1990037,1.3904485,0.36838531,-0.31794059,0.61678672,0.72006071,0
3.7277255,2.5227714,-0.71330714,0.85478497,-0.14210151,0.49914855,0
2.1439786,0.90232968,-0.57366157,0.31794059,-0.61678672,-0.72006071,0
1.2451501,3.0455575,-2.3989906,0.41019005,0.77419686,-0.48204058,0
1.7014289,-0.51710606,1.8155719,0.85478497,-0.14210151,0.49914855,0
-2.2960436,-0.9248507,0.48717344,-0.31794059,0.61678672,0.72006071,0
-1.561703,1.2892427,-1.9769759,-0.85478497,0.14210151,-0.49914855,0
1.3560531,-1.0459921,2.2456877,0.85478497,-0.14210151,0.49914855,0
-1.3172157,-3.1700616,1.5610166,0.31794059,-0.61678672,-0.72006071,0
0.143482,0.59859496,0.30376214,-0.31794059,0.61678672,0.72006071,0
1.9427207,2.8864973,-2.1192341,0.41019005,0.77419686,-0.48204058,0
-0.66157824,-2.891542,1.3784769,0.31794059,-0.61678672,-0.72006071,0
1.0021443,1.3114991,-1.3296052,0.31794059,-0.61678672,-0.72006071,0
-0.1165204,-2.2670321,2.4866672,-0.31794059,0.61678672,0.72006071,0
-3.2063484,-2.7957039,1.151664,-0.41019005,-0.77419686,0.48204058,0
3.411366,1.9981087,-0.42917156,0.85478497,-0.14210151,0.49914855,0
-1.8097069,1.3988823,-1.3304754,-0.85478497,0.14210151,-0.49914855,0
2.5043774,2.8926191,-1.6872075,0.41019005,0.77419686,-0.48204058,0
-1.4608877,1.4025367,-2.2128825,-0.85478497,0.14210151,-0.49914855,0
0.89785647,2.6642122,-2.6815972,0.31794059,-0.61678672,-0.72006071,0
-0.82721758,2.2617922,-3.0952332,-0.85478497,0.14210151,-0.49914855,0
3.672847,2.5650969,-0.91675019,0.41019005,0.77419686,-0.48204058,0
1.6521022,2.3283608,-0.67230439,-0.31794059,0.61678672,0.72006071,0
-0.84188819,2.5471518,-2.9290962,-0.85478497,0.14210151,-0.49914855,0
-0.43081367,-3.4908192,2.4044962,-0.41019005,-0.77419686,0.48204058,0
0.38754296,-3.5970018,2.8854158,-0.41019005,-0.77419686,0.48204058,0
-1.7623348,-0.28596288,0.290084,-0.31794059,0.61678672,0.72006071,0
-0.68335676,2.7562838,-2.8735156,-0.85478497,0.14210151,-0.49914855,0
0.34087837,-1.6885842,1.0407708,0.31794059,-0.61678672,-0.72006071,0
-0.046684384,3.3220899,-2.8971372,0.41019005,0.77419686,-0.48204058,0
2.8725929,2.662482,-1.4925911,0.41019005,0.77419686,-0.48204058,0
-0.46840596,3.5001347,-3.066092,0.41019005,0.77419686,-0.48204058,0
-0.81952643,2.5560999,-3.0721495,-0.85478497,0.14210151,-0.49914855,0
0.44418815,1.890027,-0.63942397,-0.31794059,0.61678672,0.72006071,0
3.4087143,1.4474788,-0.35858274,0.85478497,-0.14210151,0.49914855,0
3.2140276,1.370499,-0.26688957,0.85478497,-0.14210151,0.49914855,0
-0.46266636,-3.1704574,1.8168514,0.31794059,-0.61678672,-0.72006071,0
-1.1603607,-3.5111215,1.8748732,-0.41019005,-0.77419686,0.48204058,0
0.43991679,-0.052859962,0.80155712,-0.31794059,0.61678672,0.72006071,0
0.13443136,3.3485789,-2.9382701,0.41019005,0.77419686,-0.48204058,0
0.42476225,-3.3186474,3.3343506,0.85478497,-0.14210151,0.49914855,0
-0.25749218,2.9937451,-2.1055098,-0.31794059,0.61678672,0.72006071,0
-1.6903679,-3.3240173,1.4740355,-0.41019005,-0.77419686,0.48204058,0
-3.5799947,-2.9720252,0.55656075,-0.41019005,-0.77419686,0.48204058,0
1.2679476,-0.37565342,1.5772161,-0.31794059,0.61678672,0.72006071,0
3.5154245,1.847345,-0.4341538,0.85478497,-0.14210151,0.49914855,0
-0.25210786,2.4473238,-1.4092177,-0.31794059,0.61678672,0.72006071,0
-2.8492193,-0.93184274,-0.5263623,-0.85478497,0.14210151,-0.49914855,0
-0.0065909624,-3.7138431,2.4643745,-0.41019005,-0.77419686,0.48204058,0
-1.3795141,-3.1468923,1.3297307,0.31794059,-0.61678672,-0.72006071,0
0.049945831,-3.267282,3.1374688,-0.41019005,-0.77419686,0.48204058,0
0.088537991,0.5336563,-1.2100384,0.31794059,-0.61678672,-0.72006071,0
-2.2192016,-3.2094858,1.0717134,0.31794059,-0.61678672,-0.72006071,0
0.8086983,2.9082432,-2.7711263,0.41019005,0.77419686,-0.48204058,0
2.3775663,0.2608411,1.1589861,0.85478497,-0.14210151,0.49914855,0
0.95174664,1.7179161,-0.35290658,-0.31794059,0.61678672,0.72006071,0
-1.1625273,0.9869864,-2.0681186,0.31794059,-0.61678672,-0.72006071,0
-3.3835785,-1.9228806,0.31177258,-0.85478497,0.14210151,-0.49914855,0
2.3464541,2.400744,-0.34404993,-0.31794059,0.61678672,0.72006071,0
3.7488,2.2612739,-0.71773005,0.85478497,-0.14210151,0.49914855,0
-1.0094208,-2.765897,1.280413,0.31794059,-0.61678672,-0.72006071,0
2.7830422,0.61914045,0.27143764,0.85478497,-0.14210151,0.49914855,0
3.1830757,1.2749188,-0.25879765,0.85478497,-0.14210151,0.49914855,0
2.0119641,3.1687248,-1.3872051,0.41019005,0.77419686,-0.48204058,0
-1.0229707,-3.2083387,2.2227745,-0.41019005,-0.77419686,0.48204058,0
-0.61455965,-3.3444705,2.2561831,-0.41019005,-0.77419686,0.48204058,0
1.4165758,2.8893671,-2.4314213,0.41019005,0.77419686,-0.48204058,0
-0.28736609,0.23878247,0.37127623,-0.31794059,0.61678672,0.72006071,0
-0.42908251,2.6061795,-1.6635517,-0.31794059,0.61678672,0.72006071,0
1.7100409,2.7561345,-2.3290815,0.41019005,0.77419686,-0.48204058,0
-1.6371567,-3.2673295,1.4728637,-0.41019005,-0.77419686,0.48204058,0
2.7001648,2.890239,-1.5244787,0.41019005,0.77419686,-0.48204058,0
-2.3474441,-0.54922903,-1.0191424,-0.85478497,0.14210151,-0.49914855,0
-3.3323367,-2.166924,0.22767091,-0.85478497,0.14210151,-0.49914855,0
1.2491515,3.0743585,-2.3133788,0.41019005,0.77419686,-0.48204058,0
-2.4967916,-2.6675463,1.7851281,-0.41019005,-0.77419686,0.48204058,0
2.2227321,-0.76195544,1.1499193,0.85478497,-0.14210151,0.49914855,0
3.6547198,2.2167654,-0.74363399,0.85478497,-0.14210151,0.49914855,0
0.039742112,3.177371,-3.2662201,0.41019005,0.77419686,-0.48204058,0
-2.6523657,-3.0821552,1.0051811,-0.41019005,-0.77419686,0.48204058,0
0.73331738,-3.4987369,2.9026508,0.85478497,-0.14210151,0.49914855,0
0.81139648,3.0895901,-2.5601954,0.41019005,0.77419686,-0.48204058,0
-1.5802298,0.30914131,-1.7336812,0.31794059,-0.61678672,-0.72006071,0
2.9400172,0.94519305,0.24312079,0.85478497,-0.14210151,0.49914855,0
-1.6634868,-2.8096671,2.3778389,-0.41019005,-0.77419686,0.48204058,0
-0.62675798,-3.1975229,2.6765316,-0.41019005,-0.77419686,0.48204058,0
-2.6992316,-2.7580745,1.39659,-0.41019005,-0.77419686,0.48204058,0
3.7520144,2.1836572,-0.73686481,0.85478497,-0.14210151,0.49914855,0
1.9132609,2.9187894,-1.7808316,0.41019005,0.77419686,-0.48204058,0
0.77565545,3.2820046,-2.3389378,0.41019005,0.77419686,-0.48204058,0
-0.10778165,-3.4134517,2.5882933,-0.41019005,-0.77419686,0.48204058,0
-1.8064214,-3.3608284,1.4071283,-0.41019005,-0.77419686,0.48204058,0
0.81116378,3.3730509,-2.2549248,0.41019005,0.77419686,-0.48204058,0
-2.0351582,-2.0245595,0.060466766,0.31794059,-0.61678672,-0.72006071,0
0.058109045,-3.3903499,3.0007756,-0.41019005,-0.77419686,0.48204058,0
-3.5225496,-2.2142138,0.4170351,-0.85478497,0.14210151,-0.49914855,0
-0.22589475,-0.37859875,-0.54645854,0.31794059,-0.61678672,-0.72006071,0
0.48438048,-3.6010523,2.6409647,0.31794059,-0.61678672,-0.72006071,0
-0.96673095,-2.2384846,0.89547133,0.31794059,-0.61678672,-0.72006071,0
0.5553115,3.1627846,-2.8622117,0.41019005,0.77419686,-0.48204058,0
-0.43770313,-0.52005911,0.83074516,-0.31794059,0.61678672,0.72006071,0
1.5103389,2.9146698,-2.2605221,0.41019005,0.77419686,-0.48204058,0
-0.29336905,-3.405602,2.407856,-0.41019005,-0.77419686,0.48204058,0
1.9100392,-1.0485888,1.5838411,0.85478497,-0.14210151,0.49914855,0
-2.0283878,0.1924641,-1.4665853,-0.85478497,0.14210151,-0.49914855,0
0.16677606,-2.4984286,1.4380488,0.31794059,-0.61678672,-0.72006071,0
-0.68129063,-3.0650761,2.7272654,-0.41019005,-0.77419686,0.48204058,0
-2.351903,-0.014353767,-1.1516191,-0.85478497,0.14210151,-0.49914855,0
0.47312641,-2.9581032,3.3172877,0.85478497,-0.14210151,0.49914855,0
3.4875481,3.004669,-0.41917086,0.41019005,0.77419686,-0.48204058,0
-3.8910949,-2.3784144,0.78309917,-0.85478497,0.14210151,-0.49914855,0
3.3481834,2.427376,-1.3324165,0.31794059,-0.61678672,-0.72006071,0
-2.5619364,-1.2710764,0.58403563,-0.31794059,0.61678672,0.72006071,0
-2.7234087,-1.1363294,-0.53127718,-0.85478497,0.14210151,-0.49914855,0
3.7711165,2.5150356,-0.73993301,0.85478497,-0.14210151,0.49914855,0
1.7231205,-1.5092771,1.7513068,0.85478497,-0.14210151,0.49914855,0
2.7503059,1.139221,0.43286407,0.85478497,-0.14210151,0.49914855,0
-2.7380145,-1.1803529,-0.46364474,-0.85478497,0.14210151,-0.49914855,0
0.08049798,1.5329998,-2.0836544,0.31794059,-0.61678672,-0.72006071,0
1.3151751,1.7034663,-0.28786075,-0.31794059,0.61678672,0.72006071,0
3.3604288,2.9346561,-0.88729286,0.41019005,0.77419686,-0.48204058,0
0.82319498,0.14134982,1.0151206,-0.31794059,0.61678672,0.72006071,0
-1.4030825,-3.0893958,1.9745841,-0.41019005,-0.77419686,0.48204058,0
0.49040842,-2.1225646,2.7459803,-0.31794059,0.61678672,0.72006071,0
-0.72097135,2.6161141,-2.8647137,-0.85478497,0.14210151,-0.49914855,0
0.2954278,-3.1593237,3.4159975,-0.41019005,-0.77419686,0.48204058,0
0.39880979,-0.48470232,1.3611543,-0.31794059,0.61678672,0.72006071,0
0.070596933,-3.3121893,3.1388543,-0.41019005,-0.77419686,0.48204058,0
1.1549301,-2.472271,2.4343417,0.85478497,-0.14210151,0.49914855,0
-0.13658655,3.2657795,-2.2887101,-0.31794059,0.61678672,0.72006071,0
0.303231,3.4576619,-2.3565207,0.41019005,0.77419686,-0.48204058,0
3.58705,2.2918136,-0.31050706,0.85478497,-0.14210151,0.49914855,0
1.8862126,0.74258238,0.91412491,-0.31794059,0.61678672,0.72006071,0
-3.1503544,-1.7398093,-0.20315933,-0.85478497,0.14210151,-0.49914855,0
3.8097856,2.6537435,-0.73646927,0.41019005,0.77419686,-0.48204058,0
2.2091894,0.29735541,1.2987838,0.85478497,-0.14210151,0.49914855,0
0.89707077,2.9312787,-2.8837504,0.41019005,0.77419686,-0.48204058,0
0.8999452,3.1225889,-2.3507173,0.41019005,0.77419686,-0.48204058,0
-2.5727642,-3.1011534,1.2325714,-0.41019005,-0.77419686,0.48204058,0
-1.5438602,-3.3295929,1.7839053,-0.41019005,-0.77419686,0.48204058,0
0.63794923,-3.5331147,2.8709328,0.85478497,-0.14210151,0.49914855,0
-2.224041,-3.0041866,0.99890351,0.31794059,-0.61678672,-0.72006071,0
2.4316294,-0.20032603,0.60397863,0.85478497,-0.14210151,0.49914855,0
2.664228,3.0366459,-0.64804435,-0.31794059,0.61678672,0.72006071,0
3.8221579,2.4084601,-1.0874369,0.31794059,-0.61678672,-0.72006071,0
-2.7447534,-2.8838348,1.4431753,-0.41019005,-0.77419686,0.48204058,0
1.9484278,3.030926,-1.7246482,0.41019005,0.77419686,-0.48204058,0
2.122963,0.014173895,1.4505372,0.85478497,-0.14210151,0.49914855,0
-2.2084413,-0.49465516,0.16771758,-0.31794059,0.61678672,0.72006071,0
0.96245742,-3.0565343,2.6319809,0.85478497,-0.14210151,0.49914855,0
3.2975996,1.3310957,-0.10305524,0.85478497,-0.14210151,0.49914855,0
-2.848428,-2.9621868,0.44876242,0.31794059,-0.61678672,-0.72006071,0
-1.5594473,-0.23272923,-1.0968977,0.31794059,-0.61678672,-0.72006071,0
-0.64868486,0.73062766,-1.5829947,0.31794059,-0.61678672,-0.72006071,0
-2.0778852,0.29778656,-1.3081802,-0.85478497,0.14210151,-0.49914855,0
3.5264895,2.2039573,-0.21159959,0.85478497,-0.14210151,0.49914855,0
1.6381924,-1.2380401,1.8503132,0.85478497,-0.14210151,0.49914855,0
2.1473377,-0.53368878,1.160238,0.85478497,-0.14210151,0.49914855,0
1.5390378,0.066878378,1.2606828,-0.31794059,0.61678672,0.72006071,0
1.7925272,-0.20337695,0.26849926,0.31794059,-0.61678672,-0.72006071,0
-2.3137963,0.11785486,-0.85669911,-0.85478497,0.14210151,-0.49914855,0
-3.3477731,-2.7509542,0.92604375,-0.41019005,-0.77419686,0.48204058,0
-3.7306211,-2.5965538,0.56995964,-0.85478497,0.14210151,-0.49914855,0
2.7562547,0.5759033,0.042204738,0.31794059,-0.61678672,-0.72006071,0
0.90945858,3.4071267,-1.9866123,0.41019005,0.77419686,-0.48204058,0
2.2597713,2.741065,-2.0336165,0.41019005,0.77419686,-0.48204058,0
-1.3515429,1.8803623,-2.1558022,-0.85478497,0.14210151,-0.49914855,0
3.2919936,3.1159585,-0.68802261,0.41019005,0.77419686,-0.48204058,0
-0.7108655,3.2668669,-2.7389598,-0.85478497,0.14210151,-0.49914855,0
-2.6940145,-2.7813635,1.54404,-0.41019005,-0.77419686,0.48204058,0
-0.63720268,-2.1948328,2.373069,-0.31794059,0.61678672,0.72006071,0
1.1791215,-1.8395224,2.4270608,0.85478497,-0.14210151,0.49914855,0
-1.3438419,-3.2600176,1.9279692,-0.41019005,-0.77419686,0.48204058,0
-2.7936575,-0.35062158,-0.28494036,-0.85478497,0.14210151,-0.49914855,0
2.6385498,0.41235462,0.77936226,0.85478497,-0.14210151,0.49914855,0
-2.8749001,-3.0332327,1.1097951,-0.41019005,-0.77419686,0.48204058,0
3.0586996,3.0585246,-0.68166924,0.41019005,0.77419686,-0.48204058,0
-0.41017771,3.6538322,-2.8315458,0.41019005,0.77419686,-0.48204058,0
2.3406017,-0.12573195,1.0736114,0.85478497,-0.14210151,0.49914855,0
-3.7019057,-2.6068187,1.1638927,-0.41019005,-0.77419686,0.48204058,0
-1.9854035,-3.1643043,1.5550487,-0.41019005,-0.77419686,0.48204058,0
-2.5817347,-0.6049847,0.058009624,-0.31794059,0.61678672,0.72006071,0
-1.7495663,0.73148072,-1.9818473,-0.85478497,0.14210151,-0.49914855,0
2.6648009,0.73562056,0.54738164,0.85478497,-0.14210151,0.49914855,0
2.7370918,0.69384241,0.44660783,0.85478497,-0.14210151,0.49914855,0
-3.6254818,-2.3100684,0.56128216,-0.85478497,0.14210151,-0.49914855,0
-1.7304611,-2.644969,2.1971564,-0.31794059,0.61678672,0.72006071,0
-0.58875096,-3.1230409,2.6820118,-0.41019005,-0.77419686,0.48204058,0
-1.596148,-3.1888173,1.7816675,-0.41019005,-0.77419686,0.48204058,0
0.69168139,-3.4778113,2.9367175,0.85478497,-0.14210151,0.49914855,0
-0.1093564,-3.1835175,3.1595168,-0.41019005,-0.77419686,0.48204058,0
-2.1518228,-2.8207519,1.999207,-0.41019005,-0.77419686,0.48204058,0
-1.1327783,-2.1656866,1.9172165,-0.31794059,0.61678672,0.72006071,0
0.86324155,-0.50348908,1.4383495,-0.31794059,0.61678672,0.72006071,0
1.8226414,-1.1370242,1.4331573,0.85478497,-0.14210151,0.49914855,0
0.84077442,2.3972988,-0.86170721,-0.31794059,0.61678672,0.72006071,0
0.99016726,3.3229773,-2.0683749,0.41019005,0.77419686,-0.48204058,0
3.6199489,2.5186155,-0.31584668,0.85478497,-0.14210151,0.49914855,0
0.83246315,1.8000093,-0.5909375,-0.31794059,0.61678672,0.72006071,0
0.6472013,3.1591237,-2.6490107,0.41019005,0.77419686,-0.48204058,0
-0.35734141,-3.0434933,2.9422359,-0.41019005,-0.77419686,0.48204058,0
-0.22568297,-1.3785247,1.6659279,-0.31794059,0.61678672,0.72006071,0
-0.058746696,-3.2327523,3.2377217,-0.41019005,-0.77419686,0.48204058,0
0.93248081,0.34202689,-0.48358947,0.31794059,-0.61678672,-0.72006071,0
0.11235178,3.3340013,-1.97966,-0.31794059,0.61678672,0.72006071,0
-0.79016078,-3.4846282,2.1276855,-0.41019005,-0.77419686,0.48204058,0
-0.45778084,2.6135404,-3.1264853,0.31794059,-0.61678672,-0.72006071,0
1.1587756,2.4098995,-2.3263001,0.31794059,-0.61678672,-0.72006071,0
0.54757547,-3.6229839,3.0924582,-0.41019005,-0.77419686,0.48204058,0
1.7787092,-1.4817219,1.5984415,0.85478497,-0.14210151,0.49914855,0
-2.5659437,-2.5805502,1.8031762,-0.31794059,0.61678672,0.72006071,0
-2.9254491,-0.80258137,-0.26896739,-0.85478497,0.14210151,-0.49914855,0
0.026886106,-1.6903877,2.0383794,-0.31794059,0.61678672,0.72006071,0
1.8944545,-0.82502592,1.4835669,0.85478497,-0.14210151,0.49914855,0
-3.1720433,-2.3497953,1.3875844,-0.31794059,0.61678672,0.72006071,0
-0.2501756,-3.4109461,2.4269083,-0.41019005,-0.77419686,0.48204058,0
0.5494253,1.8436469,-0.53857255,-0.31794059,0.61678672,0.72006071,0
-2.4874082,-2.7563303,1.6252117,-0.41019005,-0.77419686,0.48204058,0
-2.873893,-0.89135349,-0.28657329,-0.85478497,0.14210151,-0.49914855,0
2.072649,1.9655858,-1.4528167,0.31794059,-0.61678672,-0.72006071,0
2.7708967,2.9501588,-1.1976724,0.41019005,0.77419686,-0.48204058,0
1.6033858,2.6253033,-2.311717,0.31794059,-0.61678672,-0.72006071,0
0.85432005,-2.3129392,2.7908962,0.85478497,-0.14210151,0.49914855,0
-2.1104238,0.80822992,-1.2246584,-0.85478497,0.14210151,-0.49914855,0
-2.4624608,-1.0903467,-0.82064545,0.31794059,-0.61678672,-0.72006071,0
-1.7414553,0.74700266,-1.9693377,-0.85478497,0.14210151,-0.49914855,0
-3.7392306,-2.1851029,0.80007768,-0.85478497,0.14210151,-0.49914855,0
-3.5901189,-1.9938807,0.75492764,-0.31794059,0.61678672,0.72006071,0
-2.1444404,0.06414783,-1.1582798,-0.85478497,0.14210151,-0.49914855,0
3.4136457,2.3237808,-0.028844118,0.85478497,-0.14210151,0.49914855,0
0.19513068,0.93353248,-1.4120797,0.31794059,-0.61678672,-0.72006071,0
-1.2904072,1.6858101,-1.2766359,-0.31794059,0.61678672,0.72006071,0
-3.4540074,-2.9678771,0.60907936,-0.41019005,-0.77419686,0.48204058,0
3.1542506,1.3070132,-0.31783175,0.31794059,-0.61678672,-0.72006071,0
-1.2445805,-1.0719337,1.0064695,-0.31794059,0.61678672,0.72006071,0
-3.6859381,-2.7704406,0.55328894,-0.41019005,-0.77419686,0.48204058,0
-0.42284656,3.0517597,-3.2819333,-0.85478497,0.14210151,-0.49914855,0
0.27416533,0.90784061,-1.2925236,0.31794059,-0.61678672,-0.72006071,0
0.13866311,-1.9376478,0.91258204,0.31794059,-0.61678672,-0.72006071,0
-2.1162772,-2.9001651,1.6851189,-0.41019005,-0.77419686,0.48204058,0
-0.84406018,2.5728724,-2.7662611,-0.85478497,0.14210151,-0.49914855,0
3.2111387,2.8272264,-1.0625985,0.41019005,0.77419686,-0.48204058,0
-0.91201282,-2.8607185,2.8418794,-0.41019005,-0.77419686,0.48204058,0
-1.5532037,-3.1321158,1.9593625,-0.41019005,-0.77419686,0.48204058,0
3.310694,2.9848599,-0.67762995,0.41019005,0.77419686,-0.48204058,0
0.93320817,1.532794,-1.7087641,0.31794059,-0.61678672,-0.72006071,0
-1.0410292,-3.3816774,2.1604414,-0.41019005,-0.77419686,0.48204058,0
0.046644211,1.4664856,-2.0415211,0.31794059,-0.61678672,-0.72006071,0
-3.2341254,-1.9122639,-0.15332246,-0.85478497,0.14210151,-0.49914855,0
-3.0252638,-3.1803422,0.72452784,-0.41019005,-0.77419686,0.48204058,0
2.8642185,0.51638991,0.35666168,0.85478497,-0.14210151,0.49914855,0
-1.890349,-0.088566065,-0.021718979,-0.31794059,0.61678672,0.72006071,0
3.1278155,1.8717506,0.17585969,0.85478497,-0.14210151,0.49914855,0
-0.75930858,-2.5459924,1.2138996,0.31794059,-0.61678672,-0.72006071,0
0.41680908,2.8194301,-1.4435334,-0.31794059,0.61678672,0.72006071,0
2.941257,2.8269444,-1.2546532,0.41019005,0.77419686,-0.48204058,0
-0.24503934,-3.2636809,2.9206104,-0.41019005,-0.77419686,0.48204058,0
-2.8253331,-2.190064,1.3718016,-0.31794059,0.61678672,0.72006071,0
1.8610322,-0.78259212,1.7898707,0.85478497,-0.14210151,0.49914855,0
0.23805907,-0.4488396,-0.33956087,0.31794059,-0.61678672,-0.72006071,0
0.81952977,-2.4950728,2.7551944,0.85478497,-0.14210151,0.49914855,0
-0.88113475,0.62936139,-0.12609667,-0.31794059,0.61678672,0.72006071,0
0.58270097,-3.5106277,2.9909058,-0.41019005,-0.77419686,0.48204058,0
1.6536417,1.388482,0.29949415,-0.31794059,0.61678672,0.72006071,0
-2.7645988,-1.0311208,-0.52475667,-0.85478497,0.14210151,-0.49914855,0
-0.34158242,-2.6045656,2.9064453,-0.31794059,0.61678672,0.72006071,0
2.1840312,0.067176752,1.2058872,0.85478497,-0.14210151,0.49914855,0
1.8679395,-0.81267238,1.5935543,0.85478497,-0.14210151,0.49914855,0
0.63570189,-2.57195,3.0389955,0.85478497,-0.14210151,0.49914855,0
1.153186,-2.0045214,1.5392997,0.31794059,-0.61678672,-0.72006071,0
-3.2497442,-1.8097459,0.071612358,-0.85478497,0.14210151,-0.49914855,0
0.64228261,3.4566765,-2.2874336,0.41019005,0.77419686,-0.48204058,0
0.10544813,-3.4872537,2.7466612,-0.41019005,-0.77419686,0.48204058,0
1.2700998,-0.46139205,1.512856,-0.31794059,0.61678672,0.72006071,0
0.57635164,-2.1078258,2.647954,-0.31794059,0.61678672,0.72006071,0
-0.98574972,-3.4054224,1.9153428,-0.41019005,-0.77419686,0.48204058,0
-3.9649661,-2.4540226,0.96003103,-0.41019005,-0.77419686,0.48204058,0
-3.2419081,-2.8062992,0.86669564,-0.41019005,-0.77419686,0.48204058,0
-0.16501701,-3.139133,2.9999306,-0.41019005,-0.77419686,0.48204058,0
3.6035373,2.9543123,-0.61529279,0.41019005,0.77419686,-0.48204058,0
-0.40421146,-3.3665342,2.4869852,-0.41019005,-0.77419686,0.48204058,0
1.0980242,3.3567238,-2.1773314,0.41019005,0.77419686,-0.48204058,0
1.1816099,2.9543414,-2.5268292,0.41019005,0.77419686,-0.48204058,0
-2.5783241,-0.83033991,-0.72299111,-0.85478497,0.14210151,-0.49914855,0
3.2550552,2.9965782,-0.71547532,0.41019005,0.77419686,-0.48204058,0
-0.36495501,-3.501363,2.4496913,-0.41019005,-0.77419686,0.48204058,0
2.831749,0.6199801,0.44797385,0.85478497,-0.14210151,0.49914855,0
-1.6051896,0.56860638,-1.940199,-0.85478497,0.14210151,-0.49914855,0
0.082592368,3.4274368,-2.8921466,0.41019005,0.77419686,-0.48204058,0
3.1408329,1.5717797,-0.0050628185,0.85478497,-0.14210151,0.49914855,0
2.6365743,2.6428797,-1.7332399,0.41019005,0.77419686,-0.48204058,0
2.5549228,0.30517894,0.54020023,0.85478497,-0.14210151,0.49914855,0
-3.6169367,-2.01615,0.75820398,-0.85478497,0.14210151,-0.49914855,0
-2.3386407,-0.47169042,0.14830279,-0.31794059,0.61678672,0.72006071,0
-0.30063045,0.77790248,-1.4690498,0.31794059,-0.61678672,-0.72006071,0
-2.1626666,-2.478965,1.8502281,-0.31794059,0.61678672,0.72006071,0
2.9789221,3.0041704,-1.0266931,0.41019005,0.77419686,-0.48204058,0
-1.6176209,0.71976733,-1.9703672,-0.85478497,0.14210151,-0.49914855,0
-0.53348756,3.437079,-3.1588945,0.41019005,0.77419686,-0.48204058,0
1.6040283,0.2451309,-0.075838327,0.31794059,-0.61678672,-0.72006071,0
1.1468555,3.2065167,-1.9823908,0.41019005,0.77419686,-0.48204058,0
-1.0808184,2.8681514,-2.426903,-0.85478497,0.14210151,-0.49914855,0
0.38368678,-3.1431885,3.4199991,-0.41019005,-0.77419686,0.48204058,0
-1.7086506,-2.8737612,2.3020566,-0.41019005,-0.77419686,0.48204058,0
-3.0348668,-2.0224051,1.0072739,-0.31794059,0.61678672,0.72006071,0
2.1208386,2.9221754,-1.7710276,0.41019005,0.77419686,-0.48204058,0
-2.8403308,-0.66934121,-0.46661401,-0.85478497,0.14210151,-0.49914855,0
-3.6805289,-2.6401219,0.98016429,-0.41019005,-0.77419686,0.48204058,0
2.0774562,1.9639304,-1.5499948,0.31794059,-0.61678672,-0.72006071,0
-1.2472854,2.2309647,-1.7669821,-0.31794059,0.61678672,0.72006071,0
-1.7927263,0.62489468,-1.7863361,-0.85478497,0.14210151,-0.49914855,0
0.43185461,-0.60264182,1.5199449,-0.31794059,0.61678672,0.72006071,0
1.816155,-0.57344413,1.7852041,0.85478497,-0.14210151,0.49914855,0
0.63804144,3.4904225,-2.3139384,0.41019005,0.77419686,-0.48204058,0
2.1453738,3.2546175,-1.2149212,0.41019005,0.77419686,-0.48204058,0
2.1508389,2.9465954,-1.5499353,0.41019005,0.77419686,-0.48204058,0
0.14736962,-3.2255557,3.1450479,-0.41019005,-0.77419686,0.48204058,0
2.5050879,-0.27566022,0.6877799,0.85478497,-0.14210151,0.49914855,0
1.8720462,-0.67851478,1.5785146,0.85478497,-0.14210151,0.49914855,0
3.25544,2.4604599,-0.051706076,-0.31794059,0.61678672,0.72006071,0
-1.6797516,-1.8785486,1.4760791,-0.31794059,0.61678672,0.72006071,0
-1.0926524,-2.1277361,1.9949528,-0.31794059,0.61678672,0.72006071,0
-3.0069222,-1.3075314,-0.25349998,-0.85478497,0.14210151,-0.49914855,0
-0.14006007,-3.3041513,2.673131,-0.41019005,-0.77419686,0.48204058,0
-0.71628451,3.3371584,-2.9457731,-0.85478497,0.14210151,-0.49914855,0
0.36989409,1.11645,-0.017345071,-0.31794059,0.61678672,0.72006071,0
-1.7886336,-0.64998865,-0.99262685,0.31794059,-0.61678672,-0.72006071,0
-2.6838672,-1.153707,-0.67032123,-0.85478497,0.14210151,-0.49914855,0
1.51472,-1.76449,1.7142986,0.85478497,-0.14210151,0.49914855,0
-3.2099001,-1.6571532,0.19966364,-0.85478497,0.14210151,-0.49914855,0
1.8635327,3.0410178,-1.7548575,0.41019005,0.77419686,-0.48204058,0
0.27247497,-0.61216187,0.026682168,0.31794059,-0.61678672,-0.72006071,0
3.2779803,1.7254775,-0.30039191,0.85478497,-0.14210151,0.49914855,0
-1.5325348,1.2979971,-1.9010673,-0.85478497,0.14210151,-0.49914855,0
-1.9743506,-3.0831978,1.7466135,-0.41019005,-0.77419686,0.48204058,0
1.6007434,3.2461002,-1.6378424,0.41019005,0.77419686,-0.48204058,0
3.1842382,2.0712347,0.28769112,0.85478497,-0.14210151,0.49914855,0
-1.2271432,-2.912528,2.4742274,-0.41019005,-0.77419686,0.48204058,0
-2.7775474,-1.3666695,0.75586152,-0.31794059,0.61678672,0.72006071,0
-2.2336073,-3.0064666,0.98372674,0.31794059,-0.61678672,-0.72006071,0
0.87642622,3.4336948,-1.9383655,0.41019005,0.77419686,-0.48204058,0
0.79983878,-2.2893605,2.8852403,0.85478497,-0.14210151,0.49914855,0
2.7406757,0.50859714,0.54338312,0.85478497,-0.14210151,0.49914855,0
-2.2626479,0.068643987,-1.0619016,-0.85478497,0.14210151,-0.49914855,0
1.6978807,3.174931,-1.7475429,0.41019005,0.77419686,-0.48204058,0
-1.0458181,2.7334533,-2.3788588,-0.85478497,0.14210151,-0.49914855,0
-3.131146,-1.6815602,-0.29774356,-0.85478497,0.14210151,-0.49914855,0
-2.0530839,-3.1785946,1.2751596,-0.41019005,-0.77419686,0.48204058,0
-1.5245134,-3.1473863,1.9111252,-0.41019005,-0.77419686,0.48204058,0
-3.3446124,-2.042438,0.17330742,-0.85478497,0.14210151,-0.49914855,0
-2.0455394,-3.228457,1.5047705,-0.41019005,-0.77419686,0.48204058,0
1.8099353,-0.53591514,1.7301956,0.85478497,-0.14210151,0.49914855,0
-2.5760493,-0.7991246,0.34836447,-0.31794059,0.61678672,0.72006071,0
-1.0873342,2.7620339,-2.1837537,-0.85478497,0.14210151,-0.49914855,0
-0.39723745,-1.03315,-0.11440617,0.31794059,-0.61678672,-0.72006071,0
-2.1425006,-0.27384427,-1.3855555,-0.85478497,0.14210151,-0.49914855,0
-2.4324281,-0.29485303,-1.0525764,-0.85478497,0.14210151,-0.49914855,0
-0.26542521,3.4318843,-2.9789729,0.41019005,0.77419686,-0.48204058,0
-3.499228,-2.7227514,0.77638412,-0.41019005,-0.77419686,0.48204058,0
1.7541714,-1.3044807,1.8224217,0.85478497,-0.14210151,0.49914855,0
1.1942674,3.2296221,-2.1096351,0.41019005,0.77419686,-0.48204058,0
3.0817604,1.8692561,0.21470904,0.85478497,-0.14210151,0.49914855,0
-0.43773484,3.4479828,-3.0150201,0.41019005,0.77419686,-0.48204058,0
-3.2563121,-2.9754078,0.8462584,-0.41019005,-0.77419686,0.48204058,0
-1.1009569,2.0012522,-2.5867229,-0.85478497,0.14210151,-0.49914855,0
-2.6484468,-0.72757781,-0.75883532,-0.85478497,0.14210151,-0.49914855,0
0.73108578,-2.8526018,3.0103414,0.85478497,-0.14210151,0.49914855,0
-3.7528338,-2.3461852,0.88054466,-0.85478497,0.14210151,-0.49914855,0
-3.7584825,-2.7850561,0.72475886,-0.41019005,-0.77419686,0.48204058,0
-1.225728,0.79565346,-0.48903596,-0.31794059,0.61678672,0.72006071,0
-1.4280391,-2.8410759,1.178767,0.31794059,-0.61678672,-0.72006071,0
0.85257709,0.29624924,-0.63932633,0.31794059,-0.61678672,-0.72006071,0
0.53024256,0.76782995,-1.1750941,0.31794059,-0.61678672,-0.72006071,0
0.78546613,2.5038507,-2.4514673,0.31794059,-0.61678672,-0.72006071,0
-2.5121598,-0.80038297,-0.78698492,-0.85478497,0.14210151,-0.49914855,0
-2.511945,0.036446512,-0.60777062,-0.85478497,0.14210151,-0.49914855,0
2.9106388,1.2123625,0.2416445,0.85478497,-0.14210151,0.49914855,0
2.1124353,-0.32638222,1.3290393,0.85478497,-0.14210151,0.49914855,0
1.0400631,-2.9396749,2.3669357,0.85478497,-0.14210151,0.49914855,0
-0.46218944,3.3831954,-3.1035776,-0.85478497,0.14210151,-0.49914855,0
2.0947073,-0.85127658,1.0851257,0.85478497,-0.14210151,0.49914855,0
-0.99904037,0.26924044,0.027580544,-0.31794059,0.61678672,0.72006071,0
0.07175684,-0.081167936,-0.72912133,0.31794059,-0.61678672,-0.72006071,0
-0.4857634,-1.5560477,0.54969311,0.31794059,-0.61678672,-0.72006071,0
1.7684724,2.7626958,-2.3111596,0.41019005,0.77419686,-0.48204058,0
-1.3129481,-0.58851397,-0.7741304,0.31794059,-0.61678672,-0.72006071,0
3.4801586,2.6865227,-0.83262396,0.41019005,0.77419686,-0.48204058,0
0.99386549,3.1395903,-2.4048238,0.41019005,0.77419686,-0.48204058,0
-1.4585187,-2.8068085,2.3615274,-0.41019005,-0.77419686,0.48204058,0
-2.3512146,0.18449828,-1.0095525,-0.85478497,0.14210151,-0.49914855,0
3.2798254,2.5428143,-1.4347832,0.41019005,0.77419686,-0.48204058,0
-1.1072621,-3.2091811,2.1704392,-0.41019005,-0.77419686,0.48204058,0
0.39845377,2.583293,-2.7077315,0.31794059,-0.61678672,-0.72006071,0
-1.6742126,0.86581731,-0.6686331,-0.31794059,0.61678672,0.72006071,0
-2.8218679,-3.0928822,1.0651007,-0.41019005,-0.77419686,0.48204058,0
-2.7861876,-3.2249479,0.83855581,-0.41019005,-0.77419686,0.48204058,0
-1.2112136,-2.9841378,2.5537214,-0.41019005,-0.77419686,0.48204058,0
-1.9963551,0.48577476,-1.4153107,-0.85478497,0.14210151,-0.49914855,0
-0.48437262,-2.0705192,0.8438108,0.31794059,-0.61678672,-0.72006071,0
1.7869256,-1.2074943,1.427164,0.85478497,-0.14210151,0.49914855,0
-1.3978393,-3.3444986,1.7568383,-0.41019005,-0.77419686,0.48204058,0
-2.3737178,-3.1971283,1.1066082,-0.41019005,-0.77419686,0.48204058,0
3.7470644,2.2635465,-0.85264254,0.85478497,-0.14210151,0.49914855,0
-1.7622144,-1.5751591,-0.17210376,0.31794059,-0.61678672,-0.72006071,0
-3.4020717,-2.631119,1.228864,-0.41019005,-0.77419686,0.48204058,0
1.0895793,3.4557095,-1.8506987,0.41019005,0.77419686,-0.48204058,0
-2.9316468,-2.6960239,1.5718966,-0.41019005,-0.77419686,0.48204058,0
-1.2109516,-0.60972923,0.72921073,-0.31794059,0.61678672,0.72006071,0
-2.725807,-1.8576617,-0.24912548,0.31794059,-0.61678672,-0.72006071,0
2.6960266,0.62485826,0.70118451,0.85478497,-0.14210151,0.49914855,0
-0.0052502155,-1.2820015,1.909179,-0.31794059,0.61678672,0.72006071,0
-1.1926205,-3.338227,1.7955925,-0.41019005,-0.77419686,0.48204058,0
-3.2361987,-1.3262216,0.015358686,-0.85478497,0.14210151,-0.49914855,0
-0.076340318,-3.1264775,3.1513131,-0.41019005,-0.77419686,0.48204058,0
-0.1433723,3.2894616,-3.2673883,0.41019005,0.77419686,-0.48204058,0
-3.384588,-2.8107889,0.91018224,-0.41019005,-0.77419686,0.48204058,0
-3.7197304,-2.2017007,0.79470801,-0.85478497,0.14210151,-0.49914855,0
0.66365087,3.6041365,-2.1195583,0.41019005,0.77419686,-0.48204058,0
-1.1067719,2.4901612,-2.422931,-0.85478497,0.14210151,-0.49914855,0
-3.8098872,-2.5131469,0.69772911,-0.85478497,0.14210151,-0.49914855,0
1.8840024,2.5689704,-2.1749713,0.31794059,-0.61678672,-0.72006071,0
-0.79218066,-2.8794525,1.3515238,0.31794059,-0.61678672,-0.72006071,0
2.372149,3.126693,-1.1752462,0.41019005,0.77419686,-0.48204058,0
2.590596,2.3486247,-0.22426844,-0.31794059,0.61678672,0.72006071,0
2.0335982,-0.5114131,1.2642461,0.85478497,-0.14210151,0.49914855,0
-0.2557717,-1.687187,1.9800982,-0.31794059,0.61678672,0.72006071,0
1.1616949,3.3523653,-1.7787287,0.41019005,0.77419686,-0.48204058,0
-0.75400686,2.6964931,-1.9211431,-0.31794059,0.61678672,0.72006071,0
-3.2310197,-2.7691338,0.18805623,0.31794059,-0.61678672,-0.72006071,0
0.62044203,2.1575882,-0.82865071,-0.31794059,0.61678672,0.72006071,0
-0.39579242,-3.4467499,2.4244218,-0.41019005,-0.77419686,0.48204058,0
-3.2677989,-2.5751991,1.3756967,-0.41019005,-0.77419686,0.48204058,0
-1.8377166,0.92545068,-1.6825941,-0.85478497,0.14210151,-0.49914855,0
-1.9916315,-3.2065723,1.4525421,-0.41019005,-0.77419686,0.48204058,0
0.030740499,2.9227831,-3.2432423,0.31794059,-0.61678672,-0.72006071,0
-1.7739342,0.17487061,-0.30618772,-0.31794059,0.61678672,0.72006071,0
2.0210161,-0.37336409,1.5479404,0.85478497,-0.14210151,0.49914855,0
1.2532032,3.2392027,-2.1542711,0.41019005,0.77419686,-0.48204058,0
1.2045209,-2.4091089,2.1854744,0.85478497,-0.14210151,0.49914855,0
-1.5816629,1.4078124,-1.7822831,-0.85478497,0.14210151,-0.49914855,0
-1.519406,-3.3248074,1.7213805,-0.41019005,-0.77419686,0.48204058,0
-0.74860567,-3.448267,1.9297988,-0.41019005,-0.77419686,0.48204058,0
2.4562154,2.8121967,-1.4994984,0.41019005,0.77419686,-0.48204058,0
-0.85884255,-3.2720354,2.143409,-0.41019005,-0.77419686,0.48204058,0
1.5517073,-0.27845967,0.25481164,0.31794059,-0.61678672,-0.72006071,0
-0.31577086,3.3314784,-3.079293,0.41019005,0.77419686,-0.48204058,0
-3.1304698,-2.6660044,1.4582787,-0.41019005,-0.77419686,0.48204058,0
1.7529812,3.0364304,-1.0288212,-0.31794059,0.61678672,0.72006071,0
0.97957933,-2.5600586,1.8404453,0.31794059,-0.61678672,-0.72006071,0
-0.62661743,3.6449912,-2.7432175,-0.85478497,0.14210151,-0.49914855,0
1.6521987,0.80677247,0.69206995,-0.31794059,0.61678672,0.72006071,0
0.35937524,3.4182792,-2.5508876,0.41019005,0.77419686,-0.48204058,0
0.94778752,-1.7319485,2.5082061,-0.31794059,0.61678672,0.72006071,0
-2.0957916,-2.4828146,2.0020392,-0.31794059,0.61678672,0.72006071,0
1.2014594,-2.4137208,2.1333706,0.85478497,-0.14210151,0.49914855,0
-2.3276403,0.60446483,-0.90261441,-0.85478497,0.14210151,-0.49914855,0
0.80835438,-3.2986107,2.7522268,0.85478497,-0.14210151,0.49914855,0
-0.71021003,-1.9345388,2.156065,-0.31794059,0.61678672,0.72006071,0
2.0487876,1.2144253,-0.76364172,0.31794059,-0.61678672,-0.72006071,0
3.2659259,2.9187422,-0.62949085,0.41019005,0.77419686,-0.48204058,0
-0.25516379,-3.083174,2.9848366,-0.41019005,-0.77419686,0.48204058,0
0.21188033,3.1125901,-3.0730512,0.41019005,0.77419686,-0.48204058,0
-3.3285451,-2.1860683,1.1341031,-0.31794059,0.61678672,0.72006071,0
-2.7128377,-2.7688186,1.5697024,-0.41019005,-0.77419686,0.48204058,0
-0.26921964,-3.3597727,2.6864514,-0.41019005,-0.77419686,0.48204058,0
1.5657446,-1.3386914,2.1363208,0.85478497,-0.14210151,0.49914855,0
2.768291,1.0679512,0.73109388,0.85478497,-0.14210151,0.49914855,0
0.70963287,3.3154347,-2.272202,0.41019005,0.77419686,-0.48204058,0
1.8527586,3.0299737,-1.8475153,0.41019005,0.77419686,-0.48204058,0
0.69736147,3.08675,-2.6373441,0.41019005,0.77419686,-0.48204058,0
1.2344817,3.4063179,-1.8736088,0.41019005,0.77419686,-0.48204058,0
-1.5131774,0.98996872,-2.008759,-0.85478497,0.14210151,-0.49914855,0
1.3420241,2.6382473,-2.2974224,0.31794059,-0.61678672,-0.72006071,0
-2.7010655,-1.7099619,-0.55999565,0.31794059,-0.61678672,-0.72006071,0
-1.9232255,-2.9830661,1.7072771,-0.41019005,-0.77419686,0.48204058,0
1.5947044,2.9848871,-2.2369809,0.41019005,0.77419686,-0.48204058,0
3.5470133,2.1396749,-0.6338203,0.85478497,-0.14210151,0.49914855,0
0.81635189,3.1361012,-2.4398017,0.41019005,0.77419686,-0.48204058,0
1.204354,-2.1883636,2.3662112,0.85478497,-0.14210151,0.49914855,0
-1.4420681,-3.0337632,2.0537467,-0.41019005,-0.77419686,0.48204058,0
-2.9008837,-0.60011625,-0.13920534,-0.85478497,0.14210151,-0.49914855,0
2.2023542,-0.83302695,0.93403834,0.85478497,-0.14210151,0.49914855,0
1.9445072,1.4739861,0.28191972,-0.31794059,0.61678672,0.72006071,0
1.6926732,-0.34865892,0.33778438,0.31794059,-0.61678672,-0.72006071,0
-2.2795813,-3.036093,1.4907665,-0.41019005,-0.77419686,0.48204058,0
-1.5550922,-0.68487716,-0.69042665,0.31794059,-0.61678672,-0.72006071,0
-3.6002767,-2.5149143,0.27740574,-0.85478497,0.14210151,-0.49914855,0
3.753896,2.2568784,-0.87091923,0.85478497,-0.14210151,0.49914855,0
0.25867426,-3.53721,2.7429671,-0.41019005,-0.77419686,0.48204058,0
-0.43557924,-2.8887718,1.6657047,0.31794059,-0.61678672,-0.72006071,0
-0.29455191,-3.5105276,2.2078474,-0.41019005,-0.77419686,0.48204058,0
0.094345391,-1.8459415,0.99562854,0.31794059,-0.61678672,-0.72006071,0
-0.9239862,2.5238171,-2.8773582,-0.85478497,0.14210151,-0.49914855,0
3.0169365,3.0034823,-1.0308251,0.41019005,0.77419686,-0.48204058,0
-1.1094102,-0.48889703,-0.84546763,0.31794059,-0.61678672,-0.72006071,0
-0.60258532,3.4159768,-2.9516866,-0.85478497,0.14210151,-0.49914855,0
0.4442884,0.79471087,-1.2155662,0.31794059,-0.61678672,-0.72006071,0
1.4859401,3.1885786,-1.7986321,0.41019005,0.77419686,-0.48204058,0
0.0054661036,3.1772783,-3.2570808,0.41019005,0.77419686,-0.48204058,0
0.47470039,2.8615625,-1.4158906,-0.31794059,0.61678672,0.72006071,0
-1.7654334,-2.9959891,2.0647368,-0.41019005,-0.77419686,0.48204058,0
1.4896598,1.4768795,0.11839831,-0.31794059,0.61678672,0.72006071,0
-0.67232794,0.85571635,-0.20960325,-0.31794059,0.61678672,0.72006071,0
-1.8200605,-2.1473992,0.2655673,0.31794059,-0.61678672,-0.72006071,0
0.35515642,-3.5280821,2.9784603,-0.41019005,-0.77419686,0.48204058,0
-0.84643006,2.665483,-2.6243963,-0.85478497,0.14210151,-0.49914855,0
0.99949372,1.2111931,-1.2576824,0.31794059,-0.61678672,-0.72006071,0
-3.1137486,-2.7174065,1.2159154,-0.41019005,-0.77419686,0.48204058,0
2.83478,2.7071955,-0.41556621,-0.31794059,0.61678672,0.72006071,0
1.7418078,2.8559632,-2.1552997,0.41019005,0.77419686,-0.48204058,0
-0.70929885,3.2919152,-2.7784851,-0.85478497,0.14210151,-0.49914855,0
3.3183594,2.7743809,-0.84805655,0.41019005,0.77419686,-0.48204058,0
0.28510034,-3.5272167,2.8165317,-0.41019005,-0.77419686,0.48204058,0
-0.70151699,-0.19787204,-0.90166938,0.31794059,-0.61678672,-0.72006071,0
-1.3901409,-1.0303023,-0.3773247,0.31794059,-0.61678672,-0.72006071,0
1.5708495,3.1062839,-1.8835931,0.41019005,0.77419686,-0.48204058,0
0.91832185,-2.1066201,2.6956327,0.85478497,-0.14210151,0.49914855,0
3.8594351,2.5094814,-0.89062977,0.85478497,-0.14210151,0.49914855,0
-1.1086109,2.8032529,-2.2629275,-0.85478497,0.14210151,-0.49914855,0
0.73401868,3.1258993,-2.4660575,0.41019005,0.77419686,-0.48204058,0
-0.12856737,0.53011334,0.094268769,-0.31794059,0.61678672,0.72006071,0
2.117691,0.029975235,0.077784002,0.31794059,-0.61678672,-0.72006071,0
0.89334178,-3.0833466,2.745764,0.85478497,-0.14210151,0.49914855,0
1.6986178,0.68448305,0.85472023,-0.31794059,0.61678672,0.72006071,0
0.19222689,-3.1564879,3.3593311,-0.41019005,-0.77419686,0.48204058,0
0.637573,-3.1243229,2.9667997,0.85478497,-0.14210151,0.49914855,0
-1.62902,-2.8522227,0.94476056,0.31794059,-0.61678672,-0.72006071,0
1.7306173,-1.6077695,1.6530029,0.85478497,-0.14210151,0.49914855,0
0.81688595,2.5697365,-2.5049205,0.31794059,-0.61678672,-0.72006071,0
0.4726367,-3.549758,3.1538749,-0.41019005,-0.77419686,0.48204058,0
-1.4332139,-3.0633631,2.2183812,-0.41019005,-0.77419686,0.48204058,0
2.761848,1.5726407,0.60838115,-0.31794059,0.61678672,0.72006071,0
-2.513948,-3.0853767,0.95026588,0.31794059,-0.61678672,-0.72006071,0
-1.6268039,-0.98418695,0.76902413,-0.31794059,0.61678672,0.72006071,0
3.2798121,2.2005165,0.096063137,0.85478497,-0.14210151,0.49914855,0
1.1940238,-2.2311819,2.2879367,0.85478497,-0.14210151,0.49914855,0
3.1243274,2.6632075,-1.4809887,0.41019005,0.77419686,-0.48204058,0
0.51679873,-3.0627408,3.2299056,0.85478497,-0.14210151,0.49914855,0
-2.9792013,-1.2325509,-0.20108235,-0.85478497,0.14210151,-0.49914855,0
1.1568348,-0.6312151,0.342767,0.31794059,-0.61678672,-0.72006071,0
-2.9956741,-1.4139528,-0.38554955,-0.85478497,0.14210151,-0.49914855,0
-2.0411003,0.53631139,-1.3519566,-0.85478497,0.14210151,-0.49914855,0
-2.1651149,0.2699466,-1.2909977,-0.85478497,0.14210151,-0.49914855,0
0.18579006,3.4054279,-2.5083263,0.41019005,0.77419686,-0.48204058,0
0.64293736,2.054353,-2.1072917,0.31794059,-0.61678672,-0.72006071,0
-0.63787663,-3.2050481,2.7119246,-0.41019005,-0.77419686,0.48204058,0
-2.2008486,-2.8473983,1.8136511,-0.41019005,-0.77419686,0.48204058,0
3.6754057,2.3432016,-0.78839874,0.85478497,-0.14210151,0.49914855,0
-0.65637898,3.3311357,-2.7912409,-0.85478497,0.14210151,-0.49914855,0
-1.6802275,-2.4920411,0.80293989,0.31794059,-0.61678672,-0.72006071,0
-0.96390259,1.1091419,-0.59186262,-0.31794059,0.61678672,0.72006071,0
-3.3825424,-2.443634,1.351011,-0.41019005,-0.77419686,0.48204058,0
-3.6719382,-2.3955796,0.47546816,-0.85478497,0.14210151,-0.49914855,0
1.7242219,-0.90066165,1.9639006,0.85478497,-0.14210151,0.49914855,0
2.3676662,2.7679739,-2.0032458,0.41019005,0.77419686,-0.48204058,0
2.1628375,2.8606133,-2.0526073,0.41019005,0.77419686,-0.48204058,0
-2.3960481,-3.2412591,1.2536178,-0.41019005,-0.77419686,0.48204058,0
-1.9269278,0.27738911,-1.5636649,-0.85478497,0.14210151,-0.49914855,0
0.83240813,2.2790799,-2.3489087,0.31794059,-0.61678672,-0.72006071,0
3.5695057,2.6300662,-1.0817976,0.41019005,0.77419686,-0.48204058,0
-1.3548052,-2.0390408,0.48633301,0.31794059,-0.61678672,-0.72006071,0
0.94499767,1.7371399,-1.8482336,0.31794059,-0.61678672,-0.72006071,0
-0.36871719,-3.0879292,3.0977066,-0.41019005,-0.77419686,0.48204058,0
1.7966698,0.56622273,-0.42569935,0.31794059,-0.61678672,-0.72006071,0
1.6497712,2.4030681,-0.50268221,-0.31794059,0.61678672,0.72006071,0
-0.52313709,3.0541527,-3.2497907,-0.85478497,0.14210151,-0.49914855,0
0.46463704,-3.2415144,3.4219437,0.85478497,-0.14210151,0.49914855,0
-1.0202153,-2.7141643,2.5959644,-0.31794059,0.61678672,0.72006071,0
-0.88112414,-3.3399262,2.1437807,-0.41019005,-0.77419686,0.48204058,0
1.3685868,-2.106168,1.9785098,0.85478497,-0.14210151,0.49914855,0
-3.3159547,-2.7677824,0.82950139,-0.41019005,-0.77419686,0.48204058,0
-1.0454333,2.5090322,-2.5367348,-0.85478497,0.14210151,-0.49914855,0
-1.4062734,2.2911963,-1.884546,-0.85478497,0.14210151,-0.49914855,0
1.3417199,2.9489906,-2.4788289,0.41019005,0.77419686,-0.48204058,0
0.43968287,1.5072761,-1.749436,0.31794059,-0.61678672,-0.72006071,0
1.7204614,3.1059949,-1.7292442,0.41019005,0.77419686,-0.48204058,0
2.6625733,3.0032003,-1.0822942,0.41019005,0.77419686,-0.48204058,0
-0.21779573,-3.4742141,2.438514,-0.41019005,-0.77419686,0.48204058,0
2.209084,2.6662116,-1.9528425,0.41019005,0.77419686,-0.48204058,0
-2.0886681,-0.52982837,-1.2189627,0.31794059,-0.61678672,-0.72006071,0
-0.38591224,-3.1555307,2.7202218,-0.41019005,-0.77419686,0.48204058,0
1.0379854,1.427157,-0.10311925,-0.31794059,0.61678672,0.72006071,0
-1.6698229,1.1758506,-1.9911792,-0.85478497,0.14210151,-0.49914855,0
2.6330066,1.0022002,-0.28022265,0.31794059,-0.61678672,-0.72006071,0
1.0379463,2.2221215,-0.61468494,-0.31794059,0.61678672,0.72006071,0
3.5215936,1.8756366,-0.70255661,0.31794059,-0.61678672,-0.72006071,0
1.3085668,-2.0123651,2.2725067,0.85478497,-0.14210151,0.49914855,0
3.4423413,1.6080287,-0.544842,0.85478497,-0.14210151,0.49914855,0
-1.9859324,1.3874344,-1.3858351,-0.85478497,0.14210151,-0.49914855,0
0.078377128,-3.3083897,2.0932679,0.31794059,-0.61678672,-0.72006071,0
2.6013231,2.7498858,-1.7554989,0.41019005,0.77419686,-0.48204058,0
0.12091076,-1.4478784,1.9747502,-0.31794059,0.61678672,0.72006071,0
-1.7451718,0.25031602,-1.7522838,-0.85478497,0.14210151,-0.49914855,0
0.60137016,0.2528182,-0.61535352,0.31794059,-0.61678672,-0.72006071,0
-1.1208279,-1.3297352,1.2304032,-0.31794059,0.61678672,0.72006071,0
0.058773041,-3.5141053,2.5435653,-0.41019005,-0.77419686,0.48204058,0
-1.7082248,1.3714653,-1.4935961,-0.85478497,0.14210151,-0.49914855,0
0.90414858,-2.8696253,2.8401127,0.85478497,-0.14210151,0.49914855,0
-0.27326679,2.7343655,-1.7532964,-0.31794059,0.61678672,0.72006071,0
-0.69391084,2.7795446,-2.8568091,-0.85478497,0.14210151,-0.49914855,0
-2.5353537,-2.7384543,1.7565675,-0.41019005,-0.77419686,0.48204058,0
-2.5132079,-0.61459494,0.0009137392,-0.31794059,0.61678672,0.72006071,0
-3.3099775,-1.6860423,0.077805281,-0.85478497,0.14210151,-0.49914855,0
-2.9968998,-2.6928194,1.4622705,-0.41019005,-0.77419686,0.48204058,0
-3.1468668,-2.7731767,1.31077,-0.41019005,-0.77419686,0.48204058,0
2.089114,-0.45091522,1.398988,0.85478497,-0.14210151,0.49914855,0
0.9715898,3.3668988,-1.8718071,0.41019005,0.77419686,-0.48204058,0
2.351902,0.27178857,0.99437094,0.85478497,-0.14210151,0.49914855,0
-2.043859,-3.0198584,1.5717335,-0.41019005,-0.77419686,0.48204058,0
2.1246967,3.1565785,-1.0751755,-0.31794059,0.61678672,0.72006071,0
-0.72804779,0.67767394,-0.33064562,-0.31794059,0.61678672,0.72006071,0
3.5252621,2.0664189,-0.46504688,0.85478497,-0.14210151,0.49914855,0
0.14720821,-3.1441963,3.2773314,-0.41019005,-0.77419686,0.48204058,0
-2.300981,-1.9261086,1.2203997,-0.31794059,0.61678672,0.72006071,0
-0.22182244,0.3153373,-1.0898408,0.31794059,-0.61678672,-0.72006071,0
-1.226759,-3.2556555,2.0441918,-0.41019005,-0.77419686,0.48204058,0
2.7722542,1.1361536,0.57025945,0.85478497,-0.14210151,0.49914855,0
0.89739949,-0.6677655,0.34869075,0.31794059,-0.61678672,-0.72006071,0
0.36594367,-2.9752932,3.4217477,-0.31794059,0.61678672,0.72006071,0
3.6101232,2.817018,-0.86558652,0.41019005,0.77419686,-0.48204058,0
2.041595,-0.053385377,1.5167251,0.85478497,-0.14210151,0.49914855,0
1.2796532,3.2866564,-2.0513265,0.41019005,0.77419686,-0.48204058,0
2.4379721,2.9067626,-1.4550123,0.41019005,0.77419686,-0.48204058,0
1.211715,-1.6764065,2.4391382,0.85478497,-0.14210151,0.49914855,0
2.7872195,1.6029227,0.53001451,0.85478497,-0.14210151,0.49914855,0
0.085744619,2.9919136,-3.1743443,0.31794059,-0.61678672,-0.72006071,0
2.4624176,2.742372,-1.6424739,0.41019005,0.77419686,-0.48204058,0
1.9096558,3.1504769,-1.4922938,0.41019005,0.77419686,-0.48204058,0
-0.61622745,-3.5562472,2.0705268,-0.41019005,-0.77419686,0.48204058,0
2.6952488,2.860692,-1.3407898,0.41019005,0.77419686,-0.48204058,0
1.0863444,-0.34603375,1.4252369,-0.31794059,0.61678672,0.72006071,0
2.9583457,1.3518195,0.2917707,0.85478497,-0.14210151,0.49914855,0
-1.0966147,2.1262608,-1.6906998,-0.31794059,0.61678672,0.72006071,0
2.0477257,3.1953492,-1.584708,0.41019005,0.77419686,-0.48204058,0
2.534199,0.69188708,0.85173404,0.85478497,-0.14210151,0.49914855,0
-1.5817915,-1.0356041,-0.492944,0.31794059,-0.61678672,-0.72006071,0
0.354352,-1.7350138,0.84282887,0.31794059,-0.61678672,-0.72006071,0
-1.2246943,-2.9944434,2.6325936,-0.41019005,-0.77419686,0.48204058,0
1.9189367,3.1591868,-1.7459466,0.41019005,0.77419686,-0.48204058,0
-1.127284,0.7013042,-0.3418093,-0.31794059,0.61678672,0.72006071,0
0.56513745,0.43320867,-0.74184024,0.31794059,-0.61678672,-0.72006071,0
-0.54235411,2.9812188,-2.1695573,-0.31794059,0.61678672,0.72006071,0
-1.5832744,1.3669862,-1.8050365,-0.85478497,0.14210151,-0.49914855,0
-0.43299693,-1.6459818,1.9086931,-0.31794059,0.61678672,0.72006071,0
-1.5611334,0.95027632,-1.9191828,-0.85478497,0.14210151,-0.49914855,0
0.71253049,2.7442658,-1.3158875,-0.31794059,0.61678672,0.72006071,0
1.4540067,3.2095599,-1.702107,0.41019005,0.77419686,-0.48204058,0
0.21963573,0.42694691,0.37456053,-0.31794059,0.61678672,0.72006071,0
-0.54347992,1.694187,-2.3628736,0.31794059,-0.61678672,-0.72006071,0
3.3471818,2.7380171,-0.84678507,0.41019005,0.77419686,-0.48204058,0
-2.3977523,0.14862871,-0.37178218,-0.31794059,0.61678672,0.72006071,0
2.0163009,-0.87658358,1.0666037,0.31794059,-0.61678672,-0.72006071,0
-0.043048859,-3.1934557,2.9335687,-0.41019005,-0.77419686,0.48204058,0
-0.49230793,-2.309397,2.3641751,-0.31794059,0.61678672,0.72006071,0
-1.6981342,0.63012516,-1.9945999,0.31794059,-0.61678672,-0.72006071,0
0.70585763,3.2297769,-2.4454765,0.41019005,0.77419686,-0.48204058,0
-1.2705325,-1.2237453,-0.23211181,0.31794059,-0.61678672,-0.72006071,0
-1.1596484,-1.9850796,1.7911205,-0.31794059,0.61678672,0.72006071,0
0.3790729,-3.5374143,2.9431071,-0.41019005,-0.77419686,0.48204058,0
0.8427496,3.3122406,-2.4494414,0.41019005,0.77419686,-0.48204058,0
-3.2445986,-1.1006207,0.060132504,-0.85478497,0.14210151,-0.49914855,0
2.3320339,-0.39988777,0.99939752,0.85478497,-0.14210151,0.49914855,0
2.2406895,2.9893711,-1.636199,0.41019005,0.77419686,-0.48204058,0
1.3288404,3.0946422,-2.0073051,0.41019005,0.77419686,-0.48204058,0
-2.5247164,-0.68255556,-1.0575781,-0.85478497,0.14210151,-0.49914855,0
3.3433189,1.4003019,-0.42249203,0.85478497,-0.14210151,0.49914855,0
0.59493619,1.1389765,-0.07718122,-0.31794059,0.61678672,0.72006071,0
-0.068681955,1.0553656,-1.6418297,0.31794059,-0.61678672,-0.72006071,0
2.9415324,0.76185822,0.17750454,0.85478497,-0.14210151,0.49914855,0
-0.062256336,-3.3817196,2.7185538,-0.41019005,-0.77419686,0.48204058,0
2.960175,1.274366,-0.57737803,0.31794059,-0.61678672,-0.72006071,0
-1.2049141,-3.1330059,2.1305094,-0.41019005,-0.77419686,0.48204058,0
1.3781949,2.9253278,-2.4355333,0.41019005,0.77419686,-0.48204058,0
-1.1106462,-3.1827927,2.4459686,-0.41019005,-0.77419686,0.48204058,0
2.2084835,3.2411304,-1.3149757,0.41019005,0.77419686,-0.48204058,0
-2.4035797,-2.7789497,1.6664915,-0.41019005,-0.77419686,0.48204058,0
-3.3955266,-2.7678702,0.78823709,-0.41019005,-0.77419686,0.48204058,0
-1.3017099,-3.3749764,1.9547136,-0.41019005,-0.77419686,0.48204058,0
-0.36238688,-3.1701095,2.7653713,-0.41019005,-0.77419686,0.48204058,0
1.4632502,-0.13865092,1.5569201,-0.31794059,0.61678672,0.72006071,0
-0.69080496,-1.0367129,1.1441762,-0.31794059,0.61678672,0.72006071,0
1.6535704,-1.3513978,1.754835,0.85478497,-0.14210151,0.49914855,0
3.7172031,2.9293268,-0.52925754,0.41019005,0.77419686,-0.48204058,0
2.0458944,0.18367398,1.5234936,0.85478497,-0.14210151,0.49914855,0
2.2637236,1.1068369,0.81817698,-0.31794059,0.61678672,0.72006071,0
