0.46827185,0.2384364,1.2004492,0.77837503,0.50038242,0.37914428,0
-0.91353804,-0.60302043,0.1967957,-0.77837503,-0.50038242,-0.37914428,0
-0.05277884,-1.4372631,-0.51967394,0.35732996,-0.84967196,0.38777941,0
-0.65405029,0.86673099,-0.01481986,-0.35732996,0.84967196,-0.38777941,0
0.85321414,-0.23983699,1.2120528,0.77837503,0.50038242,0.37914428,0
0.035990328,0.95596117,-0.33271927,-0.35732996,0.84967196,-0.38777941,0
-0.066614985,-0.35960281,-1.1441469,0.51618624,-0.16635811,-0.84016502,0
-1.2055604,0.17652416,-0.55311859,-0.77837503,-0.50038242,-0.37914428,0
0.27411938,0.46552983,1.1993902,-0.51618624,0.16635811,0.84016502,0
-0.14481223,-1.3409889,-0.47756487,-0.77837503,-0.50038242,-0.37914428,0
0.55662429,0.84420842,0.5177623,0.77837503,0.50038242,0.37914428,0
-0.055484593,1.2973446,0.16964076,-0.35732996,0.84967196,-0.38777941,0
-1.1484864,0.6041646,-0.24556851,-0.35732996,0.84967196,-0.38777941,0
0.18006194,-0.3245014,1.3089869,-0.51618624,0.16635811,0.84016502,0
0.052760519,0.89298946,-0.76992738,-0.35732996,0.84967196,-0.38777941,0
-0.14980865,-0.87999666,-1.0167545,-0.77837503,-0.50038242,-0.37914428,0
1.6734848,-0.31996757,-0.12951732,0.77837503,0.50038242,0.37914428,0
-1.2045331,-0.032663442,0.5379045,-0.51618624,0.16635811,0.84016502,0
0.58024168,0.83220088,0.25694552,0.77837503,0.50038242,0.37914428,0
0.14666176,1.383779,0.67356652,0.77837503,0.50038242,0.37914428,0
-1.205802,-0.16048381,0.085270882,-0.77837503,-0.50038242,-0.37914428,0
-0.44301236,-0.52371049,-0.88185143,-0.77837503,-0.50038242,-0.37914428,0
0.2136718,-1.4491696,-0.79569709,0.35732996,-0.84967196,0.38777941,0
-0.48536068,-1.1212056,0.025792211,-0.77837503,-0.50038242,-0.37914428,0
-0.18363005,1.2064893,0.31066659,-0.35732996,0.84967196,-0.38777941,0
0.58345985,0.98084992,-0.087834835,0.77837503,0.50038242,0.37914428,0
-0.33505607,-0.60767406,-1.1507783,-0.77837503,-0.50038242,-0.37914428,0
0.32995266,-0.54274952,-0.98320532,0.51618624,-0.16635811,-0.84016502,0
-0.79725206,-1.2277002,0.84819782,0.35732996,-0.84967196,0.38777941,0
-0.54722416,0.19083512,-1.5115262,0.51618624,-0.16635811,-0.84016502,0
-0.3719888,-0.90065414,0.85193151,0.35732996,-0.84967196,0.38777941,0
-0.25743318,-0.8316927,-1.0171739,-0.77837503,-0.50038242,-0.37914428,0
0.6426785,0.4570725,0.74531054,0.77837503,0.50038242,0.37914428,0
-0.34715402,0.87128574,-0.27658677,-0.35732996,0.84967196,-0.38777941,0
-0.79907066,-0.34263289,-0.32457888,-0.77837503,-0.50038242,-0.37914428,0
-1.2102313,-0.12012263,0.010509133,-0.77837503,-0.50038242,-0.37914428,0
-0.1696285,-0.14110029,1.2189662,-0.51618624,0.16635811,0.84016502,0
-0.89931512,0.41190636,-0.7468971,-0.35732996,0.84967196,-0.38777941,0
-1.0733073,0.70903391,0.18583679,-0.35732996,0.84967196,-0.38777941,0
0.26214647,-0.46828866,1.4106071,0.35732996,-0.84967196,0.38777941,0
-0.25299978,0.54292941,-0.98007023,-0.35732996,0.84967196,-0.38777941,0
0.92852658,1.0344329,-0.88551021,0.51618624,-0.16635811,-0.84016502,0
0.69510454,0.074353784,-0.87866032,0.51618624,-0.16635811,-0.84016502,0
-0.39284188,0.37317359,0.83374673,-0.51618624,0.16635811,0.84016502,0
0.26756844,0.80347383,-0.87196302,-0.35732996,0.84967196,-0.38777941,0
-0.21886861,-0.94691437,-0.72428417,-0.77837503,-0.50038242,-0.37914428,0
-1.2843051,-0.087392539,0.077816248,-0.77837503,-0.50038242,-0.37914428,0
-0.41365331,-0.18067747,0.99420178,-0.51618624,0.16635811,0.84016502,0
-0.74275756,0.29127872,-1.3137972,-0.35732996,0.84967196,-0.38777941,0
0.36579087,-0.56620538,-0.84117985,0.51618624,-0.16635811,-0.84016502,0
-0.063678861,0.89377642,1.0238221,-0.51618624,0.16635811,0.84016502,0
-0.014762521,1.3796434,0.98001188,0.77837503,0.50038242,0.37914428,0
0.6456908,1.007953,-0.039598048,0.77837503,0.50038242,0.37914428,0
1.1499074,0.44038111,-0.43093026,0.77837503,0.50038242,0.37914428,0
1.0244602,-0.38423181,-0.38909817,0.51618624,-0.16635811,-0.84016502,0
0.11631894,-0.71843565,0.82923442,0.35732996,-0.84967196,0.38777941,0
0.23196298,-0.73610657,-0.9864651,0.51618624,-0.16635811,-0.84016502,0
-0.41980731,-0.86252695,-0.42184636,-0.77837503,-0.50038242,-0.37914428,0
0.99709666,0.71649474,-0.61677396,0.77837503,0.50038242,0.37914428,0
1.1849022,-0.25268486,-0.42744505,0.51618624,-0.16635811,-0.84016502,0
0.75536919,-0.89841628,-0.59772575,0.51618624,-0.16635811,-0.84016502,0
0.19579655,1.2410648,-0.11420737,-0.35732996,0.84967196,-0.38777941,0
1.1693071,-0.66979456,0.15000093,0.35732996,-0.84967196,0.38777941,0
-0.84895641,-0.80649722,-0.042078674,-0.77837503,-0.50038242,-0.37914428,0
-0.57403862,0.042337894,-1.3980448,-0.77837503,-0.50038242,-0.37914428,0
-0.34449315,0.71278179,-0.80526739,-0.35732996,0.84967196,-0.38777941,0
-0.48491579,-0.8189308,-0.35996181,-0.77837503,-0.50038242,-0.37914428,0
0.96306455,0.02420032,0.66541123,0.77837503,0.50038242,0.37914428,0
-1.3011732,-0.15831627,0.32185435,-0.77837503,-0.50038242,-0.37914428,0
0.62228751,0.61734283,0.73276371,0.77837503,0.50038242,0.37914428,0
-0.77881551,0.024374664,0.77799094,-0.51618624,0.16635811,0.84016502,0
1.1755877,0.22972879,-0.59842145,0.51618624,-0.16635811,-0.84016502,0
-0.74651772,-1.1660751,0.79419875,0.35732996,-0.84967196,0.38777941,0
0.74784529,0.33106148,0.67079782,0.77837503,0.50038242,0.37914428,0
0.38893747,1.1643959,0.49644092,0.77837503,0.50038242,0.37914428,0
0.16939707,0.96013182,-0.49697345,-0.35732996,0.84967196,-0.38777941,0
-0.65868443,0.80251414,-0.28570753,-0.35732996,0.84967196,-0.38777941,0
-0.94603097,0.22329277,-0.82638168,-0.77837503,-0.50038242,-0.37914428,0
-0.6564467,-1.140836,0.32960749,-0.77837503,-0.50038242,-0.37914428,0
0.12884992,0.81622756,-0.93921971,-0.35732996,0.84967196,-0.38777941,0
0.35450041,0.80125552,0.9740901,0.77837503,0.50038242,0.37914428,0
-0.59792173,-0.0089896321,-1.588517,-0.77837503,-0.50038242,-0.37914428,0
0.64816314,-0.66911584,0.48513085,0.35732996,-0.84967196,0.38777941,0
-0.26155809,-0.19556466,0.99798697,-0.51618624,0.16635811,0.84016502,0
-0.99615067,-0.79513854,0.66896284,-0.51618624,0.16635811,0.84016502,0
-0.16012585,-0.88309979,-1.1326182,0.51618624,-0.16635811,-0.84016502,0
0.091443479,-1.0457615,0.16330993,0.35732996,-0.84967196,0.38777941,0
0.73053098,-0.163436,1.3644794,0.77837503,0.50038242,0.37914428,0
1.4683266,-0.38302934,-0.31792462,0.51618624,-0.16635811,-0.84016502,0
0.44267666,0.53914285,-0.96469259,0.51618624,-0.16635811,-0.84016502,0
-0.7570681,-1.0084543,0.45973879,-0.77837503,-0.50038242,-0.37914428,0
-0.92048591,-0.72754365,0.37338197,-0.77837503,-0.50038242,-0.37914428,0
0.39621398,0.45421448,-1.1346779,0.51618624,-0.16635811,-0.84016502,0
-0.1071232,0.45648682,-1.2681439,0.51618624,-0.16635811,-0.84016502,0
-0.55119002,-1.0583189,-0.20853674,-0.77837503,-0.50038242,-0.37914428,0
-0.59737074,0.059051752,-1.297828,-0.77837503,-0.50038242,-0.37914428,0
-0.96741718,0.88790673,0.098494887,-0.35732996,0.84967196,-0.38777941,0
0.34912962,-0.87867022,-0.71727365,0.51618624,-0.16635811,-0.84016502,0
1.0994446,0.46926564,-0.024088264,0.77837503,0.50038242,0.37914428,0
0.94592583,0.073693484,0.45648828,0.77837503,0.50038242,0.37914428,0
-0.069885135,-0.40779132,-1.1402233,0.51618624,-0.16635811,-0.84016502,0
0.81527162,-1.0039729,-0.57937181,0.51618624,-0.16635811,-0.84016502,0
-0.78934085,-0.10281822,-0.73180586,-0.77837503,-0.50038242,-0.37914428,0
1.5575106,-0.57044524,0.073264837,0.35732996,-0.84967196,0.38777941,0
0.50882572,-0.88846415,0.32597038,0.35732996,-0.84967196,0.38777941,0
-1.0448749,-0.067694098,-0.21933693,-0.77837503,-0.50038242,-0.37914428,0
0.3352114,0.65574503,-1.0334663,0.51618624,-0.16635811,-0.84016502,0
-0.072557449,0.093657553,-1.3201318,0.51618624,-0.16635811,-0.84016502,0
-0.28425431,-0.85520923,-0.93050522,-0.77837503,-0.50038242,-0.37914428,0
-1.1514181,0.51207268,-0.6087454,-0.35732996,0.84967196,-0.38777941,0
0.11683698,-0.78501892,0.64519715,0.35732996,-0.84967196,0.38777941,0
-0.48641807,1.0392113,0.66192019,-0.51618624,0.16635811,0.84016502,0
0.63629079,0.57956487,0.56570542,0.77837503,0.50038242,0.37914428,0
1.2527447,0.057457566,0.18964994,0.77837503,0.50038242,0.37914428,0
-0.81426102,0.77778071,0.12684518,-0.35732996,0.84967196,-0.38777941,0
0.68139869,1.1086019,-0.19184393,0.77837503,0.50038242,0.37914428,0
-1.0564721,0.15086068,0.47404015,-0.51618624,0.16635811,0.84016502,0
-1.3963453,0.2065933,-0.17423755,-0.77837503,-0.50038242,-0.37914428,0
-0.39964205,-0.87310576,0.88609195,0.35732996,-0.84967196,0.38777941,0
-0.33945048,-1.2189071,0.26282108,0.35732996,-0.84967196,0.38777941,0
-0.54614687,0.98369682,-0.16109514,-0.35732996,0.84967196,-0.38777941,0
-0.90314245,-0.54862523,0.74142015,-0.51618624,0.16635811,0.84016502,0
-1.1538968,0.46783298,-0.61397922,-0.35732996,0.84967196,-0.38777941,0
0.32626671,1.1806455,0.16717911,0.77837503,0.50038242,0.37914428,0
0.13427424,-1.2529745,-0.87090451,0.51618624,-0.16635811,-0.84016502,0
-1.4090524,0.5375737,0.14498401,-0.35732996,0.84967196,-0.38777941,0
1.0960677,0.52883905,-0.43592548,0.77837503,0.50038242,0.37914428,0
-0.026538104,-1.051646,0.14497253,0.35732996,-0.84967196,0.38777941,0
-1.2839539,-0.087223142,-0.077400804,-0.77837503,-0.50038242,-0.37914428,0
-0.68272257,0.98971736,0.63517892,-0.51618624,0.16635811,0.84016502,0
0.29715461,-0.50904596,1.3585248,0.35732996,-0.84967196,0.38777941,0
-0.90359628,0.29550922,0.57270384,-0.51618624,0.16635811,0.84016502,0
-0.62182951,-0.45075095,1.0053858,-0.51618624,0.16635811,0.84016502,0
-0.38952112,0.61223698,-0.9028483,-0.35732996,0.84967196,-0.38777941,0
1.018955,0.72492951,-0.2523762,0.77837503,0.50038242,0.37914428,0
-0.68777192,-0.35283959,-0.77732307,-0.77837503,-0.50038242,-0.37914428,0
-0.63536328,-0.77912176,-0.2147477,-0.77837503,-0.50038242,-0.37914428,0
-0.33341783,0.86513102,-0.3308745,-0.35732996,0.84967196,-0.38777941,0
0.57934219,0.70261937,0.32103541,0.77837503,0.50038242,0.37914428,0
-0.41329777,-0.97725022,-0.28047854,-0.77837503,-0.50038242,-0.37914428,0
-0.57683653,-1.0615189,0.83664775,0.35732996,-0.84967196,0.38777941,0
1.4739751,-0.52724421,0.13301671,0.35732996,-0.84967196,0.38777941,0
0.10782948,1.0668918,-0.24118687,-0.35732996,0.84967196,-0.38777941,0
-0.54231602,0.30944669,0.79038489,-0.51618624,0.16635811,0.84016502,0
-0.28917298,0.72317505,-0.82095379,-0.35732996,0.84967196,-0.38777941,0
-0.43233415,1.2452849,0.62502033,-0.35732996,0.84967196,-0.38777941,0
-0.19752049,0.32485014,0.924483,-0.51618624,0.16635811,0.84016502,0
0.68028617,-0.05465585,1.5325761,0.77837503,0.50038242,0.37914428,0
-0.29235721,-1.1699054,-0.5877623,-0.77837503,-0.50038242,-0.37914428,0
-0.32665312,-0.24861434,-1.3198314,0.51618624,-0.16635811,-0.84016502,0
-0.32140505,-1.1074998,-0.32544622,-0.77837503,-0.50038242,-0.37914428,0
0.49412274,-0.7024461,-0.63885617,0.51618624,-0.16635811,-0.84016502,0
0.25191391,0.72413051,0.94231105,0.77837503,0.50038242,0.37914428,0
-0.52713621,-0.80003095,1.1149901,-0.51618624,0.16635811,0.84016502,0
-1.1290951,0.86610186,0.32761621,-0.35732996,0.84967196,-0.38777941,0
0.16347009,-0.31094772,-1.065424,0.51618624,-0.16635811,-0.84016502,0
0.71065474,0.37485561,0.85001242,0.77837503,0.50038242,0.37914428,0
-0.43254623,1.1046975,0.68372595,-0.51618624,0.16635811,0.84016502,0
-0.87470007,-0.43697172,-0.099086881,-0.77837503,-0.50038242,-0.37914428,0
-1.0735106,0.074082583,-0.43775499,-0.77837503,-0.50038242,-0.37914428,0
1.1766417,0.36441296,-0.51581883,0.51618624,-0.16635811,-0.84016502,0
-0.75480759,0.13964313,-1.0763932,-0.77837503,-0.50038242,-0.37914428,0
0.77984709,-0.045173541,-0.7434411,0.51618624,-0.16635811,-0.84016502,0
0.2208761,1.2049036,0.66159546,0.77837503,0.50038242,0.37914428,0
-0.2232641,0.42547193,1.0308704,-0.51618624,0.16635811,0.84016502,0
-0.87683886,-0.90298706,0.099026501,-0.77837503,-0.50038242,-0.37914428,0
-0.12075865,1.1848626,0.1922425,-0.35732996,0.84967196,-0.38777941,0
-1.3564298,0.19354217,0.33436251,-0.51618624,0.16635811,0.84016502,0
0.51477528,0.42184842,0.94529045,0.77837503,0.50038242,0.37914428,0
-0.13888538,-0.58650637,-1.0663377,0.51618624,-0.16635811,-0.84016502,0
-0.111269,-1.0047605,0.36925492,0.35732996,-0.84967196,0.38777941,0
0.58307672,-0.29458755,1.5195909,0.35732996,-0.84967196,0.38777941,0
0.036544099,-0.89130402,0.62865961,0.35732996,-0.84967196,0.38777941,0
-0.84437001,-1.1550877,0.78925931,0.35732996,-0.84967196,0.38777941,0
-1.3060321,-0.026773691,0.28077316,-0.51618624,0.16635811,0.84016502,0
-0.79709125,0.35114604,-1.0208853,-0.35732996,0.84967196,-0.38777941,0
-0.5787729,-1.1142594,-0.23725976,-0.77837503,-0.50038242,-0.37914428,0
-1.0959059,-0.023067772,-0.47153097,-0.77837503,-0.50038242,-0.37914428,0
0.043490946,-1.2024918,-0.25323093,0.35732996,-0.84967196,0.38777941,0
-0.14568102,-1.0524871,-0.97157335,0.51618624,-0.16635811,-0.84016502,0
-0.72976851,1.0999159,0.46558845,-0.35732996,0.84967196,-0.38777941,0
-0.20001911,0.78789628,-0.6730321,-0.35732996,0.84967196,-0.38777941,0
-0.75174677,0.35718882,-1.1744021,-0.35732996,0.84967196,-0.38777941,0
-0.14374661,-1.390837,-0.27024472,0.35732996,-0.84967196,0.38777941,0
0.45534328,-0.26857415,-0.76664269,0.51618624,-0.16635811,-0.84016502,0
-0.49763048,-1.2845303,-0.065424412,-0.77837503,-0.50038242,-0.37914428,0
0.8971107,0.282038,0.25190347,0.77837503,0.50038242,0.37914428,0
-0.85969216,-1.0107868,0.8132534,-0.51618624,0.16635811,0.84016502,0
-0.17249584,-0.036083519,-1.1873538,0.51618624,-0.16635811,-0.84016502,0
-0.36479819,0.3194387,0.8093673,-0.51618624,0.16635811,0.84016502,0
-0.53593051,-0.20781833,-1.3436329,-0.77837503,-0.50038242,-0.37914428,0
0.3575426,-1.1874189,-0.38635409,0.35732996,-0.84967196,0.38777941,0
0.61598092,-0.62343216,0.49625576,0.35732996,-0.84967196,0.38777941,0
1.5822763,-0.30608416,0.041103959,0.77837503,0.50038242,0.37914428,0
0.4292087,-0.82525152,-0.69525391,0.51618624,-0.16635811,-0.84016502,0
-0.21227586,0.37660927,-1.39942,0.51618624,-0.16635811,-0.84016502,0
-0.12439597,1.2261803,0.18002832,-0.35732996,0.84967196,-0.38777941,0
-0.22484362,1.3144906,0.37368724,-0.35732996,0.84967196,-0.38777941,0
0.44609559,-0.38151973,1.5274072,0.35732996,-0.84967196,0.38777941,0
0.61276734,0.69072175,-0.94253445,0.51618624,-0.16635811,-0.84016502,0
-0.972269,-0.44397712,0.13668114,-0.77837503,-0.50038242,-0.37914428,0
-0.24410355,-1.3671801,-0.54889059,-0.77837503,-0.50038242,-0.37914428,0
-0.30742261,0.3133049,0.99270868,-0.51618624,0.16635811,0.84016502,0
0.71579075,0.20899501,0.71903944,0.77837503,0.50038242,0.37914428,0
-0.27978981,-1.3656707,-0.43290961,-0.77837503,-0.50038242,-0.37914428,0
0.57260871,-0.36808509,1.3772515,0.35732996,-0.84967196,0.38777941,0
-1.4985101,0.29513034,-0.17361414,-0.77837503,-0.50038242,-0.37914428,0
-0.94515604,-0.44526297,-0.27462226,-0.77837503,-0.50038242,-0.37914428,0
1.3265778,-0.70456111,-0.18996,0.51618624,-0.16635811,-0.84016502,0
0.82604623,-0.26537722,1.0522678,0.35732996,-0.84967196,0.38777941,0
0.13388467,0.33541915,1.1782053,-0.51618624,0.16635811,0.84016502,0
-0.15565741,-1.1292504,0.13936882,0.35732996,-0.84967196,0.38777941,0
1.4875801,-0.39180547,0.18327045,0.35732996,-0.84967196,0.38777941,0
-1.0126874,0.2346206,-0.60445911,-0.77837503,-0.50038242,-0.37914428,0
-0.30572465,0.48103589,0.93377554,-0.51618624,0.16635811,0.84016502,0
0.074814588,1.1543405,-0.19939829,-0.35732996,0.84967196,-0.38777941,0
1.5312802,-0.17330137,-0.22265327,0.77837503,0.50038242,0.37914428,0
-0.22822487,-0.28482562,-1.2802078,0.51618624,-0.16635811,-0.84016502,0
-0.46853644,-1.2237725,0.032271355,-0.77837503,-0.50038242,-0.37914428,0
-1.0991042,-0.58285159,0.46337962,-0.77837503,-0.50038242,-0.37914428,0
-0.93795443,-0.61200786,0.62203908,-0.51618624,0.16635811,0.84016502,0
0.77631581,-0.1288594,1.2334288,0.77837503,0.50038242,0.37914428,0
0.1336503,-0.10361916,1.3426707,-0.51618624,0.16635811,0.84016502,0
0.49939203,0.77242374,0.42235041,0.77837503,0.50038242,0.37914428,0
-0.32828438,0.35336113,-1.3062527,-0.35732996,0.84967196,-0.38777941,0
-0.65010846,-0.00039964914,-1.1084694,-0.77837503,-0.50038242,-0.37914428,0
-1.2160254,-0.2050042,0.22153461,-0.77837503,-0.50038242,-0.37914428,0
1.2150723,-0.10145712,0.15991676,0.77837503,0.50038242,0.37914428,0
-0.74876565,0.97189301,0.33462161,-0.35732996,0.84967196,-0.38777941,0
0.79007185,1.1348162,-0.62985706,0.77837503,0.50038242,0.37914428,0
1.1365857,0.39463478,-0.24165964,0.77837503,0.50038242,0.37914428,0
0.10337695,-1.2177205,0.040184528,0.35732996,-0.84967196,0.38777941,0
1.162973,0.63644373,-0.32951784,0.77837503,0.50038242,0.37914428,0
-0.35258177,0.37096846,0.81620812,-0.51618624,0.16635811,0.84016502,0
0.40494978,-1.1257221,-0.23175949,0.35732996,-0.84967196,0.38777941,0
1.5536988,-0.21259227,-0.17179883,0.77837503,0.50038242,0.37914428,0
0.87829083,-0.15212181,-0.59985578,0.51618624,-0.16635811,-0.84016502,0
0.36374414,-0.45376205,1.3962791,0.35732996,-0.84967196,0.38777941,0
0.023856044,0.11270392,-1.2136157,0.51618624,-0.16635811,-0.84016502,0
-0.79965818,-1.0852356,0.32654512,-0.77837503,-0.50038242,-0.37914428,0
1.2960126,-0.57484961,0.14809144,0.35732996,-0.84967196,0.38777941,0
-1.003485,0.46646789,0.42387426,-0.51618624,0.16635811,0.84016502,0
1.3074465,-0.62541449,-0.06537962,0.35732996,-0.84967196,0.38777941,0
0.71380043,0.78866422,-0.85771978,0.51618624,-0.16635811,-0.84016502,0
0.055485368,0.42071497,1.2500086,-0.51618624,0.16635811,0.84016502,0
0.15990269,1.4142573,0.53050959,-0.35732996,0.84967196,-0.38777941,0
-1.1544019,0.27608234,-0.57211131,-0.77837503,-0.50038242,-0.37914428,0
-0.15032263,-0.87991637,0.92237025,0.35732996,-0.84967196,0.38777941,0
-0.1279583,-1.0841137,-0.75742805,-0.77837503,-0.50038242,-0.37914428,0
-1.0362705,-0.6497947,0.17415988,-0.77837503,-0.50038242,-0.37914428,0
1.1758854,-0.58299112,-0.30658293,0.51618624,-0.16635811,-0.84016502,0
-1.0443265,-0.66133904,0.70688748,-0.51618624,0.16635811,0.84016502,0
-0.81054467,1.0639644,0.46129072,-0.35732996,0.84967196,-0.38777941,0
-0.07403636,-0.39594343,-1.1769065,0.51618624,-0.16635811,-0.84016502,0
1.0407602,-0.90807265,-0.25818217,0.51618624,-0.16635811,-0.84016502,0
0.13522208,1.2553065,0.22432487,-0.35732996,0.84967196,-0.38777941,0
-0.16464889,-0.084501863,-1.1661844,0.51618624,-0.16635811,-0.84016502,0
0.48201573,1.243446,0.04742223,0.77837503,0.50038242,0.37914428,0
0.96087885,1.0943203,-0.91070688,0.51618624,-0.16635811,-0.84016502,0
-0.91951162,-0.63298148,0.74507916,-0.51618624,0.16635811,0.84016502,0
0.70705217,0.25302136,-0.87232852,0.51618624,-0.16635811,-0.84016502,0
-0.22255743,0.79836202,-0.62970197,-0.35732996,0.84967196,-0.38777941,0
0.61325008,1.1773676,0.030073911,0.77837503,0.50038242,0.37914428,0
0.15532279,1.0019438,1.0631187,-0.51618624,0.16635811,0.84016502,0
0.999457,-0.30482626,0.80358446,0.35732996,-0.84967196,0.38777941,0
-1.0945956,0.6441043,0.35599077,-0.51618624,0.16635811,0.84016502,0
-1.3138907,-0.13264905,0.021127582,-0.77837503,-0.50038242,-0.37914428,0
-0.11353821,-1.1619291,-0.073823303,0.35732996,-0.84967196,0.38777941,0
-0.09876442,-1.2701604,-0.6952455,-0.77837503,-0.50038242,-0.37914428,0
-0.10215557,-0.12636203,1.256397,-0.51618624,0.16635811,0.84016502,0
1.0064955,0.39844292,-0.11055756,0.77837503,0.50038242,0.37914428,0
-0.091171563,-0.023750335,1.1286745,-0.51618624,0.16635811,0.84016502,0
-0.18955962,-0.97838116,0.51208711,0.35732996,-0.84967196,0.38777941,0
0.45597327,-0.63970113,0.63709944,0.35732996,-0.84967196,0.38777941,0
-1.2141891,0.68376756,0.22335219,-0.35732996,0.84967196,-0.38777941,0
-0.8109172,-1.1065265,0.34214801,-0.77837503,-0.50038242,-0.37914428,0
1.0220218,0.16477014,0.2141487,0.77837503,0.50038242,0.37914428,0
1.0059072,-0.054388702,0.59700733,0.77837503,0.50038242,0.37914428,0
0.29736099,-0.17081639,-0.9295038,0.51618624,-0.16635811,-0.84016502,0
-1.0481292,-1.0690751,0.83665085,-0.51618624,0.16635811,0.84016502,0
-1.4744704,0.34448937,-0.2648347,-0.77837503,-0.50038242,-0.37914428,0
1.1021695,0.11275499,-0.48975098,0.51618624,-0.16635811,-0.84016502,0
0.23831308,0.57642442,1.24948,-0.51618624,0.16635811,0.84016502,0
-0.086345375,-0.58221257,1.2722893,0.35732996,-0.84967196,0.38777941,0
-1.1679029,-0.17712504,0.070981145,-0.77837503,-0.50038242,-0.37914428,0
-0.22556037,1.2180761,0.53885239,-0.35732996,0.84967196,-0.38777941,0
0.58759648,0.9312976,-0.83633506,-0.35732996,0.84967196,-0.38777941,0
-0.96599597,0.55063987,0.50797319,-0.51618624,0.16635811,0.84016502,0
1.0895593,-0.82792056,-0.15083063,0.35732996,-0.84967196,0.38777941,0
-0.87482262,0.65122408,-0.091996551,-0.35732996,0.84967196,-0.38777941,0
0.2844944,0.50358009,-1.2231718,0.51618624,-0.16635811,-0.84016502,0
-0.96180713,-0.98496515,0.45689845,-0.77837503,-0.50038242,-0.37914428,0
1.5824609,-0.44757381,0.072435021,0.77837503,0.50038242,0.37914428,0
0.70664084,-0.81458992,-0.57595837,0.51618624,-0.16635811,-0.84016502,0
0.17931581,0.93979156,1.0352005,0.77837503,0.50038242,0.37914428,0
0.35976771,-0.94688302,0.038615406,0.35732996,-0.84967196,0.38777941,0
-0.48995063,-0.72007602,1.0230771,-0.51618624,0.16635811,0.84016502,0
1.1283547,0.38536656,-0.6174736,0.51618624,-0.16635811,-0.84016502,0
0.70871174,0.09613353,1.1843231,0.77837503,0.50038242,0.37914428,0
-0.11240208,1.1754396,0.91046941,-0.51618624,0.16635811,0.84016502,0
-1.4707339,0.23269957,0.10153568,-0.77837503,-0.50038242,-0.37914428,0
0.93417543,-0.43900919,0.80758655,0.35732996,-0.84967196,0.38777941,0
-1.452225,0.26477665,-0.040334702,-0.77837503,-0.50038242,-0.37914428,0
0.44421273,0.24047065,-0.96107262,0.51618624,-0.16635811,-0.84016502,0
0.88185656,0.24976599,0.50849771,0.77837503,0.50038242,0.37914428,0
0.79920036,1.1145072,-0.69356108,0.77837503,0.50038242,0.37914428,0
-0.47361374,-0.17927986,-1.2656518,-0.77837503,-0.50038242,-0.37914428,0
1.1841712,-0.24199823,-0.4220531,0.51618624,-0.16635811,-0.84016502,0
1.6268029,-0.54007077,-0.09061408,0.35732996,-0.84967196,0.38777941,0
0.57157886,0.0042046905,1.4201163,0.77837503,0.50038242,0.37914428,0
0.48812699,0.54715627,0.90298283,0.77837503,0.50038242,0.37914428,0
1.269755,0.032837927,-0.44392478,0.51618624,-0.16635811,-0.84016502,0
-0.5391289,-0.57319379,-0.97598094,-0.77837503,-0.50038242,-0.37914428,0
0.70998752,0.80410981,0.17324078,0.77837503,0.50038242,0.37914428,0
0.64406109,0.34792605,1.0310935,0.77837503,0.50038242,0.37914428,0
0.54603803,0.52164912,0.78840911,0.77837503,0.50038242,0.37914428,0
-0.60930806,0.73405164,0.77944708,-0.51618624,0.16635811,0.84016502,0
0.744259,-0.70036751,0.5016225,0.35732996,-0.84967196,0.38777941,0
-1.2220485,-0.17754942,0.28080904,-0.77837503,-0.50038242,-0.37914428,0
-0.32065821,-1.2213124,-0.31835866,-0.77837503,-0.50038242,-0.37914428,0
-0.47234392,-0.81675464,1.1631941,-0.51618624,0.16635811,0.84016502,0
-0.81348294,-0.70136094,-0.21455598,-0.77837503,-0.50038242,-0.37914428,0
-0.021942616,0.42190436,1.0379822,-0.51618624,0.16635811,0.84016502,0
-0.99844891,-0.31864217,0.66389942,-0.51618624,0.16635811,0.84016502,0
0.9292087,0.13539326,-0.7199229,0.51618624,-0.16635811,-0.84016502,0
-0.76736701,0.51647896,-0.5928086,-0.35732996,0.84967196,-0.38777941,0
0.65855289,0.25105116,1.210502,0.77837503,0.50038242,0.37914428,0
-1.2296376,0.35265726,-0.62671196,-0.35732996,0.84967196,-0.38777941,0
-0.060132086,0.23198119,1.1319702,-0.51618624,0.16635811,0.84016502,0
-0.46401155,0.39491528,0.89762127,-0.51618624,0.16635811,0.84016502,0
0.56334841,-1.2380373,-0.49995828,0.35732996,-0.84967196,0.38777941,0
-0.10156751,-1.0950567,0.13890497,0.35732996,-0.84967196,0.38777941,0
-0.31093729,-0.3942481,-1.1877201,0.51618624,-0.16635811,-0.84016502,0
0.71510553,-0.26630312,1.1520692,0.35732996,-0.84967196,0.38777941,0
0.96217799,0.77190053,-0.64668965,0.51618624,-0.16635811,-0.84016502,0
0.30663446,0.89101326,-0.80213833,-0.35732996,0.84967196,-0.38777941,0
0.59381473,1.3170525,-0.47116053,-0.35732996,0.84967196,-0.38777941,0
0.97065771,-0.23652077,0.87203586,0.77837503,0.50038242,0.37914428,0
-1.1160886,0.70864034,0.13104606,-0.35732996,0.84967196,-0.38777941,0
0.34590054,-0.21683711,1.3701994,-0.51618624,0.16635811,0.84016502,0
-0.84387892,0.89123034,0.27607501,-0.35732996,0.84967196,-0.38777941,0
0.70207155,-0.51429379,0.72923315,0.35732996,-0.84967196,0.38777941,0
-0.73207843,-0.20372629,0.66477311,-0.51618624,0.16635811,0.84016502,0
-0.29967046,-1.308799,-0.4518691,-0.77837503,-0.50038242,-0.37914428,0
-0.95837039,-0.9294616,0.36854458,-0.77837503,-0.50038242,-0.37914428,0
-0.22579476,0.083745629,0.99484044,-0.51618624,0.16635811,0.84016502,0
0.82461077,0.88629913,-0.863989,0.51618624,-0.16635811,-0.84016502,0
0.19596517,-0.99512899,-0.89372671,0.51618624,-0.16635811,-0.84016502,0
1.2108393,-0.3575066,0.49141851,0.35732996,-0.84967196,0.38777941,0
-0.98688602,0.57803714,0.57195377,-0.51618624,0.16635811,0.84016502,0
0.90282559,0.09412393,0.68972027,0.77837503,0.50038242,0.37914428,0
-0.34621441,-1.1969836,-0.60307145,-0.77837503,-0.50038242,-0.37914428,0
-0.85132957,0.58058178,-0.33371919,-0.35732996,0.84967196,-0.38777941,0
0.59560078,-1.0234947,-0.26646131,0.35732996,-0.84967196,0.38777941,0
-0.61735415,0.83321899,-0.31117409,-0.35732996,0.84967196,-0.38777941,0
-0.73097914,-0.88402891,1.0212532,-0.51618624,0.16635811,0.84016502,0
1.0846225,-0.52333045,-0.52766228,0.51618624,-0.16635811,-0.84016502,0
0.12646222,-1.194123,-0.18299896,0.35732996,-0.84967196,0.38777941,0
-1.2118547,0.2082535,-0.51711047,-0.77837503,-0.50038242,-0.37914428,0
0.87591082,0.23050995,0.41100037,0.77837503,0.50038242,0.37914428,0
0.35468674,-0.073400736,1.4695613,-0.51618624,0.16635811,0.84016502,0
0.97129041,0.21053237,0.1177668,0.77837503,0.50038242,0.37914428,0
-0.40992033,-0.85371703,-0.72134215,-0.77837503,-0.50038242,-0.37914428,0
0.28026742,-0.46824008,1.058481,0.35732996,-0.84967196,0.38777941,0
0.51807725,-0.67244631,0.85244578,0.35732996,-0.84967196,0.38777941,0
-0.60763097,-0.65739256,1.0567424,-0.51618624,0.16635811,0.84016502,0
-0.65027839,-1.1070144,0.11848807,-0.77837503,-0.50038242,-0.37914428,0
0.28924787,1.3653176,0.06906046,-0.35732996,0.84967196,-0.38777941,0
1.3489915,-0.34528351,-0.19210589,0.51618624,-0.16635811,-0.84016502,0
-0.45881104,0.060052037,0.90355664,-0.51618624,0.16635811,0.84016502,0
0.2558971,-0.47968301,1.0555893,0.35732996,-0.84967196,0.38777941,0
0.68410736,1.0442958,-0.37121177,0.77837503,0.50038242,0.37914428,0
1.0422862,0.97646159,-0.75320041,0.51618624,-0.16635811,-0.84016502,0
-0.31430101,-0.3941437,-1.2854484,0.51618624,-0.16635811,-0.84016502,0
-0.51150227,-0.32140878,-1.3237492,-0.77837503,-0.50038242,-0.37914428,0
1.0929916,-0.79986703,-0.47489345,0.51618624,-0.16635811,-0.84016502,0
-0.58027732,0.90677357,0.6900242,-0.51618624,0.16635811,0.84016502,0
0.62242681,-0.52793658,0.78846085,0.35732996,-0.84967196,0.38777941,0
-0.67460954,0.4060933,-0.88384891,-0.35732996,0.84967196,-0.38777941,0
0.43971002,0.58722651,0.73803192,0.77837503,0.50038242,0.37914428,0
0.36831701,-1.1233584,0.0081380308,0.35732996,-0.84967196,0.38777941,0
0.91788566,0.97972423,-0.73675513,0.51618624,-0.16635811,-0.84016502,0
-0.10032231,0.30146241,1.1848664,-0.51618624,0.16635811,0.84016502,0
-0.49246824,-0.39208651,-1.1341482,-0.77837503,-0.50038242,-0.37914428,0
0.88850284,-0.6417858,0.53421593,0.35732996,-0.84967196,0.38777941,0
-0.75040448,0.58308792,-0.56483483,-0.35732996,0.84967196,-0.38777941,0
0.088977575,0.75837815,1.1390963,-0.51618624,0.16635811,0.84016502,0
0.62002391,-0.71986824,0.38074005,0.35732996,-0.84967196,0.38777941,0
-0.24384928,-0.71159923,-0.99652207,-0.77837503,-0.50038242,-0.37914428,0
0.89873564,-0.44009674,0.82272738,0.35732996,-0.84967196,0.38777941,0
0.80452383,-0.44416183,0.91154712,0.35732996,-0.84967196,0.38777941,0
0.31770027,1.1205976,-0.66791975,-0.35732996,0.84967196,-0.38777941,0
-0.057162583,-1.3902563,-0.22626285,0.35732996,-0.84967196,0.38777941,0
1.2113366,0.28862089,-0.084959745,0.77837503,0.50038242,0.37914428,0
0.52612889,-1.191366,-0.38882327,0.35732996,-0.84967196,0.38777941,0
-0.11489084,-1.0601463,0.24969548,0.35732996,-0.84967196,0.38777941,0
0.18576491,-0.25681347,1.455364,-0.51618624,0.16635811,0.84016502,0
-0.33823895,0.51942271,-1.2629766,-0.35732996,0.84967196,-0.38777941,0
1.0868554,-0.29886752,0.84802091,0.77837503,0.50038242,0.37914428,0
-0.63117206,-0.23905364,-0.83922994,-0.77837503,-0.50038242,-0.37914428,0
-0.17836875,-1.3136859,-0.20010903,0.35732996,-0.84967196,0.38777941,0
1.1850898,-0.27771041,0.39714125,0.77837503,0.50038242,0.37914428,0
-0.89614761,0.23756081,-1.1154344,-0.35732996,0.84967196,-0.38777941,0
-0.17847288,-1.2823941,0.035829321,0.35732996,-0.84967196,0.38777941,0
-0.44195002,0.10809319,0.78893876,-0.51618624,0.16635811,0.84016502,0
0.51842564,0.97459781,-0.70270574,-0.35732996,0.84967196,-0.38777941,0
-1.0595334,-0.020057544,0.4349215,-0.51618624,0.16635811,0.84016502,0
-0.012570858,0.66218346,-1.0674655,-0.35732996,0.84967196,-0.38777941,0
0.17726803,-0.4848209,1.2201891,0.35732996,-0.84967196,0.38777941,0
-0.36749053,1.1224637,0.71899682,-0.51618624,0.16635811,0.84016502,0
-0.44810992,0.65882516,0.70322543,-0.51618624,0.16635811,0.84016502,0
0.98890144,-0.50025403,0.38136867,0.35732996,-0.84967196,0.38777941,0
-0.45924878,-0.48403463,-0.97517544,-0.77837503,-0.50038242,-0.37914428,0
0.045354813,-1.2091774,0.077923805,0.35732996,-0.84967196,0.38777941,0
0.94875312,0.12167513,0.30182081,0.77837503,0.50038242,0.37914428,0
-0.96715176,-0.42040008,0.01196903,-0.77837503,-0.50038242,-0.37914428,0
0.61445099,0.84799206,0.10342431,0.77837503,0.50038242,0.37914428,0
-1.0746912,0.62862527,0.32264268,-0.51618624,0.16635811,0.84016502,0
-0.65736192,0.20841278,0.68881655,-0.51618624,0.16635811,0.84016502,0
0.54802573,0.014644504,1.3759879,0.77837503,0.50038242,0.37914428,0
0.41844678,0.82212007,0.47114798,0.77837503,0.50038242,0.37914428,0
-0.068971038,-1.3651658,-0.88177985,-0.77837503,-0.50038242,-0.37914428,0
-0.61528778,0.35567254,-1.4380009,-0.35732996,0.84967196,-0.38777941,0
0.12754971,1.3178018,-0.020054795,-0.35732996,0.84967196,-0.38777941,0
1.0298095,0.77361476,-0.80186617,0.51618624,-0.16635811,-0.84016502,0
-0.2288086,0.87886488,-0.3581737,-0.35732996,0.84967196,-0.38777941,0
0.20037305,-0.30843991,-0.97789055,0.51618624,-0.16635811,-0.84016502,0
-0.81253314,-0.25218588,0.8050245,-0.51618624,0.16635811,0.84016502,0
0.25579143,0.38982052,1.3303862,-0.51618624,0.16635811,0.84016502,0
0.74941349,-0.015129507,1.0078796,0.77837503,0.50038242,0.37914428,0
0.56574094,1.289256,-0.022988826,0.77837503,0.50038242,0.37914428,0
0.80531812,0.70956719,0.26132974,0.77837503,0.50038242,0.37914428,0
-0.46633559,0.55337238,-1.0710202,-0.35732996,0.84967196,-0.38777941,0
-0.52316022,-0.35948008,-1.0246179,-0.77837503,-0.50038242,-0.37914428,0
0.5631482,1.2259948,-0.36693001,0.77837503,0.50038242,0.37914428,0
-0.23574585,1.1226113,0.15329492,-0.35732996,0.84967196,-0.38777941,0
-1.3131433,-0.40576637,0.57272041,-0.51618624,0.16635811,0.84016502,0
1.0100825,0.43757385,-0.083739519,0.77837503,0.50038242,0.37914428,0
0.90431923,-0.47194564,-0.47889864,0.51618624,-0.16635811,-0.84016502,0
-0.081800938,-0.2545073,1.0963694,-0.51618624,0.16635811,0.84016502,0
0.59004462,0.48606202,1.0316362,0.77837503,0.50038242,0.37914428,0
0.73398083,-0.7126826,0.498274,0.35732996,-0.84967196,0.38777941,0
-0.82867205,-1.0448768,0.59035873,-0.77837503,-0.50038242,-0.37914428,0
-0.15359807,-1.4032215,-0.70385015,-0.77837503,-0.50038242,-0.37914428,0
-0.17789423,1.474924,0.79412186,-0.35732996,0.84967196,-0.38777941,0
0.84942746,-0.77229989,0.17310482,0.35732996,-0.84967196,0.38777941,0
0.48226768,0.79035705,-0.95735669,0.51618624,-0.16635811,-0.84016502,0
0.30488265,-0.061009884,1.2990019,-0.51618624,0.16635811,0.84016502,0
-0.041548252,-1.3576467,-0.81706709,-0.77837503,-0.50038242,-0.37914428,0
0.057572663,0.14895976,1.1086714,-0.51618624,0.16635811,0.84016502,0
0.206604,1.3411036,0.55663723,0.77837503,0.50038242,0.37914428,0
0.31152213,0.56949961,-1.1278236,0.51618624,-0.16635811,-0.84016502,0
0.51661104,1.1845272,-0.40411729,-0.35732996,0.84967196,-0.38777941,0
0.69068122,-0.030895591,1.025686,0.77837503,0.50038242,0.37914428,0
-1.3421674,-0.19140029,0.4644742,-0.51618624,0.16635811,0.84016502,0
-0.43550965,-1.1346283,0.70255607,0.35732996,-0.84967196,0.38777941,0
-0.49651277,0.26544565,-1.6591992,0.51618624,-0.16635811,-0.84016502,0
0.20216763,1.0692658,0.89926922,0.77837503,0.50038242,0.37914428,0
-0.077543736,-0.22611174,-1.1615446,0.51618624,-0.16635811,-0.84016502,0
-0.069684386,-0.88862348,-1.0740769,0.51618624,-0.16635811,-0.84016502,0
-0.9846347,0.55908418,-0.42822042,-0.35732996,0.84967196,-0.38777941,0
0.057610616,-0.95145309,0.36096269,0.35732996,-0.84967196,0.38777941,0
-0.11680484,-1.1056733,-1.0524772,-0.77837503,-0.50038242,-0.37914428,0
1.0802808,-0.26729023,0.60551876,0.77837503,0.50038242,0.37914428,0
-0.86327928,-0.65049124,0.74137807,-0.51618624,0.16635811,0.84016502,0
0.83975959,0.39763209,0.39756724,0.77837503,0.50038242,0.37914428,0
-0.43206811,-0.98999125,-0.40516984,-0.77837503,-0.50038242,-0.37914428,0
-0.58427787,0.22796877,0.87130356,-0.51618624,0.16635811,0.84016502,0
1.0358063,-0.60922402,-0.54545319,0.51618624,-0.16635811,-0.84016502,0
0.38312665,0.56117892,-1.0306151,0.51618624,-0.16635811,-0.84016502,0
0.96767527,0.77155095,-0.70609045,0.51618624,-0.16635811,-0.84016502,0
-0.53603727,0.298085,0.83018458,-0.51618624,0.16635811,0.84016502,0
-0.12656951,0.61959869,-0.97957432,-0.35732996,0.84967196,-0.38777941,0
-0.84675014,-0.069894262,0.63778925,-0.51618624,0.16635811,0.84016502,0
-0.91621691,-1.1321235,0.73767614,-0.77837503,-0.50038242,-0.37914428,0
-0.61059386,-1.0159581,0.85295451,0.35732996,-0.84967196,0.38777941,0
-0.10947713,-0.48166525,1.1090865,-0.51618624,0.16635811,0.84016502,0
0.67189115,0.81901008,0.053104371,0.77837503,0.50038242,0.37914428,0
-0.72189611,0.059189752,0.7976172,-0.51618624,0.16635811,0.84016502,0
1.542672,-0.036606014,-0.31707966,0.51618624,-0.16635811,-0.84016502,0
-0.35120681,0.53247517,0.92118347,-0.51618624,0.16635811,0.84016502,0
-0.15085316,-1.4395012,-0.41141737,0.35732996,-0.84967196,0.38777941,0
0.91373026,-0.14759368,-0.61453533,0.51618624,-0.16635811,-0.84016502,0
0.17553878,-1.114867,-0.87048411,0.51618624,-0.16635811,-0.84016502,0
0.061276317,0.62194908,1.2095122,-0.51618624,0.16635811,0.84016502,0
0.55630988,-0.6446141,0.67147034,0.35732996,-0.84967196,0.38777941,0
-0.63090312,-1.0773072,-0.003813386,-0.77837503,-0.50038242,-0.37914428,0
0.20637202,0.95326531,0.80873632,0.77837503,0.50038242,0.37914428,0
1.2635862,-0.50353181,-0.2489661,0.51618624,-0.16635811,-0.84016502,0
0.4636842,0.89005709,0.44446442,0.77837503,0.50038242,0.37914428,0
-0.15528864,0.18030089,-1.2794915,0.51618624,-0.16635811,-0.84016502,0
0.68153757,-0.10247565,-0.75854743,0.51618624,-0.16635811,-0.84016502,0
0.59944236,0.23372844,0.86795223,0.77837503,0.50038242,0.37914428,0
-0.24155504,0.81247944,-0.32854381,-0.35732996,0.84967196,-0.38777941,0
0.44871628,-0.28824484,1.4183698,0.35732996,-0.84967196,0.38777941,0
-0.46701306,0.51239341,0.9060303,-0.51618624,0.16635811,0.84016502,0
0.26031744,0.6104542,1.2428728,-0.51618624,0.16635811,0.84016502,0
0.87923539,0.81228489,-0.4471904,0.77837503,0.50038242,0.37914428,0
-0.27654099,-1.2653937,0.28055316,0.35732996,-0.84967196,0.38777941,0
-0.54363894,0.22345257,0.86830294,-0.51618624,0.16635811,0.84016502,0
0.0038866401,0.00055700541,-1.1143594,0.51618624,-0.16635811,-0.84016502,0
-0.98581409,-0.39699125,0.14918458,-0.77837503,-0.50038242,-0.37914428,0
1.6005206,-0.30158651,-0.14116418,0.77837503,0.50038242,0.37914428,0
0.96071374,0.048630983,0.51834297,0.77837503,0.50038242,0.37914428,0
-0.93384767,-1.0079172,0.53674364,-0.77837503,-0.50038242,-0.37914428,0
1.1414595,-0.39150697,-0.31390953,0.51618624,-0.16635811,-0.84016502,0
-0.34959033,0.4361802,0.98091,-0.51618624,0.16635811,0.84016502,0
0.2844125,1.2890347,0.50314498,0.77837503,0.50038242,0.37914428,0
0.99173081,0.32334235,0.22551173,0.77837503,0.50038242,0.37914428,0
-0.23444438,-0.99155271,-0.64525628,-0.77837503,-0.50038242,-0.37914428,0
0.19347936,-0.78536546,-0.81438696,0.51618624,-0.16635811,-0.84016502,0
1.262877,0.10947776,-0.53145742,0.51618624,-0.16635811,-0.84016502,0
1.1405293,0.10724357,0.0058994293,0.77837503,0.50038242,0.37914428,0
-0.77633131,-0.57748371,-0.39903718,-0.77837503,-0.50038242,-0.37914428,0
0.19967008,-1.1962914,-0.45958757,0.35732996,-0.84967196,0.38777941,0
0.70381057,0.51219457,0.44327998,0.77837503,0.50038242,0.37914428,0
0.71846163,1.1506479,-0.71749389,-0.35732996,0.84967196,-0.38777941,0
0.85942173,-0.27143508,1.0174536,0.77837503,0.50038242,0.37914428,0
0.21860862,1.2810106,0.52037907,0.77837503,0.50038242,0.37914428,0
1.5731246,-0.60781288,-0.070531011,0.35732996,-0.84967196,0.38777941,0
0.56789136,-0.37108323,-0.81477702,0.51618624,-0.16635811,-0.84016502,0
-1.404206,0.17381881,0.34218001,-0.51618624,0.16635811,0.84016502,0
1.0898573,-0.27932259,-0.36676097,0.51618624,-0.16635811,-0.84016502,0
0.79233235,1.1022832,-0.89315629,-0.35732996,0.84967196,-0.38777941,0
-0.75847661,-0.47893313,-0.70993435,-0.77837503,-0.50038242,-0.37914428,0
1.3459606,0.098681018,-0.4166652,0.51618624,-0.16635811,-0.84016502,0
0.60465938,0.9496963,-0.024329364,0.77837503,0.50038242,0.37914428,0
-0.42222774,0.019158304,-1.5589461,0.51618624,-0.16635811,-0.84016502,0
1.310339,0.27218992,-0.39815402,0.77837503,0.50038242,0.37914428,0
0.88019007,-0.90407556,-0.47719717,0.51618624,-0.16635811,-0.84016502,0
0.89743388,0.19383018,0.30006966,0.77837503,0.50038242,0.37914428,0
-0.6263926,0.70545387,-0.4581098,-0.35732996,0.84967196,-0.38777941,0
-0.19728863,0.52605915,-0.99916857,-0.35732996,0.84967196,-0.38777941,0
-0.16228163,-0.65841275,1.0307271,0.35732996,-0.84967196,0.38777941,0
-0.1277802,1.4373925,0.85160923,-0.51618624,0.16635811,0.84016502,0
-0.27611238,0.79536521,0.88386905,-0.51618624,0.16635811,0.84016502,0
-1.2549025,0.76371539,0.0040720701,-0.35732996,0.84967196,-0.38777941,0
0.11619484,-0.99987167,-0.86004764,0.51618624,-0.16635811,-0.84016502,0
1.1487162,-0.57088435,0.12714773,0.35732996,-0.84967196,0.38777941,0
-1.2439398,0.28814638,0.35486484,-0.51618624,0.16635811,0.84016502,0
-0.58852136,-0.25248441,-0.97174835,-0.77837503,-0.50038242,-0.37914428,0
0.86896712,0.97664344,-0.5817908,0.77837503,0.50038242,0.37914428,0
0.95133287,0.29090384,0.24664459,0.77837503,0.50038242,0.37914428,0
1.3187876,0.042110622,-0.29157364,0.51618624,-0.16635811,-0.84016502,0
-0.39657938,0.21683836,-1.3628083,0.51618624,-0.16635811,-0.84016502,0
-0.54221344,-0.49613094,-0.90857065,-0.77837503,-0.50038242,-0.37914428,0
0.50557405,0.078865021,-0.98851609,0.51618624,-0.16635811,-0.84016502,0
-0.79465193,0.68264586,-0.21461594,-0.35732996,0.84967196,-0.38777941,0
0.52880484,1.2292883,-0.47256428,-0.35732996,0.84967196,-0.38777941,0
0.86972308,-0.39664561,1.0342346,0.35732996,-0.84967196,0.38777941,0
1.5729759,-0.43644905,0.098549962,0.77837503,0.50038242,0.37914428,0
1.1851009,-0.43888837,-0.35269201,0.51618624,-0.16635811,-0.84016502,0
-0.14598048,1.4837964,0.76699841,0.77837503,0.50038242,0.37914428,0
-0.61636996,-1.2152766,0.30708694,-0.77837503,-0.50038242,-0.37914428,0
0.57487166,0.053006411,1.5634946,-0.51618624,0.16635811,0.84016502,0
1.0650865,-0.28507012,0.89199311,0.77837503,0.50038242,0.37914428,0
1.0892073,-0.67175949,-0.46361578,0.51618624,-0.16635811,-0.84016502,0
0.05741924,0.1435318,-1.2315249,0.51618624,-0.16635811,-0.84016502,0
-0.30274916,-1.0851582,-0.47207847,-0.77837503,-0.50038242,-0.37914428,0
-0.038317084,-0.16793728,1.1471357,-0.51618624,0.16635811,0.84016502,0
-1.4373502,0.13850744,0.3813647,-0.51618624,0.16635811,0.84016502,0
-0.31875393,0.17832404,0.95946306,-0.51618624,0.16635811,0.84016502,0
-0.38009921,1.2395911,0.28251743,-0.35732996,0.84967196,-0.38777941,0
-0.41143692,0.33914357,-1.2585275,-0.35732996,0.84967196,-0.38777941,0
-0.74709606,0.7392022,0.63960838,-0.51618624,0.16635811,0.84016502,0
-1.1889886,0.084250778,-0.18310797,-0.77837503,-0.50038242,-0.37914428,0
-1.008337,-1.0527171,0.67906642,-0.77837503,-0.50038242,-0.37914428,0
1.186379,0.46609378,-0.374933,0.77837503,0.50038242,0.37914428,0
1.2874675,-0.19013,0.48400885,0.77837503,0.50038242,0.37914428,0
1.4385676,-0.12819514,-0.18696058,0.51618624,-0.16635811,-0.84016502,0
-0.31958485,-0.93626606,-0.89888024,-0.77837503,-0.50038242,-0.37914428,0
0.084694266,-1.3611314,-0.58279014,0.35732996,-0.84967196,0.38777941,0
-1.5959487,0.29247728,0.18431413,-0.51618624,0.16635811,0.84016502,0
0.31135729,-0.86542749,0.35061112,0.35732996,-0.84967196,0.38777941,0
0.84153211,1.1081411,-0.8443954,-0.35732996,0.84967196,-0.38777941,0
-1.3247476,0.65037739,-0.020699143,-0.35732996,0.84967196,-0.38777941,0
-0.45148861,-1.3043569,-0.23001117,-0.77837503,-0.50038242,-0.37914428,0
-1.0086831,-0.24950625,-0.060439885,-0.77837503,-0.50038242,-0.37914428,0
0.9365257,-0.52104074,-0.58056879,0.51618624,-0.16635811,-0.84016502,0
-0.71493196,-0.11651671,-1.2088038,-0.77837503,-0.50038242,-0.37914428,0
-0.39913008,-0.60377389,1.0041528,-0.51618624,0.16635811,0.84016502,0
0.84158337,1.2279571,-0.45795846,0.77837503,0.50038242,0.37914428,0
1.4335778,-0.25200215,-0.022798657,0.77837503,0.50038242,0.37914428,0
-0.74928153,0.062712491,-1.1603088,-0.77837503,-0.50038242,-0.37914428,0
-0.75301987,-0.28144565,0.77880156,-0.51618624,0.16635811,0.84016502,0
0.17206109,-0.1712898,1.2167257,-0.51618624,0.16635811,0.84016502,0
-0.68035972,0.87375438,0.53344983,-0.51618624,0.16635811,0.84016502,0
1.0867105,0.77782887,-0.46493304,0.77837503,0.50038242,0.37914428,0
-0.29795375,-0.67711866,1.0336776,-0.51618624,0.16635811,0.84016502,0
0.18350506,0.98957503,-0.53403389,-0.35732996,0.84967196,-0.38777941,0
0.069364667,-0.36352497,-1.0916479,0.51618624,-0.16635811,-0.84016502,0
-0.18376994,-1.1027191,-0.97238731,-0.77837503,-0.50038242,-0.37914428,0
-0.85931677,0.96086174,0.18308032,-0.35732996,0.84967196,-0.38777941,0
0.81293726,-0.81161714,-0.43696105,0.51618624,-0.16635811,-0.84016502,0
-1.0708308,0.045213431,-0.52841586,-0.77837503,-0.50038242,-0.37914428,0
-1.3259411,-0.17375711,0.36887133,-0.51618624,0.16635811,0.84016502,0
0.86721379,0.94815415,-0.65645754,0.77837503,0.50038242,0.37914428,0
0.25273699,1.0432721,-0.67943013,-0.35732996,0.84967196,-0.38777941,0
-0.26081479,-0.47222233,-1.22733,-0.77837503,-0.50038242,-0.37914428,0
1.0914073,0.20444056,0.10506094,0.77837503,0.50038242,0.37914428,0
-1.1985513,0.37612641,0.31342542,-0.51618624,0.16635811,0.84016502,0
0.84636939,-0.70089608,0.38324904,0.35732996,-0.84967196,0.38777941,0
-0.78971159,-0.3324849,-0.57768106,-0.77837503,-0.50038242,-0.37914428,0
0.72515762,0.89437068,-0.90885878,0.51618624,-0.16635811,-0.84016502,0
0.66387022,0.58064961,-0.93709075,0.51618624,-0.16635811,-0.84016502,0
0.12398171,0.33965325,1.1572406,-0.51618624,0.16635811,0.84016502,0
1.090824,0.59577727,-0.44124329,0.77837503,0.50038242,0.37914428,0
-0.77052557,0.14587319,-1.2424988,-0.77837503,-0.50038242,-0.37914428,0
-1.2106476,-0.46108717,0.28314543,-0.77837503,-0.50038242,-0.37914428,0
1.0287342,0.18196985,0.52153206,0.77837503,0.50038242,0.37914428,0
1.1724349,-0.16543216,0.62919503,0.77837503,0.50038242,0.37914428,0
0.66712308,0.21403539,0.83760458,0.77837503,0.50038242,0.37914428,0
0.11072308,-0.61427081,-1.0960124,0.51618624,-0.16635811,-0.84016502,0
0.82690895,-0.052180171,0.74801069,0.77837503,0.50038242,0.37914428,0
-1.0181172,-0.88065147,0.45083916,-0.77837503,-0.50038242,-0.37914428,0
0.85603726,1.1107625,-0.76402104,-0.35732996,0.84967196,-0.38777941,0
0.16813695,0.78365672,1.1567817,-0.51618624,0.16635811,0.84016502,0
-1.1230525,0.68132281,-0.11913669,-0.35732996,0.84967196,-0.38777941,0
-0.70509851,-0.58706683,-0.61385679,-0.77837503,-0.50038242,-0.37914428,0
-0.20336092,0.12387508,-1.2487004,0.51618624,-0.16635811,-0.84016502,0
0.37393367,-1.0467138,-0.70592189,0.51618624,-0.16635811,-0.84016502,0
0.17636377,-0.77724087,-0.83078545,0.51618624,-0.16635811,-0.84016502,0
-0.0097043812,0.63575083,-1.0142598,-0.35732996,0.84967196,-0.38777941,0
1.2050171,0.70285302,-0.58412969,0.77837503,0.50038242,0.37914428,0
0.087997973,-0.12206578,1.1937195,-0.51618624,0.16635811,0.84016502,0
0.61791885,0.74189579,0.22380251,0.77837503,0.50038242,0.37914428,0
0.78526545,0.69169897,-0.7790699,0.51618624,-0.16635811,-0.84016502,0
1.1787508,0.35305855,-0.18735874,0.77837503,0.50038242,0.37914428,0
1.1964593,-0.34854275,0.4377512,0.77837503,0.50038242,0.37914428,0
-0.25573516,-0.63796043,-1.2341309,0.51618624,-0.16635811,-0.84016502,0
1.080302,-0.47143382,-0.43981099,0.51618624,-0.16635811,-0.84016502,0
1.1613953,-0.14928481,0.29923964,0.77837503,0.50038242,0.37914428,0
1.2986767,-0.30671623,0.21002358,0.77837503,0.50038242,0.37914428,0
0.8211475,-0.24049541,-0.67251945,0.51618624,-0.16635811,-0.84016502,0
-0.71785092,-0.3246817,-0.59745371,-0.77837503,-0.50038242,-0.37914428,0
0.020843752,-0.92806083,0.43430835,0.35732996,-0.84967196,0.38777941,0
0.78297865,0.77911353,0.12654656,0.77837503,0.50038242,0.37914428,0
0.26375434,-0.78315258,0.73201376,0.35732996,-0.84967196,0.38777941,0
-0.027990937,1.4343845,0.55362415,-0.35732996,0.84967196,-0.38777941,0
0.12165529,-0.39460105,1.3932612,-0.51618624,0.16635811,0.84016502,0
-0.64117259,1.0728829,0.54675174,-0.51618624,0.16635811,0.84016502,0
-1.066498,0.47021618,-0.4036727,-0.35732996,0.84967196,-0.38777941,0
0.30520499,-0.92030776,-0.82851338,0.51618624,-0.16635811,-0.84016502,0
-0.81088752,0.56389976,-0.82274568,-0.35732996,0.84967196,-0.38777941,0
-0.87940878,-0.13515423,0.78877103,-0.51618624,0.16635811,0.84016502,0
0.63098407,0.76712108,0.51183355,0.77837503,0.50038242,0.37914428,0
-0.25277638,-0.27272138,-1.37078,0.51618624,-0.16635811,-0.84016502,0
-0.39778113,-0.98873103,-0.3433395,-0.77837503,-0.50038242,-0.37914428,0
0.52148432,1.3285248,-0.12269372,-0.35732996,0.84967196,-0.38777941,0
1.1136348,-0.46995866,-0.35658455,0.51618624,-0.16635811,-0.84016502,0
0.95767683,-0.82225442,-0.11553788,0.35732996,-0.84967196,0.38777941,0
-0.22889054,0.12638301,1.0547231,-0.51618624,0.16635811,0.84016502,0
0.94872117,0.33657205,0.40195817,0.77837503,0.50038242,0.37914428,0
1.0448612,-0.29191613,-0.54667664,0.51618624,-0.16635811,-0.84016502,0
-0.19170463,1.3629744,0.77995956,-0.35732996,0.84967196,-0.38777941,0
1.0926094,-0.074825644,0.56395882,0.77837503,0.50038242,0.37914428,0
0.3715862,-0.4389798,-0.97225106,0.51618624,-0.16635811,-0.84016502,0
0.99915862,-0.20482528,1.050163,0.77837503,0.50038242,0.37914428,0
1.2246512,-0.48895934,-0.39418793,0.51618624,-0.16635811,-0.84016502,0
0.33744285,-1.1394156,-0.47546339,0.35732996,-0.84967196,0.38777941,0
0.42617869,0.65601099,1.008661,0.77837503,0.50038242,0.37914428,0
0.36679447,-0.54205734,-0.92975986,0.51618624,-0.16635811,-0.84016502,0
1.2581148,0.25278771,-0.038810492,0.77837503,0.50038242,0.37914428,0
-1.0472898,-0.49386039,0.75550807,-0.51618624,0.16635811,0.84016502,0
-0.17143977,-1.3362429,-0.57059216,-0.77837503,-0.50038242,-0.37914428,0
1.0416577,-0.35819429,-0.37721968,0.51618624,-0.16635811,-0.84016502,0
-0.91406345,0.17892486,-1.0955325,-0.77837503,-0.50038242,-0.37914428,0
0.21330041,0.56194556,-1.1562605,0.51618624,-0.16635811,-0.84016502,0
0.583758,0.46081921,0.68187356,0.77837503,0.50038242,0.37914428,0
-0.42873457,1.2854627,0.45704544,-0.35732996,0.84967196,-0.38777941,0
0.90692395,-0.93990409,-0.085739315,0.35732996,-0.84967196,0.38777941,0
-0.88416147,-0.67400813,0.13800842,-0.77837503,-0.50038242,-0.37914428,0
-0.79343033,0.30031613,0.728441,-0.51618624,0.16635811,0.84016502,0
-0.098507896,0.88096613,-0.38222221,-0.35732996,0.84967196,-0.38777941,0
-0.61712241,-1.2733725,0.31938535,0.35732996,-0.84967196,0.38777941,0
-1.1799079,-0.10816775,0.45642245,-0.51618624,0.16635811,0.84016502,0
1.2571418,-0.68706584,-0.18396056,0.51618624,-0.16635811,-0.84016502,0
0.51435971,0.10335612,-0.91015303,0.51618624,-0.16635811,-0.84016502,0
-0.83819175,0.87689006,0.59639943,-0.51618624,0.16635811,0.84016502,0
-1.4404156,0.0959723,0.063857555,-0.77837503,-0.50038242,-0.37914428,0
-0.086063862,-0.43612909,-1.0615395,0.51618624,-0.16635811,-0.84016502,0
0.54391146,0.82058465,0.62443018,0.77837503,0.50038242,0.37914428,0
-0.37255892,-0.35272303,1.0268626,-0.51618624,0.16635811,0.84016502,0
