0.098722041,0.20573413,1.4404529,-0.60774517,0.35175717,0.71197808,0
-0.75521564,-0.57245272,-1.474399,-0.46558851,0.56847084,-0.67828333,0
-0.96505803,-2.2534947,-0.97447872,-0.64332974,-0.74371219,-0.18171126,0
2.2973595,1.348007,0.5946151,0.64332974,0.74371219,0.18171126,0
-1.4397607,-0.38702154,0.32351324,-0.60774517,0.35175717,0.71197808,0
-0.18690094,-1.0334971,-1.1004105,0.60774517,-0.35175717,-0.71197808,0
-1.3538525,-2.2776084,0.20800734,-0.64332974,-0.74371219,-0.18171126,0
0.47298336,2.5820835,0.55894017,-0.60774517,0.35175717,0.71197808,0
-1.2216902,0.55704701,-0.25669059,-0.46558851,0.56847084,-0.67828333,0
-0.70272946,0.24320756,-0.81119329,-0.46558851,0.56847084,-0.67828333,0
1.1050981,2.352021,-0.14250016,0.64332974,0.74371219,0.18171126,0
-1.8163991,-2.0205383,0.66547203,-0.64332974,-0.74371219,-0.18171126,0
0.15171683,-1.5572594,0.023819327,0.46558851,-0.56847084,0.67828333,0
1.171378,1.289003,-0.98232412,0.60774517,-0.35175717,-0.71197808,0
1.9227414,1.665758,-0.030555964,0.64332974,0.74371219,0.18171126,0
-1.5910329,-1.8808519,-0.2869215,-0.64332974,-0.74371219,-0.18171126,0
-0.78409094,0.92438042,0.36224973,-0.60774517,0.35175717,0.71197808,0
-1.7377489,-1.7342658,-0.081145048,-0.64332974,-0.74371219,-0.18171126,0
2.4071178,0.89792901,0.60938799,0.46558851,-0.56847084,0.67828333,0
1.9535301,1.6015017,0.34691536,0.64332974,0.74371219,0.18171126,0
-1.8706702,-0.61699188,-0.73091447,-0.46558851,0.56847084,-0.67828333,0
1.8122191,1.8044904,-0.50241542,0.64332974,0.74371219,0.18171126,0
1.3625405,0.18518412,-0.40561336,0.60774517,-0.35175717,-0.71197808,0
-1.5573102,-1.8461205,-0.39599705,-0.64332974,-0.74371219,-0.18171126,0
-0.21673776,-0.23961639,-1.5177097,0.60774517,-0.35175717,-0.71197808,0
-1.9006528,-1.443652,0.61778069,-0.60774517,0.35175717,0.71197808,0
0.54122865,2.5115833,0.56649423,-0.60774517,0.35175717,0.71197808,0
0.4517315,-0.97610438,-0.4216556,0.60774517,-0.35175717,-0.71197808,0
1.1932024,0.80824792,-0.77978063,0.60774517,-0.35175717,-0.71197808,0
-0.70809436,-2.6103005,-0.44544196,-0.64332974,-0.74371219,-0.18171126,0
-1.6812501,-2.0084615,0.2158525,-0.64332974,-0.74371219,-0.18171126,0
-2.0127141,-1.5231252,-0.79244578,-0.64332974,-0.74371219,-0.18171126,0
1.5938628,2.0288923,-0.73559976,0.64332974,0.74371219,0.18171126,0
-2.2324979,-1.169911,-0.75635624,-0.64332974,-0.74371219,-0.18171126,0
0.15745762,1.0598264,1.1357614,-0.60774517,0.35175717,0.71197808,0
1.5172923,1.9157579,0.16364169,0.64332974,0.74371219,0.18171126,0
-1.5952777,-1.9039602,0.089167595,-0.64332974,-0.74371219,-0.18171126,0
1.9903091,1.3021011,-0.38427043,0.60774517,-0.35175717,-0.71197808,0
1.8332736,1.485654,1.4836649,0.64332974,0.74371219,0.18171126,0
-1.5100516,0.31204057,-0.20914292,-0.46558851,0.56847084,-0.67828333,0
1.3814485,0.60103846,-0.45593429,0.60774517,-0.35175717,-0.71197808,0
-1.9433954,-0.92533922,0.086711049,-0.60774517,0.35175717,0.71197808,0
-0.1698544,-1.5477742,0.43752909,0.46558851,-0.56847084,0.67828333,0
-0.84957802,-2.3871102,-0.56063581,-0.64332974,-0.74371219,-0.18171126,0
0.74194896,2.15762,-0.13599539,-0.46558851,0.56847084,-0.67828333,0
0.45536983,-1.5673885,-0.28187966,0.60774517,-0.35175717,-0.71197808,0
2.2209082,1.5870917,-0.20178068,0.64332974,0.74371219,0.18171126,0
1.8012919,1.6532013,0.77835834,0.64332974,0.74371219,0.18171126,0
1.8258648,1.4255509,1.0476633,0.64332974,0.74371219,0.18171126,0
-0.2332294,0.32759422,-0.93396872,-0.46558851,0.56847084,-0.67828333,0
-2.129436,-1.3994422,-0.13805556,-0.64332974,-0.74371219,-0.18171126,0
1.3115023,1.9674176,0.5379343,0.64332974,0.74371219,0.18171126,0
2.2389998,1.252279,0.66779649,0.64332974,0.74371219,0.18171126,0
0.11999714,-0.97870582,0.70152444,0.46558851,-0.56847084,0.67828333,0
0.60926169,-0.37486774,0.75992733,0.46558851,-0.56847084,0.67828333,0
-1.6919315,0.084390759,-0.097716734,-0.46558851,0.56847084,-0.67828333,0
-1.0059165,-2.2343354,-0.86439681,-0.64332974,-0.74371219,-0.18171126,0
0.8230018,-0.34003699,-0.51316011,0.60774517,-0.35175717,-0.71197808,0
-1.473021,-2.1572461,0.54538417,-0.64332974,-0.74371219,-0.18171126,0
-0.82830286,-0.68314314,-1.5901669,-0.46558851,0.56847084,-0.67828333,0
0.8432011,0.43037963,-0.84092736,0.60774517,-0.35175717,-0.71197808,0
-2.1778994,-1.3073165,-0.68354988,-0.64332974,-0.74371219,-0.18171126,0
1.0591723,2.196497,1.029171,0.64332974,0.74371219,0.18171126,0
-0.36552987,0.099688709,-1.0302544,-0.46558851,0.56847084,-0.67828333,0
-2.2741523,-1.1977143,-0.54315269,-0.64332974,-0.74371219,-0.18171126,0
-2.3222466,-0.89557385,-0.76167381,-0.46558851,0.56847084,-0.67828333,0
1.3207853,2.2054374,0.28998637,0.64332974,0.74371219,0.18171126,0
-1.6815777,-0.73942608,-0.88639778,-0.46558851,0.56847084,-0.67828333,0
-1.8096836,-0.14393914,-0.18579194,-0.60774517,0.35175717,0.71197808,0
1.5838411,0.8275373,-0.42220712,0.60774517,-0.35175717,-0.71197808,0
1.7057401,1.6697991,1.1975921,0.64332974,0.74371219,0.18171126,0
1.2102784,1.9440535,1.1349118,0.64332974,0.74371219,0.18171126,0
0.84311241,0.30986118,-0.96446013,0.60774517,-0.35175717,-0.71197808,0
-2.4216175,-0.97211564,-0.25814307,-0.60774517,0.35175717,0.71197808,0
0.77981365,-0.77832478,-0.4618755,0.60774517,-0.35175717,-0.71197808,0
-0.01867478,0.38323206,1.1265743,-0.60774517,0.35175717,0.71197808,0
-1.2975156,-1.5732026,-1.8268234,0.60774517,-0.35175717,-0.71197808,0
0.93358183,2.4354403,0.030777216,-0.46558851,0.56847084,-0.67828333,0
-2.4094434,-0.73511136,-0.25149941,-0.60774517,0.35175717,0.71197808,0
-0.48094922,0.76482177,-0.58172941,-0.46558851,0.56847084,-0.67828333,0
1.1458704,2.3462644,0.61912203,0.64332974,0.74371219,0.18171126,0
-2.1411862,-1.4486867,0.15453005,-0.64332974,-0.74371219,-0.18171126,0
-1.3395362,-1.3994517,0.89173484,-0.60774517,0.35175717,0.71197808,0
-0.70773923,-2.0520399,0.31360769,0.46558851,-0.56847084,0.67828333,0
0.37126958,2.3217638,0.60161495,-0.60774517,0.35175717,0.71197808,0
1.5630429,1.8044821,0.36988807,0.64332974,0.74371219,0.18171126,0
-1.8494201,-1.6159827,-0.94313312,-0.64332974,-0.74371219,-0.18171126,0
0.78872836,2.6149819,0.55191469,0.64332974,0.74371219,0.18171126,0
-1.7361311,-1.8074751,0.0047297478,-0.64332974,-0.74371219,-0.18171126,0
0.95866239,1.2217656,1.4791064,-0.60774517,0.35175717,0.71197808,0
0.12391019,1.2455916,0.95977473,-0.60774517,0.35175717,0.71197808,0
-1.7059722,-2.1263638,0.93188453,-0.60774517,0.35175717,0.71197808,0
0.037135631,-0.53878242,-1.0073477,0.60774517,-0.35175717,-0.71197808,0
1.4318373,2.1856644,-0.65108275,0.64332974,0.74371219,0.18171126,0
-0.90696114,-2.2146428,-1.1931043,0.60774517,-0.35175717,-0.71197808,0
-0.27877027,0.49267983,0.84154093,-0.60774517,0.35175717,0.71197808,0
1.6832064,2.0612144,-0.58548856,0.64332974,0.74371219,0.18171126,0
1.1169804,1.2299696,1.6718708,0.46558851,-0.56847084,0.67828333,0
0.58614099,2.6294997,0.46770668,0.64332974,0.74371219,0.18171126,0
0.56248856,0.30741656,-1.1864309,0.60774517,-0.35175717,-0.71197808,0
-0.52606165,-2.5423713,-0.64478755,0.60774517,-0.35175717,-0.71197808,0
1.7942749,1.4689484,-0.68829942,0.60774517,-0.35175717,-0.71197808,0
-0.88822043,-2.4577134,-0.95649099,-0.64332974,-0.74371219,-0.18171126,0
-0.47403908,-1.7297539,0.30282199,0.46558851,-0.56847084,0.67828333,0
-1.5945114,-1.7863024,-0.8316915,-0.64332974,-0.74371219,-0.18171126,0
0.10532361,-1.0627017,0.50724179,0.46558851,-0.56847084,0.67828333,0
1.3704317,1.8671156,0.84556639,0.64332974,0.74371219,0.18171126,0
0.61235815,1.3916402,1.1304706,-0.60774517,0.35175717,0.71197808,0
-1.5825357,0.032094002,-0.39509746,-0.46558851,0.56847084,-0.67828333,0
2.1619582,1.3003709,0.82650793,0.64332974,0.74371219,0.18171126,0
-1.9424773,-0.94892037,-1.0028517,-0.46558851,0.56847084,-0.67828333,0
1.1108148,2.3743401,0.31315136,0.64332974,0.74371219,0.18171126,0
0.12183347,-0.8901279,-0.87041771,0.60774517,-0.35175717,-0.71197808,0
-0.48004544,0.12735772,-0.99257904,-0.46558851,0.56847084,-0.67828333,0
2.0436332,0.37952495,0.36976022,0.46558851,-0.56847084,0.67828333,0
-2.3931293,-1.3214327,-0.39699757,-0.64332974,-0.74371219,-0.18171126,0
-0.061384678,-1.7735742,-0.57296526,0.60774517,-0.35175717,-0.71197808,0
-1.2584481,-1.9629104,0.58151424,0.46558851,-0.56847084,0.67828333,0
1.120237,2.3188062,0.22541714,0.64332974,0.74371219,0.18171126,0
1.5614386,1.8473047,0.90729988,0.64332974,0.74371219,0.18171126,0
1.6681205,2.0875499,-0.74605703,0.64332974,0.74371219,0.18171126,0
-0.87209684,-0.82823181,0.95244092,-0.60774517,0.35175717,0.71197808,0
2.2998099,1.1670244,0.80768418,0.46558851,-0.56847084,0.67828333,0
1.5157988,1.313555,1.4449366,0.46558851,-0.56847084,0.67828333,0
0.24078363,-1.122588,0.5141511,0.46558851,-0.56847084,0.67828333,0
1.5725199,1.9682777,0.2503376,0.64332974,0.74371219,0.18171126,0
0.16873592,-0.23422861,-1.2361927,0.60774517,-0.35175717,-0.71197808,0
-2.5199151,-0.7145524,-0.44789469,-0.46558851,0.56847084,-0.67828333,0
-1.1869075,-1.7903248,-1.5003016,0.60774517,-0.35175717,-0.71197808,0
1.2614441,2.3705239,-0.18307471,0.64332974,0.74371219,0.18171126,0
-1.4748063,-1.1286271,-1.2714341,-0.46558851,0.56847084,-0.67828333,0
-0.80306113,-1.9142877,-1.2506009,0.60774517,-0.35175717,-0.71197808,0
1.6001177,2.0853581,-0.74052501,0.64332974,0.74371219,0.18171126,0
-1.9978353,-1.3205498,-0.95076942,-0.64332974,-0.74371219,-0.18171126,0
1.623524,0.53544557,0.89750236,0.46558851,-0.56847084,0.67828333,0
0.07385242,-0.097593307,1.3682299,0.46558851,-0.56847084,0.67828333,0
-0.82158685,0.071256533,-0.85196906,-0.46558851,0.56847084,-0.67828333,0
-0.63157797,-0.44966,-1.4804125,-0.46558851,0.56847084,-0.67828333,0
0.98335761,-0.36129579,0.62392831,0.46558851,-0.56847084,0.67828333,0
-2.0471585,-0.48174787,-0.46103853,-0.46558851,0.56847084,-0.67828333,0
0.18264019,1.3484607,-0.35698485,-0.46558851,0.56847084,-0.67828333,0
-1.4332987,-0.41957995,-0.94028735,-0.46558851,0.56847084,-0.67828333,0
0.80027294,0.1756036,1.1393386,0.46558851,-0.56847084,0.67828333,0
0.65927923,0.62219,-1.0180696,0.60774517,-0.35175717,-0.71197808,0
1.1367453,-0.28688276,-0.23763205,0.60774517,-0.35175717,-0.71197808,0
2.3095019,1.4165881,0.1886127,0.64332974,0.74371219,0.18171126,0
-0.40767926,-1.2677045,0.77796811,0.46558851,-0.56847084,0.67828333,0
0.99028146,-0.81960469,0.031355381,0.46558851,-0.56847084,0.67828333,0
-1.6055622,-2.1564894,0.46848011,-0.64332974,-0.74371219,-0.18171126,0
-2.6994429,-0.92033207,-0.45497215,-0.60774517,0.35175717,0.71197808,0
1.3485467,2.1464305,-0.63422632,-0.46558851,0.56847084,-0.67828333,0
1.1401806,0.85083234,1.420578,0.46558851,-0.56847084,0.67828333,0
-0.19479465,-1.5308511,0.26609385,0.46558851,-0.56847084,0.67828333,0
0.70892394,0.62746638,1.5479536,0.46558851,-0.56847084,0.67828333,0
-1.6545728,-1.7179633,-0.35690081,-0.64332974,-0.74371219,-0.18171126,0
2.2334135,1.2051549,0.76643229,0.64332974,0.74371219,0.18171126,0
1.8128252,1.7017336,0.51884067,0.64332974,0.74371219,0.18171126,0
-1.6722503,-2.1659594,0.51839423,-0.64332974,-0.74371219,-0.18171126,0
-0.55923867,-2.0727904,0.17519665,0.46558851,-0.56847084,0.67828333,0
0.3614026,-0.01774025,1.2162747,0.46558851,-0.56847084,0.67828333,0
0.68701792,2.5854406,0.63917708,0.64332974,0.74371219,0.18171126,0
-0.57045281,-2.6789384,-0.55719995,0.60774517,-0.35175717,-0.71197808,0
0.96319902,2.3139102,0.74975133,0.64332974,0.74371219,0.18171126,0
-2.3917205,-1.285805,-0.23627865,-0.64332974,-0.74371219,-0.18171126,0
-1.1854979,0.61582166,-0.015308589,-0.46558851,0.56847084,-0.67828333,0
-0.7035445,1.4409765,0.084917307,-0.46558851,0.56847084,-0.67828333,0
2.1910555,0.79222333,-0.044579744,0.60774517,-0.35175717,-0.71197808,0
0.33538795,0.9509744,-0.81740248,-0.46558851,0.56847084,-0.67828333,0
1.4674081,1.7420177,1.0643831,0.64332974,0.74371219,0.18171126,0
-2.1810732,-1.3464297,-0.25510693,-0.64332974,-0.74371219,-0.18171126,0
1.6422396,2.1652179,-0.37153387,0.64332974,0.74371219,0.18171126,0
0.66193271,1.4341719,-0.62075746,-0.46558851,0.56847084,-0.67828333,0
1.8103154,1.4217038,1.0880164,0.64332974,0.74371219,0.18171126,0
0.72107732,1.315418,1.4898956,-0.60774517,0.35175717,0.71197808,0
1.0031267,1.9663382,1.2631992,-0.60774517,0.35175717,0.71197808,0
-2.2550378,-1.1971574,-0.7752943,-0.64332974,-0.74371219,-0.18171126,0
0.45416355,-1.7353469,-0.2583313,0.60774517,-0.35175717,-0.71197808,0
-1.4295225,0.18578207,-0.030399777,-0.60774517,0.35175717,0.71197808,0
1.9289839,0.47205192,0.60726416,0.46558851,-0.56847084,0.67828333,0
-1.1049298,0.91664588,0.031750321,-0.46558851,0.56847084,-0.67828333,0
-0.59379351,-1.9432991,-0.94393659,0.60774517,-0.35175717,-0.71197808,0
1.1187353,2.2976763,0.9385457,0.64332974,0.74371219,0.18171126,0
0.96809053,2.1362405,1.0473154,0.64332974,0.74371219,0.18171126,0
1.1457435,1.0741061,-1.0477679,0.60774517,-0.35175717,-0.71197808,0
1.5895839,2.0915852,0.084782362,0.64332974,0.74371219,0.18171126,0
-0.67334485,0.9267664,-0.36878055,-0.46558851,0.56847084,-0.67828333,0
-0.53294146,-0.02852881,-1.1789457,-0.46558851,0.56847084,-0.67828333,0
2.2396662,0.731821,0.52353168,0.46558851,-0.56847084,0.67828333,0
-1.7591487,0.032244086,-0.33262211,-0.46558851,0.56847084,-0.67828333,0
0.3968879,-1.3040013,0.053958297,0.46558851,-0.56847084,0.67828333,0
1.5772159,1.8337256,0.77491593,0.64332974,0.74371219,0.18171126,0
0.36736268,-1.2257121,0.099601269,0.46558851,-0.56847084,0.67828333,0
1.5840333,0.66295803,-0.49620831,0.60774517,-0.35175717,-0.71197808,0
-1.13297,0.25199395,-0.62576008,-0.46558851,0.56847084,-0.67828333,0
-1.6343381,-1.7459688,-1.0299993,-0.64332974,-0.74371219,-0.18171126,0
2.2333491,0.5813666,0.56129539,0.46558851,-0.56847084,0.67828333,0
-1.7881045,-1.7471472,-0.26344037,-0.64332974,-0.74371219,-0.18171126,0
-2.188127,-1.0422703,-0.81122124,-0.46558851,0.56847084,-0.67828333,0
-0.16311169,-1.4493197,0.29752696,0.46558851,-0.56847084,0.67828333,0
-1.6208509,-1.2812979,-1.3556852,-0.46558851,0.56847084,-0.67828333,0
-0.31321722,-0.19719768,1.1565864,-0.60774517,0.35175717,0.71197808,0
0.72119522,0.1510098,-0.78549385,0.60774517,-0.35175717,-0.71197808,0
-1.0343368,0.86125326,-0.080075026,-0.46558851,0.56847084,-0.67828333,0
1.9774081,0.97811586,0.95625889,0.46558851,-0.56847084,0.67828333,0
-1.4722934,-2.1688023,0.36557817,-0.64332974,-0.74371219,-0.18171126,0
0.31730533,-1.3511608,0.12580407,0.46558851,-0.56847084,0.67828333,0
-0.02291137,-0.4482165,1.0406578,0.46558851,-0.56847084,0.67828333,0
1.9021935,1.6714762,0.065002441,0.64332974,0.74371219,0.18171126,0
1.8333371,2.0297563,-0.75657094,0.64332974,0.74371219,0.18171126,0
1.3054249,2.3054199,-0.46961331,0.64332974,0.74371219,0.18171126,0
-1.643836,-0.87429541,-0.93919778,-0.46558851,0.56847084,-0.67828333,0
-0.69914138,-2.2192578,0.11508417,0.46558851,-0.56847084,0.67828333,0
-0.25785005,1.1074649,-0.22668767,-0.46558851,0.56847084,-0.67828333,0
-0.13449454,0.65761006,-0.88174438,-0.46558851,0.56847084,-0.67828333,0
-1.0979252,-0.69622338,0.74078512,-0.60774517,0.35175717,0.71197808,0
-1.8798422,-0.68319094,-0.84311956,-0.46558851,0.56847084,-0.67828333,0
1.0968537,0.50590861,-0.58302367,0.60774517,-0.35175717,-0.71197808,0
-1.3956668,-1.9469628,-1.2071502,-0.64332974,-0.74371219,-0.18171126,0
0.76156616,1.5088646,-0.59521043,-0.46558851,0.56847084,-0.67828333,0
-0.36842936,-0.53013599,-1.5400519,0.60774517,-0.35175717,-0.71197808,0
-0.1765483,0.20107776,-1.2366343,-0.46558851,0.56847084,-0.67828333,0
-1.8619822,-0.21595609,-0.026281893,-0.60774517,0.35175717,0.71197808,0
-0.13120419,0.5949378,-0.87792206,-0.46558851,0.56847084,-0.67828333,0
-1.265128,0.53477871,-0.15939233,-0.46558851,0.56847084,-0.67828333,0
-1.0995967,0.42388707,-0.36587578,-0.46558851,0.56847084,-0.67828333,0
-0.43598104,-2.2017407,-0.60200047,0.60774517,-0.35175717,-0.71197808,0
0.27096072,-0.92238176,-0.77775586,0.60774517,-0.35175717,-0.71197808,0
1.4212495,2.1277518,0.51908684,0.64332974,0.74371219,0.18171126,0
2.1067047,1.318318,0.99774897,0.46558851,-0.56847084,0.67828333,0
-0.75590807,-1.5762993,0.77114177,0.46558851,-0.56847084,0.67828333,0
0.078701854,1.6771615,-0.22376347,-0.46558851,0.56847084,-0.67828333,0
-1.9194796,-1.5542268,-0.8815881,-0.64332974,-0.74371219,-0.18171126,0
1.7948055,1.7132262,0.40001059,0.64332974,0.74371219,0.18171126,0
0.58871102,2.6634245,0.43193126,0.64332974,0.74371219,0.18171126,0
-0.73685455,0.29362673,-0.62373275,-0.46558851,0.56847084,-0.67828333,0
-1.6970437,-1.6361098,-0.65819359,-0.64332974,-0.74371219,-0.18171126,0
-0.53124225,-2.5983005,-0.6011095,0.60774517,-0.35175717,-0.71197808,0
2.4547534,0.98818165,0.68194509,0.64332974,0.74371219,0.18171126,0
-0.69107354,-1.6244593,0.54597116,0.46558851,-0.56847084,0.67828333,0
1.5270908,0.033180952,-0.14101082,0.60774517,-0.35175717,-0.71197808,0
-1.1295772,0.13583648,0.31067187,-0.60774517,0.35175717,0.71197808,0
0.81897634,0.60092878,1.4360619,0.46558851,-0.56847084,0.67828333,0
-0.24632809,-0.59349,-1.4242616,0.60774517,-0.35175717,-0.71197808,0
-1.9941264,-1.3617393,-1.0205575,-0.64332974,-0.74371219,-0.18171126,0
-2.1884785,-1.1790003,-0.71348822,-0.64332974,-0.74371219,-0.18171126,0
-0.73428738,-1.3646832,0.79961514,0.46558851,-0.56847084,0.67828333,0
-2.1573515,-1.2287438,0.036230803,-0.60774517,0.35175717,0.71197808,0
-1.4930348,-1.3894646,0.83155549,-0.60774517,0.35175717,0.71197808,0
0.88181579,2.4463613,0.718086,0.64332974,0.74371219,0.18171126,0
0.019867718,1.0073087,-0.72538072,-0.46558851,0.56847084,-0.67828333,0
0.79664654,1.7846603,-0.56517017,-0.46558851,0.56847084,-0.67828333,0
0.79052246,2.4160945,0.62497854,0.64332974,0.74371219,0.18171126,0
0.91411263,1.9921528,-0.45185041,-0.46558851,0.56847084,-0.67828333,0
-0.53345817,1.3398558,0.31913459,-0.60774517,0.35175717,0.71197808,0
-0.83617902,0.5608049,0.41693512,-0.60774517,0.35175717,0.71197808,0
1.1912059,0.18425977,-0.3396374,0.60774517,-0.35175717,-0.71197808,0
1.2911997,0.86995292,1.1788721,0.46558851,-0.56847084,0.67828333,0
1.5629231,-0.11629856,0.019679323,0.60774517,-0.35175717,-0.71197808,0
-0.46173108,-2.1120114,-0.12479186,0.46558851,-0.56847084,0.67828333,0
1.1494317,0.5118041,1.0967641,0.46558851,-0.56847084,0.67828333,0
1.9340053,1.2375934,-0.41847491,0.60774517,-0.35175717,-0.71197808,0
-1.3597822,-0.80974472,0.60630512,-0.60774517,0.35175717,0.71197808,0
2.1974919,1.2926807,0.33192885,0.64332974,0.74371219,0.18171126,0
0.5927515,2.533349,0.27393889,-0.46558851,0.56847084,-0.67828333,0
1.5507804,2.17345,-0.28548646,0.64332974,0.74371219,0.18171126,0
-1.6441073,0.26573783,-0.25485092,-0.46558851,0.56847084,-0.67828333,0
1.2769818,2.2695529,-0.35390711,0.64332974,0.74371219,0.18171126,0
2.3135016,1.4974809,-0.25856113,0.64332974,0.74371219,0.18171126,0
0.71455675,1.9876475,1.157095,-0.60774517,0.35175717,0.71197808,0
0.99295247,2.4473815,0.52863169,0.64332974,0.74371219,0.18171126,0
1.6362484,1.9523871,-0.46887648,0.64332974,0.74371219,0.18171126,0
0.99133492,2.4613371,0.60756397,0.64332974,0.74371219,0.18171126,0
-1.0727812,-0.005805254,0.57008755,-0.60774517,0.35175717,0.71197808,0
1.2992927,1.159701,-0.77373683,0.60774517,-0.35175717,-0.71197808,0
0.90069968,2.2137876,1.0557384,0.64332974,0.74371219,0.18171126,0
-2.3034782,-1.1759973,-0.71383405,-0.64332974,-0.74371219,-0.18171126,0
0.95128751,0.71104097,1.4967093,0.46558851,-0.56847084,0.67828333,0
-1.4366641,-1.89545,-0.55457401,-0.64332974,-0.74371219,-0.18171126,0
-0.50787067,-2.6547256,-0.53482747,0.60774517,-0.35175717,-0.71197808,0
-0.62402952,1.1920327,0.39964372,-0.60774517,0.35175717,0.71197808,0
2.3256862,1.1977849,0.13637769,0.64332974,0.74371219,0.18171126,0
-0.020738006,-1.9941576,-0.47549486,0.60774517,-0.35175717,-0.71197808,0
-0.82819402,0.57385319,-0.38634816,-0.46558851,0.56847084,-0.67828333,0
-0.94904208,-2.4232299,-0.64339304,-0.64332974,-0.74371219,-0.18171126,0
2.0733521,1.333716,1.102021,0.64332974,0.74371219,0.18171126,0
-0.0035608038,-0.46055996,-1.2393839,0.60774517,-0.35175717,-0.71197808,0
-0.18285084,0.37749189,-1.06345,-0.46558851,0.56847084,-0.67828333,0
0.5572989,-0.64058387,-0.5382663,0.60774517,-0.35175717,-0.71197808,0
0.8879267,-0.36611277,-0.37673694,0.60774517,-0.35175717,-0.71197808,0
0.87766588,-0.73509824,-0.19344309,0.60774517,-0.35175717,-0.71197808,0
-1.3850381,-1.8785551,-1.1386038,-0.64332974,-0.74371219,-0.18171126,0
0.098989964,-1.3836591,-0.53387213,0.60774517,-0.35175717,-0.71197808,0
0.17911339,-0.55650496,0.74981022,0.46558851,-0.56847084,0.67828333,0
-1.5766451,-1.9913497,0.054111719,-0.64332974,-0.74371219,-0.18171126,0
-1.3759495,-2.1878529,0.16645026,-0.64332974,-0.74371219,-0.18171126,0
-1.462466,-1.7227025,-1.5869896,-0.64332974,-0.74371219,-0.18171126,0
-2.1279149,-1.5004588,-0.27820897,-0.64332974,-0.74371219,-0.18171126,0
1.1757653,0.44190168,1.1460536,0.46558851,-0.56847084,0.67828333,0
-0.25674218,1.1889333,-0.16797733,-0.46558851,0.56847084,-0.67828333,0
1.1483552,0.042493463,-0.55540669,0.60774517,-0.35175717,-0.71197808,0
2.0444691,0.53453052,0.51640624,0.46558851,-0.56847084,0.67828333,0
-0.031665631,0.29470432,1.2529335,-0.60774517,0.35175717,0.71197808,0
1.6847186,0.18110013,-0.11242571,0.60774517,-0.35175717,-0.71197808,0
-0.10665745,-0.72338146,1.0059309,0.46558851,-0.56847084,0.67828333,0
0.12138772,0.77769393,-1.0257207,-0.46558851,0.56847084,-0.67828333,0
-1.292178,-0.035785317,0.24636231,-0.60774517,0.35175717,0.71197808,0
1.7119852,0.39425135,-0.22956419,0.60774517,-0.35175717,-0.71197808,0
-2.2449641,-1.0893874,0.035043836,-0.60774517,0.35175717,0.71197808,0
-0.99985027,-2.2618489,-1.0788615,0.60774517,-0.35175717,-0.71197808,0
2.2984636,1.0580535,0.63599002,0.46558851,-0.56847084,0.67828333,0
2.2314749,0.93812317,0.81954932,0.46558851,-0.56847084,0.67828333,0
-1.0105493,0.011631012,0.65351045,-0.60774517,0.35175717,0.71197808,0
1.3231386,2.3822927,-0.15049028,0.64332974,0.74371219,0.18171126,0
0.79082215,-0.46668515,0.53971684,0.46558851,-0.56847084,0.67828333,0
1.613578,1.8761369,0.27422833,0.64332974,0.74371219,0.18171126,0
-0.15144765,-2.1265359,-0.5424304,0.60774517,-0.35175717,-0.71197808,0
1.057898,2.1521664,0.85115981,0.64332974,0.74371219,0.18171126,0
-0.32626462,-1.6829915,0.19181573,0.46558851,-0.56847084,0.67828333,0
1.5792533,-0.099457085,0.36349577,0.46558851,-0.56847084,0.67828333,0
-2.4403253,-1.1058943,-0.55187595,-0.64332974,-0.74371219,-0.18171126,0
-1.1476331,0.44256085,0.21055244,-0.60774517,0.35175717,0.71197808,0
-0.14983279,0.84670413,-0.70629019,-0.46558851,0.56847084,-0.67828333,0
1.3533767,1.9330435,1.0993097,0.64332974,0.74371219,0.18171126,0
1.9725306,1.4540451,1.1519423,0.64332974,0.74371219,0.18171126,0
-1.4832863,-1.6629887,-1.4891241,-0.64332974,-0.74371219,-0.18171126,0
1.8262647,0.61171842,0.66579491,0.46558851,-0.56847084,0.67828333,0
0.86031789,1.8710983,-0.64354014,-0.46558851,0.56847084,-0.67828333,0
0.12036055,-0.93694055,0.6550197,0.46558851,-0.56847084,0.67828333,0
-2.1601605,-0.43506432,-0.22503054,-0.60774517,0.35175717,0.71197808,0
2.0016775,0.77540398,0.6980722,0.46558851,-0.56847084,0.67828333,0
1.0136266,1.6505383,-0.67716706,-0.46558851,0.56847084,-0.67828333,0
-1.2027912,-1.9963965,-0.99403512,-0.64332974,-0.74371219,-0.18171126,0
-0.77736604,-0.95784557,1.1397794,0.46558851,-0.56847084,0.67828333,0
-0.026896566,0.15813184,1.3022343,-0.60774517,0.35175717,0.71197808,0
2.3070493,1.2628415,0.67811418,0.64332974,0.74371219,0.18171126,0
-1.8324436,-1.5541887,-0.79189563,-0.64332974,-0.74371219,-0.18171126,0
-1.9415462,-0.77691495,-0.83298105,-0.46558851,0.56847084,-0.67828333,0
1.5112911,1.9972167,-0.0098829269,0.64332974,0.74371219,0.18171126,0
-0.87182486,-1.098676,-1.6495695,0.60774517,-0.35175717,-0.71197808,0
0.21844074,0.15956354,1.4430392,0.46558851,-0.56847084,0.67828333,0
-1.6737494,-1.4475152,0.81072581,-0.60774517,0.35175717,0.71197808,0
-0.043026209,0.7716006,-0.82053769,-0.46558851,0.56847084,-0.67828333,0
1.0902147,2.4550848,0.25041437,0.64332974,0.74371219,0.18171126,0
1.9393477,1.1035275,-0.21281421,0.60774517,-0.35175717,-0.71197808,0
2.1190405,1.4355601,0.86297357,0.64332974,0.74371219,0.18171126,0
1.1698384,0.29386503,0.84867108,0.46558851,-0.56847084,0.67828333,0
-0.75162017,0.078336954,-1.0070333,-0.46558851,0.56847084,-0.67828333,0
-2.1413338,-1.3510066,-1.1246027,-0.64332974,-0.74371219,-0.18171126,0
-1.3226768,-1.9447057,-0.69133067,-0.64332974,-0.74371219,-0.18171126,0
1.1197026,0.55322897,1.1269475,0.46558851,-0.56847084,0.67828333,0
0.34994805,1.0789667,-0.95526719,-0.46558851,0.56847084,-0.67828333,0
-0.65508461,0.15059304,0.71696699,-0.60774517,0.35175717,0.71197808,0
1.8340151,1.418419,1.0242177,0.64332974,0.74371219,0.18171126,0
1.1359951,0.054257512,-0.5298183,0.60774517,-0.35175717,-0.71197808,0
-0.36741346,0.5769223,0.70612741,-0.60774517,0.35175717,0.71197808,0
-1.6339021,-2.1164541,0.73114681,0.46558851,-0.56847084,0.67828333,0
0.28490794,0.44533551,1.5307443,-0.60774517,0.35175717,0.71197808,0
-0.27312338,-1.7498363,-0.81734872,0.60774517,-0.35175717,-0.71197808,0
2.2603958,1.103992,0.7686162,0.46558851,-0.56847084,0.67828333,0
0.78567457,2.5108702,0.22786832,0.64332974,0.74371219,0.18171126,0
-1.0631537,-1.2564119,1.0893354,0.46558851,-0.56847084,0.67828333,0
-1.3186074,-0.047326684,0.19684818,-0.60774517,0.35175717,0.71197808,0
-0.24553692,-2.1994176,-0.17882323,0.46558851,-0.56847084,0.67828333,0
1.0976617,-0.8387922,0.15846244,0.46558851,-0.56847084,0.67828333,0
-1.9181621,-1.7903358,0.42538106,-0.64332974,-0.74371219,-0.18171126,0
1.363266,-0.45631212,0.045563579,0.60774517,-0.35175717,-0.71197808,0
-0.38830006,-1.9856566,-0.81037247,0.60774517,-0.35175717,-0.71197808,0
0.34681535,2.330626,0.24113584,-0.46558851,0.56847084,-0.67828333,0
-1.2683097,-0.87980831,0.71561056,-0.60774517,0.35175717,0.71197808,0
-2.0457895,-0.97178769,0.20875537,-0.60774517,0.35175717,0.71197808,0
0.15234292,1.7626736,0.035910845,-0.46558851,0.56847084,-0.67828333,0
1.5307964,2.1559463,-0.55375719,0.64332974,0.74371219,0.18171126,0
-1.7238855,-1.7630148,-0.77222145,-0.64332974,-0.74371219,-0.18171126,0
0.24201119,2.213448,0.17896605,-0.46558851,0.56847084,-0.67828333,0
1.8292544,0.72017372,-0.17991334,0.60774517,-0.35175717,-0.71197808,0
-0.57329023,-0.24972266,-1.291393,-0.46558851,0.56847084,-0.67828333,0
-1.2086602,-2.0711651,-0.78191018,-0.64332974,-0.74371219,-0.18171126,0
-2.2620213,-1.3717613,0.1988517,-0.64332974,-0.74371219,-0.18171126,0
0.7924459,2.0671589,-0.32952881,-0.46558851,0.56847084,-0.67828333,0
-0.62647063,0.032728165,-0.95324564,-0.46558851,0.56847084,-0.67828333,0
-0.46076089,1.1863966,-0.26730537,-0.46558851,0.56847084,-0.67828333,0
0.73257482,2.3125031,0.016373158,-0.46558851,0.56847084,-0.67828333,0
0.605654,2.0624137,-0.19414115,-0.46558851,0.56847084,-0.67828333,0
-0.43835914,1.4214911,0.32837689,-0.60774517,0.35175717,0.71197808,0
-0.71226001,-1.4215028,-1.1918019,0.60774517,-0.35175717,-0.71197808,0
2.4351234,1.1628931,0.50914586,0.64332974,0.74371219,0.18171126,0
2.4300814,0.60842526,0.4511174,0.46558851,-0.56847084,0.67828333,0
-1.5662147,-1.5751009,-1.6875304,-0.64332974,-0.74371219,-0.18171126,0
0.15890452,1.018893,0.98204142,-0.60774517,0.35175717,0.71197808,0
1.8141537,1.738537,0.39472723,0.64332974,0.74371219,0.18171126,0
0.95604634,-0.51946604,0.34884962,0.46558851,-0.56847084,0.67828333,0
-0.40123796,0.74595791,-0.44892308,-0.46558851,0.56847084,-0.67828333,0
-1.7277994,-1.910501,0.34727144,-0.64332974,-0.74371219,-0.18171126,0
-0.12396479,-1.4269994,0.41030848,0.46558851,-0.56847084,0.67828333,0
-0.72213554,0.6282115,-0.46468735,-0.46558851,0.56847084,-0.67828333,0
-2.107538,-1.6986183,0.55497098,-0.64332974,-0.74371219,-0.18171126,0
1.6409581,2.0219393,-0.65245628,0.64332974,0.74371219,0.18171126,0
2.03284,1.4287786,-0.46050608,0.60774517,-0.35175717,-0.71197808,0
1.0193516,-0.32335186,-0.34732264,0.60774517,-0.35175717,-0.71197808,0
0.76678336,0.16500053,1.125914,0.46558851,-0.56847084,0.67828333,0
-1.2455459,-2.2940321,0.085487366,-0.64332974,-0.74371219,-0.18171126,0
-1.2328343,-2.2132385,-0.25681329,-0.64332974,-0.74371219,-0.18171126,0
-0.77871317,-2.3071542,-1.0410533,0.60774517,-0.35175717,-0.71197808,0
1.1666803,-0.59670305,0.29333389,0.46558851,-0.56847084,0.67828333,0
-2.1550851,-1.2330453,-0.56125438,-0.64332974,-0.74371219,-0.18171126,0
0.51397568,1.4293785,1.1340804,-0.60774517,0.35175717,0.71197808,0
-1.6991326,-1.914506,0.38098896,-0.64332974,-0.74371219,-0.18171126,0
-0.15776026,-0.81404299,1.0107424,0.46558851,-0.56847084,0.67828333,0
-0.36853456,-2.2652712,-0.67371297,0.60774517,-0.35175717,-0.71197808,0
-1.0101397,-1.1619494,1.0338415,-0.60774517,0.35175717,0.71197808,0
0.85683447,0.050197124,-0.73323321,0.60774517,-0.35175717,-0.71197808,0
-1.1852981,-1.9414916,-1.2540288,-0.64332974,-0.74371219,-0.18171126,0
-1.8543067,-1.080709,-0.99297154,-0.46558851,0.56847084,-0.67828333,0
-0.33830136,-0.46408045,1.2573705,0.46558851,-0.56847084,0.67828333,0
-1.9168724,-1.5766159,-0.019283891,-0.64332974,-0.74371219,-0.18171126,0
-1.9596329,-1.6307781,-0.64865625,-0.64332974,-0.74371219,-0.18171126,0
-1.2519581,0.43386492,-0.3349852,-0.46558851,0.56847084,-0.67828333,0
1.4174585,2.1722536,0.24283671,0.64332974,0.74371219,0.18171126,0
-1.2408743,-2.0635347,-1.2490603,-0.64332974,-0.74371219,-0.18171126,0
-1.7243514,-1.5267199,-1.2934575,-0.64332974,-0.74371219,-0.18171126,0
1.9341618,1.7762003,-0.39432311,0.64332974,0.74371219,0.18171126,0
1.1194813,-0.41287464,0.29876211,0.46558851,-0.56847084,0.67828333,0
-0.23720789,1.8600607,0.38829136,-0.60774517,0.35175717,0.71197808,0
0.63419735,-1.1373297,-0.43043441,0.60774517,-0.35175717,-0.71197808,0
-0.41708726,-1.1601856,-1.2755442,0.60774517,-0.35175717,-0.71197808,0
-1.8250458,-0.58449411,0.23285776,-0.60774517,0.35175717,0.71197808,0
1.0108662,2.4599276,-0.028512001,0.64332974,0.74371219,0.18171126,0
1.5952536,1.7923141,0.79484463,0.64332974,0.74371219,0.18171126,0
-0.56784856,-0.92567658,1.1348138,0.46558851,-0.56847084,0.67828333,0
-1.5308514,-1.8730202,-0.76147151,-0.64332974,-0.74371219,-0.18171126,0
0.36914131,0.7700699,1.2577199,-0.60774517,0.35175717,0.71197808,0
0.38481331,2.27929,0.68281603,-0.60774517,0.35175717,0.71197808,0
2.2099915,0.86441803,0.79332447,0.46558851,-0.56847084,0.67828333,0
-0.97925675,0.51942182,-0.29745713,-0.46558851,0.56847084,-0.67828333,0
-0.67387092,-0.034975886,0.81756371,-0.60774517,0.35175717,0.71197808,0
1.1834332,2.1755323,1.0779693,0.64332974,0.74371219,0.18171126,0
-2.0831761,-0.83622968,-0.73921657,-0.46558851,0.56847084,-0.67828333,0
1.486105,1.7846384,1.6859722,0.64332974,0.74371219,0.18171126,0
-1.9929845,-0.60110402,-0.11062407,-0.60774517,0.35175717,0.71197808,0
1.2041724,-0.54866475,0.076778144,0.46558851,-0.56847084,0.67828333,0
0.067985803,0.89236039,1.0565075,-0.60774517,0.35175717,0.71197808,0
-1.0561248,-2.3578684,0.12561965,-0.64332974,-0.74371219,-0.18171126,0
0.35373259,1.9643812,0.0035147667,-0.46558851,0.56847084,-0.67828333,0
-1.4890673,-1.7349074,-1.2185892,-0.64332974,-0.74371219,-0.18171126,0
0.79522908,-0.069058537,-0.71831822,0.60774517,-0.35175717,-0.71197808,0
-0.91759145,-2.6040516,-0.23927569,-0.64332974,-0.74371219,-0.18171126,0
-1.8852861,-1.8046058,0.43166327,-0.64332974,-0.74371219,-0.18171126,0
2.4794664,0.75119972,0.29094684,0.60774517,-0.35175717,-0.71197808,0
-1.6339036,-0.40153977,-0.77130306,-0.46558851,0.56847084,-0.67828333,0
-1.2919286,0.66946328,-0.0022619665,-0.60774517,0.35175717,0.71197808,0
-1.4815488,-1.5577261,-1.8005315,-0.46558851,0.56847084,-0.67828333,0
-1.0125397,-0.80256593,-1.4099364,-0.46558851,0.56847084,-0.67828333,0
-1.3786826,-2.112381,0.30950737,-0.64332974,-0.74371219,-0.18171126,0
-1.1985183,0.2895276,-0.45397547,-0.46558851,0.56847084,-0.67828333,0
-0.23432714,1.038587,-0.36098123,-0.46558851,0.56847084,-0.67828333,0
2.1048987,1.4701037,-0.41033483,0.60774517,-0.35175717,-0.71197808,0
-2.2512617,-1.2664218,-0.13583326,-0.64332974,-0.74371219,-0.18171126,0
-1.5060936,-1.688205,-1.3773413,-0.64332974,-0.74371219,-0.18171126,0
-1.082916,-2.2241213,-0.98965549,-0.64332974,-0.74371219,-0.18171126,0
0.81337035,0.28503308,1.2189938,0.46558851,-0.56847084,0.67828333,0
0.9973281,1.4292191,1.5058919,-0.60774517,0.35175717,0.71197808,0
-0.56649649,-2.6667328,-0.41352248,-0.64332974,-0.74371219,-0.18171126,0
-2.0536785,-0.88664138,-0.7321589,-0.46558851,0.56847084,-0.67828333,0
2.3361528,1.4083977,-0.023946524,0.60774517,-0.35175717,-0.71197808,0
-0.97739553,-1.6752722,-1.284925,0.60774517,-0.35175717,-0.71197808,0
2.1722074,0.84092891,0.044727206,0.60774517,-0.35175717,-0.71197808,0
1.5397335,2.0604591,0.33427644,0.64332974,0.74371219,0.18171126,0
-0.54375923,-1.1159991,-1.1954348,0.60774517,-0.35175717,-0.71197808,0
1.4344399,1.9921112,0.59313726,0.64332974,0.74371219,0.18171126,0
1.7870882,1.3648801,-0.58408165,0.60774517,-0.35175717,-0.71197808,0
1.1041017,0.50427389,-0.59118366,0.60774517,-0.35175717,-0.71197808,0
1.7257103,1.9377415,0.23943615,0.64332974,0.74371219,0.18171126,0
-0.98668456,-0.91215873,1.1178392,-0.60774517,0.35175717,0.71197808,0
1.8760098,0.25940561,0.5232265,0.46558851,-0.56847084,0.67828333,0
-1.5627973,-1.6657994,-1.4875408,-0.64332974,-0.74371219,-0.18171126,0
1.6785836,0.91427684,-0.34763801,0.60774517,-0.35175717,-0.71197808,0
-1.3485639,-0.40472698,0.54209757,-0.60774517,0.35175717,0.71197808,0
2.286231,1.1887951,0.2524389,0.64332974,0.74371219,0.18171126,0
1.1419584,0.92087895,1.3646686,0.46558851,-0.56847084,0.67828333,0
0.6031431,-0.72677302,0.4490549,0.46558851,-0.56847084,0.67828333,0
1.7632599,1.8009801,-0.31434155,0.64332974,0.74371219,0.18171126,0
-0.46932399,0.55145508,0.80849922,-0.60774517,0.35175717,0.71197808,0
0.3251797,0.33415079,-1.3210446,-0.46558851,0.56847084,-0.67828333,0
-0.79610103,0.41787183,0.51239932,-0.60774517,0.35175717,0.71197808,0
-0.82342356,-1.4674568,0.82101619,0.46558851,-0.56847084,0.67828333,0
1.6779522,1.7940083,0.72800779,0.64332974,0.74371219,0.18171126,0
1.7192531,1.4941905,1.4670819,0.64332974,0.74371219,0.18171126,0
1.8417116,1.4569041,1.1249967,0.64332974,0.74371219,0.18171126,0
1.2597184,0.40587533,-0.44966182,0.60774517,-0.35175717,-0.71197808,0
-1.0134691,0.46145377,-0.50036347,-0.46558851,0.56847084,-0.67828333,0
1.321079,0.13308746,0.75698382,0.46558851,-0.56847084,0.67828333,0
-1.2004876,-1.5212159,-1.6451552,0.60774517,-0.35175717,-0.71197808,0
1.9771163,1.7218537,-0.15877867,0.64332974,0.74371219,0.18171126,0
-1.7612494,-2.0009651,0.53323567,-0.64332974,-0.74371219,-0.18171126,0
-0.64489704,1.4414371,0.10056686,-0.46558851,0.56847084,-0.67828333,0
-2.2285769,-1.5007837,0.13484371,-0.64332974,-0.74371219,-0.18171126,0
0.69354975,-0.74614543,-0.42702749,0.60774517,-0.35175717,-0.71197808,0
-1.3237509,-0.35617906,-0.95654058,-0.46558851,0.56847084,-0.67828333,0
-0.34485364,-2.4082971,-0.497262,0.60774517,-0.35175717,-0.71197808,0
-2.0662863,-1.4943714,-0.3823477,-0.64332974,-0.74371219,-0.18171126,0
1.4322894,1.8739253,-0.89190185,-0.46558851,0.56847084,-0.67828333,0
0.54104805,2.4981565,0.19072747,-0.46558851,0.56847084,-0.67828333,0
2.3205292,1.0958368,-0.077526689,0.60774517,-0.35175717,-0.71197808,0
0.9768796,1.7140298,-0.63785565,-0.46558851,0.56847084,-0.67828333,0
-2.0844548,-1.3711984,-1.210431,-0.64332974,-0.74371219,-0.18171126,0
2.0120735,1.2625489,1.1880076,0.46558851,-0.56847084,0.67828333,0
-1.4106106,-1.0536782,-1.3073915,-0.46558851,0.56847084,-0.67828333,0
0.97379154,2.3466601,0.32790613,0.64332974,0.74371219,0.18171126,0
0.4985894,2.0089643,-0.00023245811,-0.46558851,0.56847084,-0.67828333,0
-1.1175269,-2.4207852,0.17380714,-0.64332974,-0.74371219,-0.18171126,0
1.3883363,1.7580762,1.7239316,-0.60774517,0.35175717,0.71197808,0
0.97750598,0.46411574,-0.68472826,0.60774517,-0.35175717,-0.71197808,0
-1.27754,-1.915846,-1.3474497,-0.64332974,-0.74371219,-0.18171126,0
0.34213746,1.499755,0.98217869,-0.60774517,0.35175717,0.71197808,0
0.39528006,1.0217974,1.2264373,-0.60774517,0.35175717,0.71197808,0
1.314626,0.45196876,0.93497384,0.46558851,-0.56847084,0.67828333,0
1.4751933,2.1244466,0.033361197,0.64332974,0.74371219,0.18171126,0
-0.77170753,-2.590152,-0.63706303,-0.64332974,-0.74371219,-0.18171126,0
1.2766578,0.38503245,0.77603728,0.46558851,-0.56847084,0.67828333,0
1.9136319,0.67333651,-0.13325822,0.60774517,-0.35175717,-0.71197808,0
1.3709548,1.5547249,-1.0056086,0.60774517,-0.35175717,-0.71197808,0
-1.1000978,-2.2512274,-0.21651053,-0.64332974,-0.74371219,-0.18171126,0
1.3542564,0.31966245,-0.34089738,0.60774517,-0.35175717,-0.71197808,0
0.74671102,1.9488788,-0.27995753,-0.46558851,0.56847084,-0.67828333,0
2.031826,1.7418499,-0.4958421,0.64332974,0.74371219,0.18171126,0
0.67661977,0.42186761,-1.0220448,0.60774517,-0.35175717,-0.71197808,0
1.6720917,2.1294675,-0.70973444,-0.46558851,0.56847084,-0.67828333,0
-0.55203211,-0.12117589,1.0142915,-0.60774517,0.35175717,0.71197808,0
-1.5624394,-0.49778736,-0.74339092,-0.46558851,0.56847084,-0.67828333,0
0.62425733,2.5335653,0.58939934,-0.60774517,0.35175717,0.71197808,0
-1.5417724,-1.5327772,-1.8028002,-0.46558851,0.56847084,-0.67828333,0
-1.0377853,0.32136306,-0.55626529,-0.46558851,0.56847084,-0.67828333,0
-2.3694038,-1.1721256,-0.49326134,-0.64332974,-0.74371219,-0.18171126,0
1.0367731,2.3166299,-0.25352645,-0.46558851,0.56847084,-0.67828333,0
-2.269196,-1.4216877,-0.38405812,-0.64332974,-0.74371219,-0.18171126,0
-0.52997983,-2.4523108,-0.76539588,0.60774517,-0.35175717,-0.71197808,0
0.14851816,-0.3202374,-1.1205276,0.60774517,-0.35175717,-0.71197808,0
0.45991912,1.3876963,1.1933465,-0.60774517,0.35175717,0.71197808,0
2.2383211,1.4261845,-0.27115464,0.64332974,0.74371219,0.18171126,0
-0.830827,1.0853937,-0.073605716,-0.46558851,0.56847084,-0.67828333,0
-1.9566901,-1.4261372,-1.0057474,-0.64332974,-0.74371219,-0.18171126,0
1.1289206,0.4901365,-0.58537018,0.60774517,-0.35175717,-0.71197808,0
1.8056109,1.7645376,-0.34407175,0.64332974,0.74371219,0.18171126,0
-0.4453612,0.48159736,0.82217747,-0.60774517,0.35175717,0.71197808,0
-0.18801677,1.0930418,-0.3992762,-0.46558851,0.56847084,-0.67828333,0
2.6301641,1.1057141,0.46048689,0.64332974,0.74371219,0.18171126,0
0.37496287,-0.96941268,-0.61641234,0.60774517,-0.35175717,-0.71197808,0
0.12330341,2.183219,0.18486834,-0.46558851,0.56847084,-0.67828333,0
1.7085308,1.3517728,1.5257705,0.46558851,-0.56847084,0.67828333,0
1.6148475,2.0089455,-0.34745359,0.64332974,0.74371219,0.18171126,0
-0.78173512,-1.2050401,1.0676655,0.46558851,-0.56847084,0.67828333,0
-1.3541825,-0.4625411,-1.05128,-0.46558851,0.56847084,-0.67828333,0
1.2082179,1.429873,-1.0076813,0.60774517,-0.35175717,-0.71197808,0
-0.31719613,0.60906225,0.88371772,-0.60774517,0.35175717,0.71197808,0
0.46059847,1.395514,1.0943319,-0.60774517,0.35175717,0.71197808,0
0.82762253,0.31657231,1.2107424,0.46558851,-0.56847084,0.67828333,0
1.6922781,1.7731423,1.0322309,0.64332974,0.74371219,0.18171126,0
-2.1561894,-1.6121844,0.20328748,-0.64332974,-0.74371219,-0.18171126,0
-0.88813138,-2.6339369,-0.29327536,-0.64332974,-0.74371219,-0.18171126,0
0.85481203,0.86338389,-1.0058459,0.60774517,-0.35175717,-0.71197808,0
0.7148813,-0.28783667,0.74883336,0.46558851,-0.56847084,0.67828333,0
-1.1298778,0.11979929,-0.57031435,-0.46558851,0.56847084,-0.67828333,0
1.5603861,0.03587091,-0.1578867,0.60774517,-0.35175717,-0.71197808,0
0.36093175,0.41477466,-1.3457465,-0.46558851,0.56847084,-0.67828333,0
0.36292592,-0.22475332,1.0046836,0.46558851,-0.56847084,0.67828333,0
1.2125213,2.1402564,0.59937024,0.64332974,0.74371219,0.18171126,0
-0.14832091,1.4987026,0.44845128,-0.60774517,0.35175717,0.71197808,0
1.2116032,2.2780099,0.62723684,0.64332974,0.74371219,0.18171126,0
2.403348,1.2810649,0.25796163,0.64332974,0.74371219,0.18171126,0
-1.6254107,-2.0376968,0.81424129,0.46558851,-0.56847084,0.67828333,0
1.8325757,2.0014515,-0.78543043,0.60774517,-0.35175717,-0.71197808,0
-2.3217854,-1.1424538,-0.36250901,-0.64332974,-0.74371219,-0.18171126,0
-1.4734702,-2.1766365,0.15546179,-0.64332974,-0.74371219,-0.18171126,0
-1.6454201,-1.3362517,0.52919328,-0.60774517,0.35175717,0.71197808,0
-1.322319,-2.2431161,-0.38773727,-0.64332974,-0.74371219,-0.18171126,0
-1.6775711,-2.0517375,0.59883428,-0.64332974,-0.74371219,-0.18171126,0
1.9444299,1.4384265,0.51412237,0.64332974,0.74371219,0.18171126,0
1.1329772,1.6818814,-0.85394263,-0.46558851,0.56847084,-0.67828333,0
0.29313821,-1.1333364,0.43442911,0.46558851,-0.56847084,0.67828333,0
-1.3596462,-1.5559137,-1.7070047,-0.46558851,0.56847084,-0.67828333,0
2.0224869,0.96163827,0.80205655,0.46558851,-0.56847084,0.67828333,0
-0.83361089,-2.3732023,-0.62332201,-0.64332974,-0.74371219,-0.18171126,0
-0.20824671,1.8089356,0.32595682,-0.60774517,0.35175717,0.71197808,0
-0.91806501,-1.6574382,0.70664859,0.46558851,-0.56847084,0.67828333,0
-0.21169758,0.65809727,-0.66588038,-0.46558851,0.56847084,-0.67828333,0
-1.259268,-2.1176879,-0.67985463,-0.64332974,-0.74371219,-0.18171126,0
-0.26049536,-1.3871813,-1.0432966,0.60774517,-0.35175717,-0.71197808,0
-2.0146651,-1.4670827,-0.32482195,-0.64332974,-0.74371219,-0.18171126,0
-2.0017977,-1.8227345,0.49621773,-0.64332974,-0.74371219,-0.18171126,0
1.130307,1.1922429,-1.150538,0.60774517,-0.35175717,-0.71197808,0
2.3366485,1.2893852,0.31212366,0.64332974,0.74371219,0.18171126,0
1.2119453,2.1047883,1.3030887,0.64332974,0.74371219,0.18171126,0
0.93830478,2.6168818,0.19825697,0.64332974,0.74371219,0.18171126,0
0.15773356,1.3720641,-0.57538325,-0.46558851,0.56847084,-0.67828333,0
2.0677373,1.7995818,-0.48370361,0.64332974,0.74371219,0.18171126,0
0.79052472,1.1187798,-1.1618698,0.60774517,-0.35175717,-0.71197808,0
-0.91500396,-2.3679638,-0.96934962,-0.64332974,-0.74371219,-0.18171126,0
0.053053737,-0.50705367,0.86753762,0.46558851,-0.56847084,0.67828333,0
-1.7508901,-1.8353792,-0.49046063,-0.64332974,-0.74371219,-0.18171126,0
1.7111448,1.5874447,0.75123453,0.64332974,0.74371219,0.18171126,0
-1.4509606,-1.7944531,0.86061978,0.46558851,-0.56847084,0.67828333,0
1.0679601,0.97981763,-1.1004511,0.60774517,-0.35175717,-0.71197808,0
-0.44192463,0.17531794,-1.0676994,-0.46558851,0.56847084,-0.67828333,0
0.23165619,-1.1065588,-0.59299386,0.60774517,-0.35175717,-0.71197808,0
0.70639455,-0.84464288,0.23447782,0.46558851,-0.56847084,0.67828333,0
0.18943703,-1.4288414,0.15305209,0.46558851,-0.56847084,0.67828333,0
0.0079602599,1.207285,0.69225013,-0.60774517,0.35175717,0.71197808,0
-0.87240881,-0.75685573,1.1191131,-0.60774517,0.35175717,0.71197808,0
-1.3729429,-1.892256,-0.67363083,-0.64332974,-0.74371219,-0.18171126,0
-0.18596935,1.4911568,0.49652994,-0.60774517,0.35175717,0.71197808,0
0.91562772,1.2738215,-1.1804383,-0.46558851,0.56847084,-0.67828333,0
0.78075755,2.64274,0.67869377,0.64332974,0.74371219,0.18171126,0
0.10950482,2.0305791,0.090046883,-0.46558851,0.56847084,-0.67828333,0
-0.94349611,0.97445184,0.1371184,-0.46558851,0.56847084,-0.67828333,0
-2.2759538,-0.98337799,-0.68656957,-0.46558851,0.56847084,-0.67828333,0
0.58180869,-0.067523837,-0.84085435,0.60774517,-0.35175717,-0.71197808,0
0.17770052,-1.8164623,-0.30183351,0.60774517,-0.35175717,-0.71197808,0
-2.2735622,-1.1141424,-0.74066019,-0.46558851,0.56847084,-0.67828333,0
-1.1978831,-1.2161509,0.87728167,-0.60774517,0.35175717,0.71197808,0
1.2100972,-0.29819691,0.31555098,0.46558851,-0.56847084,0.67828333,0
0.84996778,0.61579621,-1.0273815,0.60774517,-0.35175717,-0.71197808,0
1.3359253,1.8314399,1.3840938,0.64332974,0.74371219,0.18171126,0
1.4027722,-0.41529995,-0.080017805,0.60774517,-0.35175717,-0.71197808,0
1.2303917,2.0698752,1.4077023,0.64332974,0.74371219,0.18171126,0
-0.093419671,1.4976046,0.60007823,-0.60774517,0.35175717,0.71197808,0
0.093180299,-0.53459477,-1.0953903,0.60774517,-0.35175717,-0.71197808,0
0.9094069,0.98414183,1.5440032,0.46558851,-0.56847084,0.67828333,0
-1.857362,-1.5200118,-1.1156293,-0.64332974,-0.74371219,-0.18171126,0
1.8029122,1.3248063,1.2846605,0.46558851,-0.56847084,0.67828333,0
-1.795562,-1.799459,0.14192247,-0.64332974,-0.74371219,-0.18171126,0
2.2282195,0.75935048,0.61002481,0.46558851,-0.56847084,0.67828333,0
1.9318979,1.474288,0.61545765,0.64332974,0.74371219,0.18171126,0
-2.0227518,-1.5528816,-0.67525232,-0.64332974,-0.74371219,-0.18171126,0
-0.62574494,0.36481488,0.6093803,-0.60774517,0.35175717,0.71197808,0
1.0683016,2.5665083,-0.087009192,0.64332974,0.74371219,0.18171126,0
-1.6149077,-1.689187,-1.1881168,-0.64332974,-0.74371219,-0.18171126,0
1.2226517,2.2647634,0.69288158,0.64332974,0.74371219,0.18171126,0
-0.72336102,-0.98495853,-1.6117961,0.60774517,-0.35175717,-0.71197808,0
1.3049612,1.7303948,1.5406091,-0.60774517,0.35175717,0.71197808,0
-0.18979502,1.9519083,0.32758057,-0.60774517,0.35175717,0.71197808,0
1.5412759,1.0835118,1.4707396,0.46558851,-0.56847084,0.67828333,0
1.2903804,2.0885906,1.1865255,0.64332974,0.74371219,0.18171126,0
-0.49263382,-2.5185883,-0.20578027,0.46558851,-0.56847084,0.67828333,0
1.0066113,0.51089633,-0.82757926,0.60774517,-0.35175717,-0.71197808,0
1.9284428,1.6741451,0.5802896,0.64332974,0.74371219,0.18171126,0
1.0951931,2.2447753,0.59775782,0.64332974,0.74371219,0.18171126,0
-1.7503443,-1.3806024,-1.5207714,-0.46558851,0.56847084,-0.67828333,0
-0.27566519,-0.38038015,1.2648637,0.46558851,-0.56847084,0.67828333,0
1.116731,2.4715879,0.19164777,0.64332974,0.74371219,0.18171126,0
0.82384467,0.15150797,-0.67953449,0.60774517,-0.35175717,-0.71197808,0
2.1449261,1.1789966,-0.048074961,0.60774517,-0.35175717,-0.71197808,0
0.77626967,2.492084,0.73799586,0.64332974,0.74371219,0.18171126,0
-1.5765405,-1.9990991,-0.2684834,-0.64332974,-0.74371219,-0.18171126,0
0.46623403,-1.2389798,-0.41706288,0.60774517,-0.35175717,-0.71197808,0
-1.2999405,-1.3411193,-1.6810228,-0.46558851,0.56847084,-0.67828333,0
2.1081276,0.74750817,0.55792487,0.46558851,-0.56847084,0.67828333,0
-1.9537429,-1.6168855,-0.048904538,-0.64332974,-0.74371219,-0.18171126,0
-2.1565514,-1.4804907,-0.53046799,-0.64332974,-0.74371219,-0.18171126,0
-0.92450553,-2.3326864,-0.91263509,-0.64332974,-0.74371219,-0.18171126,0
-1.6396059,-1.9687494,-0.13291264,-0.64332974,-0.74371219,-0.18171126,0
-0.80651617,-1.8939506,-1.1804924,0.60774517,-0.35175717,-0.71197808,0
-1.165675,0.78703666,-0.098800331,-0.46558851,0.56847084,-0.67828333,0
-1.262884,-1.978245,-0.98001361,-0.64332974,-0.74371219,-0.18171126,0
-1.1977174,-0.11289096,-0.85187286,-0.46558851,0.56847084,-0.67828333,0
-0.89761102,0.86072809,0.1039623,-0.60774517,0.35175717,0.71197808,0
-1.1955307,-1.1562649,-1.6435082,-0.46558851,0.56847084,-0.67828333,0
0.45323378,0.76882052,1.272223,-0.60774517,0.35175717,0.71197808,0
1.7649064,0.13775945,-0.10496396,0.60774517,-0.35175717,-0.71197808,0
-2.3387384,-0.84309822,-0.68024445,-0.46558851,0.56847084,-0.67828333,0
0.17732492,0.21279788,1.5472767,0.46558851,-0.56847084,0.67828333,0
0.23800156,-0.779378,-0.93006766,0.60774517,-0.35175717,-0.71197808,0
0.85096556,2.4680994,1.0028393,-0.60774517,0.35175717,0.71197808,0
0.71003234,1.6104133,1.1476135,-0.60774517,0.35175717,0.71197808,0
-0.85278738,-2.3437691,0.071874142,0.46558851,-0.56847084,0.67828333,0
0.4653939,-1.1629081,0.18594164,0.46558851,-0.56847084,0.67828333,0
2.1939559,1.1298784,0.88905609,0.46558851,-0.56847084,0.67828333,0
-1.1172187,-1.4691352,1.0441576,0.46558851,-0.56847084,0.67828333,0
2.4775021,1.189795,0.29801428,0.64332974,0.74371219,0.18171126,0
-1.9062732,0.0016648769,-0.20135215,-0.60774517,0.35175717,0.71197808,0
0.19523853,1.660786,0.65254664,-0.60774517,0.35175717,0.71197808,0
1.7764127,0.19370848,0.44917616,0.46558851,-0.56847084,0.67828333,0
-0.90933943,-2.5036521,-0.24190927,-0.64332974,-0.74371219,-0.18171126,0
-0.36095369,-0.84673202,1.1430959,0.46558851,-0.56847084,0.67828333,0
-0.56224465,-2.6349421,-0.51824832,0.60774517,-0.35175717,-0.71197808,0
1.0290916,1.2123427,-1.0331318,0.60774517,-0.35175717,-0.71197808,0
-0.088565528,0.33350343,-1.0977749,-0.46558851,0.56847084,-0.67828333,0
-1.0989861,-2.4407699,-0.22306037,-0.64332974,-0.74371219,-0.18171126,0
0.083815813,-1.0437551,-0.82464743,0.60774517,-0.35175717,-0.71197808,0
1.480026,2.0828381,-0.47652602,0.64332974,0.74371219,0.18171126,0
-1.3146598,-1.2236687,-1.6610711,-0.46558851,0.56847084,-0.67828333,0
-0.99024892,-2.0426912,0.41009998,0.46558851,-0.56847084,0.67828333,0
-0.7540043,0.30078778,-0.60836208,-0.46558851,0.56847084,-0.67828333,0
