2.1746173,4.8640728,-0.33477592,0.68420523,0.69859362,-0.20935637,0
-1.1487279,3.7880306,0.90059185,-0.46339017,0.19477534,-0.86448371,0
5.229414,0.59772182,-3.2119703,0.5631454,-0.68849796,-0.45698771,0
3.8956599,0.91220999,-2.4105856,-0.46339017,0.19477534,-0.86448371,0
-4.0458422,0.59329909,1.8361626,-0.46339017,0.19477534,-0.86448371,0
-5.2359333,-0.36943001,3.0476856,-0.5631454,0.68849796,0.45698771,0
-5.5746961,-0.61788744,2.9830434,-0.5631454,0.68849796,0.45698771,0
-3.8930802,-2.7391522,1.6168056,-0.68420523,-0.69859362,0.20935637,0
-0.52276492,-5.7360024,-0.83583069,0.5631454,-0.68849796,-0.45698771,0
0.93125653,-4.2053599,-1.0672843,0.5631454,-0.68849796,-0.45698771,0
3.6261046,3.1846762,-1.1716616,0.68420523,0.69859362,-0.20935637,0
3.0853095,-1.8592349,-2.1930683,0.5631454,-0.68849796,-0.45698771,0
-4.3679762,-2.3406525,1.3824911,-0.68420523,-0.69859362,0.20935637,0
-0.96311152,-3.4432094,0.29371619,0.46339017,-0.19477534,0.86448371,0
0.026159763,-1.8172516,0.20041871,0.46339017,-0.19477534,0.86448371,0
3.0460842,3.7434464,-0.30919218,0.46339017,-0.19477534,0.86448371,0
4.2895379,2.2160969,-1.2709954,0.46339017,-0.19477534,0.86448371,0
-3.7668698,-3.1212847,1.6194289,-0.68420523,-0.69859362,0.20935637,0
0.55085468,-3.2993691,-0.45311022,0.46339017,-0.19477534,0.86448371,0
5.1402946,1.5262382,-2.0493309,0.68420523,0.69859362,-0.20935637,0
-3.0521309,-3.9227939,1.2296896,-0.68420523,-0.69859362,0.20935637,0
4.6012335,1.9399419,-1.9846952,0.68420523,0.69859362,-0.20935637,0
3.3849442,-1.4121482,-2.3563166,0.5631454,-0.68849796,-0.45698771,0
-0.86962104,4.3446736,0.93766618,-0.5631454,0.68849796,0.45698771,0
-1.3874818,-0.68920517,-0.057994902,-0.46339017,0.19477534,-0.86448371,0
5.1757512,0.36194611,-2.7325644,0.5631454,-0.68849796,-0.45698771,0
-2.9596682,1.9733052,2.0799356,-0.5631454,0.68849796,0.45698771,0
-5.3672714,-0.72553372,3.0807419,-0.5631454,0.68849796,0.45698771,0
-1.6065929,-1.1794159,1.1448312,0.46339017,-0.19477534,0.86448371,0
3.01929,3.8991926,-0.78554201,0.68420523,0.69859362,-0.20935637,0
2.0816729,2.7659621,0.079837084,0.46339017,-0.19477534,0.86448371,0
2.9832847,-2.0583797,-2.183121,0.5631454,-0.68849796,-0.45698771,0
-1.2481399,-2.2245817,-0.41770935,-0.46339017,0.19477534,-0.86448371,0
3.5694146,-1.4077044,-2.0209649,0.5631454,-0.68849796,-0.45698771,0
3.6829505,3.0934577,-1.733892,0.68420523,0.69859362,-0.20935637,0
-3.0819321,1.2471343,2.5248358,0.46339017,-0.19477534,0.86448371,0
0.80725932,-3.2797072,-1.6568604,-0.46339017,0.19477534,-0.86448371,0
-3.2183568,-3.913578,0.61563158,-0.68420523,-0.69859362,0.20935637,0
-0.51750863,-0.47232985,-0.39769259,-0.46339017,0.19477534,-0.86448371,0
0.86447495,0.091490984,-1.0850661,-0.46339017,0.19477534,-0.86448371,0
-3.0253611,-3.8427203,1.2245231,-0.68420523,-0.69859362,0.20935637,0
-4.0861692,-2.681915,1.4698169,-0.68420523,-0.69859362,0.20935637,0
-5.3447032,-0.44647145,3.0188222,-0.5631454,0.68849796,0.45698771,0
0.50057292,-4.2583394,-1.7066095,0.5631454,-0.68849796,-0.45698771,0
-2.2183466,-4.6661749,0.69851685,-0.68420523,-0.69859362,0.20935637,0
1.0527179,-4.0226183,-1.4582167,0.5631454,-0.68849796,-0.45698771,0
0.35892892,5.7335477,0.47806168,-0.5631454,0.68849796,0.45698771,0
-0.65952206,-3.8606305,0.14973187,0.46339017,-0.19477534,0.86448371,0
0.35996747,-4.9688325,-1.0282941,0.5631454,-0.68849796,-0.45698771,0
0.69647074,5.8645768,0.93426752,-0.5631454,0.68849796,0.45698771,0
2.7045336,-2.6539004,-1.6102889,0.5631454,-0.68849796,-0.45698771,0
2.7816517,0.93913162,-1.881655,-0.46339017,0.19477534,-0.86448371,0
3.0135987,3.6919203,-1.3019571,0.68420523,0.69859362,-0.20935637,0
-3.7605696,1.0931791,2.5756955,-0.5631454,0.68849796,0.45698771,0
1.501263,-2.584878,-2.0628049,-0.46339017,0.19477534,-0.86448371,0
-4.1136303,-2.5072217,1.7370837,-0.68420523,-0.69859362,0.20935637,0
-0.0053458214,-5.3607244,-0.68576145,0.5631454,-0.68849796,-0.45698771,0
-0.90679556,-2.0923989,0.54864979,0.46339017,-0.19477534,0.86448371,0
-0.77889323,-5.95961,-0.72519636,0.5631454,-0.68849796,-0.45698771,0
-2.716038,-4.3873882,0.53069162,-0.68420523,-0.69859362,0.20935637,0
1.3149309,6.1599379,1.1441765,-0.5631454,0.68849796,0.45698771,0
1.4574708,2.6855407,-0.65790749,-0.46339017,0.19477534,-0.86448371,0
-1.7142303,3.2060754,1.8608919,-0.5631454,0.68849796,0.45698771,0
2.1493487,-2.7495079,-1.9863989,0.5631454,-0.68849796,-0.45698771,0
1.9801592,5.1167164,-0.35083199,0.68420523,0.69859362,-0.20935637,0
2.5376129,-2.3639979,-1.3509625,0.46339017,-0.19477534,0.86448371,0
-1.5374386,-5.7560339,0.03893137,-0.68420523,-0.69859362,0.20935637,0
1.0672092,-2.8226345,-1.8294966,-0.46339017,0.19477534,-0.86448371,0
-1.551017,-5.7113185,-0.61209583,-0.68420523,-0.69859362,0.20935637,0
-2.7292533,-4.4151535,0.26288605,-0.68420523,-0.69859362,0.20935637,0
-2.0953827,2.7173412,2.2432282,-0.5631454,0.68849796,0.45698771,0
-4.8115959,-1.8895273,2.3115265,-0.68420523,-0.69859362,0.20935637,0
-0.65821862,-5.2401104,-0.32895708,0.46339017,-0.19477534,0.86448371,0
0.9673233,4.4740195,1.0865309,0.46339017,-0.19477534,0.86448371,0
-0.88739157,4.1646442,1.5600772,-0.5631454,0.68849796,0.45698771,0
3.1149976,4.0582519,-0.48304749,0.68420523,0.69859362,-0.20935637,0
-4.6772614,-1.9775963,1.982244,-0.68420523,-0.69859362,0.20935637,0
0.35982203,0.67065376,-0.57767028,-0.46339017,0.19477534,-0.86448371,0
-1.1122773,-6.164886,-0.54457283,-0.68420523,-0.69859362,0.20935637,0
-2.5335755,-2.0469728,1.4763803,0.46339017,-0.19477534,0.86448371,0
0.95186567,6.3363361,0.44557238,-0.5631454,0.68849796,0.45698771,0
-4.0398445,0.96388042,2.1642363,-0.5631454,0.68849796,0.45698771,0
2.7783041,1.9000093,-0.57026172,0.46339017,-0.19477534,0.86448371,0
-0.55666614,-4.2940803,-1.1692569,-0.46339017,0.19477534,-0.86448371,0
3.0091956,4.1507354,-0.33550549,0.68420523,0.69859362,-0.20935637,0
-1.9127197,-5.4420013,-0.27798796,-0.68420523,-0.69859362,0.20935637,0
-2.3730087,-4.7080398,0.7952919,-0.68420523,-0.69859362,0.20935637,0
2.4459558,-2.1054602,-1.1672635,0.46339017,-0.19477534,0.86448371,0
-2.3854263,2.9818783,1.2619284,-0.46339017,0.19477534,-0.86448371,0
0.72453713,-4.252408,-1.5758605,0.5631454,-0.68849796,-0.45698771,0
-4.2923961,0.80170912,2.198586,-0.5631454,0.68849796,0.45698771,0
-3.5984256,1.6801552,1.8384914,-0.5631454,0.68849796,0.45698771,0
0.28786206,5.0426083,1.4087524,-0.5631454,0.68849796,0.45698771,0
2.8229148,4.2614002,-0.1022501,0.68420523,0.69859362,-0.20935637,0
-2.4643788,-4.8198476,-0.1496191,-0.68420523,-0.69859362,0.20935637,0
-1.0481881,-2.9709191,0.42168689,0.46339017,-0.19477534,0.86448371,0
-2.4655027,-4.4160271,0.62896252,-0.68420523,-0.69859362,0.20935637,0
2.8320694,4.3078566,-0.2361145,0.68420523,0.69859362,-0.20935637,0
-4.7704959,0.37979132,2.4301493,-0.5631454,0.68849796,0.45698771,0
2.306427,4.6604095,-0.38876915,0.68420523,0.69859362,-0.20935637,0
-2.6864281,2.0527105,2.2993977,-0.5631454,0.68849796,0.45698771,0
-1.756073,-5.5777311,-0.36394024,-0.68420523,-0.69859362,0.20935637,0
-0.87942147,-5.7395983,-0.98151207,0.5631454,-0.68849796,-0.45698771,0
2.8953376,4.0836501,-0.71823406,0.68420523,0.69859362,-0.20935637,0
-0.23653889,-5.4427104,-0.82376814,0.5631454,-0.68849796,-0.45698771,0
-2.2242718,-4.7595515,0.48148584,-0.68420523,-0.69859362,0.20935637,0
3.4585066,1.8474412,-0.79321599,0.46339017,-0.19477534,0.86448371,0
1.6082733,-3.8901091,-1.1000016,0.5631454,-0.68849796,-0.45698771,0
3.4318674,2.918654,-0.50818801,0.46339017,-0.19477534,0.86448371,0
3.8155272,-1.534274,-1.8752854,0.5631454,-0.68849796,-0.45698771,0
-1.8404188,-5.1743841,0.35295296,-0.68420523,-0.69859362,0.20935637,0
-2.0078902,-3.0920272,1.062248,0.46339017,-0.19477534,0.86448371,0
1.7320597,-3.7036936,-1.1758604,0.5631454,-0.68849796,-0.45698771,0
0.55182195,5.4394197,1.2323384,-0.5631454,0.68849796,0.45698771,0
2.0171025,5.4532366,0.81825495,0.68420523,0.69859362,-0.20935637,0
2.7855885,0.86379313,-1.9076134,-0.46339017,0.19477534,-0.86448371,0
-2.5524902,2.6032526,1.6000828,-0.5631454,0.68849796,0.45698771,0
2.8826895,-2.1423535,-2.1772192,0.5631454,-0.68849796,-0.45698771,0
4.1714377,2.4715743,-2.204035,0.68420523,0.69859362,-0.20935637,0
-1.6554353,3.345962,1.5838841,-0.5631454,0.68849796,0.45698771,0
5.0832744,0.21675229,-2.7319756,0.5631454,-0.68849796,-0.45698771,0
5.4538298,0.95445263,-2.4555693,0.68420523,0.69859362,-0.20935637,0
3.4033942,-1.8453071,-1.5576679,0.46339017,-0.19477534,0.86448371,0
1.0983603,1.4978418,-0.90144527,-0.46339017,0.19477534,-0.86448371,0
-1.1380494,-4.9338622,-1.0569532,-0.46339017,0.19477534,-0.86448371,0
4.1956367,2.4614475,-2.0596192,0.68420523,0.69859362,-0.20935637,0
-0.17660964,2.5009668,-0.021116257,-0.46339017,0.19477534,-0.86448371,0
-5.4327011,-0.34536231,2.5195067,-0.5631454,0.68849796,0.45698771,0
-1.4667063,-5.9831638,-0.78858042,-0.68420523,-0.69859362,0.20935637,0
-3.9913845,-2.7016273,1.4308233,-0.68420523,-0.69859362,0.20935637,0
-3.4636974,-0.62626827,1.120705,-0.46339017,0.19477534,-0.86448371,0
1.1436484,5.1236572,1.0983205,0.46339017,-0.19477534,0.86448371,0
2.4347873,-2.6888425,-1.7442946,0.5631454,-0.68849796,-0.45698771,0
2.676322,-2.3972988,-2.0136592,0.5631454,-0.68849796,-0.45698771,0
-0.11323476,-4.9886637,-1.5823867,0.5631454,-0.68849796,-0.45698771,0
4.6988454,-0.5672735,-2.2642691,0.5631454,-0.68849796,-0.45698771,0
-2.4822135,0.7735517,2.1590383,0.46339017,-0.19477534,0.86448371,0
0.49157691,-4.463048,-1.3835325,0.5631454,-0.68849796,-0.45698771,0
-0.8073042,-1.1551476,-0.41518903,-0.46339017,0.19477534,-0.86448371,0
-0.59599233,-4.8107018,-1.2477524,-0.46339017,0.19477534,-0.86448371,0
0.56102276,-3.9433274,-1.691828,-0.46339017,0.19477534,-0.86448371,0
-0.79086322,-0.57011342,-0.33669302,-0.46339017,0.19477534,-0.86448371,0
-5.1596866,-0.10164154,2.409956,-0.5631454,0.68849796,0.45698771,0
-0.043620378,-0.40667409,0.5882796,0.46339017,-0.19477534,0.86448371,0
4.108758,2.6898232,-1.1307256,0.68420523,0.69859362,-0.20935637,0
4.8721528,1.7936045,-1.8198018,0.68420523,0.69859362,-0.20935637,0
0.26169443,5.0138893,1.4184036,-0.5631454,0.68849796,0.45698771,0
0.51119936,-2.5920746,-1.3982081,-0.46339017,0.19477534,-0.86448371,0
0.72184491,-4.3173847,-1.3980141,0.5631454,-0.68849796,-0.45698771,0
4.2551723,-0.55901957,-2.6919062,0.5631454,-0.68849796,-0.45698771,0
-4.4160366,-2.484118,1.3765216,-0.68420523,-0.69859362,0.20935637,0
-1.5228859,1.5530913,1.8372238,0.46339017,-0.19477534,0.86448371,0
-0.18779397,4.8133841,0.51541853,-0.46339017,0.19477534,-0.86448371,0
2.7536354,-1.9273061,-2.2720859,0.5631454,-0.68849796,-0.45698771,0
2.9145904,4.3581605,-0.20179033,0.68420523,0.69859362,-0.20935637,0
2.6891217,-2.1893673,-2.1372557,0.5631454,-0.68849796,-0.45698771,0
-0.53213727,-0.81246901,0.69626224,0.46339017,-0.19477534,0.86448371,0
-2.6114655,2.0123653,1.2087042,-0.46339017,0.19477534,-0.86448371,0
3.8981547,3.0234849,-1.0188494,0.68420523,0.69859362,-0.20935637,0
-4.2351046,-2.4679365,2.0551839,-0.68420523,-0.69859362,0.20935637,0
5.1217399,0.2609576,-2.7231288,0.5631454,-0.68849796,-0.45698771,0
1.4349473,5.7490463,0.17542887,0.68420523,0.69859362,-0.20935637,0
-0.22019124,-4.2818532,-1.4927552,-0.46339017,0.19477534,-0.86448371,0
-1.3460609,0.66088176,0.36834228,-0.46339017,0.19477534,-0.86448371,0
-2.1722007,2.6931474,2.1314616,-0.5631454,0.68849796,0.45698771,0
0.88413668,6.1515818,0.76095915,-0.5631454,0.68849796,0.45698771,0
2.2126184,4.6811752,-0.68801737,0.68420523,0.69859362,-0.20935637,0
-2.2849936,-1.4696569,1.5292004,0.46339017,-0.19477534,0.86448371,0
-2.1614857,-4.9835267,-0.13826227,-0.68420523,-0.69859362,0.20935637,0
-1.0468972,-6.2418408,-0.37370443,-0.68420523,-0.69859362,0.20935637,0
2.3115716,4.9810472,0.23423576,0.68420523,0.69859362,-0.20935637,0
-3.9207764,1.2820075,1.8940039,-0.46339017,0.19477534,-0.86448371,0
-3.7904935,-2.9373381,1.6282718,-0.68420523,-0.69859362,0.20935637,0
5.4104052,0.87922752,-2.9623907,0.68420523,0.69859362,-0.20935637,0
5.3925614,1.3373753,-2.2479031,0.68420523,0.69859362,-0.20935637,0
4.051652,2.6407542,-1.7748384,0.68420523,0.69859362,-0.20935637,0
1.8902822,-3.2439244,-1.2600029,0.46339017,-0.19477534,0.86448371,0
-0.031097889,-4.8949265,-1.5097787,0.5631454,-0.68849796,-0.45698771,0
3.9957085,2.8571248,-1.4582047,0.68420523,0.69859362,-0.20935637,0
-1.298866,-6.2685556,-1.0982718,-0.68420523,-0.69859362,0.20935637,0
2.8548391,-1.2443348,-2.3854022,-0.46339017,0.19477534,-0.86448371,0
3.3594828,3.5010059,-1.4256182,0.68420523,0.69859362,-0.20935637,0
-1.241842,3.8408082,1.3816864,-0.5631454,0.68849796,0.45698771,0
-4.5667677,0.61020178,2.1551452,-0.5631454,0.68849796,0.45698771,0
-2.5527885,2.4116039,2.1206639,-0.5631454,0.68849796,0.45698771,0
-0.68161881,-2.3078356,0.51279402,0.46339017,-0.19477534,0.86448371,0
-3.8908668,0.97693098,2.4384525,-0.5631454,0.68849796,0.45698771,0
3.9593842,-1.2142415,-1.9338305,0.5631454,-0.68849796,-0.45698771,0
-1.5737021,3.4422207,1.7357751,-0.5631454,0.68849796,0.45698771,0
1.8949373,-2.865164,-2.0330024,0.5631454,-0.68849796,-0.45698771,0
-4.3689418,0.70150906,2.162817,-0.5631454,0.68849796,0.45698771,0
2.2048316,-0.94507027,-1.9845068,-0.46339017,0.19477534,-0.86448371,0
-0.0064264536,1.9618574,-0.11122549,-0.46339017,0.19477534,-0.86448371,0
1.298358,5.9924426,0.62934208,0.68420523,0.69859362,-0.20935637,0
-1.3170137,-6.0353031,-1.1507344,0.5631454,-0.68849796,-0.45698771,0
-3.1553164,-3.6442606,0.94070482,-0.68420523,-0.69859362,0.20935637,0
3.4184275,3.6731138,-0.64442539,0.68420523,0.69859362,-0.20935637,0
-2.3801739,0.897071,2.0043764,0.46339017,-0.19477534,0.86448371,0
2.4887831,0.59463429,-0.63429308,0.46339017,-0.19477534,0.86448371,0
-5.113503,-1.2535255,2.5801814,-0.68420523,-0.69859362,0.20935637,0
0.21922863,-1.7389123,0.14269912,0.46339017,-0.19477534,0.86448371,0
1.1052694,-0.85794848,-0.12649769,0.46339017,-0.19477534,0.86448371,0
3.7621408,3.3285909,-0.75486445,0.68420523,0.69859362,-0.20935637,0
-2.6784911,-2.2215676,1.5882237,0.46339017,-0.19477534,0.86448371,0
-2.0348482,3.29949,1.207451,-0.5631454,0.68849796,0.45698771,0
4.5501485,2.1899605,-1.9724538,0.68420523,0.69859362,-0.20935637,0
-5.4798136,-0.94313717,3.0331135,-0.68420523,-0.69859362,0.20935637,0
3.9710803,-0.83382249,-2.6251838,0.5631454,-0.68849796,-0.45698771,0
2.0527644,2.6962967,0.16633272,0.46339017,-0.19477534,0.86448371,0
5.2604628,1.4420725,-1.9138632,0.46339017,-0.19477534,0.86448371,0
-4.5749097,-1.6977949,1.5104353,-0.46339017,0.19477534,-0.86448371,0
5.529789,0.95662439,-2.2857823,0.68420523,0.69859362,-0.20935637,0
1.759752,3.3139184,-0.67639327,-0.46339017,0.19477534,-0.86448371,0
-2.482007,-4.5907264,0.55659437,-0.68420523,-0.69859362,0.20935637,0
2.3247824,-2.552021,-2.0270069,0.5631454,-0.68849796,-0.45698771,0
4.2938128,-0.87848753,-2.1940367,0.5631454,-0.68849796,-0.45698771,0
-3.7695684,0.86448133,1.6786988,-0.46339017,0.19477534,-0.86448371,0
1.3151257,6.118866,1.1178579,0.68420523,0.69859362,-0.20935637,0
-1.845089,-5.5332789,-0.31009626,-0.68420523,-0.69859362,0.20935637,0
-2.3416986,-5.0637693,-0.40228033,-0.68420523,-0.69859362,0.20935637,0
1.6062853,-3.0749292,-0.96255422,0.46339017,-0.19477534,0.86448371,0
1.3934805,6.0874767,1.1282053,0.68420523,0.69859362,-0.20935637,0
-0.85350579,-1.0854671,0.85518944,0.46339017,-0.19477534,0.86448371,0
2.8403614,3.1362612,-0.15808845,0.46339017,-0.19477534,0.86448371,0
4.3911142,-0.86734748,-2.1596749,0.5631454,-0.68849796,-0.45698771,0
-1.525275,3.3708947,1.952786,-0.5631454,0.68849796,0.45698771,0
-1.3217504,-5.7947016,-1.2440605,-0.46339017,0.19477534,-0.86448371,0
0.49195862,-4.781764,-0.86311936,0.5631454,-0.68849796,-0.45698771,0
-1.5081604,-5.7338347,0.13648891,-0.68420523,-0.69859362,0.20935637,0
-1.895525,-0.76266545,0.19912338,-0.46339017,0.19477534,-0.86448371,0
-0.17145133,-5.3740396,-0.70664263,0.5631454,-0.68849796,-0.45698771,0
2.6757171,-1.4629488,-2.2350941,-0.46339017,0.19477534,-0.86448371,0
0.80462515,-0.7346819,0.083944082,0.46339017,-0.19477534,0.86448371,0
-4.7620339,0.2114895,2.484772,-0.5631454,0.68849796,0.45698771,0
1.8292212,5.2061081,0.74861574,0.46339017,-0.19477534,0.86448371,0
1.3060272,5.4765916,-0.098383427,-0.46339017,0.19477534,-0.86448371,0
-3.5147381,-1.8821388,0.86237907,-0.46339017,0.19477534,-0.86448371,0
2.68578,-2.6675649,-1.6229802,0.5631454,-0.68849796,-0.45698771,0
-1.9784982,-3.5910821,0.78431058,0.46339017,-0.19477534,0.86448371,0
3.6162968,0.87493527,-2.4279921,-0.46339017,0.19477534,-0.86448371,0
-2.4217384,-0.11400723,0.67880964,-0.46339017,0.19477534,-0.86448371,0
3.1755738,-1.0656244,-2.4407299,-0.46339017,0.19477534,-0.86448371,0
-0.56571901,0.94609964,1.0404277,0.46339017,-0.19477534,0.86448371,0
1.8033864,5.3103213,-0.42614746,0.68420523,0.69859362,-0.20935637,0
2.8920202,4.1331658,-0.93825865,0.68420523,0.69859362,-0.20935637,0
-2.2078176,2.8236885,1.7824765,-0.5631454,0.68849796,0.45698771,0
-4.6472034,0.034910172,2.8695219,-0.5631454,0.68849796,0.45698771,0
4.2594118,2.3592627,-2.2875755,0.68420523,0.69859362,-0.20935637,0
4.7251101,1.9284978,-2.0059702,0.68420523,0.69859362,-0.20935637,0
-5.2530527,-0.078947425,2.2274754,-0.5631454,0.68849796,0.45698771,0
-0.36576104,3.7419586,0.48689198,-0.46339017,0.19477534,-0.86448371,0
-1.4086304,3.9166801,1.1823194,-0.5631454,0.68849796,0.45698771,0
-4.7508764,-2.0617878,1.9178965,-0.68420523,-0.69859362,0.20935637,0
-1.0992081,-2.2618332,0.76532793,0.46339017,-0.19477534,0.86448371,0
4.4673109,2.4452326,-1.5830462,0.68420523,0.69859362,-0.20935637,0
0.19510412,5.2236757,1.2051024,-0.5631454,0.68849796,0.45698771,0
-1.468663,-3.1154239,-0.59566808,-0.46339017,0.19477534,-0.86448371,0
-0.19817543,-4.9088173,-1.5022726,0.5631454,-0.68849796,-0.45698771,0
-2.808182,1.9980483,2.0715113,-0.5631454,0.68849796,0.45698771,0
2.986918,-0.26269412,-2.3177373,-0.46339017,0.19477534,-0.86448371,0
1.9578416,-2.8574579,-2.0406067,0.5631454,-0.68849796,-0.45698771,0
2.4228334,-2.3469896,-2.0434909,0.5631454,-0.68849796,-0.45698771,0
1.2153504,-3.7083938,-1.6664801,0.5631454,-0.68849796,-0.45698771,0
4.8292751,1.642328,-2.1997621,0.68420523,0.69859362,-0.20935637,0
0.1363523,-5.0398774,-1.1838815,0.5631454,-0.68849796,-0.45698771,0
0.59945393,4.1946011,0.090044022,-0.46339017,0.19477534,-0.86448371,0
5.6848574,0.88480926,-2.3846211,0.68420523,0.69859362,-0.20935637,0
-2.4159808,-4.602778,0.52176189,-0.68420523,-0.69859362,0.20935637,0
3.246582,0.6452527,-0.93861306,0.46339017,-0.19477534,0.86448371,0
3.5414801,3.400352,-1.1461992,0.68420523,0.69859362,-0.20935637,0
2.3469074,4.9033327,-0.15535688,0.68420523,0.69859362,-0.20935637,0
2.6965566,2.0942807,-1.6417282,-0.46339017,0.19477534,-0.86448371,0
-3.8013611,-0.60458058,2.5461869,0.46339017,-0.19477534,0.86448371,0
-4.23562,0.93387622,2.1818178,-0.5631454,0.68849796,0.45698771,0
1.2977624,4.4072447,0.95748997,0.46339017,-0.19477534,0.86448371,0
-4.4100094,0.50034505,2.475697,-0.5631454,0.68849796,0.45698771,0
-1.3231177,-5.3537359,0.054366112,0.46339017,-0.19477534,0.86448371,0
-0.40964723,4.8938189,1.0664444,-0.5631454,0.68849796,0.45698771,0
0.16683674,2.7246957,-0.020986557,-0.46339017,0.19477534,-0.86448371,0
-3.7354035,1.4488006,1.9186552,-0.5631454,0.68849796,0.45698771,0
5.0095639,0.3505612,-2.8931236,0.5631454,-0.68849796,-0.45698771,0
-2.3334458,-4.9307899,-0.0086164474,-0.68420523,-0.69859362,0.20935637,0
-1.405731,-6.0553513,-1.2325625,-0.68420523,-0.69859362,0.20935637,0
-0.78084409,2.1749485,1.3831644,0.46339017,-0.19477534,0.86448371,0
-3.4203885,-3.5314205,0.53411436,-0.68420523,-0.69859362,0.20935637,0
0.67507994,2.5904253,-0.39169478,-0.46339017,0.19477534,-0.86448371,0
-1.6398631,-4.2797484,0.39655352,0.46339017,-0.19477534,0.86448371,0
-3.3126843,-3.6523738,1.1037908,-0.68420523,-0.69859362,0.20935637,0
-0.4014883,-5.8434129,-0.6320796,0.5631454,-0.68849796,-0.45698771,0
-1.1693723,1.1264794,0.30519307,-0.46339017,0.19477534,-0.86448371,0
-5.7614574,-0.61578405,2.5754666,-0.5631454,0.68849796,0.45698771,0
5.2076778,0.29551417,-2.8152885,0.5631454,-0.68849796,-0.45698771,0
0.90436983,-4.0380249,-1.7644198,0.5631454,-0.68849796,-0.45698771,0
1.1537507,-4.2955685,-0.91985559,0.5631454,-0.68849796,-0.45698771,0
0.20908427,-4.9734492,-0.83030939,0.5631454,-0.68849796,-0.45698771,0
-1.6452436,0.38188228,0.466057,-0.46339017,0.19477534,-0.86448371,0
3.4019082,3.3392191,-0.59158564,0.46339017,-0.19477534,0.86448371,0
-4.2192931,-2.7085772,1.1561553,-0.68420523,-0.69859362,0.20935637,0
-2.8520088,1.8157127,1.405549,-0.46339017,0.19477534,-0.86448371,0
-1.9791563,3.0807111,1.5042237,-0.5631454,0.68849796,0.45698771,0
-4.6931353,-1.8314546,2.6032493,-0.68420523,-0.69859362,0.20935637,0
-0.21942782,5.187675,0.6687851,-0.5631454,0.68849796,0.45698771,0
-3.3356521,-3.6924908,1.0791283,-0.68420523,-0.69859362,0.20935637,0
-3.7009315,-2.9925036,1.9889483,0.46339017,-0.19477534,0.86448371,0
1.017772,6.3022065,0.38622427,0.68420523,0.69859362,-0.20935637,0
-2.5738659,1.7630146,1.2940028,-0.46339017,0.19477534,-0.86448371,0
-0.42108524,0.13700509,0.92534065,0.46339017,-0.19477534,0.86448371,0
1.1021479,2.5926108,0.64927936,0.46339017,-0.19477534,0.86448371,0
4.9607077,-0.37795717,-2.1614456,0.5631454,-0.68849796,-0.45698771,0
5.2065797,-0.025900483,-2.2574098,0.5631454,-0.68849796,-0.45698771,0
-2.0219622,-5.4785228,-0.53591394,-0.68420523,-0.69859362,0.20935637,0
3.1407146,-1.9700828,-1.8873162,0.5631454,-0.68849796,-0.45698771,0
0.86827707,-2.2145321,-0.37572551,0.46339017,-0.19477534,0.86448371,0
-0.50878286,2.296061,0.31813896,-0.46339017,0.19477534,-0.86448371,0
-4.2354484,-2.7032092,1.1708539,-0.68420523,-0.69859362,0.20935637,0
0.10358864,-0.5663799,-0.64868408,-0.46339017,0.19477534,-0.86448371,0
5.0196557,1.3158368,-2.8489387,0.68420523,0.69859362,-0.20935637,0
0.18958202,-0.25693604,0.51563889,0.46339017,-0.19477534,0.86448371,0
-5.2161984,-1.3010293,2.2852445,-0.68420523,-0.69859362,0.20935637,0
-3.0634174,1.6237358,2.4275069,-0.5631454,0.68849796,0.45698771,0
4.9791012,1.3307853,-2.9549005,-0.46339017,0.19477534,-0.86448371,0
-4.9396725,-0.068487406,2.166883,-0.46339017,0.19477534,-0.86448371,0
0.58170295,-4.283668,-1.7070482,0.5631454,-0.68849796,-0.45698771,0
-4.2253332,-2.2943537,2.1346307,-0.68420523,-0.69859362,0.20935637,0
3.628603,2.0968409,-0.9230473,0.46339017,-0.19477534,0.86448371,0
-2.2822604,-5.0227814,-0.0028595924,-0.68420523,-0.69859362,0.20935637,0
-5.1317673,0.11742318,2.2792389,-0.5631454,0.68849796,0.45698771,0
5.2497492,0.1020087,-2.3857903,0.5631454,-0.68849796,-0.45698771,0
2.8614204,-2.1973441,-2.0350988,0.5631454,-0.68849796,-0.45698771,0
-5.3641887,-0.92290759,2.0201356,-0.46339017,0.19477534,-0.86448371,0
3.8331022,1.176739,-1.2638122,0.46339017,-0.19477534,0.86448371,0
-0.09126544,-5.3668413,-0.85033512,0.5631454,-0.68849796,-0.45698771,0
3.2311995,-0.57863718,-2.4874303,-0.46339017,0.19477534,-0.86448371,0
-4.4485903,-2.4743786,1.5461168,-0.68420523,-0.69859362,0.20935637,0
1.2643924,6.0125265,0.10194492,0.68420523,0.69859362,-0.20935637,0
5.7805243,0.59987998,-2.7368896,0.5631454,-0.68849796,-0.45698771,0
0.43001723,5.5978251,0.78864527,-0.5631454,0.68849796,0.45698771,0
3.80281,-1.1386458,-2.2769685,0.5631454,-0.68849796,-0.45698771,0
-1.2874417,-6.1318855,-0.32819891,-0.68420523,-0.69859362,0.20935637,0
5.4513612,0.44143927,-2.7437696,0.5631454,-0.68849796,-0.45698771,0
-0.3835659,-5.002666,-1.3984404,-0.46339017,0.19477534,-0.86448371,0
-4.527091,0.36809018,2.7205582,-0.5631454,0.68849796,0.45698771,0
-3.7522044,-3.1336315,1.3084335,-0.68420523,-0.69859362,0.20935637,0
-2.8204784,1.9093328,2.4659977,-0.5631454,0.68849796,0.45698771,0
-1.1070898,3.4319642,1.9719968,0.46339017,-0.19477534,0.86448371,0
3.3798695,3.5523541,-1.0584664,0.68420523,0.69859362,-0.20935637,0
2.5739698,2.3240547,-1.35956,-0.46339017,0.19477534,-0.86448371,0
-3.5617771,-3.230072,1.6131713,-0.68420523,-0.69859362,0.20935637,0
4.8362179,1.8991032,-2.1172025,0.68420523,0.69859362,-0.20935637,0
3.1640351,3.6202462,-1.2336338,0.68420523,0.69859362,-0.20935637,0
4.0253372,-0.89031994,-2.3948464,0.5631454,-0.68849796,-0.45698771,0
2.6480939,1.4403596,-1.7127128,-0.46339017,0.19477534,-0.86448371,0
-1.7108555,3.0428507,2.1414146,-0.5631454,0.68849796,0.45698771,0
-0.11181784,-1.0881315,0.46824956,0.46339017,-0.19477534,0.86448371,0
3.6335599,0.027228475,-1.4308789,0.46339017,-0.19477534,0.86448371,0
-1.9646221,2.3431873,0.99511451,-0.46339017,0.19477534,-0.86448371,0
-4.3714862,-1.6775934,1.3141456,-0.46339017,0.19477534,-0.86448371,0
3.7381186,3.1460099,-1.588135,0.68420523,0.69859362,-0.20935637,0
-2.8882761,1.884527,2.4044597,-0.5631454,0.68849796,0.45698771,0
-0.21195602,3.6524601,0.46380472,-0.46339017,0.19477534,-0.86448371,0
1.8473752,-3.2533844,-1.767548,0.5631454,-0.68849796,-0.45698771,0
2.3838036,0.32456106,-0.68199199,0.46339017,-0.19477534,0.86448371,0
5.2499046,0.009059906,-2.353857,0.5631454,-0.68849796,-0.45698771,0
4.1708708,2.7301655,-1.3005869,0.68420523,0.69859362,-0.20935637,0
-2.3307652,3.0264153,1.5316708,-0.5631454,0.68849796,0.45698771,0
-1.1451464,-5.998426,-0.13469791,-0.68420523,-0.69859362,0.20935637,0
-0.74296427,-5.520618,-1.3116379,0.5631454,-0.68849796,-0.45698771,0
-2.3680716,-5.0768776,-0.46939754,-0.68420523,-0.69859362,0.20935637,0
2.2288837,-2.5881746,-2.2555635,0.5631454,-0.68849796,-0.45698771,0
-2.3358345,0.705302,1.9154806,0.46339017,-0.19477534,0.86448371,0
3.1942296,1.8954464,-1.8067131,-0.46339017,0.19477534,-0.86448371,0
4.1841435,0.46193123,-1.6148008,0.46339017,-0.19477534,0.86448371,0
3.7086554,-0.95563745,-2.6803501,0.5631454,-0.68849796,-0.45698771,0
0.30715847,-4.5811148,-1.5517669,0.5631454,-0.68849796,-0.45698771,0
-0.84723496,3.217978,0.66357589,-0.46339017,0.19477534,-0.86448371,0
3.3681235,0.13658249,-2.2608337,-0.46339017,0.19477534,-0.86448371,0
-3.8147244,-0.072933674,1.4133002,-0.46339017,0.19477534,-0.86448371,0
-2.7440708,-4.413425,0.05974102,-0.68420523,-0.69859362,0.20935637,0
2.3376875,4.8649678,-0.090991497,0.68420523,0.69859362,-0.20935637,0
-2.517982,2.5524955,1.5906715,-0.5631454,0.68849796,0.45698771,0
4.6866879,-0.3169474,-2.0972784,0.46339017,-0.19477534,0.86448371,0
0.49307823,3.3854046,-0.070168734,-0.46339017,0.19477534,-0.86448371,0
1.0081458,2.6247613,0.58789992,0.46339017,-0.19477534,0.86448371,0
-2.9381008,2.3624949,1.5258945,-0.5631454,0.68849796,0.45698771,0
-2.4146037,1.242883,2.0584779,0.46339017,-0.19477534,0.86448371,0
3.8425937,2.9368167,-1.3765078,0.68420523,0.69859362,-0.20935637,0
-1.0146806,-6.2705669,-0.40949678,-0.68420523,-0.69859362,0.20935637,0
1.3796945,6.2344179,1.0198641,0.68420523,0.69859362,-0.20935637,0
4.9676762,0.61128533,-1.9403918,0.46339017,-0.19477534,0.86448371,0
-3.241328,-3.761462,0.96260309,-0.68420523,-0.69859362,0.20935637,0
-1.4324989,-5.9991722,-0.65397596,-0.68420523,-0.69859362,0.20935637,0
0.98496962,-3.8298807,-1.919422,0.5631454,-0.68849796,-0.45698771,0
0.99063063,3.8734612,-0.25788951,-0.46339017,0.19477534,-0.86448371,0
-1.5750835,-5.5523872,0.090157509,-0.68420523,-0.69859362,0.20935637,0
-3.4848611,-3.1058433,1.6798756,-0.68420523,-0.69859362,0.20935637,0
-4.011888,-2.5226283,2.1827841,0.46339017,-0.19477534,0.86448371,0
3.6152542,2.9332135,-0.72640252,0.46339017,-0.19477534,0.86448371,0
4.2916265,2.6372185,-1.4527912,0.68420523,0.69859362,-0.20935637,0
-1.5057817,-5.110074,0.11954021,0.46339017,-0.19477534,0.86448371,0
4.2249951,2.2880189,-2.0929403,0.68420523,0.69859362,-0.20935637,0
-4.998209,-1.7582928,1.9396157,-0.68420523,-0.69859362,0.20935637,0
2.1875641,0.040357903,-1.7324295,-0.46339017,0.19477534,-0.86448371,0
3.2519555,-1.6502917,-2.1543355,0.5631454,-0.68849796,-0.45698771,0
-4.9474897,0.053114653,2.6630616,-0.5631454,0.68849796,0.45698771,0
3.8937111,2.9115963,-1.2399054,0.68420523,0.69859362,-0.20935637,0
-0.69309568,-5.2836328,-0.33493185,0.46339017,-0.19477534,0.86448371,0
-0.2065618,2.895668,0.16014504,-0.46339017,0.19477534,-0.86448371,0
-1.4224727,-6.1302919,-0.89995384,-0.68420523,-0.69859362,0.20935637,0
-3.1037593,-3.975384,0.69727945,-0.68420523,-0.69859362,0.20935637,0
-1.2949109,4.1553512,1.0934231,-0.5631454,0.68849796,0.45698771,0
4.5155554,2.0764558,-2.5846341,0.68420523,0.69859362,-0.20935637,0
-1.0783279,3.9975991,1.3885074,-0.5631454,0.68849796,0.45698771,0
-2.3870096,-0.2735104,0.73411644,-0.46339017,0.19477534,-0.86448371,0
3.7794099,3.0627694,-1.4136493,0.68420523,0.69859362,-0.20935637,0
0.94800872,-0.055968583,0.082203165,0.46339017,-0.19477534,0.86448371,0
2.7608309,4.1985602,-0.41539097,0.68420523,0.69859362,-0.20935637,0
2.4051981,-2.4620113,-2.0540745,0.5631454,-0.68849796,-0.45698771,0
-0.17529631,-5.1457424,-1.3667235,0.5631454,-0.68849796,-0.45698771,0
3.3881576,-1.428367,-2.3285615,0.5631454,-0.68849796,-0.45698771,0
-1.4619362,-5.7097788,0.15075827,-0.68420523,-0.69859362,0.20935637,0
-1.4206331,-5.5837135,0.14065218,-0.68420523,-0.69859362,0.20935637,0
-0.36345434,4.2710972,1.7259834,0.46339017,-0.19477534,0.86448371,0
2.6438987,1.2305756,-0.5716517,0.46339017,-0.19477534,0.86448371,0
2.3247361,-2.5134964,-2.1287799,0.5631454,-0.68849796,-0.45698771,0
1.1687586,-3.4870799,-1.84062,0.5631454,-0.68849796,-0.45698771,0
0.43388116,2.2561178,0.73891056,0.46339017,-0.19477534,0.86448371,0
-2.7484848,-4.4505382,0.24577332,-0.68420523,-0.69859362,0.20935637,0
3.4368644,-1.4841204,-2.1280596,0.5631454,-0.68849796,-0.45698771,0
2.2971761,5.0594158,0.54541683,0.46339017,-0.19477534,0.86448371,0
4.5724525,2.0308495,-1.7272849,0.68420523,0.69859362,-0.20935637,0
1.4478905,2.3933101,0.4426837,0.46339017,-0.19477534,0.86448371,0
-2.5674651,-3.1431952,1.2192109,0.46339017,-0.19477534,0.86448371,0
4.4930615,-0.29281396,-2.7152152,0.5631454,-0.68849796,-0.45698771,0
3.7038093,-1.2895432,-2.0879385,0.5631454,-0.68849796,-0.45698771,0
-4.2252083,0.51613283,2.846585,-0.5631454,0.68849796,0.45698771,0
-5.3025904,-0.28282946,2.6334777,-0.5631454,0.68849796,0.45698771,0
-4.0333881,-2.8527954,1.4436073,-0.68420523,-0.69859362,0.20935637,0
-2.4837451,-4.8327756,-0.33555651,-0.68420523,-0.69859362,0.20935637,0
0.69282055,3.3574939,-0.21661997,-0.46339017,0.19477534,-0.86448371,0
-1.25158,2.9430873,1.8809948,0.46339017,-0.19477534,0.86448371,0
-2.6559114,-4.2176886,0.66215134,-0.68420523,-0.69859362,0.20935637,0
-1.3973501,-5.8765244,-0.67592335,-0.68420523,-0.69859362,0.20935637,0
-0.47041321,-5.2296515,-1.4343772,0.5631454,-0.68849796,-0.45698771,0
0.51000524,3.1225119,-0.20197892,-0.46339017,0.19477534,-0.86448371,0
-4.2240701,-2.3302424,1.8684316,-0.68420523,-0.69859362,0.20935637,0
-3.5458221,1.3953567,2.3877017,-0.5631454,0.68849796,0.45698771,0
-3.4474282,-0.15267569,2.4457569,0.46339017,-0.19477534,0.86448371,0
-1.7209204,2.4535937,0.912799,-0.46339017,0.19477534,-0.86448371,0
3.6310592,3.1636121,-1.3306234,0.68420523,0.69859362,-0.20935637,0
-5.1941824,-0.22008437,2.8363705,-0.5631454,0.68849796,0.45698771,0
-1.7881361,-0.037419885,1.5369135,0.46339017,-0.19477534,0.86448371,0
-3.4393399,1.3342879,2.4869218,-0.5631454,0.68849796,0.45698771,0
-1.2731521,1.2546135,1.6180375,0.46339017,-0.19477534,0.86448371,0
-1.2282162,-0.77314818,1.0032096,0.46339017,-0.19477534,0.86448371,0
4.5907393,2.1945536,-1.3692341,0.68420523,0.69859362,-0.20935637,0
-1.2003419,-5.9744024,-1.1060767,0.5631454,-0.68849796,-0.45698771,0
2.2637215,0.11813462,-0.67133576,0.46339017,-0.19477534,0.86448371,0
2.2731109,4.9937577,0.50478506,0.68420523,0.69859362,-0.20935637,0
0.16506958,3.8612115,0.10515332,-0.46339017,0.19477534,-0.86448371,0
-3.0537055,-3.952718,0.27675104,-0.68420523,-0.69859362,0.20935637,0
3.6096802,1.9989662,-0.82516599,0.46339017,-0.19477534,0.86448371,0
0.52209425,-4.4492249,-1.2183306,0.5631454,-0.68849796,-0.45698771,0
-0.15945983,4.9579496,0.61644793,-0.46339017,0.19477534,-0.86448371,0
-5.7185078,-0.75889075,2.2594786,-0.68420523,-0.69859362,0.20935637,0
0.10803771,-3.2718713,-1.3881936,-0.46339017,0.19477534,-0.86448371,0
-1.380537,3.4121172,1.8428292,-0.5631454,0.68849796,0.45698771,0
4.4229507,2.2781789,-1.3537827,0.68420523,0.69859362,-0.20935637,0
-3.1435645,-4.0112619,0.20445681,-0.68420523,-0.69859362,0.20935637,0
1.5484293,5.7412038,0.5718689,0.68420523,0.69859362,-0.20935637,0
2.5208988,4.795156,-0.071063519,0.68420523,0.69859362,-0.20935637,0
-2.7025366,-0.78567994,0.80685902,-0.46339017,0.19477534,-0.86448371,0
1.909608,-0.34306899,-0.60411447,0.46339017,-0.19477534,0.86448371,0
-1.2663829,-2.2214422,0.676054,0.46339017,-0.19477534,0.86448371,0
-0.70515704,4.2387757,1.5133023,-0.5631454,0.68849796,0.45698771,0
2.2188911,-2.8668525,-1.8430429,0.5631454,-0.68849796,-0.45698771,0
-2.9382687,-4.0400562,0.91805315,-0.68420523,-0.69859362,0.20935637,0
1.5942061,0.98729491,0.060248971,0.46339017,-0.19477534,0.86448371,0
2.8724914,3.5692937,-1.2116201,-0.46339017,0.19477534,-0.86448371,0
5.2658243,1.2518896,-2.2847433,0.68420523,0.69859362,-0.20935637,0
-3.2181261,-3.9656019,0.44678211,-0.68420523,-0.69859362,0.20935637,0
-1.665571,3.3613105,1.5029199,-0.5631454,0.68849796,0.45698771,0
-3.3355336,-1.3233567,2.175288,0.46339017,-0.19477534,0.86448371,0
2.9988313,-0.5349611,-1.1594199,0.46339017,-0.19477534,0.86448371,0
4.4496799,-0.28166533,-2.711179,0.5631454,-0.68849796,-0.45698771,0
0.53899813,5.5046296,1.2987795,-0.5631454,0.68849796,0.45698771,0
0.29567027,-4.9392834,-0.87833405,0.5631454,-0.68849796,-0.45698771,0
-5.0519295,-0.99534494,3.132297,0.46339017,-0.19477534,0.86448371,0
-5.3840103,-0.92521113,2.9342589,-0.68420523,-0.69859362,0.20935637,0
4.4163451,2.1820073,-1.7623117,0.68420523,0.69859362,-0.20935637,0
1.1565416,-4.2237315,-1.0743504,0.5631454,-0.68849796,-0.45698771,0
4.138896,0.28967309,-1.6411233,0.46339017,-0.19477534,0.86448371,0
-0.21014357,-4.6249533,-0.36482573,0.46339017,-0.19477534,0.86448371,0
-3.2426655,1.5233095,2.4785686,-0.5631454,0.68849796,0.45698771,0
-3.3536682,-3.5319645,1.2378838,-0.68420523,-0.69859362,0.20935637,0
-0.89521694,1.7161958,0.17772138,-0.46339017,0.19477534,-0.86448371,0
-4.5193005,-2.2422271,1.6062472,-0.68420523,-0.69859362,0.20935637,0
-5.0362897,-1.6313313,2.2778614,-0.68420523,-0.69859362,0.20935637,0
-0.79059494,-1.4093642,-0.57213688,-0.46339017,0.19477534,-0.86448371,0
-2.0916309,-4.9572659,0.33237362,-0.68420523,-0.69859362,0.20935637,0
-5.2475672,-1.2319919,2.7297575,-0.68420523,-0.69859362,0.20935637,0
1.6016884,5.931354,0.91006565,0.68420523,0.69859362,-0.20935637,0
-1.5882642,3.5051572,1.5662596,-0.5631454,0.68849796,0.45698771,0
-1.180445,-5.270504,-1.2161155,-0.46339017,0.19477534,-0.86448371,0
-2.3167529,-0.65236068,1.587937,0.46339017,-0.19477534,0.86448371,0
-3.9633105,0.93122137,2.4076111,-0.5631454,0.68849796,0.45698771,0
-3.462153,1.4809573,2.4099357,-0.5631454,0.68849796,0.45698771,0
-0.86782753,0.86485666,1.2769606,0.46339017,-0.19477534,0.86448371,0
-1.7409191,-5.5540547,0.10947275,-0.68420523,-0.69859362,0.20935637,0
2.9099746,0.2297883,-0.93963784,0.46339017,-0.19477534,0.86448371,0
-5.5290833,-0.46079487,2.7754464,-0.5631454,0.68849796,0.45698771,0
1.9939544,2.9089184,0.17114234,0.46339017,-0.19477534,0.86448371,0
0.92191148,-4.32583,-0.9194634,0.5631454,-0.68849796,-0.45698771,0
-0.37442684,4.3147187,1.6529596,-0.5631454,0.68849796,0.45698771,0
-1.6479585,-5.4736638,-0.11005259,-0.68420523,-0.69859362,0.20935637,0
-3.5134816,1.8356323,1.6920776,-0.5631454,0.68849796,0.45698771,0
0.39736104,4.9332137,1.4867759,0.46339017,-0.19477534,0.86448371,0
-5.1535344,-1.3072323,2.5274231,-0.68420523,-0.69859362,0.20935637,0
0.57634425,4.0624766,-0.086881399,-0.46339017,0.19477534,-0.86448371,0
-1.7995082,-4.4617214,-0.53982306,-0.46339017,0.19477534,-0.86448371,0
-2.8760886,2.2930131,1.8698738,-0.5631454,0.68849796,0.45698771,0
-4.3650308,0.62602562,2.5765636,-0.5631454,0.68849796,0.45698771,0
2.2021742,-2.4473085,-2.3347554,0.5631454,-0.68849796,-0.45698771,0
-1.9921137,-5.21101,0.32901907,-0.68420523,-0.69859362,0.20935637,0
-1.8186634,-0.25121891,0.41164017,-0.46339017,0.19477534,-0.86448371,0
3.083375,4.022047,-0.38219976,0.68420523,0.69859362,-0.20935637,0
0.79225016,5.6801863,1.1024194,-0.5631454,0.68849796,0.45698771,0
0.95488119,-4.1353793,-1.3373272,0.5631454,-0.68849796,-0.45698771,0
0.50405478,-3.42204,-1.5234015,-0.46339017,0.19477534,-0.86448371,0
1.6369677,-3.7448988,-1.102546,0.5631454,-0.68849796,-0.45698771,0
-2.955246,-1.8124309,0.59078264,-0.46339017,0.19477534,-0.86448371,0
1.4393709,3.6162739,-0.42516899,-0.46339017,0.19477534,-0.86448371,0
1.6813512,-3.7121515,-1.1807683,0.5631454,-0.68849796,-0.45698771,0
-2.8322496,-4.1664572,0.80637646,-0.68420523,-0.69859362,0.20935637,0
-0.12639056,-0.27990532,0.47118741,0.46339017,-0.19477534,0.86448371,0
-5.3231096,-0.95750797,3.1278601,-0.68420523,-0.69859362,0.20935637,0
1.0147018,-3.6672957,-1.7921643,0.5631454,-0.68849796,-0.45698771,0
-3.1852334,-3.6300793,0.95684481,-0.68420523,-0.69859362,0.20935637,0
0.41570401,-3.3120449,-0.47370839,0.46339017,-0.19477534,0.86448371,0
-2.4237752,-4.6679916,0.70574427,-0.68420523,-0.69859362,0.20935637,0
-4.7349606,0.15441799,2.6913447,-0.5631454,0.68849796,0.45698771,0
-1.3181765,-5.8541398,-0.11597633,-0.68420523,-0.69859362,0.20935637,0
-4.8919201,0.30895895,2.1739779,-0.5631454,0.68849796,0.45698771,0
-5.2607145,-0.98050737,3.0374408,-0.68420523,-0.69859362,0.20935637,0
-1.2149819,-3.3369243,-0.58408809,-0.46339017,0.19477534,-0.86448371,0
4.3550324,-0.52263546,-2.5170796,0.5631454,-0.68849796,-0.45698771,0
4.6921797,0.94984782,-1.7682005,0.46339017,-0.19477534,0.86448371,0
4.8143773,0.10761482,-2.782032,0.5631454,-0.68849796,-0.45698771,0
-0.80202866,-3.9601519,-1.0811536,-0.46339017,0.19477534,-0.86448371,0
-3.3353195,1.9963884,1.8485924,-0.5631454,0.68849796,0.45698771,0
-4.974895,-1.6292046,1.8063915,-0.68420523,-0.69859362,0.20935637,0
-5.2976427,-0.24196535,2.747309,-0.5631454,0.68849796,0.45698771,0
1.2980485,-3.6999402,-1.4993078,0.5631454,-0.68849796,-0.45698771,0
-2.6374373,2.0847578,2.1963248,-0.5631454,0.68849796,0.45698771,0
0.87277889,6.0700312,0.21532059,-0.46339017,0.19477534,-0.86448371,0
-5.064106,-0.16955572,2.9815259,-0.5631454,0.68849796,0.45698771,0
-1.7525585,-3.8988156,0.7137146,0.46339017,-0.19477534,0.86448371,0
-4.0643148,0.74828106,1.7357929,-0.46339017,0.19477534,-0.86448371,0
2.8131762,3.9408255,-1.2073889,0.68420523,0.69859362,-0.20935637,0
-5.1178708,0.19821143,2.3059988,-0.5631454,0.68849796,0.45698771,0
1.207269,-3.8378434,-1.6170661,0.5631454,-0.68849796,-0.45698771,0
3.7773218,3.1499686,-0.75217795,0.68420523,0.69859362,-0.20935637,0
5.4194636,1.2932228,-2.157424,0.68420523,0.69859362,-0.20935637,0
3.3822644,3.4676745,-0.84490108,0.68420523,0.69859362,-0.20935637,0
1.2092073,6.0721579,1.2159376,-0.5631454,0.68849796,0.45698771,0
-4.9379721,-0.32215774,3.0233979,-0.5631454,0.68849796,0.45698771,0
-0.94042754,-4.9605622,-0.14821482,0.46339017,-0.19477534,0.86448371,0
-3.8860464,-2.876941,1.3421426,-0.68420523,-0.69859362,0.20935637,0
-4.0908966,1.2108996,1.9028591,-0.5631454,0.68849796,0.45698771,0
-1.9238632,-5.3601341,-0.52486277,-0.68420523,-0.69859362,0.20935637,0
4.7436857,-0.047908127,-2.9866455,0.5631454,-0.68849796,-0.45698771,0
0.92018914,-3.7018669,-1.8730034,0.5631454,-0.68849796,-0.45698771,0
0.94200873,5.7936435,1.3884172,-0.5631454,0.68849796,0.45698771,0
-0.54050452,-0.69370651,0.81632322,0.46339017,-0.19477534,0.86448371,0
-3.6154003,-2.5953276,1.9927232,0.46339017,-0.19477534,0.86448371,0
2.0742297,0.68577743,-1.5287662,-0.46339017,0.19477534,-0.86448371,0
-2.3695302,-4.8036523,0.15327501,-0.68420523,-0.69859362,0.20935637,0
-3.5021539,-3.2812414,1.1701238,-0.68420523,-0.69859362,0.20935637,0
1.3459377,-3.9113576,-1.1899917,0.5631454,-0.68849796,-0.45698771,0
-4.2572775,-2.4034891,2.1583102,-0.68420523,-0.69859362,0.20935637,0
-1.2269759,3.0201929,1.8366945,0.46339017,-0.19477534,0.86448371,0
1.4631796,5.949707,0.77234364,0.68420523,0.69859362,-0.20935637,0
-1.8923113,-5.2124319,0.3109479,-0.68420523,-0.69859362,0.20935637,0
3.8601704,-1.382303,-1.917798,0.5631454,-0.68849796,-0.45698771,0
5.5461407,0.88277084,-2.8796329,0.68420523,0.69859362,-0.20935637,0
-2.2540798,3.0834548,1.464564,-0.5631454,0.68849796,0.45698771,0
-2.0147231,-0.15787101,0.56988716,-0.46339017,0.19477534,-0.86448371,0
0.74292612,6.0794039,0.59205151,-0.5631454,0.68849796,0.45698771,0
4.1321225,2.4483652,-1.1622167,0.46339017,-0.19477534,0.86448371,0
2.3305149,4.6361766,-0.34532452,0.68420523,0.69859362,-0.20935637,0
1.66766,5.5676556,-0.060040474,0.68420523,0.69859362,-0.20935637,0
-0.75095427,-0.71899188,0.76157272,0.46339017,-0.19477534,0.86448371,0
3.799861,3.1306479,-1.0391092,0.68420523,0.69859362,-0.20935637,0
0.36991572,5.3274417,1.2994862,-0.5631454,0.68849796,0.45698771,0
-2.9428079,2.0438881,1.4986672,-0.46339017,0.19477534,-0.86448371,0
4.1900744,2.4040995,-2.2553663,0.68420523,0.69859362,-0.20935637,0
-2.7775664,-1.9274201,1.5638065,0.46339017,-0.19477534,0.86448371,0
0.84246588,-3.9784987,-1.6523669,0.5631454,-0.68849796,-0.45698771,0
3.8026052,3.0917292,-1.5504112,0.68420523,0.69859362,-0.20935637,0
4.896203,-0.11745721,-2.6894403,0.5631454,-0.68849796,-0.45698771,0
-0.00077436864,-0.31540096,-0.59053493,-0.46339017,0.19477534,-0.86448371,0
-4.8046608,-1.8981763,1.6969259,-0.68420523,-0.69859362,0.20935637,0
-3.2416482,1.9890119,1.5789278,-0.5631454,0.68849796,0.45698771,0
1.7350833,-3.072197,-2.0901012,0.5631454,-0.68849796,-0.45698771,0
3.0743477,4.0639,-0.4177494,0.68420523,0.69859362,-0.20935637,0
5.7688413,0.74891615,-2.3819933,0.68420523,0.69859362,-0.20935637,0
-5.171154,-1.1475645,2.8975291,-0.68420523,-0.69859362,0.20935637,0
-3.9433107,-2.9900949,1.1009274,-0.68420523,-0.69859362,0.20935637,0
-1.87237,-5.4035139,0.098473549,-0.68420523,-0.69859362,0.20935637,0
2.7355461,4.233501,-0.83611012,0.68420523,0.69859362,-0.20935637,0
2.6063137,-2.408361,-1.4337127,0.46339017,-0.19477534,0.86448371,0
1.7190988,5.486001,0.10566998,0.68420523,0.69859362,-0.20935637,0
-2.8309474,-4.2628369,0.03035593,-0.46339017,0.19477534,-0.86448371,0
4.5864124,-0.48310411,-2.3239491,0.5631454,-0.68849796,-0.45698771,0
4.8656278,0.12344402,-2.9574709,0.5631454,-0.68849796,-0.45698771,0
-0.44733095,2.6868939,1.3507775,0.46339017,-0.19477534,0.86448371,0
0.41730738,-3.5034795,-0.44886541,0.46339017,-0.19477534,0.86448371,0
-2.1315849,0.72310144,0.67783487,-0.46339017,0.19477534,-0.86448371,0
4.9307737,0.58709645,-1.9777304,0.46339017,-0.19477534,0.86448371,0
3.7171326,3.101037,-1.186578,0.68420523,0.69859362,-0.20935637,0
-4.8606529,0.25846285,2.2448254,-0.5631454,0.68849796,0.45698771,0
-3.7614467,-2.0126882,0.98529983,-0.46339017,0.19477534,-0.86448371,0
1.4034836,-3.5084112,-1.7806439,0.5631454,-0.68849796,-0.45698771,0
-4.1771107,0.64925706,2.8389149,-0.5631454,0.68849796,0.45698771,0
-3.3816633,0.98105127,1.3739772,-0.46339017,0.19477534,-0.86448371,0
-2.2502019,-3.3951581,0.98898363,0.46339017,-0.19477534,0.86448371,0
4.6401553,2.1987565,-1.5015955,0.68420523,0.69859362,-0.20935637,0
0.33067262,-1.9115798,-1.2203785,-0.46339017,0.19477534,-0.86448371,0
-0.95991015,1.5774851,0.24620795,-0.46339017,0.19477534,-0.86448371,0
-3.8314748,1.0472758,2.6242282,-0.5631454,0.68849796,0.45698771,0
3.9180765,2.7543263,-1.5764227,0.68420523,0.69859362,-0.20935637,0
-2.6804743,2.476023,1.4563252,-0.46339017,0.19477534,-0.86448371,0
3.9993215,2.63464,-2.0960689,0.68420523,0.69859362,-0.20935637,0
-0.30904949,-2.8900776,-1.1528606,-0.46339017,0.19477534,-0.86448371,0
-1.2144471,-1.9891683,0.81588435,0.46339017,-0.19477534,0.86448371,0
0.0067145824,4.9638329,1.1454272,-0.5631454,0.68849796,0.45698771,0
4.3144341,2.5289695,-1.6618824,0.68420523,0.69859362,-0.20935637,0
-2.3466659,-2.2060664,1.3613698,0.46339017,-0.19477534,0.86448371,0
-4.3892674,-1.6102706,1.3778992,-0.46339017,0.19477534,-0.86448371,0
1.3735616,-3.37217,-1.956463,0.5631454,-0.68849796,-0.45698771,0
0.36526084,-4.9099693,-0.76559782,0.5631454,-0.68849796,-0.45698771,0
-3.9052467,-2.836535,1.8889022,-0.68420523,-0.69859362,0.20935637,0
1.1895969,6.0268736,0.38924837,0.68420523,0.69859362,-0.20935637,0
3.8749011,2.6507149,-0.94753551,0.46339017,-0.19477534,0.86448371,0
1.3079331,6.2062988,0.65954113,0.68420523,0.69859362,-0.20935637,0
-0.83634472,-6.0245428,-0.92410851,0.5631454,-0.68849796,-0.45698771,0
0.61240506,5.9442306,0.75461674,-0.5631454,0.68849796,0.45698771,0
4.7398715,2.0391254,-1.7992554,0.68420523,0.69859362,-0.20935637,0
-4.0320063,-1.0477061,1.3429506,-0.46339017,0.19477534,-0.86448371,0
4.5103536,-0.72671998,-2.1672318,0.5631454,-0.68849796,-0.45698771,0
0.64346123,5.3304038,1.4511418,-0.5631454,0.68849796,0.45698771,0
1.351403,5.8322582,-0.027554035,0.68420523,0.69859362,-0.20935637,0
4.0944047,-0.46112758,-1.6300843,0.46339017,-0.19477534,0.86448371,0
1.846545,-0.023581445,-0.43073025,0.46339017,-0.19477534,0.86448371,0
1.2241735,-3.7759211,-1.4247012,0.5631454,-0.68849796,-0.45698771,0
-1.3263228,-6.0344377,-0.82791805,-0.68420523,-0.69859362,0.20935637,0
-0.98277688,3.7165701,1.8340983,-0.5631454,0.68849796,0.45698771,0
-1.5662799,3.5169859,1.546476,-0.5631454,0.68849796,0.45698771,0
-0.44420147,-5.9394693,-0.54692841,0.5631454,-0.68849796,-0.45698771,0
-0.93184733,-6.2238369,-0.49837971,0.5631454,-0.68849796,-0.45698771,0
-0.28837633,4.6032639,1.6120148,-0.5631454,0.68849796,0.45698771,0
-3.3383691,-3.390816,1.2783744,-0.68420523,-0.69859362,0.20935637,0
0.53553289,0.64207077,0.52805018,0.46339017,-0.19477534,0.86448371,0
3.3672037,3.6202066,-1.1813574,0.68420523,0.69859362,-0.20935637,0
-4.5871634,-2.0197351,2.452961,-0.68420523,-0.69859362,0.20935637,0
-0.60336131,-0.94963968,0.7226786,0.46339017,-0.19477534,0.86448371,0
-4.9363031,0.31327307,2.2764635,-0.5631454,0.68849796,0.45698771,0
-2.0676126,2.0422292,2.1878147,0.46339017,-0.19477534,0.86448371,0
-2.7550461,-4.1077867,1.0353785,-0.68420523,-0.69859362,0.20935637,0
4.3784657,2.4628277,-1.6102099,0.68420523,0.69859362,-0.20935637,0
-2.2982526,-0.83086115,0.3770895,-0.46339017,0.19477534,-0.86448371,0
-2.6698215,-4.3216906,0.49215126,-0.68420523,-0.69859362,0.20935637,0
-3.9823833,-3.0460572,1.1489291,-0.68420523,-0.69859362,0.20935637,0
1.8446143,-3.097075,-1.7254186,0.5631454,-0.68849796,-0.45698771,0
0.031391382,-3.3921912,-1.3693721,-0.46339017,0.19477534,-0.86448371,0
5.1767058,1.4340757,-1.7879364,0.46339017,-0.19477534,0.86448371,0
-4.2436905,-2.4578967,2.0729094,-0.68420523,-0.69859362,0.20935637,0
-1.5095806,-5.9028139,-0.80618572,-0.68420523,-0.69859362,0.20935637,0
-5.6069307,-0.39486194,2.6300786,-0.5631454,0.68849796,0.45698771,0
-4.9817638,-1.7623062,1.6901786,-0.68420523,-0.69859362,0.20935637,0
-1.7498777,-5.5389767,-0.61706305,-0.68420523,-0.69859362,0.20935637,0
4.1189013,2.7817223,-1.5827048,0.68420523,0.69859362,-0.20935637,0
-1.4090862,-5.6199875,0.048771381,0.46339017,-0.19477534,0.86448371,0
4.8941116,0.32678306,-1.8603789,0.46339017,-0.19477534,0.86448371,0
-4.6801796,0.43753964,2.1771967,-0.5631454,0.68849796,0.45698771,0
0.029831886,5.203619,0.89431047,-0.5631454,0.68849796,0.45698771,0
-5.038466,0.15878743,2.3989828,-0.5631454,0.68849796,0.45698771,0
1.4420183,-0.33136243,-0.1694181,0.46339017,-0.19477534,0.86448371,0
0.53519201,-4.5328255,-1.1596057,0.5631454,-0.68849796,-0.45698771,0
2.1107674,5.1267509,0.25051117,0.68420523,0.69859362,-0.20935637,0
-0.392766,-5.3240495,-1.0709419,0.5631454,-0.68849796,-0.45698771,0
4.7520781,1.990664,-1.9298556,0.68420523,0.69859362,-0.20935637,0
-3.8099899,-2.955591,1.8989618,-0.68420523,-0.69859362,0.20935637,0
2.3451862,-2.9199824,-1.6024024,0.5631454,-0.68849796,-0.45698771,0
1.0782721,6.3382778,0.384305,0.68420523,0.69859362,-0.20935637,0
4.6765947,1.995683,-2.0598819,0.68420523,0.69859362,-0.20935637,0
4.5629177,-0.21026519,-2.6440995,0.5631454,-0.68849796,-0.45698771,0
-3.5699058,-3.1950152,1.3527677,-0.68420523,-0.69859362,0.20935637,0
0.40198326,5.252244,1.2716026,-0.5631454,0.68849796,0.45698771,0
-0.25413299,3.9705436,0.44138598,-0.46339017,0.19477534,-0.86448371,0
-3.7353661,-3.0876226,1.5789957,-0.68420523,-0.69859362,0.20935637,0
-2.9351993,-4.2902384,0.15856123,-0.68420523,-0.69859362,0.20935637,0
4.4583435,-0.2292279,-2.8609507,0.5631454,-0.68849796,-0.45698771,0
0.15695077,-1.1060445,0.183429,0.46339017,-0.19477534,0.86448371,0
