1.7078508,-0.66639417,3.3202848,0.2045363,0.14203084,0.96849996,0
-0.25271738,1.7337902,-2.5029249,0.91264623,0.33004218,-0.24114141,0
1.204402,-1.2386984,3.5065801,0.2045363,0.14203084,0.96849996,0
1.4835713,-1.4601628,-0.93869954,0.91264623,0.33004218,-0.24114141,0
1.4847741,-2.6482294,1.2474737,0.35389531,-0.93321997,0.062118277,0
-1.7564172,1.6867403,-3.4303308,-0.2045363,-0.14203084,-0.96849996,0
1.7012534,-2.2470794,3.3839827,0.35389531,-0.93321997,0.062118277,0
2.0639195,-2.1163311,3.3431542,0.35389531,-0.93321997,0.062118277,0
0.031159014,-1.0829409,2.7232413,-0.91264623,-0.33004218,0.24114141,0
0.19667888,1.5023103,3.381602,0.2045363,0.14203084,0.96849996,0
2.0552745,-1.6869888,3.5108559,0.2045363,0.14203084,0.96849996,0
-1.5150728,0.48553395,-0.80648398,-0.91264623,-0.33004218,0.24114141,0
0.99664783,-2.7147684,-3.4140618,-0.2045363,-0.14203084,-0.96849996,0
-1.4440074,-0.2508257,-1.4142293,-0.91264623,-0.33004218,0.24114141,0
0.56871933,-0.40322593,-2.6352644,0.91264623,0.33004218,-0.24114141,0
-1.7134035,2.4246104,-1.5311211,-0.35389531,0.93321997,-0.062118277,0
-0.45391154,0.92085624,3.5542843,0.2045363,0.14203084,0.96849996,0
0.11294097,1.2799294,3.3785498,0.2045363,0.14203084,0.96849996,0
1.6451979,-2.3431883,2.119138,0.35389531,-0.93321997,0.062118277,0
-0.64785028,-0.12809487,-3.5217094,-0.2045363,-0.14203084,-0.96849996,0
1.2541842,-0.58907402,-0.074323893,0.91264623,0.33004218,-0.24114141,0
1.2936614,-1.9715682,3.6377239,0.2045363,0.14203084,0.96849996,0
-0.92172217,2.053668,-3.7533569,-0.2045363,-0.14203084,-0.96849996,0
0.49515772,3.2862451,2.5950098,0.91264623,0.33004218,-0.24114141,0
0.38985503,3.4593275,2.8026912,-0.35389531,0.93321997,-0.062118277,0
-1.7738152,1.3933527,-0.8796038,-0.91264623,-0.33004218,0.24114141,0
-1.3534285,1.7904041,-3.5937953,-0.2045363,-0.14203084,-0.96849996,0
0.66804028,-2.8479819,0.96247017,0.35389531,-0.93321997,0.062118277,0
2.2765007,-1.3573163,3.4321499,0.2045363,0.14203084,0.96849996,0
-0.012501776,-0.37470281,-3.5134234,-0.2045363,-0.14203084,-0.96849996,0
0.023989856,-0.56222403,-3.5078132,-0.2045363,-0.14203084,-0.96849996,0
0.1890893,-1.6176574,-3.4797359,-0.2045363,-0.14203084,-0.96849996,0
-0.38921452,3.0206196,-0.83247316,-0.35389531,0.93321997,-0.062118277,0
1.8309568,-1.3007501,1.1029106,0.91264623,0.33004218,-0.24114141,0
0.85139501,-2.8325143,-0.35246411,0.35389531,-0.93321997,0.062118277,0
-1.6389091,2.5176382,-0.50899279,-0.35389531,0.93321997,-0.062118277,0
-1.9943898,1.8114409,-0.91814709,-0.91264623,-0.33004218,0.24114141,0
1.2063276,1.3928332,2.0530698,0.91264623,0.33004218,-0.24114141,0
-1.1326184,3.0411723,2.7004118,-0.35389531,0.93321997,-0.062118277,0
1.8023368,-2.4001052,1.7261467,0.35389531,-0.93321997,0.062118277,0
-0.64701182,-1.0566763,0.40335441,-0.91264623,-0.33004218,0.24114141,0
2.0181069,-2.279254,3.0914903,0.35389531,-0.93321997,0.062118277,0
2.3972895,-2.1549201,2.0582759,0.35389531,-0.93321997,0.062118277,0
0.51115119,2.6674256,1.6218997,0.91264623,0.33004218,-0.24114141,0
1.1006809,1.953258,3.1415639,0.2045363,0.14203084,0.96849996,0
-2.1492543,2.3947792,-0.95502031,-0.35389531,0.93321997,-0.062118277,0
-2.1575613,2.4148211,-1.3186307,-0.35389531,0.93321997,-0.062118277,0
-0.59059918,1.3897886,3.569025,0.2045363,0.14203084,0.96849996,0
-0.99524856,1.3567977,2.0968392,-0.91264623,-0.33004218,0.24114141,0
-1.3909611,2.5418408,-1.0712253,-0.35389531,0.93321997,-0.062118277,0
0.56461298,-0.45483279,-2.8700864,0.91264623,0.33004218,-0.24114141,0
2.2413373,-1.2579563,3.3444111,0.2045363,0.14203084,0.96849996,0
-0.83243227,2.9754071,2.5715172,-0.35389531,0.93321997,-0.062118277,0
-0.27127254,0.12219834,-3.5674272,-0.2045363,-0.14203084,-0.96849996,0
0.918383,-2.7277105,3.2505407,0.35389531,-0.93321997,0.062118277,0
0.48197976,0.45803636,-1.5927908,0.91264623,0.33004218,-0.24114141,0
2.6160078,-1.8099446,3.3895183,0.2045363,0.14203084,0.96849996,0
-1.051667,2.6696568,-3.0286694,-0.35389531,0.93321997,-0.062118277,0
-0.31889057,1.0146475,3.4693027,0.2045363,0.14203084,0.96849996,0
-2.0124104,2.3928061,-1.9336853,-0.35389531,0.93321997,-0.062118277,0
0.30729687,-2.9769297,0.9901126,0.35389531,-0.93321997,0.062118277,0
0.79423606,-2.6529005,3.2468431,0.35389531,-0.93321997,0.062118277,0
-1.4376798,1.7318213,-3.6010408,-0.2045363,-0.14203084,-0.96849996,0
-1.2147057,2.7367444,1.0941713,-0.35389531,0.93321997,-0.062118277,0
-1.2973508,1.5283175,1.4289387,-0.91264623,-0.33004218,0.24114141,0
1.0142229,1.8747977,2.2173297,0.91264623,0.33004218,-0.24114141,0
0.60252512,-2.1196611,3.788527,-0.91264623,-0.33004218,0.24114141,0
-0.53000695,1.0200781,-3.7060399,-0.2045363,-0.14203084,-0.96849996,0
0.39778611,1.3254642,-0.61164218,0.91264623,0.33004218,-0.24114141,0
-0.77848798,0.43923742,-3.4131703,-0.2045363,-0.14203084,-0.96849996,0
-0.43716502,2.2968409,3.4400699,0.2045363,0.14203084,0.96849996,0
0.46932566,2.2597935,3.2695339,0.2045363,0.14203084,0.96849996,0
-0.77797771,-2.2300832,-3.0865736,-0.2045363,-0.14203084,-0.96849996,0
1.844735,0.3684361,3.1151443,0.2045363,0.14203084,0.96849996,0
1.2674366,-2.6498508,0.71614718,0.35389531,-0.93321997,0.062118277,0
-0.19685638,2.8439202,-0.62862098,0.91264623,0.33004218,-0.24114141,0
0.6785481,-2.6938622,2.952445,0.35389531,-0.93321997,0.062118277,0
0.01081264,-1.7423899,1.8667161,-0.91264623,-0.33004218,0.24114141,0
-1.5845828,0.60740542,-1.1045451,-0.91264623,-0.33004218,0.24114141,0
-0.71623755,0.55954021,-3.5331333,-0.2045363,-0.14203084,-0.96849996,0
1.9072814,-2.0789917,3.5457065,0.2045363,0.14203084,0.96849996,0
-1.4093143,2.3006496,-3.6027851,-0.2045363,-0.14203084,-0.96849996,0
-1.1543241,0.65058589,0.55995327,-0.91264623,-0.33004218,0.24114141,0
0.54065281,-0.3081556,3.6181936,0.2045363,0.14203084,0.96849996,0
-0.66952246,-2.2882366,-3.067971,-0.2045363,-0.14203084,-0.96849996,0
0.1285404,-1.2365687,-3.48296,-0.2045363,-0.14203084,-0.96849996,0
0.5823853,0.84264702,-0.77201819,0.91264623,0.33004218,-0.24114141,0
-0.27797991,0.13565648,3.4953575,-0.91264623,-0.33004218,0.24114141,0
0.66909373,-0.90234262,3.6649239,0.2045363,0.14203084,0.96849996,0
-0.96526122,-0.12263787,0.66234487,-0.91264623,-0.33004218,0.24114141,0
-1.1102364,2.9724734,2.0504882,-0.35389531,0.93321997,-0.062118277,0
0.50533605,0.62944168,3.4936883,0.2045363,0.14203084,0.96849996,0
0.92875576,-2.9512374,-0.57846284,0.35389531,-0.93321997,0.062118277,0
-0.0082994699,1.7790532,3.4263339,0.2045363,0.14203084,0.96849996,0
0.30617744,0.75736099,-1.5652833,0.91264623,0.33004218,-0.24114141,0
1.4819548,-2.6316326,1.4646715,0.35389531,-0.93321997,0.062118277,0
-1.2340783,-0.67315692,-1.5582865,-0.91264623,-0.33004218,0.24114141,0
-1.389015,-0.086555779,-3.3749452,-0.2045363,-0.14203084,-0.96849996,0
-1.1675231,-0.27022123,-0.24810237,-0.91264623,-0.33004218,0.24114141,0
0.8864789,1.2056825,1.0347934,0.91264623,0.33004218,-0.24114141,0
-1.74983,2.3786676,-1.8468704,-0.35389531,0.93321997,-0.062118277,0
-1.4879668,2.0120397,-3.6466279,-0.2045363,-0.14203084,-0.96849996,0
-0.70036173,0.091256738,1.2338998,-0.91264623,-0.33004218,0.24114141,0
-0.27185619,2.2623003,-2.158566,0.91264623,0.33004218,-0.24114141,0
0.47206521,-2.7568877,-3.220571,-0.2045363,-0.14203084,-0.96849996,0
0.79240924,-0.51153743,-1.7174611,0.91264623,0.33004218,-0.24114141,0
1.6798753,-2.4722524,0.32208249,0.35389531,-0.93321997,0.062118277,0
-2.0404358,2.014781,-3.5286102,-0.2045363,-0.14203084,-0.96849996,0
-0.62884104,3.001611,-1.1591717,-0.35389531,0.93321997,-0.062118277,0
-1.3095527,2.8027809,2.6731329,-0.35389531,0.93321997,-0.062118277,0
0.46543026,-0.81645811,-3.1237557,0.91264623,0.33004218,-0.24114141,0
-1.1163948,-0.81596798,-3.2075109,-0.2045363,-0.14203084,-0.96849996,0
0.099252462,3.4773424,3.1165342,0.2045363,0.14203084,0.96849996,0
1.4669183,-1.1028107,3.5337348,0.2045363,0.14203084,0.96849996,0
0.46573937,2.9259603,3.0559473,0.2045363,0.14203084,0.96849996,0
0.89093661,-2.389204,-3.5487585,-0.2045363,-0.14203084,-0.96849996,0
1.4117346,-0.52795374,0.21963486,0.91264623,0.33004218,-0.24114141,0
1.1247551,-2.9061522,-1.8830882,0.35389531,-0.93321997,0.062118277,0
-1.3096964,-1.5674667,-2.9897971,-0.91264623,-0.33004218,0.24114141,0
-0.6825428,3.1647766,2.6966624,-0.35389531,0.93321997,-0.062118277,0
1.4225955,-2.5500407,2.5305943,0.35389531,-0.93321997,0.062118277,0
-1.1731496,0.31668785,0.29158297,-0.91264623,-0.33004218,0.24114141,0
1.0712312,-2.5527027,3.7027361,0.2045363,0.14203084,0.96849996,0
1.5667738,0.087981999,2.1151402,0.91264623,0.33004218,-0.24114141,0
-0.024779975,-1.3830838,2.4953272,-0.91264623,-0.33004218,0.24114141,0
-0.42848295,-2.1844625,-0.47543877,-0.91264623,-0.33004218,0.24114141,0
-1.5223639,2.5534689,-0.18698636,-0.35389531,0.93321997,-0.062118277,0
-1.1020552,2.1907539,-3.7565148,-0.2045363,-0.14203084,-0.96849996,0
0.45267379,-1.7408466,-3.5435205,-0.2045363,-0.14203084,-0.96849996,0
1.4945443,-2.5003109,2.3043065,0.35389531,-0.93321997,0.062118277,0
1.8879598,-1.4094791,1.2501736,0.91264623,0.33004218,-0.24114141,0
1.0350533,-0.26226684,-0.53146416,0.91264623,0.33004218,-0.24114141,0
0.53841603,-0.46468359,-3.0525565,0.91264623,0.33004218,-0.24114141,0
-0.99196243,0.64537245,1.1056161,-0.91264623,-0.33004218,0.24114141,0
1.4356961,1.0545726,2.3512821,0.91264623,0.33004218,-0.24114141,0
-0.52199149,3.1867323,2.7501783,-0.35389531,0.93321997,-0.062118277,0
1.0146149,1.5837172,3.1154337,0.2045363,0.14203084,0.96849996,0
0.37867975,3.1476321,1.9364845,0.91264623,0.33004218,-0.24114141,0
-1.7778753,-0.02243638,-3.1774325,-0.2045363,-0.14203084,-0.96849996,0
-1.1462339,-1.116658,-1.7670943,-0.91264623,-0.33004218,0.24114141,0
0.81469625,1.1643192,3.1688778,0.2045363,0.14203084,0.96849996,0
-0.7013936,-1.8756361,-0.66022456,-0.91264623,-0.33004218,0.24114141,0
-1.8209677,0.79553878,-1.7296015,-0.91264623,-0.33004218,0.24114141,0
1.6309571,-0.95876878,3.3303232,0.2045363,0.14203084,0.96849996,0
1.9307253,-1.2958686,3.3490036,0.2045363,0.14203084,0.96849996,0
-0.9605689,1.1094714,-3.5418317,-0.2045363,-0.14203084,-0.96849996,0
-0.37811065,-1.9248915,-0.32560903,-0.91264623,-0.33004218,0.24114141,0
-0.87766886,2.9146881,0.90359509,-0.35389531,0.93321997,-0.062118277,0
0.85382092,-1.4705575,-3.1912379,0.91264623,0.33004218,-0.24114141,0
1.3920007,-0.54895037,0.17579043,0.91264623,0.33004218,-0.24114141,0
2.3227453,-2.2006443,1.670126,0.35389531,-0.93321997,0.062118277,0
2.0229938,-0.254978,3.3128059,0.2045363,0.14203084,0.96849996,0
-1.4947332,2.5726762,-1.0258026,-0.35389531,0.93321997,-0.062118277,0
2.2398608,-1.5188713,3.4002962,0.2045363,0.14203084,0.96849996,0
0.11941361,1.7429763,-1.4569685,0.91264623,0.33004218,-0.24114141,0
-0.2810452,0.85122442,3.6252227,0.2045363,0.14203084,0.96849996,0
1.7415451,-2.5172782,0.48253149,0.35389531,-0.93321997,0.062118277,0
0.96536481,-2.7433069,2.4990809,0.35389531,-0.93321997,0.062118277,0
-0.89937425,2.8700242,0.79704857,-0.35389531,0.93321997,-0.062118277,0
-0.10391235,-2.5229006,-3.3103933,-0.2045363,-0.14203084,-0.96849996,0
-0.79451746,-0.61892068,-0.052391492,-0.91264623,-0.33004218,0.24114141,0
0.30000731,0.23498309,-3.0478764,0.91264623,0.33004218,-0.24114141,0
-1.012482,0.3830862,-3.5057013,-0.2045363,-0.14203084,-0.96849996,0
-1.2661396,2.3974409,-3.7878354,-0.2045363,-0.14203084,-0.96849996,0
-0.95853209,1.5186871,2.9912894,-0.91264623,-0.33004218,0.24114141,0
1.335344,-1.7588644,3.5435023,0.2045363,0.14203084,0.96849996,0
1.5793113,-0.047982097,1.3709693,0.91264623,0.33004218,-0.24114141,0
0.86602402,-1.986994,-3.5762813,0.91264623,0.33004218,-0.24114141,0
1.3780771,-2.2337856,-2.3844059,0.91264623,0.33004218,-0.24114141,0
-1.8789067,0.95009315,-3.4175401,-0.2045363,-0.14203084,-0.96849996,0
-1.3587787,-0.88096333,-2.3573961,-0.91264623,-0.33004218,0.24114141,0
-0.026593804,2.7360315,3.2212174,0.2045363,0.14203084,0.96849996,0
0.79690069,0.17248458,-1.2916355,0.91264623,0.33004218,-0.24114141,0
1.7146742,-2.4674058,1.69523,0.35389531,-0.93321997,0.062118277,0
0.44475079,-1.4495516,-3.4443626,-0.2045363,-0.14203084,-0.96849996,0
0.49435353,-3.0007765,-1.199924,0.35389531,-0.93321997,0.062118277,0
-0.84116209,2.6806622,-3.3290501,-0.35389531,0.93321997,-0.062118277,0
1.1895066,-2.1099722,-2.2652502,0.91264623,0.33004218,-0.24114141,0
1.7196933,-2.4712687,2.5789571,0.35389531,-0.93321997,0.062118277,0
-0.15006432,-1.1391906,2.1139452,-0.91264623,-0.33004218,0.24114141,0
-1.7428795,2.4655201,-1.2763362,-0.35389531,0.93321997,-0.062118277,0
-1.7689017,2.4573886,-1.1643106,-0.35389531,0.93321997,-0.062118277,0
-0.025094599,-0.94574666,2.3463058,-0.91264623,-0.33004218,0.24114141,0
-1.4349161,1.5362833,-3.4865627,-0.2045363,-0.14203084,-0.96849996,0
-1.0616789,2.826314,-0.62898111,-0.35389531,0.93321997,-0.062118277,0
-1.7350715,0.19521022,-3.2980194,-0.2045363,-0.14203084,-0.96849996,0
-0.84028989,0.6263864,-3.5690184,-0.2045363,-0.14203084,-0.96849996,0
-1.0937769,2.9422779,3.3343787,-0.35389531,0.93321997,-0.062118277,0
-0.94307399,2.7082961,3.3396671,0.2045363,0.14203084,0.96849996,0
2.2427957,-2.1890223,1.5736898,0.91264623,0.33004218,-0.24114141,0
-0.14766413,1.0151331,3.3942215,0.2045363,0.14203084,0.96849996,0
1.1147993,-0.84503359,-1.3764645,0.91264623,0.33004218,-0.24114141,0
-0.098672628,-3.0816653,-3.0837102,-0.2045363,-0.14203084,-0.96849996,0
1.6391315,-0.23856646,2.1028996,0.91264623,0.33004218,-0.24114141,0
-1.6055914,1.0582627,-3.4193392,-0.2045363,-0.14203084,-0.96849996,0
-1.0084498,2.9783554,2.8652651,-0.35389531,0.93321997,-0.062118277,0
-0.82127416,-0.80728281,-3.3645961,-0.2045363,-0.14203084,-0.96849996,0
-0.77101576,2.7596102,-2.3201449,-0.35389531,0.93321997,-0.062118277,0
0.77084279,1.2025203,3.3207834,0.2045363,0.14203084,0.96849996,0
-0.67550361,1.3518338,3.0268672,-0.91264623,-0.33004218,0.24114141,0
-0.50513101,3.2192223,2.2801802,-0.35389531,0.93321997,-0.062118277,0
-0.56440294,-3.4560483,-3.0599773,-0.2045363,-0.14203084,-0.96849996,0
-0.23260763,1.2474685,-3.5769727,0.91264623,0.33004218,-0.24114141,0
-0.88721335,2.2499309,3.4393415,0.2045363,0.14203084,0.96849996,0
1.677422,-1.0642751,0.6637941,0.91264623,0.33004218,-0.24114141,0
1.0877205,-2.4577219,3.7286429,0.2045363,0.14203084,0.96849996,0
0.42892957,1.2665339,-1.046856,0.91264623,0.33004218,-0.24114141,0
1.4222248,-0.056679428,1.0670621,0.91264623,0.33004218,-0.24114141,0
1.4027714,-0.38750556,0.74181724,0.91264623,0.33004218,-0.24114141,0
1.6190398,-1.1064372,3.3885436,0.2045363,0.14203084,0.96849996,0
0.10535669,-3.19947,-1.3565778,0.35389531,-0.93321997,0.062118277,0
1.4844675,0.2158227,2.0715196,0.91264623,0.33004218,-0.24114141,0
-0.854375,2.8350363,-2.0670638,-0.35389531,0.93321997,-0.062118277,0
0.13174796,-2.7622838,-3.1609786,-0.2045363,-0.14203084,-0.96849996,0
0.36907613,2.440028,3.2474861,0.2045363,0.14203084,0.96849996,0
-1.2627294,-1.3615723,-3.2103209,-0.2045363,-0.14203084,-0.96849996,0
1.3464686,-2.5964587,2.2603416,0.35389531,-0.93321997,0.062118277,0
0.032903194,3.2923336,1.225533,-0.35389531,0.93321997,-0.062118277,0
0.76709211,-0.56870091,-2.3004916,0.91264623,0.33004218,-0.24114141,0
2.3024693,-2.2390728,1.4085801,0.35389531,-0.93321997,0.062118277,0
2.3316259,-1.5504794,2.748383,0.91264623,0.33004218,-0.24114141,0
-2.1551309,1.3939322,-2.3811247,-0.91264623,-0.33004218,0.24114141,0
-0.021513224,2.1819968,3.2797346,0.2045363,0.14203084,0.96849996,0
-2.3699453,0.98062056,-3.1470115,-0.91264623,-0.33004218,0.24114141,0
0.68522072,-2.4976039,-3.3657038,-0.2045363,-0.14203084,-0.96849996,0
-0.20755428,-1.303105,-3.3152716,-0.2045363,-0.14203084,-0.96849996,0
1.8724577,-2.3557239,3.2250676,0.35389531,-0.93321997,0.062118277,0
-1.0828658,2.1308901,3.2747831,-0.91264623,-0.33004218,0.24114141,0
-0.14757623,0.39651209,-3.5404444,-0.2045363,-0.14203084,-0.96849996,0
2.2702403,-1.5284574,3.3001161,0.2045363,0.14203084,0.96849996,0
0.0082324445,-0.92299026,2.7928047,-0.91264623,-0.33004218,0.24114141,0
-1.5087054,0.47904208,-0.59816593,-0.91264623,-0.33004218,0.24114141,0
0.72885096,0.19586742,-0.95829493,0.91264623,0.33004218,-0.24114141,0
1.7267295,-2.279146,3.0731926,0.35389531,-0.93321997,0.062118277,0
1.6688635,-0.94001055,3.3626428,0.2045363,0.14203084,0.96849996,0
-2.3430114,0.99397653,-3.2321947,-0.2045363,-0.14203084,-0.96849996,0
0.77883542,3.1135709,2.911211,0.2045363,0.14203084,0.96849996,0
-0.58200616,-0.46815845,-3.3374295,-0.2045363,-0.14203084,-0.96849996,0
-1.5802259,2.5919552,-0.63237,-0.35389531,0.93321997,-0.062118277,0
1.8850532,-2.3624883,3.3075638,0.35389531,-0.93321997,0.062118277,0
0.51808083,-1.8251359,-3.5454168,-0.2045363,-0.14203084,-0.96849996,0
-1.0743662,2.5530503,-2.6736996,-0.35389531,0.93321997,-0.062118277,0
1.2564447,-0.53599191,3.4448581,0.2045363,0.14203084,0.96849996,0
0.704638,2.5939083,3.0453091,0.2045363,0.14203084,0.96849996,0
-0.034868002,3.4478939,2.1957595,-0.35389531,0.93321997,-0.062118277,0
0.91052681,-1.7811991,3.5988133,0.2045363,0.14203084,0.96849996,0
2.5592504,-2.1151443,2.6615324,0.35389531,-0.93321997,0.062118277,0
1.7996299,-2.4125118,1.2921813,0.35389531,-0.93321997,0.062118277,0
0.038915634,-2.379539,-3.3606369,-0.2045363,-0.14203084,-0.96849996,0
0.090784788,3.2789407,2.0203869,-0.35389531,0.93321997,-0.062118277,0
-1.0073339,-0.68608665,-3.3080132,-0.2045363,-0.14203084,-0.96849996,0
0.9134208,-0.15770647,-0.73232174,0.91264623,0.33004218,-0.24114141,0
-2.52737,2.0836031,-3.1705775,-0.35389531,0.93321997,-0.062118277,0
-1.8141707,2.4636793,-1.9820089,-0.35389531,0.93321997,-0.062118277,0
-0.81752449,1.014532,-3.572109,-0.2045363,-0.14203084,-0.96849996,0
-1.103002,-1.9016856,-2.5038879,-0.91264623,-0.33004218,0.24114141,0
-1.1753867,1.8097315,-3.5368869,-0.2045363,-0.14203084,-0.96849996,0
-1.8234022,-0.014509678,-3.2349858,-0.2045363,-0.14203084,-0.96849996,0
-0.70828807,0.70468396,2.3947732,-0.91264623,-0.33004218,0.24114141,0
-0.82328153,2.7719803,-2.1259799,-0.35389531,0.93321997,-0.062118277,0
-1.3641074,-0.63762242,-1.8864343,-0.91264623,-0.33004218,0.24114141,0
0.3087157,-2.7568507,1.2718372,-0.91264623,-0.33004218,0.24114141,0
2.1966758,-2.3557403,1.6285136,0.35389531,-0.93321997,0.062118277,0
-0.37685442,3.2619662,1.7497751,-0.35389531,0.93321997,-0.062118277,0
-2.2505856,1.4700739,-2.4141827,-0.91264623,-0.33004218,0.24114141,0
-0.62507904,-0.75719613,0.55319309,-0.91264623,-0.33004218,0.24114141,0
1.2411437,-2.9067478,-3.3802476,0.35389531,-0.93321997,0.062118277,0
1.6753001,-0.39001113,3.3997943,0.2045363,0.14203084,0.96849996,0
-0.23794246,3.121007,0.14965463,-0.35389531,0.93321997,-0.062118277,0
-0.052312136,-3.2952924,-2.3597269,0.35389531,-0.93321997,0.062118277,0
0.58934236,-3.1192961,-1.4400847,0.35389531,-0.93321997,0.062118277,0
0.60018909,3.2552004,2.7784786,0.91264623,0.33004218,-0.24114141,0
1.5624704,-1.5665712,-0.099814951,0.91264623,0.33004218,-0.24114141,0
-0.96023321,2.5472727,-3.6707029,-0.35389531,0.93321997,-0.062118277,0
0.46919847,0.67640722,-1.4012176,0.91264623,0.33004218,-0.24114141,0
0.72622859,-0.14385155,-1.3398644,0.91264623,0.33004218,-0.24114141,0
0.44864273,-2.2499089,2.6828136,-0.91264623,-0.33004218,0.24114141,0
-1.1085718,2.2553875,3.0865138,-0.91264623,-0.33004218,0.24114141,0
0.1732679,-0.61179703,3.6733248,0.2045363,0.14203084,0.96849996,0
-1.1036594,2.9576659,2.8583565,-0.35389531,0.93321997,-0.062118277,0
1.7629418,-2.4284387,2.9031463,0.35389531,-0.93321997,0.062118277,0
-0.2014699,-3.4920988,-3.0167484,0.35389531,-0.93321997,0.062118277,0
1.1844119,0.70407742,1.2606297,0.91264623,0.33004218,-0.24114141,0
0.10381919,-1.2511935,2.4805427,-0.91264623,-0.33004218,0.24114141,0
0.52861571,-2.9523084,-0.10292578,0.35389531,-0.93321997,0.062118277,0
0.17164803,-3.3291943,-2.8017285,0.35389531,-0.93321997,0.062118277,0
0.23524356,-2.691505,-3.2738161,-0.2045363,-0.14203084,-0.96849996,0
0.52985346,3.4725604,2.9913888,0.2045363,0.14203084,0.96849996,0
-1.6702591,0.65525579,-3.4333975,-0.2045363,-0.14203084,-0.96849996,0
-1.7853708,2.4438977,-1.0428712,-0.35389531,0.93321997,-0.062118277,0
2.0250087,-2.0356522,0.79414868,0.91264623,0.33004218,-0.24114141,0
2.3155026,-2.1427188,1.6200907,0.91264623,0.33004218,-0.24114141,0
1.0947573,-2.9564734,-2.181056,0.35389531,-0.93321997,0.062118277,0
0.75144172,-1.5558498,-3.4501133,-0.2045363,-0.14203084,-0.96849996,0
0.88063407,-1.6974113,3.6940482,0.2045363,0.14203084,0.96849996,0
1.2867038,-2.713486,0.50768268,0.35389531,-0.93321997,0.062118277,0
-0.39282122,1.1337303,-3.6890602,-0.2045363,-0.14203084,-0.96849996,0
-2.2066717,2.2127674,-1.2314024,-0.91264623,-0.33004218,0.24114141,0
-0.29671913,-0.6831857,1.7764328,-0.91264623,-0.33004218,0.24114141,0
-1.8532124,0.70478159,-1.5062169,-0.91264623,-0.33004218,0.24114141,0
-0.73946953,3.1518412,3.4049079,0.2045363,0.14203084,0.96849996,0
-2.2672253,1.9063392,-1.6347991,-0.91264623,-0.33004218,0.24114141,0
1.2203513,-0.1839544,3.3261802,0.2045363,0.14203084,0.96849996,0
-0.59317541,3.0343065,2.1807084,-0.35389531,0.93321997,-0.062118277,0
0.99726319,-2.5315287,-3.5547819,-0.2045363,-0.14203084,-0.96849996,0
-0.19877613,1.0932033,-3.6452005,0.91264623,0.33004218,-0.24114141,0
-1.1753812,2.7782886,1.0911465,-0.35389531,0.93321997,-0.062118277,0
1.5785856,-2.4888296,0.6201821,0.35389531,-0.93321997,0.062118277,0
-1.9537739,0.99562454,-3.2646389,-0.2045363,-0.14203084,-0.96849996,0
1.3313696,0.34323835,3.2028019,0.2045363,0.14203084,0.96849996,0
-1.31364,2.571929,-0.94093585,-0.35389531,0.93321997,-0.062118277,0
-0.78177387,-0.98662841,-0.090397164,-0.91264623,-0.33004218,0.24114141,0
2.3200839,-2.2053623,2.4440484,0.35389531,-0.93321997,0.062118277,0
-2.0742505,0.40395665,-3.2969155,-0.2045363,-0.14203084,-0.96849996,0
-0.70181566,0.69777566,-3.4837229,-0.2045363,-0.14203084,-0.96849996,0
-1.9230119,2.3661642,-0.74667466,-0.35389531,0.93321997,-0.062118277,0
0.16247112,0.31160367,-3.1705883,0.91264623,0.33004218,-0.24114141,0
-1.0429503,2.7322438,-1.3724146,-0.35389531,0.93321997,-0.062118277,0
-0.62086558,3.0250461,0.10622448,-0.35389531,0.93321997,-0.062118277,0
-0.39907682,-2.4402215,-3.1680198,-0.2045363,-0.14203084,-0.96849996,0
-0.41806829,-0.91258317,-3.3880115,-0.2045363,-0.14203084,-0.96849996,0
-0.040938027,0.38216978,-3.6558988,-0.2045363,-0.14203084,-0.96849996,0
-1.1634519,-0.7769081,-3.2544432,-0.2045363,-0.14203084,-0.96849996,0
0.082640022,1.2400403,-2.2188866,0.91264623,0.33004218,-0.24114141,0
-1.9823263,2.4866805,-0.83668292,-0.35389531,0.93321997,-0.062118277,0
0.38059121,-0.36045676,-2.8858473,0.91264623,0.33004218,-0.24114141,0
-0.7327317,1.7554765,-3.6545203,-0.2045363,-0.14203084,-0.96849996,0
-0.75363243,2.8364635,-1.7107135,-0.35389531,0.93321997,-0.062118277,0
1.9607704,-2.3654165,0.35798776,0.35389531,-0.93321997,0.062118277,0
-1.0622604,-0.65343189,-3.2586803,-0.2045363,-0.14203084,-0.96849996,0
-0.203197,1.4189001,3.417417,0.2045363,0.14203084,0.96849996,0
-1.4485754,2.7421494,-0.13577887,-0.35389531,0.93321997,-0.062118277,0
0.47309041,-2.940465,0.47333524,0.35389531,-0.93321997,0.062118277,0
0.39907408,0.31565881,-2.2737958,0.91264623,0.33004218,-0.24114141,0
-1.5977283,0.99664944,-0.35815406,-0.91264623,-0.33004218,0.24114141,0
-0.17523885,-2.4995856,-3.1268702,-0.2045363,-0.14203084,-0.96849996,0
0.95683646,-2.948159,-2.2589099,0.35389531,-0.93321997,0.062118277,0
1.1919069,-2.8487062,-1.3132963,0.35389531,-0.93321997,0.062118277,0
-1.2426544,-0.077929825,-3.2571485,-0.2045363,-0.14203084,-0.96849996,0
0.38412797,-0.73246688,3.6263657,0.2045363,0.14203084,0.96849996,0
-1.3976403,0.11040717,-1.2321149,-0.91264623,-0.33004218,0.24114141,0
1.209898,-2.8222785,0.057824731,0.35389531,-0.93321997,0.062118277,0
0.056344986,3.4934864,3.0031929,-0.35389531,0.93321997,-0.062118277,0
-2.2209458,2.2923706,-1.5213051,-0.35389531,0.93321997,-0.062118277,0
1.3788638,-2.7214603,-0.60721743,0.35389531,-0.93321997,0.062118277,0
-0.0058223903,0.098728716,-3.5728109,-0.2045363,-0.14203084,-0.96849996,0
1.4638962,-1.9589076,-1.4578687,0.91264623,0.33004218,-0.24114141,0
-0.17882228,3.2457714,2.1914299,-0.35389531,0.93321997,-0.062118277,0
-0.40515649,-3.4374254,-3.1112928,-0.2045363,-0.14203084,-0.96849996,0
1.7905509,-0.35140643,2.4640732,0.91264623,0.33004218,-0.24114141,0
-2.1421738,2.3617406,-0.47882718,-0.35389531,0.93321997,-0.062118277,0
-0.033870101,2.5321662,3.1905742,0.2045363,0.14203084,0.96849996,0
1.0144162,1.5928953,2.2447619,0.91264623,0.33004218,-0.24114141,0
1.6431835,-2.5708444,1.4980575,0.35389531,-0.93321997,0.062118277,0
-1.5123403,2.6943021,1.8280607,-0.35389531,0.93321997,-0.062118277,0
0.12389165,-0.90275961,-3.6016996,-0.2045363,-0.14203084,-0.96849996,0
0.45851588,-3.1320548,-1.9116693,0.35389531,-0.93321997,0.062118277,0
-0.8326146,-2.4778137,-3.1467001,-0.2045363,-0.14203084,-0.96849996,0
0.75521278,-2.851958,2.3538427,0.35389531,-0.93321997,0.062118277,0
1.7787654,-2.6443038,-0.88732445,0.35389531,-0.93321997,0.062118277,0
0.035426632,-0.071442485,3.5574496,0.2045363,0.14203084,0.96849996,0
-0.58980894,3.0198801,1.0159853,-0.35389531,0.93321997,-0.062118277,0
0.97589481,0.73073864,0.25111794,0.91264623,0.33004218,-0.24114141,0
-2.3978114,1.9707534,-3.4751403,-0.2045363,-0.14203084,-0.96849996,0
1.0450935,-1.9720254,-2.9398563,0.91264623,0.33004218,-0.24114141,0
0.024812341,2.2006578,-1.1250062,0.91264623,0.33004218,-0.24114141,0
-1.4234159,2.7614083,1.437253,-0.35389531,0.93321997,-0.062118277,0
-0.56908119,1.6546228,3.5760908,0.2045363,0.14203084,0.96849996,0
-0.20813435,0.15099639,3.1699789,-0.91264623,-0.33004218,0.24114141,0
1.6400819,-0.82350081,3.3316302,0.2045363,0.14203084,0.96849996,0
0.91089821,-2.8869662,-0.62377584,0.35389531,-0.93321997,0.062118277,0
-2.4345634,1.7575569,-2.7494128,-0.91264623,-0.33004218,0.24114141,0
-0.80878973,2.6162457,-3.0771289,-0.35389531,0.93321997,-0.062118277,0
-0.72448397,-1.2451892,-3.312299,-0.2045363,-0.14203084,-0.96849996,0
-1.1630096,-1.3901203,-3.2574763,-0.2045363,-0.14203084,-0.96849996,0
1.6261399,-2.6149402,0.77803606,0.35389531,-0.93321997,0.062118277,0
1.8896117,-0.33220702,2.2047014,0.91264623,0.33004218,-0.24114141,0
-0.4951486,-2.0197787,-0.63518155,-0.91264623,-0.33004218,0.24114141,0
-0.81655431,3.0991447,1.4650178,-0.35389531,0.93321997,-0.062118277,0
2.0319581,-0.87631708,3.3524947,0.2045363,0.14203084,0.96849996,0
-0.94498342,-0.30948052,-3.3514817,-0.2045363,-0.14203084,-0.96849996,0
-0.52836728,2.6530573,3.2691052,0.2045363,0.14203084,0.96849996,0
1.8887135,-0.16840231,3.26351,0.2045363,0.14203084,0.96849996,0
-2.2254364,1.072534,-2.5793581,-0.91264623,-0.33004218,0.24114141,0
-1.2872702,-1.3889134,-2.2937124,-0.91264623,-0.33004218,0.24114141,0
1.3116901,-0.24285567,3.4560897,0.2045363,0.14203084,0.96849996,0
0.22928134,-0.9781518,3.6951799,-0.91264623,-0.33004218,0.24114141,0
-0.33842593,-1.5284879,0.92027169,-0.91264623,-0.33004218,0.24114141,0
-2.160471,1.8364977,-1.5681286,-0.91264623,-0.33004218,0.24114141,0
-1.9573213,2.1711056,-2.9231126,-0.35389531,0.93321997,-0.062118277,0
-0.12670225,-0.31279376,-3.520107,-0.2045363,-0.14203084,-0.96849996,0
0.99217194,-1.2960017,3.651412,0.2045363,0.14203084,0.96849996,0
-1.2785683,0.46972638,0.21650207,-0.91264623,-0.33004218,0.24114141,0
-0.19063233,-0.59201747,2.9090993,-0.91264623,-0.33004218,0.24114141,0
0.22617817,3.3981726,1.7624761,0.91264623,0.33004218,-0.24114141,0
0.3326689,-3.0312955,-0.39274722,0.35389531,-0.93321997,0.062118277,0
-0.59733903,-0.84751964,-3.4616933,-0.2045363,-0.14203084,-0.96849996,0
1.4731873,-1.4073396,-0.89632726,0.91264623,0.33004218,-0.24114141,0
-1.7803926,0.66771883,-3.372051,-0.2045363,-0.14203084,-0.96849996,0
1.340889,-2.7217653,-1.0634077,0.35389531,-0.93321997,0.062118277,0
-1.5307196,1.5711279,-3.5358677,-0.2045363,-0.14203084,-0.96849996,0
1.272691,-3.0249577,-3.4596345,0.35389531,-0.93321997,0.062118277,0
0.27819851,-1.2209784,3.6338902,0.2045363,0.14203084,0.96849996,0
-2.0972748,1.3486146,-1.6294836,-0.91264623,-0.33004218,0.24114141,0
1.3864694,0.3725546,3.2900686,0.2045363,0.14203084,0.96849996,0
2.2030795,-2.2616661,1.7200944,0.35389531,-0.93321997,0.062118277,0
0.2005026,-1.1399724,3.3438671,-0.91264623,-0.33004218,0.24114141,0
0.73460275,1.5657561,0.757249,0.91264623,0.33004218,-0.24114141,0
-1.0030975,2.9911146,2.1992393,-0.35389531,0.93321997,-0.062118277,0
-0.76517189,-0.60953355,-3.4055467,-0.2045363,-0.14203084,-0.96849996,0
-0.58091056,2.4777679,3.4088712,0.2045363,0.14203084,0.96849996,0
0.53065276,0.35826918,3.5286899,0.2045363,0.14203084,0.96849996,0
0.80574632,-2.9362323,-1.8393264,0.35389531,-0.93321997,0.062118277,0
-0.93216693,2.6014485,-3.6875253,-0.35389531,0.93321997,-0.062118277,0
0.51825583,-2.3071108,-3.2955177,-0.2045363,-0.14203084,-0.96849996,0
1.2270019,-2.6262398,-3.1272066,0.91264623,0.33004218,-0.24114141,0
-2.1520808,1.4798572,-3.3584821,-0.2045363,-0.14203084,-0.96849996,0
-0.3581866,-3.5019932,-1.7411435,0.35389531,-0.93321997,0.062118277,0
0.60782254,-1.9813107,-3.4944074,-0.2045363,-0.14203084,-0.96849996,0
-0.44613838,-2.8604782,-3.1482289,-0.2045363,-0.14203084,-0.96849996,0
-0.41101682,2.0595398,3.4503407,0.2045363,0.14203084,0.96849996,0
2.216866,-1.5230868,3.3618562,0.2045363,0.14203084,0.96849996,0
-0.28105664,3.1762142,-0.56222367,-0.35389531,0.93321997,-0.062118277,0
-0.57114935,3.0872943,3.3296764,0.2045363,0.14203084,0.96849996,0
0.24957502,2.6941571,0.41550976,0.91264623,0.33004218,-0.24114141,0
0.43342197,-2.941802,1.8037629,-0.91264623,-0.33004218,0.24114141,0
-0.86489999,-0.82194406,-3.2446797,-0.2045363,-0.14203084,-0.96849996,0
1.6195905,-0.1715064,1.6211059,0.91264623,0.33004218,-0.24114141,0
1.0509337,-2.7846673,-0.47504202,0.35389531,-0.93321997,0.062118277,0
-0.20534727,0.020397186,3.156394,-0.91264623,-0.33004218,0.24114141,0
-1.2919195,0.54516625,0.34303892,-0.91264623,-0.33004218,0.24114141,0
1.0104698,-0.0314776,3.3652458,0.2045363,0.14203084,0.96849996,0
2.0834813,-0.80399185,2.9715185,0.91264623,0.33004218,-0.24114141,0
1.3940654,-2.5823252,-2.1182718,0.91264623,0.33004218,-0.24114141,0
-0.80259418,2.5179696,3.4974229,0.2045363,0.14203084,0.96849996,0
1.0876637,-2.9560914,-1.7323383,0.35389531,-0.93321997,0.062118277,0
1.9493781,-2.1938562,3.0712266,0.35389531,-0.93321997,0.062118277,0
-0.50334948,-0.41912919,1.5273525,-0.91264623,-0.33004218,0.24114141,0
0.46282315,2.4176288,1.2634921,0.91264623,0.33004218,-0.24114141,0
0.19898081,3.3957825,2.9006577,-0.35389531,0.93321997,-0.062118277,0
0.91782385,-0.50418615,-1.2099192,0.91264623,0.33004218,-0.24114141,0
-0.0081363916,-2.8218727,0.59302849,-0.91264623,-0.33004218,0.24114141,0
-1.1768674,2.5821261,-1.6023352,-0.35389531,0.93321997,-0.062118277,0
1.2360997,-2.5347853,-2.6410544,0.91264623,0.33004218,-0.24114141,0
0.79458904,-2.2015264,3.7634835,0.2045363,0.14203084,0.96849996,0
0.80045033,-3.0157785,-2.5689936,0.35389531,-0.93321997,0.062118277,0
-2.0235033,2.3833232,-0.83178651,-0.35389531,0.93321997,-0.062118277,0
-1.4470613,-1.2484396,-3.0336502,-0.2045363,-0.14203084,-0.96849996,0
-1.2587633,2.8780873,2.5438669,-0.35389531,0.93321997,-0.062118277,0
2.1880102,-0.51554096,3.0483148,0.91264623,0.33004218,-0.24114141,0
-0.46999609,3.0083477,-0.63798648,-0.35389531,0.93321997,-0.062118277,0
-2.1797962,2.0782135,-3.4293573,-0.2045363,-0.14203084,-0.96849996,0
1.2582624,-2.9049349,-1.8614689,0.35389531,-0.93321997,0.062118277,0
0.27981865,-2.2621377,2.0914409,-0.91264623,-0.33004218,0.24114141,0
-0.20230201,0.57097977,-3.5682683,-0.2045363,-0.14203084,-0.96849996,0
-0.10719562,-0.56566799,-3.4612494,-0.2045363,-0.14203084,-0.96849996,0
1.754609,-1.1461219,3.3723512,0.2045363,0.14203084,0.96849996,0
-0.91742545,-2.044107,-2.0887394,-0.91264623,-0.33004218,0.24114141,0
-1.8303802,1.8156526,-0.4099347,-0.91264623,-0.33004218,0.24114141,0
0.2817781,-3.2221267,-1.0468884,0.35389531,-0.93321997,0.062118277,0
-2.4235747,1.6548473,-3.4451919,-0.2045363,-0.14203084,-0.96849996,0
0.045568466,3.2963009,2.0369499,-0.35389531,0.93321997,-0.062118277,0
2.0285971,-2.1775043,0.9085111,0.91264623,0.33004218,-0.24114141,0
-0.66557777,-2.3777804,-1.4934555,-0.91264623,-0.33004218,0.24114141,0
-2.3661828,1.5747322,-2.897783,-0.91264623,-0.33004218,0.24114141,0
-0.67434931,3.2135651,2.2577677,-0.35389531,0.93321997,-0.062118277,0
1.8749945,-1.6564729,0.52137262,0.91264623,0.33004218,-0.24114141,0
0.22714102,-2.2828555,-3.2798765,-0.2045363,-0.14203084,-0.96849996,0
1.7035143,-1.9527816,3.6214488,0.2045363,0.14203084,0.96849996,0
-0.15093963,0.82565045,-3.6464195,-0.2045363,-0.14203084,-0.96849996,0
-0.99265361,2.7331102,-2.2850108,-0.35389531,0.93321997,-0.062118277,0
0.54387999,-1.8902562,-3.4452355,-0.2045363,-0.14203084,-0.96849996,0
0.80548692,-3.0494483,-0.68114609,0.35389531,-0.93321997,0.062118277,0
-1.2612042,0.3139388,-3.3763824,-0.2045363,-0.14203084,-0.96849996,0
0.0024540722,-0.88862848,3.080399,-0.91264623,-0.33004218,0.24114141,0
-0.41890514,-1.958707,-3.3020749,-0.2045363,-0.14203084,-0.96849996,0
-1.1244037,2.604506,3.3333931,-0.91264623,-0.33004218,0.24114141,0
-0.82625759,2.6139777,-3.4308503,-0.35389531,0.93321997,-0.062118277,0
0.79915667,-3.0701151,-1.7686728,0.35389531,-0.93321997,0.062118277,0
2.4958105,-1.2400818,3.2043347,0.91264623,0.33004218,-0.24114141,0
1.1062635,-1.9744027,-3.0059345,0.91264623,0.33004218,-0.24114141,0
1.4897883,-2.4984417,-2.2038016,0.91264623,0.33004218,-0.24114141,0
-0.90777397,1.169248,-3.5666227,-0.2045363,-0.14203084,-0.96849996,0
0.067351043,1.3277652,-2.4657652,0.91264623,0.33004218,-0.24114141,0
-0.98605144,1.4230521,2.4283352,-0.91264623,-0.33004218,0.24114141,0
0.92678833,-2.8680258,1.3568372,0.35389531,-0.93321997,0.062118277,0
-1.8797767,2.5662453,0.16450563,-0.35389531,0.93321997,-0.062118277,0
-0.52149934,-0.76761395,0.94299644,-0.91264623,-0.33004218,0.24114141,0
0.0010933876,3.3464758,2.4245846,-0.35389531,0.93321997,-0.062118277,0
-1.6271486,-0.57895905,-2.3909941,-0.91264623,-0.33004218,0.24114141,0
2.1947384,-1.4267821,1.9553123,0.91264623,0.33004218,-0.24114141,0
-0.2457931,-2.606375,-0.039968193,-0.91264623,-0.33004218,0.24114141,0
-1.59438,1.2300324,0.18029934,-0.91264623,-0.33004218,0.24114141,0
1.4753617,0.78197145,3.2665753,0.2045363,0.14203084,0.96849996,0
1.1029125,-1.0829923,-1.1527562,0.91264623,0.33004218,-0.24114141,0
0.13992909,0.79865807,-2.2953274,0.91264623,0.33004218,-0.24114141,0
1.8327888,-0.20955241,2.3959692,0.91264623,0.33004218,-0.24114141,0
1.25466,-2.2737451,3.6326525,0.2045363,0.14203084,0.96849996,0
-0.71009237,0.61140299,2.0324271,-0.91264623,-0.33004218,0.24114141,0
-1.5665499,2.0417676,1.0124524,-0.91264623,-0.33004218,0.24114141,0
-1.6111037,-0.44477487,-3.2413654,-0.2045363,-0.14203084,-0.96849996,0
-2.1010966,2.111969,-3.4192798,-0.35389531,0.93321997,-0.062118277,0
-1.4552801,2.7793565,0.48937109,-0.35389531,0.93321997,-0.062118277,0
-0.70643783,3.1739585,2.218523,-0.35389531,0.93321997,-0.062118277,0
1.4860268,0.16187984,3.2285242,0.2045363,0.14203084,0.96849996,0
1.7568144,-2.4594111,1.4676726,0.35389531,-0.93321997,0.062118277,0
-1.0878601,-1.5087136,-3.0738034,-0.2045363,-0.14203084,-0.96849996,0
-1.5705757,0.061369061,-3.3067169,-0.2045363,-0.14203084,-0.96849996,0
2.2425916,-1.2465063,2.2349825,0.91264623,0.33004218,-0.24114141,0
-0.74645758,2.5280192,-3.6565866,0.91264623,0.33004218,-0.24114141,0
0.23410773,2.8153503,3.1177559,0.2045363,0.14203084,0.96849996,0
1.7588769,-2.3860853,3.3103745,0.35389531,-0.93321997,0.062118277,0
2.2176008,-1.8200972,2.149416,0.91264623,0.33004218,-0.24114141,0
-1.1114826,-1.0583467,-3.2961757,-0.2045363,-0.14203084,-0.96849996,0
-0.46850681,2.6149116,-2.6439686,0.91264623,0.33004218,-0.24114141,0
0.73162043,-2.4322407,3.3732266,-0.91264623,-0.33004218,0.24114141,0
-1.7097799,-0.27021211,-3.2133255,-0.2045363,-0.14203084,-0.96849996,0
1.4656897,-1.7595528,3.5512233,0.2045363,0.14203084,0.96849996,0
-2.452481,1.4144413,-3.2010803,-0.2045363,-0.14203084,-0.96849996,0
-0.76014233,-2.9301107,-2.7257347,-0.91264623,-0.33004218,0.24114141,0
-1.0151652,2.1812172,-3.6951644,-0.2045363,-0.14203084,-0.96849996,0
-0.72361648,-3.1485224,-2.8960183,-0.91264623,-0.33004218,0.24114141,0
-1.6767622,2.4898691,-2.9114461,-0.35389531,0.93321997,-0.062118277,0
1.69876,0.70811546,2.9590187,0.91264623,0.33004218,-0.24114141,0
-1.7858038,2.3676848,-2.5380034,-0.35389531,0.93321997,-0.062118277,0
1.2964356,-2.5800066,1.3703877,0.35389531,-0.93321997,0.062118277,0
1.0171415,-2.3594277,-3.4943306,-0.2045363,-0.14203084,-0.96849996,0
1.6471952,0.53891176,3.1482532,0.2045363,0.14203084,0.96849996,0
0.35594702,3.4185555,1.8766842,0.91264623,0.33004218,-0.24114141,0
-0.57325828,-3.4537368,-2.7337515,-0.91264623,-0.33004218,0.24114141,0
-0.47694039,2.9361267,-0.63588196,-0.35389531,0.93321997,-0.062118277,0
-0.74711013,3.0156305,3.265218,0.2045363,0.14203084,0.96849996,0
0.038768768,3.4376671,3.0628333,0.2045363,0.14203084,0.96849996,0
0.13470286,1.5410335,-1.3646435,0.91264623,0.33004218,-0.24114141,0
1.6553818,-2.5384326,2.2679186,0.35389531,-0.93321997,0.062118277,0
-2.048358,1.4321686,-3.4294846,-0.2045363,-0.14203084,-0.96849996,0
0.67132306,-0.42493469,3.4805286,0.2045363,0.14203084,0.96849996,0
0.73305577,-0.29271102,-1.9209212,0.91264623,0.33004218,-0.24114141,0
0.62997389,-2.8798695,1.7325723,0.35389531,-0.93321997,0.062118277,0
0.90969801,-2.7392161,1.1444807,0.35389531,-0.93321997,0.062118277,0
0.9045825,1.8009043,3.1962645,0.2045363,0.14203084,0.96849996,0
0.47844654,0.29486266,3.515934,0.2045363,0.14203084,0.96849996,0
0.86430526,-0.95180887,3.665242,0.2045363,0.14203084,0.96849996,0
1.1818347,-2.8588734,-2.9348187,0.35389531,-0.93321997,0.062118277,0
0.11203051,3.3279569,1.5797888,-0.35389531,0.93321997,-0.062118277,0
-0.80141401,2.9278269,-0.90661073,-0.35389531,0.93321997,-0.062118277,0
-0.64791495,-0.0040490627,1.3972027,-0.91264623,-0.33004218,0.24114141,0
-0.57156467,3.257906,2.8246152,-0.35389531,0.93321997,-0.062118277,0
-0.83270824,2.9527216,-0.1803849,-0.35389531,0.93321997,-0.062118277,0
1.8996477,-0.15803111,3.1663461,0.2045363,0.14203084,0.96849996,0
2.0215316,-2.3707852,2.7446182,0.35389531,-0.93321997,0.062118277,0
-0.26146555,3.1807055,2.0532703,-0.35389531,0.93321997,-0.062118277,0
0.86798048,-1.0755183,-2.615526,0.91264623,0.33004218,-0.24114141,0
1.1898689,-2.6231065,-2.9464107,0.91264623,0.33004218,-0.24114141,0
-0.51171112,-2.0943019,-0.45187616,-0.91264623,-0.33004218,0.24114141,0
1.4466747,-1.5437839,-1.0476503,0.91264623,0.33004218,-0.24114141,0
2.4034839,-1.9323375,2.0545185,0.91264623,0.33004218,-0.24114141,0
1.4002147,-2.7234061,-1.5834243,0.35389531,-0.93321997,0.062118277,0
-1.6846383,-0.3302834,-2.7036138,-0.91264623,-0.33004218,0.24114141,0
-1.1331489,-1.8117166,-3.1525328,-0.2045363,-0.14203084,-0.96849996,0
-2.3611636,1.5733867,-2.435288,-0.91264623,-0.33004218,0.24114141,0
0.58809173,-1.9173839,-3.4154077,-0.2045363,-0.14203084,-0.96849996,0
0.15650558,2.1597917,3.2389443,0.2045363,0.14203084,0.96849996,0
0.34445775,3.2068148,3.0341842,0.2045363,0.14203084,0.96849996,0
-0.88027239,3.1671202,3.3605394,-0.35389531,0.93321997,-0.062118277,0
-0.65075684,3.0948243,2.2614584,-0.35389531,0.93321997,-0.062118277,0
1.3734523,-2.4844351,2.9522569,0.35389531,-0.93321997,0.062118277,0
0.76108891,-0.94535971,3.622628,0.2045363,0.14203084,0.96849996,0
-1.0113504,0.69590163,1.4564544,-0.91264623,-0.33004218,0.24114141,0
-0.85090923,0.12759247,0.96952301,-0.91264623,-0.33004218,0.24114141,0
-2.2990007,2.0544529,-3.2489977,-0.35389531,0.93321997,-0.062118277,0
1.1498148,-2.7236118,2.0272803,0.35389531,-0.93321997,0.062118277,0
2.0628028,-2.2705851,1.4306042,0.35389531,-0.93321997,0.062118277,0
-0.74860895,2.9240866,-0.015199631,-0.35389531,0.93321997,-0.062118277,0
0.76058304,-0.70497769,3.6419494,0.2045363,0.14203084,0.96849996,0
1.0856686,-2.9233861,-2.8505437,0.35389531,-0.93321997,0.062118277,0
-1.0783349,-1.4535351,-3.0932291,-0.2045363,-0.14203084,-0.96849996,0
1.3999369,-2.6554315,2.0326817,0.35389531,-0.93321997,0.062118277,0
1.8151639,-2.3398271,3.501277,0.35389531,-0.93321997,0.062118277,0
-0.37133229,-3.3012469,-1.8100815,-0.91264623,-0.33004218,0.24114141,0
0.13685089,-1.011951,2.9777737,-0.91264623,-0.33004218,0.24114141,0
-1.4866719,-0.085833311,-1.7465111,-0.91264623,-0.33004218,0.24114141,0
1.4987252,-2.776289,-2.3066602,0.35389531,-0.93321997,0.062118277,0
-1.8256478,1.2930112,-3.4677103,-0.2045363,-0.14203084,-0.96849996,0
-1.7244908,2.4509869,-1.9472437,-0.35389531,0.93321997,-0.062118277,0
-0.48991692,3.0110035,-0.7353642,-0.35389531,0.93321997,-0.062118277,0
-0.91286206,1.4177938,-3.6507475,-0.2045363,-0.14203084,-0.96849996,0
-1.1458831,2.8006945,-1.2726357,-0.35389531,0.93321997,-0.062118277,0
-0.47396594,-1.4437338,-3.3386722,-0.2045363,-0.14203084,-0.96849996,0
-0.59732223,3.0628004,1.2613258,-0.35389531,0.93321997,-0.062118277,0
-0.52820635,-0.1173715,1.6959426,-0.91264623,-0.33004218,0.24114141,0
0.017585039,-2.0466266,-3.3252513,-0.2045363,-0.14203084,-0.96849996,0
0.82367527,-1.5624197,-3.3871739,0.91264623,0.33004218,-0.24114141,0
-0.60481739,-0.53380156,1.0220865,-0.91264623,-0.33004218,0.24114141,0
0.25931776,-2.6443329,1.5163151,-0.91264623,-0.33004218,0.24114141,0
1.1802075,-3.0011752,-2.1529789,0.35389531,-0.93321997,0.062118277,0
1.7542133,-2.456264,2.3155675,0.35389531,-0.93321997,0.062118277,0
-0.84959185,-0.84509528,0.087528363,-0.91264623,-0.33004218,0.24114141,0
0.80985355,-2.9810653,-3.3614864,-0.2045363,-0.14203084,-0.96849996,0
-0.14301956,-2.7612324,-3.1017711,-0.2045363,-0.14203084,-0.96849996,0
0.94211459,0.94050372,0.83482289,0.91264623,0.33004218,-0.24114141,0
-0.25245345,-0.50394899,2.5989339,-0.91264623,-0.33004218,0.24114141,0
-0.05071383,-0.65973264,2.7314267,-0.91264623,-0.33004218,0.24114141,0
-1.082096,2.3995147,2.9816015,-0.91264623,-0.33004218,0.24114141,0
0.89203084,-1.6901972,-2.9295487,0.91264623,0.33004218,-0.24114141,0
1.288339,0.43837571,3.190093,0.2045363,0.14203084,0.96849996,0
-0.88562781,0.44927788,1.2970297,-0.91264623,-0.33004218,0.24114141,0
-0.50054634,-0.74438643,1.5846341,-0.91264623,-0.33004218,0.24114141,0
-0.31791711,3.052937,0.85013139,-0.35389531,0.93321997,-0.062118277,0
0.39567471,-3.0395989,-0.42344162,0.35389531,-0.93321997,0.062118277,0
1.1024902,-2.875731,-1.8482206,0.35389531,-0.93321997,0.062118277,0
1.1718483,-0.47455361,3.3685355,0.2045363,0.14203084,0.96849996,0
2.1770303,-2.3146689,2.061599,0.35389531,-0.93321997,0.062118277,0
0.42535782,-2.4595776,-3.2539835,-0.2045363,-0.14203084,-0.96849996,0
-2.5268226,2.2118092,-2.2333713,-0.35389531,0.93321997,-0.062118277,0
-0.19585729,-2.447057,-3.3067665,-0.2045363,-0.14203084,-0.96849996,0
1.1415985,0.69946551,3.2436304,0.2045363,0.14203084,0.96849996,0
0.43926406,-0.52566993,3.5090721,0.2045363,0.14203084,0.96849996,0
0.42784399,-1.4552585,3.4965541,-0.91264623,-0.33004218,0.24114141,0
-0.72691202,3.1245885,1.8407933,-0.35389531,0.93321997,-0.062118277,0
-1.109592,1.7648547,2.6663516,-0.91264623,-0.33004218,0.24114141,0
-1.5340961,2.692909,-0.24625033,-0.35389531,0.93321997,-0.062118277,0
1.6035851,-2.5757194,1.1470914,0.35389531,-0.93321997,0.062118277,0
0.67398632,-1.7369518,-3.4531622,-0.2045363,-0.14203084,-0.96849996,0
-0.77001989,2.7950363,-2.3940697,-0.35389531,0.93321997,-0.062118277,0
0.4322381,3.2368515,2.0002573,0.91264623,0.33004218,-0.24114141,0
1.3310518,-2.8942533,-1.8159097,0.35389531,-0.93321997,0.062118277,0
-0.77010918,3.0480597,1.8365411,-0.35389531,0.93321997,-0.062118277,0
2.3940418,-1.7918763,3.4225414,0.2045363,0.14203084,0.96849996,0
-1.1826768,1.3528042,1.4480474,-0.91264623,-0.33004218,0.24114141,0
-1.433116,2.6912787,2.5615973,-0.91264623,-0.33004218,0.24114141,0
0.62287879,-3.1020675,-2.8121505,0.35389531,-0.93321997,0.062118277,0
0.35884815,1.8858564,-0.3914153,0.91264623,0.33004218,-0.24114141,0
-1.1381478,0.97292006,0.93279374,-0.91264623,-0.33004218,0.24114141,0
-0.093752265,3.1449413,-0.12880951,0.91264623,0.33004218,-0.24114141,0
0.54960918,-3.0917614,-2.1912274,0.35389531,-0.93321997,0.062118277,0
0.20097598,0.29605889,-3.0927589,0.91264623,0.33004218,-0.24114141,0
0.28138733,-2.5887544,2.0188894,-0.91264623,-0.33004218,0.24114141,0
-0.68756521,0.81125402,-3.5772939,-0.2045363,-0.14203084,-0.96849996,0
0.27288377,2.1544952,3.3374128,0.2045363,0.14203084,0.96849996,0
-1.8291821,1.9400411,0.038700193,-0.91264623,-0.33004218,0.24114141,0
1.3660896,-2.667064,-0.88149279,0.35389531,-0.93321997,0.062118277,0
2.4692788,-1.8737864,3.2729833,0.2045363,0.14203084,0.96849996,0
1.3348155,-1.6580322,-1.1157087,0.91264623,0.33004218,-0.24114141,0
2.3835137,-2.1331406,3.1453886,0.35389531,-0.93321997,0.062118277,0
-0.25281754,-0.42347831,-3.5814259,-0.2045363,-0.14203084,-0.96849996,0
-1.3267436,2.4512963,2.7626493,-0.91264623,-0.33004218,0.24114141,0
-0.83298522,-1.9804547,-1.361707,-0.91264623,-0.33004218,0.24114141,0
-0.92897379,2.6145363,-2.7958045,-0.35389531,0.93321997,-0.062118277,0
0.15018499,0.33257011,3.5074668,0.2045363,0.14203084,0.96849996,0
0.10711551,3.3213437,2.4926558,-0.35389531,0.93321997,-0.062118277,0
-0.71373677,-3.152431,-3.0625255,-0.2045363,-0.14203084,-0.96849996,0
1.9960728,-0.673621,3.1923196,0.2045363,0.14203084,0.96849996,0
1.7846261,-2.4583569,2.6582985,0.35389531,-0.93321997,0.062118277,0
0.067121744,3.3349185,1.5350118,-0.35389531,0.93321997,-0.062118277,0
-0.51046324,-0.54683411,1.4453706,-0.91264623,-0.33004218,0.24114141,0
1.0472202,-0.28673142,-0.61954063,0.91264623,0.33004218,-0.24114141,0
1.3527681,-1.2246962,3.5419369,0.2045363,0.14203084,0.96849996,0
-2.0592363,1.5320065,-3.3721156,-0.2045363,-0.14203084,-0.96849996,0
-1.1404459,2.7174716,0.36827078,-0.35389531,0.93321997,-0.062118277,0
1.5302283,-1.293625,-0.20928216,0.91264623,0.33004218,-0.24114141,0
0.75806004,1.091643,0.46287918,0.91264623,0.33004218,-0.24114141,0
0.92533368,2.2700803,3.0325639,0.2045363,0.14203084,0.96849996,0
0.19013858,-3.2279987,-0.77152872,0.35389531,-0.93321997,0.062118277,0
-1.2430636,1.4458325,1.7332462,-0.91264623,-0.33004218,0.24114141,0
1.7424102,-2.5561919,-0.61995244,0.35389531,-0.93321997,0.062118277,0
0.98544145,-2.9817038,-0.61913532,0.35389531,-0.93321997,0.062118277,0
-1.1988204,2.9758413,1.9414117,-0.35389531,0.93321997,-0.062118277,0
0.12234819,1.1796548,-2.4438391,0.91264623,0.33004218,-0.24114141,0
0.31670654,1.5460417,-0.52930701,0.91264623,0.33004218,-0.24114141,0
0.31335497,-3.0452828,-3.1310623,-0.2045363,-0.14203084,-0.96849996,0
0.91629821,-0.091382727,3.4201741,0.2045363,0.14203084,0.96849996,0
-0.010619879,-1.6152484,-3.3740931,-0.2045363,-0.14203084,-0.96849996,0
0.67976558,2.565865,1.6675156,0.91264623,0.33004218,-0.24114141,0
-0.77305257,-2.9792974,-3.0869985,-0.2045363,-0.14203084,-0.96849996,0
-0.22095966,-3.4846809,-2.4006712,0.35389531,-0.93321997,0.062118277,0
2.0988874,-2.1121173,3.324151,0.35389531,-0.93321997,0.062118277,0
-0.99809855,-1.24903,-3.3069453,-0.2045363,-0.14203084,-0.96849996,0
1.0517544,-1.3813106,-2.0805371,0.91264623,0.33004218,-0.24114141,0
-0.42741179,3.3043182,2.8044541,-0.35389531,0.93321997,-0.062118277,0
-1.4132276,2.7782848,1.2890759,-0.35389531,0.93321997,-0.062118277,0
0.45898414,-3.2055695,-1.592079,0.35389531,-0.93321997,0.062118277,0
0.13040686,3.2321205,1.0579376,0.91264623,0.33004218,-0.24114141,0
-0.10818386,-1.9505019,1.2868934,-0.91264623,-0.33004218,0.24114141,0
-0.68681782,0.27555811,1.8262205,-0.91264623,-0.33004218,0.24114141,0
2.4482896,-1.7821468,2.7661588,0.91264623,0.33004218,-0.24114141,0
-0.33739626,1.7105436,-3.472177,0.91264623,0.33004218,-0.24114141,0
-1.2766367,2.6748879,0.15413696,-0.35389531,0.93321997,-0.062118277,0
1.0481796,-0.087807477,-0.28636673,0.91264623,0.33004218,-0.24114141,0
-1.7174534,2.4496906,-2.5360541,-0.35389531,0.93321997,-0.062118277,0
1.913831,-1.5543911,1.3346541,0.91264623,0.33004218,-0.24114141,0
1.1357431,-1.4905895,3.5471406,0.2045363,0.14203084,0.96849996,0
0.43477058,-2.9565945,-3.2761686,-0.2045363,-0.14203084,-0.96849996,0
-0.12236655,0.45105278,3.5820959,0.2045363,0.14203084,0.96849996,0
-0.24164224,0.8992672,-3.7310035,-0.2045363,-0.14203084,-0.96849996,0
-1.4331235,2.5693984,-2.4556441,-0.35389531,0.93321997,-0.062118277,0
-2.2627668,1.412272,-3.258518,-0.2045363,-0.14203084,-0.96849996,0
