-0.66276312,-3.2438602,3.1890569,0.92347777,-0.16510665,0.34630725,0
-1.2491546,-3.2924771,4.3648291,-0.32477289,0.14409158,0.93475151,0
-1.4928343,-3.6891236,1.8559451,-0.20423377,-0.97569335,0.079443216,0
-2.0271571,-0.94986713,3.7296419,-0.32477289,0.14409158,0.93475151,0
2.208328,0.63264358,-3.5213859,0.32477289,-0.14409158,-0.93475151,0
-0.49775636,-1.170282,-1.9997318,-0.92347777,0.16510665,-0.34630725,0
1.1963534,2.1123195,0.48024607,0.92347777,-0.16510665,0.34630725,0
1.7648146,3.5002308,-1.9972336,0.20423377,0.97569335,-0.079443216,0
-0.62892389,3.7538559,3.3873405,-0.32477289,0.14409158,0.93475151,0
0.80402946,-3.291106,-3.4087887,0.32477289,-0.14409158,-0.93475151,0
-0.98709625,2.1871402,0.99872017,-0.92347777,0.16510665,-0.34630725,0
-0.52131927,4.4579325,3.3850346,0.20423377,0.97569335,-0.079443216,0
1.0855933,-3.4529433,-1.470751,0.92347777,-0.16510665,0.34630725,0
-0.44289923,-1.8099238,-2.7272067,-0.92347777,0.16510665,-0.34630725,0
2.3250155,1.3486471,-3.7505372,0.32477289,-0.14409158,-0.93475151,0
-0.62057561,-3.9783046,-0.68955064,-0.20423377,-0.97569335,0.079443216,0
-0.87853163,-3.9820457,-1.1712463,-0.20423377,-0.97569335,0.079443216,0
-2.1583226,0.043120205,2.8320053,-0.92347777,0.16510665,-0.34630725,0
-1.6583772,-0.15799749,1.2292858,-0.92347777,0.16510665,-0.34630725,0
1.0761118,-1.2036041,-3.7680819,0.32477289,-0.14409158,-0.93475151,0
-1.8670319,-0.66887087,1.5744728,-0.92347777,0.16510665,-0.34630725,0
1.0122082,-1.9725184,-3.5373669,0.32477289,-0.14409158,-0.93475151,0
-2.4452763,-1.0292957,3.0428178,-0.92347777,0.16510665,-0.34630725,0
1.5806103,-3.474781,-3.1292326,0.32477289,-0.14409158,-0.93475151,0
1.3339317,0.3144753,-3.9315128,0.32477289,-0.14409158,-0.93475151,0
-1.7456015,-1.5220115,0.76459289,-0.92347777,0.16510665,-0.34630725,0
1.7718129,-0.022028565,-3.7385821,0.32477289,-0.14409158,-0.93475151,0
-0.30551696,-1.6759686,3.0013628,0.92347777,-0.16510665,0.34630725,0
-1.2470655,4.0053954,2.4702511,-0.92347777,0.16510665,-0.34630725,0
1.8604238,3.597445,-1.4322181,0.20423377,0.97569335,-0.079443216,0
0.078323364,3.4505494,3.8093669,-0.32477289,0.14409158,0.93475151,0
0.35959935,-2.5250647,0.81575274,0.92347777,-0.16510665,0.34630725,0
-0.037540555,4.0465584,0.19974494,0.20423377,0.97569335,-0.079443216,0
0.87614363,-4.504406,-2.7257397,-0.20423377,-0.97569335,0.079443216,0
0.31925654,-2.8456311,-3.6388192,0.32477289,-0.14409158,-0.93475151,0
1.1526549,1.4431047,-4.0948462,0.32477289,-0.14409158,-0.93475151,0
0.49125063,-3.2186892,-3.6158552,0.32477289,-0.14409158,-0.93475151,0
2.6093502,2.5511563,-2.7580705,0.92347777,-0.16510665,0.34630725,0
1.1171551,0.16865396,-3.8678579,0.32477289,-0.14409158,-0.93475151,0
0.25949883,0.45252275,-3.6483331,-0.92347777,0.16510665,-0.34630725,0
-1.1268226,-2.3568518,-0.75072098,-0.92347777,0.16510665,-0.34630725,0
2.2118099,3.1714239,-3.943691,0.32477289,-0.14409158,-0.93475151,0
-0.49703074,0.5604732,3.9904213,-0.32477289,0.14409158,0.93475151,0
2.3344667,-0.29717469,-3.4982524,0.32477289,-0.14409158,-0.93475151,0
-1.9734391,0.65312791,2.9565716,-0.92347777,0.16510665,-0.34630725,0
0.34038281,-3.8901589,-3.6461272,0.32477289,-0.14409158,-0.93475151,0
-0.67879081,0.61711717,4.0045733,-0.32477289,0.14409158,0.93475151,0
-1.7003977,-3.5200894,2.930326,-0.20423377,-0.97569335,0.079443216,0
-1.8921218,-3.3703403,3.4764967,-0.20423377,-0.97569335,0.079443216,0
1.7956973,2.1546776,-1.1606982,0.92347777,-0.16510665,0.34630725,0
1.2491949,3.7167215,-1.8271594,0.20423377,0.97569335,-0.079443216,0
2.3897922,1.8125905,-2.3841124,0.92347777,-0.16510665,0.34630725,0
2.277241,3.2502418,-3.7699084,0.20423377,0.97569335,-0.079443216,0
0.81021094,-2.5861323,-3.6728859,0.32477289,-0.14409158,-0.93475151,0
0.14578533,2.6271765,-2.0596914,-0.92347777,0.16510665,-0.34630725,0
0.23325825,-4.4564481,-2.8454211,-0.20423377,-0.97569335,0.079443216,0
-0.56577188,-4.3168917,-3.0424235,-0.20423377,-0.97569335,0.079443216,0
-2.070158,-3.0928905,3.9632893,-0.32477289,0.14409158,0.93475151,0
1.257925,2.9612403,-4.2498817,0.32477289,-0.14409158,-0.93475151,0
2.3853087,3.1624894,-3.8917289,0.32477289,-0.14409158,-0.93475151,0
2.029654,-0.93138331,-3.1075821,0.92347777,-0.16510665,0.34630725,0
2.3530734,1.1094797,-3.6879864,0.32477289,-0.14409158,-0.93475151,0
-2.3400652,-1.2313395,3.5782967,-0.32477289,0.14409158,0.93475151,0
-0.59841543,-4.1124735,-1.2716622,-0.20423377,-0.97569335,0.079443216,0
-1.322052,-3.7896724,0.7675519,-0.20423377,-0.97569335,0.079443216,0
1.456707,-2.0663252,-1.9688941,0.92347777,-0.16510665,0.34630725,0
-0.79587388,-3.7270181,2.2926948,-0.20423377,-0.97569335,0.079443216,0
1.685002,-1.1461112,-2.2709086,0.92347777,-0.16510665,0.34630725,0
-0.19174898,-4.2563229,-3.1829937,-0.20423377,-0.97569335,0.079443216,0
1.636511,3.787684,-0.73356199,0.20423377,0.97569335,-0.079443216,0
0.16216898,2.4066668,3.6115732,0.92347777,-0.16510665,0.34630725,0
1.4006703,3.6349292,-2.13995,0.20423377,0.97569335,-0.079443216,0
-0.67317545,-3.9862294,0.76626158,-0.20423377,-0.97569335,0.079443216,0
0.75676179,4.0949497,2.8112743,0.20423377,0.97569335,-0.079443216,0
-2.2708089,-3.305491,3.2642381,-0.20423377,-0.97569335,0.079443216,0
2.5774007,1.4777393,-3.7070727,0.32477289,-0.14409158,-0.93475151,0
-1.0907774,-3.2891831,4.3661604,-0.32477289,0.14409158,0.93475151,0
1.7101818,-2.8844857,-3.2534564,0.32477289,-0.14409158,-0.93475151,0
-0.93137753,-4.0685492,-1.3508744,-0.20423377,-0.97569335,0.079443216,0
2.2470527,3.4140282,-3.1722729,0.20423377,0.97569335,-0.079443216,0
0.85478139,1.9297054,1.6646467,0.92347777,-0.16510665,0.34630725,0
1.2471818,1.7172778,0.58391166,0.92347777,-0.16510665,0.34630725,0
-0.3552289,-3.8373785,1.7660882,0.92347777,-0.16510665,0.34630725,0
1.9077269,3.7602007,-0.28600597,0.20423377,0.97569335,-0.079443216,0
2.5617917,1.8216041,-3.0259824,0.92347777,-0.16510665,0.34630725,0
0.016918302,-4.1602135,-0.76587057,-0.20423377,-0.97569335,0.079443216,0
-1.4306266,4.4317861,3.1620827,-0.32477289,0.14409158,0.93475151,0
-1.2527618,0.13291624,0.39195967,-0.92347777,0.16510665,-0.34630725,0
2.0850601,2.9416327,-1.2253695,0.92347777,-0.16510665,0.34630725,0
-1.9583216,-3.1171169,4.1397696,-0.32477289,0.14409158,0.93475151,0
2.1983938,3.5463614,-1.8849099,0.20423377,0.97569335,-0.079443216,0
-1.6567568,2.9115007,3.1622024,-0.32477289,0.14409158,0.93475151,0
0.57070756,0.13439822,1.41556,0.92347777,-0.16510665,0.34630725,0
0.359272,3.5779207,3.6222742,0.92347777,-0.16510665,0.34630725,0
0.63319087,1.5670543,-3.6274767,-0.92347777,0.16510665,-0.34630725,0
-1.4529822,-1.6654702,4.0192375,-0.32477289,0.14409158,0.93475151,0
1.7292271,1.3503591,-1.1502339,0.92347777,-0.16510665,0.34630725,0
0.18859541,-4.1569805,-0.93081331,-0.20423377,-0.97569335,0.079443216,0
-2.1189778,-3.4876354,2.5150967,-0.20423377,-0.97569335,0.079443216,0
-0.77123117,-1.5004106,4.3470087,-0.32477289,0.14409158,0.93475151,0
0.46734047,3.9634988,-0.36893797,0.20423377,0.97569335,-0.079443216,0
0.048151016,-2.7162611,1.4455005,0.92347777,-0.16510665,0.34630725,0
1.5787897,-0.80294877,-1.7435651,0.92347777,-0.16510665,0.34630725,0
-0.084641933,2.9226882,-1.2772619,-0.92347777,0.16510665,-0.34630725,0
1.4434853,2.9895906,-4.227519,0.32477289,-0.14409158,-0.93475151,0
0.17328191,-0.27164721,2.0268445,0.92347777,-0.16510665,0.34630725,0
-0.47607744,3.5280187,3.6372223,-0.32477289,0.14409158,0.93475151,0
1.3980914,3.8316798,-0.37756968,0.20423377,0.97569335,-0.079443216,0
0.33796144,-1.5172286,-4.0248337,0.32477289,-0.14409158,-0.93475151,0
0.53265142,0.81252265,-3.8626361,-0.92347777,0.16510665,-0.34630725,0
-1.2715015,2.220819,1.3695784,-0.92347777,0.16510665,-0.34630725,0
-0.00075292587,-3.8374815,-3.7059219,0.32477289,-0.14409158,-0.93475151,0
1.5705122,-3.7193961,-3.0970125,0.32477289,-0.14409158,-0.93475151,0
1.7781689,1.9219066,-3.921149,0.32477289,-0.14409158,-0.93475151,0
0.63833559,0.30003965,1.5470961,0.92347777,-0.16510665,0.34630725,0
0.77611411,-4.5371523,-2.1571074,-0.20423377,-0.97569335,0.079443216,0
0.5044055,2.9139452,-2.7675757,-0.92347777,0.16510665,-0.34630725,0
-0.37923992,4.1821671,0.35319495,0.20423377,0.97569335,-0.079443216,0
1.7578554,2.5130661,-3.9904857,0.32477289,-0.14409158,-0.93475151,0
-0.7259416,4.5376916,2.7104692,0.20423377,0.97569335,-0.079443216,0
-0.4210186,2.0677481,3.8343477,-0.32477289,0.14409158,0.93475151,0
0.3160069,0.2556529,-3.7361321,-0.92347777,0.16510665,-0.34630725,0
1.7738563,-2.1715219,-3.2634315,0.32477289,-0.14409158,-0.93475151,0
2.0412869,3.3741221,-3.1707873,0.20423377,0.97569335,-0.079443216,0
2.0241723,3.401403,-2.8938279,0.20423377,0.97569335,-0.079443216,0
-1.2695525,-3.6737947,1.2569165,-0.20423377,-0.97569335,0.079443216,0
-0.38612446,4.312644,1.7425482,0.20423377,0.97569335,-0.079443216,0
-0.27670053,-4.2728767,-1.6645203,-0.20423377,-0.97569335,0.079443216,0
-0.23880672,3.3757513,-0.92649436,-0.92347777,0.16510665,-0.34630725,0
-1.2790252,3.4967885,3.2700703,-0.32477289,0.14409158,0.93475151,0
-0.59454334,-0.84628808,-1.8528583,-0.92347777,0.16510665,-0.34630725,0
-0.45518094,-3.9494154,-0.35623193,-0.20423377,-0.97569335,0.079443216,0
-1.2109782,1.7180705,0.91088253,-0.92347777,0.16510665,-0.34630725,0
0.22868288,-2.9307566,0.95302057,0.92347777,-0.16510665,0.34630725,0
2.0446854,3.3127394,-0.83137655,0.92347777,-0.16510665,0.34630725,0
-0.86258531,-3.5997503,3.1909285,-0.20423377,-0.97569335,0.079443216,0
0.35323489,-4.4097252,-2.5170362,-0.20423377,-0.97569335,0.079443216,0
-1.5870488,-3.6043355,1.7951376,-0.20423377,-0.97569335,0.079443216,0
1.0625854,-4.4109025,-3.1598053,0.32477289,-0.14409158,-0.93475151,0
-2.9431214,-3.1865072,3.2305093,-0.92347777,0.16510665,-0.34630725,0
1.4011476,3.5694118,-1.7472863,0.20423377,0.97569335,-0.079443216,0
-0.23666155,4.2405791,0.42270398,0.20423377,0.97569335,-0.079443216,0
-0.48908699,-3.7169135,-3.2527785,-0.92347777,0.16510665,-0.34630725,0
0.59247375,0.39123237,1.4842107,0.92347777,-0.16510665,0.34630725,0
1.1927724,1.4776411,-4.1609092,0.32477289,-0.14409158,-0.93475151,0
1.7599404,3.5288749,-1.8215287,0.20423377,0.97569335,-0.079443216,0
0.88181162,0.30988669,-4.0048742,0.32477289,-0.14409158,-0.93475151,0
-1.5136747,2.1091101,3.4762025,-0.32477289,0.14409158,0.93475151,0
0.63961983,-4.3947635,-2.9403567,-0.20423377,-0.97569335,0.079443216,0
2.1658082,1.0489348,-3.7026515,0.32477289,-0.14409158,-0.93475151,0
2.1958513,-0.28263545,-3.4702287,0.32477289,-0.14409158,-0.93475151,0
-1.7844745,2.3258455,2.9993143,-0.92347777,0.16510665,-0.34630725,0
-2.3486137,-2.5651541,3.7964685,-0.32477289,0.14409158,0.93475151,0
-0.67593646,1.1145024,-0.65259862,-0.92347777,0.16510665,-0.34630725,0
-1.7477355,-2.169302,3.9494271,-0.32477289,0.14409158,0.93475151,0
-0.27802324,-1.995232,2.5481455,0.92347777,-0.16510665,0.34630725,0
-0.6262334,2.4323218,-0.21212125,-0.92347777,0.16510665,-0.34630725,0
-0.6993686,-4.0913353,-2.6325343,-0.20423377,-0.97569335,0.079443216,0
0.62611264,-0.90560859,0.70924389,0.92347777,-0.16510665,0.34630725,0
1.1961734,3.7295876,-1.7813897,0.20423377,0.97569335,-0.079443216,0
0.2226193,3.2267916,3.7619977,-0.32477289,0.14409158,0.93475151,0
-2.4706159,-3.0903821,1.9448032,-0.92347777,0.16510665,-0.34630725,0
-0.19210291,1.6431539,3.9221466,-0.32477289,0.14409158,0.93475151,0
0.25867426,2.4419589,3.3629756,0.92347777,-0.16510665,0.34630725,0
1.0249234,-4.5109868,-2.5377219,-0.20423377,-0.97569335,0.079443216,0
-0.61015105,1.2612612,3.9612892,-0.32477289,0.14409158,0.93475151,0
-2.7773364,-3.106266,3.7494738,-0.32477289,0.14409158,0.93475151,0
1.1836696,-4.1439805,-3.1574938,0.32477289,-0.14409158,-0.93475151,0
0.70671833,4.1056757,0.98222351,0.20423377,0.97569335,-0.079443216,0
-0.19953436,4.1480851,0.65319514,0.20423377,0.97569335,-0.079443216,0
2.0061104,-0.6349026,-3.5682659,0.32477289,-0.14409158,-0.93475151,0
0.65621901,0.26515055,-4.1274967,0.32477289,-0.14409158,-0.93475151,0
1.3786349,-3.85741,-3.2519226,0.32477289,-0.14409158,-0.93475151,0
0.4452765,-2.563988,-3.7034447,0.32477289,-0.14409158,-0.93475151,0
-1.0354292,-3.917861,-1.2018428,-0.20423377,-0.97569335,0.079443216,0
1.6221185,3.1183209,-4.2595315,0.32477289,-0.14409158,-0.93475151,0
-0.80293274,-3.6993947,2.1782506,-0.20423377,-0.97569335,0.079443216,0
-1.2656734,-3.9552002,-0.69905043,-0.20423377,-0.97569335,0.079443216,0
-0.6119504,4.0568995,0.54912138,-0.92347777,0.16510665,-0.34630725,0
2.3035135,0.52632767,-3.2825196,0.92347777,-0.16510665,0.34630725,0
-0.89757925,3.0002542,1.1854661,-0.92347777,0.16510665,-0.34630725,0
0.50327873,3.9582088,-0.95763826,0.20423377,0.97569335,-0.079443216,0
0.94522512,-1.7297142,-0.60323352,0.92347777,-0.16510665,0.34630725,0
0.45163965,3.7388561,-2.5894036,-0.92347777,0.16510665,-0.34630725,0
1.128747,0.91541052,-3.9736462,0.32477289,-0.14409158,-0.93475151,0
1.4279838,2.9987626,-4.1760945,0.32477289,-0.14409158,-0.93475151,0
0.042845607,-4.3888111,-2.6151419,-0.20423377,-0.97569335,0.079443216,0
2.3012047,1.796279,-3.7357464,0.32477289,-0.14409158,-0.93475151,0
-1.8696998,-1.0411763,1.3773954,-0.92347777,0.16510665,-0.34630725,0
0.58342147,-4.064074,-3.4332964,0.32477289,-0.14409158,-0.93475151,0
1.7787367,-2.4116673,-3.1848197,0.32477289,-0.14409158,-0.93475151,0
0.52672172,-1.1430764,-3.9338202,0.32477289,-0.14409158,-0.93475151,0
0.72742337,4.1241651,0.9899826,0.20423377,0.97569335,-0.079443216,0
-0.64332658,-2.0731423,-2.3458762,-0.92347777,0.16510665,-0.34630725,0
1.2141135,0.66655886,-0.31438947,0.92347777,-0.16510665,0.34630725,0
-0.29246926,-0.5103507,3.6670804,0.92347777,-0.16510665,0.34630725,0
2.0245841,-0.71051872,-3.4604919,0.32477289,-0.14409158,-0.93475151,0
-1.9314542,-2.8986392,0.62623906,-0.92347777,0.16510665,-0.34630725,0
-2.2010875,-3.3568459,3.6357186,-0.20423377,-0.97569335,0.079443216,0
0.16638064,4.4449749,3.5710695,-0.32477289,0.14409158,0.93475151,0
-2.3746541,-3.0708861,1.8315899,-0.92347777,0.16510665,-0.34630725,0
0.56029093,-4.2876792,-1.8262646,-0.20423377,-0.97569335,0.079443216,0
0.23639798,-2.2953925,-3.8532543,0.32477289,-0.14409158,-0.93475151,0
0.81148243,-2.3188398,-3.7428482,0.32477289,-0.14409158,-0.93475151,0
1.2438736,3.3993444,-4.3522472,0.32477289,-0.14409158,-0.93475151,0
-2.6264272,-1.29786,3.4289088,-0.92347777,0.16510665,-0.34630725,0
-0.47392383,-4.292697,-2.5202723,-0.20423377,-0.97569335,0.079443216,0
-1.4382287,4.0185575,2.8203475,-0.92347777,0.16510665,-0.34630725,0
-0.31046569,-2.5404115,-3.5174596,-0.92347777,0.16510665,-0.34630725,0
-0.22971892,4.2284865,0.70238876,0.20423377,0.97569335,-0.079443216,0
-0.36804712,4.3054404,2.2088921,0.20423377,0.97569335,-0.079443216,0
-0.77954698,-3.6636081,2.9498782,-0.20423377,-0.97569335,0.079443216,0
1.1541281,0.92468786,-3.9513426,0.32477289,-0.14409158,-0.93475151,0
0.64289838,-4.4759021,-2.0482693,-0.20423377,-0.97569335,0.079443216,0
-0.96580398,-0.097461522,-0.47131848,-0.92347777,0.16510665,-0.34630725,0
0.4455128,-4.2884455,-2.3986015,-0.20423377,-0.97569335,0.079443216,0
0.70088053,-2.8389931,-0.52191424,0.92347777,-0.16510665,0.34630725,0
-2.6088417,-3.2769945,3.1814933,-0.20423377,-0.97569335,0.079443216,0
-1.7655501,-3.3811574,3.6554391,-0.20423377,-0.97569335,0.079443216,0
-0.042307734,4.4871998,3.4988775,0.20423377,0.97569335,-0.079443216,0
-2.5302458,-3.3647082,3.5708778,-0.20423377,-0.97569335,0.079443216,0
-0.34330294,4.3157482,1.6396439,0.20423377,0.97569335,-0.079443216,0
1.6206291,0.49360621,-3.8171933,0.32477289,-0.14409158,-0.93475151,0
0.56843543,3.7898443,3.3625472,0.92347777,-0.16510665,0.34630725,0
1.5634582,3.8631516,0.43187428,0.20423377,0.97569335,-0.079443216,0
-2.3408041,-3.3113949,2.8548348,-0.20423377,-0.97569335,0.079443216,0
0.013184071,-4.0741496,-3.5929797,0.32477289,-0.14409158,-0.93475151,0
-1.1869669,-3.1499524,4.3669987,-0.32477289,0.14409158,0.93475151,0
2.138927,3.4246008,-2.6215608,0.20423377,0.97569335,-0.079443216,0
0.63414001,2.5466228,-3.3857808,-0.92347777,0.16510665,-0.34630725,0
-1.1025026,-3.5905495,3.0430131,-0.20423377,-0.97569335,0.079443216,0
-1.9617333,0.24228132,2.5396686,-0.92347777,0.16510665,-0.34630725,0
-0.59505653,4.3707142,2.0239546,0.20423377,0.97569335,-0.079443216,0
1.666784,-2.5794344,-2.600812,0.92347777,-0.16510665,0.34630725,0
-1.1257297,-3.9131002,0.28769016,-0.20423377,-0.97569335,0.079443216,0
-0.82715774,-1.0550532,4.1756501,-0.32477289,0.14409158,0.93475151,0
2.4211783,3.4011536,-2.0047674,0.20423377,0.97569335,-0.079443216,0
0.32376146,-0.26511931,-3.8250442,-0.92347777,0.16510665,-0.34630725,0
-1.1354995,-3.3778286,4.0679674,0.92347777,-0.16510665,0.34630725,0
-0.45719719,2.0937648,3.8981893,-0.32477289,0.14409158,0.93475151,0
-0.59414792,-4.0092502,-0.63958526,-0.20423377,-0.97569335,0.079443216,0
-1.667084,-3.3638055,3.6104927,-0.20423377,-0.97569335,0.079443216,0
2.3875253,2.8003509,-2.3509176,0.92347777,-0.16510665,0.34630725,0
-1.2097964,-3.7366889,1.8897772,-0.20423377,-0.97569335,0.079443216,0
-1.1128609,0.65791357,3.8338974,-0.32477289,0.14409158,0.93475151,0
1.2034357,-0.33549058,-3.805171,0.32477289,-0.14409158,-0.93475151,0
1.5083363,0.33956718,-3.792171,0.32477289,-0.14409158,-0.93475151,0
0.38334644,-4.1796894,-3.4613914,0.32477289,-0.14409158,-0.93475151,0
0.4756889,4.1365776,2.4997323,0.20423377,0.97569335,-0.079443216,0
-1.6745162,1.1092179,2.1324258,-0.92347777,0.16510665,-0.34630725,0
0.061802924,4.2033558,0.85013127,0.20423377,0.97569335,-0.079443216,0
-2.5076878,-1.836694,3.7085865,-0.32477289,0.14409158,0.93475151,0
-1.4690356,1.0300267,3.5800118,-0.32477289,0.14409158,0.93475151,0
1.0049751,-0.46572542,-3.9024704,0.32477289,-0.14409158,-0.93475151,0
0.9001525,-4.508112,-3.171695,-0.20423377,-0.97569335,0.079443216,0
0.12818956,-3.845721,0.56190109,0.92347777,-0.16510665,0.34630725,0
1.4202156,1.076138,-3.8543062,0.32477289,-0.14409158,-0.93475151,0
-1.0301893,2.3692112,3.5325508,-0.32477289,0.14409158,0.93475151,0
1.3700857,-1.464138,-1.4393075,0.92347777,-0.16510665,0.34630725,0
0.84420455,-4.0655136,-3.4210355,0.32477289,-0.14409158,-0.93475151,0
-1.6882302,-0.66781604,1.3464351,-0.92347777,0.16510665,-0.34630725,0
-0.11089139,4.2663193,1.3682017,0.20423377,0.97569335,-0.079443216,0
-0.75387859,-3.8348732,1.3882709,-0.20423377,-0.97569335,0.079443216,0
2.5288386,3.3214815,-3.505002,0.20423377,0.97569335,-0.079443216,0
1.3148421,-4.419486,-2.882015,0.92347777,-0.16510665,0.34630725,0
-0.44806886,-2.9652205,2.529098,0.92347777,-0.16510665,0.34630725,0
-1.5459898,2.7975559,2.7883091,-0.92347777,0.16510665,-0.34630725,0
0.02399528,4.2346497,1.8540039,0.20423377,0.97569335,-0.079443216,0
-1.4819818,-0.23014414,3.7674026,-0.32477289,0.14409158,0.93475151,0
0.0092276335,4.1351418,0.29530406,0.20423377,0.97569335,-0.079443216,0
-0.41531396,2.9547703,3.7304411,-0.32477289,0.14409158,0.93475151,0
1.5672019,3.5381169,-3.4845803,0.20423377,0.97569335,-0.079443216,0
-1.1914256,-3.8664894,-1.2991819,-0.20423377,-0.97569335,0.079443216,0
2.0228281,-0.98311299,-3.5237615,0.32477289,-0.14409158,-0.93475151,0
1.7941859,-2.4135575,-3.2986808,0.32477289,-0.14409158,-0.93475151,0
1.9458508,3.1934993,-4.1909037,0.32477289,-0.14409158,-0.93475151,0
1.2552292,3.7409449,-0.88186026,0.20423377,0.97569335,-0.079443216,0
0.97625077,-3.8804345,-1.8205755,0.92347777,-0.16510665,0.34630725,0
1.7138269,1.6179554,-3.8701432,0.32477289,-0.14409158,-0.93475151,0
-1.6157467,-3.4948173,2.1275721,-0.20423377,-0.97569335,0.079443216,0
0.17538333,-0.25462508,-3.7093277,-0.92347777,0.16510665,-0.34630725,0
-0.223943,4.0643063,0.031335831,0.20423377,0.97569335,-0.079443216,0
-0.39092088,3.7311227,3.5859737,-0.32477289,0.14409158,0.93475151,0
-2.2740421,-0.3482579,3.4564874,-0.32477289,0.14409158,0.93475151,0
-0.67287493,-3.6830513,2.3609233,-0.20423377,-0.97569335,0.079443216,0
1.5202882,2.3866611,-4.1047211,0.32477289,-0.14409158,-0.93475151,0
-0.70939994,-3.734585,2.1662512,-0.20423377,-0.97569335,0.079443216,0
0.29603183,-4.2163324,-0.17120719,-0.20423377,-0.97569335,0.079443216,0
-1.1879928,-3.6145849,3.1055715,-0.20423377,-0.97569335,0.079443216,0
-0.7355265,1.5018464,-0.16297448,-0.92347777,0.16510665,-0.34630725,0
2.3380435,3.1224804,-3.964596,0.32477289,-0.14409158,-0.93475151,0
0.068941355,3.9547153,-0.92893815,0.20423377,0.97569335,-0.079443216,0
0.19998336,3.0845411,3.7027431,0.92347777,-0.16510665,0.34630725,0
-2.3402743,-3.5461173,1.8783967,-0.92347777,0.16510665,-0.34630725,0
0.094196081,-4.2259231,-2.368305,-0.20423377,-0.97569335,0.079443216,0
1.0383512,-2.5760007,-3.4609137,0.32477289,-0.14409158,-0.93475151,0
0.45780206,0.68602967,1.8231189,0.92347777,-0.16510665,0.34630725,0
0.22962463,3.0049798,3.7955875,-0.32477289,0.14409158,0.93475151,0
-0.29541904,-4.1991868,-3.0178626,-0.20423377,-0.97569335,0.079443216,0
0.064777374,2.362936,3.553266,0.92347777,-0.16510665,0.34630725,0
2.2381392,1.4887768,-3.7428279,0.32477289,-0.14409158,-0.93475151,0
1.4429853,3.8876858,1.0213017,0.92347777,-0.16510665,0.34630725,0
-0.65035969,2.4686303,0.093461871,-0.92347777,0.16510665,-0.34630725,0
-0.57791972,-3.6194506,2.975637,0.92347777,-0.16510665,0.34630725,0
0.72067571,2.2760415,-3.5951822,-0.92347777,0.16510665,-0.34630725,0
0.55284941,-3.975019,-3.5756574,0.32477289,-0.14409158,-0.93475151,0
-1.1051947,3.722986,3.2833748,-0.32477289,0.14409158,0.93475151,0
1.9072609,0.26206166,-2.1460972,0.92347777,-0.16510665,0.34630725,0
2.68964,3.1880844,-3.527601,0.20423377,0.97569335,-0.079443216,0
-2.5824704,-2.543364,2.5392039,-0.92347777,0.16510665,-0.34630725,0
0.199072,3.8703387,3.6762562,-0.32477289,0.14409158,0.93475151,0
2.1456556,1.8140745,-1.9490429,0.92347777,-0.16510665,0.34630725,0
1.9734533,3.3283753,-3.425725,0.20423377,0.97569335,-0.079443216,0
-0.019372344,-4.1412678,0.25767827,-0.20423377,-0.97569335,0.079443216,0
-0.72639823,-1.1385896,4.2041297,-0.32477289,0.14409158,0.93475151,0
-2.1122892,-0.37485504,3.5344167,-0.32477289,0.14409158,0.93475151,0
-2.4477737,-1.1692293,3.1848915,-0.92347777,0.16510665,-0.34630725,0
1.8774805,0.78805864,-1.9318309,0.92347777,-0.16510665,0.34630725,0
1.9450481,3.4358664,-2.68961,0.20423377,0.97569335,-0.079443216,0
-1.4357216,-0.41408229,3.841382,-0.32477289,0.14409158,0.93475151,0
-2.3099597,-1.4292163,3.7794051,-0.32477289,0.14409158,0.93475151,0
-0.53234506,3.8878076,3.4217086,-0.32477289,0.14409158,0.93475151,0
0.17951214,-4.0343513,0.35483956,-0.20423377,-0.97569335,0.079443216,0
0.85482061,1.6625195,1.4794391,0.92347777,-0.16510665,0.34630725,0
0.58337271,-2.9984908,0.14337802,0.92347777,-0.16510665,0.34630725,0
0.95446491,3.6373854,-3.1248312,0.20423377,0.97569335,-0.079443216,0
-0.067435622,3.689678,-0.87523699,-0.92347777,0.16510665,-0.34630725,0
0.90029669,1.0811775,-4.2167816,0.32477289,-0.14409158,-0.93475151,0
-0.9420054,-0.058472157,3.9703186,-0.32477289,0.14409158,0.93475151,0
0.96701038,3.8875337,0.036488056,0.20423377,0.97569335,-0.079443216,0
-0.37625623,-1.6382778,2.8389206,0.92347777,-0.16510665,0.34630725,0
0.76765013,3.7357283,-1.5363939,0.20423377,0.97569335,-0.079443216,0
0.4912954,4.1793036,2.960418,0.20423377,0.97569335,-0.079443216,0
0.7682116,-1.0503553,-3.7617221,0.32477289,-0.14409158,-0.93475151,0
0.27918023,4.0237379,0.4867425,0.20423377,0.97569335,-0.079443216,0
-1.4917493,-3.5821311,2.8265111,-0.20423377,-0.97569335,0.079443216,0
-0.8065567,-3.741818,2.9331229,-0.20423377,-0.97569335,0.079443216,0
-0.50395137,-1.2928432,-2.0609288,-0.92347777,0.16510665,-0.34630725,0
-0.24514413,-3.7254772,-3.7658627,-0.92347777,0.16510665,-0.34630725,0
0.56862187,0.92839026,-3.7740149,-0.92347777,0.16510665,-0.34630725,0
-0.15887299,-4.3465347,-2.2122438,-0.20423377,-0.97569335,0.079443216,0
2.4097877,3.2407358,-3.3003266,0.20423377,0.97569335,-0.079443216,0
1.1095262,2.1167216,-4.130743,0.32477289,-0.14409158,-0.93475151,0
-0.52053857,-2.5390515,2.8233252,0.92347777,-0.16510665,0.34630725,0
0.51481998,-4.3543239,-1.4448934,-0.20423377,-0.97569335,0.079443216,0
0.030804634,-2.696806,-3.8379536,0.32477289,-0.14409158,-0.93475151,0
-0.53952014,3.7185287,3.4892771,-0.32477289,0.14409158,0.93475151,0
-0.56556946,0.48690379,-1.261107,-0.92347777,0.16510665,-0.34630725,0
-0.45975006,4.4010429,2.3180044,0.20423377,0.97569335,-0.079443216,0
0.79462373,3.9820385,0.43646097,0.20423377,0.97569335,-0.079443216,0
-0.33560395,-0.55849159,-2.0622506,-0.92347777,0.16510665,-0.34630725,0
0.56579089,3.9147983,-1.3273404,0.20423377,0.97569335,-0.079443216,0
0.16656017,-1.9586798,-4.0257339,0.32477289,-0.14409158,-0.93475151,0
0.84652376,4.1434903,2.0465512,0.20423377,0.97569335,-0.079443216,0
-1.3350344,-2.0904019,4.2329001,-0.32477289,0.14409158,0.93475151,0
0.3536247,2.5218866,2.8646054,0.92347777,-0.16510665,0.34630725,0
1.77637,-0.15464203,-1.9367282,0.92347777,-0.16510665,0.34630725,0
-1.8765254,2.5347438,3.2775462,-0.32477289,0.14409158,0.93475151,0
-0.98220384,-3.8031414,0.91349506,-0.20423377,-0.97569335,0.079443216,0
-1.9762115,-3.5662673,1.9963491,-0.20423377,-0.97569335,0.079443216,0
-2.3027265,0.2282908,3.5016403,-0.32477289,0.14409158,0.93475151,0
0.36215627,-2.1635513,0.74672115,0.92347777,-0.16510665,0.34630725,0
1.2848492,1.2281858,-3.9619107,0.32477289,-0.14409158,-0.93475151,0
-0.093956232,-3.1137216,1.4634533,0.92347777,-0.16510665,0.34630725,0
-2.7326128,-3.3090403,3.4189787,-0.20423377,-0.97569335,0.079443216,0
-0.0365417,-3.3605309,-3.6757357,0.32477289,-0.14409158,-0.93475151,0
1.891149,-0.0059378147,-3.6635799,0.32477289,-0.14409158,-0.93475151,0
-1.6966877,-3.1984901,-0.013455391,-0.92347777,0.16510665,-0.34630725,0
-1.6676861,0.42395753,1.9787664,-0.92347777,0.16510665,-0.34630725,0
1.0314913,-1.2127287,-0.70715594,0.92347777,-0.16510665,0.34630725,0
-0.33068252,2.0896087,-1.0712972,-0.92347777,0.16510665,-0.34630725,0
-1.0617456,-1.9658473,4.2018905,-0.32477289,0.14409158,0.93475151,0
-1.2463039,2.1076267,1.5012887,-0.92347777,0.16510665,-0.34630725,0
-0.56883812,1.3947446,3.8485987,-0.32477289,0.14409158,0.93475151,0
1.7933152,3.5045252,-2.302326,0.20423377,0.97569335,-0.079443216,0
-0.35037231,-4.3219862,-3.6693316,-0.20423377,-0.97569335,0.079443216,0
0.021099091,0.47739136,-2.6245046,-0.92347777,0.16510665,-0.34630725,0
-1.5696301,-3.4929483,2.2102942,-0.20423377,-0.97569335,0.079443216,0
-0.12757921,-2.1125698,2.0057931,0.92347777,-0.16510665,0.34630725,0
0.3345902,-2.8713014,-3.6217248,0.32477289,-0.14409158,-0.93475151,0
1.8747165,-1.0639887,-3.4188437,0.32477289,-0.14409158,-0.93475151,0
2.3558145,3.3993912,-2.312808,0.20423377,0.97569335,-0.079443216,0
1.6252391,3.5325553,-3.636183,0.20423377,0.97569335,-0.079443216,0
-1.1064358,-2.3913212,4.2555213,-0.32477289,0.14409158,0.93475151,0
-0.85965127,-3.9583454,-1.3309255,-0.20423377,-0.97569335,0.079443216,0
-1.4068341,-3.3408298,4.3964167,-0.32477289,0.14409158,0.93475151,0
-2.2793291,-3.4152396,2.1830578,-0.20423377,-0.97569335,0.079443216,0
1.6348178,-0.047610402,-3.6972413,0.32477289,-0.14409158,-0.93475151,0
-2.1827028,0.81688046,3.2931945,-0.92347777,0.16510665,-0.34630725,0
-0.39304721,-3.8721914,0.53854632,-0.20423377,-0.97569335,0.079443216,0
-1.4758344,-2.490406,4.2424116,-0.32477289,0.14409158,0.93475151,0
1.8410684,1.4863265,-1.0868986,0.92347777,-0.16510665,0.34630725,0
-0.077078342,-4.3497043,-3.0462985,-0.20423377,-0.97569335,0.079443216,0
-0.43068635,-0.57425177,-1.8078324,-0.92347777,0.16510665,-0.34630725,0
-0.61383545,-4.0759077,-0.31630564,-0.20423377,-0.97569335,0.079443216,0
0.1724453,-4.2550087,-1.9815524,-0.20423377,-0.97569335,0.079443216,0
-2.226145,-0.15595752,3.225364,-0.92347777,0.16510665,-0.34630725,0
1.3512287,-0.83616757,-1.3916883,0.92347777,-0.16510665,0.34630725,0
-0.68520451,-3.9586463,-0.53886127,-0.20423377,-0.97569335,0.079443216,0
-0.5167104,-4.0164194,0.81040359,-0.20423377,-0.97569335,0.079443216,0
-0.27778548,4.26511,0.61696482,0.20423377,0.97569335,-0.079443216,0
-1.6645001,3.3005881,3.2421639,-0.32477289,0.14409158,0.93475151,0
-0.67361474,4.5317249,3.3253224,0.20423377,0.97569335,-0.079443216,0
-1.202472,-1.6779735,4.0974917,-0.32477289,0.14409158,0.93475151,0
-0.22386169,-4.0498314,-0.77722073,-0.20423377,-0.97569335,0.079443216,0
-1.1107912,-2.1034966,4.212544,-0.32477289,0.14409158,0.93475151,0
-0.56502223,1.1586956,3.9855866,-0.32477289,0.14409158,0.93475151,0
-0.99540126,3.6998835,1.5833731,-0.92347777,0.16510665,-0.34630725,0
-0.88509488,0.55208206,-0.011623338,-0.92347777,0.16510665,-0.34630725,0
0.19563115,4.1914239,0.46115518,0.20423377,0.97569335,-0.079443216,0
0.59501159,-3.4845541,-0.14016485,0.92347777,-0.16510665,0.34630725,0
0.82681489,0.3285042,0.81603265,0.92347777,-0.16510665,0.34630725,0
-0.079227686,-4.0462542,0.15544653,-0.20423377,-0.97569335,0.079443216,0
-0.12609291,-3.418148,1.408181,0.92347777,-0.16510665,0.34630725,0
1.888505,-0.61864829,-3.4752073,0.32477289,-0.14409158,-0.93475151,0
-2.4014087,-2.8656073,3.9265504,-0.32477289,0.14409158,0.93475151,0
-1.9876163,1.4189389,3.4187655,-0.32477289,0.14409158,0.93475151,0
0.047809839,1.3590684,-2.3967705,-0.92347777,0.16510665,-0.34630725,0
0.56065655,-2.6581368,-3.6056604,0.32477289,-0.14409158,-0.93475151,0
1.7722946,-2.4130633,-2.8100879,0.92347777,-0.16510665,0.34630725,0
1.4161661,3.8666079,0.70550537,0.20423377,0.97569335,-0.079443216,0
-0.94973648,-3.8612347,0.95697951,-0.20423377,-0.97569335,0.079443216,0
1.25292,-4.583231,-3.0260954,-0.20423377,-0.97569335,0.079443216,0
0.66871768,-1.8581091,0.079491019,0.92347777,-0.16510665,0.34630725,0
-0.46976966,4.4862309,2.9747958,0.20423377,0.97569335,-0.079443216,0
0.6508916,4.2310777,2.3901763,0.20423377,0.97569335,-0.079443216,0
1.9091933,-2.3302765,-3.2951796,0.32477289,-0.14409158,-0.93475151,0
2.22104,2.9873095,-3.8747697,0.32477289,-0.14409158,-0.93475151,0
0.86832952,4.0647569,2.7072864,0.92347777,-0.16510665,0.34630725,0
-0.40102863,2.738296,3.8019638,-0.32477289,0.14409158,0.93475151,0
-0.1817224,4.1746035,0.86431193,0.20423377,0.97569335,-0.079443216,0
-1.8494811,-0.56479514,1.5164387,-0.92347777,0.16510665,-0.34630725,0
-1.3637859,4.0014753,3.2841043,-0.32477289,0.14409158,0.93475151,0
-0.17684448,-4.1352363,-1.0549259,-0.20423377,-0.97569335,0.079443216,0
-2.0099268,-3.5339687,1.9927838,-0.20423377,-0.97569335,0.079443216,0
-1.994725,-3.418803,2.624089,-0.20423377,-0.97569335,0.079443216,0
-0.44883049,-4.1070962,-3.3993011,-0.92347777,0.16510665,-0.34630725,0
-2.3605335,-3.3128133,2.5789824,-0.20423377,-0.97569335,0.079443216,0
-1.4512243,1.3294746,3.6158135,-0.32477289,0.14409158,0.93475151,0
-0.94085693,0.56175733,3.8319511,-0.32477289,0.14409158,0.93475151,0
2.8663301,3.1619356,-3.2842937,0.20423377,0.97569335,-0.079443216,0
-0.90900874,-3.7347047,2.9350982,-0.20423377,-0.97569335,0.079443216,0
-0.71001935,-0.76171756,4.1708374,-0.32477289,0.14409158,0.93475151,0
0.82392263,-2.5590668,-3.6842983,0.32477289,-0.14409158,-0.93475151,0
0.80824542,3.7030888,-1.6349592,0.20423377,0.97569335,-0.079443216,0
-0.30713814,4.1563454,0.23741078,0.20423377,0.97569335,-0.079443216,0
-1.5257366,1.138103,3.510843,-0.32477289,0.14409158,0.93475151,0
-1.0278274,4.0453033,3.3357582,-0.32477289,0.14409158,0.93475151,0
-1.9118147,-2.592957,4.0931263,-0.32477289,0.14409158,0.93475151,0
-1.2434814,0.96524012,3.7485356,-0.32477289,0.14409158,0.93475151,0
1.8500671,3.5694213,-1.5389643,0.20423377,0.97569335,-0.079443216,0
-2.6835794,-2.2033691,3.7495198,-0.32477289,0.14409158,0.93475151,0
0.12011963,-4.2111864,-0.60723376,-0.20423377,-0.97569335,0.079443216,0
0.61668849,1.9283211,-3.3284152,-0.92347777,0.16510665,-0.34630725,0
-1.1063499,2.2592211,3.6276948,-0.32477289,0.14409158,0.93475151,0
-0.41490173,1.2320715,4.0077729,-0.32477289,0.14409158,0.93475151,0
-0.07525444,1.9179567,3.9040556,-0.32477289,0.14409158,0.93475151,0
-0.35973382,-3.9766927,1.7640419,-0.20423377,-0.97569335,0.079443216,0
2.8482256,2.5209329,-3.6575513,0.32477289,-0.14409158,-0.93475151,0
-0.97895098,0.089909792,3.9742544,-0.32477289,0.14409158,0.93475151,0
-0.88717103,-3.7553139,1.2962456,-0.20423377,-0.97569335,0.079443216,0
2.2245102,1.6108346,-3.7037103,0.32477289,-0.14409158,-0.93475151,0
-2.098546,-0.053154409,2.7518654,-0.92347777,0.16510665,-0.34630725,0
-1.6767031,3.1394067,3.1865849,-0.32477289,0.14409158,0.93475151,0
-0.075873256,-4.4261036,-3.4277656,-0.20423377,-0.97569335,0.079443216,0
-1.0143681,0.70248961,0.34751767,-0.92347777,0.16510665,-0.34630725,0
1.1470075,-1.6266254,-1.2293735,0.92347777,-0.16510665,0.34630725,0
-0.71034807,-0.80858636,-1.2722626,-0.92347777,0.16510665,-0.34630725,0
2.5335026,1.2609577,-3.5370817,0.32477289,-0.14409158,-0.93475151,0
-0.87068391,-3.7087295,2.9194109,-0.20423377,-0.97569335,0.079443216,0
1.240657,2.0342755,0.81704545,0.92347777,-0.16510665,0.34630725,0
-0.90794086,1.4697087,0.1877979,-0.92347777,0.16510665,-0.34630725,0
-0.49640274,-1.9507449,-2.4529808,-0.92347777,0.16510665,-0.34630725,0
-1.7332821,1.5749584,3.5397136,-0.32477289,0.14409158,0.93475151,0
1.7599459,-0.83004314,-2.1294787,0.92347777,-0.16510665,0.34630725,0
0.58826828,4.1377344,2.9900169,0.20423377,0.97569335,-0.079443216,0
0.68874907,-0.50723243,-4.0644736,0.32477289,-0.14409158,-0.93475151,0
2.1657951,2.5796497,-1.4721494,0.92347777,-0.16510665,0.34630725,0
1.1928704,3.8490434,0.5650816,0.20423377,0.97569335,-0.079443216,0
1.7305424,3.6660559,-0.84439826,0.20423377,0.97569335,-0.079443216,0
1.3371882,0.24004602,-3.8586841,0.32477289,-0.14409158,-0.93475151,0
-1.9942839,-3.5364754,1.9560177,-0.20423377,-0.97569335,0.079443216,0
-0.64949739,-3.0993822,-2.7813237,-0.92347777,0.16510665,-0.34630725,0
-0.28753853,4.2134266,1.4909983,0.20423377,0.97569335,-0.079443216,0
-1.2106341,2.7177088,3.3345604,-0.32477289,0.14409158,0.93475151,0
-0.95175648,-2.2110839,4.3502431,0.92347777,-0.16510665,0.34630725,0
1.7623708,-1.6985867,-3.4837384,0.32477289,-0.14409158,-0.93475151,0
-1.4372311,0.36307657,3.7368639,-0.32477289,0.14409158,0.93475151,0
-0.24499226,0.14374399,3.5014896,0.92347777,-0.16510665,0.34630725,0
1.1497111,-0.60400307,-3.7711225,0.32477289,-0.14409158,-0.93475151,0
-1.1311789,-3.1433961,4.4251709,-0.32477289,0.14409158,0.93475151,0
-0.44866395,4.2715521,2.0808015,0.20423377,0.97569335,-0.079443216,0
-0.87644625,1.1365032,3.7327919,-0.32477289,0.14409158,0.93475151,0
1.0626504,-1.9684644,-3.6096029,0.32477289,-0.14409158,-0.93475151,0
1.5697234,0.031731144,-1.0555575,0.92347777,-0.16510665,0.34630725,0
-0.98882627,-3.7061181,2.8903635,-0.20423377,-0.97569335,0.079443216,0
-1.9632704,0.025336862,3.6516802,-0.32477289,0.14409158,0.93475151,0
1.1854057,3.6082196,-3.0706265,0.20423377,0.97569335,-0.079443216,0
0.53266358,-4.3605909,-0.74774504,-0.20423377,-0.97569335,0.079443216,0
-1.1451198,-3.7948198,-0.087092876,-0.20423377,-0.97569335,0.079443216,0
0.95977253,4.0788069,2.3229461,0.20423377,0.97569335,-0.079443216,0
1.5019737,3.7639339,-0.84161592,0.20423377,0.97569335,-0.079443216,0
2.0439544,-0.25194812,-3.453054,0.32477289,-0.14409158,-0.93475151,0
0.18189311,3.4452808,3.7631214,-0.32477289,0.14409158,0.93475151,0
0.19001746,0.79171109,-3.2120013,-0.92347777,0.16510665,-0.34630725,0
0.96571958,-4.5634604,-2.6210439,-0.20423377,-0.97569335,0.079443216,0
-1.0015355,-3.9631243,-1.2825699,-0.20423377,-0.97569335,0.079443216,0
0.085310221,-4.3611674,-3.4833822,-0.20423377,-0.97569335,0.079443216,0
1.1300833,3.5792837,-2.7535422,0.20423377,0.97569335,-0.079443216,0
-0.2988534,-3.1609209,1.9689997,0.92347777,-0.16510665,0.34630725,0
-0.34152973,3.099951,3.7128754,-0.32477289,0.14409158,0.93475151,0
0.52615368,3.8836091,-0.88146043,0.20423377,0.97569335,-0.079443216,0
0.60289216,-1.5462624,0.30471045,0.92347777,-0.16510665,0.34630725,0
-0.22306812,-3.9641724,0.36851525,-0.20423377,-0.97569335,0.079443216,0
0.61433715,-3.2888346,-0.53647614,0.92347777,-0.16510665,0.34630725,0
-0.62077141,-1.7602403,3.7431409,0.92347777,-0.16510665,0.34630725,0
-2.2010236,0.25557935,3.0895638,-0.92347777,0.16510665,-0.34630725,0
-1.3439057,1.6225905,3.5095983,-0.32477289,0.14409158,0.93475151,0
1.3939333,-4.2046323,-3.1381757,0.32477289,-0.14409158,-0.93475151,0
0.47165394,1.6392037,-3.3498027,-0.92347777,0.16510665,-0.34630725,0
-1.8555459,2.1567392,3.292129,-0.32477289,0.14409158,0.93475151,0
0.37610626,-2.9717631,-3.7757707,0.32477289,-0.14409158,-0.93475151,0
-1.0761807,-0.60982227,3.9679346,-0.32477289,0.14409158,0.93475151,0
-0.89434958,4.4049649,1.9686241,0.20423377,0.97569335,-0.079443216,0
1.3836716,-3.0620313,-2.1014132,0.92347777,-0.16510665,0.34630725,0
-0.86095142,-3.8301067,-0.081252098,-0.20423377,-0.97569335,0.079443216,0
0.61726689,3.9023981,-0.75106406,0.20423377,0.97569335,-0.079443216,0
1.7722316,0.82008123,-3.8454254,0.32477289,-0.14409158,-0.93475151,0
0.85517019,2.4035904,1.7308171,0.92347777,-0.16510665,0.34630725,0
-2.4801121,-0.92424566,3.6638703,-0.32477289,0.14409158,0.93475151,0
0.27594316,-4.0630155,-3.5153553,0.32477289,-0.14409158,-0.93475151,0
-0.27442634,1.3830218,-1.3933862,-0.92347777,0.16510665,-0.34630725,0
0.97882128,0.14126635,-3.8738699,0.32477289,-0.14409158,-0.93475151,0
0.64287096,3.9289722,2.9598277,0.92347777,-0.16510665,0.34630725,0
-0.67598164,-3.9402452,0.55085444,-0.20423377,-0.97569335,0.079443216,0
0.78841519,4.0583582,2.4142907,0.20423377,0.97569335,-0.079443216,0
1.9482616,1.5016348,-1.7041785,0.92347777,-0.16510665,0.34630725,0
2.5715117,1.6955092,-3.6116641,0.32477289,-0.14409158,-0.93475151,0
0.48989278,-4.5314794,-2.9438589,-0.20423377,-0.97569335,0.079443216,0
0.49133527,3.9194875,0.18646359,0.20423377,0.97569335,-0.079443216,0
1.1445049,3.9505744,0.62702036,0.20423377,0.97569335,-0.079443216,0
-0.037018627,4.218349,2.2821231,0.20423377,0.97569335,-0.079443216,0
-1.293627,-1.8972625,-0.56918049,-0.92347777,0.16510665,-0.34630725,0
-0.10880518,-1.1890559,-3.3855503,-0.92347777,0.16510665,-0.34630725,0
-1.6015062,-1.4691317,0.8325026,-0.92347777,0.16510665,-0.34630725,0
1.0078623,-1.9267051,-3.6734982,0.32477289,-0.14409158,-0.93475151,0
0.57210451,1.7086697,2.2178905,0.92347777,-0.16510665,0.34630725,0
-2.4725447,-2.6859028,3.8975587,-0.32477289,0.14409158,0.93475151,0
-2.1503739,-3.4115233,2.3202527,-0.20423377,-0.97569335,0.079443216,0
2.6078949,3.2763627,-3.0189886,0.20423377,0.97569335,-0.079443216,0
-0.61987019,-4.1278687,-2.220437,-0.20423377,-0.97569335,0.079443216,0
1.0827937,2.1374993,-4.2566791,0.32477289,-0.14409158,-0.93475151,0
0.24454904,3.7754374,-1.9609218,-0.92347777,0.16510665,-0.34630725,0
0.17659044,-4.2034836,0.34550428,-0.20423377,-0.97569335,0.079443216,0
-0.42628121,3.9773378,3.4481189,-0.32477289,0.14409158,0.93475151,0
0.40253073,-3.4068003,-0.083995342,0.92347777,-0.16510665,0.34630725,0
0.55465007,-0.57888317,-3.9865069,0.32477289,-0.14409158,-0.93475151,0
0.36650801,3.9566171,-1.4959733,0.20423377,0.97569335,-0.079443216,0
-0.23616552,-1.7791172,-3.3335238,-0.92347777,0.16510665,-0.34630725,0
1.5458651,3.7608142,-1.0210588,0.20423377,0.97569335,-0.079443216,0
-0.74219787,-0.52853107,-1.2274133,-0.92347777,0.16510665,-0.34630725,0
0.50487667,4.1963968,1.7525337,0.20423377,0.97569335,-0.079443216,0
-0.88436007,-3.8718758,1.2993991,-0.20423377,-0.97569335,0.079443216,0
0.53960437,-3.244009,0.15435791,0.92347777,-0.16510665,0.34630725,0
-0.45787251,0.84892261,-1.0098056,-0.92347777,0.16510665,-0.34630725,0
-0.3420496,-4.2500024,-2.1839976,-0.20423377,-0.97569335,0.079443216,0
-1.8590407,0.65592623,2.6436284,-0.92347777,0.16510665,-0.34630725,0
2.058727,0.025907755,-3.5457883,0.32477289,-0.14409158,-0.93475151,0
-0.77215242,-1.6157126,4.2187681,-0.32477289,0.14409158,0.93475151,0
-0.93711936,4.5922475,2.4742954,0.20423377,0.97569335,-0.079443216,0
-0.81431121,2.4832299,0.2311399,-0.92347777,0.16510665,-0.34630725,0
0.017268509,-4.2550101,-2.1293001,-0.20423377,-0.97569335,0.079443216,0
0.098617315,2.6450102,3.8832359,-0.32477289,0.14409158,0.93475151,0
1.2479181,-4.6762614,-3.0865982,-0.20423377,-0.97569335,0.079443216,0
-0.74491644,-3.8120542,1.3202991,-0.20423377,-0.97569335,0.079443216,0
1.4681768,-4.3652105,-3.0916667,0.32477289,-0.14409158,-0.93475151,0
-1.5331348,-3.6364322,1.065779,-0.20423377,-0.97569335,0.079443216,0
-2.1019218,-3.5527961,2.1005659,-0.20423377,-0.97569335,0.079443216,0
-1.0740051,-1.9727901,4.1108203,-0.32477289,0.14409158,0.93475151,0
-1.5831189,-1.3269007,3.9478009,-0.32477289,0.14409158,0.93475151,0
0.85908341,3.291914,-3.5387988,-0.92347777,0.16510665,-0.34630725,0
1.4950905,-1.2662599,-3.6211157,0.32477289,-0.14409158,-0.93475151,0
0.56026435,2.4751511,-3.3523934,-0.92347777,0.16510665,-0.34630725,0
-1.1729631,2.8155651,3.3981256,-0.32477289,0.14409158,0.93475151,0
1.4463773,2.4068661,-4.2123289,0.32477289,-0.14409158,-0.93475151,0
-0.68383211,4.168272,1.0091624,-0.92347777,0.16510665,-0.34630725,0
-1.4358251,-3.7014155,1.3193393,-0.20423377,-0.97569335,0.079443216,0
0.96535367,-1.7709895,-0.80713272,0.92347777,-0.16510665,0.34630725,0
-1.3166221,-3.8140712,0.38331842,-0.20423377,-0.97569335,0.079443216,0
-2.2369714,-1.8280113,3.8102577,-0.32477289,0.14409158,0.93475151,0
-0.26310578,4.1713834,1.382906,0.20423377,0.97569335,-0.079443216,0
1.1937021,-1.1950948,-1.0684117,0.92347777,-0.16510665,0.34630725,0
0.11825049,-4.2230844,-0.36207986,-0.20423377,-0.97569335,0.079443216,0
1.406312,0.6350826,-3.8033259,0.32477289,-0.14409158,-0.93475151,0
2.040756,-0.56676781,-3.5219123,0.32477289,-0.14409158,-0.93475151,0
0.1602211,-2.0029159,-3.9726081,0.32477289,-0.14409158,-0.93475151,0
-0.96846581,4.1373258,1.56024,-0.92347777,0.16510665,-0.34630725,0
-1.6423032,0.16403592,3.5970697,-0.32477289,0.14409158,0.93475151,0
-1.1229277,-1.5007663,4.0757031,-0.32477289,0.14409158,0.93475151,0
1.4974174,3.3375132,-4.1765471,0.32477289,-0.14409158,-0.93475151,0
-0.77288014,-0.31015235,-0.88819981,-0.92347777,0.16510665,-0.34630725,0
-0.85626054,-3.6096306,3.2047703,-0.20423377,-0.97569335,0.079443216,0
-1.7457578,-3.5024593,3.5471764,-0.20423377,-0.97569335,0.079443216,0
-0.27190387,4.4593296,3.1157644,0.20423377,0.97569335,-0.079443216,0
1.83811,-0.38336813,-3.6134019,0.32477289,-0.14409158,-0.93475151,0
1.6261578,0.4223727,-3.7956338,0.32477289,-0.14409158,-0.93475151,0
0.79311001,-3.5494483,-3.4521794,0.32477289,-0.14409158,-0.93475151,0
1.0922409,0.11387485,0.088491976,0.92347777,-0.16510665,0.34630725,0
0.26662302,0.003010273,-3.7419422,-0.92347777,0.16510665,-0.34630725,0
0.57712471,4.0805311,0.31465244,0.20423377,0.97569335,-0.079443216,0
0.34258866,4.1206217,2.1590071,0.20423377,0.97569335,-0.079443216,0
-0.65488052,1.0920409,3.9333649,-0.32477289,0.14409158,0.93475151,0
2.3904185,3.3725545,-3.0380065,0.20423377,0.97569335,-0.079443216,0
0.41147077,0.49307668,2.0224123,0.92347777,-0.16510665,0.34630725,0
1.1155227,1.6523746,0.41706157,0.92347777,-0.16510665,0.34630725,0
-0.065006256,3.8899112,-0.98717713,-0.92347777,0.16510665,-0.34630725,0
-0.64490896,-4.152627,-2.6008143,-0.20423377,-0.97569335,0.079443216,0
0.16685605,-0.087451696,-3.1708879,-0.92347777,0.16510665,-0.34630725,0
0.1246407,-2.217638,-3.7973254,0.32477289,-0.14409158,-0.93475151,0
2.4037817,3.2866886,-3.1363833,0.20423377,0.97569335,-0.079443216,0
0.56298465,2.390413,2.5109897,0.92347777,-0.16510665,0.34630725,0
1.833759,-1.7338197,-3.1084151,0.92347777,-0.16510665,0.34630725,0
-1.8379211,-0.41075575,3.6720116,-0.32477289,0.14409158,0.93475151,0
-0.13920635,4.4188972,2.9778025,0.20423377,0.97569335,-0.079443216,0
1.0895065,1.0774138,0.47777176,0.92347777,-0.16510665,0.34630725,0
-0.29317081,3.9240446,3.4806874,-0.32477289,0.14409158,0.93475151,0
-0.2228111,-0.73648262,-2.5369167,-0.92347777,0.16510665,-0.34630725,0
0.21122396,-3.310724,0.97732115,0.92347777,-0.16510665,0.34630725,0
1.8761669,1.256893,-1.5959315,0.92347777,-0.16510665,0.34630725,0
0.77053535,4.1130929,1.3806312,0.20423377,0.97569335,-0.079443216,0
1.0783792,-3.0771379,-3.4739318,0.32477289,-0.14409158,-0.93475151,0
-0.82010239,-2.4606652,-1.8889518,-0.92347777,0.16510665,-0.34630725,0
-0.87663746,-4.1946306,-2.3133345,-0.20423377,-0.97569335,0.079443216,0
1.8460429,1.9573421,-0.97593045,0.92347777,-0.16510665,0.34630725,0
-1.1679761,2.6169772,3.4590187,-0.32477289,0.14409158,0.93475151,0
-1.335649,-0.72873843,3.917969,-0.32477289,0.14409158,0.93475151,0
0.070385575,-0.89419115,2.0495472,0.92347777,-0.16510665,0.34630725,0
1.5646176,3.4266982,-3.4605887,0.20423377,0.97569335,-0.079443216,0
1.410219,2.11375,-4.1098714,0.32477289,-0.14409158,-0.93475151,0
-0.38287854,2.2089603,-0.55779934,-0.92347777,0.16510665,-0.34630725,0
1.2034217,2.621397,0.66428733,0.92347777,-0.16510665,0.34630725,0
-0.19477355,-2.4217718,-3.2640939,-0.92347777,0.16510665,-0.34630725,0
-1.1277628,-3.8221698,-1.6028116,-0.92347777,0.16510665,-0.34630725,0
-1.0340376,4.4769449,3.1625624,0.20423377,0.97569335,-0.079443216,0
1.6400337,-0.3392204,-3.6516232,0.32477289,-0.14409158,-0.93475151,0
0.55609322,-4.1367779,-0.63687038,0.92347777,-0.16510665,0.34630725,0
-0.97551775,3.4288926,1.5461967,-0.92347777,0.16510665,-0.34630725,0
0.21921539,-4.3303475,-3.4174891,-0.20423377,-0.97569335,0.079443216,0
-2.2780075,-3.510313,1.5246623,-0.20423377,-0.97569335,0.079443216,0
-0.093317151,2.7631147,-1.058614,-0.92347777,0.16510665,-0.34630725,0
2.063911,-0.33945107,-2.8697984,0.92347777,-0.16510665,0.34630725,0
-1.1247447,-0.46214437,3.8723757,-0.32477289,0.14409158,0.93475151,0
0.45499504,0.21449053,1.8461843,0.92347777,-0.16510665,0.34630725,0
0.67984807,-1.3332853,0.48657846,0.92347777,-0.16510665,0.34630725,0
1.0096469,2.3329353,1.1061738,0.92347777,-0.16510665,0.34630725,0
2.5285621,1.4494069,-2.8765445,0.92347777,-0.16510665,0.34630725,0
-0.11417937,2.4193017,3.8395722,-0.32477289,0.14409158,0.93475151,0
0.55967379,-1.8723927,-3.836735,0.32477289,-0.14409158,-0.93475151,0
0.87519354,-2.6853991,-0.44896662,0.92347777,-0.16510665,0.34630725,0
0.72600722,3.5987127,-3.1012754,-0.92347777,0.16510665,-0.34630725,0
-0.78824657,4.5651989,3.0524988,0.20423377,0.97569335,-0.079443216,0
-1.787853,-3.5879397,1.0670238,-0.20423377,-0.97569335,0.079443216,0
1.934438,-0.43308103,-3.4922295,0.32477289,-0.14409158,-0.93475151,0
-1.698827,-0.13488197,3.780354,-0.32477289,0.14409158,0.93475151,0
0.20124173,4.3613415,3.1052186,0.20423377,0.97569335,-0.079443216,0
0.41942072,2.4381018,2.6994929,0.92347777,-0.16510665,0.34630725,0
0.3028459,4.2245865,3.0259922,0.20423377,0.97569335,-0.079443216,0
1.9173547,-1.8594933,-2.9621971,0.92347777,-0.16510665,0.34630725,0
-2.0808592,-3.4760261,2.2925429,-0.20423377,-0.97569335,0.079443216,0
-0.2683388,4.3857622,2.1697507,0.20423377,0.97569335,-0.079443216,0
1.8872142,2.7964675,-4.0618706,0.32477289,-0.14409158,-0.93475151,0
-1.5583234,3.9098849,3.1039333,-0.32477289,0.14409158,0.93475151,0
1.8326426,2.264009,-3.9319096,0.32477289,-0.14409158,-0.93475151,0
0.79978681,-1.56104,-0.23476285,0.92347777,-0.16510665,0.34630725,0
0.54022622,3.8968809,-1.8903739,0.20423377,0.97569335,-0.079443216,0
-1.3783156,-1.0914437,-0.014320493,-0.92347777,0.16510665,-0.34630725,0
1.2275348,3.8025374,0.6621995,0.20423377,0.97569335,-0.079443216,0
1.8454666,3.3817911,-3.3574069,0.20423377,0.97569335,-0.079443216,0
-0.3143872,2.5912509,-0.95470405,-0.92347777,0.16510665,-0.34630725,0
0.79155886,3.8606925,0.090971947,0.20423377,0.97569335,-0.079443216,0
1.675846,0.015827835,-1.7006707,0.92347777,-0.16510665,0.34630725,0
0.038522124,4.1499801,-0.52414012,0.20423377,0.97569335,-0.079443216,0
0.44311237,2.8892474,-2.5253892,-0.92347777,0.16510665,-0.34630725,0
-0.1133275,0.37128937,-2.5074561,-0.92347777,0.16510665,-0.34630725,0
0.75128752,2.184988,1.7746544,0.92347777,-0.16510665,0.34630725,0
-0.90149474,-1.3496017,4.1831589,-0.32477289,0.14409158,0.93475151,0
1.0300956,-0.36530113,-0.074412435,0.92347777,-0.16510665,0.34630725,0
-0.22590262,-4.0835009,-0.69699454,-0.20423377,-0.97569335,0.079443216,0
-0.73598146,-0.39369011,4.0951443,-0.32477289,0.14409158,0.93475151,0
-2.3112886,-0.58949691,2.7738829,-0.92347777,0.16510665,-0.34630725,0
-2.2979887,-1.8074468,3.804878,-0.32477289,0.14409158,0.93475151,0
0.3911376,4.2509193,1.6323359,0.20423377,0.97569335,-0.079443216,0
0.14687717,1.3113582,2.838042,0.92347777,-0.16510665,0.34630725,0
0.83119059,3.2837682,-3.4322009,-0.92347777,0.16510665,-0.34630725,0
-0.78249615,4.5101614,2.6729393,0.20423377,0.97569335,-0.079443216,0
