0.3520782,-4.254107,1.1132419,-0.28180993,-0.69682229,0.65956187,0
2.6008875,-3.1307981,-0.66062689,0.76278186,-0.57970494,-0.2865414,0
0.8585217,-2.1302669,-0.78179169,-0.58201969,-0.4223516,-0.69488996,0
3.3807535,-0.70546567,-1.0507658,0.58201969,0.4223516,0.69488996,0
-2.8853469,3.2078555,-0.1626637,-0.76278186,0.57970494,0.2865414,0
-0.035717726,1.5638705,-2.4744377,-0.58201969,-0.4223516,-0.69488996,0
-3.9457638,-0.83912265,2.7224255,-0.28180993,-0.69682229,0.65956187,0
3.6219289,-1.73578,-0.93463182,0.76278186,-0.57970494,-0.2865414,0
3.1837988,-0.88747793,-3.4928198,0.76278186,-0.57970494,-0.2865414,0
3.5540102,-1.3781627,-2.0218077,0.76278186,-0.57970494,-0.2865414,0
1.651067,-4.7379494,0.26420736,0.76278186,-0.57970494,-0.2865414,0
2.2474742,-3.811311,-0.16155577,0.76278186,-0.57970494,-0.2865414,0
4.1854811,-0.35764265,-2.3779464,0.76278186,-0.57970494,-0.2865414,0
-1.7809341,4.6782341,-1.2269173,0.28180993,0.69682229,-0.65956187,0
3.5410576,0.84875226,-2.7817369,0.28180993,0.69682229,-0.65956187,0
1.4349418,-2.0487347,1.4768347,0.58201969,0.4223516,0.69488996,0
-0.44973159,3.8769886,-1.4492946,0.28180993,0.69682229,-0.65956187,0
3.3081884,-1.9706154,-1.1219478,0.76278186,-0.57970494,-0.2865414,0
-2.6020586,4.3685861,-1.8270009,0.28180993,0.69682229,-0.65956187,0
2.0547493,-3.1656656,-1.2403433,-0.58201969,-0.4223516,-0.69488996,0
-2.5057449,-1.6486731,2.465292,-0.28180993,-0.69682229,0.65956187,0
0.60157084,2.3179889,-0.45628476,0.58201969,0.4223516,0.69488996,0
2.7733781,0.40840793,-1.0636235,0.58201969,0.4223516,0.69488996,0
1.708643,0.21481562,-2.9875619,-0.58201969,-0.4223516,-0.69488996,0
2.9576652,-2.4528418,-0.81318593,0.76278186,-0.57970494,-0.2865414,0
-2.3054042,-2.1991336,2.0310187,-0.28180993,-0.69682229,0.65956187,0
-2.4601722,3.342622,0.76928115,-0.76278186,0.57970494,0.2865414,0
-3.9626915,0.058345944,3.4176691,-0.76278186,0.57970494,0.2865414,0
2.5888743,-3.5643463,-0.20024586,0.76278186,-0.57970494,-0.2865414,0
1.3721763,1.641351,-0.85067821,0.58201969,0.4223516,0.69488996,0
2.8802154,-1.8158929,-2.6067894,0.76278186,-0.57970494,-0.2865414,0
3.6997652,-1.1353818,-1.6226182,0.76278186,-0.57970494,-0.2865414,0
-1.3338475,3.5934677,-2.0879145,0.28180993,0.69682229,-0.65956187,0
-3.7145362,1.5313182,1.0346417,-0.76278186,0.57970494,0.2865414,0
1.2695848,1.6502278,-2.9404247,0.28180993,0.69682229,-0.65956187,0
2.8535905,-3.7912798,1.0493753,0.76278186,-0.57970494,-0.2865414,0
-2.5500772,-0.65537333,3.6761124,-0.28180993,-0.69682229,0.65956187,0
3.3386588,-1.6067791,-1.8326864,0.76278186,-0.57970494,-0.2865414,0
2.3130298,-3.2009468,-0.98526883,0.76278186,-0.57970494,-0.2865414,0
3.4169025,-0.61694956,-3.3606997,0.76278186,-0.57970494,-0.2865414,0
1.9946311,-4.6166673,1.2398582,-0.28180993,-0.69682229,0.65956187,0
1.9536579,-4.7540979,1.0915213,-0.28180993,-0.69682229,0.65956187,0
0.97497749,-2.725049,-0.71681023,-0.58201969,-0.4223516,-0.69488996,0
-4.0398045,0.50456673,2.4425273,-0.76278186,0.57970494,0.2865414,0
-4.1378627,0.34888589,2.5239568,-0.76278186,0.57970494,0.2865414,0
2.3634801,1.6457026,-1.5492811,0.58201969,0.4223516,0.69488996,0
2.5136201,-3.444752,-0.51678181,0.76278186,-0.57970494,-0.2865414,0
-0.018818617,-0.92391539,2.1437802,0.58201969,0.4223516,0.69488996,0
-3.4318166,1.798231,1.4982421,-0.76278186,0.57970494,0.2865414,0
-1.9793317,4.1687889,0.19561434,-0.76278186,0.57970494,0.2865414,0
2.2565432,0.93262655,-1.0770817,0.58201969,0.4223516,0.69488996,0
1.807987,-2.0265987,-1.6851996,-0.58201969,-0.4223516,-0.69488996,0
2.8570395,0.42814505,-1.1625444,0.58201969,0.4223516,0.69488996,0
-2.1372144,-0.83739322,0.74289811,-0.58201969,-0.4223516,-0.69488996,0
3.3003914,0.66373008,-3.0524445,0.28180993,0.69682229,-0.65956187,0
3.6404133,-0.3335287,-3.613462,0.76278186,-0.57970494,-0.2865414,0
2.9703641,-3.5913982,1.1307065,0.76278186,-0.57970494,-0.2865414,0
2.4223583,-0.13972688,-3.4931505,-0.58201969,-0.4223516,-0.69488996,0
0.032561064,3.6456342,-1.5657763,0.28180993,0.69682229,-0.65956187,0
2.7744935,-3.0401502,1.0361125,0.58201969,0.4223516,0.69488996,0
-2.9236169,2.9557648,0.011509657,-0.76278186,0.57970494,0.2865414,0
2.1849523,2.3291597,-1.9248071,0.28180993,0.69682229,-0.65956187,0
-3.3964746,1.9315898,1.0775077,-0.76278186,0.57970494,0.2865414,0
-1.4145459,2.8925524,0.84540868,0.58201969,0.4223516,0.69488996,0
0.7475633,0.43802655,-2.2118044,-0.58201969,-0.4223516,-0.69488996,0
0.28883648,-1.8633944,-0.53141606,-0.58201969,-0.4223516,-0.69488996,0
-3.1309021,-1.5407745,2.1896014,-0.28180993,-0.69682229,0.65956187,0
2.4080062,-3.0202012,-1.517525,0.76278186,-0.57970494,-0.2865414,0
1.2000399,-4.9448161,0.6402154,-0.58201969,-0.4223516,-0.69488996,0
0.16874981,-2.6034427,2.6141024,-0.28180993,-0.69682229,0.65956187,0
-1.2775323,3.9520886,-1.671808,0.28180993,0.69682229,-0.65956187,0
-2.6676764,2.9503102,1.0876303,-0.76278186,0.57970494,0.2865414,0
-3.0437353,1.9641888,2.036094,-0.76278186,0.57970494,0.2865414,0
0.14031696,4.0404744,-1.0971375,0.28180993,0.69682229,-0.65956187,0
-3.1224117,1.3968186,3.1184359,-0.76278186,0.57970494,0.2865414,0
-1.464426,-2.8437884,1.7588308,-0.28180993,-0.69682229,0.65956187,0
3.7332654,0.14281566,-3.6488075,0.28180993,0.69682229,-0.65956187,0
-3.4883602,0.14698032,3.8811059,-0.28180993,-0.69682229,0.65956187,0
-2.1513135,2.0466151,2.047452,0.58201969,0.4223516,0.69488996,0
2.5413599,0.58092338,-3.5173538,0.28180993,0.69682229,-0.65956187,0
-2.5607889,-0.52002275,3.6243937,-0.28180993,-0.69682229,0.65956187,0
3.2709055,-0.94468677,-3.3261876,0.76278186,-0.57970494,-0.2865414,0
0.50102234,3.3888669,-1.5617959,0.28180993,0.69682229,-0.65956187,0
-1.6172976,0.58064759,-0.5203262,-0.58201969,-0.4223516,-0.69488996,0
3.6642952,-0.17032306,-3.8163092,0.76278186,-0.57970494,-0.2865414,0
-0.82529914,0.24943739,1.8494127,0.58201969,0.4223516,0.69488996,0
-3.778928,-0.93999255,2.4041605,-0.58201969,-0.4223516,-0.69488996,0
3.3467016,-0.92249858,-2.9847605,0.76278186,-0.57970494,-0.2865414,0
2.6419604,2.0045593,-2.074321,0.28180993,0.69682229,-0.65956187,0
4.3397298,-0.039193988,-2.4695013,0.76278186,-0.57970494,-0.2865414,0
-2.2170928,4.6209669,-1.2435331,-0.76278186,0.57970494,0.2865414,0
-2.0814352,-2.3076615,1.9806699,-0.28180993,-0.69682229,0.65956187,0
-0.99800992,-2.1143641,2.559689,-0.28180993,-0.69682229,0.65956187,0
-1.6829472,4.8223581,-0.24227047,-0.76278186,0.57970494,0.2865414,0
-0.22408533,-2.2157421,2.9846356,-0.28180993,-0.69682229,0.65956187,0
-3.4066665,-0.40794685,3.5602477,-0.28180993,-0.69682229,0.65956187,0
1.5043271,-1.8484886,-1.4361085,-0.58201969,-0.4223516,-0.69488996,0
-3.3557715,0.093011022,3.979162,-0.28180993,-0.69682229,0.65956187,0
-3.4010415,-0.38306326,3.4303443,-0.28180993,-0.69682229,0.65956187,0
2.7711627,-3.0873547,-0.14471745,0.76278186,-0.57970494,-0.2865414,0
2.5907633,-0.64158851,-3.332366,-0.58201969,-0.4223516,-0.69488996,0
-0.57835102,-0.39839518,-0.7705124,-0.58201969,-0.4223516,-0.69488996,0
0.55582702,1.3134514,0.28969502,0.58201969,0.4223516,0.69488996,0
-2.0033891,1.3453038,-0.48230064,-0.58201969,-0.4223516,-0.69488996,0
-0.50967336,-2.0469434,0.13381338,-0.58201969,-0.4223516,-0.69488996,0
2.5146201,-3.1576509,-0.81863618,0.76278186,-0.57970494,-0.2865414,0
3.0625806,-1.5535949,-0.13765097,0.58201969,0.4223516,0.69488996,0
-2.375376,3.752929,0.055034637,-0.76278186,0.57970494,0.2865414,0
3.5685115,-1.8475386,-0.8720901,0.76278186,-0.57970494,-0.2865414,0
0.2686429,0.81006646,0.68248731,0.58201969,0.4223516,0.69488996,0
-0.55652523,3.6306756,-1.7574251,0.28180993,0.69682229,-0.65956187,0
3.2204797,-2.3970828,0.1091857,0.58201969,0.4223516,0.69488996,0
3.2969651,0.0010416508,-1.2493877,0.58201969,0.4223516,0.69488996,0
-3.4779046,-0.74455082,1.8456985,-0.58201969,-0.4223516,-0.69488996,0
1.0812178,-1.6732211,-1.37282,-0.58201969,-0.4223516,-0.69488996,0
-0.34789467,-3.1694863,1.9116075,-0.28180993,-0.69682229,0.65956187,0
-2.6005549,2.6764665,1.2864261,-0.76278186,0.57970494,0.2865414,0
-1.1489139,3.1925735,-2.3489022,0.28180993,0.69682229,-0.65956187,0
3.4751594,-1.7653526,-0.84723973,0.76278186,-0.57970494,-0.2865414,0
1.8622582,2.3776975,-1.9350299,0.28180993,0.69682229,-0.65956187,0
3.003109,-2.1829777,-1.8918123,0.76278186,-0.57970494,-0.2865414,0
-3.1457281,2.0597053,1.3522344,-0.76278186,0.57970494,0.2865414,0
2.6955395,-3.2432065,0.045609951,0.76278186,-0.57970494,-0.2865414,0
-3.7258177,0.33102086,3.1223345,-0.76278186,0.57970494,0.2865414,0
0.70137775,-1.0586177,-1.4817438,-0.58201969,-0.4223516,-0.69488996,0
3.0890594,0.026248336,-4.0007076,0.28180993,0.69682229,-0.65956187,0
-2.1139083,4.068368,0.05443716,-0.76278186,0.57970494,0.2865414,0
-2.7168236,-1.7192678,2.185421,-0.28180993,-0.69682229,0.65956187,0
-0.15290546,-3.1832423,1.9417353,-0.28180993,-0.69682229,0.65956187,0
1.2994429,-0.35836375,0.63310844,0.58201969,0.4223516,0.69488996,0
-3.3993757,1.0322368,2.9631448,-0.76278186,0.57970494,0.2865414,0
-1.2061543,-2.2938516,2.4222114,-0.28180993,-0.69682229,0.65956187,0
-2.4869533,-0.84203291,3.3629069,-0.28180993,-0.69682229,0.65956187,0
-2.2800636,-1.7833694,1.5880792,-0.58201969,-0.4223516,-0.69488996,0
2.7416439,0.50774658,-3.5317571,0.28180993,0.69682229,-0.65956187,0
0.020766973,2.8320889,-2.3693743,0.28180993,0.69682229,-0.65956187,0
-3.9551127,-0.29269075,2.073324,-0.58201969,-0.4223516,-0.69488996,0
-0.74172473,4.3091569,-1.1115177,0.28180993,0.69682229,-0.65956187,0
2.2711885,-1.671185,0.5670836,0.58201969,0.4223516,0.69488996,0
1.7875001,2.0106771,-2.3213046,0.28180993,0.69682229,-0.65956187,0
-2.6276379,-1.3371909,1.4765978,-0.58201969,-0.4223516,-0.69488996,0
-1.8943344,0.79936755,2.6287947,0.58201969,0.4223516,0.69488996,0
1.9341731,2.4452364,-1.7605826,0.28180993,0.69682229,-0.65956187,0
-3.4207263,1.5734477,1.9598763,-0.76278186,0.57970494,0.2865414,0
0.10963058,-3.7185147,1.4958963,-0.28180993,-0.69682229,0.65956187,0
-2.5886092,2.7105527,1.8375411,-0.76278186,0.57970494,0.2865414,0
3.2387166,-2.6357098,-0.14134359,0.76278186,-0.57970494,-0.2865414,0
2.5724812,-3.6824958,0.66961336,0.76278186,-0.57970494,-0.2865414,0
1.3846898,-0.99059772,0.82600409,0.58201969,0.4223516,0.69488996,0
2.9713769,-2.0598559,-1.8455942,0.76278186,-0.57970494,-0.2865414,0
2.6221011,-4.1192679,1.5217354,0.76278186,-0.57970494,-0.2865414,0
2.0113561,-1.7505016,-1.9316522,-0.58201969,-0.4223516,-0.69488996,0
3.8089514,-0.76263893,-2.259841,0.76278186,-0.57970494,-0.2865414,0
-1.1881349,4.5061369,-1.1196022,0.28180993,0.69682229,-0.65956187,0
2.9516122,0.71907908,-3.2482741,0.28180993,0.69682229,-0.65956187,0
-2.8763652,2.0134549,2.5752404,-0.76278186,0.57970494,0.2865414,0
0.10915232,2.5523064,-2.6619284,0.28180993,0.69682229,-0.65956187,0
1.2049,1.8488932,-2.7544999,0.28180993,0.69682229,-0.65956187,0
-0.028327465,1.471921,0.62566602,0.58201969,0.4223516,0.69488996,0
-1.7591012,5.0221238,-0.71682835,-0.76278186,0.57970494,0.2865414,0
1.9467928,-4.2977676,1.6090915,-0.28180993,-0.69682229,0.65956187,0
3.0258484,-0.061530113,-3.937551,0.28180993,0.69682229,-0.65956187,0
0.076034069,0.38052523,-1.8640393,-0.58201969,-0.4223516,-0.69488996,0
3.7764287,-1.1398493,-1.5929646,0.76278186,-0.57970494,-0.2865414,0
0.58680427,0.92734599,0.24496549,0.58201969,0.4223516,0.69488996,0
-2.9238939,2.0586443,1.983016,-0.76278186,0.57970494,0.2865414,0
-3.3032517,1.3885775,2.1659656,-0.76278186,0.57970494,0.2865414,0
1.530076,-5.0355797,0.5846653,0.76278186,-0.57970494,-0.2865414,0
-3.1275477,2.6080043,0.67280459,-0.76278186,0.57970494,0.2865414,0
-3.2878888,1.770915,1.6349773,-0.76278186,0.57970494,0.2865414,0
-2.1616929,3.8838458,-2.0056441,0.28180993,0.69682229,-0.65956187,0
3.4746337,-0.69294786,-1.098876,0.58201969,0.4223516,0.69488996,0
2.8496184,-2.8952677,-0.48240376,0.76278186,-0.57970494,-0.2865414,0
2.471277,-2.012764,0.64018488,0.58201969,0.4223516,0.69488996,0
1.666477,-0.046627641,-2.9126241,-0.58201969,-0.4223516,-0.69488996,0
-1.5613129,-2.5297837,1.9389675,-0.28180993,-0.69682229,0.65956187,0
2.4373851,-2.9689455,-1.4064569,0.76278186,-0.57970494,-0.2865414,0
-2.0653086,4.4216404,-1.4612069,0.28180993,0.69682229,-0.65956187,0
-1.4861946,3.7171333,-2.164851,0.28180993,0.69682229,-0.65956187,0
2.8546739,-3.2089038,1.0335126,0.58201969,0.4223516,0.69488996,0
0.42633295,3.5347977,-1.285079,0.28180993,0.69682229,-0.65956187,0
-1.3769963,5.0593185,-0.49552488,0.28180993,0.69682229,-0.65956187,0
1.9046569,-4.2741637,1.4927332,-0.28180993,-0.69682229,0.65956187,0
-2.5532889,-1.2862899,2.9418612,-0.28180993,-0.69682229,0.65956187,0
-0.12100226,-0.2212348,1.7121217,0.58201969,0.4223516,0.69488996,0
-4.4616389,-0.48477125,2.7433918,-0.28180993,-0.69682229,0.65956187,0
-1.3707898,0.40514493,-0.6427241,-0.58201969,-0.4223516,-0.69488996,0
-2.3334479,3.7166696,-0.090742588,-0.76278186,0.57970494,0.2865414,0
-1.6441326,-2.6262755,1.6099417,-0.58201969,-0.4223516,-0.69488996,0
1.8294835,1.6431583,-2.7817664,0.28180993,0.69682229,-0.65956187,0
-0.91955703,0.66969228,1.8494978,0.58201969,0.4223516,0.69488996,0
-0.5932734,-3.3028862,1.5118505,-0.28180993,-0.69682229,0.65956187,0
1.9234605,-3.7557464,-0.6941967,-0.58201969,-0.4223516,-0.69488996,0
1.9527121,-4.4420204,0.51230145,0.76278186,-0.57970494,-0.2865414,0
0.53966159,1.1336633,0.4181934,0.58201969,0.4223516,0.69488996,0
-2.2168207,2.3844137,1.740263,0.58201969,0.4223516,0.69488996,0
0.72052217,-4.3835487,0.91179109,-0.28180993,-0.69682229,0.65956187,0
-1.413363,0.93869722,2.0504565,0.58201969,0.4223516,0.69488996,0
2.1650367,-1.0957766,-2.5812554,-0.58201969,-0.4223516,-0.69488996,0
2.7376285,-3.3391838,0.068719149,0.76278186,-0.57970494,-0.2865414,0
-4.0509076,0.32821488,1.6848798,-0.58201969,-0.4223516,-0.69488996,0
2.0073068,-4.4801106,0.29961824,0.76278186,-0.57970494,-0.2865414,0
3.5321307,-1.0139344,-2.7683918,0.76278186,-0.57970494,-0.2865414,0
-1.129209,4.0080156,-1.4651203,0.28180993,0.69682229,-0.65956187,0
0.84266043,3.2950435,-1.4323531,0.28180993,0.69682229,-0.65956187,0
1.7623854,-2.452549,1.4518219,0.58201969,0.4223516,0.69488996,0
2.5562918,-3.5908394,1.37149,0.58201969,0.4223516,0.69488996,0
-2.3852108,-1.2848839,1.4246637,-0.58201969,-0.4223516,-0.69488996,0
-1.6228201,4.7334828,-0.9281559,0.28180993,0.69682229,-0.65956187,0
-2.7200432,-1.2357148,2.9318793,-0.28180993,-0.69682229,0.65956187,0
3.2722459,-1.3406094,-2.6997523,0.76278186,-0.57970494,-0.2865414,0
1.9834983,2.0566514,-2.2379096,0.28180993,0.69682229,-0.65956187,0
-3.3204775,1.553813,2.0583539,-0.76278186,0.57970494,0.2865414,0
-4.0034361,-0.84252489,2.4862711,-0.58201969,-0.4223516,-0.69488996,0
3.3696401,-0.64325947,-3.4831388,0.76278186,-0.57970494,-0.2865414,0
-0.18243212,-0.63256466,1.940918,0.58201969,0.4223516,0.69488996,0
-0.69788527,-3.2919559,1.420647,-0.28180993,-0.69682229,0.65956187,0
3.1373906,-2.218941,-0.80114079,0.76278186,-0.57970494,-0.2865414,0
-2.2000175,4.3816543,-1.4861624,0.28180993,0.69682229,-0.65956187,0
2.18049,-2.5393395,1.2744889,0.58201969,0.4223516,0.69488996,0
-0.97573853,-2.5156994,2.161994,-0.28180993,-0.69682229,0.65956187,0
4.1225524,0.5571034,-2.8836207,0.28180993,0.69682229,-0.65956187,0
2.1700711,-4.0032978,-0.31161308,0.76278186,-0.57970494,-0.2865414,0
-2.7456357,3.8556621,-1.45485,-0.76278186,0.57970494,0.2865414,0
0.35373664,-3.5292389,1.8800701,-0.28180993,-0.69682229,0.65956187,0
-4.5107069,-0.32890832,2.7279501,-0.76278186,0.57970494,0.2865414,0
-3.3528981,2.6640921,-0.026207685,-0.76278186,0.57970494,0.2865414,0
1.1816337,-3.6562405,2.0925062,-0.28180993,-0.69682229,0.65956187,0
-1.8645251,1.4850848,1.9631423,0.58201969,0.4223516,0.69488996,0
1.4051094,-0.0069338083,-2.701802,-0.58201969,-0.4223516,-0.69488996,0
1.6365724,-3.6706748,2.0474479,-0.28180993,-0.69682229,0.65956187,0
3.3521543,-1.5818784,-1.9091225,0.76278186,-0.57970494,-0.2865414,0
-2.5498784,3.6950526,-0.39293027,-0.76278186,0.57970494,0.2865414,0
-0.12521148,4.1125565,-0.94021225,0.28180993,0.69682229,-0.65956187,0
2.7150934,-3.0421824,-0.67285705,0.76278186,-0.57970494,-0.2865414,0
0.37937248,0.24613178,-1.9007988,-0.58201969,-0.4223516,-0.69488996,0
-0.94708157,4.1223011,-0.19009113,0.58201969,0.4223516,0.69488996,0
0.51997638,-3.5586007,1.6224077,-0.28180993,-0.69682229,0.65956187,0
2.6428082,-2.1124213,0.47644186,0.58201969,0.4223516,0.69488996,0
3.2854788,-1.4948124,-2.1750331,0.76278186,-0.57970494,-0.2865414,0
0.59400916,-3.6649227,1.7795889,-0.28180993,-0.69682229,0.65956187,0
-1.9692968,-2.0056093,2.4059882,-0.28180993,-0.69682229,0.65956187,0
2.4975393,-4.2453451,1.1235516,0.76278186,-0.57970494,-0.2865414,0
-0.40947828,0.64201307,1.3769492,0.58201969,0.4223516,0.69488996,0
-1.7741327,4.5633473,-1.1452029,0.28180993,0.69682229,-0.65956187,0
-0.46300411,0.22360647,-1.2766348,-0.58201969,-0.4223516,-0.69488996,0
1.2464843,-1.8494118,1.5095284,0.58201969,0.4223516,0.69488996,0
1.8770678,-3.5869393,-0.77804661,-0.58201969,-0.4223516,-0.69488996,0
-3.2038381,1.8473209,1.4070437,-0.76278186,0.57970494,0.2865414,0
1.3733263,2.7492108,-1.8291612,0.28180993,0.69682229,-0.65956187,0
-4.3570733,-0.63056862,2.4565537,-0.58201969,-0.4223516,-0.69488996,0
-2.1867754,4.6538095,-1.470988,0.28180993,0.69682229,-0.65956187,0
-1.4624736,3.5116405,-2.3253472,-0.58201969,-0.4223516,-0.69488996,0
-0.87091804,-1.8427449,2.9468083,-0.28180993,-0.69682229,0.65956187,0
-3.8426638,0.27249223,3.3429108,-0.76278186,0.57970494,0.2865414,0
2.0319135,-4.2098589,0.1437335,0.76278186,-0.57970494,-0.2865414,0
-2.1601405,4.2412643,-0.52905178,-0.76278186,0.57970494,0.2865414,0
-0.0087542534,-3.7599669,1.2936029,-0.28180993,-0.69682229,0.65956187,0
-2.6089749,3.9426842,-1.1174166,-0.76278186,0.57970494,0.2865414,0
1.0184278,-1.3830318,1.4303517,0.58201969,0.4223516,0.69488996,0
-3.442749,0.45850602,3.7271545,-0.76278186,0.57970494,0.2865414,0
2.1331589,-0.096676409,-3.0630398,-0.58201969,-0.4223516,-0.69488996,0
-1.9229329,3.8070521,-1.989176,0.28180993,0.69682229,-0.65956187,0
0.74300551,2.9344234,-1.9239864,0.28180993,0.69682229,-0.65956187,0
-0.46261001,-2.5701265,0.62603164,-0.58201969,-0.4223516,-0.69488996,0
-3.8018897,-0.73046273,2.9736366,-0.28180993,-0.69682229,0.65956187,0
0.022290349,-1.6317804,-0.59758782,-0.58201969,-0.4223516,-0.69488996,0
0.90332079,1.9497962,-2.9307413,0.28180993,0.69682229,-0.65956187,0
1.8143595,1.5470092,-3.0480208,0.28180993,0.69682229,-0.65956187,0
2.992516,-3.3562307,0.60741043,0.76278186,-0.57970494,-0.2865414,0
-3.3298578,2.5536981,-0.29282594,-0.76278186,0.57970494,0.2865414,0
0.51827073,2.6919441,-2.123739,0.28180993,0.69682229,-0.65956187,0
-0.22570491,-2.9741497,0.44333839,-0.58201969,-0.4223516,-0.69488996,0
-2.5833013,1.6431487,2.6584206,0.58201969,0.4223516,0.69488996,0
-1.2169058,-2.2121582,2.4638433,-0.28180993,-0.69682229,0.65956187,0
-1.6287131,-1.4928571,2.9823856,-0.28180993,-0.69682229,0.65956187,0
3.5070782,0.9344123,-2.7965004,0.28180993,0.69682229,-0.65956187,0
-0.26731634,2.5850387,-2.6211965,0.28180993,0.69682229,-0.65956187,0
-2.1833401,-0.12121046,3.3557398,0.58201969,0.4223516,0.69488996,0
0.75441945,2.0443609,-0.35628867,0.58201969,0.4223516,0.69488996,0
0.070155144,3.4777484,-0.75511456,0.58201969,0.4223516,0.69488996,0
-0.9984436,-2.3251951,2.3632572,-0.28180993,-0.69682229,0.65956187,0
-1.0948522,3.6788855,0.2451489,0.58201969,0.4223516,0.69488996,0
-3.3721056,2.2405806,0.14755201,-0.58201969,-0.4223516,-0.69488996,0
0.41258812,-4.0023637,1.1580737,-0.28180993,-0.69682229,0.65956187,0
-0.11790395,-3.1592579,2.0653844,-0.28180993,-0.69682229,0.65956187,0
0.60243654,-2.6532216,2.4846201,0.58201969,0.4223516,0.69488996,0
-2.7555571,3.5530448,-1.3301716,-0.58201969,-0.4223516,-0.69488996,0
0.61702108,3.1518998,-0.8599298,0.58201969,0.4223516,0.69488996,0
-1.1103406,-1.993871,2.8605218,-0.28180993,-0.69682229,0.65956187,0
-2.9242716,2.1313808,1.9850082,-0.76278186,0.57970494,0.2865414,0
-0.3848443,3.1391709,-2.0355651,0.28180993,0.69682229,-0.65956187,0
0.80442071,-3.0734868,2.4685876,-0.28180993,-0.69682229,0.65956187,0
-1.745039,3.5359144,-2.0879242,-0.58201969,-0.4223516,-0.69488996,0
2.100719,-2.607897,1.3330631,0.58201969,0.4223516,0.69488996,0
-1.0734023,1.5107981,-1.4859684,-0.58201969,-0.4223516,-0.69488996,0
-0.29481268,3.6744163,-1.5649123,0.28180993,0.69682229,-0.65956187,0
1.6690444,-0.41152942,-2.457217,-0.58201969,-0.4223516,-0.69488996,0
-2.1510415,0.13869989,0.3214345,-0.58201969,-0.4223516,-0.69488996,0
2.7005019,1.92454,-1.9769065,0.28180993,0.69682229,-0.65956187,0
2.3519216,2.0131099,-2.3174267,0.28180993,0.69682229,-0.65956187,0
2.7390754,-3.355283,0.29187536,0.76278186,-0.57970494,-0.2865414,0
-2.663233,3.4294786,-0.025699139,-0.76278186,0.57970494,0.2865414,0
-3.924674,-0.11015499,2.0226521,-0.58201969,-0.4223516,-0.69488996,0
-0.39821744,-3.7268262,1.3204494,-0.28180993,-0.69682229,0.65956187,0
-2.3129001,-0.99809557,3.1124396,-0.28180993,-0.69682229,0.65956187,0
-3.1595693,1.6079582,2.0740085,-0.76278186,0.57970494,0.2865414,0
-1.2113905,4.815465,-0.72526455,0.28180993,0.69682229,-0.65956187,0
-3.0084834,1.4256577,2.8376458,-0.76278186,0.57970494,0.2865414,0
-2.2139335,3.6149611,0.53317809,-0.76278186,0.57970494,0.2865414,0
-0.67883116,-0.34160411,-0.65958869,-0.58201969,-0.4223516,-0.69488996,0
1.4073347,-2.5236239,-1.1176004,-0.58201969,-0.4223516,-0.69488996,0
0.17980874,-0.47570467,-1.1653717,-0.58201969,-0.4223516,-0.69488996,0
-4.4304667,-0.13661325,2.6923161,-0.76278186,0.57970494,0.2865414,0
-1.2084942,-1.8900337,2.6852841,-0.28180993,-0.69682229,0.65956187,0
-2.5498877,4.3578711,-1.7334805,-0.76278186,0.57970494,0.2865414,0
-1.3947837,3.1219711,-2.1425431,-0.58201969,-0.4223516,-0.69488996,0
-4.5986366,-0.28349221,2.6403799,-0.76278186,0.57970494,0.2865414,0
2.8244383,-3.9748578,1.3039095,0.76278186,-0.57970494,-0.2865414,0
0.19011331,-2.9718385,2.3228691,-0.28180993,-0.69682229,0.65956187,0
0.6450336,-3.3158937,-0.035707712,-0.58201969,-0.4223516,-0.69488996,0
1.3173208,-4.3837538,0.092122078,-0.58201969,-0.4223516,-0.69488996,0
2.8509283,-2.9420636,-0.67745686,0.76278186,-0.57970494,-0.2865414,0
-2.8029473,2.4699349,1.7255445,-0.76278186,0.57970494,0.2865414,0
2.7354453,0.14180928,-3.7382278,-0.58201969,-0.4223516,-0.69488996,0
-2.2006068,4.2180448,-0.62409973,-0.76278186,0.57970494,0.2865414,0
1.2412119,-1.2404522,1.2957914,0.58201969,0.4223516,0.69488996,0
2.409337,-4.1126795,1.0705171,0.76278186,-0.57970494,-0.2865414,0
1.8735504,2.2685411,-2.0986412,0.28180993,0.69682229,-0.65956187,0
-1.6419457,0.61235142,-0.31346512,-0.58201969,-0.4223516,-0.69488996,0
-1.6655335,2.4241867,-1.6046866,-0.58201969,-0.4223516,-0.69488996,0
1.3346648,2.3659408,-0.97518164,0.58201969,0.4223516,0.69488996,0
-1.0853702,0.71900177,-1.0341411,-0.58201969,-0.4223516,-0.69488996,0
-1.4481835,5.0201259,-0.38420534,0.58201969,0.4223516,0.69488996,0
-1.1426864,3.3226643,0.47980738,0.58201969,0.4223516,0.69488996,0
-3.0602765,-1.5330013,2.4160569,-0.28180993,-0.69682229,0.65956187,0
-3.2067885,1.7106211,1.9283848,-0.76278186,0.57970494,0.2865414,0
2.4466801,-1.3611026,-2.7188239,-0.58201969,-0.4223516,-0.69488996,0
2.9398901,-2.0776691,-2.1201637,0.76278186,-0.57970494,-0.2865414,0
-1.4031498,4.4508162,-0.11793566,0.58201969,0.4223516,0.69488996,0
-2.7068572,0.98768657,3.0865152,0.58201969,0.4223516,0.69488996,0
-3.4404116,0.80459201,3.0836368,-0.76278186,0.57970494,0.2865414,0
3.660403,0.1758759,-1.5974792,0.58201969,0.4223516,0.69488996,0
-0.93021727,-3.3076396,1.2129892,-0.58201969,-0.4223516,-0.69488996,0
-3.2040648,1.4761592,2.6528711,-0.76278186,0.57970494,0.2865414,0
-3.5876057,1.9864076,0.4292593,-0.76278186,0.57970494,0.2865414,0
3.3173585,-1.0226452,-2.76752,0.76278186,-0.57970494,-0.2865414,0
3.7115843,-0.10156681,-3.6892529,0.76278186,-0.57970494,-0.2865414,0
2.7386215,-2.4220221,-1.5963168,0.76278186,-0.57970494,-0.2865414,0
3.7861636,-0.96158314,-1.239051,0.58201969,0.4223516,0.69488996,0
-4.3407087,-0.31341815,2.4602304,-0.58201969,-0.4223516,-0.69488996,0
3.0722818,-2.7709522,0.044030905,0.76278186,-0.57970494,-0.2865414,0
2.7289987,-2.7321334,-1.4137638,0.76278186,-0.57970494,-0.2865414,0
-0.60092163,2.8151138,-2.5130277,-0.58201969,-0.4223516,-0.69488996,0
-1.7921137,1.4206986,1.9505795,0.58201969,0.4223516,0.69488996,0
-1.312106,0.41759032,2.2460241,0.58201969,0.4223516,0.69488996,0
0.24848938,-3.3612361,1.8579162,-0.28180993,-0.69682229,0.65956187,0
-2.9201839,2.9172297,0.52471566,-0.76278186,0.57970494,0.2865414,0
-3.5106459,-1.1574733,2.4491403,-0.28180993,-0.69682229,0.65956187,0
0.92430091,-3.3582041,2.0166917,-0.28180993,-0.69682229,0.65956187,0
-2.4401217,3.6514266,-0.19509506,-0.76278186,0.57970494,0.2865414,0
-2.1844995,-1.4538593,1.2280433,-0.58201969,-0.4223516,-0.69488996,0
-0.86608505,-3.3650928,1.48397,-0.28180993,-0.69682229,0.65956187,0
3.09168,1.1610589,-2.8607025,0.28180993,0.69682229,-0.65956187,0
3.3865952,-2.2183294,-0.21820474,0.76278186,-0.57970494,-0.2865414,0
0.78377676,3.4032669,-1.2329265,0.58201969,0.4223516,0.69488996,0
0.46763188,1.2871734,0.34216344,0.58201969,0.4223516,0.69488996,0
-1.8864377,4.436481,-0.16422892,-0.76278186,0.57970494,0.2865414,0
-2.7052441,-1.6689193,1.7306814,-0.58201969,-0.4223516,-0.69488996,0
0.037704192,-0.28735769,-1.3055279,-0.58201969,-0.4223516,-0.69488996,0
-1.8732469,1.6504911,-0.8104682,-0.58201969,-0.4223516,-0.69488996,0
-1.776371,-0.98461783,3.5462403,-0.28180993,-0.69682229,0.65956187,0
-2.9581733,-0.79558486,3.1066031,-0.28180993,-0.69682229,0.65956187,0
-1.3770888,4.004159,0.069281101,0.58201969,0.4223516,0.69488996,0
3.4019022,-1.4674579,-1.6434855,0.76278186,-0.57970494,-0.2865414,0
-0.35662478,0.019260526,1.6667548,0.58201969,0.4223516,0.69488996,0
-1.3026645,4.1178021,-1.5503759,0.28180993,0.69682229,-0.65956187,0
-3.3899157,2.058944,0.95344019,-0.76278186,0.57970494,0.2865414,0
2.8343425,-2.7709484,-0.87754059,0.76278186,-0.57970494,-0.2865414,0
4.2046723,0.7480824,-2.6790166,0.28180993,0.69682229,-0.65956187,0
-1.4943545,4.7204933,-1.0698123,0.28180993,0.69682229,-0.65956187,0
2.6524734,-4.186204,1.2496541,0.76278186,-0.57970494,-0.2865414,0
-3.6048603,1.1837231,2.1907594,-0.76278186,0.57970494,0.2865414,0
3.0273438,1.4256479,-1.8498685,0.58201969,0.4223516,0.69488996,0
-0.97348309,-1.7466106,3.0747328,-0.28180993,-0.69682229,0.65956187,0
1.6340799,-0.52531141,-2.5191529,-0.58201969,-0.4223516,-0.69488996,0
2.8216813,-3.0790687,-0.46992421,0.76278186,-0.57970494,-0.2865414,0
-0.68968105,-3.2095213,1.6707932,-0.28180993,-0.69682229,0.65956187,0
-3.0766325,3.0942411,-0.77228022,-0.76278186,0.57970494,0.2865414,0
3.4090734,1.3667773,-2.3963671,0.28180993,0.69682229,-0.65956187,0
-0.27734566,-2.9283729,2.0753281,-0.28180993,-0.69682229,0.65956187,0
0.56541586,-2.9446626,2.4713359,-0.28180993,-0.69682229,0.65956187,0
3.8001842,-1.2090405,-1.4038541,0.76278186,-0.57970494,-0.2865414,0
-3.5130043,0.90413094,3.0981531,-0.76278186,0.57970494,0.2865414,0
2.2234795,-3.0079148,-1.5926878,-0.58201969,-0.4223516,-0.69488996,0
-4.0931458,0.68779373,1.6060239,-0.76278186,0.57970494,0.2865414,0
-1.033443,-2.7772954,1.9030726,-0.28180993,-0.69682229,0.65956187,0
-3.105597,2.682385,-0.49914765,-0.58201969,-0.4223516,-0.69488996,0
3.7083802,-1.435962,-1.08621,0.76278186,-0.57970494,-0.2865414,0
3.9037938,-1.2122662,-1.4638853,0.76278186,-0.57970494,-0.2865414,0
1.6475694,0.048177361,-2.7395835,-0.58201969,-0.4223516,-0.69488996,0
2.3277843,-3.0754306,-1.1994827,0.76278186,-0.57970494,-0.2865414,0
-2.5677974,3.8008907,-0.72437692,-0.76278186,0.57970494,0.2865414,0
-4.0179696,0.76787913,1.6846577,-0.76278186,0.57970494,0.2865414,0
1.9616301,-1.6269861,-2.0343304,-0.58201969,-0.4223516,-0.69488996,0
-1.9778037,1.9425678,1.9027594,0.58201969,0.4223516,0.69488996,0
2.3102398,-4.4640279,1.1495242,0.76278186,-0.57970494,-0.2865414,0
2.827702,1.417794,-2.7057195,0.28180993,0.69682229,-0.65956187,0
1.9000206,1.4704561,-3.0913119,0.28180993,0.69682229,-0.65956187,0
-0.96813393,4.5527878,-0.65720677,0.58201969,0.4223516,0.69488996,0
-2.3591156,-2.2071376,1.9457437,-0.28180993,-0.69682229,0.65956187,0
3.575923,-1.6162703,-1.3379195,0.76278186,-0.57970494,-0.2865414,0
-1.9791851,-2.5741758,1.6918411,-0.28180993,-0.69682229,0.65956187,0
-2.1741407,3.5833011,-1.9280939,-0.58201969,-0.4223516,-0.69488996,0
2.3974578,-3.0149984,-1.2036858,0.76278186,-0.57970494,-0.2865414,0
2.9859776,-1.9015408,-2.3986928,0.76278186,-0.57970494,-0.2865414,0
3.329134,-0.9260906,-3.1527181,0.76278186,-0.57970494,-0.2865414,0
-3.6642346,1.0652981,2.0105977,-0.76278186,0.57970494,0.2865414,0
1.3552936,1.821506,-2.7558527,0.28180993,0.69682229,-0.65956187,0
-2.1218426,-0.56924319,3.6325674,0.58201969,0.4223516,0.69488996,0
0.96469188,2.169456,-2.7443633,0.28180993,0.69682229,-0.65956187,0
1.338053,3.0687065,-1.6195652,0.28180993,0.69682229,-0.65956187,0
0.15567636,3.3785148,-1.5551157,0.28180993,0.69682229,-0.65956187,0
2.8916197,1.8632052,-2.2450514,0.28180993,0.69682229,-0.65956187,0
-2.0951705,3.4509392,0.99288559,0.58201969,0.4223516,0.69488996,0
-2.4652665,3.6964881,-1.7373192,-0.58201969,-0.4223516,-0.69488996,0
1.8699443,-4.8223205,0.59307766,0.76278186,-0.57970494,-0.2865414,0
-0.64768279,-0.52037162,-0.60709369,-0.58201969,-0.4223516,-0.69488996,0
1.9829683,-2.7639689,1.5659916,0.58201969,0.4223516,0.69488996,0
-2.7733634,2.2987187,1.6476798,-0.76278186,0.57970494,0.2865414,0
2.133831,-2.5498791,-1.7827337,-0.58201969,-0.4223516,-0.69488996,0
3.2778368,-0.56294143,-3.7938232,0.76278186,-0.57970494,-0.2865414,0
-2.8284519,2.8732574,0.9652667,-0.76278186,0.57970494,0.2865414,0
1.6799983,-1.8425734,-1.6127673,-0.58201969,-0.4223516,-0.69488996,0
-1.6967676,1.4105246,-0.77455413,-0.58201969,-0.4223516,-0.69488996,0
-1.7574799,3.0283608,-1.8413944,-0.58201969,-0.4223516,-0.69488996,0
-2.2630363,-2.2478728,1.9260215,-0.58201969,-0.4223516,-0.69488996,0
-3.2640655,2.0535824,0.77575493,-0.76278186,0.57970494,0.2865414,0
-0.069380522,0.05577147,1.4587208,0.58201969,0.4223516,0.69488996,0
1.3394552,-1.8103187,1.5075151,0.58201969,0.4223516,0.69488996,0
2.0779562,2.108707,-2.2396073,0.28180993,0.69682229,-0.65956187,0
-3.7841756,1.3154689,0.97193003,-0.76278186,0.57970494,0.2865414,0
-0.54516757,0.23976862,1.6983491,0.58201969,0.4223516,0.69488996,0
2.159867,2.3580444,-1.8907117,0.28180993,0.69682229,-0.65956187,0
1.4526262,-4.0315757,1.6815066,-0.28180993,-0.69682229,0.65956187,0
0.32346034,2.6206436,-2.3281555,0.28180993,0.69682229,-0.65956187,0
3.6161356,-1.2616162,-1.6670637,0.76278186,-0.57970494,-0.2865414,0
-3.0321791,3.3788953,-1.0242693,-0.58201969,-0.4223516,-0.69488996,0
-0.20138776,2.2263067,0.34757066,0.58201969,0.4223516,0.69488996,0
0.91434908,2.7215123,-2.0306373,0.28180993,0.69682229,-0.65956187,0
1.4835727,-4.7544084,0.9617362,-0.28180993,-0.69682229,0.65956187,0
3.9079485,0.75305271,-2.8518364,0.28180993,0.69682229,-0.65956187,0
-0.3366344,1.3179139,-2.056349,-0.58201969,-0.4223516,-0.69488996,0
-2.7313147,3.7039952,-1.3491726,-0.58201969,-0.4223516,-0.69488996,0
0.93003184,1.1322429,0.082982004,0.58201969,0.4223516,0.69488996,0
-2.7703969,3.8967538,-1.4170041,-0.58201969,-0.4223516,-0.69488996,0
1.655646,-2.0052447,-1.4772761,-0.58201969,-0.4223516,-0.69488996,0
-0.056091309,-2.6957383,2.4301753,-0.28180993,-0.69682229,0.65956187,0
3.4661887,0.88994491,-2.9791622,0.28180993,0.69682229,-0.65956187,0
3.3822265,-0.7894913,-1.0551416,0.58201969,0.4223516,0.69488996,0
3.9387271,-1.0007263,-1.5455915,0.76278186,-0.57970494,-0.2865414,0
2.7307363,-2.0677004,-2.2094414,0.76278186,-0.57970494,-0.2865414,0
2.6761045,0.76559567,-3.4524484,0.28180993,0.69682229,-0.65956187,0
-2.8155015,0.41873479,3.4206936,0.58201969,0.4223516,0.69488996,0
3.9505558,-0.28354758,-2.919873,0.76278186,-0.57970494,-0.2865414,0
0.92152309,-3.9798324,0.093144417,-0.58201969,-0.4223516,-0.69488996,0
2.7734675,-0.66977572,-0.45705879,0.58201969,0.4223516,0.69488996,0
-1.6007924,2.5422821,-1.6939546,-0.58201969,-0.4223516,-0.69488996,0
0.61801767,-4.0815096,1.1348851,-0.28180993,-0.69682229,0.65956187,0
3.8449752,0.091285557,-3.4533505,0.28180993,0.69682229,-0.65956187,0
-3.5584145,1.0730067,2.2739391,-0.76278186,0.57970494,0.2865414,0
3.559442,0.065927535,-3.6979966,0.28180993,0.69682229,-0.65956187,0
-0.19978619,-2.8364747,0.43580174,-0.58201969,-0.4223516,-0.69488996,0
2.8549023,-2.2458155,-1.6929698,0.76278186,-0.57970494,-0.2865414,0
-3.4428451,0.84297502,3.1363611,-0.76278186,0.57970494,0.2865414,0
-2.712678,3.5905933,-0.80743766,-0.76278186,0.57970494,0.2865414,0
3.1972628,-1.3150494,-2.6108456,0.76278186,-0.57970494,-0.2865414,0
2.8125358,-1.9642773,-2.5076866,0.76278186,-0.57970494,-0.2865414,0
1.615474,-4.0718102,-0.3758955,-0.58201969,-0.4223516,-0.69488996,0
2.4390731,-3.2437141,-0.61724544,0.76278186,-0.57970494,-0.2865414,0
-2.8900695,-1.6394151,1.9461725,-0.58201969,-0.4223516,-0.69488996,0
-2.1114509,4.5752358,-1.4544575,0.28180993,0.69682229,-0.65956187,0
-2.6497533,-0.61459786,3.5416212,-0.28180993,-0.69682229,0.65956187,0
-3.8689995,-0.82271087,2.6417582,-0.28180993,-0.69682229,0.65956187,0
-1.9698863,4.3230882,-1.4618278,0.28180993,0.69682229,-0.65956187,0
-3.3964159,-0.1007013,3.6726499,-0.28180993,-0.69682229,0.65956187,0
2.5966649,-3.8013713,0.9112215,0.76278186,-0.57970494,-0.2865414,0
2.8825448,-1.9069897,0.083097458,0.58201969,0.4223516,0.69488996,0
3.9256244,-0.34446573,-1.7121496,0.58201969,0.4223516,0.69488996,0
-3.2319531,1.1560941,2.9414275,-0.76278186,0.57970494,0.2865414,0
-0.73143637,0.4055478,1.9215883,0.58201969,0.4223516,0.69488996,0
-3.1432695,0.05156213,3.940336,-0.28180993,-0.69682229,0.65956187,0
0.60849571,-3.0799735,0.010208845,-0.58201969,-0.4223516,-0.69488996,0
-2.6875949,4.0080347,-1.2239165,-0.76278186,0.57970494,0.2865414,0
-1.2454758,3.7650533,-1.8963418,0.28180993,0.69682229,-0.65956187,0
3.7740624,-0.39859962,-3.0386553,0.76278186,-0.57970494,-0.2865414,0
-0.059755087,3.3259642,-1.7923257,0.28180993,0.69682229,-0.65956187,0
-2.0715041,4.1146326,-1.8353069,0.28180993,0.69682229,-0.65956187,0
2.2660058,-2.6426692,-1.7086284,-0.58201969,-0.4223516,-0.69488996,0
3.1030278,0.79528266,-1.6330699,0.58201969,0.4223516,0.69488996,0
-3.339222,1.5640835,0.51039147,-0.58201969,-0.4223516,-0.69488996,0
-2.526319,3.1461678,0.89022565,-0.76278186,0.57970494,0.2865414,0
2.6254656,-3.3003438,0.049467802,0.76278186,-0.57970494,-0.2865414,0
-3.5199001,1.3670104,2.1073275,-0.76278186,0.57970494,0.2865414,0
3.2310033,-1.4794179,-2.5621593,0.76278186,-0.57970494,-0.2865414,0
3.012136,-1.9409704,-1.7825482,0.76278186,-0.57970494,-0.2865414,0
0.40417111,-1.0793967,1.8945721,0.58201969,0.4223516,0.69488996,0
-3.3365574,2.2422576,0.54278421,-0.76278186,0.57970494,0.2865414,0
-0.86372876,3.8042893,-1.7770014,0.28180993,0.69682229,-0.65956187,0
0.77134323,-3.5737238,1.8430285,-0.28180993,-0.69682229,0.65956187,0
1.9423501,2.3323655,-2.0024958,0.28180993,0.69682229,-0.65956187,0
-0.62296247,2.6116569,0.46389222,0.58201969,0.4223516,0.69488996,0
-3.3578732,1.1304436,2.6061623,-0.76278186,0.57970494,0.2865414,0
-3.9725232,-0.79732728,2.2423937,-0.58201969,-0.4223516,-0.69488996,0
0.74227023,2.1237271,-2.5986156,0.28180993,0.69682229,-0.65956187,0
2.3248913,-4.2023377,0.97905397,0.76278186,-0.57970494,-0.2865414,0
1.0005949,2.3638558,-0.86657321,0.58201969,0.4223516,0.69488996,0
3.1672392,-1.0213095,-3.4037523,0.76278186,-0.57970494,-0.2865414,0
-1.6515355,-1.6067667,2.7974584,-0.28180993,-0.69682229,0.65956187,0
3.0431869,-2.5789275,-0.52691531,0.76278186,-0.57970494,-0.2865414,0
-1.4425781,0.33428258,2.4457223,0.58201969,0.4223516,0.69488996,0
-3.2153044,1.4314067,2.6965778,-0.76278186,0.57970494,0.2865414,0
-2.1581638,-1.9645051,1.5026479,-0.58201969,-0.4223516,-0.69488996,0
-2.9325786,-1.2400374,2.7883749,-0.28180993,-0.69682229,0.65956187,0
2.5843635,-2.8160477,-1.546253,0.76278186,-0.57970494,-0.2865414,0
3.3871312,-1.6345623,-1.9728384,0.76278186,-0.57970494,-0.2865414,0
2.3167703,0.02661109,-0.40365756,0.58201969,0.4223516,0.69488996,0
-3.0941954,1.6557891,2.6214504,-0.76278186,0.57970494,0.2865414,0
-0.63309789,-2.0099847,2.8118851,-0.28180993,-0.69682229,0.65956187,0
-0.60367578,-0.97233027,-0.4063617,-0.58201969,-0.4223516,-0.69488996,0
3.8810391,-0.9968394,-1.4020993,0.76278186,-0.57970494,-0.2865414,0
-3.1974268,1.8843355,1.6685088,-0.76278186,0.57970494,0.2865414,0
-3.054924,-0.94404531,3.0408609,-0.28180993,-0.69682229,0.65956187,0
0.048424482,-2.5647609,2.5456741,-0.28180993,-0.69682229,0.65956187,0
2.9022403,-3.3444798,0.20266604,0.76278186,-0.57970494,-0.2865414,0
-1.3614028,1.5285538,-1.2517202,-0.58201969,-0.4223516,-0.69488996,0
1.0490446,2.4946713,-2.3617363,0.28180993,0.69682229,-0.65956187,0
3.5551991,-0.60889977,-3.0370667,0.76278186,-0.57970494,-0.2865414,0
3.640882,-1.8571227,-0.40184784,0.58201969,0.4223516,0.69488996,0
-0.37386584,-3.7001386,1.3363483,-0.28180993,-0.69682229,0.65956187,0
-0.65114045,-3.1523407,1.5742661,-0.28180993,-0.69682229,0.65956187,0
1.9246268,2.4413171,-1.9075999,0.28180993,0.69682229,-0.65956187,0
-3.7511966,-0.43786052,3.3048737,-0.28180993,-0.69682229,0.65956187,0
2.6486156,-2.7404659,-1.0776343,0.76278186,-0.57970494,-0.2865414,0
2.3119187,-3.6246939,-0.79334497,0.76278186,-0.57970494,-0.2865414,0
-3.2989092,-1.0104537,2.8212547,-0.28180993,-0.69682229,0.65956187,0
0.26864573,-0.32086909,-1.3548075,-0.58201969,-0.4223516,-0.69488996,0
-2.5608404,2.64538,-0.76070046,-0.58201969,-0.4223516,-0.69488996,0
-3.4082577,0.82618439,3.3070555,-0.76278186,0.57970494,0.2865414,0
-3.6024756,-0.36147255,3.346827,-0.28180993,-0.69682229,0.65956187,0
0.90051699,-4.4315224,0.47800994,-0.58201969,-0.4223516,-0.69488996,0
0.94490433,-2.7480659,2.1769714,0.58201969,0.4223516,0.69488996,0
0.81046677,-4.7172699,0.64215994,-0.28180993,-0.69682229,0.65956187,0
1.3024738,-2.719465,1.8713448,0.58201969,0.4223516,0.69488996,0
2.918395,-1.665204,-2.5969577,0.76278186,-0.57970494,-0.2865414,0
-0.69042397,4.594511,-0.7856667,0.28180993,0.69682229,-0.65956187,0
0.27257881,-0.022308826,1.1724424,0.58201969,0.4223516,0.69488996,0
-0.88945103,-1.1868864,-0.10378194,-0.58201969,-0.4223516,-0.69488996,0
-0.16100836,-0.4015131,1.7258625,0.58201969,0.4223516,0.69488996,0
2.2832403,0.76996762,-3.64205,0.28180993,0.69682229,-0.65956187,0
3.3034527,-1.8787417,-1.672761,0.76278186,-0.57970494,-0.2865414,0
-2.8010461,2.5943737,0.99900699,-0.76278186,0.57970494,0.2865414,0
-3.6636705,0.74217087,2.6746445,-0.76278186,0.57970494,0.2865414,0
-0.51995182,3.609015,-1.7339885,0.28180993,0.69682229,-0.65956187,0
1.1732385,3.0128627,-1.5510204,0.28180993,0.69682229,-0.65956187,0
0.50973821,-3.8424537,1.5100045,-0.28180993,-0.69682229,0.65956187,0
2.2750974,-4.6071706,1.3009429,-0.28180993,-0.69682229,0.65956187,0
-1.9823079,4.7089548,-0.75007391,-0.76278186,0.57970494,0.2865414,0
-2.4891453,2.8162241,1.4281049,-0.76278186,0.57970494,0.2865414,0
3.1687663,1.4418865,-2.5253553,0.28180993,0.69682229,-0.65956187,0
2.2220631,-3.9270325,-0.39414883,0.76278186,-0.57970494,-0.2865414,0
-0.96554637,-3.4332709,1.378559,-0.28180993,-0.69682229,0.65956187,0
0.13925862,-3.8531618,1.2529206,-0.28180993,-0.69682229,0.65956187,0
1.4051065,-1.3677082,1.235307,0.58201969,0.4223516,0.69488996,0
0.80308032,3.1028597,-1.7976747,0.28180993,0.69682229,-0.65956187,0
0.6479466,-3.6351473,1.6423035,-0.28180993,-0.69682229,0.65956187,0
-2.7595878,0.16530323,0.7808252,-0.58201969,-0.4223516,-0.69488996,0
3.5466185,-0.92154211,-2.4040365,0.76278186,-0.57970494,-0.2865414,0
3.1101046,-0.19938087,-0.937971,0.58201969,0.4223516,0.69488996,0
1.4545213,1.5891478,-0.7882297,0.58201969,0.4223516,0.69488996,0
3.3757331,0.26104987,-3.4767277,0.28180993,0.69682229,-0.65956187,0
0.37540913,3.0614481,-1.9840995,0.28180993,0.69682229,-0.65956187,0
-1.89571,1.2454549,2.3700361,0.58201969,0.4223516,0.69488996,0
-1.5798249,3.7969537,0.39964938,0.58201969,0.4223516,0.69488996,0
-4.4473433,-0.30918264,2.7524991,-0.76278186,0.57970494,0.2865414,0
2.4374862,0.5927397,-3.5351562,0.28180993,0.69682229,-0.65956187,0
0.92146301,-4.7151051,0.84888482,-0.28180993,-0.69682229,0.65956187,0
3.7531579,0.95306563,-2.5524392,0.28180993,0.69682229,-0.65956187,0
-2.1754508,3.6936092,0.85830045,-0.76278186,0.57970494,0.2865414,0
-2.8651934,-1.408735,2.6895328,-0.28180993,-0.69682229,0.65956187,0
-3.4047003,1.5561466,1.7662792,-0.76278186,0.57970494,0.2865414,0
0.76645613,1.4985185,-2.852396,-0.58201969,-0.4223516,-0.69488996,0
2.9313788,-3.5906079,0.82601762,0.76278186,-0.57970494,-0.2865414,0
-2.4188015,1.0184144,-0.10359061,-0.58201969,-0.4223516,-0.69488996,0
-3.4496045,0.53221571,3.6384678,-0.76278186,0.57970494,0.2865414,0
-3.047786,-1.6850905,2.1781025,-0.28180993,-0.69682229,0.65956187,0
2.3094766,-1.5408237,0.57656348,0.58201969,0.4223516,0.69488996,0
-2.889473,2.4609821,1.3576887,-0.76278186,0.57970494,0.2865414,0
2.6422074,-0.08334887,-3.700563,-0.58201969,-0.4223516,-0.69488996,0
-3.5522223,-0.55192822,3.2517424,-0.28180993,-0.69682229,0.65956187,0
2.5132942,0.29915607,-3.7653632,-0.58201969,-0.4223516,-0.69488996,0
1.0415776,0.44554269,-2.5638185,-0.58201969,-0.4223516,-0.69488996,0
-0.84461761,4.5191059,-0.91233635,0.28180993,0.69682229,-0.65956187,0
3.493978,-0.29019395,-3.9152026,0.76278186,-0.57970494,-0.2865414,0
3.324141,1.1601205,-1.9922338,0.58201969,0.4223516,0.69488996,0
1.0984581,-4.5536823,0.38805008,-0.58201969,-0.4223516,-0.69488996,0
0.064551622,-0.1678853,1.5457759,0.58201969,0.4223516,0.69488996,0
1.8204248,-2.3000138,-1.4310188,-0.58201969,-0.4223516,-0.69488996,0
1.0385232,-3.5599513,-0.1327312,-0.58201969,-0.4223516,-0.69488996,0
-2.4233866,1.4242543,-0.3048588,-0.58201969,-0.4223516,-0.69488996,0
0.54961896,-4.0488358,1.1697345,-0.28180993,-0.69682229,0.65956187,0
1.5186288,-4.3468666,1.5004678,-0.28180993,-0.69682229,0.65956187,0
-0.87651467,4.4062548,-0.91231561,0.28180993,0.69682229,-0.65956187,0
3.9113333,0.52814209,-2.1976831,0.58201969,0.4223516,0.69488996,0
2.0457368,-3.4797564,1.7750843,0.58201969,0.4223516,0.69488996,0
0.79845333,2.6703019,-2.1232817,0.28180993,0.69682229,-0.65956187,0
1.8024067,-0.44838929,-2.7746248,-0.58201969,-0.4223516,-0.69488996,0
3.6327238,-0.66052508,-2.8728993,0.76278186,-0.57970494,-0.2865414,0
-0.1029892,-0.72136569,1.9241676,0.58201969,0.4223516,0.69488996,0
2.8747706,1.3507569,-1.6531954,0.58201969,0.4223516,0.69488996,0
-0.76238918,-1.8199664,0.24872661,-0.58201969,-0.4223516,-0.69488996,0
0.49759007,2.1618588,-2.7594388,0.28180993,0.69682229,-0.65956187,0
3.1288652,0.74264717,-1.6043546,0.58201969,0.4223516,0.69488996,0
-2.2269866,3.9551411,-0.27660942,-0.76278186,0.57970494,0.2865414,0
-2.4138062,2.1889775,2.1055458,0.58201969,0.4223516,0.69488996,0
2.2928822,1.3717713,-2.7911444,0.28180993,0.69682229,-0.65956187,0
-2.5303535,-0.43787944,3.7787473,-0.28180993,-0.69682229,0.65956187,0
-0.85665798,4.5765295,-0.68872786,0.28180993,0.69682229,-0.65956187,0
2.0595481,-3.2722023,1.7151523,0.58201969,0.4223516,0.69488996,0
3.5460086,-0.24225354,-4.0427909,0.76278186,-0.57970494,-0.2865414,0
-2.1433055,2.8821471,1.4044826,0.58201969,0.4223516,0.69488996,0
-2.9973035,3.028703,-0.32566571,-0.76278186,0.57970494,0.2865414,0
4.1420355,0.070580006,-3.0402527,0.76278186,-0.57970494,-0.2865414,0
-3.8914194,0.391541,2.5299828,-0.76278186,0.57970494,0.2865414,0
2.9251356,-1.6398826,0.10146022,0.58201969,0.4223516,0.69488996,0
1.5052701,1.3767936,-0.70931041,0.58201969,0.4223516,0.69488996,0
-3.3040075,2.2825437,0.24306297,-0.76278186,0.57970494,0.2865414,0
2.5866768,-3.7819502,1.4929695,0.58201969,0.4223516,0.69488996,0
0.81551552,-4.3088126,1.1417828,-0.28180993,-0.69682229,0.65956187,0
1.2665898,-0.66372406,0.66792041,0.58201969,0.4223516,0.69488996,0
0.32493854,-4.0181789,1.0822968,-0.28180993,-0.69682229,0.65956187,0
0.90297586,0.30806494,0.59101802,0.58201969,0.4223516,0.69488996,0
-4.3617573,-0.17593038,2.7973962,-0.76278186,0.57970494,0.2865414,0
-1.9535379,4.6038961,-0.75361538,-0.76278186,0.57970494,0.2865414,0
0.36182642,2.5383875,-0.36972797,0.58201969,0.4223516,0.69488996,0
3.8333664,-0.75641078,-2.4724517,0.76278186,-0.57970494,-0.2865414,0
-1.1024202,1.8844193,-1.7532787,-0.58201969,-0.4223516,-0.69488996,0
-2.221056,3.2013731,-1.6670625,-0.58201969,-0.4223516,-0.69488996,0
2.3095119,-3.616271,1.7597613,0.58201969,0.4223516,0.69488996,0
2.7628493,1.2122772,-2.9883704,0.28180993,0.69682229,-0.65956187,0
1.2496268,1.7506027,-3.0396991,0.28180993,0.69682229,-0.65956187,0
1.6481056,-4.7864485,0.28457832,0.76278186,-0.57970494,-0.2865414,0
-0.96347451,1.6621864,-1.7594967,-0.58201969,-0.4223516,-0.69488996,0
-0.47796512,3.2656012,-2.1029472,0.28180993,0.69682229,-0.65956187,0
0.13402081,-1.6940023,2.4767926,0.58201969,0.4223516,0.69488996,0
-2.5727353,2.8813498,1.1244607,-0.76278186,0.57970494,0.2865414,0
0.40513813,-1.1674129,-0.98194242,-0.58201969,-0.4223516,-0.69488996,0
3.3583734,-1.2430786,-2.450964,0.76278186,-0.57970494,-0.2865414,0
2.7427025,0.15891433,-0.91567838,0.58201969,0.4223516,0.69488996,0
2.8041523,-1.8230742,0.14550161,0.58201969,0.4223516,0.69488996,0
-2.7493382,-1.2756174,2.8828568,-0.28180993,-0.69682229,0.65956187,0
2.0855987,-3.9892595,-0.027131081,0.76278186,-0.57970494,-0.2865414,0
-3.1999576,2.4394555,0.7495482,-0.76278186,0.57970494,0.2865414,0
3.0483515,-1.9265132,-1.641237,0.76278186,-0.57970494,-0.2865414,0
0.86361176,0.019723177,-2.1118305,-0.58201969,-0.4223516,-0.69488996,0
-0.45222807,-0.70550442,2.2814777,0.58201969,0.4223516,0.69488996,0
3.6714039,-0.86692226,-2.7472272,0.76278186,-0.57970494,-0.2865414,0
0.61959147,3.1664095,-1.8004298,0.28180993,0.69682229,-0.65956187,0
-2.9590302,2.2662356,1.2214627,-0.76278186,0.57970494,0.2865414,0
-1.3281219,3.827672,-1.8480341,0.28180993,0.69682229,-0.65956187,0
-3.0019302,2.2466238,1.5719538,-0.76278186,0.57970494,0.2865414,0
2.3792958,-4.0919304,0.40940189,0.76278186,-0.57970494,-0.2865414,0
3.3297877,-2.0588341,-1.2703192,0.76278186,-0.57970494,-0.2865414,0
1.4606767,2.7573323,-1.632818,0.28180993,0.69682229,-0.65956187,0
-1.6224236,4.3199306,-1.2844813,0.28180993,0.69682229,-0.65956187,0
1.4175618,1.6885787,-2.906234,0.28180993,0.69682229,-0.65956187,0
1.9991399,-1.0715508,0.40464091,0.58201969,0.4223516,0.69488996,0
3.818923,-1.089335,-1.5560844,0.76278186,-0.57970494,-0.2865414,0
-2.2167149,-1.8703909,1.6671439,-0.58201969,-0.4223516,-0.69488996,0
-1.0884163,-1.4459705,0.41954947,-0.58201969,-0.4223516,-0.69488996,0
3.0398884,-2.7918122,-0.43098116,0.76278186,-0.57970494,-0.2865414,0
0.77920365,3.3560762,-1.432714,0.28180993,0.69682229,-0.65956187,0
-3.2545683,2.5487609,0.011604786,-0.76278186,0.57970494,0.2865414,0
0.15541172,-2.7459807,2.4796834,-0.28180993,-0.69682229,0.65956187,0
0.10623145,3.9272342,-1.1395977,0.58201969,0.4223516,0.69488996,0
3.4853497,-1.4897413,-1.8338265,0.76278186,-0.57970494,-0.2865414,0
1.1197778,-2.415617,1.9312792,0.58201969,0.4223516,0.69488996,0
3.4210734,-1.0721549,-2.6144092,0.76278186,-0.57970494,-0.2865414,0
-3.4695721,-1.278387,2.4951596,-0.28180993,-0.69682229,0.65956187,0
-1.5469983,3.7609215,-2.0421183,0.28180993,0.69682229,-0.65956187,0
-3.1150365,1.6587235,2.0998907,-0.76278186,0.57970494,0.2865414,0
0.35326195,-3.0431676,2.2027769,-0.28180993,-0.69682229,0.65956187,0
-0.012901306,3.3937223,-0.65278244,0.58201969,0.4223516,0.69488996,0
-0.21469283,2.3701189,0.28752899,0.58201969,0.4223516,0.69488996,0
-1.2517924,4.9106913,-0.64697409,0.28180993,0.69682229,-0.65956187,0
1.7301686,-4.2407131,1.5562069,-0.28180993,-0.69682229,0.65956187,0
-2.7499895,3.4322209,-0.18021774,-0.76278186,0.57970494,0.2865414,0
1.0449858,3.1723402,-1.5702424,0.28180993,0.69682229,-0.65956187,0
-2.0177813,1.8276751,2.1058245,0.58201969,0.4223516,0.69488996,0
1.2464929,-4.722765,0.92211723,-0.28180993,-0.69682229,0.65956187,0
1.7727439,-2.2678349,-1.4075954,-0.58201969,-0.4223516,-0.69488996,0
1.7983785,1.2616024,-3.0714116,0.28180993,0.69682229,-0.65956187,0
-0.97176623,3.418967,-2.0544224,0.28180993,0.69682229,-0.65956187,0
-0.45095587,2.5409894,-2.5131452,-0.58201969,-0.4223516,-0.69488996,0
-2.0389395,-1.6614921,2.6655164,-0.28180993,-0.69682229,0.65956187,0
0.11073005,0.56050956,-1.9675207,-0.58201969,-0.4223516,-0.69488996,0
2.9365826,-3.4306862,0.46254182,0.76278186,-0.57970494,-0.2865414,0
