5.8836465,0.20298457,1.1408157,0.79413879,0.57431269,0.19876695,0
3.5309587,2.9609635,1.9022727,-0.14726466,-0.13546371,0.97977674,0
2.117969,-2.8579895,0.71412706,0.58962393,-0.80735016,-0.023001075,0
-2.8601601,-4.3930783,-1.3520765,-0.79413879,-0.57431269,-0.19876695,0
5.301321,1.1018875,0.48390198,0.79413879,0.57431269,0.19876695,0
-0.0360322,-4.334394,-0.43060255,0.58962393,-0.80735016,-0.023001075,0
5.8828182,0.39206862,0.49091625,0.79413879,0.57431269,0.19876695,0
4.8581533,1.610568,0.64203119,0.79413879,0.57431269,0.19876695,0
0.16111374,-4.0986233,0.13100916,0.58962393,-0.80735016,-0.023001075,0
2.0520465,5.1777501,1.792192,0.79413879,0.57431269,0.19876695,0
4.9022813,-0.67136478,0.45448399,0.58962393,-0.80735016,-0.023001075,0
3.4662948,-1.7007935,-0.46477532,0.58962393,-0.80735016,-0.023001075,0
-5.6405778,-0.81445312,-0.4987936,-0.79413879,-0.57431269,-0.19876695,0
3.6498289,3.6295233,0.2424469,0.79413879,0.57431269,0.19876695,0
2.6390412,4.5184836,1.1501474,0.79413879,0.57431269,0.19876695,0
2.3344915,-2.5993967,0.89861202,0.58962393,-0.80735016,-0.023001075,0
4.2777166,2.1521399,1.346674,0.79413879,0.57431269,0.19876695,0
3.5503113,3.3279545,1.7205565,0.79413879,0.57431269,0.19876695,0
-2.0374331,2.8599443,-1.0287037,-0.58962393,0.80735016,0.023001075,0
-4.9915028,-1.8452971,-0.21139574,-0.79413879,-0.57431269,-0.19876695,0
-1.9037371,-4.5171909,0.18605661,-0.14726466,-0.13546371,0.97977674,0
-2.7059097,-4.4251647,-1.4941571,-0.79413879,-0.57431269,-0.19876695,0
-4.3465538,-2.1635761,-1.596226,-0.79413879,-0.57431269,-0.19876695,0
1.6131809,-2.8190231,-1.176452,0.14726466,0.13546371,-0.97977674,0
-0.77742004,-4.7892332,-0.73929071,0.58962393,-0.80735016,-0.023001075,0
-1.6018672,3.007139,1.1592469,-0.14726466,-0.13546371,0.97977674,0
-2.7700143,-4.5179133,-0.66346836,-0.79413879,-0.57431269,-0.19876695,0
-0.11883354,-0.65457356,1.0039277,-0.14726466,-0.13546371,0.97977674,0
-1.8556826,-2.8974247,0.2721827,-0.14726466,-0.13546371,0.97977674,0
-0.28628731,-4.4992962,-1.3293438,0.58962393,-0.80735016,-0.023001075,0
1.091229,-3.1709707,0.67979246,-0.14726466,-0.13546371,0.97977674,0
5.7614799,-0.10489154,0.22862434,0.58962393,-0.80735016,-0.023001075,0
-0.13169432,-4.2916741,-0.8571676,0.58962393,-0.80735016,-0.023001075,0
-1.9014583,2.1631424,1.1051457,-0.14726466,-0.13546371,0.97977674,0
3.270669,-0.10278121,1.5503001,-0.14726466,-0.13546371,0.97977674,0
4.5858722,-0.89157069,0.93882966,0.58962393,-0.80735016,-0.023001075,0
-4.4332981,1.1708314,-1.0567765,-0.58962393,0.80735016,0.023001075,0
-2.3284709,-3.3271019,-1.8783736,0.14726466,0.13546371,-0.97977674,0
-3.5425608,-3.5006919,-1.102253,-0.79413879,-0.57431269,-0.19876695,0
-0.85502583,0.95286864,1.0923933,-0.14726466,-0.13546371,0.97977674,0
4.282784,2.3370209,-0.07406044,0.14726466,0.13546371,-0.97977674,0
1.3887622,-3.2737195,-0.94807309,0.58962393,-0.80735016,-0.023001075,0
1.1070542,-1.3704759,1.088342,-0.14726466,-0.13546371,0.97977674,0
-3.5514922,0.1375224,-1.6013598,0.14726466,0.13546371,-0.97977674,0
2.0290294,-1.246454,-0.78813863,0.14726466,0.13546371,-0.97977674,0
2.4110119,2.2785656,-0.24977207,0.14726466,0.13546371,-0.97977674,0
0.78049183,-3.6269362,-0.60418963,0.58962393,-0.80735016,-0.023001075,0
5.1363573,1.2844756,0.77068996,0.79413879,0.57431269,0.19876695,0
4.1624551,2.7634292,0.38030624,0.79413879,0.57431269,0.19876695,0
2.4113464,-2.6448658,-0.21994579,0.58962393,-0.80735016,-0.023001075,0
-5.1500649,-0.29040432,0.1597743,-0.14726466,-0.13546371,0.97977674,0
2.4566712,4.9351168,0.90360332,0.79413879,0.57431269,0.19876695,0
2.4015608,-2.5451012,-0.84575474,0.58962393,-0.80735016,-0.023001075,0
2.7704535,-2.4094374,-0.38198042,0.58962393,-0.80735016,-0.023001075,0
-4.7508554,-2.0747414,-0.41306639,-0.79413879,-0.57431269,-0.19876695,0
-2.2326553,-2.123734,-1.5763835,0.14726466,0.13546371,-0.97977674,0
-4.0539122,-2.7403915,-1.4099216,-0.79413879,-0.57431269,-0.19876695,0
-3.2112424,-0.99696136,0.33796406,-0.14726466,-0.13546371,0.97977674,0
-3.6047745,1.7458266,-1.2006867,-0.58962393,0.80735016,0.023001075,0
3.7011509,3.2517362,-0.015386105,0.14726466,0.13546371,-0.97977674,0
-4.0665383,0.89273071,0.53439808,-0.14726466,-0.13546371,0.97977674,0
2.3156481,-1.720412,1.0465754,-0.14726466,-0.13546371,0.97977674,0
4.3033772,-1.2864894,0.20874715,0.58962393,-0.80735016,-0.023001075,0
-2.2356787,-4.1647706,-1.8833027,0.14726466,0.13546371,-0.97977674,0
1.6280022,2.4652324,-0.47746921,0.14726466,0.13546371,-0.97977674,0
-0.86540353,-3.0084147,-1.6066855,0.14726466,0.13546371,-0.97977674,0
1.146594,3.7074566,1.7388906,-0.14726466,-0.13546371,0.97977674,0
-1.8048661,-0.25475284,-1.2728291,0.14726466,0.13546371,-0.97977674,0
4.0695658,-1.4258302,1.1587005,0.58962393,-0.80735016,-0.023001075,0
-0.6212914,-4.7782755,-1.6486533,0.58962393,-0.80735016,-0.023001075,0
-0.75979853,3.8678741,-0.1330024,-0.58962393,0.80735016,0.023001075,0
0.72139692,4.1750569,-0.35261512,0.14726466,0.13546371,-0.97977674,0
-1.1964805,-4.9426832,-1.9061611,0.14726466,0.13546371,-0.97977674,0
0.93106604,2.7081165,-0.58814132,0.14726466,0.13546371,-0.97977674,0
3.3822892,4.1076937,0.086533546,0.79413879,0.57431269,0.19876695,0
-5.4796739,0.39379787,-0.45226812,-0.58962393,0.80735016,0.023001075,0
5.9131427,0.50463867,0.03883028,0.79413879,0.57431269,0.19876695,0
-2.2349813,2.8018818,0.59508705,-0.58962393,0.80735016,0.023001075,0
0.24791822,1.0031613,1.2074047,-0.14726466,-0.13546371,0.97977674,0
0.89746141,-3.5530794,0.68847156,-0.14726466,-0.13546371,0.97977674,0
-5.4508867,0.37278509,-0.4694643,-0.58962393,0.80735016,0.023001075,0
-0.9375515,3.7163846,-0.66060716,0.14726466,0.13546371,-0.97977674,0
3.4485443,1.0242565,1.6390271,-0.14726466,-0.13546371,0.97977674,0
5.5105267,0.47689295,1.6874371,0.79413879,0.57431269,0.19876695,0
0.83893085,-1.9703474,-1.0996097,0.14726466,0.13546371,-0.97977674,0
-3.1663079,-4.2823086,-0.56116819,-0.79413879,-0.57431269,-0.19876695,0
-1.3502445,-5.1853294,-1.1210943,0.58962393,-0.80735016,-0.023001075,0
4.6844902,-0.82769942,0.30736685,0.58962393,-0.80735016,-0.023001075,0
-1.8470551,-1.317539,-1.4502815,0.14726466,0.13546371,-0.97977674,0
-2.992383,-2.2143188,-1.7370105,0.14726466,0.13546371,-0.97977674,0
-4.4317656,1.1701713,-0.94453979,-0.58962393,0.80735016,0.023001075,0
-3.2644835,-3.7435575,-1.2434783,-0.79413879,-0.57431269,-0.19876695,0
4.9413843,1.4323337,1.6165967,0.79413879,0.57431269,0.19876695,0
4.7283988,1.7780488,0.62325525,0.79413879,0.57431269,0.19876695,0
-5.2767696,-1.1918564,-0.95752144,-0.79413879,-0.57431269,-0.19876695,0
2.0379508,-2.8195653,0.22314298,0.58962393,-0.80735016,-0.023001075,0
5.4979339,0.37340188,1.7346354,0.79413879,0.57431269,0.19876695,0
-2.8478761,2.2571807,-0.61818504,-0.58962393,0.80735016,0.023001075,0
0.54776239,4.73347,1.1864327,-0.58962393,0.80735016,0.023001075,0
3.198246,4.1824322,-0.012590408,0.14726466,0.13546371,-0.97977674,0
-3.2256792,2.0454206,0.17077255,-0.58962393,0.80735016,0.023001075,0
0.2937336,4.4308472,1.655284,-0.58962393,0.80735016,0.023001075,0
5.9089298,0.0068252087,1.0482564,0.58962393,-0.80735016,-0.023001075,0
5.1511941,1.4401145,0.3700223,0.79413879,0.57431269,0.19876695,0
-2.3896289,-1.721155,-1.5947257,0.14726466,0.13546371,-0.97977674,0
-0.97763872,-5.0878229,-0.0054764748,0.58962393,-0.80735016,-0.023001075,0
-2.7013869,2.4820447,-1.1079704,-0.58962393,0.80735016,0.023001075,0
5.2841611,-0.47960484,0.81491613,0.58962393,-0.80735016,-0.023001075,0
-3.980762,-2.4463775,-1.6920257,-0.79413879,-0.57431269,-0.19876695,0
-2.3670437,2.6573234,0.9114778,-0.58962393,0.80735016,0.023001075,0
5.2438488,1.509268,-0.0076127052,0.14726466,0.13546371,-0.97977674,0
3.4769633,3.5565019,1.4127257,0.79413879,0.57431269,0.19876695,0
-2.0099742,2.8926957,-0.74368507,-0.58962393,0.80735016,0.023001075,0
-1.9035938,0.0057371333,-1.2387915,0.14726466,0.13546371,-0.97977674,0
5.6969457,-0.076793671,0.71289635,0.58962393,-0.80735016,-0.023001075,0
-2.4432638,2.4447064,0.069128156,-0.58962393,0.80735016,0.023001075,0
-4.9932256,-1.7306042,-0.55661726,-0.79413879,-0.57431269,-0.19876695,0
-4.2577763,1.3268905,-0.3681078,-0.58962393,0.80735016,0.023001075,0
2.2299788,-2.5894206,0.048202753,0.58962393,-0.80735016,-0.023001075,0
0.36384058,4.6939111,0.63433647,-0.58962393,0.80735016,0.023001075,0
-4.1373863,-2.7230227,-0.7772541,-0.79413879,-0.57431269,-0.19876695,0
-3.3832638,-3.6064274,-1.5523343,-0.79413879,-0.57431269,-0.19876695,0
-2.7892141,-4.512784,-0.61897683,-0.79413879,-0.57431269,-0.19876695,0
-4.806447,-1.6896499,-1.2483525,-0.79413879,-0.57431269,-0.19876695,0
1.4380661,2.4801207,1.6051335,-0.14726466,-0.13546371,0.97977674,0
-0.079810143,4.3611064,1.1751918,-0.58962393,0.80735016,0.023001075,0
3.8214297,-0.76593328,-0.57016921,0.14726466,0.13546371,-0.97977674,0
0.80038691,4.0003018,-0.32825994,0.14726466,0.13546371,-0.97977674,0
1.7057068,-1.575438,1.0142918,-0.14726466,-0.13546371,0.97977674,0
1.3481343,5.3743935,1.3637968,-0.58962393,0.80735016,0.023001075,0
-3.5909748,-3.1967616,-1.2886348,-0.79413879,-0.57431269,-0.19876695,0
4.8765564,-0.93172169,1.3165963,0.58962393,-0.80735016,-0.023001075,0
-3.1113427,-3.7642303,-1.5863206,-0.79413879,-0.57431269,-0.19876695,0
1.3394222,5.3707576,0.49916077,-0.58962393,0.80735016,0.023001075,0
5.0537786,0.94758105,-0.2226615,0.14726466,0.13546371,-0.97977674,0
-2.5831256,2.5762444,-0.80623293,-0.58962393,0.80735016,0.023001075,0
4.6043425,1.7945824,1.2386055,0.79413879,0.57431269,0.19876695,0
-2.1949897,2.5868635,0.845034,-0.58962393,0.80735016,0.023001075,0
-4.0340638,-2.8168232,-0.59557295,-0.79413879,-0.57431269,-0.19876695,0
4.3805923,1.9997432,-0.11707401,0.14726466,0.13546371,-0.97977674,0
-5.5904732,-0.54902697,-1.4986887,-0.79413879,-0.57431269,-0.19876695,0
3.8552384,3.1482482,1.0502033,0.79413879,0.57431269,0.19876695,0
4.3547931,-1.213932,1.4892583,0.58962393,-0.80735016,-0.023001075,0
-4.8787704,-1.5621184,-0.74160767,-0.79413879,-0.57431269,-0.19876695,0
-1.0872513,-2.1797409,-1.54388,0.14726466,0.13546371,-0.97977674,0
2.246593,-2.6662645,-0.89352453,0.58962393,-0.80735016,-0.023001075,0
3.9877744,2.7692778,1.7012906,0.79413879,0.57431269,0.19876695,0
5.6208496,-0.35796833,0.22477627,0.58962393,-0.80735016,-0.023001075,0
4.001328,2.6367028,1.0818453,0.79413879,0.57431269,0.19876695,0
-0.55175304,-1.6379611,0.74436879,-0.14726466,-0.13546371,0.97977674,0
-0.89280725,3.6935725,1.3976597,-0.14726466,-0.13546371,0.97977674,0
-2.8697481,-4.3133922,-0.89994907,-0.79413879,-0.57431269,-0.19876695,0
-1.66836,-5.6366353,-0.46711278,0.58962393,-0.80735016,-0.023001075,0
-4.3589339,0.10611713,-1.6424191,0.14726466,0.13546371,-0.97977674,0
5.1554995,1.1676259,0.83319616,0.79413879,0.57431269,0.19876695,0
-0.74331141,-4.9170103,-0.60840368,0.58962393,-0.80735016,-0.023001075,0
1.5462551,4.8043718,-0.20089293,0.14726466,0.13546371,-0.97977674,0
-4.3511868,1.2439919,-0.88232684,-0.58962393,0.80735016,0.023001075,0
3.1245589,1.5517514,-0.43666124,0.14726466,0.13546371,-0.97977674,0
3.1978068,-2.092772,0.50713015,0.58962393,-0.80735016,-0.023001075,0
-3.3538301,1.9022564,-0.76676106,-0.58962393,0.80735016,0.023001075,0
2.557704,4.725678,1.7158918,0.79413879,0.57431269,0.19876695,0
-4.0782595,1.4145584,-0.56247926,-0.58962393,0.80735016,0.023001075,0
-4.4115224,-2.0990372,-1.8796852,-0.79413879,-0.57431269,-0.19876695,0
-5.5755224,-0.83942342,-0.58053875,-0.79413879,-0.57431269,-0.19876695,0
4.3209181,2.16642,1.2584414,0.79413879,0.57431269,0.19876695,0
1.6604822,5.4391766,1.9031285,-0.58962393,0.80735016,0.023001075,0
-0.49558783,-4.6846638,-0.83401024,0.58962393,-0.80735016,-0.023001075,0
-4.9067392,-1.2030149,-1.9786847,0.14726466,0.13546371,-0.97977674,0
-5.4863019,0.25209808,-1.5505939,-0.58962393,0.80735016,0.023001075,0
1.9619303,-3.0444069,0.66090333,0.58962393,-0.80735016,-0.023001075,0
-2.7875087,1.6939898,-1.2630967,0.14726466,0.13546371,-0.97977674,0
3.3032336,1.6786882,-0.21385002,0.14726466,0.13546371,-0.97977674,0
4.2991085,-1.2039368,-0.59569144,0.58962393,-0.80735016,-0.023001075,0
4.1588821,2.9544208,0.25555849,0.79413879,0.57431269,0.19876695,0
2.2821116,4.931529,1.391331,0.79413879,0.57431269,0.19876695,0
-1.8880155,-5.4053922,-0.085793495,-0.14726466,-0.13546371,0.97977674,0
-0.21055889,3.7569413,-0.43806422,0.14726466,0.13546371,-0.97977674,0
1.3338363,-0.16727901,-0.7921384,0.14726466,0.13546371,-0.97977674,0
4.8091521,1.9389455,0.60494518,0.79413879,0.57431269,0.19876695,0
3.0212002,4.0518394,1.4214377,0.79413879,0.57431269,0.19876695,0
-1.5397081,3.2243977,0.36432385,-0.58962393,0.80735016,0.023001075,0
-0.89943933,3.6612244,1.0009583,-0.58962393,0.80735016,0.023001075,0
5.1391096,1.0521866,1.808517,0.79413879,0.57431269,0.19876695,0
-5.5369639,0.39915025,-1.7515035,-0.58962393,0.80735016,0.023001075,0
-0.13850546,4.1079683,1.3923163,-0.58962393,0.80735016,0.023001075,0
-3.2824924,1.3097529,-1.3273664,0.14726466,0.13546371,-0.97977674,0
3.4443562,-1.7946311,0.12188768,0.58962393,-0.80735016,-0.023001075,0
5.6676459,0.10890055,1.6992817,0.79413879,0.57431269,0.19876695,0
-2.2253213,-3.9483991,-1.8100791,0.14726466,0.13546371,-0.97977674,0
-3.6605296,-3.0449784,-1.7453091,-0.79413879,-0.57431269,-0.19876695,0
1.502296,-3.1548381,-0.62775546,0.58962393,-0.80735016,-0.023001075,0
-1.5501699,-1.1179268,0.55671334,-0.14726466,-0.13546371,0.97977674,0
0.47119665,-3.8899379,-0.7346034,0.58962393,-0.80735016,-0.023001075,0
3.922111,3.0011892,0.51986456,0.79413879,0.57431269,0.19876695,0
1.2728144,1.0494003,-0.72704303,0.14726466,0.13546371,-0.97977674,0
-5.1228638,-1.458006,-0.88819551,-0.79413879,-0.57431269,-0.19876695,0
2.3031776,-1.7455117,1.0964026,-0.14726466,-0.13546371,0.97977674,0
-3.0291309,-3.8043022,-1.9004605,-0.79413879,-0.57431269,-0.19876695,0
-4.620893,0.46046305,0.46070004,-0.14726466,-0.13546371,0.97977674,0
-4.0784864,0.68874061,-1.6157179,0.14726466,0.13546371,-0.97977674,0
-0.052610874,-4.278615,0.095326185,0.58962393,-0.80735016,-0.023001075,0
2.0080147,5.2239141,1.7884581,0.79413879,0.57431269,0.19876695,0
-1.2236896,2.8604455,-0.73356736,0.14726466,0.13546371,-0.97977674,0
-0.61721396,2.5419793,1.1990936,-0.14726466,-0.13546371,0.97977674,0
-1.1794233,-0.42679667,0.82012975,-0.14726466,-0.13546371,0.97977674,0
-3.448669,1.9203221,-1.1204562,-0.58962393,0.80735016,0.023001075,0
-4.5948257,0.18247056,0.35396099,-0.14726466,-0.13546371,0.97977674,0
2.7503381,4.5563202,0.76258898,0.79413879,0.57431269,0.19876695,0
-5.0633731,0.6850363,-1.1690192,-0.58962393,0.80735016,0.023001075,0
0.29764509,4.5232501,0.37609768,-0.58962393,0.80735016,0.023001075,0
-2.2028391,2.6377325,1.0592525,-0.58962393,0.80735016,0.023001075,0
-0.45889157,-1.6712151,-1.2586552,0.14726466,0.13546371,-0.97977674,0
3.1572464,-2.0413733,0.29423785,0.58962393,-0.80735016,-0.023001075,0
3.1388113,4.3245993,0.18555403,0.79413879,0.57431269,0.19876695,0
4.2618523,1.5645537,-0.11576462,0.14726466,0.13546371,-0.97977674,0
3.1616271,3.9275401,0.77546453,0.79413879,0.57431269,0.19876695,0
4.2625065,2.4569159,0.76893091,0.79413879,0.57431269,0.19876695,0
0.20356083,4.3800111,-0.049520373,-0.58962393,0.80735016,0.023001075,0
4.4747448,2.3681378,0.49557066,0.79413879,0.57431269,0.19876695,0
-3.4127469,-3.8321042,-0.34122038,-0.79413879,-0.57431269,-0.19876695,0
-2.1974821,-0.98725188,0.54018068,-0.14726466,-0.13546371,0.97977674,0
3.2177851,-1.9449171,0.6070385,0.58962393,-0.80735016,-0.023001075,0
0.67624688,4.8496895,1.3831451,-0.58962393,0.80735016,0.023001075,0
1.7659664,3.4089622,1.8073343,-0.14726466,-0.13546371,0.97977674,0
2.0031197,-2.9822648,-0.44421089,0.58962393,-0.80735016,-0.023001075,0
3.3911798,3.8590558,0.67696881,0.79413879,0.57431269,0.19876695,0
1.1086047,-2.2918844,-1.0967774,0.14726466,0.13546371,-0.97977674,0
-1.1221762,2.1131709,-0.88036191,0.14726466,0.13546371,-0.97977674,0
-1.1427011,-5.1119986,-0.11706853,0.58962393,-0.80735016,-0.023001075,0
-4.7141495,0.86018789,-0.39666557,-0.58962393,0.80735016,0.023001075,0
5.1987882,1.1272969,1.0725837,0.79413879,0.57431269,0.19876695,0
1.8915539,-1.0320139,-0.77788591,0.14726466,0.13546371,-0.97977674,0
-3.7883592,1.6357505,-0.31763291,-0.58962393,0.80735016,0.023001075,0
3.2100782,3.6566,1.4535947,0.79413879,0.57431269,0.19876695,0
3.452898,0.1560936,-0.46811604,0.14726466,0.13546371,-0.97977674,0
-4.3714437,-2.3411705,-0.7600131,-0.79413879,-0.57431269,-0.19876695,0
2.0715585,5.3455086,1.8153915,0.79413879,0.57431269,0.19876695,0
0.86664534,-3.6943965,-0.15981668,0.58962393,-0.80735016,-0.023001075,0
3.1213992,1.7645143,-0.27686024,0.14726466,0.13546371,-0.97977674,0
-1.2740586,0.67717624,1.0062896,-0.14726466,-0.13546371,0.97977674,0
3.1418767,-2.1425331,-0.62322855,0.58962393,-0.80735016,-0.023001075,0
-2.2349455,2.7412426,-0.77687263,-0.58962393,0.80735016,0.023001075,0
1.7298875,-2.1830511,-1.0412993,0.14726466,0.13546371,-0.97977674,0
-3.8088231,1.6217229,0.54587603,-0.58962393,0.80735016,0.023001075,0
-0.88990164,3.6900682,0.16661218,-0.58962393,0.80735016,0.023001075,0
-1.1648049,3.3688293,1.2605634,-0.58962393,0.80735016,0.023001075,0
-0.074579477,0.99854696,-0.95635992,0.14726466,0.13546371,-0.97977674,0
1.8126888,-3.0150397,0.12658596,0.58962393,-0.80735016,-0.023001075,0
4.3152051,2.5954204,0.070482254,0.79413879,0.57431269,0.19876695,0
2.5065453,-2.5674446,-0.22353089,0.58962393,-0.80735016,-0.023001075,0
3.8725576,2.268996,1.9414868,-0.14726466,-0.13546371,0.97977674,0
0.99710584,-0.89765412,1.0406001,-0.14726466,-0.13546371,0.97977674,0
1.1411781,-3.5494051,-0.24713436,0.58962393,-0.80735016,-0.023001075,0
-1.1216522,-2.2898254,-1.4115175,0.14726466,0.13546371,-0.97977674,0
3.7759109,2.9568725,1.7705886,0.79413879,0.57431269,0.19876695,0
-0.34349346,-4.6578355,-0.54035461,0.58962393,-0.80735016,-0.023001075,0
-4.3325377,-0.50552368,0.24049616,-0.14726466,-0.13546371,0.97977674,0
-5.2785163,0.58466053,-1.7596483,-0.58962393,0.80735016,0.023001075,0
-2.9302449,2.2639971,0.097033978,-0.58962393,0.80735016,0.023001075,0
3.2218866,3.6584308,1.875572,0.79413879,0.57431269,0.19876695,0
-4.2882099,1.0474288,-1.5946546,0.14726466,0.13546371,-0.97977674,0
-2.8694439,-4.8102326,-0.15130258,-0.79413879,-0.57431269,-0.19876695,0
5.4685178,1.0104568,0.32541656,0.79413879,0.57431269,0.19876695,0
-2.7318559,-2.8118589,-1.881882,0.14726466,0.13546371,-0.97977674,0
-4.0799708,-2.9131272,-0.29094267,-0.79413879,-0.57431269,-0.19876695,0
-4.3580103,-2.3553045,-0.66698933,-0.79413879,-0.57431269,-0.19876695,0
5.8021235,-0.1555481,1.1285357,0.58962393,-0.80735016,-0.023001075,0
1.4067669,5.396081,0.48340726,-0.58962393,0.80735016,0.023001075,0
-3.6579089,0.4050099,-1.6024394,0.14726466,0.13546371,-0.97977674,0
2.8427484,3.2657485,-0.21889138,0.14726466,0.13546371,-0.97977674,0
-0.30223751,-4.5218062,-1.1332673,0.58962393,-0.80735016,-0.023001075,0
-1.8856838,2.9171402,-0.77866209,-0.58962393,0.80735016,0.023001075,0
-2.3635623,2.6888058,1.0758113,-0.58962393,0.80735016,0.023001075,0
-2.0695131,1.4125699,-1.2300928,0.14726466,0.13546371,-0.97977674,0
4.3467364,2.521136,0.23104143,0.79413879,0.57431269,0.19876695,0
-4.1086326,-2.7822309,-1.111598,-0.79413879,-0.57431269,-0.19876695,0
-4.7202196,0.89564729,-0.94178033,-0.58962393,0.80735016,0.023001075,0
3.6029909,3.2306416,1.2307117,0.79413879,0.57431269,0.19876695,0
5.0356312,1.5736997,0.15502024,0.79413879,0.57431269,0.19876695,0
0.64439374,1.024968,-0.71877122,0.14726466,0.13546371,-0.97977674,0
3.3400989,3.6359086,1.6460831,0.79413879,0.57431269,0.19876695,0
-2.8864808,-1.2820771,-1.7315452,0.14726466,0.13546371,-0.97977674,0
-4.3472543,-2.126864,-1.3002934,-0.79413879,-0.57431269,-0.19876695,0
-3.076231,-3.8798442,-1.8292849,-0.79413879,-0.57431269,-0.19876695,0
5.011281,-0.59159577,1.2656999,0.58962393,-0.80735016,-0.023001075,0
0.14847112,-2.6116138,-1.3599021,0.14726466,0.13546371,-0.97977674,0
-1.2583437,3.2721395,1.0516475,-0.58962393,0.80735016,0.023001075,0
-0.021671772,-4.4455142,-0.42030877,0.58962393,-0.80735016,-0.023001075,0
-4.1137781,1.2246778,-0.45572305,-0.58962393,0.80735016,0.023001075,0
1.1870997,-3.4990301,-1.2617314,0.58962393,-0.80735016,-0.023001075,0
1.5307727,5.3807197,0.5433929,-0.58962393,0.80735016,0.023001075,0
5.1478786,1.479661,0.58821297,0.79413879,0.57431269,0.19876695,0
-2.8351974,2.3563342,-1.1425289,-0.58962393,0.80735016,0.023001075,0
-3.8752301,1.6435816,-1.455137,-0.58962393,0.80735016,0.023001075,0
-3.4112706,-3.4597368,-1.9559813,-0.79413879,-0.57431269,-0.19876695,0
-4.0292554,-2.6555715,-1.1555877,-0.79413879,-0.57431269,-0.19876695,0
-2.4363053,-5.404088,-0.08669734,-0.79413879,-0.57431269,-0.19876695,0
0.081820011,-4.2733278,-0.64087689,0.58962393,-0.80735016,-0.023001075,0
-5.575098,-0.63669968,-1.154829,-0.79413879,-0.57431269,-0.19876695,0
2.9976597,-0.13989863,1.3608637,-0.14726466,-0.13546371,0.97977674,0
3.3667498,3.5230854,1.717108,0.79413879,0.57431269,0.19876695,0
0.32332993,4.5904922,-0.22464418,-0.58962393,0.80735016,0.023001075,0
-1.6120405,-2.164464,0.54772151,-0.14726466,-0.13546371,0.97977674,0
0.7672081,-3.3680787,0.66976619,-0.14726466,-0.13546371,0.97977674,0
-5.6152372,-0.5584321,-1.1415043,-0.79413879,-0.57431269,-0.19876695,0
-1.3408794,-5.3955603,-0.30742979,0.58962393,-0.80735016,-0.023001075,0
-2.9328308,-4.1220207,-1.4000528,-0.79413879,-0.57431269,-0.19876695,0
-3.9286103,-2.0120642,-1.8660889,0.14726466,0.13546371,-0.97977674,0
-6.1338844,-0.23078847,-0.07779026,-0.79413879,-0.57431269,-0.19876695,0
0.416008,-4.1385803,0.2442162,0.58962393,-0.80735016,-0.023001075,0
1.0747275,-3.5305085,0.55980772,0.58962393,-0.80735016,-0.023001075,0
-3.5312736,1.647186,0.60318041,-0.58962393,0.80735016,0.023001075,0
-0.35744715,4.1051779,1.3784552,-0.58962393,0.80735016,0.023001075,0
-1.8913975,0.16214532,-1.3472432,0.14726466,0.13546371,-0.97977674,0
1.9429142,4.5388322,-0.0067722797,0.14726466,0.13546371,-0.97977674,0
0.73328036,0.6418128,1.1516029,-0.14726466,-0.13546371,0.97977674,0
3.3743293,-1.6459682,-0.81293917,0.14726466,0.13546371,-0.97977674,0
2.4305065,5.2768536,0.37656808,0.79413879,0.57431269,0.19876695,0
4.7165384,1.9360592,0.74992895,0.79413879,0.57431269,0.19876695,0
1.1847138,-3.5474677,0.32145184,0.58962393,-0.80735016,-0.023001075,0
-6.0834723,-0.3689537,-0.23520327,-0.79413879,-0.57431269,-0.19876695,0
-3.6353545,-1.9126023,-1.8852839,0.14726466,0.13546371,-0.97977674,0
-0.93567634,-4.5847301,-1.773407,0.14726466,0.13546371,-0.97977674,0
-3.0726161,-2.2145774,0.30539751,-0.14726466,-0.13546371,0.97977674,0
5.7536039,0.34820795,1.6562223,0.79413879,0.57431269,0.19876695,0
4.8832531,0.53412521,1.856385,-0.14726466,-0.13546371,0.97977674,0
0.47265553,3.2430348,1.5815703,-0.14726466,-0.13546371,0.97977674,0
-4.5753093,-0.78374612,-1.7179759,0.14726466,0.13546371,-0.97977674,0
-5.3437386,-0.60053861,-1.6358342,-0.79413879,-0.57431269,-0.19876695,0
-5.6524191,-0.90935254,-0.050817013,-0.14726466,-0.13546371,0.97977674,0
3.6540961,3.1681757,0.99145222,0.79413879,0.57431269,0.19876695,0
1.3680277,5.3476343,0.89074659,-0.58962393,0.80735016,0.023001075,0
-1.7395706,0.5579288,0.85209513,-0.14726466,-0.13546371,0.97977674,0
-3.8906593,1.5324545,-0.95825791,-0.58962393,0.80735016,0.023001075,0
2.2143807,5.3678894,0.55126834,0.79413879,0.57431269,0.19876695,0
-3.6051893,-3.4627805,-0.46831131,-0.79413879,-0.57431269,-0.19876695,0
-5.9624529,-0.066913605,-1.4796,-0.79413879,-0.57431269,-0.19876695,0
0.95858526,4.9761209,0.34923363,-0.58962393,0.80735016,0.023001075,0
2.1606586,0.80985701,-0.49354792,0.14726466,0.13546371,-0.97977674,0
1.8587527,0.63536727,1.4694346,-0.14726466,-0.13546371,0.97977674,0
1.8662745,2.9203987,-0.25327516,0.14726466,0.13546371,-0.97977674,0
-2.9796948,-4.4812102,-0.24404621,-0.79413879,-0.57431269,-0.19876695,0
3.6413317,1.6020112,-0.21605611,0.14726466,0.13546371,-0.97977674,0
-3.455652,-3.5125473,-1.4694252,-0.79413879,-0.57431269,-0.19876695,0
3.3244305,3.6910741,1.2598717,0.79413879,0.57431269,0.19876695,0
-1.9144166,-5.6328673,-1.5990195,-0.79413879,-0.57431269,-0.19876695,0
6.1160932,0.13458681,0.68262672,0.79413879,0.57431269,0.19876695,0
-3.2680547,-3.5471725,-1.4474294,-0.79413879,-0.57431269,-0.19876695,0
-2.090735,-5.2788568,-1.4421952,-0.79413879,-0.57431269,-0.19876695,0
-1.5787168,-2.1371973,0.51861537,-0.14726466,-0.13546371,0.97977674,0
1.8391454,-2.9667506,-0.45834595,0.58962393,-0.80735016,-0.023001075,0
-0.89240575,-5.0544424,-1.5580252,0.58962393,-0.80735016,-0.023001075,0
-5.5281363,0.23782384,-1.1789589,-0.58962393,0.80735016,0.023001075,0
-5.2339015,0.47837424,-0.58838558,-0.58962393,0.80735016,0.023001075,0
-4.1032019,-2.3943741,-1.3918011,-0.79413879,-0.57431269,-0.19876695,0
0.10444307,-4.3481631,-0.30214185,0.58962393,-0.80735016,-0.023001075,0
-0.47115946,-4.7331305,0.18223751,0.58962393,-0.80735016,-0.023001075,0
1.0116212,4.9205856,1.634662,-0.58962393,0.80735016,0.023001075,0
-2.6702604,2.2861528,0.86954665,-0.58962393,0.80735016,0.023001075,0
-2.2308846,2.7034225,-0.63992167,-0.58962393,0.80735016,0.023001075,0
-2.4028711,2.5865486,0.88295376,-0.58962393,0.80735016,0.023001075,0
-3.1309433,-4.0743527,-0.83774829,-0.79413879,-0.57431269,-0.19876695,0
-1.4813943,-0.33288479,0.78492284,-0.14726466,-0.13546371,0.97977674,0
2.8880649,4.4710932,0.82099938,0.79413879,0.57431269,0.19876695,0
5.5765929,0.3503803,1.5118542,0.79413879,0.57431269,0.19876695,0
-4.6552706,-0.2442801,0.28675032,-0.14726466,-0.13546371,0.97977674,0
1.3884002,-1.8451557,-1.1642889,0.14726466,0.13546371,-0.97977674,0
3.8679795,2.8175323,1.3874624,0.79413879,0.57431269,0.19876695,0
-1.0410945,-5.1333809,-1.6248834,0.58962393,-0.80735016,-0.023001075,0
-1.7133834,-2.8949785,-1.7184622,0.14726466,0.13546371,-0.97977674,0
1.943028,-1.8437768,-1.0065072,0.14726466,0.13546371,-0.97977674,0
-1.9809151,-2.7189546,0.42982483,-0.14726466,-0.13546371,0.97977674,0
-0.3516984,3.9877715,1.500927,-0.58962393,0.80735016,0.023001075,0
-3.1784809,-4.1024885,-0.63784528,-0.79413879,-0.57431269,-0.19876695,0
4.8790722,1.2837321,1.5206332,0.79413879,0.57431269,0.19876695,0
-0.43643522,-4.7184181,-0.61609852,0.58962393,-0.80735016,-0.023001075,0
5.4813552,-0.37515807,0.68805361,0.58962393,-0.80735016,-0.023001075,0
3.0110419,3.9306006,1.5531216,0.79413879,0.57431269,0.19876695,0
-4.709023,-2.0616782,-0.8687973,-0.79413879,-0.57431269,-0.19876695,0
-2.7217185,-4.5326781,-1.6227009,-0.79413879,-0.57431269,-0.19876695,0
-0.10826921,2.3263319,-0.62257266,0.14726466,0.13546371,-0.97977674,0
2.5538259,-2.4178154,-0.63443184,0.58962393,-0.80735016,-0.023001075,0
-3.3538685,1.8573656,-0.86372948,-0.58962393,0.80735016,0.023001075,0
3.8087337,2.7420852,1.8932416,0.79413879,0.57431269,0.19876695,0
-3.1422338,-3.9582469,-0.93944836,-0.79413879,-0.57431269,-0.19876695,0
2.2748051,-2.7527816,-0.74230492,0.58962393,-0.80735016,-0.023001075,0
2.9346976,-1.7831652,-0.78995371,0.14726466,0.13546371,-0.97977674,0
0.70946884,-2.5187173,-1.2770064,0.14726466,0.13546371,-0.97977674,0
1.7133062,-2.9317553,-1.2407446,0.58962393,-0.80735016,-0.023001075,0
5.3860574,-0.30969715,0.41856289,0.58962393,-0.80735016,-0.023001075,0
-2.5736232,-4.5960732,-1.4663455,-0.79413879,-0.57431269,-0.19876695,0
4.2255363,2.3843861,1.2240767,0.79413879,0.57431269,0.19876695,0
0.33971161,-0.23759222,-1.0907049,0.14726466,0.13546371,-0.97977674,0
1.3187881,5.2188253,-0.10660982,-0.58962393,0.80735016,0.023001075,0
-0.47335258,-1.4048315,-1.3295645,0.14726466,0.13546371,-0.97977674,0
0.1995492,-4.2839098,0.22771859,0.58962393,-0.80735016,-0.023001075,0
5.8442736,-0.12130165,1.3440976,0.58962393,-0.80735016,-0.023001075,0
-3.3001661,-3.7590783,-0.99414134,-0.79413879,-0.57431269,-0.19876695,0
-5.460587,-0.84913492,-0.70760822,-0.79413879,-0.57431269,-0.19876695,0
2.7420049,4.8029976,0.15137529,0.79413879,0.57431269,0.19876695,0
4.4888425,2.269608,0.50111437,0.79413879,0.57431269,0.19876695,0
-2.8908865,-3.8970337,-1.8811564,-0.79413879,-0.57431269,-0.19876695,0
-3.5452929,1.6463444,-0.24582577,-0.58962393,0.80735016,0.023001075,0
-3.5620151,1.680829,0.4861865,-0.58962393,0.80735016,0.023001075,0
5.5628409,0.96492219,0.36500931,0.79413879,0.57431269,0.19876695,0
-1.0479517,-5.0214543,-1.4588367,0.58962393,-0.80735016,-0.023001075,0
3.0816388,2.2289987,1.8791006,-0.14726466,-0.13546371,0.97977674,0
4.3707409,2.700587,0.2912178,0.79413879,0.57431269,0.19876695,0
5.2032976,1.0724179,1.6214752,0.79413879,0.57431269,0.19876695,0
-4.0129557,-2.2942894,-1.9154186,0.14726466,0.13546371,-0.97977674,0
5.3829384,-0.41182137,-0.19833755,0.58962393,-0.80735016,-0.023001075,0
-4.7044411,-1.9126238,-0.88009691,-0.79413879,-0.57431269,-0.19876695,0
-4.8319101,-2.0208688,-0.088315487,-0.79413879,-0.57431269,-0.19876695,0
-4.922585,-1.7814047,-0.67142773,-0.79413879,-0.57431269,-0.19876695,0
5.0456524,1.1715937,1.4701176,0.79413879,0.57431269,0.19876695,0
1.0573554,-3.4357622,-0.91198939,0.58962393,-0.80735016,-0.023001075,0
0.63887036,2.1590867,1.4501243,-0.14726466,-0.13546371,0.97977674,0
-5.627779,0.33838689,-1.3599553,-0.58962393,0.80735016,0.023001075,0
3.7610404,-1.5183599,0.58584881,0.58962393,-0.80735016,-0.023001075,0
-3.8425183,-3.1936884,-0.50449991,-0.79413879,-0.57431269,-0.19876695,0
4.0618343,-1.399349,1.0205033,0.58962393,-0.80735016,-0.023001075,0
-4.1943159,-2.176892,-1.8293281,-0.79413879,-0.57431269,-0.19876695,0
2.1658266,5.4841914,0.21648455,0.79413879,0.57431269,0.19876695,0
-0.33823776,3.769521,1.5564109,-0.14726466,-0.13546371,0.97977674,0
0.14719248,-4.1934404,0.1602627,0.58962393,-0.80735016,-0.023001075,0
0.51240444,4.7992382,1.1180447,-0.58962393,0.80735016,0.023001075,0
-5.1636133,0.56675291,-0.090486526,-0.58962393,0.80735016,0.023001075,0
-5.0320859,0.63003504,-0.44428158,-0.58962393,0.80735016,0.023001075,0
0.82764482,4.8470297,-0.18985832,-0.58962393,0.80735016,0.023001075,0
0.31564808,-0.87805009,0.85267353,-0.14726466,-0.13546371,0.97977674,0
3.2681727,0.22478932,1.4934618,-0.14726466,-0.13546371,0.97977674,0
1.3682457,2.3485632,1.480185,-0.14726466,-0.13546371,0.97977674,0
4.3683801,2.4528718,0.82412577,0.79413879,0.57431269,0.19876695,0
5.2802229,0.83363652,1.3295355,0.79413879,0.57431269,0.19876695,0
-2.7554824,-4.5387387,-0.92763996,-0.79413879,-0.57431269,-0.19876695,0
0.70602274,4.8990116,1.2614595,-0.58962393,0.80735016,0.023001075,0
0.23157549,4.5201502,0.54848242,-0.58962393,0.80735016,0.023001075,0
-3.1455686,2.1313176,-0.85241294,-0.58962393,0.80735016,0.023001075,0
0.33728218,-4.1290736,-1.0396663,0.58962393,-0.80735016,-0.023001075,0
-3.7381983,-3.44561,-0.63517046,-0.79413879,-0.57431269,-0.19876695,0
3.4081423,1.2752807,-0.39324999,0.14726466,0.13546371,-0.97977674,0
-0.76457763,-4.8849382,-1.6511576,0.58962393,-0.80735016,-0.023001075,0
-1.384809,3.3741066,-0.53559572,-0.58962393,0.80735016,0.023001075,0
4.895319,2.0858455,0.071859837,0.79413879,0.57431269,0.19876695,0
-5.7849255,-0.27155972,-1.0227876,-0.79413879,-0.57431269,-0.19876695,0
4.1181641,2.8461735,0.27103281,0.79413879,0.57431269,0.19876695,0
0.8802042,-3.8025618,-0.34152207,0.58962393,-0.80735016,-0.023001075,0
5.686975,0.91949844,0.25076866,0.79413879,0.57431269,0.19876695,0
-1.6888807,-1.0156858,0.63634372,-0.14726466,-0.13546371,0.97977674,0
-2.3408525,-5.2333517,-0.42512774,-0.79413879,-0.57431269,-0.19876695,0
-4.9938626,-1.4407854,-1.3701653,-0.79413879,-0.57431269,-0.19876695,0
2.3189442,4.9963088,1.4542284,0.79413879,0.57431269,0.19876695,0
-1.1394601,3.5931044,-0.16621506,-0.58962393,0.80735016,0.023001075,0
5.3222666,-0.53533792,-0.17443848,0.58962393,-0.80735016,-0.023001075,0
3.3617983,3.7893796,1.1823039,0.79413879,0.57431269,0.19876695,0
3.2860646,-1.8794115,0.92873335,0.58962393,-0.80735016,-0.023001075,0
1.7609766,-1.4282513,-0.87849975,0.14726466,0.13546371,-0.97977674,0
-0.2807889,4.179822,0.71838558,-0.58962393,0.80735016,0.023001075,0
6.1240635,0.013107061,0.39966154,0.58962393,-0.80735016,-0.023001075,0
-3.448802,-3.6047029,-1.1273754,-0.79413879,-0.57431269,-0.19876695,0
-4.203207,-0.41064405,0.36017609,-0.14726466,-0.13546371,0.97977674,0
-0.74477959,-4.790307,-0.52372551,0.58962393,-0.80735016,-0.023001075,0
-4.0324674,-3.0004539,-0.8099494,-0.79413879,-0.57431269,-0.19876695,0
-3.5857272,-3.2079165,-1.3520119,-0.79413879,-0.57431269,-0.19876695,0
-5.2308226,-0.05822134,0.32132435,-0.14726466,-0.13546371,0.97977674,0
-4.8117433,-0.075897217,0.28437376,-0.14726466,-0.13546371,0.97977674,0
1.1369433,-3.4276872,0.20390446,0.58962393,-0.80735016,-0.023001075,0
-5.0404191,-1.2269168,-1.5302267,-0.79413879,-0.57431269,-0.19876695,0
-4.8080978,-2.0313644,-0.2587018,-0.79413879,-0.57431269,-0.19876695,0
-3.1639795,-3.9072757,-1.4994824,-0.79413879,-0.57431269,-0.19876695,0
-1.9893856,-5.3086953,-1.761055,-0.79413879,-0.57431269,-0.19876695,0
-3.1276779,2.0010512,-0.41642141,-0.58962393,0.80735016,0.023001075,0
2.8150291,-1.3897138,1.2742916,-0.14726466,-0.13546371,0.97977674,0
-2.4483681,-4.5887489,-1.9775152,-0.79413879,-0.57431269,-0.19876695,0
2.8080726,3.1565933,1.8444102,-0.14726466,-0.13546371,0.97977674,0
-3.2573102,-3.9343927,-1.010407,-0.79413879,-0.57431269,-0.19876695,0
3.6448095,-1.7152822,-0.12310052,0.58962393,-0.80735016,-0.023001075,0
4.1287422,3.0045924,0.13780403,0.79413879,0.57431269,0.19876695,0
0.72946739,4.8263988,0.19127131,-0.58962393,0.80735016,0.023001075,0
-3.5052819,-3.4045801,-0.94589901,-0.79413879,-0.57431269,-0.19876695,0
3.4604247,3.8529255,0.31087494,0.79413879,0.57431269,0.19876695,0
1.0302544,4.8444152,1.8012145,-0.14726466,-0.13546371,0.97977674,0
3.4841738,2.5721111,-0.16723228,0.14726466,0.13546371,-0.97977674,0
1.1332591,2.1385691,1.3877082,-0.14726466,-0.13546371,0.97977674,0
4.1910901,-1.1508074,-0.46039581,0.14726466,0.13546371,-0.97977674,0
3.0292261,0.75238419,1.526288,-0.14726466,-0.13546371,0.97977674,0
4.2206545,2.2124805,1.458478,0.79413879,0.57431269,0.19876695,0
-1.4560575,3.3281784,-0.6079644,-0.58962393,0.80735016,0.023001075,0
-1.3601875,3.4506035,0.039783359,-0.58962393,0.80735016,0.023001075,0
-1.2553272,3.2841702,1.1041733,-0.58962393,0.80735016,0.023001075,0
4.89709,1.2515974,1.5840359,0.79413879,0.57431269,0.19876695,0
-3.7646947,-3.0916533,-0.89311838,-0.79413879,-0.57431269,-0.19876695,0
0.6475482,4.7301102,0.67382157,-0.58962393,0.80735016,0.023001075,0
-2.602351,-3.0326128,-1.8720841,0.14726466,0.13546371,-0.97977674,0
3.2162392,-1.8785467,0.51062822,0.58962393,-0.80735016,-0.023001075,0
-1.5774255,2.7522929,1.0650694,-0.14726466,-0.13546371,0.97977674,0
-5.6461697,0.10248423,-0.045464516,-0.58962393,0.80735016,0.023001075,0
-0.33613026,-2.4380007,-1.4081801,0.14726466,0.13546371,-0.97977674,0
0.33198166,4.5371399,1.0610995,-0.58962393,0.80735016,0.023001075,0
0.48493791,3.5325775,-0.38831329,0.14726466,0.13546371,-0.97977674,0
-3.5355713,-3.4476478,-1.1570599,-0.79413879,-0.57431269,-0.19876695,0
4.7671828,2.0344217,0.55696344,0.79413879,0.57431269,0.19876695,0
5.2020979,1.4741347,0.17445517,0.79413879,0.57431269,0.19876695,0
-0.93519175,-2.422184,-1.4460194,0.14726466,0.13546371,-0.97977674,0
-1.4973381,2.9658065,1.2778479,-0.14726466,-0.13546371,0.97977674,0
5.7869744,0.19367421,1.5984268,0.79413879,0.57431269,0.19876695,0
-2.5102336,-5.2312307,-0.15838575,-0.79413879,-0.57431269,-0.19876695,0
2.7451527,-2.4519773,0.42133784,0.58962393,-0.80735016,-0.023001075,0
3.3818023,-0.3840456,1.5664549,-0.14726466,-0.13546371,0.97977674,0
-1.2998807,1.9220241,-0.95730925,0.14726466,0.13546371,-0.97977674,0
1.0915504,-3.5539813,-0.15619637,0.58962393,-0.80735016,-0.023001075,0
-5.3352833,-0.73104513,-1.4373503,-0.79413879,-0.57431269,-0.19876695,0
1.9346333,-2.4278774,-1.1475849,0.14726466,0.13546371,-0.97977674,0
4.9013066,-0.85865366,1.0812044,0.58962393,-0.80735016,-0.023001075,0
-0.91330576,3.6079857,-0.30275226,-0.58962393,0.80735016,0.023001075,0
-5.960146,-0.18657422,-0.66764164,-0.79413879,-0.57431269,-0.19876695,0
0.56049711,-0.25099528,-0.98640025,0.14726466,0.13546371,-0.97977674,0
-1.3853548,3.3429105,0.8708964,-0.58962393,0.80735016,0.023001075,0
-2.7082055,2.3125467,-0.82546651,-0.58962393,0.80735016,0.023001075,0
-4.4061651,1.1959425,-1.3679652,-0.58962393,0.80735016,0.023001075,0
2.1724544,-2.796108,0.78677487,0.58962393,-0.80735016,-0.023001075,0
-3.3696761,1.4737501,0.68906593,-0.14726466,-0.13546371,0.97977674,0
-0.16207144,0.33388621,0.98707187,-0.14726466,-0.13546371,0.97977674,0
-1.3139688,-0.064020872,0.88003123,-0.14726466,-0.13546371,0.97977674,0
4.6856456,-0.82856929,1.2966712,0.58962393,-0.80735016,-0.023001075,0
-2.6386147,-4.0448008,0.098931789,-0.14726466,-0.13546371,0.97977674,0
3.0266068,3.8514943,1.6331501,0.79413879,0.57431269,0.19876695,0
4.6343837,1.9845936,1.3871975,0.79413879,0.57431269,0.19876695,0
0.81626809,-0.19095552,1.0593951,-0.14726466,-0.13546371,0.97977674,0
-3.9364138,1.5889698,-1.4557359,-0.58962393,0.80735016,0.023001075,0
-1.6936214,-5.6515498,-0.90280128,0.58962393,-0.80735016,-0.023001075,0
-1.1244736,0.016761392,-1.1104543,0.14726466,0.13546371,-0.97977674,0
-5.9504066,-0.64258814,-0.022328854,-0.79413879,-0.57431269,-0.19876695,0
4.780982,1.8566152,0.83382368,0.79413879,0.57431269,0.19876695,0
3.7155397,3.1754112,1.3072312,0.79413879,0.57431269,0.19876695,0
-1.681334,-1.8280706,-1.5272053,0.14726466,0.13546371,-0.97977674,0
-2.6958833,2.4461255,-0.20347118,-0.58962393,0.80735016,0.023001075,0
-0.0098690987,-4.3335438,-1.1749604,0.58962393,-0.80735016,-0.023001075,0
-5.8377485,0.16580677,-0.41839314,-0.58962393,0.80735016,0.023001075,0
2.9671483,4.4881058,0.35912657,0.79413879,0.57431269,0.19876695,0
3.6924658,2.0167685,1.786335,-0.14726466,-0.13546371,0.97977674,0
3.5045936,3.1367772,1.7464056,0.79413879,0.57431269,0.19876695,0
-5.2497683,-1.0675091,-1.14923,-0.79413879,-0.57431269,-0.19876695,0
-4.4911542,1.0834719,-0.30734301,-0.58962393,0.80735016,0.023001075,0
-1.5364981,-5.501832,-0.22588992,0.58962393,-0.80735016,-0.023001075,0
-4.3974419,1.1802537,0.32941628,-0.58962393,0.80735016,0.023001075,0
2.8003373,4.315155,-0.090120792,0.14726466,0.13546371,-0.97977674,0
-3.6712203,-1.1026011,0.31727242,-0.14726466,-0.13546371,0.97977674,0
-2.2392275,-5.5974278,-0.11906147,-0.79413879,-0.57431269,-0.19876695,0
0.65527058,-3.8182971,0.078419313,0.58962393,-0.80735016,-0.023001075,0
-0.051162243,-4.3358665,0.25524467,0.58962393,-0.80735016,-0.023001075,0
-5.6989388,-0.99244046,-0.017878532,-0.79413879,-0.57431269,-0.19876695,0
4.8989296,1.3445719,1.3809958,0.79413879,0.57431269,0.19876695,0
-2.0988498,-5.1290627,-1.5885215,-0.79413879,-0.57431269,-0.19876695,0
-2.0192235,-5.5789719,-0.73254538,-0.79413879,-0.57431269,-0.19876695,0
2.7483525,-1.1971382,-0.70945501,0.14726466,0.13546371,-0.97977674,0
-4.2405539,0.17297125,0.49387836,-0.14726466,-0.13546371,0.97977674,0
-0.017739534,-1.7490655,0.84963155,-0.14726466,-0.13546371,0.97977674,0
-4.9919491,-1.3201246,-1.0646625,-0.79413879,-0.57431269,-0.19876695,0
1.9998391,5.3407211,1.7680819,0.79413879,0.57431269,0.19876695,0
1.0871263,1.6147404,-0.55616498,0.14726466,0.13546371,-0.97977674,0
-3.2791531,-3.8095257,-1.2607541,-0.79413879,-0.57431269,-0.19876695,0
3.0157871,-2.123143,-0.7981565,0.58962393,-0.80735016,-0.023001075,0
-4.1031284,1.2874013,-0.64249682,-0.58962393,0.80735016,0.023001075,0
5.1677251,1.0067677,1.4816194,0.79413879,0.57431269,0.19876695,0
2.527539,4.9889107,-0.0061364174,0.14726466,0.13546371,-0.97977674,0
-4.0019722,0.66832328,-1.478101,0.14726466,0.13546371,-0.97977674,0
2.4229028,4.2983675,-0.11760807,0.14726466,0.13546371,-0.97977674,0
1.5605836,-2.920213,-1.2415686,0.14726466,0.13546371,-0.97977674,0
-3.0521259,-4.0397787,-1.1795666,-0.79413879,-0.57431269,-0.19876695,0
-0.80003047,0.51449811,1.0184294,-0.14726466,-0.13546371,0.97977674,0
1.4632287,-0.56873494,1.1120803,-0.14726466,-0.13546371,0.97977674,0
-4.9012747,0.76006126,-0.69423389,-0.58962393,0.80735016,0.023001075,0
-4.4442191,-2.0824292,-1.2360268,-0.79413879,-0.57431269,-0.19876695,0
3.5998621,2.9445031,1.897959,0.79413879,0.57431269,0.19876695,0
0.034223557,4.4146633,0.36289561,-0.58962393,0.80735016,0.023001075,0
2.9111123,0.5666768,1.6289222,-0.14726466,-0.13546371,0.97977674,0
2.4970663,-2.4899714,-0.0032557249,0.58962393,-0.80735016,-0.023001075,0
4.4683619,2.2530181,0.92151022,0.79413879,0.57431269,0.19876695,0
-4.0778332,-2.3444803,-1.6752274,-0.79413879,-0.57431269,-0.19876695,0
3.9310663,2.9968569,0.44055653,0.79413879,0.57431269,0.19876695,0
-2.1902897,2.6295018,0.59327376,-0.58962393,0.80735016,0.023001075,0
1.0853949,5.1759152,0.47486758,-0.58962393,0.80735016,0.023001075,0
-3.7761421,-0.10672647,-1.6706548,0.14726466,0.13546371,-0.97977674,0
5.3927794,1.1794872,-0.02351141,0.79413879,0.57431269,0.19876695,0
5.1563168,0.9396044,1.3870935,0.79413879,0.57431269,0.19876695,0
3.0066323,1.115401,-0.41278052,0.14726466,0.13546371,-0.97977674,0
-4.8526907,-1.8405418,-0.21161985,-0.79413879,-0.57431269,-0.19876695,0
-1.571949,3.3210671,-0.70913529,-0.58962393,0.80735016,0.023001075,0
2.2286165,5.141613,1.8973796,0.79413879,0.57431269,0.19876695,0
-4.6118546,0.99091482,-0.28049231,-0.58962393,0.80735016,0.023001075,0
-1.0420108,2.4829793,1.2233726,-0.14726466,-0.13546371,0.97977674,0
0.24099779,4.5783863,1.1668019,-0.58962393,0.80735016,0.023001075,0
-3.2814717,1.8656278,-0.14227366,-0.58962393,0.80735016,0.023001075,0
-2.3427787,2.3668566,-1.0530638,0.14726466,0.13546371,-0.97977674,0
3.7140195,0.56572652,1.7200532,-0.14726466,-0.13546371,0.97977674,0
-3.5958266,-3.1857007,-1.0874183,-0.79413879,-0.57431269,-0.19876695,0
0.041815519,3.1052856,1.5091656,-0.14726466,-0.13546371,0.97977674,0
-3.3942466,-3.3299601,-1.9636238,-0.79413879,-0.57431269,-0.19876695,0
-2.2203434,2.6585617,-0.021729112,-0.58962393,0.80735016,0.023001075,0
-0.58021784,-4.083015,-1.762887,0.14726466,0.13546371,-0.97977674,0
-2.7437656,2.3078785,-0.67081952,-0.58962393,0.80735016,0.023001075,0
2.316221,5.5181355,0.30929208,0.79413879,0.57431269,0.19876695,0
-4.0438442,1.3825428,-0.040972948,-0.58962393,0.80735016,0.023001075,0
-5.1175671,-1.1209928,-1.3493876,-0.79413879,-0.57431269,-0.19876695,0
-0.52348614,3.9510813,0.75130105,-0.58962393,0.80735016,0.023001075,0
-5.7167749,-0.72384,0.0026798248,-0.14726466,-0.13546371,0.97977674,0
-1.6515832,-5.5650115,-0.93359613,0.58962393,-0.80735016,-0.023001075,0
-3.3216267,1.9158251,-1.1166387,-0.58962393,0.80735016,0.023001075,0
-1.3146751,-5.2522712,-0.88157582,0.58962393,-0.80735016,-0.023001075,0
4.1268539,2.5952935,1.3893459,0.79413879,0.57431269,0.19876695,0
0.35467729,1.014904,1.2256693,-0.14726466,-0.13546371,0.97977674,0
-2.3571208,0.59394383,0.65849221,-0.14726466,-0.13546371,0.97977674,0
1.8206749,5.717504,0.48610353,-0.58962393,0.80735016,0.023001075,0
-4.6815023,-0.54828525,0.22373581,-0.14726466,-0.13546371,0.97977674,0
0.23382804,0.94674599,1.18539,-0.14726466,-0.13546371,0.97977674,0
-0.92136431,-3.9023948,0.40072775,-0.14726466,-0.13546371,0.97977674,0
0.31590334,0.33641589,-0.97602081,0.14726466,0.13546371,-0.97977674,0
3.0587628,3.8921716,1.5809004,0.79413879,0.57431269,0.19876695,0
-4.1031971,1.2467437,-0.37052083,-0.58962393,0.80735016,0.023001075,0
-0.01755476,-4.2784266,0.42729783,0.58962393,-0.80735016,-0.023001075,0
2.8239961,4.2648115,1.7181015,0.79413879,0.57431269,0.19876695,0
-4.6565781,1.0681007,-0.87977481,-0.58962393,0.80735016,0.023001075,0
-2.9895933,-3.9496667,-1.6995044,-0.79413879,-0.57431269,-0.19876695,0
-1.0416865,-4.977252,-0.35113668,0.58962393,-0.80735016,-0.023001075,0
-0.13696194,4.3290834,-0.29755932,-0.58962393,0.80735016,0.023001075,0
0.43740869,-1.3347833,0.99718738,-0.14726466,-0.13546371,0.97977674,0
3.8992944,1.7898781,-0.22362614,0.14726466,0.13546371,-0.97977674,0
2.7019122,5.0332232,0.092155933,0.79413879,0.57431269,0.19876695,0
-1.4933093,2.0442417,-0.90237033,0.14726466,0.13546371,-0.97977674,0
-1.1002401,-1.9308605,0.53277636,-0.14726466,-0.13546371,0.97977674,0
-5.2795181,-1.0756943,-0.99035549,-0.79413879,-0.57431269,-0.19876695,0
3.9954488,2.4758112,1.7032151,0.79413879,0.57431269,0.19876695,0
-1.9024241,-5.6728034,-1.0475206,0.58962393,-0.80735016,-0.023001075,0
-6.0052953,0.038194656,-0.10120296,-0.58962393,0.80735016,0.023001075,0
-3.8417978,0.46041858,-1.4363561,0.14726466,0.13546371,-0.97977674,0
-3.3790252,0.09882617,0.44715905,-0.14726466,-0.13546371,0.97977674,0
2.025449,5.7941375,0.17619801,-0.58962393,0.80735016,0.023001075,0
4.5924268,2.2002506,0.63586903,0.79413879,0.57431269,0.19876695,0
2.6274765,-2.3331027,-0.37241125,0.58962393,-0.80735016,-0.023001075,0
1.5412581,5.5170188,0.62281299,-0.58962393,0.80735016,0.023001075,0
2.5571165,0.7988745,-0.52479029,0.14726466,0.13546371,-0.97977674,0
-2.3306005,-5.3022375,-0.34858012,-0.79413879,-0.57431269,-0.19876695,0
-1.9056927,-4.5586495,-1.8850777,0.14726466,0.13546371,-0.97977674,0
0.56561518,-3.9586418,-0.43287429,0.58962393,-0.80735016,-0.023001075,0
4.0651498,-1.4499791,1.3329935,0.58962393,-0.80735016,-0.023001075,0
1.2825308,4.9484529,-0.16105342,0.14726466,0.13546371,-0.97977674,0
-3.7606406,-3.3045688,-1.0606265,-0.79413879,-0.57431269,-0.19876695,0
-2.5214953,-4.4725885,-1.7332628,-0.79413879,-0.57431269,-0.19876695,0
1.5908928,-3.1469526,0.700212,0.58962393,-0.80735016,-0.023001075,0
1.1568485,2.1558833,-0.45619702,0.14726466,0.13546371,-0.97977674,0
-2.812263,2.259511,-0.80736029,-0.58962393,0.80735016,0.023001075,0
-4.23072,0.9562695,0.54708004,-0.14726466,-0.13546371,0.97977674,0
-6.1527109,-0.24987078,-0.26551008,-0.79413879,-0.57431269,-0.19876695,0
-4.818634,-1.2642567,0.10929823,-0.14726466,-0.13546371,0.97977674,0
1.6004853,5.4080901,1.1952264,-0.58962393,0.80735016,0.023001075,0
-1.23915,-5.3455935,-0.03570652,0.58962393,-0.80735016,-0.023001075,0
2.1577773,5.6797714,0.51174736,0.79413879,0.57431269,0.19876695,0
-3.7521262,-3.52739,-0.22011042,-0.79413879,-0.57431269,-0.19876695,0
-2.232831,-4.9609332,-1.9542298,-0.79413879,-0.57431269,-0.19876695,0
-5.5842347,0.16430473,-0.97171688,-0.58962393,0.80735016,0.023001075,0
0.82087612,-0.89922225,1.0022196,-0.14726466,-0.13546371,0.97977674,0
0.38860703,4.6173224,0.23141539,-0.58962393,0.80735016,0.023001075,0
0.67205954,-2.6947308,-1.2429152,0.14726466,0.13546371,-0.97977674,0
-1.7170326,-1.8082361,0.44758224,-0.14726466,-0.13546371,0.97977674,0
1.6209452,-1.1324894,-0.98310894,0.14726466,0.13546371,-0.97977674,0
1.7235892,-1.6496093,0.9899596,-0.14726466,-0.13546371,0.97977674,0
4.1095438,2.8593419,0.60630655,0.79413879,0.57431269,0.19876695,0
4.2468071,-1.34524,0.29764128,0.58962393,-0.80735016,-0.023001075,0
-3.0477929,-4.5771546,-0.13016891,-0.79413879,-0.57431269,-0.19876695,0
-1.9400358,0.82272696,-1.1375868,0.14726466,0.13546371,-0.97977674,0
0.23948574,4.616538,0.48472023,-0.58962393,0.80735016,0.023001075,0
4.1273375,2.6834626,0.89114046,0.79413879,0.57431269,0.19876695,0
2.1719983,5.0667033,1.9127028,0.79413879,0.57431269,0.19876695,0
3.3576093,0.090476185,1.5946956,-0.14726466,-0.13546371,0.97977674,0
-3.7987177,-3.1301031,-1.3015678,-0.79413879,-0.57431269,-0.19876695,0
-1.7578111,3.1885653,-0.69927311,-0.58962393,0.80735016,0.023001075,0
2.6256762,-2.4026909,-0.90838516,0.58962393,-0.80735016,-0.023001075,0
2.7597115,-1.5240407,1.262871,-0.14726466,-0.13546371,0.97977674,0
2.0674448,3.9882827,-0.088044882,0.14726466,0.13546371,-0.97977674,0
6.1512079,0.23669147,0.19536257,0.79413879,0.57431269,0.19876695,0
2.764163,4.0693817,1.8566926,0.79413879,0.57431269,0.19876695,0
3.3388891,3.9968836,0.073381424,0.79413879,0.57431269,0.19876695,0
5.6464815,0.48231626,0.78094292,0.79413879,0.57431269,0.19876695,0
4.7839341,1.578948,1.7017245,0.79413879,0.57431269,0.19876695,0
-3.0235796,-4.3865213,-0.59481883,-0.79413879,-0.57431269,-0.19876695,0
-1.6042974,-5.4023795,-0.79324222,0.58962393,-0.80735016,-0.023001075,0
0.63865042,-1.6493917,-1.1235368,0.14726466,0.13546371,-0.97977674,0
-5.2331271,-1.2341232,-0.64202929,-0.79413879,-0.57431269,-0.19876695,0
-2.2234361,-5.5388627,-0.4540565,-0.79413879,-0.57431269,-0.19876695,0
-3.3821158,-3.5813766,-0.85434198,-0.79413879,-0.57431269,-0.19876695,0
2.5281031,-2.5178308,-0.16900623,0.58962393,-0.80735016,-0.023001075,0
-0.3904295,-4.5685883,-1.4218869,0.58962393,-0.80735016,-0.023001075,0
5.1507812,1.0662031,1.2003965,0.79413879,0.57431269,0.19876695,0
