-0.72413707,2.1585116,-1.7188359,0.16394821,-0.21211123,-0.96339494,0
-3.3656898,-1.8144622,0.77708316,-0.16394821,0.21211123,0.96339494,0
-4.2149267,-2.5421557,-0.68398809,-0.90429366,-0.42255086,-0.060857296,0
-4.8462381,-1.5142518,-0.76207685,-0.90429366,-0.42255086,-0.060857296,0
3.695307,3.6550498,0.52943516,0.90429366,0.42255086,0.060857296,0
3.4206197,1.1784072,1.4165311,-0.16394821,0.21211123,0.96339494,0
3.5770428,4.2389684,-0.42212367,0.90429366,0.42255086,0.060857296,0
5.0870819,0.6338073,1.7147431,0.90429366,0.42255086,0.060857296,0
2.1960592,5.949595,-2.0559042,0.16394821,-0.21211123,-0.96339494,0
2.6631758,-1.5229819,1.8885864,-0.16394821,0.21211123,0.96339494,0
-1.8752992,-0.53728265,-1.169486,0.16394821,-0.21211123,-0.96339494,0
5.2347679,0.46648431,1.5278673,0.90429366,0.42255086,0.060857296,0
-6.3239002,1.8127906,-0.627563,-0.90429366,-0.42255086,-0.060857296,0
-1.6096025,4.5602455,-1.5098636,-0.39417481,0.88116944,-0.26108727,0
1.9069395,4.2265997,0.41389191,-0.16394821,0.21211123,0.96339494,0
-1.143064,-4.7290154,-0.14872324,0.16394821,-0.21211123,-0.96339494,0
-3.496563,-4.494113,-0.030944109,-0.90429366,-0.42255086,-0.060857296,0
4.0260448,3.2851043,-0.92693567,0.90429366,0.42255086,0.060857296,0
4.6181583,-3.0190258,2.2581806,0.39417481,-0.88116944,0.26108727,0
1.6462345,-0.88189137,-0.50077438,0.16394821,-0.21211123,-0.96339494,0
-2.817565,-5.6451526,0.10672331,-0.90429366,-0.42255086,-0.060857296,0
-3.1503952,-2.4789243,-0.93733191,0.16394821,-0.21211123,-0.96339494,0
6.0982122,-2.0814359,0.38355017,0.16394821,-0.21211123,-0.96339494,0
5.8951321,-2.4404185,2.1535459,0.39417481,-0.88116944,0.26108727,0
3.2436128,3.3439646,-1.2564347,0.16394821,-0.21211123,-0.96339494,0
-5.140008,-0.79078698,-0.080830574,-0.90429366,-0.42255086,-0.060857296,0
6.3686066,-2.1675048,1.8890343,0.39417481,-0.88116944,0.26108727,0
4.0519495,2.7932882,1.1583097,-0.16394821,0.21211123,0.96339494,0
4.8270707,-0.84502029,-0.018184662,0.16394821,-0.21211123,-0.96339494,0
-0.67433572,1.6477203,-1.5210176,0.16394821,-0.21211123,-0.96339494,0
1.6715012,-4.7442183,0.79663181,0.39417481,-0.88116944,0.26108727,0
-0.30219603,-5.6310568,0.36080283,0.39417481,-0.88116944,0.26108727,0
-0.91671753,-2.9798672,1.5270596,-0.16394821,0.21211123,0.96339494,0
-3.11006,1.3627335,0.30286455,-0.16394821,0.21211123,0.96339494,0
3.539804,4.0588436,-0.22540569,0.90429366,0.42255086,0.060857296,0
-5.8480067,0.93692756,-1.7307949,-0.90429366,-0.42255086,-0.060857296,0
2.4293981,-3.9884021,2.2863512,0.39417481,-0.88116944,0.26108727,0
4.466795,-3.3106256,1.4535208,0.39417481,-0.88116944,0.26108727,0
2.322206,6.2226138,-1.666635,-0.39417481,0.88116944,-0.26108727,0
4.4730453,1.9686536,0.62827826,0.90429366,0.42255086,0.060857296,0
3.9891195,1.3735045,1.4724166,-0.16394821,0.21211123,0.96339494,0
-5.1006522,-0.54144061,-1.6842237,-0.90429366,-0.42255086,-0.060857296,0
-3.9770596,3.6634004,-0.84482479,-0.39417481,0.88116944,-0.26108727,0
-0.4160018,5.0377126,-1.7206651,-0.39417481,0.88116944,-0.26108727,0
-2.6676464,-5.479661,1.8861349,-0.16394821,0.21211123,0.96339494,0
-5.943512,1.2451673,-0.34416533,-0.16394821,0.21211123,0.96339494,0
-0.85763812,1.7076507,-1.460658,0.16394821,-0.21211123,-0.96339494,0
-4.5741692,0.55596817,-1.9673004,0.16394821,-0.21211123,-0.96339494,0
0.12058258,-5.4004688,0.61338001,0.39417481,-0.88116944,0.26108727,0
4.179491,2.7740471,-0.63625479,0.90429366,0.42255086,0.060857296,0
4.8227911,-0.11185145,-0.1677866,0.16394821,-0.21211123,-0.96339494,0
-0.11354446,4.9017906,-2.1503611,-0.39417481,0.88116944,-0.26108727,0
-0.95403451,0.67506671,0.63289756,-0.16394821,0.21211123,0.96339494,0
2.479866,6.3359985,-1.859329,-0.39417481,0.88116944,-0.26108727,0
-1.5452757,3.6918554,-2.1718314,0.16394821,-0.21211123,-0.96339494,0
-2.8881969,-5.9242148,1.3430343,-0.90429366,-0.42255086,-0.060857296,0
-1.842001,0.081353903,0.74473989,-0.16394821,0.21211123,0.96339494,0
0.36422396,-5.2753191,0.56087458,0.39417481,-0.88116944,0.26108727,0
-0.60077357,-1.0885172,1.1445662,-0.16394821,0.21211123,0.96339494,0
5.2419333,0.53758073,-0.10591745,0.90429366,0.42255086,0.060857296,0
-1.303398,-0.21505243,-1.1827531,0.16394821,-0.21211123,-0.96339494,0
1.0669475,5.9795508,-0.80392969,-0.39417481,0.88116944,-0.26108727,0
3.4400904,4.4330578,0.0039753914,0.90429366,0.42255086,0.060857296,0
4.2739697,-1.805832,0.13873339,0.16394821,-0.21211123,-0.96339494,0
-3.4252179,-4.349256,0.32390928,-0.90429366,-0.42255086,-0.060857296,0
-5.131566,-0.93249106,-0.62791014,-0.90429366,-0.42255086,-0.060857296,0
4.7987795,-3.2478909,0.83273411,0.39417481,-0.88116944,0.26108727,0
3.6251421,2.4071257,1.0996931,-0.16394821,0.21211123,0.96339494,0
0.95371532,1.5508697,0.79825699,-0.16394821,0.21211123,0.96339494,0
3.1624579,-3.5070362,2.3345633,0.39417481,-0.88116944,0.26108727,0
2.7427573,5.9734917,-0.83794188,0.90429366,0.42255086,0.060857296,0
0.60232925,-2.0177319,1.669385,-0.16394821,0.21211123,0.96339494,0
-2.7233698,-6.047771,-0.042632103,-0.90429366,-0.42255086,-0.060857296,0
-3.6041141,-4.4579415,1.3304219,-0.90429366,-0.42255086,-0.060857296,0
-4.6249924,-1.5467315,-1.1976929,-0.90429366,-0.42255086,-0.060857296,0
5.2575207,-2.131294,2.3440857,-0.16394821,0.21211123,0.96339494,0
0.79667735,1.1373105,0.95865715,-0.16394821,0.21211123,0.96339494,0
2.6103821,6.3829126,-0.77915573,0.90429366,0.42255086,0.060857296,0
-6.6003189,2.2500668,-1.0855198,-0.90429366,-0.42255086,-0.060857296,0
-3.5254481,-4.6353202,0.78308702,-0.90429366,-0.42255086,-0.060857296,0
2.6727567,6.2610106,-1.8066788,0.90429366,0.42255086,0.060857296,0
4.570303,-2.9063363,2.322727,0.39417481,-0.88116944,0.26108727,0
-2.3159437,4.3700562,-1.1365416,-0.39417481,0.88116944,-0.26108727,0
-0.15869522,4.9813113,-1.8086506,-0.39417481,0.88116944,-0.26108727,0
0.20204163,-5.3077145,0.65659201,0.39417481,-0.88116944,0.26108727,0
3.0063655,5.4945922,0.21886873,0.90429366,0.42255086,0.060857296,0
1.7237179,1.1251193,-1.0536835,0.16394821,-0.21211123,-0.96339494,0
-4.2272472,-2.8640666,0.49148607,-0.90429366,-0.42255086,-0.060857296,0
0.90541041,1.1950464,0.96402848,-0.16394821,0.21211123,0.96339494,0
-1.2253871,3.7118361,0.059917688,-0.16394821,0.21211123,0.96339494,0
-0.46095502,0.51600146,-1.2299559,0.16394821,-0.21211123,-0.96339494,0
-0.29590273,1.8705416,0.60570836,-0.16394821,0.21211123,0.96339494,0
6.2561588,-1.7178574,0.61159658,0.90429366,0.42255086,0.060857296,0
-5.1412387,-0.83225632,0.21393585,-0.90429366,-0.42255086,-0.060857296,0
1.3891644,-4.8984094,0.89065814,0.39417481,-0.88116944,0.26108727,0
3.7675226,3.6077106,0.32299471,0.90429366,0.42255086,0.060857296,0
3.6378326,2.4370871,-0.92633438,0.16394821,-0.21211123,-0.96339494,0
3.3223472,-3.4900956,2.2884054,0.39417481,-0.88116944,0.26108727,0
-3.8596828,3.6400509,-1.2861705,-0.39417481,0.88116944,-0.26108727,0
-3.5160198,-4.3220487,0.4857018,-0.90429366,-0.42255086,-0.060857296,0
-3.682822,2.9062047,-0.32486296,-0.16394821,0.21211123,0.96339494,0
-1.3090978,-6.0216932,0.48932219,0.39417481,-0.88116944,0.26108727,0
5.3296266,0.32170415,1.2804413,0.90429366,0.42255086,0.060857296,0
3.4985542,4.7193303,-0.98976088,0.90429366,0.42255086,0.060857296,0
-2.5861926,-6.3730888,0.46566868,-0.90429366,-0.42255086,-0.060857296,0
0.81935072,-4.6864715,1.8231963,0.39417481,-0.88116944,0.26108727,0
-4.6641722,-1.8468252,-0.20496273,-0.90429366,-0.42255086,-0.060857296,0
0.35416985,4.9622526,-0.085728511,-0.16394821,0.21211123,0.96339494,0
1.0936422,-4.4968605,2.0569468,0.39417481,-0.88116944,0.26108727,0
-3.6998811,-3.6104791,-0.737993,-0.90429366,-0.42255086,-0.060857296,0
-0.11212063,5.5982065,-0.42013019,-0.39417481,0.88116944,-0.26108727,0
0.73207712,5.5566835,-1.8493651,-0.39417481,0.88116944,-0.26108727,0
-4.7082214,1.9294165,-2.1859193,0.16394821,-0.21211123,-0.96339494,0
-5.7908545,2.545285,-1.5784173,-0.39417481,0.88116944,-0.26108727,0
5.8633213,-0.7413497,0.96473551,0.90429366,0.42255086,0.060857296,0
-5.7723193,0.56746435,-0.82169533,-0.90429366,-0.42255086,-0.060857296,0
1.5545704,-4.1299901,0.039555192,0.16394821,-0.21211123,-0.96339494,0
5.0030727,1.3781583,-0.40489769,0.90429366,0.42255086,0.060857296,0
1.2348785,-4.7985301,0.92378068,0.39417481,-0.88116944,0.26108727,0
1.8733726,6.2788396,-0.57734132,-0.39417481,0.88116944,-0.26108727,0
4.9310818,1.1513259,1.5313559,0.90429366,0.42255086,0.060857296,0
4.0871239,3.1466002,0.60893154,0.90429366,0.42255086,0.060857296,0
-4.319211,3.5590754,-0.65546036,-0.39417481,0.88116944,-0.26108727,0
2.6826982,6.409452,-1.6219113,0.90429366,0.42255086,0.060857296,0
-4.53337,-2.0482907,-0.37403965,-0.90429366,-0.42255086,-0.060857296,0
-5.4801254,-0.20390248,-0.04892683,-0.90429366,-0.42255086,-0.060857296,0
4.7888546,-1.293689,0.083242893,0.16394821,-0.21211123,-0.96339494,0
1.3622866,-3.7567492,0.055814862,0.16394821,-0.21211123,-0.96339494,0
4.1256361,-1.7900553,2.236932,-0.16394821,0.21211123,0.96339494,0
-6.1907978,2.4539545,-1.4131455,-0.39417481,0.88116944,-0.26108727,0
-2.2135603,3.8495171,-0.15775943,-0.16394821,0.21211123,0.96339494,0
5.9162784,-2.4936032,0.46173668,0.16394821,-0.21211123,-0.96339494,0
-0.55926132,5.0104547,-1.7691267,-0.39417481,0.88116944,-0.26108727,0
-0.84085107,0.43028617,0.85733056,-0.16394821,0.21211123,0.96339494,0
-4.5173097,-0.55649924,-1.7797227,0.16394821,-0.21211123,-0.96339494,0
-6.1671343,1.8081759,-2.0764451,-0.90429366,-0.42255086,-0.060857296,0
1.2560849,5.3458986,0.16326463,-0.16394821,0.21211123,0.96339494,0
0.3067441,-5.2687564,1.1066756,0.39417481,-0.88116944,0.26108727,0
-0.4392755,-3.2888021,-0.31397378,0.16394821,-0.21211123,-0.96339494,0
4.4523811,-2.9757261,2.3754108,0.39417481,-0.88116944,0.26108727,0
6.0119395,-1.2630079,1.8860555,0.90429366,0.42255086,0.060857296,0
-0.10769773,0.71850729,-1.18434,0.16394821,-0.21211123,-0.96339494,0
4.4209747,-0.43812168,1.879802,-0.16394821,0.21211123,0.96339494,0
6.4034739,-2.1335502,1.6358933,0.90429366,0.42255086,0.060857296,0
4.5695248,2.0597246,0.30374527,0.90429366,0.42255086,0.060857296,0
3.3859386,4.4275546,0.051493883,0.90429366,0.42255086,0.060857296,0
4.4586005,-3.2354422,1.3711457,0.39417481,-0.88116944,0.26108727,0
3.2553015,-3.8282959,1.6948538,0.39417481,-0.88116944,0.26108727,0
-5.240674,2.8687801,-1.8829703,-0.39417481,0.88116944,-0.26108727,0
-4.8739529,-1.2981555,-0.20474768,-0.90429366,-0.42255086,-0.060857296,0
-0.28894782,-1.8813059,1.4818423,-0.16394821,0.21211123,0.96339494,0
2.0787058,-4.705255,0.46165538,0.39417481,-0.88116944,0.26108727,0
-4.8906646,1.2435172,-0.0028061867,-0.16394821,0.21211123,0.96339494,0
-2.6579072,-5.2287412,-0.42559814,0.16394821,-0.21211123,-0.96339494,0
-4.1396089,-2.7848725,-1.1383629,-0.90429366,-0.42255086,-0.060857296,0
1.3436327,6.0326409,-0.67048442,-0.39417481,0.88116944,-0.26108727,0
0.67368317,5.4645119,-2.0216489,-0.39417481,0.88116944,-0.26108727,0
-2.388473,0.16456594,-1.4207791,0.16394821,-0.21211123,-0.96339494,0
-3.9802771,3.1396377,-2.3183506,-0.39417481,0.88116944,-0.26108727,0
0.79290676,5.4451318,-2.0974114,-0.39417481,0.88116944,-0.26108727,0
5.8340816,-0.87948024,1.6727929,0.90429366,0.42255086,0.060857296,0
-5.9378242,1.1422195,-0.97337008,-0.90429366,-0.42255086,-0.060857296,0
0.58718061,-3.6718905,1.9609052,-0.16394821,0.21211123,0.96339494,0
-5.3707061,-0.05308938,-1.3256721,-0.90429366,-0.42255086,-0.060857296,0
-4.8724537,-1.1512241,-0.15609932,-0.90429366,-0.42255086,-0.060857296,0
-2.9134746,-1.9144332,-1.1004832,0.16394821,-0.21211123,-0.96339494,0
-2.288064,4.2367296,-1.6541429,-0.39417481,0.88116944,-0.26108727,0
-3.3822646,3.4097519,-2.1690288,-0.39417481,0.88116944,-0.26108727,0
-0.55371523,4.4466481,-2.0659764,0.16394821,-0.21211123,-0.96339494,0
3.3455057,4.7959127,-1.1677687,0.90429366,0.42255086,0.060857296,0
2.6271524,3.1069205,0.76999617,-0.16394821,0.21211123,0.96339494,0
2.5557239,2.1555521,0.97892666,-0.16394821,0.21211123,0.96339494,0
5.8781385,-2.7456465,0.4695859,0.16394821,-0.21211123,-0.96339494,0
-0.45074892,-2.5770895,1.5770786,-0.16394821,0.21211123,0.96339494,0
2.7500687,5.9911332,0.043593407,0.90429366,0.42255086,0.060857296,0
-5.231216,-0.40488815,-1.2375197,-0.90429366,-0.42255086,-0.060857296,0
-2.5878215,-1.9867628,1.0392578,-0.16394821,0.21211123,0.96339494,0
-5.8908525,0.98260593,-1.0024872,-0.90429366,-0.42255086,-0.060857296,0
1.7248096,5.9375634,-2.0380552,-0.39417481,0.88116944,-0.26108727,0
2.0888019,-4.0034475,2.173831,0.39417481,-0.88116944,0.26108727,0
-5.7571497,2.4359462,-2.4497104,-0.39417481,0.88116944,-0.26108727,0
-0.67881155,-5.4593229,1.6900215,0.39417481,-0.88116944,0.26108727,0
-1.2816596,4.7692008,-1.3309622,-0.39417481,0.88116944,-0.26108727,0
-3.0783191,-5.2975788,-0.2253058,-0.90429366,-0.42255086,-0.060857296,0
-0.32554579,-5.6926508,0.4567112,0.39417481,-0.88116944,0.26108727,0
-3.401792,-1.6813906,-1.2905052,0.16394821,-0.21211123,-0.96339494,0
-3.6113019,0.026607752,-1.7082534,0.16394821,-0.21211123,-0.96339494,0
3.6332335,0.60469484,-0.61356044,0.16394821,-0.21211123,-0.96339494,0
-0.83280897,5.0162792,-0.91141278,-0.39417481,0.88116944,-0.26108727,0
1.2359104,4.7002916,0.1751411,-0.16394821,0.21211123,0.96339494,0
6.0975251,-1.2869155,0.83953238,0.90429366,0.42255086,0.060857296,0
-2.8707378,1.0903147,0.33012271,-0.16394821,0.21211123,0.96339494,0
5.1211143,-0.044444203,1.9106293,-0.16394821,0.21211123,0.96339494,0
0.71706724,5.9047723,-0.6861546,-0.39417481,0.88116944,-0.26108727,0
2.7705755,6.1814899,-0.63268828,0.90429366,0.42255086,0.060857296,0
-6.427669,2.4095128,-0.66301537,-0.16394821,0.21211123,0.96339494,0
3.9958522,-3.3899722,1.6523569,0.39417481,-0.88116944,0.26108727,0
5.0398874,0.708606,0.79206181,0.90429366,0.42255086,0.060857296,0
2.0851324,2.5780163,0.85216486,-0.16394821,0.21211123,0.96339494,0
5.0763426,0.91495907,1.657342,0.90429366,0.42255086,0.060857296,0
5.5914102,-0.64707673,1.9277682,0.90429366,0.42255086,0.060857296,0
3.1893575,-3.5864384,0.31330776,0.16394821,-0.21211123,-0.96339494,0
-5.1561089,-0.61394835,-1.1584582,-0.90429366,-0.42255086,-0.060857296,0
-6.2330251,1.9762704,-2.2818217,-0.90429366,-0.42255086,-0.060857296,0
-4.2154093,0.9999913,-2.045774,0.16394821,-0.21211123,-0.96339494,0
-3.9899881,-2.9677124,-0.66822743,-0.90429366,-0.42255086,-0.060857296,0
-5.8492355,2.1938963,-2.6000829,-0.39417481,0.88116944,-0.26108727,0
-4.2222281,-2.944808,-0.4987154,-0.90429366,-0.42255086,-0.060857296,0
-4.0561757,-3.2753258,0.98521686,-0.16394821,0.21211123,0.96339494,0
4.7933254,-2.7895365,2.1675673,0.39417481,-0.88116944,0.26108727,0
-3.0960772,-5.4678073,0.51852608,-0.90429366,-0.42255086,-0.060857296,0
6.4024582,-2.127033,0.67656708,0.90429366,0.42255086,0.060857296,0
2.0934775,-2.5425506,1.9417877,-0.16394821,0.21211123,0.96339494,0
-0.82721615,-3.2444019,-0.51355076,0.16394821,-0.21211123,-0.96339494,0
-0.49356461,-5.096734,0.10206878,0.16394821,-0.21211123,-0.96339494,0
2.3134727,5.2031498,-1.8900838,0.16394821,-0.21211123,-0.96339494,0
6.1049223,-1.3405075,1.4013801,0.90429366,0.42255086,0.060857296,0
1.0054893,6.032403,-0.2109955,-0.39417481,0.88116944,-0.26108727,0
2.6504812,-4.2605052,0.68525696,0.39417481,-0.88116944,0.26108727,0
3.5298228,1.3927355,1.3211648,-0.16394821,0.21211123,0.96339494,0
4.6050806,-3.0972531,1.4156098,0.39417481,-0.88116944,0.26108727,0
1.6381001,6.1480651,-1.2558954,-0.39417481,0.88116944,-0.26108727,0
-1.4364505,-5.8487215,1.5457139,0.39417481,-0.88116944,0.26108727,0
4.7243958,1.7991103,0.094709873,0.90429366,0.42255086,0.060857296,0
-1.6479516,-5.0808086,1.8362125,-0.16394821,0.21211123,0.96339494,0
-6.0664811,2.4267383,-1.9923158,-0.39417481,0.88116944,-0.26108727,0
-0.43043709,-5.4159927,1.5508208,0.39417481,-0.88116944,0.26108727,0
-2.4770527,-6.4757299,0.85126233,0.39417481,-0.88116944,0.26108727,0
-5.5371079,0.23302269,-0.78504086,-0.90429366,-0.42255086,-0.060857296,0
2.984252,0.19302547,1.4946547,-0.16394821,0.21211123,0.96339494,0
4.8842363,1.4202546,0.28855705,0.90429366,0.42255086,0.060857296,0
-5.4576569,-0.18780851,-1.2404652,-0.90429366,-0.42255086,-0.060857296,0
1.2667518,-4.6354551,1.8341129,0.39417481,-0.88116944,0.26108727,0
-5.4581118,2.8830826,-1.5507226,-0.39417481,0.88116944,-0.26108727,0
-0.83587742,5.1082106,-0.64598054,-0.39417481,0.88116944,-0.26108727,0
-1.0613747,2.8307092,0.25461781,-0.16394821,0.21211123,0.96339494,0
-2.638463,3.8596678,-1.8004148,-0.39417481,0.88116944,-0.26108727,0
-2.9417763,3.9025688,-1.5667331,-0.39417481,0.88116944,-0.26108727,0
-2.9553032,3.383604,-0.12447143,-0.16394821,0.21211123,0.96339494,0
-6.2417803,2.5473762,-1.4692035,-0.39417481,0.88116944,-0.26108727,0
2.5844953,3.1729436,-1.2488904,0.16394821,-0.21211123,-0.96339494,0
2.4292765,0.65491974,1.303077,-0.16394821,0.21211123,0.96339494,0
-3.1910839,3.8936186,-1.3028867,-0.39417481,0.88116944,-0.26108727,0
5.3893485,-2.8180523,0.40438986,0.16394821,-0.21211123,-0.96339494,0
1.0601649,-5.0062613,0.90579128,0.39417481,-0.88116944,0.26108727,0
-2.0251203,-2.5453637,1.3358918,-0.16394821,0.21211123,0.96339494,0
-3.0369384,-5.2310982,0.41856432,-0.90429366,-0.42255086,-0.060857296,0
-2.8633881,-5.7796063,0.68438911,-0.90429366,-0.42255086,-0.060857296,0
-3.6383834,-4.0450077,0.35819507,-0.90429366,-0.42255086,-0.060857296,0
4.9499092,0.88568747,1.5883489,0.90429366,0.42255086,0.060857296,0
-1.4765267,4.7598114,-0.71050215,-0.39417481,0.88116944,-0.26108727,0
2.9802833,-3.9521194,1.2272971,0.39417481,-0.88116944,0.26108727,0
-1.6926608,4.1515808,-2.2165518,0.16394821,-0.21211123,-0.96339494,0
5.8455834,-0.74390054,1.2258387,0.90429366,0.42255086,0.060857296,0
-4.9848881,0.86525035,-2.0921373,0.16394821,-0.21211123,-0.96339494,0
0.37478733,-5.1451101,1.3202326,0.39417481,-0.88116944,0.26108727,0
-1.0998778,4.5702267,-2.019881,-0.39417481,0.88116944,-0.26108727,0
-3.7550993,3.3184714,-2.1936877,-0.39417481,0.88116944,-0.26108727,0
-3.8226321,-1.9070182,0.80199885,-0.16394821,0.21211123,0.96339494,0
2.2917762,-4.3860731,0.54197574,0.39417481,-0.88116944,0.26108727,0
4.5870652,1.8692681,0.37375021,0.90429366,0.42255086,0.060857296,0
3.8351307,3.4891524,-0.43460608,0.90429366,0.42255086,0.060857296,0
-0.64572287,-5.4242296,2.0449209,0.39417481,-0.88116944,0.26108727,0
-0.046666145,5.4965143,-0.27862662,-0.39417481,0.88116944,-0.26108727,0
6.569869,-2.1937287,1.2795987,0.90429366,0.42255086,0.060857296,0
-4.5647616,-2.105092,-0.49299383,-0.90429366,-0.42255086,-0.060857296,0
3.9977713,1.157382,1.3675427,-0.16394821,0.21211123,0.96339494,0
-2.6478324,-6.2542205,1.8188416,0.39417481,-0.88116944,0.26108727,0
-3.1760664,3.7644243,-1.8687999,-0.39417481,0.88116944,-0.26108727,0
0.75538969,-1.5128547,1.5370526,-0.16394821,0.21211123,0.96339494,0
6.4495387,-2.5253754,0.67631054,0.16394821,-0.21211123,-0.96339494,0
0.27039623,5.7467403,-0.44520694,-0.39417481,0.88116944,-0.26108727,0
2.7980213,6.0876541,-0.28097343,0.90429366,0.42255086,0.060857296,0
-3.9811511,1.3039464,0.084088802,-0.16394821,0.21211123,0.96339494,0
5.8612528,-2.5112391,1.7079,0.39417481,-0.88116944,0.26108727,0
3.146945,-4.1637883,0.63767767,0.39417481,-0.88116944,0.26108727,0
-3.8580813,3.5840702,-1.0217459,-0.39417481,0.88116944,-0.26108727,0
-4.4704704,-2.3474631,-0.09460783,-0.90429366,-0.42255086,-0.060857296,0
-2.0169392,-6.1022854,1.2904963,0.39417481,-0.88116944,0.26108727,0
4.9624362,1.4848943,-0.27303553,0.90429366,0.42255086,0.060857296,0
-5.6918392,2.5467079,-2.1113682,-0.39417481,0.88116944,-0.26108727,0
-1.2275767,3.1220956,0.048860669,-0.16394821,0.21211123,0.96339494,0
2.1058583,-3.1761303,2.1708183,-0.16394821,0.21211123,0.96339494,0
2.9380093,-4.018744,1.5335693,0.39417481,-0.88116944,0.26108727,0
0.29675484,-4.6884313,2.117058,-0.16394821,0.21211123,0.96339494,0
-4.9288621,-1.4786472,-0.20139265,-0.90429366,-0.42255086,-0.060857296,0
-3.9906778,-3.217711,0.81536722,-0.90429366,-0.42255086,-0.060857296,0
6.2817016,-2.1411853,2.1654172,0.39417481,-0.88116944,0.26108727,0
-2.5736623,4.0259247,-1.5963373,-0.39417481,0.88116944,-0.26108727,0
6.3153362,-2.0848229,2.4480853,0.90429366,0.42255086,0.060857296,0
2.0798059,6.3735051,-0.9726069,-0.39417481,0.88116944,-0.26108727,0
2.4994125,-3.7381418,0.16241288,0.16394821,-0.21211123,-0.96339494,0
-1.3630219,-5.9240475,1.1967206,0.39417481,-0.88116944,0.26108727,0
5.4078512,-0.091917515,1.9142742,0.90429366,0.42255086,0.060857296,0
-3.30355,3.1429396,-0.20641136,-0.16394821,0.21211123,0.96339494,0
0.74457288,2.0452785,0.68848509,-0.16394821,0.21211123,0.96339494,0
-2.2661757,-4.3724875,1.6750742,-0.16394821,0.21211123,0.96339494,0
-4.0063772,-3.4729404,1.1087623,-0.90429366,-0.42255086,-0.060857296,0
5.5290756,-0.29245329,1.1284633,0.90429366,0.42255086,0.060857296,0
-5.1395235,-0.52310312,-1.5576921,-0.90429366,-0.42255086,-0.060857296,0
-1.036325,-2.4706202,1.3528552,-0.16394821,0.21211123,0.96339494,0
1.1513214,5.7675571,-1.3287586,-0.39417481,0.88116944,-0.26108727,0
6.2233663,-2.5399652,1.0087094,0.39417481,-0.88116944,0.26108727,0
-3.2824948,-4.5327611,1.5635607,-0.16394821,0.21211123,0.96339494,0
-6.560308,2.1489322,-1.1114082,-0.90429366,-0.42255086,-0.060857296,0
-2.9566517,2.7487998,-2.2248819,0.16394821,-0.21211123,-0.96339494,0
4.6936703,1.1896019,1.6271572,-0.16394821,0.21211123,0.96339494,0
-3.1799574,3.7677712,-1.3814144,-0.39417481,0.88116944,-0.26108727,0
6.2441072,-2.6191134,1.2600818,0.39417481,-0.88116944,0.26108727,0
5.1886053,-2.883007,0.39799738,0.16394821,-0.21211123,-0.96339494,0
-1.1033425,-5.6746788,1.9208907,0.39417481,-0.88116944,0.26108727,0
-5.3596082,-0.32233214,-0.52648449,-0.90429366,-0.42255086,-0.060857296,0
4.1676979,1.5734899,-0.64046812,0.16394821,-0.21211123,-0.96339494,0
2.3768849,-4.0245504,1.626332,0.39417481,-0.88116944,0.26108727,0
0.80386209,2.3263843,-1.4137514,0.16394821,-0.21211123,-0.96339494,0
2.0837865,-1.210925,-0.41780806,0.16394821,-0.21211123,-0.96339494,0
-1.2362099,-3.1222541,1.613939,-0.16394821,0.21211123,0.96339494,0
-5.7180858,0.81860995,-2.1877871,-0.90429366,-0.42255086,-0.060857296,0
0.062128544,-4.0418482,1.8471235,-0.16394821,0.21211123,0.96339494,0
3.759788,-3.3426929,2.2016647,0.39417481,-0.88116944,0.26108727,0
0.41818413,0.11445498,-0.96647519,0.16394821,-0.21211123,-0.96339494,0
-3.8492632,3.2839193,-2.4272673,-0.39417481,0.88116944,-0.26108727,0
-4.1846008,-0.39753795,0.32612467,-0.16394821,0.21211123,0.96339494,0
-2.855124,1.3697319,0.33902168,-0.16394821,0.21211123,0.96339494,0
-4.1739273,3.4266188,-0.98298836,-0.39417481,0.88116944,-0.26108727,0
-1.5315076,-0.38029027,0.83673596,-0.16394821,0.21211123,0.96339494,0
3.2694879,4.8094773,-1.5271199,0.16394821,-0.21211123,-0.96339494,0
0.7430985,4.1875191,0.16902053,-0.16394821,0.21211123,0.96339494,0
1.9098241,-3.0243065,-0.037708759,0.16394821,-0.21211123,-0.96339494,0
-6.1485033,1.6100104,-2.0588722,-0.90429366,-0.42255086,-0.060857296,0
-4.1848459,-3.073715,0.88980675,-0.90429366,-0.42255086,-0.060857296,0
-1.4743905,-4.1538939,1.6668992,-0.16394821,0.21211123,0.96339494,0
2.7699442,-3.8426714,1.8659458,0.39417481,-0.88116944,0.26108727,0
-3.0635815,-5.5105066,1.4728396,-0.90429366,-0.42255086,-0.060857296,0
-1.6360475,0.74020433,0.55502141,-0.16394821,0.21211123,0.96339494,0
3.1009166,4.9603014,0.080455065,0.90429366,0.42255086,0.060857296,0
-4.9949017,3.0359683,-1.5449452,-0.39417481,0.88116944,-0.26108727,0
-3.8431845,3.3323441,-1.7895589,-0.39417481,0.88116944,-0.26108727,0
2.5397601,0.20719194,-0.65787053,0.16394821,-0.21211123,-0.96339494,0
1.9723678,-4.0983443,2.2768135,0.39417481,-0.88116944,0.26108727,0
-0.71902323,4.5868006,-0.17376918,-0.16394821,0.21211123,0.96339494,0
2.2954888,2.5673013,-1.23436,0.16394821,-0.21211123,-0.96339494,0
-3.0232911,4.2281179,-0.52897143,-0.39417481,0.88116944,-0.26108727,0
3.1576262,4.9492607,0.027048349,0.90429366,0.42255086,0.060857296,0
-3.6179864,1.3230978,0.097700834,-0.16394821,0.21211123,0.96339494,0
3.8147123,0.5825448,1.4878979,-0.16394821,0.21211123,0.96339494,0
-0.89871693,5.1339149,-0.16833317,-0.39417481,0.88116944,-0.26108727,0
4.514842,2.2055206,1.129889,0.90429366,0.42255086,0.060857296,0
1.6003565,2.2291479,-1.197605,0.16394821,-0.21211123,-0.96339494,0
-5.4334149,0.98808074,-0.13544607,-0.16394821,0.21211123,0.96339494,0
-5.2925406,-0.27365255,-0.29580021,-0.90429366,-0.42255086,-0.060857296,0
1.4686313,6.302907,-0.22789419,-0.39417481,0.88116944,-0.26108727,0
5.2157888,0.67855692,0.34410429,0.90429366,0.42255086,0.060857296,0
0.074828148,-5.5993223,0.2645103,0.16394821,-0.21211123,-0.96339494,0
2.0293195,4.3288426,0.33184958,-0.16394821,0.21211123,0.96339494,0
5.1942272,-1.0128052,0.015575886,0.16394821,-0.21211123,-0.96339494,0
1.5519574,-1.3766434,1.6974638,-0.16394821,0.21211123,0.96339494,0
-2.5174699,-6.3588905,1.2541736,0.39417481,-0.88116944,0.26108727,0
-6.3636403,2.5864346,-0.97481298,-0.39417481,0.88116944,-0.26108727,0
-1.2604265,4.9074249,-0.7984488,-0.39417481,0.88116944,-0.26108727,0
0.78174353,5.697773,-1.327752,-0.39417481,0.88116944,-0.26108727,0
0.19937038,-4.904902,1.9167469,0.39417481,-0.88116944,0.26108727,0
2.6932967,5.9275522,0.086164474,0.90429366,0.42255086,0.060857296,0
5.9694262,-1.1324589,0.48410606,0.90429366,0.42255086,0.060857296,0
-5.1842337,-0.83142233,0.28266811,-0.90429366,-0.42255086,-0.060857296,0
3.99313,-1.5344836,2.1480806,-0.16394821,0.21211123,0.96339494,0
4.481287,0.31274772,-0.37603712,0.16394821,-0.21211123,-0.96339494,0
0.16889524,-5.5924759,0.30792961,0.39417481,-0.88116944,0.26108727,0
-5.1281347,2.8577628,-1.7182889,-0.39417481,0.88116944,-0.26108727,0
-5.3044977,-0.20961213,-0.48907709,-0.90429366,-0.42255086,-0.060857296,0
-4.6893435,-1.8277241,-1.362597,-0.90429366,-0.42255086,-0.060857296,0
-3.1710439,4.0364408,-0.99731779,-0.39417481,0.88116944,-0.26108727,0
0.72290182,4.0624542,0.35907331,-0.16394821,0.21211123,0.96339494,0
1.4580169,5.9421177,-1.428992,-0.39417481,0.88116944,-0.26108727,0
4.2881503,-3.4248612,1.2474122,0.39417481,-0.88116944,0.26108727,0
-5.3212709,2.5923898,-2.2370653,-0.39417481,0.88116944,-0.26108727,0
1.960968,5.8400126,-1.9239269,0.16394821,-0.21211123,-0.96339494,0
0.66102648,-4.9995375,0.18392825,0.16394821,-0.21211123,-0.96339494,0
2.9595981,-4.1815014,0.55326962,0.39417481,-0.88116944,0.26108727,0
4.8427782,1.4862554,1.0925603,0.90429366,0.42255086,0.060857296,0
-1.99722,-6.6625099,0.055597901,0.39417481,-0.88116944,0.26108727,0
-4.9962082,-0.72128749,-1.5518389,-0.90429366,-0.42255086,-0.060857296,0
2.0222859,6.3453579,-0.42440963,-0.39417481,0.88116944,-0.26108727,0
-0.14490008,1.5497983,-1.467433,0.16394821,-0.21211123,-0.96339494,0
3.6647897,-3.5872812,1.8776436,0.39417481,-0.88116944,0.26108727,0
-6.3745375,2.1653669,-1.5871029,-0.90429366,-0.42255086,-0.060857296,0
-3.2665391,-4.7242284,0.35063696,-0.90429366,-0.42255086,-0.060857296,0
3.6843295,-3.2399616,2.283788,-0.16394821,0.21211123,0.96339494,0
5.1295528,0.83863401,0.46056604,0.90429366,0.42255086,0.060857296,0
-3.1334758,3.7914255,-1.2511575,-0.39417481,0.88116944,-0.26108727,0
4.6580672,1.7904812,0.23249722,0.90429366,0.42255086,0.060857296,0
1.3030277,0.2253589,1.2282219,-0.16394821,0.21211123,0.96339494,0
-5.3522892,-0.63832903,0.28424788,-0.90429366,-0.42255086,-0.060857296,0
1.2618008,-4.8913736,0.48964667,0.39417481,-0.88116944,0.26108727,0
-4.4423065,-2.057344,-0.82492447,-0.90429366,-0.42255086,-0.060857296,0
-6.314435,2.0376098,-1.9105439,-0.90429366,-0.42255086,-0.060857296,0
-4.4855003,-1.9793026,-1.0933933,-0.90429366,-0.42255086,-0.060857296,0
4.2370982,3.0452878,-0.31029749,0.90429366,0.42255086,0.060857296,0
-4.1526642,0.3021791,0.26766348,-0.16394821,0.21211123,0.96339494,0
4.9016738,-2.8567927,2.4313421,0.39417481,-0.88116944,0.26108727,0
0.30572462,-4.9575882,2.2083006,0.39417481,-0.88116944,0.26108727,0
3.2861052,4.738677,-0.0064883232,0.90429366,0.42255086,0.060857296,0
5.2708969,-0.50280488,2.1273694,-0.16394821,0.21211123,0.96339494,0
2.0011687,6.2740221,-0.73294377,-0.39417481,0.88116944,-0.26108727,0
-1.1659646,0.10365126,-1.2240715,0.16394821,-0.21211123,-0.96339494,0
-5.2114053,2.8418469,-1.3287396,-0.39417481,0.88116944,-0.26108727,0
2.6731873,-3.9295745,1.5007231,0.39417481,-0.88116944,0.26108727,0
5.690515,-0.58053374,0.62184,0.90429366,0.42255086,0.060857296,0
0.97675514,5.6262603,-1.6326088,-0.39417481,0.88116944,-0.26108727,0
-5.8336473,1.0961993,-1.9940252,-0.90429366,-0.42255086,-0.060857296,0
-3.11813,4.1493993,-0.53365755,-0.39417481,0.88116944,-0.26108727,0
5.8276281,-0.97840238,1.5770655,0.90429366,0.42255086,0.060857296,0
1.79494,-4.5255284,1.2238768,0.39417481,-0.88116944,0.26108727,0
4.9592566,-0.19566035,-0.091659069,0.16394821,-0.21211123,-0.96339494,0
-4.5517035,3.2421036,-1.0828462,-0.39417481,0.88116944,-0.26108727,0
0.32752657,-5.1689558,1.2886126,0.39417481,-0.88116944,0.26108727,0
-5.012722,-0.98337436,-0.81121349,-0.90429366,-0.42255086,-0.060857296,0
3.0687394,4.3741841,-1.5367973,0.16394821,-0.21211123,-0.96339494,0
2.2953396,6.609952,-0.40859485,-0.39417481,0.88116944,-0.26108727,0
5.4416823,0.099842548,0.89584827,0.90429366,0.42255086,0.060857296,0
-2.7394197,-2.019577,-0.98778439,0.16394821,-0.21211123,-0.96339494,0
-3.8585942,-3.3566046,-0.92883182,0.16394821,-0.21211123,-0.96339494,0
6.0280075,-1.1423891,1.1228781,0.90429366,0.42255086,0.060857296,0
3.3004704,4.9806547,-0.49887562,0.90429366,0.42255086,0.060857296,0
-3.7657256,-2.2124834,0.90732837,-0.16394821,0.21211123,0.96339494,0
6.3023562,-2.5071084,0.99535894,0.39417481,-0.88116944,0.26108727,0
5.2419248,0.7396245,0.17560196,0.90429366,0.42255086,0.060857296,0
6.2265415,-2.7583663,0.64944601,0.39417481,-0.88116944,0.26108727,0
3.0447204,5.2161646,0.22013283,0.90429366,0.42255086,0.060857296,0
-2.753129,-6.1915751,1.3629169,-0.90429366,-0.42255086,-0.060857296,0
4.1918621,2.9602358,0.26218414,0.90429366,0.42255086,0.060857296,0
-3.0870833,-2.0172038,0.95889544,-0.16394821,0.21211123,0.96339494,0
-2.1625104,-3.6848912,-0.59418178,0.16394821,-0.21211123,-0.96339494,0
5.0080957,1.2085829,-0.20555258,0.90429366,0.42255086,0.060857296,0
3.3669908,-3.2182145,0.21723771,0.16394821,-0.21211123,-0.96339494,0
-4.0292673,3.3283169,-1.9671812,-0.39417481,0.88116944,-0.26108727,0
6.4056091,-2.2866917,1.6779289,0.39417481,-0.88116944,0.26108727,0
0.59224892,5.2094321,-0.011926949,-0.16394821,0.21211123,0.96339494,0
5.9732995,-1.1777725,1.7133741,0.90429366,0.42255086,0.060857296,0
4.3216329,2.7708318,0.31130219,0.90429366,0.42255086,0.060857296,0
5.3521595,0.16773868,0.30267525,0.90429366,0.42255086,0.060857296,0
2.2442293,-0.10507536,-0.72818518,0.16394821,-0.21211123,-0.96339494,0
6.1103725,-2.3647594,2.1057339,0.39417481,-0.88116944,0.26108727,0
-0.11092973,1.9868907,-1.4083884,0.16394821,-0.21211123,-0.96339494,0
0.62514877,5.7264395,-0.70716858,-0.39417481,0.88116944,-0.26108727,0
-3.4461389,3.7029173,-1.5176849,-0.39417481,0.88116944,-0.26108727,0
4.0752325,-3.2057371,2.2269733,0.39417481,-0.88116944,0.26108727,0
0.54132855,-0.72066075,1.3243504,-0.16394821,0.21211123,0.96339494,0
4.2227201,-0.50157201,1.8681815,-0.16394821,0.21211123,0.96339494,0
-3.7436886,-3.7392871,0.28043532,-0.90429366,-0.42255086,-0.060857296,0
-1.8810668,-4.3152719,1.7155344,-0.16394821,0.21211123,0.96339494,0
1.4319744,6.0899253,-1.0912646,-0.39417481,0.88116944,-0.26108727,0
5.2011738,0.84457159,-0.0091104507,0.90429366,0.42255086,0.060857296,0
3.9001124,3.6763685,-1.1702199,0.90429366,0.42255086,0.060857296,0
1.9664927,4.5099125,-1.7243598,0.16394821,-0.21211123,-0.96339494,0
3.8935499,-3.2570791,2.2875226,0.39417481,-0.88116944,0.26108727,0
-6.511982,2.3510029,-0.6649065,-0.90429366,-0.42255086,-0.060857296,0
-0.90582561,-5.7040753,1.4573641,0.39417481,-0.88116944,0.26108727,0
-3.6151996,-4.0197592,0.72861695,-0.90429366,-0.42255086,-0.060857296,0
-4.9780331,-1.3472478,-0.11245251,-0.90429366,-0.42255086,-0.060857296,0
-4.3608394,-2.0107005,0.83338261,-0.16394821,0.21211123,0.96339494,0
2.7048745,1.0816023,1.3305383,-0.16394821,0.21211123,0.96339494,0
-6.3131418,1.8158793,-1.8562341,-0.90429366,-0.42255086,-0.060857296,0
5.3352909,0.073344231,0.87093067,0.90429366,0.42255086,0.060857296,0
-0.60288286,4.6629801,-2.1710644,0.16394821,-0.21211123,-0.96339494,0
-4.7413602,-1.6859809,-1.0122242,-0.90429366,-0.42255086,-0.060857296,0
-0.63545418,5.0842791,-0.87752014,-0.39417481,0.88116944,-0.26108727,0
-1.8321722,2.9240425,-0.013531208,-0.16394821,0.21211123,0.96339494,0
5.9796886,-2.7809048,1.0545516,0.39417481,-0.88116944,0.26108727,0
6.5746984,-2.2836945,1.176024,0.90429366,0.42255086,0.060857296,0
-0.76042581,-2.7462916,1.6034986,-0.16394821,0.21211123,0.96339494,0
-4.3035226,-2.7244625,-0.44292688,-0.90429366,-0.42255086,-0.060857296,0
3.3099232,4.4502459,0.50561261,0.90429366,0.42255086,0.060857296,0
-5.1586118,-0.64542496,-1.1449957,-0.90429366,-0.42255086,-0.060857296,0
-2.5035157,4.4420676,-0.5453465,-0.39417481,0.88116944,-0.26108727,0
-3.9884496,3.3629065,-2.0079968,-0.39417481,0.88116944,-0.26108727,0
-0.030057907,3.8054676,-1.884975,0.16394821,-0.21211123,-0.96339494,0
4.2824502,2.6427555,-0.69173765,0.90429366,0.42255086,0.060857296,0
5.871089,-2.732548,1.2572327,0.39417481,-0.88116944,0.26108727,0
-1.0754519,4.2456818,-0.050453424,-0.16394821,0.21211123,0.96339494,0
-3.0308936,-5.5076685,0.60078835,-0.90429366,-0.42255086,-0.060857296,0
-4.3982272,3.1687779,-1.6985679,-0.39417481,0.88116944,-0.26108727,0
-0.67389536,-3.864255,-0.3767958,0.16394821,-0.21211123,-0.96339494,0
3.4514935,-2.3462861,2.1128776,-0.16394821,0.21211123,0.96339494,0
-1.0551262,-6.1243901,0.2283023,0.39417481,-0.88116944,0.26108727,0
3.6159348,1.7189236,1.3688161,-0.16394821,0.21211123,0.96339494,0
-0.5923028,-5.4851484,1.5224094,0.39417481,-0.88116944,0.26108727,0
3.614908,4.2287307,-0.014235973,0.90429366,0.42255086,0.060857296,0
-5.5046782,-0.16505075,-0.052121162,-0.90429366,-0.42255086,-0.060857296,0
-1.2597712,-1.4502605,-0.88454473,0.16394821,-0.21211123,-0.96339494,0
-6.0321445,2.3940399,-2.0875521,-0.39417481,0.88116944,-0.26108727,0
3.2216811,-3.7985537,1.3093884,0.39417481,-0.88116944,0.26108727,0
-0.31539321,-2.5516539,1.594172,-0.16394821,0.21211123,0.96339494,0
3.4040971,-3.6940382,1.5833836,0.39417481,-0.88116944,0.26108727,0
1.1552887,5.4896712,-1.9940342,-0.39417481,0.88116944,-0.26108727,0
1.4915779,4.3017941,0.33861041,-0.16394821,0.21211123,0.96339494,0
2.3870115,-3.9980164,2.2551222,0.39417481,-0.88116944,0.26108727,0
4.8248892,-2.9451137,2.1299715,0.39417481,-0.88116944,0.26108727,0
-1.4918118,-4.5399179,-0.27006173,0.16394821,-0.21211123,-0.96339494,0
0.49941826,-1.6898376,1.4565839,-0.16394821,0.21211123,0.96339494,0
0.45583916,-4.8934751,1.9807838,0.39417481,-0.88116944,0.26108727,0
5.9875059,-1.2807575,1.8134165,0.90429366,0.42255086,0.060857296,0
-3.2652261,-4.6773949,-0.10267544,-0.90429366,-0.42255086,-0.060857296,0
3.8078482,3.60237,0.8569293,0.90429366,0.42255086,0.060857296,0
2.6430075,3.6408198,-1.3211985,0.16394821,-0.21211123,-0.96339494,0
-3.6288021,-1.7248558,0.88628435,-0.16394821,0.21211123,0.96339494,0
2.1267607,0.41663444,1.3041794,-0.16394821,0.21211123,0.96339494,0
-2.9157438,-5.5200081,0.31494427,-0.90429366,-0.42255086,-0.060857296,0
4.1012197,3.2744315,-0.16221189,0.90429366,0.42255086,0.060857296,0
-4.2916279,-2.6790762,0.21951675,-0.90429366,-0.42255086,-0.060857296,0
-3.1933258,-5.0282855,1.43751,-0.90429366,-0.42255086,-0.060857296,0
-3.4233565,2.5882249,-0.13335299,-0.16394821,0.21211123,0.96339494,0
4.0060105,0.68551826,1.5773451,-0.16394821,0.21211123,0.96339494,0
-3.387424,-1.376699,-1.3056111,0.16394821,-0.21211123,-0.96339494,0
6.230103,-1.4794383,1.1224318,0.90429366,0.42255086,0.060857296,0
-3.377914,-4.689702,-0.63160753,-0.90429366,-0.42255086,-0.060857296,0
-4.2834134,-2.8250248,0.93099785,-0.16394821,0.21211123,0.96339494,0
0.39612961,5.6057854,-0.84772396,-0.39417481,0.88116944,-0.26108727,0
5.2456379,-3.0356958,1.2611723,0.39417481,-0.88116944,0.26108727,0
-2.2281871,4.3382406,-1.1034408,-0.39417481,0.88116944,-0.26108727,0
-0.034959316,-5.3807917,1.1539488,0.39417481,-0.88116944,0.26108727,0
0.33975506,3.1567497,0.42221794,-0.16394821,0.21211123,0.96339494,0
5.2076998,-3.0019467,1.031425,0.39417481,-0.88116944,0.26108727,0
1.2133613,-4.5080256,1.8497264,0.39417481,-0.88116944,0.26108727,0
-2.2281399,-6.0451703,1.9588565,0.39417481,-0.88116944,0.26108727,0
-3.2184958,3.8552706,-0.91919756,-0.39417481,0.88116944,-0.26108727,0
0.33779383,-5.0282693,1.2974198,0.39417481,-0.88116944,0.26108727,0
-5.2130222,3.0742383,-0.53676271,-0.39417481,0.88116944,-0.26108727,0
0.9185133,1.9921305,0.74583882,-0.16394821,0.21211123,0.96339494,0
3.709928,3.669107,-0.050061226,0.90429366,0.42255086,0.060857296,0
4.723588,-3.4239006,0.6885047,0.39417481,-0.88116944,0.26108727,0
2.0989103,-4.460588,1.243417,0.39417481,-0.88116944,0.26108727,0
2.5902085,-4.1215534,1.5938082,0.39417481,-0.88116944,0.26108727,0
2.1786475,3.1883216,0.63492751,-0.16394821,0.21211123,0.96339494,0
5.8577752,-1.7502697,0.26016998,0.16394821,-0.21211123,-0.96339494,0
2.8333411,5.9590635,-1.0158327,0.90429366,0.42255086,0.060857296,0
-5.952487,1.2388629,-2.3215575,-0.90429366,-0.42255086,-0.060857296,0
-2.3817363,-6.6515603,0.16474986,-0.90429366,-0.42255086,-0.060857296,0
0.075553656,-2.70242,1.737377,-0.16394821,0.21211123,0.96339494,0
2.6287732,-1.7635314,-0.27974033,0.16394821,-0.21211123,-0.96339494,0
-2.618516,-6.2688336,1.3642215,-0.90429366,-0.42255086,-0.060857296,0
-3.6435432,-4.0263057,0.73926067,-0.90429366,-0.42255086,-0.060857296,0
4.4487338,-3.4041247,0.41897917,0.16394821,-0.21211123,-0.96339494,0
-4.1290636,0.24596769,-1.8907702,0.16394821,-0.21211123,-0.96339494,0
-2.3517754,0.73600221,0.41336107,-0.16394821,0.21211123,0.96339494,0
1.1104245,-3.5921874,2.0026832,-0.16394821,0.21211123,0.96339494,0
-0.3370856,-1.3256357,1.2382339,-0.16394821,0.21211123,0.96339494,0
4.2035732,-3.2031746,2.0446117,0.39417481,-0.88116944,0.26108727,0
1.4401271,3.0646176,0.58917344,-0.16394821,0.21211123,0.96339494,0
3.8515556,3.6929843,-0.27581191,0.90429366,0.42255086,0.060857296,0
2.6763492,-0.85447383,1.7086272,-0.16394821,0.21211123,0.96339494,0
-1.9626026,4.5834789,-0.61871052,-0.39417481,0.88116944,-0.26108727,0
-0.70184994,5.0693245,-1.2816279,-0.39417481,0.88116944,-0.26108727,0
3.3480115,-1.6150745,-0.069443226,0.16394821,-0.21211123,-0.96339494,0
5.2984586,0.24673343,1.4427538,0.90429366,0.42255086,0.060857296,0
-0.29109049,5.1144719,-1.2671462,-0.39417481,0.88116944,-0.26108727,0
5.7397833,-0.30752277,0.31586742,0.90429366,0.42255086,0.060857296,0
3.6417036,3.9852738,-0.56787705,0.90429366,0.42255086,0.060857296,0
-0.89887905,0.14976203,0.79191011,-0.16394821,0.21211123,0.96339494,0
-5.1745911,-0.59881163,-0.9130311,-0.90429366,-0.42255086,-0.060857296,0
6.1397815,-1.4495196,0.38247538,0.90429366,0.42255086,0.060857296,0
3.2430727,4.7764225,-0.36202765,0.90429366,0.42255086,0.060857296,0
1.3225904,6.0495429,-1.0829477,-0.39417481,0.88116944,-0.26108727,0
5.2671337,0.46098042,-0.19896317,0.90429366,0.42255086,0.060857296,0
2.4461255,4.7276039,-1.7586154,0.16394821,-0.21211123,-0.96339494,0
-1.029305,4.9938688,-0.94650602,-0.39417481,0.88116944,-0.26108727,0
4.5405827,1.9955134,0.90586376,0.90429366,0.42255086,0.060857296,0
-5.8761206,0.93903589,-0.12203789,-0.90429366,-0.42255086,-0.060857296,0
-0.69104624,-5.4635177,2.0287473,0.39417481,-0.88116944,0.26108727,0
3.1336226,-4.0174451,1.0285728,0.39417481,-0.88116944,0.26108727,0
-0.80818963,-3.7515798,-0.25066888,0.16394821,-0.21211123,-0.96339494,0
3.3789976,-4.0535417,0.58690715,0.39417481,-0.88116944,0.26108727,0
4.6360579,1.7843593,0.60139656,0.90429366,0.42255086,0.060857296,0
-0.23207879,-2.7668593,1.5785739,-0.16394821,0.21211123,0.96339494,0
-5.2632704,-0.25125539,-1.4888258,-0.90429366,-0.42255086,-0.060857296,0
5.8622723,-2.5206711,2.0895491,0.39417481,-0.88116944,0.26108727,0
-5.0764036,-0.95343757,0.37015581,-0.90429366,-0.42255086,-0.060857296,0
4.4176025,2.3254492,-0.63673592,0.90429366,0.42255086,0.060857296,0
-2.4420288,3.2564869,-0.049823999,-0.16394821,0.21211123,0.96339494,0
1.0480138,-2.1484416,-0.39319909,0.16394821,-0.21211123,-0.96339494,0
-3.7277617,3.5654516,-1.8357913,-0.39417481,0.88116944,-0.26108727,0
-4.2557974,-0.14187801,-1.7105951,0.16394821,-0.21211123,-0.96339494,0
1.6423182,-4.6338348,0.98308778,0.39417481,-0.88116944,0.26108727,0
-4.4929867,-2.2965064,0.031740665,-0.90429366,-0.42255086,-0.060857296,0
-0.94522667,4.957263,-0.94729376,-0.39417481,0.88116944,-0.26108727,0
1.3024011,-5.0160542,0.44218504,0.39417481,-0.88116944,0.26108727,0
-2.0400977,4.6483526,-0.64209771,-0.39417481,0.88116944,-0.26108727,0
0.76615191,-3.4711199,1.9704862,-0.16394821,0.21211123,0.96339494,0
-4.3768973,-2.5998836,0.097442627,-0.90429366,-0.42255086,-0.060857296,0
3.7222242,2.5649548,1.2079489,-0.16394821,0.21211123,0.96339494,0
2.4958696,6.0352068,0.071053505,-0.16394821,0.21211123,0.96339494,0
0.46289778,5.7875342,-0.21219301,-0.39417481,0.88116944,-0.26108727,0
-1.5319562,4.7288699,-1.1992722,-0.39417481,0.88116944,-0.26108727,0
0.81570113,2.3581495,0.59872353,-0.16394821,0.21211123,0.96339494,0
4.4052601,-1.6250893,2.1761925,-0.16394821,0.21211123,0.96339494,0
5.4023113,0.2939291,1.3631053,0.90429366,0.42255086,0.060857296,0
5.2784863,-1.5953918,0.21341419,0.16394821,-0.21211123,-0.96339494,0
-4.5625858,3.3703918,-0.39617205,-0.16394821,0.21211123,0.96339494,0
-1.0436506,4.7458448,-0.15505421,-0.16394821,0.21211123,0.96339494,0
1.9455943,6.2852697,-0.92954552,-0.39417481,0.88116944,-0.26108727,0
5.2329865,-3.1271672,0.95632315,0.39417481,-0.88116944,0.26108727,0
3.6291268,4.3262143,-0.80056357,0.90429366,0.42255086,0.060857296,0
4.6872869,-3.168818,1.042388,0.39417481,-0.88116944,0.26108727,0
1.1021379,1.2575445,1.0494673,-0.16394821,0.21211123,0.96339494,0
2.6442719,3.2202225,-1.3404298,0.16394821,-0.21211123,-0.96339494,0
-5.2800722,-0.40260744,-0.63161469,-0.90429366,-0.42255086,-0.060857296,0
-3.3087506,3.6791224,-0.23170447,-0.16394821,0.21211123,0.96339494,0
3.5358324,4.2734394,0.51839304,0.90429366,0.42255086,0.060857296,0
-2.5915442,-1.1753089,-1.3193254,0.16394821,-0.21211123,-0.96339494,0
1.8463182,6.0347586,-1.3794634,-0.39417481,0.88116944,-0.26108727,0
4.0479803,0.60679978,1.495595,-0.16394821,0.21211123,0.96339494,0
0.42709708,4.1194215,0.29963672,-0.16394821,0.21211123,0.96339494,0
-2.4074981,3.2597604,-0.069711924,-0.16394821,0.21211123,0.96339494,0
3.3180265,-4.0313439,0.32711697,0.16394821,-0.21211123,-0.96339494,0
-4.5264325,-2.2434397,0.74418306,-0.90429366,-0.42255086,-0.060857296,0
4.2940149,-0.18147278,1.781764,-0.16394821,0.21211123,0.96339494,0
6.2528582,-1.717085,1.8995585,0.90429366,0.42255086,0.060857296,0
-0.3758719,3.1010427,0.26368347,-0.16394821,0.21211123,0.96339494,0
-3.3728883,0.098231077,0.3575666,-0.16394821,0.21211123,0.96339494,0
3.4031715,4.51967,0.062097788,0.90429366,0.42255086,0.060857296,0
5.7962499,-1.0158002,1.7364292,0.90429366,0.42255086,0.060857296,0
5.4598513,0.0037312508,0.18464947,0.90429366,0.42255086,0.060857296,0
-3.1360536,-4.221108,-0.62978792,0.16394821,-0.21211123,-0.96339494,0
-6.1394262,1.4502103,-2.2600336,-0.90429366,-0.42255086,-0.060857296,0
1.3766732,5.9897499,-0.98362797,-0.39417481,0.88116944,-0.26108727,0
-3.1401834,3.7882619,-1.7281885,-0.39417481,0.88116944,-0.26108727,0
5.336164,0.48060942,0.88089514,0.90429366,0.42255086,0.060857296,0
-2.2583308,-2.2901714,-0.9300288,0.16394821,-0.21211123,-0.96339494,0
3.8332603,3.661092,0.13378692,0.90429366,0.42255086,0.060857296,0
-3.9175978,1.1967838,-2.0156057,0.16394821,-0.21211123,-0.96339494,0
3.0504227,-1.6647894,1.9906852,-0.16394821,0.21211123,0.96339494,0
-4.7231464,-1.6796198,-0.67447281,-0.90429366,-0.42255086,-0.060857296,0
-4.9027243,-1.4838719,0.17709589,-0.90429366,-0.42255086,-0.060857296,0
4.4076214,-0.052180171,1.8753099,-0.16394821,0.21211123,0.96339494,0
2.4419904,2.1155455,0.91650462,-0.16394821,0.21211123,0.96339494,0
-3.6818841,2.8975549,-2.375771,0.16394821,-0.21211123,-0.96339494,0
4.2170134,2.5414531,0.46126318,0.90429366,0.42255086,0.060857296,0
3.1388612,-3.9390228,0.73889995,0.39417481,-0.88116944,0.26108727,0
2.8580108,5.79038,-0.59694076,0.90429366,0.42255086,0.060857296,0
-6.0347981,2.3118865,-1.854197,-0.39417481,0.88116944,-0.26108727,0
6.0639229,-1.321182,0.62492132,0.90429366,0.42255086,0.060857296,0
1.1222582,5.9823761,-0.37746763,-0.39417481,0.88116944,-0.26108727,0
-2.1866117,4.5849495,-0.63608003,-0.39417481,0.88116944,-0.26108727,0
2.5093946,-3.1060219,2.0928979,-0.16394821,0.21211123,0.96339494,0
-3.9495263,3.380619,-1.629756,-0.39417481,0.88116944,-0.26108727,0
4.319571,2.3601816,1.2161014,0.90429366,0.42255086,0.060857296,0
-3.8631651,-3.3188622,-0.47851419,-0.90429366,-0.42255086,-0.060857296,0
1.1229134,2.5968969,-1.4063244,0.16394821,-0.21211123,-0.96339494,0
2.7396541,-3.8252211,1.8002222,0.39417481,-0.88116944,0.26108727,0
-5.4633856,0.1554482,-1.6157727,-0.90429366,-0.42255086,-0.060857296,0
-5.3954573,2.9220204,-1.4119153,-0.39417481,0.88116944,-0.26108727,0
-0.22830009,-2.307411,1.4284503,-0.16394821,0.21211123,0.96339494,0
2.067441,-2.0660906,-0.15513849,0.16394821,-0.21211123,-0.96339494,0
5.1298842,-1.5690081,0.089307785,0.16394821,-0.21211123,-0.96339494,0
3.0696766,5.3309827,-1.1767118,0.90429366,0.42255086,0.060857296,0
1.9626589,4.8568697,-1.7241603,0.16394821,-0.21211123,-0.96339494,0
-2.8169999,4.2569466,-0.44127059,-0.39417481,0.88116944,-0.26108727,0
-5.7903686,0.70062995,-0.46216297,-0.90429366,-0.42255086,-0.060857296,0
3.4390073,0.53587842,-0.55388856,0.16394821,-0.21211123,-0.96339494,0
0.46945095,5.6127648,-0.96126801,-0.39417481,0.88116944,-0.26108727,0
0.50971162,1.9085166,0.72690982,-0.16394821,0.21211123,0.96339494,0
-3.3485076,3.8097577,-1.0814815,-0.39417481,0.88116944,-0.26108727,0
-1.1125989,4.6762748,-1.7887583,-0.39417481,0.88116944,-0.26108727,0
5.7094407,-0.67302763,1.7647095,0.90429366,0.42255086,0.060857296,0
2.5661278,6.5420303,-1.1481471,-0.39417481,0.88116944,-0.26108727,0
2.9978271,5.305768,-0.84708285,0.90429366,0.42255086,0.060857296,0
4.5613999,2.0318122,0.62417603,0.90429366,0.42255086,0.060857296,0
2.9991465,2.2268744,-1.0714645,0.16394821,-0.21211123,-0.96339494,0
-3.1961212,-0.85589743,0.71234345,-0.16394821,0.21211123,0.96339494,0
-5.1371622,-0.66615438,-0.17196608,-0.90429366,-0.42255086,-0.060857296,0
-6.2178063,1.5321929,-1.0892606,-0.90429366,-0.42255086,-0.060857296,0
4.1129937,2.9645634,0.59092426,0.90429366,0.42255086,0.060857296,0
-1.3926907,-5.3069706,-0.13991952,0.16394821,-0.21211123,-0.96339494,0
-2.7255425,-6.2264252,1.7961652,-0.90429366,-0.42255086,-0.060857296,0
-0.64803219,-5.6415119,1.0995002,0.39417481,-0.88116944,0.26108727,0
-3.2194571,-4.9814649,0.56128764,-0.90429366,-0.42255086,-0.060857296,0
-2.4341676,-2.4469843,-0.98425221,0.16394821,-0.21211123,-0.96339494,0
3.7218227,-3.5172153,1.476335,0.39417481,-0.88116944,0.26108727,0
-5.5609207,1.8597418,-2.4220939,0.16394821,-0.21211123,-0.96339494,0
-5.5932465,2.541142,-2.3862047,-0.39417481,0.88116944,-0.26108727,0
-5.9569902,1.2595429,-0.82456255,-0.90429366,-0.42255086,-0.060857296,0
0.63520122,-3.8983383,-0.13791978,0.16394821,-0.21211123,-0.96339494,0
-5.1213498,0.68274307,0.018585682,-0.16394821,0.21211123,0.96339494,0
4.0873709,-3.3950834,1.7888279,0.39417481,-0.88116944,0.26108727,0
5.3165536,0.56147838,0.050209045,0.90429366,0.42255086,0.060857296,0
0.30314815,1.5350803,0.76933521,-0.16394821,0.21211123,0.96339494,0
5.9241838,-0.93265462,1.4511733,0.90429366,0.42255086,0.060857296,0
2.2753267,-4.5399189,0.75595903,0.39417481,-0.88116944,0.26108727,0
2.0496132,-0.25420982,1.4445812,-0.16394821,0.21211123,0.96339494,0
4.1183815,-3.4923544,0.87738228,0.39417481,-0.88116944,0.26108727,0
-0.0038640499,-0.32119614,1.1078386,-0.16394821,0.21211123,0.96339494,0
4.4498291,2.152379,-0.17606163,0.90429366,0.42255086,0.060857296,0
-3.6091723,3.9001293,-0.53638935,-0.39417481,0.88116944,-0.26108727,0
2.102232,6.383667,-0.56663609,-0.39417481,0.88116944,-0.26108727,0
-6.4338646,2.2356014,-1.0581126,-0.90429366,-0.42255086,-0.060857296,0
-0.14968252,-5.3863087,1.025687,0.39417481,-0.88116944,0.26108727,0
-3.4715939,-4.5262437,-0.051913977,-0.90429366,-0.42255086,-0.060857296,0
