-2.1623337,1.4530474,1.4894063,-0.1472396,0.97268379,-0.17946309,0
4.7086372,-0.32286465,-0.8977375,0.51250327,0.23021024,0.82725072,0
-2.0206618,-1.6063166,1.7310219,0.1472396,-0.97268379,0.17946309,0
4.0027637,0.56376094,-2.9613409,0.84596753,0.029828615,-0.53239977,0
-0.74751532,-0.27868289,2.3345332,0.51250327,0.23021024,0.82725072,0
-4.4401312,1.2837702,2.3355379,-0.84596753,-0.029828615,0.53239977,0
4.11093,0.23050064,-2.6731257,0.84596753,0.029828615,-0.53239977,0
-4.309731,-0.42310935,2.5407171,-0.84596753,-0.029828615,0.53239977,0
3.7999885,-1.1585765,-3.3028369,0.84596753,0.029828615,-0.53239977,0
4.2954278,-1.1513299,-2.4633355,0.84596753,0.029828615,-0.53239977,0
-0.55447382,0.26229537,-1.5182496,-0.51250327,-0.23021024,-0.82725072,0
-0.51546705,-1.2837003,1.9539577,0.1472396,-0.97268379,0.17946309,0
-2.8665614,-0.85507917,0.16925097,-0.51250327,-0.23021024,-0.82725072,0
-4.2937679,-1.8930888,1.4215236,-0.51250327,-0.23021024,-0.82725072,0
2.9709616,0.83692384,-0.18766856,0.51250327,0.23021024,0.82725072,0
3.9800222,-1.5970919,-3.3444686,0.84596753,0.029828615,-0.53239977,0
1.9080878,1.1854388,-3.160079,-0.1472396,0.97268379,-0.17946309,0
4.3073034,1.3813474,-2.630477,0.84596753,0.029828615,-0.53239977,0
4.8553123,-0.86073101,-1.6844196,0.84596753,0.029828615,-0.53239977,0
1.2836785,0.14475185,-2.6165807,-0.51250327,-0.23021024,-0.82725072,0
-1.4510955,0.99950588,-1.2415209,-0.51250327,-0.23021024,-0.82725072,0
4.2653317,1.0677649,-2.3809867,0.84596753,0.029828615,-0.53239977,0
1.3206382,1.6690607,-0.61535108,-0.1472396,0.97268379,-0.17946309,0
-1.2494509,-1.3519959,-0.66272801,-0.51250327,-0.23021024,-0.82725072,0
3.8713455,0.55689466,-3.1973248,0.84596753,0.029828615,-0.53239977,0
-0.77186018,0.38769799,-1.4653032,-0.51250327,-0.23021024,-0.82725072,0
1.8950427,-0.68720043,0.9124769,0.51250327,0.23021024,0.82725072,0
0.8439098,-1.3460488,0.044323146,0.1472396,-0.97268379,0.17946309,0
1.8752129,1.7617333,-0.58019352,-0.1472396,0.97268379,-0.17946309,0
-0.62657225,-1.7426704,-0.20384653,0.1472396,-0.97268379,0.17946309,0
0.55982316,-1.0681586,-1.8050789,-0.51250327,-0.23021024,-0.82725072,0
-3.6894772,1.4894301,2.8942204,-0.1472396,0.97268379,-0.17946309,0
-0.29335189,-0.27555206,-1.5049809,-0.51250327,-0.23021024,-0.82725072,0
-4.6419644,-0.56096923,1.8564548,-0.84596753,-0.029828615,0.53239977,0
-4.092124,-1.8620324,2.1789455,0.1472396,-0.97268379,0.17946309,0
0.43137598,0.40921873,-2.0946951,-0.51250327,-0.23021024,-0.82725072,0
1.8964316,-0.097578198,0.57597911,0.51250327,0.23021024,0.82725072,0
3.7381055,-1.0403659,-3.6330485,0.84596753,0.029828615,-0.53239977,0
-4.623313,1.1360881,2.0043659,-0.84596753,-0.029828615,0.53239977,0
-3.1723223,-1.3081625,4.2263803,0.51250327,0.23021024,0.82725072,0
3.4664392,0.72355878,-3.7351494,0.84596753,0.029828615,-0.53239977,0
2.222537,1.3752651,-2.9825399,-0.1472396,0.97268379,-0.17946309,0
-4.2252717,-0.95942187,2.6090918,-0.84596753,-0.029828615,0.53239977,0
3.2712169,-1.3341727,-1.566134,0.1472396,-0.97268379,0.17946309,0
3.8738878,0.25781107,-3.1475945,0.84596753,0.029828615,-0.53239977,0
4.7699966,0.66861445,-1.7639356,0.84596753,0.029828615,-0.53239977,0
0.65700418,1.4908192,-1.1464107,-0.1472396,0.97268379,-0.17946309,0
-2.4180603,1.3081001,0.34178877,-0.1472396,0.97268379,-0.17946309,0
3.4763298,1.8160312,-1.2722094,-0.1472396,0.97268379,-0.17946309,0
-4.7200751,-0.95612669,1.7123628,-0.84596753,-0.029828615,0.53239977,0
0.78655016,0.75925159,-2.5431836,-0.51250327,-0.23021024,-0.82725072,0
4.6863513,0.96360928,-1.8898735,0.84596753,0.029828615,-0.53239977,0
1.9200041,1.3585366,-2.4584167,-0.1472396,0.97268379,-0.17946309,0
4.3739982,-0.71956563,-2.4456382,0.84596753,0.029828615,-0.53239977,0
-0.94299364,-0.074730396,-1.1138989,-0.51250327,-0.23021024,-0.82725072,0
-5.1942,0.41736764,1.3208609,-0.84596753,-0.029828615,0.53239977,0
3.4898791,-1.5485066,-2.6955342,0.1472396,-0.97268379,0.17946309,0
-4.7690029,-1.5335838,1.7434344,-0.84596753,-0.029828615,0.53239977,0
3.769767,1.6927783,-2.2945328,-0.1472396,0.97268379,-0.17946309,0
4.6419148,-0.12526286,-2.1022372,0.84596753,0.029828615,-0.53239977,0
1.0389969,0.23394257,-2.4390388,-0.51250327,-0.23021024,-0.82725072,0
-1.8784077,-1.8336822,0.15494871,0.1472396,-0.97268379,0.17946309,0
-3.9723213,1.3474238,3.0852804,-0.84596753,-0.029828615,0.53239977,0
-1.6497638,1.5016919,0.81946516,-0.1472396,0.97268379,-0.17946309,0
0.61158895,0.87317336,1.2068741,0.51250327,0.23021024,0.82725072,0
4.0803089,0.4455809,-2.7460208,0.84596753,0.029828615,-0.53239977,0
-3.4208164,0.31048942,0.20759344,-0.51250327,-0.23021024,-0.82725072,0
-4.0487671,-0.62291354,2.9817395,-0.84596753,-0.029828615,0.53239977,0
-3.8492997,-1.1415554,3.3592548,-0.84596753,-0.029828615,0.53239977,0
-1.67826,0.03104198,-0.70789945,-0.51250327,-0.23021024,-0.82725072,0
3.759711,-0.80497622,-3.3192191,0.84596753,0.029828615,-0.53239977,0
3.885529,0.29260767,-3.2039499,0.84596753,0.029828615,-0.53239977,0
-4.311439,0.31259179,0.68549299,-0.51250327,-0.23021024,-0.82725072,0
1.794404,1.8044549,-0.13251829,-0.1472396,0.97268379,-0.17946309,0
-0.50965929,1.6065518,0.81435996,-0.1472396,0.97268379,-0.17946309,0
0.23217267,-1.5267218,0.15333845,0.1472396,-0.97268379,0.17946309,0
-4.4943953,-1.8364908,2.0631361,-0.84596753,-0.029828615,0.53239977,0
4.0640597,-1.2828817,-3.0652895,0.84596753,0.029828615,-0.53239977,0
0.99176145,1.816501,0.450647,-0.1472396,0.97268379,-0.17946309,0
4.7080212,-0.39355829,-1.8495188,0.84596753,0.029828615,-0.53239977,0
2.4837983,-1.2435137,-0.16184568,0.1472396,-0.97268379,0.17946309,0
-3.779506,-0.23353648,3.4083252,-0.84596753,-0.029828615,0.53239977,0
3.6278086,-0.60472059,-3.5173097,0.84596753,0.029828615,-0.53239977,0
-4.9917479,0.8893714,1.5700541,-0.84596753,-0.029828615,0.53239977,0
-4.2134047,0.95166147,2.6393752,-0.84596753,-0.029828615,0.53239977,0
-4.5481491,-0.58597982,2.1912827,-0.84596753,-0.029828615,0.53239977,0
-4.3488111,0.96004629,0.62686157,-0.1472396,0.97268379,-0.17946309,0
-0.21072376,1.510376,1.5151472,0.51250327,0.23021024,0.82725072,0
1.2117802,1.5687096,-1.3991361,-0.1472396,0.97268379,-0.17946309,0
-3.4273427,1.3038291,1.9606934,-0.1472396,0.97268379,-0.17946309,0
-2.9501476,1.2961775,1.4142857,-0.1472396,0.97268379,-0.17946309,0
-4.146143,-0.18632874,2.9076557,-0.84596753,-0.029828615,0.53239977,0
-1.2120259,-1.3115227,1.8707985,0.1472396,-0.97268379,0.17946309,0
-2.7591515,1.5678458,2.2589726,-0.1472396,0.97268379,-0.17946309,0
2.0775197,-1.4859018,-1.4926188,0.1472396,-0.97268379,0.17946309,0
-3.1479115,-1.762558,1.7052233,0.1472396,-0.97268379,0.17946309,0
-4.0788569,0.0006583631,2.9499106,-0.84596753,-0.029828615,0.53239977,0
-4.0738297,1.2217464,3.0773244,-0.84596753,-0.029828615,0.53239977,0
-3.3471603,-0.015081227,3.9841838,0.51250327,0.23021024,0.82725072,0
1.0951368,-1.0891755,-2.1165435,-0.51250327,-0.23021024,-0.82725072,0
-0.77425176,1.5817705,0.43928468,-0.1472396,0.97268379,-0.17946309,0
3.8616493,-1.044946,-3.2664909,0.84596753,0.029828615,-0.53239977,0
-2.8937905,-1.6240858,1.8003101,0.1472396,-0.97268379,0.17946309,0
-2.3227358,1.2896771,2.9464452,0.51250327,0.23021024,0.82725072,0
3.544759,0.13165772,-3.8040352,0.84596753,0.029828615,-0.53239977,0
-3.0437365,0.12843883,0.0016245842,-0.51250327,-0.23021024,-0.82725072,0
-4.5218158,-0.29601103,2.3058023,-0.84596753,-0.029828615,0.53239977,0
4.6368189,0.15367919,-2.1861553,0.84596753,0.029828615,-0.53239977,0
-3.9578991,1.3422518,3.3419728,-0.84596753,-0.029828615,0.53239977,0
-4.0760789,1.1146551,2.806901,-0.84596753,-0.029828615,0.53239977,0
-2.6546462,1.2575116,0.91667175,-0.1472396,0.97268379,-0.17946309,0
-1.3007058,0.13861179,-1.076068,-0.51250327,-0.23021024,-0.82725072,0
-4.363234,0.033031553,2.4385786,-0.84596753,-0.029828615,0.53239977,0
4.7478361,0.67589766,-1.9812922,0.84596753,0.029828615,-0.53239977,0
-4.0095277,-0.32903367,3.1601248,-0.84596753,-0.029828615,0.53239977,0
-1.0011709,-0.41785732,-1.0709844,-0.51250327,-0.23021024,-0.82725072,0
4.6377902,0.2816937,-1.9084783,0.84596753,0.029828615,-0.53239977,0
4.6247487,-0.32706025,-1.8946953,0.84596753,0.029828615,-0.53239977,0
4.2723122,-0.919595,-0.64965773,0.51250327,0.23021024,0.82725072,0
-3.245204,0.53884262,3.7401619,0.51250327,0.23021024,0.82725072,0
-3.3201811,-0.65053546,3.9850307,-0.84596753,-0.029828615,0.53239977,0
-0.360901,0.78413022,-1.9041647,-0.51250327,-0.23021024,-0.82725072,0
3.4187489,-0.22123636,-3.9407201,0.84596753,0.029828615,-0.53239977,0
-1.6004016,1.198709,-0.81027853,-0.1472396,0.97268379,-0.17946309,0
3.8197026,-1.3263884,-2.2996941,0.1472396,-0.97268379,0.17946309,0
-4.9213848,-0.84672046,1.6531434,-0.84596753,-0.029828615,0.53239977,0
-2.3299427,-1.5963207,0.14146423,-0.51250327,-0.23021024,-0.82725072,0
0.6891889,0.6772846,1.0908278,0.51250327,0.23021024,0.82725072,0
-4.1047187,-1.05435,2.9667702,-0.84596753,-0.029828615,0.53239977,0
-0.53700328,-1.2977703,-1.1467044,-0.51250327,-0.23021024,-0.82725072,0
4.9067197,-0.30126792,-1.4775372,0.84596753,0.029828615,-0.53239977,0
-2.8204589,0.047530472,3.4556379,0.51250327,0.23021024,0.82725072,0
0.5214377,1.6239076,0.5012731,-0.1472396,0.97268379,-0.17946309,0
-0.31074375,-1.4869207,0.32799459,0.1472396,-0.97268379,0.17946309,0
3.1677229,-0.22812682,-0.14200234,0.51250327,0.23021024,0.82725072,0
-4.571537,-1.6153775,2.1276813,-0.84596753,-0.029828615,0.53239977,0
2.7608061,1.6347798,-1.4398587,-0.1472396,0.97268379,-0.17946309,0
-3.0698607,0.51901519,3.5958891,0.51250327,0.23021024,0.82725072,0
-1.3167453,1.4415563,0.017376661,-0.1472396,0.97268379,-0.17946309,0
0.10785943,-1.1809291,1.3816164,0.1472396,-0.97268379,0.17946309,0
1.4813913,-1.7573832,-2.0801613,0.1472396,-0.97268379,0.17946309,0
-4.1744032,0.70185351,2.9750428,-0.84596753,-0.029828615,0.53239977,0
-0.44597185,1.6339368,0.64622796,-0.1472396,0.97268379,-0.17946309,0
-1.139627,-1.3622135,2.269254,0.1472396,-0.97268379,0.17946309,0
-4.0058322,-1.1665916,0.96457791,-0.51250327,-0.23021024,-0.82725072,0
-3.0696497,1.0959219,0.41027474,-0.1472396,0.97268379,-0.17946309,0
4.4741435,-0.10014574,-2.1904335,0.84596753,0.029828615,-0.53239977,0
3.9708099,-1.2449234,-3.0564961,0.84596753,0.029828615,-0.53239977,0
-4.0063186,-1.8622391,1.1000762,-0.51250327,-0.23021024,-0.82725072,0
0.3450352,0.54150283,-2.160553,-0.51250327,-0.23021024,-0.82725072,0
-2.7979617,-0.43819314,0.15290022,-0.51250327,-0.23021024,-0.82725072,0
2.3423998,0.46103483,0.25121033,0.51250327,0.23021024,0.82725072,0
-1.9176383,-1.5357393,1.4713526,0.1472396,-0.97268379,0.17946309,0
-0.5712893,1.0809028,1.7672347,0.51250327,0.23021024,0.82725072,0
4.8821292,-0.52851909,-1.6289458,0.84596753,0.029828615,-0.53239977,0
3.2982619,-1.5165898,-3.0031466,0.1472396,-0.97268379,0.17946309,0
1.4605469,1.6754097,0.5040971,0.51250327,0.23021024,0.82725072,0
3.1657827,0.023944974,-3.8875284,-0.51250327,-0.23021024,-0.82725072,0
-0.035715342,0.6403091,-1.8996909,-0.51250327,-0.23021024,-0.82725072,0
1.612406,0.27940905,-2.9572706,-0.51250327,-0.23021024,-0.82725072,0
-1.1299024,1.5115931,0.99942219,-0.1472396,0.97268379,-0.17946309,0
0.70018768,-1.28104,0.87480974,0.1472396,-0.97268379,0.17946309,0
0.22811329,1.4037766,-1.0557139,-0.1472396,0.97268379,-0.17946309,0
4.1231766,1.8078547,-1.819171,-0.1472396,0.97268379,-0.17946309,0
-4.9809723,-0.49155012,1.465229,-0.84596753,-0.029828615,0.53239977,0
-2.5919819,1.6028296,2.3820355,-0.1472396,0.97268379,-0.17946309,0
-4.7984715,-0.81051308,1.8453722,-0.84596753,-0.029828615,0.53239977,0
-0.72670621,0.22959077,-1.3536241,-0.51250327,-0.23021024,-0.82725072,0
1.8167655,-1.42319,-1.2551155,0.1472396,-0.97268379,0.17946309,0
-0.40615785,-0.80204523,2.2354267,0.51250327,0.23021024,0.82725072,0
-1.1312462,1.2800876,-0.73092389,-0.1472396,0.97268379,-0.17946309,0
-4.6013613,-1.6280643,1.4652052,-0.51250327,-0.23021024,-0.82725072,0
2.1699975,1.2262204,-2.9558065,-0.1472396,0.97268379,-0.17946309,0
-1.9880364,-0.44231108,-0.41372812,-0.51250327,-0.23021024,-0.82725072,0
-0.20635414,-0.60510457,2.0752184,0.51250327,0.23021024,0.82725072,0
4.831502,-0.61526805,-1.039175,0.51250327,0.23021024,0.82725072,0
-3.57565,1.2561808,1.8302717,-0.1472396,0.97268379,-0.17946309,0
-2.0583568,-1.562995,1.6143923,0.1472396,-0.97268379,0.17946309,0
4.4474106,-0.55952668,-2.4858274,0.84596753,0.029828615,-0.53239977,0
0.71778953,0.58554888,-2.3444967,-0.51250327,-0.23021024,-0.82725072,0
2.0979552,0.34007946,0.43648386,0.51250327,0.23021024,0.82725072,0
-4.5433064,-1.5716099,1.9669843,-0.84596753,-0.029828615,0.53239977,0
-2.5692074,1.1002572,0.030314684,-0.1472396,0.97268379,-0.17946309,0
-4.5009117,0.33989093,2.2591705,-0.84596753,-0.029828615,0.53239977,0
-3.6671562,-0.529495,3.6251855,-0.84596753,-0.029828615,0.53239977,0
2.7985508,1.1169362,-0.2992487,0.51250327,0.23021024,0.82725072,0
2.7899954,0.0066824853,0.091817617,0.51250327,0.23021024,0.82725072,0
-1.3895625,-1.5248705,1.5855342,0.1472396,-0.97268379,0.17946309,0
-4.4902391,-0.24462488,2.1122212,-0.84596753,-0.029828615,0.53239977,0
-4.0014029,-0.51042181,3.0822101,-0.84596753,-0.029828615,0.53239977,0
-0.31497717,-1.477308,-1.0947269,-0.51250327,-0.23021024,-0.82725072,0
4.1949449,1.8154141,-2.1794896,-0.1472396,0.97268379,-0.17946309,0
-3.793277,-0.84508914,0.83420396,-0.51250327,-0.23021024,-0.82725072,0
-2.2403717,1.5254984,1.7170072,-0.1472396,0.97268379,-0.17946309,0
4.5718584,0.77782065,-2.1552372,0.84596753,0.029828615,-0.53239977,0
1.8439722,-1.2177212,0.63586378,0.1472396,-0.97268379,0.17946309,0
-0.50551623,-0.18169317,-1.3338482,-0.51250327,-0.23021024,-0.82725072,0
-0.77563387,1.1731955,-0.83396882,-0.1472396,0.97268379,-0.17946309,0
0.80221409,-0.50663269,1.5319042,0.51250327,0.23021024,0.82725072,0
-4.4235554,-0.69077998,2.3812652,-0.84596753,-0.029828615,0.53239977,0
-1.6691362,0.75985444,2.5584476,0.51250327,0.23021024,0.82725072,0
1.1162932,-1.080278,1.4115597,0.51250327,0.23021024,0.82725072,0
0.17745692,-1.3963372,0.21741879,0.1472396,-0.97268379,0.17946309,0
4.4969621,0.91363275,-2.1723495,0.84596753,0.029828615,-0.53239977,0
1.3606362,0.94359171,-2.89222,-0.51250327,-0.23021024,-0.82725072,0
-4.4345317,0.61860776,2.501225,-0.84596753,-0.029828615,0.53239977,0
-3.1707461,1.524442,2.0265424,-0.1472396,0.97268379,-0.17946309,0
4.0413103,0.0056742132,-3.0290103,0.84596753,0.029828615,-0.53239977,0
4.4095292,0.60127527,-2.4940171,0.84596753,0.029828615,-0.53239977,0
4.0715365,-1.2228688,-1.9892521,0.1472396,-0.97268379,0.17946309,0
3.5231686,0.29776722,-3.6088033,0.84596753,0.029828615,-0.53239977,0
1.3101299,1.5678566,-1.0750524,-0.1472396,0.97268379,-0.17946309,0
-4.3229628,-0.22952047,0.95862293,-0.51250327,-0.23021024,-0.82725072,0
-4.7366834,-1.3491719,1.8154202,-0.84596753,-0.029828615,0.53239977,0
3.3389626,1.3468442,-3.513082,-0.1472396,0.97268379,-0.17946309,0
-4.7089,0.30009845,1.9018574,-0.84596753,-0.029828615,0.53239977,0
-3.640394,-1.3613232,0.80488467,-0.51250327,-0.23021024,-0.82725072,0
5.08041,-0.97062278,-1.560215,0.84596753,0.029828615,-0.53239977,0
-4.2558584,-1.2967231,1.1300402,-0.51250327,-0.23021024,-0.82725072,0
2.7215276,-0.90211678,0.42349935,0.51250327,0.23021024,0.82725072,0
4.6910815,-0.23865624,-1.9928188,0.84596753,0.029828615,-0.53239977,0
-1.0177112,-1.6900313,0.2259661,0.1472396,-0.97268379,0.17946309,0
-2.6574864,-0.71857369,3.6073399,0.51250327,0.23021024,0.82725072,0
4.3115258,0.51377189,-2.6228228,0.84596753,0.029828615,-0.53239977,0
2.8653617,0.34340003,-0.042521715,0.51250327,0.23021024,0.82725072,0
-4.7182894,-1.6464733,1.8360643,-0.84596753,-0.029828615,0.53239977,0
4.7429476,-0.088632703,-1.7928624,0.84596753,0.029828615,-0.53239977,0
-3.8591511,1.1399152,3.4092293,-0.84596753,-0.029828615,0.53239977,0
3.0745018,-1.4237174,-1.5191047,0.1472396,-0.97268379,0.17946309,0
-4.0937152,0.85431004,2.9540963,-0.84596753,-0.029828615,0.53239977,0
3.9245071,-0.12174471,-3.2195325,0.84596753,0.029828615,-0.53239977,0
3.8301246,0.26728845,-3.115418,0.84596753,0.029828615,-0.53239977,0
5.0446177,-0.91125989,-1.2840152,0.84596753,0.029828615,-0.53239977,0
-0.048032522,-0.50109255,-1.7014928,-0.51250327,-0.23021024,-0.82725072,0
3.629034,1.1075433,-3.5007644,0.84596753,0.029828615,-0.53239977,0
0.49909002,1.5182071,-1.0338103,-0.1472396,0.97268379,-0.17946309,0
-4.6611533,-1.6197215,1.7379346,-0.84596753,-0.029828615,0.53239977,0
2.5613952,-1.0274305,-3.1933804,-0.51250327,-0.23021024,-0.82725072,0
-1.1989685,1.3135793,-0.15415275,-0.1472396,0.97268379,-0.17946309,0
-2.8412924,1.3430361,1.4457989,-0.1472396,0.97268379,-0.17946309,0
-1.861707,0.30330569,-0.78850877,-0.51250327,-0.23021024,-0.82725072,0
-0.62073588,1.2555584,-1.2253585,-0.1472396,0.97268379,-0.17946309,0
-4.2468462,1.2857656,2.5611253,-0.84596753,-0.029828615,0.53239977,0
-3.0382075,0.99822724,0.011183023,-0.1472396,0.97268379,-0.17946309,0
-1.9427536,1.2127641,-0.089390278,-0.1472396,0.97268379,-0.17946309,0
-2.2120035,1.2313414,0.26985359,-0.1472396,0.97268379,-0.17946309,0
4.3035307,-0.71421891,-2.4602952,0.84596753,0.029828615,-0.53239977,0
2.8473928,-1.0639118,0.33474004,0.1472396,-0.97268379,0.17946309,0
1.0521175,-1.1330974,1.5100363,0.51250327,0.23021024,0.82725072,0
1.9090595,0.27799448,0.63064152,0.51250327,0.23021024,0.82725072,0
0.87961334,0.87033403,0.9406212,0.51250327,0.23021024,0.82725072,0
4.0063562,-0.53658652,-3.2366047,0.84596753,0.029828615,-0.53239977,0
4.9408884,-1.0050199,-1.2384896,0.1472396,-0.97268379,0.17946309,0
1.0062276,-1.2237557,0.84497797,0.1472396,-0.97268379,0.17946309,0
-3.4295435,-1.0524584,3.9394712,-0.84596753,-0.029828615,0.53239977,0
0.58816755,-0.60380834,-2.0603747,-0.51250327,-0.23021024,-0.82725072,0
-0.43917713,1.5316572,-0.048209339,-0.1472396,0.97268379,-0.17946309,0
5.0012941,-0.52562064,-1.380115,0.84596753,0.029828615,-0.53239977,0
-3.6141515,-1.7342513,2.3620672,0.1472396,-0.97268379,0.17946309,0
0.015707135,-1.250098,1.3694204,0.1472396,-0.97268379,0.17946309,0
3.6785598,-0.86545718,-3.5901723,0.84596753,0.029828615,-0.53239977,0
-4.0203958,1.3004247,3.1789675,-0.84596753,-0.029828615,0.53239977,0
-3.564394,0.94428325,0.22019553,-0.51250327,-0.23021024,-0.82725072,0
-2.7129564,-0.73022747,3.6191187,0.51250327,0.23021024,0.82725072,0
1.2398486,-0.37399927,-2.5686514,-0.51250327,-0.23021024,-0.82725072,0
-3.736176,-0.97051483,0.66192174,-0.51250327,-0.23021024,-0.82725072,0
4.5751462,0.77582771,-1.9922633,0.84596753,0.029828615,-0.53239977,0
-1.9885882,-1.6917485,0.0076584816,-0.51250327,-0.23021024,-0.82725072,0
4.7176256,1.2133065,-1.7268591,0.84596753,0.029828615,-0.53239977,0
2.8901935,-0.47560287,0.13283515,0.51250327,0.23021024,0.82725072,0
3.6908245,0.42600596,-3.4964194,0.84596753,0.029828615,-0.53239977,0
-1.1266164,-0.49146807,2.6387072,0.51250327,0.23021024,0.82725072,0
-4.2540355,0.61067194,0.54587483,-0.51250327,-0.23021024,-0.82725072,0
2.0701296,-1.0235472,-2.7393811,-0.51250327,-0.23021024,-0.82725072,0
1.1641042,-1.6576362,-1.5386641,0.1472396,-0.97268379,0.17946309,0
1.6590495,-1.7323303,-2.2376904,0.1472396,-0.97268379,0.17946309,0
4.7013845,-0.41122371,-1.8021126,0.84596753,0.029828615,-0.53239977,0
-1.4292154,1.8192439,2.1481674,-0.1472396,0.97268379,-0.17946309,0
-3.4090848,-0.58917338,0.46489596,-0.51250327,-0.23021024,-0.82725072,0
-4.3649564,-1.0056279,2.4665375,-0.84596753,-0.029828615,0.53239977,0
-0.99633849,-1.4320295,1.2274516,0.1472396,-0.97268379,0.17946309,0
2.4896295,-1.2613964,-0.96230984,0.1472396,-0.97268379,0.17946309,0
3.2734361,-1.0912707,-3.5165081,-0.51250327,-0.23021024,-0.82725072,0
-0.15396202,1.2579505,-1.0750207,-0.1472396,0.97268379,-0.17946309,0
-2.7457397,0.48298198,-0.21868443,-0.51250327,-0.23021024,-0.82725072,0
5.0123887,-0.99084449,-1.2812939,0.1472396,-0.97268379,0.17946309,0
4.3330789,-0.41681617,-0.63517523,0.51250327,0.23021024,0.82725072,0
4.0781674,-0.9581601,-2.9300504,0.84596753,0.029828615,-0.53239977,0
2.6243296,-0.59146118,0.33996403,0.51250327,0.23021024,0.82725072,0
4.8432078,-0.21259713,-1.5216374,0.84596753,0.029828615,-0.53239977,0
-4.2055016,-1.5606523,2.6943841,-0.84596753,-0.029828615,0.53239977,0
4.6634636,1.5756145,-1.7262745,0.84596753,0.029828615,-0.53239977,0
-0.52435124,-1.2978289,2.1595993,0.1472396,-0.97268379,0.17946309,0
-4.2419868,-1.2294554,1.0886674,-0.51250327,-0.23021024,-0.82725072,0
-3.7419043,-1.4973752,2.9790778,0.1472396,-0.97268379,0.17946309,0
-4.3897862,-1.604442,2.2659397,-0.84596753,-0.029828615,0.53239977,0
0.35440493,-0.93288636,-1.7049881,-0.51250327,-0.23021024,-0.82725072,0
3.8173773,-0.006021291,-3.2754278,0.84596753,0.029828615,-0.53239977,0
-2.7040901,1.6975461,2.6284065,-0.1472396,0.97268379,-0.17946309,0
4.5402908,-0.45650804,-0.83860397,0.51250327,0.23021024,0.82725072,0
-0.79282743,1.6382148,0.73759449,-0.1472396,0.97268379,-0.17946309,0
-3.8358364,0.3584066,3.3681035,-0.84596753,-0.029828615,0.53239977,0
4.0948563,-0.3124927,-2.7186246,0.84596753,0.029828615,-0.53239977,0
3.9433677,1.9291612,-1.0545235,0.51250327,0.23021024,0.82725072,0
3.7050447,-1.2116477,-3.4323339,0.84596753,0.029828615,-0.53239977,0
3.8814926,-0.96375346,-0.58453226,0.1472396,-0.97268379,0.17946309,0
4.8035336,-0.34803033,-1.7246008,0.84596753,0.029828615,-0.53239977,0
-4.633604,-1.2342197,1.999094,-0.84596753,-0.029828615,0.53239977,0
-1.549747,-0.1139635,-0.74931443,-0.51250327,-0.23021024,-0.82725072,0
-3.606514,-1.5406629,3.4810004,-0.84596753,-0.029828615,0.53239977,0
0.9501642,1.4912512,-1.4288841,-0.1472396,0.97268379,-0.17946309,0
4.4775748,0.33313918,-2.3149724,0.84596753,0.029828615,-0.53239977,0
3.3501759,-0.47196609,-0.12825131,0.51250327,0.23021024,0.82725072,0
2.4697425,1.6173291,-1.7622421,-0.1472396,0.97268379,-0.17946309,0
-4.4831114,-1.6579515,2.0280366,-0.84596753,-0.029828615,0.53239977,0
-4.1104765,0.68638003,2.9250569,-0.84596753,-0.029828615,0.53239977,0
4.6983323,1.6763563,-1.8839216,0.84596753,0.029828615,-0.53239977,0
0.34646046,-1.116711,1.8348341,0.51250327,0.23021024,0.82725072,0
-4.3697276,-0.81393641,2.5677462,-0.84596753,-0.029828615,0.53239977,0
-1.8143907,1.7410804,2.126307,-0.1472396,0.97268379,-0.17946309,0
1.1547923,1.1980808,-2.6444886,-0.1472396,0.97268379,-0.17946309,0
4.0840173,1.8359388,-1.5590601,-0.1472396,0.97268379,-0.17946309,0
3.4485281,0.79157817,-3.9396691,0.84596753,0.029828615,-0.53239977,0
-3.0762961,1.6137685,2.631691,-0.1472396,0.97268379,-0.17946309,0
4.8943081,-0.23168972,-1.7495618,0.84596753,0.029828615,-0.53239977,0
2.4808786,-0.98617411,-3.1425061,-0.51250327,-0.23021024,-0.82725072,0
0.30143046,0.21136324,1.4972222,0.51250327,0.23021024,0.82725072,0
-4.2896962,0.66174972,2.6186309,-0.84596753,-0.029828615,0.53239977,0
-1.6764953,-1.6885422,0.28731608,0.1472396,-0.97268379,0.17946309,0
-0.93765426,1.3178478,-0.18662989,-0.1472396,0.97268379,-0.17946309,0
-4.5731354,-0.45605898,1.9232254,-0.84596753,-0.029828615,0.53239977,0
0.41867724,-1.4010224,0.87488103,0.1472396,-0.97268379,0.17946309,0
1.9695356,-1.5763592,-1.3299282,0.1472396,-0.97268379,0.17946309,0
3.9887824,-0.62460464,-3.2506256,0.84596753,0.029828615,-0.53239977,0
-0.8856703,-0.68637443,2.620532,0.51250327,0.23021024,0.82725072,0
4.0812969,0.98587453,-2.9118156,0.84596753,0.029828615,-0.53239977,0
-1.7820082,1.1873106,-0.046622276,-0.1472396,0.97268379,-0.17946309,0
4.4350348,-0.038322691,-2.3498406,0.84596753,0.029828615,-0.53239977,0
2.4588418,1.8219348,-0.22181296,-0.1472396,0.97268379,-0.17946309,0
-2.1429615,1.3574262,2.8707438,0.51250327,0.23021024,0.82725072,0
-1.6364508,-0.23711714,-0.80523962,-0.51250327,-0.23021024,-0.82725072,0
2.4482625,1.682796,-1.5858023,-0.1472396,0.97268379,-0.17946309,0
-2.4832354,-1.768846,0.11523867,-0.51250327,-0.23021024,-0.82725072,0
2.7991641,-1.3285711,-1.469228,0.1472396,-0.97268379,0.17946309,0
2.338737,-0.68907058,0.6331619,0.51250327,0.23021024,0.82725072,0
3.4523458,-1.1043147,-3.7343898,-0.51250327,-0.23021024,-0.82725072,0
4.5639534,1.4353344,-2.0075278,0.84596753,0.029828615,-0.53239977,0
4.2775259,0.67123497,-2.6634674,0.84596753,0.029828615,-0.53239977,0
3.641906,0.6063714,-3.559587,0.84596753,0.029828615,-0.53239977,0
-0.93768454,1.2766261,1.976177,0.51250327,0.23021024,0.82725072,0
4.8710012,-0.91258526,-1.8438239,0.84596753,0.029828615,-0.53239977,0
-4.0484376,-0.85536635,2.8055878,-0.84596753,-0.029828615,0.53239977,0
-0.76840305,1.5292232,1.7822459,0.51250327,0.23021024,0.82725072,0
-3.3254681,-0.97888637,0.45010138,-0.51250327,-0.23021024,-0.82725072,0
2.9300542,1.3996422,-3.1676326,-0.1472396,0.97268379,-0.17946309,0
0.41664922,0.37861842,-2.2881539,-0.51250327,-0.23021024,-0.82725072,0
-3.2358632,0.53000015,3.7019491,0.51250327,0.23021024,0.82725072,0
-3.4442637,1.404458,2.4649572,-0.1472396,0.97268379,-0.17946309,0
-1.4735074,-0.47723961,2.9558389,0.51250327,0.23021024,0.82725072,0
-1.9560326,-0.34517747,3.1294291,0.51250327,0.23021024,0.82725072,0
4.7118931,-0.60160297,-1.0317631,0.51250327,0.23021024,0.82725072,0
-0.74107867,1.6497937,1.1063703,-0.1472396,0.97268379,-0.17946309,0
4.3202252,-1.1064515,-1.0952177,0.1472396,-0.97268379,0.17946309,0
0.35376,-1.5259517,-0.54435766,0.1472396,-0.97268379,0.17946309,0
-2.6777315,-1.3057634,0.22641206,-0.51250327,-0.23021024,-0.82725072,0
-3.6210353,-0.87384474,3.5260463,-0.84596753,-0.029828615,0.53239977,0
4.3693233,0.36401594,-2.5724812,0.84596753,0.029828615,-0.53239977,0
-3.494432,-0.51938498,3.8863311,-0.84596753,-0.029828615,0.53239977,0
-3.442466,-0.090761364,3.8104424,-0.84596753,-0.029828615,0.53239977,0
5.0086141,0.16876733,-1.5915213,0.84596753,0.029828615,-0.53239977,0
3.0667326,-0.29340512,0.02413559,0.51250327,0.23021024,0.82725072,0
-4.8617668,0.3508288,1.6984048,-0.84596753,-0.029828615,0.53239977,0
-1.1280723,1.5149488,0.63299966,-0.1472396,0.97268379,-0.17946309,0
-3.441596,1.4922653,3.0748329,-0.1472396,0.97268379,-0.17946309,0
0.46388555,0.041900724,1.5415924,0.51250327,0.23021024,0.82725072,0
-4.4416924,-0.78768295,2.2645092,-0.84596753,-0.029828615,0.53239977,0
0.90994143,0.41366583,-2.5596089,-0.51250327,-0.23021024,-0.82725072,0
-4.2711482,-0.8845529,0.97540951,-0.51250327,-0.23021024,-0.82725072,0
4.2610898,0.584077,-2.5183945,0.84596753,0.029828615,-0.53239977,0
4.4013996,-0.55682486,-0.83635712,0.51250327,0.23021024,0.82725072,0
0.93010128,1.1556227,-2.6513944,-0.51250327,-0.23021024,-0.82725072,0
-4.313035,-1.4187268,2.3242397,-0.84596753,-0.029828615,0.53239977,0
-4.6643996,-0.1832844,2.0006647,-0.84596753,-0.029828615,0.53239977,0
-4.4799714,1.1941363,2.2084198,-0.84596753,-0.029828615,0.53239977,0
1.1971722,1.4163438,-1.6246015,-0.1472396,0.97268379,-0.17946309,0
-2.2111056,-1.4237701,2.3275819,0.1472396,-0.97268379,0.17946309,0
3.0023057,1.6457384,-1.6485288,-0.1472396,0.97268379,-0.17946309,0
3.9710045,-0.47261074,-3.2723141,0.84596753,0.029828615,-0.53239977,0
4.6048818,0.77733791,-1.8456697,0.84596753,0.029828615,-0.53239977,0
4.966537,0.8572942,-1.6017184,0.84596753,0.029828615,-0.53239977,0
0.38965952,1.6001436,-0.15764505,-0.1472396,0.97268379,-0.17946309,0
4.6375008,0.056241214,-1.9625702,0.84596753,0.029828615,-0.53239977,0
1.2999288,1.1635249,0.64437008,0.51250327,0.23021024,0.82725072,0
-1.595667,1.5589721,1.8298781,-0.1472396,0.97268379,-0.17946309,0
0.50812018,-1.2664446,0.93383116,0.1472396,-0.97268379,0.17946309,0
3.6533136,-0.62663639,-3.4592371,0.84596753,0.029828615,-0.53239977,0
2.1098392,-0.39592516,-3.1299393,-0.51250327,-0.23021024,-0.82725072,0
-3.0040426,-1.6040561,2.5432358,0.1472396,-0.97268379,0.17946309,0
-4.6212888,-1.185128,1.9299512,-0.84596753,-0.029828615,0.53239977,0
0.11244845,0.46082819,1.6488647,0.51250327,0.23021024,0.82725072,0
2.7692437,-0.0067334175,-3.5435624,-0.51250327,-0.23021024,-0.82725072,0
0.5917365,1.1283214,1.0928581,0.51250327,0.23021024,0.82725072,0
2.3963785,-0.55045575,-3.1866975,-0.51250327,-0.23021024,-0.82725072,0
2.7100453,-1.2996948,-3.0118103,-0.51250327,-0.23021024,-0.82725072,0
-2.7069583,-1.4553412,2.4289289,0.1472396,-0.97268379,0.17946309,0
-3.017767,-1.2038267,4.07794,0.51250327,0.23021024,0.82725072,0
-3.8208418,-1.6554158,0.94766259,-0.51250327,-0.23021024,-0.82725072,0
3.2610757,-0.2272965,-3.7898273,-0.51250327,-0.23021024,-0.82725072,0
-4.9678721,-0.065991588,1.3534336,-0.84596753,-0.029828615,0.53239977,0
0.56950134,-1.365743,0.73068774,0.1472396,-0.97268379,0.17946309,0
-4.0982318,-0.82337165,2.9541101,-0.84596753,-0.029828615,0.53239977,0
-2.8525143,1.6575568,3.1159158,0.51250327,0.23021024,0.82725072,0
3.6509848,-1.0769403,-0.78447008,0.1472396,-0.97268379,0.17946309,0
4.1984992,-0.5098238,-2.8418598,0.84596753,0.029828615,-0.53239977,0
-1.5583587,1.0680079,-0.7465111,-0.1472396,0.97268379,-0.17946309,0
0.910519,-0.23822853,-2.2785842,-0.51250327,-0.23021024,-0.82725072,0
3.7232368,1.3908604,-3.3085966,0.84596753,0.029828615,-0.53239977,0
-4.2672343,1.2046182,2.7582765,-0.84596753,-0.029828615,0.53239977,0
0.71356118,-1.2989633,-1.8988619,-0.51250327,-0.23021024,-0.82725072,0
-1.7839388,1.2049487,2.6182926,0.51250327,0.23021024,0.82725072,0
0.70494497,1.2268659,-1.932798,-0.1472396,0.97268379,-0.17946309,0
3.8986683,-1.2559885,-1.5988545,0.1472396,-0.97268379,0.17946309,0
-0.93604338,1.5629823,1.3612593,-0.1472396,0.97268379,-0.17946309,0
2.273998,-0.1249145,0.50087035,0.51250327,0.23021024,0.82725072,0
-4.4129033,0.033614378,2.2895317,-0.84596753,-0.029828615,0.53239977,0
4.4390416,-1.0400467,-1.1381955,0.1472396,-0.97268379,0.17946309,0
-0.36199212,-1.2630988,1.5138162,0.1472396,-0.97268379,0.17946309,0
2.5322418,1.801718,-0.36693096,-0.1472396,0.97268379,-0.17946309,0
-0.10923541,-0.74875534,2.2071729,0.51250327,0.23021024,0.82725072,0
4.3017836,-1.2269382,-2.4433093,0.84596753,0.029828615,-0.53239977,0
-3.7129233,-1.0362813,3.5621929,-0.84596753,-0.029828615,0.53239977,0
3.3253775,-1.5507275,-2.5702114,0.1472396,-0.97268379,0.17946309,0
-2.2298069,-0.6819694,3.2940173,0.51250327,0.23021024,0.82725072,0
1.4340628,-0.66523838,-2.5981009,-0.51250327,-0.23021024,-0.82725072,0
4.9016566,-0.57799888,-1.5771327,0.84596753,0.029828615,-0.53239977,0
-2.6708188,1.696236,2.7891085,-0.1472396,0.97268379,-0.17946309,0
-4.3529344,-0.18283924,0.9646554,-0.51250327,-0.23021024,-0.82725072,0
-0.10363376,0.48461241,-1.7856388,-0.51250327,-0.23021024,-0.82725072,0
-0.90401202,0.68911517,-1.4292369,-0.51250327,-0.23021024,-0.82725072,0
3.0449905,1.2490177,-3.849143,-0.1472396,0.97268379,-0.17946309,0
-0.5138464,-1.6436698,0.37728149,0.1472396,-0.97268379,0.17946309,0
-4.1319747,1.1731379,2.7248077,-0.84596753,-0.029828615,0.53239977,0
-2.0769203,1.4304507,2.699158,0.51250327,0.23021024,0.82725072,0
4.7007356,-0.22269887,-1.7579107,0.84596753,0.029828615,-0.53239977,0
-4.4535236,0.26971102,0.98458958,-0.51250327,-0.23021024,-0.82725072,0
-2.0493128,1.2287388,2.8340719,0.51250327,0.23021024,0.82725072,0
1.7165179,-0.26335514,-2.7565129,-0.51250327,-0.23021024,-0.82725072,0
-3.7691944,-0.50702792,0.74074268,-0.51250327,-0.23021024,-0.82725072,0
2.8935401,1.5374274,-2.6203265,-0.1472396,0.97268379,-0.17946309,0
-0.73624301,0.25472349,-1.5064416,-0.51250327,-0.23021024,-0.82725072,0
4.6120844,-0.45907184,-1.9643579,0.84596753,0.029828615,-0.53239977,0
-4.65099,-0.92220008,2.0210571,-0.84596753,-0.029828615,0.53239977,0
2.3763828,-0.36864424,-3.2280877,-0.51250327,-0.23021024,-0.82725072,0
-0.87574595,-1.4128654,1.7806199,0.1472396,-0.97268379,0.17946309,0
4.9838781,-0.75764531,-1.4053397,0.84596753,0.029828615,-0.53239977,0
2.8567035,1.3436203,-3.7474442,-0.1472396,0.97268379,-0.17946309,0
2.6139131,-1.4071606,-1.3352673,0.1472396,-0.97268379,0.17946309,0
-1.2505211,-0.33081549,2.6576271,0.51250327,0.23021024,0.82725072,0
-4.3489923,0.16985363,2.6064448,-0.84596753,-0.029828615,0.53239977,0
-3.6740208,1.2500659,1.368511,-0.1472396,0.97268379,-0.17946309,0
-2.1153603,-1.8047516,0.30785644,0.1472396,-0.97268379,0.17946309,0
-4.6537223,-1.8393377,1.8701172,-0.84596753,-0.029828615,0.53239977,0
-0.97777563,-1.2274851,2.2306881,0.1472396,-0.97268379,0.17946309,0
2.0412478,-0.3748976,-2.9410017,-0.51250327,-0.23021024,-0.82725072,0
4.9979472,0.57387948,-1.3337169,0.51250327,0.23021024,0.82725072,0
3.5026984,-0.23836593,-3.6631289,0.84596753,0.029828615,-0.53239977,0
3.8163378,1.3209026,-3.215219,0.84596753,0.029828615,-0.53239977,0
-4.4322987,0.65115082,2.3873177,-0.84596753,-0.029828615,0.53239977,0
-3.1019187,0.56317168,3.461174,0.51250327,0.23021024,0.82725072,0
4.7998095,-0.36322883,-1.7464375,0.84596753,0.029828615,-0.53239977,0
-3.4941392,0.26902223,3.7083564,-0.84596753,-0.029828615,0.53239977,0
-2.7124341,1.3470283,1.0536821,-0.1472396,0.97268379,-0.17946309,0
-3.425565,-0.43882906,3.8271904,-0.84596753,-0.029828615,0.53239977,0
-2.4604516,-1.3269197,3.7359185,0.1472396,-0.97268379,0.17946309,0
4.0508819,0.10832187,-0.62038875,0.51250327,0.23021024,0.82725072,0
0.24709395,1.3092107,-0.92223835,-0.1472396,0.97268379,-0.17946309,0
0.088671923,-0.042793512,1.8709527,0.51250327,0.23021024,0.82725072,0
2.3821182,-1.4292951,-0.87195826,0.1472396,-0.97268379,0.17946309,0
1.0157326,-0.5841347,1.3975044,0.51250327,0.23021024,0.82725072,0
-2.0650091,-1.3197613,3.3403454,0.1472396,-0.97268379,0.17946309,0
1.6985557,0.63345575,-2.9579396,-0.51250327,-0.23021024,-0.82725072,0
4.5783129,0.4959659,-2.2047205,0.84596753,0.029828615,-0.53239977,0
-3.8156087,0.51093829,3.4458103,-0.84596753,-0.029828615,0.53239977,0
-4.0795803,1.1043365,1.5310025,-0.1472396,0.97268379,-0.17946309,0
4.8112402,-0.4508028,-1.8364215,0.84596753,0.029828615,-0.53239977,0
3.6361256,1.7314653,-1.8793168,-0.1472396,0.97268379,-0.17946309,0
1.5287535,-1.4842242,-0.78332925,0.1472396,-0.97268379,0.17946309,0
4.3460212,1.3239923,-2.5284162,0.84596753,0.029828615,-0.53239977,0
-4.0753651,1.1780249,3.1323352,-0.84596753,-0.029828615,0.53239977,0
3.6580262,1.9004648,-1.1954551,-0.1472396,0.97268379,-0.17946309,0
-4.6765103,0.085811049,1.0743074,-0.51250327,-0.23021024,-0.82725072,0
-3.3303876,0.36021852,3.6963458,0.51250327,0.23021024,0.82725072,0
-0.75232518,1.6532753,1.8487352,0.51250327,0.23021024,0.82725072,0
1.181464,0.50035316,0.94997442,0.51250327,0.23021024,0.82725072,0
3.2751822,1.2234548,-4.092329,0.84596753,0.029828615,-0.53239977,0
1.8243701,1.7047769,-0.92715192,-0.1472396,0.97268379,-0.17946309,0
-2.5894156,-1.4938935,2.8191757,0.1472396,-0.97268379,0.17946309,0
0.43393537,-1.6276745,-0.26577097,0.1472396,-0.97268379,0.17946309,0
-2.614532,0.35600036,3.4219213,0.51250327,0.23021024,0.82725072,0
4.0328727,-1.2064776,-1.9248743,0.1472396,-0.97268379,0.17946309,0
4.9919853,0.091556281,-1.5741749,0.84596753,0.029828615,-0.53239977,0
1.0675578,0.82423604,1.0426911,0.51250327,0.23021024,0.82725072,0
3.6237204,-1.0933741,-3.8072596,0.84596753,0.029828615,-0.53239977,0
-2.9254885,-1.4369421,0.46368527,-0.51250327,-0.23021024,-0.82725072,0
1.8413991,-0.91046983,-2.6750543,-0.51250327,-0.23021024,-0.82725072,0
-4.4624453,-1.3243951,2.1622787,-0.84596753,-0.029828615,0.53239977,0
-4.2346315,-1.682461,2.4419546,-0.84596753,-0.029828615,0.53239977,0
3.9081683,-0.46030515,-0.42396808,0.51250327,0.23021024,0.82725072,0
4.1857595,1.0175309,-2.8419709,0.84596753,0.029828615,-0.53239977,0
-3.4966908,-0.22574818,3.8613677,-0.84596753,-0.029828615,0.53239977,0
-4.8792777,-0.83323312,1.7407236,-0.84596753,-0.029828615,0.53239977,0
3.7293024,0.10416043,-3.5508041,0.84596753,0.029828615,-0.53239977,0
1.1382904,0.051665634,1.1754963,0.51250327,0.23021024,0.82725072,0
3.2012825,1.7923778,-1.1117752,-0.1472396,0.97268379,-0.17946309,0
-3.048841,-0.015420079,3.826519,0.51250327,0.23021024,0.82725072,0
5.0464869,-0.0019745827,-1.5183921,0.84596753,0.029828615,-0.53239977,0
-3.1351519,-1.5564144,2.7771893,0.1472396,-0.97268379,0.17946309,0
-0.0036166906,-0.37947518,2.0065238,0.51250327,0.23021024,0.82725072,0
4.6490116,0.035800878,-1.9126101,0.84596753,0.029828615,-0.53239977,0
2.2153158,-0.60237712,-3.0936217,-0.51250327,-0.23021024,-0.82725072,0
3.3168697,0.86569297,-4.1175809,0.84596753,0.029828615,-0.53239977,0
3.7251704,0.68659723,-3.6137857,0.84596753,0.029828615,-0.53239977,0
-4.7802134,-1.1503757,1.809031,-0.84596753,-0.029828615,0.53239977,0
-4.1991382,1.1716689,1.0996137,-0.1472396,0.97268379,-0.17946309,0
-4.304163,-1.5941683,2.4411368,-0.84596753,-0.029828615,0.53239977,0
-0.3313483,0.21013445,-1.6963158,-0.51250327,-0.23021024,-0.82725072,0
2.1162071,-1.6845982,-2.5917835,0.1472396,-0.97268379,0.17946309,0
1.8858585,-1.2572236,-0.42034137,0.1472396,-0.97268379,0.17946309,0
4.2588472,-0.66969341,-2.8369398,0.84596753,0.029828615,-0.53239977,0
-4.2913785,0.38134116,2.4628453,-0.84596753,-0.029828615,0.53239977,0
-2.3792377,-1.3325422,2.6136658,0.1472396,-0.97268379,0.17946309,0
2.9416001,-1.6114361,-3.0200133,0.1472396,-0.97268379,0.17946309,0
2.6502471,-0.19459334,-3.4272876,-0.51250327,-0.23021024,-0.82725072,0
4.4813938,0.3180669,-2.34869,0.84596753,0.029828615,-0.53239977,0
-4.2630286,0.75037259,2.5800848,-0.84596753,-0.029828615,0.53239977,0
-1.3367966,1.3741951,-0.34742707,-0.1472396,0.97268379,-0.17946309,0
0.53422773,-1.5291861,-0.39948463,0.1472396,-0.97268379,0.17946309,0
-2.0376229,1.1630918,-0.29509497,-0.1472396,0.97268379,-0.17946309,0
-1.7941637,-0.61673224,-0.51182604,-0.51250327,-0.23021024,-0.82725072,0
2.2863836,1.3692694,-3.1710918,-0.1472396,0.97268379,-0.17946309,0
3.5149665,0.38533193,-3.7352881,0.84596753,0.029828615,-0.53239977,0
2.3364468,1.5717154,-0.019436359,0.51250327,0.23021024,0.82725072,0
-1.9523895,0.90845311,-0.75848287,-0.51250327,-0.23021024,-0.82725072,0
-0.50779557,0.15557814,-1.6539261,-0.51250327,-0.23021024,-0.82725072,0
-3.4455914,0.99361557,3.6031675,0.51250327,0.23021024,0.82725072,0
-2.2548347,-1.8820273,0.23681676,0.1472396,-0.97268379,0.17946309,0
1.0646768,-0.72801697,1.3999685,0.51250327,0.23021024,0.82725072,0
0.73325247,1.4585907,0.88815463,0.51250327,0.23021024,0.82725072,0
4.8610153,-1.1678522,-1.8699698,0.84596753,0.029828615,-0.53239977,0
-3.9660349,-1.8237197,1.5134816,0.1472396,-0.97268379,0.17946309,0
3.34971,-1.2583556,-1.5832222,0.1472396,-0.97268379,0.17946309,0
-4.9310498,-0.29265806,1.7211423,-0.84596753,-0.029828615,0.53239977,0
-2.0835257,-0.38277775,3.1003337,0.51250327,0.23021024,0.82725072,0
2.7105129,0.92833638,-3.6973305,-0.51250327,-0.23021024,-0.82725072,0
2.2699041,-1.3419391,-1.2440629,0.1472396,-0.97268379,0.17946309,0
2.0411508,-1.0422114,0.56835413,0.1472396,-0.97268379,0.17946309,0
4.7133126,-1.0625178,-2.0564885,0.84596753,0.029828615,-0.53239977,0
-1.4594066,0.26671708,-0.97427016,-0.51250327,-0.23021024,-0.82725072,0
-4.9358244,-0.30354148,1.62887,-0.84596753,-0.029828615,0.53239977,0
-4.3514652,-0.66172123,2.3448405,-0.84596753,-0.029828615,0.53239977,0
2.4654024,0.26212776,0.28964317,0.51250327,0.23021024,0.82725072,0
0.092663229,-1.2014076,1.3934286,0.1472396,-0.97268379,0.17946309,0
4.3511658,0.28127083,-2.587471,0.84596753,0.029828615,-0.53239977,0
4.3762937,-0.48162466,-0.76063299,0.51250327,0.23021024,0.82725072,0
-3.9333653,1.2369819,3.3565984,-0.84596753,-0.029828615,0.53239977,0
0.92038941,-1.7324715,-1.2649081,0.1472396,-0.97268379,0.17946309,0
-4.2333579,0.46760029,2.6955843,-0.84596753,-0.029828615,0.53239977,0
-3.3402057,0.45436698,3.8220029,0.51250327,0.23021024,0.82725072,0
2.6870127,0.44447827,-3.5986319,-0.51250327,-0.23021024,-0.82725072,0
4.1153822,0.71393216,-2.7163739,0.84596753,0.029828615,-0.53239977,0
-1.8697269,0.5832001,-0.9292345,-0.51250327,-0.23021024,-0.82725072,0
4.6150193,-1.0902592,-1.9630733,0.84596753,0.029828615,-0.53239977,0
1.196951,-1.1689869,1.3316659,0.1472396,-0.97268379,0.17946309,0
3.4442265,1.4263619,-3.0290594,-0.1472396,0.97268379,-0.17946309,0
-5.0676923,0.31972232,1.4718976,-0.84596753,-0.029828615,0.53239977,0
-1.2831328,1.5454029,1.4147782,-0.1472396,0.97268379,-0.17946309,0
3.8957112,-1.3836768,-2.6142759,0.1472396,-0.97268379,0.17946309,0
2.1903729,0.13412449,0.46149945,0.51250327,0.23021024,0.82725072,0
-4.0596228,-1.084228,2.8150892,-0.84596753,-0.029828615,0.53239977,0
4.6792512,-0.52289736,-1.8498192,0.84596753,0.029828615,-0.53239977,0
4.2153482,1.1439664,-1.0417886,0.51250327,0.23021024,0.82725072,0
-4.5078306,0.68630743,0.69035339,-0.51250327,-0.23021024,-0.82725072,0
3.5067,1.5807157,-3.2061172,-0.1472396,0.97268379,-0.17946309,0
-4.3930826,-0.23910239,2.4285626,-0.84596753,-0.029828615,0.53239977,0
4.3657064,1.3287147,-2.2147021,0.84596753,0.029828615,-0.53239977,0
-4.330472,0.47271711,2.6128821,-0.84596753,-0.029828615,0.53239977,0
-1.4199401,-0.31773987,-0.73874676,-0.51250327,-0.23021024,-0.82725072,0
-4.2107706,-1.6165093,2.4365873,-0.84596753,-0.029828615,0.53239977,0
-1.3216352,1.5560011,0.91147089,-0.1472396,0.97268379,-0.17946309,0
3.700629,0.12034507,-0.5579772,0.51250327,0.23021024,0.82725072,0
0.43110728,-0.74757278,1.7962254,0.51250327,0.23021024,0.82725072,0
-3.6796472,0.72905254,3.4555025,-0.84596753,-0.029828615,0.53239977,0
-1.8942913,1.454361,2.6876199,0.51250327,0.23021024,0.82725072,0
0.12651038,-0.48886535,-1.8156917,-0.51250327,-0.23021024,-0.82725072,0
0.41761196,0.51123172,1.3293321,0.51250327,0.23021024,0.82725072,0
-3.2306077,1.3054855,3.4468999,0.51250327,0.23021024,0.82725072,0
3.4285579,-0.86252916,-3.6892409,-0.51250327,-0.23021024,-0.82725072,0
-4.6615219,-1.5199085,1.9896231,-0.84596753,-0.029828615,0.53239977,0
3.1753135,1.9151949,-0.89826727,-0.1472396,0.97268379,-0.17946309,0
1.0422878,0.20165616,1.1079684,0.51250327,0.23021024,0.82725072,0
-0.52907413,-1.2679989,1.6144599,0.1472396,-0.97268379,0.17946309,0
3.1135709,1.6752036,-2.3629563,-0.1472396,0.97268379,-0.17946309,0
-2.7213767,-1.717659,1.8103466,0.1472396,-0.97268379,0.17946309,0
4.1194496,0.98714495,-2.7619457,0.84596753,0.029828615,-0.53239977,0
-3.7866788,-1.3315272,3.2401423,-0.84596753,-0.029828615,0.53239977,0
-3.7713361,0.35158116,3.3698916,-0.84596753,-0.029828615,0.53239977,0
-4.7869377,0.90424848,1.9688916,-0.84596753,-0.029828615,0.53239977,0
0.30119893,1.606245,-0.37149596,-0.1472396,0.97268379,-0.17946309,0
-2.9678433,-0.68645227,3.8616457,0.51250327,0.23021024,0.82725072,0
-2.1784594,0.93025243,-0.61015636,-0.51250327,-0.23021024,-0.82725072,0
4.558527,0.91107076,-2.1986346,0.84596753,0.029828615,-0.53239977,0
-3.124723,-0.20894742,3.8744802,0.51250327,0.23021024,0.82725072,0
-4.0966697,-0.64556813,2.7555585,-0.84596753,-0.029828615,0.53239977,0
1.0549108,1.7485037,0.56074178,0.51250327,0.23021024,0.82725072,0
-3.8651006,-1.5739501,3.0611396,0.1472396,-0.97268379,0.17946309,0
-2.9353399,1.2263486,3.3779922,0.51250327,0.23021024,0.82725072,0
-1.8211137,-1.472401,-0.23419893,-0.51250327,-0.23021024,-0.82725072,0
4.1953793,0.52751702,-2.5288,0.84596753,0.029828615,-0.53239977,0
-3.0513241,1.6588123,3.2894077,0.51250327,0.23021024,0.82725072,0
4.6519256,1.020118,-2.0574389,0.84596753,0.029828615,-0.53239977,0
3.2090683,-0.023131192,-3.9122043,-0.51250327,-0.23021024,-0.82725072,0
-2.8546176,-1.328161,3.6222601,0.1472396,-0.97268379,0.17946309,0
-2.4694848,1.2279384,0.59602189,-0.1472396,0.97268379,-0.17946309,0
-1.9249805,-1.5316367,-0.19315875,-0.51250327,-0.23021024,-0.82725072,0
-1.8498236,1.0063055,2.6582916,0.51250327,0.23021024,0.82725072,0
4.7493892,0.20763427,-1.9582839,0.84596753,0.029828615,-0.53239977,0
1.5227029,-0.40443388,-2.6546514,-0.51250327,-0.23021024,-0.82725072,0
4.4378886,-0.5476315,-2.3587971,0.84596753,0.029828615,-0.53239977,0
-4.4245553,0.10575818,2.2033143,-0.84596753,-0.029828615,0.53239977,0
-5.1256428,0.56944364,1.4604053,-0.84596753,-0.029828615,0.53239977,0
3.6079822,-0.196888,-0.41172266,0.51250327,0.23021024,0.82725072,0
-2.6576433,-1.7228855,1.4790261,0.1472396,-0.97268379,0.17946309,0
4.7072139,0.8462494,-1.7938313,0.84596753,0.029828615,-0.53239977,0
0.83735871,1.302362,-2.3938823,-0.1472396,0.97268379,-0.17946309,0
2.0759835,0.071379662,0.61256468,0.51250327,0.23021024,0.82725072,0
3.8455775,-0.99484634,-3.4142251,0.84596753,0.029828615,-0.53239977,0
-4.9070253,-0.73894292,1.4582658,-0.51250327,-0.23021024,-0.82725072,0
2.3411939,-0.54960549,0.57800162,0.51250327,0.23021024,0.82725072,0
-4.3772941,1.2756364,1.7788873,-0.1472396,0.97268379,-0.17946309,0
4.9608417,-0.53217083,-1.4027457,0.84596753,0.029828615,-0.53239977,0
-1.212343,-1.2968209,2.4536328,0.1472396,-0.97268379,0.17946309,0
-2.7138457,1.055065,-0.25239813,-0.1472396,0.97268379,-0.17946309,0
-0.23539877,0.94248617,-2.0362389,-0.51250327,-0.23021024,-0.82725072,0
3.0376222,-0.69941878,0.026837826,0.51250327,0.23021024,0.82725072,0
2.5457065,-1.617497,-3.0362406,0.1472396,-0.97268379,0.17946309,0
-0.014946222,1.3220944,-1.6271152,-0.1472396,0.97268379,-0.17946309,0
4.5657911,1.0751017,-2.2239709,0.84596753,0.029828615,-0.53239977,0
4.9814596,-0.95945668,-1.6172867,0.84596753,0.029828615,-0.53239977,0
1.7991638,-0.71267867,1.0172724,0.51250327,0.23021024,0.82725072,0
-2.3354349,-1.6522768,1.1503787,0.1472396,-0.97268379,0.17946309,0
-4.2236342,0.23194909,2.6900401,-0.84596753,-0.029828615,0.53239977,0
-2.2131603,-1.7592709,0.8112514,0.1472396,-0.97268379,0.17946309,0
-3.6658335,0.14214066,3.6326747,-0.84596753,-0.029828615,0.53239977,0
-1.0653315,-1.1932478,2.8659866,0.51250327,0.23021024,0.82725072,0
1.1471153,-1.2249802,0.96126741,0.1472396,-0.97268379,0.17946309,0
0.21086717,1.2581594,1.4287316,0.51250327,0.23021024,0.82725072,0
1.6003355,1.6855184,-0.80370724,-0.1472396,0.97268379,-0.17946309,0
-2.0083463,1.6300682,1.7447934,-0.1472396,0.97268379,-0.17946309,0
4.1726274,-1.1518373,-2.9767346,0.84596753,0.029828615,-0.53239977,0
1.4697295,1.2630178,-2.961452,-0.1472396,0.97268379,-0.17946309,0
2.2533746,-0.42828935,0.54611135,0.51250327,0.23021024,0.82725072,0
-4.7185268,-0.91413689,1.6888947,-0.84596753,-0.029828615,0.53239977,0
-4.770184,-0.9669323,1.6407599,-0.84596753,-0.029828615,0.53239977,0
-4.2216053,1.0222647,0.6016016,-0.1472396,0.97268379,-0.17946309,0
-1.6312726,1.3711193,2.5281925,0.51250327,0.23021024,0.82725072,0
-1.9979749,1.2846322,0.78117585,-0.1472396,0.97268379,-0.17946309,0
-3.3756042,1.6155688,3.4758835,0.51250327,0.23021024,0.82725072,0
2.2966964,-0.93149197,-3.0620949,-0.51250327,-0.23021024,-0.82725072,0
2.2008076,-1.5359985,-1.8300245,0.1472396,-0.97268379,0.17946309,0
-0.19566429,0.28635365,1.852495,0.51250327,0.23021024,0.82725072,0
4.2833104,1.193961,-2.3883305,0.84596753,0.029828615,-0.53239977,0
-4.2391367,0.95789677,2.5701222,-0.84596753,-0.029828615,0.53239977,0
1.2170477,1.5662545,-0.52949607,-0.1472396,0.97268379,-0.17946309,0
4.0430861,1.7058533,-2.0498991,-0.1472396,0.97268379,-0.17946309,0
-4.7365894,-1.7006494,1.8466644,-0.84596753,-0.029828615,0.53239977,0
3.3618722,-0.53369802,-3.6410685,-0.51250327,-0.23021024,-0.82725072,0
-2.1247225,1.3565577,2.6919551,0.51250327,0.23021024,0.82725072,0
-4.4757671,1.312698,2.2364521,-0.1472396,0.97268379,-0.17946309,0
-3.527595,-0.0053922534,3.8210144,-0.84596753,-0.029828615,0.53239977,0
-0.50084788,-1.6895419,-0.86552161,0.1472396,-0.97268379,0.17946309,0
2.000123,1.7199148,-0.3645066,-0.1472396,0.97268379,-0.17946309,0
2.4291129,-1.0576843,0.21573341,0.1472396,-0.97268379,0.17946309,0
-0.62871993,0.48161882,-1.647765,-0.51250327,-0.23021024,-0.82725072,0
2.7328961,-1.4764308,-1.5282416,0.1472396,-0.97268379,0.17946309,0
-4.2248001,0.77915847,2.8008418,-0.84596753,-0.029828615,0.53239977,0
-3.9251418,0.0052719414,0.54450226,-0.51250327,-0.23021024,-0.82725072,0
1.9163146,-1.5765228,-2.568001,-0.51250327,-0.23021024,-0.82725072,0
-3.9302444,0.97189283,3.3281627,-0.84596753,-0.029828615,0.53239977,0
1.7491452,-0.78362513,1.0121326,0.51250327,0.23021024,0.82725072,0
-4.7829652,1.0283134,1.8994431,-0.84596753,-0.029828615,0.53239977,0
1.1070014,1.3496569,-2.0344253,-0.1472396,0.97268379,-0.17946309,0
4.0047636,-1.5282301,-3.1924005,0.84596753,0.029828615,-0.53239977,0
1.1283,1.1420808,0.76295859,0.51250327,0.23021024,0.82725072,0
-1.0462145,1.366546,-0.58773816,-0.1472396,0.97268379,-0.17946309,0
-2.3380218,1.7380306,2.7929707,0.51250327,0.23021024,0.82725072,0
-4.1762471,1.1917645,2.8147688,-0.84596753,-0.029828615,0.53239977,0
1.1914017,-0.88837951,-2.2594936,-0.51250327,-0.23021024,-0.82725072,0
4.0126257,-0.42767942,-3.2175479,0.84596753,0.029828615,-0.53239977,0
