1.2435606,-0.78678811,-1.4715335,0.75244856,-0.30446991,-0.58405411,0
-1.0553867,0.31554988,1.8421495,-0.75244856,0.30446991,0.58405411,0
-2.5677006,-0.38284153,0.19336224,-0.75244856,0.30446991,0.58405411,0
1.2795676,-1.6389179,1.0561953,0.62072158,0.031227544,0.78340888,0
-0.4599843,-0.69160074,-1.5190154,-0.62072158,-0.031227544,-0.78340888,0
-1.6840178,1.0032723,0.65751731,-0.75244856,0.30446991,0.58405411,0
0.99822783,-1.8019831,-1.0439327,0.75244856,-0.30446991,-0.58405411,0
-0.3929573,2.0324755,1.8368182,0.22028588,0.95200992,-0.21248814,0
-1.6232762,-1.0112363,1.0642772,-0.22028588,-0.95200992,0.21248814,0
0.16932309,1.6874487,0.85209,0.22028588,0.95200992,-0.21248814,0
2.3428133,0.92925835,-0.10643524,0.22028588,0.95200992,-0.21248814,0
-1.1473095,1.9126869,1.0466061,-0.75244856,0.30446991,0.58405411,0
-1.5103896,0.29866365,-0.77678168,-0.62072158,-0.031227544,-0.78340888,0
0.93411571,-0.67685354,1.0988866,0.62072158,0.031227544,0.78340888,0
1.0866005,0.99841541,0.91946864,0.62072158,0.031227544,0.78340888,0
1.3976214,0.24250148,-1.6071482,0.75244856,-0.30446991,-0.58405411,0
1.0650251,0.6033839,1.0501097,0.62072158,0.031227544,0.78340888,0
-1.6880308,0.27437112,0.99859321,-0.75244856,0.30446991,0.58405411,0
2.3162901,-0.85851604,-0.021602392,0.75244856,-0.30446991,-0.58405411,0
0.56886631,-1.7707443,-0.39496073,-0.22028588,-0.95200992,0.21248814,0
0.84649593,0.063252494,1.1737514,0.62072158,0.031227544,0.78340888,0
-1.5075479,-1.3131657,-0.44550541,-0.22028588,-0.95200992,0.21248814,0
-1.0604544,-0.22248885,2.3197045,-0.75244856,0.30446991,0.58405411,0
2.4296327,0.55046266,-0.42386556,0.75244856,-0.30446991,-0.58405411,0
1.0821726,-0.16040136,0.96429855,0.62072158,0.031227544,0.78340888,0
-0.97784311,0.20078112,-1.0797777,-0.62072158,-0.031227544,-0.78340888,0
2.2773097,1.0111386,-0.23401517,0.22028588,0.95200992,-0.21248814,0
-1.2449296,-1.3625672,-0.73613846,-0.22028588,-0.95200992,0.21248814,0
-0.71953249,0.091760263,2.5006042,-0.75244856,0.30446991,0.58405411,0
0.49876863,-1.9112904,-0.94567853,-0.22028588,-0.95200992,0.21248814,0
0.22489071,1.0633624,1.8195828,0.62072158,0.031227544,0.78340888,0
0.87374663,-0.62751782,-2.1116765,0.75244856,-0.30446991,-0.58405411,0
0.5500381,-1.8865892,-0.84428567,-0.22028588,-0.95200992,0.21248814,0
1.1302421,-1.9616266,-0.59911448,-0.22028588,-0.95200992,0.21248814,0
-0.056957424,0.4104231,2.0302546,0.62072158,0.031227544,0.78340888,0
-2.243876,-0.80172437,0.95917284,-0.75244856,0.30446991,0.58405411,0
0.40938622,-0.37687895,1.7319162,0.62072158,0.031227544,0.78340888,0
-0.73926836,-1.4493761,-0.31202787,-0.22028588,-0.95200992,0.21248814,0
-1.6609445,0.75356531,0.75889593,-0.75244856,0.30446991,0.58405411,0
-1.3308179,-0.92442954,-0.76862192,-0.62072158,-0.031227544,-0.78340888,0
0.098838687,-0.91441309,1.7577138,0.62072158,0.031227544,0.78340888,0
1.1065304,-1.5279969,-1.1580145,0.75244856,-0.30446991,-0.58405411,0
-0.8030107,1.9623513,0.66719806,0.22028588,0.95200992,-0.21248814,0
-1.6483548,1.8309951,-0.49360111,0.22028588,0.95200992,-0.21248814,0
0.034337133,1.240036,-1.0024735,0.22028588,0.95200992,-0.21248814,0
-2.4674454,0.41887158,0.0041530132,-0.75244856,0.30446991,0.58405411,0
-0.992535,1.7111981,1.1798239,-0.75244856,0.30446991,0.58405411,0
-0.1200819,-0.35539624,2.0641522,0.62072158,0.031227544,0.78340888,0
0.77005392,0.71672148,1.1634467,0.62072158,0.031227544,0.78340888,0
0.26735753,-1.6579765,-0.093681499,-0.22028588,-0.95200992,0.21248814,0
2.2247272,-0.91783559,-0.10632885,0.75244856,-0.30446991,-0.58405411,0
1.8364251,-1.8684725,0.070568085,0.75244856,-0.30446991,-0.58405411,0
2.1785729,0.45616761,0.06549114,0.62072158,0.031227544,0.78340888,0
-1.107841,1.7075859,1.2490091,-0.75244856,0.30446991,0.58405411,0
-2.4119291,0.4017649,0.24770939,-0.75244856,0.30446991,0.58405411,0
-2.062428,1.5604997,0.050326884,-0.75244856,0.30446991,0.58405411,0
2.5503268,0.099160783,-0.10950553,0.75244856,-0.30446991,-0.58405411,0
0.63652879,-0.50187367,1.5195134,0.62072158,0.031227544,0.78340888,0
0.73414886,-0.33735803,-2.3633132,0.75244856,-0.30446991,-0.58405411,0
1.248371,-0.16792427,0.84517801,0.62072158,0.031227544,0.78340888,0
0.99773192,-1.5793617,1.2563746,-0.22028588,-0.95200992,0.21248814,0
2.1234586,0.91057974,0.16056466,0.62072158,0.031227544,0.78340888,0
-1.0428023,-0.48464763,-1.0342426,-0.62072158,-0.031227544,-0.78340888,0
1.1808333,0.32053095,-2.2004359,0.75244856,-0.30446991,-0.58405411,0
-0.14668056,-1.1503413,1.343372,-0.22028588,-0.95200992,0.21248814,0
-2.3275418,1.2505054,-0.071634531,-0.75244856,0.30446991,0.58405411,0
-1.3892198,-0.88795704,1.2463356,-0.22028588,-0.95200992,0.21248814,0
-2.3626878,-0.93037432,0.061057329,-0.62072158,-0.031227544,-0.78340888,0
1.4173203,-0.79684848,0.82452965,0.62072158,0.031227544,0.78340888,0
0.049605131,-1.6423624,-1.9525831,-0.62072158,-0.031227544,-0.78340888,0
2.15572,-0.94667399,0.28699297,0.62072158,0.031227544,0.78340888,0
1.0787705,1.5277585,0.49220997,0.22028588,0.95200992,-0.21248814,0
-1.9589068,0.43535247,0.52949882,-0.75244856,0.30446991,0.58405411,0
-1.5101743,0.19014534,1.5248328,-0.75244856,0.30446991,0.58405411,0
2.1465871,0.9987939,-0.80575663,0.22028588,0.95200992,-0.21248814,0
0.99138808,1.572297,0.91559267,0.22028588,0.95200992,-0.21248814,0
-0.92938781,-0.88507259,-1.1984599,-0.62072158,-0.031227544,-0.78340888,0
-1.0403676,0.9087404,1.628889,-0.75244856,0.30446991,0.58405411,0
-1.2889637,-0.45917869,1.918891,-0.75244856,0.30446991,0.58405411,0
-2.2696609,1.2825832,-0.15267539,-0.62072158,-0.031227544,-0.78340888,0
-0.38166898,0.026967376,2.1686559,0.62072158,0.031227544,0.78340888,0
-1.2699575,1.5972871,-1.0155516,0.22028588,0.95200992,-0.21248814,0
2.0764546,-1.5522721,0.18083632,0.75244856,-0.30446991,-0.58405411,0
-0.9062103,-1.2731407,0.08387287,-0.22028588,-0.95200992,0.21248814,0
-0.82067734,-0.52157521,-1.3140198,-0.62072158,-0.031227544,-0.78340888,0
-1.4043685,0.068143517,1.5738462,-0.75244856,0.30446991,0.58405411,0
0.28633177,-1.4624878,1.1118411,-0.22028588,-0.95200992,0.21248814,0
-0.38430792,-1.1407518,1.8731403,-0.22028588,-0.95200992,0.21248814,0
2.1047146,-1.5190463,0.24192131,0.75244856,-0.30446991,-0.58405411,0
1.3308465,-0.97218001,0.86510193,0.62072158,0.031227544,0.78340888,0
-0.10991359,0.93321961,1.9832337,0.62072158,0.031227544,0.78340888,0
-1.3457851,-1.2024262,0.23296577,-0.22028588,-0.95200992,0.21248814,0
-1.8928701,-0.52321428,-0.50905877,-0.62072158,-0.031227544,-0.78340888,0
-0.23095861,1.8788472,1.4132137,0.22028588,0.95200992,-0.21248814,0
0.22196694,-1.9521146,-1.4762855,-0.22028588,-0.95200992,0.21248814,0
-1.2017874,-0.27016994,2.1486082,-0.75244856,0.30446991,0.58405411,0
0.12135717,-0.5147891,-1.8918529,-0.62072158,-0.031227544,-0.78340888,0
-1.5381197,1.830351,0.34872115,-0.75244856,0.30446991,0.58405411,0
1.3113633,0.62103736,-2.1775222,0.75244856,-0.30446991,-0.58405411,0
0.76163608,-1.1675096,-1.7224689,0.75244856,-0.30446991,-0.58405411,0
-0.86487252,1.5172584,-1.0725126,0.22028588,0.95200992,-0.21248814,0
-0.74327481,0.26684183,-1.2263975,-0.62072158,-0.031227544,-0.78340888,0
1.2717246,0.13617204,-1.9909937,0.75244856,-0.30446991,-0.58405411,0
0.53132153,-1.1605517,-2.1101427,0.75244856,-0.30446991,-0.58405411,0
-1.5486419,-1.1069775,0.50161463,-0.22028588,-0.95200992,0.21248814,0
0.2263214,1.1413134,-1.3346436,0.22028588,0.95200992,-0.21248814,0
1.3562986,1.37544,0.2173681,0.22028588,0.95200992,-0.21248814,0
0.65802437,-1.9886737,-0.7189936,-0.22028588,-0.95200992,0.21248814,0
-0.24068129,1.8072114,0.94168937,0.22028588,0.95200992,-0.21248814,0
-0.23152483,1.264053,-1.3802626,0.22028588,0.95200992,-0.21248814,0
1.9474742,-1.3813596,0.49672711,0.62072158,0.031227544,0.78340888,0
0.90657568,-1.7713399,-1.1944776,0.75244856,-0.30446991,-0.58405411,0
1.087184,-1.6167279,1.1288395,-0.22028588,-0.95200992,0.21248814,0
1.6670864,-1.839484,-0.35182142,0.75244856,-0.30446991,-0.58405411,0
-0.87300575,1.0716579,-1.3914613,-0.62072158,-0.031227544,-0.78340888,0
-1.4915235,1.7242723,0.65111428,-0.75244856,0.30446991,0.58405411,0
-0.6997242,2.028235,1.2190342,0.22028588,0.95200992,-0.21248814,0
-0.67345417,-0.71710628,-1.3294156,-0.62072158,-0.031227544,-0.78340888,0
1.3168724,0.9200868,0.71217781,0.62072158,0.031227544,0.78340888,0
0.50434941,1.6988494,1.5623443,0.62072158,0.031227544,0.78340888,0
2.1591029,1.0822822,-0.34199309,0.22028588,0.95200992,-0.21248814,0
0.47091806,-1.996506,-1.737862,0.75244856,-0.30446991,-0.58405411,0
-2.0321739,1.1061612,-0.22410193,-0.62072158,-0.031227544,-0.78340888,0
-2.2634516,-0.90139323,0.86484253,-0.22028588,-0.95200992,0.21248814,0
0.83469063,-1.6669462,0.2976315,-0.22028588,-0.95200992,0.21248814,0
1.3337662,1.0261554,-1.5475919,0.22028588,0.95200992,-0.21248814,0
0.11499283,-1.208964,-1.8477188,-0.62072158,-0.031227544,-0.78340888,0
-0.70539546,-1.4621332,-1.2985353,-0.62072158,-0.031227544,-0.78340888,0
-1.9625115,1.2274876,-0.37531787,-0.62072158,-0.031227544,-0.78340888,0
-0.24061619,1.4164544,1.9830658,0.62072158,0.031227544,0.78340888,0
-0.2791912,2.0032032,2.0654948,0.62072158,0.031227544,0.78340888,0
1.669867,-0.40620583,0.63833642,0.62072158,0.031227544,0.78340888,0
-1.6870606,1.5922832,-0.63149828,-0.62072158,-0.031227544,-0.78340888,0
0.76983678,-0.13664322,-2.3667474,0.75244856,-0.30446991,-0.58405411,0
1.60826,-1.1438957,-0.65676457,0.75244856,-0.30446991,-0.58405411,0
-1.6978347,-0.049591981,-0.47798541,-0.62072158,-0.031227544,-0.78340888,0
-0.64587939,1.6257693,-0.0032599866,0.22028588,0.95200992,-0.21248814,0
-2.2309911,-0.55940002,0.84410387,-0.75244856,0.30446991,0.58405411,0
-0.60632968,0.76437199,2.1658998,-0.75244856,0.30446991,0.58405411,0
-0.43272489,0.34139118,2.3610485,0.62072158,0.031227544,0.78340888,0
1.4197582,-1.4841599,-0.95427781,0.75244856,-0.30446991,-0.58405411,0
-1.2024645,-0.88382256,-0.90816063,-0.62072158,-0.031227544,-0.78340888,0
-1.3423871,1.7946234,-0.58361959,0.22028588,0.95200992,-0.21248814,0
-0.32984295,1.4590524,-0.78551441,0.22028588,0.95200992,-0.21248814,0
0.91938663,0.73619026,-2.392873,0.22028588,0.95200992,-0.21248814,0
1.0359277,-1.7797058,0.33652243,-0.22028588,-0.95200992,0.21248814,0
-1.1818731,1.7761042,-0.51061106,0.22028588,0.95200992,-0.21248814,0
1.8186274,-0.65209574,0.40469974,0.62072158,0.031227544,0.78340888,0
2.2716899,-0.44442716,0.072202146,0.62072158,0.031227544,0.78340888,0
0.27548385,1.5546104,0.054019682,0.22028588,0.95200992,-0.21248814,0
1.612376,-0.72979748,-0.88202411,0.75244856,-0.30446991,-0.58405411,0
-0.61655134,-0.88766873,2.2208774,-0.22028588,-0.95200992,0.21248814,0
-0.78092754,-0.68951666,2.5465789,0.62072158,0.031227544,0.78340888,0
0.53568083,1.3881896,1.3913703,0.62072158,0.031227544,0.78340888,0
-2.1733541,1.2015786,-0.056683064,-0.75244856,0.30446991,0.58405411,0
-0.30518752,0.73923683,2.1084676,0.62072158,0.031227544,0.78340888,0
0.80021226,0.87969524,1.129132,0.62072158,0.031227544,0.78340888,0
-1.9497318,0.32671046,0.7701512,-0.75244856,0.30446991,0.58405411,0
-2.4415283,0.50179923,0.069540381,-0.75244856,0.30446991,0.58405411,0
-1.6717819,-1.1945146,-0.033361346,-0.22028588,-0.95200992,0.21248814,0
1.0900544,1.2154881,-0.88572669,0.22028588,0.95200992,-0.21248814,0
0.74928784,-0.92574424,-2.0008602,0.75244856,-0.30446991,-0.58405411,0
-1.4339474,0.91865706,-0.80658287,-0.62072158,-0.031227544,-0.78340888,0
0.71897638,-0.9786067,1.4097438,0.62072158,0.031227544,0.78340888,0
-0.54878831,0.070851028,2.4648876,0.62072158,0.031227544,0.78340888,0
-2.0838473,-0.75349993,1.1208003,-0.22028588,-0.95200992,0.21248814,0
0.66634947,-1.977113,-1.6541274,0.75244856,-0.30446991,-0.58405411,0
-1.6123221,1.8978884,-0.36839923,0.22028588,0.95200992,-0.21248814,0
1.9297278,-0.97698736,-0.58973801,0.75244856,-0.30446991,-0.58405411,0
-1.4209332,0.17665124,1.6629246,-0.75244856,0.30446991,0.58405411,0
1.3568311,-1.0728239,0.83230019,0.62072158,0.031227544,0.78340888,0
0.96320438,1.3065557,-0.30884176,0.22028588,0.95200992,-0.21248814,0
-0.59329993,0.46635228,2.2862315,-0.75244856,0.30446991,0.58405411,0
-0.0085274577,1.0465424,1.98385,0.62072158,0.031227544,0.78340888,0
-0.60324472,1.8728311,0.74962848,0.22028588,0.95200992,-0.21248814,0
2.0830035,-0.1430846,-0.5648343,0.75244856,-0.30446991,-0.58405411,0
1.1064081,-0.80710143,-1.7304358,0.75244856,-0.30446991,-0.58405411,0
1.8238103,-2.0255187,0.20125598,-0.22028588,-0.95200992,0.21248814,0
0.1125018,0.98082864,1.9054413,0.62072158,0.031227544,0.78340888,0
1.9064498,-0.23355559,0.30704337,0.62072158,0.031227544,0.78340888,0
-2.4809289,0.27738473,0.076463401,-0.75244856,0.30446991,0.58405411,0
-1.622479,1.3497305,0.55538142,-0.75244856,0.30446991,0.58405411,0
-0.81250286,-0.25203133,2.4446139,-0.75244856,0.30446991,0.58405411,0
-2.0780549,2.0606904,-0.30059439,-0.75244856,0.30446991,0.58405411,0
-0.036652774,-1.4327753,-1.8905036,-0.62072158,-0.031227544,-0.78340888,0
-0.18511212,1.3454062,1.9490215,0.62072158,0.031227544,0.78340888,0
-0.29726627,-0.96009338,2.1939538,0.62072158,0.031227544,0.78340888,0
2.3352518,-1.297928,0.14941877,0.75244856,-0.30446991,-0.58405411,0
-0.11890775,-1.1317949,-1.835696,-0.62072158,-0.031227544,-0.78340888,0
1.6414646,0.88329273,0.69207919,0.62072158,0.031227544,0.78340888,0
0.82979852,-1.4823756,1.3824891,0.62072158,0.031227544,0.78340888,0
-1.2440341,-1.4740407,-0.87987262,-0.22028588,-0.95200992,0.21248814,0
-2.2859595,-0.00080667436,-0.080398858,-0.62072158,-0.031227544,-0.78340888,0
-0.6958921,-1.1113257,1.0315778,-0.22028588,-0.95200992,0.21248814,0
-0.36901003,0.34069282,-1.6449318,-0.62072158,-0.031227544,-0.78340888,0
1.3947614,-0.65615213,-1.1915174,0.75244856,-0.30446991,-0.58405411,0
1.6744479,0.24525499,-1.4466782,0.75244856,-0.30446991,-0.58405411,0
0.48528016,1.6691507,0.9514246,0.22028588,0.95200992,-0.21248814,0
-1.9478965,0.7884056,0.4838084,-0.75244856,0.30446991,0.58405411,0
1.0093788,1.0227797,-1.6751435,0.22028588,0.95200992,-0.21248814,0
1.1098554,-1.7491997,0.4855769,-0.22028588,-0.95200992,0.21248814,0
-1.173125,2.0020893,0.40323293,0.22028588,0.95200992,-0.21248814,0
-0.42152476,-1.6169832,-0.63694811,-0.22028588,-0.95200992,0.21248814,0
0.85696769,-1.8828447,-1.4298868,0.75244856,-0.30446991,-0.58405411,0
-0.054037333,-1.295333,0.73341298,-0.22028588,-0.95200992,0.21248814,0
2.1242244,0.34363621,0.11054182,0.62072158,0.031227544,0.78340888,0
-0.46843016,-0.42906302,2.2957902,0.62072158,0.031227544,0.78340888,0
-0.47475684,-0.39182532,2.2523715,0.62072158,0.031227544,0.78340888,0
0.016210854,-1.0369394,1.854969,0.62072158,0.031227544,0.78340888,0
1.3893288,-1.6514726,-0.89992243,0.75244856,-0.30446991,-0.58405411,0
-1.783855,-0.89323175,1.1878755,-0.22028588,-0.95200992,0.21248814,0
0.0025465786,-1.7790506,-1.7816629,-0.62072158,-0.031227544,-0.78340888,0
-0.42496389,-0.29354936,-1.6084511,-0.62072158,-0.031227544,-0.78340888,0
1.1110024,1.3171521,0.44658417,0.22028588,0.95200992,-0.21248814,0
1.3447888,-0.56523979,-1.5230119,0.75244856,-0.30446991,-0.58405411,0
1.6352428,-0.34860688,-1.274328,0.75244856,-0.30446991,-0.58405411,0
1.1027313,-1.8147079,0.071034491,-0.22028588,-0.95200992,0.21248814,0
2.1907413,0.88091552,0.17333308,0.62072158,0.031227544,0.78340888,0
-2.251682,1.3856437,-0.095144391,-0.75244856,0.30446991,0.58405411,0
0.16916767,-1.8267072,-0.80279946,-0.22028588,-0.95200992,0.21248814,0
-1.8426263,-0.59349787,1.5124981,-0.75244856,0.30446991,0.58405411,0
-0.079898894,1.7042301,0.24391831,0.22028588,0.95200992,-0.21248814,0
1.7933941,-1.63262,0.66426492,0.62072158,0.031227544,0.78340888,0
1.8357527,-0.78278333,-0.51606059,0.75244856,-0.30446991,-0.58405411,0
-1.0325694,-0.048656017,2.1438127,-0.75244856,0.30446991,0.58405411,0
0.34652781,-2.0861642,-1.459686,-0.22028588,-0.95200992,0.21248814,0
0.25181586,0.8870579,-2.0545971,-0.62072158,-0.031227544,-0.78340888,0
-1.4463428,-0.7102164,1.9956474,-0.75244856,0.30446991,0.58405411,0
-0.21931219,-1.5990709,0.047725111,-0.22028588,-0.95200992,0.21248814,0
0.82655048,0.046297491,1.1777542,0.62072158,0.031227544,0.78340888,0
-1.5030591,-0.38303232,-0.62815487,-0.62072158,-0.031227544,-0.78340888,0
0.53540164,1.5541437,0.3748427,0.22028588,0.95200992,-0.21248814,0
1.2377552,1.2762045,-0.40279415,0.22028588,0.95200992,-0.21248814,0
0.61042857,1.3303308,-0.51825017,0.22028588,0.95200992,-0.21248814,0
2.4879339,-0.4746961,0.06603682,0.62072158,0.031227544,0.78340888,0
-0.88740659,-0.2732619,-1.3213272,-0.62072158,-0.031227544,-0.78340888,0
2.0008302,0.030862086,-0.9228673,0.75244856,-0.30446991,-0.58405411,0
-0.57948446,2.036212,1.7355604,-0.75244856,0.30446991,0.58405411,0
-0.34777617,0.51372808,-1.6777816,-0.62072158,-0.031227544,-0.78340888,0
-0.3043077,0.84995663,-1.5906656,-0.62072158,-0.031227544,-0.78340888,0
-1.4325415,-1.0886348,-0.71014857,-0.62072158,-0.031227544,-0.78340888,0
0.98309743,0.97568321,1.0599351,0.62072158,0.031227544,0.78340888,0
0.6324544,1.4991279,1.3951709,0.62072158,0.031227544,0.78340888,0
-0.70412993,-0.85094655,2.5860798,-0.22028588,-0.95200992,0.21248814,0
0.84302008,1.0463507,-1.3272371,0.22028588,0.95200992,-0.21248814,0
-1.801868,-0.56621057,1.3211086,-0.75244856,0.30446991,0.58405411,0
1.1427579,-1.9995511,-0.26487195,-0.22028588,-0.95200992,0.21248814,0
2.0336337,0.89501554,-0.81270897,0.22028588,0.95200992,-0.21248814,0
2.3946934,0.97767252,-0.40709609,0.22028588,0.95200992,-0.21248814,0
1.7406465,0.40032011,-1.5027092,0.75244856,-0.30446991,-0.58405411,0
0.044925809,-1.1974411,1.5371401,-0.22028588,-0.95200992,0.21248814,0
-1.863328,0.11595854,0.91271919,-0.75244856,0.30446991,0.58405411,0
2.329011,-0.22991282,0.037515938,0.62072158,0.031227544,0.78340888,0
1.4670573,-0.93200636,0.78226924,0.62072158,0.031227544,0.78340888,0
-1.4845916,0.63236248,1.0477871,-0.75244856,0.30446991,0.58405411,0
-1.1167428,1.9924859,0.9839291,0.22028588,0.95200992,-0.21248814,0
1.8939445,-1.4807914,0.49827212,0.62072158,0.031227544,0.78340888,0
-0.3617022,-0.37448972,-1.7396148,-0.62072158,-0.031227544,-0.78340888,0
-2.2469571,-0.38930863,-0.064218581,-0.62072158,-0.031227544,-0.78340888,0
-0.16619065,-1.4019657,0.64767867,-0.22028588,-0.95200992,0.21248814,0
2.2327149,-0.75912327,0.12908673,0.62072158,0.031227544,0.78340888,0
0.19896789,1.3921685,-1.0074677,0.22028588,0.95200992,-0.21248814,0
1.8181581,-1.681648,-0.075941265,0.75244856,-0.30446991,-0.58405411,0
0.7986443,-1.8989565,-1.3170779,0.75244856,-0.30446991,-0.58405411,0
-0.53664654,0.61290419,-1.5924853,-0.62072158,-0.031227544,-0.78340888,0
1.007852,-1.2011483,-1.552478,0.75244856,-0.30446991,-0.58405411,0
-0.61304116,-1.1672765,0.96723884,-0.22028588,-0.95200992,0.21248814,0
1.1022847,0.097745053,0.94521725,0.62072158,0.031227544,0.78340888,0
0.41799575,-0.25708658,1.4913145,0.62072158,0.031227544,0.78340888,0
0.94336843,1.3080595,-0.49262089,0.22028588,0.95200992,-0.21248814,0
0.69896221,0.066931874,1.3337172,0.62072158,0.031227544,0.78340888,0
-0.97750664,1.8043959,-0.18572085,0.22028588,0.95200992,-0.21248814,0
0.52087367,0.28414303,-2.3538442,-0.62072158,-0.031227544,-0.78340888,0
-1.1451623,-0.8463074,2.5301354,-0.22028588,-0.95200992,0.21248814,0
0.97518897,1.4036624,0.58568567,0.22028588,0.95200992,-0.21248814,0
-1.0192136,1.7703286,-0.32026082,0.22028588,0.95200992,-0.21248814,0
1.4241471,-0.43397796,0.73154485,0.62072158,0.031227544,0.78340888,0
2.2661605,0.26114863,-0.56784809,0.75244856,-0.30446991,-0.58405411,0
-1.0363849,1.5341798,-1.1433431,0.22028588,0.95200992,-0.21248814,0
-1.6801206,0.76151627,0.92148423,-0.75244856,0.30446991,0.58405411,0
1.5187593,0.58500564,-1.7533617,0.75244856,-0.30446991,-0.58405411,0
-0.76725423,-0.66294742,2.5335279,0.62072158,0.031227544,0.78340888,0
-1.4770497,-1.2099931,-0.75118935,-0.62072158,-0.031227544,-0.78340888,0
-1.861477,-0.0092046037,-0.40503278,-0.62072158,-0.031227544,-0.78340888,0
-0.80678028,-1.4423832,0.0029727817,-0.22028588,-0.95200992,0.21248814,0
-1.3802723,1.0964468,1.0109839,-0.75244856,0.30446991,0.58405411,0
0.99274975,1.2367666,-0.11243024,0.22028588,0.95200992,-0.21248814,0
0.33897907,0.59017336,1.5566981,0.62072158,0.031227544,0.78340888,0
-0.28961366,2.0027752,1.6184208,0.22028588,0.95200992,-0.21248814,0
1.4675317,-1.8811543,0.039381266,-0.22028588,-0.95200992,0.21248814,0
-1.3484118,1.798069,-0.43684807,0.22028588,0.95200992,-0.21248814,0
0.46519923,-0.61319953,-2.3264067,-0.62072158,-0.031227544,-0.78340888,0
-1.8602614,-0.90740603,-0.37674493,-0.62072158,-0.031227544,-0.78340888,0
-0.47605765,-1.5288767,-0.049642943,-0.22028588,-0.95200992,0.21248814,0
-1.3148918,-1.1066444,0.38776976,-0.22028588,-0.95200992,0.21248814,0
1.1998492,0.6188339,0.85345775,0.62072158,0.031227544,0.78340888,0
0.76553357,-0.59166169,-1.9761403,0.75244856,-0.30446991,-0.58405411,0
0.58806276,-1.9187245,-1.2838013,-0.22028588,-0.95200992,0.21248814,0
-2.0849667,1.3684536,-0.12444568,-0.75244856,0.30446991,0.58405411,0
-0.79338002,-1.6163071,-1.310958,-0.62072158,-0.031227544,-0.78340888,0
-1.8440151,-0.88510227,1.1440761,-0.22028588,-0.95200992,0.21248814,0
1.0300169,-1.2466444,1.1467872,0.62072158,0.031227544,0.78340888,0
1.6244847,0.90669668,-1.6594129,0.22028588,0.95200992,-0.21248814,0
-0.78410113,-0.90804839,2.2794201,-0.22028588,-0.95200992,0.21248814,0
-1.1343184,-0.33221263,2.027437,-0.75244856,0.30446991,0.58405411,0
-1.499261,0.73625422,0.97188652,-0.75244856,0.30446991,0.58405411,0
-0.032448232,-0.58957028,-1.7564528,-0.62072158,-0.031227544,-0.78340888,0
-0.27108642,-0.71755129,-1.6299658,-0.62072158,-0.031227544,-0.78340888,0
0.59469008,0.15706918,-2.3986742,-0.62072158,-0.031227544,-0.78340888,0
0.058213338,-1.7691641,-0.74056256,-0.22028588,-0.95200992,0.21248814,0
0.34140867,1.5881748,0.77179563,0.22028588,0.95200992,-0.21248814,0
-0.044028014,-1.3608764,0.81954193,-0.22028588,-0.95200992,0.21248814,0
-0.0071950555,-0.2053116,2.021539,0.62072158,0.031227544,0.78340888,0
-0.14011908,-1.4655144,-0.067819819,-0.22028588,-0.95200992,0.21248814,0
1.2916129,-1.611164,-0.88746655,0.75244856,-0.30446991,-0.58405411,0
1.0062196,-1.2975396,1.2150149,0.62072158,0.031227544,0.78340888,0
-2.6057315,-0.27658355,0.30866534,-0.75244856,0.30446991,0.58405411,0
1.3588889,0.83951682,-1.631165,0.22028588,0.95200992,-0.21248814,0
-2.0262485,0.3627843,0.58381921,-0.75244856,0.30446991,0.58405411,0
0.059267223,1.3594408,1.8355603,0.62072158,0.031227544,0.78340888,0
1.9848642,-0.24776134,0.37017,0.62072158,0.031227544,0.78340888,0
-1.8782436,-1.235655,-0.29647404,-0.22028588,-0.95200992,0.21248814,0
-0.35976669,-0.60357344,2.1185193,0.62072158,0.031227544,0.78340888,0
1.9311948,-1.1383841,-0.30601496,0.75244856,-0.30446991,-0.58405411,0
1.8972167,-0.84106177,-0.37862456,0.75244856,-0.30446991,-0.58405411,0
-0.36415416,-1.4376242,0.60991627,-0.22028588,-0.95200992,0.21248814,0
-0.17905313,-0.50954539,2.0447061,0.62072158,0.031227544,0.78340888,0
1.2996603,-1.151332,-0.99575722,0.75244856,-0.30446991,-0.58405411,0
-1.6276302,0.53738332,-0.74687028,-0.62072158,-0.031227544,-0.78340888,0
-0.51465952,-0.88308954,2.261584,0.62072158,0.031227544,0.78340888,0
-1.6923728,0.60403436,-0.56360584,-0.62072158,-0.031227544,-0.78340888,0
-2.293932,-0.66253453,0.81335676,-0.75244856,0.30446991,0.58405411,0
-1.1321273,1.9586538,0.82062972,0.22028588,0.95200992,-0.21248814,0
2.2281945,0.99238193,0.082617462,0.62072158,0.031227544,0.78340888,0
1.5708597,1.2827921,-0.10125491,0.22028588,0.95200992,-0.21248814,0
0.79584372,-0.1374907,-2.4075682,0.75244856,-0.30446991,-0.58405411,0
-2.2489645,0.55324405,0.11502016,-0.75244856,0.30446991,0.58405411,0
-0.37925464,-1.2564569,1.1516638,-0.22028588,-0.95200992,0.21248814,0
-1.6399808,1.7943151,-0.63389516,0.22028588,0.95200992,-0.21248814,0
-0.66387028,1.3489945,1.934592,-0.75244856,0.30446991,0.58405411,0
-0.31058541,-1.1454983,1.8442682,-0.22028588,-0.95200992,0.21248814,0
0.88118231,0.072238155,1.248121,0.62072158,0.031227544,0.78340888,0
1.5382643,-0.61749452,-0.99166238,0.75244856,-0.30446991,-0.58405411,0
-0.19078439,0.84720337,1.9208076,0.62072158,0.031227544,0.78340888,0
2.0391402,1.0264186,0.081894338,0.22028588,0.95200992,-0.21248814,0
0.13605034,1.1691904,-1.2833521,0.22028588,0.95200992,-0.21248814,0
0.23349428,-1.8632448,-1.3603399,-0.22028588,-0.95200992,0.21248814,0
1.1499215,0.1888631,0.98015285,0.62072158,0.031227544,0.78340888,0
1.0179075,-0.84906507,1.0667939,0.62072158,0.031227544,0.78340888,0
-0.97065616,-0.71159673,-1.0632796,-0.62072158,-0.031227544,-0.78340888,0
-1.0459727,-1.0680825,0.97715139,-0.22028588,-0.95200992,0.21248814,0
2.199008,-0.94912124,0.15486449,0.62072158,0.031227544,0.78340888,0
1.0294075,-0.16084503,1.1260844,0.62072158,0.031227544,0.78340888,0
-0.82047677,1.6045161,-0.60652852,0.22028588,0.95200992,-0.21248814,0
-0.85683948,0.16031766,2.1994195,-0.75244856,0.30446991,0.58405411,0
-0.20837753,1.3693577,1.8977106,0.62072158,0.031227544,0.78340888,0
-1.0268831,2.0761371,1.0093975,-0.75244856,0.30446991,0.58405411,0
2.5905807,0.58352524,-0.305031,0.75244856,-0.30446991,-0.58405411,0
-0.064817548,1.7238822,1.8550296,0.62072158,0.031227544,0.78340888,0
2.0179276,1.1282102,-0.049660265,0.22028588,0.95200992,-0.21248814,0
-0.87190199,1.3029506,-1.1525135,-0.62072158,-0.031227544,-0.78340888,0
1.9609333,-0.6224125,-0.63508469,0.75244856,-0.30446991,-0.58405411,0
1.3553479,-0.86833286,0.99699426,0.62072158,0.031227544,0.78340888,0
-1.3348382,1.6885566,-0.75412005,0.22028588,0.95200992,-0.21248814,0
0.52405614,-1.6272942,0.40561086,-0.22028588,-0.95200992,0.21248814,0
-1.524876,-0.98076355,1.1288742,-0.22028588,-0.95200992,0.21248814,0
-2.1746981,0.56384039,0.17821902,-0.75244856,0.30446991,0.58405411,0
1.3571945,1.2951113,-0.081628114,0.22028588,0.95200992,-0.21248814,0
-1.1810653,-1.2017885,0.80324382,-0.22028588,-0.95200992,0.21248814,0
-1.97805,1.5211972,-0.00038200617,-0.75244856,0.30446991,0.58405411,0
-1.9499085,1.2271661,0.16253603,-0.75244856,0.30446991,0.58405411,0
-0.46714619,-1.496762,-1.3581736,-0.62072158,-0.031227544,-0.78340888,0
-1.5086989,-1.1554171,0.085321933,-0.22028588,-0.95200992,0.21248814,0
-0.48176318,-0.44923371,2.4100342,0.62072158,0.031227544,0.78340888,0
-0.83199787,-0.33101797,2.4746211,-0.75244856,0.30446991,0.58405411,0
-0.64819396,0.56113225,-1.3344356,-0.62072158,-0.031227544,-0.78340888,0
2.2286813,1.1363564,-0.090756714,0.22028588,0.95200992,-0.21248814,0
1.1763985,-1.5579065,1.1550052,0.62072158,0.031227544,0.78340888,0
1.0193312,1.1157824,-0.88814074,0.22028588,0.95200992,-0.21248814,0
1.3339782,-0.51916534,-1.4657183,0.75244856,-0.30446991,-0.58405411,0
0.4817898,-1.9276221,-0.81843024,-0.22028588,-0.95200992,0.21248814,0
-0.30691448,1.4909612,-0.72907734,0.22028588,0.95200992,-0.21248814,0
0.87301469,0.88552189,1.0936103,0.62072158,0.031227544,0.78340888,0
0.78457111,-1.2404363,1.3390224,0.62072158,0.031227544,0.78340888,0
0.15865806,0.32022956,-2.0156412,-0.62072158,-0.031227544,-0.78340888,0
-2.1354687,-0.69178659,-0.27278566,-0.62072158,-0.031227544,-0.78340888,0
-0.83362019,0.14447387,2.3921475,-0.75244856,0.30446991,0.58405411,0
0.58695173,-0.17208618,1.437124,0.62072158,0.031227544,0.78340888,0
1.4997753,0.54358339,0.78052461,0.62072158,0.031227544,0.78340888,0
-0.72248322,-1.3014059,0.035080969,-0.22028588,-0.95200992,0.21248814,0
-2.1359797,1.7935387,-0.28111035,-0.75244856,0.30446991,0.58405411,0
-0.22213304,1.219166,-1.7146658,0.22028588,0.95200992,-0.21248814,0
0.19527248,1.3441049,-1.0111852,0.22028588,0.95200992,-0.21248814,0
0.7284677,-0.10635407,-2.2964835,0.75244856,-0.30446991,-0.58405411,0
1.8339801,-0.48585376,0.56580788,0.62072158,0.031227544,0.78340888,0
-1.5895846,-0.16758278,1.4446228,-0.75244856,0.30446991,0.58405411,0
0.26366687,-1.4661443,0.98403323,-0.22028588,-0.95200992,0.21248814,0
0.98283184,-1.8811357,-0.33024186,-0.22028588,-0.95200992,0.21248814,0
-1.9013449,0.80927312,-0.45912623,-0.62072158,-0.031227544,-0.78340888,0
0.80256349,-1.8939916,-0.45934504,-0.22028588,-0.95200992,0.21248814,0
-0.065350264,2.0512865,1.9822897,0.22028588,0.95200992,-0.21248814,0
-0.53552717,0.10304257,-1.4051231,-0.62072158,-0.031227544,-0.78340888,0
1.3710997,-1.3715155,-0.86951786,0.75244856,-0.30446991,-0.58405411,0
-0.83406919,-1.1910579,-1.2207279,-0.62072158,-0.031227544,-0.78340888,0
1.4897397,-1.8653975,0.31979018,-0.22028588,-0.95200992,0.21248814,0
-2.1173494,0.40801191,0.33456463,-0.75244856,0.30446991,0.58405411,0
-0.97566158,-1.22241,0.7402128,-0.22028588,-0.95200992,0.21248814,0
1.2857872,-1.5406795,0.9638381,0.62072158,0.031227544,0.78340888,0
-1.3035356,-1.0180036,0.80330211,-0.22028588,-0.95200992,0.21248814,0
1.9592849,1.1207633,0.27918404,0.62072158,0.031227544,0.78340888,0
0.14505619,1.8944399,1.4936519,0.22028588,0.95200992,-0.21248814,0
1.936783,-0.9490729,-0.36913329,0.75244856,-0.30446991,-0.58405411,0
0.095173836,1.6570312,0.68178046,0.22028588,0.95200992,-0.21248814,0
-1.2541405,1.8384731,0.95744246,-0.75244856,0.30446991,0.58405411,0
-0.06543225,0.018310323,1.8732188,0.62072158,0.031227544,0.78340888,0
1.8279846,0.93078232,-1.3183985,0.22028588,0.95200992,-0.21248814,0
0.92168379,-0.81442732,-1.6769575,0.75244856,-0.30446991,-0.58405411,0
0.14258242,-0.99789894,1.7880307,0.62072158,0.031227544,0.78340888,0
1.3751574,1.3537115,0.49157065,0.22028588,0.95200992,-0.21248814,0
-0.41802096,0.029895157,2.2159016,0.62072158,0.031227544,0.78340888,0
1.8092513,-0.94686955,0.51678658,0.62072158,0.031227544,0.78340888,0
1.0728725,1.0194693,-1.1998738,0.22028588,0.95200992,-0.21248814,0
0.75668228,1.4995477,0.7412746,0.22028588,0.95200992,-0.21248814,0
-1.654873,-1.2618194,-0.57699013,-0.62072158,-0.031227544,-0.78340888,0
1.0908631,-0.43277374,1.1571561,0.62072158,0.031227544,0.78340888,0
0.26550418,-1.8828965,-1.2776172,-0.22028588,-0.95200992,0.21248814,0
0.35844082,-1.4697256,0.98597389,-0.22028588,-0.95200992,0.21248814,0
-0.2287727,-1.1158849,1.4582454,-0.22028588,-0.95200992,0.21248814,0
-1.7607018,1.4153692,-0.64778054,-0.62072158,-0.031227544,-0.78340888,0
-0.61801887,-0.21745956,2.4689467,0.62072158,0.031227544,0.78340888,0
-1.3876755,-1.0263305,1.3650625,-0.22028588,-0.95200992,0.21248814,0
1.4140668,0.49727851,0.70392442,0.62072158,0.031227544,0.78340888,0
0.11988306,-1.3773217,0.94408524,-0.22028588,-0.95200992,0.21248814,0
-2.3579495,-0.070059687,0.44673979,-0.75244856,0.30446991,0.58405411,0
-0.96414852,-1.0336386,1.5367662,-0.22028588,-0.95200992,0.21248814,0
1.4204851,1.3823204,0.71744323,0.62072158,0.031227544,0.78340888,0
0.2342899,-1.632346,-0.20864525,-0.22028588,-0.95200992,0.21248814,0
1.948287,-0.57322389,-0.75297856,0.75244856,-0.30446991,-0.58405411,0
0.00064831972,0.451781,-1.9894152,-0.62072158,-0.031227544,-0.78340888,0
0.20954642,1.1885318,-1.9110327,0.22028588,0.95200992,-0.21248814,0
-1.3653487,1.0422263,1.0677638,-0.75244856,0.30446991,0.58405411,0
-0.4966796,1.5445071,1.9920611,-0.75244856,0.30446991,0.58405411,0
1.6107756,-0.60859847,0.57517421,0.62072158,0.031227544,0.78340888,0
-0.26747364,1.0242252,-1.7449939,-0.62072158,-0.031227544,-0.78340888,0
-2.2665527,0.73821807,0.10692304,-0.75244856,0.30446991,0.58405411,0
-1.6614918,1.8185648,0.454588,-0.75244856,0.30446991,0.58405411,0
0.31226265,1.7837143,1.0712762,0.22028588,0.95200992,-0.21248814,0
1.19381,-0.59610611,1.0110886,0.62072158,0.031227544,0.78340888,0
1.7323782,0.42003375,0.52797657,0.62072158,0.031227544,0.78340888,0
-0.86688834,-1.3148395,0.094979703,-0.22028588,-0.95200992,0.21248814,0
0.37001437,1.5649413,0.49830988,0.22028588,0.95200992,-0.21248814,0
1.2881911,-0.07182654,-1.7551591,0.75244856,-0.30446991,-0.58405411,0
0.23347938,0.095226765,1.8474369,0.62072158,0.031227544,0.78340888,0
-2.5157013,-0.4344092,0.11993212,-0.62072158,-0.031227544,-0.78340888,0
0.60565072,1.4210654,0.18919024,0.22028588,0.95200992,-0.21248814,0
-1.3464425,1.8368155,0.054744303,0.22028588,0.95200992,-0.21248814,0
0.4123956,-1.2960509,1.566484,0.62072158,0.031227544,0.78340888,0
0.61952066,-1.8764399,-1.7775583,0.75244856,-0.30446991,-0.58405411,0
0.80518657,1.092802,-0.89003187,0.22028588,0.95200992,-0.21248814,0
-1.4386431,-1.2275567,-0.24092752,-0.22028588,-0.95200992,0.21248814,0
2.1771054,0.95288545,-0.48420185,0.22028588,0.95200992,-0.21248814,0
2.093914,-1.1608913,0.0053724051,0.75244856,-0.30446991,-0.58405411,0
-1.3135318,-0.81459987,2.0374732,-0.75244856,0.30446991,0.58405411,0
2.0382288,-0.34150285,-0.57727516,0.75244856,-0.30446991,-0.58405411,0
-0.054143488,-0.63719797,2.1038227,0.62072158,0.031227544,0.78340888,0
-2.4501691,0.38306761,0.19717038,-0.75244856,0.30446991,0.58405411,0
-2.1609814,-0.54865456,-0.16980422,-0.62072158,-0.031227544,-0.78340888,0
-0.024844468,-0.13242468,1.9233613,0.62072158,0.031227544,0.78340888,0
-1.496547,0.093481645,-0.81447899,-0.62072158,-0.031227544,-0.78340888,0
0.66567421,0.97861665,-1.6810846,0.22028588,0.95200992,-0.21248814,0
0.78838348,-0.055529863,-2.493053,0.75244856,-0.30446991,-0.58405411,0
0.098246247,1.2741362,-1.4484566,0.22028588,0.95200992,-0.21248814,0
-0.07135424,-1.5809656,-1.9205897,-0.62072158,-0.031227544,-0.78340888,0
-2.2215221,-0.98920727,0.48566765,-0.22028588,-0.95200992,0.21248814,0
-1.7735946,1.9083056,0.020548165,-0.75244856,0.30446991,0.58405411,0
2.112498,0.99227369,-0.38325375,0.22028588,0.95200992,-0.21248814,0
1.9173932,0.92994475,0.41994283,0.62072158,0.031227544,0.78340888,0
0.28716433,-0.64884138,-2.0805235,-0.62072158,-0.031227544,-0.78340888,0
0.071442664,0.0096370578,1.9823226,0.62072158,0.031227544,0.78340888,0
1.6516192,-1.2433801,-0.49018067,0.75244856,-0.30446991,-0.58405411,0
-0.24842703,-0.79571176,2.267199,0.62072158,0.031227544,0.78340888,0
-1.3580761,-0.21900727,1.7617679,-0.75244856,0.30446991,0.58405411,0
0.080667794,1.8252729,1.741908,0.62072158,0.031227544,0.78340888,0
-0.99003881,1.4147687,1.5062925,-0.75244856,0.30446991,0.58405411,0
0.99890298,-0.34202495,1.0558746,0.62072158,0.031227544,0.78340888,0
2.19256,-1.6348085,0.21770805,0.75244856,-0.30446991,-0.58405411,0
1.8359678,-1.8831874,0.52699733,0.62072158,0.031227544,0.78340888,0
0.050817519,-1.3895887,0.4572596,-0.22028588,-0.95200992,0.21248814,0
2.6009836,0.2014696,-0.20474517,0.75244856,-0.30446991,-0.58405411,0
1.9767463,0.47147143,-0.96646237,0.75244856,-0.30446991,-0.58405411,0
0.81080621,0.65946138,-2.5975783,0.75244856,-0.30446991,-0.58405411,0
-1.6491088,1.6923909,0.31601524,-0.75244856,0.30446991,0.58405411,0
-1.7861774,0.60168058,-0.46712774,-0.62072158,-0.031227544,-0.78340888,0
-1.3422725,1.2096372,1.0571259,-0.75244856,0.30446991,0.58405411,0
-2.4382641,-0.47336146,0.37002915,-0.75244856,0.30446991,0.58405411,0
1.5072873,0.85168272,-1.7671233,0.22028588,0.95200992,-0.21248814,0
0.80043405,-1.1555769,-1.6235867,0.75244856,-0.30446991,-0.58405411,0
-1.4491471,-0.650769,-0.75746197,-0.62072158,-0.031227544,-0.78340888,0
1.1433244,0.62773132,1.0877936,0.62072158,0.031227544,0.78340888,0
-2.3916705,-0.40031967,0.0091395974,-0.62072158,-0.031227544,-0.78340888,0
-0.89020491,0.5653531,1.8379716,-0.75244856,0.30446991,0.58405411,0
0.58211112,-1.2113155,-2.1196964,0.75244856,-0.30446991,-0.58405411,0
-0.3858363,1.3737028,-1.3246281,0.22028588,0.95200992,-0.21248814,0
-1.2717702,-0.37373453,1.9483217,-0.75244856,0.30446991,0.58405411,0
0.68135881,-0.252341,-2.3586278,0.75244856,-0.30446991,-0.58405411,0
-0.94181812,-1.4365813,-0.6071226,-0.22028588,-0.95200992,0.21248814,0
-2.3111444,0.28946757,-0.024220884,-0.62072158,-0.031227544,-0.78340888,0
1.2206936,-0.59800762,-1.7040389,0.75244856,-0.30446991,-0.58405411,0
-1.7688771,1.1941913,0.47195315,-0.75244856,0.30446991,0.58405411,0
-0.86884713,-1.3450347,-1.2640753,-0.62072158,-0.031227544,-0.78340888,0
1.5687635,-1.9224836,-0.29158431,0.75244856,-0.30446991,-0.58405411,0
0.53245914,-1.7387848,-0.062546074,-0.22028588,-0.95200992,0.21248814,0
1.5837865,0.69185632,-1.6633313,0.75244856,-0.30446991,-0.58405411,0
2.5902395,0.80046487,-0.34985095,0.22028588,0.95200992,-0.21248814,0
1.4382914,0.017822996,0.78108585,0.62072158,0.031227544,0.78340888,0
1.8575765,0.68408823,-1.5323786,0.75244856,-0.30446991,-0.58405411,0
-1.1058366,1.3602537,-1.0775315,-0.62072158,-0.031227544,-0.78340888,0
1.0679839,0.56190747,0.94540423,0.62072158,0.031227544,0.78340888,0
1.5602669,0.8641271,0.74005747,0.62072158,0.031227544,0.78340888,0
-0.27995944,1.4924314,2.0820584,0.62072158,0.031227544,0.78340888,0
1.2229295,-1.8586798,0.21852994,-0.22028588,-0.95200992,0.21248814,0
-1.3386664,-1.0373603,1.3679082,-0.22028588,-0.95200992,0.21248814,0
0.48924708,-0.33448088,1.6565144,0.62072158,0.031227544,0.78340888,0
0.83779722,-1.5408002,-1.4242756,0.75244856,-0.30446991,-0.58405411,0
-0.46869594,1.6321805,-0.5351963,0.22028588,0.95200992,-0.21248814,0
-0.98597646,-1.1618745,1.1068692,-0.22028588,-0.95200992,0.21248814,0
0.11886591,-1.243194,1.7345449,-0.22028588,-0.95200992,0.21248814,0
1.851136,-1.7343773,-0.13588667,0.75244856,-0.30446991,-0.58405411,0
1.1370983,0.24014217,-1.9453919,0.75244856,-0.30446991,-0.58405411,0
0.8186332,-1.5207015,-1.7378435,0.75244856,-0.30446991,-0.58405411,0
0.90336025,-0.47880048,-1.9151714,0.75244856,-0.30446991,-0.58405411,0
-1.791901,-1.1688992,-0.25899339,-0.22028588,-0.95200992,0.21248814,0
-1.1915658,2.0133827,0.53632677,0.22028588,0.95200992,-0.21248814,0
-1.4788753,1.8522093,0.70562148,-0.75244856,0.30446991,0.58405411,0
0.33559075,0.76050502,-2.3301086,-0.62072158,-0.031227544,-0.78340888,0
-1.5657808,0.85027045,-0.67341244,-0.62072158,-0.031227544,-0.78340888,0
-2.1464412,1.8872939,-0.26520401,-0.75244856,0.30446991,0.58405411,0
0.71462888,-2.0114086,-0.82381129,-0.22028588,-0.95200992,0.21248814,0
1.8649614,-1.1868045,0.58082068,0.62072158,0.031227544,0.78340888,0
1.7855339,1.1416699,0.57569337,0.62072158,0.031227544,0.78340888,0
-2.3727424,0.073711202,0.20948166,-0.75244856,0.30446991,0.58405411,0
0.61810678,-1.6287872,-1.9388245,0.75244856,-0.30446991,-0.58405411,0
1.0943736,0.11582897,1.1318961,0.62072158,0.031227544,0.78340888,0
-0.98549938,-1.0213498,1.441545,-0.22028588,-0.95200992,0.21248814,0
1.4260463,0.62683457,-1.7570367,0.75244856,-0.30446991,-0.58405411,0
1.748915,-1.9589002,-0.062398612,0.75244856,-0.30446991,-0.58405411,0
-2.1915557,-0.37142208,-0.091753483,-0.62072158,-0.031227544,-0.78340888,0
-1.6214634,-1.1585121,-0.23869522,-0.22028588,-0.95200992,0.21248814,0
1.8576998,0.85655457,-1.1626214,0.22028588,0.95200992,-0.21248814,0
-1.4960036,-1.0395176,1.3115815,-0.22028588,-0.95200992,0.21248814,0
1.063261,0.84641778,-2.2489481,0.22028588,0.95200992,-0.21248814,0
-0.80423814,-0.98856175,-1.3237277,-0.62072158,-0.031227544,-0.78340888,0
-0.88829452,1.4566051,1.6113589,-0.75244856,0.30446991,0.58405411,0
-0.9023878,0.22380501,2.2152216,-0.75244856,0.30446991,0.58405411,0
-0.13282821,-1.787264,-1.2111192,-0.22028588,-0.95200992,0.21248814,0
-0.91246653,-1.2447568,-1.2162361,-0.62072158,-0.031227544,-0.78340888,0
0.44467121,0.61233211,-2.2363701,-0.62072158,-0.031227544,-0.78340888,0
1.494574,0.56597126,-1.6315823,0.75244856,-0.30446991,-0.58405411,0
2.3662028,0.43575129,-0.63863945,0.75244856,-0.30446991,-0.58405411,0
-0.67023867,-1.5104455,-0.16473925,-0.22028588,-0.95200992,0.21248814,0
-0.25824556,-0.57898527,-1.5879414,-0.62072158,-0.031227544,-0.78340888,0
-0.50547546,-0.96359366,2.0570264,-0.22028588,-0.95200992,0.21248814,0
0.51267517,-1.2757093,-2.0268095,0.75244856,-0.30446991,-0.58405411,0
1.2216511,-0.43162113,-1.5078609,0.75244856,-0.30446991,-0.58405411,0
1.1378127,-1.9185698,0.1122393,-0.22028588,-0.95200992,0.21248814,0
-1.8880298,0.34414005,-0.51368451,-0.62072158,-0.031227544,-0.78340888,0
-0.31366417,-1.6702405,-0.52688247,-0.22028588,-0.95200992,0.21248814,0
1.0242155,-1.6552104,-1.2518363,0.75244856,-0.30446991,-0.58405411,0
1.6031588,0.21210125,-1.4783278,0.75244856,-0.30446991,-0.58405411,0
0.080220759,-0.057898179,-2.0255315,-0.62072158,-0.031227544,-0.78340888,0
-1.1838387,-1.1962551,0.43740961,-0.22028588,-0.95200992,0.21248814,0
-0.51538146,0.11058746,-1.5557641,-0.62072158,-0.031227544,-0.78340888,0
0.70564961,-2.008512,-1.4763353,0.75244856,-0.30446991,-0.58405411,0
-2.494056,-0.88295156,0.16951269,-0.62072158,-0.031227544,-0.78340888,0
-0.94799489,1.9876688,0.59246665,0.22028588,0.95200992,-0.21248814,0
1.6458874,-0.1291088,-1.3247902,0.75244856,-0.30446991,-0.58405411,0
-1.6148545,1.6813446,-0.60951996,-0.62072158,-0.031227544,-0.78340888,0
-1.2078077,0.7936275,1.5760095,-0.75244856,0.30446991,0.58405411,0
-1.3450942,1.9446878,-0.16810614,0.22028588,0.95200992,-0.21248814,0
-1.5274487,-1.1694608,0.073079407,-0.22028588,-0.95200992,0.21248814,0
-1.4338758,2.0286582,0.34616441,0.22028588,0.95200992,-0.21248814,0
-2.6328518,-0.39350036,0.1375199,-0.62072158,-0.031227544,-0.78340888,0
-0.40893078,0.68422186,2.1380982,0.62072158,0.031227544,0.78340888,0
-0.54902363,-1.5100145,-1.3027196,-0.62072158,-0.031227544,-0.78340888,0
0.95304722,-0.63452566,1.2854022,0.62072158,0.031227544,0.78340888,0
-0.66796041,0.52301896,2.1864541,-0.75244856,0.30446991,0.58405411,0
0.86853808,1.3878801,-0.33477032,0.22028588,0.95200992,-0.21248814,0
1.305971,-1.9749289,-0.69058573,-0.22028588,-0.95200992,0.21248814,0
1.997677,0.71286589,0.20417735,0.62072158,0.031227544,0.78340888,0
1.0621815,1.6371692,1.0243597,0.22028588,0.95200992,-0.21248814,0
-0.46385217,-0.090201437,2.2828147,0.62072158,0.031227544,0.78340888,0
-1.9052956,-1.0312722,-0.47173825,-0.62072158,-0.031227544,-0.78340888,0
-0.23388427,-1.2633258,-1.6637638,-0.62072158,-0.031227544,-0.78340888,0
0.18941951,0.85228741,1.8319253,0.62072158,0.031227544,0.78340888,0
0.90662324,-0.35764563,-2.0890925,0.75244856,-0.30446991,-0.58405411,0
0.65465075,1.658397,1.3650179,0.62072158,0.031227544,0.78340888,0
-1.0375727,-1.1558154,-1.0632623,-0.62072158,-0.031227544,-0.78340888,0
1.3079426,-1.9167337,-0.0082778931,-0.22028588,-0.95200992,0.21248814,0
0.52648163,-1.2328645,1.6708119,0.62072158,0.031227544,0.78340888,0
0.6310268,-0.79372334,-2.2283697,0.75244856,-0.30446991,-0.58405411,0
-0.70721704,-0.28266317,-1.3949175,-0.62072158,-0.031227544,-0.78340888,0
2.6213386,0.38709274,-0.28179127,0.62072158,0.031227544,0.78340888,0
-2.1494644,-0.82400602,1.0258632,-0.75244856,0.30446991,0.58405411,0
-1.041599,0.18509103,1.8934186,-0.75244856,0.30446991,0.58405411,0
-1.9044719,-0.025629938,0.83791536,-0.75244856,0.30446991,0.58405411,0
0.65792805,-0.50812656,-2.2517102,0.75244856,-0.30446991,-0.58405411,0
-1.2922471,-1.4924402,-0.60804868,-0.22028588,-0.95200992,0.21248814,0
-0.073644012,-1.9316432,-1.3944364,-0.22028588,-0.95200992,0.21248814,0
-1.9359505,0.65370882,0.51152009,-0.75244856,0.30446991,0.58405411,0
0.37592292,1.6417588,0.23760712,0.22028588,0.95200992,-0.21248814,0
1.602832,-1.5062945,-0.56573838,0.75244856,-0.30446991,-0.58405411,0
0.65804106,1.5752738,0.4331333,0.22028588,0.95200992,-0.21248814,0
0.25247815,1.7373412,1.5666268,0.62072158,0.031227544,0.78340888,0
1.690918,-1.3640056,-0.36589777,0.75244856,-0.30446991,-0.58405411,0
-0.43493092,-1.278949,1.2262396,-0.22028588,-0.95200992,0.21248814,0
1.5706289,0.1461239,0.68140292,0.62072158,0.031227544,0.78340888,0
1.4813753,0.62758851,-1.7772255,0.75244856,-0.30446991,-0.58405411,0
-1.2790231,1.1854838,1.2848538,-0.75244856,0.30446991,0.58405411,0
-1.1216183,0.65650851,-1.1022778,-0.62072158,-0.031227544,-0.78340888,0
-1.9801879,1.4934622,-0.28937566,-0.62072158,-0.031227544,-0.78340888,0
1.8752443,-0.10380419,-1.011438,0.75244856,-0.30446991,-0.58405411,0
0.36530328,-0.38764837,1.767045,0.62072158,0.031227544,0.78340888,0
1.1406214,0.34183943,-2.0803905,0.75244856,-0.30446991,-0.58405411,0
-1.7241139,0.30162647,1.0604029,-0.75244856,0.30446991,0.58405411,0
-1.046657,-1.4916681,-1.1376765,-0.22028588,-0.95200992,0.21248814,0
0.73091948,-1.8101733,-0.25824338,-0.22028588,-0.95200992,0.21248814,0
-0.55918974,-1.2872145,0.69036376,-0.22028588,-0.95200992,0.21248814,0
-1.3656361,-1.215712,0.13221481,-0.22028588,-0.95200992,0.21248814,0
-0.88960826,0.39819974,1.9401805,-0.75244856,0.30446991,0.58405411,0
1.3322932,-1.8458805,-0.065631032,-0.22028588,-0.95200992,0.21248814,0
-0.61060691,1.0014017,1.9723864,-0.75244856,0.30446991,0.58405411,0
-0.92184216,1.20511,-1.1863959,-0.62072158,-0.031227544,-0.78340888,0
-0.26370317,0.70508081,-1.6342733,-0.62072158,-0.031227544,-0.78340888,0
1.3104551,-0.080800734,-1.7474104,0.75244856,-0.30446991,-0.58405411,0
0.58113921,0.34413475,-2.3740485,-0.62072158,-0.031227544,-0.78340888,0
-0.70434123,1.7180752,-0.53099066,0.22028588,0.95200992,-0.21248814,0
-0.47208017,-1.6032857,-1.3632321,-0.62072158,-0.031227544,-0.78340888,0
0.23031414,1.638061,1.6471016,0.62072158,0.031227544,0.78340888,0
-0.12356848,0.95519274,1.8578603,0.62072158,0.031227544,0.78340888,0
1.6722671,0.68342781,-1.5542336,0.75244856,-0.30446991,-0.58405411,0
2.0834553,0.82275957,-1.0230043,0.75244856,-0.30446991,-0.58405411,0
-2.5340102,-0.29960153,0.14017993,-0.62072158,-0.031227544,-0.78340888,0
-1.0201757,-1.3226717,-0.089926921,-0.22028588,-0.95200992,0.21248814,0
0.403943,-1.9904991,-2.0088782,0.75244856,-0.30446991,-0.58405411,0
0.072382003,1.537493,-0.45556328,0.22028588,0.95200992,-0.21248814,0
0.68227839,-1.6430571,-1.8314745,0.75244856,-0.30446991,-0.58405411,0
1.2186207,-1.233723,-1.2149117,0.75244856,-0.30446991,-0.58405411,0
2.0917857,0.039168991,-0.77770972,0.75244856,-0.30446991,-0.58405411,0
-0.70367062,-1.6168177,-0.55229491,-0.22028588,-0.95200992,0.21248814,0
1.2381403,0.55297339,-2.012681,0.75244856,-0.30446991,-0.58405411,0
-2.3489485,-0.91010535,0.26202393,-0.22028588,-0.95200992,0.21248814,0
1.3333228,-0.93081915,-1.2326689,0.75244856,-0.30446991,-0.58405411,0
1.1744088,0.97555935,-1.3068554,0.22028588,0.95200992,-0.21248814,0
-1.0544229,0.40047204,-1.1783221,-0.62072158,-0.031227544,-0.78340888,0
-1.6066368,-1.0392118,0.88146585,-0.22028588,-0.95200992,0.21248814,0
0.24159762,0.59438801,-2.174947,-0.62072158,-0.031227544,-0.78340888,0
-1.8129559,0.5304448,0.84158152,-0.75244856,0.30446991,0.58405411,0
-2.7355509,-0.87956494,0.30213147,-0.75244856,0.30446991,0.58405411,0
-2.0891361,1.7974477,-0.071046114,-0.75244856,0.30446991,0.58405411,0
-0.86327463,4.7385693e-06,2.3523698,-0.75244856,0.30446991,0.58405411,0
0.47871912,-1.5099305,1.0658313,-0.22028588,-0.95200992,0.21248814,0
1.4418082,-1.0239425,-0.93365061,0.75244856,-0.30446991,-0.58405411,0
-1.2274987,-1.0154952,0.89312732,-0.22028588,-0.95200992,0.21248814,0
-0.016851604,-0.058997691,-1.8942196,-0.62072158,-0.031227544,-0.78340888,0
1.1718378,1.3747462,0.21358858,0.22028588,0.95200992,-0.21248814,0
-1.7530956,0.53941756,-0.47841647,-0.62072158,-0.031227544,-0.78340888,0
2.1619034,-0.49656364,-0.27943271,0.75244856,-0.30446991,-0.58405411,0
-1.0689411,-0.10387023,1.9799144,-0.75244856,0.30446991,0.58405411,0
-0.92446291,-1.1998558,1.0802013,-0.22028588,-0.95200992,0.21248814,0
1.3763285,-0.072098419,0.95241851,0.62072158,0.031227544,0.78340888,0
-1.4127934,0.74969268,1.1417096,-0.75244856,0.30446991,0.58405411,0
-0.26415598,-1.8950127,-1.4496155,-0.22028588,-0.95200992,0.21248814,0
-0.29375464,1.4827641,-1.1251578,0.22028588,0.95200992,-0.21248814,0
1.3909085,-1.7829269,0.10260198,-0.22028588,-0.95200992,0.21248814,0
-0.58325088,1.8072791,0.41221419,0.22028588,0.95200992,-0.21248814,0
-1.0098591,-0.38857585,-1.0502203,-0.62072158,-0.031227544,-0.78340888,0
-0.90778244,-0.95713007,1.4784664,-0.22028588,-0.95200992,0.21248814,0
1.9405618,0.57461077,0.3265706,0.62072158,0.031227544,0.78340888,0
-0.70686239,0.54326272,2.3376358,0.62072158,0.031227544,0.78340888,0
-2.0596566,0.48732758,0.68255258,-0.75244856,0.30446991,0.58405411,0
-0.58152717,-0.16963023,-1.4298677,-0.62072158,-0.031227544,-0.78340888,0
0.7426945,-1.6457818,-1.7670715,0.75244856,-0.30446991,-0.58405411,0
-2.2735968,-0.25351396,-0.10914344,-0.62072158,-0.031227544,-0.78340888,0
1.2596843,0.13220538,0.94793648,0.62072158,0.031227544,0.78340888,0
1.1487184,-1.6047188,0.59796178,-0.22028588,-0.95200992,0.21248814,0
-0.2021572,-1.6763715,-1.7108833,-0.62072158,-0.031227544,-0.78340888,0
-0.99985403,1.3379433,-1.2953317,-0.62072158,-0.031227544,-0.78340888,0
1.0794275,-1.4135538,-1.1824938,0.75244856,-0.30446991,-0.58405411,0
-0.58395982,-0.28769609,-1.4994206,-0.62072158,-0.031227544,-0.78340888,0
