2.0804145,-0.7154448,0.070497513,0.79660392,0.15649378,0.5838939,0
-3.2650771,3.625308,1.7945056,-0.54872245,0.59245491,0.58983147,0
3.9390087,-2.3331008,-2.0551867,0.79660392,0.15649378,0.5838939,0
-0.5869844,1.7943013,-1.3859309,0.25362587,0.79025757,-0.55782348,0
1.9871147,-4.2831469,-2.4437346,0.54872245,-0.59245491,-0.58983147,0
-0.32932627,2.3933012,-0.48396003,0.25362587,0.79025757,-0.55782348,0
-3.2170789,2.4665923,2.941875,-0.54872245,0.59245491,0.58983147,0
-2.2052298,3.9136293,0.96894646,0.25362587,0.79025757,-0.55782348,0
-1.7071018,1.2968689,4.6266131,0.79660392,0.15649378,0.5838939,0
-0.54889822,-2.2953146,0.2173174,-0.25362587,-0.79025757,0.55782348,0
4.2211514,-1.107445,-3.2845945,0.54872245,-0.59245491,-0.58983147,0
2.5157385,-2.4499786,-3.7472415,0.54872245,-0.59245491,-0.58983147,0
-1.0547965,1.8470008,-1.2699785,0.25362587,0.79025757,-0.55782348,0
2.6250248,-1.2561557,-4.2498231,0.25362587,0.79025757,-0.55782348,0
-3.982233,2.3629098,2.3874512,-0.54872245,0.59245491,0.58983147,0
-0.5705173,0.44287837,-1.8379689,-0.79660392,-0.15649378,-0.5838939,0
-4.1499748,1.8357209,2.8204823,-0.54872245,0.59245491,0.58983147,0
2.7842226,-4.2128482,-1.7431808,0.54872245,-0.59245491,-0.58983147,0
1.4066899,1.5617,0.25211507,0.79660392,0.15649378,0.5838939,0
1.1420327,0.63608193,0.99385077,0.79660392,0.15649378,0.5838939,0
-0.78818357,3.8280973,1.4421144,0.25362587,0.79025757,-0.55782348,0
2.9328172,-3.8137429,-1.844768,0.54872245,-0.59245491,-0.58983147,0
-2.241446,2.8096223,3.6904001,-0.54872245,0.59245491,0.58983147,0
-2.479306,-0.67647099,1.6533221,-0.25362587,-0.79025757,0.55782348,0
-1.8102355,3.8742208,2.9887514,-0.54872245,0.59245491,0.58983147,0
-1.2876296,0.078775287,-0.94934237,-0.79660392,-0.15649378,-0.5838939,0
1.2038975,-0.40235841,-3.7829809,0.25362587,0.79025757,-0.55782348,0
-2.2835288,1.5403781,0.27594733,-0.79660392,-0.15649378,-0.5838939,0
2.9341137,-1.9480561,-0.90444088,0.79660392,0.15649378,0.5838939,0
4.0948486,-2.0341299,-2.6698318,0.54872245,-0.59245491,-0.58983147,0
-1.9220501,2.5977931,3.9386988,-0.54872245,0.59245491,0.58983147,0
-3.7459164,2.0667348,2.8193927,-0.54872245,0.59245491,0.58983147,0
3.991447,-1.2805763,-3.3921494,0.54872245,-0.59245491,-0.58983147,0
0.79093373,-0.96720564,-3.2726507,-0.79660392,-0.15649378,-0.5838939,0
0.86302584,-1.0747728,1.594726,0.79660392,0.15649378,0.5838939,0
-0.52503085,-2.7415152,-0.4905324,-0.25362587,-0.79025757,0.55782348,0
-0.2608813,-0.47070998,2.7524772,-0.25362587,-0.79025757,0.55782348,0
-2.5455027,0.57422239,3.1759744,-0.25362587,-0.79025757,0.55782348,0
3.5505095,-0.4468019,-2.6528401,0.25362587,0.79025757,-0.55782348,0
2.7565372,-3.7600751,-0.60752344,-0.25362587,-0.79025757,0.55782348,0
-0.55337882,-1.8069092,0.89372927,-0.25362587,-0.79025757,0.55782348,0
-1.9520504,2.2900925,4.3513885,-0.54872245,0.59245491,0.58983147,0
-2.5002098,1.3066479,4.1416097,-0.25362587,-0.79025757,0.55782348,0
1.9195061,-2.1120477,-4.4689035,0.54872245,-0.59245491,-0.58983147,0
-0.72352052,-0.3251074,2.82581,-0.25362587,-0.79025757,0.55782348,0
1.1527555,-2.8434138,-3.32657,-0.79660392,-0.15649378,-0.5838939,0
1.9416959,-1.0206584,-4.0180626,0.25362587,0.79025757,-0.55782348,0
-2.1792178,0.56831491,0.21133769,-0.79660392,-0.15649378,-0.5838939,0
3.808604,-2.3195214,-2.6452446,0.54872245,-0.59245491,-0.58983147,0
0.68040931,-3.3763137,-0.79322433,-0.25362587,-0.79025757,0.55782348,0
2.0878904,-0.53484178,-0.054026604,0.79660392,0.15649378,0.5838939,0
2.1437612,-3.0632427,0.08188343,-0.25362587,-0.79025757,0.55782348,0
2.6312292,-4.4084511,-1.4700642,-0.25362587,-0.79025757,0.55782348,0
-3.2738128,4.255362,1.0016241,-0.54872245,0.59245491,0.58983147,0
-3.2234752,2.1516223,3.1898236,-0.54872245,0.59245491,0.58983147,0
2.9689238,-3.2089202,-2.5336671,0.54872245,-0.59245491,-0.58983147,0
1.7334348,-1.846402,0.54598165,0.79660392,0.15649378,0.5838939,0
3.5419874,-0.58371198,-2.6644278,0.25362587,0.79025757,-0.55782348,0
0.019975424,0.6125437,-2.7227006,0.25362587,0.79025757,-0.55782348,0
-0.92953146,-0.9184972,-1.0642333,-0.79660392,-0.15649378,-0.5838939,0
2.3920772,-3.1723373,-2.9838548,0.54872245,-0.59245491,-0.58983147,0
-1.4975982,1.371045,4.2857137,0.79660392,0.15649378,0.5838939,0
-1.5560546,3.9028194,3.0321383,-0.54872245,0.59245491,0.58983147,0
2.296597,-1.4576775,-0.03956008,0.79660392,0.15649378,0.5838939,0
0.54091406,-2.2870226,-2.7183859,-0.79660392,-0.15649378,-0.5838939,0
1.0809454,-2.6818905,-3.4181566,-0.79660392,-0.15649378,-0.5838939,0
-3.1272275,0.70395464,3.2480383,-0.25362587,-0.79025757,0.55782348,0
2.2677631,-2.9151845,-3.5767407,0.54872245,-0.59245491,-0.58983147,0
1.9340823,1.1609131,-0.33913416,0.79660392,0.15649378,0.5838939,0
-2.8411763,1.5235814,0.98813772,-0.79660392,-0.15649378,-0.5838939,0
3.7970028,-1.2431608,-3.5345402,0.54872245,-0.59245491,-0.58983147,0
2.7473021,0.3470757,-1.3701479,0.79660392,0.15649378,0.5838939,0
-1.9365393,0.33902502,-0.015761375,-0.79660392,-0.15649378,-0.5838939,0
1.4860544,-1.6618969,-4.1576281,-0.79660392,-0.15649378,-0.5838939,0
0.95623958,-0.88644671,-3.6431389,-0.79660392,-0.15649378,-0.5838939,0
3.8985777,-2.1181426,-2.7097955,0.54872245,-0.59245491,-0.58983147,0
-1.4165488,-1.7270528,0.40425837,-0.25362587,-0.79025757,0.55782348,0
3.3730435,-1.2028136,-1.7030916,0.79660392,0.15649378,0.5838939,0
1.1135969,0.073640227,1.1205168,0.79660392,0.15649378,0.5838939,0
3.6710768,-2.9545531,-2.1438165,0.54872245,-0.59245491,-0.58983147,0
1.3684152,-2.3850198,-3.9183326,-0.79660392,-0.15649378,-0.5838939,0
2.3433278,-0.14499401,-2.7022588,0.25362587,0.79025757,-0.55782348,0
-4.0991526,1.632973,3.0602593,-0.54872245,0.59245491,0.58983147,0
1.0862489,-4.0004058,-2.8564425,-0.79660392,-0.15649378,-0.5838939,0
1.3506132,-0.15549707,-3.1146894,0.25362587,0.79025757,-0.55782348,0
-3.363946,1.0734968,1.7817893,-0.79660392,-0.15649378,-0.5838939,0
2.9360361,-2.5444067,-3.0414643,0.54872245,-0.59245491,-0.58983147,0
0.71625686,-3.7519526,-2.5579677,-0.79660392,-0.15649378,-0.5838939,0
-2.6478546,0.33846667,3.014194,-0.25362587,-0.79025757,0.55782348,0
-3.8354506,1.3539908,2.3036919,-0.79660392,-0.15649378,-0.5838939,0
-3.8864753,1.1608589,2.5411506,-0.79660392,-0.15649378,-0.5838939,0
3.2557919,-1.4241691,-1.4584446,0.79660392,0.15649378,0.5838939,0
0.086885691,0.28882205,-2.8068812,-0.79660392,-0.15649378,-0.5838939,0
0.46438283,-2.4230185,-2.5552771,-0.79660392,-0.15649378,-0.5838939,0
0.76540542,-3.3170977,-0.88782001,-0.25362587,-0.79025757,0.55782348,0
-1.5966079,3.9435363,3.1010141,-0.54872245,0.59245491,0.58983147,0
2.593365,0.78599703,-1.1821954,0.25362587,0.79025757,-0.55782348,0
-2.9552159,0.48649681,2.855809,-0.25362587,-0.79025757,0.55782348,0
3.1342487,-3.1118264,-2.5519214,0.54872245,-0.59245491,-0.58983147,0
2.8045077,-2.6236534,-3.0692997,0.54872245,-0.59245491,-0.58983147,0
-2.0361547,2.5110738,-0.49811399,-0.79660392,-0.15649378,-0.5838939,0
2.9333704,-3.154402,-2.6552343,0.54872245,-0.59245491,-0.58983147,0
0.11061013,-0.74914467,2.6636605,-0.25362587,-0.79025757,0.55782348,0
1.4666017,-4.1068316,-2.9072433,0.54872245,-0.59245491,-0.58983147,0
1.6083388,0.52013886,-2.235281,0.25362587,0.79025757,-0.55782348,0
0.76954758,2.6684792,0.53055644,0.25362587,0.79025757,-0.55782348,0
-2.6084495,3.0400269,2.8672738,-0.54872245,0.59245491,0.58983147,0
3.1817079,-2.394243,-1.0870936,0.79660392,0.15649378,0.5838939,0
2.131969,-1.4146882,-4.5661969,0.25362587,0.79025757,-0.55782348,0
1.6517899,0.07387805,0.26710147,0.79660392,0.15649378,0.5838939,0
-2.8133178,0.46426946,1.2364991,-0.79660392,-0.15649378,-0.5838939,0
3.5634115,-1.5927572,-3.5080791,0.54872245,-0.59245491,-0.58983147,0
3.8500323,-2.034812,-2.219964,0.79660392,0.15649378,0.5838939,0
-0.20233941,1.9077507,2.462465,0.79660392,0.15649378,0.5838939,0
-1.903464,4.4640017,2.0721779,-0.54872245,0.59245491,0.58983147,0
-3.3008254,2.6478834,2.5948324,-0.54872245,0.59245491,0.58983147,0
3.3372989,-4.22645,-1.0919514,0.54872245,-0.59245491,-0.58983147,0
1.5347365,-2.8648019,0.12281799,-0.25362587,-0.79025757,0.55782348,0
3.3733869,-1.0535858,-3.4445238,0.25362587,0.79025757,-0.55782348,0
-1.9972255,2.723489,3.7930555,-0.54872245,0.59245491,0.58983147,0
-2.2024801,1.1945118,0.23501849,-0.79660392,-0.15649378,-0.5838939,0
-1.6596859,2.2521629,4.1812305,0.79660392,0.15649378,0.5838939,0
0.48919451,-3.717998,-2.1053753,-0.79660392,-0.15649378,-0.5838939,0
2.9171572,-2.2699771,-0.78248787,0.79660392,0.15649378,0.5838939,0
-2.127984,4.0921469,2.4455681,-0.54872245,0.59245491,0.58983147,0
0.52598006,-1.0715343,-2.8353205,-0.79660392,-0.15649378,-0.5838939,0
1.6983271,-1.2356507,0.60403907,0.79660392,0.15649378,0.5838939,0
-2.0143023,2.9908974,3.6750917,-0.54872245,0.59245491,0.58983147,0
3.3524265,-3.2736893,-0.99267387,0.79660392,0.15649378,0.5838939,0
1.5426179,-0.11965561,0.65892678,0.79660392,0.15649378,0.5838939,0
-1.491452,4.1629257,1.7481737,0.25362587,0.79025757,-0.55782348,0
1.0491531,-3.3800766,-0.77745628,-0.25362587,-0.79025757,0.55782348,0
0.84249246,-3.5005465,-0.88271117,-0.25362587,-0.79025757,0.55782348,0
-3.2321539,1.2535067,3.7178717,-0.25362587,-0.79025757,0.55782348,0
2.013154,-0.82900083,0.12313783,0.79660392,0.15649378,0.5838939,0
-3.6597769,3.1622806,1.7645593,-0.54872245,0.59245491,0.58983147,0
0.60727561,-0.7304619,2.0273006,0.79660392,0.15649378,0.5838939,0
-1.457047,2.4863234,-0.62446165,0.25362587,0.79025757,-0.55782348,0
-0.10307634,-2.4178605,-1.8696132,-0.79660392,-0.15649378,-0.5838939,0
1.3635625,1.5205141,0.43840945,0.79660392,0.15649378,0.5838939,0
3.3872569,-3.8054891,-1.4079399,0.54872245,-0.59245491,-0.58983147,0
3.6326518,-3.0290833,-1.9973106,0.54872245,-0.59245491,-0.58983147,0
-0.50152171,3.3934042,1.1305614,0.25362587,0.79025757,-0.55782348,0
-0.12184799,0.43154109,-2.394486,-0.79660392,-0.15649378,-0.5838939,0
2.9122763,-2.4344857,-3.3657928,0.54872245,-0.59245491,-0.58983147,0
-1.2538056,-1.5144882,1.0256286,-0.25362587,-0.79025757,0.55782348,0
-0.20019221,-1.8890662,-1.7912292,-0.79660392,-0.15649378,-0.5838939,0
3.6514895,-1.5220857,-3.4854541,0.54872245,-0.59245491,-0.58983147,0
0.031320095,-0.55158764,2.5885375,0.79660392,0.15649378,0.5838939,0
0.8173815,-2.106719,-3.1500742,-0.79660392,-0.15649378,-0.5838939,0
2.0605311,-2.8808451,-3.5099101,0.54872245,-0.59245491,-0.58983147,0
-3.3005493,2.812798,2.685606,-0.54872245,0.59245491,0.58983147,0
0.042019904,2.1092143,2.0648959,0.79660392,0.15649378,0.5838939,0
-2.7618132,0.14518511,2.3598475,-0.25362587,-0.79025757,0.55782348,0
-0.5486753,2.1357613,-0.84701675,0.25362587,0.79025757,-0.55782348,0
-1.6799999,-0.22384131,-0.34250772,-0.79660392,-0.15649378,-0.5838939,0
0.76924586,1.725459,1.1201912,0.79660392,0.15649378,0.5838939,0
1.0958979,1.2831461,-1.2942774,0.25362587,0.79025757,-0.55782348,0
-0.057065248,-1.595266,1.4190733,-0.25362587,-0.79025757,0.55782348,0
-3.0259519,0.27288866,1.5657601,-0.79660392,-0.15649378,-0.5838939,0
0.8901875,0.36663434,-2.6372261,0.25362587,0.79025757,-0.55782348,0
2.6435645,-0.023471951,-2.3169415,0.25362587,0.79025757,-0.55782348,0
-0.46054697,-1.4388258,1.3423452,-0.25362587,-0.79025757,0.55782348,0
-0.28855896,-1.7840062,1.0092021,-0.25362587,-0.79025757,0.55782348,0
0.5153898,-0.30849588,-3.1049132,-0.79660392,-0.15649378,-0.5838939,0
2.553488,-0.78775823,-0.85859656,0.79660392,0.15649378,0.5838939,0
3.510591,-1.1530125,-3.5838113,0.25362587,0.79025757,-0.55782348,0
2.3550134,0.79047835,-0.88959467,0.79660392,0.15649378,0.5838939,0
-4.2323322,1.6854452,2.920249,-0.54872245,0.59245491,0.58983147,0
0.21378875,-0.12330687,2.3583899,0.79660392,0.15649378,0.5838939,0
3.5551376,-4.157299,-1.1527395,0.54872245,-0.59245491,-0.58983147,0
-1.7669281,2.2437751,-0.80830729,-0.79660392,-0.15649378,-0.5838939,0
-0.93614548,0.018208385,-1.3167531,-0.79660392,-0.15649378,-0.5838939,0
1.8701823,-1.2876062,-4.6487126,0.25362587,0.79025757,-0.55782348,0
-1.6656651,-0.80033731,1.8414599,-0.25362587,-0.79025757,0.55782348,0
-0.60674667,-1.8139598,-1.4120771,-0.79660392,-0.15649378,-0.5838939,0
0.58381534,-4.2228565,-2.0079904,-0.25362587,-0.79025757,0.55782348,0
3.6836333,-0.62762535,-2.6832581,0.25362587,0.79025757,-0.55782348,0
3.293046,-1.836062,-3.4926972,0.54872245,-0.59245491,-0.58983147,0
0.6682831,-4.285253,-2.0895195,-0.25362587,-0.79025757,0.55782348,0
-3.3348966,3.2187526,2.0579286,-0.54872245,0.59245491,0.58983147,0
2.3730156,-2.9965591,-3.2790751,0.54872245,-0.59245491,-0.58983147,0
2.3931451,-3.3030894,-2.9229836,0.54872245,-0.59245491,-0.58983147,0
2.5781279,-2.5327632,-3.3697233,0.54872245,-0.59245491,-0.58983147,0
2.4965174,-1.1597025,-4.1370478,0.25362587,0.79025757,-0.55782348,0
3.1553526,-4.0403681,-1.3497071,0.54872245,-0.59245491,-0.58983147,0
3.0423293,-1.5282533,-4.2411833,0.54872245,-0.59245491,-0.58983147,0
2.9896762,-2.4386673,-3.385695,0.54872245,-0.59245491,-0.58983147,0
-2.2385519,1.2421838,0.12685895,-0.79660392,-0.15649378,-0.5838939,0
3.7419081,-1.4667909,-3.6085706,0.54872245,-0.59245491,-0.58983147,0
1.8420064,-2.0619025,0.73460937,0.79660392,0.15649378,0.5838939,0
2.5286469,0.44365096,-1.7986867,0.25362587,0.79025757,-0.55782348,0
-3.3351202,4.113122,1.2351117,-0.54872245,0.59245491,0.58983147,0
1.4444261,-1.730023,-3.9576168,-0.79660392,-0.15649378,-0.5838939,0
-2.4444149,4.0618601,1.9785323,-0.54872245,0.59245491,0.58983147,0
1.7875471,-0.32807457,-3.272275,0.25362587,0.79025757,-0.55782348,0
-1.8565139,4.0366669,1.4065137,0.25362587,0.79025757,-0.55782348,0
3.7518992,-2.0425308,-1.9319396,0.79660392,0.15649378,0.5838939,0
-0.98074508,4.4242077,2.3335423,0.25362587,0.79025757,-0.55782348,0
-1.5093303,2.4880919,-0.64673841,0.25362587,0.79025757,-0.55782348,0
1.9205977,-4.5261426,-1.9509792,-0.25362587,-0.79025757,0.55782348,0
1.8839535,-1.8892363,-4.774909,-0.79660392,-0.15649378,-0.5838939,0
0.75599283,1.3774935,1.1081905,0.79660392,0.15649378,0.5838939,0
0.41544411,-2.0047371,-2.5306664,-0.79660392,-0.15649378,-0.5838939,0
2.2967215,-0.5584172,-3.2495172,0.25362587,0.79025757,-0.55782348,0
0.36946738,3.145473,1.2035253,0.79660392,0.15649378,0.5838939,0
-1.6244187,2.36761,-0.95950937,0.25362587,0.79025757,-0.55782348,0
-0.95959663,-2.3273292,-0.0025622249,-0.25362587,-0.79025757,0.55782348,0
2.1024125,-2.6604881,-3.7128544,0.54872245,-0.59245491,-0.58983147,0
2.4981375,0.92157912,-1.1692945,0.79660392,0.15649378,0.5838939,0
-1.5875497,2.0411294,4.0804596,0.79660392,0.15649378,0.5838939,0
1.7582941,0.11720657,0.0073596835,0.79660392,0.15649378,0.5838939,0
4.0159788,-2.3533649,-2.2121677,0.79660392,0.15649378,0.5838939,0
-3.3823299,1.6903775,3.7373023,-0.54872245,0.59245491,0.58983147,0
-2.4028797,0.081957847,2.5701375,-0.25362587,-0.79025757,0.55782348,0
-0.18098426,-2.2058191,-1.8495874,-0.79660392,-0.15649378,-0.5838939,0
3.5792918,-1.38613,-2.1063223,0.79660392,0.15649378,0.5838939,0
-3.4368355,0.18874133,2.0609004,-0.79660392,-0.15649378,-0.5838939,0
-0.9031353,-0.83403325,2.0129948,-0.25362587,-0.79025757,0.55782348,0
-2.7501082,0.48936385,1.1846788,-0.79660392,-0.15649378,-0.5838939,0
2.5303335,-1.3532428,-0.67472601,0.79660392,0.15649378,0.5838939,0
1.4403487,-4.6706743,-2.5564523,0.54872245,-0.59245491,-0.58983147,0
2.2474711,-2.6198821,-3.6893768,0.54872245,-0.59245491,-0.58983147,0
1.3811646,-2.4534965,0.87509793,-0.25362587,-0.79025757,0.55782348,0
0.12195396,2.3251953,-0.13244402,0.25362587,0.79025757,-0.55782348,0
4.1805215,-1.9196205,-2.7398643,0.79660392,0.15649378,0.5838939,0
1.8255479,-1.2550392,-4.5787416,-0.79660392,-0.15649378,-0.5838939,0
-4.4134736,1.4166436,3.0864439,-0.54872245,0.59245491,0.58983147,0
-0.48949367,2.2700872,2.6854005,0.79660392,0.15649378,0.5838939,0
-0.88067877,0.86185169,3.4876258,0.79660392,0.15649378,0.5838939,0
2.6699679,-1.2268704,-0.61268997,0.79660392,0.15649378,0.5838939,0
2.0831604,0.12775826,-0.26963413,0.79660392,0.15649378,0.5838939,0
0.60116124,-2.2189879,0.75271177,-0.25362587,-0.79025757,0.55782348,0
-4.3552914,1.2435238,3.0127616,-0.79660392,-0.15649378,-0.5838939,0
-0.77765441,0.64806414,3.4351768,0.79660392,0.15649378,0.5838939,0
0.1717599,0.350945,2.1051302,0.79660392,0.15649378,0.5838939,0
-2.9323688,4.4474568,1.3847136,-0.54872245,0.59245491,0.58983147,0
-2.8728011,2.3328607,3.4856362,-0.54872245,0.59245491,0.58983147,0
-1.4547448,2.1484046,-1.2856538,0.25362587,0.79025757,-0.55782348,0
0.48857099,-2.3337708,-2.5859959,-0.79660392,-0.15649378,-0.5838939,0
-2.2634978,2.2053633,4.3231397,-0.54872245,0.59245491,0.58983147,0
-1.7053152,2.4145355,4.375803,0.79660392,0.15649378,0.5838939,0
2.9023724,-0.32295096,-1.4404228,0.79660392,0.15649378,0.5838939,0
4.1570606,-1.7691534,-2.9835544,0.54872245,-0.59245491,-0.58983147,0
0.5653162,-1.4255437,1.8424777,-0.25362587,-0.79025757,0.55782348,0
1.8501132,0.046583019,-2.8402169,0.25362587,0.79025757,-0.55782348,0
0.41482472,-1.3574858,1.6963869,-0.25362587,-0.79025757,0.55782348,0
1.2152035,-0.70281684,-3.8705459,-0.79660392,-0.15649378,-0.5838939,0
1.9210225,-2.8727489,-3.7398763,0.54872245,-0.59245491,-0.58983147,0
2.5790901,-4.3689237,-1.5935464,0.54872245,-0.59245491,-0.58983147,0
1.0489814,-3.101485,-0.44033551,-0.25362587,-0.79025757,0.55782348,0
-1.2060556,-0.54387724,-0.82591051,-0.79660392,-0.15649378,-0.5838939,0
2.4373395,-1.4968157,-4.4511819,0.25362587,0.79025757,-0.55782348,0
0.60202932,0.014453292,1.6571698,0.79660392,0.15649378,0.5838939,0
1.772058,-1.3877085,0.60249746,0.79660392,0.15649378,0.5838939,0
-0.6629805,-1.6885815,-1.3490361,-0.79660392,-0.15649378,-0.5838939,0
1.0193691,0.10392708,-3.1361301,0.25362587,0.79025757,-0.55782348,0
-2.872925,2.0578036,0.87398648,-0.79660392,-0.15649378,-0.5838939,0
-1.3555382,-1.8174498,-0.21291289,-0.79660392,-0.15649378,-0.5838939,0
-0.99347568,3.5085289,2.9976449,0.79660392,0.15649378,0.5838939,0
-1.595295,1.7863182,4.4263835,0.79660392,0.15649378,0.5838939,0
0.80572259,-3.2563238,-0.67102218,-0.25362587,-0.79025757,0.55782348,0
-0.082336903,1.8289248,-1.206493,0.25362587,0.79025757,-0.55782348,0
-0.45238853,-1.4988693,-1.3955133,-0.79660392,-0.15649378,-0.5838939,0
3.3772409,-1.8520998,-3.587821,0.54872245,-0.59245491,-0.58983147,0
-0.35931933,-2.2956336,-1.4175506,-0.79660392,-0.15649378,-0.5838939,0
3.624855,-1.7280806,-3.5163918,0.54872245,-0.59245491,-0.58983147,0
-2.8894105,3.2005639,2.6636667,-0.54872245,0.59245491,0.58983147,0
2.9778943,-0.62962902,-3.0137227,0.25362587,0.79025757,-0.55782348,0
-3.4957361,2.5076628,1.6129384,-0.79660392,-0.15649378,-0.5838939,0
0.96875608,-2.86656,0.074108839,-0.25362587,-0.79025757,0.55782348,0
-2.9939647,1.0688419,1.2242646,-0.79660392,-0.15649378,-0.5838939,0
3.4501934,-2.7557495,-2.5453792,0.54872245,-0.59245491,-0.58983147,0
1.6949911,-1.4867873,-4.6034389,-0.79660392,-0.15649378,-0.5838939,0
-0.93044007,1.5525365,3.5829034,0.79660392,0.15649378,0.5838939,0
1.7931197,-2.9730897,0.045351505,-0.25362587,-0.79025757,0.55782348,0
-3.752039,2.8488874,2.139205,-0.54872245,0.59245491,0.58983147,0
-3.3230729,4.022789,1.2330008,-0.54872245,0.59245491,0.58983147,0
3.6348059,-0.53338504,-2.5308108,0.25362587,0.79025757,-0.55782348,0
0.69618922,-0.98927546,1.9357209,0.79660392,0.15649378,0.5838939,0
2.0862515,-3.8327525,-2.7199306,0.54872245,-0.59245491,-0.58983147,0
-1.225112,4.7520075,2.5987797,-0.54872245,0.59245491,0.58983147,0
0.29987049,1.5118214,-1.2729368,0.25362587,0.79025757,-0.55782348,0
-4.2469711,1.1892754,3.267992,-0.25362587,-0.79025757,0.55782348,0
-1.4661969,0.23276401,-0.54299879,-0.79660392,-0.15649378,-0.5838939,0
1.3031946,0.46730053,0.71249723,0.79660392,0.15649378,0.5838939,0
-0.65522289,2.4261837,-0.49796534,0.25362587,0.79025757,-0.55782348,0
-0.45091903,2.7989228,0.083821774,0.25362587,0.79025757,-0.55782348,0
-0.8092472,2.3718204,2.931829,0.79660392,0.15649378,0.5838939,0
-1.5280507,-1.4016414,0.78145045,-0.25362587,-0.79025757,0.55782348,0
-2.2842267,0.82945788,3.7013788,-0.25362587,-0.79025757,0.55782348,0
-0.82274795,3.1868594,2.7742355,0.79660392,0.15649378,0.5838939,0
0.71989298,1.0460113,1.2435558,0.79660392,0.15649378,0.5838939,0
-4.2062235,1.5044357,2.9510293,-0.54872245,0.59245491,0.58983147,0
2.0669217,-4.125226,-2.5750885,0.54872245,-0.59245491,-0.58983147,0
-2.3721538,-0.66757441,0.90181804,-0.79660392,-0.15649378,-0.5838939,0
1.775615,-2.7609024,0.41911983,-0.25362587,-0.79025757,0.55782348,0
3.4936581,-0.37736559,-2.4777339,0.25362587,0.79025757,-0.55782348,0
0.66855568,0.24127877,1.695583,0.79660392,0.15649378,0.5838939,0
-2.5485253,0.28517163,0.77306318,-0.79660392,-0.15649378,-0.5838939,0
-1.6956215,3.6300755,3.2557993,-0.54872245,0.59245491,0.58983147,0
-2.7664456,3.5188637,2.2578406,-0.54872245,0.59245491,0.58983147,0
1.318543,-4.3261971,-2.7970214,0.54872245,-0.59245491,-0.58983147,0
0.44285777,-2.7659736,-2.5353982,-0.79660392,-0.15649378,-0.5838939,0
1.9456909,-3.7319913,-2.8930731,0.54872245,-0.59245491,-0.58983147,0
1.0465887,-0.1104095,-3.2588537,0.25362587,0.79025757,-0.55782348,0
4.0975537,-1.48312,-3.2755075,0.54872245,-0.59245491,-0.58983147,0
0.16694891,-2.6819074,-0.18862593,-0.25362587,-0.79025757,0.55782348,0
-3.9315906,1.7727721,2.9706144,-0.54872245,0.59245491,0.58983147,0
2.5943646,-4.2307148,-1.8906732,0.54872245,-0.59245491,-0.58983147,0
-0.77165377,-0.29158044,-1.5794659,-0.79660392,-0.15649378,-0.5838939,0
0.19447839,-0.47135115,2.416338,0.79660392,0.15649378,0.5838939,0
3.1132207,-4.3037596,-1.1099997,0.54872245,-0.59245491,-0.58983147,0
-4.0865917,1.5703787,3.2661672,-0.54872245,0.59245491,0.58983147,0
1.3609599,-4.2053204,-1.9027004,-0.25362587,-0.79025757,0.55782348,0
0.28157359,1.1594738,1.7488829,0.79660392,0.15649378,0.5838939,0
-1.4914919,4.5314155,2.4611373,-0.54872245,0.59245491,0.58983147,0
-3.3406401,2.7070644,2.8030858,-0.54872245,0.59245491,0.58983147,0
2.9944754,-0.93273062,-3.475306,0.25362587,0.79025757,-0.55782348,0
3.8972991,-0.63122338,-2.6625628,0.25362587,0.79025757,-0.55782348,0
2.7619302,-4.2631879,-1.5103331,0.54872245,-0.59245491,-0.58983147,0
0.23937106,3.397716,1.4599969,0.79660392,0.15649378,0.5838939,0
-1.7982575,3.2436354,0.30387235,0.25362587,0.79025757,-0.55782348,0
4.1571288,-2.1502416,-2.4160137,0.54872245,-0.59245491,-0.58983147,0
-1.2993879,-1.395007,1.1593164,-0.25362587,-0.79025757,0.55782348,0
-0.50729382,1.2538145,-1.8673753,0.25362587,0.79025757,-0.55782348,0
2.476964,-1.6678002,-4.6558766,0.54872245,-0.59245491,-0.58983147,0
0.66869402,-2.7795939,-0.16010046,-0.25362587,-0.79025757,0.55782348,0
1.3117926,1.5269094,-0.72747529,0.25362587,0.79025757,-0.55782348,0
-3.1907082,-0.15100443,1.7022777,-0.79660392,-0.15649378,-0.5838939,0
-2.7528212,2.833189,3.1343446,-0.54872245,0.59245491,0.58983147,0
0.26470608,0.66597974,2.190541,0.79660392,0.15649378,0.5838939,0
3.8777039,-1.2830557,-3.6080198,0.54872245,-0.59245491,-0.58983147,0
2.1204939,-2.9122148,0.3697226,0.79660392,0.15649378,0.5838939,0
1.8317763,-4.4206395,-2.3515825,0.54872245,-0.59245491,-0.58983147,0
3.4968958,-3.5124125,-1.7372227,0.54872245,-0.59245491,-0.58983147,0
-0.36067486,0.26153994,3.0735786,0.79660392,0.15649378,0.5838939,0
0.27539325,0.96773994,1.900084,0.79660392,0.15649378,0.5838939,0
-1.3634932,-1.5387772,-0.33303514,-0.79660392,-0.15649378,-0.5838939,0
3.0168996,-4.209754,-1.531918,0.54872245,-0.59245491,-0.58983147,0
-2.639461,2.8517132,3.0201674,-0.54872245,0.59245491,0.58983147,0
2.4894609,-3.0170753,0.097402096,0.79660392,0.15649378,0.5838939,0
2.2331808,0.96592915,-1.3019465,0.25362587,0.79025757,-0.55782348,0
-1.3898652,4.3006182,2.7984924,-0.54872245,0.59245491,0.58983147,0
-0.29611886,0.76746601,-2.5122561,0.25362587,0.79025757,-0.55782348,0
2.6827252,-3.0531046,-2.9554172,0.54872245,-0.59245491,-0.58983147,0
1.6979567,-0.12181962,0.4487026,0.79660392,0.15649378,0.5838939,0
0.49200022,-3.8039312,-1.5655897,-0.25362587,-0.79025757,0.55782348,0
-2.5717826,-0.46938264,1.1613128,-0.79660392,-0.15649378,-0.5838939,0
3.4841838,-3.690486,-1.3630362,0.54872245,-0.59245491,-0.58983147,0
-0.63976204,0.11183035,-1.680424,-0.79660392,-0.15649378,-0.5838939,0
-1.7923031,0.19584978,3.1985021,-0.25362587,-0.79025757,0.55782348,0
-0.5646292,4.0165458,1.8484602,0.25362587,0.79025757,-0.55782348,0
-2.1709666,0.67361534,3.3800294,-0.25362587,-0.79025757,0.55782348,0
-3.0435047,0.51770973,1.6157417,-0.79660392,-0.15649378,-0.5838939,0
-2.9075541,2.831305,0.49583793,-0.79660392,-0.15649378,-0.5838939,0
3.4806831,-1.2018492,-1.7509248,0.79660392,0.15649378,0.5838939,0
-3.5506048,0.80661792,2.1138053,-0.79660392,-0.15649378,-0.5838939,0
-2.6257246,3.4356198,0.24679041,-0.79660392,-0.15649378,-0.5838939,0
-0.91155648,0.078216434,3.4217296,-0.25362587,-0.79025757,0.55782348,0
-2.4213204,3.760772,2.4963841,-0.54872245,0.59245491,0.58983147,0
-0.26655364,-0.16053498,-2.2728209,-0.79660392,-0.15649378,-0.5838939,0
-0.46205062,-1.5975373,-1.5341206,-0.79660392,-0.15649378,-0.5838939,0
-3.7104006,1.229345,3.5868325,-0.25362587,-0.79025757,0.55782348,0
-3.3263927,0.99607098,1.6478362,-0.79660392,-0.15649378,-0.5838939,0
0.046043396,-1.9401844,0.92804623,-0.25362587,-0.79025757,0.55782348,0
-0.052491188,-2.740715,-0.25913584,-0.25362587,-0.79025757,0.55782348,0
3.7445965,-2.3574688,-2.6929636,0.54872245,-0.59245491,-0.58983147,0
1.3348498,2.1396248,-0.074640185,0.25362587,0.79025757,-0.55782348,0
0.28599811,2.9186094,0.63627219,0.25362587,0.79025757,-0.55782348,0
0.05557394,2.372678,-0.28144509,0.25362587,0.79025757,-0.55782348,0
-1.2703117,1.1311264,-1.2624654,-0.79660392,-0.15649378,-0.5838939,0
0.86010092,-1.6830548,-3.2841709,-0.79660392,-0.15649378,-0.5838939,0
1.4837186,0.23423287,-2.7030339,0.25362587,0.79025757,-0.55782348,0
-0.31775403,-0.17279041,3.1026387,0.79660392,0.15649378,0.5838939,0
-3.32374,4.2757211,1.2367511,-0.54872245,0.59245491,0.58983147,0
-0.72691321,0.15459371,3.4544785,-0.25362587,-0.79025757,0.55782348,0
3.1431954,-2.3031991,-3.388341,0.54872245,-0.59245491,-0.58983147,0
2.2091098,-4.4056187,-1.9256582,0.54872245,-0.59245491,-0.58983147,0
-1.6364824,2.8535886,-0.24619532,0.25362587,0.79025757,-0.55782348,0
0.91232133,0.65176672,-2.4140222,0.25362587,0.79025757,-0.55782348,0
3.2304695,-4.1805067,-0.91941977,-0.25362587,-0.79025757,0.55782348,0
0.63352442,-2.5213075,0.45661557,-0.25362587,-0.79025757,0.55782348,0
0.85277319,-2.7961905,-3.0644341,-0.79660392,-0.15649378,-0.5838939,0
2.3423843,-1.7696517,-4.5681853,0.54872245,-0.59245491,-0.58983147,0
-1.9029329,-0.85647178,1.3991517,-0.25362587,-0.79025757,0.55782348,0
-2.8939438,1.7551522,3.8777862,-0.54872245,0.59245491,0.58983147,0
-0.018465877,0.62396693,2.3728433,0.79660392,0.15649378,0.5838939,0
-2.125838,4.1372538,1.4872565,0.25362587,0.79025757,-0.55782348,0
1.7800417,-3.6454804,-3.1519222,0.54872245,-0.59245491,-0.58983147,0
-2.3489552,2.3931794,0.041473389,-0.79660392,-0.15649378,-0.5838939,0
3.4263937,-2.3589892,-1.5307832,0.79660392,0.15649378,0.5838939,0
2.4500682,-3.896606,-0.65166283,-0.25362587,-0.79025757,0.55782348,0
3.7286403,-2.5623698,-2.2764077,0.54872245,-0.59245491,-0.58983147,0
-0.1538682,-1.1632041,-1.9998962,-0.79660392,-0.15649378,-0.5838939,0
-3.0434294,1.6782503,3.8532176,-0.54872245,0.59245491,0.58983147,0
3.4657111,-1.4778748,-3.6010318,0.54872245,-0.59245491,-0.58983147,0
-2.0099409,0.19943951,3.0762632,-0.25362587,-0.79025757,0.55782348,0
-2.9966717,4.348671,1.2096906,0.25362587,0.79025757,-0.55782348,0
3.4584224,-2.6133318,-1.5151448,0.79660392,0.15649378,0.5838939,0
-1.5884116,0.29638326,3.4445207,-0.25362587,-0.79025757,0.55782348,0
-4.141726,1.1475966,3.1860943,-0.25362587,-0.79025757,0.55782348,0
-2.1608241,2.7679906,3.6435051,-0.54872245,0.59245491,0.58983147,0
-1.4610302,-1.6645392,0.69482195,-0.25362587,-0.79025757,0.55782348,0
-2.0640502,-0.71951175,0.58565521,-0.79660392,-0.15649378,-0.5838939,0
2.9799702,-3.1564529,-2.5113535,0.54872245,-0.59245491,-0.58983147,0
-2.1955342,3.7358961,2.847908,-0.54872245,0.59245491,0.58983147,0
1.7350322,-0.47003514,0.22218817,0.79660392,0.15649378,0.5838939,0
0.87636501,-3.2661238,-2.9017358,-0.79660392,-0.15649378,-0.5838939,0
-2.1644943,2.1174753,4.4382348,-0.54872245,0.59245491,0.58983147,0
-3.5938711,2.273828,2.9193172,-0.54872245,0.59245491,0.58983147,0
2.0307918,0.88361716,-0.5554412,0.79660392,0.15649378,0.5838939,0
-0.23797607,-1.3926908,1.6439505,-0.25362587,-0.79025757,0.55782348,0
3.7828765,-2.2665935,-1.8986015,0.79660392,0.15649378,0.5838939,0
-0.054649115,-0.050131917,2.5176396,0.79660392,0.15649378,0.5838939,0
-1.4424802,4.6271482,2.4553804,-0.54872245,0.59245491,0.58983147,0
0.098104537,-1.3322269,-2.4144225,-0.79660392,-0.15649378,-0.5838939,0
0.57603014,-4.241066,-2.3420343,-0.79660392,-0.15649378,-0.5838939,0
-2.8735638,1.9259493,3.8162856,-0.54872245,0.59245491,0.58983147,0
1.0929862,-0.99620831,1.4862311,0.79660392,0.15649378,0.5838939,0
-2.703764,2.7963734,2.9858146,-0.54872245,0.59245491,0.58983147,0
3.0728528,-2.2791886,-3.2045565,0.54872245,-0.59245491,-0.58983147,0
-0.82413793,2.6192346,3.1441932,0.79660392,0.15649378,0.5838939,0
1.0898683,-0.29609585,-3.521229,0.25362587,0.79025757,-0.55782348,0
-1.7529619,2.4795756,-0.81392145,0.25362587,0.79025757,-0.55782348,0
1.0708214,-3.6387143,-2.8915811,-0.79660392,-0.15649378,-0.5838939,0
-4.2540832,1.2711531,2.8952308,-0.79660392,-0.15649378,-0.5838939,0
1.4803913,-4.2150683,-1.8097262,-0.25362587,-0.79025757,0.55782348,0
0.88159811,-4.0510802,-1.5800667,-0.25362587,-0.79025757,0.55782348,0
0.12631559,-1.8932353,1.0569021,-0.25362587,-0.79025757,0.55782348,0
2.1080382,-2.0257249,-4.6366234,0.54872245,-0.59245491,-0.58983147,0
3.0249956,-0.4498522,-2.7242856,0.25362587,0.79025757,-0.55782348,0
-2.8600798,1.3531092,4.0960526,-0.25362587,-0.79025757,0.55782348,0
2.3034244,-3.9500775,-2.4762993,0.54872245,-0.59245491,-0.58983147,0
-0.41112804,3.4818761,1.0551703,0.25362587,0.79025757,-0.55782348,0
0.95787334,1.9110467,0.82259738,0.79660392,0.15649378,0.5838939,0
-2.0811024,4.2841582,2.1933594,-0.54872245,0.59245491,0.58983147,0
-2.4974115,1.4051713,4.4460368,-0.25362587,-0.79025757,0.55782348,0
-2.7973468,2.5842218,3.3696485,-0.54872245,0.59245491,0.58983147,0
-1.1210742,0.32184196,-1.1383784,-0.79660392,-0.15649378,-0.5838939,0
1.9301904,-4.4770584,-2.3476348,0.54872245,-0.59245491,-0.58983147,0
-1.1633495,2.6145625,3.3867192,0.79660392,0.15649378,0.5838939,0
-2.1616013,2.0127032,-0.23294187,-0.79660392,-0.15649378,-0.5838939,0
-0.36954403,-0.25823963,3.0342526,0.79660392,0.15649378,0.5838939,0
-0.20622313,2.4952142,-0.16755986,0.25362587,0.79025757,-0.55782348,0
0.43587247,-1.9527628,-2.8060353,-0.79660392,-0.15649378,-0.5838939,0
-0.62924993,-1.3970187,-1.3755342,-0.79660392,-0.15649378,-0.5838939,0
1.2228289,1.5980587,-0.93609929,0.25362587,0.79025757,-0.55782348,0
3.6229887,-1.6880155,-3.2583833,0.54872245,-0.59245491,-0.58983147,0
2.4388652,-4.0540915,-2.2556195,0.54872245,-0.59245491,-0.58983147,0
0.39874411,2.3213956,1.2822421,0.79660392,0.15649378,0.5838939,0
1.8526251,-4.0411334,-1.1840973,-0.25362587,-0.79025757,0.55782348,0
0.91124785,-0.30549335,-3.5387485,0.25362587,0.79025757,-0.55782348,0
2.877068,-2.3498566,-0.80900669,0.79660392,0.15649378,0.5838939,0
-3.1409559,1.8873119,3.5455923,-0.54872245,0.59245491,0.58983147,0
-2.9993336,0.96690494,3.7338328,-0.25362587,-0.79025757,0.55782348,0
0.19882977,0.097202897,2.232255,0.79660392,0.15649378,0.5838939,0
-2.9677985,2.1593456,3.5670662,-0.54872245,0.59245491,0.58983147,0
3.7759509,-2.5003033,-2.5776024,0.54872245,-0.59245491,-0.58983147,0
-0.41592759,-2.0791233,-1.4383984,-0.79660392,-0.15649378,-0.5838939,0
3.2947035,-1.4448944,-3.7996593,0.54872245,-0.59245491,-0.58983147,0
2.3526568,-1.9982276,-4.260726,0.54872245,-0.59245491,-0.58983147,0
-0.77663469,0.75506246,3.4960208,0.79660392,0.15649378,0.5838939,0
-2.7898538,1.2310528,4.2290778,-0.25362587,-0.79025757,0.55782348,0
-2.449883,-0.69312179,1.4946936,-0.25362587,-0.79025757,0.55782348,0
3.3566852,-0.49224085,-2.6414244,0.25362587,0.79025757,-0.55782348,0
1.6715667,-2.3056026,-4.2689857,-0.79660392,-0.15649378,-0.5838939,0
3.5118067,-2.8506198,-2.3250542,0.54872245,-0.59245491,-0.58983147,0
2.4846082,-2.4531436,-0.24471927,0.79660392,0.15649378,0.5838939,0
-3.9769092,2.4573448,2.3388186,-0.79660392,-0.15649378,-0.5838939,0
-2.2235565,3.051368,3.3265176,-0.54872245,0.59245491,0.58983147,0
0.7077142,-0.91117334,-3.4065945,-0.79660392,-0.15649378,-0.5838939,0
3.166431,-3.808681,-0.64946318,0.79660392,0.15649378,0.5838939,0
-0.22051531,-0.165259,-2.125685,-0.79660392,-0.15649378,-0.5838939,0
-4.1042519,2.0548747,2.754982,-0.54872245,0.59245491,0.58983147,0
1.1915638,1.4684098,-0.97197282,0.25362587,0.79025757,-0.55782348,0
-1.2016884,4.2345638,2.983932,-0.54872245,0.59245491,0.58983147,0
2.1985629,-3.1037693,0.064999104,-0.25362587,-0.79025757,0.55782348,0
-2.7805867,-0.41906679,1.2069719,-0.79660392,-0.15649378,-0.5838939,0
2.7972589,-4.3257551,-1.6640878,0.54872245,-0.59245491,-0.58983147,0
-2.6067729,2.7421331,0.20846343,-0.79660392,-0.15649378,-0.5838939,0
-1.9988114,3.8479953,0.9100616,0.25362587,0.79025757,-0.55782348,0
-0.76207572,-1.5389551,-1.2400091,-0.79660392,-0.15649378,-0.5838939,0
-0.25309694,0.22254515,2.8498199,0.79660392,0.15649378,0.5838939,0
-1.8613987,3.1859431,3.6856265,-0.54872245,0.59245491,0.58983147,0
-2.573112,1.5180029,0.38838434,-0.79660392,-0.15649378,-0.5838939,0
1.2008393,1.5181203,-0.94449508,0.25362587,0.79025757,-0.55782348,0
1.8559135,-2.1557019,0.47467661,0.79660392,0.15649378,0.5838939,0
-2.0249269,4.5024734,1.9187894,-0.54872245,0.59245491,0.58983147,0
-1.2020037,0.36617243,-1.0463722,-0.79660392,-0.15649378,-0.5838939,0
-1.7842777,-0.83368349,1.7278349,-0.25362587,-0.79025757,0.55782348,0
-0.55748761,0.57440305,-1.9637411,-0.79660392,-0.15649378,-0.5838939,0
-1.1131715,2.8498755,3.1623726,0.79660392,0.15649378,0.5838939,0
-1.9426913,1.8531064,4.8314567,-0.54872245,0.59245491,0.58983147,0
2.7221193,-1.7128537,-0.56414485,0.79660392,0.15649378,0.5838939,0
-4.2022862,1.7587403,2.6591086,-0.54872245,0.59245491,0.58983147,0
-1.5878544,4.1119399,1.5136294,0.25362587,0.79025757,-0.55782348,0
3.4613872,-4.1977868,-1.2029047,0.54872245,-0.59245491,-0.58983147,0
2.7930405,-0.65482199,-3.1541975,0.25362587,0.79025757,-0.55782348,0
2.6273005,-2.4335413,-3.6838846,0.54872245,-0.59245491,-0.58983147,0
-1.2523985,-2.10602,-0.03704381,-0.25362587,-0.79025757,0.55782348,0
0.17861497,-2.2521892,0.40540522,-0.25362587,-0.79025757,0.55782348,0
-2.9992504,0.7805593,1.3257957,-0.79660392,-0.15649378,-0.5838939,0
1.5860771,0.89414835,0.0082301795,0.79660392,0.15649378,0.5838939,0
-0.31330466,3.6608558,1.4367089,0.25362587,0.79025757,-0.55782348,0
2.1006751,0.0092187077,-2.515142,0.25362587,0.79025757,-0.55782348,0
0.59889686,-4.1172729,-1.9285042,-0.25362587,-0.79025757,0.55782348,0
0.929317,-1.85112,1.2559578,-0.25362587,-0.79025757,0.55782348,0
-2.7965949,-0.4295826,1.8038938,-0.25362587,-0.79025757,0.55782348,0
0.42458007,1.0548079,1.5681504,0.79660392,0.15649378,0.5838939,0
3.6712379,-0.91777056,-2.3344314,0.79660392,0.15649378,0.5838939,0
-3.2969232,1.5469372,3.7500267,-0.54872245,0.59245491,0.58983147,0
3.102273,-1.0739461,-3.8156695,0.25362587,0.79025757,-0.55782348,0
1.4522122,-4.2768373,-2.8456268,0.54872245,-0.59245491,-0.58983147,0
-3.5538764,3.3031678,1.5136518,-0.79660392,-0.15649378,-0.5838939,0
-2.6768701,4.0953774,0.98609972,0.25362587,0.79025757,-0.55782348,0
2.2576096,-1.740303,-4.6013355,0.54872245,-0.59245491,-0.58983147,0
2.1015377,-3.7632017,-0.8260119,-0.25362587,-0.79025757,0.55782348,0
3.017931,-3.5190916,-2.2977991,0.54872245,-0.59245491,-0.58983147,0
-1.6256207,2.6277757,-0.48699689,0.25362587,0.79025757,-0.55782348,0
3.2892332,-3.1654935,-2.24262,0.54872245,-0.59245491,-0.58983147,0
0.67607427,-1.8068047,1.3710996,-0.25362587,-0.79025757,0.55782348,0
-2.7814043,3.7840676,2.235642,-0.54872245,0.59245491,0.58983147,0
0.82122934,-0.29283059,-3.5298622,-0.79660392,-0.15649378,-0.5838939,0
3.6997406,-0.625678,-2.4451673,0.79660392,0.15649378,0.5838939,0
0.12283313,1.5738583,-1.2221097,0.25362587,0.79025757,-0.55782348,0
2.4148343,0.31829393,-0.89653218,0.79660392,0.15649378,0.5838939,0
1.7091033,-1.5719181,0.5942198,0.79660392,0.15649378,0.5838939,0
-0.80971313,-0.09148407,3.095506,-0.25362587,-0.79025757,0.55782348,0
2.3757029,-3.2717445,-2.9822779,0.54872245,-0.59245491,-0.58983147,0
-1.4838777,4.4476833,2.614244,-0.54872245,0.59245491,0.58983147,0
-2.782131,4.3281054,1.5625215,-0.54872245,0.59245491,0.58983147,0
-2.426373,1.814446,4.2612915,-0.54872245,0.59245491,0.58983147,0
2.4951081,-4.5168157,-1.6483126,-0.25362587,-0.79025757,0.55782348,0
2.9434998,-2.5000753,-3.0719829,0.54872245,-0.59245491,-0.58983147,0
-2.2688856,1.63087,4.5941997,-0.54872245,0.59245491,0.58983147,0
0.58066082,-4.3020935,-2.2056923,-0.25362587,-0.79025757,0.55782348,0
1.8127556,0.91235673,-1.5541954,0.25362587,0.79025757,-0.55782348,0
0.91618252,0.88864899,-2.0328169,0.25362587,0.79025757,-0.55782348,0
2.01441,-3.7089221,-0.77677202,-0.25362587,-0.79025757,0.55782348,0
-0.73232669,-0.038230181,-1.6286671,-0.79660392,-0.15649378,-0.5838939,0
-2.2422652,-0.0098542571,2.5133631,-0.25362587,-0.79025757,0.55782348,0
0.66381109,2.0074785,-0.3450807,0.25362587,0.79025757,-0.55782348,0
-1.741467,-0.9804948,1.4513013,-0.25362587,-0.79025757,0.55782348,0
1.9624326,-0.96190834,-4.2307949,0.25362587,0.79025757,-0.55782348,0
-2.6165853,2.2871482,3.9061313,-0.54872245,0.59245491,0.58983147,0
0.5951339,0.46433845,-2.59605,0.25362587,0.79025757,-0.55782348,0
3.7795742,-2.3215215,-2.7013192,0.54872245,-0.59245491,-0.58983147,0
-2.237941,4.201798,2.2477741,-0.54872245,0.59245491,0.58983147,0
-2.4597101,3.3991008,0.24989414,0.25362587,0.79025757,-0.55782348,0
-2.0650334,0.069251567,2.6412475,-0.25362587,-0.79025757,0.55782348,0
3.2553577,-1.8190794,-3.6755261,0.54872245,-0.59245491,-0.58983147,0
3.6746621,-3.1128418,-1.8073006,0.54872245,-0.59245491,-0.58983147,0
2.9561744,-3.8498566,-1.6992917,0.54872245,-0.59245491,-0.58983147,0
3.6816561,-0.82875645,-3.0818901,0.25362587,0.79025757,-0.55782348,0
-0.050978303,-0.27206588,2.8216944,0.79660392,0.15649378,0.5838939,0
-2.8545353,2.018549,0.85138106,-0.79660392,-0.15649378,-0.5838939,0
1.909134,1.3700931,-0.64320886,0.25362587,0.79025757,-0.55782348,0
-0.23018551,1.0158204,2.5238886,0.79660392,0.15649378,0.5838939,0
1.560436,-2.6008723,0.5103153,-0.25362587,-0.79025757,0.55782348,0
0.095529482,-2.0207794,-2.2496965,-0.79660392,-0.15649378,-0.5838939,0
3.050715,-3.0570326,-2.6184325,0.54872245,-0.59245491,-0.58983147,0
0.56474054,-2.9383054,-0.44903708,-0.25362587,-0.79025757,0.55782348,0
2.863142,-2.8516684,-2.8402205,0.54872245,-0.59245491,-0.58983147,0
-1.6667191,4.5656371,2.1992383,-0.54872245,0.59245491,0.58983147,0
-0.12506628,-1.4879401,1.4516619,-0.25362587,-0.79025757,0.55782348,0
0.7508533,-1.141906,-3.3934767,-0.79660392,-0.15649378,-0.5838939,0
-2.2097049,0.64902461,3.4039466,-0.25362587,-0.79025757,0.55782348,0
-0.77745533,4.0325289,2.4007063,0.79660392,0.15649378,0.5838939,0
2.8573165,-0.34323469,-2.6373179,0.25362587,0.79025757,-0.55782348,0
-0.30945265,-0.81438589,2.2170389,-0.25362587,-0.79025757,0.55782348,0
-0.91976857,-0.35096666,2.6236823,-0.25362587,-0.79025757,0.55782348,0
-3.0207291,2.6262901,3.1810155,-0.54872245,0.59245491,0.58983147,0
3.2218153,-3.8791702,-1.4394841,0.54872245,-0.59245491,-0.58983147,0
0.071030617,-0.014074087,2.4016771,0.79660392,0.15649378,0.5838939,0
1.4617398,-3.8791132,-1.1103909,-0.25362587,-0.79025757,0.55782348,0
-3.6713402,3.2627702,1.93852,-0.54872245,0.59245491,0.58983147,0
1.9960219,-1.4273428,0.15787601,0.79660392,0.15649378,0.5838939,0
-2.2734816,3.4923146,2.8000679,-0.54872245,0.59245491,0.58983147,0
-0.91448212,-1.630686,0.90223646,-0.25362587,-0.79025757,0.55782348,0
1.8779523,0.31298786,-2.399466,0.25362587,0.79025757,-0.55782348,0
3.0064087,-0.75604832,-3.204849,0.25362587,0.79025757,-0.55782348,0
3.7136834,-1.8188429,-3.362195,0.54872245,-0.59245491,-0.58983147,0
-2.0578589,4.041573,2.5237846,-0.54872245,0.59245491,0.58983147,0
-1.3780546,2.4815385,3.8688812,0.79660392,0.15649378,0.5838939,0
2.6358695,-3.2395339,-2.8909564,0.54872245,-0.59245491,-0.58983147,0
-2.2662196,0.0081145912,2.7270131,-0.25362587,-0.79025757,0.55782348,0
-1.3276138,4.412879,2.9118266,-0.54872245,0.59245491,0.58983147,0
-0.1986084,2.2480431,-0.59359503,0.25362587,0.79025757,-0.55782348,0
-1.4008586,1.6553879,-1.1599895,-0.79660392,-0.15649378,-0.5838939,0
-2.0297699,0.10967945,2.7378571,-0.25362587,-0.79025757,0.55782348,0
1.8586824,1.4545031,-0.73803097,0.25362587,0.79025757,-0.55782348,0
1.9311212,-4.3708253,-1.806428,-0.25362587,-0.79025757,0.55782348,0
-0.75138241,3.1075974,2.7565994,0.79660392,0.15649378,0.5838939,0
-0.017269492,2.993012,1.6614878,0.79660392,0.15649378,0.5838939,0
-1.7378943,-0.83718044,1.7416265,-0.25362587,-0.79025757,0.55782348,0
-0.03690207,-0.65750456,2.5978987,-0.25362587,-0.79025757,0.55782348,0
1.4971875,-3.4933057,-3.5364962,0.54872245,-0.59245491,-0.58983147,0
-3.0766444,3.2381186,2.4644475,-0.54872245,0.59245491,0.58983147,0
-2.2155938,-0.88992465,1.220392,-0.25362587,-0.79025757,0.55782348,0
1.5120888,-3.8748834,-1.2268796,-0.25362587,-0.79025757,0.55782348,0
0.88612509,-1.3970814,-3.4527268,-0.79660392,-0.15649378,-0.5838939,0
0.33993018,-3.5480549,-1.9575641,-0.79660392,-0.15649378,-0.5838939,0
-2.6245298,3.6467056,0.42156601,0.25362587,0.79025757,-0.55782348,0
3.1143308,-3.6930537,-1.7422976,0.54872245,-0.59245491,-0.58983147,0
0.023540139,-0.050463438,-2.6300819,-0.79660392,-0.15649378,-0.5838939,0
-1.2576611,-0.70426893,2.163651,-0.25362587,-0.79025757,0.55782348,0
1.9932724,-2.2835293,-4.1668563,0.54872245,-0.59245491,-0.58983147,0
1.5165086,-4.2532163,-1.631567,-0.25362587,-0.79025757,0.55782348,0
-2.2823565,4.4111509,1.9019618,-0.54872245,0.59245491,0.58983147,0
1.3874242,0.31364468,-2.6097529,0.25362587,0.79025757,-0.55782348,0
-0.19100189,-3.32552,-1.5402629,-0.79660392,-0.15649378,-0.5838939,0
0.0075917244,0.51021874,-2.8576288,0.25362587,0.79025757,-0.55782348,0
3.6337152,-3.3021622,-1.7074175,0.54872245,-0.59245491,-0.58983147,0
-1.9099462,-0.69009107,1.810434,-0.25362587,-0.79025757,0.55782348,0
-1.2040383,1.7826501,3.5888648,0.79660392,0.15649378,0.5838939,0
2.6051764,-4.0993528,-1.1836314,-0.25362587,-0.79025757,0.55782348,0
-3.4906995,2.8645506,2.2582865,-0.54872245,0.59245491,0.58983147,0
-2.7003865,2.8393459,2.9495354,-0.54872245,0.59245491,0.58983147,0
2.4339073,0.58392787,-1.7612126,0.25362587,0.79025757,-0.55782348,0
0.72750986,-1.6874285,1.6507413,-0.25362587,-0.79025757,0.55782348,0
-3.1026931,3.16293,2.3923836,-0.54872245,0.59245491,0.58983147,0
-3.1404066,4.0917149,0.75292397,0.25362587,0.79025757,-0.55782348,0
0.40622127,1.1176672,-1.7614942,0.25362587,0.79025757,-0.55782348,0
1.3519629,-2.4066479,0.73082244,-0.25362587,-0.79025757,0.55782348,0
-2.6219788,4.2531981,1.700067,-0.54872245,0.59245491,0.58983147,0
-2.3996594,3.8579111,0.92509747,0.25362587,0.79025757,-0.55782348,0
1.6769605,1.3320774,-0.93863237,0.25362587,0.79025757,-0.55782348,0
-1.6037062,-1.1176295,1.1269884,-0.25362587,-0.79025757,0.55782348,0
2.2500365,-3.1592391,0.059809923,-0.25362587,-0.79025757,0.55782348,0
3.3905013,-2.9796858,-2.193274,0.54872245,-0.59245491,-0.58983147,0
1.4969553,-3.5771389,-0.90727234,-0.25362587,-0.79025757,0.55782348,0
1.2545608,-1.0158395,1.2019217,0.79660392,0.15649378,0.5838939,0
1.9184999,-1.0034848,-4.1486712,0.25362587,0.79025757,-0.55782348,0
2.8975298,-3.156064,-2.7118773,0.54872245,-0.59245491,-0.58983147,0
-1.4872757,-0.84029758,1.6447508,-0.25362587,-0.79025757,0.55782348,0
-0.75164163,3.9395194,1.560859,0.25362587,0.79025757,-0.55782348,0
-0.8866601,-0.11936456,2.9085164,-0.25362587,-0.79025757,0.55782348,0
-2.4956491,2.8816714,3.3242965,-0.54872245,0.59245491,0.58983147,0
2.3496318,-1.9998579,-4.3458295,0.54872245,-0.59245491,-0.58983147,0
0.27975702,2.7596169,0.33197725,0.25362587,0.79025757,-0.55782348,0
-1.0398592,-2.1340294,-0.45553106,-0.79660392,-0.15649378,-0.5838939,0
-0.90111017,1.1373401,3.3247507,0.79660392,0.15649378,0.5838939,0
-2.4101872,1.6768122,0.23296547,-0.79660392,-0.15649378,-0.5838939,0
-1.1438968,0.92688137,-1.1581295,-0.79660392,-0.15649378,-0.5838939,0
-2.9185977,4.3468046,1.4652977,-0.54872245,0.59245491,0.58983147,0
-1.1023333,0.39588439,3.7901838,-0.25362587,-0.79025757,0.55782348,0
-1.3172722,3.9847724,1.3161733,0.25362587,0.79025757,-0.55782348,0
-2.5618534,3.275887,2.9504404,-0.54872245,0.59245491,0.58983147,0
-0.89299893,-0.123568,3.1059947,-0.25362587,-0.79025757,0.55782348,0
-0.6985209,-1.5788369,0.90062302,-0.25362587,-0.79025757,0.55782348,0
-3.4813757,1.943145,3.2380857,-0.54872245,0.59245491,0.58983147,0
3.6679294,-2.973537,-1.9743738,0.54872245,-0.59245491,-0.58983147,0
-3.0562508,2.8718855,2.6484342,-0.54872245,0.59245491,0.58983147,0
-4.3411975,1.5411041,3.05829,-0.54872245,0.59245491,0.58983147,0
2.9937367,-1.4683605,-4.0752225,0.54872245,-0.59245491,-0.58983147,0
1.3719671,-3.743304,-1.1503186,-0.25362587,-0.79025757,0.55782348,0
-1.4690645,4.223753,2.7498221,-0.54872245,0.59245491,0.58983147,0
3.2702072,-2.821435,-2.7274194,0.54872245,-0.59245491,-0.58983147,0
-0.025227308,-3.214958,-0.93063998,-0.25362587,-0.79025757,0.55782348,0
-2.2948701,3.6146731,2.6931834,-0.54872245,0.59245491,0.58983147,0
-3.6372561,0.47772145,2.4967775,-0.25362587,-0.79025757,0.55782348,0
-2.4904411,3.5249877,2.5361176,-0.54872245,0.59245491,0.58983147,0
3.4115002,-2.9350038,-2.2893953,0.54872245,-0.59245491,-0.58983147,0
-0.39185417,3.4965079,2.0794697,0.79660392,0.15649378,0.5838939,0
-2.1553833,3.3644571,3.0594506,-0.54872245,0.59245491,0.58983147,0
2.2277799,-4.4504962,-2.0613809,0.54872245,-0.59245491,-0.58983147,0
-2.2624884,3.4139104,0.047326088,0.25362587,0.79025757,-0.55782348,0
-3.6182873,2.163604,1.7539287,-0.79660392,-0.15649378,-0.5838939,0
-0.52001762,-1.0858636,-1.479463,-0.79660392,-0.15649378,-0.5838939,0
-3.3125458,3.3233454,2.0846314,-0.54872245,0.59245491,0.58983147,0
2.6651435,-4.2175117,-1.7749457,0.54872245,-0.59245491,-0.58983147,0
-1.1840265,-1.2712349,1.3792427,-0.25362587,-0.79025757,0.55782348,0
1.14393,-2.9320688,-0.068039894,-0.25362587,-0.79025757,0.55782348,0
1.2882543,-3.905344,-1.3322673,-0.25362587,-0.79025757,0.55782348,0
-2.4729822,3.4234946,2.8035393,-0.54872245,0.59245491,0.58983147,0
3.702713,-2.1109009,-2.8421392,0.54872245,-0.59245491,-0.58983147,0
0.64797282,-3.5846179,-2.554373,-0.79660392,-0.15649378,-0.5838939,0
-3.2528477,4.2173119,1.3108554,-0.54872245,0.59245491,0.58983147,0
-3.3353522,2.8981936,2.3636737,-0.54872245,0.59245491,0.58983147,0
-0.2699399,3.9358811,1.7974014,0.25362587,0.79025757,-0.55782348,0
-1.8204451,-1.3047198,0.28482461,-0.79660392,-0.15649378,-0.5838939,0
0.55450553,1.0243651,1.6950235,0.79660392,0.15649378,0.5838939,0
-1.1353552,1.6312629,3.762846,0.79660392,0.15649378,0.5838939,0
-3.1815274,3.6379628,0.69562864,-0.79660392,-0.15649378,-0.5838939,0
-1.0688684,2.0451474,3.3291266,0.79660392,0.15649378,0.5838939,0
2.1037366,-3.1125379,-3.289537,0.54872245,-0.59245491,-0.58983147,0
0.031704813,-1.5334479,-2.1942194,-0.79660392,-0.15649378,-0.5838939,0
-2.2616973,4.5448389,1.7070775,-0.54872245,0.59245491,0.58983147,0
-3.1796527,4.1658826,1.2751064,-0.54872245,0.59245491,0.58983147,0
3.0603719,-3.3860688,-2.1430626,0.54872245,-0.59245491,-0.58983147,0
1.7441859,-0.21511781,-3.0348451,0.25362587,0.79025757,-0.55782348,0
2.1864309,0.38867962,-0.40960276,0.79660392,0.15649378,0.5838939,0
-0.63355064,3.4256318,2.5702009,0.79660392,0.15649378,0.5838939,0
0.68297565,-1.727536,1.4689596,-0.25362587,-0.79025757,0.55782348,0
2.0541849,-2.3820333,0.25476313,0.79660392,0.15649378,0.5838939,0
-1.95581,-0.96415114,0.34669381,-0.79660392,-0.15649378,-0.5838939,0
0.14434251,1.7274294,1.7435776,0.79660392,0.15649378,0.5838939,0
2.4603834,-2.446779,-3.570508,0.54872245,-0.59245491,-0.58983147,0
-1.3091217,1.2949568,4.0293508,0.79660392,0.15649378,0.5838939,0
1.4950829,-4.1886425,-1.6902075,-0.25362587,-0.79025757,0.55782348,0
-2.8113272,4.4363484,1.489665,-0.54872245,0.59245491,0.58983147,0
-2.9198303,3.4954505,2.2041521,-0.54872245,0.59245491,0.58983147,0
2.7365303,-4.074698,-1.0345802,-0.25362587,-0.79025757,0.55782348,0
