3.6781306,-2.1188846,0.231022,0.24454218,-0.67149591,0.6994943,0
1.1296731,2.6973796,-0.83973491,0.12875164,0.73749596,0.66296506,0
-3.277154,-1.0402799,2.6405435,-0.9610526,-0.072061807,0.26680505,0
-1.1969001,-0.59172994,-1.4104061,-0.12875164,-0.73749596,-0.66296506,0
3.6133904,-2.1632471,-0.6158458,-0.12875164,-0.73749596,-0.66296506,0
-3.5405111,-2.3581634,0.95719743,-0.12875164,-0.73749596,-0.66296506,0
1.8257992,0.10207344,-2.634851,-0.12875164,-0.73749596,-0.66296506,0
-4.0525384,1.2987287,-0.95568216,-0.24454218,0.67149591,-0.6994943,0
-3.5606084,-0.013748527,1.9020336,-0.9610526,-0.072061807,0.26680505,0
4.0706997,-2.0251682,0.093238592,0.24454218,-0.67149591,0.6994943,0
2.5392535,2.9393027,-1.5081062,0.12875164,0.73749596,0.66296506,0
0.31163561,0.305305,1.810427,0.12875164,0.73749596,0.66296506,0
4.4993973,-0.76602745,1.0738735,0.9610526,0.072061807,-0.26680505,0
4.1258497,-1.3676445,-0.52657127,0.9610526,0.072061807,-0.26680505,0
-0.4222964,-0.53016675,2.7948918,0.12875164,0.73749596,0.66296506,0
1.2652361,2.8207364,-1.4134061,-0.24454218,0.67149591,-0.6994943,0
4.1567836,-0.68914855,0.02764678,0.9610526,0.072061807,-0.26680505,0
3.7317736,1.7685884,-1.35711,0.9610526,0.072061807,-0.26680505,0
-2.8695576,-2.6026731,2.1815772,0.24454218,-0.67149591,0.6994943,0
-3.9916165,0.90505123,1.0800619,-0.9610526,-0.072061807,0.26680505,0
-1.2296063,-2.9374926,1.1308701,-0.12875164,-0.73749596,-0.66296506,0
1.2044088,1.9623239,-2.042542,-0.24454218,0.67149591,-0.6994943,0
0.53087091,-0.080747724,2.3850915,0.12875164,0.73749596,0.66296506,0
1.3179715,2.0765626,-2.0702877,-0.24454218,0.67149591,-0.6994943,0
2.7818739,-0.89681292,1.877605,0.24454218,-0.67149591,0.6994943,0
3.1772015,1.2862122,-3.3186564,0.9610526,0.072061807,-0.26680505,0
-3.0822804,-2.2855878,0.8877852,-0.12875164,-0.73749596,-0.66296506,0
0.42699933,0.43557775,-2.8519316,-0.12875164,-0.73749596,-0.66296506,0
-2.5181384,-0.45908993,3.1995444,0.12875164,0.73749596,0.66296506,0
2.9655972,-1.4726632,1.1214315,0.24454218,-0.67149591,0.6994943,0
-3.9181888,1.5245823,1.2971597,-0.9610526,-0.072061807,0.26680505,0
1.5746579,-1.6754994,-0.55551803,-0.12875164,-0.73749596,-0.66296506,0
-3.762733,1.530182,-0.92395544,-0.24454218,0.67149591,-0.6994943,0
2.4020903,0.93479693,0.8912245,0.12875164,0.73749596,0.66296506,0
3.3920572,2.3745894,-0.98052692,0.12875164,0.73749596,0.66296506,0
-2.6011527,-1.0252311,-0.66460764,-0.12875164,-0.73749596,-0.66296506,0
-3.7276332,-1.1117225,1.1021097,-0.9610526,-0.072061807,0.26680505,0
-1.6018469,-1.831846,2.3196104,0.24454218,-0.67149591,0.6994943,0
-2.9015875,-1.2711153,3.4755445,0.24454218,-0.67149591,0.6994943,0
2.4217188,2.4634709,-2.0736933,-0.24454218,0.67149591,-0.6994943,0
-4.1509924,-0.51775777,-0.063044786,-0.9610526,-0.072061807,0.26680505,0
2.50804,1.7879918,-0.083824635,0.12875164,0.73749596,0.66296506,0
3.5349383,0.81701523,-1.66482,0.9610526,0.072061807,-0.26680505,0
-3.5080156,0.84298694,-1.3993955,-0.24454218,0.67149591,-0.6994943,0
-0.95843065,-1.5574633,2.2737222,0.24454218,-0.67149591,0.6994943,0
-0.6699962,-2.600574,0.82609236,-0.12875164,-0.73749596,-0.66296506,0
2.4641554,0.68109691,-3.4552281,-0.12875164,-0.73749596,-0.66296506,0
-3.97334,-0.75247419,0.83273077,-0.9610526,-0.072061807,0.26680505,0
1.4304385,-0.056453675,-2.5610018,-0.12875164,-0.73749596,-0.66296506,0
-4.2099247,0.50099492,-1.5578443,-0.24454218,0.67149591,-0.6994943,0
-2.5254273,-2.7553406,1.4312367,-0.12875164,-0.73749596,-0.66296506,0
3.9577813,0.46432948,-0.78160691,0.9610526,0.072061807,-0.26680505,0
-1.8769134,-2.9622829,1.2971735,-0.12875164,-0.73749596,-0.66296506,0
1.8333901,1.7610805,-0.080368757,0.12875164,0.73749596,0.66296506,0
-3.9630513,0.18222058,0.94612694,-0.9610526,-0.072061807,0.26680505,0
-2.1830215,0.8630988,-2.0770092,-0.24454218,0.67149591,-0.6994943,0
1.8384194,1.0637356,-3.227793,-0.24454218,0.67149591,-0.6994943,0
3.2424207,1.6446425,-2.820523,0.9610526,0.072061807,-0.26680505,0
-3.4340115,0.10942507,2.5263638,-0.9610526,-0.072061807,0.26680505,0
-2.7421784,0.67848188,-1.865396,-0.24454218,0.67149591,-0.6994943,0
-3.7097318,-2.2435012,1.2498579,-0.9610526,-0.072061807,0.26680505,0
-2.5908339,-1.4071875,3.0061047,0.24454218,-0.67149591,0.6994943,0
-0.12867188,-2.1539552,0.081703424,-0.12875164,-0.73749596,-0.66296506,0
3.3761318,-1.637135,-1.1006021,-0.12875164,-0.73749596,-0.66296506,0
-3.3959351,-0.133587,2.6587236,-0.9610526,-0.072061807,0.26680505,0
1.480608,1.0874457,-3.0804152,-0.24454218,0.67149591,-0.6994943,0
-3.1992807,1.4817922,1.2050884,0.12875164,0.73749596,0.66296506,0
-2.112608,-2.5090599,1.0228114,-0.12875164,-0.73749596,-0.66296506,0
-4.008872,1.2909909,0.74385619,-0.9610526,-0.072061807,0.26680505,0
4.2385912,-1.7445536,0.35754585,0.24454218,-0.67149591,0.6994943,0
-4.1240096,1.4566187,0.27876711,-0.9610526,-0.072061807,0.26680505,0
0.65426993,-1.1337572,2.123585,0.24454218,-0.67149591,0.6994943,0
-2.0719399,1.1766719,1.3754338,0.12875164,0.73749596,0.66296506,0
-2.9567461,0.66353071,-1.8270791,-0.24454218,0.67149591,-0.6994943,0
-1.1735305,-2.5942082,1.3720852,0.24454218,-0.67149591,0.6994943,0
-1.5379078,0.71468741,-2.3781257,-0.24454218,0.67149591,-0.6994943,0
-3.1156483,-0.094223857,-1.6489184,-0.12875164,-0.73749596,-0.66296506,0
2.9977565,-0.11171453,-2.8246722,-0.12875164,-0.73749596,-0.66296506,0
-4.2260566,1.6031752,0.17274451,-0.9610526,-0.072061807,0.26680505,0
-3.3930781,-1.6338677,2.698004,-0.9610526,-0.072061807,0.26680505,0
3.7440023,-1.0871102,1.1600331,0.24454218,-0.67149591,0.6994943,0
1.0497826,2.1927507,-1.9158262,-0.24454218,0.67149591,-0.6994943,0
-3.6208196,-0.38390088,2.1335964,-0.9610526,-0.072061807,0.26680505,0
3.2056186,2.4478073,-2.4233978,-0.24454218,0.67149591,-0.6994943,0
-3.1199498,-0.45109439,-1.1710601,-0.12875164,-0.73749596,-0.66296506,0
-0.49768662,2.3608141,-0.29486156,0.12875164,0.73749596,0.66296506,0
2.3846064,0.086201429,1.562535,0.12875164,0.73749596,0.66296506,0
-1.2859756,2.5666461,-0.80283147,-0.24454218,0.67149591,-0.6994943,0
-1.54842,1.7080584,0.66239053,0.12875164,0.73749596,0.66296506,0
3.6090715,1.8194332,-1.7520661,0.9610526,0.072061807,-0.26680505,0
1.0797334,2.1324184,-1.7667494,-0.24454218,0.67149591,-0.6994943,0
0.6005156,-1.5561388,1.9677951,0.24454218,-0.67149591,0.6994943,0
4.0685415,-0.38908792,-0.673599,0.9610526,0.072061807,-0.26680505,0
0.80423903,-1.5151958,1.7294421,0.24454218,-0.67149591,0.6994943,0
2.1789026,0.13624719,-2.7407646,-0.12875164,-0.73749596,-0.66296506,0
-4.1656947,-0.042509079,-0.11718416,-0.9610526,-0.072061807,0.26680505,0
-2.7503605,-1.2137656,3.5006828,0.24454218,-0.67149591,0.6994943,0
3.5622797,-0.77780551,-1.9670432,-0.12875164,-0.73749596,-0.66296506,0
2.1089609,1.8181946,-0.18480039,0.12875164,0.73749596,0.66296506,0
-2.4423571,-2.9733665,1.6227784,0.24454218,-0.67149591,0.6994943,0
-2.9522321,-0.17656967,3.0497322,0.12875164,0.73749596,0.66296506,0
2.5194421,0.80913842,-3.5123234,-0.12875164,-0.73749596,-0.66296506,0
3.745378,-0.12783694,-1.8022523,0.9610526,0.072061807,-0.26680505,0
-3.9920683,-0.29439378,0.85101461,-0.9610526,-0.072061807,0.26680505,0
-3.5340405,0.41565031,2.2203984,-0.9610526,-0.072061807,0.26680505,0
3.2526155,1.2554069,0.10707355,0.12875164,0.73749596,0.66296506,0
-0.8293128,-2.7891445,1.2217051,0.24454218,-0.67149591,0.6994943,0
3.301764,0.42408347,-3.0183406,0.9610526,0.072061807,-0.26680505,0
3.7527049,1.7005701,-0.65729213,0.9610526,0.072061807,-0.26680505,0
-1.1653774,1.2684249,-2.0584872,-0.24454218,0.67149591,-0.6994943,0
3.6637826,0.27576423,-1.8031919,0.9610526,0.072061807,-0.26680505,0
-4.0882006,0.26546073,0.21400261,-0.9610526,-0.072061807,0.26680505,0
0.35658312,-2.1238785,1.4203993,0.24454218,-0.67149591,0.6994943,0
3.9305542,-0.62494284,-0.73748517,0.9610526,0.072061807,-0.26680505,0
1.6197722,0.82041621,-3.3665376,-0.24454218,0.67149591,-0.6994943,0
-0.11683321,-1.6329514,2.0651948,0.24454218,-0.67149591,0.6994943,0
-0.96034265,1.8377922,0.27705887,0.12875164,0.73749596,0.66296506,0
-2.0866671,0.81271303,1.6320201,0.12875164,0.73749596,0.66296506,0
0.46661901,0.8540712,-2.9207249,-0.24454218,0.67149591,-0.6994943,0
2.4106331,-0.75836176,2.0131989,0.24454218,-0.67149591,0.6994943,0
3.0931287,2.0914085,-2.6907904,-0.24454218,0.67149591,-0.6994943,0
1.4810406,-2.4824708,0.61119956,0.24454218,-0.67149591,0.6994943,0
-3.7719986,1.9794918,0.751086,0.12875164,0.73749596,0.66296506,0
3.8629298,-1.4738451,0.84401488,0.24454218,-0.67149591,0.6994943,0
-3.3031917,1.4586861,1.3981785,0.12875164,0.73749596,0.66296506,0
-2.0066955,-1.5287669,2.8441775,0.24454218,-0.67149591,0.6994943,0
3.860045,-1.0839373,-1.3641717,0.9610526,0.072061807,-0.26680505,0
-3.3995883,-0.72680748,2.2011449,-0.9610526,-0.072061807,0.26680505,0
-1.020063,1.8181436,-1.429846,-0.24454218,0.67149591,-0.6994943,0
-3.5948219,2.1825113,0.45251405,0.12875164,0.73749596,0.66296506,0
0.68976223,-2.2216392,0.062082142,-0.12875164,-0.73749596,-0.66296506,0
3.7957044,-2.1630507,0.25369966,0.24454218,-0.67149591,0.6994943,0
-1.6880513,-2.545676,0.86223865,-0.12875164,-0.73749596,-0.66296506,0
-3.3014555,-1.3445435,3.0562665,-0.9610526,-0.072061807,0.26680505,0
3.4523726,0.0092391968,-2.7427273,0.9610526,0.072061807,-0.26680505,0
3.8498001,0.19394875,1.3297838,0.12875164,0.73749596,0.66296506,0
-1.1837771,-2.2978117,1.8736465,0.24454218,-0.67149591,0.6994943,0
-3.7162278,1.2602615,-1.0331246,-0.24454218,0.67149591,-0.6994943,0
1.3301541,1.6240711,-2.5084329,-0.24454218,0.67149591,-0.6994943,0
2.3272111,0.24917775,-3.0760088,-0.12875164,-0.73749596,-0.66296506,0
-4.0745044,0.48982024,-1.6312346,-0.24454218,0.67149591,-0.6994943,0
-3.4228802,-0.10128105,-1.3461828,-0.12875164,-0.73749596,-0.66296506,0
1.4714432,-1.0088845,2.2034867,0.24454218,-0.67149591,0.6994943,0
2.4566114,-2.3503261,0.43523145,0.24454218,-0.67149591,0.6994943,0
0.84812111,-2.2593188,-0.0074845254,-0.12875164,-0.73749596,-0.66296506,0
-2.1845737,2.1801298,-0.75395548,-0.24454218,0.67149591,-0.6994943,0
4.0087786,-0.74817896,-0.95580673,0.9610526,0.072061807,-0.26680505,0
4.1783824,-1.1855468,0.86861205,0.24454218,-0.67149591,0.6994943,0
-1.1156958,1.9672201,-1.3852595,-0.24454218,0.67149591,-0.6994943,0
-2.8426247,-2.3597982,2.4051726,0.24454218,-0.67149591,0.6994943,0
-2.7574334,-2.7059789,1.8607306,0.24454218,-0.67149591,0.6994943,0
-4.1721201,-1.0922885,-0.24479985,-0.9610526,-0.072061807,0.26680505,0
1.8461882,2.5945978,-1.6164298,-0.24454218,0.67149591,-0.6994943,0
4.3693576,-1.7384356,0.20522332,0.9610526,0.072061807,-0.26680505,0
-1.7450937,-1.6045094,-0.15432346,-0.12875164,-0.73749596,-0.66296506,0
0.14421165,-2.5957768,0.49587357,-0.12875164,-0.73749596,-0.66296506,0
0.66166919,1.0399525,0.86838549,0.12875164,0.73749596,0.66296506,0
-0.3644464,2.8649347,-0.76812577,-0.24454218,0.67149591,-0.6994943,0
3.4671454,1.0904832,-2.1227996,0.9610526,0.072061807,-0.26680505,0
1.5063748,1.1533115,-3.0292535,-0.24454218,0.67149591,-0.6994943,0
-4.1000538,0.55481261,0.56830001,-0.9610526,-0.072061807,0.26680505,0
2.4572163,-1.0187922,1.8191482,0.24454218,-0.67149591,0.6994943,0
0.054180384,1.1664509,-2.3646252,-0.24454218,0.67149591,-0.6994943,0
0.3304323,-1.8654373,1.7709445,0.24454218,-0.67149591,0.6994943,0
3.8938501,1.7259725,-0.81314063,0.9610526,0.072061807,-0.26680505,0
0.59295809,-1.0408446,-1.1263828,-0.12875164,-0.73749596,-0.66296506,0
3.427213,1.497596,-2.0601552,0.9610526,0.072061807,-0.26680505,0
3.4548588,-0.32476103,-2.6176615,0.9610526,0.072061807,-0.26680505,0
-3.5607491,0.34859022,2.3669012,-0.9610526,-0.072061807,0.26680505,0
4.5223207,-0.080705166,1.4200877,0.9610526,0.072061807,-0.26680505,0
1.896197,2.8865595,-1.4122956,-0.24454218,0.67149591,-0.6994943,0
3.3803129,-1.3835313,1.1989629,0.24454218,-0.67149591,0.6994943,0
1.157904,-0.24316579,2.3688169,0.12875164,0.73749596,0.66296506,0
1.9535961,-1.9029976,-0.55496424,-0.12875164,-0.73749596,-0.66296506,0
-1.148816,-1.8996888,0.20198953,-0.12875164,-0.73749596,-0.66296506,0
-4.1952548,0.12547648,-0.36810279,-0.9610526,-0.072061807,0.26680505,0
-3.8911185,0.57607096,0.92372727,-0.9610526,-0.072061807,0.26680505,0
-4.6179509,0.51388049,-1.2519101,-0.9610526,-0.072061807,0.26680505,0
3.3616712,2.2042217,-2.6467466,0.9610526,0.072061807,-0.26680505,0
-4.3029366,1.7392673,0.082607269,-0.9610526,-0.072061807,0.26680505,0
-3.2930017,-1.040235,-0.58201575,-0.12875164,-0.73749596,-0.66296506,0
4.0836902,-1.5102156,-0.72777247,0.9610526,0.072061807,-0.26680505,0
0.13722479,-1.6256928,-0.61831248,-0.12875164,-0.73749596,-0.66296506,0
1.1974878,0.87494951,-3.0490403,-0.24454218,0.67149591,-0.6994943,0
0.46633828,-1.867304,1.6525021,0.24454218,-0.67149591,0.6994943,0
3.4326677,2.186317,-1.715924,0.9610526,0.072061807,-0.26680505,0
-3.4503443,-0.45699203,2.3847497,-0.9610526,-0.072061807,0.26680505,0
3.1964765,0.85747671,-3.5374503,0.9610526,0.072061807,-0.26680505,0
2.8973081,-1.0260737,1.5752409,0.24454218,-0.67149591,0.6994943,0
3.4825373,1.4280969,-0.12888908,0.12875164,0.73749596,0.66296506,0
3.5848155,0.45033145,-1.7648363,0.9610526,0.072061807,-0.26680505,0
-0.21348327,-0.94744009,-1.1570497,-0.12875164,-0.73749596,-0.66296506,0
3.1908083,1.3489158,-2.8847198,0.9610526,0.072061807,-0.26680505,0
-0.72598124,-0.41439825,-1.56692,-0.12875164,-0.73749596,-0.66296506,0
0.023055315,-1.2311616,2.4922554,0.24454218,-0.67149591,0.6994943,0
3.1957037,0.56800807,-3.2928655,0.9610526,0.072061807,-0.26680505,0
3.5321851,-0.58968109,-2.2011752,-0.12875164,-0.73749596,-0.66296506,0
-0.85689831,-1.4814384,-0.46046913,-0.12875164,-0.73749596,-0.66296506,0
-3.5758922,1.0330094,1.8435955,0.12875164,0.73749596,0.66296506,0
-0.35605264,1.2959695,0.83086324,0.12875164,0.73749596,0.66296506,0
-3.1390026,1.2751448,1.569765,0.12875164,0.73749596,0.66296506,0
3.0084271,-2.3105268,0.37075937,0.24454218,-0.67149591,0.6994943,0
-3.2466121,-1.5210679,2.5265608,-0.9610526,-0.072061807,0.26680505,0
0.62779093,1.116966,0.8277849,0.12875164,0.73749596,0.66296506,0
-0.6165626,-0.0021811128,-2.0961206,-0.12875164,-0.73749596,-0.66296506,0
3.0634255,-0.78033161,1.7672076,0.24454218,-0.67149591,0.6994943,0
-3.6273837,-1.6042284,1.1682746,-0.9610526,-0.072061807,0.26680505,0
-3.3288224,-2.1157897,0.76148963,-0.12875164,-0.73749596,-0.66296506,0
-2.0790052,2.3075957,0.13412863,0.12875164,0.73749596,0.66296506,0
3.3433919,-0.090014219,1.7881935,0.12875164,0.73749596,0.66296506,0
-1.1062109,-0.6370523,-1.2098153,-0.12875164,-0.73749596,-0.66296506,0
1.0949202,0.06924361,-2.512229,-0.12875164,-0.73749596,-0.66296506,0
0.29011285,2.8359923,-0.80277634,0.12875164,0.73749596,0.66296506,0
4.1973896,-2.0926523,-0.26565456,0.9610526,0.072061807,-0.26680505,0
-0.35410464,-0.19478479,2.6627769,0.12875164,0.73749596,0.66296506,0
4.1451054,0.2666558,0.15653348,0.9610526,0.072061807,-0.26680505,0
-2.3249679,-1.3745071,3.1133928,0.24454218,-0.67149591,0.6994943,0
-0.64784247,-1.0149455,-0.91971934,-0.12875164,-0.73749596,-0.66296506,0
-4.0856433,0.18282175,0.61173797,-0.9610526,-0.072061807,0.26680505,0
-2.566144,2.3621771,-0.47014171,-0.24454218,0.67149591,-0.6994943,0
3.8702631,-0.13007271,-1.4572361,0.9610526,0.072061807,-0.26680505,0
-3.5934641,-0.28223306,2.2497344,-0.9610526,-0.072061807,0.26680505,0
2.0291643,-1.0031561,1.7898307,0.24454218,-0.67149591,0.6994943,0
-3.9933145,0.19537365,0.35240197,-0.9610526,-0.072061807,0.26680505,0
-3.240849,-2.8472037,1.4439645,-0.12875164,-0.73749596,-0.66296506,0
-1.326196,-0.35614476,2.8587511,0.12875164,0.73749596,0.66296506,0
-2.6960173,1.3803846,-1.2903575,-0.24454218,0.67149591,-0.6994943,0
-3.5879207,0.20259321,-1.902841,-0.12875164,-0.73749596,-0.66296506,0
-2.2945664,2.239522,-0.66284442,-0.24454218,0.67149591,-0.6994943,0
-2.3907683,-0.87497687,3.5454705,0.24454218,-0.67149591,0.6994943,0
-4.499692,0.77881527,-1.2687452,-0.24454218,0.67149591,-0.6994943,0
-1.7656236,-2.0153852,0.25713325,-0.12875164,-0.73749596,-0.66296506,0
-3.6736999,-1.5604486,1.2353866,-0.9610526,-0.072061807,0.26680505,0
2.8681183,1.8346026,-0.27051163,0.12875164,0.73749596,0.66296506,0
-4.5007324,-0.20436907,-1.0823536,-0.9610526,-0.072061807,0.26680505,0
-3.5986717,1.7028332,1.1270809,0.12875164,0.73749596,0.66296506,0
-1.7756766,0.98987955,-1.9858577,-0.24454218,0.67149591,-0.6994943,0
4.5157323,-0.98318225,0.70346642,0.9610526,0.072061807,-0.26680505,0
1.2396049,-0.56997675,2.5965502,0.24454218,-0.67149591,0.6994943,0
-3.4839149,-2.1070638,2.1746106,-0.9610526,-0.072061807,0.26680505,0
2.0879402,2.5711,-1.8965034,-0.24454218,0.67149591,-0.6994943,0
3.709455,-2.2544131,0.20314491,0.24454218,-0.67149591,0.6994943,0
-1.3240677,1.5760157,-1.6412358,-0.24454218,0.67149591,-0.6994943,0
-3.1172848,2.1709576,-0.28749549,-0.24454218,0.67149591,-0.6994943,0
2.9311249,-0.15450239,1.8701186,0.12875164,0.73749596,0.66296506,0
2.0347497,-0.83073831,2.0484338,0.24454218,-0.67149591,0.6994943,0
-2.6167076,-0.74972212,-1.0261197,-0.12875164,-0.73749596,-0.66296506,0
-2.8230846,-0.46758682,3.248328,0.12875164,0.73749596,0.66296506,0
2.0915446,0.70639932,1.0895305,0.12875164,0.73749596,0.66296506,0
0.26160431,-1.5474229,2.0781317,0.24454218,-0.67149591,0.6994943,0
-2.7428386,-2.357197,2.305609,0.24454218,-0.67149591,0.6994943,0
-4.4849176,1.1483932,-0.80119216,-0.9610526,-0.072061807,0.26680505,0
-0.25513816,1.5249765,-2.0210137,-0.24454218,0.67149591,-0.6994943,0
1.1812018,1.6740483,0.21594417,0.12875164,0.73749596,0.66296506,0
-0.37045741,1.9666417,-0.0025640726,0.12875164,0.73749596,0.66296506,0
3.7232633,1.7601186,-1.053488,0.9610526,0.072061807,-0.26680505,0
-1.3941253,0.87460554,-2.1270676,-0.24454218,0.67149591,-0.6994943,0
1.4417672,0.046006799,1.8736567,0.12875164,0.73749596,0.66296506,0
3.6535845,1.586933,-1.5019717,0.9610526,0.072061807,-0.26680505,0
-0.1825422,-2.1785665,1.5103474,0.24454218,-0.67149591,0.6994943,0
-2.6168232,-2.6971684,1.9681945,0.24454218,-0.67149591,0.6994943,0
4.1850719,-2.3330498,-0.011530876,0.24454218,-0.67149591,0.6994943,0
2.8983176,-0.7868973,-1.9766239,-0.12875164,-0.73749596,-0.66296506,0
-0.57905459,-2.7384012,1.1107782,0.24454218,-0.67149591,0.6994943,0
1.8615106,-0.93202561,1.9795299,0.24454218,-0.67149591,0.6994943,0
2.0151739,2.6558318,-0.9832449,0.12875164,0.73749596,0.66296506,0
-2.17576,-2.7614255,1.7309296,0.24454218,-0.67149591,0.6994943,0
-3.4197936,-2.2594619,2.2260883,-0.9610526,-0.072061807,0.26680505,0
-2.3041387,2.5091243,-0.47635138,-0.24454218,0.67149591,-0.6994943,0
-0.44431853,2.632719,-0.62055188,0.12875164,0.73749596,0.66296506,0
-2.2278445,1.5603004,0.84117532,0.12875164,0.73749596,0.66296506,0
-3.5085917,-0.57170492,2.4250124,-0.9610526,-0.072061807,0.26680505,0
-3.8191803,0.74524391,1.0920722,-0.9610526,-0.072061807,0.26680505,0
-3.9798803,2.2223835,0.080778599,-0.24454218,0.67149591,-0.6994943,0
0.73775959,1.0476528,-2.9251723,-0.24454218,0.67149591,-0.6994943,0
-3.524379,1.6106347,1.0106761,0.12875164,0.73749596,0.66296506,0
4.1228266,0.78357315,-0.13578367,0.9610526,0.072061807,-0.26680505,0
-1.3520346,0.83129406,-2.2896042,-0.24454218,0.67149591,-0.6994943,0
-3.341382,2.2913077,-0.19050241,-0.24454218,0.67149591,-0.6994943,0
-4.1499467,1.3981237,-0.88988221,-0.24454218,0.67149591,-0.6994943,0
-3.8287911,0.57887137,1.6504323,-0.9610526,-0.072061807,0.26680505,0
0.94634855,-2.121721,1.2378877,0.24454218,-0.67149591,0.6994943,0
3.3891263,1.7953598,-2.5629849,0.9610526,0.072061807,-0.26680505,0
-4.4595814,-0.33246124,-0.92367339,-0.9610526,-0.072061807,0.26680505,0
-3.9238806,-0.9649924,0.89241028,-0.9610526,-0.072061807,0.26680505,0
3.7763298,-0.037615895,-1.4549956,0.9610526,0.072061807,-0.26680505,0
-4.2242513,1.8067247,-0.095268965,-0.9610526,-0.072061807,0.26680505,0
3.630306,-0.49387589,-1.8941042,0.9610526,0.072061807,-0.26680505,0
-2.632931,-2.3533199,2.365155,0.24454218,-0.67149591,0.6994943,0
3.937881,-0.9568975,-0.72776055,0.9610526,0.072061807,-0.26680505,0
-0.16170454,1.6838125,-1.9603493,-0.24454218,0.67149591,-0.6994943,0
-1.1122447,0.92104644,1.4330354,0.12875164,0.73749596,0.66296506,0
-3.4998457,-0.41782808,2.399735,-0.9610526,-0.072061807,0.26680505,0
-4.0609994,-1.2498442,-0.10738587,-0.12875164,-0.73749596,-0.66296506,0
0.62766862,0.034431994,-2.5007987,-0.12875164,-0.73749596,-0.66296506,0
-1.8580056,-0.14391601,-1.7486353,-0.12875164,-0.73749596,-0.66296506,0
1.7086391,2.2457883,-0.52296519,0.12875164,0.73749596,0.66296506,0
1.1680946,-2.4964724,0.88696307,0.24454218,-0.67149591,0.6994943,0
4.2870893,-1.5460572,0.26319647,0.9610526,0.072061807,-0.26680505,0
-3.3993506,-3.0854428,1.7066236,-0.12875164,-0.73749596,-0.66296506,0
0.25915277,2.3640699,-0.37515545,0.12875164,0.73749596,0.66296506,0
3.203166,-1.810812,-0.83513939,-0.12875164,-0.73749596,-0.66296506,0
-2.3172634,0.082364477,2.6706426,0.12875164,0.73749596,0.66296506,0
-0.50188231,-0.23922658,-1.8021586,-0.12875164,-0.73749596,-0.66296506,0
3.2498369,2.1983588,-2.5365758,0.9610526,0.072061807,-0.26680505,0
-2.2408545,-2.4108422,1.9569149,0.24454218,-0.67149591,0.6994943,0
1.9424354,0.60586727,1.0633966,0.12875164,0.73749596,0.66296506,0
-1.9404352,0.49752468,-2.3297453,-0.24454218,0.67149591,-0.6994943,0
-0.31545225,-2.1497738,0.19371796,-0.12875164,-0.73749596,-0.66296506,0
1.1412991,-2.5663033,0.59797901,0.24454218,-0.67149591,0.6994943,0
2.460155,1.772567,-0.17190242,0.12875164,0.73749596,0.66296506,0
1.1279426,-1.2533488,1.9624187,0.24454218,-0.67149591,0.6994943,0
0.77675033,-0.94637114,2.2536232,0.24454218,-0.67149591,0.6994943,0
-1.9917508,2.5650465,-0.30215904,-0.24454218,0.67149591,-0.6994943,0
-4.2383232,-0.16902006,-0.059560776,-0.9610526,-0.072061807,0.26680505,0
1.7459021,0.0404034,-2.5315504,-0.12875164,-0.73749596,-0.66296506,0
0.42869818,2.7597456,-0.89184201,0.12875164,0.73749596,0.66296506,0
4.2794981,-0.6474067,1.5807685,0.24454218,-0.67149591,0.6994943,0
3.5111723,1.4839187,-2.0096581,0.9610526,0.072061807,-0.26680505,0
-1.5596923,1.4257095,0.84237885,0.12875164,0.73749596,0.66296506,0
0.79809058,2.1853158,-1.8648863,-0.24454218,0.67149591,-0.6994943,0
-4.6025124,0.75423813,-1.1934947,-0.9610526,-0.072061807,0.26680505,0
-3.8280835,0.0034440756,1.1751072,-0.9610526,-0.072061807,0.26680505,0
-1.8716861,1.0940217,-1.7846625,-0.24454218,0.67149591,-0.6994943,0
2.6062987,2.2106707,-2.2426021,-0.24454218,0.67149591,-0.6994943,0
4.1698794,0.5871594,0.0097751617,0.9610526,0.072061807,-0.26680505,0
1.7012919,-1.3475528,-0.97934699,-0.12875164,-0.73749596,-0.66296506,0
-1.983884,1.4151598,1.2094541,0.12875164,0.73749596,0.66296506,0
-0.23340297,0.19812667,-2.3036084,-0.12875164,-0.73749596,-0.66296506,0
-4.2319431,0.63833368,-1.5866225,-0.24454218,0.67149591,-0.6994943,0
3.35537,1.1947676,-2.927736,0.9610526,0.072061807,-0.26680505,0
-1.9601374,0.63951731,-2.2368226,-0.24454218,0.67149591,-0.6994943,0
-3.7726614,0.74744874,1.8887982,-0.9610526,-0.072061807,0.26680505,0
-4.3579249,-0.65880513,-0.5301919,-0.9610526,-0.072061807,0.26680505,0
-3.751236,-1.5510027,0.83485103,-0.9610526,-0.072061807,0.26680505,0
0.66634023,0.44852179,-2.9996054,-0.12875164,-0.73749596,-0.66296506,0
-2.0573504,-1.9134437,2.3812745,0.24454218,-0.67149591,0.6994943,0
3.1342866,1.1057259,-3.1384284,0.9610526,0.072061807,-0.26680505,0
3.2420607,-1.0891643,1.4252644,0.24454218,-0.67149591,0.6994943,0
0.77419406,-1.5873221,-0.72831929,-0.12875164,-0.73749596,-0.66296506,0
2.6994703,-1.5922198,1.0182849,0.24454218,-0.67149591,0.6994943,0
-2.895232,-1.6727636,0.26430726,-0.12875164,-0.73749596,-0.66296506,0
3.7571554,-1.1758904,-1.546417,0.9610526,0.072061807,-0.26680505,0
4.3320322,-1.1593678,0.26660538,0.9610526,0.072061807,-0.26680505,0
2.4421067,0.53088993,-3.2435942,-0.12875164,-0.73749596,-0.66296506,0
-3.570013,-0.12326729,2.3497367,-0.9610526,-0.072061807,0.26680505,0
1.2638128,-0.78323328,2.3997371,0.24454218,-0.67149591,0.6994943,0
-2.5077987,-2.5100958,2.0684831,0.24454218,-0.67149591,0.6994943,0
3.833406,-1.0446658,-1.3840475,0.9610526,0.072061807,-0.26680505,0
-1.1032338,-2.5524588,0.89835823,-0.12875164,-0.73749596,-0.66296506,0
3.2283652,-2.5045867,-0.16040754,-0.12875164,-0.73749596,-0.66296506,0
-3.5059605,2.4537928,0.2401408,0.12875164,0.73749596,0.66296506,0
-3.2486415,2.189966,0.52852619,0.12875164,0.73749596,0.66296506,0
-4.3784542,0.89724165,-0.23823595,-0.9610526,-0.072061807,0.26680505,0
-1.9109747,-2.2460277,2.1247649,0.24454218,-0.67149591,0.6994943,0
-1.41401,-1.1685715,-0.82729268,-0.12875164,-0.73749596,-0.66296506,0
3.9048676,1.581201,-0.45516944,0.9610526,0.072061807,-0.26680505,0
-1.8639401,-0.83434558,-1.0060123,-0.12875164,-0.73749596,-0.66296506,0
-0.25395763,0.78829032,1.5733917,0.12875164,0.73749596,0.66296506,0
-3.2028985,-0.82019055,3.3316624,-0.9610526,-0.072061807,0.26680505,0
2.475266,2.3356838,-2.3118927,-0.24454218,0.67149591,-0.6994943,0
3.3570461,1.6647713,-2.1967807,0.9610526,0.072061807,-0.26680505,0
1.4310943,1.0482569,-3.1304541,-0.24454218,0.67149591,-0.6994943,0
3.5767865,0.25689012,-2.2801538,0.9610526,0.072061807,-0.26680505,0
3.5033338,-0.27541324,-2.3496094,0.9610526,0.072061807,-0.26680505,0
1.7507305,-1.3160591,-1.0750353,-0.12875164,-0.73749596,-0.66296506,0
4.0597925,-0.93181348,-0.51860428,0.9610526,0.072061807,-0.26680505,0
-2.247113,-0.74982321,-0.94723767,-0.12875164,-0.73749596,-0.66296506,0
-3.2987823,1.261415,-1.322798,-0.24454218,0.67149591,-0.6994943,0
3.85307,0.45113635,-0.788059,0.9610526,0.072061807,-0.26680505,0
0.97811967,-1.6337606,-0.7322377,-0.12875164,-0.73749596,-0.66296506,0
-3.2397947,2.1135616,-0.34237921,-0.24454218,0.67149591,-0.6994943,0
3.1108758,0.41663772,-3.3521154,-0.12875164,-0.73749596,-0.66296506,0
3.6093678,1.9974811,-0.68525362,0.12875164,0.73749596,0.66296506,0
-3.7291937,-1.668016,1.0967312,-0.9610526,-0.072061807,0.26680505,0
3.2147982,0.9513104,-3.278527,0.9610526,0.072061807,-0.26680505,0
3.1247625,0.37633622,1.2440195,0.12875164,0.73749596,0.66296506,0
1.5157117,-0.20031351,2.0488615,0.12875164,0.73749596,0.66296506,0
3.5929041,-1.1692512,1.2754718,0.24454218,-0.67149591,0.6994943,0
2.8085771,-0.70329082,1.9623756,0.24454218,-0.67149591,0.6994943,0
0.53370559,-0.54131317,-1.6482304,-0.12875164,-0.73749596,-0.66296506,0
3.9445281,0.37569523,-1.0376077,0.9610526,0.072061807,-0.26680505,0
-3.7748549,2.3606544,0.26139319,0.12875164,0.73749596,0.66296506,0
-1.5104104,2.5310903,-0.65857363,-0.24454218,0.67149591,-0.6994943,0
-1.0704489,-2.5021999,1.4401577,0.24454218,-0.67149591,0.6994943,0
4.3760858,-1.6691668,0.094882727,0.9610526,0.072061807,-0.26680505,0
4.3320274,-0.47551322,0.5783968,0.9610526,0.072061807,-0.26680505,0
-3.6000595,-0.66347498,2.0744097,-0.9610526,-0.072061807,0.26680505,0
-3.8815639,0.59935975,1.0862951,-0.9610526,-0.072061807,0.26680505,0
4.0195837,0.033195257,-0.64026904,0.9610526,0.072061807,-0.26680505,0
1.6555431,2.2452614,-0.7054193,0.12875164,0.73749596,0.66296506,0
-3.7575505,-0.6832521,0.93615961,-0.9610526,-0.072061807,0.26680505,0
-1.7837524,0.39667743,2.2196584,0.12875164,0.73749596,0.66296506,0
1.0445269,2.1195447,-2.0445137,-0.24454218,0.67149591,-0.6994943,0
4.0714083,0.2437464,-0.33757591,0.9610526,0.072061807,-0.26680505,0
-3.6236525,-0.77280337,1.7999501,-0.9610526,-0.072061807,0.26680505,0
3.3203516,-1.3659909,1.0623474,0.24454218,-0.67149591,0.6994943,0
1.3817348,-1.4901526,1.570936,0.24454218,-0.67149591,0.6994943,0
-1.1828606,-2.095365,1.9494277,0.24454218,-0.67149591,0.6994943,0
-0.77001846,2.3603055,-1.1578007,-0.24454218,0.67149591,-0.6994943,0
-3.2629795,-0.83868223,3.3056884,-0.9610526,-0.072061807,0.26680505,0
0.080900073,1.5491607,-2.028615,-0.24454218,0.67149591,-0.6994943,0
-1.2394588,-2.5707417,1.669028,0.24454218,-0.67149591,0.6994943,0
2.0016899,1.8680788,-2.4088337,-0.24454218,0.67149591,-0.6994943,0
1.4264529,1.8125911,-0.056860447,0.12875164,0.73749596,0.66296506,0
4.5293951,0.051381111,1.2456881,0.9610526,0.072061807,-0.26680505,0
-1.9396783,0.49210125,2.0694242,0.12875164,0.73749596,0.66296506,0
-1.203776,-0.55438375,3.2402463,0.12875164,0.73749596,0.66296506,0
-3.2358189,-1.4958072,2.9515123,-0.9610526,-0.072061807,0.26680505,0
-3.3385103,1.2890161,-1.2194613,-0.24454218,0.67149591,-0.6994943,0
3.0838537,-2.43696,0.097901106,0.24454218,-0.67149591,0.6994943,0
-2.4408388,1.7469735,-1.0524633,-0.24454218,0.67149591,-0.6994943,0
3.2623801,-2.534595,0.089118838,0.24454218,-0.67149591,0.6994943,0
3.8397779,-2.0167217,-0.82574582,-0.12875164,-0.73749596,-0.66296506,0
3.4344072,0.084836185,-2.410135,0.9610526,0.072061807,-0.26680505,0
4.5853553,-0.61195517,1.1367903,0.9610526,0.072061807,-0.26680505,0
-2.7710943,2.4904583,-0.27805364,-0.24454218,0.67149591,-0.6994943,0
3.7046926,-1.6017075,0.76942873,0.24454218,-0.67149591,0.6994943,0
-0.37201667,-0.1264444,-1.9576777,-0.12875164,-0.73749596,-0.66296506,0
-3.5244803,-2.5888968,1.7461843,-0.9610526,-0.072061807,0.26680505,0
-2.149605,0.79198194,-2.1733465,-0.24454218,0.67149591,-0.6994943,0
-4.2342348,2.077704,0.13469005,-0.9610526,-0.072061807,0.26680505,0
-1.1486846,-1.1883667,2.7708426,0.24454218,-0.67149591,0.6994943,0
3.2658701,1.2347399,-3.2600427,0.9610526,0.072061807,-0.26680505,0
-3.6124685,2.0917754,0.69687355,0.12875164,0.73749596,0.66296506,0
-2.5493674,-0.90304965,3.6254303,0.24454218,-0.67149591,0.6994943,0
0.47901177,-1.8380868,1.6127406,0.24454218,-0.67149591,0.6994943,0
-0.46936524,0.19375506,1.9902513,0.12875164,0.73749596,0.66296506,0
3.8927081,-2.2915659,-0.52838826,-0.12875164,-0.73749596,-0.66296506,0
-3.4117239,-1.1897172,-0.21952558,-0.12875164,-0.73749596,-0.66296506,0
3.9680541,0.11171162,-0.51015472,0.9610526,0.072061807,-0.26680505,0
-3.7514994,-1.9208072,1.0967517,-0.9610526,-0.072061807,0.26680505,0
1.2395867,0.045499325,1.885051,0.12875164,0.73749596,0.66296506,0
1.4908707,0.75632626,1.0446113,0.12875164,0.73749596,0.66296506,0
3.1389883,-1.9854466,-0.70204318,-0.12875164,-0.73749596,-0.66296506,0
0.1038425,2.1609218,-1.5083961,-0.24454218,0.67149591,-0.6994943,0
0.54094231,2.3311255,-1.5420924,-0.24454218,0.67149591,-0.6994943,0
3.3285544,1.1361742,-2.6788058,0.9610526,0.072061807,-0.26680505,0
2.6740935,-0.95919836,-1.796608,-0.12875164,-0.73749596,-0.66296506,0
3.9235945,-1.1248506,-1.1316557,0.9610526,0.072061807,-0.26680505,0
1.4345121,2.7130466,-0.98179197,0.12875164,0.73749596,0.66296506,0
3.9714966,-0.24937356,1.7452695,0.12875164,0.73749596,0.66296506,0
1.6663281,-1.1266801,-1.4581399,-0.12875164,-0.73749596,-0.66296506,0
3.2787685,2.0102265,-2.37814,0.9610526,0.072061807,-0.26680505,0
0.11624229,-2.0983341,1.4451509,0.24454218,-0.67149591,0.6994943,0
3.6243339,1.6562718,-1.5755038,0.9610526,0.072061807,-0.26680505,0
3.6685152,0.22361964,-1.5008473,0.9610526,0.072061807,-0.26680505,0
1.0846503,-0.97825122,-1.3687484,-0.12875164,-0.73749596,-0.66296506,0
3.3576231,1.4263077,-2.2684896,0.9610526,0.072061807,-0.26680505,0
3.5122452,-0.3199867,1.8444049,0.12875164,0.73749596,0.66296506,0
-1.3298087,-0.82423067,3.1999469,0.24454218,-0.67149591,0.6994943,0
3.8185053,1.287107,-0.9165864,0.9610526,0.072061807,-0.26680505,0
-4.0518184,1.3365439,-0.95756483,-0.24454218,0.67149591,-0.6994943,0
-1.6062231,-0.3790344,-1.4147469,-0.12875164,-0.73749596,-0.66296506,0
0.036778539,1.7649889,0.23177555,0.12875164,0.73749596,0.66296506,0
4.369647,-0.80151772,0.67597795,0.9610526,0.072061807,-0.26680505,0
-3.5242577,-2.8340716,1.8735142,-0.9610526,-0.072061807,0.26680505,0
4.3017521,-1.4650784,0.28101277,0.9610526,0.072061807,-0.26680505,0
3.9471786,-1.6953386,-0.93153691,0.9610526,0.072061807,-0.26680505,0
2.7166195,0.41515064,1.3800652,0.12875164,0.73749596,0.66296506,0
0.57350791,1.3925581,0.69693851,0.12875164,0.73749596,0.66296506,0
-1.1236286,1.1346811,1.3488928,0.12875164,0.73749596,0.66296506,0
-0.64696848,-0.076209337,2.5259316,0.12875164,0.73749596,0.66296506,0
-1.3356154,0.52920014,-2.6723645,-0.24454218,0.67149591,-0.6994943,0
2.0138872,-0.99207586,-1.5433576,-0.12875164,-0.73749596,-0.66296506,0
0.32207942,-2.3222666,1.1786243,0.24454218,-0.67149591,0.6994943,0
4.0142388,0.81791687,-0.11041903,0.9610526,0.072061807,-0.26680505,0
-1.2693545,2.2403843,-1.1093085,-0.24454218,0.67149591,-0.6994943,0
2.2450776,-1.5589637,1.2672859,0.24454218,-0.67149591,0.6994943,0
4.4177694,-0.22245908,0.74010515,0.9610526,0.072061807,-0.26680505,0
-0.51162589,2.3870959,-0.31900251,0.12875164,0.73749596,0.66296506,0
-1.6807634,1.3144289,-1.622869,-0.24454218,0.67149591,-0.6994943,0
-4.0103469,-1.0700548,0.14718318,-0.9610526,-0.072061807,0.26680505,0
-1.9731379,-2.158951,2.2751586,0.24454218,-0.67149591,0.6994943,0
0.57824826,-1.5154536,-0.62835848,-0.12875164,-0.73749596,-0.66296506,0
-1.2063102,-0.25739443,2.7935491,0.12875164,0.73749596,0.66296506,0
-0.050436854,-1.6240631,2.0326879,0.24454218,-0.67149591,0.6994943,0
1.8965448,0.56433606,-3.3313129,-0.12875164,-0.73749596,-0.66296506,0
2.9032741,2.573729,-2.2303386,-0.24454218,0.67149591,-0.6994943,0
4.0479722,-0.22585988,-0.73103094,0.9610526,0.072061807,-0.26680505,0
4.4869361,-0.73517859,1.2926778,0.24454218,-0.67149591,0.6994943,0
2.8177476,-0.56045663,-2.0544746,-0.12875164,-0.73749596,-0.66296506,0
0.32066035,-1.0302566,2.3437026,0.24454218,-0.67149591,0.6994943,0
-0.82677436,2.5834844,-0.72754675,-0.24454218,0.67149591,-0.6994943,0
-1.8674247,-1.9386935,0.35238171,-0.12875164,-0.73749596,-0.66296506,0
3.2703056,1.1550765,0.19758916,0.12875164,0.73749596,0.66296506,0
-3.6849117,-1.6668339,0.93079591,-0.9610526,-0.072061807,0.26680505,0
-3.3523784,-0.53882104,2.7749963,-0.9610526,-0.072061807,0.26680505,0
0.82013786,-1.5394137,1.742777,0.24454218,-0.67149591,0.6994943,0
1.2841139,2.856895,-1.3831463,-0.24454218,0.67149591,-0.6994943,0
-0.65970719,-2.5074427,1.4107397,0.24454218,-0.67149591,0.6994943,0
-4.3093739,0.46271718,-0.62454534,-0.9610526,-0.072061807,0.26680505,0
-4.4986496,1.1016448,-1.0300767,-0.24454218,0.67149591,-0.6994943,0
0.50829983,2.8079123,-1.1489902,-0.24454218,0.67149591,-0.6994943,0
-3.6815238,-0.34686923,1.7012467,-0.9610526,-0.072061807,0.26680505,0
-1.4095447,-2.4563327,1.780951,0.24454218,-0.67149591,0.6994943,0
2.0200019,-2.6551969,0.24256688,-0.12875164,-0.73749596,-0.66296506,0
-1.2502187,-1.8661413,0.17519712,-0.12875164,-0.73749596,-0.66296506,0
-3.5113249,0.38117915,2.1844118,-0.9610526,-0.072061807,0.26680505,0
3.9345837,0.91597164,-0.54314256,0.9610526,0.072061807,-0.26680505,0
4.0846276,0.41402006,-0.16063809,0.9610526,0.072061807,-0.26680505,0
0.73663926,-1.0168856,2.2605417,0.24454218,-0.67149591,0.6994943,0
0.16948412,1.2412953,0.82044441,0.12875164,0.73749596,0.66296506,0
-4.1506128,1.9691303,0.7710495,-0.9610526,-0.072061807,0.26680505,0
2.2752631,-2.4778104,0.52654111,0.24454218,-0.67149591,0.6994943,0
-3.8885283,-0.74535894,0.96134329,-0.9610526,-0.072061807,0.26680505,0
0.46930623,-2.1781347,1.241643,0.24454218,-0.67149591,0.6994943,0
0.67113948,-0.63001323,2.7361374,0.12875164,0.73749596,0.66296506,0
2.6443613,1.380779,-3.0546632,-0.24454218,0.67149591,-0.6994943,0
0.4157398,1.1240461,0.90776479,0.12875164,0.73749596,0.66296506,0
0.20396113,-0.27746654,2.4215641,0.12875164,0.73749596,0.66296506,0
3.353786,0.012239695,1.4786613,0.12875164,0.73749596,0.66296506,0
-4.2758989,1.1741905,0.13383865,-0.9610526,-0.072061807,0.26680505,0
2.5898702,2.0673404,-2.3939035,-0.24454218,0.67149591,-0.6994943,0
3.63831,2.1263528,-1.459913,0.9610526,0.072061807,-0.26680505,0
4.1479278,-1.3352208,-0.53048587,0.9610526,0.072061807,-0.26680505,0
-3.6951232,-1.6283065,1.1099079,-0.9610526,-0.072061807,0.26680505,0
0.045263112,-0.75406897,-1.5039754,-0.12875164,-0.73749596,-0.66296506,0
-1.1803715,-2.7331636,1.3282592,0.24454218,-0.67149591,0.6994943,0
-0.0071396828,0.88050526,-2.6795745,-0.24454218,0.67149591,-0.6994943,0
1.3659984,1.4931674,0.37904882,0.12875164,0.73749596,0.66296506,0
-2.740268,-1.3822067,3.2714732,0.24454218,-0.67149591,0.6994943,0
1.2344987,-2.1664755,-0.14850336,-0.12875164,-0.73749596,-0.66296506,0
-3.6640503,-0.15682876,1.8027587,-0.9610526,-0.072061807,0.26680505,0
4.2615495,-0.2756778,0.24335885,0.9610526,0.072061807,-0.26680505,0
-2.3264852,-2.1786978,2.3958049,0.24454218,-0.67149591,0.6994943,0
1.2138678,0.56893557,-3.0379615,-0.12875164,-0.73749596,-0.66296506,0
4.0804815,0.14292443,1.2750514,0.12875164,0.73749596,0.66296506,0
-4.4512911,0.17847204,-1.6312624,-0.12875164,-0.73749596,-0.66296506,0
-1.1032631,-2.7770038,1.1777607,-0.12875164,-0.73749596,-0.66296506,0
-0.71233785,1.5983664,-1.8706585,-0.24454218,0.67149591,-0.6994943,0
1.9031925,1.5600336,-2.6002529,-0.24454218,0.67149591,-0.6994943,0
-2.4184506,1.2813212,1.3880678,0.12875164,0.73749596,0.66296506,0
1.488115,2.3566844,-1.8006556,-0.24454218,0.67149591,-0.6994943,0
-1.2744625,1.9405026,-1.3338513,-0.24454218,0.67149591,-0.6994943,0
4.4850321,0.05890727,1.2001865,0.12875164,0.73749596,0.66296506,0
-1.3685859,-2.2148101,0.56301939,-0.12875164,-0.73749596,-0.66296506,0
-4.3393044,1.2779226,-0.43251061,-0.9610526,-0.072061807,0.26680505,0
2.9050648,2.9542761,-1.781878,-0.24454218,0.67149591,-0.6994943,0
2.4200232,0.37550074,-3.1867716,-0.12875164,-0.73749596,-0.66296506,0
-0.38603222,2.3574803,-1.2725086,-0.24454218,0.67149591,-0.6994943,0
0.37167525,2.2171097,-1.6639308,-0.24454218,0.67149591,-0.6994943,0
2.7260818,-0.21991599,2.0962369,0.12875164,0.73749596,0.66296506,0
-0.72234035,0.41131616,-2.5925393,-0.12875164,-0.73749596,-0.66296506,0
3.6924667,-0.44326681,-1.7617724,0.9610526,0.072061807,-0.26680505,0
-4.100667,0.12272346,-0.10852146,-0.9610526,-0.072061807,0.26680505,0
-3.2871408,-1.3004777,2.8080602,-0.9610526,-0.072061807,0.26680505,0
-3.9626386,-0.086365938,0.578403,-0.9610526,-0.072061807,0.26680505,0
0.44402796,-0.86041331,-1.3301407,-0.12875164,-0.73749596,-0.66296506,0
1.8236208,-1.8143349,1.2326534,0.24454218,-0.67149591,0.6994943,0
-0.66815054,-1.3955905,2.4777811,0.24454218,-0.67149591,0.6994943,0
-4.47574,0.53223264,-1.5732673,-0.24454218,0.67149591,-0.6994943,0
0.88598657,-0.54833031,2.6440015,0.12875164,0.73749596,0.66296506,0
1.5855472,0.073904656,-2.6355734,-0.12875164,-0.73749596,-0.66296506,0
-4.544241,1.0887794,-1.0271168,-0.9610526,-0.072061807,0.26680505,0
2.630605,-0.78619015,1.8321254,0.24454218,-0.67149591,0.6994943,0
-3.5321429,2.3436205,-0.13113725,-0.24454218,0.67149591,-0.6994943,0
-2.0602341,-2.7561474,1.0842407,-0.12875164,-0.73749596,-0.66296506,0
2.0668592,-1.2830405,1.7265275,0.24454218,-0.67149591,0.6994943,0
-2.7983947,1.292341,1.3810421,0.12875164,0.73749596,0.66296506,0
1.6863889,-2.5051033,0.70609611,0.24454218,-0.67149591,0.6994943,0
-0.3093574,-1.2887415,2.4911904,0.24454218,-0.67149591,0.6994943,0
-3.8042104,0.039708674,1.5177224,-0.9610526,-0.072061807,0.26680505,0
-4.2427549,0.96372288,-0.38036394,-0.9610526,-0.072061807,0.26680505,0
-3.633009,-1.2669973,1.9178984,-0.9610526,-0.072061807,0.26680505,0
3.0367115,-1.1275544,-1.5898559,-0.12875164,-0.73749596,-0.66296506,0
1.733402,-0.21822008,-2.2179215,-0.12875164,-0.73749596,-0.66296506,0
3.9347618,1.363484,-0.60693383,0.9610526,0.072061807,-0.26680505,0
1.3438963,-2.2726557,0.87987727,0.24454218,-0.67149591,0.6994943,0
2.814734,-0.90478009,-1.6535563,-0.12875164,-0.73749596,-0.66296506,0
-3.1356432,-1.7534894,2.9425871,-0.9610526,-0.072061807,0.26680505,0
-4.0427332,0.17301273,0.38804126,-0.9610526,-0.072061807,0.26680505,0
-2.3738089,1.1634297,1.4414229,0.12875164,0.73749596,0.66296506,0
-2.3824236,1.4924812,-1.3244858,-0.24454218,0.67149591,-0.6994943,0
2.0578308,1.0616667,-3.1495612,-0.24454218,0.67149591,-0.6994943,0
2.4422419,2.5550258,-1.9615421,-0.24454218,0.67149591,-0.6994943,0
3.2987242,2.5046582,-2.257165,0.9610526,0.072061807,-0.26680505,0
-4.0149531,-1.1063083,0.37674856,-0.9610526,-0.072061807,0.26680505,0
3.4186094,0.11333966,-2.3112311,0.9610526,0.072061807,-0.26680505,0
2.2873654,2.0878558,-2.4091358,-0.24454218,0.67149591,-0.6994943,0
-3.1393416,0.893893,1.7302885,0.12875164,0.73749596,0.66296506,0
-0.41691339,0.42902485,1.9500365,0.12875164,0.73749596,0.66296506,0
-3.9487774,1.05357,0.68660617,-0.9610526,-0.072061807,0.26680505,0
-3.929724,-0.26739347,0.46920538,-0.9610526,-0.072061807,0.26680505,0
-4.0699716,1.1110274,0.40550399,-0.9610526,-0.072061807,0.26680505,0
-0.8172316,-2.7256172,1.2915419,0.24454218,-0.67149591,0.6994943,0
-3.5238018,-1.4361727,1.6361883,-0.9610526,-0.072061807,0.26680505,0
0.026048899,0.75438666,-2.7609735,-0.24454218,0.67149591,-0.6994943,0
0.54179704,0.31185234,-2.6700182,-0.12875164,-0.73749596,-0.66296506,0
-0.48440981,2.3288138,-0.16468686,0.12875164,0.73749596,0.66296506,0
-4.0640717,-1.0261474,0.34922552,-0.9610526,-0.072061807,0.26680505,0
3.850373,0.74927819,-1.1990924,0.9610526,0.072061807,-0.26680505,0
2.3581624,1.6246693,-0.083394289,0.12875164,0.73749596,0.66296506,0
2.6731024,0.47884709,-3.3816838,-0.12875164,-0.73749596,-0.66296506,0
-3.096977,1.6522325,-0.89041847,-0.24454218,0.67149591,-0.6994943,0
3.1712568,2.4299688,-2.2548563,-0.24454218,0.67149591,-0.6994943,0
3.2943013,1.9565828,-2.3245552,0.9610526,0.072061807,-0.26680505,0
2.2497158,-2.5080492,0.040737331,-0.12875164,-0.73749596,-0.66296506,0
-3.6862049,-0.70916939,1.7849786,-0.9610526,-0.072061807,0.26680505,0
-0.17803717,1.4776239,-2.1980841,-0.24454218,0.67149591,-0.6994943,0
-0.90224552,-1.7219174,2.2991581,0.24454218,-0.67149591,0.6994943,0
-4.3756886,0.78307939,-0.70370412,-0.9610526,-0.072061807,0.26680505,0
1.3866565,2.4674468,-1.6644435,-0.24454218,0.67149591,-0.6994943,0
2.7132609,-0.52210546,2.16696,0.24454218,-0.67149591,0.6994943,0
-3.2778378,-0.73162651,3.228241,-0.9610526,-0.072061807,0.26680505,0
0.38034534,2.1530502,-1.6103704,-0.24454218,0.67149591,-0.6994943,0
-2.0641935,-2.2223847,2.0870697,0.24454218,-0.67149591,0.6994943,0
2.9007571,1.0905398,-3.4565692,-0.24454218,0.67149591,-0.6994943,0
1.3485067,-1.0381124,2.1441665,0.24454218,-0.67149591,0.6994943,0
-1.9511924,-0.83170772,3.3552294,0.24454218,-0.67149591,0.6994943,0
-3.6211941,-1.0301828,2.0160034,-0.9610526,-0.072061807,0.26680505,0
1.1691594,1.1655191,-2.737294,-0.24454218,0.67149591,-0.6994943,0
1.7216249,0.8025775,-3.3963289,-0.12875164,-0.73749596,-0.66296506,0
-1.2627678,2.1627223,0.20073092,0.12875164,0.73749596,0.66296506,0
2.95785,0.60960704,-3.6102498,-0.12875164,-0.73749596,-0.66296506,0
-4.3339548,1.1658156,0.044638157,-0.9610526,-0.072061807,0.26680505,0
2.5759525,1.0044225,0.65263844,0.12875164,0.73749596,0.66296506,0
4.1712914,0.078616142,0.049059629,0.9610526,0.072061807,-0.26680505,0
3.9332657,0.66357374,-0.63422251,0.9610526,0.072061807,-0.26680505,0
0.14585006,-1.4976838,2.0311835,0.24454218,-0.67149591,0.6994943,0
-3.5584531,-0.26280665,-1.3005303,-0.12875164,-0.73749596,-0.66296506,0
-3.5041752,-1.9912,0.52537036,-0.12875164,-0.73749596,-0.66296506,0
4.0141068,-1.0305085,-1.1403441,0.9610526,0.072061807,-0.26680505,0
-1.045961,2.6026671,-0.71512413,-0.24454218,0.67149591,-0.6994943,0
-1.240551,-1.8253173,2.2707963,0.24454218,-0.67149591,0.6994943,0
1.3066769,-2.5137565,0.35474515,-0.12875164,-0.73749596,-0.66296506,0
-3.8856332,-0.39867735,0.95855308,-0.9610526,-0.072061807,0.26680505,0
2.1063857,-2.494556,0.34955299,0.24454218,-0.67149591,0.6994943,0
-0.49530995,-2.528877,1.4114622,0.24454218,-0.67149591,0.6994943,0
2.4283671,-1.3195796,1.5237232,0.24454218,-0.67149591,0.6994943,0
3.5892317,-0.64488596,-2.0246167,0.9610526,0.072061807,-0.26680505,0
3.3977752,0.72953326,-2.3864036,0.9610526,0.072061807,-0.26680505,0
-2.0448573,-2.0281155,0.51780796,-0.12875164,-0.73749596,-0.66296506,0
3.2868977,1.068326,-2.5225399,0.9610526,0.072061807,-0.26680505,0
4.4043331,-1.0594187,0.79892755,0.9610526,0.072061807,-0.26680505,0
2.3672085,-1.2844863,1.6275451,0.24454218,-0.67149591,0.6994943,0
-4.6153388,0.55138361,-1.1656677,-0.9610526,-0.072061807,0.26680505,0
-0.65793836,-1.3572431,2.4956856,0.24454218,-0.67149591,0.6994943,0
-1.4267769,-2.4412487,1.8580134,0.24454218,-0.67149591,0.6994943,0
-3.833528,0.29827863,1.1680982,-0.9610526,-0.072061807,0.26680505,0
-4.597105,0.54526162,-1.4284487,-0.24454218,0.67149591,-0.6994943,0
4.2313147,0.65349436,0.42271996,0.9610526,0.072061807,-0.26680505,0
1.5794662,1.5434723,-2.7111254,-0.24454218,0.67149591,-0.6994943,0
-1.1368282,1.4874536,-1.717149,-0.24454218,0.67149591,-0.6994943,0
-3.3039496,1.6415837,1.1682638,0.12875164,0.73749596,0.66296506,0
1.2439718,0.93825966,-3.141305,-0.24454218,0.67149591,-0.6994943,0
-3.7625761,-0.010868669,-1.4294683,-0.12875164,-0.73749596,-0.66296506,0
3.8476992,1.4205705,-0.61702204,0.9610526,0.072061807,-0.26680505,0
3.143312,1.1529859,0.25843763,0.12875164,0.73749596,0.66296506,0
-2.6894808,-1.1557811,-0.45689535,-0.12875164,-0.73749596,-0.66296506,0
-1.9288018,2.3694575,-0.57965827,-0.24454218,0.67149591,-0.6994943,0
3.9735775,-0.012972951,-0.86497903,0.9610526,0.072061807,-0.26680505,0
-1.7523845,1.6159174,-1.4955568,-0.24454218,0.67149591,-0.6994943,0
-1.9430795,-1.5177149,2.9385397,0.24454218,-0.67149591,0.6994943,0
-3.5337536,-1.6697919,2.1323385,-0.9610526,-0.072061807,0.26680505,0
-2.9329686,1.5078388,-1.0618925,-0.24454218,0.67149591,-0.6994943,0
-1.8253925,0.28328812,-2.1101291,-0.12875164,-0.73749596,-0.66296506,0
-3.8135333,-0.36306739,-1.1452013,-0.12875164,-0.73749596,-0.66296506,0
3.4550531,2.05691,-0.76159525,0.12875164,0.73749596,0.66296506,0
1.1495816,0.04786253,1.8727605,0.12875164,0.73749596,0.66296506,0
3.028167,2.8277617,-1.4097037,0.12875164,0.73749596,0.66296506,0
1.6679683,0.59258521,1.1567237,0.12875164,0.73749596,0.66296506,0
-3.6036916,-1.4660585,1.8655756,-0.9610526,-0.072061807,0.26680505,0
3.0156202,-1.7019165,-1.0384674,-0.12875164,-0.73749596,-0.66296506,0
3.9445643,-0.85961413,-1.1458693,0.9610526,0.072061807,-0.26680505,0
0.53833884,-0.47254229,-1.7024713,-0.12875164,-0.73749596,-0.66296506,0
-1.7495304,0.3586719,2.0560889,0.12875164,0.73749596,0.66296506,0
-0.324121,-1.1713548,2.6858778,0.24454218,-0.67149591,0.6994943,0
-0.48769832,1.7739404,-1.5905766,-0.24454218,0.67149591,-0.6994943,0
3.4788728,0.62602687,-1.9822366,0.9610526,0.072061807,-0.26680505,0
3.2035174,1.4509226,-3.272573,0.9610526,0.072061807,-0.26680505,0
4.1019788,0.71033919,0.26906204,0.9610526,0.072061807,-0.26680505,0
-1.5946134,-1.0935736,-0.76992929,-0.12875164,-0.73749596,-0.66296506,0
-2.4085832,-0.18160176,-1.7323426,-0.12875164,-0.73749596,-0.66296506,0
-1.3994035,1.5777991,0.87551141,0.12875164,0.73749596,0.66296506,0
3.3499269,0.98188794,0.62505436,0.12875164,0.73749596,0.66296506,0
-0.38877022,0.072432995,-2.3485579,-0.12875164,-0.73749596,-0.66296506,0
-2.3778219,-2.627346,1.9439368,0.24454218,-0.67149591,0.6994943,0
3.2721646,1.6954472,-2.7786369,0.9610526,0.072061807,-0.26680505,0
-2.6255903,-0.75624859,-1.0038763,-0.12875164,-0.73749596,-0.66296506,0
1.6309,2.7601719,-1.3809471,-0.24454218,0.67149591,-0.6994943,0
1.8240955,2.0456996,-0.39471316,0.12875164,0.73749596,0.66296506,0
-1.0040791,1.1811725,1.0383596,0.12875164,0.73749596,0.66296506,0
-0.13064575,0.79553986,-2.8595691,-0.24454218,0.67149591,-0.6994943,0
-3.6384792,-0.78447652,1.8727698,-0.9610526,-0.072061807,0.26680505,0
-2.097656,1.9530255,0.37492722,0.12875164,0.73749596,0.66296506,0
4.0593824,-1.7099614,-0.87899399,0.9610526,0.072061807,-0.26680505,0
-2.5106473,0.5454154,2.0087545,0.12875164,0.73749596,0.66296506,0
3.9768624,-0.70721197,1.5144172,0.24454218,-0.67149591,0.6994943,0
0.66030061,0.76244766,1.1376824,0.12875164,0.73749596,0.66296506,0
2.8082185,0.82024771,-3.666146,-0.24454218,0.67149591,-0.6994943,0
-3.5810633,0.14013106,2.4418414,-0.9610526,-0.072061807,0.26680505,0
3.636898,0.7077195,-1.6675251,0.9610526,0.072061807,-0.26680505,0
1.015269,2.3690667,-0.50598526,0.12875164,0.73749596,0.66296506,0
-3.7787926,0.71665198,1.8857665,-0.9610526,-0.072061807,0.26680505,0
4.6218662,-0.18514323,1.4033163,0.9610526,0.072061807,-0.26680505,0
-3.0839086,-1.1113091,-0.55619311,-0.12875164,-0.73749596,-0.66296506,0
3.3904588,1.2733157,-2.4256332,0.9610526,0.072061807,-0.26680505,0
3.4193759,2.0557697,-2.1919904,0.9610526,0.072061807,-0.26680505,0
-2.3146496,-1.012315,3.4748008,0.24454218,-0.67149591,0.6994943,0
-4.0395751,0.88371778,0.69745612,-0.9610526,-0.072061807,0.26680505,0
-2.7118721,-1.5006772,3.1329007,0.24454218,-0.67149591,0.6994943,0
2.9174275,-2.5229578,0.059549212,0.24454218,-0.67149591,0.6994943,0
