-0.39586031,-2.5542197,-0.55268431,0.12271923,-0.60384268,-0.78760022,0
3.295156,2.6638184,0.92480373,0.70125455,-0.5088048,0.4993594,0
2.2605495,0.31426167,0.27648377,0.70125455,-0.5088048,0.4993594,0
-0.55561203,1.740837,-0.57941121,-0.70125455,0.5088048,-0.4993594,0
3.6899204,0.86633778,-1.1812472,0.70125455,-0.5088048,0.4993594,0
3.7733817,1.6017017,-2.6637089,0.70226926,0.61358929,-0.36100733,0
-3.9783626,-2.5986516,0.091160774,-0.70226926,-0.61358929,0.36100733,0
-2.8654366,-3.265399,1.3088117,-0.70226926,-0.61358929,0.36100733,0
1.6186776,2.4625878,-2.620883,-0.70125455,0.5088048,-0.4993594,0
3.2156696,3.007484,-1.1834159,0.70226926,0.61358929,-0.36100733,0
0.59188592,1.0388955,1.8983757,-0.12271923,0.60384268,0.78760022,0
3.7445133,1.6784196,-2.453028,0.70226926,0.61358929,-0.36100733,0
3.5773683,1.5913744,-2.6353464,0.70226926,0.61358929,-0.36100733,0
1.4921949,1.5779965,-3.6093669,-0.70125455,0.5088048,-0.4993594,0
-1.803152,-0.29910392,-0.74600255,-0.70125455,0.5088048,-0.4993594,0
-2.3438306,0.21952319,0.4867835,-0.70125455,0.5088048,-0.4993594,0
-1.1463709,-3.3317268,1.0245321,0.70125455,-0.5088048,0.4993594,0
2.0265989,1.33096,1.4935455,0.70125455,-0.5088048,0.4993594,0
-3.1440217,-2.9638314,1.4286666,-0.70226926,-0.61358929,0.36100733,0
3.7230647,2.4966071,0.4306159,0.70125455,-0.5088048,0.4993594,0
2.996572,1.9201405,-3.2293575,0.70226926,0.61358929,-0.36100733,0
-1.8802915,-4.5761161,0.66278696,0.12271923,-0.60384268,-0.78760022,0
-1.6923099,-1.9865254,3.427232,0.70125455,-0.5088048,0.4993594,0
-2.3710561,-3.7501256,1.3545022,-0.70226926,-0.61358929,0.36100733,0
2.3239682,3.5537357,-1.6765661,0.70226926,0.61358929,-0.36100733,0
4.3405738,1.0563545,-2.1007476,0.70226926,0.61358929,-0.36100733,0
3.5429223,2.5847764,-1.216877,0.70226926,0.61358929,-0.36100733,0
-0.004319191,2.0331032,-0.88557708,-0.70125455,0.5088048,-0.4993594,0
0.30434522,3.2535162,0.078655481,-0.12271923,0.60384268,0.78760022,0
-1.1937252,-2.0625677,2.5561066,0.70125455,-0.5088048,0.4993594,0
-2.604171,-2.5837445,3.1871073,-0.70226926,-0.61358929,0.36100733,0
-0.43327612,2.4995008,0.088161707,-0.70125455,0.5088048,-0.4993594,0
3.3079047,3.6390924,0.35892057,-0.12271923,0.60384268,0.78760022,0
-2.9769897,-2.5123765,2.5159621,-0.70226926,-0.61358929,0.36100733,0
1.3993378,0.55760825,1.7060664,0.70125455,-0.5088048,0.4993594,0
3.5016708,2.6501815,-1.3419256,0.70226926,0.61358929,-0.36100733,0
1.5554435,3.5615649,-1.4467208,-0.70125455,0.5088048,-0.4993594,0
1.4676838,3.3791847,0.14377975,-0.12271923,0.60384268,0.78760022,0
-3.4825616,-2.9373431,-0.7928071,0.12271923,-0.60384268,-0.78760022,0
2.9901376,3.7560267,0.19213057,-0.12271923,0.60384268,0.78760022,0
0.2852543,2.4877243,-0.86472881,-0.70125455,0.5088048,-0.4993594,0
1.3511212,1.0491213,-3.1296983,0.12271923,-0.60384268,-0.78760022,0
0.3855021,1.8850391,-1.4763067,-0.70125455,0.5088048,-0.4993594,0
3.0415809,3.4771125,-0.49467516,0.70226926,0.61358929,-0.36100733,0
1.581917,1.6219568,1.518683,-0.12271923,0.60384268,0.78760022,0
-0.72119713,-3.1127913,0.84678292,0.70125455,-0.5088048,0.4993594,0
-3.471895,-1.6914895,2.8913267,-0.70226926,-0.61358929,0.36100733,0
1.9738389,3.5098586,0.12683964,-0.12271923,0.60384268,0.78760022,0
3.6435714,3.0938487,-0.22480679,0.70226926,0.61358929,-0.36100733,0
1.9607922,3.0946491,0.46938896,-0.12271923,0.60384268,0.78760022,0
-1.9413507,-4.5586925,0.92845488,-0.70226926,-0.61358929,0.36100733,0
-0.53518784,0.99958301,-1.2011001,-0.70125455,0.5088048,-0.4993594,0
2.0606837,-0.091394424,-2.0533559,0.12271923,-0.60384268,-0.78760022,0
-3.2845378,-1.8171506,3.073143,-0.70226926,-0.61358929,0.36100733,0
2.101572,3.2028427,0.31462717,-0.12271923,0.60384268,0.78760022,0
-3.9998469,-2.0416274,1.2653069,-0.70226926,-0.61358929,0.36100733,0
3.9094973,2.131927,-0.18323088,0.70125455,-0.5088048,0.4993594,0
-3.6137018,-2.1625738,1.6903419,-0.70226926,-0.61358929,0.36100733,0
2.8842692,2.52618,-2.4969101,0.70226926,0.61358929,-0.36100733,0
3.80551,0.55597234,-2.2517233,0.12271923,-0.60384268,-0.78760022,0
0.31302023,-0.27719843,2.3962774,0.70125455,-0.5088048,0.4993594,0
3.3507049,0.089718401,-1.4696448,0.70125455,-0.5088048,0.4993594,0
3.4408619,2.5889869,-1.6027312,0.70226926,0.61358929,-0.36100733,0
2.6980982,4.0257368,-0.44161034,0.70226926,0.61358929,-0.36100733,0
-0.10020727,2.7450354,0.10950828,-0.70125455,0.5088048,-0.4993594,0
1.8518403,1.3345163,1.582741,0.70125455,-0.5088048,0.4993594,0
2.5121284,-0.060086429,-2.1319137,0.12271923,-0.60384268,-0.78760022,0
0.13289094,0.34952927,2.1657228,-0.12271923,0.60384268,0.78760022,0
3.8095353,2.2453446,-0.99016047,0.70226926,0.61358929,-0.36100733,0
-1.6839888,-2.3945575,3.0661032,0.70125455,-0.5088048,0.4993594,0
-0.79266244,-3.4856639,0.11666203,0.12271923,-0.60384268,-0.78760022,0
0.36116886,-0.51679671,1.8360345,0.70125455,-0.5088048,0.4993594,0
-1.4965154,-2.7812815,2.2956827,0.70125455,-0.5088048,0.4993594,0
-1.7789475,-2.7275269,2.5741432,0.70125455,-0.5088048,0.4993594,0
-1.91056,1.4734689,1.0522518,-0.70125455,0.5088048,-0.4993594,0
1.2058741,1.4846985,1.4875029,-0.12271923,0.60384268,0.78760022,0
3.3942432,2.9832907,-0.57576704,0.70226926,0.61358929,-0.36100733,0
0.3289783,-0.62862331,-2.0046227,0.12271923,-0.60384268,-0.78760022,0
-1.8217323,-1.1888692,-1.5994735,-0.70125455,0.5088048,-0.4993594,0
-2.4715004,-4.0338311,1.0513334,-0.70226926,-0.61358929,0.36100733,0
-0.59999466,-0.7604084,2.8910182,0.70125455,-0.5088048,0.4993594,0
3.1571121,2.5266256,1.1326313,-0.12271923,0.60384268,0.78760022,0
-0.94825327,-0.13859499,-1.7557524,-0.70125455,0.5088048,-0.4993594,0
-2.1961257,-0.59247577,2.6894641,-0.12271923,0.60384268,0.78760022,0
-3.0800555,-1.8372483,3.2385886,-0.70226926,-0.61358929,0.36100733,0
2.5391903,3.9095678,-0.99422598,0.70226926,0.61358929,-0.36100733,0
1.9490595,-0.41184533,-1.9428041,0.12271923,-0.60384268,-0.78760022,0
-2.3360434,-2.596334,3.5665064,-0.70226926,-0.61358929,0.36100733,0
0.97151786,3.6536138,-0.62943482,-0.70125455,0.5088048,-0.4993594,0
-3.4976077,-1.5522382,3.1064925,-0.70226926,-0.61358929,0.36100733,0
3.1365907,2.4661441,-2.3198433,0.70226926,0.61358929,-0.36100733,0
-2.543345,-3.589283,-0.082181931,0.12271923,-0.60384268,-0.78760022,0
1.4976026,2.9728396,0.54060364,-0.12271923,0.60384268,0.78760022,0
-1.9719694,-3.9912961,1.8640914,-0.70226926,-0.61358929,0.36100733,0
-2.9244561,-3.803288,0.41119003,-0.70226926,-0.61358929,0.36100733,0
4.28368,0.90684819,-2.5570586,0.12271923,-0.60384268,-0.78760022,0
3.388694,3.347712,-0.14579582,0.70226926,0.61358929,-0.36100733,0
4.1571331,1.9457031,-0.9831171,0.70125455,-0.5088048,0.4993594,0
-2.4384229,-3.4477589,2.0322194,-0.70226926,-0.61358929,0.36100733,0
3.7769799,2.9782281,0.098044395,0.70226926,0.61358929,-0.36100733,0
-1.3446145,-2.3882833,-1.0296979,0.12271923,-0.60384268,-0.78760022,0
-1.450883,-3.2917633,-0.12749195,0.12271923,-0.60384268,-0.78760022,0
1.70043,2.9714816,-2.2924969,-0.70125455,0.5088048,-0.4993594,0
-0.10108826,-3.0602312,-0.03219223,0.70125455,-0.5088048,0.4993594,0
3.2203221,2.0801804,-2.5124533,0.70226926,0.61358929,-0.36100733,0
2.749166,0.39611048,-2.5279777,0.12271923,-0.60384268,-0.78760022,0
-0.98310757,-1.2543968,3.2734661,0.70125455,-0.5088048,0.4993594,0
-1.3341932,0.37857145,2.047261,-0.12271923,0.60384268,0.78760022,0
1.6500469,1.1966474,1.8755076,-0.12271923,0.60384268,0.78760022,0
-3.8143997,-1.6158307,0.51872063,-0.70125455,0.5088048,-0.4993594,0
1.1041888,2.2955341,-2.2462471,-0.70125455,0.5088048,-0.4993594,0
-1.9996189,-2.9535785,-0.60777855,0.12271923,-0.60384268,-0.78760022,0
-3.9310265,-1.6375564,1.8321629,-0.70226926,-0.61358929,0.36100733,0
-3.8037486,-3.385396,-0.45206499,-0.70226926,-0.61358929,0.36100733,0
1.130991,-0.78678679,-1.7239435,0.12271923,-0.60384268,-0.78760022,0
-1.5265648,-2.8976972,-0.60159039,0.12271923,-0.60384268,-0.78760022,0
-0.21330082,-1.2880876,1.8365109,0.70125455,-0.5088048,0.4993594,0
3.339591,3.0834579,-0.46264982,0.70226926,0.61358929,-0.36100733,0
2.084604,3.8942358,-1.7646046,0.70226926,0.61358929,-0.36100733,0
2.0420346,0.76839519,-2.8110571,0.12271923,-0.60384268,-0.78760022,0
-2.0090156,-4.0643892,1.3891268,-0.70226926,-0.61358929,0.36100733,0
-0.78859699,-2.8425291,-0.4537456,0.12271923,-0.60384268,-0.78760022,0
-0.94389319,0.70720541,1.7972556,-0.12271923,0.60384268,0.78760022,0
2.9268999,2.9330873,-2.0448661,0.70226926,0.61358929,-0.36100733,0
0.58527672,1.1422263,1.6320117,-0.12271923,0.60384268,0.78760022,0
-2.0722744,-1.2129364,-1.1769369,-0.70125455,0.5088048,-0.4993594,0
-1.8669261,-4.2001314,0.29155636,0.12271923,-0.60384268,-0.78760022,0
1.5536613,1.7354816,-3.4908977,-0.70125455,0.5088048,-0.4993594,0
-4.07231,-1.7085946,1.1252079,-0.70125455,0.5088048,-0.4993594,0
2.7588375,3.4297359,-1.2285209,0.70226926,0.61358929,-0.36100733,0
-0.22727662,-2.9576602,0.30429006,0.70125455,-0.5088048,0.4993594,0
-0.82853872,1.8857657,0.27452552,-0.70125455,0.5088048,-0.4993594,0
-1.8418176,-1.7130014,3.4771256,-0.12271923,0.60384268,0.78760022,0
3.6508102,2.76039,-0.56789589,0.70226926,0.61358929,-0.36100733,0
-3.4145098,-1.8988812,2.3931701,-0.70226926,-0.61358929,0.36100733,0
0.72576636,2.8097367,0.5998292,-0.12271923,0.60384268,0.78760022,0
-0.19420314,-0.098817468,2.6988668,-0.12271923,0.60384268,0.78760022,0
0.87137783,-1.3380531,0.41360223,0.70125455,-0.5088048,0.4993594,0
3.7763829,1.5402375,-2.2547739,0.70226926,0.61358929,-0.36100733,0
-2.4515991,-4.1532106,0.64878225,-0.70226926,-0.61358929,0.36100733,0
3.7254448,3.0419683,-0.15211058,0.70226926,0.61358929,-0.36100733,0
0.75918436,3.0614746,0.34820938,-0.12271923,0.60384268,0.78760022,0
-3.2269528,-2.6285236,-0.94836617,0.12271923,-0.60384268,-0.78760022,0
3.1706252,3.2334263,-0.8845911,0.70226926,0.61358929,-0.36100733,0
1.8547409,-1.3754239,-1.259587,0.12271923,-0.60384268,-0.78760022,0
3.7592654,2.9047046,-0.14998627,0.70226926,0.61358929,-0.36100733,0
-2.9809132,-2.2349551,-1.0057907,-0.70125455,0.5088048,-0.4993594,0
-4.3325033,-0.97876346,2.5459151,-0.70226926,-0.61358929,0.36100733,0
0.85964459,-0.4634732,1.2108024,0.70125455,-0.5088048,0.4993594,0
-2.3040946,-2.9714596,3.0649691,-0.70226926,-0.61358929,0.36100733,0
3.0672805,3.3099251,-0.82742405,0.70226926,0.61358929,-0.36100733,0
3.6113417,1.9408852,-2.2086444,0.70226926,0.61358929,-0.36100733,0
0.10668969,0.56953025,-2.5074353,-0.70125455,0.5088048,-0.4993594,0
-2.5848923,-2.8097599,2.3887312,-0.70226926,-0.61358929,0.36100733,0
-2.307693,-1.9233454,-1.5274231,0.12271923,-0.60384268,-0.78760022,0
0.71923339,-1.496794,-1.3148507,0.12271923,-0.60384268,-0.78760022,0
2.1116676,4.1027508,-1.4167004,0.70226926,0.61358929,-0.36100733,0
1.0759085,-1.4193093,-0.13586996,0.70125455,-0.5088048,0.4993594,0
-1.9559202,-0.9425292,2.9013717,-0.12271923,0.60384268,0.78760022,0
3.6318078,3.0784159,0.62654209,-0.12271923,0.60384268,0.78760022,0
3.6882424,2.6642041,0.43873215,0.70125455,-0.5088048,0.4993594,0
3.8714156,1.641603,-2.3073037,0.70226926,0.61358929,-0.36100733,0
0.66042936,1.127594,1.6747696,-0.12271923,0.60384268,0.78760022,0
1.125,2.7887499,-1.5927567,-0.70125455,0.5088048,-0.4993594,0
4.1073909,1.2316622,-2.1191974,0.70226926,0.61358929,-0.36100733,0
-1.4453661,-1.5728549,3.3139114,0.70125455,-0.5088048,0.4993594,0
2.4504664,-0.18257712,-0.65444195,0.70125455,-0.5088048,0.4993594,0
-1.1331553,-3.9484649,0.41054773,0.70125455,-0.5088048,0.4993594,0
-0.41239858,-1.3429132,-1.5808449,0.12271923,-0.60384268,-0.78760022,0
-0.2649219,-1.8932163,-1.1672339,0.12271923,-0.60384268,-0.78760022,0
3.821456,1.4447066,-2.3223982,0.70226926,0.61358929,-0.36100733,0
1.1157653,0.75497353,-2.9188557,0.12271923,-0.60384268,-0.78760022,0
-2.2497199,0.43480399,0.63828719,-0.70125455,0.5088048,-0.4993594,0
3.4396653,0.11956745,-2.199218,0.12271923,-0.60384268,-0.78760022,0
2.1862605,4.0322828,-1.1771903,0.70226926,0.61358929,-0.36100733,0
-2.1384127,-3.5189011,2.4177809,-0.70226926,-0.61358929,0.36100733,0
-1.235544,-1.2531285,3.3990412,-0.12271923,0.60384268,0.78760022,0
-2.9302812,-3.3625669,-0.4968791,0.12271923,-0.60384268,-0.78760022,0
3.0971272,2.4109006,-2.1438401,0.70226926,0.61358929,-0.36100733,0
-0.53108382,-0.5277859,2.9467373,-0.12271923,0.60384268,0.78760022,0
3.2049193,1.8474737,-3.3364222,0.70226926,0.61358929,-0.36100733,0
4.0019517,1.2646627,-1.4646888,0.70125455,-0.5088048,0.4993594,0
-3.6720839,-1.1284252,1.1512635,-0.70125455,0.5088048,-0.4993594,0
3.4319234,0.36968708,-2.3490872,0.12271923,-0.60384268,-0.78760022,0
3.1838884,2.9260938,-1.2124863,0.70226926,0.61358929,-0.36100733,0
-1.6275018,-1.5871372,-1.6927588,0.12271923,-0.60384268,-0.78760022,0
-2.7122006,-4.0942869,0.39851856,-0.70226926,-0.61358929,0.36100733,0
1.1901988,-0.59444875,0.84441906,0.70125455,-0.5088048,0.4993594,0
2.1038101,2.8733506,0.66931105,-0.12271923,0.60384268,0.78760022,0
-2.937361,-1.8497481,3.3848257,-0.70226926,-0.61358929,0.36100733,0
2.965524,0.83017516,-0.31924319,0.70125455,-0.5088048,0.4993594,0
4.2180481,2.2846484,-0.54270172,0.70226926,0.61358929,-0.36100733,0
-1.3024381,-2.4608769,-0.91934752,0.12271923,-0.60384268,-0.78760022,0
1.2013428,3.0296645,-1.7731481,-0.70125455,0.5088048,-0.4993594,0
4.262413,1.2292179,-1.9641342,0.70226926,0.61358929,-0.36100733,0
1.171608,1.7135191,-3.0770862,-0.70125455,0.5088048,-0.4993594,0
1.5464587,0.40434158,-2.5456641,0.12271923,-0.60384268,-0.78760022,0
3.2007952,1.9140897,-2.9334493,0.70226926,0.61358929,-0.36100733,0
1.0055066,3.7812877,-0.46849179,-0.70125455,0.5088048,-0.4993594,0
1.6652339,0.09577018,0.61539936,0.70125455,-0.5088048,0.4993594,0
1.602807,1.8595731,1.2657204,-0.12271923,0.60384268,0.78760022,0
-2.1346438,0.11780512,1.9916347,-0.12271923,0.60384268,0.78760022,0
0.74835038,3.5825081,-0.11219049,-0.12271923,0.60384268,0.78760022,0
1.1255372,-1.8375487,-1.041512,0.12271923,-0.60384268,-0.78760022,0
-3.2245665,-1.0556368,0.55647135,-0.70125455,0.5088048,-0.4993594,0
-2.5440667,-0.0224801,0.67991042,-0.70125455,0.5088048,-0.4993594,0
3.4250245,2.7175088,-1.0478654,0.70226926,0.61358929,-0.36100733,0
-1.7709923,-0.48904264,2.6843576,-0.12271923,0.60384268,0.78760022,0
-0.79786938,2.4910808,0.56295365,-0.12271923,0.60384268,0.78760022,0
2.2377791,0.42595422,-2.440877,0.12271923,-0.60384268,-0.78760022,0
0.038587868,-2.1765068,0.77576661,0.70125455,-0.5088048,0.4993594,0
-3.8629498,-2.7921429,0.33052301,-0.70226926,-0.61358929,0.36100733,0
2.9909811,2.2666216,-2.9009438,0.70226926,0.61358929,-0.36100733,0
3.0182142,2.0069761,-3.1929963,0.70226926,0.61358929,-0.36100733,0
3.7289476,1.0027703,-2.6648471,0.12271923,-0.60384268,-0.78760022,0
-2.581181,-3.5148959,1.3631725,-0.70226926,-0.61358929,0.36100733,0
0.086080432,-1.7999886,-1.271853,0.12271923,-0.60384268,-0.78760022,0
-0.24920845,0.9645822,-1.7378585,-0.70125455,0.5088048,-0.4993594,0
2.3640537,-0.47958523,-1.7621046,0.12271923,-0.60384268,-0.78760022,0
-2.33429,-2.6826124,-0.92759275,0.12271923,-0.60384268,-0.78760022,0
-0.63322508,-2.7104244,-0.62259436,0.12271923,-0.60384268,-0.78760022,0
3.3500438,-0.11333707,-2.0139616,0.70125455,-0.5088048,0.4993594,0
0.15482819,-0.8984313,1.982134,0.70125455,-0.5088048,0.4993594,0
-2.2495606,-2.2244992,-1.2427523,0.12271923,-0.60384268,-0.78760022,0
-2.8486712,-2.205318,3.3547852,-0.70226926,-0.61358929,0.36100733,0
0.64510137,-0.771842,1.4796735,0.70125455,-0.5088048,0.4993594,0
-2.8091168,-3.0468113,1.9208155,-0.70226926,-0.61358929,0.36100733,0
-3.5066392,-1.4132994,3.071367,-0.70226926,-0.61358929,0.36100733,0
1.4898484,1.8846974,1.3529534,-0.12271923,0.60384268,0.78760022,0
2.3790708,4.102159,-0.13272047,-0.12271923,0.60384268,0.78760022,0
-2.6866958,-2.3389449,-1.2194247,0.12271923,-0.60384268,-0.78760022,0
2.9186778,-0.030034026,-1.2777679,0.70125455,-0.5088048,0.4993594,0
-2.5034423,-0.26121467,2.4057093,-0.12271923,0.60384268,0.78760022,0
2.9443941,2.0754445,-3.3434711,0.70226926,0.61358929,-0.36100733,0
0.33834302,-2.1720948,-0.85295767,0.12271923,-0.60384268,-0.78760022,0
3.1033216,0.73846865,-0.51889443,0.70125455,-0.5088048,0.4993594,0
-2.3382003,0.11705023,0.31454968,-0.70125455,0.5088048,-0.4993594,0
1.9740089,2.9293227,0.70937133,-0.12271923,0.60384268,0.78760022,0
3.3370214,2.1719706,-2.4550498,0.70226926,0.61358929,-0.36100733,0
-2.7199202,-1.8794695,3.5807822,-0.12271923,0.60384268,0.78760022,0
1.2763164,3.5251787,-1.3890564,-0.70125455,0.5088048,-0.4993594,0
3.2395759,1.8075871,-2.9493246,0.70226926,0.61358929,-0.36100733,0
-0.13713491,1.5715919,-1.2313943,-0.70125455,0.5088048,-0.4993594,0
-1.6065474,-1.9978303,3.2884459,0.70125455,-0.5088048,0.4993594,0
2.23838,2.850847,0.62158442,-0.12271923,0.60384268,0.78760022,0
3.8594856,2.9856591,0.76711988,0.70125455,-0.5088048,0.4993594,0
1.7312791,0.83138573,-2.9767454,0.12271923,-0.60384268,-0.78760022,0
3.6071575,0.86439443,-1.2346079,0.70125455,-0.5088048,0.4993594,0
1.1233771,0.33334553,1.9214906,0.70125455,-0.5088048,0.4993594,0
-2.9356332,0.27569023,1.8484938,-0.12271923,0.60384268,0.78760022,0
4.2142591,1.0775971,-1.9831562,0.70125455,-0.5088048,0.4993594,0
3.1170135,2.0475097,0.5397687,0.70125455,-0.5088048,0.4993594,0
-2.7291839,-1.9242058,-1.1798327,-0.70125455,0.5088048,-0.4993594,0
2.2763484,3.9111483,-0.035209656,-0.12271923,0.60384268,0.78760022,0
-4.0909567,-1.965239,1.0529599,-0.70226926,-0.61358929,0.36100733,0
0.62269831,1.3782659,1.6462426,-0.12271923,0.60384268,0.78760022,0
2.9139757,2.6360769,-2.3620715,0.70226926,0.61358929,-0.36100733,0
-0.59838486,-0.35033822,-2.4192092,-0.70125455,0.5088048,-0.4993594,0
-3.4695601,-3.4804873,-0.20172691,-0.70226926,-0.61358929,0.36100733,0
3.1926239,3.4092155,0.36129427,-0.12271923,0.60384268,0.78760022,0
-1.7383301,-0.75983512,-1.1570089,-0.70125455,0.5088048,-0.4993594,0
0.13799238,1.3791057,1.5875201,-0.12271923,0.60384268,0.78760022,0
3.8221061,2.5257919,-0.68713522,0.70226926,0.61358929,-0.36100733,0
-0.10230613,-0.36906326,2.6757116,0.70125455,-0.5088048,0.4993594,0
-3.7711163,-2.378809,1.1598301,-0.70226926,-0.61358929,0.36100733,0
-3.0592155,-1.4413608,-0.26520681,-0.70125455,0.5088048,-0.4993594,0
2.6902699,3.5956388,-1.0210228,0.70226926,0.61358929,-0.36100733,0
2.3241844,-0.59164488,-1.8120973,0.12271923,-0.60384268,-0.78760022,0
-1.5765918,-4.2689633,1.0266509,0.70125455,-0.5088048,0.4993594,0
-0.14885633,-2.7932446,0.35850739,0.70125455,-0.5088048,0.4993594,0
-2.8068013,-0.11122313,0.88790107,-0.70125455,0.5088048,-0.4993594,0
-2.6362138,-2.7078502,2.6795988,-0.70226926,-0.61358929,0.36100733,0
2.591713,3.1086397,-1.9782186,0.70226926,0.61358929,-0.36100733,0
-3.0356956,-0.90971243,2.7770946,-0.12271923,0.60384268,0.78760022,0
-2.4776011,-4.0292287,0.16164684,0.12271923,-0.60384268,-0.78760022,0
-3.7255688,-2.7231469,0.78732061,-0.70226926,-0.61358929,0.36100733,0
-1.1916554,-0.48737061,-1.7350683,-0.70125455,0.5088048,-0.4993594,0
0.92423534,0.93203902,-3.17748,0.12271923,-0.60384268,-0.78760022,0
2.7756047,-0.10061339,-0.89461589,0.70125455,-0.5088048,0.4993594,0
-2.1013606,0.065041006,-0.178617,-0.70125455,0.5088048,-0.4993594,0
0.21725392,-2.9195378,-0.30321634,0.12271923,-0.60384268,-0.78760022,0
-0.64639091,-1.8478396,-1.1556289,0.12271923,-0.60384268,-0.78760022,0
3.0197868,1.9212419,-3.050781,0.70226926,0.61358929,-0.36100733,0
2.4957371,2.8605294,-2.4979289,0.70226926,0.61358929,-0.36100733,0
-0.65077972,-0.35645413,-2.3519397,0.12271923,-0.60384268,-0.78760022,0
-1.1186687,1.816062,0.30704495,-0.70125455,0.5088048,-0.4993594,0
3.5113831,2.338702,-1.501791,0.70226926,0.61358929,-0.36100733,0
-2.114507,-1.1095847,3.0479331,-0.12271923,0.60384268,0.78760022,0
1.0735964,-2.1302655,-0.51170635,0.70125455,-0.5088048,0.4993594,0
-2.6678123,-2.5258939,2.9926107,-0.70226926,-0.61358929,0.36100733,0
1.9377326,-0.81454194,-0.42311549,0.70125455,-0.5088048,0.4993594,0
3.7536769,2.7238846,0.54133654,0.70125455,-0.5088048,0.4993594,0
-2.3945098,-3.9118259,0.11311626,0.12271923,-0.60384268,-0.78760022,0
-0.65893871,1.2799191,-0.89929533,-0.70125455,0.5088048,-0.4993594,0
2.6057479,2.7299581,0.96588659,-0.12271923,0.60384268,0.78760022,0
-1.664528,-2.6084013,-0.70982599,0.12271923,-0.60384268,-0.78760022,0
0.57930076,1.040153,1.8342831,-0.12271923,0.60384268,0.78760022,0
-1.2683289,-2.1762738,-1.0116889,0.12271923,-0.60384268,-0.78760022,0
2.6164727,3.8375239,-0.83475065,0.70226926,0.61358929,-0.36100733,0
2.3392437,-0.2292653,-0.61800694,0.70125455,-0.5088048,0.4993594,0
3.3565083,3.118901,-0.85370684,0.70226926,0.61358929,-0.36100733,0
-2.1774163,-4.4895525,0.6298008,-0.70226926,-0.61358929,0.36100733,0
-4.0464592,-2.39221,0.046409607,-0.70125455,0.5088048,-0.4993594,0
-0.95981598,-3.6404707,0.71481109,0.70125455,-0.5088048,0.4993594,0
1.069671,2.0522261,1.0392144,-0.12271923,0.60384268,0.78760022,0
-3.5400958,-3.2137904,0.29684353,-0.70226926,-0.61358929,0.36100733,0
-3.1378469,-1.3103498,0.19015503,-0.70125455,0.5088048,-0.4993594,0
0.1150133,-2.2892582,0.46417403,0.70125455,-0.5088048,0.4993594,0
-2.0398252,-2.6686759,-0.85792351,0.12271923,-0.60384268,-0.78760022,0
2.3891835,3.7662334,0.063382149,-0.12271923,0.60384268,0.78760022,0
-0.95001078,-3.5453701,0.026023149,0.12271923,-0.60384268,-0.78760022,0
3.5314424,3.0672541,-0.36010647,0.70226926,0.61358929,-0.36100733,0
-0.50450128,-3.2864852,0.37669587,0.70125455,-0.5088048,0.4993594,0
-1.2523503,2.0385535,0.75255698,-0.70125455,0.5088048,-0.4993594,0
0.80564618,-0.57657528,1.2025325,0.70125455,-0.5088048,0.4993594,0
-2.1719522,-3.4953339,2.4309304,-0.70226926,-0.61358929,0.36100733,0
3.3690224,2.2790997,-2.1948786,0.70226926,0.61358929,-0.36100733,0
2.4736555,4.1060047,-0.4759841,0.70226926,0.61358929,-0.36100733,0
-3.3628759,0.097225249,2.0011091,-0.12271923,0.60384268,0.78760022,0
3.5917664,3.2335687,-0.21517611,0.70226926,0.61358929,-0.36100733,0
0.59410441,-2.3673825,-0.6500544,0.12271923,-0.60384268,-0.78760022,0
-1.3648175,-2.4593534,2.3615558,0.70125455,-0.5088048,0.4993594,0
0.22669387,2.220696,-0.97250044,-0.70125455,0.5088048,-0.4993594,0
1.4715575,-1.6535268,-0.92845994,0.12271923,-0.60384268,-0.78760022,0
-1.9896392,-3.3493741,2.5524042,0.70125455,-0.5088048,0.4993594,0
-2.9518058,-3.6897006,-0.15882206,0.12271923,-0.60384268,-0.78760022,0
2.6156528,2.0024815,1.445864,0.70125455,-0.5088048,0.4993594,0
1.6558726,2.441761,0.95305204,-0.12271923,0.60384268,0.78760022,0
-1.3171079,-4.2046547,0.48614073,0.12271923,-0.60384268,-0.78760022,0
1.5833797,1.5782757,-3.4574399,0.12271923,-0.60384268,-0.78760022,0
2.8919585,3.7286708,-0.63378954,0.70226926,0.61358929,-0.36100733,0
1.8189491,0.14279091,-2.3637652,0.12271923,-0.60384268,-0.78760022,0
-3.2258902,-2.0515151,2.6437562,-0.70226926,-0.61358929,0.36100733,0
0.63591456,2.0828114,0.95996571,-0.12271923,0.60384268,0.78760022,0
1.7019507,2.3320994,1.1231022,-0.12271923,0.60384268,0.78760022,0
-3.5687265,-3.2837014,-0.59743929,0.12271923,-0.60384268,-0.78760022,0
-3.1944506,-2.223037,-0.74236441,-0.70125455,0.5088048,-0.4993594,0
2.001056,2.6229656,0.81433368,-0.12271923,0.60384268,0.78760022,0
-3.8179624,-2.6793423,0.27674675,-0.70226926,-0.61358929,0.36100733,0
-0.87473941,-3.078052,0.96089053,0.70125455,-0.5088048,0.4993594,0
-3.3426776,-3.2523494,0.2163887,-0.70226926,-0.61358929,0.36100733,0
2.5783238,2.5468478,-2.9533961,0.70226926,0.61358929,-0.36100733,0
-0.79187775,-0.30116105,-2.2250845,-0.70125455,0.5088048,-0.4993594,0
-0.63207048,-3.0095346,0.77267265,0.70125455,-0.5088048,0.4993594,0
-3.3249857,-2.1384463,2.4512289,-0.70226926,-0.61358929,0.36100733,0
-2.8766093,-1.4140018,-0.59240031,-0.70125455,0.5088048,-0.4993594,0
-2.8445864,-3.7424867,0.72925377,-0.70226926,-0.61358929,0.36100733,0
-2.5433612,-2.9205704,2.4184616,-0.70226926,-0.61358929,0.36100733,0
-3.1849785,-2.9249799,1.4923973,-0.70226926,-0.61358929,0.36100733,0
-1.0346732,-1.4385927,-1.614419,0.12271923,-0.60384268,-0.78760022,0
-0.011352599,3.0752718,0.25714159,-0.70125455,0.5088048,-0.4993594,0
-0.047671318,0.81062073,2.0037322,-0.12271923,0.60384268,0.78760022,0
1.3864551,-0.61220431,-1.8600729,0.12271923,-0.60384268,-0.78760022,0
3.8790698,2.8508487,0.50389957,0.70125455,-0.5088048,0.4993594,0
1.9993088,3.4707639,-2.0841682,-0.70125455,0.5088048,-0.4993594,0
-1.2533467,1.6030993,1.0020111,-0.12271923,0.60384268,0.78760022,0
4.2037473,1.4221064,-1.7392659,0.70226926,0.61358929,-0.36100733,0
1.4613258,-0.97167629,-1.6908278,0.12271923,-0.60384268,-0.78760022,0
2.0613234,-1.0510476,-1.3860302,0.12271923,-0.60384268,-0.78760022,0
-2.9744835,-3.4529676,0.79404259,-0.70226926,-0.61358929,0.36100733,0
-0.12523508,0.69153804,1.9864421,-0.12271923,0.60384268,0.78760022,0
-2.4340043,-1.3909149,-1.1903627,-0.70125455,0.5088048,-0.4993594,0
-1.5657557,0.8561967,0.14632761,-0.70125455,0.5088048,-0.4993594,0
-2.4348462,-1.1223667,-0.57285261,-0.70125455,0.5088048,-0.4993594,0
3.593842,0.73787457,-1.2114666,0.70125455,-0.5088048,0.4993594,0
-0.84933895,-2.6532745,-0.73235965,0.12271923,-0.60384268,-0.78760022,0
-1.6238705,1.4459603,0.83716297,-0.70125455,0.5088048,-0.4993594,0
0.47261238,2.8508353,0.48996925,-0.12271923,0.60384268,0.78760022,0
2.6778281,3.0745897,-2.2257452,0.70226926,0.61358929,-0.36100733,0
-3.3209169,-2.0867732,2.2520244,-0.70226926,-0.61358929,0.36100733,0
-2.1953542,-0.36253965,2.3645811,-0.12271923,0.60384268,0.78760022,0
-2.2420666,-4.1123347,1.1583953,-0.70226926,-0.61358929,0.36100733,0
3.6237497,2.8734174,-0.28434181,0.70226926,0.61358929,-0.36100733,0
-3.1557031,-3.7895899,-0.10101366,-0.70226926,-0.61358929,0.36100733,0
1.2157552,2.6318507,0.77370787,-0.12271923,0.60384268,0.78760022,0
-1.2058877,-0.43603694,-1.8929422,-0.70125455,0.5088048,-0.4993594,0
-0.00096520782,2.0831347,-0.78807378,-0.70125455,0.5088048,-0.4993594,0
-0.75287342,-1.6175987,-1.331691,0.12271923,-0.60384268,-0.78760022,0
1.9922132,1.1789365,-3.2132015,0.12271923,-0.60384268,-0.78760022,0
-3.5518796,-0.70458919,1.2554047,-0.70125455,0.5088048,-0.4993594,0
3.5502818,2.0988801,-1.7897887,0.70226926,0.61358929,-0.36100733,0
-1.2802302,0.84870541,-0.53179574,-0.70125455,0.5088048,-0.4993594,0
-1.7530698,-1.2152507,-1.6284132,-0.70125455,0.5088048,-0.4993594,0
-3.8333812,-1.9336205,1.7847714,-0.70226926,-0.61358929,0.36100733,0
-3.5532112,-2.477402,1.5159292,-0.70226926,-0.61358929,0.36100733,0
2.6458695,0.54383826,-2.5527003,0.12271923,-0.60384268,-0.78760022,0
-2.411582,-1.8256792,-1.4250138,0.12271923,-0.60384268,-0.78760022,0
-3.1392403,0.066292286,2.0642431,-0.12271923,0.60384268,0.78760022,0
2.000493,-0.14475185,-0.062765598,0.70125455,-0.5088048,0.4993594,0
-2.5839539,-3.1074162,2.0339262,-0.70226926,-0.61358929,0.36100733,0
4.1347623,1.9344015,-1.3221903,0.70226926,0.61358929,-0.36100733,0
1.4649389,1.0685421,-3.0604424,0.12271923,-0.60384268,-0.78760022,0
-3.0760128,-3.4620526,0.36358404,-0.70226926,-0.61358929,0.36100733,0
0.74568176,-1.2314844,-1.4984245,0.12271923,-0.60384268,-0.78760022,0
2.7066383,2.1946759,-3.2986882,0.70226926,0.61358929,-0.36100733,0
-3.8242245,-1.7853878,1.7410254,-0.70226926,-0.61358929,0.36100733,0
0.61457145,2.5204008,-1.359304,-0.70125455,0.5088048,-0.4993594,0
-3.5366569,-1.6167562,2.7401078,-0.70226926,-0.61358929,0.36100733,0
4.2407169,1.5916619,-1.5023217,0.70226926,0.61358929,-0.36100733,0
-2.8176579,-3.3305721,1.383554,-0.70226926,-0.61358929,0.36100733,0
0.88135511,2.313925,0.78371096,-0.12271923,0.60384268,0.78760022,0
-0.6464867,1.5682911,-0.46636513,-0.70125455,0.5088048,-0.4993594,0
-0.22644496,-0.94139564,2.330663,0.70125455,-0.5088048,0.4993594,0
-3.4304147,-3.2617965,-0.019317627,-0.70226926,-0.61358929,0.36100733,0
-0.37063092,2.4059081,0.61467659,-0.12271923,0.60384268,0.78760022,0
0.2990396,0.1012603,2.4621933,-0.12271923,0.60384268,0.78760022,0
-3.6397161,-3.280405,-0.033089161,-0.70226926,-0.61358929,0.36100733,0
-1.6719906,1.4539239,1.0241957,-0.70125455,0.5088048,-0.4993594,0
1.7876623,3.5272913,0.039941311,-0.12271923,0.60384268,0.78760022,0
-0.19913566,-1.2776208,-1.5591692,0.12271923,-0.60384268,-0.78760022,0
-0.37134576,-1.0279033,2.3345566,0.70125455,-0.5088048,0.4993594,0
-2.0826323,-2.733,-0.87405872,0.12271923,-0.60384268,-0.78760022,0
0.89628392,3.1354718,0.26302028,-0.12271923,0.60384268,0.78760022,0
-0.65484881,-0.95776576,-1.8868208,0.12271923,-0.60384268,-0.78760022,0
-1.3641562,0.94114923,-0.22389638,-0.70125455,0.5088048,-0.4993594,0
1.417449,1.4356197,-3.3169155,0.12271923,-0.60384268,-0.78760022,0
-1.6528403,-0.39489281,-1.1438252,-0.70125455,0.5088048,-0.4993594,0
-0.35570633,-2.7641344,0.75700331,0.70125455,-0.5088048,0.4993594,0
0.94340295,3.4666662,0.074879885,-0.12271923,0.60384268,0.78760022,0
0.45303181,2.6798859,-1.0228412,-0.70125455,0.5088048,-0.4993594,0
3.1997843,2.5312893,-1.695703,0.70226926,0.61358929,-0.36100733,0
0.54834557,3.5092843,-0.24349213,-0.70125455,0.5088048,-0.4993594,0
-2.2661977,-4.3574753,0.62696743,-0.70226926,-0.61358929,0.36100733,0
0.76410806,-2.2624547,-0.2617985,0.70125455,-0.5088048,0.4993594,0
-2.5347886,-4.1802173,0.1536417,0.12271923,-0.60384268,-0.78760022,0
3.3237779,2.866461,-0.86237335,0.70226926,0.61358929,-0.36100733,0
-2.3333929,-2.8896246,2.9127386,-0.70226926,-0.61358929,0.36100733,0
1.7614166,0.61202174,1.2746791,0.70125455,-0.5088048,0.4993594,0
2.8471406,3.6970966,-0.79788637,0.70226926,0.61358929,-0.36100733,0
-1.2109755,-3.5152078,0.0735991,0.12271923,-0.60384268,-0.78760022,0
3.2457619,2.5962186,-1.994801,0.70226926,0.61358929,-0.36100733,0
-0.52777481,-2.1544614,1.6466711,0.70125455,-0.5088048,0.4993594,0
2.581203,3.6176672,0.13620615,-0.12271923,0.60384268,0.78760022,0
0.24408019,-2.5668254,0.15716243,0.70125455,-0.5088048,0.4993594,0
-3.2814164,-2.2430267,2.1625586,-0.70226926,-0.61358929,0.36100733,0
3.4918978,3.1182961,-0.55513096,0.70226926,0.61358929,-0.36100733,0
-2.602083,-3.6123931,1.2179255,-0.70226926,-0.61358929,0.36100733,0
-1.6169407,-4.357028,0.57685661,0.12271923,-0.60384268,-0.78760022,0
1.0856416,1.0248065,-3.2526863,0.12271923,-0.60384268,-0.78760022,0
-0.22703481,-1.7381427,1.6677378,0.70125455,-0.5088048,0.4993594,0
2.0988441,4.0984306,-1.3531551,0.70226926,0.61358929,-0.36100733,0
3.7408557,2.9053111,-0.046947479,0.70226926,0.61358929,-0.36100733,0
-1.9396751,-0.86990011,2.8955402,-0.12271923,0.60384268,0.78760022,0
2.5283303,3.7919397,-1.1316476,0.70226926,0.61358929,-0.36100733,0
3.0620008,3.4674869,0.3519454,-0.12271923,0.60384268,0.78760022,0
-0.65013862,-1.8457091,-1.126757,0.12271923,-0.60384268,-0.78760022,0
-2.5282822,-4.0922165,0.80542135,-0.70226926,-0.61358929,0.36100733,0
-0.33323932,0.38095593,2.0943325,-0.12271923,0.60384268,0.78760022,0
0.094739318,-0.936921,1.9150133,0.70125455,-0.5088048,0.4993594,0
1.4310443,3.4736645,0.22373724,-0.12271923,0.60384268,0.78760022,0
0.15119362,-1.447312,-1.4228724,0.12271923,-0.60384268,-0.78760022,0
-0.44134974,2.5295444,0.13009965,-0.70125455,0.5088048,-0.4993594,0
0.1354757,2.0770419,-0.99269545,-0.70125455,0.5088048,-0.4993594,0
2.9446135,-0.56235087,-1.7558967,0.12271923,-0.60384268,-0.78760022,0
4.1764822,1.9213048,-0.94249201,0.70226926,0.61358929,-0.36100733,0
2.5101664,-0.21713452,-0.66217303,0.70125455,-0.5088048,0.4993594,0
-1.7221993,-1.2891984,-1.6973854,0.12271923,-0.60384268,-0.78760022,0
-1.6454899,1.1117554,1.5244203,-0.12271923,0.60384268,0.78760022,0
0.15237451,0.9881295,-2.3046703,-0.70125455,0.5088048,-0.4993594,0
1.8300413,1.7674754,1.4262836,-0.12271923,0.60384268,0.78760022,0
2.1685543,3.3279705,-2.4743512,0.70226926,0.61358929,-0.36100733,0
-1.6258888,-2.5989013,-0.73752427,0.12271923,-0.60384268,-0.78760022,0
3.8199553,0.18720499,-2.1203351,0.12271923,-0.60384268,-0.78760022,0
-3.9466658,-2.7590051,-0.020083904,-0.70226926,-0.61358929,0.36100733,0
-3.7724724,-3.1103158,-0.014478683,-0.70226926,-0.61358929,0.36100733,0
1.7756432,2.7291803,0.8219893,-0.12271923,0.60384268,0.78760022,0
0.84888291,0.40855205,2.3232112,-0.12271923,0.60384268,0.78760022,0
-2.2488232,-3.4857786,-0.24516296,0.12271923,-0.60384268,-0.78760022,0
4.1033821,2.13201,-0.69055653,0.70226926,0.61358929,-0.36100733,0
-1.8512257,-3.4550812,2.1147726,0.70125455,-0.5088048,0.4993594,0
-4.2389994,-2.1473303,0.81112576,-0.70226926,-0.61358929,0.36100733,0
-1.6266551,-4.3293948,0.44848919,0.12271923,-0.60384268,-0.78760022,0
3.157084,1.1713684,-0.041180134,0.70125455,-0.5088048,0.4993594,0
3.5946167,1.9384453,-2.3321729,0.70226926,0.61358929,-0.36100733,0
0.29260451,-2.8439579,-0.31289971,0.12271923,-0.60384268,-0.78760022,0
-1.7775832,-1.6212087,-1.4520173,0.12271923,-0.60384268,-0.78760022,0
4.2489576,1.9712844,-0.96468067,0.70226926,0.61358929,-0.36100733,0
-1.5488155,-2.3282282,2.9116397,0.70125455,-0.5088048,0.4993594,0
1.515025,3.0975199,-2.0756543,-0.70125455,0.5088048,-0.4993594,0
0.67046356,-1.7801428,-1.1259714,0.12271923,-0.60384268,-0.78760022,0
-3.4374323,-3.0097666,0.41395664,-0.70226926,-0.61358929,0.36100733,0
-0.46074736,-0.75348699,-2.0947433,0.12271923,-0.60384268,-0.78760022,0
-3.791451,-1.5177035,0.66863394,-0.70125455,0.5088048,-0.4993594,0
3.1734481,-0.30971861,-1.8086288,0.70125455,-0.5088048,0.4993594,0
0.36545271,3.4160461,-0.029614925,-0.12271923,0.60384268,0.78760022,0
-2.8923731,-2.3645656,3.0936966,-0.70226926,-0.61358929,0.36100733,0
1.4188683,2.376431,-2.5464091,-0.70125455,0.5088048,-0.4993594,0
3.602772,1.5859052,-2.5498137,0.70226926,0.61358929,-0.36100733,0
-1.9048941,-1.4448694,3.3488803,-0.12271923,0.60384268,0.78760022,0
2.4758601,-0.41965139,-0.82576764,0.70125455,-0.5088048,0.4993594,0
3.0295439,2.5618124,-2.242496,0.70226926,0.61358929,-0.36100733,0
-0.48534673,-2.6646519,1.1099358,0.70125455,-0.5088048,0.4993594,0
0.097515702,1.4535732,1.4078612,-0.12271923,0.60384268,0.78760022,0
-2.7463174,-0.90540421,2.7143567,-0.12271923,0.60384268,0.78760022,0
-0.47180259,2.4679773,-0.003790617,-0.70125455,0.5088048,-0.4993594,0
1.2432039,-1.1341836,-1.4166877,0.12271923,-0.60384268,-0.78760022,0
3.6446397,2.2145376,0.069460392,0.70125455,-0.5088048,0.4993594,0
3.2298274,1.7850943,-3.1016748,0.70226926,0.61358929,-0.36100733,0
-4.2814431,-1.6720397,1.5425534,-0.70226926,-0.61358929,0.36100733,0
-2.8108325,-0.30816048,2.2641191,-0.12271923,0.60384268,0.78760022,0
0.11484943,-2.0493441,0.56309605,0.70125455,-0.5088048,0.4993594,0
-1.5878522,1.0792936,1.4605393,-0.12271923,0.60384268,0.78760022,0
-2.8037868,-3.6372199,-0.10315037,0.12271923,-0.60384268,-0.78760022,0
-4.3584003,-0.96352565,2.5563459,-0.70226926,-0.61358929,0.36100733,0
2.2721808,3.3346691,0.26193428,-0.12271923,0.60384268,0.78760022,0
2.1095028,-1.2045107,-1.2286522,0.12271923,-0.60384268,-0.78760022,0
-1.2696263,-1.2486763,-1.8518631,0.12271923,-0.60384268,-0.78760022,0
2.9867043,-0.54357213,-1.7588522,0.12271923,-0.60384268,-0.78760022,0
-3.0583262,-3.3075294,0.67880249,-0.70226926,-0.61358929,0.36100733,0
-1.3998834,-1.0485759,-1.9450535,0.12271923,-0.60384268,-0.78760022,0
1.0613968,0.22803974,-2.4253004,0.12271923,-0.60384268,-0.78760022,0
2.1881788,3.8560133,-1.5684237,0.70226926,0.61358929,-0.36100733,0
-2.1198196,1.2929378,1.3419666,-0.12271923,0.60384268,0.78760022,0
3.4227133,2.8918705,-0.98652744,0.70226926,0.61358929,-0.36100733,0
-0.35894507,1.6989713,-0.92339635,-0.70125455,0.5088048,-0.4993594,0
-2.5410686,-1.6589556,3.3431518,-0.12271923,0.60384268,0.78760022,0
-2.6010976,-4.0487423,0.58006382,-0.70226926,-0.61358929,0.36100733,0
0.10018545,-2.5202734,-0.58074343,0.12271923,-0.60384268,-0.78760022,0
-3.3442948,-3.1079273,0.70324802,-0.70226926,-0.61358929,0.36100733,0
1.9561641,1.3590664,-3.3137434,0.12271923,-0.60384268,-0.78760022,0
-1.9956393,-2.9194255,2.9935732,0.70125455,-0.5088048,0.4993594,0
-2.4421809,-4.1937056,0.7858243,-0.70226926,-0.61358929,0.36100733,0
-2.6041033,-3.635685,1.2278833,-0.70226926,-0.61358929,0.36100733,0
3.5497794,2.9103994,-0.37271643,0.70226926,0.61358929,-0.36100733,0
1.5563979,2.7663343,-2.2640972,-0.70125455,0.5088048,-0.4993594,0
3.1592827,3.314652,-0.71311808,0.70226926,0.61358929,-0.36100733,0
-3.2213073,-2.5559626,2.0662603,-0.70226926,-0.61358929,0.36100733,0
2.5471363,0.75586236,-2.6070449,0.12271923,-0.60384268,-0.78760022,0
-2.1782365,-1.3416543,-1.4580858,-0.70125455,0.5088048,-0.4993594,0
0.60978901,-0.522645,1.594098,0.70125455,-0.5088048,0.4993594,0
2.7507856,1.3473235,-3.0994151,0.12271923,-0.60384268,-0.78760022,0
2.0463877,-1.1263072,-1.3153692,0.12271923,-0.60384268,-0.78760022,0
2.5132494,0.37942791,-2.3925042,0.12271923,-0.60384268,-0.78760022,0
-2.0573123,-1.6479075,-1.641247,0.12271923,-0.60384268,-0.78760022,0
-0.11015224,-1.5207371,-1.5118313,0.12271923,-0.60384268,-0.78760022,0
0.99956644,1.0498145,1.8671131,-0.12271923,0.60384268,0.78760022,0
-0.38717771,-1.5169075,1.9326596,0.70125455,-0.5088048,0.4993594,0
3.4426019,3.3579121,-0.18656969,0.70226926,0.61358929,-0.36100733,0
-3.4091411,-3.2725644,0.32549715,-0.70226926,-0.61358929,0.36100733,0
4.0077457,0.36397165,-2.3121638,0.12271923,-0.60384268,-0.78760022,0
0.18693575,-2.0721583,0.72400606,0.70125455,-0.5088048,0.4993594,0
-1.2376127,-3.6936057,0.21278286,0.12271923,-0.60384268,-0.78760022,0
2.2542777,3.4870248,-2.0872693,0.70226926,0.61358929,-0.36100733,0
-0.88029766,-1.6096731,2.5749335,0.70125455,-0.5088048,0.4993594,0
2.3728201,2.0852702,1.4306674,-0.12271923,0.60384268,0.78760022,0
0.56714797,0.204831,2.3973508,0.70125455,-0.5088048,0.4993594,0
2.3037412,2.8073659,0.74576902,-0.12271923,0.60384268,0.78760022,0
2.6425173,3.290817,0.49256897,-0.12271923,0.60384268,0.78760022,0
-2.5092731,-3.4520915,1.5392447,-0.70226926,-0.61358929,0.36100733,0
3.6680675,1.8134294,-0.27019739,0.70125455,-0.5088048,0.4993594,0
2.4923148,4.0467567,-0.19165897,-0.12271923,0.60384268,0.78760022,0
-3.8368824,-2.4675553,0.96107054,-0.70226926,-0.61358929,0.36100733,0
0.86295843,-0.99198079,-1.6460775,0.12271923,-0.60384268,-0.78760022,0
0.86930132,2.968442,-1.0431769,-0.70125455,0.5088048,-0.4993594,0
3.1719458,2.4988637,-2.3019063,0.70226926,0.61358929,-0.36100733,0
1.8155024,-1.1238083,-1.39386,0.12271923,-0.60384268,-0.78760022,0
3.6270387,1.4379696,-2.9663858,0.70226926,0.61358929,-0.36100733,0
1.5944098,2.4788508,-2.590373,-0.70125455,0.5088048,-0.4993594,0
3.1541245,0.35855883,-1.0882182,0.70125455,-0.5088048,0.4993594,0
2.8122289,3.6414077,-0.85011148,0.70226926,0.61358929,-0.36100733,0
2.074616,0.75239891,0.74550676,0.70125455,-0.5088048,0.4993594,0
-2.0689824,0.70496362,1.7616262,-0.12271923,0.60384268,0.78760022,0
-2.1819518,-4.0526986,1.4605093,-0.70226926,-0.61358929,0.36100733,0
-2.3721743,-4.2158761,0.22036409,0.12271923,-0.60384268,-0.78760022,0
2.721859,2.5682738,-2.8397913,0.70226926,0.61358929,-0.36100733,0
2.1883793,2.9412715,0.58211851,-0.12271923,0.60384268,0.78760022,0
0.15782666,0.0569911,2.5593395,-0.12271923,0.60384268,0.78760022,0
1.5549698,1.2118438,-3.3124809,0.12271923,-0.60384268,-0.78760022,0
3.1186366,2.7030966,-1.7934251,0.70226926,0.61358929,-0.36100733,0
-2.7687721,-2.6357698,2.6865411,-0.70226926,-0.61358929,0.36100733,0
1.4063265,0.28284037,-2.6433301,0.12271923,-0.60384268,-0.78760022,0
-3.5146954,-1.0314522,0.79512787,-0.70125455,0.5088048,-0.4993594,0
-2.5884261,-3.1049128,2.0352969,-0.70226926,-0.61358929,0.36100733,0
-2.6877043,-2.8993366,2.1781497,-0.70226926,-0.61358929,0.36100733,0
-2.286567,-4.1731615,0.3281517,0.12271923,-0.60384268,-0.78760022,0
-1.7498596,1.0899458,1.4332594,-0.12271923,0.60384268,0.78760022,0
-2.3749254,-1.4085914,3.2035532,-0.12271923,0.60384268,0.78760022,0
-2.7132418,-2.6690364,2.6089497,-0.70226926,-0.61358929,0.36100733,0
-4.1998372,-1.6962368,1.3928528,-0.70226926,-0.61358929,0.36100733,0
2.389771,3.9757102,-1.0889854,0.70226926,0.61358929,-0.36100733,0
0.19591975,-0.98395419,1.5845724,0.70125455,-0.5088048,0.4993594,0
-2.9985514,-2.6808517,1.9583664,-0.70226926,-0.61358929,0.36100733,0
-4.2330346,-1.030858,1.9256258,-0.70125455,0.5088048,-0.4993594,0
1.6627281,0.056201935,0.65259886,0.70125455,-0.5088048,0.4993594,0
1.6204323,3.4777551,0.033428192,-0.12271923,0.60384268,0.78760022,0
3.2058125,1.2299204,-0.26806641,0.70125455,-0.5088048,0.4993594,0
-2.3950205,-3.1319578,2.6559627,-0.70226926,-0.61358929,0.36100733,0
3.7580593,1.3999503,-2.8982496,0.70226926,0.61358929,-0.36100733,0
-2.2662826,-3.4082971,2.0874186,-0.70226926,-0.61358929,0.36100733,0
0.81633604,0.21596813,1.8836882,0.70125455,-0.5088048,0.4993594,0
1.5819631,-0.48473239,-2.0030062,0.12271923,-0.60384268,-0.78760022,0
-0.43562546,2.2452393,-0.13417995,-0.70125455,0.5088048,-0.4993594,0
1.8454876,3.8107395,0.0031199455,-0.12271923,0.60384268,0.78760022,0
-1.9784622,0.61114019,0.51269352,-0.70125455,0.5088048,-0.4993594,0
-0.62039828,0.13444865,-1.9378004,-0.70125455,0.5088048,-0.4993594,0
2.1799424,3.7558379,-1.6373258,0.70226926,0.61358929,-0.36100733,0
3.735873,2.1131442,-1.8140235,0.70226926,0.61358929,-0.36100733,0
-3.4641814,-1.7663002,2.776957,-0.70226926,-0.61358929,0.36100733,0
2.7753367,4.0914507,-0.29990816,0.70226926,0.61358929,-0.36100733,0
0.78544712,0.27923334,-2.5123985,0.12271923,-0.60384268,-0.78760022,0
0.34202108,-1.6788095,0.6797353,0.70125455,-0.5088048,0.4993594,0
-1.0102788,-3.18221,-0.3613739,0.12271923,-0.60384268,-0.78760022,0
1.7075866,0.38708723,1.15038,0.70125455,-0.5088048,0.4993594,0
1.4113536,2.0721898,-3.0397868,-0.70125455,0.5088048,-0.4993594,0
2.2801352,0.50042349,0.3356514,0.70125455,-0.5088048,0.4993594,0
3.5180764,1.4448023,-3.0340033,0.70226926,0.61358929,-0.36100733,0
2.8607507,3.9578245,-0.36751223,0.70226926,0.61358929,-0.36100733,0
-1.167475,-3.5404718,1.1828749,0.70125455,-0.5088048,0.4993594,0
-3.0854976,-2.9097018,-0.89257145,0.12271923,-0.60384268,-0.78760022,0
-1.5857728,0.27825677,-0.45982814,-0.70125455,0.5088048,-0.4993594,0
2.1142838,2.880455,0.60698938,-0.12271923,0.60384268,0.78760022,0
-1.7020392,-0.079589963,-0.78360283,-0.70125455,0.5088048,-0.4993594,0
-1.1599827,-2.2236345,2.3411469,0.70125455,-0.5088048,0.4993594,0
3.8607585,1.9935226,-1.5494065,0.70226926,0.61358929,-0.36100733,0
-4.3081832,-1.5212946,1.5618057,-0.70226926,-0.61358929,0.36100733,0
2.797112,-0.43071705,-1.876931,0.12271923,-0.60384268,-0.78760022,0
-3.3563955,-2.0329874,-0.2630415,-0.70125455,0.5088048,-0.4993594,0
4.0002942,2.0154757,-1.3849473,0.70226926,0.61358929,-0.36100733,0
-1.4227926,-1.589375,-1.5852891,0.12271923,-0.60384268,-0.78760022,0
-2.4286375,-3.0474875,2.3171418,-0.70226926,-0.61358929,0.36100733,0
-1.932887,-3.9769654,1.6081161,0.70125455,-0.5088048,0.4993594,0
-0.7467432,1.9478335,0.84075308,-0.12271923,0.60384268,0.78760022,0
3.3585482,2.6004422,-1.5020885,0.70226926,0.61358929,-0.36100733,0
-2.4631581,0.56678462,0.90930891,-0.70125455,0.5088048,-0.4993594,0
3.6341524,1.3567777,-2.8419044,0.70226926,0.61358929,-0.36100733,0
2.8617647,0.70143068,-0.42262197,0.70125455,-0.5088048,0.4993594,0
-1.0826273,-2.1664884,-0.96466255,0.12271923,-0.60384268,-0.78760022,0
-2.6965714,0.64200902,1.2701939,-0.70125455,0.5088048,-0.4993594,0
4.105751,2.2273426,-0.9052043,0.70226926,0.61358929,-0.36100733,0
2.4081683,4.1241765,-0.98313808,0.70226926,0.61358929,-0.36100733,0
-1.3704031,-0.58190453,-1.7773712,-0.70125455,0.5088048,-0.4993594,0
1.7166973,2.6814342,0.86887312,-0.12271923,0.60384268,0.78760022,0
-2.7633073,-3.1652827,1.8839483,-0.70226926,-0.61358929,0.36100733,0
0.69615221,0.14106762,-2.4385905,0.12271923,-0.60384268,-0.78760022,0
-2.5658236,-2.1861234,-1.3438828,0.12271923,-0.60384268,-0.78760022,0
-3.1333499,0.12057233,2.0521412,-0.12271923,0.60384268,0.78760022,0
0.37507224,-2.7442234,-0.11971164,0.70125455,-0.5088048,0.4993594,0
3.3287117,1.932843,-2.6272004,0.70226926,0.61358929,-0.36100733,0
-3.0702219,-2.7144458,-0.93004322,0.12271923,-0.60384268,-0.78760022,0
-4.3830171,-0.97358787,2.3616309,-0.70226926,-0.61358929,0.36100733,0
-2.720964,-3.1557939,1.7971635,-0.70226926,-0.61358929,0.36100733,0
3.0079246,3.7900825,-0.1658144,0.70226926,0.61358929,-0.36100733,0
-1.553591,0.14732563,2.0997875,-0.12271923,0.60384268,0.78760022,0
-3.3992515,0.085559547,1.9961255,-0.12271923,0.60384268,0.78760022,0
-0.39099169,-3.3277721,0.066891909,0.70125455,-0.5088048,0.4993594,0
2.0931551,-0.52232552,-0.64229381,0.70125455,-0.5088048,0.4993594,0
3.1778183,3.6515293,-0.13819981,0.70226926,0.61358929,-0.36100733,0
-0.88805032,-3.5286996,0.56834722,0.70125455,-0.5088048,0.4993594,0
-1.8680439,-1.123167,-1.4072104,-0.70125455,0.5088048,-0.4993594,0
0.63931084,2.3236065,-1.6174718,-0.70125455,0.5088048,-0.4993594,0
-0.8194803,-2.8884895,-0.3993361,0.12271923,-0.60384268,-0.78760022,0
-1.399652,-2.412447,-0.78933311,0.12271923,-0.60384268,-0.78760022,0
0.021926641,0.80060923,-2.2096615,-0.70125455,0.5088048,-0.4993594,0
3.5759244,2.7050686,-0.90141869,0.70226926,0.61358929,-0.36100733,0
4.1711841,1.3154892,-1.4185162,0.70125455,-0.5088048,0.4993594,0
2.3721077,2.3997903,-3.5664508,0.70226926,0.61358929,-0.36100733,0
0.12541932,2.7281117,0.5263052,-0.12271923,0.60384268,0.78760022,0
2.3031297,3.3419087,-2.2445815,0.70226926,0.61358929,-0.36100733,0
0.5384618,2.3504982,-1.5519246,-0.70125455,0.5088048,-0.4993594,0
3.6407042,0.79291111,-2.6488783,0.12271923,-0.60384268,-0.78760022,0
-2.2268333,-4.1750083,1.1489496,-0.70226926,-0.61358929,0.36100733,0
-3.011816,-0.48820871,2.5136793,-0.12271923,0.60384268,0.78760022,0
1.1378834,-1.9618918,-0.65344667,0.70125455,-0.5088048,0.4993594,0
-1.6232463,-2.2814109,-1.0226011,0.12271923,-0.60384268,-0.78760022,0
-2.9156499,-3.5471723,0.62356186,-0.70226926,-0.61358929,0.36100733,0
2.7174091,3.9362495,-0.35123777,0.70226926,0.61358929,-0.36100733,0
2.5950339,2.249227,-3.7970507,0.70226926,0.61358929,-0.36100733,0
1.078568,2.4701858,-2.1307344,-0.70125455,0.5088048,-0.4993594,0
3.72208,2.3116262,-1.1291904,0.70226926,0.61358929,-0.36100733,0
-3.2783318,-1.4385391,3.1219437,-0.12271923,0.60384268,0.78760022,0
-0.0156672,0.49328232,-2.6129577,-0.70125455,0.5088048,-0.4993594,0
-1.753453,-1.8874286,3.5920267,0.70125455,-0.5088048,0.4993594,0
1.5015839,2.4210138,-2.6330249,-0.70125455,0.5088048,-0.4993594,0
-2.8207426,-2.1504235,3.5631936,-0.70226926,-0.61358929,0.36100733,0
-3.1052785,-3.681541,0.0496912,-0.70226926,-0.61358929,0.36100733,0
0.0010062456,2.3139234,0.66049957,-0.12271923,0.60384268,0.78760022,0
1.2654005,-1.2791224,-0.21977724,0.70125455,-0.5088048,0.4993594,0
-3.2540317,-3.3668828,0.66539717,-0.70226926,-0.61358929,0.36100733,0
-3.4443305,-0.55187231,2.5046821,-0.12271923,0.60384268,0.78760022,0
1.9415245,1.5542747,-3.5174108,0.12271923,-0.60384268,-0.78760022,0
-0.98027337,-3.3472188,0.87736225,0.70125455,-0.5088048,0.4993594,0
-3.3250277,-3.1160359,0.72110271,-0.70226926,-0.61358929,0.36100733,0
-0.60291958,-1.5644101,2.2245131,0.70125455,-0.5088048,0.4993594,0
0.31153965,2.032428,0.96288323,-0.12271923,0.60384268,0.78760022,0
-4.0113845,-1.2471049,2.6472478,-0.70226926,-0.61358929,0.36100733,0
-2.4698336,-0.82286727,2.8724465,-0.12271923,0.60384268,0.78760022,0
0.80871546,1.4542739,1.5317961,-0.12271923,0.60384268,0.78760022,0
-3.5996063,-2.5414047,1.2520409,-0.70226926,-0.61358929,0.36100733,0
3.7452178,0.58004957,-1.7113967,0.70125455,-0.5088048,0.4993594,0
2.2864504,0.90216702,0.52760363,0.70125455,-0.5088048,0.4993594,0
-3.5519662,-2.8671513,-0.78584242,-0.70125455,0.5088048,-0.4993594,0
-2.0664468,-4.5328717,0.68140936,0.12271923,-0.60384268,-0.78760022,0
-3.8371611,-1.1366057,2.8360138,-0.12271923,0.60384268,0.78760022,0
-2.0518644,-2.2265296,3.5021455,0.70125455,-0.5088048,0.4993594,0
4.1643381,2.4649541,-0.41133118,0.70125455,-0.5088048,0.4993594,0
-4.137691,-1.8450546,1.5309234,-0.70226926,-0.61358929,0.36100733,0
-3.0886941,-0.31533527,2.3342593,-0.12271923,0.60384268,0.78760022,0
-3.0118167,-3.2536132,1.0836616,-0.70226926,-0.61358929,0.36100733,0
-3.1710289,-3.3401682,0.70214987,-0.70226926,-0.61358929,0.36100733,0
2.4497433,-0.063854873,-0.57748294,0.70125455,-0.5088048,0.4993594,0
1.7523797,2.3590879,0.96835804,-0.12271923,0.60384268,0.78760022,0
-3.4912438,-2.1688099,1.9342008,-0.70226926,-0.61358929,0.36100733,0
3.656949,2.339159,-1.2866802,0.70226926,0.61358929,-0.36100733,0
-1.3328555,-2.62398,2.1881983,0.70125455,-0.5088048,0.4993594,0
3.7754395,2.866364,-0.47193146,0.70226926,0.61358929,-0.36100733,0
-2.711431,-0.089570522,2.2116947,-0.12271923,0.60384268,0.78760022,0
