0.75075769,-3.242682,-2.2192454,-0.21757269,-0.32340884,-0.9209066,0
-2.4411535,2.2511878,0.68580127,-0.86298597,-0.3770389,0.33629888,0
1.2386732,-4.7211838,2.0745072,0.45597965,-0.86789888,0.19706392,0
1.726727,-2.124095,3.6433845,0.21757269,0.32340884,0.9209066,0
1.1409532,-4.6519728,2.0930192,-0.86298597,-0.3770389,0.33629888,0
0.85824728,0.95818007,-1.3330677,0.86298597,0.3770389,-0.33629888,0
-0.82757282,4.6341209,1.8090053,0.21757269,0.32340884,0.9209066,0
-1.5343556,5.099812,1.8408973,0.21757269,0.32340884,0.9209066,0
1.6420784,-5.1272621,-1.3168952,0.45597965,-0.86789888,0.19706392,0
-0.72106361,-1.1186411,1.3332784,-0.86298597,-0.3770389,0.33629888,0
2.5521884,-2.818938,-1.2075953,0.86298597,0.3770389,-0.33629888,0
0.60459971,3.7291992,1.163594,0.86298597,0.3770389,-0.33629888,0
-1.4327824,1.5161078,2.4706786,-0.86298597,-0.3770389,0.33629888,0
0.83698535,-1.6813164,-2.8983388,-0.21757269,-0.32340884,-0.9209066,0
-2.1010008,2.4517467,1.9233872,-0.86298597,-0.3770389,0.33629888,0
-0.97693634,-1.1450968,-2.6270523,-0.21757269,-0.32340884,-0.9209066,0
-2.734514,-0.090045452,-2.5403328,-0.21757269,-0.32340884,-0.9209066,0
1.551784,-4.3203287,2.8780241,0.45597965,-0.86789888,0.19706392,0
-1.3576739,-0.68561673,-2.7655218,-0.21757269,-0.32340884,-0.9209066,0
0.5827527,-1.217906,-3.0490637,-0.21757269,-0.32340884,-0.9209066,0
-3.1636508,0.87811875,-2.6737466,-0.86298597,-0.3770389,0.33629888,0
-3.4813275,3.2983556,-1.0222597,-0.86298597,-0.3770389,0.33629888,0
2.1692581,0.75596285,1.9023391,0.86298597,0.3770389,-0.33629888,0
-0.76420677,3.2004037,-2.8959169,0.86298597,0.3770389,-0.33629888,0
-3.28686,4.2497659,0.78641558,-0.45597965,0.86789888,-0.19706392,0
-0.61619735,0.82305884,-3.2964337,-0.21757269,-0.32340884,-0.9209066,0
-1.5927826,-0.5515039,-2.599443,-0.21757269,-0.32340884,-0.9209066,0
0.52779377,0.80286223,-2.2779388,0.86298597,0.3770389,-0.33629888,0
0.45523226,-2.353317,3.2812891,-0.86298597,-0.3770389,0.33629888,0
-1.6768603,4.7790723,-0.15593433,-0.45597965,0.86789888,-0.19706392,0
2.951261,-3.390197,3.57832,0.45597965,-0.86789888,0.19706392,0
0.4260031,-2.0874772,3.4002049,-0.86298597,-0.3770389,0.33629888,0
1.1582146,0.67560768,2.6888101,0.21757269,0.32340884,0.9209066,0
1.7964709,-4.316916,1.9787793,0.45597965,-0.86789888,0.19706392,0
-0.49801373,-1.3256516,1.7578653,-0.86298597,-0.3770389,0.33629888,0
1.9009748,-3.9584312,-2.4148226,-0.21757269,-0.32340884,-0.9209066,0
-3.1721859,4.4967384,1.5714285,-0.86298597,-0.3770389,0.33629888,0
3.0066209,-3.993459,0.7239213,0.45597965,-0.86789888,0.19706392,0
-1.047049,5.5978403,1.21682,-0.45597965,0.86789888,-0.19706392,0
-2.1719368,0.65411866,-0.18654394,-0.86298597,-0.3770389,0.33629888,0
-0.27669358,-1.2371852,-2.7771649,-0.21757269,-0.32340884,-0.9209066,0
0.98911428,-5.4918094,-1.2031004,0.45597965,-0.86789888,0.19706392,0
-0.72956324,5.6553288,0.87470198,-0.45597965,0.86789888,-0.19706392,0
1.7254242,-4.3706021,2.4256506,0.45597965,-0.86789888,0.19706392,0
-1.9715103,0.76207149,0.34304321,-0.86298597,-0.3770389,0.33629888,0
1.8562529,-3.9490724,3.8132322,0.45597965,-0.86789888,0.19706392,0
-1.1793401,-2.0068285,-2.3060832,-0.21757269,-0.32340884,-0.9209066,0
1.5819671,-1.6475084,3.3661194,0.21757269,0.32340884,0.9209066,0
0.78421926,-2.3898358,-2.5585775,-0.21757269,-0.32340884,-0.9209066,0
1.5557435,1.9678501,2.0173359,0.86298597,0.3770389,-0.33629888,0
2.8923483,-1.8182032,3.3089054,0.21757269,0.32340884,0.9209066,0
2.0667276,-0.75202763,0.2485466,0.86298597,0.3770389,-0.33629888,0
-0.097804666,-1.4126637,2.8790643,-0.86298597,-0.3770389,0.33629888,0
1.999253,-4.0511236,3.0032387,0.45597965,-0.86789888,0.19706392,0
-0.66760671,-1.7360035,0.51409209,-0.86298597,-0.3770389,0.33629888,0
-2.9908729,3.4188259,-3.4314408,-0.45597965,0.86789888,-0.19706392,0
3.0867584,-2.3115196,3.4484103,0.21757269,0.32340884,0.9209066,0
-0.099676609,4.8738723,1.6776017,0.21757269,0.32340884,0.9209066,0
0.67747951,2.3918695,2.2044928,0.21757269,0.32340884,0.9209066,0
-2.3720024,4.5847964,0.16503477,-0.45597965,0.86789888,-0.19706392,0
-2.7684195,4.263988,-0.3936367,-0.45597965,0.86789888,-0.19706392,0
3.4455323,-4.0545502,-0.035294056,0.45597965,-0.86789888,0.19706392,0
3.2194471,-1.1265018,2.8916049,0.21757269,0.32340884,0.9209066,0
-0.15352368,3.4973817,-0.74987316,0.86298597,0.3770389,-0.33629888,0
-3.5559402,3.7478774,-0.64013004,-0.45597965,0.86789888,-0.19706392,0
1.1157091,-3.7021918,3.3652277,-0.86298597,-0.3770389,0.33629888,0
2.4205732,-2.5245743,-0.84068942,0.86298597,0.3770389,-0.33629888,0
-1.3115346,0.37530339,-3.1679111,-0.21757269,-0.32340884,-0.9209066,0
2.7124836,-4.4969573,-0.28040981,0.45597965,-0.86789888,0.19706392,0
-1.5298917,-0.44044602,-0.17936361,-0.86298597,-0.3770389,0.33629888,0
1.1840885,-4.7535772,1.4567158,0.45597965,-0.86789888,0.19706392,0
3.3092599,-3.9483275,-0.13075399,0.45597965,-0.86789888,0.19706392,0
1.0219018,-0.54929072,-2.6347408,0.86298597,0.3770389,-0.33629888,0
-1.4756193,2.8734426,2.598223,0.21757269,0.32340884,0.9209066,0
1.9199624,-4.9991922,-1.140059,0.45597965,-0.86789888,0.19706392,0
0.19051123,-4.9801044,-0.65457702,-0.86298597,-0.3770389,0.33629888,0
0.74505949,-4.2396612,1.8293135,-0.86298597,-0.3770389,0.33629888,0
0.67563033,-0.34875393,3.172024,0.21757269,0.32340884,0.9209066,0
0.90106535,0.4448061,2.8914273,0.21757269,0.32340884,0.9209066,0
-1.5338922,4.7362709,2.0593295,0.21757269,0.32340884,0.9209066,0
-3.1197665,4.457571,1.5334146,-0.45597965,0.86789888,-0.19706392,0
0.83446407,-5.4527798,-1.5763948,-0.21757269,-0.32340884,-0.9209066,0
0.34071946,1.8699063,2.6245964,0.21757269,0.32340884,0.9209066,0
1.5920817,-0.70474589,3.234302,0.21757269,0.32340884,0.9209066,0
-2.8635654,2.5647731,-0.014006376,-0.86298597,-0.3770389,0.33629888,0
2.3296471,0.63259649,2.4899564,0.21757269,0.32340884,0.9209066,0
-0.70904064,5.617908,0.77480912,-0.45597965,0.86789888,-0.19706392,0
0.49476194,-2.7006545,2.8779678,-0.86298597,-0.3770389,0.33629888,0
2.4808619,-4.4942617,0.0035586357,0.45597965,-0.86789888,0.19706392,0
-1.3355522,2.5812178,-3.8024764,-0.21757269,-0.32340884,-0.9209066,0
-2.2507358,4.2864447,-1.7904859,-0.45597965,0.86789888,-0.19706392,0
-2.8240049,4.4885359,1.347682,-0.45597965,0.86789888,-0.19706392,0
-1.6488299,4.3049173,2.0304258,0.21757269,0.32340884,0.9209066,0
2.9402165,-2.9076009,3.5365386,0.21757269,0.32340884,0.9209066,0
-1.4109097,-1.4613758,-2.4151983,-0.21757269,-0.32340884,-0.9209066,0
-2.2424476,0.31082606,-2.8971443,-0.21757269,-0.32340884,-0.9209066,0
-1.0793359,-1.295054,0.2697818,-0.86298597,-0.3770389,0.33629888,0
-1.1342945,5.0105915,1.6769083,0.21757269,0.32340884,0.9209066,0
-1.3754519,-1.1770344,-0.32559738,-0.86298597,-0.3770389,0.33629888,0
-0.53006244,-3.2911572,-0.46718633,-0.86298597,-0.3770389,0.33629888,0
-1.0254226,-0.62692893,-2.7512131,-0.21757269,-0.32340884,-0.9209066,0
-1.464704,5.483552,1.6613278,-0.45597965,0.86789888,-0.19706392,0
1.7664565,0.35619724,2.813556,0.21757269,0.32340884,0.9209066,0
3.1735215,-1.9142956,3.1810455,0.21757269,0.32340884,0.9209066,0
0.61874175,-5.4546151,-0.24385428,0.45597965,-0.86789888,0.19706392,0
3.1181536,-1.0876329,2.3961337,0.86298597,0.3770389,-0.33629888,0
-2.9230886,4.5372424,1.8263409,-0.45597965,0.86789888,-0.19706392,0
2.1968915,-0.71517849,0.4127028,0.86298597,0.3770389,-0.33629888,0
-2.6842914,2.6390872,0.2944634,-0.86298597,-0.3770389,0.33629888,0
2.9179149,-4.5895796,-2.0325265,0.45597965,-0.86789888,0.19706392,0
-0.067658424,4.4629493,1.7712874,0.21757269,0.32340884,0.9209066,0
-2.3160105,3.7457418,-3.0132813,-0.45597965,0.86789888,-0.19706392,0
-3.1432354,3.2424862,-3.4909725,-0.45597965,0.86789888,-0.19706392,0
-3.0629997,4.085393,-0.67564631,-0.45597965,0.86789888,-0.19706392,0
-3.0306206,4.2470198,0.73673582,-0.45597965,0.86789888,-0.19706392,0
-0.48993754,-3.0210273,-0.44761455,-0.86298597,-0.3770389,0.33629888,0
1.1715208,-3.8669965,3.176666,-0.86298597,-0.3770389,0.33629888,0
2.4161172,-1.583063,3.3035789,0.21757269,0.32340884,0.9209066,0
0.37717152,-4.7431192,0.38365102,-0.86298597,-0.3770389,0.33629888,0
-0.72650862,-0.62401384,-2.8627412,-0.21757269,-0.32340884,-0.9209066,0
-0.20413589,-1.1388478,-2.7240634,-0.21757269,-0.32340884,-0.9209066,0
0.080308437,-2.1081533,-2.4587917,-0.21757269,-0.32340884,-0.9209066,0
-0.080272317,-1.6820519,2.4079001,-0.86298597,-0.3770389,0.33629888,0
3.410553,-3.8917294,0.77676153,0.45597965,-0.86789888,0.19706392,0
-0.84462357,0.18609436,2.43205,-0.86298597,-0.3770389,0.33629888,0
-3.839859,3.012876,-3.2355356,-0.45597965,0.86789888,-0.19706392,0
-3.197684,3.9903903,0.76841068,-0.86298597,-0.3770389,0.33629888,0
0.9367466,-0.053385496,3.1493981,0.21757269,0.32340884,0.9209066,0
-0.527282,-1.1630864,-2.6490569,-0.21757269,-0.32340884,-0.9209066,0
1.4770477,2.2947421,1.6595252,0.86298597,0.3770389,-0.33629888,0
-0.98189247,4.815053,-1.7120304,0.86298597,0.3770389,-0.33629888,0
-2.3458056,4.4029455,-0.22356939,-0.45597965,0.86789888,-0.19706392,0
-1.9086037,2.4251502,2.5148399,-0.86298597,-0.3770389,0.33629888,0
2.5077817,-3.3167179,3.8520122,0.21757269,0.32340884,0.9209066,0
-1.8681461,4.3674216,-1.6826205,-0.45597965,0.86789888,-0.19706392,0
1.7707289,-4.3551693,2.4960814,0.45597965,-0.86789888,0.19706392,0
1.8427446,-4.4314041,2.0385931,0.45597965,-0.86789888,0.19706392,0
3.5866051,-3.2887702,1.2553115,0.86298597,0.3770389,-0.33629888,0
2.8337216,-3.5472553,3.6842391,0.45597965,-0.86789888,0.19706392,0
-1.5669374,5.1326661,1.1287441,-0.45597965,0.86789888,-0.19706392,0
-1.8354177,4.4829912,2.1513591,0.21757269,0.32340884,0.9209066,0
-1.2853265,5.4475832,1.6470807,0.21757269,0.32340884,0.9209066,0
-1.5359503,-1.0411451,-0.58801955,-0.86298597,-0.3770389,0.33629888,0
-0.47795379,-2.45012,0.34574288,-0.86298597,-0.3770389,0.33629888,0
1.4702638,-4.7500114,0.98228383,0.45597965,-0.86789888,0.19706392,0
-1.3632543,5.1620064,0.16457748,-0.45597965,0.86789888,-0.19706392,0
1.5155957,-3.1065187,-2.4256988,-0.21757269,-0.32340884,-0.9209066,0
-2.0431542,4.1226101,-2.8278375,-0.45597965,0.86789888,-0.19706392,0
-0.41314864,-3.086921,-0.18000042,-0.86298597,-0.3770389,0.33629888,0
-3.7161939,3.2156038,-1.2996511,-0.86298597,-0.3770389,0.33629888,0
-1.0715733,0.15019572,-3.0849762,-0.21757269,-0.32340884,-0.9209066,0
-0.5194397,-3.8370907,-1.4671348,-0.86298597,-0.3770389,0.33629888,0
-0.8045218,5.4926176,0.28050399,-0.45597965,0.86789888,-0.19706392,0
-1.1477582,5.142189,-0.038869381,-0.45597965,0.86789888,-0.19706392,0
-1.9559157,1.7459123,-3.4822011,-0.21757269,-0.32340884,-0.9209066,0
2.5057654,-4.2854824,-2.306638,-0.21757269,-0.32340884,-0.9209066,0
2.9558845,-1.6778418,0.99010134,0.86298597,0.3770389,-0.33629888,0
3.5232701,-3.7325602,0.110394,0.86298597,0.3770389,-0.33629888,0
-0.68770266,4.08461,2.087369,0.21757269,0.32340884,0.9209066,0
-0.77959871,4.7766619,1.7090235,0.21757269,0.32340884,0.9209066,0
-3.1525502,3.2496476,-0.16648674,-0.86298597,-0.3770389,0.33629888,0
1.391938,-4.0250711,3.7218888,-0.86298597,-0.3770389,0.33629888,0
-1.2325003,-0.057202816,1.2639439,-0.86298597,-0.3770389,0.33629888,0
-3.6536818,3.3274753,-1.293355,-0.86298597,-0.3770389,0.33629888,0
0.38673329,0.18389755,3.1805837,0.21757269,0.32340884,0.9209066,0
-0.56681192,-0.51722449,2.5731952,-0.86298597,-0.3770389,0.33629888,0
-0.99658442,0.33693498,2.0276432,-0.86298597,-0.3770389,0.33629888,0
1.4553895,-5.1087074,-1.769748,-0.21757269,-0.32340884,-0.9209066,0
-3.0743437,4.1677198,0.35819054,-0.45597965,0.86789888,-0.19706392,0
-1.6117811,4.1734953,-3.6422188,0.86298597,0.3770389,-0.33629888,0
1.6530432,-4.3483706,2.3084636,0.45597965,-0.86789888,0.19706392,0
2.4066813,-4.4563799,0.20808029,0.45597965,-0.86789888,0.19706392,0
1.0758574,-4.5698042,1.9559047,-0.86298597,-0.3770389,0.33629888,0
-1.8605007,1.3216017,-3.3601656,-0.21757269,-0.32340884,-0.9209066,0
2.8088336,-4.6761246,-2.3049953,-0.21757269,-0.32340884,-0.9209066,0
1.7753847,-4.8117847,0.56422186,0.45597965,-0.86789888,0.19706392,0
0.5763092,-1.4055744,-2.9653068,-0.21757269,-0.32340884,-0.9209066,0
-1.6211846,-2.0143557,-1.8486575,-0.86298597,-0.3770389,0.33629888,0
0.76675284,-2.5248179,3.3249135,-0.86298597,-0.3770389,0.33629888,0
1.171751,-4.9044247,0.94500136,0.45597965,-0.86789888,0.19706392,0
2.3693738,-4.8391066,-2.2136066,-0.21757269,-0.32340884,-0.9209066,0
0.64218569,2.7917013,2.1209359,0.21757269,0.32340884,0.9209066,0
2.5802491,-4.7040653,-1.6502607,0.45597965,-0.86789888,0.19706392,0
1.7949831,-4.4245777,1.4553936,0.45597965,-0.86789888,0.19706392,0
-1.5227832,4.5735645,-1.2033715,-0.45597965,0.86789888,-0.19706392,0
2.5424457,-2.3686852,-0.64555693,0.86298597,0.3770389,-0.33629888,0
-2.0539889,1.5489287,-3.3922296,-0.21757269,-0.32340884,-0.9209066,0
-1.8937123,4.1166887,-2.4133158,-0.45597965,0.86789888,-0.19706392,0
0.27464175,1.99279,2.5930386,0.21757269,0.32340884,0.9209066,0
3.1618056,-3.8895152,1.2886491,0.45597965,-0.86789888,0.19706392,0
-1.7562211,-1.4612361,-2.4107153,-0.21757269,-0.32340884,-0.9209066,0
-2.1792324,4.1350241,-1.9675512,-0.45597965,0.86789888,-0.19706392,0
-1.8905905,-0.031574488,-2.9049425,-0.21757269,-0.32340884,-0.9209066,0
-1.5174317,4.4617672,-1.980129,-0.45597965,0.86789888,-0.19706392,0
0.84655714,-5.4885406,-1.0577383,0.45597965,-0.86789888,0.19706392,0
2.4223516,-3.6757393,3.5197291,0.45597965,-0.86789888,0.19706392,0
-0.11223102,4.5821781,0.2729435,0.86298597,0.3770389,-0.33629888,0
3.6102834,-1.6565623,2.9806008,0.21757269,0.32340884,0.9209066,0
1.2756696,-5.1933126,-0.95349145,0.45597965,-0.86789888,0.19706392,0
2.1740613,-4.4687462,-2.213166,-0.21757269,-0.32340884,-0.9209066,0
0.89719486,-5.0135636,1.2193618,-0.86298597,-0.3770389,0.33629888,0
-2.5637333,2.9599199,1.0293219,-0.86298597,-0.3770389,0.33629888,0
2.1159225,-2.9410472,-2.3148379,0.86298597,0.3770389,-0.33629888,0
2.7885172,-3.9323747,1.9231584,0.45597965,-0.86789888,0.19706392,0
2.8894186,-4.0393758,1.3149147,0.45597965,-0.86789888,0.19706392,0
-0.047077894,-0.51118273,-2.9592648,-0.21757269,-0.32340884,-0.9209066,0
-0.072812796,4.2332845,-0.15240717,0.86298597,0.3770389,-0.33629888,0
0.72525638,-2.9660931,3.1604559,-0.86298597,-0.3770389,0.33629888,0
0.042431593,-1.0711825,3.5686049,-0.86298597,-0.3770389,0.33629888,0
-3.0330462,2.3525572,-3.3763456,-0.21757269,-0.32340884,-0.9209066,0
1.7878025,-1.8859925,3.4040353,0.21757269,0.32340884,0.9209066,0
2.1581829,-2.9937789,3.7132602,0.21757269,0.32340884,0.9209066,0
3.679858,-3.4093342,1.5505533,0.45597965,-0.86789888,0.19706392,0
1.6278441,-4.5650797,1.3968968,0.45597965,-0.86789888,0.19706392,0
-0.22968194,-2.1438582,1.1774523,-0.86298597,-0.3770389,0.33629888,0
-0.78860188,-1.0909011,-2.647522,-0.21757269,-0.32340884,-0.9209066,0
-2.8310621,0.81685209,-2.951509,-0.21757269,-0.32340884,-0.9209066,0
0.33917522,-5.2300358,-0.53412867,-0.86298597,-0.3770389,0.33629888,0
-0.99697852,-0.44822919,-2.7848198,-0.21757269,-0.32340884,-0.9209066,0
1.0508436,1.353171,-0.4834148,0.86298597,0.3770389,-0.33629888,0
1.9957352,-2.1508131,3.469408,0.21757269,0.32340884,0.9209066,0
0.40154982,2.2088687,2.2838817,0.21757269,0.32340884,0.9209066,0
-2.3939705,4.663455,0.97494507,-0.45597965,0.86789888,-0.19706392,0
-2.7040343,1.0328667,-1.5574915,-0.86298597,-0.3770389,0.33629888,0
2.2385182,-2.3943675,3.6005809,0.21757269,0.32340884,0.9209066,0
-0.75498736,2.375664,-3.9308271,0.86298597,0.3770389,-0.33629888,0
2.2335069,-4.3341007,0.62166309,0.45597965,-0.86789888,0.19706392,0
1.9197619,-3.9554958,3.0681293,0.45597965,-0.86789888,0.19706392,0
3.0760207,-1.9210238,1.4500132,0.86298597,0.3770389,-0.33629888,0
-2.3523405,3.0520823,1.8424103,-0.86298597,-0.3770389,0.33629888,0
3.5053384,-3.5100572,1.9572048,0.45597965,-0.86789888,0.19706392,0
0.080598354,3.6623683,1.9391556,0.21757269,0.32340884,0.9209066,0
0.50633097,-4.4235287,0.80912828,-0.86298597,-0.3770389,0.33629888,0
3.4699488,-2.218605,2.211911,0.86298597,0.3770389,-0.33629888,0
-2.1999712,1.648603,0.6055162,-0.86298597,-0.3770389,0.33629888,0
-3.4676604,3.6437495,-0.85975122,-0.45597965,0.86789888,-0.19706392,0
-2.1730394,4.0291142,-2.4745028,-0.45597965,0.86789888,-0.19706392,0
-3.5058565,3.2155216,-2.9007325,-0.45597965,0.86789888,-0.19706392,0
2.8568854,-2.4937899,0.2767334,0.86298597,0.3770389,-0.33629888,0
-0.10406733,2.5629146,2.3440008,0.21757269,0.32340884,0.9209066,0
-2.3078022,4.4145145,-0.89561701,-0.45597965,0.86789888,-0.19706392,0
3.3439381,-3.368783,0.28534126,0.86298597,0.3770389,-0.33629888,0
-0.19282377,3.5257659,-0.80940306,0.86298597,0.3770389,-0.33629888,0
-1.2332323,0.72006071,-3.2115288,-0.21757269,-0.32340884,-0.9209066,0
1.3984598,-4.3574529,2.5831389,0.45597965,-0.86789888,0.19706392,0
2.8030899,-3.9158671,1.4447122,0.45597965,-0.86789888,0.19706392,0
3.3898547,-3.568434,1.7474298,0.45597965,-0.86789888,0.19706392,0
3.5884662,-3.1540222,2.7098093,0.45597965,-0.86789888,0.19706392,0
-2.2915711,4.0986819,-2.0411377,-0.45597965,0.86789888,-0.19706392,0
-1.6448952,4.5659237,-1.2375705,-0.45597965,0.86789888,-0.19706392,0
-3.3858876,2.3088751,-1.8629651,-0.86298597,-0.3770389,0.33629888,0
0.92587113,2.7988818,1.1226299,0.86298597,0.3770389,-0.33629888,0
-1.8677018,3.9053988,-3.4628396,-0.45597965,0.86789888,-0.19706392,0
-1.470715,5.294384,1.5279932,-0.45597965,0.86789888,-0.19706392,0
1.9263697,-3.9723992,3.3050554,0.45597965,-0.86789888,0.19706392,0
-1.1001143,2.3055749,-3.753891,-0.21757269,-0.32340884,-0.9209066,0
1.6761363,-4.5113783,1.7225945,0.45597965,-0.86789888,0.19706392,0
0.15050578,1.0430238,2.9350271,0.21757269,0.32340884,0.9209066,0
-3.2118685,3.937186,-0.16019344,-0.45597965,0.86789888,-0.19706392,0
-2.8953903,3.5990057,0.95521808,-0.86298597,-0.3770389,0.33629888,0
1.2535219,1.6689565,2.4837921,0.21757269,0.32340884,0.9209066,0
3.3943267,-2.4975438,1.2051232,0.86298597,0.3770389,-0.33629888,0
-0.94993782,5.2791758,0.30108523,-0.45597965,0.86789888,-0.19706392,0
-1.2100163,3.8526971,2.1967494,0.21757269,0.32340884,0.9209066,0
-2.3415246,4.7085438,2.1618319,0.21757269,0.32340884,0.9209066,0
0.55933809,0.60381579,2.9186344,0.21757269,0.32340884,0.9209066,0
3.4998114,-3.8650649,0.605268,0.45597965,-0.86789888,0.19706392,0
-0.98008394,5.0202255,1.7779624,0.21757269,0.32340884,0.9209066,0
1.5751303,-1.4450563,3.4728918,0.21757269,0.32340884,0.9209066,0
-0.99468946,5.252059,0.015964985,-0.45597965,0.86789888,-0.19706392,0
1.5847859,-3.8995867,-2.1862121,-0.21757269,-0.32340884,-0.9209066,0
0.26340926,-2.2588909,2.894392,-0.86298597,-0.3770389,0.33629888,0
-0.26818037,4.0102363,-0.75208735,0.86298597,0.3770389,-0.33629888,0
0.94918239,0.63120854,-1.4853505,0.86298597,0.3770389,-0.33629888,0
-0.064354658,-0.98712313,-2.8524458,-0.21757269,-0.32340884,-0.9209066,0
0.69689369,-5.4190702,-1.5472121,-0.21757269,-0.32340884,-0.9209066,0
1.1422842,2.7078547,1.3350809,0.86298597,0.3770389,-0.33629888,0
2.7983294,-1.324532,0.98833799,0.86298597,0.3770389,-0.33629888,0
0.70922899,-5.6806841,-0.91649866,0.45597965,-0.86789888,0.19706392,0
-1.7291989,5.1925731,1.1118138,-0.45597965,0.86789888,-0.19706392,0
-0.98337412,2.0895915,2.6590011,0.21757269,0.32340884,0.9209066,0
2.266458,-2.2465076,-1.0973835,0.86298597,0.3770389,-0.33629888,0
3.0470443,-2.9974611,-0.24856615,0.86298597,0.3770389,-0.33629888,0
2.988646,-3.7758691,1.6996841,0.45597965,-0.86789888,0.19706392,0
-2.272995,4.3515086,-0.55880404,-0.45597965,0.86789888,-0.19706392,0
-2.9369857,3.9818945,1.6424999,-0.86298597,-0.3770389,0.33629888,0
-0.62572646,-0.44022492,2.252912,-0.86298597,-0.3770389,0.33629888,0
1.2800453,0.30812263,-0.6019839,0.86298597,0.3770389,-0.33629888,0
-0.35649109,-3.7559524,-1.8269837,-0.21757269,-0.32340884,-0.9209066,0
1.5191655,1.4499725,0.91536909,0.86298597,0.3770389,-0.33629888,0
1.4554429,-1.2784181,3.4374013,0.21757269,0.32340884,0.9209066,0
-4.1560807,2.8315105,-3.0861573,-0.45597965,0.86789888,-0.19706392,0
-2.4434595,1.3149308,-3.2496881,-0.21757269,-0.32340884,-0.9209066,0
0.17819214,-0.39403659,-3.0993385,-0.21757269,-0.32340884,-0.9209066,0
2.8222628,-4.826993,-2.1938212,0.45597965,-0.86789888,0.19706392,0
1.491949,-4.4106035,2.4374261,0.45597965,-0.86789888,0.19706392,0
-2.5446913,4.1798396,-0.78174734,-0.45597965,0.86789888,-0.19706392,0
1.3239802,-4.7190719,1.3636701,0.45597965,-0.86789888,0.19706392,0
0.90827417,-5.4986887,-0.99966931,0.45597965,-0.86789888,0.19706392,0
-1.3410871,-0.60240912,-2.6857965,-0.21757269,-0.32340884,-0.9209066,0
1.0217898,-4.4216909,2.1640401,-0.86298597,-0.3770389,0.33629888,0
0.74353266,-5.0545931,-1.7621806,-0.21757269,-0.32340884,-0.9209066,0
1.7984016,-4.9989014,-0.38613796,0.45597965,-0.86789888,0.19706392,0
-1.6392689,4.3102245,-2.1356103,-0.45597965,0.86789888,-0.19706392,0
-2.7821543,4.0398741,-1.2538862,-0.45597965,0.86789888,-0.19706392,0
1.8839245,-2.5886183,-2.2443194,0.86298597,0.3770389,-0.33629888,0
0.93541169,1.0158339,2.7143126,0.21757269,0.32340884,0.9209066,0
1.1795452,1.3774948,0.26585448,0.86298597,0.3770389,-0.33629888,0
-0.5936448,-1.6473919,0.83038801,-0.86298597,-0.3770389,0.33629888,0
1.2457473,1.7096264,2.3131948,0.21757269,0.32340884,0.9209066,0
-2.1408968,2.3600588,1.8429507,-0.86298597,-0.3770389,0.33629888,0
0.31736135,-3.6113336,1.0078398,-0.86298597,-0.3770389,0.33629888,0
0.99187374,-1.6763346,3.5657811,0.21757269,0.32340884,0.9209066,0
-1.318929,-0.26995468,0.5096994,-0.86298597,-0.3770389,0.33629888,0
-2.823365,4.319478,0.10077047,-0.45597965,0.86789888,-0.19706392,0
-1.7397499,4.9626498,0.69697118,-0.45597965,0.86789888,-0.19706392,0
-2.6047132,4.7230372,1.025712,-0.45597965,0.86789888,-0.19706392,0
2.1425581,-3.7280993,3.5813231,0.45597965,-0.86789888,0.19706392,0
2.5642898,-4.1976199,0.97767067,0.45597965,-0.86789888,0.19706392,0
2.4601457,-3.6496429,-2.2956624,0.86298597,0.3770389,-0.33629888,0
-2.033206,2.1987162,-3.5732541,-0.21757269,-0.32340884,-0.9209066,0
-1.5891731,-0.56523097,-2.6846638,-0.21757269,-0.32340884,-0.9209066,0
-2.0093246,0.7107743,-3.0994897,-0.21757269,-0.32340884,-0.9209066,0
-0.88685423,-0.6149658,1.6282544,-0.86298597,-0.3770389,0.33629888,0
-3.0695989,3.6949079,-1.6178665,-0.45597965,0.86789888,-0.19706392,0
-2.1372135,4.7046142,0.023798466,-0.45597965,0.86789888,-0.19706392,0
-0.9127332,0.062129021,2.061368,-0.86298597,-0.3770389,0.33629888,0
1.1777208,1.5889568,0.58012611,0.86298597,0.3770389,-0.33629888,0
-1.5662613,-2.301754,-2.1444542,-0.21757269,-0.32340884,-0.9209066,0
-0.65636086,-1.0545378,-2.710701,-0.21757269,-0.32340884,-0.9209066,0
-3.3703794,2.2769132,-3.3088806,-0.21757269,-0.32340884,-0.9209066,0
1.5603257,-4.6315565,1.7782161,0.45597965,-0.86789888,0.19706392,0
0.36697435,4.0485926,1.6439084,0.21757269,0.32340884,0.9209066,0
-1.9021235,0.48696661,-3.0502095,-0.21757269,-0.32340884,-0.9209066,0
-1.9750439,1.742149,1.2258462,-0.86298597,-0.3770389,0.33629888,0
2.2356868,-3.4406161,-2.4750311,-0.21757269,-0.32340884,-0.9209066,0
1.9714842,-4.6799541,0.25497103,0.45597965,-0.86789888,0.19706392,0
-1.4154717,-0.96355748,-0.3390038,-0.86298597,-0.3770389,0.33629888,0
0.49664164,-5.6112833,-0.80359006,0.45597965,-0.86789888,0.19706392,0
1.3455402,0.86468601,-0.089273512,0.86298597,0.3770389,-0.33629888,0
-2.0240338,1.9095619,-3.4525261,-0.21757269,-0.32340884,-0.9209066,0
-1.2596071,-0.81458926,0.13978571,-0.86298597,-0.3770389,0.33629888,0
1.190412,-5.4551477,-0.97148919,0.45597965,-0.86789888,0.19706392,0
3.0933461,-1.4295135,2.9733357,0.21757269,0.32340884,0.9209066,0
1.3935614,-4.8246036,-1.8788841,-0.21757269,-0.32340884,-0.9209066,0
-3.4778459,2.3302734,-3.3184652,-0.21757269,-0.32340884,-0.9209066,0
-2.7159777,4.6358104,0.83818245,-0.45597965,0.86789888,-0.19706392,0
2.9785342,-4.4512105,-1.4648499,0.45597965,-0.86789888,0.19706392,0
-0.95046949,5.298912,1.5498526,0.21757269,0.32340884,0.9209066,0
-2.5637329,4.2629137,-0.34527779,-0.45597965,0.86789888,-0.19706392,0
-1.0924442,4.8272619,-1.448704,-0.45597965,0.86789888,-0.19706392,0
3.3454361,-1.6834548,2.9976766,0.21757269,0.32340884,0.9209066,0
-0.41790247,5.6236448,1.3322961,0.21757269,0.32340884,0.9209066,0
-2.3715625,3.6794109,-4.0013766,-0.45597965,0.86789888,-0.19706392,0
-1.5816038,5.0992498,0.70971131,-0.45597965,0.86789888,-0.19706392,0
2.261066,-3.119925,3.7502565,0.21757269,0.32340884,0.9209066,0
-0.60137814,2.7894392,-2.9409466,0.86298597,0.3770389,-0.33629888,0
-0.070917964,3.4391222,-0.56761873,0.86298597,0.3770389,-0.33629888,0
-2.0703914,3.2532954,2.5376234,-0.86298597,-0.3770389,0.33629888,0
-1.7371979,2.0196486,-3.6539059,-0.21757269,-0.32340884,-0.9209066,0
-3.5790038,3.7776802,-0.65624475,-0.45597965,0.86789888,-0.19706392,0
-3.6873541,3.2503967,-2.28336,-0.45597965,0.86789888,-0.19706392,0
1.175347,-4.8598185,1.021841,0.45597965,-0.86789888,0.19706392,0
-0.31273842,2.7648463,2.3386564,0.21757269,0.32340884,0.9209066,0
2.4670939,-3.6831946,-2.5179038,0.86298597,0.3770389,-0.33629888,0
-1.5450797,4.3345728,2.1099348,0.21757269,0.32340884,0.9209066,0
-2.3237367,1.9750156,0.95019531,-0.86298597,-0.3770389,0.33629888,0
3.7100539,-2.6268144,2.1574938,0.86298597,0.3770389,-0.33629888,0
-2.0334635,-0.76870167,-1.5999818,-0.86298597,-0.3770389,0.33629888,0
-2.7622061,4.852181,1.8993731,-0.45597965,0.86789888,-0.19706392,0
-2.2575593,4.8286533,0.69458246,-0.45597965,0.86789888,-0.19706392,0
0.012974977,1.7164032,2.5863101,0.21757269,0.32340884,0.9209066,0
-2.4147685,3.7663884,-3.6062276,-0.45597965,0.86789888,-0.19706392,0
-1.5002288,4.3332381,-2.8879049,-0.45597965,0.86789888,-0.19706392,0
-2.6570072,3.9722881,-1.9540956,-0.45597965,0.86789888,-0.19706392,0
2.7102065,-3.5797808,3.022249,0.45597965,-0.86789888,0.19706392,0
1.5457282,-1.2701211,-1.9874833,0.86298597,0.3770389,-0.33629888,0
3.3156846,-2.2927418,3.2304537,0.21757269,0.32340884,0.9209066,0
1.4261723,-5.3112984,-1.3192475,0.45597965,-0.86789888,0.19706392,0
0.43302917,4.3134489,1.3547559,0.86298597,0.3770389,-0.33629888,0
-1.0592585,-0.65075052,-2.7747247,-0.21757269,-0.32340884,-0.9209066,0
-0.23869157,-0.94960129,-2.825345,-0.21757269,-0.32340884,-0.9209066,0
3.8004143,-3.395962,1.9166317,0.45597965,-0.86789888,0.19706392,0
2.4452367,-0.47797918,2.9126449,0.21757269,0.32340884,0.9209066,0
0.068017006,3.9222305,1.782186,0.21757269,0.32340884,0.9209066,0
-0.03751564,2.3352361,2.4179697,0.21757269,0.32340884,0.9209066,0
1.1049374,0.45703769,-1.3733672,0.86298597,0.3770389,-0.33629888,0
-0.73618364,5.3092995,0.15429568,-0.45597965,0.86789888,-0.19706392,0
0.20021319,-2.0505619,2.742825,-0.86298597,-0.3770389,0.33629888,0
-2.5570707,4.736969,1.5688179,-0.45597965,0.86789888,-0.19706392,0
-3.1728163,1.8693076,-3.0598834,-0.21757269,-0.32340884,-0.9209066,0
3.4992156,-3.3105631,2.8733661,0.45597965,-0.86789888,0.19706392,0
2.4189906,-3.6030126,-2.5304878,0.86298597,0.3770389,-0.33629888,0
0.82416642,0.76258045,-1.2163298,0.86298597,0.3770389,-0.33629888,0
3.0609536,-3.3151817,-0.25635433,0.86298597,0.3770389,-0.33629888,0
1.5523453,-4.1537724,3.7954533,0.45597965,-0.86789888,0.19706392,0
2.3840399,-4.2271166,-2.3954756,-0.21757269,-0.32340884,-0.9209066,0
0.49444008,-4.5506673,-1.7383846,-0.21757269,-0.32340884,-0.9209066,0
-2.0313525,4.9823604,1.198019,-0.45597965,0.86789888,-0.19706392,0
-3.73487,3.3556089,-2.0162005,-0.45597965,0.86789888,-0.19706392,0
-2.4747884,3.9800007,-2.0201414,-0.45597965,0.86789888,-0.19706392,0
-2.3650484,4.0398746,-1.8005683,-0.45597965,0.86789888,-0.19706392,0
-3.8876367,3.1859891,-2.5201168,-0.45597965,0.86789888,-0.19706392,0
-2.6931059,3.8467898,-2.462115,-0.45597965,0.86789888,-0.19706392,0
-1.1793669,4.5251741,-2.3247352,-0.45597965,0.86789888,-0.19706392,0
3.0249114,-3.3439186,3.3169556,0.45597965,-0.86789888,0.19706392,0
3.1404576,-1.6287584,1.7176642,0.86298597,0.3770389,-0.33629888,0
0.66198349,-5.5442953,-0.77747774,0.45597965,-0.86789888,0.19706392,0
-2.5758119,3.9933875,2.4215915,-0.86298597,-0.3770389,0.33629888,0
-0.60531306,-0.017478622,2.636703,-0.86298597,-0.3770389,0.33629888,0
4.0528326,-3.1470768,2.3399925,0.45597965,-0.86789888,0.19706392,0
0.56077671,-4.6927323,-1.6882533,-0.21757269,-0.32340884,-0.9209066,0
-2.3154392,-0.18291521,-1.7683672,-0.86298597,-0.3770389,0.33629888,0
1.7717743,-4.9740696,-0.35106826,0.45597965,-0.86789888,0.19706392,0
-0.67648983,5.5002246,0.72928667,-0.45597965,0.86789888,-0.19706392,0
3.4416776,-3.8524411,-0.16682434,0.86298597,0.3770389,-0.33629888,0
-2.8335047,4.3877754,0.36883402,-0.45597965,0.86789888,-0.19706392,0
-1.7366595,2.7795577,2.637361,0.21757269,0.32340884,0.9209066,0
-0.85805261,-1.6540977,0.37852937,-0.86298597,-0.3770389,0.33629888,0
-3.1875162,3.6246319,0.18178654,-0.86298597,-0.3770389,0.33629888,0
-1.5375271,5.2785654,1.3769219,-0.45597965,0.86789888,-0.19706392,0
-0.026396751,-3.2182865,-2.0502541,-0.21757269,-0.32340884,-0.9209066,0
0.14526272,2.3956676,2.3255105,0.21757269,0.32340884,0.9209066,0
-2.2904415,4.399539,-1.1170111,-0.45597965,0.86789888,-0.19706392,0
2.2325678,-4.3544202,0.78419209,0.45597965,-0.86789888,0.19706392,0
0.075050831,1.1895466,-3.2278821,0.86298597,0.3770389,-0.33629888,0
-0.39034939,5.6362982,1.2839606,0.21757269,0.32340884,0.9209066,0
1.3121104,-3.61659,-2.3027804,-0.21757269,-0.32340884,-0.9209066,0
2.8085511,-0.41819334,2.4010725,0.86298597,0.3770389,-0.33629888,0
0.89147615,1.6549683,-0.38100052,0.86298597,0.3770389,-0.33629888,0
-3.5425971,3.5458255,-1.9249516,-0.45597965,0.86789888,-0.19706392,0
-3.2325904,2.5755546,-0.95267415,-0.86298597,-0.3770389,0.33629888,0
3.1466801,-4.1867299,-0.45558834,0.45597965,-0.86789888,0.19706392,0
-2.6280355,3.7994764,-2.3007648,-0.45597965,0.86789888,-0.19706392,0
-3.2219722,1.3179038,-2.3550568,-0.86298597,-0.3770389,0.33629888,0
-0.61973524,-1.4443927,-2.6038129,-0.21757269,-0.32340884,-0.9209066,0
2.4373589,-4.2504635,0.61655855,0.45597965,-0.86789888,0.19706392,0
-0.10114813,-3.4214711,0.28772032,-0.86298597,-0.3770389,0.33629888,0
2.6632688,-0.95368028,2.8938105,0.21757269,0.32340884,0.9209066,0
-1.0575736,-0.65172577,-2.8354311,-0.21757269,-0.32340884,-0.9209066,0
-2.2005687,-0.63737369,-1.8480697,-0.86298597,-0.3770389,0.33629888,0
-0.2375865,-0.48691344,3.1245837,-0.86298597,-0.3770389,0.33629888,0
-0.80806351,-2.8079662,-0.93182158,-0.86298597,-0.3770389,0.33629888,0
-3.1379089,1.8212219,-3.1312902,-0.21757269,-0.32340884,-0.9209066,0
0.10778564,2.5818624,-1.1703631,0.86298597,0.3770389,-0.33629888,0
-2.1417513,3.9784107,-3.269295,-0.45597965,0.86789888,-0.19706392,0
2.154676,-3.8445261,3.9458394,0.45597965,-0.86789888,0.19706392,0
0.04948175,-3.2220399,1.2186718,-0.86298597,-0.3770389,0.33629888,0
2.5518057,-4.5697284,-0.45160341,0.45597965,-0.86789888,0.19706392,0
2.2044876,-3.7540946,3.7823625,0.45597965,-0.86789888,0.19706392,0
-2.1596854,-0.2514081,-1.4494512,-0.86298597,-0.3770389,0.33629888,0
-0.0030636787,2.2019,2.4601464,0.21757269,0.32340884,0.9209066,0
1.206058,0.51036382,2.8146188,0.21757269,0.32340884,0.9209066,0
2.0071311,-4.3072667,1.7310281,0.45597965,-0.86789888,0.19706392,0
0.96021271,0.94255066,2.6614163,0.21757269,0.32340884,0.9209066,0
2.2756057,-4.9537039,-1.8155534,0.45597965,-0.86789888,0.19706392,0
0.41598129,-4.7401409,0.3257134,-0.86298597,-0.3770389,0.33629888,0
1.7388086,-5.1246853,-1.38043,0.45597965,-0.86789888,0.19706392,0
1.120152,-1.3548007,3.3641,0.21757269,0.32340884,0.9209066,0
0.13871694,1.5513858,2.5799575,0.21757269,0.32340884,0.9209066,0
-1.4170787,4.9965143,-0.58032823,-0.45597965,0.86789888,-0.19706392,0
-1.0154803,-3.2273903,-1.6278884,-0.86298597,-0.3770389,0.33629888,0
3.181587,-4.1174445,-0.3823185,0.45597965,-0.86789888,0.19706392,0
-0.76435208,-0.53254884,2.067883,-0.86298597,-0.3770389,0.33629888,0
0.88570714,-5.1368499,0.39672995,0.45597965,-0.86789888,0.19706392,0
-1.0642877,-1.2301413,0.54562807,-0.86298597,-0.3770389,0.33629888,0
-1.4243519,-1.3184776,-2.3522072,-0.21757269,-0.32340884,-0.9209066,0
-0.74910784,1.1092162,2.9436908,0.21757269,0.32340884,0.9209066,0
-2.5029447,4.4823194,0.18229628,-0.45597965,0.86789888,-0.19706392,0
-2.4974253,4.6634126,1.2844915,-0.45597965,0.86789888,-0.19706392,0
0.8310442,1.9438106,-0.26939824,0.86298597,0.3770389,-0.33629888,0
0.43276763,-1.8145983,3.823807,-0.86298597,-0.3770389,0.33629888,0
-2.8079743,4.6561522,2.301285,0.21757269,0.32340884,0.9209066,0
3.3567653,-2.0098331,1.6076341,0.86298597,0.3770389,-0.33629888,0
0.47019672,-3.9783084,-1.9745448,-0.21757269,-0.32340884,-0.9209066,0
-3.0288548,4.138485,0.19597483,-0.45597965,0.86789888,-0.19706392,0
3.4758515,-3.5701621,1.9614058,0.45597965,-0.86789888,0.19706392,0
3.4521921,-3.8891344,0.68247461,0.45597965,-0.86789888,0.19706392,0
-2.822196,2.7411098,0.48180127,-0.86298597,-0.3770389,0.33629888,0
-1.4920528,-0.41440094,0.45914125,-0.86298597,-0.3770389,0.33629888,0
-0.79301167,-1.7671664,-2.4838016,-0.21757269,-0.32340884,-0.9209066,0
2.1328034,-4.2097492,2.2229514,0.45597965,-0.86789888,0.19706392,0
2.026798,-3.9719787,2.8662291,0.45597965,-0.86789888,0.19706392,0
-1.0083086,-1.3450711,0.11178277,-0.86298597,-0.3770389,0.33629888,0
-3.4919839,3.2677808,-3.1527812,-0.45597965,0.86789888,-0.19706392,0
-0.63590193,-2.162679,-2.3626251,-0.21757269,-0.32340884,-0.9209066,0
2.7407765,-3.2972956,3.8733602,0.21757269,0.32340884,0.9209066,0
0.57522726,-0.56612045,-3.1128771,-0.21757269,-0.32340884,-0.9209066,0
0.91186714,-5.5315638,-1.4257343,0.45597965,-0.86789888,0.19706392,0
-2.7755635,2.2370214,-3.4664059,-0.21757269,-0.32340884,-0.9209066,0
1.7779815,-3.9984574,3.2143099,0.45597965,-0.86789888,0.19706392,0
2.382479,-4.0762186,1.6417022,0.45597965,-0.86789888,0.19706392,0
-2.88871,4.5270162,0.87443638,-0.45597965,0.86789888,-0.19706392,0
1.0334301,-5.029501,0.54023027,0.45597965,-0.86789888,0.19706392,0
0.20277858,-0.42996955,3.3861103,0.21757269,0.32340884,0.9209066,0
1.1636193,-3.4644752,3.3490558,-0.86298597,-0.3770389,0.33629888,0
-0.58005929,5.1967559,-0.21236372,0.86298597,0.3770389,-0.33629888,0
0.92120242,-0.47340387,3.2441423,0.21757269,0.32340884,0.9209066,0
-0.15469551,-2.6185644,-2.3142087,-0.21757269,-0.32340884,-0.9209066,0
-0.60364342,0.42996025,-3.2400496,-0.21757269,-0.32340884,-0.9209066,0
1.6243466,0.60789132,0.23665476,0.86298597,0.3770389,-0.33629888,0
2.2594082,-0.11991715,1.4186649,0.86298597,0.3770389,-0.33629888,0
0.77169061,-0.37085211,3.1413093,0.21757269,0.32340884,0.9209066,0
-1.435425,-1.8657827,-2.2616558,-0.21757269,-0.32340884,-0.9209066,0
2.9422963,-2.0608315,0.59692049,0.86298597,0.3770389,-0.33629888,0
-3.352695,3.3546381,-3.2371249,-0.45597965,0.86789888,-0.19706392,0
1.504982,-4.9433193,0.064529181,0.45597965,-0.86789888,0.19706392,0
2.3304942,-1.8625294,-0.49181986,0.86298597,0.3770389,-0.33629888,0
-0.1960988,0.71163684,3.0098052,0.21757269,0.32340884,0.9209066,0
-1.9512193,4.6616678,-0.44506073,-0.45597965,0.86789888,-0.19706392,0
1.1103718,2.9147975,1.8879372,0.21757269,0.32340884,0.9209066,0
-3.0416956,3.4498506,0.59669423,-0.86298597,-0.3770389,0.33629888,0
-0.67049789,4.8215857,1.7206347,0.21757269,0.32340884,0.9209066,0
0.81130624,-1.7949222,-2.7984345,-0.21757269,-0.32340884,-0.9209066,0
-1.4163005,5.1104803,0.078383207,-0.45597965,0.86789888,-0.19706392,0
-2.8190951,2.2630434,-3.4630826,-0.21757269,-0.32340884,-0.9209066,0
-1.373811,0.71351314,1.6983892,-0.86298597,-0.3770389,0.33629888,0
2.5020192,-3.9293251,1.9371643,0.45597965,-0.86789888,0.19706392,0
3.1494806,-4.2993717,-0.84192562,0.45597965,-0.86789888,0.19706392,0
2.811439,-4.419714,-0.46783113,0.45597965,-0.86789888,0.19706392,0
-2.0835867,5.109436,2.0023332,0.21757269,0.32340884,0.9209066,0
2.4609966,-4.0487642,1.4286177,0.45597965,-0.86789888,0.19706392,0
-1.2023239,-0.05282855,-2.8504229,-0.21757269,-0.32340884,-0.9209066,0
3.1082926,-3.6144762,-0.63626003,0.86298597,0.3770389,-0.33629888,0
-0.53631806,-3.8637838,-1.5216283,-0.86298597,-0.3770389,0.33629888,0
-0.68499231,5.6406898,0.68261909,-0.45597965,0.86789888,-0.19706392,0
1.0684056,-0.218927,-1.9729813,0.86298597,0.3770389,-0.33629888,0
2.6664891,-0.1938982,2.4240766,0.86298597,0.3770389,-0.33629888,0
2.6993885,-1.0295095,1.3638108,0.86298597,0.3770389,-0.33629888,0
-1.3456812,1.384818,2.5314031,-0.86298597,-0.3770389,0.33629888,0
0.88104916,1.3771265,2.4667463,0.21757269,0.32340884,0.9209066,0
-1.0370178,-2.5526257,-2.1431541,-0.21757269,-0.32340884,-0.9209066,0
0.85735083,-5.5342107,-1.2244942,0.45597965,-0.86789888,0.19706392,0
-1.7601511,-1.5469157,-1.7742165,-0.86298597,-0.3770389,0.33629888,0
1.5577995,-4.1108665,3.7242334,0.45597965,-0.86789888,0.19706392,0
-3.09553,3.8264761,-0.92840195,-0.45597965,0.86789888,-0.19706392,0
0.90806746,-5.1507206,1.0837007,0.45597965,-0.86789888,0.19706392,0
1.3004739,-3.5088582,3.8127651,-0.86298597,-0.3770389,0.33629888,0
-1.5552645,3.1882753,2.4952841,0.21757269,0.32340884,0.9209066,0
3.2913289,-3.4981914,2.1436415,0.45597965,-0.86789888,0.19706392,0
2.4530272,-2.8168168,-1.4404154,0.86298597,0.3770389,-0.33629888,0
1.1748295,-4.3850932,-1.9243814,-0.21757269,-0.32340884,-0.9209066,0
-1.001461,3.8751802,2.2187448,0.21757269,0.32340884,0.9209066,0
0.70808697,-4.798192,-1.7568147,-0.21757269,-0.32340884,-0.9209066,0
-0.43800306,-2.4470055,-2.1916664,-0.21757269,-0.32340884,-0.9209066,0
-0.39604259,-3.8227816,-0.58014262,-0.86298597,-0.3770389,0.33629888,0
3.8939533,-3.3263245,2.0882163,0.45597965,-0.86789888,0.19706392,0
-2.747838,4.0315442,-1.1802602,-0.45597965,0.86789888,-0.19706392,0
1.1329781,-2.6207561,3.9529071,0.21757269,0.32340884,0.9209066,0
3.8530235,-2.6938069,3.3191376,0.21757269,0.32340884,0.9209066,0
-1.7322032,4.9521341,0.57557058,-0.45597965,0.86789888,-0.19706392,0
-1.9047147,4.0753441,-3.2756071,-0.45597965,0.86789888,-0.19706392,0
-0.23456597,-3.6483891,-0.14970255,-0.86298597,-0.3770389,0.33629888,0
1.2635033,1.170927,2.5901911,0.21757269,0.32340884,0.9209066,0
-3.9372749,3.0366788,-2.0351529,-0.86298597,-0.3770389,0.33629888,0
-3.2688127,3.852633,-0.84791899,-0.45597965,0.86789888,-0.19706392,0
-1.625716,0.28582001,-3.0271158,-0.21757269,-0.32340884,-0.9209066,0
-3.0215511,3.7819214,-1.5788021,-0.45597965,0.86789888,-0.19706392,0
-2.4413109,-0.57280254,-2.3098826,-0.86298597,-0.3770389,0.33629888,0
1.8099579,-4.1989517,2.5720541,0.45597965,-0.86789888,0.19706392,0
2.809448,-4.7168422,-1.7262776,0.45597965,-0.86789888,0.19706392,0
-2.2515345,3.9420733,2.3434663,0.21757269,0.32340884,0.9209066,0
3.0053833,-1.6779164,3.1079528,0.21757269,0.32340884,0.9209066,0
-3.1745872,3.4342301,-2.8063109,-0.45597965,0.86789888,-0.19706392,0
2.3106408,-1.8960882,3.4116518,0.21757269,0.32340884,0.9209066,0
2.1025767,-3.1454096,3.831562,0.21757269,0.32340884,0.9209066,0
-1.5456705,1.8909106,-3.5427806,-0.21757269,-0.32340884,-0.9209066,0
1.5176244,-3.1352172,-2.5133955,-0.21757269,-0.32340884,-0.9209066,0
-3.2261643,3.5362532,-1.954392,-0.45597965,0.86789888,-0.19706392,0
2.1302392,-4.5302067,0.88581753,0.45597965,-0.86789888,0.19706392,0
-2.9092386,1.966058,-0.65363216,-0.86298597,-0.3770389,0.33629888,0
-2.2457809,2.3001046,-3.6270394,-0.21757269,-0.32340884,-0.9209066,0
-1.8720518,-0.3604368,-0.54272354,-0.86298597,-0.3770389,0.33629888,0
-1.4518285,-2.543426,-1.9870646,-0.21757269,-0.32340884,-0.9209066,0
-1.6114893,-1.9548472,-1.9070987,-0.86298597,-0.3770389,0.33629888,0
1.4326915,-4.3070588,2.8638802,0.45597965,-0.86789888,0.19706392,0
-1.4171715,4.5227451,-1.7900264,-0.45597965,0.86789888,-0.19706392,0
-0.66381049,-1.4593347,-2.5434463,-0.21757269,-0.32340884,-0.9209066,0
2.5924377,-0.798311,1.2438748,0.86298597,0.3770389,-0.33629888,0
2.9706502,-1.6044482,3.1413217,0.21757269,0.32340884,0.9209066,0
2.5022535,0.26743531,2.4954004,0.21757269,0.32340884,0.9209066,0
-3.8549581,3.181726,-2.3419514,-0.45597965,0.86789888,-0.19706392,0
-4.1437793,2.9914629,-2.9357982,-0.45597965,0.86789888,-0.19706392,0
-2.4675426,4.4605026,-0.50937033,-0.45597965,0.86789888,-0.19706392,0
-0.35768557,-4.2157559,-1.7018433,-0.21757269,-0.32340884,-0.9209066,0
-1.1904387,3.0378563,2.4527054,0.21757269,0.32340884,0.9209066,0
-0.29680085,-3.0385914,-2.047106,-0.21757269,-0.32340884,-0.9209066,0
3.3609612,-3.4920218,2.6821198,0.45597965,-0.86789888,0.19706392,0
0.54747891,2.2351222,2.3663137,0.21757269,0.32340884,0.9209066,0
0.60462546,-0.65032071,3.4015653,0.21757269,0.32340884,0.9209066,0
-2.8097446,3.8323796,-1.9424269,-0.45597965,0.86789888,-0.19706392,0
-1.2706621,5.0718222,-0.50243831,-0.45597965,0.86789888,-0.19706392,0
-2.4579668,0.89509761,-3.0597484,-0.21757269,-0.32340884,-0.9209066,0
-0.74103069,0.46276554,3.1197114,-0.86298597,-0.3770389,0.33629888,0
0.93432498,-5.474041,-0.49015093,0.45597965,-0.86789888,0.19706392,0
-0.11419392,-1.7722614,-2.701791,-0.21757269,-0.32340884,-0.9209066,0
0.34364319,3.7849052,1.8891615,0.21757269,0.32340884,0.9209066,0
-2.2233825,4.9667788,2.0061686,0.21757269,0.32340884,0.9209066,0
-0.21720552,4.6474447,1.5829719,0.21757269,0.32340884,0.9209066,0
0.37584651,1.0386591,-2.1410306,0.86298597,0.3770389,-0.33629888,0
-1.0109429,5.4213734,1.5804672,0.21757269,0.32340884,0.9209066,0
-1.8435178,3.3370194,2.4911008,0.21757269,0.32340884,0.9209066,0
-0.97496033,-2.6184914,-0.96406019,-0.86298597,-0.3770389,0.33629888,0
2.1414847,-5.0305271,-1.5738213,0.45597965,-0.86789888,0.19706392,0
1.1118481,1.8382001,2.3442822,0.21757269,0.32340884,0.9209066,0
-0.70557737,0.81418669,-3.4852076,-0.21757269,-0.32340884,-0.9209066,0
-1.042522,3.7665982,-2.8614984,0.86298597,0.3770389,-0.33629888,0
-3.1547976,3.4948168,-2.3792562,-0.45597965,0.86789888,-0.19706392,0
2.6146884,-4.4486809,-0.17519283,0.45597965,-0.86789888,0.19706392,0
0.82118928,2.0533981,-0.29600307,0.86298597,0.3770389,-0.33629888,0
0.4678812,-5.5612788,-0.80656624,-0.86298597,-0.3770389,0.33629888,0
-0.008610487,4.4377875,0.40013051,0.86298597,0.3770389,-0.33629888,0
-1.5394944,0.47732341,-3.1189451,-0.21757269,-0.32340884,-0.9209066,0
-2.5531752,2.76531,1.2090111,-0.86298597,-0.3770389,0.33629888,0
2.85429,-4.4300709,-0.51928759,0.45597965,-0.86789888,0.19706392,0
2.7560575,-3.8943021,1.8476758,0.45597965,-0.86789888,0.19706392,0
0.4823916,-1.0948095,3.442385,0.21757269,0.32340884,0.9209066,0
2.797431,-2.5897436,-0.068860054,0.86298597,0.3770389,-0.33629888,0
-3.8407545,3.2072656,-2.5887923,-0.45597965,0.86789888,-0.19706392,0
0.40694904,-5.8784347,-1.3250337,-0.21757269,-0.32340884,-0.9209066,0
-2.2529426,3.1968002,-3.9559002,-0.21757269,-0.32340884,-0.9209066,0
0.57279181,0.25103137,-2.8967795,0.86298597,0.3770389,-0.33629888,0
-2.0006714,4.3012762,2.2467055,0.21757269,0.32340884,0.9209066,0
-2.0910709,2.071157,1.2926903,-0.86298597,-0.3770389,0.33629888,0
0.56096959,1.4087714,2.6071725,0.21757269,0.32340884,0.9209066,0
0.77666211,1.4801545,2.5826724,0.21757269,0.32340884,0.9209066,0
1.8801483,1.1541953,1.7790284,0.86298597,0.3770389,-0.33629888,0
2.019067,-4.934731,-0.9418869,0.45597965,-0.86789888,0.19706392,0
3.3647394,-3.7758708,1.0272717,0.45597965,-0.86789888,0.19706392,0
-1.2755055,4.0845261,2.1807313,0.21757269,0.32340884,0.9209066,0
-0.75247478,5.2649155,-0.35926127,-0.45597965,0.86789888,-0.19706392,0
-0.14166737,-2.9093864,-2.2153401,-0.21757269,-0.32340884,-0.9209066,0
3.2576253,-1.3665287,2.1466711,0.86298597,0.3770389,-0.33629888,0
-0.92717266,0.83208382,3.0831382,-0.86298597,-0.3770389,0.33629888,0
-1.1267285,-2.0900435,-2.2871838,-0.21757269,-0.32340884,-0.9209066,0
-1.1655726,4.9441876,-0.86788869,-0.45597965,0.86789888,-0.19706392,0
-0.066418648,-4.4960213,-0.70348227,-0.86298597,-0.3770389,0.33629888,0
1.4393945,1.2774707,0.4847765,0.86298597,0.3770389,-0.33629888,0
1.4429474,-5.2724018,-0.96050262,0.45597965,-0.86789888,0.19706392,0
3.4175272,-2.4566398,1.28545,0.86298597,0.3770389,-0.33629888,0
2.8363509,-0.31334972,2.6426134,0.21757269,0.32340884,0.9209066,0
-2.4439995,4.2429776,-0.71090364,-0.45597965,0.86789888,-0.19706392,0
-3.8986363,2.8774571,-3.2338643,-0.45597965,0.86789888,-0.19706392,0
3.6438866,-3.2374775,2.8142886,0.45597965,-0.86789888,0.19706392,0
0.97450322,-4.2575078,2.0589817,-0.86298597,-0.3770389,0.33629888,0
2.7697105,-2.7455215,-0.34841418,0.86298597,0.3770389,-0.33629888,0
0.033307076,3.2024148,2.1860354,0.21757269,0.32340884,0.9209066,0
1.0361847,-4.2052622,2.534555,-0.86298597,-0.3770389,0.33629888,0
-1.0626469,4.6123519,1.7968211,0.21757269,0.32340884,0.9209066,0
1.2151477,-5.0225124,0.76917171,0.45597965,-0.86789888,0.19706392,0
1.1138513,1.220696,-0.38355172,0.86298597,0.3770389,-0.33629888,0
0.61245394,1.667181,2.5738921,0.21757269,0.32340884,0.9209066,0
1.734782,0.75978339,2.6407905,0.21757269,0.32340884,0.9209066,0
-2.0419178,-0.85545719,-2.4278049,-0.21757269,-0.32340884,-0.9209066,0
-1.5348341,1.1222115,-3.204792,-0.21757269,-0.32340884,-0.9209066,0
1.1776054,0.0098426342,3.0049796,0.21757269,0.32340884,0.9209066,0
3.3172078,-2.6647251,3.3884568,0.21757269,0.32340884,0.9209066,0
-0.71510983,-0.86908269,1.6200097,-0.86298597,-0.3770389,0.33629888,0
-0.8604486,-2.725029,-0.527372,-0.86298597,-0.3770389,0.33629888,0
-2.8204458,0.21989274,-2.6941009,-0.21757269,-0.32340884,-0.9209066,0
3.5508785,-1.9079676,2.5396066,0.86298597,0.3770389,-0.33629888,0
0.35490513,2.0797369,2.4004712,0.21757269,0.32340884,0.9209066,0
3.5471764,-3.1179314,3.2490985,0.45597965,-0.86789888,0.19706392,0
-0.97020757,3.9564345,-2.4416821,0.86298597,0.3770389,-0.33629888,0
-3.2120113,2.0794735,-1.3538337,-0.86298597,-0.3770389,0.33629888,0
-1.2500956,1.0725479,2.4579308,-0.86298597,-0.3770389,0.33629888,0
1.5293963,1.4054765,0.77475286,0.86298597,0.3770389,-0.33629888,0
0.034347057,-3.0509543,-2.2497091,-0.21757269,-0.32340884,-0.9209066,0
2.6175499,-4.7911882,-2.0173919,0.45597965,-0.86789888,0.19706392,0
3.8840466,-3.2393064,1.9440532,0.45597965,-0.86789888,0.19706392,0
1.4972552,1.6731211,1.1103312,0.86298597,0.3770389,-0.33629888,0
0.22096872,4.2863364,1.7206751,0.21757269,0.32340884,0.9209066,0
1.3844881,0.45686734,-0.21908963,0.86298597,0.3770389,-0.33629888,0
3.318296,-2.3900399,1.4207895,0.86298597,0.3770389,-0.33629888,0
0.52463758,1.1253113,-1.6046692,0.86298597,0.3770389,-0.33629888,0
0.96947408,-5.4070745,-0.32200813,0.45597965,-0.86789888,0.19706392,0
1.4001162,-2.8644407,-2.4791155,-0.21757269,-0.32340884,-0.9209066,0
2.3048811,-0.73646891,0.85158706,0.86298597,0.3770389,-0.33629888,0
-1.9629288,3.4468045,2.5189271,0.21757269,0.32340884,0.9209066,0
-2.0144448,2.1385231,1.79899,-0.86298597,-0.3770389,0.33629888,0
-3.5880196,3.4915159,-2.1717968,-0.45597965,0.86789888,-0.19706392,0
1.1146765,-4.0283527,-2.1375256,-0.21757269,-0.32340884,-0.9209066,0
-0.41538811,-0.1281364,-3.1256857,-0.21757269,-0.32340884,-0.9209066,0
2.1364813,-5.0648956,-1.6948702,0.45597965,-0.86789888,0.19706392,0
0.78633904,-2.6157699,3.8282394,-0.86298597,-0.3770389,0.33629888,0
2.8585739,-4.2072425,-2.1098382,0.86298597,0.3770389,-0.33629888,0
1.0964885,-5.375947,-0.55938101,0.45597965,-0.86789888,0.19706392,0
-0.95037198,-1.1773154,-2.5872917,-0.21757269,-0.32340884,-0.9209066,0
3.098027,-1.9441376,1.0604167,0.86298597,0.3770389,-0.33629888,0
-2.7055309,0.55399871,-2.7270713,-0.21757269,-0.32340884,-0.9209066,0
-2.7802737,4.4576955,0.37552166,-0.45597965,0.86789888,-0.19706392,0
-2.9926584,4.3612499,1.3802781,-0.86298597,-0.3770389,0.33629888,0
1.8698506,-3.3675332,-2.4847312,-0.21757269,-0.32340884,-0.9209066,0
-3.4895289,2.5651212,-3.2409904,-0.21757269,-0.32340884,-0.9209066,0
1.7237923,-3.9267845,4.182138,0.45597965,-0.86789888,0.19706392,0
0.70963764,-3.7256148,2.052942,-0.86298597,-0.3770389,0.33629888,0
-1.6416283,0.68453431,-3.0757563,-0.21757269,-0.32340884,-0.9209066,0
1.7027326,-4.4311423,1.8829033,0.45597965,-0.86789888,0.19706392,0
2.3871775,0.35187101,2.5895374,0.21757269,0.32340884,0.9209066,0
-1.4632002,-0.042264938,-2.8829708,-0.21757269,-0.32340884,-0.9209066,0
1.8492308,-3.7319026,-2.4772248,-0.21757269,-0.32340884,-0.9209066,0
-0.99935389,5.1333394,-0.51854777,-0.45597965,0.86789888,-0.19706392,0
0.74559689,-3.7784271,-2.1883435,-0.21757269,-0.32340884,-0.9209066,0
-1.1502569,-0.82701164,0.32503018,-0.86298597,-0.3770389,0.33629888,0
0.99986255,-4.0118623,2.3848231,-0.86298597,-0.3770389,0.33629888,0
-0.31765556,-3.4650626,-0.35648215,-0.86298597,-0.3770389,0.33629888,0
0.95566535,-5.3375344,-0.025131464,0.45597965,-0.86789888,0.19706392,0
1.4532311,-5.1158705,-0.54206228,0.45597965,-0.86789888,0.19706392,0
