-2.6407716,-2.4494295,0.23477221,-0.83591092,-0.54618573,-0.054167747,0
-1.083482,-3.6493154,1.5119436,0.39041138,-0.66105378,0.64077055,0
-3.0167823,-1.9988488,0.31924582,-0.83591092,-0.54618573,-0.054167747,0
-2.0525656,0.17143893,0.93654794,-0.38578746,0.5144794,0.76581919,0
1.8113258,-2.1407773,1.4223633,0.39041138,-0.66105378,0.64077055,0
3.1221695,1.7085896,-0.70458937,0.83591092,0.54618573,0.054167747,0
3.3476257,0.30408317,-0.36202192,0.38578746,-0.5144794,-0.76581919,0
3.6757734,0.50745225,2.8121984,0.39041138,-0.66105378,0.64077055,0
-3.9921091,0.67316782,-0.63091016,-0.38578746,0.5144794,0.76581919,0
-3.6367812,-0.51355791,-2.0770233,-0.83591092,-0.54618573,-0.054167747,0
-2.3021224,0.78591752,0.21789217,-0.38578746,0.5144794,0.76581919,0
-1.6463029,-3.4828212,2.0005102,0.39041138,-0.66105378,0.64077055,0
2.4331105,0.49854326,-1.0700123,0.38578746,-0.5144794,-0.76581919,0
1.6254733,-1.57075,2.035172,0.39041138,-0.66105378,0.64077055,0
0.96370924,1.1097583,-2.3265855,0.38578746,-0.5144794,-0.76581919,0
0.91162872,1.0399419,1.6857913,-0.38578746,0.5144794,0.76581919,0
-2.7437663,-2.197454,0.83902669,-0.83591092,-0.54618573,-0.054167747,0
-2.5372195,-2.3611894,-0.78605843,-0.83591092,-0.54618573,-0.054167747,0
-1.0374842,-1.5952172,-1.3155205,0.38578746,-0.5144794,-0.76581919,0
-2.2905779,0.75499165,-2.4886627,-0.39041138,0.66105378,-0.64077055,0
-2.9618917,-2.1118455,1.7970601,-0.83591092,-0.54618573,-0.054167747,0
4.6366606,-0.67348492,0.79079676,0.38578746,-0.5144794,-0.76581919,0
3.5902195,0.84481454,0.89601398,0.83591092,0.54618573,0.054167747,0
-2.9758792,-1.4723756,1.5564066,-0.38578746,0.5144794,0.76581919,0
-1.6264125,-1.5575017,2.1456845,-0.38578746,0.5144794,0.76581919,0
3.1321194,1.8355093,-1.5972319,0.83591092,0.54618573,0.054167747,0
3.5477443,1.001869,1.5599132,0.83591092,0.54618573,0.054167747,0
2.3092606,2.9236169,0.14665747,0.83591092,0.54618573,0.054167747,0
3.9492593,0.15554906,1.0918372,0.83591092,0.54618573,0.054167747,0
-1.7852073,-3.502862,-0.51466298,0.38578746,-0.5144794,-0.76581919,0
0.0099465847,2.8833034,-1.6593288,-0.39041138,0.66105378,-0.64077055,0
1.854375,3.7986498,-1.410316,0.83591092,0.54618573,0.054167747,0
-1.3118773,-3.1925278,-0.51332021,0.38578746,-0.5144794,-0.76581919,0
2.908838,2.025516,0.8908205,0.83591092,0.54618573,0.054167747,0
3.7061584,0.38262415,2.1341302,0.83591092,0.54618573,0.054167747,0
3.6223054,0.58057427,2.131284,0.83591092,0.54618573,0.054167747,0
0.57018971,-2.8842535,0.36516047,0.38578746,-0.5144794,-0.76581919,0
-2.0748005,-3.2146719,1.0567129,-0.83591092,-0.54618573,-0.054167747,0
-1.9055227,-3.7217107,1.1338007,-0.83591092,-0.54618573,-0.054167747,0
-1.8706679,-2.2890806,-1.3858287,0.38578746,-0.5144794,-0.76581919,0
-0.61747694,-2.5071769,-0.53769565,0.38578746,-0.5144794,-0.76581919,0
2.2689114,-1.3988092,1.9003965,0.39041138,-0.66105378,0.64077055,0
-2.0310688,-3.2259607,0.8588028,-0.83591092,-0.54618573,-0.054167747,0
3.4107635,-0.97842675,0.42192578,0.38578746,-0.5144794,-0.76581919,0
1.9931524,2.4356046,-2.6441326,0.38578746,-0.5144794,-0.76581919,0
-1.7117006,-3.6486444,2.1020157,0.39041138,-0.66105378,0.64077055,0
4.3928809,-0.27244282,1.0073092,0.83591092,0.54618573,0.054167747,0
-0.63869762,3.5361261,-0.6899997,-0.39041138,0.66105378,-0.64077055,0
-2.7753477,-2.3620608,0.31044388,-0.83591092,-0.54618573,-0.054167747,0
-0.58056593,-4.1386375,0.75286627,0.39041138,-0.66105378,0.64077055,0
-3.4598827,-0.32849419,-2.8173518,-0.39041138,0.66105378,-0.64077055,0
0.76556492,-0.46613896,2.5991187,-0.38578746,0.5144794,0.76581919,0
-0.73686552,-3.7808766,1.1460907,0.39041138,-0.66105378,0.64077055,0
2.367429,-1.7242661,0.26204121,0.38578746,-0.5144794,-0.76581919,0
1.0275757,-2.049264,1.9483076,0.39041138,-0.66105378,0.64077055,0
-0.99317169,-3.4588165,-0.11067891,0.38578746,-0.5144794,-0.76581919,0
-3.4897177,-0.8465513,-2.5443161,-0.83591092,-0.54618573,-0.054167747,0
2.2281158,2.9268932,-0.26298165,0.83591092,0.54618573,0.054167747,0
2.9905667,1.8045707,-1.1645403,0.83591092,0.54618573,0.054167747,0
-0.47032523,2.8275349,-0.13076812,-0.38578746,0.5144794,0.76581919,0
0.45417213,-1.390852,-0.77413708,0.38578746,-0.5144794,-0.76581919,0
-2.0706055,-0.9129889,-2.4091971,0.38578746,-0.5144794,-0.76581919,0
-1.6066545,-1.5103039,2.1088817,-0.38578746,0.5144794,0.76581919,0
-1.5892475,-3.8558216,0.11992025,-0.83591092,-0.54618573,-0.054167747,0
-3.1347947,-1.4329281,1.3818004,-0.38578746,0.5144794,0.76581919,0
-2.3276029,-2.6979764,-0.034684658,-0.83591092,-0.54618573,-0.054167747,0
-3.8232956,0.81966656,-0.49439549,-0.38578746,0.5144794,0.76581919,0
-1.6751837,0.048923612,0.96731561,-0.38578746,0.5144794,0.76581919,0
-2.058284,2.1796327,-1.0458806,-0.39041138,0.66105378,-0.64077055,0
-1.6708926,-3.7676625,-0.20725393,-0.83591092,-0.54618573,-0.054167747,0
-2.0851362,-3.4381189,0.5097611,-0.83591092,-0.54618573,-0.054167747,0
-2.8977158,-0.35419977,0.7121942,-0.38578746,0.5144794,0.76581919,0
-3.0840039,-1.6099906,-1.6023016,-0.83591092,-0.54618573,-0.054167747,0
-0.53776121,-3.8362591,1.1024861,0.39041138,-0.66105378,0.64077055,0
2.4452345,-1.8105371,0.55124009,0.38578746,-0.5144794,-0.76581919,0
3.8185625,-0.838368,1.3591874,0.39041138,-0.66105378,0.64077055,0
2.3099484,1.2330084,2.3162098,-0.38578746,0.5144794,0.76581919,0
-2.0004282,-3.3272481,1.6444051,-0.83591092,-0.54618573,-0.054167747,0
-3.2196338,1.3453611,-1.3051155,-0.39041138,0.66105378,-0.64077055,0
-2.6568801,-2.4696934,-0.46413517,-0.83591092,-0.54618573,-0.054167747,0
-0.18516803,-2.9350972,1.6609467,0.39041138,-0.66105378,0.64077055,0
-2.6187122,-1.2593172,1.5835686,-0.38578746,0.5144794,0.76581919,0
-2.2924528,-3.1415813,1.2338309,-0.83591092,-0.54618573,-0.054167747,0
3.3666329,1.1858816,-1.1783776,0.38578746,-0.5144794,-0.76581919,0
-3.9828918,0.26229689,-2.0475001,-0.39041138,0.66105378,-0.64077055,0
-1.4052815,-2.7625628,2.7162194,0.39041138,-0.66105378,0.64077055,0
-2.7293243,1.5473074,-1.5749941,-0.39041138,0.66105378,-0.64077055,0
4.4433565,-0.7120018,1.176717,0.39041138,-0.66105378,0.64077055,0
4.0851669,-0.036913157,1.9616122,0.83591092,0.54618573,0.054167747,0
-4.0650287,0.40645063,-1.6476624,-0.39041138,0.66105378,-0.64077055,0
2.1975915,-1.8490531,1.5183434,0.39041138,-0.66105378,0.64077055,0
-0.25128126,-0.49576557,2.238837,-0.38578746,0.5144794,0.76581919,0
2.4898388,2.4554701,0.90203142,0.83591092,0.54618573,0.054167747,0
-3.2894006,-1.0492384,-1.5376596,-0.83591092,-0.54618573,-0.054167747,0
-0.61725163,2.558084,-1.5495173,-0.39041138,0.66105378,-0.64077055,0
0.53083205,3.3062241,0.12504041,-0.38578746,0.5144794,0.76581919,0
-1.2212704,0.96786153,0.58763695,-0.38578746,0.5144794,0.76581919,0
2.8598959,-1.9177942,0.86365795,0.38578746,-0.5144794,-0.76581919,0
-2.5888007,-2.5935185,1.1682277,-0.83591092,-0.54618573,-0.054167747,0
-1.4115604,-4.2526164,0.39279675,-0.83591092,-0.54618573,-0.054167747,0
0.85001934,2.3864946,0.8026675,-0.38578746,0.5144794,0.76581919,0
-1.0433354,-3.447201,1.8028978,0.39041138,-0.66105378,0.64077055,0
-1.4996822,-1.9542549,2.5852597,-0.38578746,0.5144794,0.76581919,0
-2.0348687,-3.396358,2.4400144,-0.83591092,-0.54618573,-0.054167747,0
-4.213871,0.19295615,-1.0998123,-0.83591092,-0.54618573,-0.054167747,0
-2.4282188,-2.9324875,2.6753106,-0.83591092,-0.54618573,-0.054167747,0
-2.7726517,-1.559528,1.5555543,-0.38578746,0.5144794,0.76581919,0
1.3725507,1.63175,-2.3092167,0.38578746,-0.5144794,-0.76581919,0
1.0326343,-1.5743952,2.4985929,0.39041138,-0.66105378,0.64077055,0
-3.18543,1.0443344,-1.6896687,-0.39041138,0.66105378,-0.64077055,0
-1.9210784,1.7738224,-1.8287295,-0.39041138,0.66105378,-0.64077055,0
-2.9346089,-1.793952,-0.11210322,-0.83591092,-0.54618573,-0.054167747,0
3.4955583,0.61242259,-0.61721635,0.38578746,-0.5144794,-0.76581919,0
-1.5543547,1.4601339,-2.2706118,-0.39041138,0.66105378,-0.64077055,0
1.0092535,-1.6507654,2.4098597,0.39041138,-0.66105378,0.64077055,0
4.1091866,-0.84740567,1.2940462,0.39041138,-0.66105378,0.64077055,0
-2.3136091,-2.9752026,1.2496665,-0.83591092,-0.54618573,-0.054167747,0
-1.5201805,-2.4658637,2.7877443,-0.38578746,0.5144794,0.76581919,0
2.5031071,2.6872802,-2.4751625,0.83591092,0.54618573,0.054167747,0
0.47184682,4.1139021,-0.86517036,-0.39041138,0.66105378,-0.64077055,0
-0.90532255,-3.0232549,2.0634556,0.39041138,-0.66105378,0.64077055,0
-2.5930438,-0.16650873,0.7048825,-0.38578746,0.5144794,0.76581919,0
2.1460607,-2.0521111,0.50232673,0.38578746,-0.5144794,-0.76581919,0
1.1450114,4.1105943,-1.1768936,-0.39041138,0.66105378,-0.64077055,0
-0.243083,-1.9073722,2.8199511,0.39041138,-0.66105378,0.64077055,0
0.6450755,-0.14644885,-1.4737449,0.38578746,-0.5144794,-0.76581919,0
2.6270466,2.5403278,-1.9852763,0.83591092,0.54618573,0.054167747,0
-1.793144,-3.6296105,0.7468996,-0.83591092,-0.54618573,-0.054167747,0
1.0016944,-0.91154104,3.0110147,0.39041138,-0.66105378,0.64077055,0
3.4010432,0.23815024,2.9679315,0.39041138,-0.66105378,0.64077055,0
0.070542097,-2.4768357,2.0241432,0.39041138,-0.66105378,0.64077055,0
-2.0074637,0.45937943,-3.114603,-0.39041138,0.66105378,-0.64077055,0
3.9032528,0.11975819,1.4123487,0.83591092,0.54618573,0.054167747,0
-1.5465804,-4.017818,1.356841,0.39041138,-0.66105378,0.64077055,0
-3.8849423,-0.19654763,-2.6553469,-0.83591092,-0.54618573,-0.054167747,0
3.5702248,0.87470281,-0.19151402,0.83591092,0.54618573,0.054167747,0
-2.7065713,1.9657792,-0.95562565,-0.39041138,0.66105378,-0.64077055,0
0.49337459,-2.58652,1.7401121,0.39041138,-0.66105378,0.64077055,0
2.4566846,1.3547928,2.3824446,-0.38578746,0.5144794,0.76581919,0
-1.8327169,-3.827167,1.3606163,-0.83591092,-0.54618573,-0.054167747,0
-2.2282529,-3.1216216,2.3927226,-0.83591092,-0.54618573,-0.054167747,0
2.342155,-0.93476099,2.283577,0.39041138,-0.66105378,0.64077055,0
-1.4128613,-2.0014422,-1.4387193,0.38578746,-0.5144794,-0.76581919,0
-3.5319893,0.76354361,-1.6437185,-0.39041138,0.66105378,-0.64077055,0
1.7771463,3.3130054,0.65246725,-0.38578746,0.5144794,0.76581919,0
1.3331002,2.6271081,0.80560231,-0.38578746,0.5144794,0.76581919,0
2.6852343,-1.0598149,1.8800104,0.39041138,-0.66105378,0.64077055,0
0.5200392,-0.51103354,2.4855456,-0.38578746,0.5144794,0.76581919,0
-3.6302309,-0.60532546,-2.1580541,-0.83591092,-0.54618573,-0.054167747,0
1.6415355,2.9543405,-2.5919898,-0.39041138,0.66105378,-0.64077055,0
-3.211885,-1.7170227,0.95672202,-0.83591092,-0.54618573,-0.054167747,0
1.8840926,-1.9967031,0.23806256,0.38578746,-0.5144794,-0.76581919,0
0.75215149,-3.2487803,1.0115502,0.39041138,-0.66105378,0.64077055,0
-0.66776609,2.9127469,-1.1644824,-0.39041138,0.66105378,-0.64077055,0
-0.53204203,2.9233513,-0.20480573,-0.38578746,0.5144794,0.76581919,0
1.7446973,3.5201283,-2.0483332,-0.39041138,0.66105378,-0.64077055,0
-0.67805862,-3.4222276,1.5412645,0.39041138,-0.66105378,0.64077055,0
-1.1156888,1.1704726,-2.8743911,-0.39041138,0.66105378,-0.64077055,0
-0.25566334,0.23058712,1.6689708,-0.38578746,0.5144794,0.76581919,0
-0.90446043,-4.0315161,0.22598219,0.38578746,-0.5144794,-0.76581919,0
-3.4481673,-0.71584797,-2.4805775,-0.83591092,-0.54618573,-0.054167747,0
0.037080526,-2.474277,2.0958033,0.39041138,-0.66105378,0.64077055,0
-1.2434704,-2.194746,2.7300715,-0.38578746,0.5144794,0.76581919,0
3.5647409,0.61637092,3.0498128,0.83591092,0.54618573,0.054167747,0
-2.9325473,-1.7885342,-1.1313965,-0.83591092,-0.54618573,-0.054167747,0
1.7435932,3.836781,-1.3249398,0.83591092,0.54618573,0.054167747,0
-1.4085357,-4.0083556,1.468587,0.39041138,-0.66105378,0.64077055,0
-2.2384238,-2.9920754,-0.74493313,-0.83591092,-0.54618573,-0.054167747,0
-1.4547825,-0.88998502,1.715739,-0.38578746,0.5144794,0.76581919,0
-1.3043649,-3.8150136,1.6738516,0.39041138,-0.66105378,0.64077055,0
-3.637532,-0.67644644,-2.761755,-0.83591092,-0.54618573,-0.054167747,0
1.0635333,-1.3150742,2.6935351,0.39041138,-0.66105378,0.64077055,0
2.8242149,1.714341,-1.7445822,0.38578746,-0.5144794,-0.76581919,0
0.72815156,-2.0605729,2.0364058,0.39041138,-0.66105378,0.64077055,0
3.9555004,-0.39627013,1.7100503,0.39041138,-0.66105378,0.64077055,0
0.32324338,3.7026753,-1.1349604,-0.39041138,0.66105378,-0.64077055,0
-3.3949382,0.44274962,-2.3104937,-0.39041138,0.66105378,-0.64077055,0
3.3203287,0.47235459,-0.65020537,0.38578746,-0.5144794,-0.76581919,0
1.7424843,1.0302167,-1.7550448,0.38578746,-0.5144794,-0.76581919,0
3.5335093,-0.50743878,2.1553009,0.39041138,-0.66105378,0.64077055,0
3.7465496,0.65916282,-0.41470671,0.38578746,-0.5144794,-0.76581919,0
-2.3871977,0.708691,-2.351074,-0.39041138,0.66105378,-0.64077055,0
3.0505142,1.439374,1.6486681,0.83591092,0.54618573,0.054167747,0
-1.9612646,2.084841,-0.40271372,-0.38578746,0.5144794,0.76581919,0
1.054215,-1.8121419,2.3169081,0.39041138,-0.66105378,0.64077055,0
2.3761115,2.7794659,0.062302113,0.83591092,0.54618573,0.054167747,0
3.4000564,-0.48666656,0.14974141,0.38578746,-0.5144794,-0.76581919,0
2.8511586,1.562228,-1.4674641,0.38578746,-0.5144794,-0.76581919,0
-1.4380482,-3.4477971,2.1163867,0.39041138,-0.66105378,0.64077055,0
0.44963598,-3.0600083,1.217716,0.39041138,-0.66105378,0.64077055,0
-0.9433533,-1.1044291,-1.6768937,0.38578746,-0.5144794,-0.76581919,0
-1.6385654,-3.5594726,2.0080013,0.39041138,-0.66105378,0.64077055,0
-2.9009223,-1.9896359,-1.4107471,-0.83591092,-0.54618573,-0.054167747,0
1.8026581,3.8670018,-0.72394609,0.83591092,0.54618573,0.054167747,0
4.1763053,-0.10506257,0.72098255,0.83591092,0.54618573,0.054167747,0
1.3227761,1.0225937,2.0054226,-0.38578746,0.5144794,0.76581919,0
1.3231528,3.4545281,-2.0227196,-0.39041138,0.66105378,-0.64077055,0
3.6104131,1.0327467,-0.28287029,0.83591092,0.54618573,0.054167747,0
4.1781492,-0.65221542,0.60974932,0.38578746,-0.5144794,-0.76581919,0
3.2221043,-1.7150725,0.85965776,0.38578746,-0.5144794,-0.76581919,0
2.5295048,-1.5628829,1.3978136,0.39041138,-0.66105378,0.64077055,0
2.1780179,1.145043,-1.6220741,0.38578746,-0.5144794,-0.76581919,0
-0.49550688,-1.4794253,-1.1739933,0.38578746,-0.5144794,-0.76581919,0
3.6597021,0.50410569,1.46632,0.83591092,0.54618573,0.054167747,0
-3.8852634,0.37435201,-1.8649206,-0.39041138,0.66105378,-0.64077055,0
3.1241589,1.2368236,2.7920156,0.83591092,0.54618573,0.054167747,0
2.4552054,2.5200133,-0.25875664,0.83591092,0.54618573,0.054167747,0
3.3093467,1.1113555,1.3874247,0.83591092,0.54618573,0.054167747,0
-2.885232,-0.29298711,-3.1419079,-0.39041138,0.66105378,-0.64077055,0
0.42296886,-1.3743066,3.1263967,0.39041138,-0.66105378,0.64077055,0
2.3493426,2.8498383,0.79006982,0.83591092,0.54618573,0.054167747,0
-2.0228961,-3.1743822,-0.23072052,-0.83591092,-0.54618573,-0.054167747,0
-1.2039101,2.571403,-1.1456668,-0.39041138,0.66105378,-0.64077055,0
3.597683,0.79422331,1.5737898,0.83591092,0.54618573,0.054167747,0
-0.35327029,2.3034358,-2.0459418,-0.39041138,0.66105378,-0.64077055,0
-2.2369254,-3.1484606,1.9484133,-0.83591092,-0.54618573,-0.054167747,0
-3.1768563,-1.3287143,-1.5464199,-0.83591092,-0.54618573,-0.054167747,0
0.54524255,-1.2651547,3.1526885,0.39041138,-0.66105378,0.64077055,0
0.58375967,3.160284,0.13219631,-0.38578746,0.5144794,0.76581919,0
2.8684926,-0.38657737,2.4404418,0.39041138,-0.66105378,0.64077055,0
-0.84562802,-4.3025045,0.50219393,0.38578746,-0.5144794,-0.76581919,0
-2.6184378,-2.5935018,1.6888696,-0.83591092,-0.54618573,-0.054167747,0
-2.6438396,-2.3982794,-0.059784889,-0.83591092,-0.54618573,-0.054167747,0
3.4422426,0.83606839,1.5245967,0.83591092,0.54618573,0.054167747,0
-3.7612755,-0.76259601,-0.27631354,-0.83591092,-0.54618573,-0.054167747,0
-2.8077321,-0.45477748,-3.1202865,0.38578746,-0.5144794,-0.76581919,0
-3.5527611,-0.72576559,-1.7651455,-0.83591092,-0.54618573,-0.054167747,0
0.47817802,-3.5023842,0.87610245,0.39041138,-0.66105378,0.64077055,0
1.1824188,-1.703521,2.2896366,0.39041138,-0.66105378,0.64077055,0
-0.37643671,1.8654435,-2.4845498,-0.39041138,0.66105378,-0.64077055,0
-2.8144352,-0.096725583,-2.9532762,-0.39041138,0.66105378,-0.64077055,0
0.60778821,-0.032541275,2.3522937,-0.38578746,0.5144794,0.76581919,0
1.0142545,3.7469349,0.074369669,-0.38578746,0.5144794,0.76581919,0
1.4776566,3.0944562,-2.5203559,-0.39041138,0.66105378,-0.64077055,0
2.1749005,0.83071065,2.4803212,-0.38578746,0.5144794,0.76581919,0
-3.6805708,-0.75834906,-1.4414005,-0.83591092,-0.54618573,-0.054167747,0
1.3914222,3.7310588,-1.7731664,-0.39041138,0.66105378,-0.64077055,0
-2.2929242,-3.0106177,2.2582428,-0.83591092,-0.54618573,-0.054167747,0
1.9185376,3.58674,0.37908888,0.83591092,0.54618573,0.054167747,0
-0.22773719,3.1217642,-1.2912356,-0.39041138,0.66105378,-0.64077055,0
0.23234487,-2.2094553,-0.24701226,0.38578746,-0.5144794,-0.76581919,0
2.4875584,2.3877859,1.4269893,0.83591092,0.54618573,0.054167747,0
-0.37179279,-2.947773,-0.09385848,0.38578746,-0.5144794,-0.76581919,0
0.21024156,-3.8532019,0.71298611,0.39041138,-0.66105378,0.64077055,0
4.1842189,0.049871594,1.3502026,0.83591092,0.54618573,0.054167747,0
2.4534812,-1.0604706,1.9600769,0.39041138,-0.66105378,0.64077055,0
-1.7397747,-1.330634,1.9407023,-0.38578746,0.5144794,0.76581919,0
-2.7853508,-2.2523918,1.1475511,-0.83591092,-0.54618573,-0.054167747,0
1.429114,-1.6575607,-0.070006013,0.38578746,-0.5144794,-0.76581919,0
2.8747764,1.8134056,0.51795173,0.83591092,0.54618573,0.054167747,0
-0.72473478,3.0772109,-0.99154031,-0.39041138,0.66105378,-0.64077055,0
0.97404408,-2.2828295,1.7557906,0.39041138,-0.66105378,0.64077055,0
0.92273641,-1.9223056,2.0604253,0.39041138,-0.66105378,0.64077055,0
-3.1580501,-0.41683829,0.65759706,-0.38578746,0.5144794,0.76581919,0
-1.698113,1.0092502,-2.5753126,-0.39041138,0.66105378,-0.64077055,0
-0.992504,-0.69581068,-2.1142459,0.38578746,-0.5144794,-0.76581919,0
-0.0012008548,1.7188464,0.92928404,-0.38578746,0.5144794,0.76581919,0
3.44209,1.2464182,-0.76908302,0.83591092,0.54618573,0.054167747,0
1.6730564,4.0129342,-1.6638377,-0.39041138,0.66105378,-0.64077055,0
3.2990673,0.9900924,2.0976269,0.83591092,0.54618573,0.054167747,0
-2.3359234,1.6689895,-0.34280574,-0.38578746,0.5144794,0.76581919,0
-3.0638499,-1.6784129,0.59975219,-0.83591092,-0.54618573,-0.054167747,0
-0.020241499,-3.2460866,1.3571061,0.39041138,-0.66105378,0.64077055,0
-1.0929987,2.2311664,-0.12911773,-0.38578746,0.5144794,0.76581919,0
-1.4824569,-1.1119159,-1.9194899,0.38578746,-0.5144794,-0.76581919,0
0.56881785,2.9613948,-1.8630896,-0.39041138,0.66105378,-0.64077055,0
3.3950851,-1.1587303,0.64252758,0.38578746,-0.5144794,-0.76581919,0
-2.9341617,-0.1262778,0.6823988,-0.38578746,0.5144794,0.76581919,0
-1.90904,2.2069774,-0.56761259,-0.38578746,0.5144794,0.76581919,0
-0.8762393,-3.5822935,-0.050525904,0.38578746,-0.5144794,-0.76581919,0
-0.79312873,-2.6274524,2.5086091,0.39041138,-0.66105378,0.64077055,0
-0.28774357,3.4236875,-0.89291251,-0.39041138,0.66105378,-0.64077055,0
-4.0377626,0.5497514,-1.5776138,-0.39041138,0.66105378,-0.64077055,0
-1.1203234,-3.7809813,0.011858225,0.38578746,-0.5144794,-0.76581919,0
3.3199177,1.3577857,-0.72622824,0.83591092,0.54618573,0.054167747,0
-2.2368779,-2.8145804,-0.5862391,-0.83591092,-0.54618573,-0.054167747,0
2.0946896,3.2596056,-0.31784296,0.83591092,0.54618573,0.054167747,0
3.3414559,1.1238674,-0.039308071,0.83591092,0.54618573,0.054167747,0
2.3226569,1.3137902,-1.6034271,0.38578746,-0.5144794,-0.76581919,0
3.7801347,-1.3963554,0.82980633,0.38578746,-0.5144794,-0.76581919,0
-0.55686378,-3.386379,1.5368854,0.39041138,-0.66105378,0.64077055,0
1.1336542,0.66210961,2.0956664,-0.38578746,0.5144794,0.76581919,0
4.3800807,-0.41434687,1.629956,0.83591092,0.54618573,0.054167747,0
-4.4951053,0.63692349,-0.90019298,-0.83591092,-0.54618573,-0.054167747,0
1.7605634,-0.10468566,-1.0075465,0.38578746,-0.5144794,-0.76581919,0
-2.513381,1.8241343,-1.2075385,-0.39041138,0.66105378,-0.64077055,0
2.3780603,-0.76309991,2.557436,0.39041138,-0.66105378,0.64077055,0
-2.2192483,0.71345532,0.26740527,-0.38578746,0.5144794,0.76581919,0
-4.4843702,0.57012707,-1.3013806,-0.83591092,-0.54618573,-0.054167747,0
4.1020207,-0.37408864,0.43353462,0.38578746,-0.5144794,-0.76581919,0
-1.2302194,-0.69943905,-1.9794081,0.38578746,-0.5144794,-0.76581919,0
-1.1297425,-0.13164604,-2.5666294,0.38578746,-0.5144794,-0.76581919,0
3.2438927,1.4341772,0.075016499,0.83591092,0.54618573,0.054167747,0
3.6681285,0.56412035,1.419786,0.83591092,0.54618573,0.054167747,0
3.114439,1.9199169,-1.3800161,0.83591092,0.54618573,0.054167747,0
4.0879135,-0.06467858,0.99876356,0.83591092,0.54618573,0.054167747,0
0.56397676,-3.1433814,1.0022024,0.39041138,-0.66105378,0.64077055,0
0.93763983,3.7539062,-0.070544481,-0.38578746,0.5144794,0.76581919,0
-0.79284286,-3.3466606,-0.012783766,0.38578746,-0.5144794,-0.76581919,0
0.58996797,2.0955009,0.94735622,-0.38578746,0.5144794,0.76581919,0
3.4039564,1.1077735,1.8242893,0.83591092,0.54618573,0.054167747,0
2.4853282,0.65304041,2.6605842,-0.38578746,0.5144794,0.76581919,0
1.8035227,3.2439551,0.8061018,-0.38578746,0.5144794,0.76581919,0
-1.5459042,0.80710131,-2.9797132,-0.39041138,0.66105378,-0.64077055,0
0.28327546,1.0613431,1.3958465,-0.38578746,0.5144794,0.76581919,0
-0.73781395,-1.1238106,-1.5923932,0.38578746,-0.5144794,-0.76581919,0
-2.2181258,-3.066083,-0.28086233,-0.83591092,-0.54618573,-0.054167747,0
2.2498617,-2.0549345,1.1636361,0.39041138,-0.66105378,0.64077055,0
0.29745913,1.4536831,-2.8295989,0.38578746,-0.5144794,-0.76581919,0
3.6057718,0.56994081,2.8418019,0.83591092,0.54618573,0.054167747,0
2.7776141,1.9306543,1.2519236,0.83591092,0.54618573,0.054167747,0
2.3748298,1.2467123,-1.4800439,0.38578746,-0.5144794,-0.76581919,0
2.9195752,1.8972298,-0.79547119,0.83591092,0.54618573,0.054167747,0
3.929131,0.3599602,0.57932997,0.83591092,0.54618573,0.054167747,0
0.142627,0.35994434,1.8793339,-0.38578746,0.5144794,0.76581919,0
1.2405941,-1.7442558,1.9742537,0.39041138,-0.66105378,0.64077055,0
0.37800646,-0.73379076,2.6294048,-0.38578746,0.5144794,0.76581919,0
2.0026319,3.3848104,0.22829914,0.83591092,0.54618573,0.054167747,0
0.89877748,-1.9984789,-0.19078588,0.38578746,-0.5144794,-0.76581919,0
2.913517,1.8879367,-1.030911,0.83591092,0.54618573,0.054167747,0
1.7715352,-1.7865201,1.7300274,0.39041138,-0.66105378,0.64077055,0
-2.0882945,-3.1491313,-0.63663244,-0.83591092,-0.54618573,-0.054167747,0
-2.1160545,-3.3926201,2.3029356,-0.83591092,-0.54618573,-0.054167747,0
-1.9085927,0.2162863,-2.9678214,0.38578746,-0.5144794,-0.76581919,0
-1.4652722,-4.2239699,1.1480218,0.39041138,-0.66105378,0.64077055,0
1.7998509,3.5895748,-1.0680652,0.83591092,0.54618573,0.054167747,0
1.6570266,3.9758558,-1.1757857,0.83591092,0.54618573,0.054167747,0
-0.4090223,-0.038045526,1.6629871,-0.38578746,0.5144794,0.76581919,0
1.6065806,4.0814595,-0.28411007,0.83591092,0.54618573,0.054167747,0
-3.988358,0.53662145,-1.587985,-0.39041138,0.66105378,-0.64077055,0
-1.6145353,1.2704864,-2.3363318,-0.39041138,0.66105378,-0.64077055,0
2.6824188,1.4425529,-1.5829585,0.38578746,-0.5144794,-0.76581919,0
-0.2276268,3.2366502,-0.32838351,-0.38578746,0.5144794,0.76581919,0
3.6161129,-0.45526123,1.8825552,0.39041138,-0.66105378,0.64077055,0
0.077019453,-2.9140036,1.765571,0.39041138,-0.66105378,0.64077055,0
1.2805569,0.36876798,-1.6858859,0.38578746,-0.5144794,-0.76581919,0
-2.6557989,1.4837499,-1.5610595,-0.39041138,0.66105378,-0.64077055,0
2.6639874,0.11045551,3.0733953,0.39041138,-0.66105378,0.64077055,0
2.5231874,2.4328585,0.79719496,0.83591092,0.54618573,0.054167747,0
-3.5031617,-1.2110226,0.42663598,-0.83591092,-0.54618573,-0.054167747,0
1.249135,-1.7742901,2.1536093,0.39041138,-0.66105378,0.64077055,0
-0.3274188,-2.6826782,2.2420974,0.39041138,-0.66105378,0.64077055,0
-1.2287506,0.057911634,1.3635955,-0.38578746,0.5144794,0.76581919,0
-2.3181946,-1.4660376,1.7916529,-0.38578746,0.5144794,0.76581919,0
-1.5983465,-2.6565413,2.9978271,-0.38578746,0.5144794,0.76581919,0
-1.4406834,-3.0856459,2.4175944,0.39041138,-0.66105378,0.64077055,0
2.5396929,2.5917966,-2.5456793,0.38578746,-0.5144794,-0.76581919,0
1.8020644,-1.133654,2.3226805,0.39041138,-0.66105378,0.64077055,0
2.4842198,2.8818121,-2.2431045,0.83591092,0.54618573,0.054167747,0
2.1771648,-1.6207709,0.30072021,0.38578746,-0.5144794,-0.76581919,0
-3.7011678,1.2464896,-1.1732023,-0.39041138,0.66105378,-0.64077055,0
2.3655453,-0.82875609,2.4510813,0.39041138,-0.66105378,0.64077055,0
4.2080622,-0.16893709,1.9074748,0.83591092,0.54618573,0.054167747,0
3.1071815,-1.8816819,0.97856164,0.39041138,-0.66105378,0.64077055,0
-0.019707561,-2.1289856,-0.54798019,0.38578746,-0.5144794,-0.76581919,0
-1.65992,-3.6935978,-0.40630221,0.38578746,-0.5144794,-0.76581919,0
-1.3628418,-1.6132828,2.3734114,-0.38578746,0.5144794,0.76581919,0
-3.1366193,-1.4803622,-0.94831753,-0.83591092,-0.54618573,-0.054167747,0
1.8361859,-0.77884471,-0.492585,0.38578746,-0.5144794,-0.76581919,0
-1.0045127,0.18861377,-2.6334724,0.38578746,-0.5144794,-0.76581919,0
-2.0146406,-3.4028668,1.6043003,-0.83591092,-0.54618573,-0.054167747,0
0.93182683,-0.83794838,2.8682621,-0.38578746,0.5144794,0.76581919,0
-1.534127,2.5476475,-1.2344278,-0.39041138,0.66105378,-0.64077055,0
1.0091777,4.5862007,-0.60595059,-0.39041138,0.66105378,-0.64077055,0
3.2299161,1.1412181,1.4684031,0.83591092,0.54618573,0.054167747,0
2.6280925,1.2161441,2.4335437,-0.38578746,0.5144794,0.76581919,0
-2.99828,-1.7872543,-0.1464057,-0.83591092,-0.54618573,-0.054167747,0
-2.5738454,-2.472554,0.0077674389,-0.83591092,-0.54618573,-0.054167747,0
0.24943444,-0.56709158,-1.3693502,0.38578746,-0.5144794,-0.76581919,0
-2.5467546,-2.867619,1.9644581,-0.83591092,-0.54618573,-0.054167747,0
2.5889108,0.42488933,-0.98013651,0.38578746,-0.5144794,-0.76581919,0
-2.2370214,-3.1267805,1.7021712,-0.83591092,-0.54618573,-0.054167747,0
-2.9709439,0.44259799,0.046441793,-0.38578746,0.5144794,0.76581919,0
-2.388571,1.5385427,-0.35154057,-0.38578746,0.5144794,0.76581919,0
-2.0167603,-3.3016918,2.4044528,0.39041138,-0.66105378,0.64077055,0
-3.5925105,-1.0512662,0.24473548,-0.83591092,-0.54618573,-0.054167747,0
3.1405034,1.5545206,-1.095329,0.83591092,0.54618573,0.054167747,0
3.2697117,1.3423696,0.22630668,0.83591092,0.54618573,0.054167747,0
-0.94200993,2.2146101,-1.668467,-0.39041138,0.66105378,-0.64077055,0
0.21425819,1.1878726,-2.705045,0.38578746,-0.5144794,-0.76581919,0
3.4238086,1.3293018,-0.57671905,0.83591092,0.54618573,0.054167747,0
-1.6156732,-3.8472698,0.76762605,-0.83591092,-0.54618573,-0.054167747,0
-0.97755933,1.9976001,-1.8722765,-0.39041138,0.66105378,-0.64077055,0
-2.3849463,-2.9360321,2.4768133,-0.83591092,-0.54618573,-0.054167747,0
0.95280719,2.3820219,-2.8754675,-0.39041138,0.66105378,-0.64077055,0
0.48323739,0.1667366,1.9749012,-0.38578746,0.5144794,0.76581919,0
-2.9019322,-1.0702089,1.1195266,-0.38578746,0.5144794,0.76581919,0
3.5889792,0.88467836,1.3411307,0.83591092,0.54618573,0.054167747,0
0.47273111,2.1230125,-2.6684849,-0.39041138,0.66105378,-0.64077055,0
2.3369374,-1.0769765,-0.18033993,0.38578746,-0.5144794,-0.76581919,0
0.46763682,1.7959695,-2.9581199,-0.39041138,0.66105378,-0.64077055,0
-1.7501481,0.22179937,-3.0781772,0.38578746,-0.5144794,-0.76581919,0
-2.9282353,0.7241981,0.081991196,-0.38578746,0.5144794,0.76581919,0
-3.8405981,0.92720288,-1.4516108,-0.39041138,0.66105378,-0.64077055,0
1.8864292,3.2094054,-2.4947867,-0.39041138,0.66105378,-0.64077055,0
1.1135769,4.5307012,-0.78668404,-0.39041138,0.66105378,-0.64077055,0
-3.5073552,1.1023445,-0.57874107,-0.38578746,0.5144794,0.76581919,0
1.3302199,-1.3275176,-0.39941105,0.38578746,-0.5144794,-0.76581919,0
-3.4246187,-0.80776036,-2.5707445,-0.83591092,-0.54618573,-0.054167747,0
4.0323334,-0.50566626,1.5485542,0.39041138,-0.66105378,0.64077055,0
-0.55861443,-0.82472599,-1.6761065,0.38578746,-0.5144794,-0.76581919,0
-0.3243531,-0.97787225,-1.4306207,0.38578746,-0.5144794,-0.76581919,0
-1.1920741,1.3684745,-2.6538086,-0.39041138,0.66105378,-0.64077055,0
-2.1285877,-3.4363799,2.490669,0.39041138,-0.66105378,0.64077055,0
1.9089261,-1.195128,-0.12920582,0.38578746,-0.5144794,-0.76581919,0
2.8571649,-0.2825309,2.568959,0.39041138,-0.66105378,0.64077055,0
3.2055814,-0.80138767,0.078861237,0.38578746,-0.5144794,-0.76581919,0
-0.21798587,3.0746171,-1.5144577,-0.39041138,0.66105378,-0.64077055,0
1.6814189,-2.2170122,1.5207596,0.39041138,-0.66105378,0.64077055,0
-3.4907823,-1.075792,0.93021417,-0.83591092,-0.54618573,-0.054167747,0
-2.2585931,-3.1458979,0.65764332,-0.83591092,-0.54618573,-0.054167747,0
3.8037107,-0.216447,2.1446393,0.39041138,-0.66105378,0.64077055,0
0.25789928,1.7486964,-2.9846082,-0.39041138,0.66105378,-0.64077055,0
0.99845266,2.2700572,-2.8085136,-0.39041138,0.66105378,-0.64077055,0
-2.3474224,0.18126142,0.62553656,-0.38578746,0.5144794,0.76581919,0
2.8113246,1.0096567,2.6091242,-0.38578746,0.5144794,0.76581919,0
0.12839973,-0.71924162,2.4715466,-0.38578746,0.5144794,0.76581919,0
3.7382529,-0.53591168,1.7134883,0.39041138,-0.66105378,0.64077055,0
3.1067009,1.6417892,-1.2667599,0.83591092,0.54618573,0.054167747,0
-2.8737411,-1.8523496,-0.037254572,-0.83591092,-0.54618573,-0.054167747,0
2.3510611,0.18435484,-0.79864049,0.38578746,-0.5144794,-0.76581919,0
0.75976729,2.4247999,0.78369188,-0.38578746,0.5144794,0.76581919,0
2.2170782,3.1160738,-1.0688956,0.83591092,0.54618573,0.054167747,0
0.7714169,3.7200117,-1.2809113,-0.39041138,0.66105378,-0.64077055,0
3.0843294,-1.7411287,0.93218851,0.39041138,-0.66105378,0.64077055,0
3.16101,1.4654034,2.3475664,0.83591092,0.54618573,0.054167747,0
-2.3271902,-0.10218799,0.77728117,-0.38578746,0.5144794,0.76581919,0
-3.5447619,1.223747,-1.3061159,-0.39041138,0.66105378,-0.64077055,0
-1.6703193,-2.2794967,2.6551797,-0.38578746,0.5144794,0.76581919,0
-2.7779961,0.64206409,0.13284373,-0.38578746,0.5144794,0.76581919,0
0.069080472,-2.1082499,-0.46565878,0.38578746,-0.5144794,-0.76581919,0
1.1121023,3.6465702,-1.7153499,-0.39041138,0.66105378,-0.64077055,0
4.2529292,-0.81949067,1.172226,0.39041138,-0.66105378,0.64077055,0
-1.1895673,-0.97663224,-2.0269556,0.38578746,-0.5144794,-0.76581919,0
-2.2162035,-2.7570086,2.7317967,-0.38578746,0.5144794,0.76581919,0
-0.2435447,-2.5173569,-0.30981004,0.38578746,-0.5144794,-0.76581919,0
3.4848335,1.0564117,1.0625823,0.83591092,0.54618573,0.054167747,0
-2.2870514,-3.2033181,2.3037965,-0.83591092,-0.54618573,-0.054167747,0
1.4048269,-0.84506589,2.8534057,0.39041138,-0.66105378,0.64077055,0
-0.93037868,2.7743349,-1.4088621,-0.39041138,0.66105378,-0.64077055,0
2.758528,1.9046052,2.1471016,-0.38578746,0.5144794,0.76581919,0
-1.0151694,1.9439965,-2.1450253,-0.39041138,0.66105378,-0.64077055,0
-2.2373784,1.2089078,-1.9746296,-0.39041138,0.66105378,-0.64077055,0
-2.2358024,2.2499962,-0.75890172,-0.38578746,0.5144794,0.76581919,0
1.3082697,2.6676185,-2.5740285,-0.39041138,0.66105378,-0.64077055,0
0.6796025,-1.8259944,-0.38105232,0.38578746,-0.5144794,-0.76581919,0
0.83057487,0.63816082,-1.9708983,0.38578746,-0.5144794,-0.76581919,0
-3.8358209,0.14666337,-2.2847209,-0.39041138,0.66105378,-0.64077055,0
-0.70643806,-3.4566078,1.4356886,0.39041138,-0.66105378,0.64077055,0
1.2041047,-1.8329668,1.9361786,0.39041138,-0.66105378,0.64077055,0
0.47862613,-2.0969992,-0.18617988,0.38578746,-0.5144794,-0.76581919,0
-1.422518,-4.2565045,0.91453886,-0.83591092,-0.54618573,-0.054167747,0
3.1454897,1.6475427,-0.94356656,0.83591092,0.54618573,0.054167747,0
0.74874437,2.5225277,0.64110696,-0.38578746,0.5144794,0.76581919,0
3.7183528,0.76183951,1.2255275,0.83591092,0.54618573,0.054167747,0
1.2978108,0.44941437,2.1965718,-0.38578746,0.5144794,0.76581919,0
1.8396287,-1.154704,2.2376027,0.39041138,-0.66105378,0.64077055,0
2.861187,1.8764303,0.46402264,0.83591092,0.54618573,0.054167747,0
-3.8366308,-0.55996549,-1.3791127,-0.83591092,-0.54618573,-0.054167747,0
0.62848616,3.5703888,-1.4099412,-0.39041138,0.66105378,-0.64077055,0
-0.27552354,0.37804675,-2.4368734,0.38578746,-0.5144794,-0.76581919,0
-2.3553107,-0.32892823,-3.0180039,0.38578746,-0.5144794,-0.76581919,0
3.8742838,0.40659761,1.6538532,0.83591092,0.54618573,0.054167747,0
-4.4612575,0.39260191,-0.92639995,-0.83591092,-0.54618573,-0.054167747,0
3.6691313,-1.3877246,1.1151435,0.39041138,-0.66105378,0.64077055,0
-0.81921864,3.1603768,-1.0716549,-0.39041138,0.66105378,-0.64077055,0
1.8939013,1.4719616,1.8033431,-0.38578746,0.5144794,0.76581919,0
3.4066269,-0.18029404,2.3117156,0.39041138,-0.66105378,0.64077055,0
-3.9763541,-0.083664291,-1.1344464,-0.83591092,-0.54618573,-0.054167747,0
1.8222065,2.8418968,-2.7511353,-0.39041138,0.66105378,-0.64077055,0
-1.1400281,-1.4032463,-1.6122665,0.38578746,-0.5144794,-0.76581919,0
3.5521953,-1.4403684,0.84952879,0.38578746,-0.5144794,-0.76581919,0
2.6346254,2.3095562,-0.41015577,0.83591092,0.54618573,0.054167747,0
-0.57771188,-1.2495154,-1.4722835,0.38578746,-0.5144794,-0.76581919,0
-3.3370311,-1.2612405,-1.3429294,-0.83591092,-0.54618573,-0.054167747,0
1.1037104,0.076874852,-1.4996297,0.38578746,-0.5144794,-0.76581919,0
-3.4258807,-0.78449726,-2.9942567,-0.83591092,-0.54618573,-0.054167747,0
-3.5031853,0.2861613,0.067234039,-0.38578746,0.5144794,0.76581919,0
-1.0765116,-4.1669321,0.39568114,0.38578746,-0.5144794,-0.76581919,0
-0.74044919,2.5027921,-1.5185044,-0.39041138,0.66105378,-0.64077055,0
-1.0027769,-3.5438743,1.7306335,0.39041138,-0.66105378,0.64077055,0
1.3209202,-2.3738344,1.5490563,0.39041138,-0.66105378,0.64077055,0
3.7326922,0.45253861,1.0872428,0.83591092,0.54618573,0.054167747,0
-0.95791531,-3.9437442,1.1648369,0.39041138,-0.66105378,0.64077055,0
1.0018983,-0.45141172,2.8564112,-0.38578746,0.5144794,0.76581919,0
-1.4072587,0.80579436,-3.1077657,-0.39041138,0.66105378,-0.64077055,0
0.79616308,-1.771051,2.2363467,0.39041138,-0.66105378,0.64077055,0
1.0410016,3.7150192,0.086900949,-0.38578746,0.5144794,0.76581919,0
2.1279356,-2.0287085,1.3845813,0.39041138,-0.66105378,0.64077055,0
2.6924057,1.565384,-1.6177149,0.38578746,-0.5144794,-0.76581919,0
-2.8797517,-2.0799525,1.089081,-0.83591092,-0.54618573,-0.054167747,0
-2.3794508,0.36852229,0.49589503,-0.38578746,0.5144794,0.76581919,0
3.7234657,0.0074760914,2.3742056,0.39041138,-0.66105378,0.64077055,0
-1.3508588,-4.3310084,0.56770539,-0.83591092,-0.54618573,-0.054167747,0
-2.292058,-2.5119228,-1.3395064,0.38578746,-0.5144794,-0.76581919,0
-3.7007198,-0.68590343,-2.0909321,-0.83591092,-0.54618573,-0.054167747,0
0.86140561,-1.9417733,2.1736076,0.39041138,-0.66105378,0.64077055,0
0.42745748,0.13250351,-1.7855483,0.38578746,-0.5144794,-0.76581919,0
2.3171306,2.8350322,0.21508265,0.83591092,0.54618573,0.054167747,0
-2.3462229,-2.9608583,2.5920515,-0.83591092,-0.54618573,-0.054167747,0
0.96426928,3.8904772,-0.075500011,-0.38578746,0.5144794,0.76581919,0
-1.6895379,-0.45177794,-2.4421632,0.38578746,-0.5144794,-0.76581919,0
1.5022748,-2.7676039,1.0180854,0.39041138,-0.66105378,0.64077055,0
2.9167454,1.7840891,0.45969772,0.83591092,0.54618573,0.054167747,0
-1.3307941,-2.7859831,-0.75054336,0.38578746,-0.5144794,-0.76581919,0
2.0002291,3.4139874,-1.6393549,0.83591092,0.54618573,0.054167747,0
3.8827207,0.19888425,1.4617467,0.83591092,0.54618573,0.054167747,0
-0.31440163,-2.6606126,2.0021293,0.39041138,-0.66105378,0.64077055,0
2.325963,3.2300143,-2.1266003,0.83591092,0.54618573,0.054167747,0
0.48282468,0.57519257,-2.2168803,0.38578746,-0.5144794,-0.76581919,0
3.684772,0.61622125,0.19579363,0.83591092,0.54618573,0.054167747,0
-2.43261,-2.2801185,-1.5499058,0.38578746,-0.5144794,-0.76581919,0
1.8929749,2.3067086,1.3889821,-0.38578746,0.5144794,0.76581919,0
-1.9853566,2.2500458,-1.0797071,-0.39041138,0.66105378,-0.64077055,0
-2.888027,-1.309333,1.4398087,-0.38578746,0.5144794,0.76581919,0
0.21263885,3.6199207,-0.28058386,-0.38578746,0.5144794,0.76581919,0
-1.6762574,2.2791884,-1.2233511,-0.39041138,0.66105378,-0.64077055,0
2.9455056,-0.039175034,2.6961594,0.39041138,-0.66105378,0.64077055,0
2.3641376,3.1084893,-1.4768004,0.83591092,0.54618573,0.054167747,0
1.2003636,-0.7141788,-0.78085434,0.38578746,-0.5144794,-0.76581919,0
-3.3939404,-1.1944475,-1.2599843,-0.83591092,-0.54618573,-0.054167747,0
-2.1203022,-3.1752501,-0.8213129,-0.83591092,-0.54618573,-0.054167747,0
-2.3556352,-2.6180084,-1.2308989,-0.83591092,-0.54618573,-0.054167747,0
3.4985857,0.87815762,2.4602365,0.83591092,0.54618573,0.054167747,0
-3.0399163,-1.7554377,-1.4379303,-0.83591092,-0.54618573,-0.054167747,0
3.8981853,0.22166565,1.3615305,0.83591092,0.54618573,0.054167747,0
1.1372352,3.3138428,0.28017044,-0.38578746,0.5144794,0.76581919,0
-2.2442403,-3.2554667,2.2654305,-0.83591092,-0.54618573,-0.054167747,0
2.6442552,2.6722736,-1.4748356,0.83591092,0.54618573,0.054167747,0
-1.6381909,-0.47371268,1.4156003,-0.38578746,0.5144794,0.76581919,0
-2.816005,0.72592974,-2.0961285,-0.39041138,0.66105378,-0.64077055,0
2.1849389,2.4177258,1.3623004,-0.38578746,0.5144794,0.76581919,0
-3.4902625,-0.80523646,-2.0748947,-0.83591092,-0.54618573,-0.054167747,0
0.7239387,3.716928,-1.2017249,-0.39041138,0.66105378,-0.64077055,0
1.3130794,2.9480665,0.70412731,-0.38578746,0.5144794,0.76581919,0
2.1702418,3.1474171,-0.38060498,0.83591092,0.54618573,0.054167747,0
-2.9809213,-1.7176812,-1.9572446,-0.83591092,-0.54618573,-0.054167747,0
-0.21946484,-0.21756792,2.1009619,-0.38578746,0.5144794,0.76581919,0
-2.8634472,-1.9227186,-0.83093452,-0.83591092,-0.54618573,-0.054167747,0
3.0462148,0.31212378,3.185714,0.39041138,-0.66105378,0.64077055,0
-3.9885287,-0.4677223,-0.013421297,-0.83591092,-0.54618573,-0.054167747,0
-1.5691342,0.77509105,-3.0099454,-0.39041138,0.66105378,-0.64077055,0
-1.9887713,-3.5402136,1.1286566,-0.83591092,-0.54618573,-0.054167747,0
1.8641713,0.86865443,-1.5326284,0.38578746,-0.5144794,-0.76581919,0
3.1425259,0.90139496,-1.0821009,0.38578746,-0.5144794,-0.76581919,0
-1.2684121,-4.3907347,1.036649,-0.83591092,-0.54618573,-0.054167747,0
3.8258362,0.50535071,0.0076341629,0.83591092,0.54618573,0.054167747,0
-2.0439801,-0.082210183,0.98527163,-0.38578746,0.5144794,0.76581919,0
2.1106288,3.2155306,-1.5517406,0.83591092,0.54618573,0.054167747,0
-0.15837622,2.7615321,-1.7400923,-0.39041138,0.66105378,-0.64077055,0
0.11029315,3.4605951,-0.42470503,-0.38578746,0.5144794,0.76581919,0
2.5913808,2.8540745,-2.390147,0.83591092,0.54618573,0.054167747,0
3.172368,1.7055238,0.1718514,0.83591092,0.54618573,0.054167747,0
-2.2622154,-2.3086331,2.3520947,-0.38578746,0.5144794,0.76581919,0
1.9778261,-0.28593063,3.1422932,-0.38578746,0.5144794,0.76581919,0
2.1271229,0.65348005,2.563201,-0.38578746,0.5144794,0.76581919,0
3.1691349,0.89538741,2.9586942,-0.38578746,0.5144794,0.76581919,0
3.3660452,1.0559871,-0.91277766,0.38578746,-0.5144794,-0.76581919,0
-4.5438538,0.58917588,-1.1403239,-0.83591092,-0.54618573,-0.054167747,0
-2.4041202,1.4098294,-1.6365855,-0.39041138,0.66105378,-0.64077055,0
0.32432446,0.91226268,1.5712744,-0.38578746,0.5144794,0.76581919,0
2.5504706,2.0521188,-1.9792624,0.38578746,-0.5144794,-0.76581919,0
1.7114285,3.2719741,0.56678915,-0.38578746,0.5144794,0.76581919,0
0.45582485,2.3653605,-2.4748416,-0.39041138,0.66105378,-0.64077055,0
3.1607313,1.6162173,-1.0136545,0.83591092,0.54618573,0.054167747,0
0.90654922,4.3780632,-0.66361451,-0.39041138,0.66105378,-0.64077055,0
1.0279331,3.9048378,-1.2325026,-0.39041138,0.66105378,-0.64077055,0
-2.8628652,-2.3112116,2.0651951,-0.83591092,-0.54618573,-0.054167747,0
-0.85826063,1.8142848,-2.2911663,-0.39041138,0.66105378,-0.64077055,0
-1.6368777,-3.9470582,0.54777408,-0.83591092,-0.54618573,-0.054167747,0
-0.79522562,1.5992491,-2.5875123,-0.39041138,0.66105378,-0.64077055,0
1.8404672,-0.43572795,-0.81275481,0.38578746,-0.5144794,-0.76581919,0
-0.85551858,1.7761128,-2.2813296,-0.39041138,0.66105378,-0.64077055,0
-3.5720868,-0.8389135,-1.6641428,-0.83591092,-0.54618573,-0.054167747,0
-0.60654068,-2.7955329,2.1397827,0.39041138,-0.66105378,0.64077055,0
-0.98499846,2.4714675,-0.19347396,-0.38578746,0.5144794,0.76581919,0
-1.8832865,-3.7374792,1.8270146,0.39041138,-0.66105378,0.64077055,0
-0.93499565,2.3795042,-0.024221718,-0.38578746,0.5144794,0.76581919,0
-3.3603785,1.0719765,-1.4531722,-0.39041138,0.66105378,-0.64077055,0
-3.1538265,-1.6464434,-0.53704143,-0.83591092,-0.54618573,-0.054167747,0
-0.91479212,-0.96687305,2.0725842,-0.38578746,0.5144794,0.76581919,0
-1.7335787,1.7574911,-1.7488285,-0.39041138,0.66105378,-0.64077055,0
-0.8704164,-3.6129198,1.4807235,0.39041138,-0.66105378,0.64077055,0
0.71948791,2.0178809,-2.8856368,0.38578746,-0.5144794,-0.76581919,0
-0.1010778,-2.2056894,2.5997837,0.39041138,-0.66105378,0.64077055,0
3.0841353,1.3359379,2.3384225,0.83591092,0.54618573,0.054167747,0
2.2790713,-0.69006836,2.6323628,0.39041138,-0.66105378,0.64077055,0
1.4915215,0.43214399,-1.3984609,0.38578746,-0.5144794,-0.76581919,0
-1.8317252,0.90853715,0.54822159,-0.38578746,0.5144794,0.76581919,0
2.1926086,2.8023055,0.92357802,0.83591092,0.54618573,0.054167747,0
2.709219,0.90417659,-1.1045519,0.38578746,-0.5144794,-0.76581919,0
0.36420941,2.1465814,-2.6324868,-0.39041138,0.66105378,-0.64077055,0
1.6912968,-2.0050957,1.6551654,0.39041138,-0.66105378,0.64077055,0
3.2483172,1.357471,1.7338421,0.83591092,0.54618573,0.054167747,0
-1.4949002,-1.6062742,-1.758692,0.38578746,-0.5144794,-0.76581919,0
-2.6723039,-2.4055676,2.182941,-0.83591092,-0.54618573,-0.054167747,0
2.4767942,2.5870147,1.3248568,0.83591092,0.54618573,0.054167747,0
-2.0500865,-1.0446881,-2.1665187,0.38578746,-0.5144794,-0.76581919,0
2.359906,2.9242671,-2.6990311,0.83591092,0.54618573,0.054167747,0
1.7388129,-2.6335118,1.0560679,0.39041138,-0.66105378,0.64077055,0
2.4393129,2.9668767,-1.3020253,0.83591092,0.54618573,0.054167747,0
-0.57215953,0.93117714,-2.9649167,0.38578746,-0.5144794,-0.76581919,0
2.2882776,2.9768209,0.76162601,0.83591092,0.54618573,0.054167747,0
2.0895636,2.5291553,1.3239055,-0.38578746,0.5144794,0.76581919,0
-3.4234984,-1.2197142,-0.72479296,-0.83591092,-0.54618573,-0.054167747,0
-2.5092101,1.9540126,-1.2786262,-0.39041138,0.66105378,-0.64077055,0
-1.9881097,-3.4180071,-0.56033278,-0.83591092,-0.54618573,-0.054167747,0
-0.038157463,1.9291416,-2.7979286,-0.39041138,0.66105378,-0.64077055,0
-0.12942219,-1.9278585,2.9100235,0.39041138,-0.66105378,0.64077055,0
-2.9346933,1.1597033,-0.35225463,-0.38578746,0.5144794,0.76581919,0
1.2461371,-3.0957003,0.6276595,0.38578746,-0.5144794,-0.76581919,0
1.8953121,3.6660769,-1.7736093,0.83591092,0.54618573,0.054167747,0
0.30587626,0.57080972,1.7913043,-0.38578746,0.5144794,0.76581919,0
3.2963879,-0.071497083,2.6220665,0.39041138,-0.66105378,0.64077055,0
-1.4078207,2.4444699,-0.51061469,-0.38578746,0.5144794,0.76581919,0
1.6154671,1.6436201,-2.2034247,0.38578746,-0.5144794,-0.76581919,0
-4.1165681,-0.10815144,-0.53357363,-0.83591092,-0.54618573,-0.054167747,0
-2.2671959,-2.6356835,-1.2317016,0.38578746,-0.5144794,-0.76581919,0
-3.870641,-0.44714898,-1.7342725,-0.83591092,-0.54618573,-0.054167747,0
-3.1821718,1.0879207,-0.28787947,-0.38578746,0.5144794,0.76581919,0
-3.9095047,-0.37924343,-1.8765035,-0.83591092,-0.54618573,-0.054167747,0
-2.5756822,1.1216379,-0.21964931,-0.38578746,0.5144794,0.76581919,0
0.2711435,0.069876075,-1.9515167,0.38578746,-0.5144794,-0.76581919,0
-0.53760338,1.0627656,-2.8624041,0.38578746,-0.5144794,-0.76581919,0
-1.6729455,-4.0968018,1.2271602,-0.83591092,-0.54618573,-0.054167747,0
-3.0882931,1.359447,-0.54973483,-0.38578746,0.5144794,0.76581919,0
-2.6981246,-2.2813225,-1.1160445,-0.83591092,-0.54618573,-0.054167747,0
1.0044966,-1.7191143,2.3039076,0.39041138,-0.66105378,0.64077055,0
1.6438521,3.9998643,-0.95781064,0.83591092,0.54618573,0.054167747,0
2.333251,2.7775326,-0.8084712,0.83591092,0.54618573,0.054167747,0
-2.9478824,0.76895249,0.034665346,-0.38578746,0.5144794,0.76581919,0
2.2610919,2.7407999,1.2432637,-0.38578746,0.5144794,0.76581919,0
-1.3244594,-3.6061497,1.6764473,0.39041138,-0.66105378,0.64077055,0
-3.5562778,1.2972696,-1.1419003,-0.39041138,0.66105378,-0.64077055,0
3.4715259,0.57536173,3.2046282,0.39041138,-0.66105378,0.64077055,0
-0.45788622,-1.7909033,2.876106,-0.38578746,0.5144794,0.76581919,0
1.4917256,-0.93167973,-0.674568,0.38578746,-0.5144794,-0.76581919,0
-1.443881,2.450068,-1.1207438,-0.39041138,0.66105378,-0.64077055,0
-1.7425525,-3.783392,1.2184932,-0.83591092,-0.54618573,-0.054167747,0
-2.5860994,-2.5346918,0.98541713,-0.83591092,-0.54618573,-0.054167747,0
2.0750682,3.4774735,-1.4222298,0.83591092,0.54618573,0.054167747,0
-0.86752784,0.076645494,1.3686312,-0.38578746,0.5144794,0.76581919,0
1.9606695,3.5828514,-1.9237235,0.83591092,0.54618573,0.054167747,0
-2.0059121,2.000541,-0.43602681,-0.38578746,0.5144794,0.76581919,0
-3.3350716,-1.083529,-0.39282823,-0.83591092,-0.54618573,-0.054167747,0
-3.5734093,0.40999994,-2.2283847,-0.39041138,0.66105378,-0.64077055,0
1.9933453,0.52147186,-1.270671,0.38578746,-0.5144794,-0.76581919,0
0.69477677,4.1511421,-0.92130339,-0.39041138,0.66105378,-0.64077055,0
3.5871017,0.547418,2.9181912,0.39041138,-0.66105378,0.64077055,0
3.4110441,0.81593335,1.9942486,0.83591092,0.54618573,0.054167747,0
-1.1039248,1.0650163,0.6618529,-0.38578746,0.5144794,0.76581919,0
0.4012394,2.9245539,0.18131244,-0.38578746,0.5144794,0.76581919,0
2.5944088,2.7297995,-1.3768706,0.83591092,0.54618573,0.054167747,0
1.504789,4.1260104,-0.93390059,0.83591092,0.54618573,0.054167747,0
-3.5741615,1.1423575,-0.54716849,-0.38578746,0.5144794,0.76581919,0
-0.43666568,-0.9120518,-1.6636589,0.38578746,-0.5144794,-0.76581919,0
-4.5602827,0.62067425,-0.79107285,-0.83591092,-0.54618573,-0.054167747,0
2.2408195,-1.8849783,1.4205711,0.39041138,-0.66105378,0.64077055,0
-4.1192703,1.1788352,-0.99204922,-0.39041138,0.66105378,-0.64077055,0
-3.0525918,1.7758902,-0.88600492,-0.39041138,0.66105378,-0.64077055,0
-2.0230846,1.9949694,-1.4934509,-0.39041138,0.66105378,-0.64077055,0
-1.0967681,2.524369,-1.2816017,-0.39041138,0.66105378,-0.64077055,0
1.8458238,3.6029248,-1.4121652,0.83591092,0.54618573,0.054167747,0
-1.9255018,-1.1784288,-2.0905385,0.38578746,-0.5144794,-0.76581919,0
1.1654315,-2.3589213,1.5697658,0.39041138,-0.66105378,0.64077055,0
-0.56704783,1.1862259,-3.1230068,0.38578746,-0.5144794,-0.76581919,0
0.32143235,3.4539742,-0.3230257,-0.38578746,0.5144794,0.76581919,0
-0.69986725,1.8690197,-2.2075679,-0.39041138,0.66105378,-0.64077055,0
1.6091943,-1.9725257,1.5783179,0.39041138,-0.66105378,0.64077055,0
0.76742995,0.017904043,2.3090389,-0.38578746,0.5144794,0.76581919,0
0.11289716,3.7607119,-0.62875545,-0.38578746,0.5144794,0.76581919,0
-2.3462486,-2.8785362,-0.67408538,-0.83591092,-0.54618573,-0.054167747,0
1.9614041,3.6615989,-1.31656,0.83591092,0.54618573,0.054167747,0
2.1911249,3.3603551,-2.3981514,0.83591092,0.54618573,0.054167747,0
0.6765058,-1.2780894,2.8097115,0.39041138,-0.66105378,0.64077055,0
1.9433893,2.9330955,-2.7886333,-0.39041138,0.66105378,-0.64077055,0
-0.087306738,1.2673938,-2.8865337,0.38578746,-0.5144794,-0.76581919,0
-3.491487,-0.9646132,-1.5967369,-0.83591092,-0.54618573,-0.054167747,0
-3.3419716,-1.1068012,-1.4750817,-0.83591092,-0.54618573,-0.054167747,0
-1.3509884,2.8254347,-0.89235121,-0.39041138,0.66105378,-0.64077055,0
1.1229573,0.25304627,2.3440571,-0.38578746,0.5144794,0.76581919,0
-2.4259882,0.45733881,-2.8766537,-0.39041138,0.66105378,-0.64077055,0
-2.4293299,-2.912288,1.8849897,-0.83591092,-0.54618573,-0.054167747,0
1.6431742,-0.64190209,-0.80857229,0.38578746,-0.5144794,-0.76581919,0
-2.8237233,-1.6024514,-2.1944976,0.38578746,-0.5144794,-0.76581919,0
2.5450666,2.3252642,0.82806039,0.83591092,0.54618573,0.054167747,0
-2.939415,-1.9160664,-0.82737994,-0.83591092,-0.54618573,-0.054167747,0
-1.4149321,-3.0340362,2.4709721,0.39041138,-0.66105378,0.64077055,0
3.4291694,1.092081,-0.79501271,0.83591092,0.54618573,0.054167747,0
-2.4932892,1.9902546,-0.99940562,-0.39041138,0.66105378,-0.64077055,0
-2.8249054,-2.0992584,1.0260515,-0.83591092,-0.54618573,-0.054167747,0
-2.2982335,-0.70270199,1.3686053,-0.38578746,0.5144794,0.76581919,0
3.6310077,0.90971404,0.98596716,0.83591092,0.54618573,0.054167747,0
-2.800513,-2.1525345,-0.27551675,-0.83591092,-0.54618573,-0.054167747,0
0.17806506,-3.4746189,0.95062888,0.39041138,-0.66105378,0.64077055,0
-0.67560095,-0.70593226,2.0440273,-0.38578746,0.5144794,0.76581919,0
1.5474455,-2.7081943,0.89330661,0.39041138,-0.66105378,0.64077055,0
-2.7800579,-1.0761333,1.1632131,-0.38578746,0.5144794,0.76581919,0
-4.4972601,0.85767257,-0.96431279,-0.39041138,0.66105378,-0.64077055,0
-0.059459925,-1.8863186,2.7377934,0.39041138,-0.66105378,0.64077055,0
