-3.3252954,-4.5402899,-3.2983303,-0.92428201,-0.36774766,-0.10229552,0
-1.4994483,-5.4721699,-0.53592503,0.055631578,-0.39491117,0.91703343,0
1.7966566,-3.603488,-2.1951447,0.37763453,-0.84190667,-0.38546759,0
-3.4353545,-2.5346377,-2.4613347,-0.055631578,0.39491117,-0.91703343,0
-4.1529932,-2.7370934,-1.1928356,-0.92428201,-0.36774766,-0.10229552,0
0.61300898,4.0463328,3.3701179,-0.37763453,0.84190667,0.38546759,0
5.1422911,-0.35371947,-2.1923232,-0.055631578,0.39491117,-0.91703343,0
-1.6792283,-2.9394662,-2.8255289,-0.055631578,0.39491117,-0.91703343,0
-3.8597598,-3.7683301,-0.096971512,-0.92428201,-0.36774766,-0.10229552,0
-5.8695126,2.2022586,0.92127705,-0.37763453,0.84190667,0.38546759,0
1.720103,4.9522395,2.5558834,-0.37763453,0.84190667,0.38546759,0
2.7609992,0.74101061,1.7119217,0.055631578,-0.39491117,0.91703343,0
-2.5846615,-5.1306753,-3.0314567,0.37763453,-0.84190667,-0.38546759,0
0.39390469,5.0754118,1.2268296,-0.37763453,0.84190667,0.38546759,0
4.6569886,2.0181825,-0.24680519,0.92428201,0.36774766,0.10229552,0
-3.6095538,3.1079583,1.3230686,-0.37763453,0.84190667,0.38546759,0
4.0249963,-0.18654996,1.3624291,0.055631578,-0.39491117,0.91703343,0
-4.1272888,3.2413654,-0.0092220306,-0.055631578,0.39491117,-0.91703343,0
-3.058723,-1.9745305,0.96241593,0.055631578,-0.39491117,0.91703343,0
0.10407782,-2.7532909,-2.7533712,-0.055631578,0.39491117,-0.91703343,0
-4.4514203,-2.2344112,-1.0111897,-0.92428201,-0.36774766,-0.10229552,0
-6.1473169,1.3617311,1.5765328,-0.92428201,-0.36774766,-0.10229552,0
4.3563643,2.6773963,0.43858004,0.92428201,0.36774766,0.10229552,0
-3.9123545,2.7955687,1.7593772,-0.37763453,0.84190667,0.38546759,0
-3.9762366,-3.4600306,-0.14651632,-0.92428201,-0.36774766,-0.10229552,0
-6.2475166,2.3144293,0.19952154,-0.92428201,-0.36774766,-0.10229552,0
5.8474541,-1.8502378,-2.0947995,0.37763453,-0.84190667,-0.38546759,0
-1.496017,-0.034041882,1.6181414,0.055631578,-0.39491117,0.91703343,0
-1.3767923,-0.062398434,-1.6845767,-0.055631578,0.39491117,-0.91703343,0
-4.3334799,2.8169541,1.2768002,-0.37763453,0.84190667,0.38546759,0
2.2524099,-3.7545111,-0.17983103,0.055631578,-0.39491117,0.91703343,0
0.26192808,4.2610703,2.4845064,-0.37763453,0.84190667,0.38546759,0
2.8009381,-0.85885453,1.0422115,0.055631578,-0.39491117,0.91703343,0
-3.7086313,3.0262101,-0.025264263,-0.055631578,0.39491117,-0.91703343,0
-4.7922297,-1.8696249,0.18035889,-0.92428201,-0.36774766,-0.10229552,0
5.4350629,0.27252483,-1.6513867,0.92428201,0.36774766,0.10229552,0
2.5835092,5.2322659,3.0029373,-0.37763453,0.84190667,0.38546759,0
-5.3206649,2.9655004,0.12928486,-0.37763453,0.84190667,0.38546759,0
-5.0143261,-0.93758607,-0.80719328,-0.92428201,-0.36774766,-0.10229552,0
2.2094998,1.0207562,-1.4357517,-0.055631578,0.39491117,-0.91703343,0
5.5743227,-1.273008,0.83614731,0.055631578,-0.39491117,0.91703343,0
-0.41570139,-4.2195239,-0.2534636,0.055631578,-0.39491117,0.91703343,0
-2.5896797,3.817879,0.578269,-0.37763453,0.84190667,0.38546759,0
0.94970894,-3.9704533,-1.9351723,0.37763453,-0.84190667,-0.38546759,0
4.1677365,0.69961405,1.6499805,0.055631578,-0.39491117,0.91703343,0
5.3623691,0.2823956,-1.554565,0.92428201,0.36774766,0.10229552,0
-4.4334416,-2.1142583,-1.8476751,-0.92428201,-0.36774766,-0.10229552,0
-4.9345365,-1.1339293,-0.8822751,-0.92428201,-0.36774766,-0.10229552,0
2.5633802,-2.1945674,-2.6615651,-0.055631578,0.39491117,-0.91703343,0
3.6316571,4.2487617,1.2514348,0.92428201,0.36774766,0.10229552,0
6.0579109,-2.5065982,-0.17545605,0.37763453,-0.84190667,-0.38546759,0
-1.1158004,4.4428749,1.0341613,-0.37763453,0.84190667,0.38546759,0
2.9980783,5.1785474,2.8936386,0.92428201,0.36774766,0.10229552,0
3.7657273,3.6651103,1.245651,0.92428201,0.36774766,0.10229552,0
-2.1814387,-5.5706139,-1.7129749,0.37763453,-0.84190667,-0.38546759,0
-2.0426056,3.0949476,2.6934669,-0.37763453,0.84190667,0.38546759,0
-3.6537046,-4.4021902,-0.2344377,-0.92428201,-0.36774766,-0.10229552,0
-3.0173457,-5.3914504,-2.5548544,-0.92428201,-0.36774766,-0.10229552,0
-2.1966412,-5.5905852,-1.608498,0.37763453,-0.84190667,-0.38546759,0
3.8530154,3.1626685,1.8119171,0.92428201,0.36774766,0.10229552,0
2.123908,5.8089185,1.255131,-0.37763453,0.84190667,0.38546759,0
0.12946463,4.5635085,1.8801584,-0.37763453,0.84190667,0.38546759,0
2.9933894,-1.2402964,0.81436729,0.055631578,-0.39491117,0.91703343,0
-0.08306551,4.9912658,0.84547782,-0.37763453,0.84190667,0.38546759,0
-1.9131546,-5.0628896,-2.4434769,0.37763453,-0.84190667,-0.38546759,0
0.49481583,-4.4865441,-1.3578734,0.37763453,-0.84190667,-0.38546759,0
-2.4453034,-4.598978,-0.14176011,0.055631578,-0.39491117,0.91703343,0
-5.3436947,-0.26755834,0.79982471,-0.92428201,-0.36774766,-0.10229552,0
1.6539428,4.3104205,0.14841413,-0.055631578,0.39491117,-0.91703343,0
4.6618342,1.3112556,1.2374482,0.92428201,0.36774766,0.10229552,0
1.788128,2.0863125,2.3764586,0.055631578,-0.39491117,0.91703343,0
0.43752956,-2.1039791,0.60145521,0.055631578,-0.39491117,0.91703343,0
-4.5806437,-2.5187535,0.75293303,-0.92428201,-0.36774766,-0.10229552,0
5.6327682,-2.6963029,-0.35893154,0.37763453,-0.84190667,-0.38546759,0
2.8471286,5.9909325,0.83697486,0.92428201,0.36774766,0.10229552,0
1.3695395,3.9321826,3.3340862,0.055631578,-0.39491117,0.91703343,0
-4.5285029,-1.9753937,-0.99936485,-0.92428201,-0.36774766,-0.10229552,0
5.6597958,-0.74875242,0.57092476,0.92428201,0.36774766,0.10229552,0
-0.87427425,-0.9024452,1.3733168,0.055631578,-0.39491117,0.91703343,0
-5.5993466,2.2627077,1.4948144,-0.37763453,0.84190667,0.38546759,0
-1.8457589,1.3780127,2.2794945,0.055631578,-0.39491117,0.91703343,0
1.2143276,3.9076772,3.1714716,0.055631578,-0.39491117,0.91703343,0
-5.1075826,-0.60691637,-1.2443156,-0.92428201,-0.36774766,-0.10229552,0
3.1329203,-3.1972578,-1.5204642,0.37763453,-0.84190667,-0.38546759,0
-5.1181574,0.43680143,2.2040911,0.055631578,-0.39491117,0.91703343,0
-5.875246,0.63296819,2.3287654,0.055631578,-0.39491117,0.91703343,0
-3.8657455,0.3888638,1.9616308,0.055631578,-0.39491117,0.91703343,0
2.5278578,4.9633298,3.513077,-0.37763453,0.84190667,0.38546759,0
3.0056818,5.4019275,1.9573594,0.92428201,0.36774766,0.10229552,0
-4.6886568,2.6195996,1.231914,-0.37763453,0.84190667,0.38546759,0
3.0899172,2.1679971,2.363975,0.055631578,-0.39491117,0.91703343,0
-2.1335974,3.7435045,1.6077076,-0.37763453,0.84190667,0.38546759,0
2.1795361,-3.1486366,-2.8317733,0.37763453,-0.84190667,-0.38546759,0
-6.2586856,2.2200446,0.36794758,-0.92428201,-0.36774766,-0.10229552,0
3.4233589,4.7600813,1.1097527,0.92428201,0.36774766,0.10229552,0
-3.3809819,3.1341367,1.7302337,-0.37763453,0.84190667,0.38546759,0
-0.93838406,-5.2744803,-1.3087745,0.37763453,-0.84190667,-0.38546759,0
-5.8861475,0.95771503,0.90486383,-0.92428201,-0.36774766,-0.10229552,0
-1.7615223,4.1843085,0.88225651,-0.37763453,0.84190667,0.38546759,0
-4.7266655,-0.35522997,-1.4723377,-0.055631578,0.39491117,-0.91703343,0
1.7783072,1.5684929,2.2193329,0.055631578,-0.39491117,0.91703343,0
1.7694373,-2.8515019,0.23744476,0.055631578,-0.39491117,0.91703343,0
-5.4179554,1.9422841,2.2629209,-0.37763453,0.84190667,0.38546759,0
-0.010342598,-4.4150162,-1.8880278,0.37763453,-0.84190667,-0.38546759,0
3.0451136,-3.5353835,-1.2183201,0.37763453,-0.84190667,-0.38546759,0
2.7015207,5.0897179,0.41770053,-0.055631578,0.39491117,-0.91703343,0
6.1173425,-1.4675636,-0.35467672,0.92428201,0.36774766,0.10229552,0
3.0999355,5.172184,2.9254284,0.92428201,0.36774766,0.10229552,0
6.2234306,-1.62359,-1.4670787,0.92428201,0.36774766,0.10229552,0
-5.7129502,0.89678365,-0.24738932,-0.92428201,-0.36774766,-0.10229552,0
1.5950017,-4.3698187,-0.25191605,0.055631578,-0.39491117,0.91703343,0
4.2427588,3.1361866,0.21626282,0.92428201,0.36774766,0.10229552,0
4.4857106,1.7409661,-1.2640772,-0.055631578,0.39491117,-0.91703343,0
4.0095224,-3.3310704,-0.71742535,0.37763453,-0.84190667,-0.38546759,0
-2.9459953,3.7862904,0.22938752,-0.055631578,0.39491117,-0.91703343,0
3.430388,4.5339489,0.84392738,0.92428201,0.36774766,0.10229552,0
2.9583602,0.039934874,-1.7984688,-0.055631578,0.39491117,-0.91703343,0
-5.6229424,2.0605061,1.4576468,-0.37763453,0.84190667,0.38546759,0
5.017766,-1.8936381,-2.5987582,0.37763453,-0.84190667,-0.38546759,0
-5.1025863,-0.9425993,0.52523136,-0.92428201,-0.36774766,-0.10229552,0
-2.982955,0.27574158,1.9499002,0.055631578,-0.39491117,0.91703343,0
-1.0695368,-0.86976159,1.3630638,0.055631578,-0.39491117,0.91703343,0
-2.0448508,3.2342725,2.6149571,-0.37763453,0.84190667,0.38546759,0
2.253967,5.1071687,2.7131953,-0.37763453,0.84190667,0.38546759,0
3.2439196,-2.9705012,-1.8079093,0.37763453,-0.84190667,-0.38546759,0
2.3151646,2.0595214,-0.90004897,-0.055631578,0.39491117,-0.91703343,0
1.7145696,5.1184759,1.9381281,-0.37763453,0.84190667,0.38546759,0
-2.1595516,1.3294673,-0.99960721,-0.055631578,0.39491117,-0.91703343,0
3.1917713,4.5234289,0.068885803,-0.055631578,0.39491117,-0.91703343,0
0.96214747,0.73557496,-1.4109452,-0.055631578,0.39491117,-0.91703343,0
-5.3579192,0.19026133,-1.2080097,-0.92428201,-0.36774766,-0.10229552,0
5.733232,-2.630336,-0.089593887,0.37763453,-0.84190667,-0.38546759,0
-6.1021357,0.96571565,1.8924422,-0.92428201,-0.36774766,-0.10229552,0
1.4386919,4.9120169,2.1109264,-0.37763453,0.84190667,0.38546759,0
-0.41285706,2.51579,2.7957997,0.055631578,-0.39491117,0.91703343,0
2.7946901,-3.582469,-1.1918681,0.37763453,-0.84190667,-0.38546759,0
4.9146461,1.0772984,1.2974362,0.92428201,0.36774766,0.10229552,0
3.4152241,4.0831766,2.491776,0.92428201,0.36774766,0.10229552,0
0.047276616,1.2816486,2.2369366,0.055631578,-0.39491117,0.91703343,0
-5.0790968,1.7653847,2.7698231,-0.37763453,0.84190667,0.38546759,0
1.2363942,-1.6571852,-2.418607,-0.055631578,0.39491117,-0.91703343,0
-3.1250024,3.478899,1.0854638,-0.37763453,0.84190667,0.38546759,0
2.0242229,-2.8372481,-2.9117246,-0.055631578,0.39491117,-0.91703343,0
3.4483001,2.1160526,2.2970037,0.055631578,-0.39491117,0.91703343,0
3.0589621,-2.7844124,-2.7069991,0.37763453,-0.84190667,-0.38546759,0
-5.4652596,-0.25613546,0.86761379,-0.92428201,-0.36774766,-0.10229552,0
2.2161207,-3.3499751,-1.975121,0.37763453,-0.84190667,-0.38546759,0
-4.698853,-1.8338628,0.17207813,-0.92428201,-0.36774766,-0.10229552,0
5.7555285,-0.39742255,-1.7826314,0.92428201,0.36774766,0.10229552,0
2.0617924,-3.2910781,-2.4048507,0.37763453,-0.84190667,-0.38546759,0
1.8224405,1.6063025,2.1776149,0.055631578,-0.39491117,0.91703343,0
-5.8110638,0.72638702,1.6658726,-0.92428201,-0.36774766,-0.10229552,0
4.7992735,1.3871017,-0.089464188,0.92428201,0.36774766,0.10229552,0
-6.3519692,2.1165984,0.70872498,-0.92428201,-0.36774766,-0.10229552,0
-0.56286478,4.5154405,1.3051802,-0.37763453,0.84190667,0.38546759,0
1.0788379,5.4465952,0.75809896,-0.37763453,0.84190667,0.38546759,0
-6.0572329,1.6122272,2.2271814,-0.37763453,0.84190667,0.38546759,0
-3.1293573,-0.098848581,1.810535,0.055631578,-0.39491117,0.91703343,0
4.4692202,-2.1974015,-2.6319509,0.37763453,-0.84190667,-0.38546759,0
-1.5783772,0.20075369,1.7637864,0.055631578,-0.39491117,0.91703343,0
3.3357506,4.7085924,1.0522187,0.92428201,0.36774766,0.10229552,0
3.2222257,4.5391335,3.290843,0.92428201,0.36774766,0.10229552,0
-5.6466494,0.87588066,-0.5343585,-0.92428201,-0.36774766,-0.10229552,0
1.0881286,4.8896089,1.8271039,-0.37763453,0.84190667,0.38546759,0
-3.1330609,-2.3962121,-2.4616251,-0.055631578,0.39491117,-0.91703343,0
-4.5164175,3.2358413,-0.023527622,-0.37763453,0.84190667,0.38546759,0
4.2584772,2.9450145,0.37677574,0.92428201,0.36774766,0.10229552,0
5.5292339,-0.45383203,-0.22219563,0.92428201,0.36774766,0.10229552,0
-1.4059529,3.3677206,2.8195825,-0.37763453,0.84190667,0.38546759,0
1.3389759,-3.7917955,-0.050057292,0.055631578,-0.39491117,0.91703343,0
4.6937141,1.9344113,-0.86046696,0.92428201,0.36774766,0.10229552,0
3.8923893,3.3057103,2.6881106,0.92428201,0.36774766,0.10229552,0
-4.8476067,2.4668334,1.5237103,-0.37763453,0.84190667,0.38546759,0
0.60150933,1.8417716,2.2875085,0.055631578,-0.39491117,0.91703343,0
3.8355765,3.3640223,1.6798899,0.92428201,0.36774766,0.10229552,0
3.9976215,2.9663289,1.6543531,0.92428201,0.36774766,0.10229552,0
-5.7369652,0.75528276,-0.73047924,-0.92428201,-0.36774766,-0.10229552,0
-0.14932537,1.7524621,2.3449559,0.055631578,-0.39491117,0.91703343,0
2.7849674,-3.7688339,-0.62071157,0.37763453,-0.84190667,-0.38546759,0
5.527288,0.14651322,-0.87133789,0.92428201,0.36774766,0.10229552,0
-0.88015628,2.5128767,2.838521,0.055631578,-0.39491117,0.91703343,0
0.23371172,-3.8321149,-3.2349141,0.37763453,-0.84190667,-0.38546759,0
-6.2614446,2.2698588,0.71838665,-0.37763453,0.84190667,0.38546759,0
-4.1922798,-0.27706701,-1.5509186,-0.055631578,0.39491117,-0.91703343,0
-2.1081047,-1.423316,1.1268871,0.055631578,-0.39491117,0.91703343,0
-2.9224563,-1.3800714,1.2001038,0.055631578,-0.39491117,0.91703343,0
-4.9609246,-0.84495676,-1.5448394,-0.92428201,-0.36774766,-0.10229552,0
-1.4360547,3.3701904,3.0555191,-0.37763453,0.84190667,0.38546759,0
0.0021338463,4.6034918,1.4401467,-0.37763453,0.84190667,0.38546759,0
-2.0585561,3.7307012,1.4836903,-0.37763453,0.84190667,0.38546759,0
-1.5883063,0.58750415,1.9430746,0.055631578,-0.39491117,0.91703343,0
-1.3824921,0.068973303,-1.6279522,-0.055631578,0.39491117,-0.91703343,0
-5.588027,1.9196056,2.1156979,-0.37763453,0.84190667,0.38546759,0
-1.8252001,-5.379262,-1.7286015,0.37763453,-0.84190667,-0.38546759,0
-5.428432,1.8101866,2.5947194,-0.37763453,0.84190667,0.38546759,0
0.25821471,-2.3656604,-2.7601228,-0.055631578,0.39491117,-0.91703343,0
-4.6171002,3.1626778,0.12627125,-0.37763453,0.84190667,0.38546759,0
5.773345,-0.38093305,-2.0750799,-0.055631578,0.39491117,-0.91703343,0
-4.3794551,2.5534801,1.7337451,-0.37763453,0.84190667,0.38546759,0
4.6090899,1.4436185,1.7424083,0.92428201,0.36774766,0.10229552,0
5.9734268,-1.1192747,-0.89098644,0.92428201,0.36774766,0.10229552,0
-3.3012011,-4.8305278,-1.5802109,-0.92428201,-0.36774766,-0.10229552,0
3.4964013,-3.4551232,-0.78109407,0.37763453,-0.84190667,-0.38546759,0
-3.0091338,-1.8469949,1.103328,0.055631578,-0.39491117,0.91703343,0
-5.9540968,0.76566863,1.578949,-0.92428201,-0.36774766,-0.10229552,0
-3.0233042,2.608984,-0.42126203,-0.055631578,0.39491117,-0.91703343,0
3.0136549,-2.7216735,-3.0022814,0.37763453,-0.84190667,-0.38546759,0
-4.6496048,-2.2697964,0.5440383,-0.92428201,-0.36774766,-0.10229552,0
2.9531317,-3.7666187,-0.80958652,0.37763453,-0.84190667,-0.38546759,0
0.81688547,-4.7844596,-0.63655239,0.37763453,-0.84190667,-0.38546759,0
-4.2967329,-2.4330182,-1.6357052,-0.92428201,-0.36774766,-0.10229552,0
-2.2327914,1.7769179,-0.6715647,-0.055631578,0.39491117,-0.91703343,0
-4.3408337,-1.9025202,-2.0745275,-0.92428201,-0.36774766,-0.10229552,0
-4.77284,-1.6080792,0.12423038,-0.92428201,-0.36774766,-0.10229552,0
-1.3144569,3.4326177,2.8028457,-0.37763453,0.84190667,0.38546759,0
4.7099705,-0.028787613,-1.8613992,-0.055631578,0.39491117,-0.91703343,0
2.1278398,4.7485228,3.4846401,-0.37763453,0.84190667,0.38546759,0
-1.8569944,-5.3619571,-1.9277306,0.37763453,-0.84190667,-0.38546759,0
-3.2650788,-4.5522127,-2.1438322,-0.92428201,-0.36774766,-0.10229552,0
2.6776769,1.6968279,-0.9954803,-0.055631578,0.39491117,-0.91703343,0
6.1040058,-2.1769929,-1.0424151,0.37763453,-0.84190667,-0.38546759,0
0.80811071,4.2362461,3.1525168,-0.37763453,0.84190667,0.38546759,0
-4.5545931,0.21779346,1.9010243,0.055631578,-0.39491117,0.91703343,0
1.4810176,-3.4918153,0.12403762,0.055631578,-0.39491117,0.91703343,0
-3.5213592,-4.3712912,-1.5386865,-0.92428201,-0.36774766,-0.10229552,0
4.8272324,0.44524708,1.5784011,0.055631578,-0.39491117,0.91703343,0
1.3030286,-3.5737119,-2.6495523,0.37763453,-0.84190667,-0.38546759,0
4.3203936,2.3802335,2.0503569,0.92428201,0.36774766,0.10229552,0
-5.7787552,1.3422744,-0.73488712,-0.92428201,-0.36774766,-0.10229552,0
-5.7705626,2.1212134,1.4297152,-0.37763453,0.84190667,0.38546759,0
-0.21258688,-0.39939809,1.4440088,0.055631578,-0.39491117,0.91703343,0
3.0180821,5.7371535,1.8265624,0.92428201,0.36774766,0.10229552,0
-3.8790369,-3.5916281,-1.1264296,-0.92428201,-0.36774766,-0.10229552,0
-0.89160156,-5.0073471,-1.438082,0.37763453,-0.84190667,-0.38546759,0
3.9768677,2.2578073,2.3051155,0.055631578,-0.39491117,0.91703343,0
5.5931039,-0.027067184,-1.5440507,0.92428201,0.36774766,0.10229552,0
-0.60837364,0.77190864,2.0404787,0.055631578,-0.39491117,0.91703343,0
-5.4470882,0.25318193,-0.76455259,-0.92428201,-0.36774766,-0.10229552,0
-4.5281181,-1.5992275,-1.7783282,-0.92428201,-0.36774766,-0.10229552,0
0.25425386,-3.5331829,-3.1041183,-0.055631578,0.39491117,-0.91703343,0
0.99219036,4.6072073,2.4422979,-0.37763453,0.84190667,0.38546759,0
0.77445382,0.49982893,1.807067,0.055631578,-0.39491117,0.91703343,0
5.0316882,1.3091838,-1.3159986,-0.055631578,0.39491117,-0.91703343,0
4.218565,3.0027218,-0.16722345,0.92428201,0.36774766,0.10229552,0
1.1863942,-3.4240816,-2.8890641,0.37763453,-0.84190667,-0.38546759,0
2.5228548,5.2523971,2.4833982,-0.37763453,0.84190667,0.38546759,0
2.633945,-3.4755936,-1.4077051,0.37763453,-0.84190667,-0.38546759,0
-1.5144904,3.3207598,-0.21147513,-0.055631578,0.39491117,-0.91703343,0
4.1478143,2.6037016,2.0054021,0.92428201,0.36774766,0.10229552,0
3.6588399,3.728061,1.6214154,0.92428201,0.36774766,0.10229552,0
3.4571595,-3.4747376,-0.51520824,0.37763453,-0.84190667,-0.38546759,0
-5.7205172,2.6621859,0.24081087,-0.37763453,0.84190667,0.38546759,0
-5.3220925,-0.32713675,0.8772397,-0.92428201,-0.36774766,-0.10229552,0
-0.076345921,-2.4717004,0.47265175,0.055631578,-0.39491117,0.91703343,0
5.6301918,-0.65288043,-0.52903557,0.92428201,0.36774766,0.10229552,0
3.6493449,2.4622982,2.4847775,0.055631578,-0.39491117,0.91703343,0
-4.3242431,-2.0020638,-1.9215875,-0.92428201,-0.36774766,-0.10229552,0
4.7041249,1.473165,0.66028786,0.92428201,0.36774766,0.10229552,0
-5.9387798,1.1047778,1.0276628,-0.92428201,-0.36774766,-0.10229552,0
1.859894,2.7322493,2.5996058,0.055631578,-0.39491117,0.91703343,0
-1.5523216,-0.96105373,-1.972061,-0.055631578,0.39491117,-0.91703343,0
2.9250424,5.6410184,1.4493294,0.92428201,0.36774766,0.10229552,0
2.5865991,-2.9016013,-3.0431066,0.37763453,-0.84190667,-0.38546759,0
-2.486021,-4.8289824,-3.3509943,0.37763453,-0.84190667,-0.38546759,0
4.6555119,0.49935445,1.6742377,0.055631578,-0.39491117,0.91703343,0
-2.648603,3.2675831,1.7924311,-0.37763453,0.84190667,0.38546759,0
-5.1552777,-0.93409801,0.76111221,-0.92428201,-0.36774766,-0.10229552,0
0.56454897,-4.6072383,-1.296711,0.37763453,-0.84190667,-0.38546759,0
-0.60656166,4.6840301,0.72987151,-0.37763453,0.84190667,0.38546759,0
-0.64871943,-1.0119569,1.3062518,0.055631578,-0.39491117,0.91703343,0
-5.3812852,-0.74659681,1.7228718,-0.92428201,-0.36774766,-0.10229552,0
-6.2925935,1.4390798,1.9534369,-0.92428201,-0.36774766,-0.10229552,0
1.6959276,3.150547,-0.32526112,-0.055631578,0.39491117,-0.91703343,0
-6.1607385,1.5695226,1.2335663,-0.92428201,-0.36774766,-0.10229552,0
-4.9028964,0.27069914,-1.3165536,-0.055631578,0.39491117,-0.91703343,0
0.71593875,0.45454311,-1.5410724,-0.055631578,0.39491117,-0.91703343,0
-1.3041551,3.1371326,-0.27284634,-0.055631578,0.39491117,-0.91703343,0
-1.4330893,2.4438581,2.881249,0.055631578,-0.39491117,0.91703343,0
-5.0762181,-0.63694072,-0.82238436,-0.92428201,-0.36774766,-0.10229552,0
-2.0270655,-5.2711086,-0.46382725,0.055631578,-0.39491117,0.91703343,0
-0.29914904,4.0657268,2.7086432,-0.37763453,0.84190667,0.38546759,0
0.32493258,3.9689534,3.431097,0.055631578,-0.39491117,0.91703343,0
4.5026159,-3.0422575,0.13164091,0.055631578,-0.39491117,0.91703343,0
-0.075850725,-2.0570731,-2.6033216,-0.055631578,0.39491117,-0.91703343,0
-0.083295345,-4.5932107,-1.8851643,0.37763453,-0.84190667,-0.38546759,0
3.2963643,-0.4669922,1.1865854,0.055631578,-0.39491117,0.91703343,0
-5.2092433,-0.57327485,0.42772484,-0.92428201,-0.36774766,-0.10229552,0
2.2200289,-2.1844411,0.53477108,0.055631578,-0.39491117,0.91703343,0
-5.5095339,0.13467693,0.99402666,-0.92428201,-0.36774766,-0.10229552,0
0.33934259,-4.4050303,-1.9649668,0.37763453,-0.84190667,-0.38546759,0
4.1062298,-3.0146158,-0.0089888573,0.055631578,-0.39491117,0.91703343,0
0.59611177,4.7670836,0.39063275,-0.055631578,0.39491117,-0.91703343,0
-2.9463122,-5.3901949,-2.0577536,-0.92428201,-0.36774766,-0.10229552,0
3.5328798,-2.9779661,-1.7210736,0.37763453,-0.84190667,-0.38546759,0
2.4757838,-3.5859094,-1.3533463,0.37763453,-0.84190667,-0.38546759,0
3.9065318,3.5252643,0.59926558,0.92428201,0.36774766,0.10229552,0
-0.31064939,-3.8302307,-3.3578362,-0.055631578,0.39491117,-0.91703343,0
5.0971408,-2.7136912,-0.78604174,0.37763453,-0.84190667,-0.38546759,0
-5.6683555,0.41455507,0.81523037,-0.92428201,-0.36774766,-0.10229552,0
-4.1888466,-0.35340357,-1.6013651,-0.055631578,0.39491117,-0.91703343,0
-3.5650735,-3.8674128,-1.9191265,-0.92428201,-0.36774766,-0.10229552,0
2.6366696,4.9933901,0.34468436,-0.055631578,0.39491117,-0.91703343,0
2.8934567,0.4776094,-1.5419941,-0.055631578,0.39491117,-0.91703343,0
5.9124346,-0.91854548,-0.42569542,0.92428201,0.36774766,0.10229552,0
1.6114583,-3.7584825,-2.1439905,0.37763453,-0.84190667,-0.38546759,0
5.8895893,-1.1101468,0.4213872,0.92428201,0.36774766,0.10229552,0
3.5904584,-2.3620088,0.30675864,0.055631578,-0.39491117,0.91703343,0
-5.8153896,0.70253229,0.85476065,-0.92428201,-0.36774766,-0.10229552,0
1.7622705,-3.6245997,-2.2018113,0.37763453,-0.84190667,-0.38546759,0
-4.2077708,-0.65325093,1.6506913,0.055631578,-0.39491117,0.91703343,0
0.015877724,-1.6192499,0.93595201,0.055631578,-0.39491117,0.91703343,0
-4.1803861,-2.0366135,1.0103207,0.055631578,-0.39491117,0.91703343,0
4.7472763,1.1682391,1.683007,0.92428201,0.36774766,0.10229552,0
0.83737326,4.3838334,2.8715646,-0.37763453,0.84190667,0.38546759,0
-3.0271721,-4.9710531,-2.8728218,-0.92428201,-0.36774766,-0.10229552,0
-5.888504,1.3192759,0.15059757,-0.92428201,-0.36774766,-0.10229552,0
-0.19315219,-3.6087203,-3.1107795,-0.055631578,0.39491117,-0.91703343,0
-0.21220398,-5.0041509,-1.2032418,0.37763453,-0.84190667,-0.38546759,0
-3.835305,-3.5567608,-1.9062626,-0.92428201,-0.36774766,-0.10229552,0
-3.4131422,2.8858638,2.2720814,-0.37763453,0.84190667,0.38546759,0
4.6960583,1.5801123,1.3378098,0.92428201,0.36774766,0.10229552,0
1.2670856,5.1621981,1.5211688,-0.37763453,0.84190667,0.38546759,0
-3.8948073,-3.2553363,-1.4492745,-0.92428201,-0.36774766,-0.10229552,0
-5.1991525,-0.20818663,1.7552376,0.055631578,-0.39491117,0.91703343,0
-1.3107564,2.5658681,-0.39793134,-0.055631578,0.39491117,-0.91703343,0
-4.926991,-1.5774248,1.3174815,0.055631578,-0.39491117,0.91703343,0
0.91015291,4.4777632,2.5628922,-0.37763453,0.84190667,0.38546759,0
-3.1847458,-4.8306108,-2.4417953,-0.92428201,-0.36774766,-0.10229552,0
-2.4023304,3.8240986,1.1882205,-0.37763453,0.84190667,0.38546759,0
3.2257304,5.3947263,1.2411456,0.92428201,0.36774766,0.10229552,0
-4.1016498,-3.1437855,-0.78328276,-0.92428201,-0.36774766,-0.10229552,0
-2.108623,-4.6500502,-3.4236174,0.37763453,-0.84190667,-0.38546759,0
-5.704185,0.86197102,-0.14981985,-0.92428201,-0.36774766,-0.10229552,0
2.6468878,5.0191278,3.1801989,-0.37763453,0.84190667,0.38546759,0
-2.8687739,3.5657418,1.2945459,-0.37763453,0.84190667,0.38546759,0
-3.0546572,-5.4022293,-2.4283829,-0.92428201,-0.36774766,-0.10229552,0
-0.56059217,-4.7317705,-1.66449,0.37763453,-0.84190667,-0.38546759,0
-3.9041038,-3.3638957,-2.1994317,-0.92428201,-0.36774766,-0.10229552,0
5.263175,0.69417071,-1.6506133,-0.055631578,0.39491117,-0.91703343,0
-1.7450116,-4.7496915,-2.9005165,0.37763453,-0.84190667,-0.38546759,0
2.5819585,-2.9187176,-2.9355209,0.37763453,-0.84190667,-0.38546759,0
5.2106733,0.15685964,0.6846838,0.92428201,0.36774766,0.10229552,0
0.48668706,-0.9744873,-2.0712233,-0.055631578,0.39491117,-0.91703343,0
-4.5954418,2.6660714,1.2810993,-0.37763453,0.84190667,0.38546759,0
3.3643486,3.3183038,-0.43995047,-0.055631578,0.39491117,-0.91703343,0
-2.3218129,-3.5025129,-3.0421836,-0.055631578,0.39491117,-0.91703343,0
3.9289298,2.8834405,2.4182639,0.92428201,0.36774766,0.10229552,0
0.26294655,-0.35792017,-1.779864,-0.055631578,0.39491117,-0.91703343,0
-1.2460294,3.3065844,3.099488,-0.37763453,0.84190667,0.38546759,0
0.16931623,0.6820966,-1.2975888,-0.055631578,0.39491117,-0.91703343,0
4.2114501,3.0878522,-0.5724206,0.92428201,0.36774766,0.10229552,0
-4.8710213,0.49668872,-1.2041411,-0.055631578,0.39491117,-0.91703343,0
1.1459882,4.4671125,2.9676657,-0.37763453,0.84190667,0.38546759,0
-2.9868329,-5.2654762,-2.4025578,-0.92428201,-0.36774766,-0.10229552,0
5.4625883,-0.064029932,-1.1694155,0.92428201,0.36774766,0.10229552,0
2.699379,-3.2747161,-0.0066604614,0.055631578,-0.39491117,0.91703343,0
3.2076588,5.0985165,1.5942101,0.92428201,0.36774766,0.10229552,0
-1.3652307,-1.7567681,1.0249952,0.055631578,-0.39491117,0.91703343,0
-3.6887558,-3.7058465,-2.0980272,-0.92428201,-0.36774766,-0.10229552,0
0.92966127,5.4265323,0.6071775,-0.055631578,0.39491117,-0.91703343,0
-4.7753596,-2.0632732,1.0294456,-0.92428201,-0.36774766,-0.10229552,0
-3.70241,-1.6659942,-2.2240899,-0.055631578,0.39491117,-0.91703343,0
-2.5792601,-4.9137068,-0.43104434,0.055631578,-0.39491117,0.91703343,0
5.1328673,0.9467001,-1.4099522,0.92428201,0.36774766,0.10229552,0
-4.7027483,-1.3987277,-1.2475009,-0.92428201,-0.36774766,-0.10229552,0
-2.0763855,-5.0571775,-0.407794,0.055631578,-0.39491117,0.91703343,0
4.0771966,3.1614316,0.44134235,0.92428201,0.36774766,0.10229552,0
5.9520631,-1.1253514,-0.80907965,0.92428201,0.36774766,0.10229552,0
1.2848783,5.617775,0.91816491,-0.37763453,0.84190667,0.38546759,0
0.46736193,-4.1713653,-2.1254854,0.37763453,-0.84190667,-0.38546759,0
0.81540275,4.3242822,2.8351393,-0.37763453,0.84190667,0.38546759,0
2.3627124,5.7704482,1.3137261,-0.37763453,0.84190667,0.38546759,0
-2.9161503,-0.34243232,-1.5867203,-0.055631578,0.39491117,-0.91703343,0
4.6288123,1.733799,1.0313258,0.92428201,0.36774766,0.10229552,0
-5.2819133,-0.54972267,1.652966,0.055631578,-0.39491117,0.91703343,0
5.571846,-0.29835963,-0.70633221,0.92428201,0.36774766,0.10229552,0
4.9404702,0.88073528,0.20950031,0.92428201,0.36774766,0.10229552,0
-4.6464286,-2.0238435,-0.25363445,-0.92428201,-0.36774766,-0.10229552,0
-0.010456085,4.3745503,1.8995398,-0.37763453,0.84190667,0.38546759,0
3.56464,1.6861551,2.1271577,0.055631578,-0.39491117,0.91703343,0
-2.8380816,1.8922533,2.5461814,0.055631578,-0.39491117,0.91703343,0
-4.6833048,-0.60450912,1.5969372,0.055631578,-0.39491117,0.91703343,0
-0.26905298,-4.9934497,-1.1325452,0.37763453,-0.84190667,-0.38546759,0
-1.1266456,4.5971227,0.35675251,-0.37763453,0.84190667,0.38546759,0
-5.6443877,0.70897937,-0.010466576,-0.92428201,-0.36774766,-0.10229552,0
-0.12692237,2.708487,2.8474779,0.055631578,-0.39491117,0.91703343,0
3.5994983,4.2334547,1.4851952,0.92428201,0.36774766,0.10229552,0
5.5919318,-0.51860249,-0.63258362,0.92428201,0.36774766,0.10229552,0
-6.3428702,2.2085338,-0.13319159,-0.92428201,-0.36774766,-0.10229552,0
-4.4934349,-2.5331736,0.83540821,-0.92428201,-0.36774766,-0.10229552,0
0.043588638,-3.6756048,0.13343506,0.055631578,-0.39491117,0.91703343,0
5.4078064,-0.3021028,0.77350187,0.92428201,0.36774766,0.10229552,0
-1.5449672,3.3313425,3.0646806,-0.37763453,0.84190667,0.38546759,0
-3.2189968,-5.5270295,-0.64383388,-0.92428201,-0.36774766,-0.10229552,0
-0.59547186,4.7376008,0.56419325,-0.37763453,0.84190667,0.38546759,0
6.1904383,-1.7363281,-0.93143749,0.92428201,0.36774766,0.10229552,0
1.038671,3.2409873,-0.31926429,-0.055631578,0.39491117,-0.91703343,0
3.6612883,4.2491603,1.3228452,0.92428201,0.36774766,0.10229552,0
6.1570072,-2.0244391,-1.0605469,0.37763453,-0.84190667,-0.38546759,0
-2.9733634,1.2882866,-0.82128,-0.055631578,0.39491117,-0.91703343,0
-1.6962295,3.7620978,1.8069388,-0.37763453,0.84190667,0.38546759,0
0.63241577,4.5567489,2.4318945,-0.37763453,0.84190667,0.38546759,0
6.1906834,-2.4936543,-0.15628433,0.37763453,-0.84190667,-0.38546759,0
-2.9289014,-1.7458427,1.0209489,0.055631578,-0.39491117,0.91703343,0
-2.5344024,3.813612,1.0611379,-0.37763453,0.84190667,0.38546759,0
1.7241955,3.9456635,-0.083167553,-0.055631578,0.39491117,-0.91703343,0
-6.2132559,2.2713511,0.69562435,-0.37763453,0.84190667,0.38546759,0
1.3267531,-2.7880976,-2.902626,-0.055631578,0.39491117,-0.91703343,0
0.069507599,3.7831252,3.2388749,0.055631578,-0.39491117,0.91703343,0
-0.722615,-4.1416526,-3.2243528,0.37763453,-0.84190667,-0.38546759,0
4.2016034,-1.1023699,0.81973243,0.055631578,-0.39491117,0.91703343,0
-6.2613745,1.8038157,0.98189974,-0.92428201,-0.36774766,-0.10229552,0
1.0094357,-3.9937172,-2.0679588,0.37763453,-0.84190667,-0.38546759,0
4.2475386,2.2365842,2.2414207,0.92428201,0.36774766,0.10229552,0
-0.83706725,-0.85510266,1.2585392,0.055631578,-0.39491117,0.91703343,0
1.6039066,-2.4178245,0.39531898,0.055631578,-0.39491117,0.91703343,0
2.1744509,-1.0413197,-2.2398584,-0.055631578,0.39491117,-0.91703343,0
0.054998875,4.9329762,1.1067128,-0.37763453,0.84190667,0.38546759,0
-1.1573577,3.5059421,3.0300741,-0.37763453,0.84190667,0.38546759,0
5.235487,0.64057326,-0.72809649,0.92428201,0.36774766,0.10229552,0
5.5969276,-0.40023911,0.25470781,0.92428201,0.36774766,0.10229552,0
2.4875879,5.9813185,1.1821866,-0.37763453,0.84190667,0.38546759,0
0.47157222,-0.5423739,1.3247395,0.055631578,-0.39491117,0.91703343,0
-3.2728763,-4.5981021,-3.3398309,-0.055631578,0.39491117,-0.91703343,0
-2.3230252,4.0648699,0.36857581,-0.37763453,0.84190667,0.38546759,0
-0.73439556,-0.98042214,1.3561834,0.055631578,-0.39491117,0.91703343,0
-1.4119158,-4.5771837,-3.2362945,0.37763453,-0.84190667,-0.38546759,0
4.2579899,-3.292428,-0.53838968,0.37763453,-0.84190667,-0.38546759,0
-1.715945,-4.8067369,-3.0651028,0.37763453,-0.84190667,-0.38546759,0
-3.9390981,-2.9026346,-2.6297643,-0.92428201,-0.36774766,-0.10229552,0
-5.3979931,2.6459436,0.49268579,-0.37763453,0.84190667,0.38546759,0
-1.5985317,-5.5522666,-1.1241995,0.37763453,-0.84190667,-0.38546759,0
2.7918444,0.51035964,1.7003565,0.055631578,-0.39491117,0.91703343,0
-0.18921924,0.77019095,2.0356891,0.055631578,-0.39491117,0.91703343,0
2.8844936,6.0529761,1.309695,0.92428201,0.36774766,0.10229552,0
2.9450173,0.84910011,1.8921528,0.055631578,-0.39491117,0.91703343,0
-0.7444284,-4.2506566,-0.12683642,0.055631578,-0.39491117,0.91703343,0
2.9445353,-0.60360622,1.2903619,0.055631578,-0.39491117,0.91703343,0
-4.5744743,-2.2078729,0.8890624,-0.92428201,-0.36774766,-0.10229552,0
0.70485616,4.1104403,3.2641914,-0.37763453,0.84190667,0.38546759,0
2.5942624,6.107101,0.82136035,-0.055631578,0.39491117,-0.91703343,0
2.1767886,4.7818422,3.3359113,-0.37763453,0.84190667,0.38546759,0
5.0330343,-1.9185677,0.50576782,0.055631578,-0.39491117,0.91703343,0
-3.7432547,-3.622978,-1.827965,-0.92428201,-0.36774766,-0.10229552,0
0.28777215,0.32534051,1.8378795,0.055631578,-0.39491117,0.91703343,0
-0.79251051,-5.0599389,-1.2918913,0.37763453,-0.84190667,-0.38546759,0
-5.1679835,-0.84167624,0.12545586,-0.92428201,-0.36774766,-0.10229552,0
-3.7991421,2.6486316,2.3289635,-0.37763453,0.84190667,0.38546759,0
-3.157383,-5.4139304,-0.41641045,0.055631578,-0.39491117,0.91703343,0
-1.988003,-5.3006406,-2.2264926,0.37763453,-0.84190667,-0.38546759,0
4.5463209,1.6971757,1.0879731,0.92428201,0.36774766,0.10229552,0
4.009841,3.1599426,2.1232827,0.92428201,0.36774766,0.10229552,0
3.6100638,-2.199265,-2.7268898,-0.055631578,0.39491117,-0.91703343,0
-5.283329,2.2996862,1.2230725,-0.37763453,0.84190667,0.38546759,0
6.1102095,-1.5686252,-1.1685281,0.92428201,0.36774766,0.10229552,0
2.2443829,2.1662734,-0.90872812,-0.055631578,0.39491117,-0.91703343,0
4.9344454,1.1434655,0.79099751,0.92428201,0.36774766,0.10229552,0
5.5305309,-0.37552392,0.62209845,0.92428201,0.36774766,0.10229552,0
4.6361036,2.1384313,-0.46253872,0.92428201,0.36774766,0.10229552,0
3.2094018,-2.5675106,-2.8789308,0.37763453,-0.84190667,-0.38546759,0
0.68892121,-3.4699497,0.07893461,0.055631578,-0.39491117,0.91703343,0
-2.3887355,-5.8638725,-1.314999,0.37763453,-0.84190667,-0.38546759,0
2.3021922,-3.2345848,-2.1226006,0.37763453,-0.84190667,-0.38546759,0
2.1265903,-3.2145891,-2.4166274,0.37763453,-0.84190667,-0.38546759,0
-3.5940597,-1.6783447,-2.0315008,-0.055631578,0.39491117,-0.91703343,0
1.9531423,3.1558843,2.8644962,0.055631578,-0.39491117,0.91703343,0
-2.193598,-5.6810975,-0.71439171,0.055631578,-0.39491117,0.91703343,0
-1.2222281,4.1603589,1.6265118,-0.37763453,0.84190667,0.38546759,0
6.1764011,-1.3479373,-2.3230066,0.92428201,0.36774766,0.10229552,0
0.99776936,5.270092,1.2644752,-0.37763453,0.84190667,0.38546759,0
2.1000857,-2.1111908,0.6258229,0.055631578,-0.39491117,0.91703343,0
-5.2295132,2.244926,1.6869307,-0.37763453,0.84190667,0.38546759,0
5.1999474,-2.8110332,0.21601725,0.055631578,-0.39491117,0.91703343,0
-0.48596478,-4.1074533,-3.3203211,0.37763453,-0.84190667,-0.38546759,0
-3.7740633,-3.5440989,-1.8088794,-0.92428201,-0.36774766,-0.10229552,0
4.9601765,0.77240729,1.2559409,0.92428201,0.36774766,0.10229552,0
-2.3605454,-4.7851176,-0.23206401,0.055631578,-0.39491117,0.91703343,0
4.4178066,-2.7904606,-1.3291774,0.37763453,-0.84190667,-0.38546759,0
4.2664866,-3.0563655,0.0071229935,0.055631578,-0.39491117,0.91703343,0
-0.38809967,3.8397918,2.7989995,-0.37763453,0.84190667,0.38546759,0
-4.2205324,-1.4495776,-2.0542355,-0.055631578,0.39491117,-0.91703343,0
4.8748283,-2.1127615,-2.3590088,0.37763453,-0.84190667,-0.38546759,0
-5.1538305,-0.074184895,-1.1562843,-0.92428201,-0.36774766,-0.10229552,0
4.0876436,2.0283008,2.2632854,0.055631578,-0.39491117,0.91703343,0
-5.4721088,2.2703359,1.337275,-0.37763453,0.84190667,0.38546759,0
4.4415665,-3.0057306,-0.95547247,0.37763453,-0.84190667,-0.38546759,0
-3.285737,1.3193861,-0.96162295,-0.055631578,0.39491117,-0.91703343,0
-3.6819139,-3.7701466,-2.8904965,-0.92428201,-0.36774766,-0.10229552,0
3.4539227,-3.4243181,-0.93284178,0.37763453,-0.84190667,-0.38546759,0
6.2044573,-1.8591421,-0.55710268,0.92428201,0.36774766,0.10229552,0
-3.5534453,0.083170116,-1.3377733,-0.055631578,0.39491117,-0.91703343,0
-3.2080677,3.0902147,1.5485015,-0.37763453,0.84190667,0.38546759,0
-0.86561728,4.2002921,1.6751904,-0.37763453,0.84190667,0.38546759,0
-2.5161085,4.0151925,0.33976316,-0.37763453,0.84190667,0.38546759,0
-0.20383453,3.945816,2.6986737,-0.37763453,0.84190667,0.38546759,0
0.65571928,5.0112219,1.5398815,-0.37763453,0.84190667,0.38546759,0
3.0741684,5.5179691,0.66205382,0.92428201,0.36774766,0.10229552,0
4.8356385,1.1786726,0.70309544,0.92428201,0.36774766,0.10229552,0
-4.9352913,-0.9840014,-0.3120327,-0.92428201,-0.36774766,-0.10229552,0
-1.3168602,3.9742365,1.5153941,-0.37763453,0.84190667,0.38546759,0
-0.32092857,-4.3583903,-2.695004,0.37763453,-0.84190667,-0.38546759,0
-4.8391347,-1.2943279,-0.99104261,-0.92428201,-0.36774766,-0.10229552,0
4.6868114,1.6342783,0.96202278,0.92428201,0.36774766,0.10229552,0
-5.4223213,-0.023103595,-0.48232603,-0.92428201,-0.36774766,-0.10229552,0
2.1269195,-3.0425992,-2.9990268,0.37763453,-0.84190667,-0.38546759,0
-2.2912621,3.5904255,1.6474688,-0.37763453,0.84190667,0.38546759,0
5.9409242,-0.81608701,-2.0876722,0.92428201,0.36774766,0.10229552,0
-4.1379709,-3.4080191,0.099359989,-0.92428201,-0.36774766,-0.10229552,0
-4.3451452,-2.7911439,0.30272055,-0.92428201,-0.36774766,-0.10229552,0
4.8023238,1.5092108,0.3893857,0.92428201,0.36774766,0.10229552,0
-1.5181153,-4.699182,-2.9296927,0.37763453,-0.84190667,-0.38546759,0
4.468493,-3.1015022,-0.76038361,0.37763453,-0.84190667,-0.38546759,0
-4.924222,-1.4135675,0.70886993,-0.92428201,-0.36774766,-0.10229552,0
3.5798678,2.5167439,2.5726914,0.055631578,-0.39491117,0.91703343,0
2.7718084,5.9899359,1.1924586,-0.37763453,0.84190667,0.38546759,0
-2.7434382,-6.1721377,-1.0886819,0.37763453,-0.84190667,-0.38546759,0
1.3708904,-1.4236991,0.9149465,0.055631578,-0.39491117,0.91703343,0
-3.2879214,0.98080826,2.1773489,0.055631578,-0.39491117,0.91703343,0
4.3398371,2.2615564,1.7493701,0.92428201,0.36774766,0.10229552,0
0.2632165,4.3466797,2.5840433,-0.37763453,0.84190667,0.38546759,0
-0.73973322,3.4259942,3.0644271,0.055631578,-0.39491117,0.91703343,0
-3.0519738,1.6807392,2.540066,0.055631578,-0.39491117,0.91703343,0
0.13225827,-0.486094,1.3766632,0.055631578,-0.39491117,0.91703343,0
-2.9126079,0.60667723,-1.1125665,-0.055631578,0.39491117,-0.91703343,0
6.1224928,-2.3438702,-0.76801157,0.37763453,-0.84190667,-0.38546759,0
-3.1735384,-5.678957,-0.65674472,-0.92428201,-0.36774766,-0.10229552,0
2.2653165,5.9265518,0.98696458,-0.37763453,0.84190667,0.38546759,0
3.1403656,2.581265,2.5819173,0.055631578,-0.39491117,0.91703343,0
4.9936295,-2.5676563,-1.0941634,0.37763453,-0.84190667,-0.38546759,0
-5.4799423,0.30678535,0.31693268,-0.92428201,-0.36774766,-0.10229552,0
2.7570674,5.4690294,2.5829129,-0.37763453,0.84190667,0.38546759,0
0.68353558,5.1733904,1.1945386,-0.37763453,0.84190667,0.38546759,0
2.0446141,-3.1431034,-3.0010769,0.37763453,-0.84190667,-0.38546759,0
3.4163504,-0.8735528,-2.1442447,-0.055631578,0.39491117,-0.91703343,0
4.0524435,2.901335,2.3631952,0.92428201,0.36774766,0.10229552,0
-4.1553254,-2.8585603,-1.4985197,-0.92428201,-0.36774766,-0.10229552,0
-2.0822215,2.9583182,3.0974913,0.055631578,-0.39491117,0.91703343,0
-4.3769774,3.1983595,-0.077125072,-0.055631578,0.39491117,-0.91703343,0
-2.7291019,-1.9497511,0.99764132,0.055631578,-0.39491117,0.91703343,0
-4.9515991,-1.4372425,0.58584452,-0.92428201,-0.36774766,-0.10229552,0
2.8564649,-3.0858655,-2.2930565,0.37763453,-0.84190667,-0.38546759,0
-4.3802614,-2.5454011,-0.073407173,-0.92428201,-0.36774766,-0.10229552,0
2.022367,-3.8664536,-1.3239825,0.37763453,-0.84190667,-0.38546759,0
-1.8241239,-5.7440357,-0.88704312,0.37763453,-0.84190667,-0.38546759,0
-3.1909115,-4.9768381,-2.4266109,-0.92428201,-0.36774766,-0.10229552,0
2.821259,-3.9425063,-0.43758297,0.37763453,-0.84190667,-0.38546759,0
4.210258,2.7868245,1.1640189,0.92428201,0.36774766,0.10229552,0
4.0246601,3.5945601,0.5677464,0.92428201,0.36774766,0.10229552,0
5.6508656,-2.1121736,-1.4884686,0.37763453,-0.84190667,-0.38546759,0
-4.8078127,-2.0019314,0.86037254,-0.92428201,-0.36774766,-0.10229552,0
-4.767869,-1.2849411,-1.8479326,-0.92428201,-0.36774766,-0.10229552,0
1.7651893,3.3411937,-0.3077054,-0.055631578,0.39491117,-0.91703343,0
-2.7280896,-5.9294834,-1.460184,0.37763453,-0.84190667,-0.38546759,0
1.0245614,-2.9111042,-2.9222436,-0.055631578,0.39491117,-0.91703343,0
3.1825252,4.8300657,3.429481,0.92428201,0.36774766,0.10229552,0
-2.3892107,0.81117797,2.1247363,0.055631578,-0.39491117,0.91703343,0
3.4815001,-1.0789559,1.0034757,0.055631578,-0.39491117,0.91703343,0
-5.7209864,1.859695,1.956398,-0.37763453,0.84190667,0.38546759,0
0.28311872,4.6055484,2.1117308,-0.37763453,0.84190667,0.38546759,0
2.9392273,5.5228548,1.5364034,0.92428201,0.36774766,0.10229552,0
3.9703803,-1.2422695,-2.47559,-0.055631578,0.39491117,-0.91703343,0
0.95890582,-0.64290416,1.3001149,0.055631578,-0.39491117,0.91703343,0
-5.5587263,1.8172413,-0.56467962,-0.055631578,0.39491117,-0.91703343,0
3.8883824,3.3044267,1.9535363,0.92428201,0.36774766,0.10229552,0
1.8471632,-4.2869382,-0.37823975,0.37763453,-0.84190667,-0.38546759,0
-0.37248135,4.3871565,1.7593054,-0.37763453,0.84190667,0.38546759,0
-4.4095721,-2.0207114,-1.183629,-0.92428201,-0.36774766,-0.10229552,0
1.9067135,0.66402769,-1.5554042,-0.055631578,0.39491117,-0.91703343,0
2.082041,-0.46377832,1.3041915,0.055631578,-0.39491117,0.91703343,0
-5.9375257,1.2786701,0.44887257,-0.92428201,-0.36774766,-0.10229552,0
-3.4494598,-3.0137997,0.64383078,0.055631578,-0.39491117,0.91703343,0
0.95418978,-4.5029821,-1.1397158,0.37763453,-0.84190667,-0.38546759,0
-0.52850914,3.7366722,3.006732,-0.37763453,0.84190667,0.38546759,0
-5.0531092,-0.51191479,-1.1879721,-0.92428201,-0.36774766,-0.10229552,0
-4.8210721,-1.5591559,-0.49189758,-0.92428201,-0.36774766,-0.10229552,0
-0.17066717,-0.47256732,1.4253188,0.055631578,-0.39491117,0.91703343,0
-4.5067077,3.2085826,0.4928956,-0.37763453,0.84190667,0.38546759,0
6.1642585,-1.2234297,-1.479898,0.92428201,0.36774766,0.10229552,0
2.6012907,-3.5241349,-0.10065246,0.055631578,-0.39491117,0.91703343,0
-1.5242097,2.1984572,-0.57212901,-0.055631578,0.39491117,-0.91703343,0
-0.96251297,-4.4379091,-3.0395904,0.37763453,-0.84190667,-0.38546759,0
4.2970681,-2.3398895,-2.1399179,0.37763453,-0.84190667,-0.38546759,0
4.9358816,1.5784571,-1.1083846,0.92428201,0.36774766,0.10229552,0
1.4682823,1.4067607,2.1043618,0.055631578,-0.39491117,0.91703343,0
3.145782,-3.1647055,-1.6504679,0.37763453,-0.84190667,-0.38546759,0
-6.3414917,1.8985705,0.81374645,-0.92428201,-0.36774766,-0.10229552,0
-6.224916,1.8701134,0.78311872,-0.92428201,-0.36774766,-0.10229552,0
5.6312761,-0.98160803,0.81820154,0.92428201,0.36774766,0.10229552,0
4.7483225,1.0964643,1.2194834,0.92428201,0.36774766,0.10229552,0
-0.426965,3.3185108,-0.20957975,-0.055631578,0.39491117,-0.91703343,0
-4.8969102,-1.1552467,0.49080515,-0.92428201,-0.36774766,-0.10229552,0
5.9620905,-1.7480199,-2.2604141,0.37763453,-0.84190667,-0.38546759,0
-5.9273052,1.4777212,2.6709781,-0.37763453,0.84190667,0.38546759,0
4.2538824,2.5407219,0.34473276,0.92428201,0.36774766,0.10229552,0
4.2212877,-2.2377183,0.31511354,0.055631578,-0.39491117,0.91703343,0
3.7394552,-0.43030119,-1.9849658,-0.055631578,0.39491117,-0.91703343,0
-4.1030674,-1.3128159,-1.9541688,-0.055631578,0.39491117,-0.91703343,0
-2.3069663,-3.9747591,-3.1747706,-0.055631578,0.39491117,-0.91703343,0
1.9421225,-1.2079563,1.0741242,0.055631578,-0.39491117,0.91703343,0
4.9070559,1.158097,0.78999424,0.92428201,0.36774766,0.10229552,0
-4.5785275,-2.1588356,0.66958475,-0.92428201,-0.36774766,-0.10229552,0
-4.5930939,2.2018762,2.3190775,-0.37763453,0.84190667,0.38546759,0
3.2902856,4.5594764,2.5760605,0.92428201,0.36774766,0.10229552,0
1.6197484,3.0473604,-0.45249915,-0.055631578,0.39491117,-0.91703343,0
-2.5930746,-4.882853,-3.502125,0.37763453,-0.84190667,-0.38546759,0
5.66537,-0.29768372,-1.5536351,0.92428201,0.36774766,0.10229552,0
-4.5308676,1.9215102,2.7175057,0.055631578,-0.39491117,0.91703343,0
-1.1661739,2.944279,2.9993737,0.055631578,-0.39491117,0.91703343,0
-4.0225844,-3.0412748,-0.72285366,-0.92428201,-0.36774766,-0.10229552,0
3.7841239,3.4327312,-0.44404554,-0.055631578,0.39491117,-0.91703343,0
-4.7450552,-1.8005886,0.068873882,-0.92428201,-0.36774766,-0.10229552,0
-3.5753052,2.7840538,2.1790993,-0.37763453,0.84190667,0.38546759,0
-0.38456821,4.258585,2.1631048,-0.37763453,0.84190667,0.38546759,0
2.2595444,-2.023191,-2.5752277,-0.055631578,0.39491117,-0.91703343,0
5.9418082,-1.6326967,0.52224159,0.92428201,0.36774766,0.10229552,0
4.7768226,1.286534,1.1615105,0.92428201,0.36774766,0.10229552,0
-4.2124925,3.3276329,0.50592566,-0.37763453,0.84190667,0.38546759,0
3.4990907,-2.6345334,-2.6057384,0.37763453,-0.84190667,-0.38546759,0
3.8633704,3.136658,-0.42743587,-0.055631578,0.39491117,-0.91703343,0
5.3627357,-1.9129075,-2.2525816,0.37763453,-0.84190667,-0.38546759,0
6.0749688,-1.6970171,0.056194305,0.92428201,0.36774766,0.10229552,0
2.2615249,-2.1733704,-2.8127413,-0.055631578,0.39491117,-0.91703343,0
-5.1361184,-0.75218058,0.016873837,-0.92428201,-0.36774766,-0.10229552,0
-6.1744719,2.0878477,1.2399354,-0.37763453,0.84190667,0.38546759,0
-2.5104296,-3.6866322,-3.0470743,-0.055631578,0.39491117,-0.91703343,0
1.1938021,-0.52639854,-1.8725817,-0.055631578,0.39491117,-0.91703343,0
-4.7912612,1.4283192,-0.82938004,-0.055631578,0.39491117,-0.91703343,0
5.1236725,0.59980214,0.86901093,0.92428201,0.36774766,0.10229552,0
-4.3617492,2.9737031,0.70803785,-0.37763453,0.84190667,0.38546759,0
3.5563593,3.9801421,-0.19364285,-0.055631578,0.39491117,-0.91703343,0
4.8371572,-0.69664812,-2.1402817,-0.055631578,0.39491117,-0.91703343,0
1.4089227,-3.5391901,-2.6392221,0.37763453,-0.84190667,-0.38546759,0
4.3978767,-0.04796052,-1.8235912,-0.055631578,0.39491117,-0.91703343,0
2.1956842,-3.077914,-2.952004,0.37763453,-0.84190667,-0.38546759,0
-0.00066041946,-3.0988801,0.27586982,0.055631578,-0.39491117,0.91703343,0
-2.9357605,-5.7180767,-1.439358,-0.92428201,-0.36774766,-0.10229552,0
1.444972,5.0440488,2.1522157,-0.37763453,0.84190667,0.38546759,0
-4.1978655,-2.6701047,-2.272918,-0.92428201,-0.36774766,-0.10229552,0
-5.151196,-0.45305771,-1.1453042,-0.92428201,-0.36774766,-0.10229552,0
1.8778777,-4.1285491,-0.58255935,0.37763453,-0.84190667,-0.38546759,0
3.7440448,2.0284414,-0.88095045,-0.055631578,0.39491117,-0.91703343,0
-0.23471022,4.8219595,1.1057016,-0.37763453,0.84190667,0.38546759,0
5.054069,-2.9868426,-0.05540514,0.37763453,-0.84190667,-0.38546759,0
-3.3648541,-2.7146387,0.62885356,0.055631578,-0.39491117,0.91703343,0
1.0212164,4.41225,3.1314082,-0.37763453,0.84190667,0.38546759,0
-4.7423792,2.6709943,1.1893764,-0.37763453,0.84190667,0.38546759,0
-5.7101364,0.54471254,0.13551664,-0.92428201,-0.36774766,-0.10229552,0
-4.3285179,-2.3400433,-1.8626783,-0.92428201,-0.36774766,-0.10229552,0
3.1871934,5.1184988,2.5666533,0.92428201,0.36774766,0.10229552,0
6.2689257,-2.0373135,-0.14096022,0.92428201,0.36774766,0.10229552,0
-2.3684528,-5.095438,-2.7012761,0.37763453,-0.84190667,-0.38546759,0
2.7927556,-3.3223257,-1.7626698,0.37763453,-0.84190667,-0.38546759,0
1.2056217,2.0927067,-0.84989369,-0.055631578,0.39491117,-0.91703343,0
2.6777787,1.5110385,-1.0948598,-0.055631578,0.39491117,-0.91703343,0
0.30420375,3.1312568,3.0465651,0.055631578,-0.39491117,0.91703343,0
-0.10500145,4.3450193,1.8674287,-0.37763453,0.84190667,0.38546759,0
-3.9111032,-3.6710567,-0.076438427,-0.92428201,-0.36774766,-0.10229552,0
-4.1404161,3.1760712,0.68071747,-0.37763453,0.84190667,0.38546759,0
-2.5429072,-5.9757361,-1.3123021,0.37763453,-0.84190667,-0.38546759,0
0.12110662,3.7502532,3.2128096,0.055631578,-0.39491117,0.91703343,0
4.9067836,1.5054014,-1.0929899,0.92428201,0.36774766,0.10229552,0
2.2935209,-0.70403677,1.2844675,0.055631578,-0.39491117,0.91703343,0
-1.2270231,3.731113,2.4237297,-0.37763453,0.84190667,0.38546759,0
-3.5984123,2.8811827,1.735255,-0.37763453,0.84190667,0.38546759,0
4.7254033,1.2066774,0.99935722,0.92428201,0.36774766,0.10229552,0
-5.2890291,-0.089516878,0.077382088,-0.92428201,-0.36774766,-0.10229552,0
5.7080436,-0.5902791,-1.0912876,0.92428201,0.36774766,0.10229552,0
4.8869104,0.74280065,1.5115852,0.92428201,0.36774766,0.10229552,0
5.1503024,0.40468365,0.85714245,0.92428201,0.36774766,0.10229552,0
5.8253918,-2.3526397,-0.8339963,0.37763453,-0.84190667,-0.38546759,0
4.1995811,2.8428493,1.2394078,0.92428201,0.36774766,0.10229552,0
5.7914762,-2.4179757,-0.84161949,0.37763453,-0.84190667,-0.38546759,0
0.29006863,-4.8141789,-0.88587654,0.37763453,-0.84190667,-0.38546759,0
1.5352616,4.3669119,3.3238544,0.055631578,-0.39491117,0.91703343,0
-5.8187809,1.1449344,-0.36199474,-0.92428201,-0.36774766,-0.10229552,0
-5.9876547,1.2809067,-0.038544178,-0.92428201,-0.36774766,-0.10229552,0
-5.6511726,0.41475606,1.6068034,-0.92428201,-0.36774766,-0.10229552,0
2.9720716,1.4124132,1.9713814,0.055631578,-0.39491117,0.91703343,0
-5.2113686,1.0794486,-0.90316486,-0.055631578,0.39491117,-0.91703343,0
4.8285832,-0.88591504,0.89128017,0.055631578,-0.39491117,0.91703343,0
2.9804969,5.5821667,0.91390276,0.92428201,0.36774766,0.10229552,0
3.9637823,-0.77906573,1.0146544,0.055631578,-0.39491117,0.91703343,0
1.4269724,-2.6917915,0.37840652,0.055631578,-0.39491117,0.91703343,0
0.64493752,-3.7348371,-2.7012796,0.37763453,-0.84190667,-0.38546759,0
3.770927,3.173492,2.6315312,0.92428201,0.36774766,0.10229552,0
-5.0970984,-0.5157758,-1.4328775,-0.92428201,-0.36774766,-0.10229552,0
-1.0597897,3.9222605,1.8568318,-0.37763453,0.84190667,0.38546759,0
5.1791377,0.98432398,-1.4600887,0.92428201,0.36774766,0.10229552,0
-5.7589226,0.49667978,1.1327186,-0.92428201,-0.36774766,-0.10229552,0
4.0055413,3.2912967,-0.058984756,0.92428201,0.36774766,0.10229552,0
-0.40201139,4.037962,2.3609905,-0.37763453,0.84190667,0.38546759,0
-3.4607716,-4.7400913,-1.3336425,-0.92428201,-0.36774766,-0.10229552,0
0.1455586,-2.7297626,0.52411842,0.055631578,-0.39491117,0.91703343,0
-0.048983097,-5.1100512,-0.54608428,0.055631578,-0.39491117,0.91703343,0
-5.7156258,0.30486441,0.99376392,-0.92428201,-0.36774766,-0.10229552,0
3.7156901,-0.2362752,-1.9522295,-0.055631578,0.39491117,-0.91703343,0
5.9265509,-1.5440243,0.11479616,0.92428201,0.36774766,0.10229552,0
-0.33746767,-1.8791754,-2.477047,-0.055631578,0.39491117,-0.91703343,0
