0.40141749,0.96586502,-3.5970559,0.50180852,-0.67406046,-0.54206133,0
4.1419611,3.1472361,-0.62349677,0.30137527,0.72365677,-0.62088138,0
-3.0418167,0.12219825,-3.4559603,-0.81077808,-0.14819971,-0.56628239,0
1.3961649,-2.3820167,4.2912836,-0.30137527,-0.72365677,0.62088138,0
2.7321033,1.3272288,3.5829577,0.81077808,0.14819971,0.56628239,0
3.7194533,1.9126639,2.2327499,0.81077808,0.14819971,0.56628239,0
-4.3161516,-1.6249316,-1.4364595,-0.81077808,-0.14819971,-0.56628239,0
-2.384377,1.992589,-5.1048288,-0.81077808,-0.14819971,-0.56628239,0
1.2314447,0.19754529,3.8244419,-0.50180852,0.67406046,0.54206133,0
0.96900368,-3.2235003,3.0039723,-0.30137527,-0.72365677,0.62088138,0
-1.4867806,-2.2231915,3.145422,-0.30137527,-0.72365677,0.62088138,0
3.9103827,2.1612544,1.9465182,0.81077808,0.14819971,0.56628239,0
3.013412,-3.085017,4.3267455,-0.30137527,-0.72365677,0.62088138,0
0.9882071,1.1546664,-3.1199908,0.50180852,-0.67406046,-0.54206133,0
-1.1019044,3.3509645,-2.2673357,-0.50180852,0.67406046,0.54206133,0
-3.6697741,0.95828676,-3.0263519,-0.81077808,-0.14819971,-0.56628239,0
4.5254316,2.0387988,1.1053851,0.81077808,0.14819971,0.56628239,0
1.3227847,-1.1866987,5.4527168,-0.50180852,0.67406046,0.54206133,0
-4.2383947,0.51038146,-2.1437891,-0.81077808,-0.14819971,-0.56628239,0
-2.2626727,2.4458044,-2.5035107,-0.50180852,0.67406046,0.54206133,0
3.2057369,-0.74390423,3.5369449,0.81077808,0.14819971,0.56628239,0
-2.3712878,1.2618124,-4.8147807,-0.81077808,-0.14819971,-0.56628239,0
0.031672716,-0.033753633,2.656198,-0.50180852,0.67406046,0.54206133,0
0.92189479,-3.3681481,2.3340089,0.50180852,-0.67406046,-0.54206133,0
-3.1074045,2.2797947,-2.8855019,-0.50180852,0.67406046,0.54206133,0
2.3970449,3.1514378,-1.6695093,0.30137527,0.72365677,-0.62088138,0
3.7752128,3.608227,-0.41873741,0.30137527,0.72365677,-0.62088138,0
-4.4282346,-4.0147939,-0.28301573,-0.30137527,-0.72365677,0.62088138,0
3.5055041,-2.3118567,3.1866136,0.50180852,-0.67406046,-0.54206133,0
0.8967104,3.4657192,-1.9172524,0.30137527,0.72365677,-0.62088138,0
3.6896639,1.8296047,2.0528846,0.81077808,0.14819971,0.56628239,0
1.0161878,-0.67139769,-1.1320007,0.50180852,-0.67406046,-0.54206133,0
2.3739619,4.1030197,-0.26513314,-0.50180852,0.67406046,0.54206133,0
2.4977717,-1.2335246,4.6240268,0.81077808,0.14819971,0.56628239,0
4.4528627,2.5278342,0.78990436,0.81077808,0.14819971,0.56628239,0
-1.1799912,-2.6988554,2.6389258,-0.30137527,-0.72365677,0.62088138,0
-0.39410889,0.05843997,2.304297,-0.50180852,0.67406046,0.54206133,0
-4.2546034,-2.3541157,-1.2871706,-0.81077808,-0.14819971,-0.56628239,0
3.9298863,2.6617329,1.7405627,0.81077808,0.14819971,0.56628239,0
-3.1848543,3.1711891,-3.9726882,-0.50180852,0.67406046,0.54206133,0
-2.1256866,-4.1171703,0.483567,-0.30137527,-0.72365677,0.62088138,0
1.2201061,-1.4931997,0.22756292,0.50180852,-0.67406046,-0.54206133,0
4.1773062,0.0070414543,1.2237551,0.50180852,-0.67406046,-0.54206133,0
-1.2234631,-0.85443211,-3.0183618,0.50180852,-0.67406046,-0.54206133,0
1.1722956,-3.0088727,2.1279211,0.50180852,-0.67406046,-0.54206133,0
0.25516391,-0.98210025,4.0418992,-0.50180852,0.67406046,0.54206133,0
0.4028399,2.3680389,0.31333899,-0.50180852,0.67406046,0.54206133,0
-3.7587597,-1.0221257,-2.2449059,-0.81077808,-0.14819971,-0.56628239,0
2.2777121,0.2423265,4.455369,0.81077808,0.14819971,0.56628239,0
2.0579305,-2.6276042,4.4025445,-0.30137527,-0.72365677,0.62088138,0
3.8922496,3.406188,1.3514092,0.81077808,0.14819971,0.56628239,0
-0.14725018,3.6740403,-2.1205699,-0.50180852,0.67406046,0.54206133,0
-0.89324403,0.54673409,-4.1910768,0.50180852,-0.67406046,-0.54206133,0
-3.3471212,0.64899087,-3.2738299,-0.81077808,-0.14819971,-0.56628239,0
3.2762761,1.4608819,2.7725463,0.81077808,0.14819971,0.56628239,0
-1.2643255,1.6494473,-0.44909757,-0.50180852,0.67406046,0.54206133,0
2.609751,-2.4785635,4.9405484,-0.30137527,-0.72365677,0.62088138,0
3.9422121,3.3645,1.3964379,0.81077808,0.14819971,0.56628239,0
-3.1659844,-0.85174394,-3.2570279,-0.81077808,-0.14819971,-0.56628239,0
-3.1692638,-1.0625665,-3.0311847,-0.81077808,-0.14819971,-0.56628239,0
-3.4624586,-3.6425138,0.39645338,-0.30137527,-0.72365677,0.62088138,0
-3.1382482,-3.004868,1.2924018,-0.30137527,-0.72365677,0.62088138,0
1.8197814,-2.2017908,1.6940346,0.50180852,-0.67406046,-0.54206133,0
0.064878941,-2.9909778,2.9680161,-0.30137527,-0.72365677,0.62088138,0
-3.8764451,-1.3365765,-2.2179391,-0.81077808,-0.14819971,-0.56628239,0
0.45729208,-3.3997669,2.6836658,-0.30137527,-0.72365677,0.62088138,0
-1.6909595,0.5564431,-4.9317608,0.50180852,-0.67406046,-0.54206133,0
-1.7802727,2.652375,-4.1651115,0.30137527,0.72365677,-0.62088138,0
-1.0940591,-0.27550387,-3.5225284,0.50180852,-0.67406046,-0.54206133,0
-4.3067961,-3.4532092,0.22884274,-0.30137527,-0.72365677,0.62088138,0
-3.2334788,1.6195083,-2.3246329,-0.50180852,0.67406046,0.54206133,0
-3.3722363,-1.0663383,1.106077,-0.50180852,0.67406046,0.54206133,0
0.7028842,-1.4765489,4.9031048,-0.30137527,-0.72365677,0.62088138,0
3.0728874,3.1044714,-1.2692368,0.30137527,0.72365677,-0.62088138,0
5.0121584,3.0767169,-0.50281239,0.30137527,0.72365677,-0.62088138,0
-3.5697556,-2.5253053,1.786206,-0.30137527,-0.72365677,0.62088138,0
4.2557306,0.23332214,1.9377279,0.81077808,0.14819971,0.56628239,0
-3.774935,-3.7732677,-1.4954791,-0.81077808,-0.14819971,-0.56628239,0
-2.475781,1.3036693,-0.99646389,-0.50180852,0.67406046,0.54206133,0
-2.4176598,2.6943901,-4.3425331,0.30137527,0.72365677,-0.62088138,0
-5.5321074,-2.5920641,0.49065876,-0.81077808,-0.14819971,-0.56628239,0
-1.6711314,-2.3465433,3.0089355,-0.30137527,-0.72365677,0.62088138,0
0.29138184,2.4835417,-3.3346448,0.30137527,0.72365677,-0.62088138,0
3.688247,0.064499617,2.7319345,0.81077808,0.14819971,0.56628239,0
-1.5723288,1.265713,-5.8900509,0.30137527,0.72365677,-0.62088138,0
-1.2162982,-0.50558877,2.1319969,-0.50180852,0.67406046,0.54206133,0
2.2971439,-1.5762799,5.0545712,0.81077808,0.14819971,0.56628239,0
-2.1198938,2.1994016,-4.9357429,0.30137527,0.72365677,-0.62088138,0
-1.4758649,-3.2751844,1.8425226,-0.30137527,-0.72365677,0.62088138,0
-3.1511424,0.90767384,-3.7218018,-0.81077808,-0.14819971,-0.56628239,0
3.6888943,3.131449,1.669981,0.81077808,0.14819971,0.56628239,0
4.8935504,0.89695454,0.79248571,0.81077808,0.14819971,0.56628239,0
2.3375716,-1.3401148,4.9802852,0.81077808,0.14819971,0.56628239,0
0.12832189,1.669919,-4.5115128,0.30137527,0.72365677,-0.62088138,0
3.1123276,3.7691503,-0.64071178,0.30137527,0.72365677,-0.62088138,0
-3.3063393,-1.5917218,1.8677652,-0.50180852,0.67406046,0.54206133,0
2.4257975,3.2506375,0.91055298,-0.50180852,0.67406046,0.54206133,0
-3.6895366,-1.4492358,-2.1390269,-0.81077808,-0.14819971,-0.56628239,0
1.4323001,-2.189492,4.590589,-0.30137527,-0.72365677,0.62088138,0
0.79522961,-0.40452409,-1.5501709,0.50180852,-0.67406046,-0.54206133,0
4.9942074,2.5485473,0.20467949,0.81077808,0.14819971,0.56628239,0
-2.9759746,-1.1473426,-3.3645983,-0.81077808,-0.14819971,-0.56628239,0
-3.7949271,-3.2472157,0.93629789,-0.30137527,-0.72365677,0.62088138,0
-1.7099271,2.5339274,-4.2622156,0.30137527,0.72365677,-0.62088138,0
-5.2419672,-2.6747577,0.32978201,-0.81077808,-0.14819971,-0.56628239,0
-3.9702268,-3.0183716,-1.4435554,-0.81077808,-0.14819971,-0.56628239,0
-4.1845946,-4.1645608,-0.47057199,-0.30137527,-0.72365677,0.62088138,0
-0.74497443,-0.076635361,2.1415288,-0.50180852,0.67406046,0.54206133,0
-4.4798841,-3.1924543,0.69720602,-0.30137527,-0.72365677,0.62088138,0
3.3905191,-2.4777744,3.8461664,0.81077808,0.14819971,0.56628239,0
-0.80444384,-2.2344208,3.4085035,-0.30137527,-0.72365677,0.62088138,0
3.3601961,0.13923603,3.2418866,0.81077808,0.14819971,0.56628239,0
-4.744626,-3.6927099,-0.29314661,-0.81077808,-0.14819971,-0.56628239,0
-1.2951767,-1.6569108,3.4678361,-0.50180852,0.67406046,0.54206133,0
-3.9983296,-1.6219308,-1.730643,-0.81077808,-0.14819971,-0.56628239,0
5.2000694,1.9158952,-0.15850258,0.81077808,0.14819971,0.56628239,0
1.9765077,-0.56284332,-0.21649933,0.50180852,-0.67406046,-0.54206133,0
-0.013204575,-2.7304184,3.2251868,-0.30137527,-0.72365677,0.62088138,0
0.80545849,1.0376393,2.4057305,-0.50180852,0.67406046,0.54206133,0
-3.588156,0.14257693,-2.713069,-0.81077808,-0.14819971,-0.56628239,0
3.3108964,-2.9742827,3.977494,0.81077808,0.14819971,0.56628239,0
5.1309347,2.0322368,0.023512363,0.81077808,0.14819971,0.56628239,0
-3.8805397,-3.3572538,-1.6409819,-0.81077808,-0.14819971,-0.56628239,0
0.77872944,-3.2217474,3.0621829,-0.30137527,-0.72365677,0.62088138,0
2.3439896,-0.35787052,4.8271122,0.81077808,0.14819971,0.56628239,0
-2.2485397,0.87948477,-4.939353,-0.81077808,-0.14819971,-0.56628239,0
-2.4073448,1.1754551,-4.742178,-0.81077808,-0.14819971,-0.56628239,0
4.5950756,3.0395727,0.64878654,0.81077808,0.14819971,0.56628239,0
-1.2614831,-0.98986411,2.8889897,-0.50180852,0.67406046,0.54206133,0
-3.8937559,-0.42525506,-2.2561045,-0.81077808,-0.14819971,-0.56628239,0
-3.1049685,-0.3132692,-3.33828,-0.81077808,-0.14819971,-0.56628239,0
1.4518766,0.83513868,3.1149371,-0.50180852,0.67406046,0.54206133,0
2.3763359,-0.98850536,0.62100792,0.50180852,-0.67406046,-0.54206133,0
3.1157985,-1.533329,3.7171383,0.81077808,0.14819971,0.56628239,0
-3.2681723,0.25389403,-3.3232837,-0.81077808,-0.14819971,-0.56628239,0
3.2046869,-1.8245778,2.5621371,0.50180852,-0.67406046,-0.54206133,0
-3.527679,0.99728334,-3.0988843,-0.81077808,-0.14819971,-0.56628239,0
-1.1709208,-0.85071254,-2.7257922,0.50180852,-0.67406046,-0.54206133,0
2.7261698,-2.0861478,4.5404291,0.81077808,0.14819971,0.56628239,0
-4.0205851,-3.0450208,-1.2831771,-0.81077808,-0.14819971,-0.56628239,0
-0.56661129,-3.0438819,2.6761899,-0.30137527,-0.72365677,0.62088138,0
-5.1355882,-1.9119873,-0.22981787,-0.81077808,-0.14819971,-0.56628239,0
-2.6713917,1.4514122,-4.3787518,-0.81077808,-0.14819971,-0.56628239,0
0.56088638,-2.1347511,4.366909,-0.30137527,-0.72365677,0.62088138,0
1.9274426,-1.9215655,1.2443696,0.50180852,-0.67406046,-0.54206133,0
-4.5735989,-1.2936244,-1.2008243,-0.81077808,-0.14819971,-0.56628239,0
3.8021412,-1.4660159,2.9307256,0.81077808,0.14819971,0.56628239,0
-3.730711,-2.0056837,-2.2339375,-0.81077808,-0.14819971,-0.56628239,0
-1.4891741,1.2395313,-0.10474497,-0.50180852,0.67406046,0.54206133,0
-3.9379311,-3.7599308,0.039705753,-0.30137527,-0.72365677,0.62088138,0
0.50807405,-2.5831497,3.5434923,-0.30137527,-0.72365677,0.62088138,0
0.52340198,-1.5212743,4.8035588,-0.30137527,-0.72365677,0.62088138,0
2.5274105,-2.1184459,2.134855,0.50180852,-0.67406046,-0.54206133,0
-0.090505183,-1.0279349,-1.4026167,0.50180852,-0.67406046,-0.54206133,0
3.5163944,0.90211689,2.5330782,0.81077808,0.14819971,0.56628239,0
-3.4279265,-0.68849659,-2.8663945,-0.81077808,-0.14819971,-0.56628239,0
3.2676034,-0.8043341,3.6227019,0.81077808,0.14819971,0.56628239,0
0.17703819,-2.814817,3.1334071,-0.30137527,-0.72365677,0.62088138,0
2.8339293,-1.7290398,1.9485992,0.50180852,-0.67406046,-0.54206133,0
-1.5343184,-4.0999293,0.93473363,0.50180852,-0.67406046,-0.54206133,0
2.5413299,-1.6045599,4.5667758,0.81077808,0.14819971,0.56628239,0
0.80258727,-2.3679805,4.0266995,-0.30137527,-0.72365677,0.62088138,0
0.068433046,1.7539672,-4.2242432,0.30137527,0.72365677,-0.62088138,0
-2.7340662,2.5615635,-2.9938703,-0.50180852,0.67406046,0.54206133,0
1.7429855,-2.6607623,2.1595235,0.50180852,-0.67406046,-0.54206133,0
-4.6084709,-2.9472198,0.89357352,-0.30137527,-0.72365677,0.62088138,0
2.1125357,-0.13215446,-0.73188585,0.50180852,-0.67406046,-0.54206133,0
-3.0823383,-4.4514885,-0.24502301,0.50180852,-0.67406046,-0.54206133,0
0.33800888,0.39918768,-2.9054666,0.50180852,-0.67406046,-0.54206133,0
-2.9525006,-0.78108269,-3.586113,-0.81077808,-0.14819971,-0.56628239,0
-2.9841301,1.104874,-4.1102095,-0.81077808,-0.14819971,-0.56628239,0
-0.81561899,-3.9939189,1.3703668,0.50180852,-0.67406046,-0.54206133,0
-0.54610777,1.117679,-4.7334437,0.50180852,-0.67406046,-0.54206133,0
-2.3415132,-0.55932689,1.163234,-0.50180852,0.67406046,0.54206133,0
2.5405157,0.0091719627,4.4521365,0.81077808,0.14819971,0.56628239,0
-2.2301307,2.9488258,-4.1495194,0.30137527,0.72365677,-0.62088138,0
-3.7577002,1.0593119,-2.7200723,-0.81077808,-0.14819971,-0.56628239,0
-2.1872334,0.55664665,-4.9245315,-0.81077808,-0.14819971,-0.56628239,0
-4.451705,-1.4661089,-1.3008921,-0.81077808,-0.14819971,-0.56628239,0
3.7126012,4.300065,0.37864542,0.30137527,0.72365677,-0.62088138,0
4.1555142,1.3652214,1.724196,0.81077808,0.14819971,0.56628239,0
-2.8799486,2.8966749,-3.6490948,-0.50180852,0.67406046,0.54206133,0
-4.9298754,-2.8220825,-0.08706522,-0.81077808,-0.14819971,-0.56628239,0
-3.7503872,-0.1548574,-2.4381557,-0.81077808,-0.14819971,-0.56628239,0
4.0443802,-0.21937346,2.1881018,0.81077808,0.14819971,0.56628239,0
4.0370808,0.21521401,2.0901854,0.81077808,0.14819971,0.56628239,0
3.1502857,-0.49977624,3.5315869,0.81077808,0.14819971,0.56628239,0
-1.319248,2.2612815,-1.3859293,-0.50180852,0.67406046,0.54206133,0
3.5090861,4.2683473,0.6895833,-0.50180852,0.67406046,0.54206133,0
4.4581299,1.781538,1.1559243,0.81077808,0.14819971,0.56628239,0
-5.1443343,-2.1655464,-0.12983322,-0.81077808,-0.14819971,-0.56628239,0
-3.6066566,-2.4900296,-2.1596777,-0.81077808,-0.14819971,-0.56628239,0
-0.041080952,-2.819118,3.1222198,-0.30137527,-0.72365677,0.62088138,0
1.8545117,1.6894219,-3.3151145,0.50180852,-0.67406046,-0.54206133,0
-4.3956366,-1.1535836,-1.4551215,-0.81077808,-0.14819971,-0.56628239,0
3.6280656,3.1837716,1.9148839,0.81077808,0.14819971,0.56628239,0
-1.5525353,2.9435232,-3.7891221,0.30137527,0.72365677,-0.62088138,0
2.5257635,4.0978079,-0.44293165,0.30137527,0.72365677,-0.62088138,0
-2.6726356,0.88862276,-0.74962628,-0.50180852,0.67406046,0.54206133,0
0.83373022,-2.0971041,4.5032635,-0.30137527,-0.72365677,0.62088138,0
4.4014125,3.7721004,0.58568764,0.81077808,0.14819971,0.56628239,0
-0.30834961,-3.8342633,1.9079132,-0.30137527,-0.72365677,0.62088138,0
1.7929816,0.48556495,-1.7978404,0.50180852,-0.67406046,-0.54206133,0
0.77970183,-1.9767907,0.53854936,0.50180852,-0.67406046,-0.54206133,0
-3.4720814,-0.32928634,-0.029121637,-0.50180852,0.67406046,0.54206133,0
-4.0489798,0.41684461,-1.532639,-0.50180852,0.67406046,0.54206133,0
-2.013062,-2.3453181,2.6947312,-0.30137527,-0.72365677,0.62088138,0
2.1168375,-0.82928538,5.2450566,0.81077808,0.14819971,0.56628239,0
0.69070244,-1.6083927,-0.24193348,0.50180852,-0.67406046,-0.54206133,0
-2.7746701,-2.39959,2.1897562,-0.30137527,-0.72365677,0.62088138,0
0.14781284,2.3963578,-3.6725364,0.30137527,0.72365677,-0.62088138,0
-2.5681074,3.2191658,-4.0601602,0.30137527,0.72365677,-0.62088138,0
-2.5675302,-0.54367119,-4.1062617,-0.81077808,-0.14819971,-0.56628239,0
-3.8010836,-2.9033446,1.1732135,-0.30137527,-0.72365677,0.62088138,0
-3.7481282,-3.1288061,0.94157863,-0.30137527,-0.72365677,0.62088138,0
-1.6934712,-2.7156382,-1.1158321,0.50180852,-0.67406046,-0.54206133,0
-0.78898478,-3.0900679,2.458801,-0.30137527,-0.72365677,0.62088138,0
2.9579616,-0.094225794,3.603704,0.81077808,0.14819971,0.56628239,0
-1.437335,-3.1396825,1.9779347,-0.30137527,-0.72365677,0.62088138,0
-1.3411267,3.6109772,-2.9435365,0.30137527,0.72365677,-0.62088138,0
-0.83463287,-2.960701,2.4628892,-0.30137527,-0.72365677,0.62088138,0
-1.8771439,2.3253665,-4.765583,0.30137527,0.72365677,-0.62088138,0
3.3177581,0.38578099,2.9828851,0.81077808,0.14819971,0.56628239,0
1.4716878,-3.4259112,2.9794774,0.50180852,-0.67406046,-0.54206133,0
2.4609189,3.5841017,-1.1883833,0.30137527,0.72365677,-0.62088138,0
0.45316029,-2.6368852,3.5812314,-0.30137527,-0.72365677,0.62088138,0
-3.1477151,1.194155,-3.7683654,-0.81077808,-0.14819971,-0.56628239,0
-4.2766724,0.49660993,-2.1193151,-0.81077808,-0.14819971,-0.56628239,0
-2.8331032,-1.8920151,-3.0704784,0.50180852,-0.67406046,-0.54206133,0
-3.645092,-0.58737975,-2.7035341,-0.81077808,-0.14819971,-0.56628239,0
0.096344918,0.94788015,1.8505286,-0.50180852,0.67406046,0.54206133,0
-0.43257809,-3.8206954,1.4116641,0.50180852,-0.67406046,-0.54206133,0
-1.5424826,-2.7862709,-0.91217232,0.50180852,-0.67406046,-0.54206133,0
2.9246521,3.4170885,-1.1316137,0.30137527,0.72365677,-0.62088138,0
3.0120482,-0.59775043,0.90761828,0.50180852,-0.67406046,-0.54206133,0
2.7441654,-2.9275923,4.4231353,-0.30137527,-0.72365677,0.62088138,0
4.2354288,-0.58512425,1.9824485,0.50180852,-0.67406046,-0.54206133,0
2.5872526,0.08102417,-0.47880054,0.50180852,-0.67406046,-0.54206133,0
-3.6520748,-3.8727965,0.14647007,-0.30137527,-0.72365677,0.62088138,0
-1.1843648,2.876462,-3.6218309,0.30137527,0.72365677,-0.62088138,0
3.7303855,2.6193202,1.8955917,0.81077808,0.14819971,0.56628239,0
-4.0050359,-4.0726452,-1.2506099,-0.81077808,-0.14819971,-0.56628239,0
1.738059,2.7277243,-2.3513854,0.30137527,0.72365677,-0.62088138,0
3.8330276,2.572659,-1.5782504,0.30137527,0.72365677,-0.62088138,0
-5.1636028,-2.8345084,0.61569881,-0.30137527,-0.72365677,0.62088138,0
-0.30616665,-3.6351333,2.1982627,-0.30137527,-0.72365677,0.62088138,0
2.4647946,-1.8542026,5.0194759,0.81077808,0.14819971,0.56628239,0
0.26164103,3.7932105,-2.017808,0.30137527,0.72365677,-0.62088138,0
-2.001123,-2.3384433,2.9000683,-0.30137527,-0.72365677,0.62088138,0
2.9330506,-2.7740736,3.4524808,0.50180852,-0.67406046,-0.54206133,0
1.9579122,1.2586765,-2.360085,0.50180852,-0.67406046,-0.54206133,0
0.2928189,-0.79891419,-1.6077729,0.50180852,-0.67406046,-0.54206133,0
0.93300152,-0.14811444,-1.7028565,0.50180852,-0.67406046,-0.54206133,0
3.0336406,-0.060740411,3.4628854,0.81077808,0.14819971,0.56628239,0
-2.5901036,-0.47965485,-4.1789622,-0.81077808,-0.14819971,-0.56628239,0
-2.3802862,-2.0510859,3.0022635,-0.30137527,-0.72365677,0.62088138,0
4.0406237,-0.83147836,2.4596825,0.81077808,0.14819971,0.56628239,0
-2.0419281,2.4180152,-4.5803766,0.30137527,0.72365677,-0.62088138,0
-0.8824358,2.2031264,-4.3910499,0.30137527,0.72365677,-0.62088138,0
-3.3788714,2.1719832,-3.8007653,-0.81077808,-0.14819971,-0.56628239,0
-5.2973194,-2.9485137,0.48721313,-0.81077808,-0.14819971,-0.56628239,0
-0.63025475,3.4562898,-2.7363255,0.30137527,0.72365677,-0.62088138,0
2.3433576,-3.1535351,3.8221912,-0.30137527,-0.72365677,0.62088138,0
4.417181,0.77868986,1.3535752,0.81077808,0.14819971,0.56628239,0
-2.0572951,-1.1864769,2.4806664,-0.50180852,0.67406046,0.54206133,0
-0.8803401,2.1367345,-4.4816513,0.30137527,0.72365677,-0.62088138,0
-1.4636059,0.3401227,-4.5908332,0.50180852,-0.67406046,-0.54206133,0
3.5177102,2.6819882,-1.5810976,0.30137527,0.72365677,-0.62088138,0
1.0004115,-2.6929712,1.413497,0.50180852,-0.67406046,-0.54206133,0
-2.2718496,-1.5263276,-2.9228563,0.50180852,-0.67406046,-0.54206133,0
3.797612,0.148031,0.5408566,0.50180852,-0.67406046,-0.54206133,0
0.92713511,1.4393752,1.7628399,-0.50180852,0.67406046,0.54206133,0
-1.5184786,-0.81904125,-3.3254383,0.50180852,-0.67406046,-0.54206133,0
2.4269462,0.49695653,4.4346318,0.81077808,0.14819971,0.56628239,0
-3.1614573,1.7884574,-3.8423402,-0.81077808,-0.14819971,-0.56628239,0
-3.1720059,3.1401129,-4.2004805,-0.81077808,-0.14819971,-0.56628239,0
-2.4297705,2.6169915,-4.4262567,0.30137527,0.72365677,-0.62088138,0
-2.5559106,-2.3806,-1.9942489,0.50180852,-0.67406046,-0.54206133,0
3.6748874,-0.9201386,2.7732334,0.81077808,0.14819971,0.56628239,0
-3.3196146,-3.1066186,1.2660096,-0.30137527,-0.72365677,0.62088138,0
-4.1537142,-3.1221302,-1.2168708,-0.81077808,-0.14819971,-0.56628239,0
0.95975399,-3.1909385,3.3273242,-0.30137527,-0.72365677,0.62088138,0
1.6316659,1.7369269,-3.3999364,0.50180852,-0.67406046,-0.54206133,0
4.0244055,3.6966281,1.0660491,0.81077808,0.14819971,0.56628239,0
4.5368905,2.5644691,0.8009367,0.81077808,0.14819971,0.56628239,0
-2.8068705,1.7302412,-4.22473,-0.81077808,-0.14819971,-0.56628239,0
2.389492,3.5437198,-1.1440997,0.30137527,0.72365677,-0.62088138,0
2.5869589,-1.6871221,4.8192291,0.81077808,0.14819971,0.56628239,0
2.5784066,1.3467777,3.5857582,-0.50180852,0.67406046,0.54206133,0
2.3998711,-3.1312685,3.2108667,0.50180852,-0.67406046,-0.54206133,0
1.3856125,1.0920248,2.5366893,-0.50180852,0.67406046,0.54206133,0
-4.0247483,-1.998091,-1.5453637,-0.81077808,-0.14819971,-0.56628239,0
-3.4469676,-1.5202816,-2.6301763,-0.81077808,-0.14819971,-0.56628239,0
-4.6772728,-0.27736878,-1.043751,-0.50180852,0.67406046,0.54206133,0
-1.8660219,-1.559159,-2.5540929,0.50180852,-0.67406046,-0.54206133,0
2.2568684,1.7774487,-2.7068093,0.50180852,-0.67406046,-0.54206133,0
-0.4054625,1.6943705,-4.7624412,0.30137527,0.72365677,-0.62088138,0
2.4598877,-2.4278872,4.8948131,-0.30137527,-0.72365677,0.62088138,0
4.7365756,0.73732591,0.79618049,0.81077808,0.14819971,0.56628239,0
-1.1660776,0.09093523,1.5603412,-0.50180852,0.67406046,0.54206133,0
-3.439044,2.5481358,-3.8461864,-0.81077808,-0.14819971,-0.56628239,0
5.062994,1.85235,-0.31111526,0.50180852,-0.67406046,-0.54206133,0
-4.0557275,1.3625393,-2.6678231,-0.81077808,-0.14819971,-0.56628239,0
3.8958607,1.9822025,2.0154765,0.81077808,0.14819971,0.56628239,0
1.3819232,4.0193353,-1.2019795,0.30137527,0.72365677,-0.62088138,0
-3.4737082,0.95471704,-3.1332984,-0.81077808,-0.14819971,-0.56628239,0
4.7907166,1.6381474,0.54041815,0.81077808,0.14819971,0.56628239,0
1.0698943,2.9626164,-2.3977709,0.30137527,0.72365677,-0.62088138,0
-2.806932,-0.83546686,-3.7134428,-0.81077808,-0.14819971,-0.56628239,0
1.6040173,2.4913146,-2.706032,0.30137527,0.72365677,-0.62088138,0
-0.67679358,-3.7560506,1.6067945,-0.30137527,-0.72365677,0.62088138,0
-0.91692877,2.6791651,-3.6960254,0.30137527,0.72365677,-0.62088138,0
3.147984,0.47065616,-0.27061105,0.50180852,-0.67406046,-0.54206133,0
2.3768961,-3.0003562,4.2228508,-0.30137527,-0.72365677,0.62088138,0
0.73548722,-3.2535982,1.9319769,0.50180852,-0.67406046,-0.54206133,0
-1.1123321,1.4493505,-0.065750673,-0.50180852,0.67406046,0.54206133,0
3.0392694,2.5059595,2.6237984,-0.50180852,0.67406046,0.54206133,0
3.2333369,-2.7945685,4.2128901,0.81077808,0.14819971,0.56628239,0
-2.7546959,0.15621151,-4.0041523,-0.81077808,-0.14819971,-0.56628239,0
3.4838059,0.34329206,2.7248573,0.81077808,0.14819971,0.56628239,0
3.6475947,0.66600281,2.7261195,0.81077808,0.14819971,0.56628239,0
3.0712283,0.14986095,3.4827271,0.81077808,0.14819971,0.56628239,0
-0.43590736,-1.8361167,-0.89785415,0.50180852,-0.67406046,-0.54206133,0
5.2632375,2.5679057,-0.85816526,0.30137527,0.72365677,-0.62088138,0
-3.8210845,-1.9642717,-2.1007226,-0.81077808,-0.14819971,-0.56628239,0
2.8022783,1.9029198,-2.6677651,0.50180852,-0.67406046,-0.54206133,0
0.12316072,0.1650691,-2.9065547,0.50180852,-0.67406046,-0.54206133,0
0.5572474,2.5276053,-3.2333388,0.30137527,0.72365677,-0.62088138,0
-2.7463632,-0.70326853,-3.9333024,-0.81077808,-0.14819971,-0.56628239,0
-2.3895502,0.16147566,-4.5782065,-0.81077808,-0.14819971,-0.56628239,0
1.4840007,2.3245039,-2.9596364,0.30137527,0.72365677,-0.62088138,0
-0.73602843,-2.6572733,3.0430374,-0.30137527,-0.72365677,0.62088138,0
3.7397954,0.84529257,-0.43659043,0.50180852,-0.67406046,-0.54206133,0
0.84488821,-3.3408167,2.9944482,-0.30137527,-0.72365677,0.62088138,0
3.8193493,3.8677893,-0.022322655,0.30137527,0.72365677,-0.62088138,0
0.82116389,2.3247731,0.4679867,-0.50180852,0.67406046,0.54206133,0
-1.2464428,2.8185849,-3.7413843,0.30137527,0.72365677,-0.62088138,0
-3.4074664,-0.34904641,-3.0493112,-0.81077808,-0.14819971,-0.56628239,0
1.9537588,-1.5067227,5.4361277,0.81077808,0.14819971,0.56628239,0
0.98878384,3.1565366,-2.3678594,0.30137527,0.72365677,-0.62088138,0
3.6441336,3.0649974,2.0942469,0.81077808,0.14819971,0.56628239,0
-3.3102198,-1.3925016,1.4622003,-0.50180852,0.67406046,0.54206133,0
2.7944043,0.86462212,-1.3727206,0.50180852,-0.67406046,-0.54206133,0
2.1106474,-2.8188708,4.0407376,-0.30137527,-0.72365677,0.62088138,0
4.6250343,2.8345184,-0.81453466,0.30137527,0.72365677,-0.62088138,0
-1.3930357,3.3465879,-3.2218456,0.30137527,0.72365677,-0.62088138,0
4.3713613,3.8793838,0.27776718,0.30137527,0.72365677,-0.62088138,0
-1.1114712,-1.6246352,3.7339103,-0.50180852,0.67406046,0.54206133,0
-1.1110182,2.580569,-3.9823332,0.30137527,0.72365677,-0.62088138,0
-1.9115567,-3.7069235,1.3116839,-0.30137527,-0.72365677,0.62088138,0
-1.0458403,-3.9138722,1.1388338,0.50180852,-0.67406046,-0.54206133,0
2.6106086,-1.8725312,4.68399,0.81077808,0.14819971,0.56628239,0
1.0495627,2.5440612,-3.0643704,0.30137527,0.72365677,-0.62088138,0
-0.90267563,-3.7904091,1.6886435,-0.30137527,-0.72365677,0.62088138,0
0.24413228,-2.2578955,4.0167704,-0.30137527,-0.72365677,0.62088138,0
-1.2313561,3.4958344,-2.9550796,0.30137527,0.72365677,-0.62088138,0
0.85810626,2.0246792,1.0222439,-0.50180852,0.67406046,0.54206133,0
-3.3677468,2.4800868,-3.3789313,-0.50180852,0.67406046,0.54206133,0
-2.1961503,-4.2294841,0.47708917,-0.30137527,-0.72365677,0.62088138,0
4.9508896,1.2426889,0.091922045,0.50180852,-0.67406046,-0.54206133,0
-3.0746956,2.0943282,-4.124104,-0.81077808,-0.14819971,-0.56628239,0
-2.94345,-0.5480569,-3.6456652,-0.81077808,-0.14819971,-0.56628239,0
4.0480685,1.5749812,1.8578372,0.81077808,0.14819971,0.56628239,0
2.7421055,-1.2677158,1.4494269,0.50180852,-0.67406046,-0.54206133,0
3.4311054,-1.6290975,3.5688338,0.81077808,0.14819971,0.56628239,0
-3.4055305,-2.3742905,-2.4365075,-0.81077808,-0.14819971,-0.56628239,0
5.3729877,2.5007541,-0.38075495,0.81077808,0.14819971,0.56628239,0
-3.9556458,-3.6349421,-1.3701873,-0.81077808,-0.14819971,-0.56628239,0
-4.2450666,0.37855101,-1.7147934,-0.50180852,0.67406046,0.54206133,0
-2.121799,2.0825405,-5.0783505,0.30137527,0.72365677,-0.62088138,0
0.8620863,-2.5015347,3.8193512,-0.30137527,-0.72365677,0.62088138,0
-0.15125608,2.5745487,-3.4940202,0.30137527,0.72365677,-0.62088138,0
-0.18715644,-2.6900015,0.54587859,0.50180852,-0.67406046,-0.54206133,0
0.8317523,0.29763985,-2.2685971,0.50180852,-0.67406046,-0.54206133,0
3.4984231,2.6255918,-1.6147697,0.30137527,0.72365677,-0.62088138,0
1.0271306,1.8132412,1.457229,-0.50180852,0.67406046,0.54206133,0
-5.2407255,-2.8486071,0.47924566,-0.30137527,-0.72365677,0.62088138,0
-3.9425347,-3.2682743,-1.3042848,-0.81077808,-0.14819971,-0.56628239,0
3.6558433,2.4951036,2.0247791,0.81077808,0.14819971,0.56628239,0
-3.9276738,0.47503495,-2.4782867,-0.81077808,-0.14819971,-0.56628239,0
1.9498405,-3.2888699,3.0964785,0.50180852,-0.67406046,-0.54206133,0
0.8134737,-0.79550183,-1.0844281,0.50180852,-0.67406046,-0.54206133,0
3.2271686,1.8226688,3.0075645,0.81077808,0.14819971,0.56628239,0
-4.9159951,-2.4194765,-0.11019754,-0.81077808,-0.14819971,-0.56628239,0
0.12936783,2.9785817,-2.9193356,0.30137527,0.72365677,-0.62088138,0
2.9462988,-0.57204419,3.719445,0.81077808,0.14819971,0.56628239,0
4.2103658,2.1033292,1.255553,0.81077808,0.14819971,0.56628239,0
-0.77903032,-2.2341142,3.5673194,-0.30137527,-0.72365677,0.62088138,0
-4.5787625,-1.2634921,-0.98028302,-0.81077808,-0.14819971,-0.56628239,0
-5.1774149,-1.7035706,-0.26209021,-0.81077808,-0.14819971,-0.56628239,0
0.11583924,-1.9402027,4.1834583,-0.30137527,-0.72365677,0.62088138,0
-2.3561156,-3.7948325,-0.20647693,0.50180852,-0.67406046,-0.54206133,0
3.1721573,1.1071022,-1.0327795,0.50180852,-0.67406046,-0.54206133,0
1.6109564,2.2513838,-3.1324239,0.30137527,0.72365677,-0.62088138,0
1.3829573,-0.15846241,4.3640285,-0.50180852,0.67406046,0.54206133,0
4.4965234,3.5460894,0.49126196,0.81077808,0.14819971,0.56628239,0
-3.3428726,-3.9614792,0.33858132,-0.30137527,-0.72365677,0.62088138,0
1.3247659,-2.951741,3.5260463,-0.30137527,-0.72365677,0.62088138,0
1.7160928,-0.69272709,-0.38098836,0.50180852,-0.67406046,-0.54206133,0
-2.7880025,-3.4161384,1.0660014,-0.30137527,-0.72365677,0.62088138,0
1.2504895,2.5873742,-2.6760218,0.30137527,0.72365677,-0.62088138,0
-1.0029392,-1.9343318,3.651588,-0.30137527,-0.72365677,0.62088138,0
-4.1175313,0.87146115,-2.2843919,-0.81077808,-0.14819971,-0.56628239,0
-2.7080829,-1.1511425,-3.7221661,-0.81077808,-0.14819971,-0.56628239,0
-0.65462768,-0.22142005,-3.1575019,0.50180852,-0.67406046,-0.54206133,0
-3.0629787,0.97422713,-3.7017798,-0.81077808,-0.14819971,-0.56628239,0
4.6551905,0.61868405,1.2586324,0.81077808,0.14819971,0.56628239,0
-2.6461074,-0.15695119,0.55759692,-0.50180852,0.67406046,0.54206133,0
-5.1865706,-2.5560231,-0.0073137283,-0.81077808,-0.14819971,-0.56628239,0
2.9096091,-0.1001092,3.6344147,0.81077808,0.14819971,0.56628239,0
-1.9073694,-3.2804303,-0.49770594,0.50180852,-0.67406046,-0.54206133,0
1.9851182,2.7795873,1.1483068,-0.50180852,0.67406046,0.54206133,0
-1.9592834,3.3879099,-3.2864695,-0.50180852,0.67406046,0.54206133,0
-1.2401004,0.37980556,1.1098186,-0.50180852,0.67406046,0.54206133,0
-3.775315,-2.6627324,1.5096791,-0.30137527,-0.72365677,0.62088138,0
2.1790426,2.3598287,-2.5485361,0.30137527,0.72365677,-0.62088138,0
-0.45403337,-3.4328008,0.98388863,0.50180852,-0.67406046,-0.54206133,0
4.3036175,-0.50546193,1.9352705,0.81077808,0.14819971,0.56628239,0
3.30182,1.6404617,2.8818145,0.81077808,0.14819971,0.56628239,0
2.1752481,0.49287987,4.2724328,-0.50180852,0.67406046,0.54206133,0
3.5868611,-1.401855,3.2635682,0.81077808,0.14819971,0.56628239,0
3.3879266,-0.74737942,3.2554672,0.81077808,0.14819971,0.56628239,0
1.4849064,-1.7090471,5.1190886,-0.30137527,-0.72365677,0.62088138,0
3.9563699,4.3807631,0.43868876,0.30137527,0.72365677,-0.62088138,0
-2.6275964,-4.2997975,0.24965382,-0.30137527,-0.72365677,0.62088138,0
2.9494188,0.87559634,3.5547957,0.81077808,0.14819971,0.56628239,0
0.27055669,0.10064578,-2.7106934,0.50180852,-0.67406046,-0.54206133,0
-1.5135972,3.4743347,-3.1671162,0.30137527,0.72365677,-0.62088138,0
-2.5958242,1.8666636,-1.8916845,-0.50180852,0.67406046,0.54206133,0
5.1838174,1.8693867,-0.022653103,0.81077808,0.14819971,0.56628239,0
1.601102,0.023793697,4.2380724,-0.50180852,0.67406046,0.54206133,0
-4.477294,-2.8784513,-0.88322639,-0.81077808,-0.14819971,-0.56628239,0
-0.67507792,2.8150334,-3.5011411,0.30137527,0.72365677,-0.62088138,0
2.0043859,-2.6460471,4.4017715,-0.30137527,-0.72365677,0.62088138,0
2.6253099,-0.96864402,4.3705387,0.81077808,0.14819971,0.56628239,0
-3.5442228,1.1736896,-1.9786035,-0.50180852,0.67406046,0.54206133,0
3.8552346,1.8210979,1.8846688,0.81077808,0.14819971,0.56628239,0
0.50718284,-3.057445,2.9913306,-0.30137527,-0.72365677,0.62088138,0
2.3613348,-0.0060509443,4.5844665,0.81077808,0.14819971,0.56628239,0
-0.71424198,2.9604471,-1.6541553,-0.50180852,0.67406046,0.54206133,0
2.7847102,0.6879974,3.8278141,0.81077808,0.14819971,0.56628239,0
4.6473856,3.4934077,-0.094916821,0.30137527,0.72365677,-0.62088138,0
-5.2144971,-2.771033,0.2277441,-0.81077808,-0.14819971,-0.56628239,0
-0.39465451,2.0305254,-4.4077892,0.30137527,0.72365677,-0.62088138,0
2.1071048,2.4040811,1.6949543,-0.50180852,0.67406046,0.54206133,0
-2.2712224,2.4664991,-2.5134966,-0.50180852,0.67406046,0.54206133,0
-5.3115301,-2.7107823,0.29881477,-0.81077808,-0.14819971,-0.56628239,0
-2.9999709,-3.0430834,1.3436034,-0.30137527,-0.72365677,0.62088138,0
-4.8924332,-2.2069287,1.1563921,-0.50180852,0.67406046,0.54206133,0
2.9536293,-1.3711426,1.6246748,0.50180852,-0.67406046,-0.54206133,0
0.23242927,1.9606681,0.6403107,-0.50180852,0.67406046,0.54206133,0
-1.8075266,-3.5770457,1.5323492,-0.30137527,-0.72365677,0.62088138,0
-3.2197967,1.5866945,-3.8314946,-0.81077808,-0.14819971,-0.56628239,0
-1.5648751,3.2174015,-2.833199,-0.50180852,0.67406046,0.54206133,0
-2.9234354,-1.3867824,-3.384836,-0.81077808,-0.14819971,-0.56628239,0
-3.8399322,-3.4867997,-1.6598797,-0.81077808,-0.14819971,-0.56628239,0
-3.6169131,-2.7221675,-2.1931524,-0.81077808,-0.14819971,-0.56628239,0
-1.6471117,-3.4058871,-0.0094296932,0.50180852,-0.67406046,-0.54206133,0
-2.6085486,0.74583572,-4.3643274,-0.81077808,-0.14819971,-0.56628239,0
3.0634768,1.2339891,3.4076767,0.81077808,0.14819971,0.56628239,0
1.233098,-2.5421817,4.0505967,-0.30137527,-0.72365677,0.62088138,0
-1.1436129,-3.0031228,2.3735423,-0.30137527,-0.72365677,0.62088138,0
-4.5216341,-3.8250632,-0.094758034,-0.30137527,-0.72365677,0.62088138,0
-0.69924617,-2.5546002,3.0435355,-0.30137527,-0.72365677,0.62088138,0
-1.0214055,-0.16168714,-3.4171867,0.50180852,-0.67406046,-0.54206133,0
-1.2042061,-0.38493085,2.2552514,-0.50180852,0.67406046,0.54206133,0
1.711435,0.3488723,4.0335455,-0.50180852,0.67406046,0.54206133,0
-2.6093071,-2.9683893,-1.5336316,0.50180852,-0.67406046,-0.54206133,0
-2.8737659,1.5757308,-4.1923904,-0.81077808,-0.14819971,-0.56628239,0
4.3679771,1.0366273,0.089161158,0.50180852,-0.67406046,-0.54206133,0
-2.2609608,0.30749714,-4.9384165,-0.81077808,-0.14819971,-0.56628239,0
3.4836199,3.2926002,-0.78450012,0.30137527,0.72365677,-0.62088138,0
0.51156157,-0.09909904,3.1928205,-0.50180852,0.67406046,0.54206133,0
0.73539615,-1.4743325,-0.36318129,0.50180852,-0.67406046,-0.54206133,0
-2.1487753,-2.5677843,-1.662117,0.50180852,-0.67406046,-0.54206133,0
0.28987694,-3.0385399,1.2862066,0.50180852,-0.67406046,-0.54206133,0
4.6168222,3.5990508,0.0071249008,0.30137527,0.72365677,-0.62088138,0
-3.4072256,-1.081007,1.0027046,-0.50180852,0.67406046,0.54206133,0
-4.1979604,-3.8742456,-0.88787508,-0.81077808,-0.14819971,-0.56628239,0
2.990051,0.61494255,3.344718,0.81077808,0.14819971,0.56628239,0
4.8025799,2.6446819,-1.1363614,0.30137527,0.72365677,-0.62088138,0
1.1047797,-2.084959,4.5919871,-0.30137527,-0.72365677,0.62088138,0
-3.7963223,1.0863857,-2.1589913,-0.50180852,0.67406046,0.54206133,0
-2.4854991,-2.6792159,2.0797858,-0.30137527,-0.72365677,0.62088138,0
1.8393457,-2.4174829,4.4444256,-0.30137527,-0.72365677,0.62088138,0
2.23105,-1.9191124,5.2007508,-0.30137527,-0.72365677,0.62088138,0
-2.2852101,0.37367237,-4.7001171,-0.81077808,-0.14819971,-0.56628239,0
1.9101138,-1.2027078,5.614748,0.81077808,0.14819971,0.56628239,0
1.8875555,-1.0486319,5.5299196,0.81077808,0.14819971,0.56628239,0
-2.0046039,-0.71904135,-3.7708783,0.50180852,-0.67406046,-0.54206133,0
-5.1982565,-2.5307305,0.2320776,-0.81077808,-0.14819971,-0.56628239,0
3.600879,-1.6706632,3.3057232,0.81077808,0.14819971,0.56628239,0
2.7845032,-2.3703222,4.4179001,0.81077808,0.14819971,0.56628239,0
2.9104178,-3.0618308,4.4065399,-0.30137527,-0.72365677,0.62088138,0
4.3913283,1.6716369,1.1496551,0.81077808,0.14819971,0.56628239,0
-3.6654174,-1.6616454,1.3508496,-0.50180852,0.67406046,0.54206133,0
-3.3010018,2.0908506,-3.7946482,-0.81077808,-0.14819971,-0.56628239,0
-3.6400239,0.15208972,-2.9157047,-0.81077808,-0.14819971,-0.56628239,0
3.2907577,3.042073,2.1631491,-0.50180852,0.67406046,0.54206133,0
2.5625825,3.1068184,-1.5674002,0.30137527,0.72365677,-0.62088138,0
-2.9644675,0.28665918,-3.8280194,-0.81077808,-0.14819971,-0.56628239,0
2.6159699,-1.8249743,4.8304873,0.81077808,0.14819971,0.56628239,0
-4.6011429,-1.9991214,-0.73483276,-0.81077808,-0.14819971,-0.56628239,0
-3.2735758,-3.2748461,-1.6515789,0.50180852,-0.67406046,-0.54206133,0
-2.386234,0.84372395,-4.6605363,-0.81077808,-0.14819971,-0.56628239,0
2.9929321,1.4588305,3.3927486,0.81077808,0.14819971,0.56628239,0
5.2513084,2.9116483,-0.23944855,0.81077808,0.14819971,0.56628239,0
0.87190282,-1.7767648,0.39814672,0.50180852,-0.67406046,-0.54206133,0
1.4302237,-1.5491265,0.6171689,0.50180852,-0.67406046,-0.54206133,0
-1.1849344,0.95181215,-5.1032257,0.50180852,-0.67406046,-0.54206133,0
2.2653713,-1.630554,5.2483029,0.81077808,0.14819971,0.56628239,0
-2.2938645,0.45206821,-4.7883306,-0.81077808,-0.14819971,-0.56628239,0
-3.4960666,-3.8099694,0.32124019,-0.30137527,-0.72365677,0.62088138,0
1.6897719,1.0847201,2.9929824,-0.50180852,0.67406046,0.54206133,0
-1.8658845,2.282402,-4.8362732,0.30137527,0.72365677,-0.62088138,0
0.97100949,-3.4150789,2.3407369,0.50180852,-0.67406046,-0.54206133,0
5.0904856,2.7034612,0.031039238,0.81077808,0.14819971,0.56628239,0
0.76235795,0.24068213,-2.4756014,0.50180852,-0.67406046,-0.54206133,0
4.6727276,1.8986501,0.66247487,0.81077808,0.14819971,0.56628239,0
1.9765151,3.2216113,0.69202781,-0.50180852,0.67406046,0.54206133,0
4.1990976,4.1435757,0.93189144,0.81077808,0.14819971,0.56628239,0
2.526113,4.2241402,-0.24514985,-0.50180852,0.67406046,0.54206133,0
-0.86919069,3.6896136,-2.5868032,0.30137527,0.72365677,-0.62088138,0
0.80315208,1.6276309,-4.0510578,0.50180852,-0.67406046,-0.54206133,0
-1.9913465,1.6573676,-5.3584757,-0.81077808,-0.14819971,-0.56628239,0
2.0232127,-0.45598316,5.0322285,0.81077808,0.14819971,0.56628239,0
-1.7223735,2.7820024,-4.1395369,0.30137527,0.72365677,-0.62088138,0
1.7061219,-2.555295,4.3160496,-0.30137527,-0.72365677,0.62088138,0
-0.037873507,2.330152,-3.888222,0.30137527,0.72365677,-0.62088138,0
2.8400152,-1.0672853,1.0291891,0.50180852,-0.67406046,-0.54206133,0
-3.3133483,-3.1113608,1.168798,-0.30137527,-0.72365677,0.62088138,0
-0.14701533,-1.2296405,-1.4408857,0.50180852,-0.67406046,-0.54206133,0
2.4657631,2.159863,-2.7640512,0.30137527,0.72365677,-0.62088138,0
-3.4758894,-2.6738124,1.7820263,-0.30137527,-0.72365677,0.62088138,0
2.1979265,-2.8304126,2.8686666,0.50180852,-0.67406046,-0.54206133,0
-3.2120347,-0.10496974,0.099220514,-0.50180852,0.67406046,0.54206133,0
3.6438546,3.3494506,-0.74967885,0.30137527,0.72365677,-0.62088138,0
0.069952607,-1.7079132,-0.40117985,0.50180852,-0.67406046,-0.54206133,0
2.6678641,0.23119083,4.0395765,0.81077808,0.14819971,0.56628239,0
-0.15202221,-0.44159174,-2.5081422,0.50180852,-0.67406046,-0.54206133,0
2.5071256,-0.73683238,4.468771,0.81077808,0.14819971,0.56628239,0
3.7155528,1.2035863,-0.91632009,0.50180852,-0.67406046,-0.54206133,0
1.2479768,3.4593422,-1.9068108,0.30137527,0.72365677,-0.62088138,0
-1.6791582,2.8940616,-2.2487683,-0.50180852,0.67406046,0.54206133,0
-3.7902594,0.64903307,-2.8178368,-0.81077808,-0.14819971,-0.56628239,0
-2.3969824,-0.40112889,-4.2482505,-0.81077808,-0.14819971,-0.56628239,0
-3.3744521,-3.9436398,0.34556055,-0.30137527,-0.72365677,0.62088138,0
2.7535839,0.17413697,3.9845829,0.81077808,0.14819971,0.56628239,0
5.2101126,3.2155156,-0.236588,0.81077808,0.14819971,0.56628239,0
-5.2774668,-2.8282583,0.40756702,-0.81077808,-0.14819971,-0.56628239,0
4.6855078,3.2176032,-0.44566059,0.30137527,0.72365677,-0.62088138,0
2.6543972,0.774427,4.1110749,0.81077808,0.14819971,0.56628239,0
0.69268894,1.6444421,1.2483679,-0.50180852,0.67406046,0.54206133,0
3.139925,-1.1024444,3.8555865,0.81077808,0.14819971,0.56628239,0
-2.0762572,1.2358111,-5.1784058,-0.81077808,-0.14819971,-0.56628239,0
-1.6160544,-0.76583624,2.3254061,-0.50180852,0.67406046,0.54206133,0
-0.10015678,0.63801873,2.0251226,-0.50180852,0.67406046,0.54206133,0
1.6146455,-0.88819253,-0.021630883,0.50180852,-0.67406046,-0.54206133,0
-0.84834826,0.016296387,-3.4352345,0.50180852,-0.67406046,-0.54206133,0
-4.7580605,-2.0293932,-0.56428552,-0.81077808,-0.14819971,-0.56628239,0
4.0395799,1.8797809,1.721643,0.81077808,0.14819971,0.56628239,0
2.8755169,0.3418929,3.6863661,0.81077808,0.14819971,0.56628239,0
4.7280378,0.91457558,1.1036656,0.81077808,0.14819971,0.56628239,0
2.4282322,-0.65891963,4.5924978,0.81077808,0.14819971,0.56628239,0
-0.61529565,2.0273607,-4.509654,0.30137527,0.72365677,-0.62088138,0
-1.6932988,3.2141471,-2.8322477,-0.50180852,0.67406046,0.54206133,0
2.2185631,4.0682197,-0.78389406,0.30137527,0.72365677,-0.62088138,0
0.67185116,-1.7229277,-0.050592184,0.50180852,-0.67406046,-0.54206133,0
-3.1034465,2.5241005,-4.1498561,-0.81077808,-0.14819971,-0.56628239,0
-2.3930917,-3.3530848,1.5217273,-0.30137527,-0.72365677,0.62088138,0
0.45195419,-0.2684114,-2.0085742,0.50180852,-0.67406046,-0.54206133,0
-1.5679756,-0.10133517,-4.0008483,0.50180852,-0.67406046,-0.54206133,0
-2.1691713,1.9721912,-5.1449533,0.30137527,0.72365677,-0.62088138,0
5.1534624,3.1586757,-0.2831583,0.81077808,0.14819971,0.56628239,0
5.1219044,1.4885232,0.24640942,0.50180852,-0.67406046,-0.54206133,0
-5.4459333,-2.6173816,0.8258872,-0.30137527,-0.72365677,0.62088138,0
2.8262639,3.5279846,-0.84820414,0.30137527,0.72365677,-0.62088138,0
-3.2602949,-0.10797751,-3.2780859,-0.81077808,-0.14819971,-0.56628239,0
-0.13032532,3.6550565,-1.7774975,-0.50180852,0.67406046,0.54206133,0
-5.1330023,-1.7785528,-0.22894573,-0.81077808,-0.14819971,-0.56628239,0
-3.2783647,-2.66643,1.8018365,-0.30137527,-0.72365677,0.62088138,0
3.4867475,2.8581367,-1.2800457,0.30137527,0.72365677,-0.62088138,0
1.1065776,2.2651675,-3.2551281,0.30137527,0.72365677,-0.62088138,0
-4.4026823,-2.5819006,-0.90210319,-0.81077808,-0.14819971,-0.56628239,0
1.313036,3.1409101,-2.2102718,0.30137527,0.72365677,-0.62088138,0
4.7809968,2.8051262,0.37448072,0.81077808,0.14819971,0.56628239,0
2.195755,-1.302615,5.2164598,0.81077808,0.14819971,0.56628239,0
-4.524045,-2.3342352,-0.89279652,-0.81077808,-0.14819971,-0.56628239,0
-0.99497724,2.9337645,-3.5063496,0.30137527,0.72365677,-0.62088138,0
-1.4023523,1.4825139,-5.3253345,0.30137527,0.72365677,-0.62088138,0
-0.34295654,-3.2931101,2.4985044,-0.30137527,-0.72365677,0.62088138,0
-2.310956,-3.7301488,0.94123554,-0.30137527,-0.72365677,0.62088138,0
1.9085653,-0.44242907,5.1310053,-0.50180852,0.67406046,0.54206133,0
4.2078338,1.2079079,1.53812,0.81077808,0.14819971,0.56628239,0
-1.6848519,3.1979675,-2.8648202,-0.50180852,0.67406046,0.54206133,0
-3.1261258,-4.1504335,0.23426747,-0.30137527,-0.72365677,0.62088138,0
1.1377418,2.3201501,-3.1547039,0.30137527,0.72365677,-0.62088138,0
3.6179967,2.7211256,2.0459402,0.81077808,0.14819971,0.56628239,0
1.7061539,-3.0718758,3.7651496,-0.30137527,-0.72365677,0.62088138,0
1.8365604,-2.2948618,1.7238343,0.50180852,-0.67406046,-0.54206133,0
-0.50411749,3.6439247,-2.3257728,0.30137527,0.72365677,-0.62088138,0
-0.16979456,-2.3864658,3.7359333,-0.30137527,-0.72365677,0.62088138,0
-1.3320608,2.0500424,-4.7545695,0.30137527,0.72365677,-0.62088138,0
3.8044202,0.021509171,2.5419922,0.81077808,0.14819971,0.56628239,0
3.9160471,1.9107687,1.6929176,0.81077808,0.14819971,0.56628239,0
-1.9149084,2.8318233,-3.9340758,0.30137527,0.72365677,-0.62088138,0
-1.3461709,-3.3465066,1.8920223,-0.30137527,-0.72365677,0.62088138,0
1.9707232,-0.5877887,5.2699184,0.81077808,0.14819971,0.56628239,0
-3.2078335,3.0862579,-4.2305293,-0.81077808,-0.14819971,-0.56628239,0
-2.3227363,2.0703802,-5.2649956,-0.81077808,-0.14819971,-0.56628239,0
0.37370241,-1.8180304,-0.18505371,0.50180852,-0.67406046,-0.54206133,0
-0.33012295,2.7148919,-3.30463,0.30137527,0.72365677,-0.62088138,0
-2.5843768,-0.0012689829,-4.3988705,-0.81077808,-0.14819971,-0.56628239,0
-2.4093921,3.2007554,-3.7877219,0.30137527,0.72365677,-0.62088138,0
3.3001924,-1.9169803,3.8404,0.81077808,0.14819971,0.56628239,0
-2.910053,1.4382777,-4.3194165,-0.81077808,-0.14819971,-0.56628239,0
-0.93007708,-3.899694,1.3945026,-0.30137527,-0.72365677,0.62088138,0
-2.577776,1.3243592,-4.661778,-0.81077808,-0.14819971,-0.56628239,0
0.98313057,0.67237639,-2.8684943,0.50180852,-0.67406046,-0.54206133,0
1.0824003,1.2599142,-3.4394283,0.50180852,-0.67406046,-0.54206133,0
3.1790915,-0.51564622,3.6987958,0.81077808,0.14819971,0.56628239,0
-2.2181721,0.26987475,-4.7413487,-0.81077808,-0.14819971,-0.56628239,0
1.4392763,-0.43576205,4.4649401,-0.50180852,0.67406046,0.54206133,0
4.4048872,2.4399981,0.99549818,0.81077808,0.14819971,0.56628239,0
1.6761851,2.8678827,-2.3491626,0.30137527,0.72365677,-0.62088138,0
-2.8689396,3.1397846,-3.6732566,-0.50180852,0.67406046,0.54206133,0
-2.021667,-2.6918807,2.1838193,-0.30137527,-0.72365677,0.62088138,0
0.15974951,-1.0978028,4.2782311,-0.50180852,0.67406046,0.54206133,0
-2.8021193,-1.1522834,-3.6556911,-0.81077808,-0.14819971,-0.56628239,0
-4.7586479,-0.67111039,-0.99472857,-0.81077808,-0.14819971,-0.56628239,0
-1.3596697,-3.1942773,1.9113283,-0.30137527,-0.72365677,0.62088138,0
5.3200426,2.5555332,-0.83177471,0.30137527,0.72365677,-0.62088138,0
2.3182206,-2.5787039,2.547246,0.50180852,-0.67406046,-0.54206133,0
2.2124009,-1.6298426,1.3913516,0.50180852,-0.67406046,-0.54206133,0
-3.7671654,0.8073082,-2.8901105,-0.81077808,-0.14819971,-0.56628239,0
3.9073162,2.3222544,-1.9053144,0.30137527,0.72365677,-0.62088138,0
1.3414897,0.39262295,-2.1580896,0.50180852,-0.67406046,-0.54206133,0
-0.27783203,-1.1403028,-1.7253238,0.50180852,-0.67406046,-0.54206133,0
2.8286898,2.1650076,-2.4785542,0.30137527,0.72365677,-0.62088138,0
-0.85142016,2.7620223,-3.6660585,0.30137527,0.72365677,-0.62088138,0
-4.6075444,-1.1076651,-1.1854293,-0.81077808,-0.14819971,-0.56628239,0
-4.778182,-2.7295394,-0.4711628,-0.81077808,-0.14819971,-0.56628239,0
2.4527311,-0.87546945,0.71599996,0.50180852,-0.67406046,-0.54206133,0
1.5273392,1.1103506,-2.8533375,0.50180852,-0.67406046,-0.54206133,0
3.8603942,1.9020746,-1.5442362,0.50180852,-0.67406046,-0.54206133,0
0.42769146,1.5915763,-4.2888632,0.50180852,-0.67406046,-0.54206133,0
-1.5425675,2.9971824,-3.597218,0.30137527,0.72365677,-0.62088138,0
-3.5142546,-0.39934897,-2.7560453,-0.81077808,-0.14819971,-0.56628239,0
3.3569016,-1.5976343,3.5907097,0.81077808,0.14819971,0.56628239,0
-2.830982,0.76663381,-4.2335911,-0.81077808,-0.14819971,-0.56628239,0
-1.9897821,2.8000479,-3.9896927,0.30137527,0.72365677,-0.62088138,0
2.7426143,-2.443738,4.5701237,0.81077808,0.14819971,0.56628239,0
3.01507,-1.9656799,4.0874524,0.81077808,0.14819971,0.56628239,0
-4.5169544,-2.5130234,1.2529669,-0.30137527,-0.72365677,0.62088138,0
-2.6343472,-0.26424533,-4.271831,-0.81077808,-0.14819971,-0.56628239,0
-2.8734293,2.4642713,-4.3614206,-0.81077808,-0.14819971,-0.56628239,0
1.9899797,2.5852847,1.3132422,-0.50180852,0.67406046,0.54206133,0
0.291852,3.5421352,-2.0757484,0.30137527,0.72365677,-0.62088138,0
-0.77085197,-1.2190328,-2.0659871,0.50180852,-0.67406046,-0.54206133,0
3.4123788,-0.37932104,3.3146973,0.81077808,0.14819971,0.56628239,0
1.9406121,-0.10479093,4.6743088,-0.50180852,0.67406046,0.54206133,0
-4.6611352,-1.7461841,-0.99081111,-0.81077808,-0.14819971,-0.56628239,0
-4.2632585,-0.82546782,-0.15822697,-0.50180852,0.67406046,0.54206133,0
-3.9163127,-1.6903434,-1.9589386,-0.81077808,-0.14819971,-0.56628239,0
1.8470268,-0.45597231,4.9659758,-0.50180852,0.67406046,0.54206133,0
4.7856855,3.3662596,-0.33154345,0.30137527,0.72365677,-0.62088138,0
2.7963488,-0.21884887,4.1330438,0.81077808,0.14819971,0.56628239,0
-4.5427504,-3.279161,-0.7238121,-0.81077808,-0.14819971,-0.56628239,0
2.0041213,-2.0892346,1.8467897,0.50180852,-0.67406046,-0.54206133,0
-3.9451451,-1.6516442,-1.952415,-0.81077808,-0.14819971,-0.56628239,0
0.81173122,-0.99167693,4.5700488,-0.50180852,0.67406046,0.54206133,0
0.60563588,1.2860575,-3.7823048,0.50180852,-0.67406046,-0.54206133,0
1.9741619,-2.4229436,2.1557777,0.50180852,-0.67406046,-0.54206133,0
0.19211388,1.9102455,-4.0804648,0.30137527,0.72365677,-0.62088138,0
-5.019413,-3.2416501,0.34119701,-0.30137527,-0.72365677,0.62088138,0
1.5909626,2.6561766,0.83823049,-0.50180852,0.67406046,0.54206133,0
-4.0274234,-3.021636,-1.4827056,-0.81077808,-0.14819971,-0.56628239,0
3.415982,2.928874,2.2249265,0.81077808,0.14819971,0.56628239,0
2.0213451,-1.0138301,5.1527548,0.81077808,0.14819971,0.56628239,0
-1.8499079,-3.8980136,1.064132,-0.30137527,-0.72365677,0.62088138,0
-2.1798687,-3.8133278,0.85966539,-0.30137527,-0.72365677,0.62088138,0
3.666748,3.7962897,-0.14824438,0.30137527,0.72365677,-0.62088138,0
2.2761796,-1.1350946,4.9142485,0.81077808,0.14819971,0.56628239,0
-3.8656998,0.18827009,-2.3652446,-0.81077808,-0.14819971,-0.56628239,0
2.0180125,3.140862,-1.6783874,0.30137527,0.72365677,-0.62088138,0
-3.4979823,-0.42915297,-0.09274745,-0.50180852,0.67406046,0.54206133,0
-3.5963597,-1.632416,1.402081,-0.50180852,0.67406046,0.54206133,0
-2.1065555,-3.528547,1.2792425,-0.30137527,-0.72365677,0.62088138,0
-1.5978909,3.1713762,-3.3820021,0.30137527,0.72365677,-0.62088138,0
-2.9953721,1.5230446,-4.0322447,-0.81077808,-0.14819971,-0.56628239,0
-0.074449062,1.5419694,-4.5710793,0.30137527,0.72365677,-0.62088138,0
-3.9636889,0.26072073,-1.307898,-0.50180852,0.67406046,0.54206133,0
-1.2275414,-3.7750788,1.5295229,-0.30137527,-0.72365677,0.62088138,0
0.6005559,1.5079576,-4.2489133,0.50180852,-0.67406046,-0.54206133,0
2.7077947,0.6291495,3.7802584,0.81077808,0.14819971,0.56628239,0
-3.8725307,-0.47563863,-0.22796559,-0.50180852,0.67406046,0.54206133,0
4.1818233,0.89336896,0.070715666,0.50180852,-0.67406046,-0.54206133,0
-1.2621813,-0.22104478,1.8820579,-0.50180852,0.67406046,0.54206133,0
2.9867983,-2.7259922,4.4665771,0.81077808,0.14819971,0.56628239,0
-2.4339375,-2.6676152,2.235157,-0.30137527,-0.72365677,0.62088138,0
-5.4490767,-2.4502213,0.50678587,-0.81077808,-0.14819971,-0.56628239,0
