0.37683785,-1.6912994,-2.2873299,-0.14205755,0.07114327,-0.98729855,0
1.0816034,-2.8290734,0.47272682,-0.26915848,-0.96260852,-0.030636311,0
0.32301936,-0.25370073,-2.1560447,-0.14205755,0.07114327,-0.98729855,0
2.1610126,-1.966373,1.5752274,0.14205755,-0.07114327,0.98729855,0
1.6681087,0.77795529,-2.2875915,-0.14205755,0.07114327,-0.98729855,0
0.096107662,-2.7230389,0.89108014,-0.26915848,-0.96260852,-0.030636311,0
0.11478859,-2.7289605,0.4397006,-0.26915848,-0.96260852,-0.030636311,0
2.3583124,-0.94982064,-0.67425489,0.9525615,-0.26138765,-0.15589462,0
0.2643581,-2.6329033,0.68339372,-0.26915848,-0.96260852,-0.030636311,0
-1.0092565,2.5054069,2.3201272,0.14205755,-0.07114327,0.98729855,0
2.1535385,-2.3195624,1.0596929,0.9525615,-0.26138765,-0.15589462,0
2.7490172,0.96034265,1.6504639,0.14205755,-0.07114327,0.98729855,0
1.0124562,-1.2442198,1.8312992,0.14205755,-0.07114327,0.98729855,0
2.856391,-0.32324088,1.4724228,0.9525615,-0.26138765,-0.15589462,0
-1.0836518,0.43852413,-1.9330879,-0.14205755,0.07114327,-0.98729855,0
1.7982545,1.9743199,0.66931748,0.26915848,0.96260852,0.030636311,0
1.9576337,-2.4175129,-0.47231865,0.9525615,-0.26138765,-0.15589462,0
-2.8535457,-0.96826655,-0.064881086,-0.9525615,0.26138765,0.15589462,0
-2.9249618,-1.7771672,0.32647538,-0.26915848,-0.96260852,-0.030636311,0
-2.4801133,-0.91853118,2.1702557,-0.9525615,0.26138765,0.15589462,0
-0.45593709,-0.10900211,-1.9353704,-0.14205755,0.07114327,-0.98729855,0
-0.32071948,2.668716,-0.88244772,0.26915848,0.96260852,0.030636311,0
-2.1575296,-2.0424609,-1.3383695,-0.26915848,-0.96260852,-0.030636311,0
1.6267136,-2.841218,-0.79494238,0.9525615,-0.26138765,-0.15589462,0
-0.81672895,-1.4811022,-2.077554,-0.14205755,0.07114327,-0.98729855,0
0.34683847,-2.604224,-0.32667851,-0.26915848,-0.96260852,-0.030636311,0
-1.9896722,0.77999926,-1.7430108,-0.14205755,0.07114327,-0.98729855,0
-0.69081438,-2.0918505,1.9680099,0.14205755,-0.07114327,0.98729855,0
-2.1710441,1.5964811,-1.6710259,-0.14205755,0.07114327,-0.98729855,0
-1.7903224,2.6829391,1.2003944,-0.9525615,0.26138765,0.15589462,0
-2.3881726,-2.0835412,2.1827042,-0.26915848,-0.96260852,-0.030636311,0
-2.5880096,-1.7697639,-1.5695372,-0.26915848,-0.96260852,-0.030636311,0
-0.68102312,2.833879,0.97808719,0.26915848,0.96260852,0.030636311,0
-2.7846091,-1.7509606,-1.0025328,-0.26915848,-0.96260852,-0.030636311,0
-0.23389393,-2.5076361,-2.1353235,-0.14205755,0.07114327,-0.98729855,0
-1.6478007,2.7287238,1.0977219,-0.9525615,0.26138765,0.15589462,0
1.9500439,1.9353197,1.8044045,0.26915848,0.96260852,0.030636311,0
-0.69557691,-2.3448555,1.8617473,0.14205755,-0.07114327,0.98729855,0
1.0010784,2.3597341,0.86807406,0.26915848,0.96260852,0.030636311,0
1.8977067,2.0313706,1.0961794,0.26915848,0.96260852,0.030636311,0
2.8796451,0.82355714,1.7099978,0.14205755,-0.07114327,0.98729855,0
-1.7767051,2.912905,-0.31709552,-0.9525615,0.26138765,0.15589462,0
2.5640473,1.9837639,-1.4629474,0.26915848,0.96260852,0.030636311,0
-2.0462644,-1.9732473,1.0819006,-0.26915848,-0.96260852,-0.030636311,0
-2.9796624,-0.70920646,-0.42341769,-0.9525615,0.26138765,0.15589462,0
0.48152751,-2.8283536,1.8070495,-0.26915848,-0.96260852,-0.030636311,0
2.1875505,2.0492077,-2.1178827,-0.14205755,0.07114327,-0.98729855,0
0.2292065,-2.4271924,1.7909203,0.14205755,-0.07114327,0.98729855,0
0.44597191,-2.7793629,0.35814667,-0.26915848,-0.96260852,-0.030636311,0
-1.0340319,2.6818247,2.2946777,0.14205755,-0.07114327,0.98729855,0
1.7674799,1.0580289,1.8386114,0.14205755,-0.07114327,0.98729855,0
-0.79937518,-2.2784233,-2.0508046,-0.14205755,0.07114327,-0.98729855,0
-0.77100432,-2.4500935,-0.12868428,-0.26915848,-0.96260852,-0.030636311,0
1.1613922,-0.69221473,-2.1722569,-0.14205755,0.07114327,-0.98729855,0
1.9453688,-0.42614627,-2.255363,-0.14205755,0.07114327,-0.98729855,0
1.6207374,0.43370271,-2.1617901,-0.14205755,0.07114327,-0.98729855,0
-0.23286611,1.0238458,-1.9911634,-0.14205755,0.07114327,-0.98729855,0
1.4249142,0.053026795,-2.2323093,-0.14205755,0.07114327,-0.98729855,0
1.9617844,-1.9175975,-0.2471683,0.9525615,-0.26138765,-0.15589462,0
1.8031644,2.0946286,0.12264609,0.26915848,0.96260852,0.030636311,0
-2.2263918,-1.8889184,-0.4954524,-0.26915848,-0.96260852,-0.030636311,0
0.4326556,-0.82433248,-2.0578008,-0.14205755,0.07114327,-0.98729855,0
-2.5128951,0.25815535,-1.6111517,-0.14205755,0.07114327,-0.98729855,0
1.8604888,-1.2691613,-1.9469621,0.9525615,-0.26138765,-0.15589462,0
0.62916601,-0.94500542,1.8798125,0.14205755,-0.07114327,0.98729855,0
-3.3271284,-1.469808,-1.2266169,-0.9525615,0.26138765,0.15589462,0
3.1860633,1.4717537,0.53885269,0.9525615,-0.26138765,-0.15589462,0
-1.7275908,2.8481896,1.0627066,-0.9525615,0.26138765,0.15589462,0
-1.6914754,-2.2693093,1.349704,-0.26915848,-0.96260852,-0.030636311,0
2.7416186,1.8935912,0.12991047,0.26915848,0.96260852,0.030636311,0
2.805114,0.22853076,1.0291184,0.9525615,-0.26138765,-0.15589462,0
-3.0233095,-1.7558799,-1.4711983,-0.26915848,-0.96260852,-0.030636311,0
-0.089566588,0.78284776,-1.9123851,-0.14205755,0.07114327,-0.98729855,0
-2.7143784,0.37895834,-1.512622,-0.14205755,0.07114327,-0.98729855,0
0.94886512,-1.6390901,-2.3186784,-0.14205755,0.07114327,-0.98729855,0
-2.6853766,-0.50640059,0.80570108,-0.9525615,0.26138765,0.15589462,0
2.1674068,-1.3816842,-0.62620234,0.9525615,-0.26138765,-0.15589462,0
-1.6136603,2.7732804,1.2256396,-0.9525615,0.26138765,0.15589462,0
1.6477772,2.0501447,1.0973579,0.26915848,0.96260852,0.030636311,0
-2.2781904,0.093350053,2.2920237,-0.9525615,0.26138765,0.15589462,0
0.65257072,0.015979886,-2.0342531,-0.14205755,0.07114327,-0.98729855,0
1.8653997,-2.1565173,-0.53878689,0.9525615,-0.26138765,-0.15589462,0
0.00061613321,-0.71819389,1.9140661,0.14205755,-0.07114327,0.98729855,0
2.0646183,-1.1038001,-1.2197416,0.9525615,-0.26138765,-0.15589462,0
-0.10355299,0.52366567,2.1039267,0.14205755,-0.07114327,0.98729855,0
1.2164412,-2.0608644,1.7315412,0.14205755,-0.07114327,0.98729855,0
2.458781,0.87088919,-1.8988981,0.9525615,-0.26138765,-0.15589462,0
-2.5105953,-0.79744571,1.9484012,-0.9525615,0.26138765,0.15589462,0
2.3691015,0.65269578,-2.1697292,0.9525615,-0.26138765,-0.15589462,0
-0.88793129,-0.097383976,2.2067246,0.14205755,-0.07114327,0.98729855,0
1.6728997,-2.830219,-1.6004543,0.9525615,-0.26138765,-0.15589462,0
-0.45337632,-1.1826835,1.9959096,0.14205755,-0.07114327,0.98729855,0
-2.8121727,-1.0852138,0.052847624,-0.9525615,0.26138765,0.15589462,0
0.14379823,-0.20500946,2.0119157,0.14205755,-0.07114327,0.98729855,0
-2.6649914,-1.8654447,-1.7241251,-0.26915848,-0.96260852,-0.030636311,0
-1.0455041,2.6866627,-1.7540209,-0.14205755,0.07114327,-0.98729855,0
2.4216044,-1.171953,0.7488324,0.9525615,-0.26138765,-0.15589462,0
-2.1762776,0.72763336,1.7705045,-0.9525615,0.26138765,0.15589462,0
-2.8459225,-1.4816201,1.424179,-0.9525615,0.26138765,0.15589462,0
-0.67595762,-0.84687662,-1.9900991,-0.14205755,0.07114327,-0.98729855,0
0.10264006,-2.5013003,-1.9326482,-0.26915848,-0.96260852,-0.030636311,0
1.8319881,-3.0337281,-0.13388824,0.9525615,-0.26138765,-0.15589462,0
0.78098691,2.4277279,-0.04497242,0.26915848,0.96260852,0.030636311,0
0.9618113,2.457583,-1.6283405,0.26915848,0.96260852,0.030636311,0
1.504293,-2.9370778,-0.038332939,-0.26915848,-0.96260852,-0.030636311,0
2.2689872,-2.314579,1.3147185,0.9525615,-0.26138765,-0.15589462,0
-2.1832595,1.9131161,-1.1337833,-0.9525615,0.26138765,0.15589462,0
-2.8646481,-1.2591193,1.198754,-0.9525615,0.26138765,0.15589462,0
1.5283618,0.6820538,-2.1920404,-0.14205755,0.07114327,-0.98729855,0
0.26182079,-2.5340767,-1.779268,-0.26915848,-0.96260852,-0.030636311,0
-0.09878093,2.369441,-1.8934443,-0.14205755,0.07114327,-0.98729855,0
-2.2827945,-1.9901636,-1.7525512,-0.26915848,-0.96260852,-0.030636311,0
-2.4523559,-0.23675871,1.7933953,-0.9525615,0.26138765,0.15589462,0
-1.8774595,-1.9935813,0.34701848,-0.26915848,-0.96260852,-0.030636311,0
-1.623163,-1.2778674,2.1357837,0.14205755,-0.07114327,0.98729855,0
0.32792825,-2.3328321,1.851191,0.14205755,-0.07114327,0.98729855,0
-0.982337,-2.3407495,-0.37587976,-0.26915848,-0.96260852,-0.030636311,0
1.6356562,-0.4107641,1.6639597,0.14205755,-0.07114327,0.98729855,0
2.472018,-1.4055092,1.3849143,0.9525615,-0.26138765,-0.15589462,0
1.4206131,2.1382546,-0.18740177,0.26915848,0.96260852,0.030636311,0
2.7611787,-0.44203889,1.1227624,0.9525615,-0.26138765,-0.15589462,0
-1.0492539,-0.11762881,2.2545638,0.14205755,-0.07114327,0.98729855,0
-2.7814088,-0.94419491,0.52869844,-0.9525615,0.26138765,0.15589462,0
1.26204,-1.8935232,1.6700885,0.14205755,-0.07114327,0.98729855,0
2.7086518,1.7372029,0.51243067,0.26915848,0.96260852,0.030636311,0
-2.893178,-0.66937459,-0.70517552,-0.9525615,0.26138765,0.15589462,0
-2.7710791,0.18886209,-1.0507977,-0.9525615,0.26138765,0.15589462,0
-1.799221,2.5864763,1.0740352,-0.9525615,0.26138765,0.15589462,0
-2.7098894,-0.1444304,-0.73503053,-0.9525615,0.26138765,0.15589462,0
0.56034321,-2.7345524,1.2092659,-0.26915848,-0.96260852,-0.030636311,0
-0.39408869,2.6818821,0.24335718,0.26915848,0.96260852,0.030636311,0
0.42704207,-1.1486435,-2.252182,-0.14205755,0.07114327,-0.98729855,0
-0.34380892,-2.4979382,1.8019302,-0.26915848,-0.96260852,-0.030636311,0
1.6179309,-0.031560421,1.813026,0.14205755,-0.07114327,0.98729855,0
-0.45646542,-2.4213333,1.5910869,-0.26915848,-0.96260852,-0.030636311,0
-0.43484396,-2.3959486,-0.80285263,-0.26915848,-0.96260852,-0.030636311,0
-2.9685299,-1.4861177,0.62753832,-0.9525615,0.26138765,0.15589462,0
1.6242948,2.1903031,0.13222814,0.26915848,0.96260852,0.030636311,0
-1.5233228,-2.1363168,-1.8625622,-0.26915848,-0.96260852,-0.030636311,0
-0.89978778,2.3673205,-1.7108037,-0.14205755,0.07114327,-0.98729855,0
-2.525893,-0.76296329,-1.7951453,-0.14205755,0.07114327,-0.98729855,0
-1.8084834,1.9666744,1.1570313,-0.9525615,0.26138765,0.15589462,0
0.58332121,-1.5800955,1.770786,0.14205755,-0.07114327,0.98729855,0
-1.488233,2.9471953,1.4214847,0.26915848,0.96260852,0.030636311,0
1.6074649,2.1195111,1.2982516,0.26915848,0.96260852,0.030636311,0
-0.65003473,-0.0085568428,-2.0029533,-0.14205755,0.07114327,-0.98729855,0
-2.4551983,1.4319057,-1.2276088,-0.9525615,0.26138765,0.15589462,0
-1.5073751,2.8332696,2.4107637,-0.9525615,0.26138765,0.15589462,0
-1.9352679,-2.0197833,-0.94792819,-0.26915848,-0.96260852,-0.030636311,0
-1.0950215,-2.1749887,-1.426029,-0.26915848,-0.96260852,-0.030636311,0
0.12754649,-2.6892512,0.11949825,-0.26915848,-0.96260852,-0.030636311,0
0.00071290135,2.4635091,1.6829042,0.26915848,0.96260852,0.030636311,0
-0.73380315,2.7696276,1.8061604,0.26915848,0.96260852,0.030636311,0
-2.7646947,-0.0065517426,-1.6523805,-0.14205755,0.07114327,-0.98729855,0
2.7754323,1.2448629,-0.9870429,0.9525615,-0.26138765,-0.15589462,0
0.44467407,2.3655951,0.96959186,0.26915848,0.96260852,0.030636311,0
1.5755436,2.1238396,-1.3875003,0.26915848,0.96260852,0.030636311,0
-1.6079197,2.8085978,1.5074751,-0.9525615,0.26138765,0.15589462,0
0.58633184,-0.091166973,1.898479,0.14205755,-0.07114327,0.98729855,0
0.96015841,1.2969849,2.065623,0.14205755,-0.07114327,0.98729855,0
0.52369714,2.4951892,1.3980092,0.26915848,0.96260852,0.030636311,0
-2.8724797,-0.6973784,0.036010325,-0.9525615,0.26138765,0.15589462,0
0.45683184,-2.6043978,-1.7506645,-0.26915848,-0.96260852,-0.030636311,0
-0.84162998,2.8795118,1.3589284,0.26915848,0.96260852,0.030636311,0
2.3635094,-1.3395696,1.2269264,0.9525615,-0.26138765,-0.15589462,0
1.9459417,1.9850924,1.8784425,0.26915848,0.96260852,0.030636311,0
2.8307536,1.8289623,1.5694993,0.26915848,0.96260852,0.030636311,0
-2.3485534,-1.5163386,-1.8383297,-0.14205755,0.07114327,-0.98729855,0
0.99032956,-2.7671003,-0.68849945,-0.26915848,-0.96260852,-0.030636311,0
2.0087738,1.9523888,1.9346918,0.14205755,-0.07114327,0.98729855,0
2.8907104,1.6863451,-1.5032631,0.9525615,-0.26138765,-0.15589462,0
-2.7086177,-0.95768344,1.4130918,-0.9525615,0.26138765,0.15589462,0
-1.8023295,-2.0272803,-1.4121435,-0.26915848,-0.96260852,-0.030636311,0
-1.8354026,1.8388412,1.1447433,-0.9525615,0.26138765,0.15589462,0
-2.7780454,-1.1493073,1.5456318,-0.9525615,0.26138765,0.15589462,0
0.67867297,-1.8562963,-2.249599,-0.14205755,0.07114327,-0.98729855,0
3.0662098,1.437126,0.83775008,0.9525615,-0.26138765,-0.15589462,0
-1.0872743,-2.1777258,-1.1301724,-0.26915848,-0.96260852,-0.030636311,0
1.9439809,-2.0582032,-1.0217955,0.9525615,-0.26138765,-0.15589462,0
1.8312873,-2.4984779,-0.9465332,0.9525615,-0.26138765,-0.15589462,0
0.82391226,-1.2353001,-2.2984402,-0.14205755,0.07114327,-0.98729855,0
0.068696856,2.3682294,-1.8611882,-0.14205755,0.07114327,-0.98729855,0
-2.4587114,0.24947007,0.42831606,-0.9525615,0.26138765,0.15589462,0
-1.930865,-0.71135628,2.321094,0.14205755,-0.07114327,0.98729855,0
2.5441985,-0.53386277,0.42914516,0.9525615,-0.26138765,-0.15589462,0
0.763156,-1.2408946,-2.3251622,-0.14205755,0.07114327,-0.98729855,0
-0.82782978,-2.4085338,-0.87300682,-0.26915848,-0.96260852,-0.030636311,0
-1.0928833,-2.3626637,-0.70940578,-0.26915848,-0.96260852,-0.030636311,0
1.9137964,2.0453453,-1.9912446,0.26915848,0.96260852,0.030636311,0
-2.1363354,0.13170362,2.3390133,0.14205755,-0.07114327,0.98729855,0
1.6222854,-2.2743282,1.728246,0.14205755,-0.07114327,0.98729855,0
2.5623353,0.22326583,-0.85434055,0.9525615,-0.26138765,-0.15589462,0
-1.3376077,-1.2537477,-1.9216303,-0.14205755,0.07114327,-0.98729855,0
-2.6667237,-1.8059828,1.1054635,-0.26915848,-0.96260852,-0.030636311,0
0.94867623,1.7884755,-2.0428584,-0.14205755,0.07114327,-0.98729855,0
-1.4841369,0.48228788,2.2777045,0.14205755,-0.07114327,0.98729855,0
2.038765,-2.3221879,0.62218809,0.9525615,-0.26138765,-0.15589462,0
-2.8924932,-1.7535586,1.3952528,-0.9525615,0.26138765,0.15589462,0
2.0738609,-0.79489326,-1.4390237,0.9525615,-0.26138765,-0.15589462,0
1.4290507,2.0977056,0.086359739,0.26915848,0.96260852,0.030636311,0
2.6898172,1.3291245,-1.6152201,0.9525615,-0.26138765,-0.15589462,0
-1.504311,0.95873451,-1.7457085,-0.14205755,0.07114327,-0.98729855,0
-2.6340849,-1.779727,0.33861041,-0.26915848,-0.96260852,-0.030636311,0
-1.9658077,1.4835048,1.8330883,-0.9525615,0.26138765,0.15589462,0
-1.3141134,2.7745171,2.3718419,0.14205755,-0.07114327,0.98729855,0
-1.1899345,2.9930182,-1.229918,0.26915848,0.96260852,0.030636311,0
-2.5585556,0.31503034,-0.41738752,-0.9525615,0.26138765,0.15589462,0
-1.3525162,2.1569331,-1.695709,-0.14205755,0.07114327,-0.98729855,0
-1.5002251,0.28116536,2.2424455,0.14205755,-0.07114327,0.98729855,0
0.54191995,0.17238545,1.8919678,0.14205755,-0.07114327,0.98729855,0
2.1110997,-2.4076867,0.59991169,0.9525615,-0.26138765,-0.15589462,0
1.6297055,-1.101035,1.7186995,0.14205755,-0.07114327,0.98729855,0
-2.8036981,-1.7563956,0.92345512,-0.26915848,-0.96260852,-0.030636311,0
2.4353399,0.81314605,-2.0602944,0.9525615,-0.26138765,-0.15589462,0
-2.0050585,2.4408529,-0.88834977,-0.9525615,0.26138765,0.15589462,0
-1.8298824,2.6628575,0.37563181,-0.9525615,0.26138765,0.15589462,0
-0.18095601,2.5792735,-0.43458915,0.26915848,0.96260852,0.030636311,0
2.5668809,1.7462637,1.4644617,0.26915848,0.96260852,0.030636311,0
-1.2389033,-2.082366,-1.9857167,-0.14205755,0.07114327,-0.98729855,0
-2.5335565,-1.8880068,0.42078781,-0.26915848,-0.96260852,-0.030636311,0
1.8313212,2.1073532,1.5576662,0.26915848,0.96260852,0.030636311,0
-1.506655,2.9918621,0.43593669,0.26915848,0.96260852,0.030636311,0
2.5808344,-0.15811469,-0.46463224,0.9525615,-0.26138765,-0.15589462,0
2.7593069,1.885047,0.27453542,0.26915848,0.96260852,0.030636311,0
0.50366896,1.0571795,1.9712219,0.14205755,-0.07114327,0.98729855,0
-1.9219167,3.1250019,-0.44740057,-0.9525615,0.26138765,0.15589462,0
-1.8630416,1.5903561,-1.7114242,-0.14205755,0.07114327,-0.98729855,0
-2.2799349,1.6795076,-1.0085377,-0.9525615,0.26138765,0.15589462,0
1.6859918,0.17283082,1.7985154,0.14205755,-0.07114327,0.98729855,0
0.45551389,-2.8340058,0.61353397,-0.26915848,-0.96260852,-0.030636311,0
1.2834421,1.0953588,1.9695113,0.14205755,-0.07114327,0.98729855,0
-2.9026773,-0.34734964,-1.5398043,-0.9525615,0.26138765,0.15589462,0
-0.88154519,2.6689341,2.3971426,0.26915848,0.96260852,0.030636311,0
0.7665422,-2.7761436,0.57327008,-0.26915848,-0.96260852,-0.030636311,0
-3.1753776,-1.3213356,-1.4839925,-0.9525615,0.26138765,0.15589462,0
2.9695423,1.6361532,-1.1437908,0.9525615,-0.26138765,-0.15589462,0
-3.0026484,-0.56858742,-1.0064843,-0.9525615,0.26138765,0.15589462,0
2.1642265,-1.3775597,0.0068861246,0.9525615,-0.26138765,-0.15589462,0
1.4348387,-2.9634471,-1.4096199,-0.26915848,-0.96260852,-0.030636311,0
0.82427716,-2.8401752,-0.039725065,-0.26915848,-0.96260852,-0.030636311,0
1.7270988,-2.2727184,-1.5377127,0.9525615,-0.26138765,-0.15589462,0
1.5073776,2.155338,0.34947753,0.26915848,0.96260852,0.030636311,0
3.0399754,0.90770555,1.4851413,0.9525615,-0.26138765,-0.15589462,0
-2.1265152,-2.009409,0.8703537,-0.26915848,-0.96260852,-0.030636311,0
-3.0972633,-1.7528149,-0.84768224,-0.26915848,-0.96260852,-0.030636311,0
-1.025053,-2.292192,1.9593351,-0.26915848,-0.96260852,-0.030636311,0
2.8242726,1.7535825,0.8377986,0.26915848,0.96260852,0.030636311,0
-2.7009919,0.15144604,-0.2347486,-0.9525615,0.26138765,0.15589462,0
1.6693697,-2.2902241,-1.9506073,0.9525615,-0.26138765,-0.15589462,0
-1.2472574,-2.3548715,1.2817454,-0.26915848,-0.96260852,-0.030636311,0
3.0429242,0.66338146,1.1095459,0.9525615,-0.26138765,-0.15589462,0
-3.0750163,-1.0688677,-1.1283406,-0.9525615,0.26138765,0.15589462,0
-0.67179894,-2.3636072,-1.7735901,-0.26915848,-0.96260852,-0.030636311,0
2.1555989,-1.3772382,-0.44563967,0.9525615,-0.26138765,-0.15589462,0
0.94747514,-2.8731782,1.6184435,-0.26915848,-0.96260852,-0.030636311,0
-0.28974932,-2.4637051,-1.4253058,-0.26915848,-0.96260852,-0.030636311,0
-0.27011746,2.7221594,0.69897437,0.26915848,0.96260852,0.030636311,0
-2.147686,-1.9917114,0.84322119,-0.26915848,-0.96260852,-0.030636311,0
1.3573041,2.1291671,1.1422949,0.26915848,0.96260852,0.030636311,0
2.1537974,-0.78832459,-1.4706278,0.9525615,-0.26138765,-0.15589462,0
-1.2361469,2.8299615,-1.7043488,-0.14205755,0.07114327,-0.98729855,0
-1.9232128,-0.47219253,-1.871851,-0.14205755,0.07114327,-0.98729855,0
-2.6074951,-0.73556387,0.90980643,-0.9525615,0.26138765,0.15589462,0
-0.46307266,-2.4305141,-0.55366945,-0.26915848,-0.96260852,-0.030636311,0
2.4446239,1.8135822,0.32396328,0.26915848,0.96260852,0.030636311,0
-3.0116544,-1.6699278,-1.2762059,-0.26915848,-0.96260852,-0.030636311,0
-2.3726354,0.74761486,-0.18177903,-0.9525615,0.26138765,0.15589462,0
2.7271852,0.81075877,-0.38699722,0.9525615,-0.26138765,-0.15589462,0
-1.7880105,2.8092468,0.49823093,-0.9525615,0.26138765,0.15589462,0
-2.2944667,1.546231,-0.54348683,-0.9525615,0.26138765,0.15589462,0
-1.7780082,-2.1581492,0.89318871,-0.26915848,-0.96260852,-0.030636311,0
-2.7219882,-1.7489884,-1.8274235,-0.26915848,-0.96260852,-0.030636311,0
-0.40939891,-1.7360272,2.0003331,0.14205755,-0.07114327,0.98729855,0
1.1407571,-1.3207586,1.6964633,0.14205755,-0.07114327,0.98729855,0
2.6521223,-0.45730042,1.6030171,0.14205755,-0.07114327,0.98729855,0
1.8313622,0.89932358,-2.2535133,-0.14205755,0.07114327,-0.98729855,0
-2.4475858,1.4226454,-1.0545229,-0.9525615,0.26138765,0.15589462,0
-2.197572,-1.1192608,-1.8510334,-0.14205755,0.07114327,-0.98729855,0
-1.974102,1.6942623,1.2582343,-0.9525615,0.26138765,0.15589462,0
-2.4649284,1.0612087,-0.2382049,-0.9525615,0.26138765,0.15589462,0
0.21704847,-2.5969546,0.71899867,-0.26915848,-0.96260852,-0.030636311,0
2.8938527,0.56319082,0.16619122,0.9525615,-0.26138765,-0.15589462,0
-2.8176148,-0.78825057,0.61166525,-0.9525615,0.26138765,0.15589462,0
2.3425162,-1.824265,0.75384653,0.9525615,-0.26138765,-0.15589462,0
2.2197347,2.0928044,-0.6566081,0.26915848,0.96260852,0.030636311,0
-2.3978851,-0.34741366,2.0782888,-0.9525615,0.26138765,0.15589462,0
1.6411998,-1.2060699,1.7490346,0.14205755,-0.07114327,0.98729855,0
-2.1380959,2.6043243,-1.6007538,-0.14205755,0.07114327,-0.98729855,0
2.1025462,2.1158602,-1.8864119,0.26915848,0.96260852,0.030636311,0
-1.1803353,2.8646359,-1.1592891,0.26915848,0.96260852,0.030636311,0
1.5007306,2.1923375,1.570298,0.26915848,0.96260852,0.030636311,0
-2.9925032,-1.821866,0.51502776,-0.9525615,0.26138765,0.15589462,0
0.22956735,-2.7712417,0.8406384,-0.26915848,-0.96260852,-0.030636311,0
-2.1292448,-0.68668842,2.3812425,0.14205755,-0.07114327,0.98729855,0
1.5687625,-1.3521056,-2.390362,-0.14205755,0.07114327,-0.98729855,0
1.472059,2.24523,-0.85020733,0.26915848,0.96260852,0.030636311,0
1.9855525,-2.6324129,0.93009734,0.9525615,-0.26138765,-0.15589462,0
1.1999671,-3.01333,1.0811071,-0.26915848,-0.96260852,-0.030636311,0
1.3718143,-3.0564797,0.70166159,-0.26915848,-0.96260852,-0.030636311,0
1.3057616,2.3045034,0.89891469,0.26915848,0.96260852,0.030636311,0
2.2680423,-1.5920309,0.59145701,0.9525615,-0.26138765,-0.15589462,0
1.1097825,-2.9354393,-1.3709955,-0.26915848,-0.96260852,-0.030636311,0
1.7421112,-1.4991137,-2.3597441,-0.14205755,0.07114327,-0.98729855,0
-2.0885892,-2.0578713,1.5845072,-0.26915848,-0.96260852,-0.030636311,0
2.8465114,1.4058084,-1.2874246,0.9525615,-0.26138765,-0.15589462,0
1.0334325,-2.8170495,-0.39517736,-0.26915848,-0.96260852,-0.030636311,0
-2.1891568,2.6413741,-1.2891779,-0.9525615,0.26138765,0.15589462,0
1.1907322,1.2282772,1.9128214,0.14205755,-0.07114327,0.98729855,0
1.1469915,-2.9464822,1.4329441,-0.26915848,-0.96260852,-0.030636311,0
-2.0034399,-0.35134625,2.3507607,0.14205755,-0.07114327,0.98729855,0
0.79094577,0.9892571,2.0771804,0.14205755,-0.07114327,0.98729855,0
2.4998567,-1.1054332,0.92858052,0.9525615,-0.26138765,-0.15589462,0
-2.7553248,-1.2861413,1.9918429,-0.9525615,0.26138765,0.15589462,0
2.8500066,1.5340842,-1.541713,0.9525615,-0.26138765,-0.15589462,0
2.8853159,0.66488045,0.023932278,0.9525615,-0.26138765,-0.15589462,0
-1.2240869,-2.2771845,0.38453269,-0.26915848,-0.96260852,-0.030636311,0
-1.7674537,1.2915828,-1.6238533,-0.14205755,0.07114327,-0.98729855,0
-0.3181054,-2.5293717,-1.2544663,-0.26915848,-0.96260852,-0.030636311,0
-3.167856,-1.6316864,-0.1057713,-0.9525615,0.26138765,0.15589462,0
-2.1081176,1.9620154,-0.15232265,-0.9525615,0.26138765,0.15589462,0
2.6915267,0.73718232,-0.3647052,0.9525615,-0.26138765,-0.15589462,0
-2.8256536,-1.866582,2.3222053,0.14205755,-0.07114327,0.98729855,0
0.057702303,0.70869076,-2.0152245,-0.14205755,0.07114327,-0.98729855,0
-0.64048731,0.93232822,-1.8622799,-0.14205755,0.07114327,-0.98729855,0
2.2898638,1.9881854,1.4315543,0.26915848,0.96260852,0.030636311,0
2.3901951,-1.2262734,0.96152806,0.9525615,-0.26138765,-0.15589462,0
0.4988746,-0.38987207,-2.0749137,-0.14205755,0.07114327,-0.98729855,0
-1.0920696,2.9499221,1.3285825,0.26915848,0.96260852,0.030636311,0
-1.4781394,2.9024942,0.247015,0.26915848,0.96260852,0.030636311,0
-0.48245096,-1.3045533,2.0219922,0.14205755,-0.07114327,0.98729855,0
1.8571919,-3.0263152,0.15205193,0.9525615,-0.26138765,-0.15589462,0
-2.2956574,-0.2841996,2.070529,-0.9525615,0.26138765,0.15589462,0
2.4195113,1.9856869,-0.18542719,0.26915848,0.96260852,0.030636311,0
-2.3119733,1.8090553,-0.83381474,-0.9525615,0.26138765,0.15589462,0
1.3837274,2.2265203,-1.7059326,0.26915848,0.96260852,0.030636311,0
1.1119864,0.74848604,-2.1443615,-0.14205755,0.07114327,-0.98729855,0
1.7080216,1.3192978,1.8775214,0.14205755,-0.07114327,0.98729855,0
0.60187608,2.5764699,-1.8264065,0.26915848,0.96260852,0.030636311,0
-1.9896958,1.871047,-1.6327057,-0.14205755,0.07114327,-0.98729855,0
0.76000822,-0.92444658,1.8809118,0.14205755,-0.07114327,0.98729855,0
2.3246801,1.5673208,1.8808701,0.14205755,-0.07114327,0.98729855,0
3.0079346,0.69125199,1.451556,0.9525615,-0.26138765,-0.15589462,0
-1.8276896,1.8570905,1.7418133,-0.9525615,0.26138765,0.15589462,0
0.33167857,2.3939579,0.51211333,0.26915848,0.96260852,0.030636311,0
0.38810849,2.5337484,0.38411212,0.26915848,0.96260852,0.030636311,0
3.3558538,1.4802973,1.6855755,0.9525615,-0.26138765,-0.15589462,0
-2.2634525,-1.1596386,2.2382827,0.14205755,-0.07114327,0.98729855,0
2.7310238,-0.036997795,0.90178531,0.9525615,-0.26138765,-0.15589462,0
2.0046701,0.67244315,-2.2175751,-0.14205755,0.07114327,-0.98729855,0
0.5030995,2.4491887,-0.73066092,0.26915848,0.96260852,0.030636311,0
-2.6221097,0.010575384,0.37643293,-0.9525615,0.26138765,0.15589462,0
0.094997406,-0.83317161,2.0338173,0.14205755,-0.07114327,0.98729855,0
-2.8835459,-0.65621161,-1.6825631,-0.14205755,0.07114327,-0.98729855,0
-0.88752222,2.5111611,-1.6795411,-0.14205755,0.07114327,-0.98729855,0
-2.0295172,1.8864011,-1.6871428,-0.14205755,0.07114327,-0.98729855,0
-0.48791128,2.6326861,0.75114894,0.26915848,0.96260852,0.030636311,0
-2.1462708,1.4020094,0.60639989,-0.9525615,0.26138765,0.15589462,0
2.8540547,0.26010025,1.2788095,0.9525615,-0.26138765,-0.15589462,0
-0.07119602,2.5443015,1.7421544,0.26915848,0.96260852,0.030636311,0
2.0525217,-1.5597124,1.7040691,0.14205755,-0.07114327,0.98729855,0
-0.59139699,-2.2695651,-2.0299442,-0.14205755,0.07114327,-0.98729855,0
1.9702855,1.9966214,1.7907934,0.26915848,0.96260852,0.030636311,0
1.2044775,2.3697743,-0.4578073,0.26915848,0.96260852,0.030636311,0
-2.2643123,1.4482681,-0.34169805,-0.9525615,0.26138765,0.15589462,0
-2.4083939,1.0096005,-1.594198,-0.14205755,0.07114327,-0.98729855,0
-1.815293,-2.2175078,1.9335792,-0.26915848,-0.96260852,-0.030636311,0
-0.01670754,-2.6349227,-0.12346959,-0.26915848,-0.96260852,-0.030636311,0
2.2661619,0.076530695,1.7840163,0.14205755,-0.07114327,0.98729855,0
2.299845,-0.87937266,-0.13535726,0.9525615,-0.26138765,-0.15589462,0
-0.34193927,0.78593302,2.06756,0.14205755,-0.07114327,0.98729855,0
1.6597059,2.1700339,-1.7148981,0.26915848,0.96260852,0.030636311,0
-0.33694166,2.7614799,-0.99516344,0.26915848,0.96260852,0.030636311,0
0.44624287,-2.5816007,-1.5564171,-0.26915848,-0.96260852,-0.030636311,0
-0.17495051,-0.82660115,2.0206273,0.14205755,-0.07114327,0.98729855,0
-0.37046981,1.9876913,-1.8138462,-0.14205755,0.07114327,-0.98729855,0
-2.6159935,-1.8024247,-1.3645561,-0.26915848,-0.96260852,-0.030636311,0
2.3564661,-1.7116449,1.6387866,0.14205755,-0.07114327,0.98729855,0
0.72201604,2.3952954,1.1040603,0.26915848,0.96260852,0.030636311,0
-2.6718693,-0.64823884,0.9102698,-0.9525615,0.26138765,0.15589462,0
-0.50737149,-2.4662747,1.1815856,-0.26915848,-0.96260852,-0.030636311,0
-0.45238733,2.7801661,0.35465837,0.26915848,0.96260852,0.030636311,0
-1.7163883,2.2381353,1.2441279,-0.9525615,0.26138765,0.15589462,0
-2.4345853,0.51298112,0.045837641,-0.9525615,0.26138765,0.15589462,0
2.7416399,1.9312766,0.067805052,0.26915848,0.96260852,0.030636311,0
-0.53586251,-2.4325414,0.0075087547,-0.26915848,-0.96260852,-0.030636311,0
2.3115637,-1.5162119,0.1316539,0.9525615,-0.26138765,-0.15589462,0
-1.7235363,2.7836986,1.1789535,-0.9525615,0.26138765,0.15589462,0
0.72138369,0.41868567,1.9000345,0.14205755,-0.07114327,0.98729855,0
-1.8659704,-2.1140356,-0.31576228,-0.26915848,-0.96260852,-0.030636311,0
-0.45516258,2.8072543,-0.67175245,0.26915848,0.96260852,0.030636311,0
0.34457046,-2.6902337,1.1736381,-0.26915848,-0.96260852,-0.030636311,0
-0.47094747,-2.3122907,-2.0563655,-0.14205755,0.07114327,-0.98729855,0
-1.0084205,2.1556296,2.4088743,0.14205755,-0.07114327,0.98729855,0
0.10686755,-2.6860092,0.47140956,-0.26915848,-0.96260852,-0.030636311,0
0.0042888522,2.5789452,2.0797312,0.26915848,0.96260852,0.030636311,0
-2.9820359,-1.3106823,-0.12180459,-0.9525615,0.26138765,0.15589462,0
3.1037922,1.335085,0.19038963,0.9525615,-0.26138765,-0.15589462,0
-1.1522344,2.8814335,-1.5484893,0.26915848,0.96260852,0.030636311,0
2.7077262,1.8333083,-0.0077133179,0.26915848,0.96260852,0.030636311,0
1.8868024,1.9355005,1.1704894,0.26915848,0.96260852,0.030636311,0
-2.4634817,1.4115634,-1.3795236,-0.9525615,0.26138765,0.15589462,0
0.74156207,2.4690361,-0.73110986,0.26915848,0.96260852,0.030636311,0
1.9347019,0.091914415,-2.2928963,-0.14205755,0.07114327,-0.98729855,0
-1.8907325,2.5252934,0.37449002,-0.9525615,0.26138765,0.15589462,0
-0.17449522,1.1586002,-1.861943,-0.14205755,0.07114327,-0.98729855,0
-1.353869,-2.1874716,0.5811379,-0.26915848,-0.96260852,-0.030636311,0
-2.6885793,-0.89089608,1.6244011,-0.9525615,0.26138765,0.15589462,0
1.6030097,2.1500645,-1.3493199,0.26915848,0.96260852,0.030636311,0
-0.98885214,-2.2466273,-1.1553189,-0.26915848,-0.96260852,-0.030636311,0
-2.4925346,-0.78972542,1.6249154,-0.9525615,0.26138765,0.15589462,0
-1.375929,-2.3172066,1.6407483,-0.26915848,-0.96260852,-0.030636311,0
-2.6888964,0.49855298,-0.79967511,-0.9525615,0.26138765,0.15589462,0
-0.30323139,-2.507174,-1.7777758,-0.26915848,-0.96260852,-0.030636311,0
-0.53304327,2.8525255,-0.84513497,0.26915848,0.96260852,0.030636311,0
-2.7147241,-1.5938284,1.992824,-0.9525615,0.26138765,0.15589462,0
-1.9158365,-1.1979578,-1.8644301,-0.14205755,0.07114327,-0.98729855,0
0.71204323,-0.10107756,-2.0593393,-0.14205755,0.07114327,-0.98729855,0
-0.47937527,0.48642874,2.2116079,0.14205755,-0.07114327,0.98729855,0
2.914952,1.6725527,-1.4371064,0.9525615,-0.26138765,-0.15589462,0
-0.54334772,-2.3162205,-1.1585404,-0.26915848,-0.96260852,-0.030636311,0
-1.8518068,-2.1000025,-0.60486138,-0.26915848,-0.96260852,-0.030636311,0
-1.4043419,0.86988068,2.2894487,0.14205755,-0.07114327,0.98729855,0
-1.73783,0.13545418,-1.853001,-0.14205755,0.07114327,-0.98729855,0
0.091298401,-2.6210692,0.57042432,-0.26915848,-0.96260852,-0.030636311,0
1.7685802,-2.6854749,-0.85958242,0.9525615,-0.26138765,-0.15589462,0
0.24510205,-2.6861036,-0.67319894,-0.26915848,-0.96260852,-0.030636311,0
-0.90094632,-1.3977489,-1.9976892,-0.14205755,0.07114327,-0.98729855,0
2.2576489,-0.94629544,-1.2244668,0.9525615,-0.26138765,-0.15589462,0
0.33537498,0.8803618,2.0355363,0.14205755,-0.07114327,0.98729855,0
1.6870985,1.3067533,-2.1893454,-0.14205755,0.07114327,-0.98729855,0
-2.7578623,-1.7015325,-1.2493101,-0.26915848,-0.96260852,-0.030636311,0
2.4555552,-0.99673057,0.69424719,0.9525615,-0.26138765,-0.15589462,0
2.3425586,0.030653119,-1.5832466,0.9525615,-0.26138765,-0.15589462,0
-2.1670132,1.3763393,0.77814478,-0.9525615,0.26138765,0.15589462,0
-1.7978022,-0.028881788,-1.7300727,-0.14205755,0.07114327,-0.98729855,0
-1.9807112,2.4910741,-0.64289474,-0.9525615,0.26138765,0.15589462,0
2.2606788,1.84424,1.6897676,0.26915848,0.96260852,0.030636311,0
-1.8116956,3.0552239,-1.5694261,-0.14205755,0.07114327,-0.98729855,0
-1.3622637,-0.93056655,-1.8690878,-0.14205755,0.07114327,-0.98729855,0
1.634799,2.1399717,0.76620567,0.26915848,0.96260852,0.030636311,0
2.2672591,-1.3421408,-0.24726295,0.9525615,-0.26138765,-0.15589462,0
-0.85135734,-0.26492333,2.1783454,0.14205755,-0.07114327,0.98729855,0
-2.8939998,-0.87052357,-0.56606334,-0.9525615,0.26138765,0.15589462,0
1.6602697,-2.9956565,-0.21548963,-0.26915848,-0.96260852,-0.030636311,0
1.9629663,-3.2372129,1.0752506,-0.26915848,-0.96260852,-0.030636311,0
-1.0461575,2.8596139,-0.27508521,0.26915848,0.96260852,0.030636311,0
2.5634921,1.7870569,1.6535378,0.26915848,0.96260852,0.030636311,0
1.8559635,-2.9565263,-0.27509308,0.9525615,-0.26138765,-0.15589462,0
0.0053066015,1.8067908,2.0698421,0.14205755,-0.07114327,0.98729855,0
-0.4488045,2.6979027,-0.93237424,0.26915848,0.96260852,0.030636311,0
-0.50617194,-2.5645435,1.5056469,-0.26915848,-0.96260852,-0.030636311,0
1.9574037,-1.2289749,-2.0939918,0.9525615,-0.26138765,-0.15589462,0
-1.3282655,-2.1227729,-2.0181148,-0.14205755,0.07114327,-0.98729855,0
0.69438982,2.3239975,0.75706208,0.26915848,0.96260852,0.030636311,0
-0.93370306,2.5551939,2.4362862,0.14205755,-0.07114327,0.98729855,0
-0.24619934,-2.4688344,0.73459411,-0.26915848,-0.96260852,-0.030636311,0
2.50121,1.0001841,-1.9519525,0.9525615,-0.26138765,-0.15589462,0
1.509196,-3.024626,1.379909,-0.26915848,-0.96260852,-0.030636311,0
-0.41327745,-1.4758656,-2.1471443,-0.14205755,0.07114327,-0.98729855,0
2.8521051,1.148392,1.7894155,0.14205755,-0.07114327,0.98729855,0
0.63463938,-0.74050045,-2.1867464,-0.14205755,0.07114327,-0.98729855,0
2.4038775,1.9043437,-1.5479393,0.26915848,0.96260852,0.030636311,0
0.32410955,-1.4536605,1.8056415,0.14205755,-0.07114327,0.98729855,0
-2.5772991,1.0670514,-1.222106,-0.9525615,0.26138765,0.15589462,0
-2.8351948,-1.8030341,0.27506208,-0.26915848,-0.96260852,-0.030636311,0
-1.3214345,2.9728909,-0.8723309,0.26915848,0.96260852,0.030636311,0
-3.0551274,-1.7606426,0.36036587,-0.26915848,-0.96260852,-0.030636311,0
0.78488106,-2.7109828,-1.9204873,-0.26915848,-0.96260852,-0.030636311,0
0.0027687252,0.8566488,-1.9026511,-0.14205755,0.07114327,-0.98729855,0
-2.8931861,-1.7588017,-1.3488204,-0.26915848,-0.96260852,-0.030636311,0
1.7313306,-3.0310121,0.2688303,-0.26915848,-0.96260852,-0.030636311,0
2.6129224,0.67552227,-0.7421723,0.9525615,-0.26138765,-0.15589462,0
1.8357644,-1.8454305,-2.1049807,0.9525615,-0.26138765,-0.15589462,0
2.3470533,0.44181359,-2.3665731,-0.14205755,0.07114327,-0.98729855,0
-1.1951603,1.8514957,-1.6954182,-0.14205755,0.07114327,-0.98729855,0
2.1347852,-1.7332939,-0.54075336,0.9525615,-0.26138765,-0.15589462,0
-2.234669,2.1826019,-1.008069,-0.9525615,0.26138765,0.15589462,0
2.4660628,1.2821612,-2.2372828,-0.14205755,0.07114327,-0.98729855,0
2.8045466,0.4444499,0.93387008,0.9525615,-0.26138765,-0.15589462,0
0.78005886,-2.8292098,0.89830518,-0.26915848,-0.96260852,-0.030636311,0
-0.12055773,-2.0977089,1.8657691,0.14205755,-0.07114327,0.98729855,0
0.48748487,2.3791811,0.36299276,0.26915848,0.96260852,0.030636311,0
1.7628272,-2.0746839,1.6921897,0.14205755,-0.07114327,0.98729855,0
0.81063533,0.31833291,1.956918,0.14205755,-0.07114327,0.98729855,0
0.7519803,-2.846987,-0.66260982,-0.26915848,-0.96260852,-0.030636311,0
-1.1961977,1.3495574,-1.8440075,-0.14205755,0.07114327,-0.98729855,0
0.048163176,-2.6297536,-1.7118623,-0.26915848,-0.96260852,-0.030636311,0
-0.049159765,-1.440389,1.938617,0.14205755,-0.07114327,0.98729855,0
3.0524597,0.70410633,1.0507995,0.9525615,-0.26138765,-0.15589462,0
-0.010652837,-0.50272131,-2.0548744,-0.14205755,0.07114327,-0.98729855,0
2.3967509,1.859306,-2.2977171,-0.14205755,0.07114327,-0.98729855,0
1.2131488,-1.9040506,-2.4097729,-0.14205755,0.07114327,-0.98729855,0
-2.1205862,-1.3469579,-1.8971058,-0.14205755,0.07114327,-0.98729855,0
-0.72154248,-2.4110119,-0.93871534,-0.26915848,-0.96260852,-0.030636311,0
-1.933264,1.5043061,1.5747122,-0.9525615,0.26138765,0.15589462,0
-0.79288435,-1.1318641,2.0248051,0.14205755,-0.07114327,0.98729855,0
-3.142164,-0.84911132,-1.5762019,-0.14205755,0.07114327,-0.98729855,0
-1.1238401,-2.2052164,-1.1599429,-0.26915848,-0.96260852,-0.030636311,0
-2.6516948,-0.97566992,1.6480352,-0.9525615,0.26138765,0.15589462,0
-3.066906,-1.439781,-1.658507,-0.14205755,0.07114327,-0.98729855,0
-2.6024849,-1.8954684,2.1151059,-0.26915848,-0.96260852,-0.030636311,0
1.4730883,-2.8841176,-1.258673,-0.26915848,-0.96260852,-0.030636311,0
-2.5893724,0.67189693,-1.3460939,-0.9525615,0.26138765,0.15589462,0
0.46389675,-2.6301777,-1.4892017,-0.26915848,-0.96260852,-0.030636311,0
-1.5860906,1.3849642,-1.6842123,-0.14205755,0.07114327,-0.98729855,0
2.2170148,1.9378476,1.7929499,0.26915848,0.96260852,0.030636311,0
2.5025327,-0.098062187,-0.29284671,0.9525615,-0.26138765,-0.15589462,0
-2.4258575,-0.62716436,1.7637081,-0.9525615,0.26138765,0.15589462,0
1.73593,1.2712169,-2.1215081,-0.14205755,0.07114327,-0.98729855,0
1.3762112,-2.8731854,-0.53312898,-0.26915848,-0.96260852,-0.030636311,0
2.179955,-2.268796,0.47551203,0.9525615,-0.26138765,-0.15589462,0
3.0177016,1.6731485,-0.74970865,0.9525615,-0.26138765,-0.15589462,0
2.6048722,1.4111015,-2.1043379,0.9525615,-0.26138765,-0.15589462,0
2.1140277,-1.0961462,-1.6855633,0.9525615,-0.26138765,-0.15589462,0
-1.3392622,-2.1852641,-0.52463853,-0.26915848,-0.96260852,-0.030636311,0
-1.3022058,-2.197473,-1.451445,-0.26915848,-0.96260852,-0.030636311,0
1.8577292,-2.824357,0.682827,0.9525615,-0.26138765,-0.15589462,0
-2.8655934,0.20652938,-1.6088039,-0.9525615,0.26138765,0.15589462,0
2.3480563,-1.7599323,0.97205698,0.9525615,-0.26138765,-0.15589462,0
0.73834985,-1.2210228,-2.2446487,-0.14205755,0.07114327,-0.98729855,0
-1.5960747,2.9313779,0.64702249,0.26915848,0.96260852,0.030636311,0
0.79962361,2.3898561,0.95779729,0.26915848,0.96260852,0.030636311,0
-1.9154023,1.6028842,1.315881,-0.9525615,0.26138765,0.15589462,0
-2.2442648,-1.8566291,-0.34344292,-0.26915848,-0.96260852,-0.030636311,0
-3.0648801,-0.50060987,-1.3201663,-0.9525615,0.26138765,0.15589462,0
-1.9429379,2.0347061,0.40300369,-0.9525615,0.26138765,0.15589462,0
-2.5383453,-1.9050254,-0.88118613,-0.26915848,-0.96260852,-0.030636311,0
2.2660329,1.9616814,-0.29483271,0.26915848,0.96260852,0.030636311,0
2.6595557,1.7891057,0.85167897,0.26915848,0.96260852,0.030636311,0
-1.8038226,-0.69717169,-1.8506743,-0.14205755,0.07114327,-0.98729855,0
1.209712,2.2466574,1.2590746,0.26915848,0.96260852,0.030636311,0
-1.826741,0.4381814,2.31496,0.14205755,-0.07114327,0.98729855,0
-1.2213304,2.8966546,-1.7060668,-0.14205755,0.07114327,-0.98729855,0
1.1728611,-0.16260171,1.8495146,0.14205755,-0.07114327,0.98729855,0
-0.40559739,-0.50810945,1.9482373,0.14205755,-0.07114327,0.98729855,0
1.680408,-0.46350002,1.8125255,0.14205755,-0.07114327,0.98729855,0
0.030330032,-1.8046389,1.8837107,0.14205755,-0.07114327,0.98729855,0
-2.6902745,0.75113738,-1.1533684,-0.9525615,0.26138765,0.15589462,0
1.1789818,-2.9737866,-0.99144578,-0.26915848,-0.96260852,-0.030636311,0
-0.1589545,1.4423233,-1.9327611,-0.14205755,0.07114327,-0.98729855,0
-0.81689394,-2.3897486,-1.7902398,-0.26915848,-0.96260852,-0.030636311,0
-2.0893428,0.9535445,2.1393895,-0.9525615,0.26138765,0.15589462,0
-2.715538,-1.7492067,1.7978649,-0.9525615,0.26138765,0.15589462,0
0.19147593,-2.6035089,-1.550421,-0.26915848,-0.96260852,-0.030636311,0
-1.6547401,-1.9377766,-1.9362741,-0.14205755,0.07114327,-0.98729855,0
1.917852,-2.2620852,-0.46190047,0.9525615,-0.26138765,-0.15589462,0
-1.1186901,1.4805238,-1.7801794,-0.14205755,0.07114327,-0.98729855,0
3.2717366,1.6501039,1.0930481,0.9525615,-0.26138765,-0.15589462,0
-0.82428628,-2.4113731,0.84688592,-0.26915848,-0.96260852,-0.030636311,0
-0.13070601,2.5902796,1.9971099,0.26915848,0.96260852,0.030636311,0
2.0302854,-2.5996861,0.59887934,0.9525615,-0.26138765,-0.15589462,0
0.48831037,2.047487,-1.9921241,-0.14205755,0.07114327,-0.98729855,0
-1.9296627,1.4659485,1.8950832,-0.9525615,0.26138765,0.15589462,0
-1.9276271,-2.1603193,0.2357614,-0.26915848,-0.96260852,-0.030636311,0
-1.9077291,1.8477843,1.0225456,-0.9525615,0.26138765,0.15589462,0
2.284328,-0.27210307,1.6731424,0.14205755,-0.07114327,0.98729855,0
2.8467371,0.77684677,-0.46769184,0.9525615,-0.26138765,-0.15589462,0
-1.7851005,1.2111762,-1.6701926,-0.14205755,0.07114327,-0.98729855,0
3.2263885,1.3701622,1.5928174,0.14205755,-0.07114327,0.98729855,0
1.7427462,-2.7259049,1.6035955,0.14205755,-0.07114327,0.98729855,0
0.69419324,-2.8208449,1.4983852,-0.26915848,-0.96260852,-0.030636311,0
-0.12624562,-1.985137,1.8867104,0.14205755,-0.07114327,0.98729855,0
2.3221667,1.9600096,0.84790719,0.26915848,0.96260852,0.030636311,0
-2.2505794,1.6237841,-0.025671721,-0.9525615,0.26138765,0.15589462,0
2.2893872,0.048938274,-1.9830112,0.9525615,-0.26138765,-0.15589462,0
1.6137229,-1.7968849,1.6580926,0.14205755,-0.07114327,0.98729855,0
0.72389805,-2.8310397,1.5748937,-0.26915848,-0.96260852,-0.030636311,0
-1.1925015,1.5978565,2.3008039,0.14205755,-0.07114327,0.98729855,0
-1.8506737,2.2745659,0.7182157,-0.9525615,0.26138765,0.15589462,0
-2.4245367,-1.7588112,-1.7893618,-0.14205755,0.07114327,-0.98729855,0
-1.7260945,2.9741249,0.36610317,0.26915848,0.96260852,0.030636311,0
-1.4619164,-0.68915331,2.2552309,0.14205755,-0.07114327,0.98729855,0
2.7935693,1.8361151,-1.8934971,0.9525615,-0.26138765,-0.15589462,0
-1.7912059,2.9755428,0.36890626,-0.9525615,0.26138765,0.15589462,0
-3.1497493,-1.3586202,-0.49402833,-0.9525615,0.26138765,0.15589462,0
-0.49334031,-0.09957099,2.1210756,0.14205755,-0.07114327,0.98729855,0
-1.8238369,2.5895677,0.033565521,-0.9525615,0.26138765,0.15589462,0
0.046812832,2.3755078,2.2277098,0.14205755,-0.07114327,0.98729855,0
-2.5085776,-0.35306883,1.621894,-0.9525615,0.26138765,0.15589462,0
2.8723335,1.2224188,-1.0902909,0.9525615,-0.26138765,-0.15589462,0
-0.55290437,2.6879091,-0.6996758,0.26915848,0.96260852,0.030636311,0
1.8364295,2.1117921,-0.77470422,0.26915848,0.96260852,0.030636311,0
-0.38906804,-1.4368215,1.9196168,0.14205755,-0.07114327,0.98729855,0
2.670826,0.27888799,-0.53093052,0.9525615,-0.26138765,-0.15589462,0
2.2136617,-1.8682666,0.37083149,0.9525615,-0.26138765,-0.15589462,0
-2.2393639,0.89410996,-1.7363501,-0.14205755,0.07114327,-0.98729855,0
2.5554583,1.8764913,0.84748769,0.26915848,0.96260852,0.030636311,0
1.728485,2.1708813,1.2394719,0.26915848,0.96260852,0.030636311,0
0.097785294,-2.5498366,-0.27252364,-0.26915848,-0.96260852,-0.030636311,0
-3.0118809,-1.0793819,-1.622425,-0.14205755,0.07114327,-0.98729855,0
2.0847781,-0.9596892,-1.0968214,0.9525615,-0.26138765,-0.15589462,0
1.5925062,-2.9790201,-0.63816118,-0.26915848,-0.96260852,-0.030636311,0
1.7212269,-2.9630654,0.0675776,0.9525615,-0.26138765,-0.15589462,0
2.2690573,1.9689423,-1.3600407,0.26915848,0.96260852,0.030636311,0
-0.0094249099,-1.0545835,-2.0090711,-0.14205755,0.07114327,-0.98729855,0
-0.44871932,-2.6057086,1.0573945,-0.26915848,-0.96260852,-0.030636311,0
1.4389182,2.2386384,1.7566419,0.26915848,0.96260852,0.030636311,0
-0.23995465,-0.81351066,-2.03017,-0.14205755,0.07114327,-0.98729855,0
1.4740272,2.160357,0.16531062,0.26915848,0.96260852,0.030636311,0
2.0184209,1.1103306,-2.2346413,-0.14205755,0.07114327,-0.98729855,0
-2.5385363,-0.11890231,0.78640836,-0.9525615,0.26138765,0.15589462,0
0.23942173,-1.6580628,1.8378804,0.14205755,-0.07114327,0.98729855,0
-1.1738741,-2.276459,1.089005,-0.26915848,-0.96260852,-0.030636311,0
3.2074497,1.602618,1.7390449,0.14205755,-0.07114327,0.98729855,0
-0.29682294,1.9854403,2.2103808,0.14205755,-0.07114327,0.98729855,0
-2.1340079,1.9747701,-0.91677618,-0.9525615,0.26138765,0.15589462,0
-1.6196541,3.0952997,-1.1038671,0.26915848,0.96260852,0.030636311,0
1.2260631,-2.916285,1.0314119,-0.26915848,-0.96260852,-0.030636311,0
1.5896527,1.1231723,1.7856514,0.14205755,-0.07114327,0.98729855,0
2.3336356,0.4826932,-2.4005883,-0.14205755,0.07114327,-0.98729855,0
-1.1610535,-1.8895032,-2.0132799,-0.14205755,0.07114327,-0.98729855,0
0.010433565,-0.30771899,-2.0319574,-0.14205755,0.07114327,-0.98729855,0
2.0429964,-2.4977376,0.6737175,0.9525615,-0.26138765,-0.15589462,0
-2.5121322,0.92368853,-1.3817973,-0.9525615,0.26138765,0.15589462,0
1.4592848,-3.0195973,-0.41188979,-0.26915848,-0.96260852,-0.030636311,0
2.3936031,1.631283,-2.2612925,-0.14205755,0.07114327,-0.98729855,0
0.4746682,2.4809675,-1.5694733,0.26915848,0.96260852,0.030636311,0
-2.2639225,1.0578508,-0.10797179,-0.9525615,0.26138765,0.15589462,0
0.13786638,1.4496003,-1.9552301,-0.14205755,0.07114327,-0.98729855,0
2.1219888,-0.95562559,-1.0353277,0.9525615,-0.26138765,-0.15589462,0
-0.83558524,-2.33639,-1.5103275,-0.26915848,-0.96260852,-0.030636311,0
2.4478617,1.1123619,1.834058,0.14205755,-0.07114327,0.98729855,0
-1.6830276,2.0307713,2.3284149,-0.9525615,0.26138765,0.15589462,0
0.59129298,-0.62302947,1.9411676,0.14205755,-0.07114327,0.98729855,0
2.4660873,0.18449897,-0.77883613,0.9525615,-0.26138765,-0.15589462,0
-0.25913954,0.76793122,2.0604587,0.14205755,-0.07114327,0.98729855,0
-0.16620919,-0.40836883,-1.9332304,-0.14205755,0.07114327,-0.98729855,0
-2.6043513,1.0308124,-1.2908292,-0.9525615,0.26138765,0.15589462,0
-1.3586018,-1.8089581,2.0213544,0.14205755,-0.07114327,0.98729855,0
1.1992149,2.3078661,-1.901746,0.26915848,0.96260852,0.030636311,0
-2.6479509,-1.2933285,-1.7181927,-0.14205755,0.07114327,-0.98729855,0
2.257534,-1.6799878,0.33111703,0.9525615,-0.26138765,-0.15589462,0
2.0240455,-1.8413427,1.5376334,0.14205755,-0.07114327,0.98729855,0
-0.71571243,-2.4541872,0.2270925,-0.26915848,-0.96260852,-0.030636311,0
2.2989073,-0.11759388,-1.8268836,0.9525615,-0.26138765,-0.15589462,0
2.3734365,0.12916565,-1.1263013,0.9525615,-0.26138765,-0.15589462,0
-2.33111,0.057905674,1.2630521,-0.9525615,0.26138765,0.15589462,0
-2.2614803,1.0400693,0.7861017,-0.9525615,0.26138765,0.15589462,0
2.7428288,1.5612063,-1.4652058,0.9525615,-0.26138765,-0.15589462,0
1.188651,2.1987512,0.002446413,0.26915848,0.96260852,0.030636311,0
-1.9575709,2.5183907,-0.63257527,-0.9525615,0.26138765,0.15589462,0
-0.22285037,-0.022584438,2.0028236,0.14205755,-0.07114327,0.98729855,0
0.8228184,-0.30181074,-2.2656481,-0.14205755,0.07114327,-0.98729855,0
-2.8766925,-1.704881,0.70337582,-0.9525615,0.26138765,0.15589462,0
0.28185695,-2.7763028,0.75707769,-0.26915848,-0.96260852,-0.030636311,0
0.44232342,1.998186,-1.9642649,-0.14205755,0.07114327,-0.98729855,0
-1.4618411,-0.92647612,2.1974554,0.14205755,-0.07114327,0.98729855,0
2.0610521,-1.9264075,-0.18712115,0.9525615,-0.26138765,-0.15589462,0
0.52258193,-2.6339414,-0.83277047,-0.26915848,-0.96260852,-0.030636311,0
-2.57795,-0.63890862,-1.6019479,-0.14205755,0.07114327,-0.98729855,0
0.79479373,0.96024859,-2.072073,-0.14205755,0.07114327,-0.98729855,0
-2.6145031,-1.9320445,1.794498,-0.26915848,-0.96260852,-0.030636311,0
-1.1168444,2.2949505,2.3632712,0.14205755,-0.07114327,0.98729855,0
2.1426921,1.9835901,0.6334821,0.26915848,0.96260852,0.030636311,0
-2.4842246,0.25776032,-0.076053604,-0.9525615,0.26138765,0.15589462,0
2.7152495,0.49239215,-0.80633366,0.9525615,-0.26138765,-0.15589462,0
0.89640999,-1.8640177,-2.3876088,-0.14205755,0.07114327,-0.98729855,0
-3.315829,-1.6434622,-0.99918628,-0.9525615,0.26138765,0.15589462,0
1.3414729,0.44415534,-2.1231613,-0.14205755,0.07114327,-0.98729855,0
3.0395734,1.7682855,0.95265818,0.26915848,0.96260852,0.030636311,0
0.67901593,2.474102,0.64372182,0.26915848,0.96260852,0.030636311,0
1.9839041,-2.8862724,1.5317101,0.14205755,-0.07114327,0.98729855,0
0.62668186,2.5236588,-1.4117253,0.26915848,0.96260852,0.030636311,0
-1.6760106,2.8825593,1.5135047,-0.9525615,0.26138765,0.15589462,0
0.89373845,-1.600332,-2.2317443,-0.14205755,0.07114327,-0.98729855,0
-1.0489463,2.4279289,2.4103119,0.14205755,-0.07114327,0.98729855,0
-2.1369281,-2.0931904,-0.026017666,-0.26915848,-0.96260852,-0.030636311,0
1.1612557,2.3373861,0.053672314,0.26915848,0.96260852,0.030636311,0
-0.99653339,-1.936326,-2.0125518,-0.14205755,0.07114327,-0.98729855,0
-1.7686994,3.1992745,-0.23943901,0.26915848,0.96260852,0.030636311,0
3.0934868,0.93742454,0.98835087,0.9525615,-0.26138765,-0.15589462,0
-0.8128196,2.8435035,-1.1728623,0.26915848,0.96260852,0.030636311,0
2.6983297,0.73795784,-0.29269004,0.9525615,-0.26138765,-0.15589462,0
-2.553467,0.97395909,-0.85662353,-0.9525615,0.26138765,0.15589462,0
3.2350729,1.6736486,1.4842801,0.9525615,-0.26138765,-0.15589462,0
-1.8028939,2.6004367,1.0288416,-0.9525615,0.26138765,0.15589462,0
0.90747374,0.61241984,1.8891218,0.14205755,-0.07114327,0.98729855,0
2.3350372,0.71638155,1.8392695,0.14205755,-0.07114327,0.98729855,0
-1.9791729,-2.0474548,-1.4614171,-0.26915848,-0.96260852,-0.030636311,0
-1.1949271,-0.64353848,2.1120958,0.14205755,-0.07114327,0.98729855,0
-2.1261666,1.5669699,-0.010404348,-0.9525615,0.26138765,0.15589462,0
1.0550275,0.89104939,-2.2140188,-0.14205755,0.07114327,-0.98729855,0
1.5078255,0.16831017,-2.1471105,-0.14205755,0.07114327,-0.98729855,0
2.7438502,1.8850658,0.3836776,0.26915848,0.96260852,0.030636311,0
2.0746713,1.9874022,-0.5387187,0.26915848,0.96260852,0.030636311,0
1.3294059,-2.9529016,-1.9075981,-0.26915848,-0.96260852,-0.030636311,0
0.36260086,-2.6772659,-0.35746479,-0.26915848,-0.96260852,-0.030636311,0
1.846197,0.59234011,-2.3408818,-0.14205755,0.07114327,-0.98729855,0
-1.3085819,2.9920459,-1.0575163,0.26915848,0.96260852,0.030636311,0
-1.3529835,1.3192549,-1.6676151,-0.14205755,0.07114327,-0.98729855,0
-2.5055435,-1.8725724,0.37342882,-0.26915848,-0.96260852,-0.030636311,0
3.1187308,1.3410007,1.2521887,0.9525615,-0.26138765,-0.15589462,0
-0.36434269,-2.6357913,1.5540614,-0.26915848,-0.96260852,-0.030636311,0
2.0074122,2.122685,-1.9265151,0.26915848,0.96260852,0.030636311,0
-1.9992026,-0.11279476,2.2428186,0.14205755,-0.07114327,0.98729855,0
-2.8737421,-1.7482303,0.57252121,-0.26915848,-0.96260852,-0.030636311,0
1.2905277,2.2818122,-1.6082096,0.26915848,0.96260852,0.030636311,0
-1.5123945,-2.012898,-1.8730865,-0.26915848,-0.96260852,-0.030636311,0
