-1.5187571,0.88191545,1.2801716,-0.75244415,-0.049805999,0.65677011,0
-3.1208191,0.37079191,-0.39001656,-0.75244415,-0.049805999,0.65677011,0
-0.29956663,-0.90444362,2.589021,-0.75244415,-0.049805999,0.65677011,0
-1.3885022,-3.4987144,-0.36909389,-0.59232867,-0.38491333,-0.70780522,0
-0.75684077,-3.7887614,0.54253459,0.28805262,-0.92160785,0.26012409,0
-0.51762277,3.2620885,-1.3643012,-0.28805262,0.92160785,-0.26012409,0
2.3768642,0.77491617,1.2341018,0.59232867,0.38491333,0.70780522,0
2.5618076,1.4633265,0.56882215,0.59232867,0.38491333,0.70780522,0
-1.4499109,3.1288791,-0.40785909,-0.28805262,0.92160785,-0.26012409,0
-0.35616922,3.1054616,2.0519953,0.59232867,0.38491333,0.70780522,0
0.62061286,2.3924334,1.8259771,0.59232867,0.38491333,0.70780522,0
2.9368815,-2.789676,0.37730074,0.28805262,-0.92160785,0.26012409,0
-1.6516659,2.7700462,-1.7752247,-0.28805262,0.92160785,-0.26012409,0
-1.6922781,2.0581908,-3.2531092,-0.59232867,-0.38491333,-0.70780522,0
-0.95687139,-0.11578214,1.8425057,-0.75244415,-0.049805999,0.65677011,0
-1.8161426,-3.7316608,0.053585052,-0.59232867,-0.38491333,-0.70780522,0
-1.6414721,-2.0610111,-0.9568463,-0.59232867,-0.38491333,-0.70780522,0
2.470603,0.89933634,1.0789661,0.59232867,0.38491333,0.70780522,0
1.5078614,4.0270801,-0.75463104,-0.28805262,0.92160785,-0.26012409,0
0.89336574,-2.7848368,2.2846417,0.28805262,-0.92160785,0.26012409,0
1.1366997,2.5242119,-1.4706881,0.75244415,0.049805999,-0.65677011,0
-2.7292364,-1.0128767,-0.68039113,-0.59232867,-0.38491333,-0.70780522,0
-2.4335241,-0.99681032,-0.9999423,-0.59232867,-0.38491333,-0.70780522,0
0.078865111,-3.2909651,1.701745,0.28805262,-0.92160785,0.26012409,0
0.94434428,-2.7258625,2.7323978,0.28805262,-0.92160785,0.26012409,0
-0.56973517,3.6380506,2.0868254,0.59232867,0.38491333,0.70780522,0
-0.26433283,3.9777038,0.72803521,-0.28805262,0.92160785,-0.26012409,0
-2.3137069,-0.70159781,-1.197861,-0.59232867,-0.38491333,-0.70780522,0
-0.51491606,3.8114524,1.754114,0.59232867,0.38491333,0.70780522,0
0.88971108,3.9017694,-0.27460289,-0.28805262,0.92160785,-0.26012409,0
1.5497125,3.5972471,-1.0051076,0.75244415,0.049805999,-0.65677011,0
-0.85282159,-3.8283005,-0.60232735,-0.59232867,-0.38491333,-0.70780522,0
2.600661,-0.21600604,-0.032856643,0.75244415,0.049805999,-0.65677011,0
-0.39117336,-3.8009665,0.089617729,0.28805262,-0.92160785,0.26012409,0
0.050418854,-3.5824616,-1.4916006,-0.59232867,-0.38491333,-0.70780522,0
-1.8502572,3.4149268,0.75223446,-0.28805262,0.92160785,-0.26012409,0
2.3470714,-2.05845,2.546226,0.59232867,0.38491333,0.70780522,0
-0.64127511,3.4823339,-0.17817926,-0.28805262,0.92160785,-0.26012409,0
2.6285825,-2.0710375,2.4985898,0.59232867,0.38491333,0.70780522,0
3.7866659,-1.4698215,1.2009072,0.59232867,0.38491333,0.70780522,0
0.69415534,-3.9150581,-1.8680302,-0.59232867,-0.38491333,-0.70780522,0
1.9005229,-2.5305314,2.6497731,0.28805262,-0.92160785,0.26012409,0
-1.49536,2.786849,-1.6344986,-0.28805262,0.92160785,-0.26012409,0
1.5593646,1.5198271,1.3621386,0.59232867,0.38491333,0.70780522,0
-0.80289412,1.3406473,-3.6037996,-0.59232867,-0.38491333,-0.70780522,0
-0.62376928,-4.168942,-0.67353415,-0.59232867,-0.38491333,-0.70780522,0
3.0665433,-0.59206879,1.4255105,0.59232867,0.38491333,0.70780522,0
2.2045541,-2.0147986,2.7437446,0.59232867,0.38491333,0.70780522,0
-0.11526442,3.1530306,-2.4277189,-0.28805262,0.92160785,-0.26012409,0
-0.81955016,-3.7739108,1.1372132,0.28805262,-0.92160785,0.26012409,0
-2.2488267,2.2520804,0.71026325,-0.75244415,-0.049805999,0.65677011,0
-0.25401998,3.9315372,0.85712004,-0.28805262,0.92160785,-0.26012409,0
1.071542,3.9970026,0.41989064,0.59232867,0.38491333,0.70780522,0
-2.1618326,-0.43292022,-1.4708998,-0.59232867,-0.38491333,-0.70780522,0
2.4588017,1.080487,-0.25306028,0.75244415,0.049805999,-0.65677011,0
3.1194816,-2.3174386,2.1661115,0.28805262,-0.92160785,0.26012409,0
1.0832772,-1.5738583,3.4729593,0.59232867,0.38491333,0.70780522,0
-2.4738538,-0.7272191,-1.1655238,-0.59232867,-0.38491333,-0.70780522,0
1.3982687,-2.5575528,-1.7221632,0.75244415,0.049805999,-0.65677011,0
1.2542245,-3.2476122,0.53594542,0.28805262,-0.92160785,0.26012409,0
-0.78487653,0.65888441,2.2208774,-0.75244415,-0.049805999,0.65677011,0
1.5631733,-3.1427207,0.59471178,0.28805262,-0.92160785,0.26012409,0
0.69827914,-0.51951027,3.1507666,0.59232867,0.38491333,0.70780522,0
-1.6766717,-0.17587495,1.2397654,-0.75244415,-0.049805999,0.65677011,0
0.071640015,-1.039892,3.1707153,-0.75244415,-0.049805999,0.65677011,0
0.20809358,3.4417586,-1.672307,-0.28805262,0.92160785,-0.26012409,0
0.18092418,-1.5265092,3.02458,-0.75244415,-0.049805999,0.65677011,0
2.8188443,-1.8487114,2.1468337,0.59232867,0.38491333,0.70780522,0
2.0331316,-0.232732,1.8669083,0.59232867,0.38491333,0.70780522,0
1.307999,-3.2709775,0.57957268,0.28805262,-0.92160785,0.26012409,0
-0.81103623,2.1868393,2.1926715,-0.75244415,-0.049805999,0.65677011,0
-0.84291077,2.7944102,-2.4995868,-0.28805262,0.92160785,-0.26012409,0
-0.05099225,0.75666678,-3.0431209,0.75244415,0.049805999,-0.65677011,0
1.0014732,-0.70700008,3.1879315,0.59232867,0.38491333,0.70780522,0
-0.85640764,-0.24476448,-2.7520454,-0.59232867,-0.38491333,-0.70780522,0
-0.77152622,2.9442203,-2.1413505,-0.28805262,0.92160785,-0.26012409,0
0.27279067,-1.2539362,3.3793931,-0.75244415,-0.049805999,0.65677011,0
-2.7949498,0.22381735,-0.036597282,-0.75244415,-0.049805999,0.65677011,0
2.1190503,-3.3126855,-0.79537988,0.75244415,0.049805999,-0.65677011,0
-1.1399703,2.9267507,2.0667226,-0.75244415,-0.049805999,0.65677011,0
0.42254746,-0.82112873,-2.5708849,0.75244415,0.049805999,-0.65677011,0
-0.76679778,-3.6773162,-1.0314167,-0.59232867,-0.38491333,-0.70780522,0
-1.1873868,-4.1498961,-0.033168793,0.28805262,-0.92160785,0.26012409,0
3.4144692,-0.41053343,0.87579685,0.59232867,0.38491333,0.70780522,0
-0.81421304,-2.6647925,1.9052651,-0.75244415,-0.049805999,0.65677011,0
-0.23813239,-3.4203305,1.5995159,0.28805262,-0.92160785,0.26012409,0
-0.24592805,2.9150271,-2.9245749,-0.28805262,0.92160785,-0.26012409,0
0.87613654,-3.1452954,1.2423186,0.28805262,-0.92160785,0.26012409,0
-1.5960703,1.0401914,1.1562896,-0.75244415,-0.049805999,0.65677011,0
-0.08694452,3.7735851,-0.30431223,-0.28805262,0.92160785,-0.26012409,0
2.2503388,0.42383456,-0.40981141,0.75244415,0.049805999,-0.65677011,0
-0.9986043,2.6214545,-3.3250129,-0.28805262,0.92160785,-0.26012409,0
-1.4903733,-1.5315382,1.2937843,-0.75244415,-0.049805999,0.65677011,0
-1.8707106,0.16654435,-2.1526456,-0.59232867,-0.38491333,-0.70780522,0
-2.5366461,2.2167253,-2.513649,-0.59232867,-0.38491333,-0.70780522,0
0.69518363,0.26790524,-2.1986623,0.75244415,0.049805999,-0.65677011,0
-1.0907309,2.3742146,-3.7143979,-0.28805262,0.92160785,-0.26012409,0
0.83558089,3.2501888,-1.700279,0.75244415,0.049805999,-0.65677011,0
2.9499564,-2.4317672,1.4212098,0.28805262,-0.92160785,0.26012409,0
1.3334818,-2.0195923,-1.564329,0.75244415,0.049805999,-0.65677011,0
0.15561676,-0.24174547,-2.9051425,0.75244415,0.049805999,-0.65677011,0
-0.33694386,-3.0327733,-1.4613943,-0.59232867,-0.38491333,-0.70780522,0
-1.8661473,2.2103896,-3.1159816,-0.59232867,-0.38491333,-0.70780522,0
-1.863629,-3.668664,0.49221826,-0.75244415,-0.049805999,0.65677011,0
-2.8912711,2.5461929,-1.3355272,-0.28805262,0.92160785,-0.26012409,0
0.42026901,1.2100134,2.5087998,0.59232867,0.38491333,0.70780522,0
1.7556007,-0.9579978,-1.1026142,0.75244415,0.049805999,-0.65677011,0
1.3688617,-3.3925662,-1.8370812,0.75244415,0.049805999,-0.65677011,0
-0.47116184,-0.65439522,-2.7686169,-0.59232867,-0.38491333,-0.70780522,0
2.625948,0.49172974,1.1189623,0.59232867,0.38491333,0.70780522,0
0.48147607,-2.8505125,2.8477733,0.28805262,-0.92160785,0.26012409,0
0.40651059,3.9869568,0.94135118,0.59232867,0.38491333,0.70780522,0
-1.6724968,2.513319,-2.7064719,-0.28805262,0.92160785,-0.26012409,0
-2.0270209,2.9224882,-1.2293968,-0.28805262,0.92160785,-0.26012409,0
-1.443656,-2.5120964,1.3472071,-0.75244415,-0.049805999,0.65677011,0
-0.29707265,2.3531404,2.4416587,0.59232867,0.38491333,0.70780522,0
1.2122258,-3.8349507,-1.469655,0.28805262,-0.92160785,0.26012409,0
2.4990349,-0.13520741,-0.096481383,0.75244415,0.049805999,-0.65677011,0
3.2226384,0.25945854,0.79089284,0.59232867,0.38491333,0.70780522,0
3.5363376,-1.1982177,0.99740136,0.75244415,0.049805999,-0.65677011,0
2.0512176,-3.3000302,-0.50804639,0.28805262,-0.92160785,0.26012409,0
-1.1067178,-0.91496813,1.7445152,-0.75244415,-0.049805999,0.65677011,0
2.8431048,-0.66089904,1.6528383,0.59232867,0.38491333,0.70780522,0
-0.44999051,2.9369466,-2.7872691,-0.28805262,0.92160785,-0.26012409,0
2.1574183,3.2231667,-0.37128901,0.75244415,0.049805999,-0.65677011,0
0.088834524,-2.8859477,-2.1708467,-0.59232867,-0.38491333,-0.70780522,0
-3.2214141,1.9339267,-1.9859478,-0.59232867,-0.38491333,-0.70780522,0
0.89143085,3.0864162,1.2114264,0.59232867,0.38491333,0.70780522,0
-1.1370687,1.2176014,-3.1762924,-0.59232867,-0.38491333,-0.70780522,0
-3.0159624,0.51195753,-1.4046931,-0.59232867,-0.38491333,-0.70780522,0
-0.9381094,-2.3726439,-1.5219338,-0.59232867,-0.38491333,-0.70780522,0
-0.75422812,-4.0134706,0.030478001,0.28805262,-0.92160785,0.26012409,0
1.9232931,-2.000463,2.9836805,0.59232867,0.38491333,0.70780522,0
-3.3362064,0.52210855,-1.0221959,-0.59232867,-0.38491333,-0.70780522,0
-1.5609157,2.2398694,1.3421412,-0.75244415,-0.049805999,0.65677011,0
0.095312119,1.771189,-2.8058336,0.75244415,0.049805999,-0.65677011,0
-1.6116309,-2.5217299,1.1249561,-0.75244415,-0.049805999,0.65677011,0
0.40152687,-3.548193,0.55823159,0.28805262,-0.92160785,0.26012409,0
0.63257575,-1.9243242,-2.4950843,0.75244415,0.049805999,-0.65677011,0
0.45917666,2.031805,-2.3412251,0.75244415,0.049805999,-0.65677011,0
0.39050794,2.9730709,1.4844104,0.59232867,0.38491333,0.70780522,0
1.0519935,3.7893229,-1.5053034,-0.28805262,0.92160785,-0.26012409,0
-2.5803332,-0.37598109,0.028741285,-0.75244415,-0.049805999,0.65677011,0
1.0817986,2.1654108,1.4529768,0.59232867,0.38491333,0.70780522,0
1.1565063,-2.7601213,2.5517507,0.28805262,-0.92160785,0.26012409,0
-3.6276655,2.1731114,-0.87206721,-0.75244415,-0.049805999,0.65677011,0
-1.354888,2.574646,-2.8716753,-0.28805262,0.92160785,-0.26012409,0
1.5287867,-3.0794172,0.64926219,0.28805262,-0.92160785,0.26012409,0
2.0105093,-0.40232116,2.1985133,0.59232867,0.38491333,0.70780522,0
-0.76739848,3.0744233,2.4001915,0.59232867,0.38491333,0.70780522,0
-2.5029712,-0.29104996,0.18073998,-0.75244415,-0.049805999,0.65677011,0
1.5794513,-1.072152,2.838285,0.59232867,0.38491333,0.70780522,0
-0.83383632,-3.8832769,0.88920689,0.28805262,-0.92160785,0.26012409,0
0.72974861,0.52507448,-2.102931,0.75244415,0.049805999,-0.65677011,0
-2.7355795,-0.51815295,-0.060393542,-0.75244415,-0.049805999,0.65677011,0
-2.1018233,-2.5623634,0.59318495,-0.75244415,-0.049805999,0.65677011,0
2.8647208,0.8044014,0.68716401,0.59232867,0.38491333,0.70780522,0
3.00419,-2.1151657,2.0855634,0.59232867,0.38491333,0.70780522,0
-0.88236129,-3.9036555,-0.68717813,-0.59232867,-0.38491333,-0.70780522,0
-2.7373195,-0.29936552,-1.1277454,-0.59232867,-0.38491333,-0.70780522,0
1.1425313,4.040863,-0.18578482,-0.28805262,0.92160785,-0.26012409,0
-0.90224719,-2.308187,-1.5425258,-0.59232867,-0.38491333,-0.70780522,0
-1.8597025,-4.1872473,0.63711882,0.28805262,-0.92160785,0.26012409,0
-0.33404362,2.897012,-2.4531138,-0.28805262,0.92160785,-0.26012409,0
0.43894863,-3.0318704,2.2560434,0.28805262,-0.92160785,0.26012409,0
2.5765383,1.4210449,0.69172096,0.59232867,0.38491333,0.70780522,0
2.2148795,-2.3013325,-0.80560791,0.75244415,0.049805999,-0.65677011,0
1.0719607,-3.2688649,-1.9883394,0.75244415,0.049805999,-0.65677011,0
-2.256619,2.4307582,-2.5193334,-0.28805262,0.92160785,-0.26012409,0
0.14691281,-2.3039184,3.1361022,-0.75244415,-0.049805999,0.65677011,0
-1.9240988,-2.7608876,-0.54832578,-0.59232867,-0.38491333,-0.70780522,0
-0.38440418,-3.1205034,-1.590856,-0.59232867,-0.38491333,-0.70780522,0
-0.66946733,-2.9242043,-1.2447506,-0.59232867,-0.38491333,-0.70780522,0
-0.014279366,2.0147281,-2.8111477,0.75244415,0.049805999,-0.65677011,0
-1.5447011,2.4280105,-2.8325613,-0.28805262,0.92160785,-0.26012409,0
-1.3959675,3.6928558,0.90586591,-0.28805262,0.92160785,-0.26012409,0
-1.9056562,-2.8548255,-0.33239675,-0.59232867,-0.38491333,-0.70780522,0
0.9150421,1.4607306,-1.8710167,0.75244415,0.049805999,-0.65677011,0
2.2376397,-1.0939564,-0.49757177,0.75244415,0.049805999,-0.65677011,0
-1.515797,-3.6707225,1.1602383,-0.75244415,-0.049805999,0.65677011,0
2.9784274,-2.6171784,1.0113616,0.28805262,-0.92160785,0.26012409,0
1.145128,-1.2209405,3.1043591,0.59232867,0.38491333,0.70780522,0
-1.1702154,2.8660135,-2.282125,-0.28805262,0.92160785,-0.26012409,0
2.9046085,-0.54184461,1.3079637,0.59232867,0.38491333,0.70780522,0
0.5911268,-3.039432,1.8973672,0.28805262,-0.92160785,0.26012409,0
-1.7310183,2.568578,1.1729436,-0.75244415,-0.049805999,0.65677011,0
0.28459477,-1.6164401,-2.7055402,0.75244415,0.049805999,-0.65677011,0
0.69457084,3.8944173,-0.59424305,-0.28805262,0.92160785,-0.26012409,0
-2.8750627,1.9982398,-0.095449924,-0.75244415,-0.049805999,0.65677011,0
0.76652271,3.3652954,-1.9478154,0.75244415,0.049805999,-0.65677011,0
-0.5073514,3.7979283,0.30189133,-0.28805262,0.92160785,-0.26012409,0
0.88579339,2.2321162,-1.7346809,0.75244415,0.049805999,-0.65677011,0
0.62939787,-2.7233865,3.3877871,0.28805262,-0.92160785,0.26012409,0
2.0001335,3.1728086,0.22034454,0.59232867,0.38491333,0.70780522,0
1.2340664,2.6277728,0.9876107,0.59232867,0.38491333,0.70780522,0
0.48741317,-3.7883356,-0.52457571,0.28805262,-0.92160785,0.26012409,0
1.5926144,3.9174213,-1.0753698,0.75244415,0.049805999,-0.65677011,0
2.810746,-1.8637991,2.3133714,0.59232867,0.38491333,0.70780522,0
0.73995805,-2.7599494,2.768852,0.28805262,-0.92160785,0.26012409,0
1.3519254,3.8938942,-1.3421421,0.75244415,0.049805999,-0.65677011,0
-0.5454185,0.92437416,2.5876634,-0.75244415,-0.049805999,0.65677011,0
2.0768323,-0.047994137,-0.60583806,0.75244415,0.049805999,-0.65677011,0
-0.83461815,-3.8348513,0.61683011,0.28805262,-0.92160785,0.26012409,0
-1.2461803,2.1831868,-3.7331531,-0.59232867,-0.38491333,-0.70780522,0
1.0116816,2.0684161,1.6127188,0.59232867,0.38491333,0.70780522,0
-3.6567602,1.0490967,-1.018463,-0.75244415,-0.049805999,0.65677011,0
-3.5695853,2.5184264,-0.70172954,-0.75244415,-0.049805999,0.65677011,0
2.2867517,-2.3876324,2.518621,0.28805262,-0.92160785,0.26012409,0
2.8767197,1.3620203,0.41663975,0.75244415,0.049805999,-0.65677011,0
3.4727957,-0.59289742,0.83903897,0.75244415,0.049805999,-0.65677011,0
0.94088411,3.6644926,0.6500051,0.59232867,0.38491333,0.70780522,0
0.44774485,0.2491408,3.0216413,0.59232867,0.38491333,0.70780522,0
-2.401401,2.2748942,-2.8243668,-0.28805262,0.92160785,-0.26012409,0
0.38823962,0.23035252,-2.7160339,0.75244415,0.049805999,-0.65677011,0
1.1539147,-1.3017118,-1.9526138,0.75244415,0.049805999,-0.65677011,0
3.4361355,-1.8431957,0.89463806,0.75244415,0.049805999,-0.65677011,0
-0.56152612,-3.0058856,2.3177607,-0.75244415,-0.049805999,0.65677011,0
2.8037417,-0.25454962,1.3757699,0.59232867,0.38491333,0.70780522,0
1.7356768,-2.4268899,2.7750695,0.28805262,-0.92160785,0.26012409,0
2.0629206,-2.6097896,1.9144948,0.28805262,-0.92160785,0.26012409,0
-1.0837814,3.4440813,-0.12275481,-0.28805262,0.92160785,-0.26012409,0
-1.8268353,-3.9306815,0.22492838,-0.59232867,-0.38491333,-0.70780522,0
0.56346184,3.6724374,-0.78706765,-0.28805262,0.92160785,-0.26012409,0
1.9705801,-3.2369924,0.17790842,0.28805262,-0.92160785,0.26012409,0
0.89857388,-2.6705151,-2.3219244,0.75244415,0.049805999,-0.65677011,0
-0.060693026,0.34852958,2.8739395,-0.75244415,-0.049805999,0.65677011,0
2.6187279,-2.5680044,1.3368607,0.28805262,-0.92160785,0.26012409,0
-0.43459117,3.5204909,2.0021877,0.59232867,0.38491333,0.70780522,0
-1.5978357,3.5731153,1.3342004,-0.28805262,0.92160785,-0.26012409,0
-2.0673389,2.0134845,-2.7576034,-0.59232867,-0.38491333,-0.70780522,0
-1.3790001,-2.4560869,1.1894703,-0.75244415,-0.049805999,0.65677011,0
2.098031,0.45895934,-0.60859609,0.75244415,0.049805999,-0.65677011,0
-2.5280685,0.49158418,-1.7281014,-0.59232867,-0.38491333,-0.70780522,0
0.87144053,0.14130843,-2.0443928,0.75244415,0.049805999,-0.65677011,0
0.011948049,3.6642478,-0.25914598,-0.28805262,0.92160785,-0.26012409,0
-1.6887537,3.405515,0.79214931,-0.28805262,0.92160785,-0.26012409,0
0.78038365,-3.413754,0.18310928,0.28805262,-0.92160785,0.26012409,0
0.67693192,-3.2218957,1.1048365,0.28805262,-0.92160785,0.26012409,0
-0.78169531,-0.074038625,2.1138546,-0.75244415,-0.049805999,0.65677011,0
2.0539401,-2.0716548,-0.80393457,0.75244415,0.049805999,-0.65677011,0
-0.89570802,-3.9670968,0.30957556,0.28805262,-0.92160785,0.26012409,0
0.49507332,-0.76796341,3.4575901,0.59232867,0.38491333,0.70780522,0
-0.69658989,0.52911329,2.1484435,-0.75244415,-0.049805999,0.65677011,0
-1.5587164,3.6827934,1.4258471,-0.28805262,0.92160785,-0.26012409,0
-2.9055514,1.6100079,-1.9892449,-0.59232867,-0.38491333,-0.70780522,0
-0.054205179,3.7729113,-0.20509911,-0.28805262,0.92160785,-0.26012409,0
-0.097787619,0.95112729,-3.0429187,0.75244415,0.049805999,-0.65677011,0
2.7568831,-1.7728021,0.013793111,0.75244415,0.049805999,-0.65677011,0
-1.7112799,-1.649931,-1.2885463,-0.59232867,-0.38491333,-0.70780522,0
0.57319754,3.447329,-2.1628516,-0.28805262,0.92160785,-0.26012409,0
0.67052007,-1.6857463,3.7794952,-0.75244415,-0.049805999,0.65677011,0
2.4494171,0.43523264,-0.10350388,0.75244415,0.049805999,-0.65677011,0
1.2161173,-3.2974496,0.77493811,0.28805262,-0.92160785,0.26012409,0
-1.896379,1.2191744,0.90957385,-0.75244415,-0.049805999,0.65677011,0
1.9480006,-1.1686918,-0.88643098,0.75244415,0.049805999,-0.65677011,0
-0.18384218,-1.7711562,-2.4238272,-0.59232867,-0.38491333,-0.70780522,0
2.8610168,-2.3086977,2.3310699,0.28805262,-0.92160785,0.26012409,0
-0.17743778,0.57680941,-3.1953778,0.75244415,0.049805999,-0.65677011,0
1.1916046,3.4283388,0.55927753,0.59232867,0.38491333,0.70780522,0
-0.51947665,1.9709144,2.6324291,-0.75244415,-0.049805999,0.65677011,0
0.055673122,-1.4148786,-2.8725357,-0.59232867,-0.38491333,-0.70780522,0
-1.9618047,2.7627566,-1.2312739,-0.28805262,0.92160785,-0.26012409,0
3.6640162,-2.1995559,1.5036895,0.28805262,-0.92160785,0.26012409,0
-2.0409112,3.0617723,0.87153435,-0.75244415,-0.049805999,0.65677011,0
-0.085290909,1.0304595,3.0834367,0.59232867,0.38491333,0.70780522,0
2.7089379,-1.0166091,1.9555047,0.59232867,0.38491333,0.70780522,0
-2.7496929,-1.327002,-0.28043032,-0.75244415,-0.049805999,0.65677011,0
-2.89326,0.9399659,-1.636323,-0.59232867,-0.38491333,-0.70780522,0
-1.2716558,-0.95572197,1.6568224,-0.75244415,-0.049805999,0.65677011,0
0.21363193,-3.4558191,0.88350892,0.28805262,-0.92160785,0.26012409,0
-2.6585965,1.9316908,-2.3487673,-0.59232867,-0.38491333,-0.70780522,0
3.2140827,-2.2039552,1.9988356,0.59232867,0.38491333,0.70780522,0
-1.9602158,-4.1382179,0.44522381,-0.59232867,-0.38491333,-0.70780522,0
-2.1134031,-0.90193295,0.66573507,-0.75244415,-0.049805999,0.65677011,0
-0.53495008,-3.1434529,2.232904,-0.75244415,-0.049805999,0.65677011,0
-0.52531528,-4.1014385,-0.27097106,0.28805262,-0.92160785,0.26012409,0
1.2917676,0.7753036,2.0516777,0.59232867,0.38491333,0.70780522,0
-3.014658,2.7667227,-0.094085693,-0.75244415,-0.049805999,0.65677011,0
1.2250326,4.1699185,0.25503564,-0.28805262,0.92160785,-0.26012409,0
0.67921931,0.25257695,-2.2446017,0.75244415,0.049805999,-0.65677011,0
1.032536,-2.9663014,-2.147938,0.75244415,0.049805999,-0.65677011,0
1.6418369,-2.7233324,-1.482511,0.75244415,0.049805999,-0.65677011,0
-1.5579484,-3.7147684,0.98194528,-0.75244415,-0.049805999,0.65677011,0
1.8082619,3.2560766,-0.81014657,0.75244415,0.049805999,-0.65677011,0
1.4765406,-3.5244956,-0.79011965,0.28805262,-0.92160785,0.26012409,0
-2.66785,-0.081225872,0.12308051,-0.75244415,-0.049805999,0.65677011,0
1.2598387,-2.8722296,1.7079787,0.28805262,-0.92160785,0.26012409,0
-3.1357775,-0.86209846,-0.51617122,-0.59232867,-0.38491333,-0.70780522,0
0.79311615,3.8854518,-0.51303267,-0.28805262,0.92160785,-0.26012409,0
2.1523452,-2.2337165,-0.64155519,0.75244415,0.049805999,-0.65677011,0
-0.49068838,-2.0016804,2.2106314,-0.75244415,-0.049805999,0.65677011,0
-1.0363517,-1.0500451,-2.1887677,-0.59232867,-0.38491333,-0.70780522,0
1.4408351,1.1835654,-1.3889848,0.75244415,0.049805999,-0.65677011,0
0.14624143,0.35782576,-2.881258,0.75244415,0.049805999,-0.65677011,0
0.89024568,4.0096135,0.47997689,0.59232867,0.38491333,0.70780522,0
-0.16934633,-2.7448075,-1.903403,-0.59232867,-0.38491333,-0.70780522,0
-2.827533,0.025786877,-1.0803311,-0.59232867,-0.38491333,-0.70780522,0
-1.3436117,2.3691988,1.642527,-0.75244415,-0.049805999,0.65677011,0
-2.4551547,1.6362698,-2.3863146,-0.59232867,-0.38491333,-0.70780522,0
-0.18367067,-3.7619419,0.60095191,0.28805262,-0.92160785,0.26012409,0
-0.048124909,-4.2044358,-1.0037966,0.28805262,-0.92160785,0.26012409,0
1.7276672,2.9188917,-0.89762878,0.75244415,0.049805999,-0.65677011,0
-0.84889746,0.8336888,-3.1867347,-0.59232867,-0.38491333,-0.70780522,0
0.66772163,-3.1871953,1.3731484,0.28805262,-0.92160785,0.26012409,0
0.38459563,-2.2267802,-2.5363176,-0.59232867,-0.38491333,-0.70780522,0
-3.3771529,1.9531584,-0.57383537,-0.75244415,-0.049805999,0.65677011,0
2.2766602,1.8101226,0.63881373,0.59232867,0.38491333,0.70780522,0
-0.7806927,-3.8331439,-0.88284039,-0.59232867,-0.38491333,-0.70780522,0
0.95857263,-1.7002028,3.623956,0.59232867,0.38491333,0.70780522,0
1.9094534,-1.7906942,-0.94170272,0.75244415,0.049805999,-0.65677011,0
1.0185038,-3.3204122,-2.0976906,0.75244415,0.049805999,-0.65677011,0
2.9878435,-2.1292338,0.30365872,0.75244415,0.049805999,-0.65677011,0
-2.8817184,2.5543051,-1.2345665,-0.28805262,0.92160785,-0.26012409,0
1.3780336,-0.12779069,-1.5692413,0.75244415,0.049805999,-0.65677011,0
2.5910234,-2.0013947,-0.13279295,0.75244415,0.049805999,-0.65677011,0
1.1930118,-2.7268629,2.5937471,0.28805262,-0.92160785,0.26012409,0
-0.87742591,-0.19610238,-2.7807782,-0.59232867,-0.38491333,-0.70780522,0
-1.8799162,-2.7271104,-0.58318973,-0.59232867,-0.38491333,-0.70780522,0
-0.18597627,0.41743112,2.7558546,-0.75244415,-0.049805999,0.65677011,0
2.7762427,-2.7139313,0.028982878,0.75244415,0.049805999,-0.65677011,0
2.41011,-3.0385013,-0.56127024,0.75244415,0.049805999,-0.65677011,0
2.3479464,2.2879777,-0.063401461,0.75244415,0.049805999,-0.65677011,0
0.93185091,-3.6734123,-2.1501746,0.75244415,0.049805999,-0.65677011,0
0.47667444,3.7664814,-0.58521771,-0.28805262,0.92160785,-0.26012409,0
-2.2399817,2.960022,-0.58662558,-0.28805262,0.92160785,-0.26012409,0
1.6645701,-3.3518813,-0.27757287,0.28805262,-0.92160785,0.26012409,0
-0.37075657,3.7723923,0.33795738,-0.28805262,0.92160785,-0.26012409,0
0.43328622,-3.7411714,-0.12104011,0.28805262,-0.92160785,0.26012409,0
-0.26792741,-0.53244841,-3.0447552,-0.59232867,-0.38491333,-0.70780522,0
-2.0844989,-1.9900048,0.51414096,-0.75244415,-0.049805999,0.65677011,0
0.50146127,-1.7479012,3.5286467,-0.75244415,-0.049805999,0.65677011,0
1.8017753,-3.5834665,-1.088418,0.28805262,-0.92160785,0.26012409,0
2.2156327,-2.6921866,-0.66815734,0.75244415,0.049805999,-0.65677011,0
-3.1395323,-0.091745615,-0.85522592,-0.59232867,-0.38491333,-0.70780522,0
0.61976254,-3.4423668,0.87859797,0.28805262,-0.92160785,0.26012409,0
0.98511213,-3.7490988,-1.1560953,0.28805262,-0.92160785,0.26012409,0
-1.4338477,2.8555429,-1.3718021,-0.28805262,0.92160785,-0.26012409,0
-1.730212,-0.023736954,0.97968823,-0.75244415,-0.049805999,0.65677011,0
3.1264374,-1.3338304,1.6212056,0.59232867,0.38491333,0.70780522,0
0.82075357,-0.791637,3.1605475,0.59232867,0.38491333,0.70780522,0
1.8568549,1.0051289,1.5213249,0.59232867,0.38491333,0.70780522,0
0.84918714,-3.0763471,1.2689164,0.28805262,-0.92160785,0.26012409,0
0.38234168,-3.569391,0.18815374,0.28805262,-0.92160785,0.26012409,0
1.1164567,-2.3428898,3.8189907,0.28805262,-0.92160785,0.26012409,0
-2.7924962,-0.89985204,-0.644041,-0.59232867,-0.38491333,-0.70780522,0
-1.9583344,-2.4122794,-0.55392122,-0.59232867,-0.38491333,-0.70780522,0
0.47265816,-2.5619507,-2.6638095,-0.59232867,-0.38491333,-0.70780522,0
0.23274446,-1.5563765,-2.8614922,-0.59232867,-0.38491333,-0.70780522,0
-0.87431145,-1.0472871,-2.1267824,-0.59232867,-0.38491333,-0.70780522,0
-3.0761499,2.6841335,-0.42513013,-0.75244415,-0.049805999,0.65677011,0
-0.65081894,-4.0369792,-0.24608731,0.28805262,-0.92160785,0.26012409,0
-2.0687611,2.7580299,-1.1403368,-0.28805262,0.92160785,-0.26012409,0
1.8625771,-2.0133536,-0.91297424,0.75244415,0.049805999,-0.65677011,0
-0.73242486,1.1118486,2.2347546,-0.75244415,-0.049805999,0.65677011,0
0.81721747,-4.1087556,-1.9931504,-0.59232867,-0.38491333,-0.70780522,0
-2.5334358,2.6916366,0.48036051,-0.75244415,-0.049805999,0.65677011,0
0.61767292,-2.6140552,3.4129622,0.28805262,-0.92160785,0.26012409,0
-0.70952916,2.7803824,-2.5761211,-0.28805262,0.92160785,-0.26012409,0
-0.47489643,-1.7195241,-2.2154305,-0.59232867,-0.38491333,-0.70780522,0
1.5782911,2.147141,-0.97880745,0.75244415,0.049805999,-0.65677011,0
1.6602173,-2.6123364,2.317781,0.28805262,-0.92160785,0.26012409,0
0.31436503,0.87398088,-2.7387164,0.75244415,0.049805999,-0.65677011,0
2.1442714,-3.3623042,-0.6663301,0.28805262,-0.92160785,0.26012409,0
-0.72605944,0.53384662,2.3369234,-0.75244415,-0.049805999,0.65677011,0
0.60306388,-3.511544,0.48140907,0.28805262,-0.92160785,0.26012409,0
-0.49219418,3.5412505,-0.47253776,-0.28805262,0.92160785,-0.26012409,0
1.8330346,-2.7945528,1.487293,0.28805262,-0.92160785,0.26012409,0
0.57139897,-1.5944612,3.7086704,-0.75244415,-0.049805999,0.65677011,0
-0.11362576,-0.14497352,-3.2055922,0.75244415,0.049805999,-0.65677011,0
-2.7028346,2.1950939,-2.5484488,-0.59232867,-0.38491333,-0.70780522,0
1.0004737,2.280015,-1.8516786,0.75244415,0.049805999,-0.65677011,0
-0.30682731,-1.208396,2.4978027,-0.75244415,-0.049805999,0.65677011,0
-1.3516607,-0.0019502304,-2.3643053,-0.59232867,-0.38491333,-0.70780522,0
-0.024966955,3.8380823,0.55459166,-0.28805262,0.92160785,-0.26012409,0
0.92562866,-3.2900839,1.1400216,0.28805262,-0.92160785,0.26012409,0
1.9498322,0.95376086,1.5141799,0.59232867,0.38491333,0.70780522,0
-1.4896979,2.4975471,1.6654551,-0.75244415,-0.049805999,0.65677011,0
-0.31910443,-1.7139022,-2.3377934,-0.59232867,-0.38491333,-0.70780522,0
2.6662664,-2.880192,0.46434546,0.28805262,-0.92160785,0.26012409,0
0.45095479,-3.2677486,1.7414827,0.28805262,-0.92160785,0.26012409,0
-1.132607,-1.4801955,-1.8427328,-0.59232867,-0.38491333,-0.70780522,0
-1.793483,0.28537697,-2.0850873,-0.59232867,-0.38491333,-0.70780522,0
-2.4963474,1.769968,0.21177924,-0.75244415,-0.049805999,0.65677011,0
1.7694058,2.1026373,-0.74311733,0.75244415,0.049805999,-0.65677011,0
0.57851279,2.5739908,-2.1133733,0.75244415,0.049805999,-0.65677011,0
0.033368826,-0.56573492,-2.9875267,0.75244415,0.049805999,-0.65677011,0
3.1020596,0.96982694,0.47432515,0.75244415,0.049805999,-0.65677011,0
-1.6244922,1.3822597,-2.9635112,-0.59232867,-0.38491333,-0.70780522,0
-0.31216025,-2.6187086,-1.923378,-0.59232867,-0.38491333,-0.70780522,0
0.080175146,-3.592696,0.71449661,0.28805262,-0.92160785,0.26012409,0
0.35424471,0.00046217442,3.154892,0.59232867,0.38491333,0.70780522,0
2.411926,-1.7195052,2.5093393,0.59232867,0.38491333,0.70780522,0
1.6660092,1.0871493,1.5744867,0.59232867,0.38491333,0.70780522,0
1.81991,-2.5612195,2.4432333,0.28805262,-0.92160785,0.26012409,0
1.4549389,4.0363464,-0.66612816,-0.28805262,0.92160785,-0.26012409,0
-0.21650958,3.3146384,-1.305392,-0.28805262,0.92160785,-0.26012409,0
-0.39340496,4.0381522,1.3643248,-0.28805262,0.92160785,-0.26012409,0
-1.068969,-3.8795166,0.55325603,0.28805262,-0.92160785,0.26012409,0
-1.1181515,-3.637022,-0.49103856,-0.59232867,-0.38491333,-0.70780522,0
1.258759,3.9384661,-0.75310612,-0.28805262,0.92160785,-0.26012409,0
-1.9451091,1.7090101,1.0090066,-0.75244415,-0.049805999,0.65677011,0
3.7995522,-1.713354,1.1594431,0.75244415,0.049805999,-0.65677011,0
2.9691069,-2.3712618,1.7419782,0.28805262,-0.92160785,0.26012409,0
-1.654054,-2.3807633,1.0545738,-0.75244415,-0.049805999,0.65677011,0
1.8349291,2.0047922,-0.71328878,0.75244415,0.049805999,-0.65677011,0
-0.41735205,-3.5956223,1.1747451,0.28805262,-0.92160785,0.26012409,0
1.8584661,1.2726158,1.2097034,0.59232867,0.38491333,0.70780522,0
0.2986232,-3.7959166,-1.7018802,-0.59232867,-0.38491333,-0.70780522,0
1.5023458,4.1266079,-0.74195004,-0.28805262,0.92160785,-0.26012409,0
3.5649228,-1.8468428,1.5600741,0.59232867,0.38491333,0.70780522,0
-0.92726213,3.1236587,-1.2093067,-0.28805262,0.92160785,-0.26012409,0
-2.555079,2.398499,-1.8958406,-0.28805262,0.92160785,-0.26012409,0
0.79448855,-1.2475224,-2.3011646,0.75244415,0.049805999,-0.65677011,0
2.9024692,-1.1546471,0.17089164,0.75244415,0.049805999,-0.65677011,0
-1.4666238,3.733408,1.3201191,-0.28805262,0.92160785,-0.26012409,0
-0.5481599,-2.3833325,2.1053922,-0.75244415,-0.049805999,0.65677011,0
0.057045221,-2.6790013,-1.9991511,-0.59232867,-0.38491333,-0.70780522,0
1.3627311,1.4377356,-1.4957389,0.75244415,0.049805999,-0.65677011,0
0.37641358,-1.3611982,3.2506886,-0.75244415,-0.049805999,0.65677011,0
-3.442883,0.82345283,-1.1663444,-0.59232867,-0.38491333,-0.70780522,0
-2.340204,2.7324331,0.60476279,-0.75244415,-0.049805999,0.65677011,0
1.4452417,4.3091507,-0.16315079,-0.28805262,0.92160785,-0.26012409,0
-0.87028825,-0.34008706,1.8768759,-0.75244415,-0.049805999,0.65677011,0
-2.2020881,2.7007189,-1.6041315,-0.28805262,0.92160785,-0.26012409,0
-1.8003075,0.71195412,0.96902865,-0.75244415,-0.049805999,0.65677011,0
-0.54364914,-3.5198417,1.5612938,0.28805262,-0.92160785,0.26012409,0
-0.45647645,-3.9759614,-0.25997925,0.28805262,-0.92160785,0.26012409,0
1.7492387,-3.4567647,-1.3599497,0.75244415,0.049805999,-0.65677011,0
-3.0023584,1.1596563,-1.5479972,-0.59232867,-0.38491333,-0.70780522,0
-1.4584622,-3.1151032,1.2323334,-0.75244415,-0.049805999,0.65677011,0
2.9409523,-2.8987231,0.1892488,0.75244415,0.049805999,-0.65677011,0
-1.716377,2.2613041,-3.4507987,-0.59232867,-0.38491333,-0.70780522,0
-1.5719576,1.2022957,1.3084838,-0.75244415,-0.049805999,0.65677011,0
-3.2962868,0.66073346,-1.1453203,-0.59232867,-0.38491333,-0.70780522,0
-1.6479051,-4.0624137,0.66796303,0.28805262,-0.92160785,0.26012409,0
2.836483,-1.932005,-0.047517061,0.75244415,0.049805999,-0.65677011,0
2.1494906,-1.4908466,2.4915087,0.59232867,0.38491333,0.70780522,0
0.71989799,4.1177006,0.15353179,-0.28805262,0.92160785,-0.26012409,0
-1.8809706,1.1760886,1.1307611,-0.75244415,-0.049805999,0.65677011,0
1.6755757,-2.5634315,2.8328373,0.28805262,-0.92160785,0.26012409,0
-1.9765613,2.4463351,-2.6441534,-0.28805262,0.92160785,-0.26012409,0
0.10790908,-3.5627649,-1.5741028,-0.59232867,-0.38491333,-0.70780522,0
-1.7888525,-0.082639337,-1.9501673,-0.59232867,-0.38491333,-0.70780522,0
-0.66823959,3.0491209,2.354188,0.59232867,0.38491333,0.70780522,0
-1.3044356,3.3743122,1.7613046,-0.75244415,-0.049805999,0.65677011,0
-0.4102025,-2.7986569,-1.7318945,-0.59232867,-0.38491333,-0.70780522,0
-2.3012233,3.3113165,0.67077971,-0.75244415,-0.049805999,0.65677011,0
0.96862507,-3.412251,0.54662204,0.28805262,-0.92160785,0.26012409,0
0.66186118,-3.407135,-2.3106234,-0.59232867,-0.38491333,-0.70780522,0
2.2958663,-2.8678095,0.70149946,0.28805262,-0.92160785,0.26012409,0
-3.3669584,2.3643348,-1.217325,-0.28805262,0.92160785,-0.26012409,0
-3.2718117,0.54348004,-1.1632658,-0.59232867,-0.38491333,-0.70780522,0
1.5713059,3.4143462,0.46969628,0.59232867,0.38491333,0.70780522,0
-0.60060298,-3.7023935,0.91662335,0.28805262,-0.92160785,0.26012409,0
-1.2748477,2.0750315,-3.6443245,-0.59232867,-0.38491333,-0.70780522,0
1.7822337,-0.18907368,-1.0236865,0.75244415,0.049805999,-0.65677011,0
0.36816418,-4.0291095,-1.5714951,-0.59232867,-0.38491333,-0.70780522,0
0.79368377,1.174818,2.2640224,0.59232867,0.38491333,0.70780522,0
3.4899566,-2.3705478,1.1414883,0.28805262,-0.92160785,0.26012409,0
-0.26617527,1.9523237,2.6808987,0.59232867,0.38491333,0.70780522,0
-3.1397829,0.96953154,-0.62262297,-0.75244415,-0.049805999,0.65677011,0
1.4338385,0.18983126,-1.3204663,0.75244415,0.049805999,-0.65677011,0
0.63207781,3.6950672,-0.69508672,-0.28805262,0.92160785,-0.26012409,0
-1.6268117,-3.1664038,1.016767,-0.75244415,-0.049805999,0.65677011,0
-0.69312155,3.5071855,-0.032059908,-0.28805262,0.92160785,-0.26012409,0
-1.9780102,-3.7822843,0.251477,-0.59232867,-0.38491333,-0.70780522,0
1.8136489,-2.5256605,2.6288409,0.28805262,-0.92160785,0.26012409,0
-2.3190918,-0.18436432,0.29608274,-0.75244415,-0.049805999,0.65677011,0
-1.2777882,2.0954499,-3.7143548,-0.59232867,-0.38491333,-0.70780522,0
-0.38846743,-2.8488822,2.4080679,-0.75244415,-0.049805999,0.65677011,0
-0.79271531,1.535741,-3.6613078,-0.59232867,-0.38491333,-0.70780522,0
0.13312614,-3.8176246,-0.042162657,0.28805262,-0.92160785,0.26012409,0
-0.14975142,-3.1263266,2.5294487,-0.75244415,-0.049805999,0.65677011,0
0.56139243,-1.8358607,-2.4400277,0.75244415,0.049805999,-0.65677011,0
1.4748677,1.9873805,-1.236439,0.75244415,0.049805999,-0.65677011,0
-1.0449073,2.9650521,-1.9135854,-0.28805262,0.92160785,-0.26012409,0
1.6551502,0.65708572,1.7834067,0.59232867,0.38491333,0.70780522,0
-2.9404731,2.3748772,-2.029449,-0.28805262,0.92160785,-0.26012409,0
2.3449159,2.6062686,-0.25953484,0.75244415,0.049805999,-0.65677011,0
-3.8635392,1.6086456,-1.1579857,-0.59232867,-0.38491333,-0.70780522,0
0.19029605,3.0250335,-2.6630077,0.75244415,0.049805999,-0.65677011,0
2.1087852,0.29581404,-0.5061307,0.75244415,0.049805999,-0.65677011,0
-2.7126467,1.927593,-2.2305789,-0.59232867,-0.38491333,-0.70780522,0
0.68063974,2.6961999,-1.9514754,0.75244415,0.049805999,-0.65677011,0
2.1073725,-2.575928,-0.67484593,0.75244415,0.049805999,-0.65677011,0
0.4387399,0.16479349,-2.4030418,0.75244415,0.049805999,-0.65677011,0
1.4853747,-1.2250698,3.0884719,0.59232867,0.38491333,0.70780522,0
0.46561325,-3.4245584,1.147861,0.28805262,-0.92160785,0.26012409,0
-2.4258456,-0.84721529,-1.1044946,-0.59232867,-0.38491333,-0.70780522,0
-3.7075546,2.3272655,-1.4433649,-0.28805262,0.92160785,-0.26012409,0
0.03480196,0.82377303,-2.9609377,0.75244415,0.049805999,-0.65677011,0
0.32550788,-0.15734136,3.2663217,-0.75244415,-0.049805999,0.65677011,0
-0.68499899,4.042099,1.5463762,-0.28805262,0.92160785,-0.26012409,0
0.66256583,-1.2457767,-2.3600762,0.75244415,0.049805999,-0.65677011,0
0.25937212,-3.1003206,2.4543369,0.28805262,-0.92160785,0.26012409,0
0.5911324,-2.6080444,3.5396802,-0.75244415,-0.049805999,0.65677011,0
0.12922454,-3.892261,-0.4749918,0.28805262,-0.92160785,0.26012409,0
0.35210633,1.2928823,2.434164,0.59232867,0.38491333,0.70780522,0
2.4033213,-2.5153503,2.2629929,0.28805262,-0.92160785,0.26012409,0
-1.8341062,2.5552373,-2.4946101,-0.28805262,0.92160785,-0.26012409,0
-3.2314219,0.72849083,-1.3225806,-0.59232867,-0.38491333,-0.70780522,0
-1.2256446,2.5205965,-3.16292,-0.28805262,0.92160785,-0.26012409,0
1.7503939,-1.4378183,-1.1756908,0.75244415,0.049805999,-0.65677011,0
-1.4620087,2.4516809,-2.8027124,-0.28805262,0.92160785,-0.26012409,0
0.69997513,3.7160769,1.0032747,0.59232867,0.38491333,0.70780522,0
-0.61965096,1.9613101,2.6045926,-0.75244415,-0.049805999,0.65677011,0
3.0932682,-1.491065,0.51812267,0.75244415,0.049805999,-0.65677011,0
-0.18261552,-2.4041901,-2.2023587,-0.59232867,-0.38491333,-0.70780522,0
1.7992489,1.2534205,1.3630835,0.59232867,0.38491333,0.70780522,0
-0.70352495,2.4915571,2.3628583,-0.75244415,-0.049805999,0.65677011,0
3.3502538,-2.1358306,1.7749298,0.59232867,0.38491333,0.70780522,0
1.4136887,-1.8363534,3.3984778,0.59232867,0.38491333,0.70780522,0
1.5393403,-1.0474629,2.8705726,0.59232867,0.38491333,0.70780522,0
-2.5449479,-0.19718504,0.037045449,-0.75244415,-0.049805999,0.65677011,0
-0.6512565,-3.8018398,0.98633933,0.28805262,-0.92160785,0.26012409,0
2.4127507,-0.31348145,1.6846778,0.59232867,0.38491333,0.70780522,0
-0.20443034,-3.2515948,2.544723,0.28805262,-0.92160785,0.26012409,0
-0.29427183,-3.8150632,0.38896346,0.28805262,-0.92160785,0.26012409,0
1.4114286,4.1625481,-0.18872499,-0.28805262,0.92160785,-0.26012409,0
-0.24780273,-3.3853242,-1.3707709,-0.59232867,-0.38491333,-0.70780522,0
-1.3531134,-0.31277758,-2.2418683,-0.59232867,-0.38491333,-0.70780522,0
2.3807325,-2.6450379,1.0750744,0.28805262,-0.92160785,0.26012409,0
1.6719482,2.2553668,-0.81984496,0.75244415,0.049805999,-0.65677011,0
-0.28511393,3.1333394,1.9676521,0.59232867,0.38491333,0.70780522,0
0.75906181,2.6867228,1.4733479,0.59232867,0.38491333,0.70780522,0
-1.6746625,-3.8898315,0.81273985,-0.75244415,-0.049805999,0.65677011,0
1.1195748,4.0986557,-0.47364235,-0.28805262,0.92160785,-0.26012409,0
2.1871531,-3.1512852,0.17891836,0.28805262,-0.92160785,0.26012409,0
-2.5196295,2.6169465,0.32472348,-0.75244415,-0.049805999,0.65677011,0
-0.29893458,-3.5831745,1.1164598,0.28805262,-0.92160785,0.26012409,0
-1.6363308,-1.8291612,-1.1764588,-0.59232867,-0.38491333,-0.70780522,0
-3.4110343,1.996834,-0.8173995,-0.75244415,-0.049805999,0.65677011,0
0.12562978,3.341048,-1.409162,-0.28805262,0.92160785,-0.26012409,0
1.2705261,-2.7464423,1.9446723,0.28805262,-0.92160785,0.26012409,0
2.4115429,1.8482327,0.45561397,0.59232867,0.38491333,0.70780522,0
2.0729222,-1.5230281,-0.63624555,0.75244415,0.049805999,-0.65677011,0
-2.0617483,3.2619324,0.69969749,-0.28805262,0.92160785,-0.26012409,0
-1.1866336,0.27690876,1.554791,-0.75244415,-0.049805999,0.65677011,0
-0.77190173,2.8427644,-2.3050375,-0.28805262,0.92160785,-0.26012409,0
-0.19883943,-0.94458759,2.8622274,-0.75244415,-0.049805999,0.65677011,0
-0.52069104,2.0818963,2.623281,-0.75244415,-0.049805999,0.65677011,0
1.2514479,-3.9240656,-1.4884744,0.28805262,-0.92160785,0.26012409,0
2.7804065,0.77053261,0.66645736,0.59232867,0.38491333,0.70780522,0
0.13707823,3.3317945,-1.7757349,-0.28805262,0.92160785,-0.26012409,0
-0.6615119,0.13999975,-3.0882194,-0.59232867,-0.38491333,-0.70780522,0
-1.9893804,0.15683985,0.89951885,-0.75244415,-0.049805999,0.65677011,0
3.176527,-2.7590542,0.45297933,0.28805262,-0.92160785,0.26012409,0
0.43386817,-1.0543505,3.5937781,-0.75244415,-0.049805999,0.65677011,0
-0.42774034,2.4927342,-3.2121465,0.75244415,0.049805999,-0.65677011,0
2.2774534,0.40815032,1.3844965,0.59232867,0.38491333,0.70780522,0
-2.275032,-0.398983,0.34378031,-0.75244415,-0.049805999,0.65677011,0
0.93657112,2.2431285,1.4347138,0.59232867,0.38491333,0.70780522,0
2.89849,-0.52746487,0.091777265,0.75244415,0.049805999,-0.65677011,0
2.8871822,-2.4847674,0.15574002,0.75244415,0.049805999,-0.65677011,0
1.4750404,-0.55471987,2.6581633,0.59232867,0.38491333,0.70780522,0
0.23230839,-3.1082129,2.4151249,0.28805262,-0.92160785,0.26012409,0
-2.8535585,2.4352572,-1.7033656,-0.28805262,0.92160785,-0.26012409,0
-2.5425873,1.2147509,0.32338917,-0.75244415,-0.049805999,0.65677011,0
0.31064063,3.4156342,-1.9770725,-0.28805262,0.92160785,-0.26012409,0
0.076116562,-0.45992398,-3.0636761,0.75244415,0.049805999,-0.65677011,0
-0.69277203,-2.3796048,1.9958148,-0.75244415,-0.049805999,0.65677011,0
-0.41889572,-2.6368947,2.3156521,-0.75244415,-0.049805999,0.65677011,0
1.5873367,-0.36657226,-1.3885601,0.75244415,0.049805999,-0.65677011,0
-2.951262,0.57539141,-1.3101232,-0.59232867,-0.38491333,-0.70780522,0
-2.0577967,1.7239178,0.84640568,-0.75244415,-0.049805999,0.65677011,0
-2.2357578,2.5549631,-2.1641843,-0.28805262,0.92160785,-0.26012409,0
2.0612066,-0.66523671,2.0584803,0.59232867,0.38491333,0.70780522,0
3.0011888,-2.6458933,0.99900579,0.28805262,-0.92160785,0.26012409,0
-0.31898379,2.8130026,-3.2619162,-0.28805262,0.92160785,-0.26012409,0
2.8532379,-2.5575137,1.0493419,0.28805262,-0.92160785,0.26012409,0
1.0851059,-2.9030552,1.835494,0.28805262,-0.92160785,0.26012409,0
-0.71367764,2.8200665,-2.8217251,-0.28805262,0.92160785,-0.26012409,0
-1.8042693,2.9301357,1.1863611,-0.75244415,-0.049805999,0.65677011,0
0.77638793,-1.6234323,-2.1362669,0.75244415,0.049805999,-0.65677011,0
0.05635047,1.5821862,2.7292495,0.59232867,0.38491333,0.70780522,0
0.97220135,2.3411031,-1.6649804,0.75244415,0.049805999,-0.65677011,0
-2.8737776,-0.68921041,-0.34259507,-0.75244415,-0.049805999,0.65677011,0
1.7827045,0.73996115,-0.95552522,0.75244415,0.049805999,-0.65677011,0
-2.9899986,1.2317182,-1.7740818,-0.59232867,-0.38491333,-0.70780522,0
2.340651,2.4302139,0.17465401,0.59232867,0.38491333,0.70780522,0
1.3860238,-2.4128735,3.2950566,0.28805262,-0.92160785,0.26012409,0
-2.285893,-0.60077035,-1.2647804,-0.59232867,-0.38491333,-0.70780522,0
0.55514598,-0.61042976,3.4962168,0.59232867,0.38491333,0.70780522,0
2.1472166,1.0397651,1.0286406,0.59232867,0.38491333,0.70780522,0
1.9200833,2.1981773,0.72117293,0.59232867,0.38491333,0.70780522,0
-1.6088192,3.2865214,1.3928055,-0.75244415,-0.049805999,0.65677011,0
2.8630853,-2.600903,1.306999,0.28805262,-0.92160785,0.26012409,0
3.210921,-1.0927844,1.5738287,0.59232867,0.38491333,0.70780522,0
2.0272467,-1.3528453,-0.82829076,0.75244415,0.049805999,-0.65677011,0
-0.52541506,3.6010518,-0.11297894,-0.28805262,0.92160785,-0.26012409,0
-2.5748534,0.40064168,-1.5548549,-0.59232867,-0.38491333,-0.70780522,0
-1.5778223,-2.4121857,1.082516,-0.75244415,-0.049805999,0.65677011,0
1.0892515,3.1842341,-1.5927076,0.75244415,0.049805999,-0.65677011,0
2.064599,2.4533386,-0.52541256,0.75244415,0.049805999,-0.65677011,0
2.0721455,0.88874364,-0.51438051,0.75244415,0.049805999,-0.65677011,0
0.15303612,-3.4182768,-1.868503,-0.59232867,-0.38491333,-0.70780522,0
2.0927677,-0.40125144,1.86456,0.59232867,0.38491333,0.70780522,0
-1.6236979,-2.2970757,0.90098286,-0.75244415,-0.049805999,0.65677011,0
0.90075064,2.4236438,1.3987317,0.59232867,0.38491333,0.70780522,0
2.5309913,0.2806654,1.2538904,0.59232867,0.38491333,0.70780522,0
0.67149568,-3.534692,-0.16078949,0.28805262,-0.92160785,0.26012409,0
-0.52268982,-0.39744055,2.3321638,-0.75244415,-0.049805999,0.65677011,0
-2.7312598,2.3227353,-2.3758612,-0.28805262,0.92160785,-0.26012409,0
-0.54907012,3.1039178,-1.8453712,-0.28805262,0.92160785,-0.26012409,0
0.93302441,-2.8945837,2.2166228,0.28805262,-0.92160785,0.26012409,0
1.4435272,-1.1849325,2.9941769,0.59232867,0.38491333,0.70780522,0
0.43581939,-3.0273862,2.5432198,0.28805262,-0.92160785,0.26012409,0
1.1635349,-1.7779446,3.616749,0.59232867,0.38491333,0.70780522,0
-0.10581861,3.5318084,-0.92366052,-0.28805262,0.92160785,-0.26012409,0
-1.2132678,1.8316346,-3.4779992,-0.59232867,-0.38491333,-0.70780522,0
-2.7675259,-1.4791121,-0.54759383,-0.59232867,-0.38491333,-0.70780522,0
0.81483287,-0.2733438,-2.1437666,0.75244415,0.049805999,-0.65677011,0
2.2233083,-2.4068236,2.5617676,0.28805262,-0.92160785,0.26012409,0
2.0748029,2.683466,0.26868749,0.59232867,0.38491333,0.70780522,0
0.049991608,-0.45627081,-3.0684566,0.75244415,0.049805999,-0.65677011,0
-0.31389713,-1.167266,-2.6221616,-0.59232867,-0.38491333,-0.70780522,0
-2.2553887,-0.82066011,-1.1008115,-0.59232867,-0.38491333,-0.70780522,0
1.2162693,-3.5914867,-1.8905841,0.75244415,0.049805999,-0.65677011,0
-0.00077939034,0.2580899,3.1474426,-0.75244415,-0.049805999,0.65677011,0
-0.74435949,0.23430306,-3.0345669,-0.59232867,-0.38491333,-0.70780522,0
2.2524796,-1.0032674,2.2116733,0.59232867,0.38491333,0.70780522,0
2.1081274,-1.6427627,2.5806921,0.59232867,0.38491333,0.70780522,0
1.7488492,-0.36596376,2.1711407,0.59232867,0.38491333,0.70780522,0
0.31600809,2.6969547,-2.5937669,0.75244415,0.049805999,-0.65677011,0
2.0478523,3.1203787,-0.44539952,0.75244415,0.049805999,-0.65677011,0
0.92980927,1.3933645,-1.7301356,0.75244415,0.049805999,-0.65677011,0
0.11102819,-1.8673106,2.8795621,-0.75244415,-0.049805999,0.65677011,0
-2.0201683,-1.7332191,0.63950574,-0.75244415,-0.049805999,0.65677011,0
-2.7301168,2.7863619,-0.91460586,-0.28805262,0.92160785,-0.26012409,0
2.3162539,-2.1126699,2.6942873,0.59232867,0.38491333,0.70780522,0
0.29394975,3.3252437,-1.6873,-0.28805262,0.92160785,-0.26012409,0
2.9892988,-0.19925642,1.172576,0.59232867,0.38491333,0.70780522,0
1.6682887,-2.8367932,-1.4967899,0.75244415,0.049805999,-0.65677011,0
-0.59107506,0.48106587,2.3469558,-0.75244415,-0.049805999,0.65677011,0
0.56942868,4.0126939,-0.086781502,-0.28805262,0.92160785,-0.26012409,0
1.3434062,-2.0709167,-1.6934962,0.75244415,0.049805999,-0.65677011,0
-2.8116946,1.9880421,-2.3156509,-0.59232867,-0.38491333,-0.70780522,0
-0.55797446,-0.067396998,2.4862199,-0.75244415,-0.049805999,0.65677011,0
0.51494998,-3.241353,1.0581372,0.28805262,-0.92160785,0.26012409,0
1.6600382,-3.4757812,-0.99094963,0.28805262,-0.92160785,0.26012409,0
1.3201234,0.90607727,-1.3844035,0.75244415,0.049805999,-0.65677011,0
-0.80515981,0.30894715,-2.9545364,-0.59232867,-0.38491333,-0.70780522,0
-0.49818254,2.3059409,-3.2972019,0.75244415,0.049805999,-0.65677011,0
1.0616299,-2.05621,-2.082376,0.75244415,0.049805999,-0.65677011,0
-0.18255877,-3.3401287,-1.5513688,-0.59232867,-0.38491333,-0.70780522,0
-0.77201629,1.7689892,-3.8174512,0.75244415,0.049805999,-0.65677011,0
0.1078558,2.9211636,1.8027915,0.59232867,0.38491333,0.70780522,0
-2.6442881,-0.8324573,-0.11940992,-0.75244415,-0.049805999,0.65677011,0
3.2089007,-0.29632926,0.60850167,0.75244415,0.049805999,-0.65677011,0
-3.2416027,0.84886408,-1.3803741,-0.59232867,-0.38491333,-0.70780522,0
-2.0975389,-0.19258881,0.67354155,-0.75244415,-0.049805999,0.65677011,0
-2.275836,0.1002233,-1.7261441,-0.59232867,-0.38491333,-0.70780522,0
0.82245618,-0.078674912,-2.249258,0.75244415,0.049805999,-0.65677011,0
1.1726143,-2.5294657,3.3039362,0.28805262,-0.92160785,0.26012409,0
3.0328977,-0.66716182,1.2504662,0.59232867,0.38491333,0.70780522,0
2.6413474,-0.50052428,1.4679556,0.59232867,0.38491333,0.70780522,0
1.9066427,1.4697284,1.1191881,0.59232867,0.38491333,0.70780522,0
-0.55229503,3.703907,0.16675377,-0.28805262,0.92160785,-0.26012409,0
-1.2785314,3.4108162,0.33291125,-0.28805262,0.92160785,-0.26012409,0
3.0901501,-2.3482432,1.9313457,0.28805262,-0.92160785,0.26012409,0
-0.93954408,0.10591507,1.905668,-0.75244415,-0.049805999,0.65677011,0
0.16698456,-2.9333339,-2.0157285,-0.59232867,-0.38491333,-0.70780522,0
-2.5609472,-1.7103348,0.02549696,-0.75244415,-0.049805999,0.65677011,0
-0.85277689,3.8838224,1.0743892,-0.28805262,0.92160785,-0.26012409,0
-1.2881048,0.72222352,-2.8559144,-0.59232867,-0.38491333,-0.70780522,0
-3.3114235,1.9771041,-1.7566068,-0.59232867,-0.38491333,-0.70780522,0
-0.76535463,-1.6410148,-1.9479351,-0.59232867,-0.38491333,-0.70780522,0
1.4249268,-3.7042403,-1.3926072,0.28805262,-0.92160785,0.26012409,0
2.3344507,3.355052,-0.12149882,0.59232867,0.38491333,0.70780522,0
0.49748302,-3.1196499,1.5267167,0.28805262,-0.92160785,0.26012409,0
-2.4333568,2.7029946,-1.0628147,-0.28805262,0.92160785,-0.26012409,0
-0.34687448,3.9216533,0.97401094,-0.28805262,0.92160785,-0.26012409,0
1.0376935,-3.8430951,-1.4549596,0.28805262,-0.92160785,0.26012409,0
-0.23803663,0.59285748,-3.4174809,0.75244415,0.049805999,-0.65677011,0
-2.0825844,-2.0623732,-0.68679118,-0.59232867,-0.38491333,-0.70780522,0
2.2467346,-1.788812,2.7047777,0.59232867,0.38491333,0.70780522,0
0.44449139,-1.6036992,3.5449901,-0.75244415,-0.049805999,0.65677011,0
-1.5940347,2.613272,-2.1237175,-0.28805262,0.92160785,-0.26012409,0
2.6563451,-2.9724925,0.29608321,0.28805262,-0.92160785,0.26012409,0
-0.10263371,2.1227574,-3.0453982,0.75244415,0.049805999,-0.65677011,0
-3.0666106,1.071265,-0.51990354,-0.75244415,-0.049805999,0.65677011,0
-1.6315413,2.9330943,-1.1980681,-0.28805262,0.92160785,-0.26012409,0
-0.60181832,-2.7765164,-1.6110736,-0.59232867,-0.38491333,-0.70780522,0
-0.85620379,-2.0687549,-1.8300829,-0.59232867,-0.38491333,-0.70780522,0
-0.13501716,-4.0871139,-1.3347695,-0.59232867,-0.38491333,-0.70780522,0
-0.081875086,-2.6929121,-1.8662132,-0.59232867,-0.38491333,-0.70780522,0
-2.7230163,1.7335411,-2.0721087,-0.59232867,-0.38491333,-0.70780522,0
-1.403126,2.3657732,-3.3122051,-0.28805262,0.92160785,-0.26012409,0
-0.00754489,-3.757153,0.49769926,0.28805262,-0.92160785,0.26012409,0
0.49339467,-3.8158813,-0.24042892,0.28805262,-0.92160785,0.26012409,0
0.51303864,-0.92148662,3.4236259,-0.75244415,-0.049805999,0.65677011,0
0.0091007948,-3.3749013,1.6221361,0.28805262,-0.92160785,0.26012409,0
0.1272614,-2.484324,-2.4223621,-0.59232867,-0.38491333,-0.70780522,0
1.1893289,2.5167067,1.0755337,0.59232867,0.38491333,0.70780522,0
