2.4366875,4.4201365,1.9393067,0.14765866,0.96573943,0.21341103,0
3.3007135,1.277333,-1.1136773,0.98628736,-0.15986168,0.041004676,0
-0.33978117,5.051681,0.48598766,0.14765866,0.96573943,0.21341103,0
-2.9146299,-0.13026559,-2.2984545,0.073716082,0.20442986,-0.97610158,0
2.7417097,0.87659734,2.3497424,-0.073716082,-0.20442986,0.97610158,0
-2.9655633,0.04981488,0.17910433,-0.98628736,0.15986168,-0.041004676,0
-0.031800985,4.9875393,0.59313726,0.14765866,0.96573943,0.21341103,0
1.6067835,3.7522447,-1.1921806,0.073716082,0.20442986,-0.97610158,0
-1.4704372,-2.6905537,1.4666207,-0.073716082,-0.20442986,0.97610158,0
0.93184072,2.5141687,2.6400433,-0.073716082,-0.20442986,0.97610158,0
-2.6234741,-0.51603532,1.6488938,-0.073716082,-0.20442986,0.97610158,0
-2.7679868,2.7936611,1.9134659,-0.98628736,0.15986168,-0.041004676,0
-3.4547861,-2.8424449,1.0523741,-0.98628736,0.15986168,-0.041004676,0
-3.6405363,-3.7702742,0.9823947,-0.073716082,-0.20442986,0.97610158,0
3.0281563,-0.72531104,-0.46038941,0.98628736,-0.15986168,0.041004676,0
-0.39894521,4.7740512,2.4609408,0.14765866,0.96573943,0.21341103,0
-0.89609122,-5.1037374,-0.048050404,-0.14765866,-0.96573943,-0.21341103,0
2.333447,-4.5278382,0.068385839,0.98628736,-0.15986168,0.041004676,0
3.1880617,3.6579106,3.0720878,-0.073716082,-0.20442986,0.97610158,0
-1.4916699,3.7268944,-1.2915859,0.073716082,0.20442986,-0.97610158,0
-2.557435,-1.2868609,1.5428079,-0.073716082,-0.20442986,0.97610158,0
3.2836971,2.4532313,1.9867686,0.98628736,-0.15986168,0.041004676,0
2.3051696,5.0274286,-0.65805387,0.14765866,0.96573943,0.21341103,0
-0.41009533,-5.1689987,0.14582586,-0.14765866,-0.96573943,-0.21341103,0
2.6570773,-2.8663621,-0.9431783,0.98628736,-0.15986168,0.041004676,0
2.8809838,4.8304749,-0.55639219,0.14765866,0.96573943,0.21341103,0
2.4840424,-3.6117797,-0.72864914,0.98628736,-0.15986168,0.041004676,0
3.014297,0.20368743,-0.43078566,0.98628736,-0.15986168,0.041004676,0
0.083542854,0.82021856,2.2330701,-0.073716082,-0.20442986,0.97610158,0
2.5397174,-2.3093512,1.7204387,-0.073716082,-0.20442986,0.97610158,0
0.99464798,-1.5243256,-2.2552681,0.073716082,0.20442986,-0.97610158,0
-3.5086141,-2.7035737,-1.3019023,-0.98628736,0.15986168,-0.041004676,0
-2.6118522,3.3535991,1.4788581,-0.98628736,0.15986168,-0.041004676,0
3.3504128,1.9692582,-0.18369746,0.98628736,-0.15986168,0.041004676,0
2.5247145,-2.5677106,0.21530819,0.98628736,-0.15986168,0.041004676,0
3.3187089,4.0656595,2.8403318,0.14765866,0.96573943,0.21341103,0
2.9790206,4.780364,-0.91296577,0.073716082,0.20442986,-0.97610158,0
1.4084556,0.18775284,2.0950744,-0.073716082,-0.20442986,0.97610158,0
-2.0337555,5.2356553,0.90296698,0.14765866,0.96573943,0.21341103,0
2.5526972,2.8396802,2.7550409,-0.073716082,-0.20442986,0.97610158,0
2.0609493,1.5672321,-1.5387388,0.073716082,0.20442986,-0.97610158,0
-3.3822858,-2.3650017,0.12990475,-0.98628736,0.15986168,-0.041004676,0
-2.382961,-4.5830145,-0.9855032,-0.14765866,-0.96573943,-0.21341103,0
1.7905471,-0.57500112,2.1144986,-0.073716082,-0.20442986,0.97610158,0
0.29899722,5.0919695,0.021494865,0.14765866,0.96573943,0.21341103,0
0.39178851,0.70611668,-1.9475268,0.073716082,0.20442986,-0.97610158,0
-0.24981666,-5.1852679,0.5991807,-0.14765866,-0.96573943,-0.21341103,0
-2.6381335,-4.7737565,-0.43503571,-0.14765866,-0.96573943,-0.21341103,0
-3.2493441,-2.1379998,-0.9441998,-0.98628736,0.15986168,-0.041004676,0
0.89108878,4.6932831,1.3540843,0.14765866,0.96573943,0.21341103,0
2.4958026,1.4259629,2.6192434,-0.073716082,-0.20442986,0.97610158,0
2.5871093,-2.9081445,0.75988448,0.98628736,-0.15986168,0.041004676,0
2.1353011,4.3619199,1.9691725,0.14765866,0.96573943,0.21341103,0
-1.5939682,-4.8394775,-0.43591022,-0.14765866,-0.96573943,-0.21341103,0
-2.3502567,4.8812218,1.759613,-0.98628736,0.15986168,-0.041004676,0
2.2581542,-4.6497703,0.13582659,0.98628736,-0.15986168,0.041004676,0
1.9513326,2.6291409,-1.3484771,0.073716082,0.20442986,-0.97610158,0
-2.4944289,3.614778,1.3606714,-0.98628736,0.15986168,-0.041004676,0
3.2447774,1.1005018,0.31315076,0.98628736,-0.15986168,0.041004676,0
-3.7050304,-3.8840013,-0.49840975,-0.98628736,0.15986168,-0.041004676,0
-2.4237676,4.0453348,-0.57288289,-0.98628736,0.15986168,-0.041004676,0
0.45247889,-5.4207191,0.7851882,-0.14765866,-0.96573943,-0.21341103,0
2.5534439,-3.6046765,0.12497163,0.98628736,-0.15986168,0.041004676,0
-2.0967019,-2.997683,1.1736219,-0.073716082,-0.20442986,0.97610158,0
-2.0481172,0.10196018,-2.1541681,0.073716082,0.20442986,-0.97610158,0
1.5318855,4.4089804,2.606323,0.14765866,0.96573943,0.21341103,0
-2.1654263,4.7282925,2.8741441,-0.073716082,-0.20442986,0.97610158,0
-2.7242546,2.1003332,0.84702563,-0.98628736,0.15986168,-0.041004676,0
-1.6640638,-4.6757116,-1.0345945,-0.14765866,-0.96573943,-0.21341103,0
0.98211777,-0.21530926,-2.0375459,0.073716082,0.20442986,-0.97610158,0
2.9258299,-0.96022457,0.51066458,0.98628736,-0.15986168,0.041004676,0
0.6594792,1.0421336,-1.8475428,0.073716082,0.20442986,-0.97610158,0
-2.6383858,2.567626,0.11450493,-0.98628736,0.15986168,-0.041004676,0
1.740571,-5.5133753,1.0113778,-0.073716082,-0.20442986,0.97610158,0
3.1502388,1.3601671,0.80203974,0.98628736,-0.15986168,0.041004676,0
0.37994844,1.7387085,2.4762554,-0.073716082,-0.20442986,0.97610158,0
-0.13186145,2.6240244,2.5775592,-0.073716082,-0.20442986,0.97610158,0
-3.0514944,-0.40482023,-1.0181254,-0.98628736,0.15986168,-0.041004676,0
1.8087105,-1.6291821,-2.3551161,0.073716082,0.20442986,-0.97610158,0
-0.078054428,-2.1059041,1.5653944,-0.073716082,-0.20442986,0.97610158,0
1.9520134,4.7496562,-0.85633707,0.073716082,0.20442986,-0.97610158,0
-2.5810485,-4.242229,-2.3054097,-0.14765866,-0.96573943,-0.21341103,0
-2.1292696,5.2402539,-0.3500123,-0.98628736,0.15986168,-0.041004676,0
-0.36437345,-5.1943445,0.77990675,-0.14765866,-0.96573943,-0.21341103,0
-0.080118239,-4.8042521,-1.4117107,-0.14765866,-0.96573943,-0.21341103,0
1.046778,-4.2468786,-2.7665029,0.073716082,0.20442986,-0.97610158,0
-2.6395273,1.7130603,-1.6106641,-0.98628736,0.15986168,-0.041004676,0
2.4430373,-3.1140878,0.66397238,0.98628736,-0.15986168,0.041004676,0
0.28288317,5.1075988,0.096168995,0.14765866,0.96573943,0.21341103,0
-2.2109759,4.2049708,-1.2072403,-0.98628736,0.15986168,-0.041004676,0
-3.205862,-0.92602193,-1.0695269,-0.98628736,0.15986168,-0.041004676,0
-3.2048655,-1.2829561,0.50146592,-0.98628736,0.15986168,-0.041004676,0
-2.4410281,-4.2654171,-2.7778146,-0.14765866,-0.96573943,-0.21341103,0
3.3187151,1.7728635,-0.22814584,0.98628736,-0.15986168,0.041004676,0
-0.64933783,-4.6297636,-2.4210229,-0.14765866,-0.96573943,-0.21341103,0
1.5490578,-0.70002413,-2.1740291,0.073716082,0.20442986,-0.97610158,0
0.11991811,3.9605336,-1.1518424,0.073716082,0.20442986,-0.97610158,0
2.8342407,0.066046834,2.2778816,-0.073716082,-0.20442986,0.97610158,0
2.9215291,-0.69256538,1.4644272,0.98628736,-0.15986168,0.041004676,0
-2.4068651,4.1588669,0.72631764,-0.98628736,0.15986168,-0.041004676,0
-2.6738346,1.7300766,0.12826014,-0.98628736,0.15986168,-0.041004676,0
-0.28932685,-1.8767397,-2.453486,0.073716082,0.20442986,-0.97610158,0
-3.6588583,-3.8263581,0.30719852,-0.98628736,0.15986168,-0.041004676,0
-1.3510582,-0.0063724518,-2.0527835,0.073716082,0.20442986,-0.97610158,0
-3.085289,-0.53147399,-0.78108191,-0.98628736,0.15986168,-0.041004676,0
-3.2786894,-1.6137521,-0.39063334,-0.98628736,0.15986168,-0.041004676,0
-2.3020456,-4.79527,-0.39053202,-0.14765866,-0.96573943,-0.21341103,0
-1.0795662,-3.5636373,-2.9744058,0.073716082,0.20442986,-0.97610158,0
-3.6928985,-4.0411601,-0.30646276,-0.98628736,0.15986168,-0.041004676,0
0.44973469,-0.51825845,-2.0483952,0.073716082,0.20442986,-0.97610158,0
-0.6237278,4.7308292,2.4170446,0.14765866,0.96573943,0.21341103,0
2.5469282,-3.1041398,-1.3348503,0.98628736,-0.15986168,0.041004676,0
2.3645644,0.22357297,2.3043184,-0.073716082,-0.20442986,0.97610158,0
-1.9684037,-2.0599885,1.4291086,-0.073716082,-0.20442986,0.97610158,0
2.9321623,0.077443302,1.1326265,0.98628736,-0.15986168,0.041004676,0
1.6441309,-4.2680016,1.1826327,-0.073716082,-0.20442986,0.97610158,0
-2.7870245,1.5034477,-1.5407374,-0.98628736,0.15986168,-0.041004676,0
-1.6861032,-0.77327287,-2.2730846,0.073716082,0.20442986,-0.97610158,0
3.4798105,2.3045826,-0.58905697,0.98628736,-0.15986168,0.041004676,0
2.0116415,-5.5849457,0.26843262,-0.14765866,-0.96573943,-0.21341103,0
2.94385,-0.86974382,-1.6332219,0.98628736,-0.15986168,0.041004676,0
-2.1113467,-4.6668377,-0.98820972,-0.14765866,-0.96573943,-0.21341103,0
0.91573858,-4.6920958,-2.411094,-0.14765866,-0.96573943,-0.21341103,0
-1.3712826,-4.3734798,-2.5041552,-0.14765866,-0.96573943,-0.21341103,0
1.1691871,2.5637512,-1.4410191,0.073716082,0.20442986,-0.97610158,0
-3.1399217,-4.5651879,-0.19490957,-0.14765866,-0.96573943,-0.21341103,0
-0.43959942,-5.1032023,-0.35885668,-0.14765866,-0.96573943,-0.21341103,0
2.6582739,-1.6339171,0.65062565,0.98628736,-0.15986168,0.041004676,0
-1.5465701,5.0780282,1.5702415,0.14765866,0.96573943,0.21341103,0
-0.7681675,4.6697307,2.6855204,0.14765866,0.96573943,0.21341103,0
-3.39784,-1.948048,-0.59826088,-0.98628736,0.15986168,-0.041004676,0
-1.8568692,5.4389124,-0.23697042,0.14765866,0.96573943,0.21341103,0
3.4181976,2.845871,-0.23738551,0.98628736,-0.15986168,0.041004676,0
3.0903974,4.4225006,1.0650005,0.14765866,0.96573943,0.21341103,0
-0.96401381,5.5396786,-0.97947264,0.14765866,0.96573943,0.21341103,0
0.010550976,-5.1331944,0.9071207,-0.073716082,-0.20442986,0.97610158,0
-3.4042177,-4.7568555,0.76144075,-0.073716082,-0.20442986,0.97610158,0
-2.8256514,1.9795622,1.8944101,-0.98628736,0.15986168,-0.041004676,0
-3.0293086,-4.9529934,0.69988918,-0.14765866,-0.96573943,-0.21341103,0
-1.7716293,-5.098073,0.57512712,-0.14765866,-0.96573943,-0.21341103,0
0.7444551,-5.079689,-0.76289845,-0.14765866,-0.96573943,-0.21341103,0
-0.31311071,-4.9003301,-0.60374165,-0.14765866,-0.96573943,-0.21341103,0
-3.2650499,-4.6865149,0.24336386,-0.14765866,-0.96573943,-0.21341103,0
-1.318221,1.2821079,-1.8826061,0.073716082,0.20442986,-0.97610158,0
-0.73911834,-5.0211205,-0.1878643,-0.14765866,-0.96573943,-0.21341103,0
-2.6840501,2.5723822,2.3521526,-0.98628736,0.15986168,-0.041004676,0
2.4881041,-3.7904155,-2.1766713,0.98628736,-0.15986168,0.041004676,0
-1.9488413,-4.2747517,-2.5884225,-0.14765866,-0.96573943,-0.21341103,0
2.8030446,-0.74633574,-1.9740367,0.073716082,0.20442986,-0.97610158,0
2.8691041,-1.2599903,-0.95833421,0.98628736,-0.15986168,0.041004676,0
-0.13897157,4.6070161,2.5814805,0.14765866,0.96573943,0.21341103,0
-2.8139231,0.0063385963,1.8566253,-0.073716082,-0.20442986,0.97610158,0
3.5773611,3.8909438,-0.10598469,0.98628736,-0.15986168,0.041004676,0
-2.0128317,-0.27031553,-2.2345836,0.073716082,0.20442986,-0.97610158,0
-0.094317913,-3.0660405,1.4957249,-0.073716082,-0.20442986,0.97610158,0
2.129082,-5.4586754,-0.075319767,-0.14765866,-0.96573943,-0.21341103,0
1.0335697,0.091363668,2.2433352,-0.073716082,-0.20442986,0.97610158,0
-2.6550932,-4.5122581,-1.6048453,-0.14765866,-0.96573943,-0.21341103,0
0.67883241,4.4977751,2.6100497,0.14765866,0.96573943,0.21341103,0
-2.2470078,4.694572,0.96215487,-0.98628736,0.15986168,-0.041004676,0
3.6113789,3.9349797,-0.45320702,0.98628736,-0.15986168,0.041004676,0
-2.1126189,-3.5529509,-2.8884602,0.073716082,0.20442986,-0.97610158,0
3.3795426,3.7586248,-1.0664797,0.073716082,0.20442986,-0.97610158,0
-0.5605042,5.3467455,-0.15836811,0.14765866,0.96573943,0.21341103,0
-0.35943568,-2.0417445,-2.468353,0.073716082,0.20442986,-0.97610158,0
2.4235835,-3.0311384,1.238544,0.98628736,-0.15986168,0.041004676,0
1.4127243,4.8058043,0.35399055,0.14765866,0.96573943,0.21341103,0
2.3478825,-3.9417627,0.7457459,0.98628736,-0.15986168,0.041004676,0
2.3690577,4.9354053,-0.30537605,0.14765866,0.96573943,0.21341103,0
2.5288491,-2.7750773,1.4633956,0.98628736,-0.15986168,0.041004676,0
-2.2895606,5.0292096,2.4282856,0.14765866,0.96573943,0.21341103,0
-0.30816597,-3.7128534,-2.9219849,0.073716082,0.20442986,-0.97610158,0
-1.3917315,5.3176794,0.76029634,0.14765866,0.96573943,0.21341103,0
-3.5127442,-2.7206988,0.4898119,-0.98628736,0.15986168,-0.041004676,0
-1.230877,-4.0107756,-3.0589185,0.073716082,0.20442986,-0.97610158,0
-2.0989423,-3.6584063,-2.9356923,0.073716082,0.20442986,-0.97610158,0
1.896641,-2.1441841,1.8224,-0.073716082,-0.20442986,0.97610158,0
-0.76814079,5.2323103,0.64433432,0.14765866,0.96573943,0.21341103,0
3.3541815,1.7032919,-0.29738998,0.98628736,-0.15986168,0.041004676,0
-2.5635509,2.6224098,-1.1863564,-0.98628736,0.15986168,-0.041004676,0
1.3314755,0.073575377,2.2024097,-0.073716082,-0.20442986,0.97610158,0
-2.0800633,-1.2146797,1.7321144,-0.073716082,-0.20442986,0.97610158,0
-3.7355947,-3.9895675,-0.04937315,-0.98628736,0.15986168,-0.041004676,0
-3.3363891,-2.6041865,-2.3088417,-0.98628736,0.15986168,-0.041004676,0
-1.7409387,5.6635947,-0.74050903,0.14765866,0.96573943,0.21341103,0
-3.682869,-4.3748927,0.86994171,-0.073716082,-0.20442986,0.97610158,0
2.5101733,-0.80112112,2.1549788,-0.073716082,-0.20442986,0.97610158,0
0.73229277,-4.858861,-2.266825,-0.14765866,-0.96573943,-0.21341103,0
-1.2724345,-2.2617729,1.578213,-0.073716082,-0.20442986,0.97610158,0
0.81993628,1.9268534,2.5141613,-0.073716082,-0.20442986,0.97610158,0
-0.031517506,-3.5801568,1.377223,-0.073716082,-0.20442986,0.97610158,0
3.3771555,2.4919329,1.4205487,0.98628736,-0.15986168,0.041004676,0
0.87073588,-5.6232018,0.94964218,-0.14765866,-0.96573943,-0.21341103,0
2.7715628,0.5445869,2.3785615,-0.073716082,-0.20442986,0.97610158,0
-3.3583431,-3.9870529,-3.0415411,-0.14765866,-0.96573943,-0.21341103,0
3.508462,3.5280807,2.0191979,0.98628736,-0.15986168,0.041004676,0
2.0548131,-1.1735409,1.9941339,-0.073716082,-0.20442986,0.97610158,0
2.7505498,-1.0871546,0.83885074,0.98628736,-0.15986168,0.041004676,0
2.0641937,4.911067,-0.023988724,0.14765866,0.96573943,0.21341103,0
-2.6128459,2.2687678,0.0446558,-0.98628736,0.15986168,-0.041004676,0
1.4990139,-5.6754994,0.77682114,-0.14765866,-0.96573943,-0.21341103,0
2.2119384,-3.2271652,-2.613595,0.073716082,0.20442986,-0.97610158,0
2.0600438,-0.53977668,1.9938834,-0.073716082,-0.20442986,0.97610158,0
3.0768025,1.3747405,2.2415202,0.98628736,-0.15986168,0.041004676,0
2.3880503,-4.2302599,-0.11931443,0.98628736,-0.15986168,0.041004676,0
3.517554,3.1651564,0.97893047,0.98628736,-0.15986168,0.041004676,0
-0.77196771,1.023728,2.217572,-0.073716082,-0.20442986,0.97610158,0
-2.2175882,-5.100111,0.72332954,-0.14765866,-0.96573943,-0.21341103,0
2.8428135,4.2185545,-1.0267878,0.073716082,0.20442986,-0.97610158,0
-2.4639835,-3.8487113,-3.1078444,0.073716082,0.20442986,-0.97610158,0
2.6720257,-1.9420013,0.61307299,0.98628736,-0.15986168,0.041004676,0
2.3463788,-3.8002491,0.21919084,0.98628736,-0.15986168,0.041004676,0
-1.5726285,5.2815127,0.94186234,0.14765866,0.96573943,0.21341103,0
2.236481,-5.1800318,-1.4281662,0.98628736,-0.15986168,0.041004676,0
1.3706586,4.5545101,-1.0116782,0.073716082,0.20442986,-0.97610158,0
1.1498349,-5.5309453,0.36627579,-0.14765866,-0.96573943,-0.21341103,0
2.8667185,1.4153863,2.6398339,-0.073716082,-0.20442986,0.97610158,0
-3.6162109,-4.2266803,-0.86884165,-0.98628736,0.15986168,-0.041004676,0
-2.9725418,-1.0269691,-2.4710927,0.073716082,0.20442986,-0.97610158,0
-0.99339163,-2.5275152,1.4720414,-0.073716082,-0.20442986,0.97610158,0
0.43065265,2.8942587,2.736207,-0.073716082,-0.20442986,0.97610158,0
3.1810408,1.3785217,0.53773165,0.98628736,-0.15986168,0.041004676,0
1.612886,-4.9135799,-2.3837917,-0.14765866,-0.96573943,-0.21341103,0
2.5263276,4.7456141,0.64444065,0.14765866,0.96573943,0.21341103,0
-2.7742126,1.2112637,-0.65183425,-0.98628736,0.15986168,-0.041004676,0
-1.4671474,-4.9053936,-0.26975012,-0.14765866,-0.96573943,-0.21341103,0
-0.56321716,4.0644531,2.8572235,-0.073716082,-0.20442986,0.97610158,0
0.21180755,-0.4755218,1.9382814,-0.073716082,-0.20442986,0.97610158,0
2.1419506,4.1481347,2.854552,0.14765866,0.96573943,0.21341103,0
1.3438346,4.8083014,1.1158085,0.14765866,0.96573943,0.21341103,0
-2.9306662,0.30957246,0.4293271,-0.98628736,0.15986168,-0.041004676,0
-1.981724,3.1207125,2.457293,-0.073716082,-0.20442986,0.97610158,0
-2.2546439,-4.8816938,-0.13348532,-0.14765866,-0.96573943,-0.21341103,0
-1.4681361,5.3593631,0.4266181,0.14765866,0.96573943,0.21341103,0
1.1035085,-4.758801,-2.3281975,-0.14765866,-0.96573943,-0.21341103,0
-1.9126453,-0.079035997,1.9747007,-0.073716082,-0.20442986,0.97610158,0
3.5394382,2.7671931,0.85248685,0.98628736,-0.15986168,0.041004676,0
-1.4147098,5.0382853,1.3451245,0.14765866,0.96573943,0.21341103,0
0.33415979,-3.3946924,-2.747952,0.073716082,0.20442986,-0.97610158,0
3.4587479,3.0201931,1.5206184,0.98628736,-0.15986168,0.041004676,0
-2.1401355,5.5665851,-0.73102188,0.14765866,0.96573943,0.21341103,0
1.498764,4.7056999,1.0746777,0.14765866,0.96573943,0.21341103,0
-2.1139882,-0.72293687,-2.4586792,0.073716082,0.20442986,-0.97610158,0
0.30045652,-5.4389176,0.88328552,-0.14765866,-0.96573943,-0.21341103,0
0.3366524,-4.8639536,1.1312613,-0.073716082,-0.20442986,0.97610158,0
1.449513,-0.49334049,-2.1123171,0.073716082,0.20442986,-0.97610158,0
-2.2671516,4.7808061,-1.1866348,0.073716082,0.20442986,-0.97610158,0
2.6337638,4.7253094,-0.029367924,0.14765866,0.96573943,0.21341103,0
2.9940207,-0.32437396,0.81295049,0.98628736,-0.15986168,0.041004676,0
1.8032994,4.4435081,2.2226923,0.14765866,0.96573943,0.21341103,0
3.5134306,3.4573615,1.4733047,0.98628736,-0.15986168,0.041004676,0
2.4364431,-4.4793968,-0.85924315,0.98628736,-0.15986168,0.041004676,0
-1.0762904,4.7387214,-1.1271796,0.073716082,0.20442986,-0.97610158,0
-2.4427474,4.1557198,2.2435212,-0.98628736,0.15986168,-0.041004676,0
-3.1837788,-4.2872443,-1.6430256,-0.14765866,-0.96573943,-0.21341103,0
2.6444595,-2.4260397,1.3097587,0.98628736,-0.15986168,0.041004676,0
-0.51298547,4.0635538,-1.1784744,0.073716082,0.20442986,-0.97610158,0
-3.4220588,-3.3987446,-2.0463426,-0.98628736,0.15986168,-0.041004676,0
-1.1967466,0.90167141,-2.022002,0.073716082,0.20442986,-0.97610158,0
3.2622607,1.2304285,-1.3958039,0.98628736,-0.15986168,0.041004676,0
3.6364512,4.6602683,0.057244301,0.14765866,0.96573943,0.21341103,0
-3.1529217,-0.086568475,0.08891052,-0.98628736,0.15986168,-0.041004676,0
1.195605,-5.1284809,-1.2159851,-0.14765866,-0.96573943,-0.21341103,0
2.2870138,-4.8244104,-0.42981172,0.98628736,-0.15986168,0.041004676,0
1.8282564,-2.3432074,-2.335186,0.073716082,0.20442986,-0.97610158,0
-2.1879551,5.0367088,-0.25189877,-0.98628736,0.15986168,-0.041004676,0
-2.3330076,4.1440377,-1.224159,-0.98628736,0.15986168,-0.041004676,0
1.2845597,-4.3681192,-2.8657413,0.073716082,0.20442986,-0.97610158,0
-0.50712222,-5.1730371,0.52908421,-0.14765866,-0.96573943,-0.21341103,0
3.2901809,3.4157622,-1.0051048,0.073716082,0.20442986,-0.97610158,0
3.2764437,4.151299,2.648957,0.14765866,0.96573943,0.21341103,0
3.498354,2.4540896,0.77989316,0.98628736,-0.15986168,0.041004676,0
3.4525664,3.7602506,2.592047,0.98628736,-0.15986168,0.041004676,0
-0.69210422,4.7689347,2.6110153,0.14765866,0.96573943,0.21341103,0
1.9016452,3.01056,2.7913904,-0.073716082,-0.20442986,0.97610158,0
-0.097340584,-5.2460465,0.10242605,-0.14765866,-0.96573943,-0.21341103,0
-0.42837888,1.9377089,2.4518647,-0.073716082,-0.20442986,0.97610158,0
-1.1118942,-4.8779798,-0.24423122,-0.14765866,-0.96573943,-0.21341103,0
2.9484243,0.37057793,1.3942126,0.98628736,-0.15986168,0.041004676,0
-0.52002549,5.2898502,-0.085755348,0.14765866,0.96573943,0.21341103,0
-1.0648609,4.7159033,2.6638534,0.14765866,0.96573943,0.21341103,0
3.2736499,4.0709543,-0.86073399,0.073716082,0.20442986,-0.97610158,0
-0.70705295,-3.202642,-2.849355,0.073716082,0.20442986,-0.97610158,0
1.5800922,-2.062115,1.6660428,-0.073716082,-0.20442986,0.97610158,0
-1.6794434,5.2953873,-1.0511541,0.073716082,0.20442986,-0.97610158,0
2.2643993,-4.0282969,1.257391,0.98628736,-0.15986168,0.041004676,0
-3.2073054,-1.5260465,-0.041673183,-0.98628736,0.15986168,-0.041004676,0
-0.67671132,4.8974872,2.1224017,0.14765866,0.96573943,0.21341103,0
-3.7281628,-3.7513068,0.57109594,-0.98628736,0.15986168,-0.041004676,0
1.5501277,-2.8738632,-2.5324652,0.073716082,0.20442986,-0.97610158,0
-2.557487,3.0479822,0.031143665,-0.98628736,0.15986168,-0.041004676,0
0.61024272,0.88459063,-1.8063021,0.073716082,0.20442986,-0.97610158,0
0.87096453,-5.1710854,0.93214703,-0.073716082,-0.20442986,0.97610158,0
0.18187439,-2.0062194,1.578688,-0.073716082,-0.20442986,0.97610158,0
1.9934578,0.73522687,-1.8094107,0.073716082,0.20442986,-0.97610158,0
0.55675513,4.9369841,0.94034052,0.14765866,0.96573943,0.21341103,0
-3.5135782,-2.6382856,0.7180078,-0.98628736,0.15986168,-0.041004676,0
-2.2329869,5.489378,-0.11525917,-0.98628736,0.15986168,-0.041004676,0
0.11920655,-4.8738241,-1.3569391,-0.14765866,-0.96573943,-0.21341103,0
3.2993834,2.3274863,2.0904622,0.98628736,-0.15986168,0.041004676,0
-1.2708874,0.17527294,2.0459797,-0.073716082,-0.20442986,0.97610158,0
-1.8039964,-0.32280397,1.8158412,-0.073716082,-0.20442986,0.97610158,0
0.65980434,-5.0735617,-0.46723747,-0.14765866,-0.96573943,-0.21341103,0
2.7680135,-1.9373351,-0.19847751,0.98628736,-0.15986168,0.041004676,0
3.163322,0.99438477,-0.2971611,0.98628736,-0.15986168,0.041004676,0
-2.6170216,2.6722894,1.2448418,-0.98628736,0.15986168,-0.041004676,0
-2.760571,-1.8507962,1.3669827,-0.073716082,-0.20442986,0.97610158,0
3.4363942,3.9344807,2.8507626,0.14765866,0.96573943,0.21341103,0
-2.2582536,0.91217589,2.0108562,-0.073716082,-0.20442986,0.97610158,0
-3.4309487,-3.2962658,-2.2501762,-0.98628736,0.15986168,-0.041004676,0
-2.5574188,2.6901116,1.1385987,-0.98628736,0.15986168,-0.041004676,0
-1.514447,5.17909,1.1732771,0.14765866,0.96573943,0.21341103,0
1.7559044,-5.3541327,-0.310431,-0.14765866,-0.96573943,-0.21341103,0
-3.480083,-4.3427019,-1.1839929,-0.14765866,-0.96573943,-0.21341103,0
1.3186669,4.4734335,2.5328712,0.14765866,0.96573943,0.21341103,0
-2.3574612,0.2018559,-2.0973315,0.073716082,0.20442986,-0.97610158,0
-0.4201656,-4.6604795,-2.0239861,-0.14765866,-0.96573943,-0.21341103,0
-1.3276756,5.0140262,1.3110082,0.14765866,0.96573943,0.21341103,0
-2.2660155,-4.1835337,-2.5769057,-0.14765866,-0.96573943,-0.21341103,0
-0.87888002,5.3715057,0.067277431,0.14765866,0.96573943,0.21341103,0
-2.4678581,-4.7382679,-0.10636139,-0.14765866,-0.96573943,-0.21341103,0
2.2181468,-4.994338,-2.3716714,-0.14765866,-0.96573943,-0.21341103,0
-1.6803968,-4.5342798,-1.6378813,-0.14765866,-0.96573943,-0.21341103,0
-1.4060822,5.2292857,0.52946854,0.14765866,0.96573943,0.21341103,0
1.6321753,5.14149,-0.67979765,0.14765866,0.96573943,0.21341103,0
3.1353323,0.76554346,-1.3927902,0.98628736,-0.15986168,0.041004676,0
-3.6059263,-3.0099607,0.46678567,-0.98628736,0.15986168,-0.041004676,0
3.5710626,3.1624849,-0.94805193,0.98628736,-0.15986168,0.041004676,0
3.3264797,1.5948441,-1.254245,0.98628736,-0.15986168,0.041004676,0
1.7041702,4.8488321,0.46240234,0.14765866,0.96573943,0.21341103,0
-2.6960344,-4.6330137,-0.13430119,-0.14765866,-0.96573943,-0.21341103,0
1.2870661,3.4121997,-1.3062711,0.073716082,0.20442986,-0.97610158,0
-0.38312557,-4.869709,-1.1528053,-0.14765866,-0.96573943,-0.21341103,0
0.65376031,-5.044445,-0.77774,-0.14765866,-0.96573943,-0.21341103,0
-2.5026836,-3.6913645,1.1404819,-0.073716082,-0.20442986,0.97610158,0
-2.8974681,1.383199,0.24087849,-0.98628736,0.15986168,-0.041004676,0
3.3303123,2.0327713,0.19910789,0.98628736,-0.15986168,0.041004676,0
-3.2296264,-1.5395238,1.5201514,-0.073716082,-0.20442986,0.97610158,0
2.2401934,1.660301,-1.5632243,0.073716082,0.20442986,-0.97610158,0
-0.1399717,-1.8041081,1.7424998,-0.073716082,-0.20442986,0.97610158,0
2.0600247,-5.4228106,-0.28386974,-0.14765866,-0.96573943,-0.21341103,0
-0.24648499,4.7048631,-1.1130419,0.073716082,0.20442986,-0.97610158,0
-0.75917363,-5.1056657,0.84614658,-0.073716082,-0.20442986,0.97610158,0
3.6097646,3.2788136,-0.031852484,0.98628736,-0.15986168,0.041004676,0
-2.5917971,2.3860118,-0.32603526,-0.98628736,0.15986168,-0.041004676,0
1.6549029,0.16839314,2.1419976,-0.073716082,-0.20442986,0.97610158,0
1.0206046,5.1016169,-0.38660145,0.14765866,0.96573943,0.21341103,0
-2.2842913,4.9236741,0.72446156,-0.98628736,0.15986168,-0.041004676,0
2.8025904,-2.0967498,-0.56787187,0.98628736,-0.15986168,0.041004676,0
-1.365599,-4.7939668,-0.848629,-0.14765866,-0.96573943,-0.21341103,0
0.71083784,-5.1348076,-0.36320972,-0.14765866,-0.96573943,-0.21341103,0
-2.6362042,-1.7827761,1.450722,-0.073716082,-0.20442986,0.97610158,0
2.5560904,-3.0501494,1.2528334,0.98628736,-0.15986168,0.041004676,0
-3.1750317,-0.51292765,0.59300566,-0.98628736,0.15986168,-0.041004676,0
2.6125553,4.3306947,2.1611371,0.14765866,0.96573943,0.21341103,0
3.4651558,3.144505,2.0905612,0.98628736,-0.15986168,0.041004676,0
-1.6489143,-4.4343462,0.97535944,-0.073716082,-0.20442986,0.97610158,0
-0.065945387,5.1308761,0.56306648,0.14765866,0.96573943,0.21341103,0
2.9766221,4.3947654,1.3628871,0.14765866,0.96573943,0.21341103,0
-2.8430936,0.87684655,0.47086054,-0.98628736,0.15986168,-0.041004676,0
-1.642369,1.3023781,-1.9394436,0.073716082,0.20442986,-0.97610158,0
-1.5382732,-3.0507228,1.253068,-0.073716082,-0.20442986,0.97610158,0
2.4348292,-3.2639718,0.64621854,0.98628736,-0.15986168,0.041004676,0
0.56790769,-4.695488,-2.1415253,-0.14765866,-0.96573943,-0.21341103,0
-2.0959096,0.48128164,2.0904994,-0.073716082,-0.20442986,0.97610158,0
-0.69053912,5.2194438,0.44319677,0.14765866,0.96573943,0.21341103,0
-3.095382,-1.1388251,-1.2992558,-0.98628736,0.15986168,-0.041004676,0
-0.19812047,5.1619091,0.60779285,0.14765866,0.96573943,0.21341103,0
-3.4433203,-4.0967636,-2.2800772,-0.14765866,-0.96573943,-0.21341103,0
-1.3676212,-4.8032961,-0.66739655,-0.14765866,-0.96573943,-0.21341103,0
1.2229259,4.9313312,0.52082729,0.14765866,0.96573943,0.21341103,0
-1.8829319,-4.3211246,1.063767,-0.073716082,-0.20442986,0.97610158,0
0.64926457,5.1504345,-0.9206872,0.073716082,0.20442986,-0.97610158,0
-0.7178061,-1.6051886,1.721807,-0.073716082,-0.20442986,0.97610158,0
2.5197456,-4.2892699,-2.5889163,0.98628736,-0.15986168,0.041004676,0
1.5949051,-4.4204292,1.305923,-0.073716082,-0.20442986,0.97610158,0
1.2165952,-5.242672,-0.66867304,-0.14765866,-0.96573943,-0.21341103,0
-2.2082477,4.6514654,-0.84051704,-0.98628736,0.15986168,-0.041004676,0
1.8141872,4.715127,-0.98965502,0.073716082,0.20442986,-0.97610158,0
-2.3632488,-4.8169336,0.090850353,-0.14765866,-0.96573943,-0.21341103,0
-0.66301775,2.6804578,-1.4773965,0.073716082,0.20442986,-0.97610158,0
-0.6440872,2.2210333,-1.6086948,0.073716082,0.20442986,-0.97610158,0
-3.0878735,-4.5272617,-0.97445202,-0.14765866,-0.96573943,-0.21341103,0
-2.0056129,1.6177669,2.3184409,-0.073716082,-0.20442986,0.97610158,0
3.2301626,0.60259062,0.1244396,0.98628736,-0.15986168,0.041004676,0
0.84989262,-3.2919557,1.4563332,-0.073716082,-0.20442986,0.97610158,0
3.1012619,0.98905563,2.2831454,0.98628736,-0.15986168,0.041004676,0
-3.5730188,-4.125761,-2.3776612,-0.14765866,-0.96573943,-0.21341103,0
-3.3644269,-1.9759568,-0.25661325,-0.98628736,0.15986168,-0.041004676,0
3.2210014,0.40717447,-0.3996321,0.98628736,-0.15986168,0.041004676,0
3.2624102,2.4195404,2.6642637,0.98628736,-0.15986168,0.041004676,0
2.942111,-0.91492629,-1.2806606,0.98628736,-0.15986168,0.041004676,0
-3.3719878,-2.5996041,0.01168704,-0.98628736,0.15986168,-0.041004676,0
2.31814,3.3241577,2.9703908,-0.073716082,-0.20442986,0.97610158,0
-3.0587151,-0.63357842,-1.8205712,-0.98628736,0.15986168,-0.041004676,0
-1.4009134,1.6984084,2.3085272,-0.073716082,-0.20442986,0.97610158,0
2.4483883,-3.5487144,-0.98617244,0.98628736,-0.15986168,0.041004676,0
-2.8553164,1.0406921,1.0031484,-0.98628736,0.15986168,-0.041004676,0
2.4848313,4.9827886,-0.5743022,0.14765866,0.96573943,0.21341103,0
-1.1393094,4.931848,-1.1498981,0.073716082,0.20442986,-0.97610158,0
1.7194841,2.986444,2.7322066,-0.073716082,-0.20442986,0.97610158,0
0.28867525,2.5019929,2.5533595,-0.073716082,-0.20442986,0.97610158,0
1.866268,4.6518502,0.80915403,0.14765866,0.96573943,0.21341103,0
3.538532,4.4090939,0.91225243,0.14765866,0.96573943,0.21341103,0
-3.1789486,-4.185348,-2.3282168,-0.14765866,-0.96573943,-0.21341103,0
0.60385275,-5.1804881,-0.033381462,-0.14765866,-0.96573943,-0.21341103,0
-1.3072346,-1.1362901,1.6166434,-0.073716082,-0.20442986,0.97610158,0
0.77739072,-4.6113081,-3.0456638,0.073716082,0.20442986,-0.97610158,0
-1.3677697,0.21383035,1.9732323,-0.073716082,-0.20442986,0.97610158,0
-1.6318638,4.9751253,-1.1685066,0.073716082,0.20442986,-0.97610158,0
-1.2648206,4.9614949,-1.150754,0.073716082,0.20442986,-0.97610158,0
1.6339839,-4.9349957,-2.5929995,-0.14765866,-0.96573943,-0.21341103,0
2.1660855,-2.0834074,1.8465432,-0.073716082,-0.20442986,0.97610158,0
2.4238737,-4.0462036,0.51581836,0.98628736,-0.15986168,0.041004676,0
-2.5927343,0.53268993,-2.0454128,0.073716082,0.20442986,-0.97610158,0
-2.7491918,2.0059075,-0.40168703,-0.98628736,0.15986168,-0.041004676,0
2.3156521,-4.983357,-0.63417578,0.98628736,-0.15986168,0.041004676,0
0.84422088,-5.3618717,0.45641327,-0.14765866,-0.96573943,-0.21341103,0
2.6146162,-0.57884026,2.0748444,-0.073716082,-0.20442986,0.97610158,0
0.95814896,4.6507068,1.8277051,0.14765866,0.96573943,0.21341103,0
1.391151,4.808959,-1.0102305,0.073716082,0.20442986,-0.97610158,0
0.57155383,-4.7398844,-2.7450783,-0.14765866,-0.96573943,-0.21341103,0
-2.7608314,-4.3054528,-1.8605063,-0.14765866,-0.96573943,-0.21341103,0
-1.0305314,2.1688108,2.3239989,-0.073716082,-0.20442986,0.97610158,0
-1.3667347,5.1368647,0.69847727,0.14765866,0.96573943,0.21341103,0
0.37144232,-4.9206748,-1.3435562,-0.14765866,-0.96573943,-0.21341103,0
3.5153794,2.9058819,1.7566035,0.98628736,-0.15986168,0.041004676,0
-2.8614464,-2.3896289,1.282315,-0.073716082,-0.20442986,0.97610158,0
2.9414217,-0.13694376,-0.39678803,0.98628736,-0.15986168,0.041004676,0
-3.0092447,-0.26283482,-1.3306382,-0.98628736,0.15986168,-0.041004676,0
3.4035344,3.3585267,2.5271902,0.98628736,-0.15986168,0.041004676,0
0.49361089,4.6129642,1.8486373,0.14765866,0.96573943,0.21341103,0
-3.0063906,-3.9927993,-3.124733,0.073716082,0.20442986,-0.97610158,0
3.0894845,0.31963044,1.0310724,0.98628736,-0.15986168,0.041004676,0
-0.23690492,2.3584182,2.6264966,-0.073716082,-0.20442986,0.97610158,0
3.5694425,3.7772532,0.77207923,0.98628736,-0.15986168,0.041004676,0
-1.0432826,4.7736788,2.6430702,0.14765866,0.96573943,0.21341103,0
-3.0714784,0.21421158,1.2838562,-0.98628736,0.15986168,-0.041004676,0
3.0853064,0.37556913,0.82400262,0.98628736,-0.15986168,0.041004676,0
-0.87171626,4.8441143,2.4209158,0.14765866,0.96573943,0.21341103,0
-3.4381628,-1.9934689,0.65875244,-0.98628736,0.15986168,-0.041004676,0
0.4610796,-4.9256234,-1.4680946,-0.14765866,-0.96573943,-0.21341103,0
0.84422624,-2.3106968,1.7013133,-0.073716082,-0.20442986,0.97610158,0
-2.6635807,2.8481379,1.0176328,-0.98628736,0.15986168,-0.041004676,0
-3.0109437,0.012554526,-2.0605507,-0.98628736,0.15986168,-0.041004676,0
-3.4563622,-2.2078171,-0.48815036,-0.98628736,0.15986168,-0.041004676,0
-3.5589471,-3.075604,-1.2182443,-0.98628736,0.15986168,-0.041004676,0
2.7576876,4.7008986,-0.19920492,0.14765866,0.96573943,0.21341103,0
3.2672701,1.5317059,0.21386909,0.98628736,-0.15986168,0.041004676,0
3.0923102,4.1724505,2.5006397,0.14765866,0.96573943,0.21341103,0
-0.4314746,-3.664278,1.2188203,-0.073716082,-0.20442986,0.97610158,0
3.4910407,2.9500663,2.2377024,0.98628736,-0.15986168,0.041004676,0
-2.9664049,0.62249935,1.9739609,-0.98628736,0.15986168,-0.041004676,0
0.86021715,4.978282,0.25999928,0.14765866,0.96573943,0.21341103,0
-2.8646038,0.93256688,-0.8429302,-0.98628736,0.15986168,-0.041004676,0
-2.0913203,4.3513927,-1.3484607,0.073716082,0.20442986,-0.97610158,0
-3.6037059,-3.7429752,-1.8436985,-0.98628736,0.15986168,-0.041004676,0
0.38936901,4.6709604,1.8948102,0.14765866,0.96573943,0.21341103,0
3.4940202,3.2756529,-1.0070019,0.073716082,0.20442986,-0.97610158,0
-0.24266684,5.2128019,-0.37873602,0.14765866,0.96573943,0.21341103,0
1.7747828,4.9929042,-0.57603455,0.14765866,0.96573943,0.21341103,0
0.69162565,1.3789554,-1.7899384,0.073716082,0.20442986,-0.97610158,0
2.4494855,1.4849272,-1.5055028,0.073716082,0.20442986,-0.97610158,0
0.92516494,-5.0799904,-1.198472,-0.14765866,-0.96573943,-0.21341103,0
0.83825469,-4.7176886,-2.8816154,-0.14765866,-0.96573943,-0.21341103,0
3.3129809,0.94065928,-0.906865,0.98628736,-0.15986168,0.041004676,0
0.77048874,2.7146788,-1.3676887,0.073716082,0.20442986,-0.97610158,0
-0.77992368,5.3299842,-0.99712753,0.073716082,0.20442986,-0.97610158,0
0.50564969,4.5586586,-1.0663524,0.073716082,0.20442986,-0.97610158,0
-3.3021755,-2.689878,-1.9454362,-0.98628736,0.15986168,-0.041004676,0
1.1857344,-2.0287309,1.6778862,-0.073716082,-0.20442986,0.97610158,0
-1.9727938,-3.7013874,-2.9222376,0.073716082,0.20442986,-0.97610158,0
-1.5502427,5.0363889,1.2907083,0.14765866,0.96573943,0.21341103,0
3.0079796,0.067377269,1.5817184,0.98628736,-0.15986168,0.041004676,0
0.25432944,-1.7637601,-2.4069364,0.073716082,0.20442986,-0.97610158,0
3.0582206,1.1235917,1.56484,0.98628736,-0.15986168,0.041004676,0
-1.7168722,4.992938,2.0236478,0.14765866,0.96573943,0.21341103,0
0.0069373846,4.9655032,0.49987936,0.14765866,0.96573943,0.21341103,0
-1.9974992,3.2766805,2.5411708,-0.073716082,-0.20442986,0.97610158,0
-0.51909423,1.7468551,2.287113,-0.073716082,-0.20442986,0.97610158,0
-2.3037064,4.5361547,1.6701002,-0.98628736,0.15986168,-0.041004676,0
1.9823859,4.5706534,1.2500675,0.14765866,0.96573943,0.21341103,0
2.236238,-5.0368204,-1.6886499,0.98628736,-0.15986168,0.041004676,0
1.5171851,4.9008818,0.30319977,0.14765866,0.96573943,0.21341103,0
-3.4933302,-2.5557179,0.13300014,-0.98628736,0.15986168,-0.041004676,0
1.1961529,-5.515305,0.87847567,-0.14765866,-0.96573943,-0.21341103,0
-0.65507555,-5.1673074,0.73565769,-0.14765866,-0.96573943,-0.21341103,0
-0.83960271,5.3685656,-0.30214071,0.14765866,0.96573943,0.21341103,0
1.1353862,2.9903841,2.6675014,-0.073716082,-0.20442986,0.97610158,0
-2.9483871,0.95559168,2.0554314,-0.073716082,-0.20442986,0.97610158,0
0.27100149,-0.22904587,-2.1277838,0.073716082,0.20442986,-0.97610158,0
-1.5171217,-3.4583263,1.2195923,-0.073716082,-0.20442986,0.97610158,0
-2.3308475,-1.6450405,1.4477259,-0.073716082,-0.20442986,0.97610158,0
-3.2773383,-1.7451798,0.76278257,-0.98628736,0.15986168,-0.041004676,0
-0.33646008,-1.9549694,1.5809951,-0.073716082,-0.20442986,0.97610158,0
-2.9813671,0.044720128,-0.34753528,-0.98628736,0.15986168,-0.041004676,0
1.6066476,4.9195495,0.41592169,0.14765866,0.96573943,0.21341103,0
-2.168705,-4.7138243,-0.3052721,-0.14765866,-0.96573943,-0.21341103,0
-2.3850718,-4.6949778,-0.55211115,-0.14765866,-0.96573943,-0.21341103,0
-2.4730859,4.6770821,2.3366413,-0.98628736,0.15986168,-0.041004676,0
1.2041018,2.0204594,2.5941446,-0.073716082,-0.20442986,0.97610158,0
3.2537918,1.5539005,1.3795967,0.98628736,-0.15986168,0.041004676,0
3.1643538,0.3388983,0.792472,0.98628736,-0.15986168,0.041004676,0
-0.12677431,4.4943428,-1.0295572,0.073716082,0.20442986,-0.97610158,0
-2.8094153,2.0357537,0.43207693,-0.98628736,0.15986168,-0.041004676,0
0.3907893,0.07406342,-1.9401265,0.073716082,0.20442986,-0.97610158,0
3.4010224,2.2195315,2.2628739,0.98628736,-0.15986168,0.041004676,0
-1.0197601,-2.2328446,1.5250869,-0.073716082,-0.20442986,0.97610158,0
0.50745922,0.61876094,2.2909036,-0.073716082,-0.20442986,0.97610158,0
-2.2350371,-3.1892338,-2.8491216,0.073716082,0.20442986,-0.97610158,0
-3.7670281,-4.2215519,0.45547724,-0.98628736,0.15986168,-0.041004676,0
-2.5301712,2.9632962,-0.99017358,-0.98628736,0.15986168,-0.041004676,0
-2.6573021,2.0472159,-1.386646,-0.98628736,0.15986168,-0.041004676,0
-2.5786893,2.152658,-0.82319546,-0.98628736,0.15986168,-0.041004676,0
3.2850356,4.7032695,0.31976891,0.14765866,0.96573943,0.21341103,0
0.96235037,-5.384933,0.46684551,-0.14765866,-0.96573943,-0.21341103,0
0.24454728,4.5189848,2.4176488,0.14765866,0.96573943,0.21341103,0
0.34022999,-4.6879849,-2.1862295,-0.14765866,-0.96573943,-0.21341103,0
1.8031237,5.1373806,-0.82441998,0.14765866,0.96573943,0.21341103,0
3.0416741,4.2314367,2.5527723,0.14765866,0.96573943,0.21341103,0
2.731586,4.9284081,-0.38023758,0.14765866,0.96573943,0.21341103,0
-3.1730597,-0.19897807,1.1099374,-0.98628736,0.15986168,-0.041004676,0
-1.0473566,4.4366231,-1.2066946,0.073716082,0.20442986,-0.97610158,0
2.3208168,-4.3923116,-1.3029313,0.98628736,-0.15986168,0.041004676,0
-3.2874436,-4.5250797,-0.69696856,-0.14765866,-0.96573943,-0.21341103,0
-2.7229135,2.0232906,0.67965907,-0.98628736,0.15986168,-0.041004676,0
-1.4861035,-3.3687816,-2.8818355,0.073716082,0.20442986,-0.97610158,0
2.0998764,4.3774323,1.8494768,0.14765866,0.96573943,0.21341103,0
1.7182252,-5.2723598,-0.86627078,-0.14765866,-0.96573943,-0.21341103,0
0.97002697,4.9535031,0.42445755,0.14765866,0.96573943,0.21341103,0
1.5742662,-2.8345377,-2.5045166,0.073716082,0.20442986,-0.97610158,0
-2.1284153,1.9753675,-1.7592427,0.073716082,0.20442986,-0.97610158,0
2.3026383,-5.1346278,-1.6755865,-0.14765866,-0.96573943,-0.21341103,0
2.4364414,2.2279556,-1.4640276,0.073716082,0.20442986,-0.97610158,0
-3.6273086,-3.4238193,0.069243431,-0.98628736,0.15986168,-0.041004676,0
-1.2047663,-4.4400568,-2.2478814,-0.14765866,-0.96573943,-0.21341103,0
-0.055323429,1.3466024,2.2720699,-0.073716082,-0.20442986,0.97610158,0
2.6978097,-2.0170884,0.94240808,0.98628736,-0.15986168,0.041004676,0
-0.88291669,-4.9199891,-0.17144251,-0.14765866,-0.96573943,-0.21341103,0
-2.8123791,1.6803095,1.2236836,-0.98628736,0.15986168,-0.041004676,0
-1.4483728,-4.4860187,-2.4881647,-0.14765866,-0.96573943,-0.21341103,0
0.65577245,1.1241751,2.3191991,-0.073716082,-0.20442986,0.97610158,0
0.1274963,1.5363133,2.4589074,-0.073716082,-0.20442986,0.97610158,0
-2.7112257,-2.1258943,1.423279,-0.073716082,-0.20442986,0.97610158,0
-2.9691586,0.085783482,1.8291152,-0.073716082,-0.20442986,0.97610158,0
-3.0087552,-4.4748125,-1.0264463,-0.14765866,-0.96573943,-0.21341103,0
-3.290658,-4.8377743,0.66892481,-0.14765866,-0.96573943,-0.21341103,0
1.054616,4.4602075,-1.0863533,0.073716082,0.20442986,-0.97610158,0
-0.16809654,4.7609811,1.823904,0.14765866,0.96573943,0.21341103,0
-2.1050861,-4.3736129,-1.9768488,-0.14765866,-0.96573943,-0.21341103,0
3.0632927,0.32987612,0.85688245,0.98628736,-0.15986168,0.041004676,0
-1.2806919,-4.9136391,0.97845268,-0.073716082,-0.20442986,0.97610158,0
-2.7463293,-4.4463863,-1.1904728,-0.14765866,-0.96573943,-0.21341103,0
1.2096982,-5.1254053,-1.4436479,-0.14765866,-0.96573943,-0.21341103,0
0.39960682,4.5237985,2.47755,0.14765866,0.96573943,0.21341103,0
0.2331719,3.8098435,2.7652607,-0.073716082,-0.20442986,0.97610158,0
3.1476588,4.3462262,1.4554603,0.14765866,0.96573943,0.21341103,0
-1.2629061,-4.4483957,-2.1206148,-0.14765866,-0.96573943,-0.21341103,0
-2.1449339,5.5372624,-0.34039688,-0.98628736,0.15986168,-0.041004676,0
0.52491224,-5.1347957,-0.93338728,-0.14765866,-0.96573943,-0.21341103,0
2.9639921,0.43314326,2.2811418,0.98628736,-0.15986168,0.041004676,0
-1.9098496,-4.7673116,-0.20924377,-0.14765866,-0.96573943,-0.21341103,0
-1.6886029,-4.6260839,-1.3731418,-0.14765866,-0.96573943,-0.21341103,0
1.6060598,4.5901003,1.759038,0.14765866,0.96573943,0.21341103,0
-1.3293083,-5.0068498,0.82359362,-0.073716082,-0.20442986,0.97610158,0
-3.5581,-4.5869088,-0.19981623,-0.14765866,-0.96573943,-0.21341103,0
2.5682983,-3.2706273,-0.51053524,0.98628736,-0.15986168,0.041004676,0
-2.9899347,0.51048827,0.14542499,-0.98628736,0.15986168,-0.041004676,0
-2.2148809,5.333982,-0.15357542,-0.98628736,0.15986168,-0.041004676,0
-3.0596142,0.025601268,0.7577709,-0.98628736,0.15986168,-0.041004676,0
1.4628539,0.62979317,-1.8616574,0.073716082,0.20442986,-0.97610158,0
-2.8259258,-4.6651812,-0.29134989,-0.14765866,-0.96573943,-0.21341103,0
0.69233167,-3.2285335,-2.5794475,0.073716082,0.20442986,-0.97610158,0
3.3883474,4.1254206,2.7853899,0.14765866,0.96573943,0.21341103,0
2.6318846,4.4303865,1.6143985,0.14765866,0.96573943,0.21341103,0
-1.5126014,3.8642023,-1.2841449,0.073716082,0.20442986,-0.97610158,0
-2.2515719,4.4092526,-0.086159229,-0.98628736,0.15986168,-0.041004676,0
-1.0407522,-4.721231,-1.4851785,-0.14765866,-0.96573943,-0.21341103,0
1.0515146,-1.899508,1.8161894,-0.073716082,-0.20442986,0.97610158,0
-3.2814722,-1.1574361,-0.69913816,-0.98628736,0.15986168,-0.041004676,0
-2.2883592,4.083878,-1.1818836,-0.98628736,0.15986168,-0.041004676,0
3.7096994,4.2541966,1.7160912,0.98628736,-0.15986168,0.041004676,0
0.75536227,4.7249212,1.1762552,0.14765866,0.96573943,0.21341103,0
-1.2874093,5.2215233,0.51631355,0.14765866,0.96573943,0.21341103,0
-1.0913751,-5.0530481,-0.069149494,-0.14765866,-0.96573943,-0.21341103,0
-2.8237638,-2.1371567,1.3233819,-0.073716082,-0.20442986,0.97610158,0
-0.91329575,-4.0765314,1.1863391,-0.073716082,-0.20442986,0.97610158,0
3.024684,4.6051731,0.69474649,0.14765866,0.96573943,0.21341103,0
-2.944097,-4.4553056,-0.94501925,-0.14765866,-0.96573943,-0.21341103,0
-2.2902532,-0.76287884,-2.3304858,0.073716082,0.20442986,-0.97610158,0
0.097309709,4.8706708,1.6460111,0.14765866,0.96573943,0.21341103,0
0.16916919,4.9374137,0.66856241,0.14765866,0.96573943,0.21341103,0
2.6491115,-2.3811026,-1.3603121,0.98628736,-0.15986168,0.041004676,0
3.8547423,4.4135566,-0.31968832,0.98628736,-0.15986168,0.041004676,0
2.6099913,-3.421123,-1.6168839,0.98628736,-0.15986168,0.041004676,0
2.974216,-0.30416608,-0.34150031,0.98628736,-0.15986168,0.041004676,0
-2.6656184,-4.4282675,-1.7474377,-0.14765866,-0.96573943,-0.21341103,0
-2.9640856,0.64913058,1.3429184,-0.98628736,0.15986168,-0.041004676,0
3.5009952,2.6225057,-0.56161308,0.98628736,-0.15986168,0.041004676,0
2.7195425,4.4282341,1.2545671,0.14765866,0.96573943,0.21341103,0
1.1322012,1.4877789,-1.7479328,0.073716082,0.20442986,-0.97610158,0
-1.0443604,-5.0893726,0.02576828,-0.14765866,-0.96573943,-0.21341103,0
-0.53366852,-4.1833029,-2.8906798,0.073716082,0.20442986,-0.97610158,0
3.4682429,2.9847081,0.24953675,0.98628736,-0.15986168,0.041004676,0
0.70520431,5.0707974,0.12238932,0.14765866,0.96573943,0.21341103,0
0.95200658,-4.7706776,-2.9309909,-0.14765866,-0.96573943,-0.21341103,0
-0.055531025,4.8116703,1.2327771,0.14765866,0.96573943,0.21341103,0
-0.96273446,5.0886145,0.95267987,0.14765866,0.96573943,0.21341103,0
-2.2950299,5.1280479,1.7968569,0.14765866,0.96573943,0.21341103,0
-2.1085801,-4.183248,-3.1146865,-0.14765866,-0.96573943,-0.21341103,0
2.042104,0.75149965,2.3763456,-0.073716082,-0.20442986,0.97610158,0
-2.3929334,3.607955,2.5527418,-0.073716082,-0.20442986,0.97610158,0
0.16983911,1.7841464,2.5181234,-0.073716082,-0.20442986,0.97610158,0
-2.6448412,2.6191926,2.338237,-0.98628736,0.15986168,-0.041004676,0
-2.9696522,-2.4298356,1.2543576,-0.073716082,-0.20442986,0.97610158,0
2.6743214,2.3979707,-1.4346631,0.073716082,0.20442986,-0.97610158,0
2.2334414,-2.8748388,1.6332085,-0.073716082,-0.20442986,0.97610158,0
1.2456355,-5.4647722,0.78002167,-0.14765866,-0.96573943,-0.21341103,0
-0.4499948,3.8057632,-1.2194593,0.073716082,0.20442986,-0.97610158,0
0.87455511,4.7813668,1.489347,0.14765866,0.96573943,0.21341103,0
3.7863777,4.0051889,-0.14598465,0.98628736,-0.15986168,0.041004676,0
-2.6026921,-4.1129885,-2.8921187,-0.14765866,-0.96573943,-0.21341103,0
1.4587595,3.030417,-1.2389379,0.073716082,0.20442986,-0.97610158,0
-2.6323996,2.4470124,-1.6273748,-0.98628736,0.15986168,-0.041004676,0
3.689882,3.7915072,1.1124606,0.98628736,-0.15986168,0.041004676,0
-1.1130421,-4.6154671,-2.1258254,-0.14765866,-0.96573943,-0.21341103,0
-2.2248435,5.3102007,-1.0656452,-0.98628736,0.15986168,-0.041004676,0
-1.0640632,4.7680178,2.8409121,0.14765866,0.96573943,0.21341103,0
-2.5259185,-4.7459207,0.13491392,-0.14765866,-0.96573943,-0.21341103,0
3.4018536,4.5372314,0.66656685,0.14765866,0.96573943,0.21341103,0
2.5819726,-3.0568743,-2.012944,0.98628736,-0.15986168,0.041004676,0
-1.5566654,4.9123645,2.264915,0.14765866,0.96573943,0.21341103,0
1.6357169,4.7972045,0.25078678,0.14765866,0.96573943,0.21341103,0
1.7323806,-5.590045,0.68694115,-0.14765866,-0.96573943,-0.21341103,0
-0.9401688,-4.8365812,-0.66352177,-0.14765866,-0.96573943,-0.21341103,0
0.52422565,2.8936865,2.6383698,-0.073716082,-0.20442986,0.97610158,0
3.296978,1.4834908,-1.0579078,0.98628736,-0.15986168,0.041004676,0
3.5176859,2.8424816,0.085684538,0.98628736,-0.15986168,0.041004676,0
-2.4123302,-4.6111078,-0.7704258,-0.14765866,-0.96573943,-0.21341103,0
-0.81224126,-4.6099524,-2.3280661,-0.14765866,-0.96573943,-0.21341103,0
-0.04641255,1.0831376,2.2816503,-0.073716082,-0.20442986,0.97610158,0
1.5556124,4.7852077,-1.02812,0.073716082,0.20442986,-0.97610158,0
2.8352375,4.8437004,-0.15560865,0.14765866,0.96573943,0.21341103,0
2.4216585,0.076526403,2.2671051,-0.073716082,-0.20442986,0.97610158,0
-2.5537229,3.7034957,0.9450109,-0.98628736,0.15986168,-0.041004676,0
-3.6126146,-3.5456092,-0.87768722,-0.98628736,0.15986168,-0.041004676,0
2.1643577,-5.5111518,-0.32485723,0.98628736,-0.15986168,0.041004676,0
-0.23696429,-3.6159837,1.2482507,-0.073716082,-0.20442986,0.97610158,0
-2.6665297,3.353229,2.0240979,-0.98628736,0.15986168,-0.041004676,0
-1.0914541,-4.4156446,-2.9552693,-0.14765866,-0.96573943,-0.21341103,0
-0.68331772,-5.0446544,-0.18782711,-0.14765866,-0.96573943,-0.21341103,0
-1.6724503,-4.0456905,1.0044332,-0.073716082,-0.20442986,0.97610158,0
-0.84053969,-5.1554623,0.23584175,-0.14765866,-0.96573943,-0.21341103,0
2.0134826,5.0880351,-0.52363014,0.14765866,0.96573943,0.21341103,0
3.0856206,0.35414115,0.18305194,0.98628736,-0.15986168,0.041004676,0
1.9083211,-0.51503825,2.1593366,-0.073716082,-0.20442986,0.97610158,0
1.4904137,-2.453012,1.6535957,-0.073716082,-0.20442986,0.97610158,0
-3.0939579,-4.7582827,0.68979311,-0.14765866,-0.96573943,-0.21341103,0
-3.3355811,-1.6007501,0.10444951,-0.98628736,0.15986168,-0.041004676,0
-3.5667934,-4.1195602,-2.1497641,-0.98628736,0.15986168,-0.041004676,0
0.29854894,2.3813012,-1.6288966,0.073716082,0.20442986,-0.97610158,0
-3.4441733,-4.6732588,-0.1021719,-0.14765866,-0.96573943,-0.21341103,0
1.3088553,5.0292358,-0.16735077,0.14765866,0.96573943,0.21341103,0
1.9355425,4.9410868,0.16633081,0.14765866,0.96573943,0.21341103,0
-1.1742043,-4.4232559,-2.1586695,-0.14765866,-0.96573943,-0.21341103,0
3.0845842,-0.33423007,-1.2682922,0.98628736,-0.15986168,0.041004676,0
2.8608029,-1.1235991,-0.49548817,0.98628736,-0.15986168,0.041004676,0
3.5402148,2.6643159,0.62349701,0.98628736,-0.15986168,0.041004676,0
-3.1635382,-4.695971,0.33475876,-0.14765866,-0.96573943,-0.21341103,0
1.2805659,4.7434802,0.88429403,0.14765866,0.96573943,0.21341103,0
1.9406381,-5.2166591,-1.2966845,-0.14765866,-0.96573943,-0.21341103,0
2.6169477,4.3758473,2.2311904,0.14765866,0.96573943,0.21341103,0
-0.14265466,4.9756794,0.59760094,0.14765866,0.96573943,0.21341103,0
0.35597825,-5.4059701,0.62468576,-0.14765866,-0.96573943,-0.21341103,0
-2.5074525,2.3878291,2.4576712,-0.073716082,-0.20442986,0.97610158,0
-1.8515265,5.4692874,0.058921337,0.14765866,0.96573943,0.21341103,0
0.91466677,2.1903048,2.6361575,-0.073716082,-0.20442986,0.97610158,0
2.5053759,-3.3537762,-0.28449368,0.98628736,-0.15986168,0.041004676,0
0.56714028,-2.6649189,-2.5815728,0.073716082,0.20442986,-0.97610158,0
-3.2076149,-1.2029431,-1.1755986,-0.98628736,0.15986168,-0.041004676,0
0.83042657,-2.0604656,-2.4350405,0.073716082,0.20442986,-0.97610158,0
2.2772748,-4.6031671,0.55828953,0.98628736,-0.15986168,0.041004676,0
1.1907096,-5.085691,-1.1161611,-0.14765866,-0.96573943,-0.21341103,0
1.8732392,4.1928506,3.0645761,0.14765866,0.96573943,0.21341103,0
-0.34198117,4.8028383,1.8455906,0.14765866,0.96573943,0.21341103,0
3.0384645,2.3348031,-1.3998878,0.073716082,0.20442986,-0.97610158,0
-2.6566877,-4.0144033,-3.1245718,0.073716082,0.20442986,-0.97610158,0
0.58673066,-2.0671134,-2.4200435,0.073716082,0.20442986,-0.97610158,0
-3.3560979,-2.2194254,0.013404608,-0.98628736,0.15986168,-0.041004676,0
-0.39435589,4.9147363,1.8955646,0.14765866,0.96573943,0.21341103,0
-3.7968321,-4.4377203,0.60937977,-0.98628736,0.15986168,-0.041004676,0
-1.7874167,-3.7042327,-3.0562108,0.073716082,0.20442986,-0.97610158,0
1.8734814,1.6444955,2.6152973,-0.073716082,-0.20442986,0.97610158,0
2.7921877,4.8125176,-0.70026875,0.14765866,0.96573943,0.21341103,0
