-1.9714288,2.992219,0.78931838,-0.97818959,0.06749779,-0.19644138,0
1.0579201,3.2837818,-2.4837441,0.11848241,0.95809889,-0.26078409,0
-2.1179233,-1.2835464,3.6942401,-0.17060792,0.27837113,0.94519967,0
-0.45681596,-0.17469525,3.569041,-0.17060792,0.27837113,0.94519967,0
0.71376276,4.5083141,1.8968627,0.11848241,0.95809889,-0.26078409,0
0.3014636,-0.85968244,4.0867248,-0.17060792,0.27837113,0.94519967,0
0.17465186,-4.0459814,0.49191737,-0.11848241,-0.95809889,0.26078409,0
1.8973172,3.0428247,-2.9637299,0.11848241,0.95809889,-0.26078409,0
-1.2057815,2.2022405,2.8895788,-0.17060792,0.27837113,0.94519967,0
-0.74666452,-4.2801676,-2.547797,0.17060792,-0.27837113,-0.94519967,0
-1.2960085,-3.1884971,3.2805021,-0.11848241,-0.95809889,0.26078409,0
-1.8625398,2.3941534,-0.45814538,-0.97818959,0.06749779,-0.19644138,0
1.0276833,-0.28942776,3.9681716,-0.17060792,0.27837113,0.94519967,0
-1.2203201,3.3477931,-3.4072914,-0.97818959,0.06749779,-0.19644138,0
0.86270344,3.3678341,-2.4784739,0.11848241,0.95809889,-0.26078409,0
-0.44812214,-3.7593822,1.0844121,-0.11848241,-0.95809889,0.26078409,0
1.2495389,-3.0258265,-2.5351214,0.17060792,-0.27837113,-0.94519967,0
-1.163167,-4.0704679,0.072006702,-0.11848241,-0.95809889,0.26078409,0
1.2217193,-4.808167,-2.1336875,0.17060792,-0.27837113,-0.94519967,0
1.3051648,4.4227734,1.2000196,0.11848241,0.95809889,-0.26078409,0
-2.2045579,-0.3812716,0.82160234,-0.97818959,0.06749779,-0.19644138,0
-2.2529421,-0.75736928,3.4919779,-0.17060792,0.27837113,0.94519967,0
0.25578547,-3.2080026,3.3247209,-0.11848241,-0.95809889,0.26078409,0
-1.680052,2.6233919,2.6168625,-0.17060792,0.27837113,0.94519967,0
-2.0482008,3.7351978,1.573092,-0.97818959,0.06749779,-0.19644138,0
1.9898956,0.20138645,-3.4497342,0.17060792,-0.27837113,-0.94519967,0
-0.2916007,-4.3052764,-0.88673854,-0.11848241,-0.95809889,0.26078409,0
-0.12113714,-4.4304361,-2.4182668,0.17060792,-0.27837113,-0.94519967,0
-0.61017114,-3.3363209,2.8051498,-0.11848241,-0.95809889,0.26078409,0
-1.8912117,0.92643511,-0.084600359,-0.97818959,0.06749779,-0.19644138,0
1.3548579,-2.0060647,3.1547341,0.97818959,-0.06749779,0.19644138,0
-0.43345785,4.543869,0.95570707,0.11848241,0.95809889,-0.26078409,0
-2.2513041,-2.1120806,0.73639393,-0.97818959,0.06749779,-0.19644138,0
1.4707372,-2.4386232,2.0249872,0.97818959,-0.06749779,0.19644138,0
-2.3891675,-0.53903437,1.0395503,-0.97818959,0.06749779,-0.19644138,0
-1.2723687,-1.6071311,-3.5454233,0.17060792,-0.27837113,-0.94519967,0
0.65173268,3.3332963,-2.5823205,0.11848241,0.95809889,-0.26078409,0
2.2177138,1.0026069,-0.11069965,0.97818959,-0.06749779,0.19644138,0
-1.2485102,3.2046065,-2.4087019,-0.97818959,0.06749779,-0.19644138,0
2.4151607,1.6134319,-1.6894348,0.97818959,-0.06749779,0.19644138,0
1.2655466,-4.5954676,-1.0010555,-0.11848241,-0.95809889,0.26078409,0
-0.86630058,4.4241738,0.55628085,0.11848241,0.95809889,-0.26078409,0
-1.332042,3.5711265,-2.3979316,-0.97818959,0.06749779,-0.19644138,0
0.23374367,4.5615511,1.5415254,0.11848241,0.95809889,-0.26078409,0
-1.2850955,-4.1914735,-0.50796556,-0.11848241,-0.95809889,0.26078409,0
-2.6505225,-1.8909078,1.8936071,-0.97818959,0.06749779,-0.19644138,0
-2.6961465,-2.0201688,2.7815111,-0.97818959,0.06749779,-0.19644138,0
2.2118337,2.3842402,-0.51379514,0.97818959,-0.06749779,0.19644138,0
-1.615474,-2.9636297,3.869972,-0.11848241,-0.95809889,0.26078409,0
-1.4072541,4.0667319,-1.3255662,0.11848241,0.95809889,-0.26078409,0
-2.0347898,-3.2815912,-1.1095085,-0.97818959,0.06749779,-0.19644138,0
-1.6089232,-2.4401834,-2.9173636,-0.97818959,0.06749779,-0.19644138,0
2.2972052,-0.0538764,-1.0088785,0.97818959,-0.06749779,0.19644138,0
1.1553518,3.4254107,-2.36131,0.11848241,0.95809889,-0.26078409,0
-1.0391541,-3.3885317,-2.9316278,0.17060792,-0.27837113,-0.94519967,0
0.3448658,-4.6121502,-1.1954145,-0.11848241,-0.95809889,0.26078409,0
-2.4279447,-2.8653426,3.552366,-0.11848241,-0.95809889,0.26078409,0
0.26466864,3.4060662,-2.4387693,0.11848241,0.95809889,-0.26078409,0
0.78033328,1.7522492,-4.1623702,0.17060792,-0.27837113,-0.94519967,0
-0.63147998,3.9342382,-1.2336569,0.11848241,0.95809889,-0.26078409,0
1.4301851,-1.4766836,-2.9496913,0.17060792,-0.27837113,-0.94519967,0
-2.0161092,-2.5221491,4.0821428,-0.17060792,0.27837113,0.94519967,0
0.70813775,-0.77565408,-3.36622,0.17060792,-0.27837113,-0.94519967,0
-0.65976214,0.082314491,3.5355108,-0.17060792,0.27837113,0.94519967,0
2.7855468,0.45953512,-3.3075299,0.97818959,-0.06749779,0.19644138,0
-0.26305038,-3.6510024,2.1746898,-0.11848241,-0.95809889,0.26078409,0
2.0795307,-2.8126822,-2.5830233,0.17060792,-0.27837113,-0.94519967,0
1.760246,-2.7347701,0.1964277,0.97818959,-0.06749779,0.19644138,0
1.6884747,4.2635565,2.7357221,-0.17060792,0.27837113,0.94519967,0
-2.4520936,-0.65674853,1.4816442,-0.97818959,0.06749779,-0.19644138,0
2.1273754,-1.1920716,-0.7096796,0.97818959,-0.06749779,0.19644138,0
2.2558401,2.8114572,-0.21270871,0.97818959,-0.06749779,0.19644138,0
1.6758618,4.4665465,2.0853245,0.11848241,0.95809889,-0.26078409,0
-0.98927844,3.9559402,-1.4278331,0.11848241,0.95809889,-0.26078409,0
2.8224421,2.8783433,-3.0350983,0.97818959,-0.06749779,0.19644138,0
1.2037864,-4.3328786,-0.010194778,-0.11848241,-0.95809889,0.26078409,0
-1.3304558,3.31845,-2.0551791,-0.97818959,0.06749779,-0.19644138,0
0.53928149,3.3862062,-2.8404808,0.11848241,0.95809889,-0.26078409,0
1.6321139,-1.7721882,1.8090476,0.97818959,-0.06749779,0.19644138,0
-1.2480037,-4.1529679,-0.54058599,-0.11848241,-0.95809889,0.26078409,0
1.3964075,-1.1574795,3.1405559,0.97818959,-0.06749779,0.19644138,0
0.55123591,3.9823055,-0.36808205,0.11848241,0.95809889,-0.26078409,0
1.8745792,-3.2324901,-0.31465805,0.97818959,-0.06749779,0.19644138,0
-2.2442884,-0.70868516,0.67756236,-0.97818959,0.06749779,-0.19644138,0
-0.01324892,2.4033501,-4.4225326,0.17060792,-0.27837113,-0.94519967,0
1.6602359,4.4348221,2.7209256,-0.17060792,0.27837113,0.94519967,0
-2.8329468,-1.5638571,3.1752663,-0.97818959,0.06749779,-0.19644138,0
2.6961184,1.2958841,-2.4638796,0.97818959,-0.06749779,0.19644138,0
0.93258089,3.6013291,-1.3222578,0.11848241,0.95809889,-0.26078409,0
-1.7862735,-2.5999568,-2.2794824,-0.97818959,0.06749779,-0.19644138,0
-0.73117232,-1.3423969,3.9389434,-0.17060792,0.27837113,0.94519967,0
-2.868365,-3.0622449,2.5736444,-0.97818959,0.06749779,-0.19644138,0
1.3532474,-2.1998622,2.7869639,0.97818959,-0.06749779,0.19644138,0
-1.3885067,-0.52432227,-3.298245,-0.97818959,0.06749779,-0.19644138,0
1.2635621,-4.1330376,0.8611865,-0.11848241,-0.95809889,0.26078409,0
-0.56720901,1.7843026,-4.4290791,0.17060792,-0.27837113,-0.94519967,0
0.89564967,-3.1594529,3.7697124,-0.11848241,-0.95809889,0.26078409,0
-1.6660448,-3.4018333,1.83462,-0.11848241,-0.95809889,0.26078409,0
0.55102205,-3.8488991,1.517457,-0.11848241,-0.95809889,0.26078409,0
-0.82647729,2.8552361,-4.7773113,0.17060792,-0.27837113,-0.94519967,0
0.29512358,4.1428404,0.20475531,0.11848241,0.95809889,-0.26078409,0
-2.4830892,-0.31449842,1.7151213,-0.97818959,0.06749779,-0.19644138,0
0.12938499,-1.5724472,-3.3152575,0.17060792,-0.27837113,-0.94519967,0
-0.35246474,-3.2015238,3.5085254,-0.11848241,-0.95809889,0.26078409,0
-2.5176299,0.28742743,2.8851349,-0.97818959,0.06749779,-0.19644138,0
-0.8854866,4.5739918,1.0162759,0.11848241,0.95809889,-0.26078409,0
-0.91347623,1.3348045,-4.2671313,0.17060792,-0.27837113,-0.94519967,0
-0.28540635,3.7671742,-1.301018,0.11848241,0.95809889,-0.26078409,0
-0.41530943,-3.1559005,-2.9356608,0.17060792,-0.27837113,-0.94519967,0
0.46674466,-0.76591861,3.9738708,-0.17060792,0.27837113,0.94519967,0
-1.0437236,-1.9184039,-3.410388,0.17060792,-0.27837113,-0.94519967,0
1.704833,1.3318231,2.3600922,0.97818959,-0.06749779,0.19644138,0
-1.7983891,3.8100152,-0.067593813,-0.97818959,0.06749779,-0.19644138,0
-1.611059,1.6441731,-1.5798523,-0.97818959,0.06749779,-0.19644138,0
2.1873269,-1.7321547,-1.3169758,0.97818959,-0.06749779,0.19644138,0
-0.96705866,4.5887461,1.234817,0.11848241,0.95809889,-0.26078409,0
0.36938536,3.8519368,-0.77629876,0.11848241,0.95809889,-0.26078409,0
-0.076457024,-4.4630284,-1.3621044,-0.11848241,-0.95809889,0.26078409,0
-0.20745707,-4.4210887,-1.3559768,-0.11848241,-0.95809889,0.26078409,0
1.3966267,1.0216646,-3.7550337,0.17060792,-0.27837113,-0.94519967,0
-1.0293933,-3.753149,1.16627,-0.11848241,-0.95809889,0.26078409,0
2.2584758,1.7170455,-3.8434348,0.17060792,-0.27837113,-0.94519967,0
1.804142,-0.37116659,1.36799,0.97818959,-0.06749779,0.19644138,0
-0.0047416687,1.6635056,3.172765,-0.17060792,0.27837113,0.94519967,0
0.39374709,1.5870774,-4.0830798,0.17060792,-0.27837113,-0.94519967,0
1.6764824,-2.3935881,0.95388997,0.97818959,-0.06749779,0.19644138,0
1.089761,-2.0870414,-2.8520808,0.17060792,-0.27837113,-0.94519967,0
-2.1013744,1.6674188,0.99482465,-0.97818959,0.06749779,-0.19644138,0
2.0047174,-4.1912065,-1.1838385,0.97818959,-0.06749779,0.19644138,0
-0.26341814,-3.3137379,3.0437565,-0.11848241,-0.95809889,0.26078409,0
-0.59538555,-4.6137295,-2.4839082,0.17060792,-0.27837113,-0.94519967,0
1.9323416,-3.5855615,-1.0382161,0.97818959,-0.06749779,0.19644138,0
-0.078164697,-2.9907761,4.3977485,-0.11848241,-0.95809889,0.26078409,0
-1.5774188,-3.5402441,1.3702276,-0.11848241,-0.95809889,0.26078409,0
1.9374833,-4.7042818,-2.0496635,0.17060792,-0.27837113,-0.94519967,0
-1.9559643,4.5664229,1.3727548,-0.97818959,0.06749779,-0.19644138,0
-0.25946641,3.0470731,-4.1259832,0.11848241,0.95809889,-0.26078409,0
-1.30884,-0.1077466,3.5484583,-0.17060792,0.27837113,0.94519967,0
1.8520422,-3.7688138,-0.15934408,0.97818959,-0.06749779,0.19644138,0
-1.423141,-4.52879,-2.1374598,-0.11848241,-0.95809889,0.26078409,0
-0.2319293,1.7069196,-4.2269349,0.17060792,-0.27837113,-0.94519967,0
1.9577708,-0.052170157,0.40313417,0.97818959,-0.06749779,0.19644138,0
-0.4246664,-4.830718,-2.3576615,-0.11848241,-0.95809889,0.26078409,0
-1.0311468,2.2937965,-3.9181058,-0.97818959,0.06749779,-0.19644138,0
-0.3612597,0.80109656,3.3690114,-0.17060792,0.27837113,0.94519967,0
1.5450757,-1.0951912,-3.0465961,0.17060792,-0.27837113,-0.94519967,0
1.3997025,2.9067764,-3.7027807,0.11848241,0.95809889,-0.26078409,0
-2.754266,-2.404809,2.9449568,-0.97818959,0.06749779,-0.19644138,0
-2.7672844,-0.91363907,3.1963732,-0.97818959,0.06749779,-0.19644138,0
1.7024629,2.9658711,-4.0511475,0.11848241,0.95809889,-0.26078409,0
-0.053542733,-2.889271,4.3704152,-0.11848241,-0.95809889,0.26078409,0
-0.73815489,1.8848372,-4.3621197,0.17060792,-0.27837113,-0.94519967,0
2.6314449,1.8978028,-2.2334983,0.97818959,-0.06749779,0.19644138,0
-0.19902897,-3.8573461,1.4506092,-0.11848241,-0.95809889,0.26078409,0
0.45112133,4.5504823,2.3657982,-0.17060792,0.27837113,0.94519967,0
1.3238959,-0.13753557,-3.4513187,0.17060792,-0.27837113,-0.94519967,0
1.7082767,4.4848275,2.0215666,0.11848241,0.95809889,-0.26078409,0
-1.3603382,-4.5056705,-1.975925,-0.11848241,-0.95809889,0.26078409,0
-1.7964727,-1.6451614,3.9410391,-0.17060792,0.27837113,0.94519967,0
-2.2355905,-3.3018415,-0.19865894,-0.97818959,0.06749779,-0.19644138,0
-2.2778699,-1.4879713,1.1452687,-0.97818959,0.06749779,-0.19644138,0
1.2450154,3.63959,-1.1102781,0.11848241,0.95809889,-0.26078409,0
-1.9856818,4.7611094,1.2946187,0.11848241,0.95809889,-0.26078409,0
-0.035526752,2.6476042,2.9238112,-0.17060792,0.27837113,0.94519967,0
1.1343565,2.7165015,3.0083883,-0.17060792,0.27837113,0.94519967,0
2.3593311,0.20425582,-1.0017833,0.97818959,-0.06749779,0.19644138,0
-2.3418632,-1.8786895,3.9308763,-0.17060792,0.27837113,0.94519967,0
0.077856302,-1.7031587,4.2860961,-0.17060792,0.27837113,0.94519967,0
0.84818745,-4.3097134,-0.11167121,-0.11848241,-0.95809889,0.26078409,0
-2.512342,-0.0092663765,3.3068461,-0.17060792,0.27837113,0.94519967,0
-2.3188396,-3.7598944,0.093415737,-0.11848241,-0.95809889,0.26078409,0
2.0185156,-3.3283403,-0.69989073,0.97818959,-0.06749779,0.19644138,0
-1.7616787,-3.0113699,-2.8001125,-0.97818959,0.06749779,-0.19644138,0
2.0122099,-2.1137211,-0.94260228,0.97818959,-0.06749779,0.19644138,0
2.2395372,0.059771538,-0.5819397,0.97818959,-0.06749779,0.19644138,0
1.4439962,-2.1654413,2.1515102,0.97818959,-0.06749779,0.19644138,0
-1.5390701,-2.9777761,3.9591751,-0.11848241,-0.95809889,0.26078409,0
-2.0992246,-3.0405855,-0.59329653,-0.97818959,0.06749779,-0.19644138,0
-0.70849061,3.0857246,-4.080256,0.11848241,0.95809889,-0.26078409,0
0.60800391,-3.7680168,1.6450224,-0.11848241,-0.95809889,0.26078409,0
1.5455265,-3.9906209,1.3379487,0.97818959,-0.06749779,0.19644138,0
2.1757705,-1.4409425,-2.921839,0.17060792,-0.27837113,-0.94519967,0
0.68925917,-3.1326342,4.0522881,-0.11848241,-0.95809889,0.26078409,0
2.1919594,-0.35361218,-0.77195501,0.97818959,-0.06749779,0.19644138,0
-0.98505294,1.918541,-4.190546,-0.97818959,0.06749779,-0.19644138,0
-1.8832871,1.4964103,-0.59825552,-0.97818959,0.06749779,-0.19644138,0
-0.27288437,3.860157,-1.3574131,0.11848241,0.95809889,-0.26078409,0
-1.0442119,0.61667073,-3.9749458,0.17060792,-0.27837113,-0.94519967,0
-1.7867098,0.51868296,3.2972507,-0.17060792,0.27837113,0.94519967,0
2.9669511,2.7882686,-3.874299,0.97818959,-0.06749779,0.19644138,0
-1.383046,-3.2012625,2.894037,-0.11848241,-0.95809889,0.26078409,0
-2.1351025,-3.7609906,0.72733402,-0.11848241,-0.95809889,0.26078409,0
0.085202217,-2.6362748,-2.8671563,0.17060792,-0.27837113,-0.94519967,0
1.4466689,0.52806473,2.9431343,0.97818959,-0.06749779,0.19644138,0
2.5338321,2.486007,-3.9799755,0.17060792,-0.27837113,-0.94519967,0
2.3824186,-1.5193715,-2.8885505,0.17060792,-0.27837113,-0.94519967,0
2.2435596,-4.0236926,-1.8838487,0.97818959,-0.06749779,0.19644138,0
1.3620045,1.8404959,-3.8954406,0.17060792,-0.27837113,-0.94519967,0
2.4350824,-1.3271136,-2.4684958,0.97818959,-0.06749779,0.19644138,0
0.58044291,-4.6629028,-1.8977535,-0.11848241,-0.95809889,0.26078409,0
1.80318,-4.750864,-1.0938205,-0.11848241,-0.95809889,0.26078409,0
-1.2318077,4.7469902,1.7823946,0.11848241,0.95809889,-0.26078409,0
-2.0619934,2.8276043,0.79571903,-0.97818959,0.06749779,-0.19644138,0
-1.9139606,0.80795026,-0.61688745,-0.97818959,0.06749779,-0.19644138,0
2.9946506,2.7225122,-3.9325414,0.11848241,0.95809889,-0.26078409,0
-2.0565629,-1.5455465,-0.95398855,-0.97818959,0.06749779,-0.19644138,0
-2.828027,-2.7721984,3.8157146,-0.11848241,-0.95809889,0.26078409,0
0.23880148,3.1347041,2.7342296,-0.17060792,0.27837113,0.94519967,0
0.048946857,-4.4096456,-1.082963,-0.11848241,-0.95809889,0.26078409,0
1.3146672,-4.8347144,-1.8334583,-0.11848241,-0.95809889,0.26078409,0
1.1876868,-2.1552837,3.6497262,0.97818959,-0.06749779,0.19644138,0
1.4493264,-2.2831638,1.9996589,0.97818959,-0.06749779,0.19644138,0
0.85726643,2.5024211,-4.2663984,0.17060792,-0.27837113,-0.94519967,0
1.4652319,-4.7248178,-1.6691446,-0.11848241,-0.95809889,0.26078409,0
0.89927167,-3.6796265,2.2705791,-0.11848241,-0.95809889,0.26078409,0
1.5642903,0.81839776,2.3324702,0.97818959,-0.06749779,0.19644138,0
1.5260191,0.95713997,2.5911574,0.97818959,-0.06749779,0.19644138,0
2.1111162,-1.9887452,-1.3129008,0.97818959,-0.06749779,0.19644138,0
-1.5435659,1.2087939,-1.9036839,-0.97818959,0.06749779,-0.19644138,0
-2.3220425,-2.2975514,0.22418952,-0.97818959,0.06749779,-0.19644138,0
1.9069977,4.0480018,0.7110281,0.11848241,0.95809889,-0.26078409,0
-1.9956204,-2.8969569,3.8460426,-0.11848241,-0.95809889,0.26078409,0
-1.3460639,-4.1053686,-0.30054069,-0.11848241,-0.95809889,0.26078409,0
-1.0628796,3.8580565,-1.8481073,0.11848241,0.95809889,-0.26078409,0
-0.80951524,4.5397143,1.04813,0.11848241,0.95809889,-0.26078409,0
1.646625,3.0101099,-3.3533452,0.11848241,0.95809889,-0.26078409,0
1.6093432,-1.2882245,1.9047813,0.97818959,-0.06749779,0.19644138,0
2.3373871,0.39256239,-3.4136012,0.17060792,-0.27837113,-0.94519967,0
1.162725,-4.38273,-0.039419174,-0.11848241,-0.95809889,0.26078409,0
-2.1985683,-0.59560347,0.4227376,-0.97818959,0.06749779,-0.19644138,0
-2.9238944,-2.4110034,3.6881185,-0.97818959,0.06749779,-0.19644138,0
0.25643706,1.9469924,-4.2929215,0.17060792,-0.27837113,-0.94519967,0
2.0126195,-0.66444981,-0.36957562,0.97818959,-0.06749779,0.19644138,0
1.694809,1.3328965,2.0063138,0.97818959,-0.06749779,0.19644138,0
-0.55495286,0.65929103,-3.954535,0.17060792,-0.27837113,-0.94519967,0
1.3704815,-4.0091085,-2.2791533,0.17060792,-0.27837113,-0.94519967,0
-1.0177891,-2.3393922,4.1127954,-0.17060792,0.27837113,0.94519967,0
-1.9262505,4.3352447,1.0524718,-0.97818959,0.06749779,-0.19644138,0
-0.91821718,0.12395561,3.5037856,-0.17060792,0.27837113,0.94519967,0
1.7018223,3.4802132,2.7323608,0.97818959,-0.06749779,0.19644138,0
1.0301499,4.5633469,2.5102236,-0.17060792,0.27837113,0.94519967,0
1.8127569,0.075076818,1.0308933,0.97818959,-0.06749779,0.19644138,0
-1.0598009,2.6534536,-3.6744094,-0.97818959,0.06749779,-0.19644138,0
-1.224948,3.5703962,-2.5172997,0.11848241,0.95809889,-0.26078409,0
-1.7350979,-3.0533133,-2.6799669,-0.97818959,0.06749779,-0.19644138,0
2.3710735,-2.2553139,-2.2668724,0.97818959,-0.06749779,0.19644138,0
0.99578977,-2.59022,4.3547435,0.97818959,-0.06749779,0.19644138,0
-0.31763744,-2.7187257,-2.899292,0.17060792,-0.27837113,-0.94519967,0
0.05470705,-3.0361865,3.8885393,-0.11848241,-0.95809889,0.26078409,0
-1.7240281,2.8510945,-0.76896852,-0.97818959,0.06749779,-0.19644138,0
-1.2884333,-0.99920464,3.8625529,-0.17060792,0.27837113,0.94519967,0
0.72862506,2.0561023,-4.2328124,0.17060792,-0.27837113,-0.94519967,0
-1.487901,3.1479373,2.5164597,-0.17060792,0.27837113,0.94519967,0
-0.18054104,2.8007975,-4.5185442,0.17060792,-0.27837113,-0.94519967,0
1.6324592,3.6097105,2.9688895,0.97818959,-0.06749779,0.19644138,0
1.4488001,2.9525425,-3.4664726,0.11848241,0.95809889,-0.26078409,0
0.34059519,3.5973897,-1.8540368,0.11848241,0.95809889,-0.26078409,0
-0.22974277,-3.8794508,0.60664749,-0.11848241,-0.95809889,0.26078409,0
-1.512361,-3.9306605,0.41946292,-0.11848241,-0.95809889,0.26078409,0
-2.0666897,-2.9781284,3.5215478,-0.11848241,-0.95809889,0.26078409,0
-0.42448306,3.8787398,-1.0688879,0.11848241,0.95809889,-0.26078409,0
-0.44022369,3.5510607,2.4864011,-0.17060792,0.27837113,0.94519967,0
0.88794756,1.3424834,-4.0113697,0.17060792,-0.27837113,-0.94519967,0
1.6849327,-0.7252022,1.7569449,0.97818959,-0.06749779,0.19644138,0
-1.1728171,-3.7574477,1.0013444,-0.11848241,-0.95809889,0.26078409,0
2.9020047,2.6803086,-3.7987678,0.11848241,0.95809889,-0.26078409,0
2.3774006,-1.4940681,-2.7877836,0.17060792,-0.27837113,-0.94519967,0
-1.8360276,2.4709382,2.6842403,-0.17060792,0.27837113,0.94519967,0
2.9120564,2.9505899,-2.9179955,0.97818959,-0.06749779,0.19644138,0
-2.288974,-1.3696947,3.7743149,-0.17060792,0.27837113,0.94519967,0
-0.52989674,-0.56432676,3.753165,-0.17060792,0.27837113,0.94519967,0
1.7798054,2.0403707,2.0058393,0.97818959,-0.06749779,0.19644138,0
-1.139636,1.1115805,-4.3202486,-0.97818959,0.06749779,-0.19644138,0
-1.8369807,1.0884851,-0.1987735,-0.97818959,0.06749779,-0.19644138,0
2.4102423,0.39672422,-1.3370043,0.97818959,-0.06749779,0.19644138,0
0.63384509,1.5473825,-3.9510934,0.17060792,-0.27837113,-0.94519967,0
1.8446018,3.392308,-1.8665507,0.11848241,0.95809889,-0.26078409,0
2.4055171,-2.8322787,-2.5088902,0.17060792,-0.27837113,-0.94519967,0
-1.4567407,4.0344872,-1.5407929,0.11848241,0.95809889,-0.26078409,0
-1.8774862,1.9362303,0.15305775,-0.97818959,0.06749779,-0.19644138,0
2.5243783,3.4614079,-1.129225,0.11848241,0.95809889,-0.26078409,0
1.342234,3.835886,-0.58678794,0.11848241,0.95809889,-0.26078409,0
-2.2878497,0.50819182,3.1677673,-0.17060792,0.27837113,0.94519967,0
-0.03384161,3.9574358,2.4309444,-0.17060792,0.27837113,0.94519967,0
1.8220928,-1.4218875,0.94168711,0.97818959,-0.06749779,0.19644138,0
0.61232638,0.77085316,-3.7520554,0.17060792,-0.27837113,-0.94519967,0
2.2471216,2.9978004,-3.5195262,0.11848241,0.95809889,-0.26078409,0
2.0892749,1.6476657,-3.8758118,0.17060792,-0.27837113,-0.94519967,0
-2.6897244,-0.7587707,2.5518279,-0.97818959,0.06749779,-0.19644138,0
-2.2875504,1.2386882,2.9549787,-0.17060792,0.27837113,0.94519967,0
0.96278238,-4.60887,-1.2680569,-0.11848241,-0.95809889,0.26078409,0
0.34308124,4.1750994,0.34211111,0.11848241,0.95809889,-0.26078409,0
-1.113633,3.6928253,-2.0822291,0.11848241,0.95809889,-0.26078409,0
-0.32753968,0.036021709,3.7161222,-0.17060792,0.27837113,0.94519967,0
0.01380682,1.1866391,3.3172598,-0.17060792,0.27837113,0.94519967,0
-1.8338783,-3.8832593,0.47321439,-0.11848241,-0.95809889,0.26078409,0
-1.0221307,0.96403134,3.1324508,-0.17060792,0.27837113,0.94519967,0
0.39072084,2.9956284,-4.3698964,0.11848241,0.95809889,-0.26078409,0
0.48257875,3.0781329,-3.4420266,0.11848241,0.95809889,-0.26078409,0
-1.8633428,2.5451808,2.520082,-0.17060792,0.27837113,0.94519967,0
-1.0478625,-4.4619741,-1.1693916,-0.11848241,-0.95809889,0.26078409,0
-0.56463003,4.7138219,1.9602623,0.11848241,0.95809889,-0.26078409,0
-1.8060786,-1.4743133,3.8958585,-0.17060792,0.27837113,0.94519967,0
-2.5515602,-2.2613053,3.9603753,-0.17060792,0.27837113,0.94519967,0
-1.0627931,4.0299029,-1.3250678,0.11848241,0.95809889,-0.26078409,0
1.5923165,3.4431791,-1.8323371,0.11848241,0.95809889,-0.26078409,0
-0.99160457,-3.774941,1.0915289,-0.11848241,-0.95809889,0.26078409,0
1.7837278,1.6631625,1.7071433,0.97818959,-0.06749779,0.19644138,0
-0.60094643,-1.8220594,-3.3795807,0.17060792,-0.27837113,-0.94519967,0
0.79821396,4.1658936,2.7036552,-0.17060792,0.27837113,0.94519967,0
-2.5710704,-3.4103973,1.2856443,-0.11848241,-0.95809889,0.26078409,0
-2.2078068,0.1939218,1.0505614,-0.97818959,0.06749779,-0.19644138,0
-1.8704129,-1.4110475,3.7786775,-0.17060792,0.27837113,0.94519967,0
2.4946933,0.70057678,-3.384608,0.17060792,-0.27837113,-0.94519967,0
1.7095578,-4.7015781,-1.2880864,-0.11848241,-0.95809889,0.26078409,0
-2.7069519,-2.8153942,3.8465736,-0.11848241,-0.95809889,0.26078409,0
0.56770611,-4.4726696,-0.72888112,-0.11848241,-0.95809889,0.26078409,0
1.526309,1.4213482,3.1400511,0.97818959,-0.06749779,0.19644138,0
-0.80235481,-3.533052,2.0903718,-0.11848241,-0.95809889,0.26078409,0
-1.8295305,-3.0106163,3.6128418,-0.11848241,-0.95809889,0.26078409,0
1.7115175,-1.7370579,0.92787027,0.97818959,-0.06749779,0.19644138,0
1.9342477,2.9060664,1.5582256,0.97818959,-0.06749779,0.19644138,0
1.1296287,-3.9105554,-2.3701491,0.17060792,-0.27837113,-0.94519967,0
-2.6065559,-2.5699337,3.9617891,-0.17060792,0.27837113,0.94519967,0
-1.7283049,0.46046746,-1.4365546,-0.97818959,0.06749779,-0.19644138,0
2.688621,0.05880785,-3.3114157,0.17060792,-0.27837113,-0.94519967,0
-0.50967157,3.8834052,-1.5032864,0.11848241,0.95809889,-0.26078409,0
-1.6615863,1.0927138,2.9919658,-0.17060792,0.27837113,0.94519967,0
1.5319309,2.7386203,3.1440082,-0.17060792,0.27837113,0.94519967,0
-0.40923071,-1.7647035,4.1006408,-0.17060792,0.27837113,0.94519967,0
1.9716623,0.78813159,0.44627929,0.97818959,-0.06749779,0.19644138,0
-0.1969595,0.75767428,-4.0385361,0.17060792,-0.27837113,-0.94519967,0
1.2621837,-3.9835372,-2.2235942,0.17060792,-0.27837113,-0.94519967,0
-0.95287371,4.0539637,2.3288751,-0.17060792,0.27837113,0.94519967,0
-2.4584839,-2.9741879,3.67345,-0.11848241,-0.95809889,0.26078409,0
-1.7819511,-0.51902556,-1.7039282,-0.97818959,0.06749779,-0.19644138,0
1.9886506,-4.6486287,-1.1823438,-0.11848241,-0.95809889,0.26078409,0
0.20030743,-3.679914,1.9958308,-0.11848241,-0.95809889,0.26078409,0
0.054440841,-3.4686232,2.5374579,-0.11848241,-0.95809889,0.26078409,0
-1.3960148,0.73001575,-3.4066796,-0.97818959,0.06749779,-0.19644138,0
-0.32414234,3.1577992,-3.862957,0.11848241,0.95809889,-0.26078409,0
2.1706839,-2.1818368,-2.7722468,0.17060792,-0.27837113,-0.94519967,0
-1.8995068,0.20281243,-0.33629721,-0.97818959,0.06749779,-0.19644138,0
-2.7003779,-0.26943755,2.8576279,-0.97818959,0.06749779,-0.19644138,0
1.4819727,-4.3416715,-2.0512438,0.17060792,-0.27837113,-0.94519967,0
-1.606781,-2.4408784,4.09692,-0.17060792,0.27837113,0.94519967,0
-1.0662903,-3.8923047,0.48307514,-0.11848241,-0.95809889,0.26078409,0
0.10304117,-4.0998406,-2.4045484,0.17060792,-0.27837113,-0.94519967,0
-0.16663718,2.4291215,-4.4560108,0.17060792,-0.27837113,-0.94519967,0
0.96128833,-3.4124088,3.2003777,-0.11848241,-0.95809889,0.26078409,0
2.2133496,3.3613839,-1.9543965,0.11848241,0.95809889,-0.26078409,0
1.419559,-3.7609847,1.31848,0.97818959,-0.06749779,0.19644138,0
-0.37822056,-2.3886945,4.3610406,-0.17060792,0.27837113,0.94519967,0
1.247155,0.017273672,3.9811993,-0.17060792,0.27837113,0.94519967,0
0.13655901,4.3608246,0.56897402,0.11848241,0.95809889,-0.26078409,0
1.2355266,0.29753181,3.6516247,0.97818959,-0.06749779,0.19644138,0
-1.178299,-0.63294721,3.7286186,-0.17060792,0.27837113,0.94519967,0
-0.25864649,4.411953,2.2708015,-0.17060792,0.27837113,0.94519967,0
0.020532131,-3.2191908,3.6877074,-0.11848241,-0.95809889,0.26078409,0
-0.15706182,-4.2221489,-0.32125187,-0.11848241,-0.95809889,0.26078409,0
0.50524187,-4.6269178,-1.5432668,-0.11848241,-0.95809889,0.26078409,0
1.9547021,-4.2660513,-1.3695153,0.97818959,-0.06749779,0.19644138,0
2.7574306,0.17831421,-3.3211865,0.17060792,-0.27837113,-0.94519967,0
1.5102046,1.8555236,3.3365953,0.97818959,-0.06749779,0.19644138,0
0.21352816,-3.5272141,2.2850559,-0.11848241,-0.95809889,0.26078409,0
-1.6184822,0.88034761,-2.1296976,-0.97818959,0.06749779,-0.19644138,0
-1.6958241,-3.6778553,1.14586,-0.11848241,-0.95809889,0.26078409,0
0.79836845,-0.18789083,3.8100834,-0.17060792,0.27837113,0.94519967,0
-2.489677,-0.89924955,1.9303849,-0.97818959,0.06749779,-0.19644138,0
1.1318933,-1.8406754,3.6283779,0.97818959,-0.06749779,0.19644138,0
2.3244898,-0.60194111,-3.0481336,0.17060792,-0.27837113,-0.94519967,0
-1.8449452,-1.2197731,3.6697371,-0.17060792,0.27837113,0.94519967,0
0.54333353,-3.9210739,-2.457299,0.17060792,-0.27837113,-0.94519967,0
1.9572349,-4.7382045,-1.630149,0.97818959,-0.06749779,0.19644138,0
-0.22898597,-3.1530707,3.3747787,-0.11848241,-0.95809889,0.26078409,0
2.3680537,1.9418654,-0.64366865,0.97818959,-0.06749779,0.19644138,0
-1.4214759,-0.21516633,3.5237706,-0.17060792,0.27837113,0.94519967,0
-0.40071392,-3.0088291,-2.948277,0.17060792,-0.27837113,-0.94519967,0
0.14297819,2.5629661,2.9567008,-0.17060792,0.27837113,0.94519967,0
-1.3290961,3.4442422,-2.1816854,-0.97818959,0.06749779,-0.19644138,0
-1.8999515,0.03898406,-1.1370255,-0.97818959,0.06749779,-0.19644138,0
1.9296159,1.5230913,1.3310878,0.97818959,-0.06749779,0.19644138,0
-1.3344347,4.2133489,-0.77683187,0.11848241,0.95809889,-0.26078409,0
1.5402114,-0.81618786,-3.107933,0.17060792,-0.27837113,-0.94519967,0
1.7803553,3.8353117,-0.48192239,0.11848241,0.95809889,-0.26078409,0
-1.4744651,-4.3945732,-1.2787707,-0.11848241,-0.95809889,0.26078409,0
1.4923456,-0.76722431,-3.1670716,0.17060792,-0.27837113,-0.94519967,0
-1.1008401,0.53754723,-3.991745,0.17060792,-0.27837113,-0.94519967,0
1.5894864,1.3663487,2.5116115,0.97818959,-0.06749779,0.19644138,0
-0.48446178,4.4704976,0.81270528,0.11848241,0.95809889,-0.26078409,0
-0.52553797,-4.5097671,-1.5576892,-0.11848241,-0.95809889,0.26078409,0
-0.7486949,-4.4006662,-1.4612448,-0.11848241,-0.95809889,0.26078409,0
1.7248657,4.2179251,0.86079836,0.11848241,0.95809889,-0.26078409,0
2.1493638,1.6110712,-0.32806349,0.97818959,-0.06749779,0.19644138,0
-2.7349935,-1.094276,3.4474416,-0.17060792,0.27837113,0.94519967,0
-1.6440864,-3.480175,-3.0492096,0.17060792,-0.27837113,-0.94519967,0
-1.0889864,-2.9237418,-3.1026566,0.17060792,-0.27837113,-0.94519967,0
0.53708172,-4.6444879,-1.1901708,-0.11848241,-0.95809889,0.26078409,0
-1.0409849,0.33428335,-4.0807562,0.17060792,-0.27837113,-0.94519967,0
-2.1584456,3.1414618,1.2047997,-0.97818959,0.06749779,-0.19644138,0
0.76084828,-0.5584811,-3.4276242,0.17060792,-0.27837113,-0.94519967,0
-1.8607814,-3.3471086,-1.906266,-0.97818959,0.06749779,-0.19644138,0
-1.2892318,-0.13850021,3.5489786,-0.17060792,0.27837113,0.94519967,0
-2.6338043,0.11315894,2.502018,-0.97818959,0.06749779,-0.19644138,0
-0.11822915,2.8926802,-4.5951262,0.11848241,0.95809889,-0.26078409,0
-1.5345657,2.1790092,-2.0278647,-0.97818959,0.06749779,-0.19644138,0
-1.9127841,-2.3991871,3.9795079,-0.17060792,0.27837113,0.94519967,0
-2.3795743,-2.3346083,3.9085145,-0.17060792,0.27837113,0.94519967,0
-1.7640858,-4.5902615,-2.027339,-0.11848241,-0.95809889,0.26078409,0
0.58472919,-2.2107191,4.4001265,-0.17060792,0.27837113,0.94519967,0
2.2396054,2.1264384,-4.0035896,0.17060792,-0.27837113,-0.94519967,0
0.089766026,4.2528353,-0.031015396,0.11848241,0.95809889,-0.26078409,0
0.79488373,-3.9460208,-2.4755645,0.17060792,-0.27837113,-0.94519967,0
-0.52895439,-3.8727498,0.86551738,-0.11848241,-0.95809889,0.26078409,0
1.961171,-1.0075361,-0.047030807,0.97818959,-0.06749779,0.19644138,0
0.56474459,-3.8178377,1.6644583,-0.11848241,-0.95809889,0.26078409,0
0.39082599,0.82957494,-3.9796491,0.17060792,-0.27837113,-0.94519967,0
-2.1370969,1.2974914,0.59859002,-0.97818959,0.06749779,-0.19644138,0
0.078418732,4.7593718,2.137774,0.11848241,0.95809889,-0.26078409,0
1.970849,-3.635757,-2.1844301,0.17060792,-0.27837113,-0.94519967,0
2.4628379,3.6687012,-0.59717131,0.11848241,0.95809889,-0.26078409,0
1.0367868,4.0069227,0.081960678,0.11848241,0.95809889,-0.26078409,0
-1.4429343,1.3088734,3.0512433,-0.17060792,0.27837113,0.94519967,0
0.84202337,4.7779016,2.4425418,0.11848241,0.95809889,-0.26078409,0
2.6116147,0.44511509,-2.2554269,0.97818959,-0.06749779,0.19644138,0
-1.63344,-2.9528062,-2.760293,-0.97818959,0.06749779,-0.19644138,0
-0.47897339,4.8581862,2.1301508,0.11848241,0.95809889,-0.26078409,0
1.2468176,4.659626,2.6468251,-0.17060792,0.27837113,0.94519967,0
-0.4137888,-4.6266069,-1.8747771,-0.11848241,-0.95809889,0.26078409,0
-1.9658666,-1.0573831,-0.87640655,-0.97818959,0.06749779,-0.19644138,0
1.0899935,-3.1182899,-2.668798,0.17060792,-0.27837113,-0.94519967,0
-2.2887468,-3.7349036,-0.56532454,-0.97818959,0.06749779,-0.19644138,0
1.1373796,1.7697835,-3.915627,0.17060792,-0.27837113,-0.94519967,0
-0.79752553,3.9991918,-0.7477057,0.11848241,0.95809889,-0.26078409,0
1.1084976,4.2056227,0.89081836,0.11848241,0.95809889,-0.26078409,0
2.7043138,2.0504911,-2.3789413,0.97818959,-0.06749779,0.19644138,0
0.0010764599,-4.0636892,0.35108471,-0.11848241,-0.95809889,0.26078409,0
0.8749845,-1.9519495,4.5178452,-0.17060792,0.27837113,0.94519967,0
-2.5930853,-2.1723299,1.514153,-0.97818959,0.06749779,-0.19644138,0
1.6710286,-0.71570462,2.0495276,0.97818959,-0.06749779,0.19644138,0
-1.7987564,-1.824627,-2.3514063,-0.97818959,0.06749779,-0.19644138,0
0.76736856,4.3537931,0.93662333,0.11848241,0.95809889,-0.26078409,0
1.4990227,-0.76530123,-3.2311056,0.17060792,-0.27837113,-0.94519967,0
1.363976,4.4338169,1.3028691,0.11848241,0.95809889,-0.26078409,0
0.0029902458,-3.7515893,-2.4975576,0.17060792,-0.27837113,-0.94519967,0
2.4500575,3.1431637,-0.48441005,0.97818959,-0.06749779,0.19644138,0
-1.8005009,-1.7619473,3.8753192,-0.17060792,0.27837113,0.94519967,0
-0.13586904,3.4227953,-2.5269384,0.11848241,0.95809889,-0.26078409,0
-0.22809434,3.4971213,-2.2201624,0.11848241,0.95809889,-0.26078409,0
-1.5537658,-1.049351,-2.4253397,-0.97818959,0.06749779,-0.19644138,0
-1.7950063,2.7145293,-0.48698896,-0.97818959,0.06749779,-0.19644138,0
-2.4671569,-3.2818923,2.3472576,-0.11848241,-0.95809889,0.26078409,0
1.7789345,4.4942794,2.1651082,0.11848241,0.95809889,-0.26078409,0
-2.2392726,4.3207588,1.9884717,-0.97818959,0.06749779,-0.19644138,0
3.0102482,2.6226699,-3.4475012,0.97818959,-0.06749779,0.19644138,0
-1.4643807,-2.6686013,-3.2736316,0.17060792,-0.27837113,-0.94519967,0
1.6299963,3.5900764,2.8676975,0.97818959,-0.06749779,0.19644138,0
-1.3455808,1.8087473,-2.6561725,-0.97818959,0.06749779,-0.19644138,0
2.2696037,-0.015640736,-1.5019988,0.97818959,-0.06749779,0.19644138,0
0.61284995,-0.60385919,-3.3545668,0.17060792,-0.27837113,-0.94519967,0
0.38586283,-0.57423377,-3.4250932,0.17060792,-0.27837113,-0.94519967,0
-0.90982938,0.010395333,-3.9252024,0.17060792,-0.27837113,-0.94519967,0
-1.6270313,-1.060591,-2.1875875,-0.97818959,0.06749779,-0.19644138,0
1.4827838,3.8218658,2.8639898,-0.17060792,0.27837113,0.94519967,0
0.064638615,-0.61754638,-3.5256195,0.17060792,-0.27837113,-0.94519967,0
-1.065155,-3.9876235,0.076098204,-0.11848241,-0.95809889,0.26078409,0
2.6173155,1.0028794,-2.4064569,0.97818959,-0.06749779,0.19644138,0
-2.4017477,-0.16385341,3.2208772,-0.17060792,0.27837113,0.94519967,0
-2.7325106,-2.7010632,2.5868657,-0.97818959,0.06749779,-0.19644138,0
-0.19666052,0.90444821,3.3912473,-0.17060792,0.27837113,0.94519967,0
0.084577747,-3.4267607,2.6909504,-0.11848241,-0.95809889,0.26078409,0
1.5328784,0.26946932,3.1075287,0.97818959,-0.06749779,0.19644138,0
-2.3038783,-2.5876212,0.34486794,-0.97818959,0.06749779,-0.19644138,0
2.1364734,1.0654918,-0.076422691,0.97818959,-0.06749779,0.19644138,0
-1.6517018,2.8547111,-1.4090806,-0.97818959,0.06749779,-0.19644138,0
-0.26732802,3.8884878,-0.96626759,0.11848241,0.95809889,-0.26078409,0
-2.0846426,-1.0725149,-0.083575726,-0.97818959,0.06749779,-0.19644138,0
-0.29569197,1.2836707,-4.2116423,0.17060792,-0.27837113,-0.94519967,0
-0.062306881,1.1211375,-3.9434893,0.17060792,-0.27837113,-0.94519967,0
0.54221392,3.3839319,2.877583,-0.17060792,0.27837113,0.94519967,0
-1.0579264,-0.14505696,3.5416701,-0.17060792,0.27837113,0.94519967,0
1.1173249,-3.2598491,3.8054466,-0.11848241,-0.95809889,0.26078409,0
0.71095753,-3.8615813,1.0963156,-0.11848241,-0.95809889,0.26078409,0
-1.8260729,-2.0779314,-1.5227605,-0.97818959,0.06749779,-0.19644138,0
1.2781198,0.086396366,3.547585,0.97818959,-0.06749779,0.19644138,0
-1.1825125,-3.6976056,1.3866377,-0.11848241,-0.95809889,0.26078409,0
-0.34494424,-4.3934679,-0.76125336,-0.11848241,-0.95809889,0.26078409,0
2.0653639,2.1454344,0.74102497,0.97818959,-0.06749779,0.19644138,0
-0.6659677,2.3727202,-4.5674534,0.17060792,-0.27837113,-0.94519967,0
-1.3445668,1.412357,-3.3200915,-0.97818959,0.06749779,-0.19644138,0
-1.0037448,0.086872101,3.5925498,-0.17060792,0.27837113,0.94519967,0
-1.5728807,-3.5994329,-2.9804749,0.17060792,-0.27837113,-0.94519967,0
2.174144,-1.2289362,-1.3433065,0.97818959,-0.06749779,0.19644138,0
-1.734514,-4.1002607,-0.47699046,-0.11848241,-0.95809889,0.26078409,0
-0.88419318,-4.3413982,-1.0047774,-0.11848241,-0.95809889,0.26078409,0
-0.91663456,4.1114588,2.2999799,-0.17060792,0.27837113,0.94519967,0
0.5223794,4.0732269,2.6713743,-0.17060792,0.27837113,0.94519967,0
-1.788255,2.5770769,-0.68727303,-0.97818959,0.06749779,-0.19644138,0
1.8381338,2.1464787,2.2704239,0.97818959,-0.06749779,0.19644138,0
2.455929,2.8646393,-0.72521329,0.97818959,-0.06749779,0.19644138,0
-1.8936808,3.509011,2.2268705,-0.17060792,0.27837113,0.94519967,0
0.63214636,3.8616128,2.6231103,-0.17060792,0.27837113,0.94519967,0
1.7793539,2.9118507,2.568326,0.97818959,-0.06749779,0.19644138,0
-1.077436,3.9599552,-0.99338937,0.11848241,0.95809889,-0.26078409,0
-1.7661216,1.2762578,-1.2793591,-0.97818959,0.06749779,-0.19644138,0
-0.50905794,-3.4302213,2.6728776,-0.11848241,-0.95809889,0.26078409,0
0.99561143,-3.1035686,4.1327534,-0.11848241,-0.95809889,0.26078409,0
1.5725553,2.139122,-4.1410875,0.17060792,-0.27837113,-0.94519967,0
1.930898,-4.1013336,-2.0522065,0.17060792,-0.27837113,-0.94519967,0
1.7596703,-4.7001562,-0.8654573,-0.11848241,-0.95809889,0.26078409,0
-2.3765471,0.15132284,2.0846767,-0.97818959,0.06749779,-0.19644138,0
0.80873299,2.6455979,3.1351004,-0.17060792,0.27837113,0.94519967,0
-1.8280952,-2.503659,-1.7242433,-0.97818959,0.06749779,-0.19644138,0
-1.7868924,-0.40517211,-1.2314675,-0.97818959,0.06749779,-0.19644138,0
2.2033744,0.02944994,-3.2237258,0.17060792,-0.27837113,-0.94519967,0
-2.7810655,-2.8033402,3.4794977,-0.11848241,-0.95809889,0.26078409,0
-1.6010659,2.4795046,2.7875454,-0.17060792,0.27837113,0.94519967,0
-0.10554314,-4.1149535,-2.5759242,0.17060792,-0.27837113,-0.94519967,0
0.74665463,2.8885081,-4.0905042,0.11848241,0.95809889,-0.26078409,0
2.0360627,2.7106357,-4.0713644,0.17060792,-0.27837113,-0.94519967,0
0.064795732,-2.9358315,4.3746672,-0.11848241,-0.95809889,0.26078409,0
-0.85353613,2.8608561,-4.46632,-0.97818959,0.06749779,-0.19644138,0
1.6736902,3.6051543,-1.0734849,0.11848241,0.95809889,-0.26078409,0
1.80028,-3.4304948,0.0018309355,0.97818959,-0.06749779,0.19644138,0
-2.4749041,0.98831367,2.9935012,-0.17060792,0.27837113,0.94519967,0
-0.27996111,-2.2687323,-3.1569302,0.17060792,-0.27837113,-0.94519967,0
-1.7126305,4.1474705,-0.6896615,-0.97818959,0.06749779,-0.19644138,0
-2.5908909,1.2232113,2.7004035,-0.97818959,0.06749779,-0.19644138,0
2.179903,-0.65785551,-3.0181887,0.17060792,-0.27837113,-0.94519967,0
1.695733,-3.6171865,0.93344283,0.97818959,-0.06749779,0.19644138,0
0.69501066,-4.9554119,-2.1969013,-0.11848241,-0.95809889,0.26078409,0
0.024018288,3.93578,-0.8430984,0.11848241,0.95809889,-0.26078409,0
1.0557287,2.8775342,-4.3263378,0.11848241,0.95809889,-0.26078409,0
0.19713807,0.64646447,3.4788303,-0.17060792,0.27837113,0.94519967,0
-0.69928432,-1.3471485,3.88416,-0.17060792,0.27837113,0.94519967,0
-0.19480181,-3.6244638,-2.746877,0.17060792,-0.27837113,-0.94519967,0
-1.7361922,0.46496129,3.290875,-0.17060792,0.27837113,0.94519967,0
-2.5731082,0.64724278,2.7820177,-0.97818959,0.06749779,-0.19644138,0
1.7490807,2.2241771,-3.9968879,0.17060792,-0.27837113,-0.94519967,0
-0.23001719,-3.267117,-2.7063756,0.17060792,-0.27837113,-0.94519967,0
-2.0571589,-0.8214916,-0.33188498,-0.97818959,0.06749779,-0.19644138,0
-0.99749041,4.238245,2.2057443,-0.17060792,0.27837113,0.94519967,0
-0.11825895,-3.7085109,-2.6825018,0.17060792,-0.27837113,-0.94519967,0
0.39274788,-2.7667079,-2.8974824,0.17060792,-0.27837113,-0.94519967,0
-0.052112103,-1.7249041,4.1560411,-0.17060792,0.27837113,0.94519967,0
-1.9469843,4.5821223,1.1415532,-0.97818959,0.06749779,-0.19644138,0
1.3906996,2.0434864,3.3103359,-0.17060792,0.27837113,0.94519967,0
0.66105223,4.5793786,1.9180865,0.11848241,0.95809889,-0.26078409,0
2.0571256,3.2376804,-2.5757194,0.11848241,0.95809889,-0.26078409,0
-0.65973997,4.4364252,0.94070864,0.11848241,0.95809889,-0.26078409,0
-2.0392764,-1.7832642,-0.46114087,-0.97818959,0.06749779,-0.19644138,0
1.3793516,3.9056313,-0.4008286,0.11848241,0.95809889,-0.26078409,0
2.4573231,-0.23118591,-3.1109419,0.17060792,-0.27837113,-0.94519967,0
1.4236424,-2.2994173,1.9328142,0.97818959,-0.06749779,0.19644138,0
2.6176734,3.3571448,-1.8110826,0.97818959,-0.06749779,0.19644138,0
-0.48186779,-4.00142,0.6882627,-0.11848241,-0.95809889,0.26078409,0
1.6885326,1.1538789,2.0799329,0.97818959,-0.06749779,0.19644138,0
0.69000292,-4.5836658,-1.2114933,-0.11848241,-0.95809889,0.26078409,0
-0.41958284,3.963347,2.3805857,-0.17060792,0.27837113,0.94519967,0
-1.6474712,1.6725271,-1.2071209,-0.97818959,0.06749779,-0.19644138,0
-1.2538605,0.5201813,-3.7504878,-0.97818959,0.06749779,-0.19644138,0
-1.3384745,0.044803172,-3.0035086,-0.97818959,0.06749779,-0.19644138,0
1.677597,1.9505925,-3.9032989,0.17060792,-0.27837113,-0.94519967,0
-1.9670408,-1.7688718,-0.96809518,-0.97818959,0.06749779,-0.19644138,0
-0.5315367,-3.3402855,3.0189838,-0.11848241,-0.95809889,0.26078409,0
-1.0376112,-1.1327955,3.9242377,-0.17060792,0.27837113,0.94519967,0
1.0023662,3.5033081,-2.0698798,0.11848241,0.95809889,-0.26078409,0
-0.079240561,2.9457896,-4.3129926,0.11848241,0.95809889,-0.26078409,0
-1.3037815,2.131814,-3.0565734,-0.97818959,0.06749779,-0.19644138,0
1.4672956,1.3696375,3.2411964,0.97818959,-0.06749779,0.19644138,0
-1.2021487,2.7619746,-3.7348907,-0.97818959,0.06749779,-0.19644138,0
0.39390087,-4.0024867,-2.4522619,0.17060792,-0.27837113,-0.94519967,0
0.50099635,0.94910526,3.5540051,-0.17060792,0.27837113,0.94519967,0
2.0905156,-0.92460573,-0.25004613,0.97818959,-0.06749779,0.19644138,0
2.4509475,2.8028789,-3.7408888,0.11848241,0.95809889,-0.26078409,0
-0.72159576,3.5509448,-2.3526068,0.11848241,0.95809889,-0.26078409,0
1.4389417,3.2847967,-2.4899817,0.11848241,0.95809889,-0.26078409,0
-1.2734294,4.3781447,-0.11343455,0.11848241,0.95809889,-0.26078409,0
-2.4290018,0.78166437,2.1450391,-0.97818959,0.06749779,-0.19644138,0
-2.6160841,-1.066484,2.4264674,-0.97818959,0.06749779,-0.19644138,0
-0.39171505,-0.29815131,-3.6629074,0.17060792,-0.27837113,-0.94519967,0
-1.4427304,4.8329849,1.8297596,0.11848241,0.95809889,-0.26078409,0
-2.1695182,2.8088267,2.4486761,-0.17060792,0.27837113,0.94519967,0
-1.6268113,0.99832225,3.2152455,-0.17060792,0.27837113,0.94519967,0
-0.11466384,-2.0834653,4.2840991,-0.17060792,0.27837113,0.94519967,0
-1.1802909,1.3058492,-3.9946847,-0.97818959,0.06749779,-0.19644138,0
2.3228402,0.57117724,-3.4832213,0.17060792,-0.27837113,-0.94519967,0
-2.1320579,-4.1335154,-0.70774627,-0.11848241,-0.95809889,0.26078409,0
0.47029638,-4.7189355,-1.5248537,-0.11848241,-0.95809889,0.26078409,0
0.72133964,-3.4249849,3.0228114,-0.11848241,-0.95809889,0.26078409,0
0.39877319,4.3048816,0.34215307,0.11848241,0.95809889,-0.26078409,0
1.1550024,-4.4496679,-0.83229017,-0.11848241,-0.95809889,0.26078409,0
-1.8279911,1.169673,-0.86247814,-0.97818959,0.06749779,-0.19644138,0
-1.684016,3.5289364,-1.0083536,-0.97818959,0.06749779,-0.19644138,0
-0.44120979,-2.1109185,4.2779193,-0.17060792,0.27837113,0.94519967,0
-0.76959574,3.8322506,-1.6133578,0.11848241,0.95809889,-0.26078409,0
-1.9038951,-0.19676518,3.4800191,-0.17060792,0.27837113,0.94519967,0
-0.69170237,-4.5763817,-1.8993599,-0.11848241,-0.95809889,0.26078409,0
-1.7849159,-3.9267764,-2.8411839,-0.97818959,0.06749779,-0.19644138,0
1.9376262,1.4280767,-3.8148322,0.17060792,-0.27837113,-0.94519967,0
-2.1696906,2.561718,2.5044522,-0.17060792,0.27837113,0.94519967,0
-1.6093259,-1.1681652,-2.9671402,-0.97818959,0.06749779,-0.19644138,0
2.0021186,3.5686266,1.0050321,0.97818959,-0.06749779,0.19644138,0
-0.2161845,3.1262884,-3.9487841,0.11848241,0.95809889,-0.26078409,0
-1.6635196,-0.68194723,3.6097889,-0.17060792,0.27837113,0.94519967,0
-0.54267073,0.70015788,3.4364657,-0.17060792,0.27837113,0.94519967,0
0.96885371,-3.8795581,1.1519854,-0.11848241,-0.95809889,0.26078409,0
-1.4962087,-3.8111215,0.78933525,-0.11848241,-0.95809889,0.26078409,0
-2.0518346,-1.9336965,-0.12043858,-0.97818959,0.06749779,-0.19644138,0
1.6868172,-3.1470377,0.29975152,0.97818959,-0.06749779,0.19644138,0
1.2211187,3.408766,-2.5817416,0.11848241,0.95809889,-0.26078409,0
-0.4753263,-4.0463023,0.20030546,-0.11848241,-0.95809889,0.26078409,0
1.7216023,-3.7450187,0.4264189,0.97818959,-0.06749779,0.19644138,0
1.8668548,1.4324424,-3.816256,0.17060792,-0.27837113,-0.94519967,0
2.3982804,-1.4169538,-2.6572552,0.97818959,-0.06749779,0.19644138,0
-1.9859464,-1.7843385,-0.78649354,-0.97818959,0.06749779,-0.19644138,0
0.11387157,4.4025087,2.3664999,-0.17060792,0.27837113,0.94519967,0
-1.9402794,-3.1672301,2.5767212,-0.11848241,-0.95809889,0.26078409,0
1.4707048,-0.36136174,-3.3335445,0.17060792,-0.27837113,-0.94519967,0
-1.3341868,0.74629176,-3.2412286,-0.97818959,0.06749779,-0.19644138,0
-0.11291122,4.122663,0.12895083,0.11848241,0.95809889,-0.26078409,0
-0.97995901,-0.10415734,-3.9357033,0.17060792,-0.27837113,-0.94519967,0
-2.0082862,-1.0047841,3.5953119,-0.17060792,0.27837113,0.94519967,0
-0.29136038,-2.8115308,-2.8416247,0.17060792,-0.27837113,-0.94519967,0
-0.96234238,-3.2557964,3.3229632,-0.11848241,-0.95809889,0.26078409,0
-0.40636301,-2.4507308,-3.0814748,0.17060792,-0.27837113,-0.94519967,0
-1.8757627,-3.6236715,-1.8200791,-0.97818959,0.06749779,-0.19644138,0
1.3752999,-2.4934189,2.9176338,0.97818959,-0.06749779,0.19644138,0
-0.019108772,-4.2083917,-2.4141054,0.17060792,-0.27837113,-0.94519967,0
1.3993192,-3.1233404,2.4422188,0.97818959,-0.06749779,0.19644138,0
-2.6506491,-0.79934096,3.4350557,-0.17060792,0.27837113,0.94519967,0
1.2642024,-3.4840074,2.7160134,0.97818959,-0.06749779,0.19644138,0
1.0982909,-4.749372,-2.1660786,0.17060792,-0.27837113,-0.94519967,0
1.5205008,-0.37970042,2.4479127,0.97818959,-0.06749779,0.19644138,0
-0.34777308,-2.8467491,-2.9366796,0.17060792,-0.27837113,-0.94519967,0
-1.5742073,-4.5146999,-2.1457045,-0.11848241,-0.95809889,0.26078409,0
-2.5658078,-3.1264315,2.6403425,-0.11848241,-0.95809889,0.26078409,0
0.78097391,-2.4112902,-2.9008238,0.17060792,-0.27837113,-0.94519967,0
2.6626201,0.98363471,-2.7382207,0.97818959,-0.06749779,0.19644138,0
2.5412908,-0.8874445,-2.9291837,0.17060792,-0.27837113,-0.94519967,0
-2.8013589,-2.2575798,3.3661551,-0.97818959,0.06749779,-0.19644138,0
-1.2372558,1.9337687,-3.0754271,-0.97818959,0.06749779,-0.19644138,0
-2.1768031,-1.0640796,0.019436836,-0.97818959,0.06749779,-0.19644138,0
2.3692026,-0.21755767,-3.1737878,0.17060792,-0.27837113,-0.94519967,0
-0.57088232,3.1182804,-4.2558417,0.11848241,0.95809889,-0.26078409,0
-1.6785178,1.8403943,-0.79685026,-0.97818959,0.06749779,-0.19644138,0
-2.6613612,0.30185485,3.0843902,-0.17060792,0.27837113,0.94519967,0
-1.2178463,0.80730301,-3.406992,-0.97818959,0.06749779,-0.19644138,0
0.93061185,1.5108689,-3.9041517,0.17060792,-0.27837113,-0.94519967,0
2.0032806,1.9580621,0.82219028,0.97818959,-0.06749779,0.19644138,0
2.1947014,-1.1483164,-0.64420164,0.97818959,-0.06749779,0.19644138,0
2.0834317,-2.4868975,-2.6448379,0.17060792,-0.27837113,-0.94519967,0
-2.1203744,0.10672688,3.2682157,-0.17060792,0.27837113,0.94519967,0
1.5919672,3.8894808,-0.41484809,0.11848241,0.95809889,-0.26078409,0
-1.1238558,3.0982265,-3.7937255,-0.97818959,0.06749779,-0.19644138,0
-2.7361319,-2.4875484,2.0874002,-0.97818959,0.06749779,-0.19644138,0
-1.7533317,-2.7438231,4.1315389,-0.17060792,0.27837113,0.94519967,0
2.1641784,2.8170791,-4.1572256,0.11848241,0.95809889,-0.26078409,0
-1.3968019,4.733366,1.2403805,0.11848241,0.95809889,-0.26078409,0
2.0413971,0.51525295,0.045353174,0.97818959,-0.06749779,0.19644138,0
-2.586971,-2.2847226,3.8250709,-0.17060792,0.27837113,0.94519967,0
1.5446441,-1.6625139,-3.0393343,0.17060792,-0.27837113,-0.94519967,0
1.9145806,-1.142134,-3.0045192,0.17060792,-0.27837113,-0.94519967,0
0.17465401,-3.2548001,-2.6627617,0.17060792,-0.27837113,-0.94519967,0
-1.7760382,-4.0034757,-0.18014622,-0.11848241,-0.95809889,0.26078409,0
-1.4513699,0.46385705,-2.59725,-0.97818959,0.06749779,-0.19644138,0
1.4860454,-0.047631502,-3.5197661,0.17060792,-0.27837113,-0.94519967,0
1.3705134,-3.423614,2.434422,0.97818959,-0.06749779,0.19644138,0
-1.0613914,3.2157843,-3.8273439,0.11848241,0.95809889,-0.26078409,0
-0.44478488,2.3328962,-4.371295,0.17060792,-0.27837113,-0.94519967,0
-0.14592266,-3.0968604,3.9692693,-0.11848241,-0.95809889,0.26078409,0
-2.6432745,-2.901114,3.2773809,-0.11848241,-0.95809889,0.26078409,0
1.6428981,-3.3154142,0.87441289,0.97818959,-0.06749779,0.19644138,0
-1.5924892,1.6562195,-1.337531,-0.97818959,0.06749779,-0.19644138,0
1.9678555,2.5924301,-4.135613,0.17060792,-0.27837113,-0.94519967,0
1.9335113,2.3039174,1.2794194,0.97818959,-0.06749779,0.19644138,0
0.091099024,3.9103322,-0.93129849,0.11848241,0.95809889,-0.26078409,0
2.1935363,-4.5971885,-1.9300534,0.97818959,-0.06749779,0.19644138,0
-1.1354811,4.4075413,-0.023749828,0.11848241,0.95809889,-0.26078409,0
2.029613,1.3947691,0.12597418,0.97818959,-0.06749779,0.19644138,0
0.64048839,-4.1630359,0.58443356,-0.11848241,-0.95809889,0.26078409,0
-0.016100407,-3.7487731,1.3469019,-0.11848241,-0.95809889,0.26078409,0
0.76675034,-4.240984,-0.012974739,-0.11848241,-0.95809889,0.26078409,0
1.6153691,-4.2518754,0.2825489,-0.11848241,-0.95809889,0.26078409,0
1.3601871,-3.4870694,-2.3318839,0.17060792,-0.27837113,-0.94519967,0
1.7351525,4.1440973,0.51384544,0.11848241,0.95809889,-0.26078409,0
1.5266087,-2.3288655,1.8108946,0.97818959,-0.06749779,0.19644138,0
1.2145219,-2.8130667,3.5143712,0.97818959,-0.06749779,0.19644138,0
-2.936949,-2.7943597,3.5055058,-0.11848241,-0.95809889,0.26078409,0
1.1261234,3.2383308,-2.7562263,0.11848241,0.95809889,-0.26078409,0
-2.1210413,1.1921591,0.81058013,-0.97818959,0.06749779,-0.19644138,0
-1.2171118,0.6920467,-3.4231992,-0.97818959,0.06749779,-0.19644138,0
0.28399181,-0.078184187,3.7568321,-0.17060792,0.27837113,0.94519967,0
0.80038691,-2.5466881,-2.899447,0.17060792,-0.27837113,-0.94519967,0
0.28330708,1.0437218,3.4884427,-0.17060792,0.27837113,0.94519967,0
-2.2381721,1.7341037,1.485019,-0.97818959,0.06749779,-0.19644138,0
-0.30887938,-4.3085604,-2.4126801,0.17060792,-0.27837113,-0.94519967,0
0.11808395,-3.102648,4.2772493,-0.11848241,-0.95809889,0.26078409,0
0.42149901,-4.0019531,0.82984185,-0.11848241,-0.95809889,0.26078409,0
-1.0162761,4.3498473,0.55063581,0.11848241,0.95809889,-0.26078409,0
