4.0121226,-1.0262953,1.8698918,0.26638842,-0.32591453,0.90709257,0
-2.3012438,2.5386486,1.2657444,-0.80121565,0.44827735,0.39635944,0
3.3921003,-1.8165767,1.7181413,0.26638842,-0.32591453,0.90709257,0
0.98386359,-1.544525,2.5716963,0.26638842,-0.32591453,0.90709257,0
1.2016759,-1.0263629,-4.092782,-0.26638842,0.32591453,-0.90709257,0
-3.7224364,-0.00024533272,-0.33393502,-0.53580838,-0.83236235,-0.14171195,0
-0.096062303,-2.6290448,1.8647953,-0.53580838,-0.83236235,-0.14171195,0
1.2182136,-1.5936193,2.4183757,0.26638842,-0.32591453,0.90709257,0
1.3098729,-0.5841592,-3.9662342,-0.26638842,0.32591453,-0.90709257,0
2.0400434,0.79114616,-3.5756509,-0.26638842,0.32591453,-0.90709257,0
1.4646857,-2.9408853,1.8396075,0.26638842,-0.32591453,0.90709257,0
0.096814394,1.9285848,-2.7476373,-0.26638842,0.32591453,-0.90709257,0
2.8393755,-1.5790696,-1.1908102,0.80121565,-0.44827735,-0.39635944,0
-4.3775373,1.2830679,-1.4429146,-0.80121565,0.44827735,0.39635944,0
2.6186752,0.41169229,1.9093966,0.53580838,0.83236235,0.14171195,0
0.71788073,2.1988673,-1.0050672,0.53580838,0.83236235,0.14171195,0
-0.41894436,-0.53424346,3.1394379,0.26638842,-0.32591453,0.90709257,0
1.7302594,-2.120908,-2.973613,0.80121565,-0.44827735,-0.39635944,0
1.0209945,1.8914003,-1.3274579,0.53580838,0.83236235,0.14171195,0
1.7705288,0.89960456,2.4922929,0.53580838,0.83236235,0.14171195,0
1.9514818,1.1480899,0.12944067,0.53580838,0.83236235,0.14171195,0
-2.8971405,2.6709366,-0.22701037,-0.80121565,0.44827735,0.39635944,0
1.1200018,-1.8360096,2.3567355,0.26638842,-0.32591453,0.90709257,0
3.7852952,0.32448769,-1.4468307,0.53580838,0.83236235,0.14171195,0
0.46761191,-2.062978,-3.7891548,-0.53580838,-0.83236235,-0.14171195,0
0.74300289,-2.0825305,2.2567699,0.26638842,-0.32591453,0.90709257,0
1.3344238,0.46870267,-3.636703,-0.26638842,0.32591453,-0.90709257,0
4.1156254,-1.4957726,1.342514,0.80121565,-0.44827735,-0.39635944,0
2.7001173,-1.0398052,2.1034312,0.26638842,-0.32591453,0.90709257,0
2.0873225,-2.2016902,-1.9924922,0.80121565,-0.44827735,-0.39635944,0
2.3144169,-3.81565,0.17409146,-0.53580838,-0.83236235,-0.14171195,0
-3.9590721,0.8241626,-0.037811518,-0.80121565,0.44827735,0.39635944,0
-2.6646559,1.8662164,1.2002203,-0.80121565,0.44827735,0.39635944,0
-2.021518,3.4778702,0.66937268,-0.80121565,0.44827735,0.39635944,0
-0.60704124,-1.6180934,2.9607713,0.26638842,-0.32591453,0.90709257,0
-3.2406583,2.120137,-0.13438845,-0.80121565,0.44827735,0.39635944,0
4.0824218,-1.4304053,0.82167816,0.80121565,-0.44827735,-0.39635944,0
-3.0260701,2.0744567,0.39437175,-0.80121565,0.44827735,0.39635944,0
-3.1556685,-0.46345901,0.95349693,-0.53580838,-0.83236235,-0.14171195,0
2.8644133,-0.48015702,-2.5003324,0.80121565,-0.44827735,-0.39635944,0
-2.3565903,2.1326845,1.7931594,-0.80121565,0.44827735,0.39635944,0
2.4593625,-0.22876751,-3.5642867,0.80121565,-0.44827735,-0.39635944,0
-2.722852,3.7613974,-0.97920591,-0.80121565,0.44827735,0.39635944,0
-4.1392317,0.82261252,-1.6987841,-0.26638842,0.32591453,-0.90709257,0
-1.6487586,3.3270824,1.3855799,0.53580838,0.83236235,0.14171195,0
-2.1569431,-0.21596429,-2.7706604,-0.26638842,0.32591453,-0.90709257,0
3.7896981,-1.5601304,0.81199896,0.80121565,-0.44827735,-0.39635944,0
-3.2981348,-0.71134102,2.1495061,-0.53580838,-0.83236235,-0.14171195,0
-3.2615638,1.6523535,0.15321398,-0.80121565,0.44827735,0.39635944,0
1.2390261,1.4456302,1.5270269,0.53580838,0.83236235,0.14171195,0
-0.90616876,-2.0035837,0.41743648,-0.53580838,-0.83236235,-0.14171195,0
0.62233317,-2.4007387,-2.967514,-0.53580838,-0.83236235,-0.14171195,0
-1.5519292,-1.3133129,-0.08639276,-0.53580838,-0.83236235,-0.14171195,0
1.5754557,-0.31547987,-3.7805343,-0.26638842,0.32591453,-0.90709257,0
1.5738454,-3.0845978,-1.4293816,-0.53580838,-0.83236235,-0.14171195,0
-1.7556341,0.26789299,-2.6877911,-0.26638842,0.32591453,-0.90709257,0
-1.808392,2.0163755,3.087534,-0.80121565,0.44827735,0.39635944,0
1.3468246,1.7667664,-1.4849199,0.53580838,0.83236235,0.14171195,0
0.45349681,1.3533493,3.5937757,0.26638842,-0.32591453,0.90709257,0
2.3389463,0.47933286,2.4997838,0.53580838,0.83236235,0.14171195,0
2.8386967,-1.6469517,-1.1253982,0.80121565,-0.44827735,-0.39635944,0
-2.2668004,0.8052175,3.3431029,-0.80121565,0.44827735,0.39635944,0
-2.2445717,2.5239675,1.2700533,-0.80121565,0.44827735,0.39635944,0
3.7568135,-1.126053,1.8319355,0.26638842,-0.32591453,0.90709257,0
-1.6770947,2.9550095,2.106523,-0.80121565,0.44827735,0.39635944,0
3.6879783,0.11999297,-0.31927562,0.53580838,0.83236235,0.14171195,0
1.226573,-2.6945465,-2.5654111,-0.53580838,-0.83236235,-0.14171195,0
-0.14823735,-1.6666005,-3.3207586,-0.53580838,-0.83236235,-0.14171195,0
-0.38757697,2.2067163,2.4503541,0.53580838,0.83236235,0.14171195,0
-2.2350106,0.60066891,3.65729,-0.80121565,0.44827735,0.39635944,0
1.8773975,-3.3009732,1.477271,0.26638842,-0.32591453,0.90709257,0
1.5260484,-2.5008798,-2.7378976,0.80121565,-0.44827735,-0.39635944,0
-1.2102146,2.8652689,2.3452384,0.53580838,0.83236235,0.14171195,0
-3.358438,2.2315361,-0.29195523,-0.80121565,0.44827735,0.39635944,0
-1.1420188,3.2902431,-0.66614354,0.53580838,0.83236235,0.14171195,0
-0.19978377,2.2731712,1.8621576,0.53580838,0.83236235,0.14171195,0
-1.068017,1.8743433,4.3659005,-0.80121565,0.44827735,0.39635944,0
-1.1652591,-0.63904238,3.4717097,0.26638842,-0.32591453,0.90709257,0
-0.24335825,2.1388209,2.9339299,0.53580838,0.83236235,0.14171195,0
-2.0736473,1.6292048,2.7160184,-0.80121565,0.44827735,0.39635944,0
2.4352279,-3.9432201,0.67870706,0.80121565,-0.44827735,-0.39635944,0
0.26916289,1.8439621,2.5916383,0.53580838,0.83236235,0.14171195,0
1.5342321,-1.3585531,2.3807063,0.26638842,-0.32591453,0.90709257,0
-1.6509571,2.6623464,-1.9727125,-0.26638842,0.32591453,-0.90709257,0
0.55454922,0.68690968,-3.2896526,-0.26638842,0.32591453,-0.90709257,0
-2.9922888,0.66340381,1.9107103,-0.80121565,0.44827735,0.39635944,0
1.4531689,-0.57233346,-4.0398769,-0.26638842,0.32591453,-0.90709257,0
2.607954,-0.37553233,2.3920794,0.26638842,-0.32591453,0.90709257,0
2.6331835,-2.3711936,-1.0482794,0.80121565,-0.44827735,-0.39635944,0
-1.0048416,-1.6783488,3.1091859,0.26638842,-0.32591453,0.90709257,0
1.2481759,0.44354796,3.13256,0.26638842,-0.32591453,0.90709257,0
-2.1210639,-1.266975,1.7220969,-0.53580838,-0.83236235,-0.14171195,0
-1.177959,2.6945267,-2.0878372,-0.26638842,0.32591453,-0.90709257,0
-1.590879,2.1713746,-1.960079,-0.26638842,0.32591453,-0.90709257,0
2.6578481,-1.6379104,-1.4546335,0.80121565,-0.44827735,-0.39635944,0
-1.4620221,-1.7935498,1.9215153,-0.53580838,-0.83236235,-0.14171195,0
-2.8385475,1.5903921,-1.9579154,-0.26638842,0.32591453,-0.90709257,0
1.9678097,-1.1430594,-3.4620395,0.80121565,-0.44827735,-0.39635944,0
0.38801265,-2.7664084,1.0586989,-0.53580838,-0.83236235,-0.14171195,0
0.85171437,0.29428315,3.1436415,0.26638842,-0.32591453,0.90709257,0
-2.4091656,-1.0360932,3.7271998,0.26638842,-0.32591453,0.90709257,0
-0.057888865,1.8629408,2.7555616,0.53580838,0.83236235,0.14171195,0
1.7911277,-1.5953729,-3.4293771,0.80121565,-0.44827735,-0.39635944,0
2.8433201,-0.65686357,2.3094268,0.26638842,-0.32591453,0.90709257,0
-0.93985009,2.968925,0.66221797,0.53580838,0.83236235,0.14171195,0
-3.7437892,2.3074927,-1.2363182,-0.80121565,0.44827735,0.39635944,0
1.5743098,1.0082605,2.4828467,0.53580838,0.83236235,0.14171195,0
-3.0829165,3.2533553,-1.0117962,-0.80121565,0.44827735,0.39635944,0
-1.2563369,-1.4606158,-1.2812312,-0.53580838,-0.83236235,-0.14171195,0
1.6268026,1.798581,-2.3442783,0.53580838,0.83236235,0.14171195,0
2.6482012,-2.6140716,1.5998831,0.26638842,-0.32591453,0.90709257,0
-1.212612,2.1556559,3.9866686,-0.80121565,0.44827735,0.39635944,0
-1.2428622,1.9265865,-2.3446674,-0.26638842,0.32591453,-0.90709257,0
-0.64239192,2.6357565,0.92379606,0.53580838,0.83236235,0.14171195,0
1.2454278,-2.8983636,-2.2257128,-0.53580838,-0.83236235,-0.14171195,0
-3.881979,0.47859734,0.18969584,-0.80121565,0.44827735,0.39635944,0
-2.3293238,-0.80297542,3.7238059,0.26638842,-0.32591453,0.90709257,0
1.7257276,-2.5507889,1.9543705,0.26638842,-0.32591453,0.90709257,0
-2.2755597,-0.25136748,-2.8245182,-0.26638842,0.32591453,-0.90709257,0
1.2170959,-1.9759264,2.1379497,0.26638842,-0.32591453,0.90709257,0
-3.4944799,1.2860174,-1.7467639,-0.26638842,0.32591453,-0.90709257,0
-2.9033294,2.2421947,-1.5938841,-0.26638842,0.32591453,-0.90709257,0
1.5813552,-2.7174215,-2.6005678,0.80121565,-0.44827735,-0.39635944,0
1.0383809,1.7682779,-0.20850128,0.53580838,0.83236235,0.14171195,0
3.4223006,-2.4817939,1.4389451,0.26638842,-0.32591453,0.90709257,0
-2.3188312,-0.26102889,3.7965846,0.26638842,-0.32591453,0.90709257,0
2.5925038,0.067026377,2.6093838,0.26638842,-0.32591453,0.90709257,0
-2.872462,3.5134153,-0.7229116,-0.80121565,0.44827735,0.39635944,0
1.6407458,1.467258,-0.36944258,0.53580838,0.83236235,0.14171195,0
-1.1229726,-1.0775284,-3.3346391,-0.53580838,-0.83236235,-0.14171195,0
3.4913149,0.040336192,1.2119684,0.53580838,0.83236235,0.14171195,0
0.58034444,-2.7967539,-0.077925265,-0.53580838,-0.83236235,-0.14171195,0
-3.3925729,-0.72995508,2.9048185,-0.80121565,0.44827735,0.39635944,0
1.7862102,-2.3576458,-2.3558626,0.80121565,-0.44827735,-0.39635944,0
-0.53554666,1.9968598,3.8629959,0.53580838,0.83236235,0.14171195,0
1.1159483,2.2183394,-2.5911198,0.53580838,0.83236235,0.14171195,0
-3.0603161,2.5651445,-1.490036,-0.26638842,0.32591453,-0.90709257,0
0.46950579,-1.4253618,-3.9748869,-0.26638842,0.32591453,-0.90709257,0
-1.6896911,2.2763221,2.9128819,-0.80121565,0.44827735,0.39635944,0
-0.34379745,2.7939622,-2.2950549,-0.26638842,0.32591453,-0.90709257,0
-2.1665258,-1.1306088,0.79940403,-0.53580838,-0.83236235,-0.14171195,0
3.3282554,0.041965783,0.98708308,0.53580838,0.83236235,0.14171195,0
-2.6004417,2.8396347,-1.4965109,-0.26638842,0.32591453,-0.90709257,0
2.8968287,0.89067483,-2.0113001,0.53580838,0.83236235,0.14171195,0
-2.4979839,1.0556709,2.4778326,-0.80121565,0.44827735,0.39635944,0
-2.0848608,2.9744077,1.2233003,-0.80121565,0.44827735,0.39635944,0
2.8210773,0.57365274,0.62464082,0.53580838,0.83236235,0.14171195,0
1.90504,-2.2386477,1.8486569,0.26638842,-0.32591453,0.90709257,0
-2.3319383,0.081652217,-2.5836239,-0.26638842,0.32591453,-0.90709257,0
-0.71857983,2.5067792,2.75594,0.53580838,0.83236235,0.14171195,0
-3.0362525,-0.43959904,3.2141087,-0.80121565,0.44827735,0.39635944,0
2.9036541,0.32040018,0.72269225,0.53580838,0.83236235,0.14171195,0
-1.4724817,-1.2423966,-1.4378432,-0.53580838,-0.83236235,-0.14171195,0
-1.0267916,2.4287438,-2.203939,-0.26638842,0.32591453,-0.90709257,0
2.7030118,-1.2744511,-1.9415617,0.80121565,-0.44827735,-0.39635944,0
-2.8725424,0.61700207,2.4926488,-0.80121565,0.44827735,0.39635944,0
0.89015287,1.7931551,0.83633184,0.53580838,0.83236235,0.14171195,0
-2.7165694,3.5834148,-1.2269818,-0.26638842,0.32591453,-0.90709257,0
-3.4228194,0.25430989,1.6134901,-0.80121565,0.44827735,0.39635944,0
-2.6509249,3.5902822,-0.43286586,-0.80121565,0.44827735,0.39635944,0
0.061912298,-1.5238338,2.7847185,0.26638842,-0.32591453,0.90709257,0
1.7069465,0.90869719,2.7414715,0.53580838,0.83236235,0.14171195,0
2.8571842,-2.7584796,-0.0099076033,0.80121565,-0.44827735,-0.39635944,0
-3.8930929,0.29071116,-0.59644437,-0.53580838,-0.83236235,-0.14171195,0
-2.9351425,0.9252221,-2.0952046,-0.26638842,0.32591453,-0.90709257,0
1.0564773,-1.2256938,2.6512341,0.26638842,-0.32591453,0.90709257,0
-1.7108855,2.544167,-1.9104824,-0.26638842,0.32591453,-0.90709257,0
1.9239018,-1.3707923,2.1815856,0.26638842,-0.32591453,0.90709257,0
-0.76666015,2.848521,0.40884703,0.53580838,0.83236235,0.14171195,0
-1.3174076,3.295125,0.25822937,0.53580838,0.83236235,0.14171195,0
-1.6495832,-1.1548836,-1.5363947,-0.53580838,-0.83236235,-0.14171195,0
-1.2995753,-0.6461091,-3.2540526,-0.26638842,0.32591453,-0.90709257,0
-2.8310661,-0.53263777,-0.21308672,-0.53580838,-0.83236235,-0.14171195,0
0.20943594,-2.4833517,2.3030872,0.26638842,-0.32591453,0.90709257,0
2.8603663,-2.5291128,-0.33655739,0.80121565,-0.44827735,-0.39635944,0
-0.57828414,-2.2221105,0.74766076,-0.53580838,-0.83236235,-0.14171195,0
3.4177439,-0.92011642,-1.0264542,0.80121565,-0.44827735,-0.39635944,0
-1.7603512,0.16462626,-2.7269249,-0.26638842,0.32591453,-0.90709257,0
0.75326395,-2.7137625,-0.46143842,-0.53580838,-0.83236235,-0.14171195,0
-2.2969074,0.83178866,3.0461071,-0.80121565,0.44827735,0.39635944,0
-2.8250694,-0.55362707,0.26098061,-0.53580838,-0.83236235,-0.14171195,0
1.1844106,1.1702895,2.5930698,0.53580838,0.83236235,0.14171195,0
-3.5983844,2.1205745,-0.80780172,-0.80121565,0.44827735,0.39635944,0
2.4185719,1.1438066,-2.0313666,0.53580838,0.83236235,0.14171195,0
-3.1950452,2.0146742,-1.572709,-0.26638842,0.32591453,-0.90709257,0
-1.7332114,3.155684,1.9074818,-0.80121565,0.44827735,0.39635944,0
3.1733634,-0.79006052,-1.7446315,0.80121565,-0.44827735,-0.39635944,0
-3.3455555,0.35018915,1.8223405,-0.80121565,0.44827735,0.39635944,0
1.2889671,-2.6843457,-2.6741171,-0.53580838,-0.83236235,-0.14171195,0
2.8892028,-0.3167485,-2.5697737,0.80121565,-0.44827735,-0.39635944,0
1.6462102,-3.617806,1.4767056,0.26638842,-0.32591453,0.90709257,0
-3.1831226,0.60717654,1.5327654,-0.80121565,0.44827735,0.39635944,0
-2.265723,1.9375447,-1.8379962,-0.26638842,0.32591453,-0.90709257,0
-2.0986588,3.9075251,-0.3183111,0.53580838,0.83236235,0.14171195,0
1.7214278,-3.5294783,0.18916166,-0.53580838,-0.83236235,-0.14171195,0
1.1946312,-3.3998818,0.83685088,-0.53580838,-0.83236235,-0.14171195,0
-1.2151842,0.072619349,-2.8745644,-0.26638842,0.32591453,-0.90709257,0
-1.0495036,1.5029418,4.1886444,0.26638842,-0.32591453,0.90709257,0
-1.4347916,1.6910126,-2.3255563,-0.26638842,0.32591453,-0.90709257,0
-3.1397254,0.95698071,1.5999405,-0.80121565,0.44827735,0.39635944,0
-1.5105314,1.4965055,4.2839856,-0.80121565,0.44827735,0.39635944,0
2.3020682,-3.1851139,1.3773178,0.26638842,-0.32591453,0.90709257,0
-0.85746235,2.4387779,2.9268703,0.53580838,0.83236235,0.14171195,0
2.56498,0.45820105,1.0683819,0.53580838,0.83236235,0.14171195,0
-3.9088931,1.4025313,-0.54631579,-0.80121565,0.44827735,0.39635944,0
0.22465062,0.72884649,3.405545,0.26638842,-0.32591453,0.90709257,0
3.6464384,-2.0427034,0.83691025,0.80121565,-0.44827735,-0.39635944,0
2.2049623,1.2626797,-1.3299412,0.53580838,0.83236235,0.14171195,0
1.3853714,-0.91655576,2.4820604,0.26638842,-0.32591453,0.90709257,0
-0.082542181,2.6723258,-1.1167887,0.53580838,0.83236235,0.14171195,0
-1.7306709,3.4845469,-1.5511835,-0.26638842,0.32591453,-0.90709257,0
2.206135,1.3345276,-3.4864242,-0.26638842,0.32591453,-0.90709257,0
-0.93817353,-0.42308933,-3.2561851,-0.26638842,0.32591453,-0.90709257,0
-3.0722637,0.30252856,-2.3469155,-0.26638842,0.32591453,-0.90709257,0
2.504194,-4.0509481,0.89280987,0.80121565,-0.44827735,-0.39635944,0
1.0657713,1.3265351,1.9542029,0.53580838,0.83236235,0.14171195,0
2.1831582,-0.96287841,-3.3442519,0.80121565,-0.44827735,-0.39635944,0
-1.9623399,-1.1249053,0.1759249,-0.53580838,-0.83236235,-0.14171195,0
3.9572606,0.069079041,-0.82786965,0.53580838,0.83236235,0.14171195,0
3.1179774,0.56174266,-0.41848063,0.53580838,0.83236235,0.14171195,0
-3.9587641,0.1951009,-0.256248,-0.53580838,-0.83236235,-0.14171195,0
2.5651774,0.31461465,2.5758257,0.26638842,-0.32591453,0.90709257,0
0.58701563,-1.8006266,2.4229,0.26638842,-0.32591453,0.90709257,0
3.3450406,-1.1296123,-0.79855084,0.80121565,-0.44827735,-0.39635944,0
3.0578361,-3.0390511,1.318633,0.26638842,-0.32591453,0.90709257,0
2.4581299,-2.8671777,-0.50431597,0.80121565,-0.44827735,-0.39635944,0
-2.3017938,1.2510581,-2.2426805,-0.26638842,0.32591453,-0.90709257,0
2.3633521,-0.29003322,-3.9699538,0.80121565,-0.44827735,-0.39635944,0
0.24611235,2.2819076,-0.21664602,0.53580838,0.83236235,0.14171195,0
3.3341479,-2.2808766,0.58142197,0.80121565,-0.44827735,-0.39635944,0
1.8338062,-1.080357,-4.0913539,0.80121565,-0.44827735,-0.39635944,0
0.85978746,-0.75263274,2.792712,0.26638842,-0.32591453,0.90709257,0
4.5872135,-0.86507344,1.2675171,0.80121565,-0.44827735,-0.39635944,0
2.796195,-1.1037046,-2.1547441,0.80121565,-0.44827735,-0.39635944,0
-2.3046861,3.2283282,-1.4061953,-0.26638842,0.32591453,-0.90709257,0
2.3352208,-1.0550708,2.3177404,0.26638842,-0.32591453,0.90709257,0
-2.6865304,1.3736991,1.7325306,-0.80121565,0.44827735,0.39635944,0
3.3566253,-0.2401492,2.2129107,0.26638842,-0.32591453,0.90709257,0
-2.7007132,-0.58644116,3.7878413,-0.80121565,0.44827735,0.39635944,0
-3.0112214,-0.5451743,0.066648841,-0.53580838,-0.83236235,-0.14171195,0
2.8689671,0.46345383,0.58255923,0.53580838,0.83236235,0.14171195,0
2.9437087,-1.2031826,-1.4294624,0.80121565,-0.44827735,-0.39635944,0
-2.5662315,2.3315635,0.82278562,-0.80121565,0.44827735,0.39635944,0
2.9705298,0.73811746,-1.4242308,0.53580838,0.83236235,0.14171195,0
-1.3717766,2.3777921,-2.0761318,-0.26638842,0.32591453,-0.90709257,0
-3.0906563,2.5115185,-0.45686555,-0.80121565,0.44827735,0.39635944,0
0.013990164,-1.0530784,2.9882607,0.26638842,-0.32591453,0.90709257,0
-2.9989343,-0.96888125,2.8535359,-0.53580838,-0.83236235,-0.14171195,0
2.4453273,-3.606617,0.24801934,0.80121565,-0.44827735,-0.39635944,0
-2.3705339,0.038962364,3.819406,-0.80121565,0.44827735,0.39635944,0
1.5164697,-2.1723812,2.1483123,0.26638842,-0.32591453,0.90709257,0
-2.4525979,1.1331664,2.8404775,-0.80121565,0.44827735,0.39635944,0
-1.6983035,3.6318099,-1.3140216,0.53580838,0.83236235,0.14171195,0
0.70797735,-2.4931207,-1.7432485,-0.53580838,-0.83236235,-0.14171195,0
0.73405945,1.9710667,0.14637907,0.53580838,0.83236235,0.14171195,0
1.2627575,-3.4224203,1.641876,-0.53580838,-0.83236235,-0.14171195,0
1.1879046,-0.31262156,2.9224043,0.26638842,-0.32591453,0.90709257,0
3.1097429,0.69915485,-2.0589075,0.53580838,0.83236235,0.14171195,0
1.2966378,1.0909927,3.2322059,0.53580838,0.83236235,0.14171195,0
-3.3578005,0.024117768,-0.89069784,-0.53580838,-0.83236235,-0.14171195,0
1.0511353,1.1889592,2.5935273,0.53580838,0.83236235,0.14171195,0
-3.6984141,0.35458839,0.87189817,-0.80121565,0.44827735,0.39635944,0
-2.3554106,-0.49019527,-1.865911,-0.53580838,-0.83236235,-0.14171195,0
4.128233,-0.96996105,0.71528637,0.80121565,-0.44827735,-0.39635944,0
-1.5938034,2.4487138,3.0417535,-0.80121565,0.44827735,0.39635944,0
-1.5140723,-1.0701766,3.2756777,0.26638842,-0.32591453,0.90709257,0
0.66652346,1.1874366,-3.0516732,-0.26638842,0.32591453,-0.90709257,0
-0.79131615,3.1801162,-0.89721233,0.53580838,0.83236235,0.14171195,0
0.84209609,2.345582,-2.6132221,0.53580838,0.83236235,0.14171195,0
1.5759847,0.61980939,-3.6555696,-0.26638842,0.32591453,-0.90709257,0
-1.088334,-0.94964647,-3.2869015,-0.26638842,0.32591453,-0.90709257,0
-1.4380488,1.8715342,-2.1253557,-0.26638842,0.32591453,-0.90709257,0
2.1101718,1.4749167,-2.1489055,0.53580838,0.83236235,0.14171195,0
-0.076200843,-1.9130383,-2.4194589,-0.53580838,-0.83236235,-0.14171195,0
0.86185271,1.6054136,1.7221663,0.53580838,0.83236235,0.14171195,0
2.4627345,-1.3951902,2.0494528,0.26638842,-0.32591453,0.90709257,0
2.7827485,0.75675321,-3.7493763,-0.26638842,0.32591453,-0.90709257,0
-1.0395002,0.16051707,-2.9900515,-0.26638842,0.32591453,-0.90709257,0
-2.9944324,1.7507327,0.59547734,-0.80121565,0.44827735,0.39635944,0
-1.547013,-1.012257,3.3457146,0.26638842,-0.32591453,0.90709257,0
1.2466445,-1.8792653,-4.2124677,0.80121565,-0.44827735,-0.39635944,0
-2.8676271,0.70647627,2.0366571,-0.80121565,0.44827735,0.39635944,0
0.17313004,1.3266065,-2.8035579,-0.26638842,0.32591453,-0.90709257,0
2.1716204,1.0063827,-0.39095986,0.53580838,0.83236235,0.14171195,0
2.3547494,0.86406171,-3.6946154,-0.26638842,0.32591453,-0.90709257,0
1.1133469,-3.0237224,-0.84476966,-0.53580838,-0.83236235,-0.14171195,0
0.91325092,-0.48534063,-3.6635537,-0.26638842,0.32591453,-0.90709257,0
3.355726,-2.4665608,0.70121956,0.80121565,-0.44827735,-0.39635944,0
-2.2575326,3.2888184,-1.4392163,-0.26638842,0.32591453,-0.90709257,0
1.0653733,-2.4016383,-3.967895,-0.53580838,-0.83236235,-0.14171195,0
-2.0513263,1.8416235,-1.9757426,-0.26638842,0.32591453,-0.90709257,0
0.80099171,2.0349259,-1.4294875,0.53580838,0.83236235,0.14171195,0
-1.5013344,3.520335,-0.89565432,0.53580838,0.83236235,0.14171195,0
3.1161451,-2.4514425,0.40848243,0.80121565,-0.44827735,-0.39635944,0
-2.2600229,3.576215,-1.4417567,-0.26638842,0.32591453,-0.90709257,0
-4.3295164,1.3665653,-1.6480953,-0.26638842,0.32591453,-0.90709257,0
-3.3610489,1.2289616,-1.8720634,-0.26638842,0.32591453,-0.90709257,0
4.2405419,-0.51130217,1.1830664,0.53580838,0.83236235,0.14171195,0
-2.8906236,0.84832072,2.1701217,-0.80121565,0.44827735,0.39635944,0
0.58186394,1.7654401,2.0824759,0.53580838,0.83236235,0.14171195,0
-0.10470676,-1.0222479,-3.6393099,-0.26638842,0.32591453,-0.90709257,0
1.3435194,1.8015707,-1.1160637,0.53580838,0.83236235,0.14171195,0
-3.9746275,1.801249,-1.3840619,-0.26638842,0.32591453,-0.90709257,0
-3.3568189,0.64993232,1.4940031,-0.80121565,0.44827735,0.39635944,0
-3.3206728,2.8255684,-1.0748918,-0.80121565,0.44827735,0.39635944,0
-1.8315194,-1.4860815,1.083258,-0.53580838,-0.83236235,-0.14171195,0
1.648948,-2.4352722,-2.5210054,0.80121565,-0.44827735,-0.39635944,0
2.1564443,1.2475424,-1.6943529,0.53580838,0.83236235,0.14171195,0
2.2320061,-0.34651941,2.4560738,0.26638842,-0.32591453,0.90709257,0
-3.4277747,1.0984635,0.6089499,-0.80121565,0.44827735,0.39635944,0
1.4855134,-2.4391508,-3.2038221,0.80121565,-0.44827735,-0.39635944,0
3.3921957,-2.0588584,0.55337024,0.80121565,-0.44827735,-0.39635944,0
3.1108086,0.54824662,-0.22962427,0.53580838,0.83236235,0.14171195,0
3.0026953,-0.43724254,2.2031927,0.26638842,-0.32591453,0.90709257,0
-0.43005645,-0.8488971,-3.4369712,-0.26638842,0.32591453,-0.90709257,0
1.7158723,1.7687014,-3.2463374,-0.26638842,0.32591453,-0.90709257,0
3.6277435,-2.6161108,1.4066902,0.26638842,-0.32591453,0.90709257,0
-0.87720537,3.1079752,-1.4029582,0.53580838,0.83236235,0.14171195,0
1.2600185,1.0158592,2.8609886,0.53580838,0.83236235,0.14171195,0
-0.70586038,0.13318712,3.6648803,0.26638842,-0.32591453,0.90709257,0
0.32196236,-1.0481555,2.7802882,0.26638842,-0.32591453,0.90709257,0
-2.7120516,3.7922685,-1.0969574,-0.80121565,0.44827735,0.39635944,0
2.8048351,-0.4062916,2.2930906,0.26638842,-0.32591453,0.90709257,0
1.5714691,-2.1396196,2.0868225,0.26638842,-0.32591453,0.90709257,0
4.2206621,-0.27495784,0.036926031,0.53580838,0.83236235,0.14171195,0
3.6450372,-1.1312523,-0.27389479,0.80121565,-0.44827735,-0.39635944,0
-0.28844717,-1.8842325,-1.5552047,-0.53580838,-0.83236235,-0.14171195,0
-3.6219168,0.68900549,0.50579119,-0.80121565,0.44827735,0.39635944,0
-2.8043005,0.9791137,2.0492685,-0.80121565,0.44827735,0.39635944,0
0.29451901,-2.3490114,-1.5863677,-0.53580838,-0.83236235,-0.14171195,0
1.2788895,0.93616205,3.2616146,0.53580838,0.83236235,0.14171195,0
-1.7924697,2.5270791,2.4394698,-0.80121565,0.44827735,0.39635944,0
1.8820894,-0.11198664,-3.9818659,-0.26638842,0.32591453,-0.90709257,0
-2.8938291,0.64688826,2.2576594,-0.80121565,0.44827735,0.39635944,0
3.132365,0.34058523,-2.9891777,0.80121565,-0.44827735,-0.39635944,0
2.2239537,-2.2204554,-1.8705378,0.80121565,-0.44827735,-0.39635944,0
2.2632425,0.34238994,-3.9058056,-0.26638842,0.32591453,-0.90709257,0
-0.37769234,-1.0180979,3.155426,0.26638842,-0.32591453,0.90709257,0
-2.0551958,2.2333727,2.3991466,-0.80121565,0.44827735,0.39635944,0
0.80715394,-0.50396752,-3.7389195,-0.26638842,0.32591453,-0.90709257,0
0.29160869,1.0928265,3.5046782,0.26638842,-0.32591453,0.90709257,0
-1.9661803,3.8081846,-1.1347426,0.53580838,0.83236235,0.14171195,0
-2.3820853,-0.67719364,-1.6001397,-0.53580838,-0.83236235,-0.14171195,0
0.051940203,1.9663697,2.8800375,0.53580838,0.83236235,0.14171195,0
1.082911,-1.5044852,2.3977106,0.26638842,-0.32591453,0.90709257,0
-1.6990334,3.0651026,2.0138702,-0.80121565,0.44827735,0.39635944,0
0.60236132,1.2997719,3.5776939,0.26638842,-0.32591453,0.90709257,0
3.6289916,-0.34509465,1.9861908,0.53580838,0.83236235,0.14171195,0
1.0437776,0.042740107,-3.6461196,-0.26638842,0.32591453,-0.90709257,0
1.6335781,-0.34886271,2.7629187,0.26638842,-0.32591453,0.90709257,0
-1.8390757,2.6581731,2.0715609,-0.80121565,0.44827735,0.39635944,0
2.4288349,-1.5790447,-1.9552509,0.80121565,-0.44827735,-0.39635944,0
-0.94180405,0.2135703,3.6343679,0.26638842,-0.32591453,0.90709257,0
0.69799852,2.0277073,-0.21200895,0.53580838,0.83236235,0.14171195,0
-2.7968016,3.9066551,-1.0521662,-0.80121565,0.44827735,0.39635944,0
-0.16404986,1.3224556,-2.7676489,-0.26638842,0.32591453,-0.90709257,0
2.5651917,0.2163887,-3.8477716,0.80121565,-0.44827735,-0.39635944,0
2.800612,-2.2543449,1.5894322,0.26638842,-0.32591453,0.90709257,0
2.698961,-2.1584427,-1.1700134,0.80121565,-0.44827735,-0.39635944,0
3.2591822,-2.5562112,1.4864182,0.26638842,-0.32591453,0.90709257,0
-0.63827562,1.1660361,-2.7947252,-0.26638842,0.32591453,-0.90709257,0
1.2208608,-2.5348082,-3.6225414,0.80121565,-0.44827735,-0.39635944,0
-1.0891619,2.7816577,-1.9017086,-0.26638842,0.32591453,-0.90709257,0
-4.3387198,1.0020236,-1.0505263,-0.80121565,0.44827735,0.39635944,0
-1.655241,1.0929908,4.1487198,0.26638842,-0.32591453,0.90709257,0
-1.4324226,-1.0574232,-3.0459418,-0.53580838,-0.83236235,-0.14171195,0
-1.9245505,1.8173256,-2.0643573,-0.26638842,0.32591453,-0.90709257,0
2.9094589,-2.1220803,1.7025884,0.26638842,-0.32591453,0.90709257,0
2.3509502,1.1929715,-1.7059345,0.53580838,0.83236235,0.14171195,0
0.74628782,0.54274797,3.3232312,0.26638842,-0.32591453,0.90709257,0
1.284669,-0.87632829,-3.9002376,-0.26638842,0.32591453,-0.90709257,0
-2.2631829,2.1481104,1.8041952,-0.80121565,0.44827735,0.39635944,0
-2.7891059,-1.0513819,3.7887239,0.26638842,-0.32591453,0.90709257,0
3.5389237,-1.3439654,-0.2968049,0.80121565,-0.44827735,-0.39635944,0
3.2722876,-2.3463073,1.5288821,0.26638842,-0.32591453,0.90709257,0
3.3594451,-1.7512071,-0.043214798,0.80121565,-0.44827735,-0.39635944,0
-4.1117296,0.76704133,-0.46407771,-0.80121565,0.44827735,0.39635944,0
0.71657205,-3.1315837,1.8133413,-0.53580838,-0.83236235,-0.14171195,0
0.58173561,1.9888835,0.12053286,0.53580838,0.83236235,0.14171195,0
-3.3441899,1.7810006,-1.7008088,-0.26638842,0.32591453,-0.90709257,0
-2.7328997,-0.92786324,1.5740921,-0.53580838,-0.83236235,-0.14171195,0
-0.67744982,-0.82281303,3.2937245,0.26638842,-0.32591453,0.90709257,0
1.941205,-3.1508403,1.5956626,0.26638842,-0.32591453,0.90709257,0
2.7379975,0.54907995,1.0680516,0.53580838,0.83236235,0.14171195,0
2.6336138,-3.1449082,1.3450345,0.26638842,-0.32591453,0.90709257,0
-0.97468007,-0.6638431,3.2861314,0.26638842,-0.32591453,0.90709257,0
-1.5259755,0.76949811,-2.5982206,-0.26638842,0.32591453,-0.90709257,0
-2.7465734,-0.55091643,0.013782501,-0.53580838,-0.83236235,-0.14171195,0
-2.6610575,3.0536921,0.086790919,-0.80121565,0.44827735,0.39635944,0
-1.2892103,3.0603693,1.2953416,0.53580838,0.83236235,0.14171195,0
-2.6507156,3.8278444,-0.84767407,-0.80121565,0.44827735,0.39635944,0
4.3879619,-1.1577657,1.1713411,0.80121565,-0.44827735,-0.39635944,0
1.5917915,0.92026037,3.0038116,0.53580838,0.83236235,0.14171195,0
-1.9972534,0.68854022,-2.4652843,-0.26638842,0.32591453,-0.90709257,0
2.7828114,0.45489335,0.72609293,0.53580838,0.83236235,0.14171195,0
-2.7382486,-0.82525885,3.8445528,0.26638842,-0.32591453,0.90709257,0
2.5808263,1.081598,-1.9395695,0.53580838,0.83236235,0.14171195,0
-1.2005714,-1.6118228,-0.67011154,-0.53580838,-0.83236235,-0.14171195,0
-0.74208236,-2.2456348,1.704882,-0.53580838,-0.83236235,-0.14171195,0
1.6691855,1.2761,0.61080509,0.53580838,0.83236235,0.14171195,0
3.4557493,-0.2701,-1.5590005,0.80121565,-0.44827735,-0.39635944,0
-1.1663989,-1.2182691,3.123666,0.26638842,-0.32591453,0.90709257,0
-0.24576694,2.3931384,0.56517422,0.53580838,0.83236235,0.14171195,0
0.098457396,2.265888,-0.084545933,0.53580838,0.83236235,0.14171195,0
-0.98934793,1.9305695,-2.4310017,-0.26638842,0.32591453,-0.90709257,0
-1.2068093,-1.1106029,3.2988422,0.26638842,-0.32591453,0.90709257,0
2.7697177,0.67682052,-3.7972682,-0.26638842,0.32591453,-0.90709257,0
-2.1876059,2.2342196,2.1018405,-0.80121565,0.44827735,0.39635944,0
1.1410017,-2.9045601,1.8837425,0.26638842,-0.32591453,0.90709257,0
1.2603905,-3.0495722,-0.83729029,-0.53580838,-0.83236235,-0.14171195,0
-2.9290245,-0.62039405,-0.034642816,-0.53580838,-0.83236235,-0.14171195,0
0.16868567,2.4023654,-1.290831,0.53580838,0.83236235,0.14171195,0
-4.2556396,0.80215043,-0.51381779,-0.80121565,0.44827735,0.39635944,0
-1.0258,2.7700427,2.3958879,0.53580838,0.83236235,0.14171195,0
-1.1370199,0.15296313,-2.8997393,-0.26638842,0.32591453,-0.90709257,0
0.91552567,-1.3154926,2.6664689,0.26638842,-0.32591453,0.90709257,0
2.6374893,-0.45929796,-2.8707137,0.80121565,-0.44827735,-0.39635944,0
-3.8601661,0.9907341,-1.7424653,-0.26638842,0.32591453,-0.90709257,0
3.3303802,-1.5380954,-0.31765175,0.80121565,-0.44827735,-0.39635944,0
-1.8051459,-0.82115591,3.6487322,0.26638842,-0.32591453,0.90709257,0
1.6119238,0.97113949,2.8969707,0.53580838,0.83236235,0.14171195,0
-3.2863715,0.34926599,1.6397703,-0.80121565,0.44827735,0.39635944,0
2.0025387,-1.4951919,2.1426339,0.26638842,-0.32591453,0.90709257,0
-4.0499883,0.77449262,-1.7630941,-0.26638842,0.32591453,-0.90709257,0
-3.6380754,0.081410527,-1.379846,-0.53580838,-0.83236235,-0.14171195,0
-0.31438255,-1.7893482,2.8473806,0.26638842,-0.32591453,0.90709257,0
-3.441983,-0.25739658,2.3512757,-0.80121565,0.44827735,0.39635944,0
-2.4804511,0.51874334,3.3763492,-0.80121565,0.44827735,0.39635944,0
-2.8540273,1.7815313,-1.7880979,-0.26638842,0.32591453,-0.90709257,0
-1.454613,-1.7732756,1.1139994,-0.53580838,-0.83236235,-0.14171195,0
-1.716158,-0.085190058,3.7525635,0.26638842,-0.32591453,0.90709257,0
1.443193,1.7220035,-1.8514702,0.53580838,0.83236235,0.14171195,0
2.9396524,-1.044512,-1.5358541,0.80121565,-0.44827735,-0.39635944,0
0.65969348,-2.9573333,0.72534966,-0.53580838,-0.83236235,-0.14171195,0
0.80620241,-2.9416587,0.7657389,-0.53580838,-0.83236235,-0.14171195,0
-2.1417475,1.6438878,2.8852789,-0.80121565,0.44827735,0.39635944,0
1.6921782,-3.6340466,1.4407744,-0.53580838,-0.83236235,-0.14171195,0
-2.6005113,-0.9754281,2.1026597,-0.53580838,-0.83236235,-0.14171195,0
3.9448867,-1.9716425,1.1805855,0.80121565,-0.44827735,-0.39635944,0
3.0634792,0.41680229,-2.9207153,0.80121565,-0.44827735,-0.39635944,0
-2.1588371,1.4348261,2.9674397,-0.80121565,0.44827735,0.39635944,0
-2.2569764,2.4314122,1.6018122,-0.80121565,0.44827735,0.39635944,0
0.78838563,-2.0906208,2.2545717,0.26638842,-0.32591453,0.90709257,0
1.1257365,2.0178182,-2.8728302,-0.26638842,0.32591453,-0.90709257,0
0.28230977,0.66194999,-3.1055579,-0.26638842,0.32591453,-0.90709257,0
2.8320618,0.59033549,-0.22130489,0.53580838,0.83236235,0.14171195,0
3.2909136,0.66802979,-2.7532949,0.53580838,0.83236235,0.14171195,0
2.3025641,1.0212293,-0.35596108,0.53580838,0.83236235,0.14171195,0
1.7252955,-0.59384501,2.5829167,0.26638842,-0.32591453,0.90709257,0
3.375483,0.60681641,-2.7488191,0.80121565,-0.44827735,-0.39635944,0
-3.36426,2.3732338,-1.4381371,-0.26638842,0.32591453,-0.90709257,0
-2.5615001,1.4090677,2.1498189,-0.80121565,0.44827735,0.39635944,0
1.0556101,-3.0671146,-0.15496355,-0.53580838,-0.83236235,-0.14171195,0
-0.93517232,1.3544376,-2.5759394,-0.26638842,0.32591453,-0.90709257,0
1.6042941,-3.3582618,-0.14781511,-0.53580838,-0.83236235,-0.14171195,0
-1.5066285,-0.96769881,-2.3452339,-0.53580838,-0.83236235,-0.14171195,0
-0.050000072,1.3553123,3.9079657,0.26638842,-0.32591453,0.90709257,0
-3.0769694,1.4682503,-1.8112625,-0.26638842,0.32591453,-0.90709257,0
-0.85353106,2.4042895,2.6686039,0.53580838,0.83236235,0.14171195,0
-1.8210731,1.4800442,3.4237638,-0.80121565,0.44827735,0.39635944,0
-0.56552315,1.767158,-2.4662423,-0.26638842,0.32591453,-0.90709257,0
1.7401741,-1.8468845,-3.2912793,0.80121565,-0.44827735,-0.39635944,0
0.47996461,1.7313828,2.1950548,0.53580838,0.83236235,0.14171195,0
-3.8926458,1.2203352,-0.50258589,-0.80121565,0.44827735,0.39635944,0
0.67074513,-0.19918209,-3.5709918,-0.26638842,0.32591453,-0.90709257,0
3.2733622,-2.2630134,0.21228361,0.80121565,-0.44827735,-0.39635944,0
-0.70638633,0.12305927,-3.1587343,-0.26638842,0.32591453,-0.90709257,0
2.7971525,0.33709323,1.6406547,0.53580838,0.83236235,0.14171195,0
-3.7486579,-0.23011863,1.4307323,-0.80121565,0.44827735,0.39635944,0
-0.66191912,2.9452028,-0.26074743,0.53580838,0.83236235,0.14171195,0
-3.2315869,-0.029073954,2.4040642,-0.80121565,0.44827735,0.39635944,0
-0.82801837,2.1544576,4.262208,0.26638842,-0.32591453,0.90709257,0
-1.256912,3.0899725,0.6799283,0.53580838,0.83236235,0.14171195,0
-2.3853755,4.1540074,-0.82895803,0.53580838,0.83236235,0.14171195,0
-1.567853,-1.9122595,2.6747494,-0.53580838,-0.83236235,-0.14171195,0
2.3963757,1.1926677,-1.3781295,0.53580838,0.83236235,0.14171195,0
-2.6856709,0.80863571,2.420553,-0.80121565,0.44827735,0.39635944,0
3.6991796,-1.0050719,-0.34843111,0.80121565,-0.44827735,-0.39635944,0
2.4996402,-2.5444212,-1.1124148,0.80121565,-0.44827735,-0.39635944,0
2.3956623,-0.063148499,-4.0144444,-0.26638842,0.32591453,-0.90709257,0
3.6495588,-2.1940784,1.0180203,0.80121565,-0.44827735,-0.39635944,0
2.9235914,0.62500757,-0.37341809,0.53580838,0.83236235,0.14171195,0
-1.6460004,2.0881422,3.1550274,-0.80121565,0.44827735,0.39635944,0
2.5097356,-2.9596972,1.5596972,0.26638842,-0.32591453,0.90709257,0
2.4806297,-1.5929769,2.0770617,0.26638842,-0.32591453,0.90709257,0
-0.81822419,2.9812737,-0.17482337,0.53580838,0.83236235,0.14171195,0
-1.0492824,-0.76362193,3.2980638,0.26638842,-0.32591453,0.90709257,0
3.1881087,-0.60394728,2.097369,0.26638842,-0.32591453,0.90709257,0
0.26253611,-2.5667901,-0.25585911,-0.53580838,-0.83236235,-0.14171195,0
-3.1055427,2.6910083,-0.34711301,-0.80121565,0.44827735,0.39635944,0
1.0951756,-2.0881557,-4.1805654,0.80121565,-0.44827735,-0.39635944,0
-2.8709092,3.3102987,-1.3285166,-0.26638842,0.32591453,-0.90709257,0
0.49757504,0.36849755,-3.2298031,-0.26638842,0.32591453,-0.90709257,0
-3.7981248,-0.11793149,1.2122817,-0.80121565,0.44827735,0.39635944,0
3.4141543,-2.2396612,0.5991708,0.80121565,-0.44827735,-0.39635944,0
-3.4710796,2.5224614,-1.1929351,-0.80121565,0.44827735,0.39635944,0
4.3237314,-0.69500601,0.4719007,0.80121565,-0.44827735,-0.39635944,0
1.0818288,1.4494848,1.7371032,0.53580838,0.83236235,0.14171195,0
-2.4991992,2.5367422,-1.6737205,-0.26638842,0.32591453,-0.90709257,0
1.347876,-2.2006593,-3.5485077,0.80121565,-0.44827735,-0.39635944,0
-2.2401457,1.7376323,2.5722036,-0.80121565,0.44827735,0.39635944,0
3.7685511,-1.268842,0.39191484,0.80121565,-0.44827735,-0.39635944,0
-0.42048669,2.5259542,-2.3587427,-0.26638842,0.32591453,-0.90709257,0
3.263819,0.066549301,-2.1900218,0.80121565,-0.44827735,-0.39635944,0
-1.2303514,0.5189842,3.90065,0.26638842,-0.32591453,0.90709257,0
-1.3951466,-1.8005147,1.039526,-0.53580838,-0.83236235,-0.14171195,0
-1.1378775,0.12494868,3.7387874,0.26638842,-0.32591453,0.90709257,0
-0.95613444,0.42789572,3.6662111,0.26638842,-0.32591453,0.90709257,0
1.0040364,-1.5523723,-4.2122126,-0.26638842,0.32591453,-0.90709257,0
1.9117655,-1.1783012,-3.7652745,0.80121565,-0.44827735,-0.39635944,0
-1.9814038,3.6963332,-0.65026814,0.53580838,0.83236235,0.14171195,0
2.051122,-0.8489877,-3.7356319,0.80121565,-0.44827735,-0.39635944,0
3.3210979,0.54697669,-1.5886796,0.53580838,0.83236235,0.14171195,0
-2.7424822,-1.2855898,3.4023354,-0.53580838,-0.83236235,-0.14171195,0
0.72255671,2.0919235,-1.4856038,0.53580838,0.83236235,0.14171195,0
2.4135251,0.47108802,1.9330063,0.53580838,0.83236235,0.14171195,0
-2.309819,1.1841346,2.7590289,-0.80121565,0.44827735,0.39635944,0
-0.7475512,2.8881683,-0.17011219,0.53580838,0.83236235,0.14171195,0
1.4860401,-2.746207,1.9441762,0.26638842,-0.32591453,0.90709257,0
-2.0304639,1.7873816,2.8441439,-0.80121565,0.44827735,0.39635944,0
-3.3356566,3.0428433,-1.1229414,-0.80121565,0.44827735,0.39635944,0
-2.694994,2.7404711,0.40626454,-0.80121565,0.44827735,0.39635944,0
2.4713984,-3.7457163,0.37091303,0.80121565,-0.44827735,-0.39635944,0
-2.0476632,1.5707252,3.0325127,-0.80121565,0.44827735,0.39635944,0
-2.450841,0.96460772,2.650533,-0.80121565,0.44827735,0.39635944,0
2.1405272,1.2845455,-1.4237723,0.53580838,0.83236235,0.14171195,0
-1.0644313,-0.73334956,3.3102212,0.26638842,-0.32591453,0.90709257,0
-1.2560968,-1.2757245,-1.5325119,-0.53580838,-0.83236235,-0.14171195,0
0.65689254,0.16877317,-3.511847,-0.26638842,0.32591453,-0.90709257,0
-0.60922635,-2.4198472,2.5895641,0.26638842,-0.32591453,0.90709257,0
1.7646787,-1.6825054,-3.1938648,0.80121565,-0.44827735,-0.39635944,0
0.6856702,-2.4720612,-1.9367737,-0.53580838,-0.83236235,-0.14171195,0
3.6822219,-1.5585253,1.5932057,0.26638842,-0.32591453,0.90709257,0
1.8556697,1.4176059,-1.2643639,0.53580838,0.83236235,0.14171195,0
-2.1847878,2.9549258,0.84423757,-0.80121565,0.44827735,0.39635944,0
-3.56727,0.82746577,0.44363904,-0.80121565,0.44827735,0.39635944,0
-2.8214407,1.1447393,1.6237683,-0.80121565,0.44827735,0.39635944,0
-1.2376074,-0.53879941,3.4080029,0.26638842,-0.32591453,0.90709257,0
-2.1533408,-0.97246587,3.5426626,0.26638842,-0.32591453,0.90709257,0
-2.2872026,-1.017439,0.85481429,-0.53580838,-0.83236235,-0.14171195,0
-2.0569329,3.3195031,-1.5736741,-0.26638842,0.32591453,-0.90709257,0
-1.983938,-1.0552344,0.058668494,-0.53580838,-0.83236235,-0.14171195,0
-0.68999386,2.9229906,-2.0471616,-0.26638842,0.32591453,-0.90709257,0
-3.8420982,1.5618272,-0.8409586,-0.80121565,0.44827735,0.39635944,0
3.436456,-0.60782617,-1.1772649,0.80121565,-0.44827735,-0.39635944,0
-3.0842419,1.4040002,1.0920696,-0.80121565,0.44827735,0.39635944,0
3.6531556,-0.1881122,1.4797988,0.53580838,0.83236235,0.14171195,0
3.4864159,0.32989752,-2.3662324,0.80121565,-0.44827735,-0.39635944,0
3.3636343,-0.33019772,2.2440135,0.26638842,-0.32591453,0.90709257,0
0.72611141,-0.72700566,-3.7341571,-0.26638842,0.32591453,-0.90709257,0
0.59961414,-2.1205411,-3.8680015,-0.53580838,-0.83236235,-0.14171195,0
-0.25946712,2.7749641,-1.3505782,0.53580838,0.83236235,0.14171195,0
-0.20375133,-2.7160311,2.2088745,-0.53580838,-0.83236235,-0.14171195,0
2.4906814,-2.7523637,-0.84117496,0.80121565,-0.44827735,-0.39635944,0
2.3802249,-0.94165039,-2.7338843,0.80121565,-0.44827735,-0.39635944,0
-2.5315971,-0.31332922,3.8629212,0.26638842,-0.32591453,0.90709257,0
-2.8336093,2.6718814,-0.14179373,-0.80121565,0.44827735,0.39635944,0
3.0939112,0.94611537,-3.1396914,0.53580838,0.83236235,0.14171195,0
-1.1729392,1.9000542,4.1595898,-0.80121565,0.44827735,0.39635944,0
2.0991266,0.37418741,2.8112574,0.26638842,-0.32591453,0.90709257,0
0.44995892,2.0347664,0.71608049,0.53580838,0.83236235,0.14171195,0
0.03648714,2.0734813,1.2456346,0.53580838,0.83236235,0.14171195,0
1.5583899,0.011756912,2.8860102,0.26638842,-0.32591453,0.90709257,0
-3.3350236,2.5696831,-1.3438044,-0.26638842,0.32591453,-0.90709257,0
0.31426334,2.4142199,-1.0182469,0.53580838,0.83236235,0.14171195,0
0.1971693,2.6209755,-2.1671872,0.53580838,0.83236235,0.14171195,0
-0.89825654,3.0626855,-0.0003874898,0.53580838,0.83236235,0.14171195,0
-2.3037531,1.4993662,-2.0864329,-0.26638842,0.32591453,-0.90709257,0
-2.3784676,0.085591674,3.9887533,-0.80121565,0.44827735,0.39635944,0
-1.6776347,2.211087,2.9507866,-0.80121565,0.44827735,0.39635944,0
-1.9678373,0.86609435,4.1079259,-0.80121565,0.44827735,0.39635944,0
2.2685871,1.0189886,-1.1078876,0.53580838,0.83236235,0.14171195,0
2.1981053,-0.55681115,-3.6869583,0.80121565,-0.44827735,-0.39635944,0
-0.24132919,2.8198566,-1.3893054,0.53580838,0.83236235,0.14171195,0
-3.2085369,-0.052280068,2.3099363,-0.80121565,0.44827735,0.39635944,0
1.6725647,-1.3988345,-3.7392948,0.80121565,-0.44827735,-0.39635944,0
-3.0783927,-0.061552048,2.5129023,-0.80121565,0.44827735,0.39635944,0
-4.0631895,1.6145905,-1.0492026,-0.80121565,0.44827735,0.39635944,0
-3.0723934,2.5060029,-1.4701623,-0.26638842,0.32591453,-0.90709257,0
1.571564,-1.5874755,-3.7884462,0.80121565,-0.44827735,-0.39635944,0
3.3087208,-0.95706046,-1.2980561,0.80121565,-0.44827735,-0.39635944,0
3.3401992,-0.73937732,-1.1287124,0.80121565,-0.44827735,-0.39635944,0
-2.8588004,3.4027324,-0.68050933,-0.80121565,0.44827735,0.39635944,0
-3.313586,0.79778254,1.3815746,-0.80121565,0.44827735,0.39635944,0
-1.573442,3.4196982,-0.13247323,0.53580838,0.83236235,0.14171195,0
-0.65355504,1.9100571,4.0780592,0.26638842,-0.32591453,0.90709257,0
0.7309742,-1.7213411,2.5415828,0.26638842,-0.32591453,0.90709257,0
0.11561561,1.4538735,3.7587845,0.26638842,-0.32591453,0.90709257,0
-3.4100544,0.49659309,-2.1601684,-0.26638842,0.32591453,-0.90709257,0
0.5336386,-2.2590082,-2.1780362,-0.53580838,-0.83236235,-0.14171195,0
0.14026213,-1.6698174,2.640847,0.26638842,-0.32591453,0.90709257,0
2.7953691,-0.78377038,-2.1790652,0.80121565,-0.44827735,-0.39635944,0
0.038437843,0.31657085,3.3576322,0.26638842,-0.32591453,0.90709257,0
-3.7850208,0.30529717,-1.7187222,-0.53580838,-0.83236235,-0.14171195,0
1.6345224,-0.064657927,-3.8217309,-0.26638842,0.32591453,-0.90709257,0
-3.7903233,1.9417504,-0.95059407,-0.80121565,0.44827735,0.39635944,0
-3.2467394,-0.73992205,2.5767624,-0.53580838,-0.83236235,-0.14171195,0
-1.8628768,-1.7602376,3.3211648,0.26638842,-0.32591453,0.90709257,0
-0.40780962,1.0717478,3.8334482,0.26638842,-0.32591453,0.90709257,0
3.4287972,-0.32709152,-1.5661919,0.80121565,-0.44827735,-0.39635944,0
3.4431539,-2.3599651,1.0372829,0.80121565,-0.44827735,-0.39635944,0
3.2252173,-0.41408628,-1.9406157,0.80121565,-0.44827735,-0.39635944,0
1.0054312,-2.7695405,2.0072114,0.26638842,-0.32591453,0.90709257,0
-2.4649143,0.63479733,3.1651132,-0.80121565,0.44827735,0.39635944,0
-3.4685664,-0.67364454,2.7762768,-0.80121565,0.44827735,0.39635944,0
-2.2215929,-1.3141699,2.3933926,-0.53580838,-0.83236235,-0.14171195,0
-0.4630183,-0.85204124,3.2046175,0.26638842,-0.32591453,0.90709257,0
-0.14704055,2.1517296,1.3881645,0.53580838,0.83236235,0.14171195,0
-2.7453728,2.5203023,0.23762059,-0.80121565,0.44827735,0.39635944,0
4.0698233,-0.41905415,-0.27116108,0.80121565,-0.44827735,-0.39635944,0
1.1285601,-2.794383,-2.0142159,-0.53580838,-0.83236235,-0.14171195,0
2.5893841,-1.9567451,1.887944,0.26638842,-0.32591453,0.90709257,0
-2.2652655,-0.86145711,0.024607658,-0.53580838,-0.83236235,-0.14171195,0
4.3129339,-1.2207867,1.6009305,0.26638842,-0.32591453,0.90709257,0
-4.0838141,0.39710724,0.31514025,-0.80121565,0.44827735,0.39635944,0
-3.6540284,1.3272748,0.059653044,-0.80121565,0.44827735,0.39635944,0
1.1796467,-3.4171636,1.815045,0.26638842,-0.32591453,0.90709257,0
2.4998147,-4.0584011,0.99722481,0.80121565,-0.44827735,-0.39635944,0
-1.5465598,2.6973605,-1.8958805,-0.26638842,0.32591453,-0.90709257,0
-2.3412979,0.53175247,3.6416068,-0.80121565,0.44827735,0.39635944,0
0.98754561,-2.5996976,-3.215693,-0.53580838,-0.83236235,-0.14171195,0
4.0541735,-0.23675954,0.30910087,0.53580838,0.83236235,0.14171195,0
-0.03195934,2.1436017,1.2998658,0.53580838,0.83236235,0.14171195,0
2.9517829,-1.9996858,-0.46374655,0.80121565,-0.44827735,-0.39635944,0
0.85745823,1.0797851,3.4868178,0.26638842,-0.32591453,0.90709257,0
2.6135921,-2.2235746,-1.0866562,0.80121565,-0.44827735,-0.39635944,0
0.94928491,-0.80626631,-3.853915,-0.26638842,0.32591453,-0.90709257,0
2.8462472,0.26700854,1.7117356,0.53580838,0.83236235,0.14171195,0
3.18644,-0.0087735653,1.497472,0.53580838,0.83236235,0.14171195,0
1.9577856,1.2369897,-1.2233716,0.53580838,0.83236235,0.14171195,0
3.1973214,-1.0304244,-1.315021,0.80121565,-0.44827735,-0.39635944,0
3.1264486,-1.455945,-0.6459651,0.80121565,-0.44827735,-0.39635944,0
-0.58125085,2.5550809,1.4272501,0.53580838,0.83236235,0.14171195,0
0.83591127,-0.77421218,-3.8514843,-0.26638842,0.32591453,-0.90709257,0
-1.3393568,-1.5772671,-0.26284719,-0.53580838,-0.83236235,-0.14171195,0
2.0777073,-4.0118823,1.0093386,-0.53580838,-0.83236235,-0.14171195,0
3.4038157,-1.0140092,-0.57516336,0.80121565,-0.44827735,-0.39635944,0
-0.52341914,1.2423273,-2.7085512,-0.26638842,0.32591453,-0.90709257,0
-3.1460762,1.4420022,1.0516484,-0.80121565,0.44827735,0.39635944,0
-2.8183706,1.150341,1.8737195,-0.80121565,0.44827735,0.39635944,0
-2.2400794,1.115503,3.0999856,-0.80121565,0.44827735,0.39635944,0
3.0857859,0.22980207,1.1799136,0.53580838,0.83236235,0.14171195,0
3.0217066,0.90300047,-2.2919209,0.53580838,0.83236235,0.14171195,0
-0.44506106,2.515157,0.87614244,0.53580838,0.83236235,0.14171195,0
0.62027717,-2.6949174,-1.1152372,-0.53580838,-0.83236235,-0.14171195,0
0.096330404,2.3856866,-0.054497708,0.53580838,0.83236235,0.14171195,0
0.2114445,-1.6793507,-3.9996238,-0.26638842,0.32591453,-0.90709257,0
-3.7930894,0.15429097,-0.14615154,-0.53580838,-0.83236235,-0.14171195,0
2.8527467,-1.8410901,1.7059953,0.26638842,-0.32591453,0.90709257,0
1.6355443,-3.425941,-0.82376826,-0.53580838,-0.83236235,-0.14171195,0
-0.57740772,-2.2746611,2.6124072,0.26638842,-0.32591453,0.90709257,0
-2.9575288,0.31219578,2.4839802,-0.80121565,0.44827735,0.39635944,0
-1.2447245,3.3933344,-1.7510914,-0.26638842,0.32591453,-0.90709257,0
1.7789867,-3.0161986,1.6309731,0.26638842,-0.32591453,0.90709257,0
1.9295464,0.0036340691,2.804486,0.26638842,-0.32591453,0.90709257,0
0.37017918,-1.5925227,2.6419811,0.26638842,-0.32591453,0.90709257,0
-3.3063815,0.018974066,-1.0961053,-0.53580838,-0.83236235,-0.14171195,0
-3.0961893,1.8004413,-1.7952998,-0.26638842,0.32591453,-0.90709257,0
-0.89648551,2.5825617,2.99262,0.53580838,0.83236235,0.14171195,0
2.2902193,0.13487947,-3.9592574,-0.26638842,0.32591453,-0.90709257,0
3.741801,0.050277829,-1.2818918,0.80121565,-0.44827735,-0.39635944,0
3.9493265,-1.1870579,0.61023462,0.80121565,-0.44827735,-0.39635944,0
0.98165125,-2.691328,-1.6576276,-0.53580838,-0.83236235,-0.14171195,0
-1.2115357,2.1195941,-2.1375306,-0.26638842,0.32591453,-0.90709257,0
0.70590925,1.1304374,-3.0154855,-0.26638842,0.32591453,-0.90709257,0
-2.5402691,-0.17590058,3.7987423,-0.80121565,0.44827735,0.39635944,0
3.4346771,-1.2399558,1.954007,0.26638842,-0.32591453,0.90709257,0
0.55195928,2.1834779,-1.1550932,0.53580838,0.83236235,0.14171195,0
-2.5800092,4.0858936,-0.87113869,-0.80121565,0.44827735,0.39635944,0
3.089453,-1.8442314,-0.43621063,0.80121565,-0.44827735,-0.39635944,0
-2.0027092,0.38917261,-2.6237738,-0.26638842,0.32591453,-0.90709257,0
-1.558816,-1.8049196,2.9885819,-0.53580838,-0.83236235,-0.14171195,0
3.8647153,-2.1874142,1.3511064,0.26638842,-0.32591453,0.90709257,0
-0.49869478,-1.560129,-3.2287993,-0.53580838,-0.83236235,-0.14171195,0
3.0716453,-0.42039335,-2.2244401,0.80121565,-0.44827735,-0.39635944,0
-0.85065794,1.4902159,-2.6173182,-0.26638842,0.32591453,-0.90709257,0
1.8255222,-1.6548413,2.2256293,0.26638842,-0.32591453,0.90709257,0
2.9269333,0.4386915,-3.5240619,0.80121565,-0.44827735,-0.39635944,0
1.6647948,-1.0876602,-4.1193848,0.80121565,-0.44827735,-0.39635944,0
2.5527859,-3.9215758,0.8116855,0.80121565,-0.44827735,-0.39635944,0
0.42649856,-2.2967317,-2.4766903,-0.53580838,-0.83236235,-0.14171195,0
-1.7324433,-1.2103971,-1.0885496,-0.53580838,-0.83236235,-0.14171195,0
3.6779211,-0.51732266,-0.91758633,0.80121565,-0.44827735,-0.39635944,0
2.5613718,0.59592015,1.4184086,0.53580838,0.83236235,0.14171195,0
-0.16552508,1.6465759,4.0360656,0.26638842,-0.32591453,0.90709257,0
-0.32068086,1.8720579,4.1116314,0.26638842,-0.32591453,0.90709257,0
-2.2657084,1.1318427,3.022697,-0.80121565,0.44827735,0.39635944,0
3.6223426,-0.18441683,1.3123839,0.53580838,0.83236235,0.14171195,0
0.98801881,-2.4997568,-3.4686198,-0.53580838,-0.83236235,-0.14171195,0
-3.4828384,-0.036887705,-1.3646712,-0.53580838,-0.83236235,-0.14171195,0
0.65236056,1.7765328,0.80704343,0.53580838,0.83236235,0.14171195,0
3.9354858,-0.7958349,1.8945894,0.26638842,-0.32591453,0.90709257,0
0.43240246,-2.3486478,-2.2915237,-0.53580838,-0.83236235,-0.14171195,0
-2.5079458,2.1530788,1.5653694,-0.80121565,0.44827735,0.39635944,0
-3.4843819,0.29191655,1.2908127,-0.80121565,0.44827735,0.39635944,0
0.30508196,1.8065661,2.5666151,0.53580838,0.83236235,0.14171195,0
-2.3010292,2.8234506,-1.5232317,-0.26638842,0.32591453,-0.90709257,0
2.7626905,-2.0073681,-0.8966558,0.80121565,-0.44827735,-0.39635944,0
1.0048827,-2.995172,-0.71875089,-0.53580838,-0.83236235,-0.14171195,0
-1.8305228,2.3784113,-1.8637311,-0.26638842,0.32591453,-0.90709257,0
3.3589664,-2.78053,0.88247442,0.80121565,-0.44827735,-0.39635944,0
-1.3622422,-0.97275579,3.3390384,0.26638842,-0.32591453,0.90709257,0
