4.1460443,-2.726409,0.36107397,0.98461008,-0.16997218,0.040651917,0
3.3797851,-2.7830567,1.9881752,-0.056672275,-0.090489149,0.99428368,0
4.0643554,-2.6938274,1.8625164,0.98461008,-0.16997218,0.040651917,0
-4.9655924,-2.796988,-1.15538,-0.98461008,0.16997218,-0.040651917,0
-2.5455723,4.9677052,1.4769082,0.16532195,0.98128551,0.098729342,0
-4.4786978,0.47462973,1.5583532,-0.98461008,0.16997218,-0.040651917,0
4.7789531,1.6846262,0.83384562,0.98461008,-0.16997218,0.040651917,0
3.6014166,-4.9762058,-2.1694803,-0.16532195,-0.98128551,-0.098729342,0
3.755888,-4.6720772,1.3672624,0.98461008,-0.16997218,0.040651917,0
1.0808539,4.1151643,2.3491406,-0.056672275,-0.090489149,0.99428368,0
-4.9567313,-2.0591576,-1.6142502,-0.98461008,0.16997218,-0.040651917,0
-1.5537713,4.7560983,0.046467781,0.16532195,0.98128551,0.098729342,0
-1.6135621,5.061882,-1.3370759,0.16532195,0.98128551,0.098729342,0
-4.7482481,-1.5180738,-0.44742846,-0.98461008,0.16997218,-0.040651917,0
2.270638,-4.9081373,-0.26388836,-0.16532195,-0.98128551,-0.098729342,0
2.4107132,4.2031002,0.21830219,0.16532195,0.98128551,0.098729342,0
-0.94406575,2.7744293,-1.881106,0.056672275,0.090489149,-0.99428368,0
4.5410051,0.29455304,2.1060419,0.98461008,-0.16997218,0.040651917,0
-2.5133247,-4.0832295,0.16038591,-0.16532195,-0.98128551,-0.098729342,0
4.6075139,-0.62865162,-1.4163408,0.98461008,-0.16997218,0.040651917,0
-2.1787972,-3.1952143,1.5272141,-0.056672275,-0.090489149,0.99428368,0
-1.0916708,-4.3342285,-0.54813766,-0.16532195,-0.98128551,-0.098729342,0
4.8491879,3.6567869,1.5783854,0.16532195,0.98128551,0.098729342,0
-2.8367186,2.9382684,2.0669899,-0.056672275,-0.090489149,0.99428368,0
-2.167274,-4.072494,-2.0198448,-0.16532195,-0.98128551,-0.098729342,0
-3.6908541,2.5225232,-1.9858558,0.056672275,0.090489149,-0.99428368,0
4.2100854,-2.1249881,0.58253431,0.98461008,-0.16997218,0.040651917,0
4.525351,0.2078011,-0.16188049,0.98461008,-0.16997218,0.040651917,0
-2.6343067,-4.1650443,-0.61315495,-0.16532195,-0.98128551,-0.098729342,0
0.58344793,-4.4618721,-1.3917017,-0.16532195,-0.98128551,-0.098729342,0
1.8172203,-2.6545782,1.9285026,-0.056672275,-0.090489149,0.99428368,0
4.3747749,3.3711908,2.6170163,-0.056672275,-0.090489149,0.99428368,0
-0.26689053,3.7462084,2.3129246,-0.056672275,-0.090489149,0.99428368,0
1.1371911,3.1005561,-1.7500454,0.056672275,0.090489149,-0.99428368,0
-0.099889278,4.3714824,1.8191991,0.16532195,0.98128551,0.098729342,0
5.0323105,1.9425935,-0.76415515,0.98461008,-0.16997218,0.040651917,0
5.0975857,3.3746364,2.5410295,0.98461008,-0.16997218,0.040651917,0
-3.8220439,5.0393953,1.4759769,-0.98461008,0.16997218,-0.040651917,0
-4.3556314,1.1282463,-0.80348349,-0.98461008,0.16997218,-0.040651917,0
-3.886832,4.1461258,-0.7056284,-0.98461008,0.16997218,-0.040651917,0
-1.517487,-4.0977097,-2.2584925,-0.16532195,-0.98128551,-0.098729342,0
4.420784,3.9179125,-0.64516377,0.16532195,0.98128551,0.098729342,0
-2.8081095,5.1156235,0.43432522,0.16532195,0.98128551,0.098729342,0
2.0938487,-3.3691807,-2.2762163,0.056672275,0.090489149,-0.99428368,0
3.8858654,-0.63655257,-1.8784978,0.056672275,0.090489149,-0.99428368,0
2.0031774,-5.0064173,0.093262672,-0.16532195,-0.98128551,-0.098729342,0
3.3533611,-5.1861477,-0.0030264854,-0.16532195,-0.98128551,-0.098729342,0
-4.128417,3.4760377,1.5469294,-0.98461008,0.16997218,-0.040651917,0
3.6029568,0.50086826,-1.6688404,0.056672275,0.090489149,-0.99428368,0
-5.0495243,-3.3458114,-0.53801394,-0.98461008,0.16997218,-0.040651917,0
-0.73514009,-4.4523792,0.37120175,-0.16532195,-0.98128551,-0.098729342,0
-3.8654454,-3.7166202,-1.1769942,-0.16532195,-0.98128551,-0.098729342,0
4.0747576,-3.0434532,-0.78877592,0.98461008,-0.16997218,0.040651917,0
2.5661137,-5.0549269,1.0800896,-0.16532195,-0.98128551,-0.098729342,0
-4.6691666,0.19832945,0.86136007,-0.98461008,0.16997218,-0.040651917,0
2.6183109,4.0942149,1.402194,0.16532195,0.98128551,0.098729342,0
-3.7077518,5.0141416,0.56595993,-0.98461008,0.16997218,-0.040651917,0
4.5771227,0.55774379,-0.18580699,0.98461008,-0.16997218,0.040651917,0
2.7526269,-3.4418449,-2.0688536,0.056672275,0.090489149,-0.99428368,0
-3.8386934,4.0804563,-1.0123925,-0.98461008,0.16997218,-0.040651917,0
4.609756,0.41837221,-1.2267203,0.98461008,-0.16997218,0.040651917,0
-4.3097658,-3.7160902,-2.1568615,-0.16532195,-0.98128551,-0.098729342,0
3.8270972,-3.8648458,-0.29459524,0.98461008,-0.16997218,0.040651917,0
2.8893495,-5.2214427,1.0589581,-0.16532195,-0.98128551,-0.098729342,0
-3.3017709,4.951149,1.805387,0.16532195,0.98128551,0.098729342,0
-2.9923873,-3.899075,-1.0002133,-0.16532195,-0.98128551,-0.098729342,0
-4.6274843,-0.33950961,0.7277863,-0.98461008,0.16997218,-0.040651917,0
0.66745949,4.1703973,2.2382171,0.16532195,0.98128551,0.098729342,0
-1.1800604,-4.4596276,-0.0032062531,-0.16532195,-0.98128551,-0.098729342,0
1.9988768,-5.0193701,0.34241247,-0.16532195,-0.98128551,-0.098729342,0
4.9372702,1.8330534,-0.27810025,0.98461008,-0.16997218,0.040651917,0
-0.86964893,4.7277884,0.38805199,0.16532195,0.98128551,0.098729342,0
2.4028058,2.3556154,2.2735248,-0.056672275,-0.090489149,0.99428368,0
-2.7102001,4.7665377,2.3634744,-0.056672275,-0.090489149,0.99428368,0
-3.2594414,-0.29041648,-2.2382789,0.056672275,0.090489149,-0.99428368,0
1.4496434,3.6026835,-1.6999234,0.056672275,0.090489149,-0.99428368,0
-2.0455463,-4.2368717,-0.0820297,-0.16532195,-0.98128551,-0.098729342,0
-1.0320425,4.6574321,1.9531608,0.16532195,0.98128551,0.098729342,0
-1.0595149,0.54355383,-2.1194706,0.056672275,0.090489149,-0.99428368,0
3.0397949,-0.30570221,2.198184,-0.056672275,-0.090489149,0.99428368,0
3.8634429,-4.1200967,-0.65773439,0.98461008,-0.16997218,0.040651917,0
4.97715,3.6561577,1.0124918,0.16532195,0.98128551,0.098729342,0
1.728339,-4.8998375,-0.5728755,-0.16532195,-0.98128551,-0.098729342,0
-3.7239966,4.9139037,0.89276934,-0.98461008,0.16997218,-0.040651917,0
-4.0223546,-4.0063138,0.53706115,-0.16532195,-0.98128551,-0.098729342,0
2.6435843,4.0251708,1.395373,0.16532195,0.98128551,0.098729342,0
2.940165,3.7940841,2.4679255,0.16532195,0.98128551,0.098729342,0
-2.0522079,-3.9873576,-2.3257115,-0.16532195,-0.98128551,-0.098729342,0
3.7997861,4.0647273,-0.65088183,0.16532195,0.98128551,0.098729342,0
-1.9621625,-1.3323383,1.7560288,-0.056672275,-0.090489149,0.99428368,0
-4.076704,1.8810298,-1.6822286,-0.98461008,0.16997218,-0.040651917,0
4.0751877,-1.1448839,2.091943,-0.056672275,-0.090489149,0.99428368,0
-5.0231142,-2.645313,-0.82736421,-0.98461008,0.16997218,-0.040651917,0
0.88282156,4.276258,1.8737288,0.16532195,0.98128551,0.098729342,0
-3.5029931,5.4094152,-1.7188382,0.16532195,0.98128551,0.098729342,0
1.9818578,-4.1461549,-2.2679355,0.056672275,0.090489149,-0.99428368,0
-3.3732677,2.7654676,-1.8979189,0.056672275,0.090489149,-0.99428368,0
-1.6408882,4.9625902,-0.98167944,0.16532195,0.98128551,0.098729342,0
-0.91364765,0.97510266,2.0993466,-0.056672275,-0.090489149,0.99428368,0
0.14560103,-1.1174766,-2.0365326,0.056672275,0.090489149,-0.99428368,0
0.33784586,0.71529567,-2.0072112,0.056672275,0.090489149,-0.99428368,0
-2.283112,-4.258204,0.52782214,-0.16532195,-0.98128551,-0.098729342,0
-2.9294453,-3.9474773,-0.58478975,-0.16532195,-0.98128551,-0.098729342,0
3.9257679,-3.4857039,-0.11213541,0.98461008,-0.16997218,0.040651917,0
2.9586594,-4.0479021,1.8308277,-0.056672275,-0.090489149,0.99428368,0
-4.702157,-0.89143753,-1.647413,-0.98461008,0.16997218,-0.040651917,0
-3.6758044,4.8623934,-1.6093163,-0.98461008,0.16997218,-0.040651917,0
3.6561856,-0.27490759,2.1964817,-0.056672275,-0.090489149,0.99428368,0
0.83760929,-4.5277128,-2.0514321,-0.16532195,-0.98128551,-0.098729342,0
4.2267952,-1.5294087,0.95585728,0.98461008,-0.16997218,0.040651917,0
5.0246086,2.1254663,-1.517451,0.98461008,-0.16997218,0.040651917,0
2.2436459,4.0770864,0.42548305,0.16532195,0.98128551,0.098729342,0
2.2373996,4.1289234,1.2345792,0.16532195,0.98128551,0.098729342,0
-1.9432635,-0.45323038,-2.2363148,0.056672275,0.090489149,-0.99428368,0
3.4441869,-4.3603287,-2.1830339,0.056672275,0.090489149,-0.99428368,0
2.4060183,3.0604153,2.4695549,-0.056672275,-0.090489149,0.99428368,0
0.15285672,-1.2631299,1.912335,-0.056672275,-0.090489149,0.99428368,0
-2.8967016,-4.2807245,1.0371003,-0.16532195,-0.98128551,-0.098729342,0
-1.1838613,-4.2400818,-1.1734456,-0.16532195,-0.98128551,-0.098729342,0
-0.6884439,-4.5673609,0.59583843,-0.16532195,-0.98128551,-0.098729342,0
-4.699255,-1.6339355,-1.4097776,-0.98461008,0.16997218,-0.040651917,0
1.246557,4.2338934,1.3341728,0.16532195,0.98128551,0.098729342,0
-5.0007215,-2.7066674,1.5320978,-0.056672275,-0.090489149,0.99428368,0
-4.8985963,-2.2117555,-0.34122586,-0.98461008,0.16997218,-0.040651917,0
0.42816734,4.2418756,2.1574042,0.16532195,0.98128551,0.098729342,0
-1.4890072,-2.5220904,-2.2691767,0.056672275,0.090489149,-0.99428368,0
0.673347,4.2762971,1.4849327,0.16532195,0.98128551,0.098729342,0
4.6810989,-0.076143384,-1.5027366,0.98461008,-0.16997218,0.040651917,0
0.62278414,-4.4925008,-2.2012529,-0.16532195,-0.98128551,-0.098729342,0
2.8823476,3.8050475,2.3613477,0.16532195,0.98128551,0.098729342,0
-4.5055485,-0.53806162,-1.4274104,-0.98461008,0.16997218,-0.040651917,0
1.3602753,-4.8924508,1.6898143,-0.056672275,-0.090489149,0.99428368,0
-0.7922163,-4.3855095,-0.20221639,-0.16532195,-0.98128551,-0.098729342,0
-1.5238909,0.19963789,1.8613553,-0.056672275,-0.090489149,0.99428368,0
4.5144186,-0.053551674,2.1955087,0.98461008,-0.16997218,0.040651917,0
-1.4486701,-0.62485397,1.8347859,-0.056672275,-0.090489149,0.99428368,0
-3.3182366,-4.1475391,0.96479112,-0.16532195,-0.98128551,-0.098729342,0
5.0630178,2.4812031,0.50881052,0.98461008,-0.16997218,0.040651917,0
-4.3964853,0.86068368,-0.62992048,-0.98461008,0.16997218,-0.040651917,0
-4.966145,-1.5442333,1.0912063,-0.98461008,0.16997218,-0.040651917,0
2.1194839,3.9985836,1.32101,0.16532195,0.98128551,0.098729342,0
3.1628041,0.28822136,-1.8955553,0.056672275,0.090489149,-0.99428368,0
3.0461245,-2.532984,-1.9842114,0.056672275,0.090489149,-0.99428368,0
1.7995183,-4.7473955,-0.71986771,-0.16532195,-0.98128551,-0.098729342,0
2.5421398,2.9102111,-1.6930798,0.056672275,0.090489149,-0.99428368,0
4.1233039,-2.0621135,-0.12472534,0.98461008,-0.16997218,0.040651917,0
-4.8781133,-1.9555607,-0.67417955,-0.98461008,0.16997218,-0.040651917,0
-2.5302386,-0.27923411,1.8200403,-0.056672275,-0.090489149,0.99428368,0
4.9925652,2.2315528,0.76234627,0.98461008,-0.16997218,0.040651917,0
3.5329375,-5.0526075,1.7194734,0.98461008,-0.16997218,0.040651917,0
-4.0182199,3.6120427,0.86187458,-0.98461008,0.16997218,-0.040651917,0
-3.4008029,-1.166162,-2.2490773,0.056672275,0.090489149,-0.99428368,0
2.8254027,-5.1606364,0.20939445,-0.16532195,-0.98128551,-0.098729342,0
0.42898059,4.5217886,-0.3287077,0.16532195,0.98128551,0.098729342,0
1.2115047,-4.8697472,0.89594173,-0.16532195,-0.98128551,-0.098729342,0
-0.39043769,0.68890905,-2.05093,0.056672275,0.090489149,-0.99428368,0
0.15005064,-4.7155714,0.74757051,-0.16532195,-0.98128551,-0.098729342,0
-4.1194696,0.10834326,1.7697887,-0.056672275,-0.090489149,0.99428368,0
2.8355684,4.0440001,0.28789392,0.16532195,0.98128551,0.098729342,0
4.4231987,-1.1442254,0.8433013,0.98461008,-0.16997218,0.040651917,0
-0.32013726,4.5336537,0.33096671,0.16532195,0.98128551,0.098729342,0
4.9338527,2.4125288,-0.42660952,0.98461008,-0.16997218,0.040651917,0
0.76069522,-4.8679686,0.85352087,-0.16532195,-0.98128551,-0.098729342,0
1.2362018,4.0617847,2.2067454,0.16532195,0.98128551,0.098729342,0
-1.9627006,5.0858421,-1.5401773,0.16532195,0.98128551,0.098729342,0
0.56750941,-4.7475853,0.1914804,-0.16532195,-0.98128551,-0.098729342,0
0.44056082,4.5729485,-0.54646707,0.16532195,0.98128551,0.098729342,0
4.7701707,0.47089699,-1.4999545,0.98461008,-0.16997218,0.040651917,0
-4.4518304,1.0622675,0.67939806,-0.98461008,0.16997218,-0.040651917,0
-0.86209965,2.709594,2.232749,-0.056672275,-0.090489149,0.99428368,0
-1.7561297,4.6251435,2.2397006,0.16532195,0.98128551,0.098729342,0
3.7638216,-4.1706314,-2.2006555,0.056672275,0.090489149,-0.99428368,0
4.9980884,3.4343762,2.432188,0.98461008,-0.16997218,0.040651917,0
0.61418736,-2.2960505,1.8783596,-0.056672275,-0.090489149,0.99428368,0
4.8042088,0.7508173,-0.83136892,0.98461008,-0.16997218,0.040651917,0
3.3965313,2.8173065,-1.5021889,0.056672275,0.090489149,-0.99428368,0
-1.4477017,-4.3793406,0.49535,-0.16532195,-0.98128551,-0.098729342,0
2.1290369,-3.6955605,-2.2001703,0.056672275,0.090489149,-0.99428368,0
-4.0069451,3.5595293,1.4290829,-0.98461008,0.16997218,-0.040651917,0
2.3645668,-4.8158202,1.7880979,-0.056672275,-0.090489149,0.99428368,0
-2.1984525,4.9257145,-0.13862705,0.16532195,0.98128551,0.098729342,0
1.6767418,-1.3710237,1.8885142,-0.056672275,-0.090489149,0.99428368,0
5.0230536,3.1127651,1.5752581,0.98461008,-0.16997218,0.040651917,0
-3.9126925,3.3104393,0.24882174,-0.98461008,0.16997218,-0.040651917,0
3.3819413,-3.9989893,1.9233613,-0.056672275,-0.090489149,0.99428368,0
-2.8514302,-2.6678677,1.6137191,-0.056672275,-0.090489149,0.99428368,0
3.6312189,-3.2126198,1.9081178,-0.056672275,-0.090489149,0.99428368,0
-4.7128716,-3.7854385,0.74412668,-0.16532195,-0.98128551,-0.098729342,0
4.5033102,-0.30555212,-0.43116379,0.98461008,-0.16997218,0.040651917,0
-2.0564573,4.8315268,0.0030012131,0.16532195,0.98128551,0.098729342,0
-4.6928082,-0.33292753,1.3893678,-0.98461008,0.16997218,-0.040651917,0
5.0958467,2.7512214,-0.5498724,0.98461008,-0.16997218,0.040651917,0
-4.9745173,-2.5643649,-0.44393563,-0.98461008,0.16997218,-0.040651917,0
-4.2761316,0.9859972,-1.8966875,-0.98461008,0.16997218,-0.040651917,0
-3.6997476,-0.46699902,1.7766738,-0.056672275,-0.090489149,0.99428368,0
4.4066286,-0.22491336,1.1834497,0.98461008,-0.16997218,0.040651917,0
-1.6088405,4.685544,2.2703071,0.16532195,0.98128551,0.098729342,0
2.1188133,4.0545788,2.0332475,0.16532195,0.98128551,0.098729342,0
5.2401533,3.4339232,-1.0167589,0.98461008,-0.16997218,0.040651917,0
4.7984438,0.77130365,-0.50841928,0.98461008,-0.16997218,0.040651917,0
4.6273079,-0.15078402,-0.48542547,0.98461008,-0.16997218,0.040651917,0
-5.2128839,-3.2733212,0.5247407,-0.98461008,0.16997218,-0.040651917,0
5.2186317,3.493849,-0.96372914,0.98461008,-0.16997218,0.040651917,0
1.0744116,1.5591214,-1.8385262,0.056672275,0.090489149,-0.99428368,0
-3.8634095,4.2716951,1.9499021,-0.98461008,0.16997218,-0.040651917,0
-3.761714,-4.0477104,1.1764851,-0.16532195,-0.98128551,-0.098729342,0
-2.8836155,4.9460502,0.24959326,0.16532195,0.98128551,0.098729342,0
-2.4061577,-4.0783367,-0.67345071,-0.16532195,-0.98128551,-0.098729342,0
5.0664344,2.6870489,-1.3895483,0.98461008,-0.16997218,0.040651917,0
0.43906045,4.4254088,-0.054027796,0.16532195,0.98128551,0.098729342,0
-2.062839,-4.3357449,0.20856863,-0.16532195,-0.98128551,-0.098729342,0
-4.1824207,2.751317,-0.11395693,-0.98461008,0.16997218,-0.040651917,0
-0.90488911,-4.4328265,-0.39727461,-0.16532195,-0.98128551,-0.098729342,0
-4.6223979,-0.90959227,-0.10466695,-0.98461008,0.16997218,-0.040651917,0
-0.63930726,3.1187847,2.1792572,-0.056672275,-0.090489149,0.99428368,0
1.0594707,-3.0255795,1.8319962,-0.056672275,-0.090489149,0.99428368,0
-4.1940002,-0.82957911,-2.264457,0.056672275,0.090489149,-0.99428368,0
3.518383,2.4712944,-1.5082843,0.056672275,0.090489149,-0.99428368,0
-0.91748857,2.5277388,-1.7971994,0.056672275,0.090489149,-0.99428368,0
1.046236,-0.082547903,2.1081896,-0.056672275,-0.090489149,0.99428368,0
-4.3172336,1.8177249,0.0039339066,-0.98461008,0.16997218,-0.040651917,0
3.7614319,0.25124478,-1.6935916,0.056672275,0.090489149,-0.99428368,0
3.5435257,-0.14053655,2.1918619,-0.056672275,-0.090489149,0.99428368,0
-3.2697392,5.0224857,2.0714793,0.16532195,0.98128551,0.098729342,0
-3.1787038,-3.7231193,-2.4933171,-0.16532195,-0.98128551,-0.098729342,0
-2.1841083,-2.6631298,1.7207277,-0.056672275,-0.090489149,0.99428368,0
-3.5272183,-1.0578511,-2.2919459,0.056672275,0.090489149,-0.99428368,0
-0.96785021,-4.4134336,0.7835573,-0.16532195,-0.98128551,-0.098729342,0
-4.4923315,0.36009872,1.2035391,-0.98461008,0.16997218,-0.040651917,0
4.9489264,2.9124622,1.8357145,0.98461008,-0.16997218,0.040651917,0
-4.2912955,-3.5307684,-2.4345083,-0.16532195,-0.98128551,-0.098729342,0
0.7350316,-4.4979858,-2.3857617,0.056672275,0.090489149,-0.99428368,0
-3.3272059,5.0718665,0.87535524,0.16532195,0.98128551,0.098729342,0
-0.88870621,-0.087489367,-2.079237,0.056672275,0.090489149,-0.99428368,0
5.0793395,2.985564,-1.3328686,0.98461008,-0.16997218,0.040651917,0
-3.0754535,-4.0320535,0.23509441,-0.16532195,-0.98128551,-0.098729342,0
1.2576361,-0.49858987,-1.9906557,0.056672275,0.090489149,-0.99428368,0
2.2217526,0.081266165,2.2195983,-0.056672275,-0.090489149,0.99428368,0
-4.9847841,-3.5443103,-1.7072937,-0.16532195,-0.98128551,-0.098729342,0
-4.4062014,0.98410642,0.036394596,-0.98461008,0.16997218,-0.040651917,0
-4.2554111,0.98380852,-1.4837456,-0.98461008,0.16997218,-0.040651917,0
-4.8506351,-2.2783346,-0.61444974,-0.98461008,0.16997218,-0.040651917,0
-4.8363934,-1.4378307,-0.87421393,-0.98461008,0.16997218,-0.040651917,0
-4.8083539,-2.0164895,-0.66943002,-0.98461008,0.16997218,-0.040651917,0
-0.23583388,4.6111331,0.3352313,0.16532195,0.98128551,0.098729342,0
4.9277549,1.3929929,-0.83949947,0.98461008,-0.16997218,0.040651917,0
1.5676556,-4.7608738,-0.71373272,-0.16532195,-0.98128551,-0.098729342,0
4.2499299,-1.5882528,-1.1717629,0.98461008,-0.16997218,0.040651917,0
2.2066798,-5.0519238,1.1172762,-0.16532195,-0.98128551,-0.098729342,0
-3.8879116,4.2607183,0.1371913,-0.98461008,0.16997218,-0.040651917,0
-0.32647514,-4.472343,-0.87916493,-0.16532195,-0.98128551,-0.098729342,0
4.4729457,0.058357239,2.2176905,0.98461008,-0.16997218,0.040651917,0
-3.3992879,5.175065,-1.0428901,0.16532195,0.98128551,0.098729342,0
-1.1590502,-2.5133243,-2.3615336,0.056672275,0.090489149,-0.99428368,0
2.0874274,-0.90989542,1.9960253,-0.056672275,-0.090489149,0.99428368,0
2.0237563,4.1991038,1.1708711,0.16532195,0.98128551,0.098729342,0
-5.0293269,-2.5670757,-0.65409589,-0.98461008,0.16997218,-0.040651917,0
0.10694456,4.4188304,2.2401726,0.16532195,0.98128551,0.098729342,0
-4.8659477,-1.9990399,-1.9428086,-0.98461008,0.16997218,-0.040651917,0
3.5015073,-0.43267748,-1.7830229,0.056672275,0.090489149,-0.99428368,0
2.6561537,-0.1196382,2.1699262,-0.056672275,-0.090489149,0.99428368,0
4.7640581,1.1191927,-1.5041142,0.98461008,-0.16997218,0.040651917,0
-3.9952013,-3.7206299,-2.3368411,-0.16532195,-0.98128551,-0.098729342,0
-5.0344391,-2.4620719,0.95174551,-0.98461008,0.16997218,-0.040651917,0
-4.4263978,-0.3408432,-2.3691254,0.056672275,0.090489149,-0.99428368,0
3.995754,-4.0189543,-1.0427384,0.98461008,-0.16997218,0.040651917,0
-4.8490095,-1.6024117,-1.6921756,-0.98461008,0.16997218,-0.040651917,0
-1.6903619,4.6909237,-1.6322875,0.056672275,0.090489149,-0.99428368,0
-2.5275359,-2.1842046,1.750237,-0.056672275,-0.090489149,0.99428368,0
2.479888,-4.8672109,-0.65591192,-0.16532195,-0.98128551,-0.098729342,0
3.3128219,1.090399,2.3254013,-0.056672275,-0.090489149,0.99428368,0
4.5665593,3.1583366,-1.4508978,0.056672275,0.090489149,-0.99428368,0
1.2773297,-4.6881742,-1.5197046,-0.16532195,-0.98128551,-0.098729342,0
-3.1208901,-2.7630444,1.5807662,-0.056672275,-0.090489149,0.99428368,0
-0.55368209,-4.5019264,0.19708729,-0.16532195,-0.98128551,-0.098729342,0
1.61659,4.1974211,1.5805719,0.16532195,0.98128551,0.098729342,0
4.9402223,1.6212659,-0.23931956,0.98461008,-0.16997218,0.040651917,0
-2.5283849,5.1028094,-1.4679976,0.16532195,0.98128551,0.098729342,0
-5.182549,-3.7815447,0.74874687,-0.16532195,-0.98128551,-0.098729342,0
-2.3830051,4.8927426,1.6905022,0.16532195,0.98128551,0.098729342,0
1.4046152,-4.7789655,0.47739458,-0.16532195,-0.98128551,-0.098729342,0
-3.7310801,1.2201731,-2.0488029,0.056672275,0.090489149,-0.99428368,0
0.7924211,-3.7829373,1.7433002,-0.056672275,-0.090489149,0.99428368,0
3.8899269,-4.2357626,-1.1346998,0.98461008,-0.16997218,0.040651917,0
-1.8916945,-4.0740833,1.4510951,-0.056672275,-0.090489149,0.99428368,0
4.3981838,-0.95732212,-0.1996212,0.98461008,-0.16997218,0.040651917,0
2.9859421,-3.6214285,-2.1719146,0.056672275,0.090489149,-0.99428368,0
1.2421083,4.0761175,2.4839172,-0.056672275,-0.090489149,0.99428368,0
4.5606484,-0.3607322,-1.3242588,0.98461008,-0.16997218,0.040651917,0
-1.1733763,-4.4445453,-0.20092642,-0.16532195,-0.98128551,-0.098729342,0
-3.516633,1.1374879,-2.0891781,0.056672275,0.090489149,-0.99428368,0
-4.6085505,0.31195772,-0.058961391,-0.98461008,0.16997218,-0.040651917,0
-3.4640656,3.366899,-1.8971395,0.056672275,0.090489149,-0.99428368,0
-2.8041584,2.5256929,2.0270047,-0.056672275,-0.090489149,0.99428368,0
-4.7645192,-1.1659284,-2.2868922,-0.98461008,0.16997218,-0.040651917,0
0.95951939,4.5301509,-0.9834255,0.16532195,0.98128551,0.098729342,0
1.3908961,-0.44696498,2.1021304,-0.056672275,-0.090489149,0.99428368,0
-1.0005565,-4.5060124,0.37591946,-0.16532195,-0.98128551,-0.098729342,0
5.1756926,3.4596899,-0.35780048,0.98461008,-0.16997218,0.040651917,0
-2.1851463,2.4196553,-1.9870715,0.056672275,0.090489149,-0.99428368,0
3.8805537,-1.1885109,2.2243075,-0.056672275,-0.090489149,0.99428368,0
4.9346356,2.5139494,0.88150883,0.98461008,-0.16997218,0.040651917,0
-4.3565664,0.97664762,-1.9886975,-0.98461008,0.16997218,-0.040651917,0
-4.7324328,-0.91048527,-1.005712,-0.98461008,0.16997218,-0.040651917,0
-4.1445446,2.2653501,0.26714516,-0.98461008,0.16997218,-0.040651917,0
4.4110556,-0.84026521,-0.87547827,0.98461008,-0.16997218,0.040651917,0
-1.655117,-3.3776755,-2.4399257,0.056672275,0.090489149,-0.99428368,0
1.0213385,-4.6151052,-2.1935506,-0.16532195,-0.98128551,-0.098729342,0
2.0243416,4.2329388,0.020450652,0.16532195,0.98128551,0.098729342,0
-2.7680936,-4.0948844,-0.039173707,-0.16532195,-0.98128551,-0.098729342,0
-3.6761043,-3.8959131,-0.45819116,-0.16532195,-0.98128551,-0.098729342,0
4.8595681,1.4044831,-0.51397729,0.98461008,-0.16997218,0.040651917,0
-4.5350933,-0.15718687,0.46391916,-0.98461008,0.16997218,-0.040651917,0
4.1424603,-2.1471248,-0.94462013,0.98461008,-0.16997218,0.040651917,0
5.0463548,3.2527263,1.1336982,0.98461008,-0.16997218,0.040651917,0
2.9991212,-0.86432046,-1.8307478,0.056672275,0.090489149,-0.99428368,0
-4.5700173,0.23223734,-0.30365705,-0.98461008,0.16997218,-0.040651917,0
-4.9436536,-1.7069911,0.91664863,-0.98461008,0.16997218,-0.040651917,0
4.0726328,-0.33040762,2.287184,-0.056672275,-0.090489149,0.99428368,0
-3.9317384,3.2810209,-0.96132326,-0.98461008,0.16997218,-0.040651917,0
-1.7254555,5.0022707,-0.9668498,0.16532195,0.98128551,0.098729342,0
-4.4097166,1.3409566,0.80131817,-0.98461008,0.16997218,-0.040651917,0
5.0513725,2.2474775,-1.1711917,0.98461008,-0.16997218,0.040651917,0
-4.9287839,-1.9609554,-1.872611,-0.98461008,0.16997218,-0.040651917,0
-2.8086507,-3.3426354,-2.5471189,0.056672275,0.090489149,-0.99428368,0
-1.9538325,-0.97001719,-2.3070321,0.056672275,0.090489149,-0.99428368,0
-1.9861224,-4.2537823,-0.11361313,-0.16532195,-0.98128551,-0.098729342,0
-3.4642081,4.8872585,1.85993,0.16532195,0.98128551,0.098729342,0
4.5514445,-0.45747268,-0.045468807,0.98461008,-0.16997218,0.040651917,0
2.3068786,0.62289715,-1.880381,0.056672275,0.090489149,-0.99428368,0
-0.073286563,-1.7690737,1.8164065,-0.056672275,-0.090489149,0.99428368,0
-2.7529492,3.0409465,2.18308,-0.056672275,-0.090489149,0.99428368,0
1.074105,-4.8245029,0.20642996,-0.16532195,-0.98128551,-0.098729342,0
-4.1462221,2.686147,-1.2515593,-0.98461008,0.16997218,-0.040651917,0
-1.075403,-4.4895716,1.4540617,-0.16532195,-0.98128551,-0.098729342,0
-0.43087077,4.6511068,-0.13119078,0.16532195,0.98128551,0.098729342,0
3.9773808,1.2816291,-1.7475371,0.056672275,0.090489149,-0.99428368,0
4.1732435,-2.9813647,-0.86490297,0.98461008,-0.16997218,0.040651917,0
-4.705368,-0.9656415,-1.6012652,-0.98461008,0.16997218,-0.040651917,0
-0.86216354,4.6034069,1.7609353,0.16532195,0.98128551,0.098729342,0
3.4419756,4.1316948,-0.85038728,0.16532195,0.98128551,0.098729342,0
3.6478057,-4.4547558,1.6428256,0.98461008,-0.16997218,0.040651917,0
-4.2237453,2.5818191,1.2321801,-0.98461008,0.16997218,-0.040651917,0
3.328624,-5.2462764,0.047224998,-0.16532195,-0.98128551,-0.098729342,0
-1.7823545,3.9738081,-1.7769177,0.056672275,0.090489149,-0.99428368,0
-4.2205944,2.3524697,-0.2940402,-0.98461008,0.16997218,-0.040651917,0
-4.3110523,-0.66327715,1.7147112,-0.056672275,-0.090489149,0.99428368,0
-0.45284224,-4.3015008,-1.8635727,-0.16532195,-0.98128551,-0.098729342,0
-3.3899183,-1.9446695,1.6852764,-0.056672275,-0.090489149,0.99428368,0
2.0069644,4.4473543,-1.4050634,0.16532195,0.98128551,0.098729342,0
-1.823429,-1.4306331,-2.2333877,0.056672275,0.090489149,-0.99428368,0
0.97674179,3.5219965,2.4019537,-0.056672275,-0.090489149,0.99428368,0
4.9564133,2.4383616,-0.60393739,0.98461008,-0.16997218,0.040651917,0
4.79632,1.6591241,2.3357034,0.98461008,-0.16997218,0.040651917,0
2.3356853,3.9634459,1.6763437,0.16532195,0.98128551,0.098729342,0
-4.8389149,-3.6418908,-0.45868385,-0.16532195,-0.98128551,-0.098729342,0
-4.6298032,0.071976423,0.49326563,-0.98461008,0.16997218,-0.040651917,0
-0.47605872,3.2618544,2.1886849,-0.056672275,-0.090489149,0.99428368,0
-3.1386631,0.45635462,-2.2058773,0.056672275,0.090489149,-0.99428368,0
2.5486786,0.34324074,2.1254702,-0.056672275,-0.090489149,0.99428368,0
-1.9132528,-3.8506091,-2.5572584,0.056672275,0.090489149,-0.99428368,0
-0.3433075,4.0380859,-1.628327,0.056672275,0.090489149,-0.99428368,0
-3.1652114,-3.9818523,-1.1380699,-0.16532195,-0.98128551,-0.098729342,0
2.9255857,0.63863695,-1.793614,0.056672275,0.090489149,-0.99428368,0
-0.37626314,2.4289708,2.2436168,-0.056672275,-0.090489149,0.99428368,0
1.5482717,4.2764559,0.1716305,0.16532195,0.98128551,0.098729342,0
1.4094713,-4.9260597,0.29548311,-0.16532195,-0.98128551,-0.098729342,0
4.9361219,3.0584621,1.7771604,0.98461008,-0.16997218,0.040651917,0
4.6548867,0.00088691711,0.013852596,0.98461008,-0.16997218,0.040651917,0
-4.0140328,-4.061244,1.0555053,-0.16532195,-0.98128551,-0.098729342,0
-2.8231306,-1.8476541,1.6581228,-0.056672275,-0.090489149,0.99428368,0
4.0689335,-3.7060027,-1.5358534,0.98461008,-0.16997218,0.040651917,0
-4.7544508,-0.96589994,1.454211,-0.98461008,0.16997218,-0.040651917,0
-4.1270237,2.4279103,-1.4829249,-0.98461008,0.16997218,-0.040651917,0
-4.9472446,-2.7373996,-1.5777823,-0.98461008,0.16997218,-0.040651917,0
-5.0464344,-3.2992878,-1.008266,-0.98461008,0.16997218,-0.040651917,0
0.14735746,-4.6136932,-0.4886291,-0.16532195,-0.98128551,-0.098729342,0
4.328577,-1.3452055,2.0096281,0.98461008,-0.16997218,0.040651917,0
-2.7725949,-1.0048134,-2.2120841,0.056672275,0.090489149,-0.99428368,0
1.5282409,-2.5370884,1.9335734,-0.056672275,-0.090489149,0.99428368,0
-1.7559412,-1.7335593,-2.1936946,0.056672275,0.090489149,-0.99428368,0
1.6077287,-0.42398,2.0151546,-0.056672275,-0.090489149,0.99428368,0
-4.9687219,-2.4294212,-2.4099097,-0.98461008,0.16997218,-0.040651917,0
2.2536333,-2.4755864,1.834307,-0.056672275,-0.090489149,0.99428368,0
-3.0075758,-4.1030722,0.77427065,-0.16532195,-0.98128551,-0.098729342,0
2.1801739,-4.9490919,-0.92621565,-0.16532195,-0.98128551,-0.098729342,0
-1.9315122,4.4540925,-1.737432,0.056672275,0.090489149,-0.99428368,0
-0.86733294,4.1351843,2.3743162,-0.056672275,-0.090489149,0.99428368,0
0.59119034,4.6072984,-0.77225685,0.16532195,0.98128551,0.098729342,0
-1.7671211,-4.1118393,-0.92535663,-0.16532195,-0.98128551,-0.098729342,0
-3.9257925,3.3431921,0.047670364,-0.98461008,0.16997218,-0.040651917,0
-4.3038397,2.1422658,1.5042148,-0.98461008,0.16997218,-0.040651917,0
-4.5317087,0.60697436,-0.77165127,-0.98461008,0.16997218,-0.040651917,0
-2.5201223,1.62818,-1.9731467,0.056672275,0.090489149,-0.99428368,0
-0.42629611,0.2034812,-1.9989885,0.056672275,0.090489149,-0.99428368,0
4.0592427,-3.096513,-0.85732603,0.98461008,-0.16997218,0.040651917,0
4.4980326,-0.64268756,1.224786,0.98461008,-0.16997218,0.040651917,0
-4.810524,-1.3576893,-0.57268834,-0.98461008,0.16997218,-0.040651917,0
-5.0480857,-2.5372605,0.49052167,-0.98461008,0.16997218,-0.040651917,0
3.7562611,0.96506047,2.2500505,-0.056672275,-0.090489149,0.99428368,0
-2.8374102,-3.8491998,-1.5762038,-0.16532195,-0.98128551,-0.098729342,0
1.0820601,4.5546532,-0.91829693,0.16532195,0.98128551,0.098729342,0
0.43740368,-4.4644785,-2.1645167,-0.16532195,-0.98128551,-0.098729342,0
-5.0855823,-2.9945402,1.0462403,-0.98461008,0.16997218,-0.040651917,0
-3.8239348,3.2417917,-1.8531346,0.056672275,0.090489149,-0.99428368,0
-1.5025814,-4.3931279,0.056193471,-0.16532195,-0.98128551,-0.098729342,0
-3.7169218,4.4879851,-0.44733572,-0.98461008,0.16997218,-0.040651917,0
2.2424688,-4.9754586,-0.6124897,-0.16532195,-0.98128551,-0.098729342,0
2.6038957,4.2117052,-1.318249,0.16532195,0.98128551,0.098729342,0
3.5398479,-5.3125529,1.1465487,-0.16532195,-0.98128551,-0.098729342,0
4.5950317,0.62452722,0.30677557,0.98461008,-0.16997218,0.040651917,0
-3.0461097,-3.6199794,1.4597524,-0.056672275,-0.090489149,0.99428368,0
-4.603426,0.75301266,1.7493844,-0.98461008,0.16997218,-0.040651917,0
-3.1818743,2.8882084,-2.0121572,0.056672275,0.090489149,-0.99428368,0
0.99879169,-1.7147785,1.8560696,-0.056672275,-0.090489149,0.99428368,0
2.3073068,-5.2333045,1.59549,-0.16532195,-0.98128551,-0.098729342,0
4.1764474,3.8125985,0.94300705,0.16532195,0.98128551,0.098729342,0
3.908994,-4.3213196,0.34822941,0.98461008,-0.16997218,0.040651917,0
-4.2726526,1.6381533,-1.163929,-0.98461008,0.16997218,-0.040651917,0
3.395818,-5.280077,1.2069035,-0.16532195,-0.98128551,-0.098729342,0
-3.5266123,-4.1812973,1.177871,-0.16532195,-0.98128551,-0.098729342,0
-3.8882525,4.6610718,2.1863112,-0.98461008,0.16997218,-0.040651917,0
-2.0428288,2.1318738,-1.9874985,0.056672275,0.090489149,-0.99428368,0
4.7281895,1.7634363,2.0258689,0.98461008,-0.16997218,0.040651917,0
-3.0099053,5.3158445,-1.3281989,0.16532195,0.98128551,0.098729342,0
-4.5837021,-0.010118246,-0.54445457,-0.98461008,0.16997218,-0.040651917,0
-0.34574437,4.6181278,-0.48009539,0.16532195,0.98128551,0.098729342,0
3.98769,-3.5962481,-1.7245302,0.98461008,-0.16997218,0.040651917,0
-0.51026368,-4.6629977,0.95296347,-0.16532195,-0.98128551,-0.098729342,0
-4.7571487,-0.74690813,1.1251547,-0.98461008,0.16997218,-0.040651917,0
-5.0474892,-3.326508,-2.4661355,-0.98461008,0.16997218,-0.040651917,0
-4.1879396,2.1743667,0.83937979,-0.98461008,0.16997218,-0.040651917,0
4.6466403,0.10375071,0.51943707,0.98461008,-0.16997218,0.040651917,0
3.9729724,-3.0338011,0.92469883,0.98461008,-0.16997218,0.040651917,0
5.128005,3.6971331,1.0611571,0.16532195,0.98128551,0.098729342,0
2.0201831,1.418396,2.2184405,-0.056672275,-0.090489149,0.99428368,0
0.69483185,4.2959852,1.133297,0.16532195,0.98128551,0.098729342,0
-2.9701109,4.981719,1.9743395,0.16532195,0.98128551,0.098729342,0
2.076472,4.1503105,0.50841224,0.16532195,0.98128551,0.098729342,0
3.4962089,2.1827691,-1.6532524,0.056672275,0.090489149,-0.99428368,0
3.7785914,-3.880631,1.0460038,0.98461008,-0.16997218,0.040651917,0
2.6952257,0.049393296,-1.9009532,0.056672275,0.090489149,-0.99428368,0
-4.1465073,-4.0078812,0.4922508,-0.16532195,-0.98128551,-0.098729342,0
-3.5639613,-1.2205954,-2.3467264,0.056672275,0.090489149,-0.99428368,0
-1.5019397,1.4619184,-1.9889399,0.056672275,0.090489149,-0.99428368,0
0.40197301,4.5828786,-1.2465018,0.16532195,0.98128551,0.098729342,0
-0.56017685,4.7737398,-1.3394463,0.16532195,0.98128551,0.098729342,0
-2.1319032,-4.2601919,1.2946612,-0.16532195,-0.98128551,-0.098729342,0
4.0604877,3.7553515,0.82963848,0.16532195,0.98128551,0.098729342,0
-4.7009745,-0.14592695,0.31176805,-0.98461008,0.16997218,-0.040651917,0
-2.5669887,4.4312553,-1.67695,0.056672275,0.090489149,-0.99428368,0
4.0187845,-3.4551969,0.74300241,0.98461008,-0.16997218,0.040651917,0
3.5023048,3.9981956,0.15789241,0.16532195,0.98128551,0.098729342,0
-2.6582417,4.2491522,-1.6930404,0.056672275,0.090489149,-0.99428368,0
2.4364066,4.0288506,1.6718421,0.16532195,0.98128551,0.098729342,0
-4.9202266,-2.106003,0.92088819,-0.98461008,0.16997218,-0.040651917,0
-4.0312176,3.7337663,0.33309555,-0.98461008,0.16997218,-0.040651917,0
-4.5651507,-0.55899024,-0.59508228,-0.98461008,0.16997218,-0.040651917,0
4.313345,-1.6373658,-2.0003796,0.056672275,0.090489149,-0.99428368,0
3.9990034,-3.4033422,0.71395874,0.98461008,-0.16997218,0.040651917,0
-4.6201262,-0.44060302,-0.23120546,-0.98461008,0.16997218,-0.040651917,0
2.8575025,4.2006707,0.011316001,0.16532195,0.98128551,0.098729342,0
-3.9380565,4.718298,2.1851997,-0.98461008,0.16997218,-0.040651917,0
4.058434,-3.1235476,0.55267048,0.98461008,-0.16997218,0.040651917,0
4.5577178,-0.2535367,0.42165899,0.98461008,-0.16997218,0.040651917,0
-0.35026026,4.7250338,-0.30433869,0.16532195,0.98128551,0.098729342,0
4.2213154,-1.2241478,1.918529,0.98461008,-0.16997218,0.040651917,0
-2.9684429,-4.1561232,-0.11127612,-0.16532195,-0.98128551,-0.098729342,0
4.3545084,-1.2831216,0.66639042,0.98461008,-0.16997218,0.040651917,0
-3.0854831,3.1806567,-1.9540536,0.056672275,0.090489149,-0.99428368,0
3.1693511,-4.6828365,1.7058196,-0.056672275,-0.090489149,0.99428368,0
-3.8370123,4.8238325,0.35082722,-0.98461008,0.16997218,-0.040651917,0
2.6347325,3.9810786,0.61672258,0.16532195,0.98128551,0.098729342,0
4.5999432,0.36073351,0.016963005,0.98461008,-0.16997218,0.040651917,0
0.73055756,0.96834731,2.0966074,-0.056672275,-0.090489149,0.99428368,0
1.355602,-4.3988276,1.7794175,-0.056672275,-0.090489149,0.99428368,0
4.0345249,-1.1770067,2.0468011,-0.056672275,-0.090489149,0.99428368,0
-3.7166083,-1.8323412,-2.3319888,0.056672275,0.090489149,-0.99428368,0
3.5518823,-1.8748355,1.9562168,-0.056672275,-0.090489149,0.99428368,0
-2.5453954,-3.9110205,-1.8338735,-0.16532195,-0.98128551,-0.098729342,0
4.9134569,2.1776876,0.53067827,0.98461008,-0.16997218,0.040651917,0
4.0857263,-1.7776253,2.0846701,0.98461008,-0.16997218,0.040651917,0
2.4983735,-4.7936525,-1.7514453,-0.16532195,-0.98128551,-0.098729342,0
-3.775188,4.6202455,-0.77236462,-0.98461008,0.16997218,-0.040651917,0
-0.50440121,-4.2818456,-2.4921083,0.056672275,0.090489149,-0.99428368,0
5.111804,2.3376303,-1.25912,0.98461008,-0.16997218,0.040651917,0
4.3518195,-1.0526992,0.1476841,0.98461008,-0.16997218,0.040651917,0
-4.1726699,2.0849843,-0.0038228035,-0.98461008,0.16997218,-0.040651917,0
4.2516718,-1.1204364,1.1216755,0.98461008,-0.16997218,0.040651917,0
-2.6839576,5.2786202,-1.6372333,0.16532195,0.98128551,0.098729342,0
4.2892542,-1.4573435,0.01886797,0.98461008,-0.16997218,0.040651917,0
4.0288825,2.7522838,-1.5060134,0.056672275,0.090489149,-0.99428368,0
-1.6927383,-4.0837173,-1.8344525,-0.16532195,-0.98128551,-0.098729342,0
-4.4867997,0.036558509,0.22552919,-0.98461008,0.16997218,-0.040651917,0
4.9136839,3.6011455,0.55779576,0.16532195,0.98128551,0.098729342,0
0.59724414,-1.0296232,-2.037302,0.056672275,0.090489149,-0.99428368,0
-1.154673,-0.78289938,-2.2226315,0.056672275,0.090489149,-0.99428368,0
-3.894191,-4.0456691,1.2652078,-0.16532195,-0.98128551,-0.098729342,0
-1.7878208,2.0667901,-2.0023272,0.056672275,0.090489149,-0.99428368,0
5.0728345,3.4677541,0.93561172,0.98461008,-0.16997218,0.040651917,0
2.2735257,-4.857789,-1.2457418,-0.16532195,-0.98128551,-0.098729342,0
-3.8436472,-3.6722293,-1.9600357,-0.16532195,-0.98128551,-0.098729342,0
-3.950943,3.3014822,-0.90678501,-0.98461008,0.16997218,-0.040651917,0
2.7641993,-4.8416195,-1.6145597,-0.16532195,-0.98128551,-0.098729342,0
-5.0495682,-3.6993098,-1.3673474,-0.16532195,-0.98128551,-0.098729342,0
-2.3650692,-3.9763184,-1.1882069,-0.16532195,-0.98128551,-0.098729342,0
0.99872613,4.2550516,1.2118263,0.16532195,0.98128551,0.098729342,0
3.2465003,-4.7725105,-2.3010879,0.056672275,0.090489149,-0.99428368,0
-4.291616,2.3873098,1.1259847,-0.98461008,0.16997218,-0.040651917,0
-1.6873143,-4.1572819,1.629702,-0.056672275,-0.090489149,0.99428368,0
5.115984,2.3353996,-1.4556866,0.98461008,-0.16997218,0.040651917,0
0.36725569,-2.5202429,-2.2236252,0.056672275,0.090489149,-0.99428368,0
-1.5135367,-4.2866755,-0.61098671,-0.16532195,-0.98128551,-0.098729342,0
-4.2607307,1.1790702,-2.1790736,-0.98461008,0.16997218,-0.040651917,0
1.0311608,4.2419806,1.8115017,0.16532195,0.98128551,0.098729342,0
0.98273492,-4.5637822,-1.224761,-0.16532195,-0.98128551,-0.098729342,0
0.80720687,-4.8273973,0.70638084,-0.16532195,-0.98128551,-0.098729342,0
0.38921928,-4.5635796,-0.85905766,-0.16532195,-0.98128551,-0.098729342,0
3.1705363,3.0328753,-1.6337643,0.056672275,0.090489149,-0.99428368,0
2.8397262,2.9124708,-1.5661422,0.056672275,0.090489149,-0.99428368,0
-4.7418313,-1.4981978,0.07709074,-0.98461008,0.16997218,-0.040651917,0
2.6855123,4.3469105,-1.3307843,0.16532195,0.98128551,0.098729342,0
1.6976876,-5.026885,0.71049547,-0.16532195,-0.98128551,-0.098729342,0
4.0241833,3.7576261,0.49483526,0.16532195,0.98128551,0.098729342,0
-2.5880663,4.9632249,0.25544357,0.16532195,0.98128551,0.098729342,0
-1.1432328,-4.4078221,0.011324406,-0.16532195,-0.98128551,-0.098729342,0
-0.78989995,-0.2228334,-2.0412533,0.056672275,0.090489149,-0.99428368,0
-5.2680287,-3.3948462,1.0235817,-0.98461008,0.16997218,-0.040651917,0
-3.8619409,4.4735813,0.62666941,-0.98461008,0.16997218,-0.040651917,0
3.6681833,-5.1101317,0.92335081,0.98461008,-0.16997218,0.040651917,0
-2.5073929,-0.38279057,-2.252836,0.056672275,0.090489149,-0.99428368,0
3.5391502,-2.5022433,2.0685508,-0.056672275,-0.090489149,0.99428368,0
-4.5217514,0.39016736,0.17445278,-0.98461008,0.16997218,-0.040651917,0
-3.8312254,4.2007556,0.20662642,-0.98461008,0.16997218,-0.040651917,0
1.6613739,4.3435221,-1.2984973,0.16532195,0.98128551,0.098729342,0
3.5667982,-5.0055432,1.1705461,0.98461008,-0.16997218,0.040651917,0
1.7733567,-3.4557426,-2.1346464,0.056672275,0.090489149,-0.99428368,0
-1.9862587,3.9514732,-1.8254716,0.056672275,0.090489149,-0.99428368,0
4.576313,0.01469636,-0.69970512,0.98461008,-0.16997218,0.040651917,0
-0.49384606,0.29076338,1.9922823,-0.056672275,-0.090489149,0.99428368,0
3.7847939,-4.8700876,0.099156857,0.98461008,-0.16997218,0.040651917,0
3.8566544,-4.1251798,0.61541176,0.98461008,-0.16997218,0.040651917,0
1.9301472,-1.9917092,2.0296946,-0.056672275,-0.090489149,0.99428368,0
-0.37813425,4.4965448,1.145211,0.16532195,0.98128551,0.098729342,0
-4.7580571,-1.6029873,-2.0083671,-0.98461008,0.16997218,-0.040651917,0
-5.1746511,-3.3212531,-0.63517213,-0.98461008,0.16997218,-0.040651917,0
-3.9276202,3.8897059,-1.4958029,-0.98461008,0.16997218,-0.040651917,0
1.9568799,-0.93942201,-1.9187877,0.056672275,0.090489149,-0.99428368,0
-4.0780344,3.0123463,-0.54973316,-0.98461008,0.16997218,-0.040651917,0
-3.5264509,4.9337797,2.2200594,0.16532195,0.98128551,0.098729342,0
-2.9924116,-4.0951242,-0.13034643,-0.16532195,-0.98128551,-0.098729342,0
3.2152216,-5.3071351,0.88980198,-0.16532195,-0.98128551,-0.098729342,0
-4.5308795,-0.75548339,-2.0240896,-0.98461008,0.16997218,-0.040651917,0
-3.7885876,-3.9938488,0.031556368,-0.16532195,-0.98128551,-0.098729342,0
-4.4807572,-4.0664558,1.3294494,-0.16532195,-0.98128551,-0.098729342,0
-2.887454,-1.4384789,-2.3340979,0.056672275,0.090489149,-0.99428368,0
-1.2491143,4.9289412,-0.84230518,0.16532195,0.98128551,0.098729342,0
2.5694582,-4.9294305,-1.6257081,-0.16532195,-0.98128551,-0.098729342,0
-4.185039,2.8146987,1.006618,-0.98461008,0.16997218,-0.040651917,0
-4.9285803,-2.8148699,-1.6965717,-0.98461008,0.16997218,-0.040651917,0
-3.9383707,3.255337,0.1933918,-0.98461008,0.16997218,-0.040651917,0
-2.7677608,5.1678324,-1.5774302,0.16532195,0.98128551,0.098729342,0
-0.36815453,3.6526458,2.4115043,-0.056672275,-0.090489149,0.99428368,0
-0.024017811,-1.9012885,-2.1478832,0.056672275,0.090489149,-0.99428368,0
-0.18001366,4.3718438,1.4683342,0.16532195,0.98128551,0.098729342,0
-0.030729108,-1.399816,1.8977276,-0.056672275,-0.090489149,0.99428368,0
-1.0664263,4.4436045,2.4004025,-0.056672275,-0.090489149,0.99428368,0
1.6024652,-1.3354287,-2.0597568,0.056672275,0.090489149,-0.99428368,0
-2.04545,-4.1460872,-1.3869834,-0.16532195,-0.98128551,-0.098729342,0
2.5941844,-1.34665,-1.9676588,0.056672275,0.090489149,-0.99428368,0
4.7721214,0.61097562,-0.32144427,0.98461008,-0.16997218,0.040651917,0
3.9580994,-3.3547976,1.5301509,0.98461008,-0.16997218,0.040651917,0
-2.6863868,-4.0733433,-0.30133504,-0.16532195,-0.98128551,-0.098729342,0
3.9023786,-1.9783068,-1.9917798,0.056672275,0.090489149,-0.99428368,0
-1.5180228,-4.2484922,-0.17323029,-0.16532195,-0.98128551,-0.098729342,0
-1.9420419,-4.0095615,-1.8934499,-0.16532195,-0.98128551,-0.098729342,0
4.6468258,0.40419817,1.3173265,0.98461008,-0.16997218,0.040651917,0
-1.863831,-4.1504617,-2.1581008,-0.16532195,-0.98128551,-0.098729342,0
-4.249877,1.3852313,-0.054069042,-0.98461008,0.16997218,-0.040651917,0
0.4655242,3.1871798,-1.7267597,0.056672275,0.090489149,-0.99428368,0
4.7731009,1.6507974,1.6982913,0.98461008,-0.16997218,0.040651917,0
3.3823557,3.8634367,0.78968489,0.16532195,0.98128551,0.098729342,0
-2.2788043,-3.9653518,-1.3721554,-0.16532195,-0.98128551,-0.098729342,0
-4.8910403,-2.8186629,-1.8146043,-0.98461008,0.16997218,-0.040651917,0
-4.0361242,-2.9478221,-2.4674203,0.056672275,0.090489149,-0.99428368,0
1.5309358,0.0042053461,-1.8976305,0.056672275,0.090489149,-0.99428368,0
1.1212626,-2.1014073,-2.1205025,0.056672275,0.090489149,-0.99428368,0
1.3355396,4.5179338,-0.56300032,0.16532195,0.98128551,0.098729342,0
2.4722931,2.7668042,2.3978429,-0.056672275,-0.090489149,0.99428368,0
-3.5739238,-4.1097331,0.24973232,-0.16532195,-0.98128551,-0.098729342,0
-4.9700127,-1.9892002,-1.0043812,-0.98461008,0.16997218,-0.040651917,0
-4.8349462,-1.2136872,0.55922985,-0.98461008,0.16997218,-0.040651917,0
1.5459127,4.0867643,2.0097492,0.16532195,0.98128551,0.098729342,0
-4.7438874,-0.55497539,1.6143537,-0.98461008,0.16997218,-0.040651917,0
4.5650401,-0.40990734,-1.1736083,0.98461008,-0.16997218,0.040651917,0
-1.6363688,-4.5048194,1.0320866,-0.16532195,-0.98128551,-0.098729342,0
-2.475553,3.0901694,-1.9530244,0.056672275,0.090489149,-0.99428368,0
-2.1759956,3.069684,-1.7756934,0.056672275,0.090489149,-0.99428368,0
-4.3612223,1.642576,0.78945589,-0.98461008,0.16997218,-0.040651917,0
2.7664926,2.9632897,2.4942408,-0.056672275,-0.090489149,0.99428368,0
-3.9935975,-3.6992033,-1.2823946,-0.16532195,-0.98128551,-0.098729342,0
-4.0378933,3.0336199,-0.36635876,-0.98461008,0.16997218,-0.040651917,0
-3.7309413,5.0055046,1.0411758,-0.98461008,0.16997218,-0.040651917,0
4.9000945,2.3538001,-1.4841101,0.056672275,0.090489149,-0.99428368,0
4.2386794,-1.6712396,0.97308111,0.98461008,-0.16997218,0.040651917,0
2.026382,-4.8318486,-0.88349676,-0.16532195,-0.98128551,-0.098729342,0
-2.3279788,-4.359889,1.5220243,-0.056672275,-0.090489149,0.99428368,0
4.2076049,-2.8278012,-0.66358185,0.98461008,-0.16997218,0.040651917,0
-3.6386149,-3.8905277,-1.2706375,-0.16532195,-0.98128551,-0.098729342,0
-4.7998486,-1.024085,-0.5710361,-0.98461008,0.16997218,-0.040651917,0
-3.8233166,3.8404987,0.10777187,-0.98461008,0.16997218,-0.040651917,0
4.7399836,1.3262041,2.0512877,0.98461008,-0.16997218,0.040651917,0
-1.3415954,-1.3039501,-2.1375132,0.056672275,0.090489149,-0.99428368,0
-4.684206,-0.042382121,0.49338102,-0.98461008,0.16997218,-0.040651917,0
2.2867079,-1.874953,2.0053327,-0.056672275,-0.090489149,0.99428368,0
3.1577144,4.1411414,-0.68075198,0.16532195,0.98128551,0.098729342,0
-5.0762801,-3.3621461,-0.0302279,-0.98461008,0.16997218,-0.040651917,0
-0.35212803,-4.5550032,0.75827408,-0.16532195,-0.98128551,-0.098729342,0
4.1902752,-1.4852741,1.9596884,0.98461008,-0.16997218,0.040651917,0
3.0478404,-4.9896107,-0.48783398,-0.16532195,-0.98128551,-0.098729342,0
3.0720046,2.6001763,-1.5830123,0.056672275,0.090489149,-0.99428368,0
-2.7991767,-3.6078491,1.4624443,-0.056672275,-0.090489149,0.99428368,0
3.6899841,4.1727648,-1.0866868,0.16532195,0.98128551,0.098729342,0
0.036342621,-4.7220101,1.5131521,-0.16532195,-0.98128551,-0.098729342,0
-3.5496418,-1.7657716,1.7367718,-0.056672275,-0.090489149,0.99428368,0
-4.9078546,-1.5927693,-0.11006474,-0.98461008,0.16997218,-0.040651917,0
4.7613096,1.0700378,-1.1740334,0.98461008,-0.16997218,0.040651917,0
-4.1539097,1.9997064,-0.55162096,-0.98461008,0.16997218,-0.040651917,0
1.1566231,-4.7619157,0.72952557,-0.16532195,-0.98128551,-0.098729342,0
1.9694513,-3.8972929,1.7619684,-0.056672275,-0.090489149,0.99428368,0
-0.86324,-4.542593,0.21768188,-0.16532195,-0.98128551,-0.098729342,0
-5.0790567,-2.8885481,-2.0438986,-0.98461008,0.16997218,-0.040651917,0
-1.4881816,-4.1972928,-2.04738,-0.16532195,-0.98128551,-0.098729342,0
1.3034539,4.1754246,2.296087,0.16532195,0.98128551,0.098729342,0
0.086881399,-4.6006637,0.71083617,-0.16532195,-0.98128551,-0.098729342,0
2.7016246,3.9067001,2.497175,0.16532195,0.98128551,0.098729342,0
-2.0764806,-3.333276,-2.5150642,0.056672275,0.090489149,-0.99428368,0
3.6628003,-1.2910292,2.0785594,-0.056672275,-0.090489149,0.99428368,0
3.7805722,-4.6592703,-0.47551584,0.98461008,-0.16997218,0.040651917,0
-2.4517205,-0.80607653,1.8514261,-0.056672275,-0.090489149,0.99428368,0
3.4160433,-1.6466777,-2.0650659,0.056672275,0.090489149,-0.99428368,0
2.559526,4.1293454,-0.68855244,0.16532195,0.98128551,0.098729342,0
-0.80647326,4.4880624,1.8587353,0.16532195,0.98128551,0.098729342,0
2.1583946,2.9816573,-1.6671565,0.056672275,0.090489149,-0.99428368,0
1.0805688,4.54496,-1.1202888,0.16532195,0.98128551,0.098729342,0
4.7235622,3.1739233,-1.4818175,0.056672275,0.090489149,-0.99428368,0
-3.7165086,-3.7371497,-2.4469066,-0.16532195,-0.98128551,-0.098729342,0
-0.61420941,-4.5903654,0.60276222,-0.16532195,-0.98128551,-0.098729342,0
-2.1466293,-1.4261647,1.7239273,-0.056672275,-0.090489149,0.99428368,0
1.2495902,0.12955928,2.1545262,-0.056672275,-0.090489149,0.99428368,0
-0.99760127,4.2018342,-1.7388644,0.056672275,0.090489149,-0.99428368,0
-3.9525447,3.6177156,0.82088995,-0.98461008,0.16997218,-0.040651917,0
-0.46608424,2.8796856,2.3296208,-0.056672275,-0.090489149,0.99428368,0
1.5000639,4.3381991,-0.11731434,0.16532195,0.98128551,0.098729342,0
-2.2790871,-4.1819978,-0.67000294,-0.16532195,-0.98128551,-0.098729342,0
-3.3058174,-3.1337402,1.5745707,-0.056672275,-0.090489149,0.99428368,0
0.16478825,-4.5521755,-0.74393392,-0.16532195,-0.98128551,-0.098729342,0
3.8489468,-4.1009626,0.17187929,0.98461008,-0.16997218,0.040651917,0
3.3955564,2.4954951,-1.545541,0.056672275,0.090489149,-0.99428368,0
1.5998738,-4.9021025,0.89285755,-0.16532195,-0.98128551,-0.098729342,0
0.95757031,-4.7334094,-0.39504743,-0.16532195,-0.98128551,-0.098729342,0
2.525198,-1.4296796,-2.0592003,0.056672275,0.090489149,-0.99428368,0
5.2025108,3.6563139,0.30074835,0.16532195,0.98128551,0.098729342,0
-4.2526598,1.0296252,-1.5825121,-0.98461008,0.16997218,-0.040651917,0
-4.5221295,0.74906683,0.570889,-0.98461008,0.16997218,-0.040651917,0
-4.0393391,3.3887594,0.95078135,-0.98461008,0.16997218,-0.040651917,0
-4.4641361,-2.6324046,-2.491987,0.056672275,0.090489149,-0.99428368,0
0.52292442,-4.7258339,0.032188654,-0.16532195,-0.98128551,-0.098729342,0
-2.6682715,5.0188198,-0.50518274,0.16532195,0.98128551,0.098729342,0
-3.9650002,-3.7908239,-1.0051976,-0.16532195,-0.98128551,-0.098729342,0
-3.033859,3.9829302,2.2111521,-0.056672275,-0.090489149,0.99428368,0
2.0049171,-4.8859339,-0.92880678,-0.16532195,-0.98128551,-0.098729342,0
4.0961461,-2.82726,-2.0372505,0.056672275,0.090489149,-0.99428368,0
0.81155252,2.6052845,2.196197,-0.056672275,-0.090489149,0.99428368,0
-3.2005534,-1.0561879,-2.3744504,0.056672275,0.090489149,-0.99428368,0
0.12572217,-4.5756369,0.36851907,-0.16532195,-0.98128551,-0.098729342,0
-0.068579495,-1.8934336,1.8257514,-0.056672275,-0.090489149,0.99428368,0
-1.0302567,4.7858915,0.20926738,0.16532195,0.98128551,0.098729342,0
3.4578509,-5.033143,-0.4148674,-0.16532195,-0.98128551,-0.098729342,0
0.90629387,-4.084002,1.6056292,-0.056672275,-0.090489149,0.99428368,0
4.9713216,2.4970088,0.18425465,0.98461008,-0.16997218,0.040651917,0
-4.1698322,1.8528495,-1.8496852,-0.98461008,0.16997218,-0.040651917,0
5.0617223,3.62395,0.87554467,0.16532195,0.98128551,0.098729342,0
0.043388844,-4.4424477,-1.1859999,-0.16532195,-0.98128551,-0.098729342,0
-1.0609417,3.0335119,2.1493826,-0.056672275,-0.090489149,0.99428368,0
0.33775583,-0.92994189,1.9776871,-0.056672275,-0.090489149,0.99428368,0
-4.9593258,-2.6467047,-1.487318,-0.98461008,0.16997218,-0.040651917,0
