1.9409943,-3.7026963,3.5732646,0.8655318,-0.47855496,0.14778429,0
0.84995222,-4.3744745,4.5435805,-0.2863239,-0.23067425,0.92995071,0
-2.3748798,2.746516,-4.1846523,-0.8655318,0.47855496,-0.14778429,0
-4.4032502,0.3554678,0.48464823,-0.8655318,0.47855496,-0.14778429,0
-1.6437685,0.3602128,-5.1007514,-0.41094244,-0.84721577,-0.33667758,0
0.097555399,-1.4725071,5.0131068,-0.2863239,-0.23067425,0.92995071,0
1.1752503,2.2033606,-1.1250609,0.41094244,0.84721577,0.33667758,0
2.4217949,-0.75839055,-4.8020415,0.2863239,0.23067425,-0.92995071,0
3.6644046,0.31983185,0.45983207,0.41094244,0.84721577,0.33667758,0
2.0391834,-0.64005971,5.0120039,0.41094244,0.84721577,0.33667758,0
1.2381094,1.3323467,1.1244049,0.41094244,0.84721577,0.33667758,0
4.3829589,-1.3956444,-3.2291965,0.8655318,-0.47855496,0.14778429,0
0.20527619,2.2553625,0.24178943,0.41094244,0.84721577,0.33667758,0
0.84121275,-3.0007477,0.81165868,-0.41094244,-0.84721577,-0.33667758,0
0.56194854,-1.4577522,5.2727842,-0.2863239,-0.23067425,0.92995071,0
3.4799099,0.1443038,-4.1871738,0.2863239,0.23067425,-0.92995071,0
2.3979664,0.79400343,-4.4940095,0.2863239,0.23067425,-0.92995071,0
0.85041308,-3.1772876,1.0906911,-0.41094244,-0.84721577,-0.33667758,0
1.6483281,0.90746945,-4.609067,0.2863239,0.23067425,-0.92995071,0
0.90160316,1.7579081,-4.5843801,0.2863239,0.23067425,-0.92995071,0
-4.2420559,1.0575457,0.53828931,-0.8655318,0.47855496,-0.14778429,0
-1.8190787,-2.4588747,2.2802622,-0.41094244,-0.84721577,-0.33667758,0
2.9739439,-0.1007483,2.6184785,0.41094244,0.84721577,0.33667758,0
0.11462772,-2.5281625,0.25455683,-0.41094244,-0.84721577,-0.33667758,0
-2.9068294,1.5181354,-4.9041471,-0.8655318,0.47855496,-0.14778429,0
-1.2674651,3.2372077,-4.9301062,0.2863239,0.23067425,-0.92995071,0
5.3008876,0.50023252,-3.5198793,0.2863239,0.23067425,-0.92995071,0
3.3309441,-0.98438406,4.4857407,0.41094244,0.84721577,0.33667758,0
-4.4307852,1.5136484,3.5617032,-0.8655318,0.47855496,-0.14778429,0
-1.3115683,3.3316064,-1.0286264,0.41094244,0.84721577,0.33667758,0
-3.3246715,-2.1628251,3.5448065,-0.41094244,-0.84721577,-0.33667758,0
3.2421741,-2.1505175,-4.2279596,-0.41094244,-0.84721577,-0.33667758,0
-1.6497345,3.263978,-0.45219108,0.41094244,0.84721577,0.33667758,0
2.8230031,2.3512063,-3.6711478,0.41094244,0.84721577,0.33667758,0
-2.8686376,1.4569657,-5.1098776,-0.8655318,0.47855496,-0.14778429,0
2.4956954,-2.3696878,-2.7532809,-0.41094244,-0.84721577,-0.33667758,0
-4.4810762,0.16326451,0.17645049,-0.8655318,0.47855496,-0.14778429,0
0.538342,-3.6322067,4.6708145,-0.2863239,-0.23067425,0.92995071,0
3.3095682,1.3789852,-1.7137284,0.41094244,0.84721577,0.33667758,0
-2.7092094,1.4885125,4.8312917,-0.2863239,-0.23067425,0.92995071,0
-5.2281523,-0.028361857,3.4631076,-0.8655318,0.47855496,-0.14778429,0
2.7752252,-1.9783746,4.9289589,0.8655318,-0.47855496,0.14778429,0
3.2413149,-1.7413325,2.3097048,0.8655318,-0.47855496,0.14778429,0
4.613934,-0.90309572,-3.2071967,0.8655318,-0.47855496,0.14778429,0
-1.4250076,0.4490087,-5.4018798,-0.41094244,-0.84721577,-0.33667758,0
-5.0076246,-0.16347992,1.8502626,-0.8655318,0.47855496,-0.14778429,0
1.7889993,1.0627403,1.0617564,0.41094244,0.84721577,0.33667758,0
-4.8749132,-1.2422552,3.4677939,-0.2863239,-0.23067425,0.92995071,0
-1.0469136,-1.443866,4.6724548,-0.2863239,-0.23067425,0.92995071,0
-0.72960806,1.8559654,-5.1991925,0.2863239,0.23067425,-0.92995071,0
-2.1602998,3.4021428,-3.8229384,-0.8655318,0.47855496,-0.14778429,0
1.8935987,2.446589,-2.2525241,0.41094244,0.84721577,0.33667758,0
-0.94851327,1.4104497,3.6174214,0.41094244,0.84721577,0.33667758,0
2.2751052,-1.0585542,-4.8873744,0.2863239,0.23067425,-0.92995071,0
-2.8823175,-2.3755455,3.9335504,-0.2863239,-0.23067425,0.92995071,0
2.8510132,-1.4778529,5.5319967,0.8655318,-0.47855496,0.14778429,0
-3.4768672,1.5074892,-2.2757595,-0.8655318,0.47855496,-0.14778429,0
-3.2222614,-1.3785435,3.9684267,-0.2863239,-0.23067425,0.92995071,0
0.6987592,-0.073643684,-5.2783422,0.2863239,0.23067425,-0.92995071,0
-1.926482,3.4869795,-0.29202712,0.41094244,0.84721577,0.33667758,0
1.6274172,2.2137008,-1.8991301,0.41094244,0.84721577,0.33667758,0
3.2691095,-2.7322607,-2.834923,-0.41094244,-0.84721577,-0.33667758,0
-1.4809141,4.0132127,-4.9286594,0.2863239,0.23067425,-0.92995071,0
3.3352296,-0.11897349,-4.4606652,0.2863239,0.23067425,-0.92995071,0
1.6152307,2.5242734,-2.1890862,0.41094244,0.84721577,0.33667758,0
-4.6207142,0.90312481,3.0399952,-0.8655318,0.47855496,-0.14778429,0
-5.2191677,-0.39197206,1.9130969,-0.8655318,0.47855496,-0.14778429,0
-0.2780261,0.20501351,-5.3738394,0.2863239,0.23067425,-0.92995071,0
-3.8147607,0.78128195,-1.5253782,-0.8655318,0.47855496,-0.14778429,0
-3.8081582,2.0762186,1.7034636,-0.8655318,0.47855496,-0.14778429,0
1.3518519,-2.2190933,5.1795669,-0.2863239,-0.23067425,0.92995071,0
4.2934895,-1.2771268,-2.5390019,0.8655318,-0.47855496,0.14778429,0
0.94298077,-4.5164695,4.4440417,-0.2863239,-0.23067425,0.92995071,0
-5.060421,0.049120069,2.4695554,-0.8655318,0.47855496,-0.14778429,0
1.2357545,-3.6884952,2.0062819,-0.41094244,-0.84721577,-0.33667758,0
4.7648354,0.92442048,-3.6617479,0.2863239,0.23067425,-0.92995071,0
4.7404442,1.0690687,-2.3317885,0.41094244,0.84721577,0.33667758,0
-0.036535978,0.38595176,-5.3549609,0.2863239,0.23067425,-0.92995071,0
2.1545153,-2.7730372,5.3627586,0.8655318,-0.47855496,0.14778429,0
-3.1266096,-1.1277492,0.72524714,-0.41094244,-0.84721577,-0.33667758,0
1.8414208,-0.15755713,-4.9050484,0.2863239,0.23067425,-0.92995071,0
1.6787944,-1.3398279,5.5161252,-0.2863239,-0.23067425,0.92995071,0
-2.7765081,-1.2965205,0.52555633,-0.41094244,-0.84721577,-0.33667758,0
-0.47929215,1.9018083,1.572511,0.41094244,0.84721577,0.33667758,0
-0.62006783,-1.815925,4.6388903,-0.2863239,-0.23067425,0.92995071,0
-3.161962,3.0009437,1.5318477,-0.8655318,0.47855496,-0.14778429,0
-4.1101704,1.2600932,0.59865999,-0.8655318,0.47855496,-0.14778429,0
0.7706666,-3.1579332,4.8314915,-0.2863239,-0.23067425,0.92995071,0
3.1856794,-1.0686827,4.6584282,0.41094244,0.84721577,0.33667758,0
-3.0766907,0.46674097,-3.1698279,-0.41094244,-0.84721577,-0.33667758,0
3.6804423,-1.1172025,1.9493012,0.8655318,-0.47855496,0.14778429,0
3.5010271,-2.8715935,-2.0948522,0.8655318,-0.47855496,0.14778429,0
1.5557501,1.3362584,-4.5112886,0.2863239,0.23067425,-0.92995071,0
3.9137642,-1.3121889,-4.5232277,0.2863239,0.23067425,-0.92995071,0
-1.2591391,2.7471473,-5.0545974,0.2863239,0.23067425,-0.92995071,0
0.54581046,-3.6230354,2.5903499,-0.41094244,-0.84721577,-0.33667758,0
-0.44857645,-2.5685301,4.6605077,-0.2863239,-0.23067425,0.92995071,0
-4.2395983,1.350167,4.4924021,-0.2863239,-0.23067425,0.92995071,0
2.310607,-0.64434958,-4.788507,0.2863239,0.23067425,-0.92995071,0
-3.7684925,2.2037442,2.437413,-0.8655318,0.47855496,-0.14778429,0
-3.6395967,1.8935066,-0.086096883,-0.8655318,0.47855496,-0.14778429,0
3.8987722,-0.69863904,2.0892305,0.8655318,-0.47855496,0.14778429,0
1.3285514,1.9275374,-4.5037332,0.2863239,0.23067425,-0.92995071,0
3.5928738,-2.7344024,-3.6691608,-0.41094244,-0.84721577,-0.33667758,0
4.2009954,-0.70161283,0.62931108,0.8655318,-0.47855496,0.14778429,0
-2.842628,-0.53889167,-1.0377555,-0.41094244,-0.84721577,-0.33667758,0
3.7748823,-1.2463317,1.0600818,0.8655318,-0.47855496,0.14778429,0
-2.6260009,-0.47936893,-1.7507316,-0.41094244,-0.84721577,-0.33667758,0
-2.596077,2.6713443,-2.8756323,-0.8655318,0.47855496,-0.14778429,0
3.8719871,0.87058878,-1.0786521,0.41094244,0.84721577,0.33667758,0
-2.4573498,-0.20886767,-2.2997999,-0.41094244,-0.84721577,-0.33667758,0
-4.5368471,1.3055892,4.3404818,-0.8655318,0.47855496,-0.14778429,0
-2.7871308,1.8652606,-4.8866587,-0.8655318,0.47855496,-0.14778429,0
-3.1605349,1.889261,-1.9213393,-0.8655318,0.47855496,-0.14778429,0
-0.62375331,-0.039023161,-5.2632518,-0.41094244,-0.84721577,-0.33667758,0
-4.2569489,1.6149428,3.4815497,-0.8655318,0.47855496,-0.14778429,0
2.9659986,-2.8625102,0.43881518,0.8655318,-0.47855496,0.14778429,0
1.0305642,-1.4522483,-3.2493186,-0.41094244,-0.84721577,-0.33667758,0
-0.889292,-2.5964503,4.3758974,-0.2863239,-0.23067425,0.92995071,0
-1.1033305,-1.2019849,4.6881437,-0.2863239,-0.23067425,0.92995071,0
-2.7789254,-0.83791012,-0.16105783,-0.41094244,-0.84721577,-0.33667758,0
-3.9359012,1.532347,0.69656873,-0.8655318,0.47855496,-0.14778429,0
-2.7836463,-2.6255655,3.8551016,-0.41094244,-0.84721577,-0.33667758,0
-2.9681504,-1.0782869,0.10298109,-0.41094244,-0.84721577,-0.33667758,0
-4.6877537,0.0080418587,0.38035345,-0.8655318,0.47855496,-0.14778429,0
-1.168414,-2.3362269,1.5906436,-0.41094244,-0.84721577,-0.33667758,0
2.6773298,-2.7969341,-2.0073397,-0.41094244,-0.84721577,-0.33667758,0
1.2795081,-3.9252045,4.8237834,-0.2863239,-0.23067425,0.92995071,0
-3.3091958,2.4525926,3.5372481,0.41094244,0.84721577,0.33667758,0
1.8943501,-4.1763258,2.6113691,0.8655318,-0.47855496,0.14778429,0
-2.1146255,0.12928224,-3.6861348,-0.41094244,-0.84721577,-0.33667758,0
-3.019629,1.7394332,-3.2064493,-0.8655318,0.47855496,-0.14778429,0
0.35119581,-1.9881234,4.9630599,-0.2863239,-0.23067425,0.92995071,0
-3.8756471,0.45609325,4.269743,-0.2863239,-0.23067425,0.92995071,0
-3.7507315,0.95379436,-2.4845643,-0.8655318,0.47855496,-0.14778429,0
-5.1152611,0.45071623,3.727427,-0.8655318,0.47855496,-0.14778429,0
-3.0827746,0.62835121,-4.0273514,-0.41094244,-0.84721577,-0.33667758,0
-1.1984723,2.8135438,0.47755557,0.41094244,0.84721577,0.33667758,0
3.2618206,-0.011792779,2.041687,0.41094244,0.84721577,0.33667758,0
0.48277712,-2.0317402,5.1161785,-0.2863239,-0.23067425,0.92995071,0
0.26388526,-2.3718398,4.7651191,-0.2863239,-0.23067425,0.92995071,0
5.2621555,0.19410801,-3.1043139,0.8655318,-0.47855496,0.14778429,0
3.6579373,-2.6205976,-2.4597428,0.8655318,-0.47855496,0.14778429,0
0.17349505,2.5249951,-0.73067427,0.41094244,0.84721577,0.33667758,0
-0.069402993,1.9926199,1.0460699,0.41094244,0.84721577,0.33667758,0
4.5921707,-0.49249691,-1.6809151,0.8655318,-0.47855496,0.14778429,0
1.2725738,2.5263512,-2.2448413,0.41094244,0.84721577,0.33667758,0
-3.9947863,2.0586576,3.1795368,-0.8655318,0.47855496,-0.14778429,0
-0.42238903,1.6487576,-5.1356354,0.2863239,0.23067425,-0.92995071,0
2.9773831,-2.3221662,2.5077398,0.8655318,-0.47855496,0.14778429,0
4.3878369,-0.21435952,0.68846339,0.8655318,-0.47855496,0.14778429,0
1.8378369,-1.2317609,-4.8273001,-0.41094244,-0.84721577,-0.33667758,0
-2.5350699,2.7366142,-3.2721338,-0.8655318,0.47855496,-0.14778429,0
-2.779351,-0.60599756,-1.1305974,-0.41094244,-0.84721577,-0.33667758,0
2.1826277,-1.3692539,5.6812096,-0.2863239,-0.23067425,0.92995071,0
2.814836,-3.3699648,-0.82809818,0.8655318,-0.47855496,0.14778429,0
-2.5317674,3.5406518,-0.47550499,-0.8655318,0.47855496,-0.14778429,0
-0.76874369,0.80349505,5.1439204,0.41094244,0.84721577,0.33667758,0
3.9858956,0.64821208,-0.49066472,0.41094244,0.84721577,0.33667758,0
2.652452,-1.9743062,4.8547211,0.8655318,-0.47855496,0.14778429,0
0.86334223,0.92266417,-4.9607396,0.2863239,0.23067425,-0.92995071,0
0.52004004,3.1426573,-4.3449426,0.2863239,0.23067425,-0.92995071,0
1.0386795,-2.2806754,-1.5423363,-0.41094244,-0.84721577,-0.33667758,0
3.6214221,-2.2393656,-1.7860589,0.8655318,-0.47855496,0.14778429,0
-1.5320833,-2.8794732,4.2247066,-0.2863239,-0.23067425,0.92995071,0
0.55069017,-0.99961424,-4.1689539,-0.41094244,-0.84721577,-0.33667758,0
2.1305637,-2.986999,5.1783752,0.8655318,-0.47855496,0.14778429,0
2.6520271,-2.5597167,2.5733624,0.8655318,-0.47855496,0.14778429,0
5.0320158,-0.17228514,-2.7188787,0.8655318,-0.47855496,0.14778429,0
3.0899358,1.9684142,-2.9590588,0.41094244,0.84721577,0.33667758,0
-0.57568777,-1.9395819,-0.62056243,-0.41094244,-0.84721577,-0.33667758,0
-3.6104505,1.8466673,0.35682654,-0.8655318,0.47855496,-0.14778429,0
-0.064783573,-3.7627039,3.437242,-0.41094244,-0.84721577,-0.33667758,0
-1.3793943,2.7247789,0.54906255,0.41094244,0.84721577,0.33667758,0
-0.77100039,1.7504883,-5.1923747,0.2863239,0.23067425,-0.92995071,0
-1.5221456,1.0544834,5.2207131,0.41094244,0.84721577,0.33667758,0
-2.5224595,3.4343162,-0.91653013,-0.8655318,0.47855496,-0.14778429,0
0.068143025,-1.4671849,-2.0370898,-0.41094244,-0.84721577,-0.33667758,0
3.5234134,0.86366779,-0.66743803,0.41094244,0.84721577,0.33667758,0
-1.5461228,3.3122234,-0.57317781,0.41094244,0.84721577,0.33667758,0
5.0676622,0.26515758,-1.3424244,0.8655318,-0.47855496,0.14778429,0
3.4772849,-1.0506209,2.8263364,0.8655318,-0.47855496,0.14778429,0
4.475276,1.3881527,-3.7508841,0.2863239,0.23067425,-0.92995071,0
3.1924491,-1.1720591,4.6100383,0.8655318,-0.47855496,0.14778429,0
-0.022374153,1.2628738,2.5840876,0.41094244,0.84721577,0.33667758,0
-3.4328256,1.6896219,-1.8799829,-0.8655318,0.47855496,-0.14778429,0
-1.2600288,2.8165598,0.47691387,0.41094244,0.84721577,0.33667758,0
5.0530629,0.39407086,-1.872169,0.8655318,-0.47855496,0.14778429,0
-0.40097857,0.0086481571,-5.4465775,0.2863239,0.23067425,-0.92995071,0
4.0897737,-1.5566121,-2.2531714,0.8655318,-0.47855496,0.14778429,0
-4.3584208,0.61883658,1.1014061,-0.8655318,0.47855496,-0.14778429,0
2.7665224,1.1160157,-0.075322866,0.41094244,0.84721577,0.33667758,0
-3.9814477,-1.062752,3.9843421,-0.2863239,-0.23067425,0.92995071,0
-2.1719251,0.20181501,4.6863179,-0.2863239,-0.23067425,0.92995071,0
-4.7614517,0.25263739,1.3354986,-0.8655318,0.47855496,-0.14778429,0
3.2001767,1.5833321,-4.0873818,0.2863239,0.23067425,-0.92995071,0
-5.1352453,-0.48676684,3.5722423,-0.2863239,-0.23067425,0.92995071,0
-2.1811967,3.7406678,-2.6227651,-0.8655318,0.47855496,-0.14778429,0
-4.9782715,-0.023749113,1.9043946,-0.8655318,0.47855496,-0.14778429,0
-1.0804546,0.54835343,-5.6652384,0.2863239,0.23067425,-0.92995071,0
1.0276537,-3.8113933,2.1427484,-0.41094244,-0.84721577,-0.33667758,0
-2.9558687,-0.38977361,-1.5230062,-0.41094244,-0.84721577,-0.33667758,0
-3.0205326,3.0990419,0.16369379,-0.8655318,0.47855496,-0.14778429,0
-2.4871202,-2.5418649,3.2750893,-0.41094244,-0.84721577,-0.33667758,0
1.2466789,1.6656351,-4.491765,0.2863239,0.23067425,-0.92995071,0
-4.4611635,0.91570204,1.8567262,-0.8655318,0.47855496,-0.14778429,0
-4.8278947,0.54759634,2.63936,-0.8655318,0.47855496,-0.14778429,0
-4.271297,1.4653405,2.2520914,-0.8655318,0.47855496,-0.14778429,0
-0.91670442,2.122112,-5.1462736,0.2863239,0.23067425,-0.92995071,0
-1.249562,0.90516269,-5.4980812,0.2863239,0.23067425,-0.92995071,0
-2.6772532,2.8344297,-2.3646331,-0.8655318,0.47855496,-0.14778429,0
1.0259901,1.453388,0.86727494,0.41094244,0.84721577,0.33667758,0
-2.0475931,-0.78029966,4.4591761,-0.2863239,-0.23067425,0.92995071,0
1.1852591,-1.4596547,5.462049,-0.2863239,-0.23067425,0.92995071,0
0.82745826,3.3692119,-3.2685161,0.41094244,0.84721577,0.33667758,0
-2.8245792,2.2137508,-3.4893737,-0.8655318,0.47855496,-0.14778429,0
-3.9702401,0.52855653,4.2287908,-0.2863239,-0.23067425,0.92995071,0
1.6329352,0.78448009,2.2165942,0.41094244,0.84721577,0.33667758,0
4.5508204,-1.3769574,-3.8123097,0.8655318,-0.47855496,0.14778429,0
0.19950891,2.2375581,-4.7761569,0.2863239,0.23067425,-0.92995071,0
4.641222,1.3359871,-3.7049127,0.2863239,0.23067425,-0.92995071,0
1.7911234,2.3936989,-2.1618743,0.41094244,0.84721577,0.33667758,0
-4.0755091,1.9755871,3.8143778,-0.8655318,0.47855496,-0.14778429,0
2.2155604,-3.8037336,1.4201982,0.8655318,-0.47855496,0.14778429,0
-3.5969055,-1.0046701,0.78539419,-0.41094244,-0.84721577,-0.33667758,0
4.3142042,-0.79802293,-1.2015243,0.8655318,-0.47855496,0.14778429,0
2.7556562,2.3137708,-3.9815192,0.2863239,0.23067425,-0.92995071,0
3.9105682,-0.26848364,1.5943879,0.41094244,0.84721577,0.33667758,0
-2.2699151,0.93545008,-5.4291883,-0.41094244,-0.84721577,-0.33667758,0
2.2436428,-3.1741896,3.5965507,0.8655318,-0.47855496,0.14778429,0
0.40173918,-0.35722208,-5.2456598,0.2863239,0.23067425,-0.92995071,0
1.6853409,-2.9765821,5.0904322,-0.2863239,-0.23067425,0.92995071,0
5.0370007,-0.028468609,-2.270431,0.8655318,-0.47855496,0.14778429,0
-2.5659089,2.450953,-3.6861756,-0.8655318,0.47855496,-0.14778429,0
-2.748343,2.2557752,-3.9265375,-0.8655318,0.47855496,-0.14778429,0
-5.4981551,-0.94382626,3.3296666,-0.41094244,-0.84721577,-0.33667758,0
4.0392137,-0.72381276,-4.414381,0.2863239,0.23067425,-0.92995071,0
2.2432823,-2.1419899,-3.2839558,-0.41094244,-0.84721577,-0.33667758,0
-1.0301704,2.5784268,0.96388406,0.41094244,0.84721577,0.33667758,0
-2.3819742,2.6258183,-4.3653755,-0.8655318,0.47855496,-0.14778429,0
3.6237168,-2.3904097,-2.3323171,0.8655318,-0.47855496,0.14778429,0
3.7214403,-1.9367316,-1.0899069,0.8655318,-0.47855496,0.14778429,0
-4.5398316,0.67456806,1.9089506,-0.8655318,0.47855496,-0.14778429,0
-3.2546668,2.6615577,0.25617075,-0.8655318,0.47855496,-0.14778429,0
2.2267683,-2.0270188,-3.5411263,-0.41094244,-0.84721577,-0.33667758,0
-0.689937,-3.1190794,2.5464637,-0.41094244,-0.84721577,-0.33667758,0
0.19763923,-0.77233768,5.1995411,-0.2863239,-0.23067425,0.92995071,0
0.098458529,0.41017592,4.9544811,0.41094244,0.84721577,0.33667758,0
3.9688301,-0.79962796,-4.2655177,0.2863239,0.23067425,-0.92995071,0
2.4681339,0.022148132,2.8036957,0.41094244,0.84721577,0.33667758,0
-1.129317,-2.8519201,4.3596139,-0.2863239,-0.23067425,0.92995071,0
2.0949624,1.4033501,-4.3914742,0.2863239,0.23067425,-0.92995071,0
-2.2697635,2.7629054,-5.0865936,-0.8655318,0.47855496,-0.14778429,0
-0.037306428,-0.65671301,-4.0075297,-0.41094244,-0.84721577,-0.33667758,0
1.1019621,3.0233426,-3.1885674,0.41094244,0.84721577,0.33667758,0
-2.9399657,0.35507643,4.5032721,-0.2863239,-0.23067425,0.92995071,0
-2.6990938,-1.8388875,2.0311518,-0.41094244,-0.84721577,-0.33667758,0
-0.25250936,-3.7509413,4.0557594,-0.41094244,-0.84721577,-0.33667758,0
2.8256578,-0.9334994,-4.647059,0.2863239,0.23067425,-0.92995071,0
-1.4488797,-0.45534742,-2.8788419,-0.41094244,-0.84721577,-0.33667758,0
-2.2211771,0.071408153,4.7789984,-0.2863239,-0.23067425,0.92995071,0
4.4046545,0.94493979,-2.0199347,0.41094244,0.84721577,0.33667758,0
0.10907316,2.4768307,-4.7431345,0.2863239,0.23067425,-0.92995071,0
-0.30101633,-0.75328696,-3.5556157,-0.41094244,-0.84721577,-0.33667758,0
3.140521,-1.9541646,1.8021972,0.8655318,-0.47855496,0.14778429,0
0.74026448,-1.5421271,-3.2058234,-0.41094244,-0.84721577,-0.33667758,0
-1.649262,-0.56657559,4.6700664,-0.2863239,-0.23067425,0.92995071,0
-3.4754848,1.9025632,-0.6566937,-0.8655318,0.47855496,-0.14778429,0
-1.1377211,2.1703095,2.0585852,0.41094244,0.84721577,0.33667758,0
3.1165972,-3.2589684,-1.1161938,0.8655318,-0.47855496,0.14778429,0
-2.9995258,-1.2157354,0.61358953,-0.41094244,-0.84721577,-0.33667758,0
5.5291977,0.45061356,-3.2860622,0.8655318,-0.47855496,0.14778429,0
2.5343761,1.4968734,-0.67620206,0.41094244,0.84721577,0.33667758,0
-5.2241292,-0.48454559,2.019773,-0.8655318,0.47855496,-0.14778429,0
1.2167623,3.4105582,-4.0109153,0.41094244,0.84721577,0.33667758,0
-2.4358096,3.5043478,-1.2899921,-0.8655318,0.47855496,-0.14778429,0
3.6987712,-2.1204395,-1.8448644,0.8655318,-0.47855496,0.14778429,0
2.7186279,0.52675176,1.3308783,0.41094244,0.84721577,0.33667758,0
3.5812144,-1.5505567,1.4391854,0.8655318,-0.47855496,0.14778429,0
-1.1659764,1.2807968,4.2816958,0.41094244,0.84721577,0.33667758,0
4.3158503,-0.62446779,-0.4888494,0.8655318,-0.47855496,0.14778429,0
-1.6371021,4.0909281,-2.206795,0.41094244,0.84721577,0.33667758,0
-3.3376272,-0.82749712,4.0603838,-0.2863239,-0.23067425,0.92995071,0
-3.3416052,1.9941143,-1.2924542,-0.8655318,0.47855496,-0.14778429,0
-3.3251417,2.6971538,1.5263016,-0.8655318,0.47855496,-0.14778429,0
4.4751101,1.0952802,-2.0964627,0.41094244,0.84721577,0.33667758,0
-2.3621755,2.5726111,-5.438292,-0.8655318,0.47855496,-0.14778429,0
2.5329876,-3.5530105,0.14011943,-0.41094244,-0.84721577,-0.33667758,0
2.7411754,-0.010663033,2.818037,0.41094244,0.84721577,0.33667758,0
-1.3115215,4.2983532,-3.4708071,0.41094244,0.84721577,0.33667758,0
0.072690964,-3.8515751,4.3687134,-0.2863239,-0.23067425,0.92995071,0
-2.3365932,1.9951013,-5.6647625,0.2863239,0.23067425,-0.92995071,0
-2.0386643,3.9432268,-3.0299697,-0.8655318,0.47855496,-0.14778429,0
4.4415779,-1.3006213,-2.6826158,0.8655318,-0.47855496,0.14778429,0
-2.2229965,-0.37187195,-2.2269306,-0.41094244,-0.84721577,-0.33667758,0
1.9800795,2.8746326,-3.8394251,0.41094244,0.84721577,0.33667758,0
2.102416,-1.8301303,5.5391483,-0.2863239,-0.23067425,0.92995071,0
-3.5958447,1.5801684,-1.0667204,-0.8655318,0.47855496,-0.14778429,0
2.0164502,-0.061535358,3.5562701,0.41094244,0.84721577,0.33667758,0
0.98450512,0.42791772,-5.0477161,0.2863239,0.23067425,-0.92995071,0
0.70461017,1.3380256,1.6941899,0.41094244,0.84721577,0.33667758,0
1.1636207,-1.8676741,-2.7620099,-0.41094244,-0.84721577,-0.33667758,0
4.3680253,-1.9939644,-4.3030481,0.8655318,-0.47855496,0.14778429,0
4.1765485,-0.027219906,-4.1942677,0.2863239,0.23067425,-0.92995071,0
1.0381696,-2.6154172,4.9409442,-0.2863239,-0.23067425,0.92995071,0
-3.4963105,-0.35917985,-0.98434895,-0.41094244,-0.84721577,-0.33667758,0
2.2144279,-3.6140323,2.4884768,0.8655318,-0.47855496,0.14778429,0
-2.7147722,2.4174891,-2.6792359,-0.8655318,0.47855496,-0.14778429,0
0.23826694,-1.5806597,4.9707236,-0.2863239,-0.23067425,0.92995071,0
-2.1999485,1.5840132,4.6393437,0.41094244,0.84721577,0.33667758,0
1.8205073,-3.0765593,-0.63735032,-0.41094244,-0.84721577,-0.33667758,0
-1.7930989,3.7833419,-3.6726627,-0.8655318,0.47855496,-0.14778429,0
2.825279,-0.033525109,-4.6049724,0.2863239,0.23067425,-0.92995071,0
-1.1991115,1.6467685,3.3325436,0.41094244,0.84721577,0.33667758,0
0.83602691,0.34339011,-5.0794182,0.2863239,0.23067425,-0.92995071,0
3.6416821,1.3130559,-4.0304341,0.2863239,0.23067425,-0.92995071,0
4.9730806,0.02896595,-1.4693401,0.8655318,-0.47855496,0.14778429,0
1.1616305,0.61549592,-4.8912134,0.2863239,0.23067425,-0.92995071,0
-1.002149,1.8130147,2.3813412,0.41094244,0.84721577,0.33667758,0
-3.5979555,1.7662187,0.10014296,-0.8655318,0.47855496,-0.14778429,0
-2.0771365,3.6397827,-0.66129458,0.41094244,0.84721577,0.33667758,0
-2.7958689,3.1230755,-0.6118769,-0.8655318,0.47855496,-0.14778429,0
-3.9747639,2.2001638,4.6370616,-0.2863239,-0.23067425,0.92995071,0
-0.49945855,2.0053689,-5.0517659,0.2863239,0.23067425,-0.92995071,0
-0.69525039,-3.349668,3.3640628,-0.41094244,-0.84721577,-0.33667758,0
0.59697014,-0.88678598,-4.588429,-0.41094244,-0.84721577,-0.33667758,0
3.598721,-0.86639249,3.5131474,0.8655318,-0.47855496,0.14778429,0
-5.1194639,-0.22353268,1.9772573,-0.8655318,0.47855496,-0.14778429,0
-1.5026315,-1.9001503,4.412941,-0.2863239,-0.23067425,0.92995071,0
-2.5492105,0.95587945,-5.498497,-0.41094244,-0.84721577,-0.33667758,0
-0.6661188,0.49049747,5.3512363,-0.2863239,-0.23067425,0.92995071,0
0.21223283,-3.370827,2.2816126,-0.41094244,-0.84721577,-0.33667758,0
3.8360229,-2.1727073,-2.5097697,0.8655318,-0.47855496,0.14778429,0
-4.648551,0.52313238,1.9211271,-0.8655318,0.47855496,-0.14778429,0
-0.88138008,2.1018715,1.5927584,0.41094244,0.84721577,0.33667758,0
-0.18095636,3.8937507,-3.7603905,0.41094244,0.84721577,0.33667758,0
-3.4205146,1.4840597,-2.8765681,-0.8655318,0.47855496,-0.14778429,0
-1.6084757,2.6494935,1.157027,0.41094244,0.84721577,0.33667758,0
-0.43195665,-1.4617447,-1.4747734,-0.41094244,-0.84721577,-0.33667758,0
4.1331558,-0.20462239,1.1570288,0.41094244,0.84721577,0.33667758,0
-2.177278,-0.37266183,4.5304394,-0.2863239,-0.23067425,0.92995071,0
-3.2921376,2.5527987,3.7790442,0.41094244,0.84721577,0.33667758,0
-2.445281,-1.3348924,4.2474461,-0.2863239,-0.23067425,0.92995071,0
-4.577177,0.62529188,2.0677764,-0.8655318,0.47855496,-0.14778429,0
-4.2153029,1.6314856,2.8032103,-0.8655318,0.47855496,-0.14778429,0
1.2858464,2.7390106,-2.7106564,0.41094244,0.84721577,0.33667758,0
4.2989478,-1.6585798,-4.0844021,0.8655318,-0.47855496,0.14778429,0
1.4645624,-2.8526847,5.1047726,-0.2863239,-0.23067425,0.92995071,0
4.2879095,1.2691538,-3.7735825,0.2863239,0.23067425,-0.92995071,0
0.029351413,1.1572844,2.75582,0.41094244,0.84721577,0.33667758,0
1.8774316,1.9852301,-1.4086604,0.41094244,0.84721577,0.33667758,0
0.14716148,-3.5950189,2.7325027,-0.41094244,-0.84721577,-0.33667758,0
-3.7477374,1.9814329,1.3643706,-0.8655318,0.47855496,-0.14778429,0
-3.0013285,1.3825305,-5.5753188,-0.8655318,0.47855496,-0.14778429,0
-0.30714738,-0.25334549,-4.8528061,-0.41094244,-0.84721577,-0.33667758,0
-4.1832376,0.28766698,4.0751867,-0.2863239,-0.23067425,0.92995071,0
1.996942,-0.48813081,4.5941906,0.41094244,0.84721577,0.33667758,0
3.9106197,1.761641,-3.1492472,0.41094244,0.84721577,0.33667758,0
3.6612062,-1.3824277,1.6884623,0.8655318,-0.47855496,0.14778429,0
3.5889049,1.0500531,-1.3535624,0.41094244,0.84721577,0.33667758,0
3.4050221,-0.58456945,3.4158816,0.41094244,0.84721577,0.33667758,0
3.2103786,-2.4677505,0.91237277,0.8655318,-0.47855496,0.14778429,0
4.0548124,1.7070985,-3.7382159,0.2863239,0.23067425,-0.92995071,0
-2.6134858,-1.1629068,0.36375856,-0.41094244,-0.84721577,-0.33667758,0
2.1899641,-0.46724474,-4.7652802,0.2863239,0.23067425,-0.92995071,0
2.5081906,-3.048661,2.265342,0.8655318,-0.47855496,0.14778429,0
2.9293113,-2.9546745,0.46958324,0.8655318,-0.47855496,0.14778429,0
-2.0675449,3.137074,-4.2312756,-0.8655318,0.47855496,-0.14778429,0
-0.24361472,1.1321874,3.4793293,0.41094244,0.84721577,0.33667758,0
-4.5405765,0.017530233,4.0569663,-0.2863239,-0.23067425,0.92995071,0
-0.54845333,-1.8601284,4.684093,-0.2863239,-0.23067425,0.92995071,0
-4.0510387,2.4199295,4.6018143,-0.8655318,0.47855496,-0.14778429,0
-1.0357594,0.16586792,5.0561142,-0.2863239,-0.23067425,0.92995071,0
1.2149767,0.47760165,3.2219048,0.41094244,0.84721577,0.33667758,0
-2.3415256,2.8869739,-3.4208844,-0.8655318,0.47855496,-0.14778429,0
2.2430801,-2.9131951,4.2354784,0.8655318,-0.47855496,0.14778429,0
2.1101341,-3.3661735,3.8098156,0.8655318,-0.47855496,0.14778429,0
-4.234664,2.0226996,4.1237526,-0.8655318,0.47855496,-0.14778429,0
1.879786,-1.2647476,-4.7560358,-0.41094244,-0.84721577,-0.33667758,0
5.2558942,-0.060805082,-3.5872707,0.8655318,-0.47855496,0.14778429,0
2.2554522,-3.9383993,1.334517,-0.41094244,-0.84721577,-0.33667758,0
2.9069088,-1.674813,-4.9513626,0.2863239,0.23067425,-0.92995071,0
3.4749324,-1.9499556,-0.21887481,0.8655318,-0.47855496,0.14778429,0
-3.026823,2.0852573,-2.6708891,-0.8655318,0.47855496,-0.14778429,0
-3.9731288,1.3900365,0.095942259,-0.8655318,0.47855496,-0.14778429,0
-2.7123744,-1.7199194,1.8721378,-0.41094244,-0.84721577,-0.33667758,0
1.4728947,-4.3387213,3.8662689,0.8655318,-0.47855496,0.14778429,0
-4.4994755,0.73388052,2.0454333,-0.8655318,0.47855496,-0.14778429,0
-2.2916255,3.6909237,-1.4506321,-0.8655318,0.47855496,-0.14778429,0
2.4735956,2.6371837,-3.768075,0.41094244,0.84721577,0.33667758,0
0.010728836,-2.907052,4.7484999,-0.2863239,-0.23067425,0.92995071,0
-0.26960683,-3.4557874,2.8762398,-0.41094244,-0.84721577,-0.33667758,0
0.10988832,3.7922893,-4.3598924,0.2863239,0.23067425,-0.92995071,0
0.16563153,0.79823029,-5.173995,0.2863239,0.23067425,-0.92995071,0
-2.2921133,1.81006,-5.6521869,0.2863239,0.23067425,-0.92995071,0
4.9591565,0.69635618,-1.6391125,0.41094244,0.84721577,0.33667758,0
0.60322106,1.4770763,-4.8501287,0.2863239,0.23067425,-0.92995071,0
3.9459682,-0.3632648,2.1343708,0.8655318,-0.47855496,0.14778429,0
-4.2746725,-1.5482212,3.5742049,-0.2863239,-0.23067425,0.92995071,0
-2.6644924,1.3179851,4.9156022,-0.2863239,-0.23067425,0.92995071,0
-1.8313522,2.394999,-5.2975569,0.2863239,0.23067425,-0.92995071,0
0.090140343,-0.2817899,5.374227,-0.2863239,-0.23067425,0.92995071,0
-0.86020279,1.6274984,-5.1463685,0.2863239,0.23067425,-0.92995071,0
4.9907112,0.86334139,-2.293014,0.41094244,0.84721577,0.33667758,0
2.8114576,-1.8129892,4.2208662,0.8655318,-0.47855496,0.14778429,0
0.2661314,-3.6180568,4.6175432,-0.2863239,-0.23067425,0.92995071,0
-3.9206958,0.44020891,-2.2805326,-0.41094244,-0.84721577,-0.33667758,0
-4.2564311,1.3596961,2.3952098,-0.8655318,0.47855496,-0.14778429,0
4.0269289,-2.3950071,-4.5512667,-0.41094244,-0.84721577,-0.33667758,0
3.5345964,-0.90887499,2.9035449,0.8655318,-0.47855496,0.14778429,0
4.7782259,0.1440748,-0.18285871,0.41094244,0.84721577,0.33667758,0
1.1015803,1.8979061,-0.30491805,0.41094244,0.84721577,0.33667758,0
-3.1937394,1.9492351,-2.2177298,-0.8655318,0.47855496,-0.14778429,0
3.4698534,1.1350685,-4.0729904,0.2863239,0.23067425,-0.92995071,0
2.6175623,0.93259567,-4.3164473,0.2863239,0.23067425,-0.92995071,0
0.12186027,-2.6548409,0.6032685,-0.41094244,-0.84721577,-0.33667758,0
-4.0061288,0.092868924,-1.5725501,-0.41094244,-0.84721577,-0.33667758,0
-4.3905182,1.045203,2.0192809,-0.8655318,0.47855496,-0.14778429,0
-2.6474309,-1.6736459,1.3221757,-0.41094244,-0.84721577,-0.33667758,0
-0.28534317,-2.895556,4.5764618,-0.2863239,-0.23067425,0.92995071,0
-0.311625,-0.95911682,-3.3943074,-0.41094244,-0.84721577,-0.33667758,0
1.8580859,0.1040082,3.1232944,0.41094244,0.84721577,0.33667758,0
-2.7081151,0.30233192,-3.4669034,-0.41094244,-0.84721577,-0.33667758,0
3.563797,-1.4541034,0.9144069,0.8655318,-0.47855496,0.14778429,0
1.7069083,-1.282859,-4.6977353,-0.41094244,-0.84721577,-0.33667758,0
-1.1612008,-2.7340515,4.393796,-0.2863239,-0.23067425,0.92995071,0
-0.20899022,2.2126539,0.50686455,0.41094244,0.84721577,0.33667758,0
-3.4003093,2.6207922,0.78892529,-0.8655318,0.47855496,-0.14778429,0
2.5169191,-3.5746226,1.137596,0.8655318,-0.47855496,0.14778429,0
-3.3663538,2.820271,1.3167269,-0.8655318,0.47855496,-0.14778429,0
1.3549689,1.107608,1.6079197,0.41094244,0.84721577,0.33667758,0
3.2547336,-2.5815959,-0.20578825,0.8655318,-0.47855496,0.14778429,0
2.3982053,1.1859224,-0.13580382,0.41094244,0.84721577,0.33667758,0
-3.6311986,2.6737227,2.931885,-0.8655318,0.47855496,-0.14778429,0
1.5291605,-4.2621522,3.8753104,0.8655318,-0.47855496,0.14778429,0
1.2400749,0.70293415,2.365773,0.41094244,0.84721577,0.33667758,0
-4.5661783,-0.27912965,3.9074593,-0.2863239,-0.23067425,0.92995071,0
2.1686695,-2.255548,-2.9231076,-0.41094244,-0.84721577,-0.33667758,0
2.0095401,2.9321213,-3.9534082,0.2863239,0.23067425,-0.92995071,0
-1.3662728,-2.6363249,2.2209105,-0.41094244,-0.84721577,-0.33667758,0
1.3347268,-2.8190427,5.0917187,-0.2863239,-0.23067425,0.92995071,0
1.1846418,0.74426228,-4.8646579,0.2863239,0.23067425,-0.92995071,0
-2.6170833,1.1567569,4.890635,-0.2863239,-0.23067425,0.92995071,0
-2.9322343,1.6646017,-4.6553011,-0.8655318,0.47855496,-0.14778429,0
-4.4992108,0.68891317,0.89904594,-0.8655318,0.47855496,-0.14778429,0
-2.736599,2.8476954,-1.8671377,-0.8655318,0.47855496,-0.14778429,0
-2.3690643,-0.77954388,-1.3246599,-0.41094244,-0.84721577,-0.33667758,0
-3.9055779,0.034525275,-1.2224261,-0.41094244,-0.84721577,-0.33667758,0
3.1587451,0.76198936,0.35635781,0.41094244,0.84721577,0.33667758,0
3.308466,-1.9261369,1.677135,0.8655318,-0.47855496,0.14778429,0
-1.1866152,0.87729287,4.9578643,0.41094244,0.84721577,0.33667758,0
3.8656461,-0.42886221,-4.3018112,0.2863239,0.23067425,-0.92995071,0
-0.13213247,2.116318,0.82037592,0.41094244,0.84721577,0.33667758,0
-3.6255047,2.4657497,2.3101683,-0.8655318,0.47855496,-0.14778429,0
2.4292824,-3.0064759,-1.3958206,-0.41094244,-0.84721577,-0.33667758,0
3.944453,-1.9280161,-2.0450172,0.8655318,-0.47855496,0.14778429,0
-1.9925628,-2.8793018,4.0338278,-0.2863239,-0.23067425,0.92995071,0
-4.3348312,1.1749684,2.1339872,-0.8655318,0.47855496,-0.14778429,0
-2.2640135,-0.17639941,4.5968957,-0.2863239,-0.23067425,0.92995071,0
-1.5114443,-0.046214342,4.9731226,-0.2863239,-0.23067425,0.92995071,0
-1.4923191,2.7491715,0.63258296,0.41094244,0.84721577,0.33667758,0
3.990417,1.1766404,-1.8011029,0.41094244,0.84721577,0.33667758,0
4.8630295,-0.57641697,-2.6913519,0.8655318,-0.47855496,0.14778429,0
-3.043997,-0.89614165,4.2427473,-0.2863239,-0.23067425,0.92995071,0
-2.5034475,2.461235,-4.9921236,-0.8655318,0.47855496,-0.14778429,0
1.3559107,0.30876231,-4.8656788,0.2863239,0.23067425,-0.92995071,0
3.0905042,-2.9315157,-0.78134155,0.8655318,-0.47855496,0.14778429,0
3.3291297,1.8707252,-2.9150052,0.41094244,0.84721577,0.33667758,0
3.8087916,1.1427569,-1.4811766,0.41094244,0.84721577,0.33667758,0
-0.68968511,2.7443166,-4.8866544,0.2863239,0.23067425,-0.92995071,0
-1.9061413,0.29197288,-4.4366002,-0.41094244,-0.84721577,-0.33667758,0
1.1134863,-0.96352792,5.5269804,-0.2863239,-0.23067425,0.92995071,0
2.8824987,-3.3041773,-0.860322,-0.41094244,-0.84721577,-0.33667758,0
-1.2281275,1.456389,3.8884554,0.41094244,0.84721577,0.33667758,0
-3.8113437,0.9357959,-2.3839304,-0.8655318,0.47855496,-0.14778429,0
2.3004899,-3.332232,3.1345637,0.8655318,-0.47855496,0.14778429,0
-3.0696201,0.54632235,-3.8353398,-0.41094244,-0.84721577,-0.33667758,0
3.9239273,-1.6316993,-1.4571309,0.8655318,-0.47855496,0.14778429,0
3.938076,-1.008149,-4.3137364,0.2863239,0.23067425,-0.92995071,0
2.7393498,-2.2552745,4.1287212,0.8655318,-0.47855496,0.14778429,0
5.2633023,0.7480197,-3.5308042,0.2863239,0.23067425,-0.92995071,0
2.6698315,-0.74118966,-4.6940026,0.2863239,0.23067425,-0.92995071,0
3.8489451,0.83124393,-3.9709358,0.2863239,0.23067425,-0.92995071,0
-1.5740476,-1.0169935,4.5846701,-0.2863239,-0.23067425,0.92995071,0
-1.9348853,2.6963444,1.24404,0.41094244,0.84721577,0.33667758,0
-2.9289088,-2.1934173,3.9605374,-0.2863239,-0.23067425,0.92995071,0
0.11464906,2.5046878,-4.7669868,0.2863239,0.23067425,-0.92995071,0
-0.46969724,-0.29348028,-4.8554006,-0.41094244,-0.84721577,-0.33667758,0
0.080637336,-2.7089229,0.97572148,-0.41094244,-0.84721577,-0.33667758,0
-0.27402258,-2.1985464,-0.31417531,-0.41094244,-0.84721577,-0.33667758,0
-1.3142986,-2.7760344,4.277998,-0.2863239,-0.23067425,0.92995071,0
0.47443128,-3.2447667,4.8118515,-0.2863239,-0.23067425,0.92995071,0
-3.6872683,0.85331905,-2.9062319,-0.8655318,0.47855496,-0.14778429,0
-5.3239098,-0.37995976,2.4568329,-0.8655318,0.47855496,-0.14778429,0
2.3294628,-0.14654553,-4.6792703,0.2863239,0.23067425,-0.92995071,0
1.4109905,-1.3672746,5.4786682,-0.2863239,-0.23067425,0.92995071,0
-0.76165307,-1.1354797,-2.1169569,-0.41094244,-0.84721577,-0.33667758,0
3.6444507,-2.2733386,-1.0503559,0.8655318,-0.47855496,0.14778429,0
-0.75920439,-1.3851491,4.8292017,-0.2863239,-0.23067425,0.92995071,0
-2.6230431,2.8578522,-2.0788786,-0.8655318,0.47855496,-0.14778429,0
-5.5258503,-0.82007575,2.8980827,-0.41094244,-0.84721577,-0.33667758,0
4.5375261,-0.70851684,-1.9342175,0.8655318,-0.47855496,0.14778429,0
-0.15846825,-1.2676051,4.9983048,-0.2863239,-0.23067425,0.92995071,0
4.3112774,-1.6493559,-4.0539632,0.8655318,-0.47855496,0.14778429,0
4.4868469,0.88678402,-3.7560744,0.2863239,0.23067425,-0.92995071,0
-4.5898705,0.064773321,-0.49300444,-0.8655318,0.47855496,-0.14778429,0
-0.21904275,-1.7828741,-1.465374,-0.41094244,-0.84721577,-0.33667758,0
1.9743643,-1.8584549,-3.9151697,-0.41094244,-0.84721577,-0.33667758,0
-3.4080052,1.7957504,-1.2303197,-0.8655318,0.47855496,-0.14778429,0
1.4340221,2.9247673,-3.1654873,0.41094244,0.84721577,0.33667758,0
-0.31135809,-2.9470184,1.6856472,-0.41094244,-0.84721577,-0.33667758,0
2.1742406,-3.2379069,3.3865278,0.8655318,-0.47855496,0.14778429,0
-3.5327528,1.8521824,-0.059863806,-0.8655318,0.47855496,-0.14778429,0
-2.3822532,0.97594357,-5.5578561,-0.41094244,-0.84721577,-0.33667758,0
5.1734514,0.7597661,-2.2872686,0.41094244,0.84721577,0.33667758,0
-0.21308017,-0.81194043,5.0164294,-0.2863239,-0.23067425,0.92995071,0
-1.8871975,2.053381,-5.4527669,0.2863239,0.23067425,-0.92995071,0
2.9841797,-1.6660888,-4.8690739,0.2863239,0.23067425,-0.92995071,0
-2.9163508,3.2664161,0.71540189,-0.8655318,0.47855496,-0.14778429,0
-1.4629245,4.2560987,-2.8319488,0.41094244,0.84721577,0.33667758,0
4.4933195,-0.43777287,-0.93475771,0.8655318,-0.47855496,0.14778429,0
2.3371096,-3.3898125,1.8613679,0.8655318,-0.47855496,0.14778429,0
-2.3825748,2.5877748,2.4914491,0.41094244,0.84721577,0.33667758,0
0.98250318,-1.7951673,5.1844788,-0.2863239,-0.23067425,0.92995071,0
3.1683919,1.1026559,-4.1165161,0.2863239,0.23067425,-0.92995071,0
-3.4503262,2.6073859,2.2173843,-0.8655318,0.47855496,-0.14778429,0
3.1199768,-2.7730031,-0.51779938,0.8655318,-0.47855496,0.14778429,0
-0.93401188,0.19816935,5.1140709,-0.2863239,-0.23067425,0.92995071,0
5.0776129,0.29161406,-1.6333656,0.8655318,-0.47855496,0.14778429,0
1.6565161,1.9839063,-4.4005938,0.2863239,0.23067425,-0.92995071,0
-3.7849338,0.20301421,4.3519592,-0.2863239,-0.23067425,0.92995071,0
2.4750633,-3.1823063,2.2611413,0.8655318,-0.47855496,0.14778429,0
-1.5210352,4.2803397,-4.0802546,-0.8655318,0.47855496,-0.14778429,0
0.15433669,3.3893385,-4.4256916,0.2863239,0.23067425,-0.92995071,0
3.7439382,-1.9329429,-1.640085,0.8655318,-0.47855496,0.14778429,0
-0.35676175,0.63576186,4.5170465,0.41094244,0.84721577,0.33667758,0
1.8831153,-4.2127395,2.3662376,-0.41094244,-0.84721577,-0.33667758,0
-5.282279,-0.6034174,1.9269834,-0.41094244,-0.84721577,-0.33667758,0
3.4096673,1.717211,-2.8138599,0.41094244,0.84721577,0.33667758,0
3.357656,-0.19845057,-4.4254584,0.2863239,0.23067425,-0.92995071,0
-4.3202286,1.4932687,2.7471242,-0.8655318,0.47855496,-0.14778429,0
-4.0176654,1.9223235,2.1092765,-0.8655318,0.47855496,-0.14778429,0
-3.4389312,0.92206645,4.6402011,-0.2863239,-0.23067425,0.92995071,0
1.0662386,-3.292933,1.1443427,-0.41094244,-0.84721577,-0.33667758,0
-3.4193568,1.8357075,-1.7359967,-0.8655318,0.47855496,-0.14778429,0
-1.2499762,-2.2942805,1.1854541,-0.41094244,-0.84721577,-0.33667758,0
4.4573441,-0.32293534,0.26403916,0.8655318,-0.47855496,0.14778429,0
2.6439307,-3.5009401,-0.036684871,0.8655318,-0.47855496,0.14778429,0
-4.4482164,-0.77753472,1.3520815,-0.41094244,-0.84721577,-0.33667758,0
-2.3064735,2.5507309,2.5376387,0.41094244,0.84721577,0.33667758,0
1.7927818,1.0877976,-4.6080384,0.2863239,0.23067425,-0.92995071,0
-3.4501343,1.4711429,-2.2281222,-0.8655318,0.47855496,-0.14778429,0
-0.7991572,-1.7460742,-0.75094581,-0.41094244,-0.84721577,-0.33667758,0
5.1791568,0.28933823,-1.7087159,0.8655318,-0.47855496,0.14778429,0
-4.5418515,1.2218502,3.9019442,-0.8655318,0.47855496,-0.14778429,0
0.83694547,0.79778033,-4.9397583,0.2863239,0.23067425,-0.92995071,0
-1.8754014,0.55792344,4.9661255,-0.2863239,-0.23067425,0.92995071,0
1.7901472,2.4635186,-2.5762053,0.41094244,0.84721577,0.33667758,0
3.3194869,-2.0444627,-4.7792587,0.2863239,0.23067425,-0.92995071,0
2.8597927,-2.9058027,-2.2583864,-0.41094244,-0.84721577,-0.33667758,0
-1.9615512,3.1168718,-5.176136,-0.8655318,0.47855496,-0.14778429,0
-3.4835916,2.7069359,1.8110714,-0.8655318,0.47855496,-0.14778429,0
-2.2170756,1.7096035,4.5864615,0.41094244,0.84721577,0.33667758,0
-1.8235946,2.7214553,-5.2772036,0.2863239,0.23067425,-0.92995071,0
-1.1074624,3.270076,-4.9925117,0.2863239,0.23067425,-0.92995071,0
3.9663229,-0.73435295,1.720827,0.8655318,-0.47855496,0.14778429,0
3.2374272,-3.0733778,-1.4960656,0.8655318,-0.47855496,0.14778429,0
-2.9835515,3.1086788,0.017772615,-0.8655318,0.47855496,-0.14778429,0
-3.5382209,-0.53449452,4.2156601,-0.2863239,-0.23067425,0.92995071,0
-3.9260683,2.5052817,3.6406612,-0.8655318,0.47855496,-0.14778429,0
1.3968515,-4.5217481,4.7487555,0.8655318,-0.47855496,0.14778429,0
-4.4715405,0.80104208,1.6483767,-0.8655318,0.47855496,-0.14778429,0
-2.8129916,2.2037263,-3.8303957,-0.8655318,0.47855496,-0.14778429,0
-0.2998873,-2.4022901,0.74894619,-0.41094244,-0.84721577,-0.33667758,0
-5.2840452,-0.1909135,2.7667084,-0.8655318,0.47855496,-0.14778429,0
-2.0489635,3.4299247,-4.5746412,-0.8655318,0.47855496,-0.14778429,0
0.76763463,2.2559557,-4.5326376,0.2863239,0.23067425,-0.92995071,0
-0.99068844,-0.7921325,4.7990723,-0.2863239,-0.23067425,0.92995071,0
0.62539566,0.81928802,3.3900526,0.41094244,0.84721577,0.33667758,0
-3.6030641,2.2245026,1.385745,-0.8655318,0.47855496,-0.14778429,0
1.8552723,2.5004458,-4.2091722,0.2863239,0.23067425,-0.92995071,0
-2.3383253,-1.7247622,1.5476284,-0.41094244,-0.84721577,-0.33667758,0
3.2285619,1.9389484,-3.8317399,0.2863239,0.23067425,-0.92995071,0
3.0258465,0.7070694,-4.2835498,0.2863239,0.23067425,-0.92995071,0
-3.6767521,-0.91031444,3.9417014,-0.2863239,-0.23067425,0.92995071,0
-0.98861855,-1.8079549,4.5417905,-0.2863239,-0.23067425,0.92995071,0
2.8614073,-3.0784674,0.019071937,0.8655318,-0.47855496,0.14778429,0
-0.71690226,3.7379632,-4.6425261,0.2863239,0.23067425,-0.92995071,0
-3.7811399,0.83326399,-2.7270932,-0.8655318,0.47855496,-0.14778429,0
0.31801677,3.403533,-4.3363957,0.2863239,0.23067425,-0.92995071,0
3.2218733,-1.9847333,1.1383839,0.8655318,-0.47855496,0.14778429,0
-4.4613218,-0.72325724,3.8046675,-0.2863239,-0.23067425,0.92995071,0
-2.8437965,-0.54916704,-0.8614316,-0.41094244,-0.84721577,-0.33667758,0
1.8524952,-2.8189795,-1.3913736,-0.41094244,-0.84721577,-0.33667758,0
-0.98132664,-0.80615354,4.9465461,-0.2863239,-0.23067425,0.92995071,0
0.028657436,2.7032511,-4.6034627,0.2863239,0.23067425,-0.92995071,0
1.7391214,2.9535303,-4.1184144,0.2863239,0.23067425,-0.92995071,0
-3.2874265,-1.0114059,0.61227655,-0.41094244,-0.84721577,-0.33667758,0
-3.7993786,1.8320645,0.79274678,-0.8655318,0.47855496,-0.14778429,0
4.0862117,1.2308204,-3.7100368,0.2863239,0.23067425,-0.92995071,0
-2.9145091,0.72673988,4.6625161,-0.2863239,-0.23067425,0.92995071,0
-0.98672748,-3.2357507,3.627193,-0.41094244,-0.84721577,-0.33667758,0
-1.6837883,4.0588818,-2.1783333,0.41094244,0.84721577,0.33667758,0
-2.327507,0.66688216,4.901895,-0.2863239,-0.23067425,0.92995071,0
3.1096511,-0.18990326,2.5719652,0.41094244,0.84721577,0.33667758,0
-3.1567771,2.2200174,3.9450464,0.41094244,0.84721577,0.33667758,0
2.3564963,0.81099999,0.99045855,0.41094244,0.84721577,0.33667758,0
2.7199128,0.0079195499,2.4165294,0.41094244,0.84721577,0.33667758,0
-0.97795606,-1.0605053,4.9094181,-0.2863239,-0.23067425,0.92995071,0
2.9704332,-0.78429961,4.5207014,0.41094244,0.84721577,0.33667758,0
-0.46171069,1.9968092,-5.0271502,0.2863239,0.23067425,-0.92995071,0
1.9044127,2.2009192,-4.1895714,0.2863239,0.23067425,-0.92995071,0
-1.5563304,2.6595705,1.2686243,0.41094244,0.84721577,0.33667758,0
-1.7521231,0.91413736,-5.5990152,0.2863239,0.23067425,-0.92995071,0
2.937356,-1.4302325,4.6371078,0.8655318,-0.47855496,0.14778429,0
-3.3709135,1.3499482,-3.5717678,-0.8655318,0.47855496,-0.14778429,0
-2.1540456,3.9415948,-1.3829764,-0.8655318,0.47855496,-0.14778429,0
2.2044444,-3.0604196,3.680232,0.8655318,-0.47855496,0.14778429,0
0.076781034,2.7094603,-4.6778517,0.2863239,0.23067425,-0.92995071,0
2.7214711,-0.10702789,-4.6143942,0.2863239,0.23067425,-0.92995071,0
4.8287373,-0.33826023,-2.358181,0.8655318,-0.47855496,0.14778429,0
4.1890082,1.0669,-1.9021733,0.41094244,0.84721577,0.33667758,0
-1.3380356,3.665081,-4.8403926,0.2863239,0.23067425,-0.92995071,0
2.0361333,-3.3263075,4.5496192,0.8655318,-0.47855496,0.14778429,0
-0.99104095,-0.10938418,5.143712,-0.2863239,-0.23067425,0.92995071,0
2.2832084,-2.1043825,5.5726681,-0.2863239,-0.23067425,0.92995071,0
2.7886124,0.89923799,0.33473986,0.41094244,0.84721577,0.33667758,0
0.74317479,-0.48270857,5.4186406,-0.2863239,-0.23067425,0.92995071,0
-4.0032167,2.1535985,2.838851,-0.8655318,0.47855496,-0.14778429,0
4.4454718,0.022145629,0.31416535,0.41094244,0.84721577,0.33667758,0
4.077549,-2.1520934,-3.1547909,0.8655318,-0.47855496,0.14778429,0
-2.2675967,-0.095893204,4.7054062,-0.2863239,-0.23067425,0.92995071,0
-4.2989435,0.66305059,4.1795444,-0.2863239,-0.23067425,0.92995071,0
3.0763354,0.074520111,-4.4420877,0.2863239,0.23067425,-0.92995071,0
-0.62690884,-1.0634954,-2.3295288,-0.41094244,-0.84721577,-0.33667758,0
1.6988478,-4.30405,3.3577616,0.8655318,-0.47855496,0.14778429,0
-0.27346218,-0.62971497,-3.955934,-0.41094244,-0.84721577,-0.33667758,0
4.8433232,-0.51049125,-2.6320748,0.8655318,-0.47855496,0.14778429,0
1.1696808,1.6466529,0.34348941,0.41094244,0.84721577,0.33667758,0
-4.3134265,1.3021169,2.1055181,-0.8655318,0.47855496,-0.14778429,0
-3.5407927,-2.0559874,3.2938256,-0.41094244,-0.84721577,-0.33667758,0
-0.66290927,3.1943691,-4.7518878,0.2863239,0.23067425,-0.92995071,0
-2.8877892,1.3151069,-5.8679943,-0.41094244,-0.84721577,-0.33667758,0
2.9047313,-1.280988,-4.8157234,0.2863239,0.23067425,-0.92995071,0
-3.3043323,-1.8809587,3.9390531,-0.2863239,-0.23067425,0.92995071,0
5.3070354,1.1056411,-3.1140156,0.41094244,0.84721577,0.33667758,0
-2.9275098,1.3031138,4.8701267,-0.2863239,-0.23067425,0.92995071,0
-4.6865883,0.63378119,2.3540959,-0.8655318,0.47855496,-0.14778429,0
-3.5570474,0.25033689,-2.2787521,-0.41094244,-0.84721577,-0.33667758,0
1.7478842,2.8186822,-4.099802,0.2863239,0.23067425,-0.92995071,0
-4.3233242,0.51898599,0.26562047,-0.8655318,0.47855496,-0.14778429,0
3.6732385,-2.1517737,-4.8093739,0.2863239,0.23067425,-0.92995071,0
-3.2160649,1.9882222,4.8250837,0.41094244,0.84721577,0.33667758,0
1.2388074,3.3896275,-4.130733,0.2863239,0.23067425,-0.92995071,0
-2.0856242,0.78822684,-5.1655207,-0.41094244,-0.84721577,-0.33667758,0
3.1059222,-1.9826372,-4.8061452,-0.41094244,-0.84721577,-0.33667758,0
4.1186538,-0.9392606,-0.26091838,0.8655318,-0.47855496,0.14778429,0
4.0800891,0.99533755,-3.8166542,0.2863239,0.23067425,-0.92995071,0
4.7760963,-0.6960687,-2.8580518,0.8655318,-0.47855496,0.14778429,0
-1.3106031,3.6078038,-4.8998957,0.2863239,0.23067425,-0.92995071,0
-2.179251,0.01011014,4.7946501,-0.2863239,-0.23067425,0.92995071,0
-0.90107358,-0.59626663,-3.4907749,-0.41094244,-0.84721577,-0.33667758,0
1.9953494,2.3329208,-4.1896405,0.2863239,0.23067425,-0.92995071,0
1.7689357,-4.1776538,3.3387129,0.8655318,-0.47855496,0.14778429,0
-4.9735227,-0.16000175,0.95087695,-0.8655318,0.47855496,-0.14778429,0
-4.0461931,0.40168488,-1.6781261,-0.8655318,0.47855496,-0.14778429,0
1.052213,0.49615788,3.6479743,0.41094244,0.84721577,0.33667758,0
-2.3508077,2.574245,-5.0469484,-0.8655318,0.47855496,-0.14778429,0
4.2686858,1.0268127,-1.8409376,0.41094244,0.84721577,0.33667758,0
-0.78570414,1.2172859,-5.390245,0.2863239,0.23067425,-0.92995071,0
4.0339518,1.3388622,-2.4083171,0.41094244,0.84721577,0.33667758,0
-2.5467734,3.0189035,-1.7446721,-0.8655318,0.47855496,-0.14778429,0
4.749063,-0.85544926,-3.437273,0.8655318,-0.47855496,0.14778429,0
3.6411016,0.92756283,-0.88058519,0.41094244,0.84721577,0.33667758,0
-1.2395873,4.6984863,-4.4591908,-0.8655318,0.47855496,-0.14778429,0
-2.3556819,2.721493,-3.9411979,-0.8655318,0.47855496,-0.14778429,0
1.8188832,3.0826159,-4.1154904,0.2863239,0.23067425,-0.92995071,0
1.1010427,-3.2705121,4.9188876,-0.2863239,-0.23067425,0.92995071,0
4.0930009,-0.86091977,-0.17732835,0.8655318,-0.47855496,0.14778429,0
-2.0574241,1.0420339,-5.8193474,0.2863239,0.23067425,-0.92995071,0
2.9541893,-2.1772606,2.5586429,0.8655318,-0.47855496,0.14778429,0
2.2898195,-3.0301466,-1.3114151,-0.41094244,-0.84721577,-0.33667758,0
-3.3779397,2.4699481,1.3873787,-0.8655318,0.47855496,-0.14778429,0
3.7432587,-1.7697998,0.0094017982,0.8655318,-0.47855496,0.14778429,0
0.22197318,0.82098246,3.6294219,0.41094244,0.84721577,0.33667758,0
-0.60627985,-3.4907479,3.8255553,-0.41094244,-0.84721577,-0.33667758,0
4.7592344,-0.14240855,-1.8517933,0.8655318,-0.47855496,0.14778429,0
2.9269202,1.367373,-4.0563574,0.2863239,0.23067425,-0.92995071,0
4.266335,-0.55635619,-0.28207278,0.8655318,-0.47855496,0.14778429,0
-4.0055628,-0.11013031,-1.0191507,-0.41094244,-0.84721577,-0.33667758,0
4.208982,-1.2083271,-4.3223138,0.2863239,0.23067425,-0.92995071,0
-1.2713435,1.0245316,4.938199,0.41094244,0.84721577,0.33667758,0
-3.5345242,-2.0823517,3.4298272,-0.41094244,-0.84721577,-0.33667758,0
-2.0879662,-2.2977509,2.3595591,-0.41094244,-0.84721577,-0.33667758,0
1.0913793,3.1169178,-4.1668983,0.2863239,0.23067425,-0.92995071,0
-5.023509,-0.93545014,3.6247249,-0.2863239,-0.23067425,0.92995071,0
2.5502958,2.7109945,-3.7594547,0.41094244,0.84721577,0.33667758,0
-4.654459,0.55393726,1.638649,-0.8655318,0.47855496,-0.14778429,0
0.81920803,3.4758172,-3.741169,0.41094244,0.84721577,0.33667758,0
0.4410826,-0.16828489,-5.1929483,0.2863239,0.23067425,-0.92995071,0
-0.040757537,0.17398918,5.3357406,-0.2863239,-0.23067425,0.92995071,0
3.0979996,-0.70946145,-4.5332589,0.2863239,0.23067425,-0.92995071,0
-1.701406,2.8603809,-5.2768545,0.2863239,0.23067425,-0.92995071,0
-3.784059,0.44628841,4.3863044,-0.2863239,-0.23067425,0.92995071,0
2.3850822,1.7396358,-4.256834,0.2863239,0.23067425,-0.92995071,0
-3.2208643,2.4457252,3.5826869,0.41094244,0.84721577,0.33667758,0
-2.4485714,3.6859586,-0.23274389,0.41094244,0.84721577,0.33667758,0
-1.4087451,3.7334635,-1.8105299,0.41094244,0.84721577,0.33667758,0
