-1.1969483,3.1640224,-1.2527087,-0.8395654,0.11741281,-0.53041875,0
3.3918197,-4.2627192,-2.4387474,0.8395654,-0.11741281,0.53041875,0
-2.8153374,-4.2317791,0.74986315,-0.13620734,-0.99067342,-0.0037006438,0
-3.0173814,3.8518176,1.9059448,-0.8395654,0.11741281,-0.53041875,0
-0.28684378,4.6087694,3.7947617,0.13620734,0.99067342,0.0037006438,0
-4.0133452,1.2334142,2.7355962,-0.8395654,0.11741281,-0.53041875,0
2.2289472,-1.567457,-4.3179312,0.52590632,-0.069139943,-0.84772754,0
2.6751699,2.8899324,-4.4431019,0.52590632,-0.069139943,-0.84772754,0
-1.3311088,-4.3003788,2.3779447,-0.13620734,-0.99067342,-0.0037006438,0
2.3936601,-3.5979052,-0.68154454,0.8395654,-0.11741281,0.53041875,0
0.95433187,4.381845,0.48545551,0.13620734,0.99067342,0.0037006438,0
-1.3659499,4.6414719,4.4572029,0.13620734,0.99067342,0.0037006438,0
-1.6642889,-1.9939153,-1.5970194,-0.8395654,0.11741281,-0.53041875,0
-3.6953943,-2.9480252,1.5995185,-0.8395654,0.11741281,-0.53041875,0
-2.0005448,4.0921502,0.49004912,-0.8395654,0.11741281,-0.53041875,0
1.6032658,4.288095,-2.9431095,0.13620734,0.99067342,0.0037006438,0
0.92842293,-1.0762868,2.0739534,0.8395654,-0.11741281,0.53041875,0
4.7460065,2.7321665,-3.1033554,0.8395654,-0.11741281,0.53041875,0
3.1610105,1.1956633,-4.0411873,0.52590632,-0.069139943,-0.84772754,0
0.92372704,-2.8255601,1.5366743,0.8395654,-0.11741281,0.53041875,0
0.083054066,3.7559619,-3.1867254,-0.8395654,0.11741281,-0.53041875,0
0.9219451,4.4362583,-3.4310265,0.13620734,0.99067342,0.0037006438,0
-3.192019,2.4619515,3.6444921,-0.52590632,0.069139943,0.84772754,0
-1.5375432,2.0413828,-0.8208189,-0.8395654,0.11741281,-0.53041875,0
3.5993023,2.3517883,-3.9249787,0.52590632,-0.069139943,-0.84772754,0
3.2391608,4.0889578,-0.80295658,0.13620734,0.99067342,0.0037006438,0
-4.2274981,1.3597109,3.2579355,-0.52590632,0.069139943,0.84772754,0
3.3697014,-1.3668597,-1.7962046,0.8395654,-0.11741281,0.53041875,0
1.4414247,-1.0480247,1.3311095,0.8395654,-0.11741281,0.53041875,0
4.1653876,-0.3996163,-2.8088703,0.8395654,-0.11741281,0.53041875,0
0.22515643,-0.42063713,3.4761662,0.8395654,-0.11741281,0.53041875,0
2.0008826,2.2196572,-4.800539,0.52590632,-0.069139943,-0.84772754,0
-0.37421793,-0.1396699,-3.1219583,-0.8395654,0.11741281,-0.53041875,0
2.0764983,-4.8658133,-2.3089004,-0.13620734,-0.99067342,-0.0037006438,0
-4.1816978,-1.221576,2.7590032,-0.8395654,0.11741281,-0.53041875,0
0.47393775,-0.5261488,2.9443209,0.8395654,-0.11741281,0.53041875,0
-0.77867061,1.6384289,5.2949643,-0.52590632,0.069139943,0.84772754,0
4.7127461,3.3833208,-3.2886996,0.52590632,-0.069139943,-0.84772754,0
-2.5780628,2.5080624,4.0346589,-0.52590632,0.069139943,0.84772754,0
-1.9210579,4.8242264,3.732646,0.13620734,0.99067342,0.0037006438,0
-2.8119392,0.037734866,4.2477598,-0.52590632,0.069139943,0.84772754,0
3.8826737,2.4056616,-3.6862526,0.52590632,-0.069139943,-0.84772754,0
2.4932098,0.4169476,-4.3605027,0.52590632,-0.069139943,-0.84772754,0
-3.6773515,1.6352302,3.5636268,-0.52590632,0.069139943,0.84772754,0
2.7762787,-2.1411128,-3.9800253,0.52590632,-0.069139943,-0.84772754,0
-1.5390601,-0.26928043,5.0397582,-0.52590632,0.069139943,0.84772754,0
-1.4383135,-2.8750155,5.2344017,-0.52590632,0.069139943,0.84772754,0
-1.4656458,4.7375488,3.290894,0.13620734,0.99067342,0.0037006438,0
0.014700651,2.219228,4.1147442,0.8395654,-0.11741281,0.53041875,0
-0.41669798,-1.3495836,4.1564164,0.8395654,-0.11741281,0.53041875,0
2.0406389,4.1800818,0.22443016,0.13620734,0.99067342,0.0037006438,0
-1.4641695,-0.65866876,5.1571708,-0.52590632,0.069139943,0.84772754,0
-2.2036183,-3.3139722,-0.97030687,-0.8395654,0.11741281,-0.53041875,0
-1.6947386,4.7698436,4.1256928,0.13620734,0.99067342,0.0037006438,0
2.3196867,2.7626643,0.77081519,0.8395654,-0.11741281,0.53041875,0
4.6735635,2.8634157,-3.2372432,0.52590632,-0.069139943,-0.84772754,0
3.7462771,-2.4780126,-2.6868777,0.8395654,-0.11741281,0.53041875,0
-1.0075034,-1.1701436,5.0223475,0.8395654,-0.11741281,0.53041875,0
-3.0535874,2.2369552,1.4618478,-0.8395654,0.11741281,-0.53041875,0
2.5169692,0.79071355,-0.17020667,0.8395654,-0.11741281,0.53041875,0
-2.8782425,2.9750848,1.6221929,-0.8395654,0.11741281,-0.53041875,0
0.61221695,-4.5401139,1.308421,-0.13620734,-0.99067342,-0.0037006438,0
1.2067062,1.5068533,2.0267706,0.8395654,-0.11741281,0.53041875,0
0.55606484,4.511013,1.7020772,0.13620734,0.99067342,0.0037006438,0
-3.7764168,-1.3219072,3.6929669,-0.52590632,0.069139943,0.84772754,0
-3.0509367,-4.0903735,2.5591326,-0.13620734,-0.99067342,-0.0037006438,0
-0.20346296,2.8989177,4.8374624,0.8395654,-0.11741281,0.53041875,0
1.2678969,4.4185543,0.20470589,0.13620734,0.99067342,0.0037006438,0
-2.8644249,-4.0995626,1.0113453,-0.13620734,-0.99067342,-0.0037006438,0
-4.3120251,0.14178807,3.1448941,-0.8395654,0.11741281,-0.53041875,0
-2.7608662,4.8324776,3.0765347,0.13620734,0.99067342,0.0037006438,0
3.4841526,1.9689295,-3.8854799,0.52590632,-0.069139943,-0.84772754,0
-3.9474182,0.62232184,3.3553476,-0.52590632,0.069139943,0.84772754,0
3.5637312,1.0654589,-1.6601987,0.8395654,-0.11741281,0.53041875,0
-3.4287505,3.0338788,3.4501176,-0.52590632,0.069139943,0.84772754,0
-1.2178746,-1.5198944,5.1826868,-0.52590632,0.069139943,0.84772754,0
2.6891601,1.3308328,-0.0089229345,0.8395654,-0.11741281,0.53041875,0
0.021186829,-3.5200872,3.0631433,0.8395654,-0.11741281,0.53041875,0
-2.6134243,4.9179592,1.5329323,0.13620734,0.99067342,0.0037006438,0
2.7520125,1.8131759,-4.4069133,0.52590632,-0.069139943,-0.84772754,0
0.24424672,3.6925099,4.3650546,0.8395654,-0.11741281,0.53041875,0
0.65734625,2.7309549,3.2802169,0.8395654,-0.11741281,0.53041875,0
-2.6859679,-0.89571488,0.2691164,-0.8395654,0.11741281,-0.53041875,0
-3.8039596,-1.6975726,2.0125239,-0.8395654,0.11741281,-0.53041875,0
-0.95118284,4.6793261,0.18446469,0.13620734,0.99067342,0.0037006438,0
-0.42933083,-4.5061173,2.8118176,-0.13620734,-0.99067342,-0.0037006438,0
-3.9020996,-4.0721183,3.6437426,-0.13620734,-0.99067342,-0.0037006438,0
-1.8577065,0.77009225,4.7556281,-0.52590632,0.069139943,0.84772754,0
0.61841512,4.3704185,0.68304002,0.13620734,0.99067342,0.0037006438,0
-1.597688,-4.3912582,-0.47496468,-0.13620734,-0.99067342,-0.0037006438,0
-4.2961473,-3.9041009,2.736738,-0.13620734,-0.99067342,-0.0037006438,0
2.9207058,-0.38993722,-4.0827532,0.52590632,-0.069139943,-0.84772754,0
-0.48566961,-2.6085243,3.7851715,0.8395654,-0.11741281,0.53041875,0
1.7796302,4.1453905,-5.0623326,0.52590632,-0.069139943,-0.84772754,0
-2.4746742,3.1024508,4.1867981,-0.52590632,0.069139943,0.84772754,0
1.7391101,-0.47030663,-4.8429718,0.52590632,-0.069139943,-0.84772754,0
0.094399214,-2.2798564,3.026897,0.8395654,-0.11741281,0.53041875,0
-3.3081338,1.7623651,3.75631,-0.52590632,0.069139943,0.84772754,0
-3.5044003,-3.3829355,1.1466248,-0.8395654,0.11741281,-0.53041875,0
0.03294301,3.4731827,4.4652152,0.8395654,-0.11741281,0.53041875,0
1.4910064,-3.5309014,0.78770816,0.8395654,-0.11741281,0.53041875,0
-0.3155477,4.4827929,5.0030308,0.13620734,0.99067342,0.0037006438,0
-0.80160129,2.8337398,5.121963,-0.52590632,0.069139943,0.84772754,0
-0.81312156,-3.4073668,-3.3885868,-0.8395654,0.11741281,-0.53041875,0
2.3737516,-2.1637619,-4.3447971,0.52590632,-0.069139943,-0.84772754,0
-2.1336639,-4.1907001,4.2127752,-0.13620734,-0.99067342,-0.0037006438,0
3.1749275,4.1556511,-3.4795437,0.13620734,0.99067342,0.0037006438,0
0.45727658,4.5562139,2.1253469,0.13620734,0.99067342,0.0037006438,0
-1.9035542,2.2556164,4.4803309,-0.52590632,0.069139943,0.84772754,0
1.3061538,2.092521,-5.3644342,0.52590632,-0.069139943,-0.84772754,0
0.97244334,4.3931909,-1.7403467,0.13620734,0.99067342,0.0037006438,0
-3.7701411,3.8707409,3.0752764,-0.8395654,0.11741281,-0.53041875,0
-0.86851597,-4.5031977,0.61810941,-0.13620734,-0.99067342,-0.0037006438,0
-3.4135215,-3.4411187,0.85691845,-0.8395654,0.11741281,-0.53041875,0
-1.1790016,-0.52917647,-1.8824012,-0.8395654,0.11741281,-0.53041875,0
3.8709741,-3.1287451,-3.1715708,0.52590632,-0.069139943,-0.84772754,0
-3.5149288,4.5958028,3.3107438,-0.52590632,0.069139943,0.84772754,0
-4.327395,-3.4728329,3.4676847,-0.52590632,0.069139943,0.84772754,0
-0.35024309,2.9688246,-2.7216842,-0.8395654,0.11741281,-0.53041875,0
-2.9357953,-3.6977077,4.3866472,-0.52590632,0.069139943,0.84772754,0
-1.3605845,-4.2766905,-2.5089085,-0.8395654,0.11741281,-0.53041875,0
-0.013224363,4.4957199,2.6935339,0.13620734,0.99067342,0.0037006438,0
2.0710166,-0.14009738,0.53671181,0.8395654,-0.11741281,0.53041875,0
0.55267,4.4557667,-0.56904697,0.13620734,0.99067342,0.0037006438,0
2.8870611,-2.9432845,-3.9201808,0.52590632,-0.069139943,-0.84772754,0
-1.5412836,1.999936,4.8050742,-0.52590632,0.069139943,0.84772754,0
0.055355549,4.5895581,4.3230367,0.13620734,0.99067342,0.0037006438,0
0.768332,-2.6035266,1.9147344,0.8395654,-0.11741281,0.53041875,0
-1.9231558,-4.3364773,-1.1544975,-0.13620734,-0.99067342,-0.0037006438,0
-2.615077,4.8870273,2.174386,0.13620734,0.99067342,0.0037006438,0
2.0794225,4.3403606,1.0675801,0.13620734,0.99067342,0.0037006438,0
-0.85794497,-4.4535437,3.543066,-0.13620734,-0.99067342,-0.0037006438,0
-1.3688134,-3.3109748,-2.5182021,-0.8395654,0.11741281,-0.53041875,0
-0.28541428,1.473881,4.6815138,0.8395654,-0.11741281,0.53041875,0
2.8482442,0.98622805,-0.66243911,0.8395654,-0.11741281,0.53041875,0
2.2903624,4.2763915,-4.187974,0.13620734,0.99067342,0.0037006438,0
-3.5870218,1.0476004,3.4898448,-0.52590632,0.069139943,0.84772754,0
0.80125165,-2.0245247,-5.1278548,0.52590632,-0.069139943,-0.84772754,0
3.634191,2.2545695,-3.8411465,0.52590632,-0.069139943,-0.84772754,0
-3.322588,-0.6912998,1.4302831,-0.8395654,0.11741281,-0.53041875,0
3.0160723,3.4200954,-0.21353781,0.8395654,-0.11741281,0.53041875,0
-1.8775465,0.12703049,-0.75108093,-0.8395654,0.11741281,-0.53041875,0
2.494756,-4.0398097,-1.1506972,0.8395654,-0.11741281,0.53041875,0
2.0538139,-0.21293688,0.58410472,0.8395654,-0.11741281,0.53041875,0
-1.1411426,4.6557999,4.0083313,0.13620734,0.99067342,0.0037006438,0
3.7081654,2.0496297,-3.7228322,0.52590632,-0.069139943,-0.84772754,0
2.7447624,-4.5306678,-1.4097958,0.8395654,-0.11741281,0.53041875,0
1.7102804,2.2151546,1.5925293,0.8395654,-0.11741281,0.53041875,0
1.5877979,-0.38925219,-4.770246,0.52590632,-0.069139943,-0.84772754,0
-0.43776464,-4.380291,-2.3496122,-0.13620734,-0.99067342,-0.0037006438,0
0.93179274,4.4242973,-2.176543,0.13620734,0.99067342,0.0037006438,0
-3.7057533,3.5977519,3.1922283,-0.52590632,0.069139943,0.84772754,0
1.2833567,-4.7298918,-1.6425974,-0.13620734,-0.99067342,-0.0037006438,0
-0.22096717,-2.2995858,-3.946769,-0.8395654,0.11741281,-0.53041875,0
-3.8429391,-0.87965643,2.0479915,-0.8395654,0.11741281,-0.53041875,0
0.5569613,-4.5511017,-4.9413624,-0.13620734,-0.99067342,-0.0037006438,0
1.1814234,-0.73664403,1.5719173,0.8395654,-0.11741281,0.53041875,0
1.8366404,-4.4260521,-0.13316274,0.8395654,-0.11741281,0.53041875,0
-2.4514236,1.242713,4.1735802,-0.52590632,0.069139943,0.84772754,0
-0.89552927,4.7029958,1.5289402,0.13620734,0.99067342,0.0037006438,0
0.38667822,-4.6099672,-1.6338742,-0.13620734,-0.99067342,-0.0037006438,0
0.20136881,4.5075121,-2.972846,0.13620734,0.99067342,0.0037006438,0
3.6763773,-0.14590843,-3.5540586,0.52590632,-0.069139943,-0.84772754,0
4.0355654,4.0416636,-2.3836486,0.13620734,0.99067342,0.0037006438,0
-0.03485918,-2.8398499,3.3451099,0.8395654,-0.11741281,0.53041875,0
-1.4500713,4.6830249,1.9990673,0.13620734,0.99067342,0.0037006438,0
2.7062378,1.3742163,-4.2759027,0.52590632,-0.069139943,-0.84772754,0
3.6971405,-0.66717744,-3.6373711,0.52590632,-0.069139943,-0.84772754,0
2.8085241,4.070416,-1.8341012,0.13620734,0.99067342,0.0037006438,0
2.2183552,-3.8962269,-4.1897244,0.52590632,-0.069139943,-0.84772754,0
3.1802487,0.47160411,-1.0247006,0.8395654,-0.11741281,0.53041875,0
-2.7689371,-4.2696648,2.7179151,-0.13620734,-0.99067342,-0.0037006438,0
-1.5970653,2.0801625,4.8038044,-0.52590632,0.069139943,0.84772754,0
4.4988117,1.7796564,-3.2292423,0.52590632,-0.069139943,-0.84772754,0
2.0496411,1.4872705,0.97435951,0.8395654,-0.11741281,0.53041875,0
1.7359535,1.200243,-4.8097854,0.52590632,-0.069139943,-0.84772754,0
-1.9232967,-4.2845402,0.039782733,-0.13620734,-0.99067342,-0.0037006438,0
1.1569638,-4.6984811,-2.5558505,-0.13620734,-0.99067342,-0.0037006438,0
0.055967048,0.86100984,3.8108492,0.8395654,-0.11741281,0.53041875,0
1.1777623,4.3962502,-1.4448351,0.13620734,0.99067342,0.0037006438,0
0.93086278,-2.8853655,-5.1615233,0.52590632,-0.069139943,-0.84772754,0
-4.1134839,-0.70031315,2.707386,-0.8395654,0.11741281,-0.53041875,0
2.576844,4.2357073,-2.9060059,0.13620734,0.99067342,0.0037006438,0
-2.1762502,-4.3077564,4.0126829,-0.13620734,-0.99067342,-0.0037006438,0
-1.4329686,-0.80370951,4.9655495,-0.52590632,0.069139943,0.84772754,0
0.89601111,-4.1242409,-4.9368238,0.52590632,-0.069139943,-0.84772754,0
-1.1181414,1.9802148,-1.5706928,-0.8395654,0.11741281,-0.53041875,0
1.1711292,-4.6844158,-4.2107821,-0.13620734,-0.99067342,-0.0037006438,0
0.16675758,4.4419637,-2.1925819,0.13620734,0.99067342,0.0037006438,0
-0.84447026,-4.4607182,1.0263628,-0.13620734,-0.99067342,-0.0037006438,0
1.4948647,2.5524814,1.8808165,0.8395654,-0.11741281,0.53041875,0
-2.5901277,0.72195333,4.1283445,-0.52590632,0.069139943,0.84772754,0
-0.39404058,4.6036944,1.9062283,0.13620734,0.99067342,0.0037006438,0
-3.3903332,-3.5039535,4.0064173,-0.52590632,0.069139943,0.84772754,0
2.6043615,0.916502,-4.4444089,0.52590632,-0.069139943,-0.84772754,0
-2.207201,-1.6049955,4.5560579,-0.52590632,0.069139943,0.84772754,0
1.5675941,-0.68763494,1.2084351,0.8395654,-0.11741281,0.53041875,0
0.41667485,-1.6284425,-4.6439977,-0.8395654,0.11741281,-0.53041875,0
-1.8562398,4.8001447,3.4740109,0.13620734,0.99067342,0.0037006438,0
4.330101,2.7413256,-3.5171552,0.52590632,-0.069139943,-0.84772754,0
-1.325186,4.681725,2.9318552,0.13620734,0.99067342,0.0037006438,0
2.6521249,3.7466192,-4.4508038,0.52590632,-0.069139943,-0.84772754,0
1.6505516,-4.3059649,-4.4642072,0.52590632,-0.069139943,-0.84772754,0
-0.12270784,4.5027699,-2.4558542,0.13620734,0.99067342,0.0037006438,0
-3.1069803,4.7318053,3.5481935,-0.52590632,0.069139943,0.84772754,0
-3.9121642,-0.018140081,3.370369,-0.52590632,0.069139943,0.84772754,0
-0.17122602,-3.8707719,-4.2289991,-0.8395654,0.11741281,-0.53041875,0
-1.3300204,4.6944361,-0.78739762,-0.8395654,0.11741281,-0.53041875,0
-2.8219235,-2.5644953,0.068858624,-0.8395654,0.11741281,-0.53041875,0
2.3707123,-4.8930435,-3.1807866,-0.13620734,-0.99067342,-0.0037006438,0
-4.2653847,-2.9700933,3.3914123,-0.52590632,0.069139943,0.84772754,0
0.97675121,0.25146985,-5.3936005,0.52590632,-0.069139943,-0.84772754,0
-1.337399,1.1830236,4.8769827,-0.52590632,0.069139943,0.84772754,0
-0.9815681,4.6560612,4.1061378,0.13620734,0.99067342,0.0037006438,0
-0.0059848428,1.7637256,3.9887235,0.8395654,-0.11741281,0.53041875,0
1.0614958,4.3230534,2.8227355,0.13620734,0.99067342,0.0037006438,0
-0.42314529,-3.7057092,3.8057041,0.8395654,-0.11741281,0.53041875,0
3.1350865,-2.1963096,-1.8394165,0.8395654,-0.11741281,0.53041875,0
-2.6756163,4.954412,3.0362329,0.13620734,0.99067342,0.0037006438,0
-3.0798879,-4.1531925,0.69904864,-0.13620734,-0.99067342,-0.0037006438,0
-0.47407818,4.66082,1.4709778,0.13620734,0.99067342,0.0037006438,0
-2.2615197,2.7306309,4.2760305,-0.52590632,0.069139943,0.84772754,0
0.33093929,3.348192,-3.4890866,-0.8395654,0.11741281,-0.53041875,0
0.8919692,-1.3087311,-5.285357,0.52590632,-0.069139943,-0.84772754,0
2.9018393,-1.9605588,-1.188421,0.8395654,-0.11741281,0.53041875,0
2.7662742,-3.1573062,-3.8717537,0.52590632,-0.069139943,-0.84772754,0
-2.0753038,4.8334694,3.6224003,0.13620734,0.99067342,0.0037006438,0
2.4303081,-4.7968764,-1.6826425,-0.13620734,-0.99067342,-0.0037006438,0
-1.2073586,1.9625376,5.1069736,-0.52590632,0.069139943,0.84772754,0
0.88128263,0.49676943,2.5354691,0.8395654,-0.11741281,0.53041875,0
-4.2139201,-3.9019744,3.6763363,-0.52590632,0.069139943,0.84772754,0
-0.69450355,3.0525773,-2.0245898,-0.8395654,0.11741281,-0.53041875,0
2.0889201,-0.33497322,0.33980978,0.8395654,-0.11741281,0.53041875,0
3.3967648,-4.2440786,-2.415381,0.8395654,-0.11741281,0.53041875,0
0.51115012,-1.7915635,2.5798302,0.8395654,-0.11741281,0.53041875,0
4.6208034,3.6334653,-2.9231982,0.8395654,-0.11741281,0.53041875,0
2.5724812,-1.7118278,-4.265697,0.52590632,-0.069139943,-0.84772754,0
1.8037398,-4.6550264,-4.471952,0.52590632,-0.069139943,-0.84772754,0
2.155715,-4.8935609,-2.9419732,-0.13620734,-0.99067342,-0.0037006438,0
-4.06884,1.3724428,3.2427497,-0.52590632,0.069139943,0.84772754,0
-2.9705038,-2.7299075,4.2659659,-0.52590632,0.069139943,0.84772754,0
3.50721,-1.8830619,-2.3317366,0.8395654,-0.11741281,0.53041875,0
0.49288607,-4.565136,-0.9221158,-0.13620734,-0.99067342,-0.0037006438,0
-1.2688737,4.0239592,-1.0224589,-0.8395654,0.11741281,-0.53041875,0
-3.6560473,-4.0137758,1.0270772,-0.8395654,0.11741281,-0.53041875,0
3.5000882,-1.4232998,-3.7159271,0.52590632,-0.069139943,-0.84772754,0
-2.1939108,-4.1959181,1.4167163,-0.13620734,-0.99067342,-0.0037006438,0
-3.5608864,4.5348072,3.2707162,-0.52590632,0.069139943,0.84772754,0
-1.0570347,-4.4422331,-1.8919051,-0.13620734,-0.99067342,-0.0037006438,0
3.2960906,1.3043252,-1.0127511,0.8395654,-0.11741281,0.53041875,0
0.5661757,4.4666276,1.3950918,0.13620734,0.99067342,0.0037006438,0
0.35655165,4.5388384,2.7963648,0.13620734,0.99067342,0.0037006438,0
2.6659825,-4.9492769,-2.0491657,-0.13620734,-0.99067342,-0.0037006438,0
-0.69594705,1.4949453,-2.1902957,-0.8395654,0.11741281,-0.53041875,0
4.2459588,1.9018981,-2.3712759,0.8395654,-0.11741281,0.53041875,0
-0.4111352,-4.5059967,0.8433066,-0.13620734,-0.99067342,-0.0037006438,0
0.38056254,1.6810014,3.5282989,0.8395654,-0.11741281,0.53041875,0
3.5203235,1.1659278,-3.8267341,0.52590632,-0.069139943,-0.84772754,0
-2.658571,4.1103525,1.3519764,-0.8395654,0.11741281,-0.53041875,0
-0.767048,3.1989338,5.0864639,-0.52590632,0.069139943,0.84772754,0
-2.1002173,4.4562101,4.1849389,-0.52590632,0.069139943,0.84772754,0
-2.041811,1.9445677,-0.20509315,-0.8395654,0.11741281,-0.53041875,0
1.4781532,4.4051824,0.070539713,0.13620734,0.99067342,0.0037006438,0
2.7294827,2.7657769,-4.5280385,0.52590632,-0.069139943,-0.84772754,0
2.2701583,-4.8209472,-1.246357,-0.13620734,-0.99067342,-0.0037006438,0
3.5738668,2.9579334,-4.0377245,0.52590632,-0.069139943,-0.84772754,0
3.0150173,2.6649148,-0.50948668,0.8395654,-0.11741281,0.53041875,0
0.92131329,4.4081945,-1.3833585,0.13620734,0.99067342,0.0037006438,0
-0.1787734,-4.5532699,0.12598681,-0.13620734,-0.99067342,-0.0037006438,0
3.624177,4.1152172,-1.0023357,0.8395654,-0.11741281,0.53041875,0
0.86217165,-3.7772286,-5.1250129,0.52590632,-0.069139943,-0.84772754,0
2.7785032,1.5187333,-0.20157635,0.8395654,-0.11741281,0.53041875,0
-0.16744018,4.5566454,2.1162128,0.13620734,0.99067342,0.0037006438,0
0.28421211,4.5209565,4.2202401,0.13620734,0.99067342,0.0037006438,0
-1.0983467,-4.4531002,1.245524,-0.13620734,-0.99067342,-0.0037006438,0
-4.2928843,-1.9491104,3.4724612,-0.52590632,0.069139943,0.84772754,0
3.4848821,3.9836841,-2.5079687,0.13620734,0.99067342,0.0037006438,0
-3.0625477,1.0939105,1.1593637,-0.8395654,0.11741281,-0.53041875,0
-1.2175517,4.7775478,1.150842,0.13620734,0.99067342,0.0037006438,0
-0.084066629,-1.1807373,3.6743174,0.8395654,-0.11741281,0.53041875,0
3.6955676,-4.3632336,-3.2413735,0.52590632,-0.069139943,-0.84772754,0
-2.11307,4.8848443,1.296874,0.13620734,0.99067342,0.0037006438,0
2.2469289,-3.8390524,-4.2170229,0.52590632,-0.069139943,-0.84772754,0
1.0521545,4.3580489,-3.8508816,0.13620734,0.99067342,0.0037006438,0
0.97508371,-3.3308773,-5.0691061,0.52590632,-0.069139943,-0.84772754,0
0.4253571,-4.5399756,-2.5456643,-0.13620734,-0.99067342,-0.0037006438,0
2.3781903,-4.2669911,-4.1269732,0.52590632,-0.069139943,-0.84772754,0
0.2498157,-4.4752889,-3.2733617,-0.13620734,-0.99067342,-0.0037006438,0
-0.017167568,4.5130873,2.9816284,0.13620734,0.99067342,0.0037006438,0
0.81571126,4.372705,2.6475937,0.13620734,0.99067342,0.0037006438,0
1.7901442,1.6818225,1.2950282,0.8395654,-0.11741281,0.53041875,0
2.8312569,1.3112893,-0.55747938,0.8395654,-0.11741281,0.53041875,0
-1.6778609,0.58352053,4.7814469,-0.52590632,0.069139943,0.84772754,0
-3.5347714,-3.6814771,4.0246625,-0.52590632,0.069139943,0.84772754,0
-3.2069464,1.1197293,3.8858314,-0.52590632,0.069139943,0.84772754,0
2.6366363,-4.8613801,-2.8583846,-0.13620734,-0.99067342,-0.0037006438,0
-0.89754963,4.7444935,4.3151751,0.13620734,0.99067342,0.0037006438,0
-1.3077326,4.4172573,4.790453,-0.52590632,0.069139943,0.84772754,0
0.75892949,2.0363562,2.9930739,0.8395654,-0.11741281,0.53041875,0
-3.7061956,-1.82388,3.8328977,-0.52590632,0.069139943,0.84772754,0
4.0971861,0.029799998,-2.807909,0.8395654,-0.11741281,0.53041875,0
-1.848022,-4.2825704,2.1108403,-0.13620734,-0.99067342,-0.0037006438,0
2.2087493,-4.8411398,-0.95332909,-0.13620734,-0.99067342,-0.0037006438,0
-0.59699821,-4.5502033,-2.7407391,-0.13620734,-0.99067342,-0.0037006438,0
-3.3315032,-2.6477141,3.9757357,-0.52590632,0.069139943,0.84772754,0
2.0411191,-1.6044433,-4.5271168,0.52590632,-0.069139943,-0.84772754,0
0.36248851,4.5461421,4.2031331,0.13620734,0.99067342,0.0037006438,0
2.1288743,-1.8889242,0.10920954,0.8395654,-0.11741281,0.53041875,0
-4.1411715,1.112348,3.0586796,-0.8395654,0.11741281,-0.53041875,0
1.9537807,-2.2028518,0.10867548,0.8395654,-0.11741281,0.53041875,0
-3.7765083,-0.14487952,2.1793103,-0.8395654,0.11741281,-0.53041875,0
1.775192,-3.8088307,0.28726053,0.8395654,-0.11741281,0.53041875,0
2.7096086,0.064496875,-4.1822829,0.52590632,-0.069139943,-0.84772754,0
-1.7479043,-2.8405542,5.0511179,-0.52590632,0.069139943,0.84772754,0
2.8342743,-1.0541818,-1.1151099,0.8395654,-0.11741281,0.53041875,0
0.44633865,4.4992766,0.22439373,0.13620734,0.99067342,0.0037006438,0
-2.0630336,-4.2130985,4.1054821,-0.13620734,-0.99067342,-0.0037006438,0
0.85785818,4.4193635,-0.65826207,0.13620734,0.99067342,0.0037006438,0
3.4527888,3.2819536,-4.0918961,0.52590632,-0.069139943,-0.84772754,0
-3.3894219,2.3141429,3.6610823,-0.52590632,0.069139943,0.84772754,0
3.328476,4.0769792,-1.354103,0.13620734,0.99067342,0.0037006438,0
-1.3147112,1.9258757,5.0118246,-0.52590632,0.069139943,0.84772754,0
1.1657393,4.3046031,-1.000314,0.13620734,0.99067342,0.0037006438,0
1.5236347,-4.8251524,-1.8549047,-0.13620734,-0.99067342,-0.0037006438,0
-1.5234215,4.6561346,4.0731087,0.13620734,0.99067342,0.0037006438,0
2.2512321,-0.49797118,-4.5452886,0.52590632,-0.069139943,-0.84772754,0
-0.90181923,-4.5045257,-0.69841444,-0.13620734,-0.99067342,-0.0037006438,0
2.4859493,-1.5939889,-4.2116575,0.52590632,-0.069139943,-0.84772754,0
0.34112,4.4696283,3.8475471,0.13620734,0.99067342,0.0037006438,0
-2.9635906,4.6993885,1.7973113,-0.8395654,0.11741281,-0.53041875,0
-0.24377441,-0.51276326,4.0726213,0.8395654,-0.11741281,0.53041875,0
1.1908879,4.2862949,1.5151854,0.13620734,0.99067342,0.0037006438,0
-0.36323404,4.6247025,-1.5729271,0.13620734,0.99067342,0.0037006438,0
-0.80224371,0.34352756,5.2963486,0.8395654,-0.11741281,0.53041875,0
1.4531155,2.3468423,-5.0988798,0.52590632,-0.069139943,-0.84772754,0
2.4646358,3.348021,0.63355911,0.8395654,-0.11741281,0.53041875,0
-1.6814349,-3.6541636,5.0793285,-0.52590632,0.069139943,0.84772754,0
3.442318,-2.6444452,-2.1123824,0.8395654,-0.11741281,0.53041875,0
0.91063976,4.3362389,2.9615631,0.13620734,0.99067342,0.0037006438,0
-4.7411356,-3.8958602,3.0465307,-0.8395654,0.11741281,-0.53041875,0
-1.5191735,1.1469414,-1.1596849,-0.8395654,0.11741281,-0.53041875,0
-3.3384476,-4.1801,2.3332856,-0.13620734,-0.99067342,-0.0037006438,0
1.4224329,-4.6528416,0.33853102,0.8395654,-0.11741281,0.53041875,0
-2.2523983,-1.9994669,-0.68810189,-0.8395654,0.11741281,-0.53041875,0
-1.8593426,1.3856102,4.6028371,-0.52590632,0.069139943,0.84772754,0
1.4638197,-1.5705484,-4.8826747,0.52590632,-0.069139943,-0.84772754,0
2.1173286,4.2419491,-2.7578137,0.13620734,0.99067342,0.0037006438,0
1.8286726,-1.2415308,-4.6441679,0.52590632,-0.069139943,-0.84772754,0
3.2643244,0.707138,-3.8259926,0.52590632,-0.069139943,-0.84772754,0
1.2963927,4.3773708,-1.8595636,0.13620734,0.99067342,0.0037006438,0
3.6572211,-4.4110432,-3.2263961,0.52590632,-0.069139943,-0.84772754,0
2.0135667,4.3293886,-2.2451551,0.13620734,0.99067342,0.0037006438,0
1.9806321,4.2579551,-1.3375849,0.13620734,0.99067342,0.0037006438,0
-2.4823332,1.7395574,4.1339169,-0.52590632,0.069139943,0.84772754,0
0.64482224,2.1213248,3.1370792,0.8395654,-0.11741281,0.53041875,0
3.0130844,-0.93196833,-1.0910566,0.8395654,-0.11741281,0.53041875,0
2.817445,2.0567336,-4.2810378,0.52590632,-0.069139943,-0.84772754,0
0.74301517,1.1381559,-4.8679552,-0.8395654,0.11741281,-0.53041875,0
1.985387,3.1016078,1.2690685,0.8395654,-0.11741281,0.53041875,0
-1.2968264,-4.4205537,4.2424097,-0.13620734,-0.99067342,-0.0037006438,0
0.92295504,4.473906,-3.6065791,0.13620734,0.99067342,0.0037006438,0
-1.4018307,4.6677022,0.065999031,0.13620734,0.99067342,0.0037006438,0
0.039487839,4.5294724,-0.80648798,0.13620734,0.99067342,0.0037006438,0
1.9773382,3.7986505,1.347023,0.8395654,-0.11741281,0.53041875,0
1.0460505,4.3510704,-3.0203218,0.13620734,0.99067342,0.0037006438,0
-4.2518702,0.24328434,2.8956957,-0.8395654,0.11741281,-0.53041875,0
-3.7162127,4.0623999,2.8453627,-0.8395654,0.11741281,-0.53041875,0
-3.0250409,1.1294646,3.9116254,-0.52590632,0.069139943,0.84772754,0
1.4692638,-2.0234463,0.82363033,0.8395654,-0.11741281,0.53041875,0
-0.30043817,-3.1760323,-4.0535746,-0.8395654,0.11741281,-0.53041875,0
0.5240016,4.0114307,-3.7631967,-0.8395654,0.11741281,-0.53041875,0
2.4458044,4.2145567,-3.5455291,0.13620734,0.99067342,0.0037006438,0
-1.7108243,-4.214087,-1.0137753,-0.13620734,-0.99067342,-0.0037006438,0
0.05272162,-0.35602236,-3.9802496,-0.8395654,0.11741281,-0.53041875,0
-3.2026572,4.9803381,3.3108816,0.13620734,0.99067342,0.0037006438,0
-3.0822067,-3.2131732,0.42877293,-0.8395654,0.11741281,-0.53041875,0
-4.3554816,-3.9342675,2.3845382,-0.13620734,-0.99067342,-0.0037006438,0
-4.7683406,-3.4261432,3.3167443,-0.52590632,0.069139943,0.84772754,0
-0.18460989,-4.5259256,-0.52827239,-0.13620734,-0.99067342,-0.0037006438,0
-4.3023443,-1.6913301,2.7791519,-0.8395654,0.11741281,-0.53041875,0
2.6346164,4.0924773,-1.8247825,0.13620734,0.99067342,0.0037006438,0
1.7788782,-3.8283005,-4.5683718,0.52590632,-0.069139943,-0.84772754,0
3.6083412,-2.8902905,-2.6576428,0.8395654,-0.11741281,0.53041875,0
1.843943,3.4177618,1.5528327,0.8395654,-0.11741281,0.53041875,0
-3.347363,2.0017676,3.7609458,-0.52590632,0.069139943,0.84772754,0
3.3430903,1.6614057,-1.0561075,0.8395654,-0.11741281,0.53041875,0
-2.986095,0.18388641,0.9129715,-0.8395654,0.11741281,-0.53041875,0
-2.7642446,4.8219056,1.7745924,-0.8395654,0.11741281,-0.53041875,0
-0.85674882,-4.3809466,1.2634012,-0.13620734,-0.99067342,-0.0037006438,0
-1.3845115,-4.4536996,0.71188986,-0.13620734,-0.99067342,-0.0037006438,0
0.13166142,4.5773592,3.8823581,0.13620734,0.99067342,0.0037006438,0
1.3970456,4.2920403,2.0192688,0.13620734,0.99067342,0.0037006438,0
1.5314007,-4.7795157,-0.2993989,-0.13620734,-0.99067342,-0.0037006438,0
-0.667566,0.72242737,4.9183507,0.8395654,-0.11741281,0.53041875,0
-1.9989593,-4.297503,-1.226212,-0.13620734,-0.99067342,-0.0037006438,0
-3.2885151,-2.6649837,1.0270405,-0.8395654,0.11741281,-0.53041875,0
1.065259,4.1337595,-4.6450148,-0.8395654,0.11741281,-0.53041875,0
-3.1520128,-0.34720773,3.9364052,-0.52590632,0.069139943,0.84772754,0
-0.39827871,4.6675396,2.6092784,0.13620734,0.99067342,0.0037006438,0
-0.86805654,2.3400714,-2.0401821,-0.8395654,0.11741281,-0.53041875,0
-1.0780787,2.9029081,4.9182935,-0.52590632,0.069139943,0.84772754,0
-1.7314565,-0.15491056,4.9503608,-0.52590632,0.069139943,0.84772754,0
1.2598869,-0.95568752,1.6934472,0.8395654,-0.11741281,0.53041875,0
1.7578633,-4.7336717,-2.3851676,-0.13620734,-0.99067342,-0.0037006438,0
1.1102278,0.77043152,2.0466356,0.8395654,-0.11741281,0.53041875,0
-2.2097411,4.8162513,0.897686,0.13620734,0.99067342,0.0037006438,0
-1.7160311,-4.2114644,0.24809131,-0.13620734,-0.99067342,-0.0037006438,0
-2.3899786,3.3338461,4.1932793,-0.52590632,0.069139943,0.84772754,0
0.77885723,-4.6382093,-4.7746544,-0.13620734,-0.99067342,-0.0037006438,0
1.0393031,-3.744642,-4.898819,0.52590632,-0.069139943,-0.84772754,0
-2.5703204,0.23965859,0.48757505,-0.8395654,0.11741281,-0.53041875,0
-0.68348169,-4.4174871,-3.5023267,-0.13620734,-0.99067342,-0.0037006438,0
3.6512601,-4.9948149,-3.1364832,0.8395654,-0.11741281,0.53041875,0
-0.55761123,-3.7195067,-3.691951,-0.8395654,0.11741281,-0.53041875,0
-1.606052,1.5369673,4.7247109,-0.52590632,0.069139943,0.84772754,0
-3.6066554,-4.0173297,1.5704465,-0.13620734,-0.99067342,-0.0037006438,0
1.1878123,-0.55692101,-5.0314846,0.52590632,-0.069139943,-0.84772754,0
-0.61233616,4.5358047,3.2836628,0.13620734,0.99067342,0.0037006438,0
0.20977974,4.5372853,-2.3193207,0.13620734,0.99067342,0.0037006438,0
3.4981213,-1.7057316,-2.1767044,0.8395654,-0.11741281,0.53041875,0
-3.6180613,2.9752901,3.4357066,-0.52590632,0.069139943,0.84772754,0
2.7953761,4.0929441,-2.6880429,0.13620734,0.99067342,0.0037006438,0
0.24415922,-4.5914516,0.18475485,-0.13620734,-0.99067342,-0.0037006438,0
-2.9640925,1.1165407,3.8909349,-0.52590632,0.069139943,0.84772754,0
-0.1414361,-0.97283506,3.7347689,0.8395654,-0.11741281,0.53041875,0
-2.7394652,-4.0712409,0.2321288,-0.13620734,-0.99067342,-0.0037006438,0
-2.6995423,-4.2293758,-0.29832461,-0.13620734,-0.99067342,-0.0037006438,0
3.1845865,-1.0083717,-3.8350425,0.52590632,-0.069139943,-0.84772754,0
-0.22391725,3.4509375,4.9226542,0.8395654,-0.11741281,0.53041875,0
-0.036969185,-4.580514,-0.79695153,-0.13620734,-0.99067342,-0.0037006438,0
-4.3944116,-2.0334616,2.6176901,-0.8395654,0.11741281,-0.53041875,0
-0.16278636,0.50285459,4.2386274,0.8395654,-0.11741281,0.53041875,0
-0.069766283,3.0292411,-3.0076647,-0.8395654,0.11741281,-0.53041875,0
1.304865,-1.6507337,1.3771763,0.8395654,-0.11741281,0.53041875,0
2.5043585,1.353479,0.27985913,0.8395654,-0.11741281,0.53041875,0
1.8041389,2.7135212,-4.9653492,0.52590632,-0.069139943,-0.84772754,0
3.4944901,-4.3512559,-3.415772,0.52590632,-0.069139943,-0.84772754,0
-1.0048275,3.7347655,-1.1791739,-0.8395654,0.11741281,-0.53041875,0
-0.41609764,4.6433415,1.6219287,0.13620734,0.99067342,0.0037006438,0
3.4102604,3.3154745,-4.0645752,0.52590632,-0.069139943,-0.84772754,0
-2.1996717,1.8698559,-0.024233103,-0.8395654,0.11741281,-0.53041875,0
2.7934797,0.90246284,-4.3530879,0.52590632,-0.069139943,-0.84772754,0
3.7127128,-2.6396718,-3.4593282,0.52590632,-0.069139943,-0.84772754,0
1.838986,-2.878891,-4.5133677,0.52590632,-0.069139943,-0.84772754,0
-2.7358794,2.8605227,3.9231453,-0.52590632,0.069139943,0.84772754,0
-1.3836851,-4.3302665,1.1475172,-0.13620734,-0.99067342,-0.0037006438,0
-1.4325047,-4.3518782,4.2257905,-0.13620734,-0.99067342,-0.0037006438,0
-2.7041903,-3.405771,4.4771223,-0.52590632,0.069139943,0.84772754,0
3.8178923,3.6398911,-1.5903964,0.8395654,-0.11741281,0.53041875,0
-2.6595235,-1.5884963,4.3290973,-0.52590632,0.069139943,0.84772754,0
-3.8463533,-1.7806156,3.7186413,-0.52590632,0.069139943,0.84772754,0
-3.1405725,4.2437315,2.1310091,-0.8395654,0.11741281,-0.53041875,0
-0.39458513,-4.4863558,-4.171391,-0.8395654,0.11741281,-0.53041875,0
3.9133582,0.91985476,-3.433012,0.52590632,-0.069139943,-0.84772754,0
0.48244452,-1.7575643,2.7093136,0.8395654,-0.11741281,0.53041875,0
-0.98272848,3.4954867,-1.4989693,-0.8395654,0.11741281,-0.53041875,0
0.69026613,-2.0543604,2.1632288,0.8395654,-0.11741281,0.53041875,0
-1.0841154,2.7298217,5.0597486,-0.52590632,0.069139943,0.84772754,0
2.8736212,4.149055,-3.4154418,0.13620734,0.99067342,0.0037006438,0
-3.047024,-1.4595405,4.1923027,-0.52590632,0.069139943,0.84772754,0
-0.43835813,0.75325108,4.5522509,0.8395654,-0.11741281,0.53041875,0
0.88575459,4.4152002,-2.4103603,0.13620734,0.99067342,0.0037006438,0
1.4018579,4.2847347,-3.6787338,0.13620734,0.99067342,0.0037006438,0
-3.3986051,0.0025379658,3.833992,-0.52590632,0.069139943,0.84772754,0
-2.4802351,-0.76742041,4.379837,-0.52590632,0.069139943,0.84772754,0
0.123631,-2.4693699,3.1698694,0.8395654,-0.11741281,0.53041875,0
3.6850529,3.5127563,-1.3327005,0.8395654,-0.11741281,0.53041875,0
0.65418589,1.1223631,3.0774305,0.8395654,-0.11741281,0.53041875,0
-1.4462156,-4.3713217,-1.5903074,-0.13620734,-0.99067342,-0.0037006438,0
3.7305737,3.985878,-2.1414909,0.13620734,0.99067342,0.0037006438,0
-0.45647955,-4.5565019,3.1515152,-0.13620734,-0.99067342,-0.0037006438,0
-0.34247208,4.5749912,4.5348201,0.13620734,0.99067342,0.0037006438,0
1.5652606,2.616719,-5.2176342,0.52590632,-0.069139943,-0.84772754,0
3.6382837,-3.2521627,-2.6982083,0.8395654,-0.11741281,0.53041875,0
-3.2486329,-4.0075259,1.7387135,-0.13620734,-0.99067342,-0.0037006438,0
-1.1972495,-1.3768353,5.3347626,-0.52590632,0.069139943,0.84772754,0
-3.4585085,-4.0933924,2.6865542,-0.13620734,-0.99067342,-0.0037006438,0
-1.2296386,4.7921219,1.9624524,0.13620734,0.99067342,0.0037006438,0
-1.5399624,-1.5685294,-1.5227482,-0.8395654,0.11741281,-0.53041875,0
-2.1216128,4.785718,1.0366859,0.13620734,0.99067342,0.0037006438,0
1.541038,4.0904317,-5.2836289,0.52590632,-0.069139943,-0.84772754,0
2.3102083,4.2602983,-2.1223316,0.13620734,0.99067342,0.0037006438,0
3.8051624,3.9909074,-2.5428967,0.13620734,0.99067342,0.0037006438,0
-1.9029162,0.48720217,-0.74935555,-0.8395654,0.11741281,-0.53041875,0
-0.54300308,4.6378937,0.40211606,0.13620734,0.99067342,0.0037006438,0
2.645041,3.1080656,-4.5301771,0.52590632,-0.069139943,-0.84772754,0
-3.4026997,2.3258457,2.0697331,-0.8395654,0.11741281,-0.53041875,0
-1.205461,-0.72781873,5.1605034,-0.52590632,0.069139943,0.84772754,0
-3.5843725,-0.27419361,3.702312,-0.52590632,0.069139943,0.84772754,0
-0.81851363,-4.2991648,-3.379524,-0.8395654,0.11741281,-0.53041875,0
-2.6018713,4.0673437,1.1433663,-0.8395654,0.11741281,-0.53041875,0
-4.1306214,-3.3178935,2.0992937,-0.8395654,0.11741281,-0.53041875,0
0.79369497,2.822834,-4.2742071,-0.8395654,0.11741281,-0.53041875,0
-4.6978121,-3.5295467,2.9544663,-0.8395654,0.11741281,-0.53041875,0
1.1283293,-4.7541122,-1.2861946,-0.13620734,-0.99067342,-0.0037006438,0
1.1329966,-4.5194435,-4.8188481,0.52590632,-0.069139943,-0.84772754,0
2.2181187,-4.4691048,-4.0881882,0.52590632,-0.069139943,-0.84772754,0
-4.8501515,-3.4563861,3.0873942,-0.52590632,0.069139943,0.84772754,0
3.5001168,4.0364981,-2.7362738,0.13620734,0.99067342,0.0037006438,0
1.4316385,-3.7085583,-4.698431,0.52590632,-0.069139943,-0.84772754,0
2.0093961,2.8862438,1.2830958,0.8395654,-0.11741281,0.53041875,0
3.1166887,4.0776062,-1.4311608,0.13620734,0.99067342,0.0037006438,0
-2.2009969,-4.1066432,4.7914696,-0.52590632,0.069139943,0.84772754,0
-1.9812088,-4.17343,-1.617821,-0.8395654,0.11741281,-0.53041875,0
0.70958233,-1.4491086,2.1693599,0.8395654,-0.11741281,0.53041875,0
-3.0837021,-2.9976573,4.3099532,-0.52590632,0.069139943,0.84772754,0
-4.6137066,-2.1397295,3.0544777,-0.8395654,0.11741281,-0.53041875,0
-2.4168758,4.6817045,1.0931673,-0.8395654,0.11741281,-0.53041875,0
4.5033197,2.7925448,-2.877583,0.8395654,-0.11741281,0.53041875,0
3.7095327,3.6302421,-3.9521675,0.52590632,-0.069139943,-0.84772754,0
0.58579755,1.515991,-4.2711773,-0.8395654,0.11741281,-0.53041875,0
-1.7287836,0.33049011,-1.1366322,-0.8395654,0.11741281,-0.53041875,0
2.5017228,4.2897182,-4.5982189,0.13620734,0.99067342,0.0037006438,0
-3.3763981,-2.1052759,3.9738369,-0.52590632,0.069139943,0.84772754,0
-2.0418472,-1.1389445,-0.83335382,-0.8395654,0.11741281,-0.53041875,0
1.2882359,-3.8204699,-4.9012403,0.52590632,-0.069139943,-0.84772754,0
1.844998,1.6316522,1.0681095,0.8395654,-0.11741281,0.53041875,0
1.9134796,-4.8535676,-2.1878519,-0.13620734,-0.99067342,-0.0037006438,0
-0.34078932,4.5031476,0.92062831,0.13620734,0.99067342,0.0037006438,0
-2.0170951,-4.3548088,0.59839946,-0.13620734,-0.99067342,-0.0037006438,0
-1.2916808,0.90996003,5.0976925,-0.52590632,0.069139943,0.84772754,0
0.64171886,1.5721474,-4.283236,-0.8395654,0.11741281,-0.53041875,0
-2.2148232,-2.9366827,4.7921362,-0.52590632,0.069139943,0.84772754,0
-2.2093904,-3.5807743,4.9311514,-0.52590632,0.069139943,0.84772754,0
-2.1837118,2.7557518,0.42159867,-0.8395654,0.11741281,-0.53041875,0
1.7469869,-4.8148875,-4.1886015,-0.13620734,-0.99067342,-0.0037006438,0
1.9580638,-3.1940448,-0.025207281,0.8395654,-0.11741281,0.53041875,0
-0.98427963,-0.81193101,-2.5414324,-0.8395654,0.11741281,-0.53041875,0
-3.1651495,4.7130818,2.1806359,-0.8395654,0.11741281,-0.53041875,0
-3.9972508,0.69919777,2.585268,-0.8395654,0.11741281,-0.53041875,0
-2.301198,0.89321518,0.19630289,-0.8395654,0.11741281,-0.53041875,0
3.3359742,-2.426713,-2.0016747,0.8395654,-0.11741281,0.53041875,0
4.1854601,3.8186736,-3.7073488,0.52590632,-0.069139943,-0.84772754,0
1.7109292,-4.6693382,-2.897862,-0.13620734,-0.99067342,-0.0037006438,0
2.0787528,-2.6993699,0.03624177,0.8395654,-0.11741281,0.53041875,0
1.3484523,4.363924,2.2134452,0.13620734,0.99067342,0.0037006438,0
2.1140063,4.0749426,1.3624179,0.8395654,-0.11741281,0.53041875,0
-0.8746376,4.6082635,4.2277951,0.13620734,0.99067342,0.0037006438,0
3.3848267,-1.2339787,-3.7348223,0.52590632,-0.069139943,-0.84772754,0
-1.1226544,1.8266134,4.9812393,-0.52590632,0.069139943,0.84772754,0
3.3233757,-2.7714355,-3.6778197,0.52590632,-0.069139943,-0.84772754,0
2.5344923,-4.252665,-1.2997489,0.8395654,-0.11741281,0.53041875,0
-0.81618237,4.6995268,3.6773205,0.13620734,0.99067342,0.0037006438,0
-4.1877737,-1.9289955,2.3574858,-0.8395654,0.11741281,-0.53041875,0
-0.090822458,-0.092903376,3.820061,0.8395654,-0.11741281,0.53041875,0
-2.3599081,4.0031595,4.1709108,-0.52590632,0.069139943,0.84772754,0
-3.3272045,-4.1066151,0.64947808,-0.13620734,-0.99067342,-0.0037006438,0
-3.93893,-0.78434014,3.5887814,-0.52590632,0.069139943,0.84772754,0
0.85183406,-3.7943151,1.6969184,0.8395654,-0.11741281,0.53041875,0
-3.5498102,-2.527045,1.2650306,-0.8395654,0.11741281,-0.53041875,0
-1.0219767,-4.3160262,0.63754278,-0.13620734,-0.99067342,-0.0037006438,0
-2.2234941,4.6249437,0.72770882,-0.8395654,0.11741281,-0.53041875,0
-3.9719639,-2.6629426,3.6765447,-0.52590632,0.069139943,0.84772754,0
-2.6196475,1.2676252,4.2193546,-0.52590632,0.069139943,0.84772754,0
2.4507101,-1.2681029,-4.3683734,0.52590632,-0.069139943,-0.84772754,0
-0.82759571,4.6906385,0.19020152,0.13620734,0.99067342,0.0037006438,0
2.6733255,-1.9082489,-0.76891708,0.8395654,-0.11741281,0.53041875,0
-2.5601053,2.6703105,1.0246179,-0.8395654,0.11741281,-0.53041875,0
1.7544503,4.2704315,-3.898948,0.13620734,0.99067342,0.0037006438,0
1.8004152,-0.19154787,0.77945131,0.8395654,-0.11741281,0.53041875,0
-2.7557211,0.19557488,4.1374664,-0.52590632,0.069139943,0.84772754,0
0.4100486,-3.4881003,-5.2490144,-0.8395654,0.11741281,-0.53041875,0
-2.4351022,0.171538,4.3855362,-0.52590632,0.069139943,0.84772754,0
3.0400975,1.189144,-0.6065774,0.8395654,-0.11741281,0.53041875,0
1.7576249,-0.13315749,-4.7904491,0.52590632,-0.069139943,-0.84772754,0
4.070446,-0.75528121,-2.72685,0.8395654,-0.11741281,0.53041875,0
-0.72525549,-4.4688139,3.0676007,-0.13620734,-0.99067342,-0.0037006438,0
-3.7224889,1.4110863,2.535964,-0.8395654,0.11741281,-0.53041875,0
-2.4249249,-1.8519244,4.5227642,-0.52590632,0.069139943,0.84772754,0
-4.1508055,-2.4543247,2.1508098,-0.8395654,0.11741281,-0.53041875,0
-3.5750566,0.73732448,1.9856577,-0.8395654,0.11741281,-0.53041875,0
3.9344239,1.9367436,-3.6121483,0.52590632,-0.069139943,-0.84772754,0
-3.1410215,-4.1647129,3.2509551,-0.13620734,-0.99067342,-0.0037006438,0
-3.9060154,-0.46752965,2.229455,-0.8395654,0.11741281,-0.53041875,0
-0.7721312,3.8982303,5.1911726,-0.52590632,0.069139943,0.84772754,0
-1.08111,-4.4087105,-2.2048724,-0.13620734,-0.99067342,-0.0037006438,0
3.8721242,2.3007462,-3.7874565,0.52590632,-0.069139943,-0.84772754,0
-0.69969606,-4.4148078,1.6825535,-0.13620734,-0.99067342,-0.0037006438,0
1.719687,4.3495321,-3.9816315,0.13620734,0.99067342,0.0037006438,0
-0.26044336,0.85166669,4.2553463,0.8395654,-0.11741281,0.53041875,0
-0.94761395,-0.45972633,5.294034,0.8395654,-0.11741281,0.53041875,0
-3.9726329,-2.6309767,3.6024909,-0.52590632,0.069139943,0.84772754,0
-2.6112382,3.616189,4.0187178,-0.52590632,0.069139943,0.84772754,0
-2.8177977,-3.3138576,4.3759384,-0.52590632,0.069139943,0.84772754,0
1.4250505,-3.5951538,-4.7153845,0.52590632,-0.069139943,-0.84772754,0
3.9150307,4.0536833,-2.9657106,0.13620734,0.99067342,0.0037006438,0
2.7106044,-4.9381495,-2.5810118,-0.13620734,-0.99067342,-0.0037006438,0
0.87351692,-1.5348434,-5.252975,0.52590632,-0.069139943,-0.84772754,0
3.219244,4.0676727,-0.53078747,0.13620734,0.99067342,0.0037006438,0
-1.7648464,-2.925467,-1.4558001,-0.8395654,0.11741281,-0.53041875,0
-0.32279694,1.3009489,-3.0383215,-0.8395654,0.11741281,-0.53041875,0
2.320148,-0.98284519,-4.2771163,0.52590632,-0.069139943,-0.84772754,0
-1.7810085,2.9624982,-0.40707815,-0.8395654,0.11741281,-0.53041875,0
3.7234128,4.1064768,-1.5795443,0.13620734,0.99067342,0.0037006438,0
-1.5704148,-4.2636585,0.17184946,-0.13620734,-0.99067342,-0.0037006438,0
-1.0808158,-0.80779862,5.1525483,0.8395654,-0.11741281,0.53041875,0
3.2343249,0.13451338,-1.157994,0.8395654,-0.11741281,0.53041875,0
0.670111,-0.39467502,2.4430761,0.8395654,-0.11741281,0.53041875,0
-2.1288741,-2.556782,-1.1436875,-0.8395654,0.11741281,-0.53041875,0
-3.4102306,-4.1224637,2.8578217,-0.13620734,-0.99067342,-0.0037006438,0
1.7446034,3.1771486,-5.008503,0.52590632,-0.069139943,-0.84772754,0
1.8700075,4.3581119,-2.5703814,0.13620734,0.99067342,0.0037006438,0
-2.5778456,-4.1626525,2.750829,-0.13620734,-0.99067342,-0.0037006438,0
1.9002696,-2.820539,-4.4668183,0.52590632,-0.069139943,-0.84772754,0
-1.5847301,1.8874893,4.6841583,-0.52590632,0.069139943,0.84772754,0
-1.8114854,1.9150896,4.7250209,-0.52590632,0.069139943,0.84772754,0
-2.9249229,-0.15723526,4.1334147,-0.52590632,0.069139943,0.84772754,0
3.6643045,0.38760406,-3.5891461,0.52590632,-0.069139943,-0.84772754,0
-1.1089284,-4.3163524,0.59582162,-0.13620734,-0.99067342,-0.0037006438,0
3.4836504,4.1740565,-3.2028685,0.13620734,0.99067342,0.0037006438,0
2.3121026,0.7218349,0.101017,0.8395654,-0.11741281,0.53041875,0
-2.6528256,2.1038616,4.0360847,-0.52590632,0.069139943,0.84772754,0
0.32653928,-2.0803053,2.8295367,0.8395654,-0.11741281,0.53041875,0
-1.0908618,-3.4662869,4.9082952,0.8395654,-0.11741281,0.53041875,0
-1.4931953,-1.9663367,5.1933498,-0.52590632,0.069139943,0.84772754,0
-1.9283071,-3.7880697,4.9152932,-0.52590632,0.069139943,0.84772754,0
-1.5924168,-3.1101496,-2.0770707,-0.8395654,0.11741281,-0.53041875,0
-1.8474784,4.8531914,3.9255099,0.13620734,0.99067342,0.0037006438,0
0.18173838,4.4052243,-2.9805539,-0.8395654,0.11741281,-0.53041875,0
1.0771739,2.551578,-4.8247318,-0.8395654,0.11741281,-0.53041875,0
-2.9212677,1.1478728,0.92752194,-0.8395654,0.11741281,-0.53041875,0
4.0004721,-0.92125446,-3.2415481,0.52590632,-0.069139943,-0.84772754,0
3.325448,3.1094122,-4.0154943,0.52590632,-0.069139943,-0.84772754,0
-0.34783268,-2.9242904,3.7315173,0.8395654,-0.11741281,0.53041875,0
0.16164947,-4.6408124,-2.3444862,-0.13620734,-0.99067342,-0.0037006438,0
-3.5855713,4.7638264,3.3871832,-0.52590632,0.069139943,0.84772754,0
1.8015424,-1.0597428,0.75954425,0.8395654,-0.11741281,0.53041875,0
0.077128172,2.1928933,-3.2949271,-0.8395654,0.11741281,-0.53041875,0
2.7654121,-0.46891725,-0.55249906,0.8395654,-0.11741281,0.53041875,0
0.28571033,4.6129599,-3.0144043,0.13620734,0.99067342,0.0037006438,0
3.4483159,-1.3854326,-3.6459765,0.52590632,-0.069139943,-0.84772754,0
-1.4939921,-1.9261508,5.1012635,-0.52590632,0.069139943,0.84772754,0
-2.5698862,4.4088354,4.0281353,-0.52590632,0.069139943,0.84772754,0
1.7803373,-4.6946087,-0.16494441,-0.13620734,-0.99067342,-0.0037006438,0
3.0458696,-0.060533762,-4.0564833,0.52590632,-0.069139943,-0.84772754,0
-0.98928928,-4.4046755,4.3077459,-0.13620734,-0.99067342,-0.0037006438,0
-3.1597872,-3.6311855,0.29997194,-0.8395654,0.11741281,-0.53041875,0
0.024015665,-4.4379144,-3.6758146,-0.13620734,-0.99067342,-0.0037006438,0
2.7723238,-3.7611172,-3.7570162,0.52590632,-0.069139943,-0.84772754,0
0.50565481,4.5578566,-0.70381594,0.13620734,0.99067342,0.0037006438,0
-4.2308002,-1.6427851,3.3869305,-0.52590632,0.069139943,0.84772754,0
3.754118,3.3049331,-3.9126997,0.52590632,-0.069139943,-0.84772754,0
4.2252474,-0.034376025,-3.3465962,0.52590632,-0.069139943,-0.84772754,0
4.144105,0.55107105,-3.2552452,0.52590632,-0.069139943,-0.84772754,0
-1.9905314,2.0067635,-0.14158285,-0.8395654,0.11741281,-0.53041875,0
-4.2194152,-2.0367785,2.6370897,-0.8395654,0.11741281,-0.53041875,0
3.8323524,1.990689,-1.7001045,0.8395654,-0.11741281,0.53041875,0
-2.664561,4.2210689,3.8240905,-0.52590632,0.069139943,0.84772754,0
-1.1933451,-4.31917,0.10246193,-0.13620734,-0.99067342,-0.0037006438,0
2.3389826,4.0389438,1.0984527,0.8395654,-0.11741281,0.53041875,0
1.1914412,2.7646027,2.6468787,0.8395654,-0.11741281,0.53041875,0
-3.8562484,1.0301149,3.3059163,-0.52590632,0.069139943,0.84772754,0
-0.66761661,4.3994656,5.071485,-0.52590632,0.069139943,0.84772754,0
0.15482283,3.4689279,4.3646922,0.8395654,-0.11741281,0.53041875,0
3.1410732,-0.54226315,-1.2554445,0.8395654,-0.11741281,0.53041875,0
-0.18062401,-4.4416451,0.67481583,-0.13620734,-0.99067342,-0.0037006438,0
0.7448988,1.5362144,-4.6222038,-0.8395654,0.11741281,-0.53041875,0
2.8980515,-4.9189768,-3.7612786,0.52590632,-0.069139943,-0.84772754,0
0.32759285,-4.6789255,-1.2425735,-0.13620734,-0.99067342,-0.0037006438,0
-1.4300184,1.2429076,4.9073496,-0.52590632,0.069139943,0.84772754,0
-0.52755737,4.6405005,2.9711232,0.13620734,0.99067342,0.0037006438,0
-2.0023444,2.3720248,4.5668221,-0.52590632,0.069139943,0.84772754,0
-0.8750701,-2.1461523,4.6583967,0.8395654,-0.11741281,0.53041875,0
-1.3734746,-4.2757645,0.098349631,-0.13620734,-0.99067342,-0.0037006438,0
3.0958667,-3.3246648,-3.7801542,0.52590632,-0.069139943,-0.84772754,0
3.1710184,4.0447845,-4.3768287,0.52590632,-0.069139943,-0.84772754,0
3.1129725,1.4718056,-0.76456666,0.8395654,-0.11741281,0.53041875,0
2.7606905,4.1536989,-4.0248132,0.13620734,0.99067342,0.0037006438,0
3.052284,-3.9909821,-3.5934057,0.52590632,-0.069139943,-0.84772754,0
0.34585571,-2.5731018,2.5742953,0.8395654,-0.11741281,0.53041875,0
-0.0092728138,3.4073975,4.5874834,0.8395654,-0.11741281,0.53041875,0
-1.5243561,-4.3148956,-0.080910772,-0.13620734,-0.99067342,-0.0037006438,0
2.019774,4.2133512,0.39862049,0.13620734,0.99067342,0.0037006438,0
2.707901,0.080259681,-4.2251911,0.52590632,-0.069139943,-0.84772754,0
0.74453068,4.5244412,-2.4159214,0.13620734,0.99067342,0.0037006438,0
-1.7714467,-2.3963516,4.9928093,-0.52590632,0.069139943,0.84772754,0
0.47542143,4.2190723,-3.56564,-0.8395654,0.11741281,-0.53041875,0
-2.7847173,3.702939,1.3094587,-0.8395654,0.11741281,-0.53041875,0
-4.0020728,3.0049715,3.2116704,-0.52590632,0.069139943,0.84772754,0
-2.3298934,2.2381587,4.3147411,-0.52590632,0.069139943,0.84772754,0
-0.17546368,-4.41716,-0.16416919,-0.13620734,-0.99067342,-0.0037006438,0
-1.2069778,-0.60352695,-1.9243309,-0.8395654,0.11741281,-0.53041875,0
-4.7659903,-3.0124698,2.9325557,-0.8395654,0.11741281,-0.53041875,0
0.22856891,-0.91022897,-4.4147654,-0.8395654,0.11741281,-0.53041875,0
1.5375946,-4.8082166,-2.1275244,-0.13620734,-0.99067342,-0.0037006438,0
-0.55590272,3.5086408,5.2495656,-0.52590632,0.069139943,0.84772754,0
0.82938087,-1.1089017,-5.2535987,-0.8395654,0.11741281,-0.53041875,0
-1.9225488,-1.0493054,4.7189384,-0.52590632,0.069139943,0.84772754,0
-3.4410605,1.1302803,3.6722245,-0.52590632,0.069139943,0.84772754,0
-1.9346032,-4.3093886,3.0148332,-0.13620734,-0.99067342,-0.0037006438,0
1.6575427,4.3752546,-3.2387009,0.13620734,0.99067342,0.0037006438,0
-4.3527832,-3.9906664,2.1726162,-0.13620734,-0.99067342,-0.0037006438,0
-3.2004395,2.6212947,1.7686343,-0.8395654,0.11741281,-0.53041875,0
4.6025524,2.4888301,-3.017437,0.8395654,-0.11741281,0.53041875,0
0.88587236,-4.6822939,0.91698921,-0.13620734,-0.99067342,-0.0037006438,0
-0.0080385208,4.4872971,-1.6513641,0.13620734,0.99067342,0.0037006438,0
3.6623151,-3.4443567,-3.2786188,0.52590632,-0.069139943,-0.84772754,0
-1.1990902,0.062772989,5.2270164,-0.52590632,0.069139943,0.84772754,0
