-5.2257571,1.2665894,-2.0558529,-0.95890343,-0.23153761,-0.16399491,0
4.7083521,2.6190145,-0.75516462,0.95890343,0.23153761,0.16399491,0
5.0401711,-0.84935284,2.2132347,0.95890343,0.23153761,0.16399491,0
-4.4885249,0.99843562,-3.6962924,-0.14412624,0.89535487,-0.42138708,0
-3.9147584,-3.8548865,-2.1915097,-0.95890343,-0.23153761,-0.16399491,0
0.92305386,-2.0110278,-1.5981739,0.24440059,-0.38043344,-0.89192963,0
1.2202945,0.56561053,2.835902,-0.24440059,0.38043344,0.89192963,0
4.3287306,2.064729,2.3899949,0.95890343,0.23153761,0.16399491,0
4.6742649,1.8659525,0.59152508,0.95890343,0.23153761,0.16399491,0
4.7422357,1.2711463,1.3051901,0.95890343,0.23153761,0.16399491,0
-0.25995851,-2.0031133,2.7270143,0.14412624,-0.89535487,0.42138708,0
-2.6909208,-3.0687127,1.3807554,0.14412624,-0.89535487,0.42138708,0
-1.1348088,2.2833657,-1.840468,-0.14412624,0.89535487,-0.42138708,0
-1.8802475,-2.5172434,-2.3483825,0.24440059,-0.38043344,-0.89192963,0
-3.2106938,0.9049834,-3.9665098,0.24440059,-0.38043344,-0.89192963,0
-4.2097397,-2.4618354,-2.8388584,-0.95890343,-0.23153761,-0.16399491,0
-0.86702561,3.081542,1.2926023,-0.24440059,0.38043344,0.89192963,0
4.8914623,-0.04625845,2.237148,0.95890343,0.23153761,0.16399491,0
-1.6636862,0.61603308,2.1500452,-0.24440059,0.38043344,0.89192963,0
-2.0267403,0.95944619,1.9374266,-0.24440059,0.38043344,0.89192963,0
5.3243532,0.49702168,-1.2959576,0.95890343,0.23153761,0.16399491,0
2.2339609,-2.7631531,0.35525194,0.14412624,-0.89535487,0.42138708,0
-4.2057791,-3.9566898,-0.82876396,-0.95890343,-0.23153761,-0.16399491,0
1.9252328,-1.8666983,-1.535128,0.24440059,-0.38043344,-0.89192963,0
-3.0118232,2.3935418,-1.1612096,-0.14412624,0.89535487,-0.42138708,0
-4.3100328,-3.158205,-1.3121324,-0.95890343,-0.23153761,-0.16399491,0
4.8267546,2.6631315,-1.8144236,0.95890343,0.23153761,0.16399491,0
-2.773809,-0.56862891,-3.3451331,0.24440059,-0.38043344,-0.89192963,0
2.6420674,3.1706152,-1.4787383,-0.14412624,0.89535487,-0.42138708,0
3.8885539,-0.22368193,4.0556517,-0.24440059,0.38043344,0.89192963,0
5.3430243,-0.40791988,-0.48161817,0.95890343,0.23153761,0.16399491,0
-2.2609596,2.7563424,-0.62764537,-0.14412624,0.89535487,-0.42138708,0
3.6765361,1.0222578,3.4674828,-0.24440059,0.38043344,0.89192963,0
-5.1153774,-0.99583888,0.61561728,-0.95890343,-0.23153761,-0.16399491,0
4.5468001,1.1238756,2.1204801,0.95890343,0.23153761,0.16399491,0
-5.6238461,2.1716943,-0.81709886,-0.14412624,0.89535487,-0.42138708,0
0.5066936,-3.2840843,0.009560585,0.14412624,-0.89535487,0.42138708,0
-2.9531643,-1.419203,-2.9099112,0.24440059,-0.38043344,-0.89192963,0
2.445251,0.11794114,3.4729125,-0.24440059,0.38043344,0.89192963,0
4.1195407,2.9802208,2.520247,0.95890343,0.23153761,0.16399491,0
3.892226,2.3023438,2.8995488,-0.24440059,0.38043344,0.89192963,0
-2.9655569,1.652885,-2.5881038,-0.14412624,0.89535487,-0.42138708,0
5.0582442,0.79790282,0.071630478,0.95890343,0.23153761,0.16399491,0
-0.4759469,2.9929147,-0.76827335,-0.14412624,0.89535487,-0.42138708,0
-3.0853553,-2.1313643,-2.6376421,0.24440059,-0.38043344,-0.89192963,0
4.5531945,-2.518815,0.14987671,0.14412624,-0.89535487,0.42138708,0
-4.9657106,-1.3927608,2.0896888,-0.24440059,0.38043344,0.89192963,0
-4.6003752,-0.45367566,-2.9219115,-0.95890343,-0.23153761,-0.16399491,0
3.5059433,0.85550278,3.3220916,-0.24440059,0.38043344,0.89192963,0
3.0834622,-1.7878968,2.0442336,0.14412624,-0.89535487,0.42138708,0
-4.5731001,-1.3754497,-1.9029186,-0.95890343,-0.23153761,-0.16399491,0
-3.6269784,-0.5952282,2.0290182,-0.24440059,0.38043344,0.89192963,0
-4.3153954,-3.6630192,-0.65660143,-0.95890343,-0.23153761,-0.16399491,0
2.5739324,-1.9576836,1.9890918,0.14412624,-0.89535487,0.42138708,0
4.0956254,2.2175457,2.9009683,0.95890343,0.23153761,0.16399491,0
0.61124909,1.8198035,-3.294163,-0.14412624,0.89535487,-0.42138708,0
-5.7332292,2.2501535,0.073019505,-0.95890343,-0.23153761,-0.16399491,0
1.3499422,-3.1194484,0.056045413,0.14412624,-0.89535487,0.42138708,0
4.6821895,3.0962119,-1.4800711,0.95890343,0.23153761,0.16399491,0
5.463448,-1.6113582,0.58317399,0.95890343,0.23153761,0.16399491,0
-5.1528454,-0.0066752434,-0.18286586,-0.95890343,-0.23153761,-0.16399491,0
1.0334507,1.2774551,2.4429533,-0.24440059,0.38043344,0.89192963,0
-2.7727954,1.4848071,-3.1629539,-0.14412624,0.89535487,-0.42138708,0
-3.9382682,-4.4037066,-1.508635,-0.95890343,-0.23153761,-0.16399491,0
-2.7622886,0.094115496,-3.5065129,0.24440059,-0.38043344,-0.89192963,0
2.8366287,2.0505319,-2.9252324,0.24440059,-0.38043344,-0.89192963,0
-0.90058786,0.70006943,2.2595453,-0.24440059,0.38043344,0.89192963,0
-3.5270143,2.2978885,0.89874476,-0.24440059,0.38043344,0.89192963,0
-4.3554058,-3.1484256,-0.14979696,-0.95890343,-0.23153761,-0.16399491,0
4.3444009,0.70297277,3.6177974,0.95890343,0.23153761,0.16399491,0
-2.9140828,1.1940215,-3.6485333,-0.14412624,0.89535487,-0.42138708,0
-1.0011249,-3.2743642,0.65361905,0.14412624,-0.89535487,0.42138708,0
3.7175503,1.2454008,3.2704866,-0.24440059,0.38043344,0.89192963,0
4.1677771,2.390511,2.4349072,0.95890343,0.23153761,0.16399491,0
-5.5925722,2.159951,-0.61836624,-0.14412624,0.89535487,-0.42138708,0
-2.9985785,-4.5949845,-1.6325574,0.24440059,-0.38043344,-0.89192963,0
1.3871818,-2.9788532,0.51284963,0.14412624,-0.89535487,0.42138708,0
-5.0538392,-1.6718373,1.6502714,-0.95890343,-0.23153761,-0.16399491,0
-4.7403922,1.4589317,0.8008008,-0.24440059,0.38043344,0.89192963,0
-1.2677457,2.8630574,-0.6993469,-0.14412624,0.89535487,-0.42138708,0
5.0291176,0.92166066,-0.63677359,0.95890343,0.23153761,0.16399491,0
5.4780245,-1.1463077,-0.074957132,0.95890343,0.23153761,0.16399491,0
-3.3636837,-3.5326321,0.86499834,0.14412624,-0.89535487,0.42138708,0
-0.61699295,3.2974513,1.3115577,-0.24440059,0.38043344,0.89192963,0
1.5608252,2.0174809,2.3238544,-0.24440059,0.38043344,0.89192963,0
-4.4851494,-0.52518576,-3.8584125,-0.95890343,-0.23153761,-0.16399491,0
-3.9455261,-1.2230999,-3.360821,0.24440059,-0.38043344,-0.89192963,0
-3.6301227,2.4192472,0.70423853,-0.24440059,0.38043344,0.89192963,0
-0.32619429,-2.2090495,2.3630757,0.14412624,-0.89535487,0.42138708,0
5.4023786,0.44329405,-1.4865839,0.95890343,0.23153761,0.16399491,0
-4.1790428,-2.6191025,-2.1731682,-0.95890343,-0.23153761,-0.16399491,0
5.1632628,1.0629015,-1.7646401,0.24440059,-0.38043344,-0.89192963,0
-4.8466377,-0.38543427,-1.7104645,-0.95890343,-0.23153761,-0.16399491,0
1.6469771,0.80284333,-2.6611049,0.24440059,-0.38043344,-0.89192963,0
4.0110002,-2.2561514,-0.66431141,0.24440059,-0.38043344,-0.89192963,0
-2.8974447,-4.5001035,-1.6689892,0.14412624,-0.89535487,0.42138708,0
4.2524352,-2.644856,0.13156378,0.14412624,-0.89535487,0.42138708,0
-1.6639364,-1.0418487,2.709933,-0.24440059,0.38043344,0.89192963,0
-3.6740229,1.306541,1.3087578,-0.24440059,0.38043344,0.89192963,0
0.055526495,-3.1807919,0.57252443,0.14412624,-0.89535487,0.42138708,0
0.035630465,3.3076637,-0.084400892,-0.14412624,0.89535487,-0.42138708,0
4.0430331,4.1684122,0.61725998,0.95890343,0.23153761,0.16399491,0
-3.6778247,-3.9259796,-2.161304,0.24440059,-0.38043344,-0.89192963,0
-3.2242811,1.387746,-3.0937679,-0.14412624,0.89535487,-0.42138708,0
-5.0378036,-1.5628958,2.0345695,-0.24440059,0.38043344,0.89192963,0
-0.44912553,0.46585631,-3.1769323,0.24440059,-0.38043344,-0.89192963,0
2.0992503,2.7174306,-2.1726336,-0.14412624,0.89535487,-0.42138708,0
-2.6353188,-0.10166216,2.0425577,-0.24440059,0.38043344,0.89192963,0
0.66126752,3.7903392,0.7323575,-0.14412624,0.89535487,-0.42138708,0
-4.0313148,-4.0054069,0.19440365,0.14412624,-0.89535487,0.42138708,0
4.5985775,2.6791706,-2.7151968,0.24440059,-0.38043344,-0.89192963,0
-0.87149167,-0.0058469772,2.4749124,-0.24440059,0.38043344,0.89192963,0
1.7574153,3.3867671,-0.46304703,-0.14412624,0.89535487,-0.42138708,0
-4.771246,-0.30759418,-2.4382453,-0.95890343,-0.23153761,-0.16399491,0
2.7501562,0.43641424,3.3317623,-0.24440059,0.38043344,0.89192963,0
-4.2046995,-3.0368934,-1.6591015,-0.95890343,-0.23153761,-0.16399491,0
-4.5683155,0.35808563,1.4245188,-0.24440059,0.38043344,0.89192963,0
-0.12159896,-2.4115336,-1.7786734,0.24440059,-0.38043344,-0.89192963,0
-4.415719,-3.3279436,-0.099555969,-0.95890343,-0.23153761,-0.16399491,0
-3.0200694,-3.5906973,0.57610273,0.14412624,-0.89535487,0.42138708,0
-4.9656067,0.50164223,-1.81952,-0.95890343,-0.23153761,-0.16399491,0
-5.3354797,0.77625918,-0.25661421,-0.95890343,-0.23153761,-0.16399491,0
-1.2254552,1.3221173,-3.6429062,0.24440059,-0.38043344,-0.89192963,0
1.2233455,1.8148069,-3.2560787,0.24440059,-0.38043344,-0.89192963,0
-5.3678532,0.17791462,0.20036364,-0.95890343,-0.23153761,-0.16399491,0
-2.2344422,2.3877342,-1.0468065,-0.14412624,0.89535487,-0.42138708,0
3.3308234,3.8219023,0.099281788,-0.14412624,0.89535487,-0.42138708,0
-1.044699,3.5137277,0.92022383,-0.14412624,0.89535487,-0.42138708,0
3.4368019,-2.0254512,-1.094418,0.24440059,-0.38043344,-0.89192963,0
2.1446056,-2.0449517,1.8572609,0.14412624,-0.89535487,0.42138708,0
-5.2854824,-0.47564459,1.3170073,-0.95890343,-0.23153761,-0.16399491,0
-3.8965764,-0.87166893,-3.4550643,0.24440059,-0.38043344,-0.89192963,0
-4.7024412,-2.8928156,1.142374,-0.95890343,-0.23153761,-0.16399491,0
4.6359611,1.1435661,1.5113807,0.95890343,0.23153761,0.16399491,0
2.23859,2.6912789,-2.1051714,-0.14412624,0.89535487,-0.42138708,0
-5.2119451,1.1560919,-1.1728673,-0.95890343,-0.23153761,-0.16399491,0
-2.8655493,1.2385817,-3.7137589,-0.14412624,0.89535487,-0.42138708,0
-4.7283134,-2.280107,0.10570812,-0.95890343,-0.23153761,-0.16399491,0
3.8654749,-1.2244139,-1.1778195,0.24440059,-0.38043344,-0.89192963,0
-1.6573689,2.9068873,-0.3723402,-0.14412624,0.89535487,-0.42138708,0
-0.60956192,0.61882424,-3.2300196,0.24440059,-0.38043344,-0.89192963,0
-3.7826819,-2.0323,-2.9858432,0.24440059,-0.38043344,-0.89192963,0
5.6316247,-1.5774267,0.07225728,0.95890343,0.23153761,0.16399491,0
-1.2094105,0.36790371,2.4137776,-0.24440059,0.38043344,0.89192963,0
-3.8502796,-3.8728867,-2.0679932,-0.95890343,-0.23153761,-0.16399491,0
-5.0704999,-1.0617151,1.8977311,-0.24440059,0.38043344,0.89192963,0
5.7574697,-2.4155862,0.099550009,0.14412624,-0.89535487,0.42138708,0
5.2055335,-1.3151255,2.3686411,0.95890343,0.23153761,0.16399491,0
0.14195657,-3.0711565,0.72161078,0.14412624,-0.89535487,0.42138708,0
4.9123125,-0.22634655,2.302633,0.95890343,0.23153761,0.16399491,0
-1.8345835,-0.68340945,2.6443734,-0.24440059,0.38043344,0.89192963,0
1.4394956,2.1894507,-2.7380881,-0.14412624,0.89535487,-0.42138708,0
-1.1665857,-2.874702,1.6229104,0.14412624,-0.89535487,0.42138708,0
1.6386586,-0.89127922,-1.9544563,0.24440059,-0.38043344,-0.89192963,0
-4.8374896,0.88124526,-3.5050464,-0.95890343,-0.23153761,-0.16399491,0
-3.9161656,2.7187984,0.56607097,-0.24440059,0.38043344,0.89192963,0
-0.92056203,-2.9856222,1.0965395,0.14412624,-0.89535487,0.42138708,0
4.9603157,-1.0179548,2.8019824,0.95890343,0.23153761,0.16399491,0
5.5134373,-1.0659351,-0.41759157,0.95890343,0.23153761,0.16399491,0
-1.1058929,1.7462944,-2.9614773,-0.14412624,0.89535487,-0.42138708,0
-4.5672531,1.1012747,-3.3141499,-0.14412624,0.89535487,-0.42138708,0
-5.127449,-1.7647429,1.9764113,-0.95890343,-0.23153761,-0.16399491,0
0.026522458,0.76159668,-3.0944974,0.24440059,-0.38043344,-0.89192963,0
-2.886775,-3.7119436,0.30211687,0.14412624,-0.89535487,0.42138708,0
-5.4960251,1.2047524,0.69654679,-0.24440059,0.38043344,0.89192963,0
5.5058489,-1.8360388,1.072772,0.95890343,0.23153761,0.16399491,0
-1.5175035,3.5600748,0.73161322,-0.14412624,0.89535487,-0.42138708,0
-4.5804043,-0.31108296,-3.5010209,-0.95890343,-0.23153761,-0.16399491,0
5.0359316,1.7883511,-1.7121181,0.95890343,0.23153761,0.16399491,0
5.2230763,-1.3240395,1.7415814,0.95890343,0.23153761,0.16399491,0
0.080958605,-2.3399658,-1.7054967,0.24440059,-0.38043344,-0.89192963,0
1.4710851,3.9992695,0.8683331,-0.14412624,0.89535487,-0.42138708,0
-3.5670855,-3.9098377,-0.13010311,0.14412624,-0.89535487,0.42138708,0
3.9507608,-2.8560145,-0.50475311,0.24440059,-0.38043344,-0.89192963,0
1.8673227,0.96842384,-2.7978892,0.24440059,-0.38043344,-0.89192963,0
2.9436867,-0.80467725,-1.7586727,0.24440059,-0.38043344,-0.89192963,0
-5.7911496,2.4573004,0.096780777,-0.14412624,0.89535487,-0.42138708,0
5.350462,-0.67634535,0.04480505,0.95890343,0.23153761,0.16399491,0
-0.40175208,-0.49389839,-2.752862,0.24440059,-0.38043344,-0.89192963,0
-3.1969316,-1.285455,-3.160254,0.24440059,-0.38043344,-0.89192963,0
-4.7986941,-0.36600554,-1.8031011,-0.95890343,-0.23153761,-0.16399491,0
1.2627442,0.93510652,-2.9020102,0.24440059,-0.38043344,-0.89192963,0
-4.6531811,0.17459293,-3.2508111,-0.95890343,-0.23153761,-0.16399491,0
-4.3836288,-0.85709763,1.9652367,-0.24440059,0.38043344,0.89192963,0
-2.4471724,0.73127162,-3.7339137,0.24440059,-0.38043344,-0.89192963,0
4.3244309,2.0712159,2.3173597,0.95890343,0.23153761,0.16399491,0
-4.8466129,0.13191664,-2.4406123,-0.95890343,-0.23153761,-0.16399491,0
1.3420818,-3.4173367,-1.0285013,0.24440059,-0.38043344,-0.89192963,0
3.8421557,-2.2657378,-0.77093327,0.24440059,-0.38043344,-0.89192963,0
-4.5638871,-3.0658212,0.71302223,-0.95890343,-0.23153761,-0.16399491,0
-3.6942935,-2.7739506,2.3476288,0.14412624,-0.89535487,0.42138708,0
2.0543771,-1.6244286,2.9376116,0.14412624,-0.89535487,0.42138708,0
1.815251,-1.6124991,3.0229342,0.14412624,-0.89535487,0.42138708,0
-2.3275101,-0.26956677,2.206054,-0.24440059,0.38043344,0.89192963,0
1.0307295,-0.3564949,3.3407896,-0.24440059,0.38043344,0.89192963,0
4.179122,3.7392213,0.92441368,0.95890343,0.23153761,0.16399491,0
2.8910348,-0.97771394,3.8330719,0.14412624,-0.89535487,0.42138708,0
-4.8480864,-0.50234771,-1.8411455,-0.95890343,-0.23153761,-0.16399491,0
4.9969988,1.8562305,-1.1806602,0.95890343,0.23153761,0.16399491,0
0.10417863,0.10009885,-2.7814722,0.24440059,-0.38043344,-0.89192963,0
-4.9542875,0.99573606,-2.437125,-0.95890343,-0.23153761,-0.16399491,0
3.3328273,4.2877126,0.80528212,-0.14412624,0.89535487,-0.42138708,0
2.1046202,-1.1171052,3.8721597,-0.24440059,0.38043344,0.89192963,0
2.4264514,-1.7094979,2.6320996,0.14412624,-0.89535487,0.42138708,0
-4.6340022,-0.58816522,-1.9605436,-0.95890343,-0.23153761,-0.16399491,0
-4.6547294,1.4395204,-2.3925054,-0.14412624,0.89535487,-0.42138708,0
-5.6103034,1.5366926,-0.03316927,-0.95890343,-0.23153761,-0.16399491,0
-5.0067978,-0.3121345,-0.44145274,-0.95890343,-0.23153761,-0.16399491,0
-4.6831746,1.5480154,-2.0619698,-0.14412624,0.89535487,-0.42138708,0
3.0587349,-1.109668,3.8885725,0.14412624,-0.89535487,0.42138708,0
4.7533116,0.69451463,2.1457181,0.95890343,0.23153761,0.16399491,0
5.611227,-1.873528,-0.4359622,0.24440059,-0.38043344,-0.89192963,0
-4.4105062,-0.74503112,-3.3075309,-0.95890343,-0.23153761,-0.16399491,0
-1.9224895,1.0670469,-3.8690016,0.24440059,-0.38043344,-0.89192963,0
-2.1845512,-2.5005801,2.6764221,0.14412624,-0.89535487,0.42138708,0
5.1510463,-0.58015585,1.5733373,0.95890343,0.23153761,0.16399491,0
1.0918529,1.2467456,2.5840142,-0.24440059,0.38043344,0.89192963,0
-1.115751,-3.4318159,-2.1219254e-05,0.14412624,-0.89535487,0.42138708,0
-1.7278216,-3.5908694,-0.09948945,0.14412624,-0.89535487,0.42138708,0
-5.5288925,1.4886539,-0.6609273,-0.95890343,-0.23153761,-0.16399491,0
5.142355,1.0362444,-1.7484093,0.24440059,-0.38043344,-0.89192963,0
-2.8760891,1.5743064,-2.7959313,-0.14412624,0.89535487,-0.42138708,0
-1.8553241,0.52618957,2.0546927,-0.24440059,0.38043344,0.89192963,0
-0.27227467,-0.62035894,-2.6191905,0.24440059,-0.38043344,-0.89192963,0
2.5568793,-3.0485048,-0.13810228,0.14412624,-0.89535487,0.42138708,0
4.5576921,-2.8655136,-0.35881174,0.14412624,-0.89535487,0.42138708,0
5.2055197,-0.78425264,0.63895702,0.95890343,0.23153761,0.16399491,0
1.5534239,-3.1527081,0.020895958,0.14412624,-0.89535487,0.42138708,0
1.2207444,-3.087894,0.32462335,0.14412624,-0.89535487,0.42138708,0
3.9226019,1.6969784,3.2039089,-0.24440059,0.38043344,0.89192963,0
-5.1849494,0.83636355,-1.4341877,-0.95890343,-0.23153761,-0.16399491,0
-2.1318915,-1.8576821,-2.5542474,0.24440059,-0.38043344,-0.89192963,0
-2.1266029,1.6992996,-2.6151857,-0.14412624,0.89535487,-0.42138708,0
2.1470771,2.2042866,-3.1410422,-0.14412624,0.89535487,-0.42138708,0
-0.68120122,-0.36134171,-2.8290672,0.24440059,-0.38043344,-0.89192963,0
4.9166679,2.5420876,-1.4715567,0.95890343,0.23153761,0.16399491,0
-2.1912003,2.6791968,1.0983455,-0.24440059,0.38043344,0.89192963,0
-0.14019275,-3.111846,0.77064049,0.14412624,-0.89535487,0.42138708,0
-4.3046761,-1.6221631,-2.6846843,-0.95890343,-0.23153761,-0.16399491,0
-3.9021797,1.473593,-2.5229244,-0.14412624,0.89535487,-0.42138708,0
1.5181139,3.4725733,-0.38696432,-0.14412624,0.89535487,-0.42138708,0
1.0743511,-2.9708147,-1.1480188,0.24440059,-0.38043344,-0.89192963,0
0.2528708,-2.4740458,-1.7248764,0.24440059,-0.38043344,-0.89192963,0
-1.0469123,-1.8999944,-2.2138176,0.24440059,-0.38043344,-0.89192963,0
5.422411,-0.29659414,-1.0908298,0.95890343,0.23153761,0.16399491,0
-4.3898888,-3.036401,-0.49288225,-0.95890343,-0.23153761,-0.16399491,0
4.3442163,3.5363462,0.10487986,0.95890343,0.23153761,0.16399491,0
-2.5289848,1.9815371,-1.9432902,-0.14412624,0.89535487,-0.42138708,0
1.4748211,-1.089901,-2.0225785,0.24440059,-0.38043344,-0.89192963,0
-5.2999239,1.6505271,-1.4970322,-0.95890343,-0.23153761,-0.16399491,0
-0.11340261,3.2367611,1.3499541,-0.24440059,0.38043344,0.89192963,0
2.5341673,-2.324157,1.1097852,0.14412624,-0.89535487,0.42138708,0
2.2786069,3.6550531,0.02872324,-0.14412624,0.89535487,-0.42138708,0
-0.0076470375,-3.0975578,0.48647678,0.14412624,-0.89535487,0.42138708,0
4.8940344,-0.15742922,2.2735577,0.95890343,0.23153761,0.16399491,0
3.0361063,-2.1807687,1.6461037,0.14412624,-0.89535487,0.42138708,0
-4.8911438,2.1710939,-0.94744444,-0.14412624,0.89535487,-0.42138708,0
-0.065898776,1.8778692,-3.2193818,-0.14412624,0.89535487,-0.42138708,0
-3.4743989,-0.17123938,1.822263,-0.24440059,0.38043344,0.89192963,0
-0.50043392,3.0929198,1.3045372,-0.24440059,0.38043344,0.89192963,0
-5.6441622,2.1313982,-0.23581934,-0.95890343,-0.23153761,-0.16399491,0
3.9927609,2.1564844,2.9216526,-0.24440059,0.38043344,0.89192963,0
-5.250926,0.82584763,-0.3419857,-0.95890343,-0.23153761,-0.16399491,0
1.2332373,-2.7857931,0.82031536,0.14412624,-0.89535487,0.42138708,0
0.46801162,3.0039964,1.6580085,-0.24440059,0.38043344,0.89192963,0
-1.1268437,-2.8311381,1.5053762,0.14412624,-0.89535487,0.42138708,0
-4.6338677,-0.48981595,-2.662616,-0.95890343,-0.23153761,-0.16399491,0
3.2556119,-2.9543989,-0.13003042,0.14412624,-0.89535487,0.42138708,0
2.4841468,3.6195319,1.8848636,-0.24440059,0.38043344,0.89192963,0
4.2059612,3.8457539,0.74190855,0.95890343,0.23153761,0.16399491,0
-3.0251951,-1.2734478,-3.1866887,0.24440059,-0.38043344,-0.89192963,0
4.4704041,2.8079519,-0.15471506,0.95890343,0.23153761,0.16399491,0
5.4195118,-2.5562074,-0.12808442,0.14412624,-0.89535487,0.42138708,0
3.0090621,1.3765621,2.9431572,-0.24440059,0.38043344,0.89192963,0
2.7105229,-2.1192436,-1.1223415,0.24440059,-0.38043344,-0.89192963,0
-5.4962921,1.212862,0.52773809,-0.95890343,-0.23153761,-0.16399491,0
-2.171068,-4.1083107,-1.5879261,0.24440059,-0.38043344,-0.89192963,0
-5.1140614,0.96534777,-2.1614928,-0.95890343,-0.23153761,-0.16399491,0
3.1663775,2.1753852,2.8272722,-0.24440059,0.38043344,0.89192963,0
5.4197149,-1.1948407,1.0883949,0.95890343,0.23153761,0.16399491,0
-5.0005617,-1.3787265,0.86096096,-0.95890343,-0.23153761,-0.16399491,0
0.5773747,2.5875645,-1.8639371,-0.14412624,0.89535487,-0.42138708,0
4.92837,2.7033913,-2.0825739,0.95890343,0.23153761,0.16399491,0
3.8154674,3.9691129,2.1264911,0.95890343,0.23153761,0.16399491,0
-5.499898,1.059494,0.68708539,-0.95890343,-0.23153761,-0.16399491,0
-0.38652349,3.6656115,1.1828245,-0.24440059,0.38043344,0.89192963,0
2.0543289,1.440232,2.6571271,-0.24440059,0.38043344,0.89192963,0
-3.1628764,-1.9272637,2.7681718,-0.24440059,0.38043344,0.89192963,0
-5.4732718,0.52903557,0.73666215,-0.95890343,-0.23153761,-0.16399491,0
3.1079829,-1.3332469,-1.4771206,0.24440059,-0.38043344,-0.89192963,0
4.6902447,2.837008,-0.48275232,0.95890343,0.23153761,0.16399491,0
-1.316293,2.1408608,-2.1374419,-0.14412624,0.89535487,-0.42138708,0
-1.7711341,-3.1248012,-1.87713,0.24440059,-0.38043344,-0.89192963,0
-4.5387626,0.10654509,-4.2038813,0.24440059,-0.38043344,-0.89192963,0
-4.8235312,0.79830158,-3.1633077,-0.95890343,-0.23153761,-0.16399491,0
2.5289783,4.2559099,0.9008956,-0.14412624,0.89535487,-0.42138708,0
-3.2429378,-1.2555702,-3.2340839,0.24440059,-0.38043344,-0.89192963,0
-5.2438436,-0.3051219,0.42512608,-0.95890343,-0.23153761,-0.16399491,0
-4.525198,-3.3123851,0.55307579,-0.95890343,-0.23153761,-0.16399491,0
0.89245772,-3.5605266,-1.1463985,0.24440059,-0.38043344,-0.89192963,0
5.1281385,0.48260188,-0.23860741,0.95890343,0.23153761,0.16399491,0
3.9812737,-2.401181,0.72916126,0.14412624,-0.89535487,0.42138708,0
-3.5871792,0.95316601,-3.9727268,-0.14412624,0.89535487,-0.42138708,0
-4.9888635,-0.91406655,0.52257204,-0.95890343,-0.23153761,-0.16399491,0
4.2947354,2.6802242,-2.6751654,-0.14412624,0.89535487,-0.42138708,0
4.9037819,-0.16693068,1.6381435,0.95890343,0.23153761,0.16399491,0
-4.4506402,-1.4751458,-2.850841,-0.95890343,-0.23153761,-0.16399491,0
-5.006907,2.3989291,-0.3532033,-0.14412624,0.89535487,-0.42138708,0
-5.0846572,1.1436478,-2.0424819,-0.95890343,-0.23153761,-0.16399491,0
2.0619581,3.0424309,-1.1944218,-0.14412624,0.89535487,-0.42138708,0
-4.4027753,-2.9500177,2.2111821,0.14412624,-0.89535487,0.42138708,0
-2.6915865,2.0460494,1.1197672,-0.24440059,0.38043344,0.89192963,0
0.49120599,1.1647923,-3.1707745,0.24440059,-0.38043344,-0.89192963,0
3.7753978,4.1702099,0.67409468,-0.14412624,0.89535487,-0.42138708,0
0.62273049,3.7305269,0.59215975,-0.14412624,0.89535487,-0.42138708,0
-0.90496755,-3.6694787,-0.22198129,0.14412624,-0.89535487,0.42138708,0
5.0648537,1.3061576,-1.9895878,0.24440059,-0.38043344,-0.89192963,0
5.0340652,-2.5639167,-0.31169152,0.24440059,-0.38043344,-0.89192963,0
5.4488139,-1.1451657,0.77691317,0.95890343,0.23153761,0.16399491,0
-3.3034286,-2.2042909,-2.6683302,0.24440059,-0.38043344,-0.89192963,0
4.3611369,-2.38661,0.35684943,0.14412624,-0.89535487,0.42138708,0
-3.4152918,-3.3140886,1.396328,0.14412624,-0.89535487,0.42138708,0
5.1378078,-0.54623866,0.70521617,0.95890343,0.23153761,0.16399491,0
-4.2358704,-1.952579,-2.6681423,-0.95890343,-0.23153761,-0.16399491,0
-5.2972603,0.73026681,-0.71787572,-0.95890343,-0.23153761,-0.16399491,0
-2.3207965,-1.8306158,-2.680876,0.24440059,-0.38043344,-0.89192963,0
-5.265141,-0.19936466,0.60329151,-0.95890343,-0.23153761,-0.16399491,0
-1.1869254,-3.9887371,-0.72881699,0.14412624,-0.89535487,0.42138708,0
-0.33159161,-2.7047935,1.7087494,0.14412624,-0.89535487,0.42138708,0
-4.0474019,-3.022747,-2.3005314,-0.95890343,-0.23153761,-0.16399491,0
-3.2226086,2.5125117,-0.65033472,-0.14412624,0.89535487,-0.42138708,0
-2.679184,2.3211136,-1.2533571,-0.14412624,0.89535487,-0.42138708,0
4.6107593,2.1756058,0.8612628,0.95890343,0.23153761,0.16399491,0
-3.3313074,1.0378654,1.484856,-0.24440059,0.38043344,0.89192963,0
3.7911191,4.5489693,1.8430457,0.95890343,0.23153761,0.16399491,0
2.3566635,-2.0913002,1.783312,0.14412624,-0.89535487,0.42138708,0
-3.8591862,-3.4669585,1.0382042,0.14412624,-0.89535487,0.42138708,0
-0.41781509,-1.576,3.405654,-0.24440059,0.38043344,0.89192963,0
4.410356,1.5069631,2.557786,0.95890343,0.23153761,0.16399491,0
-4.5873046,-2.2378659,-0.39090633,-0.95890343,-0.23153761,-0.16399491,0
-5.4888263,1.6466346,0.60376096,-0.24440059,0.38043344,0.89192963,0
-0.29292929,-1.825972,-2.0026951,0.24440059,-0.38043344,-0.89192963,0
4.1031213,4.2728653,0.56110191,0.95890343,0.23153761,0.16399491,0
-3.8064551,1.769591,-2.1999106,-0.14412624,0.89535487,-0.42138708,0
-3.2030289,-3.4363284,-2.2317312,0.24440059,-0.38043344,-0.89192963,0
-1.0478945,-3.8249521,-0.4850018,0.14412624,-0.89535487,0.42138708,0
-5.1122589,-0.034798145,-0.63069892,-0.95890343,-0.23153761,-0.16399491,0
0.33528781,-2.6372311,-1.4828508,0.24440059,-0.38043344,-0.89192963,0
-5.27665,1.234623,-1.4462075,-0.95890343,-0.23153761,-0.16399491,0
-2.7329051,-2.0859106,3.0127974,-0.24440059,0.38043344,0.89192963,0
-5.0735765,1.2184168,-2.6837549,-0.95890343,-0.23153761,-0.16399491,0
2.0783505,2.8062217,-1.7899821,-0.14412624,0.89535487,-0.42138708,0
0.89105928,-1.3711312,-1.9632751,0.24440059,-0.38043344,-0.89192963,0
-4.1856256,-3.5942137,-0.41775751,-0.95890343,-0.23153761,-0.16399491,0
3.286437,3.6605754,-0.48832846,-0.14412624,0.89535487,-0.42138708,0
4.6082253,0.54404855,3.3285596,0.95890343,0.23153761,0.16399491,0
2.2512572,-2.4055629,1.4746742,0.14412624,-0.89535487,0.42138708,0
-1.9741963,-2.8127568,1.701273,0.14412624,-0.89535487,0.42138708,0
4.6224122,2.5187492,-0.57956362,0.95890343,0.23153761,0.16399491,0
0.656461,-1.9219666,2.7094238,0.14412624,-0.89535487,0.42138708,0
-4.0716085,-4.0256982,-1.4612522,-0.95890343,-0.23153761,-0.16399491,0
0.59041953,3.8468742,1.4244275,-0.24440059,0.38043344,0.89192963,0
-3.6819167,-1.260385,2.4349539,-0.24440059,0.38043344,0.89192963,0
-3.2617381,-1.621419,2.6433618,-0.24440059,0.38043344,0.89192963,0
4.7074833,0.38980281,1.8039615,0.95890343,0.23153761,0.16399491,0
-4.3861694,-1.1019186,-3.0590172,-0.95890343,-0.23153761,-0.16399491,0
2.7667503,0.81438184,-2.3651881,0.24440059,-0.38043344,-0.89192963,0
4.6251421,2.7276416,-0.26532936,0.95890343,0.23153761,0.16399491,0
-1.2879834,3.6211891,0.8062011,-0.14412624,0.89535487,-0.42138708,0
5.104095,-1.0833794,2.1192172,0.95890343,0.23153761,0.16399491,0
3.0874588,-1.3385712,3.2148306,0.14412624,-0.89535487,0.42138708,0
5.1713686,0.89249802,-1.253253,0.95890343,0.23153761,0.16399491,0
0.71063089,-3.4767232,-0.6132952,0.14412624,-0.89535487,0.42138708,0
5.1130772,0.10192251,0.026539803,0.95890343,0.23153761,0.16399491,0
-3.1340995,-4.4526157,-1.2128425,0.14412624,-0.89535487,0.42138708,0
-3.0491853,2.6270571,0.83096856,-0.24440059,0.38043344,0.89192963,0
4.5995603,-1.3806596,-0.99068975,0.24440059,-0.38043344,-0.89192963,0
-5.374341,0.54482651,1.0625658,-0.24440059,0.38043344,0.89192963,0
4.6343188,0.99726915,1.4352098,0.95890343,0.23153761,0.16399491,0
3.3980122,4.4591637,1.3896456,-0.14412624,0.89535487,-0.42138708,0
0.91074944,-3.1276722,0.061370254,0.14412624,-0.89535487,0.42138708,0
2.4321139,3.3316054,2.0130515,-0.24440059,0.38043344,0.89192963,0
5.2140718,0.80367947,-1.0860415,0.95890343,0.23153761,0.16399491,0
-3.4093761,-3.8929119,0.23280573,0.14412624,-0.89535487,0.42138708,0
-4.8140364,2.1179926,0.68913972,-0.24440059,0.38043344,0.89192963,0
-0.60785794,3.5625424,1.1598077,-0.24440059,0.38043344,0.89192963,0
-5.3157291,1.0321202,-1.4041851,-0.95890343,-0.23153761,-0.16399491,0
-4.8041105,-1.7117094,-0.43490171,-0.95890343,-0.23153761,-0.16399491,0
-4.8026714,0.90143549,-3.0728412,-0.95890343,-0.23153761,-0.16399491,0
-2.8758454,-4.5015574,-1.7738957,0.24440059,-0.38043344,-0.89192963,0
-3.0322223,-1.0490091,-3.1417661,0.24440059,-0.38043344,-0.89192963,0
4.6788487,1.9166374,0.25050783,0.95890343,0.23153761,0.16399491,0
4.0075793,1.596454,3.1438286,-0.24440059,0.38043344,0.89192963,0
-0.92235446,2.2885733,-2.0200474,-0.14412624,0.89535487,-0.42138708,0
-1.5441906,1.003345,1.9599392,-0.24440059,0.38043344,0.89192963,0
4.7974195,1.9434507,-0.86892033,0.95890343,0.23153761,0.16399491,0
4.3279276,3.2964375,0.61145067,0.95890343,0.23153761,0.16399491,0
-3.3527272,-2.6379008,2.4251885,0.14412624,-0.89535487,0.42138708,0
1.2200775,-1.8796041,2.8734798,0.14412624,-0.89535487,0.42138708,0
1.8920212,-3.1250544,-0.085506916,0.14412624,-0.89535487,0.42138708,0
-4.6162176,-2.6402285,0.76721001,-0.95890343,-0.23153761,-0.16399491,0
-3.296845,-2.5270069,-2.583194,0.24440059,-0.38043344,-0.89192963,0
4.4577723,2.4530649,1.4084988,0.95890343,0.23153761,0.16399491,0
4.4846077,0.68139601,3.4017949,0.95890343,0.23153761,0.16399491,0
5.058929,-0.58448064,1.9993865,0.95890343,0.23153761,0.16399491,0
-0.19871914,0.62101054,2.5166614,-0.24440059,0.38043344,0.89192963,0
4.8198547,2.5723894,-0.74441719,0.95890343,0.23153761,0.16399491,0
-1.9355198,-2.3124034,2.7332716,0.14412624,-0.89535487,0.42138708,0
-0.17718482,-3.6500034,-0.74605703,0.14412624,-0.89535487,0.42138708,0
2.1212547,3.9021392,1.7424972,-0.24440059,0.38043344,0.89192963,0
5.5084853,-1.1250968,-0.40090799,0.95890343,0.23153761,0.16399491,0
-1.3232696,2.8018141,1.1585503,-0.24440059,0.38043344,0.89192963,0
4.9269586,-2.240535,0.63895011,0.14412624,-0.89535487,0.42138708,0
3.1926913,-1.1426582,3.569315,0.14412624,-0.89535487,0.42138708,0
-0.21753931,-3.731473,-1.1883008,0.24440059,-0.38043344,-0.89192963,0
0.12984645,-1.6641269,3.5449564,0.14412624,-0.89535487,0.42138708,0
4.6194282,-0.26025784,3.3095675,0.95890343,0.23153761,0.16399491,0
5.0590496,2.1820984,-1.6747837,0.95890343,0.23153761,0.16399491,0
-3.8731351,-2.8774869,-2.5439706,0.24440059,-0.38043344,-0.89192963,0
-1.9078825,-3.2311132,0.85328603,0.14412624,-0.89535487,0.42138708,0
-5.008625,0.030330658,-0.86097097,-0.95890343,-0.23153761,-0.16399491,0
-4.369791,-2.2408516,-1.4760733,-0.95890343,-0.23153761,-0.16399491,0
3.9939046,2.7650211,-2.4503722,-0.14412624,0.89535487,-0.42138708,0
-2.6492555,-4.1271362,-0.6155405,0.14412624,-0.89535487,0.42138708,0
-4.4579339,-1.9449008,-1.7432547,-0.95890343,-0.23153761,-0.16399491,0
2.721607,1.7865908,-2.8876941,0.24440059,-0.38043344,-0.89192963,0
-2.4547439,-1.8852124,-2.6562285,0.24440059,-0.38043344,-0.89192963,0
3.7782879,4.0058842,-0.011056423,-0.14412624,0.89535487,-0.42138708,0
-4.2748985,-4.048945,-0.18044329,-0.95890343,-0.23153761,-0.16399491,0
5.3670349,-0.91218591,0.62713504,0.95890343,0.23153761,0.16399491,0
3.7808657,-1.8518238,-1.0668224,0.24440059,-0.38043344,-0.89192963,0
-2.6464036,-4.1617613,-0.66553307,0.14412624,-0.89535487,0.42138708,0
4.2749262,3.1827152,-1.6709228,-0.14412624,0.89535487,-0.42138708,0
-2.2272809,-3.3494062,-2.0338314,0.24440059,-0.38043344,-0.89192963,0
2.9443581,-2.8259811,-0.050595284,0.14412624,-0.89535487,0.42138708,0
0.15607905,3.7704003,1.3293257,-0.24440059,0.38043344,0.89192963,0
-0.74614143,-2.5249004,-1.9411424,0.24440059,-0.38043344,-0.89192963,0
0.93109012,-0.4350667,-2.3001335,0.24440059,-0.38043344,-0.89192963,0
4.8899088,-0.55951852,2.2227376,0.95890343,0.23153761,0.16399491,0
-4.0987878,-2.4575951,-2.8085735,-0.95890343,-0.23153761,-0.16399491,0
5.1890397,0.34838104,0.045900822,0.95890343,0.23153761,0.16399491,0
0.98350096,-0.84550309,-2.2626493,0.24440059,-0.38043344,-0.89192963,0
-0.18464655,-1.0428953,3.1291947,-0.24440059,0.38043344,0.89192963,0
5.304625,-1.2811083,1.5468936,0.95890343,0.23153761,0.16399491,0
-5.0444741,-0.30032396,0.040056705,-0.95890343,-0.23153761,-0.16399491,0
-0.17307949,3.5621014,1.2535114,-0.24440059,0.38043344,0.89192963,0
-5.2450113,0.26304293,-0.53422618,-0.95890343,-0.23153761,-0.16399491,0
-5.199327,-0.37886524,0.92655587,-0.95890343,-0.23153761,-0.16399491,0
3.2327645,2.0274413,-2.8000994,0.24440059,-0.38043344,-0.89192963,0
4.5532122,2.8809571,0.16359091,0.95890343,0.23153761,0.16399491,0
3.7350893,2.0688498,-2.574846,0.24440059,-0.38043344,-0.89192963,0
0.90503848,2.1095033,-3.1751847,-0.14412624,0.89535487,-0.42138708,0
5.2073622,-0.7658999,1.2102413,0.95890343,0.23153761,0.16399491,0
1.9375881,-2.34517,1.2556505,0.14412624,-0.89535487,0.42138708,0
0.20764971,-3.5352764,-0.44327426,0.14412624,-0.89535487,0.42138708,0
4.5199337,1.6952283,1.5786569,0.95890343,0.23153761,0.16399491,0
-1.2058949,-1.998358,3.0922019,0.14412624,-0.89535487,0.42138708,0
-4.88869,-0.34392607,-1.5652452,-0.95890343,-0.23153761,-0.16399491,0
4.9579115,-1.8694258,-0.73743796,0.24440059,-0.38043344,-0.89192963,0
-4.1526861,-4.0216813,-0.15825701,-0.95890343,-0.23153761,-0.16399491,0
-1.1788876,-3.3474991,-1.6034715,0.24440059,-0.38043344,-0.89192963,0
2.4663491,-2.2973998,1.1767418,0.14412624,-0.89535487,0.42138708,0
4.6557989,-0.0014483333,3.549165,0.95890343,0.23153761,0.16399491,0
0.69641638,-1.5027831,3.744657,-0.24440059,0.38043344,0.89192963,0
-0.14340591,-2.2432227,2.172544,0.14412624,-0.89535487,0.42138708,0
5.6134086,-1.3443465,0.11397648,0.95890343,0.23153761,0.16399491,0
-4.5933805,-2.5465598,-0.4007864,-0.95890343,-0.23153761,-0.16399491,0
-5.2195168,-0.62659359,1.1763902,-0.95890343,-0.23153761,-0.16399491,0
1.5619979,0.90284204,2.9063635,-0.24440059,0.38043344,0.89192963,0
5.2871222,-1.7997289,1.5346889,0.14412624,-0.89535487,0.42138708,0
2.1256099,1.8706493,2.575233,-0.24440059,0.38043344,0.89192963,0
1.2586383,-2.1404159,2.3586648,0.14412624,-0.89535487,0.42138708,0
-3.8110125,-4.31353,-1.6944776,-0.95890343,-0.23153761,-0.16399491,0
-0.02978169,0.10061741,-2.9428811,0.24440059,-0.38043344,-0.89192963,0
-1.6983575,1.2019143,-3.8073201,0.24440059,-0.38043344,-0.89192963,0
-1.8378341,3.0171015,-0.28566009,-0.14412624,0.89535487,-0.42138708,0
-3.4096699,2.8039412,0.026905298,-0.14412624,0.89535487,-0.42138708,0
3.9302292,-1.3624448,3.0693684,0.14412624,-0.89535487,0.42138708,0
-0.53111625,-2.6374726,1.5503409,0.14412624,-0.89535487,0.42138708,0
-0.96675026,-1.0005515,-2.7097995,0.24440059,-0.38043344,-0.89192963,0
-4.0239277,2.7521925,0.090429425,-0.14412624,0.89535487,-0.42138708,0
-4.8718987,-3.1106255,2.2397962,0.14412624,-0.89535487,0.42138708,0
-1.9622309,0.15589619,2.2025626,-0.24440059,0.38043344,0.89192963,0
4.1809254,3.206367,1.2777014,0.95890343,0.23153761,0.16399491,0
1.6371448,2.653218,2.131249,-0.24440059,0.38043344,0.89192963,0
1.9647367,-2.418036,1.4631122,0.14412624,-0.89535487,0.42138708,0
-4.3866968,-1.4554785,-2.732614,-0.95890343,-0.23153761,-0.16399491,0
4.4535313,1.2050906,2.8804796,0.95890343,0.23153761,0.16399491,0
3.9570587,-2.4247553,0.47168374,0.14412624,-0.89535487,0.42138708,0
-4.8881655,0.34982502,-1.8045933,-0.95890343,-0.23153761,-0.16399491,0
0.93340731,-1.2293892,-1.9981513,0.24440059,-0.38043344,-0.89192963,0
4.6617808,2.362144,-2.5982869,0.24440059,-0.38043344,-0.89192963,0
-4.4742975,-1.9701989,-1.2087779,-0.95890343,-0.23153761,-0.16399491,0
1.3141847,-1.8887212,-1.7268057,0.24440059,-0.38043344,-0.89192963,0
1.3421825,-2.19521,1.7989414,0.14412624,-0.89535487,0.42138708,0
-3.5169668,-3.6531565,0.60819483,0.14412624,-0.89535487,0.42138708,0
0.68632126,-1.928087,2.5916231,0.14412624,-0.89535487,0.42138708,0
4.6371899,2.0666356,-2.5180018,0.24440059,-0.38043344,-0.89192963,0
-1.714484,2.6153393,-1.1885017,-0.14412624,0.89535487,-0.42138708,0
4.7624202,2.1912816,-0.63596725,0.95890343,0.23153761,0.16399491,0
-4.431447,-1.3132377,-2.3877718,-0.95890343,-0.23153761,-0.16399491,0
4.7510061,-0.90180194,3.6779284,0.14412624,-0.89535487,0.42138708,0
0.56456238,0.14797068,-2.6092072,0.24440059,-0.38043344,-0.89192963,0
3.282145,1.7347395,2.9415534,-0.24440059,0.38043344,0.89192963,0
3.3388634,-0.85329032,3.9481306,0.14412624,-0.89535487,0.42138708,0
1.0323761,2.7312586,-1.8010958,-0.14412624,0.89535487,-0.42138708,0
2.3542616,3.3408985,-0.59136295,-0.14412624,0.89535487,-0.42138708,0
-5.1819038,0.34174132,-0.77774763,-0.95890343,-0.23153761,-0.16399491,0
5.348218,-2.3427308,-0.23653865,0.24440059,-0.38043344,-0.89192963,0
0.17751825,1.6233743,2.1703615,-0.24440059,0.38043344,0.89192963,0
-1.4194428,1.7103363,-2.9456508,-0.14412624,0.89535487,-0.42138708,0
-4.2586441,2.6330504,0.61236942,-0.24440059,0.38043344,0.89192963,0
0.6306932,3.0765827,-0.80902934,-0.14412624,0.89535487,-0.42138708,0
4.2444606,-1.4266121,-0.92489481,0.24440059,-0.38043344,-0.89192963,0
-0.86584044,-4.0394473,-0.9411459,0.14412624,-0.89535487,0.42138708,0
0.71739435,2.6771367,-1.90934,-0.14412624,0.89535487,-0.42138708,0
1.8520198,3.0375614,-1.12707,-0.14412624,0.89535487,-0.42138708,0
-1.8943276,-3.7832627,-0.11629152,0.14412624,-0.89535487,0.42138708,0
-2.6771178,2.9853902,0.16800129,-0.14412624,0.89535487,-0.42138708,0
-1.9102432,-2.9060624,1.7215137,0.14412624,-0.89535487,0.42138708,0
-4.1214437,-3.8656495,-0.39709377,-0.95890343,-0.23153761,-0.16399491,0
-4.7285657,-2.0694218,-0.38890219,-0.95890343,-0.23153761,-0.16399491,0
3.9283376,-2.3880329,0.70281053,0.14412624,-0.89535487,0.42138708,0
-3.3438148,-3.1284161,1.5686073,0.14412624,-0.89535487,0.42138708,0
4.5125561,2.547375,0.76631498,0.95890343,0.23153761,0.16399491,0
1.383327,2.9280055,-1.3134737,-0.14412624,0.89535487,-0.42138708,0
-4.9850388,-0.49016237,-0.22675323,-0.95890343,-0.23153761,-0.16399491,0
-4.9909563,0.21603358,-2.0214128,-0.95890343,-0.23153761,-0.16399491,0
-4.6612077,-2.6338086,0.22296858,-0.95890343,-0.23153761,-0.16399491,0
0.63795489,-1.340795,3.4456477,-0.24440059,0.38043344,0.89192963,0
-1.6807408,-3.8887997,-1.6186476,0.24440059,-0.38043344,-0.89192963,0
-5.3753891,1.2589488,-1.085355,-0.95890343,-0.23153761,-0.16399491,0
4.6252346,1.9558001,0.36817789,0.95890343,0.23153761,0.16399491,0
-5.0663638,0.42060852,1.2099249,-0.24440059,0.38043344,0.89192963,0
-2.8093102,1.1624193,-3.4736784,-0.14412624,0.89535487,-0.42138708,0
-2.6863577,-4.41576,-1.5545177,0.24440059,-0.38043344,-0.89192963,0
3.7701776,-1.6501851,-1.1356504,0.24440059,-0.38043344,-0.89192963,0
4.7690773,0.42261201,2.2199478,0.95890343,0.23153761,0.16399491,0
-3.0781708,-4.1855617,-0.88439798,0.14412624,-0.89535487,0.42138708,0
4.6292863,2.2405837,-0.14575243,0.95890343,0.23153761,0.16399491,0
-2.6380401,-4.1953964,-0.70221233,0.14412624,-0.89535487,0.42138708,0
3.8647449,4.1417513,0.29723406,-0.14412624,0.89535487,-0.42138708,0
0.47569633,-3.2128735,0.205899,0.14412624,-0.89535487,0.42138708,0
-0.90526903,-0.25647187,2.5842476,-0.24440059,0.38043344,0.89192963,0
0.41746855,3.3239636,-0.095108032,-0.14412624,0.89535487,-0.42138708,0
1.0247092,2.7258093,-1.8992982,-0.14412624,0.89535487,-0.42138708,0
1.1693299,1.169848,-2.9867611,0.24440059,-0.38043344,-0.89192963,0
2.6310842,-2.9494517,-0.075071409,0.14412624,-0.89535487,0.42138708,0
5.5870576,-1.7480416,-0.47807527,0.24440059,-0.38043344,-0.89192963,0
4.3132954,2.4360256,2.4321434,0.95890343,0.23153761,0.16399491,0
1.7983565,1.9675167,-3.0493908,0.24440059,-0.38043344,-0.89192963,0
-0.38440594,-0.026619911,-2.8914342,0.24440059,-0.38043344,-0.89192963,0
2.1583195,1.9000002,2.4969735,-0.24440059,0.38043344,0.89192963,0
-2.049262,-4.3604631,-1.3515451,0.14412624,-0.89535487,0.42138708,0
3.8428857,-1.6879474,2.2850316,0.14412624,-0.89535487,0.42138708,0
-5.7308087,1.3783264,0.56479669,-0.95890343,-0.23153761,-0.16399491,0
4.5713162,2.1141031,1.1894464,0.95890343,0.23153761,0.16399491,0
-1.1620648,-3.6289024,-1.5364816,0.24440059,-0.38043344,-0.89192963,0
-3.4788651,-2.6080294,2.6226473,0.14412624,-0.89535487,0.42138708,0
-4.9219785,2.0393772,-1.0852683,-0.14412624,0.89535487,-0.42138708,0
-2.8386803,-2.1429946,-2.7483227,0.24440059,-0.38043344,-0.89192963,0
2.0652206,-0.079005003,-2.1789374,0.24440059,-0.38043344,-0.89192963,0
2.0594783,-1.8041495,2.4130499,0.14412624,-0.89535487,0.42138708,0
-4.0663047,-2.6061888,2.8701913,-0.24440059,0.38043344,0.89192963,0
4.5255399,0.059955448,3.3808696,0.95890343,0.23153761,0.16399491,0
5.2673697,-1.2856034,1.4554522,0.95890343,0.23153761,0.16399491,0
2.7619605,4.2991257,0.92217922,-0.14412624,0.89535487,-0.42138708,0
-5.1207809,1.2125665,-2.2047513,-0.95890343,-0.23153761,-0.16399491,0
0.0078616142,2.6946681,-1.2415981,-0.14412624,0.89535487,-0.42138708,0
-0.14035225,3.6422589,0.80130887,-0.14412624,0.89535487,-0.42138708,0
2.9747434,2.6317534,2.4740012,-0.24440059,0.38043344,0.89192963,0
-0.3946631,3.4788604,0.53095531,-0.14412624,0.89535487,-0.42138708,0
-4.5838928,-0.57555318,-2.340755,-0.95890343,-0.23153761,-0.16399491,0
4.9126616,-0.05643332,1.7189281,0.95890343,0.23153761,0.16399491,0
-0.04417944,-2.2566471,2.5687945,0.14412624,-0.89535487,0.42138708,0
4.6121297,0.11825585,3.5784035,0.95890343,0.23153761,0.16399491,0
2.0197086,3.5884178,1.7391303,-0.24440059,0.38043344,0.89192963,0
-0.87193203,-1.4215963,3.1656473,-0.24440059,0.38043344,0.89192963,0
-4.9965525,-1.4344153,1.0568485,-0.95890343,-0.23153761,-0.16399491,0
4.3244543,0.7049877,3.6340592,-0.24440059,0.38043344,0.89192963,0
2.8322716,3.1123075,-1.5602901,-0.14412624,0.89535487,-0.42138708,0
-5.0255451,-1.9216897,1.1084776,-0.95890343,-0.23153761,-0.16399491,0
-3.6602969,-4.6953583,-1.7454982,0.24440059,-0.38043344,-0.89192963,0
-3.461411,2.2438331,-1.4021251,-0.14412624,0.89535487,-0.42138708,0
-2.9976459,2.9672828,0.32321119,-0.14412624,0.89535487,-0.42138708,0
2.7638178,-2.7578449,0.34108388,0.14412624,-0.89535487,0.42138708,0
4.3764925,-1.0095376,3.6368172,0.14412624,-0.89535487,0.42138708,0
-4.477777,-3.2007952,0.45170498,-0.95890343,-0.23153761,-0.16399491,0
-3.7445076,-2.7962973,2.5364797,0.14412624,-0.89535487,0.42138708,0
-2.4223361,1.4153695,-3.2825024,-0.14412624,0.89535487,-0.42138708,0
-4.7627039,-0.38149738,-1.8256295,-0.95890343,-0.23153761,-0.16399491,0
-4.3084917,-1.85375,-2.3225329,-0.95890343,-0.23153761,-0.16399491,0
4.8852997,2.1055892,-0.5013361,0.95890343,0.23153761,0.16399491,0
-4.9311848,-1.0042615,1.9155972,-0.24440059,0.38043344,0.89192963,0
5.2611895,-1.5989271,1.9575775,0.14412624,-0.89535487,0.42138708,0
5.4589357,-0.18161392,-0.81734514,0.95890343,0.23153761,0.16399491,0
-1.6370682,-2.7836306,1.795691,0.14412624,-0.89535487,0.42138708,0
-4.233799,-2.5614977,-2.5607603,-0.95890343,-0.23153761,-0.16399491,0
3.9386344,-2.8020251,-0.40498632,0.14412624,-0.89535487,0.42138708,0
2.3703797,-2.0859561,1.719238,0.14412624,-0.89535487,0.42138708,0
-2.135458,2.379215,-1.2517831,-0.14412624,0.89535487,-0.42138708,0
-1.1916502,3.217844,0.25356948,-0.14412624,0.89535487,-0.42138708,0
4.8343501,2.9551404,-1.6189079,0.95890343,0.23153761,0.16399491,0
2.5180798,-1.211632,3.5880358,0.14412624,-0.89535487,0.42138708,0
-0.53340709,0.0090818405,-2.9438467,0.24440059,-0.38043344,-0.89192963,0
5.0214067,1.9129283,-1.7796831,0.95890343,0.23153761,0.16399491,0
4.5700593,1.9252751,0.66154099,0.95890343,0.23153761,0.16399491,0
-2.7761374,1.9025838,-1.9382894,-0.14412624,0.89535487,-0.42138708,0
-0.013530433,-0.46139288,-2.6508822,0.24440059,-0.38043344,-0.89192963,0
2.4239511,3.6856833,1.9418175,-0.24440059,0.38043344,0.89192963,0
0.3373512,-1.9699022,2.6353519,0.14412624,-0.89535487,0.42138708,0
-4.0464582,-3.6630318,-1.1628022,-0.95890343,-0.23153761,-0.16399491,0
0.36177588,-3.3927779,-0.28433824,0.14412624,-0.89535487,0.42138708,0
4.977314,1.3514063,-0.61856985,0.95890343,0.23153761,0.16399491,0
0.66880095,-1.9537902,2.7689419,0.14412624,-0.89535487,0.42138708,0
-4.0619297,-0.0028035641,-3.8585436,0.24440059,-0.38043344,-0.89192963,0
-4.8900309,-1.9510782,0.34541368,-0.95890343,-0.23153761,-0.16399491,0
4.6177373,-1.2291777,-0.91571617,0.24440059,-0.38043344,-0.89192963,0
-3.883739,-3.484823,-2.4699674,-0.95890343,-0.23153761,-0.16399491,0
5.3346305,-1.6605911,1.5470266,0.14412624,-0.89535487,0.42138708,0
-4.1358023,0.27082908,-4.0446553,0.24440059,-0.38043344,-0.89192963,0
-4.321259,-1.0818788,-3.5670872,-0.95890343,-0.23153761,-0.16399491,0
4.4832554,1.890131,1.4637322,0.95890343,0.23153761,0.16399491,0
4.4756489,0.67922252,2.8304815,0.95890343,0.23153761,0.16399491,0
2.2639174,0.92562437,-2.5297499,0.24440059,-0.38043344,-0.89192963,0
4.1819382,-0.96087956,3.4694805,0.14412624,-0.89535487,0.42138708,0
1.5752959,3.1347227,-1.0387394,-0.14412624,0.89535487,-0.42138708,0
-4.19028,-0.13054252,-3.9823401,0.24440059,-0.38043344,-0.89192963,0
-3.0708914,-0.48764074,-3.4586258,0.24440059,-0.38043344,-0.89192963,0
4.6150799,0.29348674,3.0113754,0.95890343,0.23153761,0.16399491,0
-5.054101,1.2723207,-2.46626,-0.95890343,-0.23153761,-0.16399491,0
4.5799952,1.2407956,2.0169737,0.95890343,0.23153761,0.16399491,0
1.6742851,-1.1904359,3.807199,-0.24440059,0.38043344,0.89192963,0
4.8168502,2.8711927,-1.8221188,0.95890343,0.23153761,0.16399491,0
-2.0296504,-3.6449327,-1.8011119,0.24440059,-0.38043344,-0.89192963,0
-2.2992857,-4.4307432,-1.5267882,0.24440059,-0.38043344,-0.89192963,0
3.7311468,-1.4761001,2.8516064,0.14412624,-0.89535487,0.42138708,0
2.947844,-0.78201079,4.0165296,-0.24440059,0.38043344,0.89192963,0
-4.9543309,-2.1941705,1.1413589,-0.95890343,-0.23153761,-0.16399491,0
-5.6696749,1.5917058,0.4667244,-0.24440059,0.38043344,0.89192963,0
-0.14821434,-2.0750265,2.7002845,0.14412624,-0.89535487,0.42138708,0
-3.5756457,-0.19845104,1.9339038,-0.24440059,0.38043344,0.89192963,0
-4.0591326,-3.3385406,-2.4558001,-0.95890343,-0.23153761,-0.16399491,0
5.288578,0.7096076,-1.4581158,0.95890343,0.23153761,0.16399491,0
2.270525,-2.8634367,0.37466982,0.14412624,-0.89535487,0.42138708,0
3.2119727,2.1989236,-2.8415346,0.24440059,-0.38043344,-0.89192963,0
-0.56033963,1.0183132,-3.4175627,0.24440059,-0.38043344,-0.89192963,0
1.2775857,-3.5762942,-0.86195898,0.24440059,-0.38043344,-0.89192963,0
-4.4206672,-2.1147718,-1.532115,-0.95890343,-0.23153761,-0.16399491,0
-1.7467315,-1.6710155,2.9969084,-0.24440059,0.38043344,0.89192963,0
4.8343773,-0.49953187,3.0891371,0.95890343,0.23153761,0.16399491,0
4.7698002,2.2398424,-0.76113653,0.95890343,0.23153761,0.16399491,0
-0.803195,-3.6942098,-0.2232399,0.14412624,-0.89535487,0.42138708,0
-3.0233076,-1.5073624,-2.9504197,0.24440059,-0.38043344,-0.89192963,0
4.7602711,0.56039196,2.3932872,0.95890343,0.23153761,0.16399491,0
3.7534769,0.84153366,-2.1884243,0.24440059,-0.38043344,-0.89192963,0
4.6380835,3.4223535,-1.2402349,0.95890343,0.23153761,0.16399491,0
-1.404155,2.854265,1.2852914,-0.24440059,0.38043344,0.89192963,0
-0.82905316,2.8334825,-1.017925,-0.14412624,0.89535487,-0.42138708,0
-1.2278473,3.3889856,0.5725286,-0.14412624,0.89535487,-0.42138708,0
-1.0589373,2.2860832,1.5105053,-0.24440059,0.38043344,0.89192963,0
-2.9808223,-0.36755943,2.1732855,-0.24440059,0.38043344,0.89192963,0
-5.4548421,-0.0053739548,1.0044649,-0.95890343,-0.23153761,-0.16399491,0
1.6464276,-2.2209721,-1.4830503,0.24440059,-0.38043344,-0.89192963,0
-5.4774494,0.84700942,0.014515162,-0.95890343,-0.23153761,-0.16399491,0
-0.79054451,2.6855514,-1.3330985,-0.14412624,0.89535487,-0.42138708,0
5.2440348,-0.8775444,0.5673039,0.95890343,0.23153761,0.16399491,0
0.77699304,-2.839509,0.82398486,0.14412624,-0.89535487,0.42138708,0
-4.409081,2.650686,0.52625799,-0.24440059,0.38043344,0.89192963,0
4.1404266,3.2719979,1.2046189,0.95890343,0.23153761,0.16399491,0
0.18462038,2.5288329,1.8054072,-0.24440059,0.38043344,0.89192963,0
-2.2589178,-0.57654715,2.4860458,-0.24440059,0.38043344,0.89192963,0
-1.359015,-3.5888898,0.0091719627,0.14412624,-0.89535487,0.42138708,0
2.4851766,-2.6039622,-0.93477225,0.24440059,-0.38043344,-0.89192963,0
-4.6474514,0.11253929,1.3828523,-0.24440059,0.38043344,0.89192963,0
4.3832979,3.6065452,-1.1655512,-0.14412624,0.89535487,-0.42138708,0
-5.7805176,1.999866,0.23238611,-0.95890343,-0.23153761,-0.16399491,0
-5.6815681,1.6653781,0.48096561,-0.24440059,0.38043344,0.89192963,0
-2.8230562,-2.9105871,-2.4056463,0.24440059,-0.38043344,-0.89192963,0
5.4765987,-1.4135985,0.70569444,0.95890343,0.23153761,0.16399491,0
-4.8869448,-1.9113877,0.34497499,-0.95890343,-0.23153761,-0.16399491,0
4.200603,2.809134,1.6709914,0.95890343,0.23153761,0.16399491,0
-0.30618787,-3.3797913,0.02100873,0.14412624,-0.89535487,0.42138708,0
3.2640805,-0.95435262,4.123157,0.14412624,-0.89535487,0.42138708,0
-5.0039072,0.88200843,-2.0989664,-0.95890343,-0.23153761,-0.16399491,0
-4.4750113,-3.4782937,0.26205063,-0.95890343,-0.23153761,-0.16399491,0
-4.4283733,-2.7986956,-0.36235857,-0.95890343,-0.23153761,-0.16399491,0
-1.0794809,1.3024492,1.8726411,-0.24440059,0.38043344,0.89192963,0
-4.7926655,1.4904971,-2.1235223,-0.14412624,0.89535487,-0.42138708,0
-2.0982215,-3.0964375,1.0900478,0.14412624,-0.89535487,0.42138708,0
-2.0590947,-1.4272366,2.790503,-0.24440059,0.38043344,0.89192963,0
3.5568173,-1.7437179,-0.97791219,0.24440059,-0.38043344,-0.89192963,0
-2.8421712,-1.9019697,-2.7536478,0.24440059,-0.38043344,-0.89192963,0
-4.7350602,-1.0009328,-0.94147658,-0.95890343,-0.23153761,-0.16399491,0
-1.672364,1.383646,-3.4138308,-0.14412624,0.89535487,-0.42138708,0
-5.2669878,1.3215213,-1.8838873,-0.95890343,-0.23153761,-0.16399491,0
-5.5503182,2.2145116,-0.57845449,-0.14412624,0.89535487,-0.42138708,0
0.12894511,3.1903811,-0.51413608,-0.14412624,0.89535487,-0.42138708,0
-1.132282,2.3230834,1.4518161,-0.24440059,0.38043344,0.89192963,0
5.0931797,1.2297916,-0.59508276,0.95890343,0.23153761,0.16399491,0
