-2.3262343,0.41096163,1.2175056,-0.9782486,0.1006968,0.1813553,0
-0.17254764,-4.5574942,1.4092689,-0.14813372,-0.95113081,-0.27093613,0
1.228178,-4.8499651,1.5283403,-0.14813372,-0.95113081,-0.27093613,0
-3.0319762,-2.5525658,-1.4545282,-0.9782486,0.1006968,0.1813553,0
-3.1472082,-3.1604366,-2.2718248,-0.14813372,-0.95113081,-0.27093613,0
-0.062412977,3.5612211,2.1979554,0.14813372,0.95113081,0.27093613,0
-2.3270855,-1.8197404,1.9590564,-0.9782486,0.1006968,0.1813553,0
-1.2157242,-0.051200867,-3.0464423,-0.14521015,0.29190782,-0.94535899,0
1.7115582,-3.8444281,-2.3944707,-0.14813372,-0.95113081,-0.27093613,0
1.0768943,3.2886987,2.6565614,0.14813372,0.95113081,0.27093613,0
0.51506591,-3.4052362,-3.2035537,-0.14813372,-0.95113081,-0.27093613,0
1.0637559,-4.0804558,-1.070611,-0.14813372,-0.95113081,-0.27093613,0
1.9229398,-4.4544644,1.585727,0.14521015,-0.29190782,0.94535899,0
2.8311446,2.0642402,3.3995593,0.14521015,-0.29190782,0.94535899,0
-0.70172369,3.4912724,-2.0269902,-0.14521015,0.29190782,-0.94535899,0
1.8955274,-1.1554059,-2.732846,0.9782486,-0.1006968,-0.1813553,0
0.68158698,3.7604961,1.1942852,0.14813372,0.95113081,0.27093613,0
-2.4978993,1.6510892,-1.0452574,-0.9782486,0.1006968,0.1813553,0
2.1815498,-3.6667414,-0.1915822,0.9782486,-0.1006968,-0.1813553,0
-1.3934815,-3.0668831,-2.8741062,-0.14813372,-0.95113081,-0.27093613,0
0.8878057,-3.6248579,-2.2697306,-0.14813372,-0.95113081,-0.27093613,0
0.33691448,-4.4659529,0.39131212,-0.14813372,-0.95113081,-0.27093613,0
1.7403624,3.7949677,0.37952495,0.14813372,0.95113081,0.27093613,0
1.42616,-4.4943552,1.5652928,0.14521015,-0.29190782,0.94535899,0
2.3263206,0.15925646,-0.84927166,0.9782486,-0.1006968,-0.1813553,0
-2.6034062,-1.1336124,0.34176797,-0.9782486,0.1006968,0.1813553,0
0.39476085,4.2316451,-0.01706171,0.14813372,0.95113081,0.27093613,0
0.20408511,-3.7146556,-1.5980272,-0.14813372,-0.95113081,-0.27093613,0
-2.1069117,4.5681138,0.075949192,0.14813372,0.95113081,0.27093613,0
0.65177178,-1.6329312,-3.8811619,-0.14521015,0.29190782,-0.94535899,0
1.4160933,0.37389123,3.0356855,0.14521015,-0.29190782,0.94535899,0
-2.2947664,-0.42665088,1.1965073,-0.9782486,0.1006968,0.1813553,0
0.090111494,-0.91962564,2.9286866,0.14521015,-0.29190782,0.94535899,0
-2.4397233,1.0864091,0.050099969,-0.9782486,0.1006968,0.1813553,0
2.0851912,1.0049038,-3.1767542,-0.14521015,0.29190782,-0.94535899,0
2.3322203,-3.6602936,1.6512511,0.14521015,-0.29190782,0.94535899,0
1.0071418,3.8857949,0.55529332,0.14813372,0.95113081,0.27093613,0
1.8889694,-3.4744034,-2.0637617,0.9782486,-0.1006968,-0.1813553,0
-0.25686646,1.1622136,3.560637,0.14521015,-0.29190782,0.94535899,0
-2.5214963,-1.4949038,0.62510824,-0.9782486,0.1006968,0.1813553,0
2.6205196,-1.7798493,0.9490813,0.9782486,-0.1006968,-0.1813553,0
-2.7840271,-2.826411,0.44388902,-0.9782486,0.1006968,0.1813553,0
-0.29409236,-4.0371881,-0.34293175,-0.14813372,-0.95113081,-0.27093613,0
0.67510211,-4.7161274,1.5047252,-0.14813372,-0.95113081,-0.27093613,0
1.437252,-3.1289186,2.0207751,0.14521015,-0.29190782,0.94535899,0
2.4191854,3.2633014,1.857013,0.14813372,0.95113081,0.27093613,0
2.3965526,4.2415309,-2.2907915,-0.14521015,0.29190782,-0.94535899,0
0.84666765,-3.3916864,2.0571468,0.14521015,-0.29190782,0.94535899,0
-2.577364,-1.2600479,0.79402745,-0.9782486,0.1006968,0.1813553,0
-2.2531376,4.8448906,-0.97854376,0.14813372,0.95113081,0.27093613,0
0.90919107,-4.3292065,-0.25169659,-0.14813372,-0.95113081,-0.27093613,0
0.20552135,-3.2432156,-3.3187952,-0.14813372,-0.95113081,-0.27093613,0
-2.7956712,-3.2431164,0.46480536,-0.9782486,0.1006968,0.1813553,0
-1.5401659,3.4056768,3.7036366,-0.9782486,0.1006968,0.1813553,0
-2.3689694,2.9353788,-1.8851452,-0.14521015,0.29190782,-0.94535899,0
1.991272,-2.811902,-1.3733408,0.9782486,-0.1006968,-0.1813553,0
1.6176929,-0.36229569,-3.4494603,-0.14521015,0.29190782,-0.94535899,0
-0.38107753,0.17297316,-3.0164981,-0.14521015,0.29190782,-0.94535899,0
2.3731093,0.73320961,2.9486494,0.14521015,-0.29190782,0.94535899,0
-0.85770869,-0.60858142,-3.2249024,-0.14521015,0.29190782,-0.94535899,0
1.3747058,4.2031207,-0.4533627,0.14813372,0.95113081,0.27093613,0
1.3223269,4.1047587,-2.0606163,-0.14521015,0.29190782,-0.94535899,0
-1.0127721,3.4681096,3.1575732,0.14813372,0.95113081,0.27093613,0
0.10969973,0.41620648,3.2764416,0.14521015,-0.29190782,0.94535899,0
1.9195219,-2.6726744,-1.4060929,0.9782486,-0.1006968,-0.1813553,0
-2.5785129,1.6947629,-2.3155198,-0.14521015,0.29190782,-0.94535899,0
-0.50897539,-3.7213032,-1.3108308,-0.14813372,-0.95113081,-0.27093613,0
-1.2975333,0.61334467,-2.8168108,-0.14521015,0.29190782,-0.94535899,0
1.6813366,-0.70659685,2.7029166,0.14521015,-0.29190782,0.94535899,0
0.62472868,0.71716672,3.2618182,0.14521015,-0.29190782,0.94535899,0
-2.2815092,1.5355868,0.87579083,-0.9782486,0.1006968,0.1813553,0
0.83922213,-4.5299721,0.65015697,-0.14813372,-0.95113081,-0.27093613,0
-0.15287304,-2.0175853,-3.8729401,-0.14521015,0.29190782,-0.94535899,0
3.0445938,2.6338737,0.71915603,0.9782486,-0.1006968,-0.1813553,0
1.7391919,-2.7620015,-2.8027065,0.9782486,-0.1006968,-0.1813553,0
0.74709702,-1.3198103,-3.6296484,-0.14521015,0.29190782,-0.94535899,0
-0.49416685,3.3210936,3.4882503,0.14813372,0.95113081,0.27093613,0
2.9515843,3.7524011,-0.045066833,0.9782486,-0.1006968,-0.1813553,0
0.61804795,-2.9452519,2.2661891,0.14521015,-0.29190782,0.94535899,0
-1.0670071,1.3622886,-2.5549324,-0.14521015,0.29190782,-0.94535899,0
1.4749973,-2.2933412,2.2574086,0.14521015,-0.29190782,0.94535899,0
0.19600439,3.5649195,2.0737429,0.14813372,0.95113081,0.27093613,0
-1.6980697,-4.2818127,0.97759128,-0.14813372,-0.95113081,-0.27093613,0
-1.1487772,-3.431859,-2.0916669,-0.14813372,-0.95113081,-0.27093613,0
-2.5769873,-2.9909282,1.5152162,-0.9782486,0.1006968,0.1813553,0
0.73655868,3.2630143,2.9864855,0.14813372,0.95113081,0.27093613,0
-2.9242463,-0.57229447,-2.8823986,-0.14521015,0.29190782,-0.94535899,0
2.4014969,0.86406791,-1.625883,0.9782486,-0.1006968,-0.1813553,0
2.2478378,-3.882273,0.77480078,0.9782486,-0.1006968,-0.1813553,0
-3.1815929,-1.2876818,-3.1394539,-0.14521015,0.29190782,-0.94535899,0
-0.47447753,-0.75997853,2.912499,0.14521015,-0.29190782,0.94535899,0
-0.92961073,3.2386675,3.6526799,0.14813372,0.95113081,0.27093613,0
2.3563352,-0.82783484,-0.88779914,0.9782486,-0.1006968,-0.1813553,0
-0.84175658,-3.3873415,-2.6022863,-0.14813372,-0.95113081,-0.27093613,0
2.5505652,-3.0585518,1.2648838,0.9782486,-0.1006968,-0.1813553,0
0.0098910332,3.634758,2.02843,0.14813372,0.95113081,0.27093613,0
-0.31340981,-3.4389782,-2.230396,-0.14813372,-0.95113081,-0.27093613,0
1.7071652,3.0458801,3.2183354,0.14813372,0.95113081,0.27093613,0
-1.3278965,4.4184451,0.11104631,0.14813372,0.95113081,0.27093613,0
-0.24583453,4.680007,-1.3741832,0.14813372,0.95113081,0.27093613,0
2.0466404,-0.97610188,-2.691124,0.9782486,-0.1006968,-0.1813553,0
1.8368092,3.0946715,2.9125981,0.14813372,0.95113081,0.27093613,0
-2.6517122,-0.035089016,-0.35622734,-0.9782486,0.1006968,0.1813553,0
2.8283,2.7172437,0.37839913,0.9782486,-0.1006968,-0.1813553,0
0.40497303,-1.6624275,2.5705435,0.14521015,-0.29190782,0.94535899,0
0.91594207,4.4078732,-1.2706811,0.14813372,0.95113081,0.27093613,0
0.45755124,-3.9003036,-1.09201,-0.14813372,-0.95113081,-0.27093613,0
-3.1237531,-1.5602701,-1.8055913,-0.9782486,0.1006968,0.1813553,0
1.9385285,-0.94210553,-3.111342,0.9782486,-0.1006968,-0.1813553,0
3.0703115,0.2095654,2.8665078,0.14521015,-0.29190782,0.94535899,0
-3.0031314,-2.5861285,-0.54425991,-0.9782486,0.1006968,0.1813553,0
2.0692101,3.8815541,-0.28971744,0.14813372,0.95113081,0.27093613,0
-2.7481053,-0.95484495,-1.0379016,-0.9782486,0.1006968,0.1813553,0
0.11966777,-0.89395678,-3.4979646,-0.14521015,0.29190782,-0.94535899,0
-2.6911526,1.1250265,-1.8264158,-0.9782486,0.1006968,0.1813553,0
1.5192618,-2.0951753,2.265799,0.14521015,-0.29190782,0.94535899,0
-2.2657659,0.57660639,1.6949254,-0.9782486,0.1006968,0.1813553,0
-1.2405987,3.3558714,4.0226703,0.14813372,0.95113081,0.27093613,0
-2.9452038,-0.46587014,-1.7987615,-0.9782486,0.1006968,0.1813553,0
2.6377935,3.8309355,-1.8460534,0.9782486,-0.1006968,-0.1813553,0
-0.49712551,-2.7231212,2.3731153,0.14521015,-0.29190782,0.94535899,0
-0.79749894,4.8015695,-1.5703864,0.14813372,0.95113081,0.27093613,0
2.618742,0.11216569,-0.10676914,0.9782486,-0.1006968,-0.1813553,0
-1.7196405,2.4528673,3.6945407,-0.9782486,0.1006968,0.1813553,0
-2.3654408,0.41241956,0.94170976,-0.9782486,0.1006968,0.1813553,0
2.4264479,-0.48484778,0.048171282,0.9782486,-0.1006968,-0.1813553,0
0.3097167,-0.9948529,2.9041824,0.14521015,-0.29190782,0.94535899,0
0.17473769,-2.903856,2.1597877,0.14521015,-0.29190782,0.94535899,0
1.906853,-0.8823545,-3.4090028,0.9782486,-0.1006968,-0.1813553,0
-2.4573746,3.8308372,-1.0683331,-0.9782486,0.1006968,0.1813553,0
2.4115074,-4.0862045,1.0381761,0.9782486,-0.1006968,-0.1813553,0
1.610872,-0.65307927,2.8174162,0.14521015,-0.29190782,0.94535899,0
-1.254148,2.6428769,-2.0850525,-0.14521015,0.29190782,-0.94535899,0
-2.8714445,-3.3168273,-0.16132259,-0.9782486,0.1006968,0.1813553,0
1.4549009,3.9516559,-0.085953236,0.14813372,0.95113081,0.27093613,0
2.2141333,3.6958849,0.39181542,0.14813372,0.95113081,0.27093613,0
0.72389364,3.1629803,3.4293947,0.14813372,0.95113081,0.27093613,0
-0.26800144,-3.8677797,-1.2450128,-0.14813372,-0.95113081,-0.27093613,0
-1.8592864,-3.9208837,-0.34177136,-0.14813372,-0.95113081,-0.27093613,0
1.8107235,-0.82405937,-3.1677601,0.9782486,-0.1006968,-0.1813553,0
-1.9581981,-3.1418045,-2.9278116,-0.14813372,-0.95113081,-0.27093613,0
-2.6908143,-4.0089655,1.9398426,-0.9782486,0.1006968,0.1813553,0
2.233474,-2.3634818,2.1691189,0.14521015,-0.29190782,0.94535899,0
1.8333049,-1.0433786,-3.707334,-0.14521015,0.29190782,-0.94535899,0
1.8829415,-0.56034517,2.6429338,0.14521015,-0.29190782,0.94535899,0
-0.88609767,-3.6866093,-1.6623719,-0.14813372,-0.95113081,-0.27093613,0
1.480124,2.8861051,3.8026717,0.14521015,-0.29190782,0.94535899,0
1.8423679,-4.1027651,-1.6943402,-0.14813372,-0.95113081,-0.27093613,0
-3.0469775,-2.8874652,-1.4046819,-0.9782486,0.1006968,0.1813553,0
1.307695,4.6178141,-1.8195519,0.14813372,0.95113081,0.27093613,0
0.10815114,-4.0908651,-0.34123945,-0.14813372,-0.95113081,-0.27093613,0
-3.2680068,-2.2960753,-2.6165009,-0.9782486,0.1006968,0.1813553,0
-0.92335796,2.1780076,-2.3744283,-0.14521015,0.29190782,-0.94535899,0
0.72338915,-2.4855449,2.3050749,0.14521015,-0.29190782,0.94535899,0
0.96084356,3.2418344,2.9975414,0.14813372,0.95113081,0.27093613,0
1.2462714,-2.265913,2.2277422,0.14521015,-0.29190782,0.94535899,0
1.9593673,-1.6425492,-1.9299948,0.9782486,-0.1006968,-0.1813553,0
0.5516243,-0.18137275,-3.2474515,-0.14521015,0.29190782,-0.94535899,0
2.6257567,3.6814811,-1.418478,0.9782486,-0.1006968,-0.1813553,0
-0.074550331,4.2431793,0.25079727,0.14813372,0.95113081,0.27093613,0
1.9716766,-3.0802033,1.8252351,0.14521015,-0.29190782,0.94535899,0
0.14673758,-3.5656891,-2.5813875,-0.14813372,-0.95113081,-0.27093613,0
2.3257127,-0.83625078,-1.0595076,0.9782486,-0.1006968,-0.1813553,0
0.095454216,-3.1296563,-4.192606,-0.14813372,-0.95113081,-0.27093613,0
1.3731236,3.5695601,1.561326,0.14813372,0.95113081,0.27093613,0
-0.657956,4.0933619,0.45628166,0.14813372,0.95113081,0.27093613,0
-0.19164658,-1.7750447,2.5507939,0.14521015,-0.29190782,0.94535899,0
-3.2292953,-2.7722058,-1.6907732,-0.9782486,0.1006968,0.1813553,0
-2.141118,-2.1302044,2.9350097,-0.9782486,0.1006968,0.1813553,0
-2.5898812,-4.2633448,1.7081394,-0.14813372,-0.95113081,-0.27093613,0
3.2947576,2.7124414,2.5047927,0.9782486,-0.1006968,-0.1813553,0
1.5680599,4.3768244,-2.1391137,-0.14521015,0.29190782,-0.94535899,0
1.081454,3.8716102,0.38000131,0.14813372,0.95113081,0.27093613,0
0.84890199,-4.2500167,-0.46445942,-0.14813372,-0.95113081,-0.27093613,0
2.0433252,3.4792423,1.5088899,0.14813372,0.95113081,0.27093613,0
2.7085342,-1.2833705,1.6001842,0.9782486,-0.1006968,-0.1813553,0
1.9231489,-2.4456735,-2.0903139,0.9782486,-0.1006968,-0.1813553,0
1.2758981,2.9826665,-2.5122266,-0.14521015,0.29190782,-0.94535899,0
2.0380669,-0.49167526,-2.3714986,0.9782486,-0.1006968,-0.1813553,0
-2.2737544,1.4808941,0.43242335,-0.9782486,0.1006968,0.1813553,0
-1.3224649,0.67368674,-2.827502,-0.14521015,0.29190782,-0.94535899,0
0.40713885,-4.4343443,0.8186903,-0.14813372,-0.95113081,-0.27093613,0
0.067130208,-4.3197737,1.8327491,0.14521015,-0.29190782,0.94535899,0
1.0891247,4.5214224,-1.3707087,0.14813372,0.95113081,0.27093613,0
1.1493368,3.4918847,1.9980035,0.14813372,0.95113081,0.27093613,0
-1.0420716,-0.22613382,-3.0987365,-0.14521015,0.29190782,-0.94535899,0
-2.2508032,-1.9839458,2.4707773,-0.9782486,0.1006968,0.1813553,0
2.7132421,-2.1144545,2.0214546,0.9782486,-0.1006968,-0.1813553,0
2.6873071,3.2325802,2.2107728,0.14813372,0.95113081,0.27093613,0
1.2095265,0.95439422,-3.0661368,-0.14521015,0.29190782,-0.94535899,0
-2.0112617,3.6365824,1.3774357,-0.9782486,0.1006968,0.1813553,0
0.40312576,1.8460469,-2.7207513,-0.14521015,0.29190782,-0.94535899,0
-1.7524452,2.3839111,3.0172935,-0.9782486,0.1006968,0.1813553,0
1.8606952,-2.8159318,-2.2295508,0.9782486,-0.1006968,-0.1813553,0
2.8447633,1.4804749,0.22928512,0.9782486,-0.1006968,-0.1813553,0
2.2087064,1.0691881,3.1399994,0.14521015,-0.29190782,0.94535899,0
-0.86807477,-4.2084084,2.0527604,0.14521015,-0.29190782,0.94535899,0
1.1523883,-3.2021971,-4.1034403,-0.14813372,-0.95113081,-0.27093613,0
1.6932631,3.6222711,-2.2251992,-0.14521015,0.29190782,-0.94535899,0
-2.6152229,-3.3219628,-1.3505154,-0.14813372,-0.95113081,-0.27093613,0
-2.4682939,-3.242137,2.0684211,-0.9782486,0.1006968,0.1813553,0
-0.50487971,-3.6586041,-1.7480161,-0.14813372,-0.95113081,-0.27093613,0
-1.5188646,0.29808474,-2.8831425,-0.14521015,0.29190782,-0.94535899,0
2.802155,2.8817978,3.4553928,0.14813372,0.95113081,0.27093613,0
2.1455157,-1.0531977,-1.4926574,0.9782486,-0.1006968,-0.1813553,0
2.5106273,0.93162465,2.9914131,0.14521015,-0.29190782,0.94535899,0
0.92946482,-0.96887064,2.7129195,0.14521015,-0.29190782,0.94535899,0
2.4988256,-1.9481995,0.2718482,0.9782486,-0.1006968,-0.1813553,0
-2.7257278,0.6813972,-2.5948291,-0.14521015,0.29190782,-0.94535899,0
-1.4109051,-4.378356,1.2593551,-0.14813372,-0.95113081,-0.27093613,0
-2.2294734,-0.48246467,2.5639274,-0.9782486,0.1006968,0.1813553,0
-1.816281,-2.1313446,2.8495145,0.14521015,-0.29190782,0.94535899,0
-0.62165403,-3.1599975,-3.3384738,-0.14813372,-0.95113081,-0.27093613,0
-2.6388156,-0.18237209,-0.15125585,-0.9782486,0.1006968,0.1813553,0
-2.6170564,-3.8629169,1.789701,-0.9782486,0.1006968,0.1813553,0
3.2807691,1.6764834,2.5169797,0.9782486,-0.1006968,-0.1813553,0
1.5339658,0.82465982,3.2355747,0.14521015,-0.29190782,0.94535899,0
-2.7577801,-2.1348457,-0.25686157,-0.9782486,0.1006968,0.1813553,0
-1.4687833,4.2382627,0.73067665,0.14813372,0.95113081,0.27093613,0
2.764658,-1.2507915,1.9696521,0.9782486,-0.1006968,-0.1813553,0
-0.80599427,3.7579513,2.3151054,0.14813372,0.95113081,0.27093613,0
-0.91989398,-0.94656277,-3.3502076,-0.14521015,0.29190782,-0.94535899,0
3.0095425,2.0106831,1.4212916,0.9782486,-0.1006968,-0.1813553,0
-1.958216,-1.45976,3.1268373,0.14521015,-0.29190782,0.94535899,0
2.4206088,-1.7281458,0.51511955,0.9782486,-0.1006968,-0.1813553,0
-1.3831711,2.0225782,-2.2786646,-0.14521015,0.29190782,-0.94535899,0
1.9584541,-0.97915244,-2.6288676,0.9782486,-0.1006968,-0.1813553,0
2.5724711,-2.7392011,1.8624607,0.14521015,-0.29190782,0.94535899,0
-1.8918419,2.19697,2.6334224,-0.9782486,0.1006968,0.1813553,0
1.250952,-2.4340854,2.1956332,0.14521015,-0.29190782,0.94535899,0
-2.198802,-3.2635095,-2.2244365,-0.14813372,-0.95113081,-0.27093613,0
0.69098878,3.4045751,2.1001887,0.14813372,0.95113081,0.27093613,0
2.4016533,-4.4596081,1.2317719,0.9782486,-0.1006968,-0.1813553,0
-0.63337064,-3.5782428,-2.0721469,-0.14813372,-0.95113081,-0.27093613,0
-2.0181723,-0.43750417,2.8845413,-0.9782486,0.1006968,0.1813553,0
1.7095364,-4.2606091,-1.0715494,-0.14813372,-0.95113081,-0.27093613,0
2.5565531,2.0574975,-1.3385321,0.9782486,-0.1006968,-0.1813553,0
2.5806124,-2.2138674,1.7734061,0.9782486,-0.1006968,-0.1813553,0
2.9837654,1.8169652,1.0006404,0.9782486,-0.1006968,-0.1813553,0
-1.5399669,-3.4256792,-1.5806606,-0.14813372,-0.95113081,-0.27093613,0
0.39317524,3.8774993,0.59998703,0.14813372,0.95113081,0.27093613,0
-0.65628886,-0.60410464,-3.1933944,-0.14521015,0.29190782,-0.94535899,0
-0.53783745,-4.5652332,1.5195482,-0.14813372,-0.95113081,-0.27093613,0
1.1287029,-4.1519451,1.7847109,0.14521015,-0.29190782,0.94535899,0
2.5777397,1.5966007,-0.70915473,0.9782486,-0.1006968,-0.1813553,0
-0.23535633,-4.4905758,1.8538108,0.14521015,-0.29190782,0.94535899,0
-2.55146,-1.3469279,0.66245961,-0.9782486,0.1006968,0.1813553,0
-1.4454805,3.8008022,1.9855485,0.14813372,0.95113081,0.27093613,0
1.9929969,-0.14367604,-2.4248276,0.9782486,-0.1006968,-0.1813553,0
2.4706192,-0.064864397,-0.16153598,0.9782486,-0.1006968,-0.1813553,0
-0.85796529,-4.454967,1.0843065,-0.14813372,-0.95113081,-0.27093613,0
-2.3707154,2.5088038,-0.72477269,-0.9782486,0.1006968,0.1813553,0
3.117337,1.1179943,1.8735608,0.9782486,-0.1006968,-0.1813553,0
1.6984284,-4.3697195,-0.69219112,-0.14813372,-0.95113081,-0.27093613,0
2.541955,0.28832769,-0.54025126,0.9782486,-0.1006968,-0.1813553,0
0.97822332,-4.0535669,-0.92613363,-0.14813372,-0.95113081,-0.27093613,0
-2.9091687,-3.0149059,-2.8835087,-0.14813372,-0.95113081,-0.27093613,0
2.5889039,3.757149,-1.8870314,0.9782486,-0.1006968,-0.1813553,0
1.5043463,1.5063506,-3.0016043,-0.14521015,0.29190782,-0.94535899,0
0.88750648,3.8985517,0.71386003,0.14813372,0.95113081,0.27093613,0
0.27794981,-3.227643,-3.8165715,-0.14813372,-0.95113081,-0.27093613,0
1.2459543,4.3281302,-0.80031681,0.14813372,0.95113081,0.27093613,0
1.5323269,-3.2084374,-3.946146,0.9782486,-0.1006968,-0.1813553,0
2.5866489,1.1858468,-0.31006649,0.9782486,-0.1006968,-0.1813553,0
-2.3477671,-1.9305825,2.4378524,-0.9782486,0.1006968,0.1813553,0
-1.0581968,-0.16939534,3.3406904,0.14521015,-0.29190782,0.94535899,0
0.082614899,-3.1561642,-3.4607728,-0.14813372,-0.95113081,-0.27093613,0
3.2771261,2.0708165,3.1782036,0.9782486,-0.1006968,-0.1813553,0
-0.43200183,0.66631883,3.4246778,0.14521015,-0.29190782,0.94535899,0
-0.26362658,-2.5403159,2.447726,0.14521015,-0.29190782,0.94535899,0
-1.5846586,1.9264143,4.0501428,0.14521015,-0.29190782,0.94535899,0
2.7338927,3.1725538,1.8206701,0.14813372,0.95113081,0.27093613,0
2.4674745,4.2279363,-1.0856547,0.14813372,0.95113081,0.27093613,0
2.6269743,0.48854399,2.9923482,0.14521015,-0.29190782,0.94535899,0
-2.2119107,-0.48117852,1.9764168,-0.9782486,0.1006968,0.1813553,0
0.25953209,3.9386213,-2.0460799,-0.14521015,0.29190782,-0.94535899,0
1.7221503,2.8945062,3.5465827,0.14813372,0.95113081,0.27093613,0
0.27199537,4.5950613,-1.2312486,0.14813372,0.95113081,0.27093613,0
1.7325753,4.4630966,-2.1435785,-0.14521015,0.29190782,-0.94535899,0
1.6875544,-2.6836734,2.0722923,0.14521015,-0.29190782,0.94535899,0
2.0226316,-4.0400887,1.5626967,0.14521015,-0.29190782,0.94535899,0
-0.36034596,-2.8827541,2.2905865,0.14521015,-0.29190782,0.94535899,0
-2.8009422,0.068635464,-1.1268644,-0.9782486,0.1006968,0.1813553,0
-0.082244456,4.5371671,-1.0666938,0.14813372,0.95113081,0.27093613,0
-0.93414927,4.3979387,-0.23938608,0.14813372,0.95113081,0.27093613,0
2.0229666,0.56420976,-3.2999547,-0.14521015,0.29190782,-0.94535899,0
2.0496049,-0.29681313,-2.6337624,0.9782486,-0.1006968,-0.1813553,0
2.7490766,-0.67494035,2.6051226,0.14521015,-0.29190782,0.94535899,0
0.88083905,4.2721648,-0.61217594,0.14813372,0.95113081,0.27093613,0
-1.1054357,3.7218046,-1.93312,-0.14521015,0.29190782,-0.94535899,0
-1.6799285,-0.4573698,3.1867664,0.14521015,-0.29190782,0.94535899,0
1.1003178,4.0859499,-2.1298985,-0.14521015,0.29190782,-0.94535899,0
-1.5883777,0.49549818,-2.854053,-0.14521015,0.29190782,-0.94535899,0
3.0226307,1.7102528,1.6055458,0.9782486,-0.1006968,-0.1813553,0
-0.25831223,3.1864631,3.5463941,0.14813372,0.95113081,0.27093613,0
0.9012143,-4.0103445,-1.041203,-0.14813372,-0.95113081,-0.27093613,0
0.4777981,4.4934568,-1.9554965,-0.14521015,0.29190782,-0.94535899,0
1.7203357,-3.3368225,-2.776268,0.9782486,-0.1006968,-0.1813553,0
-1.2975529,-2.2944753,2.6203921,0.14521015,-0.29190782,0.94535899,0
2.8465788,0.65099788,2.851712,0.14521015,-0.29190782,0.94535899,0
1.9615819,-1.0889513,-2.567606,0.9782486,-0.1006968,-0.1813553,0
-0.50266957,-2.2289445,2.505559,0.14521015,-0.29190782,0.94535899,0
1.9919016,-3.0293231,1.9520168,0.14521015,-0.29190782,0.94535899,0
2.230123,-0.75451827,-1.1027176,0.9782486,-0.1006968,-0.1813553,0
2.2272353,4.3600283,-1.777822,0.14813372,0.95113081,0.27093613,0
-0.17213142,3.8429847,1.1443872,0.14813372,0.95113081,0.27093613,0
2.6687546,2.6393876,-0.79803658,0.9782486,-0.1006968,-0.1813553,0
2.205816,1.3732154,-2.4277925,0.9782486,-0.1006968,-0.1813553,0
3.378773,2.9116082,2.5773981,0.9782486,-0.1006968,-0.1813553,0
-0.23660445,2.8502691,-2.2306199,-0.14521015,0.29190782,-0.94535899,0
-0.28030729,-3.3746436,-2.7885613,-0.14813372,-0.95113081,-0.27093613,0
2.5315032,1.0739031,3.1806147,0.14521015,-0.29190782,0.94535899,0
-0.37055564,-3.9992251,-0.78357935,-0.14813372,-0.95113081,-0.27093613,0
-2.2760053,4.7577419,-1.1069531,-0.9782486,0.1006968,0.1813553,0
2.9715402,1.0505686,3.1381888,0.14521015,-0.29190782,0.94535899,0
-2.2286623,-0.23506653,1.9402889,-0.9782486,0.1006968,0.1813553,0
-1.2120788,3.9203348,1.4657979,0.14813372,0.95113081,0.27093613,0
2.882344,1.6928568,0.91233325,0.9782486,-0.1006968,-0.1813553,0
-2.426091,-2.9742186,-3.1278713,-0.14813372,-0.95113081,-0.27093613,0
0.25553519,-4.4946942,0.53543663,-0.14813372,-0.95113081,-0.27093613,0
0.15075874,1.5442038,3.5741031,0.14521015,-0.29190782,0.94535899,0
-1.8654964,2.8029408,1.693114,-0.9782486,0.1006968,0.1813553,0
3.2461019,1.4101055,2.5965402,0.9782486,-0.1006968,-0.1813553,0
-0.39483452,-4.0848904,-0.50514984,-0.14813372,-0.95113081,-0.27093613,0
-1.1564333,3.6829903,2.5955195,0.14813372,0.95113081,0.27093613,0
-2.8262146,-0.58380723,-2.8218012,-0.14521015,0.29190782,-0.94535899,0
-2.3657358,2.6049597,-0.93535852,-0.9782486,0.1006968,0.1813553,0
-0.83160919,4.6729574,-0.89711428,0.14813372,0.95113081,0.27093613,0
0.75127506,3.6308217,1.631197,0.14813372,0.95113081,0.27093613,0
-1.3134562,-2.6331251,2.4723854,0.14521015,-0.29190782,0.94535899,0
-2.8889024,0.25801587,-2.4897976,-0.9782486,0.1006968,0.1813553,0
2.6291466,2.158617,-0.80527139,0.9782486,-0.1006968,-0.1813553,0
-1.5279632,2.9528883,3.3883364,-0.9782486,0.1006968,0.1813553,0
-0.65911013,-3.9852538,-0.36649847,-0.14813372,-0.95113081,-0.27093613,0
1.5879021,3.0614827,2.9490247,0.14813372,0.95113081,0.27093613,0
-2.6141605,-1.8362393,0.94538367,-0.9782486,0.1006968,0.1813553,0
2.8452756,-0.37280345,2.1408231,0.9782486,-0.1006968,-0.1813553,0
0.60544109,2.6280048,3.8972816,0.14521015,-0.29190782,0.94535899,0
0.73719764,1.3496538,-2.7706614,-0.14521015,0.29190782,-0.94535899,0
2.5146034,3.5453908,0.60685992,0.14813372,0.95113081,0.27093613,0
2.3587334,2.114831,-2.1857011,0.9782486,-0.1006968,-0.1813553,0
2.3453784,-1.5110214,-0.4474299,0.9782486,-0.1006968,-0.1813553,0
-0.22396231,3.1813087,3.8883417,0.14813372,0.95113081,0.27093613,0
-2.2876327,-4.3271875,2.25913,0.14521015,-0.29190782,0.94535899,0
-2.3322122,1.326659,0.24789643,-0.9782486,0.1006968,0.1813553,0
0.35410464,3.0971854,-2.1683533,-0.14521015,0.29190782,-0.94535899,0
1.2683182,2.2217882,3.7249906,0.14521015,-0.29190782,0.94535899,0
1.1616561,-4.7694597,1.5119548,-0.14813372,-0.95113081,-0.27093613,0
-1.302761,-3.7353187,-0.90233254,-0.14813372,-0.95113081,-0.27093613,0
-3.017518,-3.4890451,-1.0304399,-0.14813372,-0.95113081,-0.27093613,0
-1.1749467,-4.4758863,1.5599747,-0.14813372,-0.95113081,-0.27093613,0
-1.3544681,4.3012285,0.43879128,0.14813372,0.95113081,0.27093613,0
0.012755871,4.5731206,-1.0771103,0.14813372,0.95113081,0.27093613,0
0.30942917,-0.68799222,-3.3445048,-0.14521015,0.29190782,-0.94535899,0
0.3461951,-3.9745748,1.8813372,0.14521015,-0.29190782,0.94535899,0
2.7817695,0.95016384,0.53427911,0.9782486,-0.1006968,-0.1813553,0
-1.9667448,3.5617161,1.1692548,-0.9782486,0.1006968,0.1813553,0
-2.1239414,-1.593469,-3.2705464,-0.14521015,0.29190782,-0.94535899,0
-1.0590219,-0.70807898,-3.1384242,-0.14521015,0.29190782,-0.94535899,0
-2.7195485,0.99239659,-2.4133234,-0.14521015,0.29190782,-0.94535899,0
2.4159784,2.3848381,-2.037679,0.9782486,-0.1006968,-0.1813553,0
0.23843789,1.3349769,-2.7692192,-0.14521015,0.29190782,-0.94535899,0
1.2505555,1.4715707,3.5148029,0.14521015,-0.29190782,0.94535899,0
-0.22627497,3.2369835,3.3147848,0.14813372,0.95113081,0.27093613,0
2.0649085,-2.4418983,-1.7893476,0.9782486,-0.1006968,-0.1813553,0
2.6800551,1.515182,-0.087798774,0.9782486,-0.1006968,-0.1813553,0
-1.6615729,-3.2521017,-2.2184744,-0.14813372,-0.95113081,-0.27093613,0
0.8638739,-4.1280727,-0.76804018,-0.14813372,-0.95113081,-0.27093613,0
0.0092456341,-0.47476423,-3.4002709,-0.14521015,0.29190782,-0.94535899,0
2.7222373,-0.65855169,1.3350437,0.9782486,-0.1006968,-0.1813553,0
1.7444929,-4.0115256,-1.5540967,-0.14813372,-0.95113081,-0.27093613,0
-2.2702324,4.0532627,-1.5115881,-0.14521015,0.29190782,-0.94535899,0
-1.9822202,0.29514813,-2.7122746,-0.14521015,0.29190782,-0.94535899,0
1.8324931,3.738415,0.85042095,0.14813372,0.95113081,0.27093613,0
-0.66953826,-4.6207218,1.5720234,-0.14813372,-0.95113081,-0.27093613,0
-1.1474252,-3.9080317,-0.19148946,-0.14813372,-0.95113081,-0.27093613,0
-0.62217605,3.0133064,-2.1775012,-0.14521015,0.29190782,-0.94535899,0
-2.4935744,-4.5091085,2.0926113,-0.14813372,-0.95113081,-0.27093613,0
2.0759115,0.70250297,-2.7687182,0.9782486,-0.1006968,-0.1813553,0
-0.65093565,-1.9876333,-3.7826393,-0.14521015,0.29190782,-0.94535899,0
2.200691,-2.3332071,-0.7196002,0.9782486,-0.1006968,-0.1813553,0
-1.6041155,-2.0063181,2.7864656,0.14521015,-0.29190782,0.94535899,0
-2.3812404,2.022917,0.29374719,-0.9782486,0.1006968,0.1813553,0
0.4426949,1.360432,-2.9005094,-0.14521015,0.29190782,-0.94535899,0
-1.6452305,-3.6628027,-1.0658937,-0.14813372,-0.95113081,-0.27093613,0
-1.0419533,4.4849939,-1.6812804,-0.14521015,0.29190782,-0.94535899,0
1.8802236,-1.6384538,-2.5511138,0.9782486,-0.1006968,-0.1813553,0
-1.5508645,4.492187,0.075570583,0.14813372,0.95113081,0.27093613,0
-2.9392531,-2.1154981,-0.88582015,-0.9782486,0.1006968,0.1813553,0
0.093717813,3.2979283,2.9045866,0.14813372,0.95113081,0.27093613,0
1.4735374,3.9304907,-2.2613144,-0.14521015,0.29190782,-0.94535899,0
-0.61558813,4.0187778,0.91185522,0.14813372,0.95113081,0.27093613,0
0.095054865,3.5105133,2.3389359,0.14813372,0.95113081,0.27093613,0
-0.83851862,3.7154198,2.0494108,0.14813372,0.95113081,0.27093613,0
2.0313981,-3.218049,-1.3197789,0.9782486,-0.1006968,-0.1813553,0
-2.4950964,0.63449788,0.057207465,-0.9782486,0.1006968,0.1813553,0
-0.5691309,-3.1885126,-3.5448205,-0.14813372,-0.95113081,-0.27093613,0
2.5321572,2.8415577,-1.9611437,0.9782486,-0.1006968,-0.1813553,0
2.2194972,1.8337654,3.4206371,0.14521015,-0.29190782,0.94535899,0
2.8912714,1.5150909,1.1813395,0.9782486,-0.1006968,-0.1813553,0
-0.18295303,-4.5789318,1.0704951,-0.14813372,-0.95113081,-0.27093613,0
2.4064927,3.6058874,1.146095,0.14813372,0.95113081,0.27093613,0
-1.5360527,-2.0940795,-3.6489997,-0.14521015,0.29190782,-0.94535899,0
-1.4945173,1.8683565,-2.4052525,-0.14521015,0.29190782,-0.94535899,0
-0.39114183,4.2484708,-0.040424347,0.14813372,0.95113081,0.27093613,0
-2.6132245,-2.154798,0.93739748,-0.9782486,0.1006968,0.1813553,0
-2.0941577,-3.4231358,-1.4723163,-0.14813372,-0.95113081,-0.27093613,0
2.5537448,-2.8041208,1.8425188,0.14521015,-0.29190782,0.94535899,0
-1.8354561,3.732343,2.3336787,-0.9782486,0.1006968,0.1813553,0
2.7959459,0.59582043,0.41883951,0.9782486,-0.1006968,-0.1813553,0
2.561573,0.7403717,-0.54565275,0.9782486,-0.1006968,-0.1813553,0
2.3618731,0.60249245,-1.531651,0.9782486,-0.1006968,-0.1813553,0
2.0506873,-2.0300136,-1.5170636,0.9782486,-0.1006968,-0.1813553,0
0.98024511,-3.3790221,-3.7411685,-0.14813372,-0.95113081,-0.27093613,0
-1.5634243,-3.3704963,-1.937454,-0.14813372,-0.95113081,-0.27093613,0
1.7315538,-2.5108633,-2.9765627,0.9782486,-0.1006968,-0.1813553,0
-2.4373827,2.8816826,-0.97904515,-0.9782486,0.1006968,0.1813553,0
-0.50048327,1.2163794,-2.76283,-0.14521015,0.29190782,-0.94535899,0
-0.19321012,-1.3436391,-3.478462,-0.14521015,0.29190782,-0.94535899,0
-1.5436301,3.0931635,-1.9490994,-0.14521015,0.29190782,-0.94535899,0
1.7441955,-4.4836636,0.11520767,-0.14813372,-0.95113081,-0.27093613,0
2.3407526,2.3279705,-1.9427046,0.9782486,-0.1006968,-0.1813553,0
2.3623037,2.5506506,-2.6584718,0.9782486,-0.1006968,-0.1813553,0
2.9280157,2.3237076,3.4958677,0.14521015,-0.29190782,0.94535899,0
0.22878027,3.1947107,3.7693079,0.14813372,0.95113081,0.27093613,0
-1.2907145,1.2210237,3.8278217,0.14521015,-0.29190782,0.94535899,0
2.6873517,1.9308189,-0.8274045,0.9782486,-0.1006968,-0.1813553,0
-1.2982347,-4.5404243,1.5484667,-0.14813372,-0.95113081,-0.27093613,0
-2.5793872,-3.3795125,1.9175,-0.9782486,0.1006968,0.1813553,0
-2.8195095,-2.595669,-3.5887709,-0.14521015,0.29190782,-0.94535899,0
-1.0757377,1.1136618,-2.5596495,-0.14521015,0.29190782,-0.94535899,0
0.20291328,-3.100805,-4.1107206,-0.14813372,-0.95113081,-0.27093613,0
2.0300586,3.2037439,2.5052609,0.14813372,0.95113081,0.27093613,0
2.7787519,-0.77151394,1.7916081,0.9782486,-0.1006968,-0.1813553,0
0.13330793,-2.6585193,-4.1078062,-0.14521015,0.29190782,-0.94535899,0
2.622695,-0.82591558,1.1388947,0.9782486,-0.1006968,-0.1813553,0
-3.1538339,-3.191108,-1.1719503,-0.9782486,0.1006968,0.1813553,0
-2.5265975,-2.2652516,-3.3895721,-0.14521015,0.29190782,-0.94535899,0
0.43643403,4.618084,-1.8966217,-0.14521015,0.29190782,-0.94535899,0
0.2997297,3.9202881,-2.0445006,-0.14521015,0.29190782,-0.94535899,0
1.5688834,4.1652451,-1.0605402,0.14813372,0.95113081,0.27093613,0
-0.39421201,-3.7536287,-1.5994842,-0.14813372,-0.95113081,-0.27093613,0
1.7475792,-3.8752499,-2.0248718,-0.14813372,-0.95113081,-0.27093613,0
2.4039145,-4.3644886,1.130506,0.9782486,-0.1006968,-0.1813553,0
-2.1100945,3.5963273,0.62126732,-0.9782486,0.1006968,0.1813553,0
-2.2467487,1.7587745,-2.2943294,-0.14521015,0.29190782,-0.94535899,0
2.1497729,-1.3296504,-1.9703598,0.9782486,-0.1006968,-0.1813553,0
-2.7596054,1.1102977,-2.068336,-0.9782486,0.1006968,0.1813553,0
-2.3058977,-3.4258921,-1.1783562,-0.14813372,-0.95113081,-0.27093613,0
0.23719954,-2.5533309,2.2829773,0.14521015,-0.29190782,0.94535899,0
-2.1533582,2.9871058,0.97880578,-0.9782486,0.1006968,0.1813553,0
-2.2161136,2.1637657,0.45219707,-0.9782486,0.1006968,0.1813553,0
0.99744058,1.4695873,3.3689442,0.14521015,-0.29190782,0.94535899,0
1.2428482,-1.7067754,2.5006459,0.14521015,-0.29190782,0.94535899,0
-2.4601612,0.79981017,0.19072807,-0.9782486,0.1006968,0.1813553,0
-2.9483619,-1.0655942,-1.6328547,-0.9782486,0.1006968,0.1813553,0
-1.187657,-3.6822395,-0.85619402,-0.14813372,-0.95113081,-0.27093613,0
-2.5962715,-0.27510715,-0.13871178,-0.9782486,0.1006968,0.1813553,0
0.34777474,-0.70610774,-3.3719954,-0.14521015,0.29190782,-0.94535899,0
-1.8903072,2.8030002,2.0634925,-0.9782486,0.1006968,0.1813553,0
-0.39487964,4.0375047,0.50919485,0.14813372,0.95113081,0.27093613,0
2.1216772,-0.24497128,2.7351365,0.14521015,-0.29190782,0.94535899,0
-1.4468303,3.7218387,2.4128714,0.14813372,0.95113081,0.27093613,0
-0.20457554,2.5045393,-2.2693088,-0.14521015,0.29190782,-0.94535899,0
2.0618839,-0.61419046,-2.0986438,0.9782486,-0.1006968,-0.1813553,0
-2.9049139,-0.55307841,-2.90646,-0.14521015,0.29190782,-0.94535899,0
0.060309589,4.4121695,-0.68293524,0.14813372,0.95113081,0.27093613,0
2.4221385,-2.6256864,0.7052896,0.9782486,-0.1006968,-0.1813553,0
1.8770854,3.3491659,-2.3722839,-0.14521015,0.29190782,-0.94535899,0
2.3728509,-0.560256,-0.33613122,0.9782486,-0.1006968,-0.1813553,0
-1.1471009,-1.8726926,-3.6639073,-0.14521015,0.29190782,-0.94535899,0
-0.8073498,3.7345304,1.9553294,0.14813372,0.95113081,0.27093613,0
-0.53038645,-2.1859639,-3.6927295,-0.14521015,0.29190782,-0.94535899,0
2.3276417,0.58857274,2.9036956,0.14521015,-0.29190782,0.94535899,0
1.4175889,3.7885466,0.41508222,0.14813372,0.95113081,0.27093613,0
2.7514975,0.516078,2.8157663,0.14521015,-0.29190782,0.94535899,0
2.2977512,-1.8458452,-0.26268673,0.9782486,-0.1006968,-0.1813553,0
1.2368703,0.84106326,-3.0262444,-0.14521015,0.29190782,-0.94535899,0
2.0943055,1.0030227,3.0860009,0.14521015,-0.29190782,0.94535899,0
2.0185974,-3.6288526,-1.0923343,0.9782486,-0.1006968,-0.1813553,0
0.84291887,0.41058627,-3.2606287,-0.14521015,0.29190782,-0.94535899,0
2.3407822,2.9653592,3.3096607,0.14813372,0.95113081,0.27093613,0
0.72775984,-3.1873136,-4.2159195,-0.14521015,0.29190782,-0.94535899,0
0.47820973,-3.8253276,-1.5550437,-0.14813372,-0.95113081,-0.27093613,0
-0.34627652,-3.7933149,2.1317708,0.14521015,-0.29190782,0.94535899,0
-2.4449954,2.0184624,-0.7183075,-0.9782486,0.1006968,0.1813553,0
-1.5924556,4.5547009,-0.51098633,0.14813372,0.95113081,0.27093613,0
-2.4278283,-0.23392749,0.60473174,-0.9782486,0.1006968,0.1813553,0
0.066671371,2.5576835,3.9849646,0.14521015,-0.29190782,0.94535899,0
-2.8238952,-2.8223209,0.060059547,-0.9782486,0.1006968,0.1813553,0
2.4699321,3.3276837,1.7135541,0.14813372,0.95113081,0.27093613,0
-1.0547532,-3.8936749,-0.18388581,-0.14813372,-0.95113081,-0.27093613,0
2.4132476,-0.1828084,-0.2775529,0.9782486,-0.1006968,-0.1813553,0
2.1092215,0.051209331,-2.0095935,0.9782486,-0.1006968,-0.1813553,0
-2.3729949,3.7060995,-1.1635661,-0.9782486,0.1006968,0.1813553,0
-2.1989059,4.4680004,-0.47324419,-0.9782486,0.1006968,0.1813553,0
-1.4693904,3.0054107,3.8360887,-0.9782486,0.1006968,0.1813553,0
-0.4818604,0.3059817,3.383924,0.14521015,-0.29190782,0.94535899,0
2.3850684,0.69722581,3.1265788,0.14521015,-0.29190782,0.94535899,0
2.6653888,1.3009562,-0.074051023,0.9782486,-0.1006968,-0.1813553,0
-2.6852293,-1.2732365,0.18167263,-0.9782486,0.1006968,0.1813553,0
1.9718745,1.3889971,3.3447413,0.14521015,-0.29190782,0.94535899,0
2.8672986,0.88086438,1.076666,0.9782486,-0.1006968,-0.1813553,0
-1.5640781,-0.32900757,3.3577476,0.14521015,-0.29190782,0.94535899,0
-1.4203489,-3.208123,-2.9726963,-0.14813372,-0.95113081,-0.27093613,0
-0.077424049,3.4447351,2.6025662,0.14813372,0.95113081,0.27093613,0
-0.83974159,-4.5081587,1.2389648,-0.14813372,-0.95113081,-0.27093613,0
-0.0042437315,3.1821353,-2.1222568,-0.14521015,0.29190782,-0.94535899,0
2.831177,2.7222695,3.2988718,0.14813372,0.95113081,0.27093613,0
-2.2772081,-3.0692098,2.5750859,0.14521015,-0.29190782,0.94535899,0
1.4767802,-3.1355231,1.9476664,0.14521015,-0.29190782,0.94535899,0
1.7424078,-0.878353,-3.7505982,-0.14521015,0.29190782,-0.94535899,0
-0.12980008,-3.5125048,-2.4790633,-0.14813372,-0.95113081,-0.27093613,0
2.1355076,-1.4836711,-1.8861327,0.9782486,-0.1006968,-0.1813553,0
-2.3294168,-4.347826,2.1315415,-0.14813372,-0.95113081,-0.27093613,0
-3.1053946,-1.3557775,-2.215615,-0.9782486,0.1006968,0.1813553,0
2.6272173,3.212393,-1.3736378,0.9782486,-0.1006968,-0.1813553,0
2.7108424,-2.2671154,1.7731338,0.9782486,-0.1006968,-0.1813553,0
-0.54781628,3.7426648,2.197629,0.14813372,0.95113081,0.27093613,0
-1.7558839,2.3109024,3.126982,-0.9782486,0.1006968,0.1813553,0
-1.1866832,-0.78825223,3.0372319,0.14521015,-0.29190782,0.94535899,0
1.7743274,-3.5064373,1.9062803,0.14521015,-0.29190782,0.94535899,0
-0.33717304,4.2120099,0.42836714,0.14813372,0.95113081,0.27093613,0
-0.67694402,-3.871552,-0.60693121,-0.14813372,-0.95113081,-0.27093613,0
-1.1440547,1.5715096,-2.5634363,-0.14521015,0.29190782,-0.94535899,0
-3.0277662,-3.6134243,-0.30433226,-0.9782486,0.1006968,0.1813553,0
2.5884891,-0.80207276,0.79089212,0.9782486,-0.1006968,-0.1813553,0
-2.8373339,-2.6393924,0.43170857,-0.9782486,0.1006968,0.1813553,0
-0.49829674,-0.79672492,3.1002038,0.14521015,-0.29190782,0.94535899,0
-2.0604026,-3.9009476,0.0049724579,-0.14813372,-0.95113081,-0.27093613,0
0.16047359,4.7068939,-1.7468059,-0.14521015,0.29190782,-0.94535899,0
-0.21554279,-1.2742523,2.7655444,0.14521015,-0.29190782,0.94535899,0
-1.9404124,1.6119019,2.2012389,-0.9782486,0.1006968,0.1813553,0
-1.7267189,0.025630713,-2.8718703,-0.14521015,0.29190782,-0.94535899,0
-0.28883004,-1.0741031,-3.440918,-0.14521015,0.29190782,-0.94535899,0
1.2178605,1.9335637,-2.8648229,-0.14521015,0.29190782,-0.94535899,0
0.85792327,1.6832454,3.4939311,0.14521015,-0.29190782,0.94535899,0
2.6647081,-1.6418674,0.94886947,0.9782486,-0.1006968,-0.1813553,0
-0.54227781,-3.2397656,-3.3970022,-0.14813372,-0.95113081,-0.27093613,0
-0.58505011,0.74057019,-2.7668281,-0.14521015,0.29190782,-0.94535899,0
-0.28963304,-3.3668911,-3.1042342,-0.14813372,-0.95113081,-0.27093613,0
-0.39906305,-4.5648956,1.3386943,-0.14813372,-0.95113081,-0.27093613,0
2.3687041,3.7351413,0.075068235,0.14813372,0.95113081,0.27093613,0
2.3641548,-3.1761746,1.9183066,0.14521015,-0.29190782,0.94535899,0
2.6984913,-0.32441974,1.1472162,0.9782486,-0.1006968,-0.1813553,0
-0.4512372,1.7922784,3.7090783,0.14521015,-0.29190782,0.94535899,0
0.25638831,4.0721831,-1.9113863,-0.14521015,0.29190782,-0.94535899,0
0.044115841,-4.1628013,0.04079628,-0.14813372,-0.95113081,-0.27093613,0
2.8887043,1.6654019,3.2436385,0.14521015,-0.29190782,0.94535899,0
-1.7456822,1.026256,3.6624765,0.14521015,-0.29190782,0.94535899,0
1.8176848,-2.3352962,-2.9226747,0.9782486,-0.1006968,-0.1813553,0
-0.51902103,-2.0224586,-3.7118433,-0.14521015,0.29190782,-0.94535899,0
1.762068,-2.5480087,-3.08518,0.9782486,-0.1006968,-0.1813553,0
2.8776531,1.5164262,0.40403199,0.9782486,-0.1006968,-0.1813553,0
-2.1677337,1.8134773,1.1974661,-0.9782486,0.1006968,0.1813553,0
1.0959401,-1.5961261,2.5813122,0.14521015,-0.29190782,0.94535899,0
-2.7900019,-2.564208,-0.36308718,-0.9782486,0.1006968,0.1813553,0
2.4475551,-0.71613407,-0.12567151,0.9782486,-0.1006968,-0.1813553,0
0.10559154,-3.5936599,-2.3083065,-0.14813372,-0.95113081,-0.27093613,0
-2.6798429,-3.585891,-0.69664574,-0.14813372,-0.95113081,-0.27093613,0
-2.0301008,3.0557604,0.87608886,-0.9782486,0.1006968,0.1813553,0
-1.9090524,-0.96295953,-3.1860287,-0.14521015,0.29190782,-0.94535899,0
-1.3035513,4.232542,0.55493927,0.14813372,0.95113081,0.27093613,0
0.78593397,2.5470903,-2.5603051,-0.14521015,0.29190782,-0.94535899,0
-3.1344557,-1.8061109,-2.5566616,-0.9782486,0.1006968,0.1813553,0
-2.8795991,-0.72394013,-0.85576254,-0.9782486,0.1006968,0.1813553,0
0.48045158,-0.46846133,-3.308291,-0.14521015,0.29190782,-0.94535899,0
1.8421264,-3.5915279,-1.6715708,0.9782486,-0.1006968,-0.1813553,0
-2.0350025,2.6196384,1.7519805,-0.9782486,0.1006968,0.1813553,0
-1.8296096,-3.5849071,-0.90022397,-0.14813372,-0.95113081,-0.27093613,0
1.5871345,4.4014487,-1.8223398,0.14813372,0.95113081,0.27093613,0
-1.0099204,0.16014791,-3.0531991,-0.14521015,0.29190782,-0.94535899,0
0.18122959,3.5265017,2.1152833,0.14813372,0.95113081,0.27093613,0
-2.7406511,-2.9048791,-2.888736,-0.14813372,-0.95113081,-0.27093613,0
-3.0335011,-1.3199842,-2.3183248,-0.9782486,0.1006968,0.1813553,0
2.1807415,2.8844676,3.230263,0.14813372,0.95113081,0.27093613,0
-0.66725945,3.3214953,3.3094883,0.14813372,0.95113081,0.27093613,0
-1.7106187,3.1677017,2.8910451,-0.9782486,0.1006968,0.1813553,0
-2.3492689,2.9711249,-1.9691417,-0.14521015,0.29190782,-0.94535899,0
1.3767259,-1.8406281,-4.0362053,-0.14521015,0.29190782,-0.94535899,0
-3.190551,-1.8550708,-1.9300015,-0.9782486,0.1006968,0.1813553,0
-2.5989423,-3.3759656,1.1294861,-0.9782486,0.1006968,0.1813553,0
0.2761842,3.0508716,-2.2055035,-0.14521015,0.29190782,-0.94535899,0
-0.79852343,-1.9600347,2.627661,0.14521015,-0.29190782,0.94535899,0
-0.7001335,-4.2409525,0.31037664,-0.14813372,-0.95113081,-0.27093613,0
1.0461841,0.20840549,-3.1974638,-0.14521015,0.29190782,-0.94535899,0
2.117065,-3.1719937,-0.97967196,0.9782486,-0.1006968,-0.1813553,0
-1.5976496,-3.0055416,-3.6839895,-0.14813372,-0.95113081,-0.27093613,0
2.5629368,1.8336042,-0.96323824,0.9782486,-0.1006968,-0.1813553,0
-1.0453079,-2.199667,2.7218821,0.14521015,-0.29190782,0.94535899,0
1.6495633,2.980926,3.1046033,0.14813372,0.95113081,0.27093613,0
-0.79328322,0.56464541,3.5728693,0.14521015,-0.29190782,0.94535899,0
-2.1732833,3.5119302,-0.12253523,-0.9782486,0.1006968,0.1813553,0
2.0948493,-4.0657101,-0.26654053,0.9782486,-0.1006968,-0.1813553,0
-1.7898393,-0.29255652,-3.0040801,-0.14521015,0.29190782,-0.94535899,0
2.5187371,-1.1552086,-0.0079375505,0.9782486,-0.1006968,-0.1813553,0
3.3116791,2.5579188,3.1330607,0.9782486,-0.1006968,-0.1813553,0
1.6786339,-1.7000458,-3.3917859,0.9782486,-0.1006968,-0.1813553,0
1.0350952,-4.1803093,-0.52775574,-0.14813372,-0.95113081,-0.27093613,0
2.1104794,-0.49679995,-1.8811538,0.9782486,-0.1006968,-0.1813553,0
-2.499176,1.0571034,-0.55463398,-0.9782486,0.1006968,0.1813553,0
1.4442732,-0.25214648,2.7930436,0.14521015,-0.29190782,0.94535899,0
-0.5368135,1.7714789,-2.5865693,-0.14521015,0.29190782,-0.94535899,0
-3.2396183,-1.8186448,-2.9742301,-0.9782486,0.1006968,0.1813553,0
-1.6483769,0.15074599,3.3849206,0.14521015,-0.29190782,0.94535899,0
-2.1766589,1.2003179,1.5345986,-0.9782486,0.1006968,0.1813553,0
2.2609236,-3.1967936,0.64886212,0.9782486,-0.1006968,-0.1813553,0
-2.5592985,2.7947414,-1.7889516,-0.9782486,0.1006968,0.1813553,0
-1.8551443,-2.9334648,-3.1270659,-0.14813372,-0.95113081,-0.27093613,0
3.1176608,2.4278884,2.0922544,0.9782486,-0.1006968,-0.1813553,0
0.62314034,3.0673594,3.4384499,0.14813372,0.95113081,0.27093613,0
-2.2345033,-2.6614199,-3.6414218,-0.14521015,0.29190782,-0.94535899,0
3.2520299,2.2333913,2.9673402,0.9782486,-0.1006968,-0.1813553,0
0.031469822,-0.44659284,-3.2493846,-0.14521015,0.29190782,-0.94535899,0
0.99855661,-4.5546298,0.38859034,-0.14813372,-0.95113081,-0.27093613,0
1.5051157,-3.2300656,-3.7992756,0.9782486,-0.1006968,-0.1813553,0
-2.3393521,-2.1902404,2.3548155,-0.9782486,0.1006968,0.1813553,0
-2.2900922,-3.1043375,-2.4677081,-0.14813372,-0.95113081,-0.27093613,0
-2.3679132,-2.3476157,-3.4683323,-0.14521015,0.29190782,-0.94535899,0
-1.9519479,-3.5108926,-1.6967642,-0.14813372,-0.95113081,-0.27093613,0
2.105386,-2.9574783,-0.48018289,0.9782486,-0.1006968,-0.1813553,0
2.331316,0.077812195,2.8188815,0.14521015,-0.29190782,0.94535899,0
-1.3003802,-1.9427688,2.6764445,0.14521015,-0.29190782,0.94535899,0
-0.2415266,3.2221229,-2.0804439,-0.14521015,0.29190782,-0.94535899,0
2.9501247,1.6306589,0.79623294,0.9782486,-0.1006968,-0.1813553,0
2.5465317,-1.4617012,0.57806802,0.9782486,-0.1006968,-0.1813553,0
2.1382856,-1.4310324,-1.046176,0.9782486,-0.1006968,-0.1813553,0
2.555599,0.33106089,2.9078772,0.14521015,-0.29190782,0.94535899,0
2.5161934,-2.5332432,1.4101439,0.9782486,-0.1006968,-0.1813553,0
1.6221372,3.7480791,0.6267345,0.14813372,0.95113081,0.27093613,0
2.0564032,-3.5071843,-0.9574995,0.9782486,-0.1006968,-0.1813553,0
-1.8109155,2.7966585,2.9338815,-0.9782486,0.1006968,0.1813553,0
-2.3136637,3.6469295,-0.37471771,-0.9782486,0.1006968,0.1813553,0
2.893465,3.381458,0.39312339,0.9782486,-0.1006968,-0.1813553,0
1.5557222,-4.5705695,0.12651634,-0.14813372,-0.95113081,-0.27093613,0
-1.8481139,2.2549162,-2.2439818,-0.14521015,0.29190782,-0.94535899,0
-0.025922298,1.074078,3.5249107,0.14521015,-0.29190782,0.94535899,0
1.7048273,3.5211711,-2.4055643,-0.14521015,0.29190782,-0.94535899,0
2.064419,-3.2662835,-0.87170458,0.9782486,-0.1006968,-0.1813553,0
2.2955065,2.9490032,-2.7153299,0.9782486,-0.1006968,-0.1813553,0
2.1739228,-4.8422933,1.1719685,-0.14813372,-0.95113081,-0.27093613,0
-2.6654959,-0.43959928,-2.9095941,-0.14521015,0.29190782,-0.94535899,0
-2.1907313,-1.1681329,2.1198699,-0.9782486,0.1006968,0.1813553,0
1.7773318,2.4890761,3.7314487,0.14521015,-0.29190782,0.94535899,0
0.94852352,3.7145798,0.99774218,0.14813372,0.95113081,0.27093613,0
-0.5324043,-3.2602515,2.3295646,0.14521015,-0.29190782,0.94535899,0
-3.0065112,-0.40258121,-2.1552436,-0.9782486,0.1006968,0.1813553,0
2.7117519,0.40110064,0.79205573,0.9782486,-0.1006968,-0.1813553,0
1.7628953,-3.7498727,-2.4980993,-0.14813372,-0.95113081,-0.27093613,0
-3.1329219,-2.0607078,-3.2857089,-0.14521015,0.29190782,-0.94535899,0
-0.45429707,-1.1801615,-3.5515308,-0.14521015,0.29190782,-0.94535899,0
-2.088892,2.5877302,-1.9837908,-0.14521015,0.29190782,-0.94535899,0
3.2845902,2.3911107,2.4717922,0.9782486,-0.1006968,-0.1813553,0
1.2116156,3.7036235,-2.1263754,-0.14521015,0.29190782,-0.94535899,0
0.66031587,4.3754025,-1.9037206,-0.14521015,0.29190782,-0.94535899,0
1.5052223,-3.2674654,-4.2438173,-0.14813372,-0.95113081,-0.27093613,0
-2.6400967,-2.172955,0.72591966,-0.9782486,0.1006968,0.1813553,0
2.4953299,2.6722751,-1.9690161,0.9782486,-0.1006968,-0.1813553,0
-2.6310015,0.35913587,-0.9406777,-0.9782486,0.1006968,0.1813553,0
-1.6167123,3.6143143,2.6651058,0.14813372,0.95113081,0.27093613,0
-0.071725845,-3.749619,2.1228783,0.14521015,-0.29190782,0.94535899,0
3.2915845,2.0740204,3.0417438,0.9782486,-0.1006968,-0.1813553,0
0.76268291,3.5321608,2.2062938,0.14813372,0.95113081,0.27093613,0
-3.20789,-2.0272908,-2.3337512,-0.9782486,0.1006968,0.1813553,0
-2.5632079,-4.2048841,2.1636994,-0.9782486,0.1006968,0.1813553,0
0.80972064,3.351769,-2.2214103,-0.14521015,0.29190782,-0.94535899,0
-0.28865099,3.7353611,1.7455897,0.14813372,0.95113081,0.27093613,0
1.9576374,-3.1119804,-1.2418003,0.9782486,-0.1006968,-0.1813553,0
-2.6997228,-3.0368638,-2.6690104,-0.14813372,-0.95113081,-0.27093613,0
0.85957658,3.8495071,1.008141,0.14813372,0.95113081,0.27093613,0
1.2124333,-4.0465903,-1.2665787,-0.14813372,-0.95113081,-0.27093613,0
1.4451628,-4.8481116,1.5013428,0.14521015,-0.29190782,0.94535899,0
-1.0075054,-3.5054708,-2.054209,-0.14813372,-0.95113081,-0.27093613,0
1.0182648,3.3953257,2.2801392,0.14813372,0.95113081,0.27093613,0
3.0398595,3.5916238,0.72135782,0.9782486,-0.1006968,-0.1813553,0
2.8566484,-1.0872703,2.4447615,0.14521015,-0.29190782,0.94535899,0
-2.033257,3.9526134,0.074976921,-0.9782486,0.1006968,0.1813553,0
0.006403923,-3.3022597,-3.2398515,-0.14813372,-0.95113081,-0.27093613,0
-2.9436407,-2.4799128,-0.94807279,-0.9782486,0.1006968,0.1813553,0
1.6589253,-4.1869192,-0.85537672,-0.14813372,-0.95113081,-0.27093613,0
-2.4797411,2.5277429,-2.0086274,-0.14521015,0.29190782,-0.94535899,0
-1.6044996,-2.7947049,2.4870174,0.14521015,-0.29190782,0.94535899,0
2.160078,-0.71775997,-2.2372715,0.9782486,-0.1006968,-0.1813553,0
-3.2025626,-1.6658983,-2.3257332,-0.9782486,0.1006968,0.1813553,0
-2.7690902,-3.4337413,1.1073056,-0.9782486,0.1006968,0.1813553,0
2.6739967,-1.5488298,1.3339707,0.9782486,-0.1006968,-0.1813553,0
-0.46374083,4.2408791,-1.8686013,-0.14521015,0.29190782,-0.94535899,0
-2.4700222,-3.2136369,2.1379302,-0.9782486,0.1006968,0.1813553,0
-2.7734947,-0.61754894,-1.0579965,-0.9782486,0.1006968,0.1813553,0
-1.9290299,-4.2216754,1.2271104,-0.14813372,-0.95113081,-0.27093613,0
2.6311851,-0.71610999,1.0769734,0.9782486,-0.1006968,-0.1813553,0
-0.48892617,-1.2810501,2.7708697,0.14521015,-0.29190782,0.94535899,0
-3.2565114,-1.9387481,-2.2432194,-0.9782486,0.1006968,0.1813553,0
1.2314589,1.4670815,3.485445,0.14521015,-0.29190782,0.94535899,0
-3.1635334,-3.1210158,-2.0963984,-0.14813372,-0.95113081,-0.27093613,0
1.5082736,4.2177658,-1.2349799,0.14813372,0.95113081,0.27093613,0
0.15719056,2.0739975,-2.6497407,-0.14521015,0.29190782,-0.94535899,0
-2.2878668,1.187304,1.0448571,-0.9782486,0.1006968,0.1813553,0
1.9550984,4.2605214,-2.102932,-0.14521015,0.29190782,-0.94535899,0
-0.36644506,-2.0684745,2.6678321,0.14521015,-0.29190782,0.94535899,0
-1.3381765,3.8325164,1.7704763,0.14813372,0.95113081,0.27093613,0
2.9760447,-0.77387309,2.1705813,0.9782486,-0.1006968,-0.1813553,0
-0.26149249,4.2209992,-0.011938095,0.14813372,0.95113081,0.27093613,0
-0.19725084,-1.0437086,2.9624205,0.14521015,-0.29190782,0.94535899,0
-1.7714818,4.3845711,0.1351862,0.14813372,0.95113081,0.27093613,0
-2.0503221,2.3162055,0.96125793,-0.9782486,0.1006968,0.1813553,0
1.9967322,-3.8361721,-0.42181683,0.9782486,-0.1006968,-0.1813553,0
1.1380177,3.4474931,1.7312667,0.14813372,0.95113081,0.27093613,0
-0.18285704,3.1787615,3.4114521,0.14813372,0.95113081,0.27093613,0
-0.81558967,-1.7128904,2.7678857,0.14521015,-0.29190782,0.94535899,0
1.9907235,4.2678156,-2.162801,-0.14521015,0.29190782,-0.94535899,0
-2.4820521,2.3077235,-0.40649724,-0.9782486,0.1006968,0.1813553,0
