-0.45544624,3.9621248,-1.4669131,-0.054842234,0.99780566,0.037095688,0
3.0201483,-0.59431219,-2.6039357,0.97908121,0.04644835,0.19809692,0
1.1931868,3.9004612,4.8214459,-0.054842234,0.99780566,0.037095688,0
1.964349,-3.8613544,-3.4858985,0.054842234,-0.99780566,-0.037095688,0
0.76059866,-0.71770442,-4.9704518,0.19593918,0.047183782,-0.97948021,0
2.4391408,-0.051417589,-4.6336522,0.19593918,0.047183782,-0.97948021,0
-1.7640848,-4.1622443,2.7912772,0.054842234,-0.99780566,-0.037095688,0
1.7523303,2.9579816,3.3677065,0.97908121,0.04644835,0.19809692,0
-1.5307028,3.0041153,-5.2779388,0.19593918,0.047183782,-0.97948021,0
1.6431879,1.4374027,3.7356248,0.97908121,0.04644835,0.19809692,0
-2.4298043,-4.2133174,1.6565311,0.054842234,-0.99780566,-0.037095688,0
2.772027,3.5347416,-4.4033718,0.19593918,0.047183782,-0.97948021,0
2.1296971,-3.8623366,-2.2021375,0.054842234,-0.99780566,-0.037095688,0
2.4523644,-1.8777902,0.5156914,0.97908121,0.04644835,0.19809692,0
3.2807925,-3.7608116,-3.6988544,0.054842234,-0.99780566,-0.037095688,0
-2.8857188,-4.3863697,4.0584536,0.054842234,-0.99780566,-0.037095688,0
2.3487389,-1.409835,-4.6314931,0.19593918,0.047183782,-0.97948021,0
1.30548,-3.828383,-4.4945731,0.054842234,-0.99780566,-0.037095688,0
-3.446753,0.43125987,4.5202847,-0.19593918,-0.047183782,0.97948021,0
1.3488793,2.3668227,4.943615,0.97908121,0.04644835,0.19809692,0
0.55313802,-0.6905157,-4.9265113,0.19593918,0.047183782,-0.97948021,0
3.0485163,-3.7840211,-1.8775592,0.054842234,-0.99780566,-0.037095688,0
-2.1064301,-0.11451972,4.6591244,-0.19593918,-0.047183782,0.97948021,0
3.2762933,1.0531359,-4.3018818,0.97908121,0.04644835,0.19809692,0
-0.73990345,-3.867455,-2.5579357,0.054842234,-0.99780566,-0.037095688,0
-2.6964071,0.52213216,0.59030402,-0.97908121,-0.04644835,-0.19809692,0
-0.10806322,-3.8924198,-3.6083961,0.054842234,-0.99780566,-0.037095688,0
0.47616386,4.0960388,-2.022022,-0.054842234,0.99780566,0.037095688,0
0.2558279,3.1210968,-4.8879447,0.19593918,0.047183782,-0.97948021,0
1.4756618,3.6745381,-4.7298188,0.19593918,0.047183782,-0.97948021,0
-1.5335816,-0.79842687,4.680336,-0.19593918,-0.047183782,0.97948021,0
-2.6578126,1.8485746,4.7597136,-0.19593918,-0.047183782,0.97948021,0
-2.0447013,3.9973521,-1.1387312,-0.054842234,0.99780566,0.037095688,0
2.3051004,4.2576823,-3.8941817,-0.054842234,0.99780566,0.037095688,0
1.6183429,-1.1873312,4.4056921,0.97908121,0.04644835,0.19809692,0
2.3593016,3.1991725,-4.4191079,0.19593918,0.047183782,-0.97948021,0
-1.5139334,3.4723077,5.0222125,-0.19593918,-0.047183782,0.97948021,0
-1.6304562,-2.0858157,4.5798182,-0.19593918,-0.047183782,0.97948021,0
-0.8972106,-3.9251831,-3.4782035,0.054842234,-0.99780566,-0.037095688,0
1.4457052,-3.9911947,1.1001022,0.054842234,-0.99780566,-0.037095688,0
1.0612864,3.0671551,-4.6906466,0.19593918,0.047183782,-0.97948021,0
-2.2842026,2.7633562,4.7748337,-0.19593918,-0.047183782,0.97948021,0
-3.0872583,0.81249046,2.0159607,-0.97908121,-0.04644835,-0.19809692,0
-0.18609333,3.890882,2.0521774,-0.054842234,0.99780566,0.037095688,0
3.1372027,-0.45718169,-3.0919287,0.97908121,0.04644835,0.19809692,0
2.2654533,3.7500372,0.73977172,0.97908121,0.04644835,0.19809692,0
-1.7878468,-0.41606891,-3.3128991,-0.97908121,-0.04644835,-0.19809692,0
-0.4420476,-3.986804,0.90015608,0.054842234,-0.99780566,-0.037095688,0
-2.2999992,-4.3033934,3.9491608,0.054842234,-0.99780566,-0.037095688,0
-0.089201212,1.9103088,5.0954704,-0.19593918,-0.047183782,0.97948021,0
3.1656225,1.8715633,-3.852762,0.97908121,0.04644835,0.19809692,0
1.6898065,2.6365259,3.6271722,0.97908121,0.04644835,0.19809692,0
0.84407997,1.6632541,-4.9139981,0.19593918,0.047183782,-0.97948021,0
1.2399124,-1.8927627,5.2107306,-0.19593918,-0.047183782,0.97948021,0
3.1309621,4.2980661,-4.1797504,0.19593918,0.047183782,-0.97948021,0
-1.6289002,0.22851431,4.7947869,-0.19593918,-0.047183782,0.97948021,0
-2.0011866,-2.9411249,-1.8235135,-0.97908121,-0.04644835,-0.19809692,0
-2.4441226,-0.92198992,0.027807191,-0.97908121,-0.04644835,-0.19809692,0
-0.57166207,-0.75777471,4.8720603,-0.19593918,-0.047183782,0.97948021,0
2.9062643,2.4030328,-4.3975272,0.19593918,0.047183782,-0.97948021,0
0.17264462,4.1093984,-3.782876,-0.054842234,0.99780566,0.037095688,0
2.3308864,4.0057158,-0.014491934,0.97908121,0.04644835,0.19809692,0
-1.5970767,-1.6286936,-4.2529898,-0.97908121,-0.04644835,-0.19809692,0
-1.3308182,-4.2149572,1.6789248,0.054842234,-0.99780566,-0.037095688,0
0.71727729,2.1923532,5.3046856,-0.19593918,-0.047183782,0.97948021,0
1.9639913,-3.5427558,3.9173851,0.97908121,0.04644835,0.19809692,0
1.2978795,-4.0683937,4.7637954,0.054842234,-0.99780566,-0.037095688,0
-2.9923372,-2.0646048,4.3711605,-0.19593918,-0.047183782,0.97948021,0
1.0235965,0.71474409,5.2867937,-0.19593918,-0.047183782,0.97948021,0
3.1602461,4.2541327,-4.2719421,0.19593918,0.047183782,-0.97948021,0
0.86832058,-1.9274285,-4.9458499,0.19593918,0.047183782,-0.97948021,0
1.5325657,0.16472435,5.2344708,0.97908121,0.04644835,0.19809692,0
-2.5350127,1.6688447,-0.27342838,-0.97908121,-0.04644835,-0.19809692,0
-1.3522873,-2.8130727,-5.4593773,0.19593918,0.047183782,-0.97948021,0
-3.029902,0.90313482,1.9237373,-0.97908121,-0.04644835,-0.19809692,0
2.0391352,-3.3795397,-4.8436213,0.19593918,0.047183782,-0.97948021,0
1.1427085,4.1379218,-3.4461088,-0.054842234,0.99780566,0.037095688,0
2.9029362,-1.8584197,-4.6317792,0.19593918,0.047183782,-0.97948021,0
-2.0940814,3.8506589,0.28030121,-0.054842234,0.99780566,0.037095688,0
1.0211537,-4.0417213,4.231607,0.054842234,-0.99780566,-0.037095688,0
0.21910548,-2.0175455,-5.0758052,0.19593918,0.047183782,-0.97948021,0
-1.1400595,4.1241989,-2.2411187,-0.054842234,0.99780566,0.037095688,0
-3.299006,-1.3424504,4.1821508,-0.97908121,-0.04644835,-0.19809692,0
-2.0761826,0.96461976,4.7540069,-0.19593918,-0.047183782,0.97948021,0
-2.8487062,-3.5354009,1.8597353,-0.97908121,-0.04644835,-0.19809692,0
2.4735951,3.118639,0.033714522,0.97908121,0.04644835,0.19809692,0
1.6386809,3.7679317,3.1773136,0.97908121,0.04644835,0.19809692,0
1.3965821,4.2967386,-3.8260689,-0.054842234,0.99780566,0.037095688,0
-1.5873405,1.7621206,-4.849227,-0.97908121,-0.04644835,-0.19809692,0
0.6490221,2.9398952,5.2864428,-0.19593918,-0.047183782,0.97948021,0
-3.180469,1.7605004,4.4624338,-0.19593918,-0.047183782,0.97948021,0
3.2966452,0.49436235,-3.9322443,0.97908121,0.04644835,0.19809692,0
0.55312848,-3.816453,-1.9904928,0.054842234,-0.99780566,-0.037095688,0
2.0113544,-3.7186551,3.6343117,0.97908121,0.04644835,0.19809692,0
-3.0790761,-1.2221305,3.2819686,-0.97908121,-0.04644835,-0.19809692,0
0.86213541,-3.7233591,5.1710577,-0.19593918,-0.047183782,0.97948021,0
2.4347739,2.953567,-0.6102621,0.97908121,0.04644835,0.19809692,0
2.1304913,3.0450668,1.0762765,0.97908121,0.04644835,0.19809692,0
1.7427187,-2.914952,4.6605544,0.97908121,0.04644835,0.19809692,0
-0.42431283,4.0436463,-4.9244475,0.19593918,0.047183782,-0.97948021,0
-2.8354807,-2.7385638,4.3738699,-0.19593918,-0.047183782,0.97948021,0
-1.6881738,-0.85700798,-3.6124372,-0.97908121,-0.04644835,-0.19809692,0
1.1098514,1.3465453,5.4619541,-0.19593918,-0.047183782,0.97948021,0
-3.4804683,1.6915276,4.4917722,-0.19593918,-0.047183782,0.97948021,0
2.4222813,1.4137844,0.30135036,0.97908121,0.04644835,0.19809692,0
-0.46344709,-3.8431666,-3.0027142,0.054842234,-0.99780566,-0.037095688,0
1.6241932,-0.30202127,-4.8080077,0.19593918,0.047183782,-0.97948021,0
-1.9408128,2.2142656,-4.0423388,-0.97908121,-0.04644835,-0.19809692,0
-1.0092721,-3.3435335,4.6947756,-0.19593918,-0.047183782,0.97948021,0
-1.2566862,0.83701503,-5.3250785,0.19593918,0.047183782,-0.97948021,0
2.8767848,2.2475455,-2.2664175,0.97908121,0.04644835,0.19809692,0
-2.2267008,-4.2938175,2.5884068,0.054842234,-0.99780566,-0.037095688,0
-1.9791541,3.2094073,4.8941917,-0.19593918,-0.047183782,0.97948021,0
-2.8220363,-3.4554656,2.0381143,-0.97908121,-0.04644835,-0.19809692,0
-2.4429071,0.61656523,-0.26816112,-0.97908121,-0.04644835,-0.19809692,0
0.66579795,-3.695601,-5.0126472,0.054842234,-0.99780566,-0.037095688,0
2.5641589,-2.739795,0.76901358,0.97908121,0.04644835,0.19809692,0
1.699023,3.4096985,3.2699845,0.97908121,0.04644835,0.19809692,0
1.2969664,-2.4751663,-5.0506473,0.19593918,0.047183782,-0.97948021,0
1.9831524,0.71212971,2.2816453,0.97908121,0.04644835,0.19809692,0
2.6432352,1.0680995,-0.74823606,0.97908121,0.04644835,0.19809692,0
-2.3166499,-4.3546305,3.3001397,0.054842234,-0.99780566,-0.037095688,0
3.0491235,-3.695482,-3.1751893,0.054842234,-0.99780566,-0.037095688,0
1.404506,-4.1099067,4.7343049,0.054842234,-0.99780566,-0.037095688,0
-2.3305454,-2.4911005,4.5499263,-0.19593918,-0.047183782,0.97948021,0
0.15112185,0.79758698,5.2367415,-0.19593918,-0.047183782,0.97948021,0
1.7726133,3.5711746,2.5376422,0.97908121,0.04644835,0.19809692,0
1.7778571,2.7086759,3.2160227,0.97908121,0.04644835,0.19809692,0
-2.741492,-0.31755114,0.51962209,-0.97908121,-0.04644835,-0.19809692,0
1.2550092,0.16136253,5.4293251,-0.19593918,-0.047183782,0.97948021,0
-1.0418878,-4.1315756,-0.85288429,0.054842234,-0.99780566,-0.037095688,0
-0.70615315,-1.7434964,-5.2581873,0.19593918,0.047183782,-0.97948021,0
-0.14201379,-3.9802799,1.7127361,0.054842234,-0.99780566,-0.037095688,0
-1.9501536,3.6013527,4.9185381,-0.19593918,-0.047183782,0.97948021,0
3.047096,-0.25121212,-2.4115651,0.97908121,0.04644835,0.19809692,0
-2.8688002,-1.9978037,2.225852,-0.97908121,-0.04644835,-0.19809692,0
2.6075168,-3.6637094,-2.796967,0.054842234,-0.99780566,-0.037095688,0
-2.5800538,-4.2861109,3.8352857,0.054842234,-0.99780566,-0.037095688,0
-2.3084888,-1.2205195,4.6632767,-0.19593918,-0.047183782,0.97948021,0
1.0746939,-3.9371421,-1.8104175,0.054842234,-0.99780566,-0.037095688,0
1.0420338,-3.3384416,5.1391163,-0.19593918,-0.047183782,0.97948021,0
2.4019079,-0.74876642,1.0328817,0.97908121,0.04644835,0.19809692,0
3.3024237,-1.8331156,-3.5420687,0.97908121,0.04644835,0.19809692,0
-0.33060291,-0.44855139,5.0889683,-0.19593918,-0.047183782,0.97948021,0
-2.0714126,3.1048887,-2.7281427,-0.97908121,-0.04644835,-0.19809692,0
0.1896286,-1.1875921,-5.0281949,0.19593918,0.047183782,-0.97948021,0
1.7333343,-1.8753089,-4.7939258,0.19593918,0.047183782,-0.97948021,0
1.2911978,3.2192776,5.5578794,0.97908121,0.04644835,0.19809692,0
-0.8405993,4.1328764,-2.6358953,-0.054842234,0.99780566,0.037095688,0
0.075052261,-3.7133493,-5.3023243,0.054842234,-0.99780566,-0.037095688,0
2.0923388,-3.9405971,-0.12997055,0.054842234,-0.99780566,-0.037095688,0
3.5690143,-3.0927336,-4.5668516,0.19593918,0.047183782,-0.97948021,0
-1.0787382,4.0005493,-2.1775994,-0.054842234,0.99780566,0.037095688,0
-1.6672299,3.9237537,-0.91428053,-0.054842234,0.99780566,0.037095688,0
-3.2231541,-1.2088838,4.5019178,-0.19593918,-0.047183782,0.97948021,0
0.72803092,3.1573529,5.404799,-0.19593918,-0.047183782,0.97948021,0
-2.6572704,-1.0553538,0.29167947,-0.97908121,-0.04644835,-0.19809692,0
-1.7243429,-1.7384971,4.7718663,-0.19593918,-0.047183782,0.97948021,0
-2.4470739,2.0006614,4.7050619,-0.19593918,-0.047183782,0.97948021,0
-0.75331432,1.1896938,-5.2546043,0.19593918,0.047183782,-0.97948021,0
-0.56163597,4.2020373,-3.5386775,-0.054842234,0.99780566,0.037095688,0
-0.66938066,-4.1981063,1.6811692,0.054842234,-0.99780566,-0.037095688,0
-2.0456927,3.7430379,4.6582828,-0.054842234,0.99780566,0.037095688,0
0.34906292,4.0163312,-0.45984876,-0.054842234,0.99780566,0.037095688,0
2.2150016,3.9943013,-4.5113788,0.19593918,0.047183782,-0.97948021,0
1.3954128,0.87495613,5.4197426,0.97908121,0.04644835,0.19809692,0
2.9728048,-3.3323653,-0.90932614,0.97908121,0.04644835,0.19809692,0
1.0302968,-3.224124,-5.0078716,0.19593918,0.047183782,-0.97948021,0
-1.6627505,-2.0529809,-4.008028,-0.97908121,-0.04644835,-0.19809692,0
0.6091069,-0.86725879,5.2862606,-0.19593918,-0.047183782,0.97948021,0
-2.3976316,-4.0565052,0.62333071,-0.97908121,-0.04644835,-0.19809692,0
-2.0306225,-0.453951,-2.4788597,-0.97908121,-0.04644835,-0.19809692,0
1.5161963,-3.9616752,-0.11568278,0.054842234,-0.99780566,-0.037095688,0
1.202662,4.0377231,-0.73343545,-0.054842234,0.99780566,0.037095688,0
0.45586109,4.0936813,-1.0053451,-0.054842234,0.99780566,0.037095688,0
-2.540379,2.048574,-0.65389174,-0.97908121,-0.04644835,-0.19809692,0
-3.0898714,-2.7076521,4.3507624,-0.19593918,-0.047183782,0.97948021,0
-2.6467967,3.8348775,1.7305701,-0.054842234,0.99780566,0.037095688,0
0.66864204,-4.186038,4.1478381,0.054842234,-0.99780566,-0.037095688,0
-1.1339545,-3.9876995,-2.0368443,0.054842234,-0.99780566,-0.037095688,0
1.3930084,-3.6293783,5.2431154,-0.19593918,-0.047183782,0.97948021,0
-3.2812829,2.0118368,3.077739,-0.97908121,-0.04644835,-0.19809692,0
-3.3808541,1.5452569,3.8070502,-0.97908121,-0.04644835,-0.19809692,0
1.5348721,-1.7297535,-4.8129573,0.19593918,0.047183782,-0.97948021,0
-2.7626595,0.80650568,1.1973847,-0.97908121,-0.04644835,-0.19809692,0
0.65517437,-2.9133043,5.0944643,-0.19593918,-0.047183782,0.97948021,0
1.9835689,1.6771811,-4.5622296,0.19593918,0.047183782,-0.97948021,0
0.86959434,-2.7092083,-4.9631257,0.19593918,0.047183782,-0.97948021,0
0.47348285,-3.4761558,5.0678067,-0.19593918,-0.047183782,0.97948021,0
2.0530288,-0.095906734,-4.7111292,0.19593918,0.047183782,-0.97948021,0
-1.4004936,3.8454967,0.85989577,-0.054842234,0.99780566,0.037095688,0
-0.92619061,-3.1354699,-5.4276915,0.19593918,0.047183782,-0.97948021,0
-2.1169422,2.467869,4.8986745,-0.19593918,-0.047183782,0.97948021,0
3.2807264,1.7000632,-3.5607483,0.97908121,0.04644835,0.19809692,0
0.11257088,-1.7342939,5.0933843,-0.19593918,-0.047183782,0.97948021,0
1.2612593,-1.7193899,-4.9290872,0.19593918,0.047183782,-0.97948021,0
2.4194853,-2.2436717,1.491871,0.97908121,0.04644835,0.19809692,0
-0.30353737,-4.0145731,4.767189,-0.19593918,-0.047183782,0.97948021,0
-2.3398497,1.4963834,4.7769413,-0.19593918,-0.047183782,0.97948021,0
0.83857393,0.36726934,5.2603297,-0.19593918,-0.047183782,0.97948021,0
-1.3387022,-3.4884884,4.5844908,-0.19593918,-0.047183782,0.97948021,0
0.23289585,4.102365,-1.8881292,-0.054842234,0.99780566,0.037095688,0
-1.018747,-0.0065640807,4.9792676,-0.19593918,-0.047183782,0.97948021,0
0.37173206,0.052442648,-4.9384661,0.19593918,0.047183782,-0.97948021,0
2.4314101,-0.50048971,0.58566105,0.97908121,0.04644835,0.19809692,0
1.8845356,0.63194275,2.6556673,0.97908121,0.04644835,0.19809692,0
-2.7197943,-4.2415652,3.2860653,0.054842234,-0.99780566,-0.037095688,0
-1.7477694,0.66196823,4.7213359,-0.19593918,-0.047183782,0.97948021,0
2.0995021,2.0776587,2.1141944,0.97908121,0.04644835,0.19809692,0
0.63318038,-3.985002,1.0503331,0.054842234,-0.99780566,-0.037095688,0
-3.1306739,-0.74335217,2.7794878,-0.97908121,-0.04644835,-0.19809692,0
-0.24226546,-2.6779487,-5.3302889,0.19593918,0.047183782,-0.97948021,0
-0.6731782,-3.7103171,-5.5166292,0.19593918,0.047183782,-0.97948021,0
-2.2719121,-1.9455286,4.6434112,-0.19593918,-0.047183782,0.97948021,0
0.077471256,0.71681738,5.054162,-0.19593918,-0.047183782,0.97948021,0
-2.3190877,0.066790581,-1.1716847,-0.97908121,-0.04644835,-0.19809692,0
-2.207098,3.0277503,-2.0938234,-0.97908121,-0.04644835,-0.19809692,0
2.3548858,1.1094881,-4.4961424,0.19593918,0.047183782,-0.97948021,0
-2.1309154,3.6236956,-3.3255601,-0.97908121,-0.04644835,-0.19809692,0
2.6152725,4.2211938,-1.5321119,-0.054842234,0.99780566,0.037095688,0
3.1612549,1.9102076,-4.373456,0.19593918,0.047183782,-0.97948021,0
2.7423561,-2.606509,-0.38352644,0.97908121,0.04644835,0.19809692,0
0.55910504,-2.2401111,5.1869121,-0.19593918,-0.047183782,0.97948021,0
-0.16583586,3.9627984,3.6554635,-0.054842234,0.99780566,0.037095688,0
-2.9055963,3.8687379,1.8655143,-0.054842234,0.99780566,0.037095688,0
2.5621879,4.2509193,-2.7002711,-0.054842234,0.99780566,0.037095688,0
0.64537096,-4.1049275,3.3099561,0.054842234,-0.99780566,-0.037095688,0
0.14777994,-4.0917611,1.083499,0.054842234,-0.99780566,-0.037095688,0
1.4816308,-3.9305129,2.6068802,0.054842234,-0.99780566,-0.037095688,0
-1.1874866,-4.0379825,-1.4431719,0.054842234,-0.99780566,-0.037095688,0
0.11674786,3.7293334,5.1391125,-0.054842234,0.99780566,0.037095688,0
-0.27779698,1.9873569,5.0693879,-0.19593918,-0.047183782,0.97948021,0
0.55241287,-1.5251573,-4.9736867,0.19593918,0.047183782,-0.97948021,0
0.17910957,-3.8052666,-4.099452,0.054842234,-0.99780566,-0.037095688,0
1.0724324,-1.611442,5.3123407,-0.19593918,-0.047183782,0.97948021,0
-1.6920834,0.80984402,-4.5681043,-0.97908121,-0.04644835,-0.19809692,0
0.38380527,4.0578313,1.1738079,-0.054842234,0.99780566,0.037095688,0
0.90378666,2.2519255,5.4187865,-0.19593918,-0.047183782,0.97948021,0
1.1993032,4.1726675,-1.7334068,-0.054842234,0.99780566,0.037095688,0
2.3801491,-3.8817794,-2.4792967,0.054842234,-0.99780566,-0.037095688,0
1.4766846,4.1474638,0.84191835,-0.054842234,0.99780566,0.037095688,0
-0.80987811,-3.6060019,4.7387905,-0.19593918,-0.047183782,0.97948021,0
-1.6195176,4.0055189,-3.7086959,-0.054842234,0.99780566,0.037095688,0
1.9601742,-3.583185,3.5377421,0.97908121,0.04644835,0.19809692,0
-2.0614953,3.6661916,4.897284,-0.054842234,0.99780566,0.037095688,0
-0.65236485,0.66236389,-5.2239122,0.19593918,0.047183782,-0.97948021,0
-2.315016,-2.1035683,-0.77316785,-0.97908121,-0.04644835,-0.19809692,0
2.534699,2.1281445,-0.88481271,0.97908121,0.04644835,0.19809692,0
1.368207,2.5269361,4.7858005,0.97908121,0.04644835,0.19809692,0
2.5381198,4.1034417,-1.1585432,-0.054842234,0.99780566,0.037095688,0
0.69002008,0.20851018,-5.0439739,0.19593918,0.047183782,-0.97948021,0
-0.001973629,-2.9040117,5.0486145,-0.19593918,-0.047183782,0.97948021,0
0.89419746,-4.069613,1.4983764,0.054842234,-0.99780566,-0.037095688,0
1.0881493,1.1224399,-4.8473649,0.19593918,0.047183782,-0.97948021,0
-2.2148399,3.814872,-0.73166502,-0.054842234,0.99780566,0.037095688,0
-0.7442627,4.0879498,-2.7265439,-0.054842234,0.99780566,0.037095688,0
0.50495338,4.0731549,1.660157,-0.054842234,0.99780566,0.037095688,0
2.2761049,1.1754348,0.72902435,0.97908121,0.04644835,0.19809692,0
1.4079642,3.9131832,-4.6956019,0.19593918,0.047183782,-0.97948021,0
-0.19511533,4.1438546,-3.9106414,-0.054842234,0.99780566,0.037095688,0
-1.160213,-4.1757984,2.5801182,0.054842234,-0.99780566,-0.037095688,0
2.3913975,3.6294677,-0.47693869,0.97908121,0.04644835,0.19809692,0
-3.1173482,2.3082538,2.3731637,-0.97908121,-0.04644835,-0.19809692,0
-0.55152702,3.9160252,1.0704219,-0.054842234,0.99780566,0.037095688,0
3.0679767,-1.9611685,-2.3061686,0.97908121,0.04644835,0.19809692,0
-2.528091,3.8796165,0.16939116,-0.054842234,0.99780566,0.037095688,0
-0.22227585,-1.0267135,-5.1654444,0.19593918,0.047183782,-0.97948021,0
-2.4368896,1.5681989,-0.46019202,-0.97908121,-0.04644835,-0.19809692,0
-0.30501676,-3.8319926,4.8735247,-0.19593918,-0.047183782,0.97948021,0
-2.2278161,-4.165731,4.4604325,-0.19593918,-0.047183782,0.97948021,0
2.5813332,0.14537549,0.24875826,0.97908121,0.04644835,0.19809692,0
2.0487721,2.5659146,-4.6357179,0.19593918,0.047183782,-0.97948021,0
1.8956957,-3.423213,4.45574,0.97908121,0.04644835,0.19809692,0
-1.8732986,-4.2903767,4.3137078,0.054842234,-0.99780566,-0.037095688,0
-1.759232,3.9936907,-0.74627936,-0.054842234,0.99780566,0.037095688,0
-1.3442822,-4.0859647,1.4033707,0.054842234,-0.99780566,-0.037095688,0
-1.1102676,-0.54848742,4.8339367,-0.19593918,-0.047183782,0.97948021,0
1.8292546,4.1880379,0.3852793,-0.054842234,0.99780566,0.037095688,0
1.7599857,-3.7807117,-1.5209665,0.054842234,-0.99780566,-0.037095688,0
2.5932081,1.4292142,-4.6148367,0.19593918,0.047183782,-0.97948021,0
-2.4300828,1.1524527,4.7721562,-0.19593918,-0.047183782,0.97948021,0
2.0020413,4.1974707,-0.011498857,-0.054842234,0.99780566,0.037095688,0
-3.6674538,3.561379,4.2202621,-0.97908121,-0.04644835,-0.19809692,0
-1.386344,-4.0127187,-0.968135,0.054842234,-0.99780566,-0.037095688,0
-2.7437658,-4.2360649,1.6824095,-0.97908121,-0.04644835,-0.19809692,0
-1.1903584,-4.0821295,2.8565149,0.054842234,-0.99780566,-0.037095688,0
-0.41367769,4.0389228,-1.9464557,-0.054842234,0.99780566,0.037095688,0
2.8912265,2.5319114,-2.3167262,0.97908121,0.04644835,0.19809692,0
-2.7220285,-4.2351184,4.362267,0.054842234,-0.99780566,-0.037095688,0
-1.1945405,3.9209845,2.1302207,-0.054842234,0.99780566,0.037095688,0
0.95063806,-4.0741053,5.0770297,-0.19593918,-0.047183782,0.97948021,0
-1.5076551,4.0768118,-5.0593457,-0.054842234,0.99780566,0.037095688,0
-0.23774302,1.0054877,5.1809678,-0.19593918,-0.047183782,0.97948021,0
-0.036143303,3.9823527,2.8622253,-0.054842234,0.99780566,0.037095688,0
-3.1758265,-1.7119002,3.8663588,-0.97908121,-0.04644835,-0.19809692,0
1.8985431,-3.9182327,2.6663618,0.054842234,-0.99780566,-0.037095688,0
-1.6179667,-4.1816607,1.363346,0.054842234,-0.99780566,-0.037095688,0
-2.0429184,1.0410076,4.7670507,-0.19593918,-0.047183782,0.97948021,0
-3.2380822,-1.5381768,3.9969754,-0.97908121,-0.04644835,-0.19809692,0
-1.5202335,2.5944715,4.9672327,-0.19593918,-0.047183782,0.97948021,0
-3.2112746,3.7678456,2.1088333,-0.054842234,0.99780566,0.037095688,0
1.7256331,-3.7727933,-1.1335282,0.054842234,-0.99780566,-0.037095688,0
3.0810742,-0.2253778,-2.6628602,0.97908121,0.04644835,0.19809692,0
-1.2559347,1.3021188,-5.3550057,0.19593918,0.047183782,-0.97948021,0
1.0740296,0.6921438,5.3046174,-0.19593918,-0.047183782,0.97948021,0
0.15009499,4.1290913,-2.319911,-0.054842234,0.99780566,0.037095688,0
-0.52589524,-0.92992425,5.0544853,-0.19593918,-0.047183782,0.97948021,0
0.22303391,3.9938169,-0.67202783,-0.054842234,0.99780566,0.037095688,0
-0.56484747,-4.0342684,1.4326504,0.054842234,-0.99780566,-0.037095688,0
-0.25938302,-0.0095198154,-5.1658564,0.19593918,0.047183782,-0.97948021,0
-1.3909431,0.46332979,-5.4410734,0.19593918,0.047183782,-0.97948021,0
0.87250459,-1.006862,-4.8930588,0.19593918,0.047183782,-0.97948021,0
-2.3623326,3.7414634,-1.5322247,-0.97908121,-0.04644835,-0.19809692,0
-1.651998,-3.5204778,-3.9858742,-0.97908121,-0.04644835,-0.19809692,0
-1.4741616,2.4286282,4.8695159,-0.19593918,-0.047183782,0.97948021,0
1.9866939,-2.2311318,3.0261066,0.97908121,0.04644835,0.19809692,0
-0.05207181,4.0326333,-2.1001849,-0.054842234,0.99780566,0.037095688,0
2.4552536,3.2807243,-4.4797149,0.19593918,0.047183782,-0.97948021,0
-2.0912397,-3.7146654,-1.2430551,-0.97908121,-0.04644835,-0.19809692,0
0.61681008,1.9282434,5.226562,-0.19593918,-0.047183782,0.97948021,0
0.13102818,4.1844034,-2.3500829,-0.054842234,0.99780566,0.037095688,0
-1.5530329,2.7932167,4.8905978,-0.19593918,-0.047183782,0.97948021,0
1.3162673,4.1782546,-2.7313843,-0.054842234,0.99780566,0.037095688,0
1.9525666,3.7475157,2.3243954,0.97908121,0.04644835,0.19809692,0
-0.38860238,1.3141263,-5.0823984,0.19593918,0.047183782,-0.97948021,0
-0.70395231,3.9794066,-2.8088641,-0.054842234,0.99780566,0.037095688,0
-1.9967356,-0.41776419,-2.7135782,-0.97908121,-0.04644835,-0.19809692,0
-2.1390085,2.5978661,4.8118362,-0.19593918,-0.047183782,0.97948021,0
2.5287557,-2.2400968,0.64006805,0.97908121,0.04644835,0.19809692,0
-0.51406789,-3.4582014,4.9347224,-0.19593918,-0.047183782,0.97948021,0
-0.67242575,-4.1728311,1.6105533,0.054842234,-0.99780566,-0.037095688,0
-2.2709496,1.4027622,4.6793737,-0.19593918,-0.047183782,0.97948021,0
-1.7778794,-0.91431737,-3.6631403,-0.97908121,-0.04644835,-0.19809692,0
2.0060844,-1.2933707,2.6689529,0.97908121,0.04644835,0.19809692,0
1.3299894,-3.9306598,-1.6090407,0.054842234,-0.99780566,-0.037095688,0
1.8489506,0.39274824,3.1821001,0.97908121,0.04644835,0.19809692,0
3.40259,-1.5485373,-3.4135022,0.97908121,0.04644835,0.19809692,0
-3.0199773,-1.7015235,2.9341323,-0.97908121,-0.04644835,-0.19809692,0
-0.42524433,2.3803055,-5.0575342,0.19593918,0.047183782,-0.97948021,0
-3.1462524,0.33787799,4.4958191,-0.19593918,-0.047183782,0.97948021,0
2.848613,4.2504363,-3.6492517,-0.054842234,0.99780566,0.037095688,0
1.5953715,-2.8430424,5.2066121,-0.19593918,-0.047183782,0.97948021,0
2.559761,-0.78308916,-0.20095196,0.97908121,0.04644835,0.19809692,0
-2.539608,2.5037525,-0.70465791,-0.97908121,-0.04644835,-0.19809692,0
-0.80597556,0.24585247,-5.2201362,0.19593918,0.047183782,-0.97948021,0
0.92549992,-4.0649447,2.0207245,0.054842234,-0.99780566,-0.037095688,0
-2.3335073,-2.9924603,4.5762668,-0.19593918,-0.047183782,0.97948021,0
-1.8516464,-2.5908363,-2.6318338,-0.97908121,-0.04644835,-0.19809692,0
-1.4031737,2.3810782,-5.2647896,0.19593918,0.047183782,-0.97948021,0
1.0981412,2.8407686,5.5303268,-0.19593918,-0.047183782,0.97948021,0
3.0766363,3.4532847,-3.1337485,0.97908121,0.04644835,0.19809692,0
0.34605455,-4.0569553,3.0884302,0.054842234,-0.99780566,-0.037095688,0
-2.0596187,3.8376956,3.9261835,-0.054842234,0.99780566,0.037095688,0
-3.3751402,1.5936596,4.605155,-0.19593918,-0.047183782,0.97948021,0
-3.243191,1.36043,2.9318585,-0.97908121,-0.04644835,-0.19809692,0
-0.24396932,-1.9624417,4.982913,-0.19593918,-0.047183782,0.97948021,0
-3.3072314,-0.047975302,3.9545588,-0.97908121,-0.04644835,-0.19809692,0
2.4326942,3.7509971,-4.4305196,0.19593918,0.047183782,-0.97948021,0
2.7403157,3.8938637,-1.3517693,0.97908121,0.04644835,0.19809692,0
-2.6130385,0.80477238,0.36134624,-0.97908121,-0.04644835,-0.19809692,0
2.362783,1.8352301,0.71448302,0.97908121,0.04644835,0.19809692,0
-0.2195549,-4.1685905,1.5293031,0.054842234,-0.99780566,-0.037095688,0
-0.69133854,-1.2685025,-5.2550035,0.19593918,0.047183782,-0.97948021,0
-2.0217118,-4.1821427,1.4089437,0.054842234,-0.99780566,-0.037095688,0
2.8347464,0.38346529,-1.1474037,0.97908121,0.04644835,0.19809692,0
0.067984939,-1.8049222,5.0500765,-0.19593918,-0.047183782,0.97948021,0
2.6336699,3.2979362,-4.3864183,0.19593918,0.047183782,-0.97948021,0
-1.2438819,-0.71511054,-5.289917,0.19593918,0.047183782,-0.97948021,0
1.8616185,-2.4619842,3.8519723,0.97908121,0.04644835,0.19809692,0
2.8339043,4.2193251,-4.3889441,0.19593918,0.047183782,-0.97948021,0
0.98966193,-3.149157,-5.097785,0.19593918,0.047183782,-0.97948021,0
0.14434505,4.1012216,-3.1112316,-0.054842234,0.99780566,0.037095688,0
2.3973727,-0.0032548904,0.49683744,0.97908121,0.04644835,0.19809692,0
-0.2533977,2.74142,-5.0508366,0.19593918,0.047183782,-0.97948021,0
2.4943471,4.0941744,-0.93596709,0.97908121,0.04644835,0.19809692,0
-1.9621148,-3.1611018,-2.4417255,-0.97908121,-0.04644835,-0.19809692,0
1.9354224,4.0005555,2.2816534,0.97908121,0.04644835,0.19809692,0
3.1532359,-1.0553679,-2.5386891,0.97908121,0.04644835,0.19809692,0
-0.16486979,-1.5185143,-5.2485328,0.19593918,0.047183782,-0.97948021,0
0.70137167,-3.9429743,-2.1118679,0.054842234,-0.99780566,-0.037095688,0
-1.9315832,0.56509328,-3.4581199,-0.97908121,-0.04644835,-0.19809692,0
0.52366018,-4.1275749,4.3248715,0.054842234,-0.99780566,-0.037095688,0
-2.873672,1.457691,0.74950165,-0.97908121,-0.04644835,-0.19809692,0
2.243655,2.6213903,-4.56534,0.19593918,0.047183782,-0.97948021,0
0.95752811,-4.0056,3.0209851,0.054842234,-0.99780566,-0.037095688,0
-0.025350094,3.473175,5.3687673,-0.19593918,-0.047183782,0.97948021,0
2.9188812,1.8370452,-1.9891541,0.97908121,0.04644835,0.19809692,0
-0.79487753,-4.1164474,3.5742254,0.054842234,-0.99780566,-0.037095688,0
-0.16753101,3.8292329,1.9139872,-0.054842234,0.99780566,0.037095688,0
0.44437099,-3.3207409,5.0747089,-0.19593918,-0.047183782,0.97948021,0
-2.1642745,3.7468753,1.472872,-0.054842234,0.99780566,0.037095688,0
0.52276707,3.0548062,5.3356161,-0.19593918,-0.047183782,0.97948021,0
1.2685938,-4.1369209,4.534255,0.054842234,-0.99780566,-0.037095688,0
-1.0443773,4.0844111,-1.5215958,-0.054842234,0.99780566,0.037095688,0
3.3415225,-3.3107066,-4.4943166,0.19593918,0.047183782,-0.97948021,0
-3.1916413,3.6219835,2.7624388,-0.97908121,-0.04644835,-0.19809692,0
1.9640601,-4.0348306,1.2889898,0.054842234,-0.99780566,-0.037095688,0
0.55178905,3.2831001,-4.8361692,0.19593918,0.047183782,-0.97948021,0
-1.8648899,-0.28480923,-3.1744113,-0.97908121,-0.04644835,-0.19809692,0
0.68879676,-4.1163602,4.920146,0.054842234,-0.99780566,-0.037095688,0
2.3063571,4.2422972,-2.8926315,-0.054842234,0.99780566,0.037095688,0
-0.087108195,0.022563845,5.1332374,-0.19593918,-0.047183782,0.97948021,0
-2.4693918,-3.624017,0.47747326,-0.97908121,-0.04644835,-0.19809692,0
2.7126143,2.4715085,-1.3159056,0.97908121,0.04644835,0.19809692,0
1.5853446,-4.061615,3.7197037,0.054842234,-0.99780566,-0.037095688,0
-0.059835922,-0.6059401,5.1429062,-0.19593918,-0.047183782,0.97948021,0
-2.2097876,-3.0441303,-1.4255207,-0.97908121,-0.04644835,-0.19809692,0
2.1493278,4.30304,-3.8825366,-0.054842234,0.99780566,0.037095688,0
-0.033845454,-1.0379367,5.0983334,-0.19593918,-0.047183782,0.97948021,0
-2.5869651,-0.8304193,4.5621405,-0.19593918,-0.047183782,0.97948021,0
1.3561988,0.67782247,5.5006623,-0.19593918,-0.047183782,0.97948021,0
0.8769536,4.1202774,-3.977427,-0.054842234,0.99780566,0.037095688,0
-0.821455,-4.0104408,-3.1472006,0.054842234,-0.99780566,-0.037095688,0
-2.9896131,3.8847108,1.3131267,-0.054842234,0.99780566,0.037095688,0
3.2683275,-1.7160807,-4.4353137,0.19593918,0.047183782,-0.97948021,0
2.2604055,-4.0078135,1.1254191,0.054842234,-0.99780566,-0.037095688,0
-0.01367569,3.9572358,-0.64118826,-0.054842234,0.99780566,0.037095688,0
3.2750845,1.4574561,-4.1874504,0.97908121,0.04644835,0.19809692,0
0.65462375,-3.9986603,-0.24570411,0.054842234,-0.99780566,-0.037095688,0
2.5967884,-3.3132951,0.49558651,0.97908121,0.04644835,0.19809692,0
2.7554002,1.4969099,-4.3936872,0.19593918,0.047183782,-0.97948021,0
2.3781323,2.5072575,-0.13753894,0.97908121,0.04644835,0.19809692,0
1.7045717,3.968328,1.8192236,-0.054842234,0.99780566,0.037095688,0
-2.8833742,-3.5497546,2.5409598,-0.97908121,-0.04644835,-0.19809692,0
0.96838045,4.2290068,-2.032362,-0.054842234,0.99780566,0.037095688,0
1.1660297,-4.003931,-0.34317592,0.054842234,-0.99780566,-0.037095688,0
-0.13579321,-4.2000957,4.8856773,0.054842234,-0.99780566,-0.037095688,0
-1.0636284,3.6962264,4.6895533,-0.054842234,0.99780566,0.037095688,0
2.5158961,-1.3645339,0.53115296,0.97908121,0.04644835,0.19809692,0
-1.4331594,-3.9304576,-2.6813354,0.054842234,-0.99780566,-0.037095688,0
-2.9149771,3.6126204,4.0641518,-0.054842234,0.99780566,0.037095688,0
2.7953591,-3.7848568,-3.087707,0.054842234,-0.99780566,-0.037095688,0
-1.0969138,-3.3802679,-5.4612947,0.19593918,0.047183782,-0.97948021,0
-1.8580115,3.6557269,4.332449,-0.054842234,0.99780566,0.037095688,0
-0.11038643,0.10418472,5.0250587,-0.19593918,-0.047183782,0.97948021,0
-1.0111766,-3.8280096,-4.6689391,0.054842234,-0.99780566,-0.037095688,0
1.2595215,4.2124252,-2.2345781,-0.054842234,0.99780566,0.037095688,0
-2.3287382,3.6899076,3.6539903,-0.054842234,0.99780566,0.037095688,0
-2.1715152,-0.56207919,4.6955833,-0.19593918,-0.047183782,0.97948021,0
-2.1013732,-0.1283679,-2.4490528,-0.97908121,-0.04644835,-0.19809692,0
-0.94877625,3.9958322,0.70244634,-0.054842234,0.99780566,0.037095688,0
1.7128775,-4.1285677,4.0265298,0.054842234,-0.99780566,-0.037095688,0
3.2569242,-3.356987,-2.4506233,0.97908121,0.04644835,0.19809692,0
1.4317775,4.0817256,1.2873319,-0.054842234,0.99780566,0.037095688,0
1.4146748,4.0915527,1.2969768,-0.054842234,0.99780566,0.037095688,0
-3.2370756,-0.96036792,3.8720787,-0.97908121,-0.04644835,-0.19809692,0
-0.40067172,-2.7493324,4.8321161,-0.19593918,-0.047183782,0.97948021,0
2.341994,-0.82959175,-4.6748719,0.19593918,0.047183782,-0.97948021,0
2.2356296,-2.0008974,1.5909357,0.97908121,0.04644835,0.19809692,0
-1.645386,-0.98073196,4.6935272,-0.19593918,-0.047183782,0.97948021,0
-2.2049713,0.32336771,4.7757893,-0.19593918,-0.047183782,0.97948021,0
0.88438463,-3.5336766,5.1156769,-0.19593918,-0.047183782,0.97948021,0
-3.1372695,-1.3348283,3.2148271,-0.97908121,-0.04644835,-0.19809692,0
1.4158081,1.900475,-4.7632208,0.19593918,0.047183782,-0.97948021,0
-0.53716207,3.8478348,2.6960115,-0.054842234,0.99780566,0.037095688,0
-1.0643897,-4.0642548,-0.55625743,0.054842234,-0.99780566,-0.037095688,0
-0.37740469,4.1420922,-3.9175072,-0.054842234,0.99780566,0.037095688,0
-3.073447,-3.7614579,4.3019471,-0.19593918,-0.047183782,0.97948021,0
2.9578645,1.2306943,-2.5658922,0.97908121,0.04644835,0.19809692,0
0.59645081,4.1808023,-3.2709506,-0.054842234,0.99780566,0.037095688,0
-0.90419126,3.7223411,3.7111988,-0.054842234,0.99780566,0.037095688,0
3.2656298,-1.5547695,-3.4771428,0.97908121,0.04644835,0.19809692,0
-0.93561792,2.8608475,5.0616035,-0.19593918,-0.047183782,0.97948021,0
-1.9645126,3.5586112,-3.6907644,-0.97908121,-0.04644835,-0.19809692,0
1.558079,-1.4982128,-4.9274926,0.19593918,0.047183782,-0.97948021,0
0.0163064,3.8755784,1.988953,-0.054842234,0.99780566,0.037095688,0
1.7855272,-0.5830617,3.8672159,0.97908121,0.04644835,0.19809692,0
2.5484433,-1.4752617,0.85316062,0.97908121,0.04644835,0.19809692,0
-1.9895527,-2.4134624,-2.2985177,-0.97908121,-0.04644835,-0.19809692,0
3.1625924,1.5711434,-3.77424,0.97908121,0.04644835,0.19809692,0
1.9374266,-3.8595705,-1.6675079,0.054842234,-0.99780566,-0.037095688,0
-1.5829577,-3.6308599,-4.1886272,-0.97908121,-0.04644835,-0.19809692,0
-1.563098,2.6952529,-5.3852978,0.19593918,0.047183782,-0.97948021,0
1.0198207,-3.8104422,-2.667659,0.054842234,-0.99780566,-0.037095688,0
2.427283,2.519305,0.20266333,0.97908121,0.04644835,0.19809692,0
2.5067933,-3.3688366,1.0560155,0.97908121,0.04644835,0.19809692,0
1.48225,-3.7350194,-4.5623617,0.054842234,-0.99780566,-0.037095688,0
-2.8290226,1.5822678,0.74507105,-0.97908121,-0.04644835,-0.19809692,0
2.7174873,-2.7124949,-0.5324825,0.97908121,0.04644835,0.19809692,0
-0.1963625,3.9225006,3.8297858,-0.054842234,0.99780566,0.037095688,0
-1.8342772,-1.3078713,-2.8464293,-0.97908121,-0.04644835,-0.19809692,0
0.10824728,4.1987777,-3.2791326,-0.054842234,0.99780566,0.037095688,0
0.834131,-3.886081,-3.6923535,0.054842234,-0.99780566,-0.037095688,0
2.3877964,4.3147354,-4.1846886,-0.054842234,0.99780566,0.037095688,0
3.1429691,-3.0676489,-2.6151588,0.97908121,0.04644835,0.19809692,0
1.5440834,-2.8024125,-4.9294996,0.19593918,0.047183782,-0.97948021,0
-1.693182,1.3272045,-4.5192924,-0.97908121,-0.04644835,-0.19809692,0
-2.1525874,-3.9582109,4.5053701,-0.19593918,-0.047183782,0.97948021,0
2.0761847,-0.66048145,3.0005295,0.97908121,0.04644835,0.19809692,0
-1.2576082,1.1822536,4.903811,-0.19593918,-0.047183782,0.97948021,0
0.33827543,3.8103237,-4.8643312,0.19593918,0.047183782,-0.97948021,0
0.9426626,0.96847939,5.350369,-0.19593918,-0.047183782,0.97948021,0
2.1804943,2.3752935,1.5904382,0.97908121,0.04644835,0.19809692,0
2.1079476,0.2554543,-4.7161293,0.19593918,0.047183782,-0.97948021,0
-3.3923979,3.4241309,4.5241508,-0.19593918,-0.047183782,0.97948021,0
0.76757812,2.2703199,5.2743316,-0.19593918,-0.047183782,0.97948021,0
1.8385229,4.0208797,2.3699529,-0.054842234,0.99780566,0.037095688,0
-3.2369223,-2.7365701,4.2600999,-0.19593918,-0.047183782,0.97948021,0
-1.8927655,-4.1060066,1.1094029,0.054842234,-0.99780566,-0.037095688,0
-2.0287547,-3.1421902,-1.3670068,-0.97908121,-0.04644835,-0.19809692,0
0.84722728,-0.64761442,-5.0292225,0.19593918,0.047183782,-0.97948021,0
-0.83490872,4.1712775,-2.9656298,-0.054842234,0.99780566,0.037095688,0
-2.7458572,-2.030935,4.4748173,-0.19593918,-0.047183782,0.97948021,0
-0.56031168,-0.98384374,4.8807158,-0.19593918,-0.047183782,0.97948021,0
-1.8162763,-2.5417898,-2.6946166,-0.97908121,-0.04644835,-0.19809692,0
0.3772707,3.8836925,2.2015622,-0.054842234,0.99780566,0.037095688,0
-2.6732836,2.6623657,4.6063204,-0.19593918,-0.047183782,0.97948021,0
2.0117927,-3.4553325,-4.9134903,0.19593918,0.047183782,-0.97948021,0
-0.028917775,0.52565587,-5.0131969,0.19593918,0.047183782,-0.97948021,0
2.9503341,4.3431606,-4.1050143,-0.054842234,0.99780566,0.037095688,0
1.0451777,0.61977434,-4.9596019,0.19593918,0.047183782,-0.97948021,0
-2.8575871,-3.5479321,4.417295,-0.19593918,-0.047183782,0.97948021,0
1.7626019,3.3681097,3.6045218,0.97908121,0.04644835,0.19809692,0
-1.4211333,3.974719,0.55838561,-0.054842234,0.99780566,0.037095688,0
2.7585692,-2.4980111,-4.7607841,0.19593918,0.047183782,-0.97948021,0
-2.6780348,0.9283402,0.66034555,-0.97908121,-0.04644835,-0.19809692,0
-1.521925,-4.0868363,-1.1912584,0.054842234,-0.99780566,-0.037095688,0
-0.55716515,-3.7692022,-5.1703615,0.054842234,-0.99780566,-0.037095688,0
-1.8462062,-4.1910295,2.0617139,0.054842234,-0.99780566,-0.037095688,0
-2.7243891,-1.6620994,1.7249161,-0.97908121,-0.04644835,-0.19809692,0
3.0912728,3.435071,-3.2105095,0.97908121,0.04644835,0.19809692,0
2.091289,1.4027362,-4.6020298,0.19593918,0.047183782,-0.97948021,0
-2.1574321,-3.8571529,-1.4754686,-0.97908121,-0.04644835,-0.19809692,0
-2.6126356,3.6559269,3.9945483,-0.054842234,0.99780566,0.037095688,0
-1.0842648,3.4990816,-5.0739617,0.19593918,0.047183782,-0.97948021,0
-0.29364237,0.43482834,-5.2385163,0.19593918,0.047183782,-0.97948021,0
0.064846277,2.6996822,-4.9355145,0.19593918,0.047183782,-0.97948021,0
-1.7787812,-0.93955088,4.7193141,-0.19593918,-0.047183782,0.97948021,0
-2.1456065,-2.0756149,-1.4683431,-0.97908121,-0.04644835,-0.19809692,0
-1.5339191,-2.5266056,4.6405835,-0.19593918,-0.047183782,0.97948021,0
-1.6996515,-4.1573539,3.2891383,0.054842234,-0.99780566,-0.037095688,0
2.0894873,-1.7449782,2.2278316,0.97908121,0.04644835,0.19809692,0
2.719785,-1.6653295,-4.5494375,0.19593918,0.047183782,-0.97948021,0
-0.85241628,4.138751,-3.0981748,-0.054842234,0.99780566,0.037095688,0
-2.9335182,1.828944,4.6259398,-0.19593918,-0.047183782,0.97948021,0
-1.9330153,-4.0563474,-2.4334707,0.054842234,-0.99780566,-0.037095688,0
-0.56710148,-3.9221568,-1.0416354,0.054842234,-0.99780566,-0.037095688,0
-0.0088706017,4.0008192,1.6758868,-0.054842234,0.99780566,0.037095688,0
-0.59136486,4.1149197,-1.5050019,-0.054842234,0.99780566,0.037095688,0
-2.1792078,-4.1638966,0.41075987,0.054842234,-0.99780566,-0.037095688,0
0.63940328,0.87856191,-4.9589806,0.19593918,0.047183782,-0.97948021,0
3.5225008,-2.4578481,-3.7452519,0.97908121,0.04644835,0.19809692,0
-1.042855,-4.0513067,2.0173099,0.054842234,-0.99780566,-0.037095688,0
1.3445411,4.1044388,1.4251637,-0.054842234,0.99780566,0.037095688,0
1.4592564,0.76500785,5.3573694,-0.19593918,-0.047183782,0.97948021,0
-1.7843094,-4.1965222,4.574604,-0.19593918,-0.047183782,0.97948021,0
-3.1986642,2.2995906,2.4315782,-0.97908121,-0.04644835,-0.19809692,0
-0.80542183,-3.9883335,4.8377171,-0.19593918,-0.047183782,0.97948021,0
1.1060003,-0.11653757,5.2495718,-0.19593918,-0.047183782,0.97948021,0
-2.7719169,-3.6558306,2.0688152,-0.97908121,-0.04644835,-0.19809692,0
0.59540176,3.8939013,3.2593524,-0.054842234,0.99780566,0.037095688,0
-3.2177999,-1.265098,3.8582425,-0.97908121,-0.04644835,-0.19809692,0
-2.7153237,-1.1292658,1.2763914,-0.97908121,-0.04644835,-0.19809692,0
2.5895414,-3.8270097,-3.2100375,0.054842234,-0.99780566,-0.037095688,0
2.3713164,-3.0063291,1.4487295,0.97908121,0.04644835,0.19809692,0
3.1040835,-1.2425764,-2.6091125,0.97908121,0.04644835,0.19809692,0
-0.46770477,4.144001,-3.3592477,-0.054842234,0.99780566,0.037095688,0
-2.0960662,-3.6325612,4.4230442,-0.19593918,-0.047183782,0.97948021,0
3.1368892,-1.9931908,-2.2276256,0.97908121,0.04644835,0.19809692,0
-3.3123393,0.28407359,4.4802251,-0.19593918,-0.047183782,0.97948021,0
1.7506137,-0.97706389,4.7002997,0.97908121,0.04644835,0.19809692,0
1.9010051,2.088186,-4.5681148,0.19593918,0.047183782,-0.97948021,0
-2.9222064,1.6751513,4.5107045,-0.19593918,-0.047183782,0.97948021,0
2.1713917,-0.13237369,-4.6598234,0.19593918,0.047183782,-0.97948021,0
0.65804434,0.75189584,5.3218999,-0.19593918,-0.047183782,0.97948021,0
0.78313458,-0.16496229,5.1800809,-0.19593918,-0.047183782,0.97948021,0
-3.1841159,-0.36309147,3.1627672,-0.97908121,-0.04644835,-0.19809692,0
-1.652106,4.0719509,-4.6423197,-0.054842234,0.99780566,0.037095688,0
0.20921439,-0.13001913,5.1492839,-0.19593918,-0.047183782,0.97948021,0
-1.7778512,-0.96787369,-3.8033943,-0.97908121,-0.04644835,-0.19809692,0
2.280257,1.3495266,-4.5197692,0.19593918,0.047183782,-0.97948021,0
-0.2561965,3.6010747,5.2956314,-0.19593918,-0.047183782,0.97948021,0
-2.4624693,-1.9716299,4.4196863,-0.19593918,-0.047183782,0.97948021,0
2.4702659,-2.5602133,0.61349303,0.97908121,0.04644835,0.19809692,0
0.77212191,-4.1184702,4.2292027,0.054842234,-0.99780566,-0.037095688,0
-1.5985317,4.0149846,-2.6570606,-0.054842234,0.99780566,0.037095688,0
-1.2837105,-4.1323352,1.8887542,0.054842234,-0.99780566,-0.037095688,0
-2.0076804,3.7553811,2.4461091,-0.054842234,0.99780566,0.037095688,0
2.2696085,-3.8800361,1.4310186,0.054842234,-0.99780566,-0.037095688,0
-2.7873683,-2.6347406,1.5422857,-0.97908121,-0.04644835,-0.19809692,0
-2.2441094,3.7828305,-2.3778315,-0.97908121,-0.04644835,-0.19809692,0
2.8353586,2.2537885,-1.7578001,0.97908121,0.04644835,0.19809692,0
2.5928197,2.4543073,-4.4468136,0.19593918,0.047183782,-0.97948021,0
2.3942428,-1.7587001,1.6558094,0.97908121,0.04644835,0.19809692,0
2.1563451,-1.0395808,2.0868659,0.97908121,0.04644835,0.19809692,0
1.5235629,0.10807884,-4.7238483,0.19593918,0.047183782,-0.97948021,0
0.450418,-3.9988966,0.99441862,0.054842234,-0.99780566,-0.037095688,0
1.8484004,-4.069757,2.2127926,0.054842234,-0.99780566,-0.037095688,0
-1.0090113,-2.5201969,-5.5290394,0.19593918,0.047183782,-0.97948021,0
0.6113615,-3.9387491,-1.1916468,0.054842234,-0.99780566,-0.037095688,0
-0.72462153,-3.4751685,4.6998816,-0.19593918,-0.047183782,0.97948021,0
1.129384,-1.6538608,-4.9607925,0.19593918,0.047183782,-0.97948021,0
2.094892,2.780499,1.1682848,0.97908121,0.04644835,0.19809692,0
0.19157881,1.445868,-4.9582138,0.19593918,0.047183782,-0.97948021,0
0.66650367,1.9137375,5.3771181,-0.19593918,-0.047183782,0.97948021,0
-0.42785287,-3.1054568,-5.2906389,0.19593918,0.047183782,-0.97948021,0
1.5681651,-0.79817915,5.4515033,0.97908121,0.04644835,0.19809692,0
-1.7022347,3.8205309,2.0235178,-0.054842234,0.99780566,0.037095688,0
2.3561893,4.1892986,-1.4533308,-0.054842234,0.99780566,0.037095688,0
-1.2875686,-3.6708643,-5.2857857,-0.97908121,-0.04644835,-0.19809692,0
2.633486,2.2604284,-1.0061407,0.97908121,0.04644835,0.19809692,0
1.2019885,-3.7591281,-4.2748108,0.054842234,-0.99780566,-0.037095688,0
-1.722265,3.6952031,4.2810421,-0.054842234,0.99780566,0.037095688,0
1.0385132,3.0917139,5.3816566,-0.19593918,-0.047183782,0.97948021,0
3.0438075,0.83643675,-3.0178807,0.97908121,0.04644835,0.19809692,0
-0.17750096,3.285156,5.3011365,-0.19593918,-0.047183782,0.97948021,0
2.9212673,-0.11191893,-1.363556,0.97908121,0.04644835,0.19809692,0
-2.4391944,0.30875683,4.6994262,-0.19593918,-0.047183782,0.97948021,0
-1.3431821,3.9362133,2.3386819,-0.054842234,0.99780566,0.037095688,0
0.85133743,3.8988199,2.5425932,-0.054842234,0.99780566,0.037095688,0
-2.4465806,-1.5268713,-0.043746009,-0.97908121,-0.04644835,-0.19809692,0
-2.5153785,-3.7828379,4.5032248,-0.19593918,-0.047183782,0.97948021,0
-2.5774148,2.4217813,-0.67595834,-0.97908121,-0.04644835,-0.19809692,0
-1.4775915,3.8224146,3.6917493,-0.054842234,0.99780566,0.037095688,0
-3.1979856,0.48489594,2.7848597,-0.97908121,-0.04644835,-0.19809692,0
-0.53331882,0.24357307,-5.2639451,0.19593918,0.047183782,-0.97948021,0
0.25496146,-1.138647,5.0222955,-0.19593918,-0.047183782,0.97948021,0
1.3351207,2.6991692,4.944005,0.97908121,0.04644835,0.19809692,0
-1.5319157,3.9917777,-2.3734741,-0.054842234,0.99780566,0.037095688,0
-2.2541361,-1.4584948,-1.4707443,-0.97908121,-0.04644835,-0.19809692,0
-2.8255303,3.7236691,1.6257298,-0.054842234,0.99780566,0.037095688,0
-2.6809506,1.2760954,0.26450148,-0.97908121,-0.04644835,-0.19809692,0
1.508513,-1.1523914,5.2881389,0.97908121,0.04644835,0.19809692,0
-2.8611636,-2.8606491,2.125916,-0.97908121,-0.04644835,-0.19809692,0
2.1795347,0.95006454,1.650761,0.97908121,0.04644835,0.19809692,0
-2.4581718,2.5168533,-1.5371984,-0.97908121,-0.04644835,-0.19809692,0
0.2560215,3.9455931,2.1659911,-0.054842234,0.99780566,0.037095688,0
2.1973939,1.0754638,1.7297763,0.97908121,0.04644835,0.19809692,0
2.5983877,0.93603361,-0.1361022,0.97908121,0.04644835,0.19809692,0
-2.6791182,0.66704392,0.52927303,-0.97908121,-0.04644835,-0.19809692,0
1.7288146,-0.47678995,4.5042667,0.97908121,0.04644835,0.19809692,0
3.2161605,-2.6856995,-2.785877,0.97908121,0.04644835,0.19809692,0
-2.0580993,-1.9795821,4.6994414,-0.19593918,-0.047183782,0.97948021,0
-2.7039199,-0.41533017,0.5283224,-0.97908121,-0.04644835,-0.19809692,0
0.61461687,-4.0369344,-0.93839967,0.054842234,-0.99780566,-0.037095688,0
1.9917207,-0.64449227,-4.7393579,0.19593918,0.047183782,-0.97948021,0
-0.89729977,3.8306093,1.1048074,-0.054842234,0.99780566,0.037095688,0
0.37614393,-3.9218152,0.24025433,0.054842234,-0.99780566,-0.037095688,0
0.8212347,3.8736463,4.7118111,-0.054842234,0.99780566,0.037095688,0
2.7875488,3.684216,-2.466769,0.97908121,0.04644835,0.19809692,0
-1.7285371,-3.5929365,-2.7759199,-0.97908121,-0.04644835,-0.19809692,0
1.3515642,3.7227998,-4.6004062,0.19593918,0.047183782,-0.97948021,0
3.2214146,-2.5696373,-2.2114544,0.97908121,0.04644835,0.19809692,0
-1.1330206,2.8065984,4.9159651,-0.19593918,-0.047183782,0.97948021,0
-1.7453663,3.64694,4.4777446,-0.054842234,0.99780566,0.037095688,0
-2.3572471,-4.3497987,3.8258326,0.054842234,-0.99780566,-0.037095688,0
-1.2934074,4.020926,-5.0910621,0.19593918,0.047183782,-0.97948021,0
2.5823989,4.263483,-4.1976891,-0.054842234,0.99780566,0.037095688,0
-3.2361455,3.5737164,4.5887709,-0.19593918,-0.047183782,0.97948021,0
-2.7377248,-4.3652849,3.6654615,0.054842234,-0.99780566,-0.037095688,0
-0.56828594,-3.7844458,-4.323473,0.054842234,-0.99780566,-0.037095688,0
1.8214107,3.0356126,3.2552121,0.97908121,0.04644835,0.19809692,0
-0.35137439,-2.1476626,-5.2530708,0.19593918,0.047183782,-0.97948021,0
2.3773503,-2.591182,1.6363313,0.97908121,0.04644835,0.19809692,0
-0.30465317,-3.9676914,1.0442028,0.054842234,-0.99780566,-0.037095688,0
2.6153955,2.0775285,-1.0092673,0.97908121,0.04644835,0.19809692,0
-0.38105011,4.1849704,-3.2708478,-0.054842234,0.99780566,0.037095688,0
1.4854097,-3.9656425,0.29971239,0.054842234,-0.99780566,-0.037095688,0
-1.9760845,2.6625619,-3.5485961,-0.97908121,-0.04644835,-0.19809692,0
0.03242135,4.2542086,-4.1418724,-0.054842234,0.99780566,0.037095688,0
-1.3677211,-4.000226,-0.44130462,0.054842234,-0.99780566,-0.037095688,0
1.8563277,-1.8084617,4.2097225,0.97908121,0.04644835,0.19809692,0
-1.5697644,3.79846,1.4979489,-0.054842234,0.99780566,0.037095688,0
2.2525892,-3.9209862,0.17690948,0.054842234,-0.99780566,-0.037095688,0
2.1616504,-3.8789163,2.0882201,0.054842234,-0.99780566,-0.037095688,0
3.2728107,-0.14876842,-3.3053219,0.97908121,0.04644835,0.19809692,0
0.58317572,-0.45143247,-4.9607573,0.19593918,0.047183782,-0.97948021,0
1.1882908,-0.92603832,-4.8989849,0.19593918,0.047183782,-0.97948021,0
2.1797435,1.5868901,1.9354488,0.97908121,0.04644835,0.19809692,0
-0.46443963,3.0981565,5.1210146,-0.19593918,-0.047183782,0.97948021,0
-0.66554999,-4.0835352,2.1746914,0.054842234,-0.99780566,-0.037095688,0
2.6415277,-2.0153985,-0.018091112,0.97908121,0.04644835,0.19809692,0
-2.459821,-1.8043001,-0.20970465,-0.97908121,-0.04644835,-0.19809692,0
1.881192,1.9113888,3.0897386,0.97908121,0.04644835,0.19809692,0
-2.1548259,3.0735011,4.8366675,-0.19593918,-0.047183782,0.97948021,0
-1.1474578,4.1254816,-3.5808327,-0.054842234,0.99780566,0.037095688,0
0.7301299,0.14293969,5.3016429,-0.19593918,-0.047183782,0.97948021,0
-0.46453667,-4.1200013,4.8353066,0.054842234,-0.99780566,-0.037095688,0
-2.3102272,0.73170304,-1.4639804,-0.97908121,-0.04644835,-0.19809692,0
2.0438557,3.3695307,1.6339875,0.97908121,0.04644835,0.19809692,0
-2.7268147,0.28848505,0.98699927,-0.97908121,-0.04644835,-0.19809692,0
-1.9355512,-3.741519,4.6117148,-0.19593918,-0.047183782,0.97948021,0
-1.0656843,4.0840435,-1.9206874,-0.054842234,0.99780566,0.037095688,0
-0.70535851,4.1754713,-3.5120859,-0.054842234,0.99780566,0.037095688,0
1.504775,3.9469745,2.0136795,-0.054842234,0.99780566,0.037095688,0
-2.8974466,-2.2912142,2.4932663,-0.97908121,-0.04644835,-0.19809692,0
0.661327,-2.6777234,5.1112566,-0.19593918,-0.047183782,0.97948021,0
2.1526389,4.2424488,-1.7799487,-0.054842234,0.99780566,0.037095688,0
0.018298626,3.9174528,2.1757145,-0.054842234,0.99780566,0.037095688,0
-2.3182776,2.5232005,-2.2226615,-0.97908121,-0.04644835,-0.19809692,0
-1.3558123,3.7693777,-5.2592468,0.19593918,0.047183782,-0.97948021,0
0.82364035,-3.9680107,-1.36606,0.054842234,-0.99780566,-0.037095688,0
-2.0601547,-0.89487863,4.6790929,-0.19593918,-0.047183782,0.97948021,0
