-1.6812853,-4.5029049,-0.92530644,-0.81504822,-0.40662366,-0.4127391,0
5.2470446,-1.5242977,-1.8593316,0.50681686,-0.15514775,-0.8479774,0
2.4593649,3.336719,-4.374938,0.50681686,-0.15514775,-0.8479774,0
-3.6368322,-3.964452,3.920656,-0.50681686,0.15514775,0.8479774,0
-2.0413623,4.4256229,1.4520574,-0.28077209,0.90032566,-0.33253664,0
4.1917272,3.72452,-3.3817396,0.81504822,0.40662366,0.4127391,0
-3.7388172,1.0438629,2.8946972,-0.50681686,0.15514775,0.8479774,0
0.39498186,4.619256,0.33474302,-0.28077209,0.90032566,-0.33253664,0
-0.39490056,-5.1300602,-2.4743445,-0.81504822,-0.40662366,-0.4127391,0
3.6651621,-1.5284941,2.9618106,0.81504822,0.40662366,0.4127391,0
-0.31184626,-0.043019533,5.140377,-0.50681686,0.15514775,0.8479774,0
-4.4425559,-1.7930065,2.0460811,-0.81504822,-0.40662366,-0.4127391,0
-4.0591187,3.3239222,2.3780856,-0.50681686,0.15514775,0.8479774,0
0.096322656,-1.8969378,-5.0075607,0.50681686,-0.15514775,-0.8479774,0
-2.4049675,4.7845755,2.7357249,-0.28077209,0.90032566,-0.33253664,0
2.0338967,0.35243082,3.9158623,0.81504822,0.40662366,0.4127391,0
3.257678,4.1119924,-2.1917987,0.81504822,0.40662366,0.4127391,0
-4.3360581,1.5894017,2.4622984,-0.50681686,0.15514775,0.8479774,0
0.45719576,3.0781345,-3.8430903,-0.28077209,0.90032566,-0.33253664,0
-1.2189689,3.6352024,-0.89635479,-0.28077209,0.90032566,-0.33253664,0
-2.7122853,-2.6997318,4.2130351,-0.50681686,0.15514775,0.8479774,0
1.794346,2.3511591,2.6851888,0.81504822,0.40662366,0.4127391,0
-3.8627238,-3.0422494,1.9904735,-0.81504822,-0.40662366,-0.4127391,0
-3.4302354,2.8248544,-1.3169553,-0.28077209,0.90032566,-0.33253664,0
-4.8090186,-1.8199097,2.7921228,-0.50681686,0.15514775,0.8479774,0
0.78756571,-3.734199,1.1408653,0.28077209,-0.90032566,0.33253664,0
3.8683176,-0.7044965,-2.8337374,0.50681686,-0.15514775,-0.8479774,0
3.0854111,-2.8712931,1.3993406,0.28077209,-0.90032566,0.33253664,0
-0.12983394,-4.1891575,-4.1280618,-0.81504822,-0.40662366,-0.4127391,0
-0.97162056,3.357882,-2.2060113,-0.28077209,0.90032566,-0.33253664,0
2.5188301,-2.1658783,-3.3238316,0.50681686,-0.15514775,-0.8479774,0
-1.5446507,-4.860024,-0.69336247,-0.81504822,-0.40662366,-0.4127391,0
-4.1729765,2.9446745,-0.45101929,-0.28077209,0.90032566,-0.33253664,0
1.0774541,4.2414823,1.9475832,0.81504822,0.40662366,0.4127391,0
0.56705809,-2.5532999,4.3650093,0.28077209,-0.90032566,0.33253664,0
-2.4488723,3.4188447,-0.66308165,-0.28077209,0.90032566,-0.33253664,0
-1.0906851,3.8901119,-0.3642379,-0.28077209,0.90032566,-0.33253664,0
4.7336931,-3.3770978,-1.3607922,0.28077209,-0.90032566,0.33253664,0
1.808594,-4.8749347,-2.576251,0.28077209,-0.90032566,0.33253664,0
-1.920265,2.5718679,3.5800061,-0.50681686,0.15514775,0.8479774,0
-4.0830765,-0.16160679,-0.46528816,-0.81504822,-0.40662366,-0.4127391,0
3.8464355,1.3522382,-3.332448,0.50681686,-0.15514775,-0.8479774,0
3.0453575,-0.77950668,-3.4055467,0.50681686,-0.15514775,-0.8479774,0
-0.012203574,-2.9890823,-4.7457356,0.50681686,-0.15514775,-0.8479774,0
-4.7939258,1.1534325,2.1615772,-0.50681686,0.15514775,0.8479774,0
-2.4169357,-3.5094354,-0.093970865,-0.81504822,-0.40662366,-0.4127391,0
-0.79266477,4.8698039,2.1008067,-0.28077209,0.90032566,-0.33253664,0
2.7445135,0.91327691,2.1952243,0.81504822,0.40662366,0.4127391,0
0.81949764,3.86974,3.2438502,0.81504822,0.40662366,0.4127391,0
1.7910414,4.9806352,-0.24655424,-0.28077209,0.90032566,-0.33253664,0
-1.932631,-2.744668,-2.0340786,-0.81504822,-0.40662366,-0.4127391,0
0.85228515,-0.81081808,-4.6484518,0.50681686,-0.15514775,-0.8479774,0
4.88308,0.65401947,-1.5845199,0.81504822,0.40662366,0.4127391,0
-2.9796643,-2.1937346,4.0065055,-0.50681686,0.15514775,0.8479774,0
1.0806081,-4.0260415,-4.0017295,0.50681686,-0.15514775,-0.8479774,0
-1.9603503,4.3488564,1.3865924,-0.28077209,0.90032566,-0.33253664,0
-3.7890799,-2.6983447,3.4874539,-0.50681686,0.15514775,0.8479774,0
0.27691078,-0.96999907,-4.8794184,0.50681686,-0.15514775,-0.8479774,0
2.0139329,2.2422502,2.367811,0.81504822,0.40662366,0.4127391,0
-0.544029,-1.6391573,-5.4497242,0.50681686,-0.15514775,-0.8479774,0
1.9276083,2.4461977,-4.5420866,0.50681686,-0.15514775,-0.8479774,0
-2.3871229,-0.28442717,3.9707537,-0.50681686,0.15514775,0.8479774,0
4.8515348,-0.3920933,-2.3591018,0.50681686,-0.15514775,-0.8479774,0
1.2052442,-3.7187324,-3.9858842,0.50681686,-0.15514775,-0.8479774,0
2.4436574,-3.2443881,-3.2273564,0.50681686,-0.15514775,-0.8479774,0
-3.7207932,-1.644786,0.3267746,-0.81504822,-0.40662366,-0.4127391,0
-4.4084082,-0.94754928,2.7911057,-0.50681686,0.15514775,0.8479774,0
0.28994733,4.2589259,3.5051053,0.81504822,0.40662366,0.4127391,0
-2.9419918,0.048672378,3.4263072,-0.50681686,0.15514775,0.8479774,0
-4.80652,1.392789,2.2833309,-0.50681686,0.15514775,0.8479774,0
1.9533303,4.0522795,0.40071186,0.81504822,0.40662366,0.4127391,0
-4.4778023,-0.96510673,2.7208538,-0.50681686,0.15514775,0.8479774,0
-0.42847872,3.1797976,-3.0141418,-0.28077209,0.90032566,-0.33253664,0
-3.3481178,-1.8431205,3.6632423,-0.50681686,0.15514775,0.8479774,0
-0.38384724,0.79328465,-5.6709385,0.50681686,-0.15514775,-0.8479774,0
1.2533898,-1.4068447,-4.2638102,0.50681686,-0.15514775,-0.8479774,0
3.492708,2.829627,-1.2878308,0.81504822,0.40662366,0.4127391,0
-0.43638897,4.0395412,-1.0174969,-0.28077209,0.90032566,-0.33253664,0
-4.1075134,0.1216228,-0.42359805,-0.81504822,-0.40662366,-0.4127391,0
0.62330627,-3.0241175,3.2793314,0.28077209,-0.90032566,0.33253664,0
-1.8007623,3.9218774,3.3998046,-0.50681686,0.15514775,0.8479774,0
2.6871698,2.626519,-4.077405,0.50681686,-0.15514775,-0.8479774,0
-2.0868316,-1.1630442,-3.1767738,-0.81504822,-0.40662366,-0.4127391,0
2.8000574,0.33822083,2.5343313,0.81504822,0.40662366,0.4127391,0
2.9443862,2.8290834,-0.22195625,0.81504822,0.40662366,0.4127391,0
-1.2432423,-3.8084917,3.0195246,0.28077209,-0.90032566,0.33253664,0
-1.8629167,-2.7951174,-1.9106371,-0.81504822,-0.40662366,-0.4127391,0
-1.9193956,-0.76202905,4.3999653,-0.50681686,0.15514775,0.8479774,0
-2.5424137,-0.13200462,3.7553277,-0.50681686,0.15514775,0.8479774,0
-2.687753,1.6322412,3.3393564,-0.50681686,0.15514775,0.8479774,0
-3.9205861,-3.2034192,3.4989057,-0.50681686,0.15514775,0.8479774,0
1.2524154,0.26418352,5.5289516,0.81504822,0.40662366,0.4127391,0
-0.82942343,1.1473505,-5.9987011,0.50681686,-0.15514775,-0.8479774,0
3.9271822,2.7060137,-1.9487944,0.81504822,0.40662366,0.4127391,0
-3.2369075,-2.7876575,0.75446272,-0.81504822,-0.40662366,-0.4127391,0
-0.54328966,-3.302177,3.6901329,0.28077209,-0.90032566,0.33253664,0
-0.18058848,-4.8889875,-0.76368332,0.28077209,-0.90032566,0.33253664,0
0.47257876,4.1817393,-1.3783917,-0.28077209,0.90032566,-0.33253664,0
1.1069236,-4.7369432,-1.5802104,0.28077209,-0.90032566,0.33253664,0
-1.2262254,3.3195238,-1.8359483,-0.28077209,0.90032566,-0.33253664,0
4.7860317,-2.1534305,1.0576475,0.81504822,0.40662366,0.4127391,0
-2.934767,-1.4383614,3.7496948,-0.50681686,0.15514775,0.8479774,0
3.6278343,-1.1971402,2.2960742,0.81504822,0.40662366,0.4127391,0
1.632957,1.7394257,3.6546369,0.81504822,0.40662366,0.4127391,0
-0.089699984,-0.71528554,-5.3426032,0.50681686,-0.15514775,-0.8479774,0
-4.1744237,-3.2302227,3.4417014,-0.50681686,0.15514775,0.8479774,0
3.1877222,-0.672732,-3.3777909,0.50681686,-0.15514775,-0.8479774,0
-3.8718128,-3.4431255,3.7061553,-0.50681686,0.15514775,0.8479774,0
0.50292706,3.9081049,-1.7568572,-0.28077209,0.90032566,-0.33253664,0
0.25073907,-4.3800874,-4.4432859,0.50681686,-0.15514775,-0.8479774,0
-4.6220713,-1.9922359,2.7286506,-0.81504822,-0.40662366,-0.4127391,0
0.22605039,-3.4621406,-4.6531472,0.50681686,-0.15514775,-0.8479774,0
-0.61238909,0.33644247,-5.8439121,0.50681686,-0.15514775,-0.8479774,0
-0.39669371,-2.0737369,5.3425627,-0.50681686,0.15514775,0.8479774,0
-3.9489398,-1.4092944,3.1379061,-0.50681686,0.15514775,0.8479774,0
-4.5580111,0.10985339,2.477417,-0.50681686,0.15514775,0.8479774,0
-3.5118792,-2.5977864,3.7217102,-0.50681686,0.15514775,0.8479774,0
-3.8245449,-1.988915,3.477972,-0.50681686,0.15514775,0.8479774,0
-4.5036297,-0.77282155,1.1083336,-0.81504822,-0.40662366,-0.4127391,0
0.94370651,3.299968,-3.9286487,-0.28077209,0.90032566,-0.33253664,0
-0.54114622,4.4697533,4.1337838,-0.50681686,0.15514775,0.8479774,0
-1.8762286,-0.70590019,-4.1135898,-0.81504822,-0.40662366,-0.4127391,0
2.6133504,-0.514961,3.6030138,0.81504822,0.40662366,0.4127391,0
1.5657563,-2.1820676,4.9595313,0.28077209,-0.90032566,0.33253664,0
0.57873106,-2.3460526,5.1187458,0.28077209,-0.90032566,0.33253664,0
0.56970644,3.763484,-2.5557399,-0.28077209,0.90032566,-0.33253664,0
1.4546607,-1.7771981,-4.1683183,0.50681686,-0.15514775,-0.8479774,0
4.2527938,2.2652588,-3.2891693,0.50681686,-0.15514775,-0.8479774,0
-1.2250577,3.6516099,3.9916854,-0.50681686,0.15514775,0.8479774,0
4.3381681,-3.4406552,-0.70527363,0.28077209,-0.90032566,0.33253664,0
4.4654374,-0.88981563,-2.576375,0.50681686,-0.15514775,-0.8479774,0
0.77111912,0.78623438,-4.9354444,0.50681686,-0.15514775,-0.8479774,0
-0.50328028,-2.3166847,-5.2350125,0.50681686,-0.15514775,-0.8479774,0
2.7979882,1.3844963,1.3497652,0.81504822,0.40662366,0.4127391,0
2.1758142,-4.8995247,-3.1515727,0.50681686,-0.15514775,-0.8479774,0
-3.9950371,-4.0133648,3.4634659,-0.81504822,-0.40662366,-0.4127391,0
-6.0973425,2.8673139,0.96446133,-0.28077209,0.90032566,-0.33253664,0
1.9925311,4.8000345,-0.8000688,-0.28077209,0.90032566,-0.33253664,0
0.074508667,-3.2656872,2.9048944,0.28077209,-0.90032566,0.33253664,0
1.6954579,-2.5653293,3.5399857,0.28077209,-0.90032566,0.33253664,0
-1.4983306,-4.799799,0.36735535,0.28077209,-0.90032566,0.33253664,0
-4.4360151,3.1043303,0.018345356,-0.28077209,0.90032566,-0.33253664,0
0.47901821,-4.9367013,-1.674649,0.28077209,-0.90032566,0.33253664,0
-2.1361194,-3.918293,-0.63120311,-0.81504822,-0.40662366,-0.4127391,0
-0.19080019,2.8134561,-3.9864521,-0.28077209,0.90032566,-0.33253664,0
-0.90515876,1.1627886,4.4653263,-0.50681686,0.15514775,0.8479774,0
-4.9619608,-0.69728589,2.4536309,-0.50681686,0.15514775,0.8479774,0
-2.9024076,1.6349993,-4.4325213,-0.81504822,-0.40662366,-0.4127391,0
-1.9239103,-1.5470133,-2.9263053,-0.81504822,-0.40662366,-0.4127391,0
-4.8599029,1.2987185,2.2267699,-0.50681686,0.15514775,0.8479774,0
0.66073322,-4.5396538,-0.92773867,0.28077209,-0.90032566,0.33253664,0
-4.4887133,-1.6899793,2.998827,-0.50681686,0.15514775,0.8479774,0
1.2685051,-2.2836068,4.5488987,0.28077209,-0.90032566,0.33253664,0
0.43307745,2.7783866,4.6748343,0.81504822,0.40662366,0.4127391,0
0.48831129,3.5738773,-3.0300841,-0.28077209,0.90032566,-0.33253664,0
3.1498814,2.8879523,-3.8396475,0.50681686,-0.15514775,-0.8479774,0
2.3852587,-3.9842653,-3.0381289,0.50681686,-0.15514775,-0.8479774,0
2.1234665,4.2215681,-2.6243048,-0.28077209,0.90032566,-0.33253664,0
-3.9323599,-3.6683013,2.7562482,-0.81504822,-0.40662366,-0.4127391,0
-0.52677059,-5.3170714,-1.7632084,0.28077209,-0.90032566,0.33253664,0
-1.1595569,-4.6511374,0.36532077,0.28077209,-0.90032566,0.33253664,0
0.37296438,-2.0742965,-4.7775359,0.50681686,-0.15514775,-0.8479774,0
-2.5205126,-0.64148259,-2.8635328,-0.81504822,-0.40662366,-0.4127391,0
1.1695843,4.8405561,0.18331861,-0.28077209,0.90032566,-0.33253664,0
4.0717077,-2.8565698,1.0252836,0.28077209,-0.90032566,0.33253664,0
2.9353266,2.8281209,-4.1339154,0.50681686,-0.15514775,-0.8479774,0
2.3764148,-1.2393169,4.7872815,0.81504822,0.40662366,0.4127391,0
-0.58324289,-5.0859799,-2.1701398,-0.81504822,-0.40662366,-0.4127391,0
2.5024877,-1.3188167,4.7898312,0.81504822,0.40662366,0.4127391,0
1.268862,2.006361,-4.93889,0.50681686,-0.15514775,-0.8479774,0
1.4858518,4.9010191,-0.017375767,-0.28077209,0.90032566,-0.33253664,0
-0.083687782,-2.4920211,5.3586626,0.28077209,-0.90032566,0.33253664,0
1.1683205,1.7985859,4.3697968,0.81504822,0.40662366,0.4127391,0
2.3794844,3.6894295,-4.2765512,-0.28077209,0.90032566,-0.33253664,0
2.4605246,-1.9982538,4.2601967,0.28077209,-0.90032566,0.33253664,0
-3.7588971,2.2439473,2.6137104,-0.50681686,0.15514775,0.8479774,0
-3.8649893,-0.78757668,-0.28524089,-0.81504822,-0.40662366,-0.4127391,0
-1.157299,-0.83259559,-5.5805464,-0.81504822,-0.40662366,-0.4127391,0
0.97578382,-2.4802749,4.6950617,0.28077209,-0.90032566,0.33253664,0
-1.6257544,-4.3818002,-1.1603097,-0.81504822,-0.40662366,-0.4127391,0
-3.4691374,-0.30276251,-1.2367482,-0.81504822,-0.40662366,-0.4127391,0
1.4098552,3.3125832,2.5678716,0.81504822,0.40662366,0.4127391,0
-6.0585241,2.5312781,1.3163581,-0.50681686,0.15514775,0.8479774,0
4.7024255,0.071380615,-0.85917902,0.81504822,0.40662366,0.4127391,0
-0.85379171,-2.1014597,5.1473265,-0.50681686,0.15514775,0.8479774,0
2.8377905,-1.2144554,4.1383371,0.81504822,0.40662366,0.4127391,0
-2.7936728,0.8237679,-3.8379998,-0.81504822,-0.40662366,-0.4127391,0
-3.056334,-2.1208234,-0.40756309,-0.81504822,-0.40662366,-0.4127391,0
2.764369,3.73908,-4.0489407,-0.28077209,0.90032566,-0.33253664,0
1.9861107,-3.5188098,0.99257171,0.28077209,-0.90032566,0.33253664,0
1.0609462,4.4799871,-0.58101326,-0.28077209,0.90032566,-0.33253664,0
-2.3383508,-3.4973519,4.3480616,0.28077209,-0.90032566,0.33253664,0
4.1758175,-0.82901478,-2.58255,0.50681686,-0.15514775,-0.8479774,0
-1.7127738,0.98153353,-6.2488546,-0.81504822,-0.40662366,-0.4127391,0
4.3049607,2.7743971,-2.5166121,0.81504822,0.40662366,0.4127391,0
-4.9909077,1.5806882,0.059979916,-0.81504822,-0.40662366,-0.4127391,0
-3.2054901,-2.9274526,3.9657416,-0.50681686,0.15514775,0.8479774,0
0.37562799,-4.6341634,-0.96629906,0.28077209,-0.90032566,0.33253664,0
-4.3178864,3.0814757,-0.26352167,-0.28077209,0.90032566,-0.33253664,0
-2.5134618,-4.0663099,3.3496912,0.28077209,-0.90032566,0.33253664,0
5.486074,-0.61808801,-1.6738863,0.81504822,0.40662366,0.4127391,0
-3.9475012,-2.8008347,3.5756645,-0.50681686,0.15514775,0.8479774,0
-4.5601072,0.090360641,0.37122774,-0.81504822,-0.40662366,-0.4127391,0
-1.3500636,-4.0339413,2.3740404,0.28077209,-0.90032566,0.33253664,0
0.0040168762,0.64942861,5.2254171,-0.50681686,0.15514775,0.8479774,0
2.4404035,4.8259277,-1.0177202,0.81504822,0.40662366,0.4127391,0
-0.65477657,-4.2694626,0.78818893,0.28077209,-0.90032566,0.33253664,0
-0.1988585,-5.4821095,-2.5566995,-0.81504822,-0.40662366,-0.4127391,0
-3.8343954,0.93743777,-2.0190341,-0.81504822,-0.40662366,-0.4127391,0
-1.4096913,-0.29107189,-5.4018507,-0.81504822,-0.40662366,-0.4127391,0
-2.1257792,3.2886684,-1.0364128,-0.28077209,0.90032566,-0.33253664,0
-2.7156258,-4.371232,1.396287,-0.81504822,-0.40662366,-0.4127391,0
-0.42933178,4.9902534,1.6668127,-0.28077209,0.90032566,-0.33253664,0
-1.4861474,2.1405122,-4.9479632,-0.28077209,0.90032566,-0.33253664,0
2.7611125,2.1408684,-3.9816782,0.50681686,-0.15514775,-0.8479774,0
-1.6366626,-3.990036,-1.475462,-0.81504822,-0.40662366,-0.4127391,0
4.6172538,0.71369791,-1.4536505,0.81504822,0.40662366,0.4127391,0
-1.0135522,-0.86103129,4.8419366,-0.50681686,0.15514775,0.8479774,0
-0.76752234,-5.1796508,-1.8760612,-0.81504822,-0.40662366,-0.4127391,0
1.3560544,1.8659477,3.9527531,0.81504822,0.40662366,0.4127391,0
-0.67871904,0.97471118,-5.8434629,0.50681686,-0.15514775,-0.8479774,0
1.0817485,3.7423649,-2.9590106,-0.28077209,0.90032566,-0.33253664,0
-3.2355909,-1.1116946,3.6204548,-0.50681686,0.15514775,0.8479774,0
1.4899398,3.5719829,1.9329137,0.81504822,0.40662366,0.4127391,0
-4.122519,2.3589113,2.3437901,-0.50681686,0.15514775,0.8479774,0
3.7643683,0.76316833,0.28596759,0.81504822,0.40662366,0.4127391,0
-4.5241194,-1.9760416,2.2072124,-0.81504822,-0.40662366,-0.4127391,0
0.77688217,-0.15003967,-4.7778473,0.50681686,-0.15514775,-0.8479774,0
-0.17248869,-2.8888741,4.5538216,0.28077209,-0.90032566,0.33253664,0
0.22603035,5.1242123,1.7875977,-0.28077209,0.90032566,-0.33253664,0
-1.7448089,4.3137493,3.539619,-0.50681686,0.15514775,0.8479774,0
-1.5422999,0.056435704,4.3326902,-0.50681686,0.15514775,0.8479774,0
-4.3628445,0.99006248,-0.92506051,-0.81504822,-0.40662366,-0.4127391,0
-0.027086735,-0.98058176,5.3907142,-0.50681686,0.15514775,0.8479774,0
-0.34351659,-0.064459085,5.0716839,-0.50681686,0.15514775,0.8479774,0
-2.8553059,-0.55182743,-2.3603916,-0.81504822,-0.40662366,-0.4127391,0
4.8537111,0.66854882,-2.5324397,0.50681686,-0.15514775,-0.8479774,0
-4.1179395,2.7679074,2.3044186,-0.50681686,0.15514775,0.8479774,0
5.2295489,-2.0031612,0.35530043,0.81504822,0.40662366,0.4127391,0
-2.6897662,-2.6484332,-0.37060159,-0.81504822,-0.40662366,-0.4127391,0
2.8510351,3.1069684,-0.26474929,0.81504822,0.40662366,0.4127391,0
-0.38684297,-4.3026199,0.58021736,0.28077209,-0.90032566,0.33253664,0
0.61721182,-2.2935011,5.2675056,0.28077209,-0.90032566,0.33253664,0
1.3589714,1.1798505,-4.6943464,0.50681686,-0.15514775,-0.8479774,0
1.3572688,-4.3380098,-0.89019394,0.28077209,-0.90032566,0.33253664,0
-3.9176793,3.4814801,2.262506,-0.50681686,0.15514775,0.8479774,0
-0.24906588,5.0525107,4.0497484,0.81504822,0.40662366,0.4127391,0
0.47822213,4.7445812,0.14215505,-0.28077209,0.90032566,-0.33253664,0
-2.9815731,1.1650023,3.2950873,-0.50681686,0.15514775,0.8479774,0
4.2542019,-3.4980319,-1.3075485,0.28077209,-0.90032566,0.33253664,0
-4.720747,2.1106389,2.1391444,-0.50681686,0.15514775,0.8479774,0
-3.1101544,-3.8399515,1.5691619,-0.81504822,-0.40662366,-0.4127391,0
3.0477352,0.8460722,-3.5424509,0.50681686,-0.15514775,-0.8479774,0
2.3672564,2.84006,-4.357584,0.50681686,-0.15514775,-0.8479774,0
5.8168063,-3.0736375,-1.1374083,0.28077209,-0.90032566,0.33253664,0
-4.8141584,-1.0927767,2.0637565,-0.81504822,-0.40662366,-0.4127391,0
1.0248249,-4.1834474,-4.0193486,0.50681686,-0.15514775,-0.8479774,0
0.20735788,-3.9740582,0.83810782,0.28077209,-0.90032566,0.33253664,0
4.7132387,2.1160343,-2.874547,0.81504822,0.40662366,0.4127391,0
3.9361386,-3.6261239,-2.2885566,0.50681686,-0.15514775,-0.8479774,0
5.8616004,-2.6314943,-1.2892208,0.50681686,-0.15514775,-0.8479774,0
-1.6824377,-4.9251118,-0.35210687,-0.81504822,-0.40662366,-0.4127391,0
-0.94972676,2.6049809,4.3788595,-0.50681686,0.15514775,0.8479774,0
3.1371293,0.44979078,-3.4601903,0.50681686,-0.15514775,-0.8479774,0
1.7956461,-3.3007007,-3.6851711,0.50681686,-0.15514775,-0.8479774,0
1.9029,-4.2698927,-1.2277584,0.28077209,-0.90032566,0.33253664,0
-3.1260228,1.7644703,-4.0905685,-0.81504822,-0.40662366,-0.4127391,0
-1.5014082,2.9859343,3.9125614,-0.50681686,0.15514775,0.8479774,0
0.21149826,2.9549692,-4.1939049,-0.28077209,0.90032566,-0.33253664,0
-4.1670485,3.4850235,2.1703434,-0.50681686,0.15514775,0.8479774,0
5.265933,-3.1075096,-0.88349628,0.28077209,-0.90032566,0.33253664,0
-1.9302055,1.2414722,3.8102417,-0.50681686,0.15514775,0.8479774,0
-0.45726657,-5.0853281,-1.5111232,0.28077209,-0.90032566,0.33253664,0
-2.3085756,-0.82784438,-3.3027034,-0.81504822,-0.40662366,-0.4127391,0
-0.050687134,4.5841885,4.2587504,0.81504822,0.40662366,0.4127391,0
0.43761259,3.478209,4.0847316,0.81504822,0.40662366,0.4127391,0
-4.5722461,-0.71758628,1.2469215,-0.81504822,-0.40662366,-0.4127391,0
1.6725295,1.8975205,3.1999655,0.81504822,0.40662366,0.4127391,0
1.1071625,-4.375617,-0.88185906,0.28077209,-0.90032566,0.33253664,0
0.64270449,-4.3343019,-0.43070865,0.28077209,-0.90032566,0.33253664,0
0.59436059,-0.57317376,-4.8547754,0.50681686,-0.15514775,-0.8479774,0
1.7421727,-1.6625872,5.859684,0.28077209,-0.90032566,0.33253664,0
1.9068646,-1.0777712,5.9346924,0.81504822,0.40662366,0.4127391,0
3.9262393,-2.9681277,0.90294719,0.28077209,-0.90032566,0.33253664,0
-1.1627812,-3.7173829,2.896071,0.28077209,-0.90032566,0.33253664,0
3.7526588,-1.3027992,2.2125306,0.81504822,0.40662366,0.4127391,0
3.3351996,4.1535883,-3.8958888,-0.28077209,0.90032566,-0.33253664,0
-0.70717335,-0.0020565987,-5.826488,0.50681686,-0.15514775,-0.8479774,0
-1.6946826,-1.8229721,-3.282887,-0.81504822,-0.40662366,-0.4127391,0
-0.31943226,3.5600212,-2.2918804,-0.28077209,0.90032566,-0.33253664,0
1.5783567,-4.8512387,-2.2757602,0.28077209,-0.90032566,0.33253664,0
5.022778,1.1755857,-2.5666804,0.81504822,0.40662366,0.4127391,0
-1.1208198,-4.6972117,0.34504613,0.28077209,-0.90032566,0.33253664,0
-2.0602124,4.6836309,2.6815701,-0.28077209,0.90032566,-0.33253664,0
-0.3294549,1.4954271,-5.7377901,0.50681686,-0.15514775,-0.8479774,0
0.89806628,-4.0235119,0.3121016,0.28077209,-0.90032566,0.33253664,0
-1.4138392,4.2959414,3.7048931,-0.50681686,0.15514775,0.8479774,0
-2.6876731,-2.0599971,-1.0222675,-0.81504822,-0.40662366,-0.4127391,0
-2.1084342,1.6279707,-5.8556232,-0.28077209,0.90032566,-0.33253664,0
-4.080699,-2.0481474,1.5003395,-0.81504822,-0.40662366,-0.4127391,0
-5.0381327,2.5565534,-0.74348354,-0.28077209,0.90032566,-0.33253664,0
1.1794033,-4.4491029,-0.93873596,0.28077209,-0.90032566,0.33253664,0
-3.933115,-1.2559409,0.47627234,-0.81504822,-0.40662366,-0.4127391,0
0.99597311,-1.8585722,6.2363486,0.28077209,-0.90032566,0.33253664,0
2.276639,2.2738304,1.9746715,0.81504822,0.40662366,0.4127391,0
3.2760129,2.5739326,-0.76007533,0.81504822,0.40662366,0.4127391,0
0.21703196,3.5969818,-2.4304383,-0.28077209,0.90032566,-0.33253664,0
-1.1878867,4.6391916,1.5209174,-0.28077209,0.90032566,-0.33253664,0
-2.6140494,-2.083725,-1.1342885,-0.81504822,-0.40662366,-0.4127391,0
-1.9697599,3.3649855,-1.5382323,-0.28077209,0.90032566,-0.33253664,0
1.1048036,-2.3229668,4.8746452,0.28077209,-0.90032566,0.33253664,0
4.1045475,-1.1819223,-2.6840525,0.50681686,-0.15514775,-0.8479774,0
-2.2505159,-4.5966301,0.5251354,-0.81504822,-0.40662366,-0.4127391,0
4.714385,-2.9715288,-1.9519672,0.50681686,-0.15514775,-0.8479774,0
5.2346778,-1.7724906,-1.7524118,0.50681686,-0.15514775,-0.8479774,0
-2.0401754,0.38846779,-4.973628,-0.81504822,-0.40662366,-0.4127391,0
-1.4614288,4.6906753,3.555644,-0.50681686,0.15514775,0.8479774,0
3.1169519,-0.62274039,-3.2575293,0.50681686,-0.15514775,-0.8479774,0
-4.0859442,1.6635087,2.4691691,-0.50681686,0.15514775,0.8479774,0
0.86245012,1.8737905,4.8152838,0.81504822,0.40662366,0.4127391,0
-0.3032012,-1.8273282,-5.0965643,0.50681686,-0.15514775,-0.8479774,0
1.6019526,1.5612833,3.9092364,0.81504822,0.40662366,0.4127391,0
4.4320302,2.6037982,-3.1993852,0.50681686,-0.15514775,-0.8479774,0
1.289485,2.5864148,-5.046277,0.50681686,-0.15514775,-0.8479774,0
-0.51028442,-2.9683657,4.2361603,0.28077209,-0.90032566,0.33253664,0
-1.0479321,-1.9634521,-4.5270262,-0.81504822,-0.40662366,-0.4127391,0
-4.4845953,0.80155635,-0.20431256,-0.81504822,-0.40662366,-0.4127391,0
1.3741446,3.5871243,-3.2054653,-0.28077209,0.90032566,-0.33253664,0
-1.2116153,-0.93527484,-5.1603928,-0.81504822,-0.40662366,-0.4127391,0
5.2791147,-1.0486715,-1.1232233,0.81504822,0.40662366,0.4127391,0
0.95296526,-1.0586138,6.1137867,-0.50681686,0.15514775,0.8479774,0
-4.9644728,-0.76764274,1.8583598,-0.81504822,-0.40662366,-0.4127391,0
-0.27392364,-5.0728254,-1.3510261,0.28077209,-0.90032566,0.33253664,0
1.2911117,4.9818201,0.53715599,-0.28077209,0.90032566,-0.33253664,0
-1.5230179,-3.7564993,3.1148107,0.28077209,-0.90032566,0.33253664,0
0.47561216,1.8129489,-5.360157,0.50681686,-0.15514775,-0.8479774,0
0.8157599,1.9726844,5.1391234,0.81504822,0.40662366,0.4127391,0
-2.9767835,3.9452968,0.8945446,-0.28077209,0.90032566,-0.33253664,0
-2.2563856,-3.4653442,4.5642767,-0.50681686,0.15514775,0.8479774,0
-1.8045101,0.51587534,-5.4716568,-0.81504822,-0.40662366,-0.4127391,0
1.7968411,0.83970428,3.9733081,0.81504822,0.40662366,0.4127391,0
5.3519015,0.092941284,-2.2271605,0.50681686,-0.15514775,-0.8479774,0
0.5315156,2.1013708,-5.2758355,0.50681686,-0.15514775,-0.8479774,0
-0.09159708,-2.7316418,4.7959542,0.28077209,-0.90032566,0.33253664,0
0.53769958,4.3704696,2.9279315,0.81504822,0.40662366,0.4127391,0
1.7123868,3.4188092,-4.1634216,-0.28077209,0.90032566,-0.33253664,0
2.1728868,4.5645638,-0.36240432,0.81504822,0.40662366,0.4127391,0
-0.43032026,1.3562858,-5.7112064,0.50681686,-0.15514775,-0.8479774,0
2.8476696,0.94884014,-3.7626534,0.50681686,-0.15514775,-0.8479774,0
2.9785757,-1.7614851,4.5148187,0.28077209,-0.90032566,0.33253664,0
0.64222586,-5.0275846,-4.0219393,0.50681686,-0.15514775,-0.8479774,0
-2.5067096,-2.2283835,-1.4252902,-0.81504822,-0.40662366,-0.4127391,0
4.8651743,-2.2723541,-1.9699526,0.50681686,-0.15514775,-0.8479774,0
0.64621741,2.9455423,4.0719872,0.81504822,0.40662366,0.4127391,0
-1.4852664,4.7125912,2.2526727,-0.28077209,0.90032566,-0.33253664,0
0.95631027,-4.9019327,-3.859488,0.50681686,-0.15514775,-0.8479774,0
6.0588064,-2.5915799,-1.1659942,0.50681686,-0.15514775,-0.8479774,0
2.4449172,2.117095,1.4171925,0.81504822,0.40662366,0.4127391,0
-3.9167616,1.2693143,-2.1387784,-0.81504822,-0.40662366,-0.4127391,0
0.44435525,5.1963367,2.259233,0.81504822,0.40662366,0.4127391,0
0.12993526,1.7486525,5.0931225,-0.50681686,0.15514775,0.8479774,0
-4.0106602,2.5179822,-2.0376749,-0.28077209,0.90032566,-0.33253664,0
-2.1707325,-4.1448231,2.5664999,0.28077209,-0.90032566,0.33253664,0
-3.6613741,3.2949584,-0.25520945,-0.28077209,0.90032566,-0.33253664,0
-1.0764799,-4.497447,0.70257127,0.28077209,-0.90032566,0.33253664,0
5.1341581,0.48346412,-2.4341235,0.50681686,-0.15514775,-0.8479774,0
-5.2941546,-0.045858622,2.0005083,-0.81504822,-0.40662366,-0.4127391,0
3.7490392,1.1529201,-3.2315784,0.50681686,-0.15514775,-0.8479774,0
-2.2719469,2.2120857,3.4943419,-0.50681686,0.15514775,0.8479774,0
3.3420565,3.6893041,-3.9092913,0.50681686,-0.15514775,-0.8479774,0
2.4399548,4.7458277,-1.1056439,0.81504822,0.40662366,0.4127391,0
-4.0390759,-4.0974274,3.6477382,-0.50681686,0.15514775,0.8479774,0
-0.83074951,0.94392371,-5.9385643,0.50681686,-0.15514775,-0.8479774,0
-2.7979124,-3.8483038,4.0811,0.28077209,-0.90032566,0.33253664,0
2.2048349,4.1160269,0.024976432,0.81504822,0.40662366,0.4127391,0
0.12240744,-2.3451366,-4.7830119,0.50681686,-0.15514775,-0.8479774,0
-2.2062235,3.2574239,-1.1493386,-0.28077209,0.90032566,-0.33253664,0
3.4506636,-2.2046957,2.9972432,0.28077209,-0.90032566,0.33253664,0
-3.2791564,2.5750771,-2.0542121,-0.28077209,0.90032566,-0.33253664,0
1.2195258,1.8462791,4.2029037,0.81504822,0.40662366,0.4127391,0
0.38702369,1.8702869,5.2221565,-0.50681686,0.15514775,0.8479774,0
-0.65361023,2.8844371,-3.5590887,-0.28077209,0.90032566,-0.33253664,0
-4.8431282,3.4012041,1.3619466,-0.28077209,0.90032566,-0.33253664,0
-3.4486532,2.0789449,-3.248992,-0.28077209,0.90032566,-0.33253664,0
2.2500653,3.9021668,0.012837142,0.81504822,0.40662366,0.4127391,0
-3.2671387,-1.3353722,-0.95455348,-0.81504822,-0.40662366,-0.4127391,0
1.2131877,-1.9094579,6.0343275,0.28077209,-0.90032566,0.33253664,0
-0.64316928,-4.711864,-2.5917218,-0.81504822,-0.40662366,-0.4127391,0
5.0238776,-2.0283189,0.40482426,0.81504822,0.40662366,0.4127391,0
-1.7536062,-1.40764,-3.8437669,-0.81504822,-0.40662366,-0.4127391,0
3.3240716,-1.3344991,3.0526419,0.81504822,0.40662366,0.4127391,0
-3.7623992,-0.75954723,-0.199682,-0.81504822,-0.40662366,-0.4127391,0
2.3640003,4.5606956,-0.79519194,0.81504822,0.40662366,0.4127391,0
1.4672955,-5.1681013,-3.450561,0.50681686,-0.15514775,-0.8479774,0
1.9448597,3.5983694,-3.9546037,-0.28077209,0.90032566,-0.33253664,0
-0.84944963,-2.9431918,4.5513334,0.28077209,-0.90032566,0.33253664,0
-2.1750693,-0.090301514,-3.9964757,-0.81504822,-0.40662366,-0.4127391,0
3.1067398,-0.13376021,2.5281506,0.81504822,0.40662366,0.4127391,0
3.3459401,2.3849332,-0.46383882,0.81504822,0.40662366,0.4127391,0
4.0776787,-1.5576282,-2.5483804,0.50681686,-0.15514775,-0.8479774,0
0.083073616,0.068914652,5.3152099,-0.50681686,0.15514775,0.8479774,0
0.13160944,-3.5438664,2.4191225,0.28077209,-0.90032566,0.33253664,0
-3.1087863,-3.156322,0.54093683,-0.81504822,-0.40662366,-0.4127391,0
-2.5670888,4.040123,3.1196847,-0.50681686,0.15514775,0.8479774,0
2.8053751,0.63896275,2.4059167,0.81504822,0.40662366,0.4127391,0
4.1119008,-2.2885592,2.3148513,0.28077209,-0.90032566,0.33253664,0
2.0893741,-1.8971865,5.0992346,0.28077209,-0.90032566,0.33253664,0
-1.2942331,-4.7117686,0.11064786,0.28077209,-0.90032566,0.33253664,0
-2.6510549,3.0614867,-1.473765,-0.28077209,0.90032566,-0.33253664,0
-0.76489931,2.041584,4.4814906,-0.50681686,0.15514775,0.8479774,0
-3.5234308,0.21103644,-1.8308984,-0.81504822,-0.40662366,-0.4127391,0
-0.13223457,3.2222517,-3.3185816,-0.28077209,0.90032566,-0.33253664,0
-2.0151033,4.5231562,1.9396205,-0.28077209,0.90032566,-0.33253664,0
3.8489335,-0.68751955,-2.9134774,0.50681686,-0.15514775,-0.8479774,0
-4.0539446,-1.3570451,0.84524226,-0.81504822,-0.40662366,-0.4127391,0
-1.5256765,-0.2583642,-5.183166,-0.81504822,-0.40662366,-0.4127391,0
-0.16576767,-1.7185383,5.4674053,-0.50681686,0.15514775,0.8479774,0
1.6744896,3.4841974,1.61313,0.81504822,0.40662366,0.4127391,0
-1.1242349,-4.1362925,1.788612,0.28077209,-0.90032566,0.33253664,0
-1.4453421,1.0921476,4.3312697,-0.50681686,0.15514775,0.8479774,0
5.2123871,-1.183284,-0.51996088,0.81504822,0.40662366,0.4127391,0
-1.4052687,-1.8833603,4.8532796,-0.50681686,0.15514775,0.8479774,0
1.1355948,1.6585729,4.7265234,0.81504822,0.40662366,0.4127391,0
-0.7391963,3.6450903,-1.682104,-0.28077209,0.90032566,-0.33253664,0
-0.019809484,-4.9795203,-1.5054917,0.28077209,-0.90032566,0.33253664,0
-5.9951525,2.8596842,0.71206903,-0.28077209,0.90032566,-0.33253664,0
1.000325,-5.2498136,-3.0598402,0.28077209,-0.90032566,0.33253664,0
-1.6065462,1.7888433,4.0376372,-0.50681686,0.15514775,0.8479774,0
2.7197161,-4.3604956,-2.2885022,0.28077209,-0.90032566,0.33253664,0
0.56948322,-4.5345049,-4.1410742,0.50681686,-0.15514775,-0.8479774,0
2.4446397,-0.70094496,-3.8348265,0.50681686,-0.15514775,-0.8479774,0
-3.6600201,-3.5963542,2.3767383,-0.81504822,-0.40662366,-0.4127391,0
0.42210126,-1.2239711,-4.7683716,0.50681686,-0.15514775,-0.8479774,0
1.5230844,4.2857904,-1.804692,-0.28077209,0.90032566,-0.33253664,0
4.5312796,2.5307829,-3.1178403,0.50681686,-0.15514775,-0.8479774,0
1.479691,-3.6939964,-3.705296,0.50681686,-0.15514775,-0.8479774,0
2.3856957,-2.0067215,-3.4264302,0.50681686,-0.15514775,-0.8479774,0
-1.0500293,3.0257838,-3.0267932,-0.28077209,0.90032566,-0.33253664,0
-4.884614,-1.5689636,2.4914932,-0.81504822,-0.40662366,-0.4127391,0
-0.63430619,4.0099444,-0.56577992,-0.28077209,0.90032566,-0.33253664,0
-4.2976761,-1.532768,1.3291776,-0.81504822,-0.40662366,-0.4127391,0
0.7393074,0.95611191,-4.9422388,0.50681686,-0.15514775,-0.8479774,0
-3.9769497,2.458982,-2.2770395,-0.28077209,0.90032566,-0.33253664,0
2.2554791,-0.51823485,-3.8784804,0.50681686,-0.15514775,-0.8479774,0
1.6046749,1.5778444,3.924459,0.81504822,0.40662366,0.4127391,0
3.2529814,4.3735099,-2.8927603,-0.28077209,0.90032566,-0.33253664,0
2.9747303,4.6123786,-2.2331133,-0.28077209,0.90032566,-0.33253664,0
-2.8665333,-2.2546864,-0.6863029,-0.81504822,-0.40662366,-0.4127391,0
1.5663302,-3.853461,-0.018347979,0.28077209,-0.90032566,0.33253664,0
-2.9263437,3.9433756,0.97369432,-0.28077209,0.90032566,-0.33253664,0
4.0558143,4.0639195,-3.5790441,0.81504822,0.40662366,0.4127391,0
-4.5226846,1.5050089,-0.95507574,-0.81504822,-0.40662366,-0.4127391,0
4.185452,1.3967447,-0.97366428,0.81504822,0.40662366,0.4127391,0
3.4998398,0.26973891,1.2256751,0.81504822,0.40662366,0.4127391,0
2.5739403,4.0380063,-0.51904261,0.81504822,0.40662366,0.4127391,0
1.3509794,4.1069455,1.9744688,0.81504822,0.40662366,0.4127391,0
4.3232069,-2.0912356,2.2124205,0.81504822,0.40662366,0.4127391,0
4.6470504,-0.88954473,-0.060312271,0.81504822,0.40662366,0.4127391,0
-0.19626486,4.7844758,4.1138916,0.81504822,0.40662366,0.4127391,0
0.9133606,-2.7397313,3.6155028,0.28077209,-0.90032566,0.33253664,0
0.25671101,3.5089512,-2.7620168,-0.28077209,0.90032566,-0.33253664,0
-2.7761126,0.90869212,-3.6777055,-0.81504822,-0.40662366,-0.4127391,0
0.39876032,3.1259031,-4.1054292,-0.28077209,0.90032566,-0.33253664,0
-1.2746053,2.6860805,-3.6957316,-0.28077209,0.90032566,-0.33253664,0
-1.5194662,-1.265933,-4.2469888,-0.81504822,-0.40662366,-0.4127391,0
2.4882689,2.7267659,0.73991233,0.81504822,0.40662366,0.4127391,0
-3.140311,-1.7107649,-0.69873846,-0.81504822,-0.40662366,-0.4127391,0
1.7449245,-4.5645638,-1.7980857,0.28077209,-0.90032566,0.33253664,0
4.210392,-3.8117974,-1.5952082,0.28077209,-0.90032566,0.33253664,0
5.4640522,-2.5414901,-1.5464034,0.50681686,-0.15514775,-0.8479774,0
-4.2582846,-2.5483611,2.6711273,-0.81504822,-0.40662366,-0.4127391,0
-1.0380864,2.8551936,-3.435415,-0.28077209,0.90032566,-0.33253664,0
3.2188525,-1.7082732,3.8173702,0.81504822,0.40662366,0.4127391,0
-4.6712565,2.5340486,2.0697155,-0.50681686,0.15514775,0.8479774,0
3.074285,-2.9192405,-2.9951782,0.50681686,-0.15514775,-0.8479774,0
1.2177832,0.42999649,5.7855587,0.81504822,0.40662366,0.4127391,0
2.4735255,-2.2136433,3.650454,0.28077209,-0.90032566,0.33253664,0
4.0599875,-1.585119,-2.5352745,0.50681686,-0.15514775,-0.8479774,0
-4.1507444,-1.0036676,3.1079016,-0.50681686,0.15514775,0.8479774,0
-3.3207135,-0.53666347,3.4154878,-0.50681686,0.15514775,0.8479774,0
-1.6338154,4.6641254,3.4652381,-0.50681686,0.15514775,0.8479774,0
2.5547972,-3.2147892,-3.2686949,0.50681686,-0.15514775,-0.8479774,0
-2.4390938,-3.9211998,3.4321434,0.28077209,-0.90032566,0.33253664,0
2.6826344,-1.0181091,-3.473105,0.50681686,-0.15514775,-0.8479774,0
-0.75276136,-5.1846585,-2.0942392,-0.81504822,-0.40662366,-0.4127391,0
2.4220114,2.373497,-4.3144884,0.50681686,-0.15514775,-0.8479774,0
2.070246,-4.1899309,-1.116744,0.28077209,-0.90032566,0.33253664,0
-3.9958677,-1.9378958,1.5253544,-0.81504822,-0.40662366,-0.4127391,0
0.63754618,3.7571654,3.62798,0.81504822,0.40662366,0.4127391,0
1.2301345,4.0487595,-1.9645191,-0.28077209,0.90032566,-0.33253664,0
-2.6694329,4.1666856,3.0054793,-0.50681686,0.15514775,0.8479774,0
3.1491034,-3.3676729,0.53489995,0.28077209,-0.90032566,0.33253664,0
2.7450604,2.7553563,0.22050893,0.81504822,0.40662366,0.4127391,0
-0.0080299377,1.6241107,-5.7244177,0.50681686,-0.15514775,-0.8479774,0
1.0431569,3.6412523,-2.9382596,-0.28077209,0.90032566,-0.33253664,0
3.0158622,3.121619,-4.0373755,0.50681686,-0.15514775,-0.8479774,0
-5.53127,1.7112832,1.7243824,-0.50681686,0.15514775,0.8479774,0
-0.031200528,4.4597878,3.9069738,0.81504822,0.40662366,0.4127391,0
0.76657987,4.4439063,2.7599299,0.81504822,0.40662366,0.4127391,0
1.0604472,2.9935234,-5.0993729,-0.28077209,0.90032566,-0.33253664,0
-2.3011532,0.78678274,-4.6965098,-0.81504822,-0.40662366,-0.4127391,0
1.3989295,1.4586813,4.0756168,0.81504822,0.40662366,0.4127391,0
3.5791268,3.9357178,-2.5337918,0.81504822,0.40662366,0.4127391,0
1.0438838,-4.4165487,-1.0611093,0.28077209,-0.90032566,0.33253664,0
-5.097527,0.9789629,1.9922004,-0.50681686,0.15514775,0.8479774,0
2.1169052,-3.8718314,-0.49666119,0.28077209,-0.90032566,0.33253664,0
-2.548914,2.0308695,-4.3618078,-0.28077209,0.90032566,-0.33253664,0
1.7674079,-4.1132593,-0.51525402,0.28077209,-0.90032566,0.33253664,0
-3.4401944,-0.91811776,-0.8030566,-0.81504822,-0.40662366,-0.4127391,0
-2.7508423,-0.038218021,-2.7995825,-0.81504822,-0.40662366,-0.4127391,0
-2.1675606,1.9047096,-4.88341,-0.28077209,0.90032566,-0.33253664,0
-0.15826178,2.2544014,-5.6291265,-0.28077209,0.90032566,-0.33253664,0
2.8366358,-2.5058646,-3.1129446,0.50681686,-0.15514775,-0.8479774,0
3.8502648,3.2415373,-2.1781774,0.81504822,0.40662366,0.4127391,0
-4.504652,-1.9046934,2.5127673,-0.81504822,-0.40662366,-0.4127391,0
-1.3502426,-2.9725947,4.9155192,0.28077209,-0.90032566,0.33253664,0
1.6212413,-3.4690681,-3.5908089,0.50681686,-0.15514775,-0.8479774,0
-3.8293438,-1.4568107,0.3817966,-0.81504822,-0.40662366,-0.4127391,0
-0.49372816,-5.1092844,-1.3993351,0.28077209,-0.90032566,0.33253664,0
-0.064766407,3.0417414,-3.9661784,-0.28077209,0.90032566,-0.33253664,0
1.2270974,-3.3336561,-4.0608144,0.50681686,-0.15514775,-0.8479774,0
1.3136902,-2.1452155,5.3222795,0.28077209,-0.90032566,0.33253664,0
-0.38608515,-2.7474151,-4.9000874,-0.81504822,-0.40662366,-0.4127391,0
-0.51618719,-3.5259068,2.6192322,0.28077209,-0.90032566,0.33253664,0
-1.8579235,4.9283547,3.0108905,-0.28077209,0.90032566,-0.33253664,0
2.1768491,-1.0759842,-3.8212814,0.50681686,-0.15514775,-0.8479774,0
2.362601,-3.1803434,-3.4263201,0.50681686,-0.15514775,-0.8479774,0
1.6109742,-0.68549395,-4.1287208,0.50681686,-0.15514775,-0.8479774,0
2.7374663,-2.3833401,-3.2098908,0.50681686,-0.15514775,-0.8479774,0
0.8129487,-2.3605733,4.6833754,0.28077209,-0.90032566,0.33253664,0
-4.7258482,2.8256776,-0.47521353,-0.28077209,0.90032566,-0.33253664,0
0.44288683,3.4407413,-3.1411669,-0.28077209,0.90032566,-0.33253664,0
-2.5741582,-0.20954871,-3.1833525,-0.81504822,-0.40662366,-0.4127391,0
4.4521275,0.88664222,-2.7299647,0.50681686,-0.15514775,-0.8479774,0
-1.5038571,0.030703545,-5.4257445,-0.81504822,-0.40662366,-0.4127391,0
-5.8507514,2.1157842,1.0163326,-0.81504822,-0.40662366,-0.4127391,0
-1.3003643,-0.27863646,-5.7134891,-0.81504822,-0.40662366,-0.4127391,0
1.4058492,2.2970936,-4.7733555,0.50681686,-0.15514775,-0.8479774,0
1.6614232,2.8632963,-4.8265257,0.50681686,-0.15514775,-0.8479774,0
0.84539807,-1.2825253,-4.6802893,0.50681686,-0.15514775,-0.8479774,0
-1.0739553,-1.8888414,-4.4468594,-0.81504822,-0.40662366,-0.4127391,0
-3.7204487,3.3333554,0.32538986,-0.28077209,0.90032566,-0.33253664,0
-2.0242367,-1.0370356,4.3252916,-0.50681686,0.15514775,0.8479774,0
2.2688437,0.42177916,3.3801088,0.81504822,0.40662366,0.4127391,0
3.2930651,-1.9245622,3.8570397,0.28077209,-0.90032566,0.33253664,0
2.4514656,2.1777711,1.4509526,0.81504822,0.40662366,0.4127391,0
1.1524985,-0.12227511,-4.4926805,0.50681686,-0.15514775,-0.8479774,0
1.3917012,3.9668565,1.745674,0.81504822,0.40662366,0.4127391,0
-0.50808549,5.2397213,2.3111994,-0.28077209,0.90032566,-0.33253664,0
1.5444094,1.9171593,3.4576809,0.81504822,0.40662366,0.4127391,0
-1.2955847,-4.3994498,-1.4504467,-0.81504822,-0.40662366,-0.4127391,0
-2.8691139,1.0982893,-4.0285048,-0.81504822,-0.40662366,-0.4127391,0
-2.6042423,-4.1639371,0.72705781,-0.81504822,-0.40662366,-0.4127391,0
-1.7152265,-4.5500169,-0.8318482,-0.81504822,-0.40662366,-0.4127391,0
-5.5763402,1.7051325,1.0785761,-0.81504822,-0.40662366,-0.4127391,0
-1.3428681,-4.767499,0.19218194,0.28077209,-0.90032566,0.33253664,0
-3.7149689,-1.608552,3.4026976,-0.50681686,0.15514775,0.8479774,0
3.1967769,0.65138698,1.6762818,0.81504822,0.40662366,0.4127391,0
1.5553727,-1.0755615,6.4537044,0.81504822,0.40662366,0.4127391,0
5.4108639,-1.8861246,-0.57357311,0.81504822,0.40662366,0.4127391,0
3.6933084,4.4253635,-3.1289554,0.81504822,0.40662366,0.4127391,0
-0.74040937,2.3694611,-4.9357686,-0.28077209,0.90032566,-0.33253664,0
2.9290786,-0.33443719,-3.4762511,0.50681686,-0.15514775,-0.8479774,0
2.0483274,-3.1441913,1.9357697,0.28077209,-0.90032566,0.33253664,0
-4.0448885,-2.7836993,3.4900637,-0.50681686,0.15514775,0.8479774,0
-1.5937595,4.9199018,2.3594875,-0.28077209,0.90032566,-0.33253664,0
5.5638657,-3.0478053,-0.87774229,0.28077209,-0.90032566,0.33253664,0
1.7395177,-0.52504539,5.5505176,0.81504822,0.40662366,0.4127391,0
1.9265888,0.86776972,-4.3552184,0.50681686,-0.15514775,-0.8479774,0
-0.76592302,2.3973026,-4.6959262,-0.28077209,0.90032566,-0.33253664,0
4.4047523,0.31166923,-2.7455769,0.50681686,-0.15514775,-0.8479774,0
-3.4399605,4.1466537,2.4163461,-0.50681686,0.15514775,0.8479774,0
0.24849164,-5.1878333,-3.9483614,-0.81504822,-0.40662366,-0.4127391,0
-5.3679576,3.3476403,1.5698647,-0.50681686,0.15514775,0.8479774,0
2.4423163,-2.885005,-3.4085369,0.50681686,-0.15514775,-0.8479774,0
1.616467,-2.9191456,2.7336302,0.28077209,-0.90032566,0.33253664,0
5.0757356,-1.5443342,-0.1788311,0.81504822,0.40662366,0.4127391,0
1.4846351,3.5548015,2.0144835,0.81504822,0.40662366,0.4127391,0
4.2972155,-2.6318786,1.5675271,0.28077209,-0.90032566,0.33253664,0
4.8372726,1.408643,-2.6507907,0.50681686,-0.15514775,-0.8479774,0
-5.4647694,1.4273577,0.83460045,-0.81504822,-0.40662366,-0.4127391,0
2.0805957,1.3396027,2.8338075,0.81504822,0.40662366,0.4127391,0
1.1536573,-1.6747339,-4.3591328,0.50681686,-0.15514775,-0.8479774,0
3.0736513,2.60956,-0.061349869,0.81504822,0.40662366,0.4127391,0
-5.0754433,2.2614391,1.9090848,-0.50681686,0.15514775,0.8479774,0
1.561687,-1.8778045,5.541152,0.28077209,-0.90032566,0.33253664,0
0.45288301,1.0431578,5.277154,-0.50681686,0.15514775,0.8479774,0
-3.5444579,-0.095385313,-1.2661719,-0.81504822,-0.40662366,-0.4127391,0
0.5109458,1.9206176,5.2198381,-0.50681686,0.15514775,0.8479774,0
-0.99396467,-2.751657,5.1043615,-0.50681686,0.15514775,0.8479774,0
3.9435525,1.6500154,-3.2731643,0.50681686,-0.15514775,-0.8479774,0
1.2626538,-0.48790884,6.0622711,-0.50681686,0.15514775,0.8479774,0
1.5452085,2.4535704,-4.7800617,0.50681686,-0.15514775,-0.8479774,0
4.203814,0.78801394,-0.49232674,0.81504822,0.40662366,0.4127391,0
-1.589627,1.2660611,4.0613036,-0.50681686,0.15514775,0.8479774,0
-3.111685,2.2999792,2.9588413,-0.50681686,0.15514775,0.8479774,0
3.8550978,3.8739634,-2.8867669,0.81504822,0.40662366,0.4127391,0
-3.8480353,-1.6979446,3.2020431,-0.50681686,0.15514775,0.8479774,0
2.6152902,-2.6785421,2.6100206,0.28077209,-0.90032566,0.33253664,0
0.31677794,-4.6753511,-1.0087926,0.28077209,-0.90032566,0.33253664,0
-0.27514076,2.5304725,-5.1938219,-0.28077209,0.90032566,-0.33253664,0
-1.2296,-0.53227663,-5.4374781,-0.81504822,-0.40662366,-0.4127391,0
4.4595461,0.83701938,-2.7515907,0.50681686,-0.15514775,-0.8479774,0
-2.3946047,4.3263898,1.7487383,-0.28077209,0.90032566,-0.33253664,0
3.8171883,-1.6180165,2.6640017,0.81504822,0.40662366,0.4127391,0
-1.3689053,-1.1715223,4.7566204,-0.50681686,0.15514775,0.8479774,0
5.2126312,-3.3461108,-1.3888125,0.28077209,-0.90032566,0.33253664,0
1.855835,0.46439266,4.2538242,0.81504822,0.40662366,0.4127391,0
-1.2562492,-3.4695437,-2.4886284,-0.81504822,-0.40662366,-0.4127391,0
-0.81510401,2.5116124,-4.3275275,-0.28077209,0.90032566,-0.33253664,0
0.37553787,-1.3145278,5.6693139,-0.50681686,0.15514775,0.8479774,0
-0.55177617,-5.4032192,-2.0991859,-0.81504822,-0.40662366,-0.4127391,0
2.5843709,-1.1397938,-3.6269484,0.50681686,-0.15514775,-0.8479774,0
-4.7960181,0.039675355,2.3710799,-0.50681686,0.15514775,0.8479774,0
-4.9052138,-0.10916686,2.3592601,-0.50681686,0.15514775,0.8479774,0
-0.079187632,-4.9967642,-1.6572745,0.28077209,-0.90032566,0.33253664,0
-0.85813689,-3.7692447,2.504241,0.28077209,-0.90032566,0.33253664,0
-3.0773861,3.8677392,1.1474133,-0.28077209,0.90032566,-0.33253664,0
-5.3105044,0.86951494,1.2356925,-0.81504822,-0.40662366,-0.4127391,0
-2.3053575,-2.5934563,-1.2064552,-0.81504822,-0.40662366,-0.4127391,0
-3.9831805,3.2892756,2.338006,-0.50681686,0.15514775,0.8479774,0
-1.0573269,2.2123487,4.3130569,-0.50681686,0.15514775,0.8479774,0
-1.9727017,4.8222589,3.298892,-0.50681686,0.15514775,0.8479774,0
-1.4779472,-3.1523809,4.8124332,0.28077209,-0.90032566,0.33253664,0
-0.36101151,-2.6061721,5.0435352,0.28077209,-0.90032566,0.33253664,0
1.3956037,-4.5699606,-1.5154133,0.28077209,-0.90032566,0.33253664,0
-3.9437647,-0.82521486,3.1360788,-0.50681686,0.15514775,0.8479774,0
3.0796242,-1.4743669,4.0348072,0.81504822,0.40662366,0.4127391,0
-4.9020958,3.3310506,1.396935,-0.28077209,0.90032566,-0.33253664,0
0.38178563,5.2500963,1.691829,-0.28077209,0.90032566,-0.33253664,0
0.43807173,5.1470971,2.5189085,0.81504822,0.40662366,0.4127391,0
-3.4329391,-2.1384878,0.20113373,-0.81504822,-0.40662366,-0.4127391,0
0.094235897,-1.4240532,5.5936604,-0.50681686,0.15514775,0.8479774,0
-1.2400737,4.581553,3.7474365,-0.50681686,0.15514775,0.8479774,0
-0.67260647,4.3784509,0.41551113,-0.28077209,0.90032566,-0.33253664,0
2.0286589,-0.55340385,5.0777764,0.81504822,0.40662366,0.4127391,0
4.5743856,1.9877425,-2.8295331,0.50681686,-0.15514775,-0.8479774,0
-2.85918,4.0357981,1.4832892,-0.28077209,0.90032566,-0.33253664,0
3.7100306,3.341835,-3.7860198,0.50681686,-0.15514775,-0.8479774,0
-0.16153669,3.8766522,-1.3611912,-0.28077209,0.90032566,-0.33253664,0
-0.40422344,-3.2424583,3.4301469,0.28077209,-0.90032566,0.33253664,0
2.3457112,-1.150864,-3.672039,0.50681686,-0.15514775,-0.8479774,0
-1.4073222,-0.61134624,-4.9050355,-0.81504822,-0.40662366,-0.4127391,0
-1.1582081,4.6983557,1.7157776,-0.28077209,0.90032566,-0.33253664,0
1.8131162,1.858516,3.2825494,0.81504822,0.40662366,0.4127391,0
0.73033428,3.2508535,-3.6022778,-0.28077209,0.90032566,-0.33253664,0
-4.4739318,0.25786448,-0.13058829,-0.81504822,-0.40662366,-0.4127391,0
-3.9984589,-0.92335093,3.190506,-0.50681686,0.15514775,0.8479774,0
4.1768527,-0.34427023,-2.6793795,0.50681686,-0.15514775,-0.8479774,0
0.16516614,-4.9555683,-1.2833998,0.28077209,-0.90032566,0.33253664,0
2.1367979,-2.1187479,4.6227102,0.28077209,-0.90032566,0.33253664,0
-0.0067307949,5.0711727,1.800528,-0.28077209,0.90032566,-0.33253664,0
-0.057276726,-4.7161708,-0.97697568,0.28077209,-0.90032566,0.33253664,0
-5.9807734,2.0737135,1.0905461,-0.81504822,-0.40662366,-0.4127391,0
-6.1425409,2.390907,1.3150382,-0.50681686,0.15514775,0.8479774,0
0.58516979,3.0233321,-4.4137034,-0.28077209,0.90032566,-0.33253664,0
-2.4452019,0.61660528,-4.4115977,-0.81504822,-0.40662366,-0.4127391,0
2.0331442,-4.9644022,-3.0954118,0.50681686,-0.15514775,-0.8479774,0
-3.9022894,-4.2066188,3.6537352,0.28077209,-0.90032566,0.33253664,0
-5.8278179,2.175807,1.5311732,-0.50681686,0.15514775,0.8479774,0
-1.3999555,-4.8944302,-0.18936485,0.28077209,-0.90032566,0.33253664,0
-5.4061036,1.5597708,0.54946327,-0.81504822,-0.40662366,-0.4127391,0
2.8826361,-1.9484694,4.1702213,0.28077209,-0.90032566,0.33253664,0
-3.4336708,-2.5789373,0.72361803,-0.81504822,-0.40662366,-0.4127391,0
-5.5713406,3.0956774,1.3346601,-0.28077209,0.90032566,-0.33253664,0
2.5440974,2.0569859,-4.1235752,0.50681686,-0.15514775,-0.8479774,0
-4.3954163,3.0483074,0.22419214,-0.28077209,0.90032566,-0.33253664,0
2.9057086,-3.983367,-2.904201,0.50681686,-0.15514775,-0.8479774,0
0.20320225,-2.4797554,5.318327,0.28077209,-0.90032566,0.33253664,0
-3.4379911,-0.68673396,-0.95376348,-0.81504822,-0.40662366,-0.4127391,0
-4.8356047,0.58423519,0.41245365,-0.81504822,-0.40662366,-0.4127391,0
0.62658739,-0.15388846,5.7142935,-0.50681686,0.15514775,0.8479774,0
-2.2262974,1.2885906,3.7730212,-0.50681686,0.15514775,0.8479774,0
-3.0654144,-3.9825134,3.6151907,0.28077209,-0.90032566,0.33253664,0
1.1470685,3.0364456,2.9885697,0.81504822,0.40662366,0.4127391,0
4.2877846,-2.3618355,2.2384224,0.28077209,-0.90032566,0.33253664,0
0.90794194,2.8539996,4.0091057,0.81504822,0.40662366,0.4127391,0
5.0706363,-0.13311207,-2.1735058,0.50681686,-0.15514775,-0.8479774,0
-3.2221932,-3.1156774,0.76012301,-0.81504822,-0.40662366,-0.4127391,0
2.5490541,0.072731495,3.5548055,0.81504822,0.40662366,0.4127391,0
1.4084784,4.0375471,1.9396769,0.81504822,0.40662366,0.4127391,0
3.2005527,-2.8048105,1.7342902,0.28077209,-0.90032566,0.33253664,0
3.9951122,-2.934633,0.5103395,0.28077209,-0.90032566,0.33253664,0
0.049535751,4.496788,0.22575271,-0.28077209,0.90032566,-0.33253664,0
-1.2477672,3.763489,3.8345466,-0.50681686,0.15514775,0.8479774,0
2.653367,-2.6984401,2.2485478,0.28077209,-0.90032566,0.33253664,0
-1.5201993,4.28756,0.91711593,-0.28077209,0.90032566,-0.33253664,0
4.2387819,-3.7866478,-2.0234051,0.50681686,-0.15514775,-0.8479774,0
-1.3231435,5.1145902,3.2008524,-0.28077209,0.90032566,-0.33253664,0
5.0128002,-2.9246826,-1.8205466,0.50681686,-0.15514775,-0.8479774,0
3.3471541,-2.445776,2.5803115,0.28077209,-0.90032566,0.33253664,0
-3.7087874,-0.47588229,-0.9136641,-0.81504822,-0.40662366,-0.4127391,0
2.8356018,-2.8079305,1.9406302,0.28077209,-0.90032566,0.33253664,0
-4.8571644,3.123112,1.8672423,-0.50681686,0.15514775,0.8479774,0
-3.2437987,-0.82377028,-1.0621108,-0.81504822,-0.40662366,-0.4127391,0
-2.5034842,4.2543659,3.0513344,-0.50681686,0.15514775,0.8479774,0
-4.6136098,-1.6217587,2.946589,-0.50681686,0.15514775,0.8479774,0
-1.4013973,-1.5748086,-4.3001108,-0.81504822,-0.40662366,-0.4127391,0
1.6236725,-0.68396568,5.7333403,0.81504822,0.40662366,0.4127391,0
-3.3400416,1.9438636,-3.6859131,-0.81504822,-0.40662366,-0.4127391,0
3.4065835,-0.90644479,2.444591,0.81504822,0.40662366,0.4127391,0
1.574173,-2.5875852,3.814836,0.28077209,-0.90032566,0.33253664,0
-2.4051502,3.3374677,-0.80190229,-0.28077209,0.90032566,-0.33253664,0
2.5993817,3.0107479,-4.3688622,0.50681686,-0.15514775,-0.8479774,0
0.83477068,3.5283475,-2.9619584,-0.28077209,0.90032566,-0.33253664,0
-1.527061,2.6894617,-3.2433186,-0.28077209,0.90032566,-0.33253664,0
-2.5878239,-2.1923027,-1.1157893,-0.81504822,-0.40662366,-0.4127391,0
4.144197,-3.3441162,-2.1313186,0.50681686,-0.15514775,-0.8479774,0
-2.1890543,4.7264857,2.4242592,-0.28077209,0.90032566,-0.33253664,0
