2.5475464,3.5089324,-3.9131544,0.86730212,0.47569016,-0.146649,0
-3.9851468,-0.68971848,-4.0707941,-0.43997589,0.59476781,-0.67280936,0
-0.41438103,-2.1918626,4.2185578,0.43997589,-0.59476781,0.67280936,0
3.1974044,4.3709908,2.6999273,0.86730212,0.47569016,-0.146649,0
5.7423964,-1.4146321,-0.68226719,0.86730212,0.47569016,-0.146649,0
2.4250069,-2.3935237,-3.1541691,0.23282671,-0.64805096,-0.72513562,0
2.6370258,5.1837163,2.4382668,-0.23282671,0.64805096,0.72513562,0
-0.44628286,0.5299145,5.5140562,-0.23282671,0.64805096,0.72513562,0
3.854368,-1.8079286,1.9670401,0.43997589,-0.59476781,0.67280936,0
-4.7127762,-0.59922981,1.2222047,-0.86730212,-0.47569016,0.146649,0
3.9701228,3.6314416,4.0095625,0.86730212,0.47569016,-0.146649,0
3.0313995,3.790468,-0.11731315,0.86730212,0.47569016,-0.146649,0
-2.6781497,-3.0471909,-4.2433195,0.23282671,-0.64805096,-0.72513562,0
-2.3078671,-1.7226113,-5.426981,0.23282671,-0.64805096,-0.72513562,0
4.2224283,1.6505312,-0.52898169,0.86730212,0.47569016,-0.146649,0
-1.5431893,5.6127925,0.024241328,-0.43997589,0.59476781,-0.67280936,0
1.659986,6.5603299,0.76781893,-0.23282671,0.64805096,0.72513562,0
2.9511747,4.6229997,3.0813451,-0.23282671,0.64805096,0.72513562,0
-5.5358424,0.0051655769,-2.2560725,-0.86730212,-0.47569016,0.146649,0
-2.1073112,-3.2085204,-3.9045148,0.23282671,-0.64805096,-0.72513562,0
-0.44569874,2.1875858,4.1441293,-0.23282671,0.64805096,0.72513562,0
-4.3542643,-2.2313929,-2.9776385,-0.86730212,-0.47569016,0.146649,0
-0.61670542,0.74207783,-5.0012007,-0.43997589,0.59476781,-0.67280936,0
0.012078762,6.0759935,-0.61661249,-0.43997589,0.59476781,-0.67280936,0
0.22186422,-6.0569944,-0.74250454,0.23282671,-0.64805096,-0.72513562,0
5.1445847,-0.40749884,-0.92813492,0.86730212,0.47569016,-0.146649,0
-3.530786,-1.6027815,4.5928364,-0.86730212,-0.47569016,0.146649,0
-2.088346,-0.94587803,-5.3604617,-0.43997589,0.59476781,-0.67280936,0
-0.93301773,3.7576389,2.5751348,-0.23282671,0.64805096,0.72513562,0
5.18257,0.51252341,1.1303382,0.86730212,0.47569016,-0.146649,0
-1.5475321,5.1561723,1.1325853,-0.23282671,0.64805096,0.72513562,0
-3.2412937,-2.4124398,4.3242044,-0.86730212,-0.47569016,0.146649,0
5.9823694,-1.4542983,0.6047411,0.43997589,-0.59476781,0.67280936,0
-5.048779,0.035930157,-2.7604594,-0.43997589,0.59476781,-0.67280936,0
3.0205407,-0.68788195,3.4809511,0.43997589,-0.59476781,0.67280936,0
2.2240973,4.3961625,3.0365639,-0.23282671,0.64805096,0.72513562,0
-3.0459354,-2.7150416,3.4424601,-0.86730212,-0.47569016,0.146649,0
-1.9535917,3.7042012,-1.434741,-0.43997589,0.59476781,-0.67280936,0
-3.7229028,-1.4541945,-4.6600928,-0.43997589,0.59476781,-0.67280936,0
0.53827333,0.54398894,5.883812,-0.23282671,0.64805096,0.72513562,0
-2.1453061,-4.6194763,2.5320625,-0.86730212,-0.47569016,0.146649,0
-3.98984,-3.3107681,-3.9763188,-0.86730212,-0.47569016,0.146649,0
-1.6611338,-6.3170629,-1.213973,0.23282671,-0.64805096,-0.72513562,0
-1.5730324,-2.9006548,-4.1555238,0.23282671,-0.64805096,-0.72513562,0
-0.46890879,-5.4189487,-1.4498881,0.23282671,-0.64805096,-0.72513562,0
2.991082,-2.4360399,1.9236956,0.43997589,-0.59476781,0.67280936,0
-3.8228834,-2.5214849,0.11568809,-0.86730212,-0.47569016,0.146649,0
-1.6742702,-4.8935232,-2.3395724,0.23282671,-0.64805096,-0.72513562,0
-4.0376296,-2.2945266,-5.2941127,-0.43997589,0.59476781,-0.67280936,0
0.5097065,4.3180118,2.517076,-0.23282671,0.64805096,0.72513562,0
1.544445,-1.5998727,-4.1836305,0.23282671,-0.64805096,-0.72513562,0
-5.9702306,0.97548962,-1.0337048,-0.43997589,0.59476781,-0.67280936,0
3.3259845,-0.5292201,3.3734386,0.43997589,-0.59476781,0.67280936,0
-3.5901163,1.2451153,-2.4777598,-0.43997589,0.59476781,-0.67280936,0
-3.8534117,-3.0444267,-2.6357045,-0.86730212,-0.47569016,0.146649,0
0.86691093,-5.4127636,-1.2017388,0.23282671,-0.64805096,-0.72513562,0
0.52503252,2.5419674,4.1479902,-0.23282671,0.64805096,0.72513562,0
1.5290453,5.0360923,-2.6318064,-0.43997589,0.59476781,-0.67280936,0
-4.8951092,-0.63241315,-0.6876421,-0.86730212,-0.47569016,0.146649,0
-0.88361502,3.0741277,-2.5939298,-0.43997589,0.59476781,-0.67280936,0
4.8193684,-3.9267831,-0.56939125,0.43997589,-0.59476781,0.67280936,0
-0.62868452,-1.7667843,-4.7188144,0.23282671,-0.64805096,-0.72513562,0
0.92541695,0.11838031,-6.057682,0.23282671,-0.64805096,-0.72513562,0
-0.10203004,-5.4101562,1.2407438,0.43997589,-0.59476781,0.67280936,0
-4.2267241,-0.82007599,3.2958493,-0.86730212,-0.47569016,0.146649,0
-1.1728854,-0.63259178,6.0815759,0.43997589,-0.59476781,0.67280936,0
0.66415977,-4.8800163,-1.7136259,0.23282671,-0.64805096,-0.72513562,0
-2.4566531,-4.3783092,2.3866878,-0.86730212,-0.47569016,0.146649,0
4.8880386,-1.1649327,-3.6494961,0.23282671,-0.64805096,-0.72513562,0
3.0967426,-1.2250466,2.8021212,0.43997589,-0.59476781,0.67280936,0
4.4022112,2.1209826,2.8139138,0.86730212,0.47569016,-0.146649,0
3.6843963,0.57556319,3.9073069,0.43997589,-0.59476781,0.67280936,0
2.1559033,5.6017323,0.33121586,0.86730212,0.47569016,-0.146649,0
5.2909732,0.20157528,2.549305,0.43997589,-0.59476781,0.67280936,0
-0.33964014,-0.15147996,-5.8730645,-0.43997589,0.59476781,-0.67280936,0
-1.4958427,-2.1390138,4.9616036,0.43997589,-0.59476781,0.67280936,0
-0.12822378,-2.9137261,3.5780141,0.43997589,-0.59476781,0.67280936,0
-2.6391051,3.4134176,-1.1952204,-0.43997589,0.59476781,-0.67280936,0
5.9012604,-1.7911963,-2.1370063,0.86730212,0.47569016,-0.146649,0
3.1064451,-0.22779888,-4.8761225,0.23282671,-0.64805096,-0.72513562,0
0.47118092,-1.4306047,-4.6747942,0.23282671,-0.64805096,-0.72513562,0
-0.41657591,-5.0807123,-1.7858868,0.23282671,-0.64805096,-0.72513562,0
-2.2641735,1.9457607,-2.7453625,-0.43997589,0.59476781,-0.67280936,0
2.1110125,1.800243,-5.7993026,-0.43997589,0.59476781,-0.67280936,0
2.1895659,-4.0856624,-1.7496481,0.23282671,-0.64805096,-0.72513562,0
4.8848462,-0.15717292,-1.7060599,0.86730212,0.47569016,-0.146649,0
3.8983402,3.4778805,3.5994236,0.86730212,0.47569016,-0.146649,0
-5.5572557,1.7171371,-0.78923178,-0.43997589,0.59476781,-0.67280936,0
0.62558651,-0.15110803,5.3898473,0.43997589,-0.59476781,0.67280936,0
1.8748577,-3.9312625,-2.0097923,0.23282671,-0.64805096,-0.72513562,0
-1.9151393,-2.8974285,4.5721312,0.43997589,-0.59476781,0.67280936,0
-6.2446928,3.0450041,0.70798159,-0.43997589,0.59476781,-0.67280936,0
3.0377071,-0.2502721,-5.0463309,0.23282671,-0.64805096,-0.72513562,0
3.6236787,3.0615864,0.090727806,0.86730212,0.47569016,-0.146649,0
2.1177728,-2.2104392,-3.6652403,0.23282671,-0.64805096,-0.72513562,0
-3.4378436,-2.205102,3.7776513,-0.86730212,-0.47569016,0.146649,0
-3.9528084,-0.74553227,-3.9270241,-0.43997589,0.59476781,-0.67280936,0
-1.5715921,3.4180579,2.5740302,-0.23282671,0.64805096,0.72513562,0
-0.78838623,4.6509428,-1.197718,-0.43997589,0.59476781,-0.67280936,0
1.744164,5.796885,1.6709405,-0.23282671,0.64805096,0.72513562,0
3.949892,-1.0888739,-3.9581678,0.23282671,-0.64805096,-0.72513562,0
-5.3424273,3.5632722,0.66128349,-0.43997589,0.59476781,-0.67280936,0
2.8382101,4.2253914,-0.033034086,0.86730212,0.47569016,-0.146649,0
-1.218286,4.9498105,1.4044892,-0.23282671,0.64805096,0.72513562,0
0.46831787,4.728085,-2.0662701,-0.43997589,0.59476781,-0.67280936,0
0.18036413,-1.419492,-4.8468351,0.23282671,-0.64805096,-0.72513562,0
0.043359518,-1.6107222,4.6235867,0.43997589,-0.59476781,0.67280936,0
6.3071418,-2.3935425,-0.49815798,0.86730212,0.47569016,-0.146649,0
-4.9214187,3.642175,0.50078821,-0.43997589,0.59476781,-0.67280936,0
3.2113409,3.3171334,-1.3915069,0.86730212,0.47569016,-0.146649,0
-1.1718583,-6.1116362,1.219908,0.43997589,-0.59476781,0.67280936,0
4.2578321,2.6077878,5.1538467,-0.23282671,0.64805096,0.72513562,0
-2.4142094,-5.0657921,0.53264022,-0.86730212,-0.47569016,0.146649,0
-0.55103523,-4.440412,2.4791269,0.43997589,-0.59476781,0.67280936,0
-0.8447448,-4.322988,2.5833762,0.43997589,-0.59476781,0.67280936,0
3.8907881,1.069801,-4.1963587,0.86730212,0.47569016,-0.146649,0
-2.0736177,2.0495279,-2.8235877,-0.43997589,0.59476781,-0.67280936,0
-0.68175554,-6.3158541,0.77862084,0.43997589,-0.59476781,0.67280936,0
2.0001926,1.557138,5.4479151,-0.23282671,0.64805096,0.72513562,0
-2.3043141,-4.2291894,-3.1311183,0.23282671,-0.64805096,-0.72513562,0
-2.2618504,-3.7063599,-3.5206316,0.23282671,-0.64805096,-0.72513562,0
2.0670977,1.8034388,5.3699398,-0.23282671,0.64805096,0.72513562,0
4.1645722,2.2779698,5.1754584,0.43997589,-0.59476781,0.67280936,0
-4.2564573,-1.972505,-1.5446644,-0.86730212,-0.47569016,0.146649,0
-4.2902942,-1.2684449,0.67575836,-0.86730212,-0.47569016,0.146649,0
3.3117554,2.5430322,-2.889307,0.86730212,0.47569016,-0.146649,0
-2.1843033,2.777101,-2.0596654,-0.43997589,0.59476781,-0.67280936,0
-3.3276556,-1.2291284,6.2941284,-0.23282671,0.64805096,0.72513562,0
4.5358634,2.0266027,4.7349658,0.43997589,-0.59476781,0.67280936,0
3.4969754,3.5641181,1.7313828,0.86730212,0.47569016,-0.146649,0
-5.3200312,1.5277035,3.1493392,-0.23282671,0.64805096,0.72513562,0
-0.93320751,-2.4544456,4.4109793,0.43997589,-0.59476781,0.67280936,0
3.73984,-4.2547359,-0.34462094,0.43997589,-0.59476781,0.67280936,0
-4.1844182,-2.8048611,-3.2651682,-0.86730212,-0.47569016,0.146649,0
0.87600517,2.5061088,-4.1569328,-0.43997589,0.59476781,-0.67280936,0
-4.2179265,3.1533616,-0.3626833,-0.43997589,0.59476781,-0.67280936,0
0.29776275,-3.7819819,2.263227,0.43997589,-0.59476781,0.67280936,0
0.99494314,4.4826136,2.6006315,-0.23282671,0.64805096,0.72513562,0
1.3940238,3.3840017,-3.9167328,-0.43997589,0.59476781,-0.67280936,0
-3.4241474,3.4474893,1.9230866,-0.23282671,0.64805096,0.72513562,0
3.8486209,2.0604072,-0.7279017,0.86730212,0.47569016,-0.146649,0
-1.0542448,6.1561546,0.29152966,-0.43997589,0.59476781,-0.67280936,0
-4.0681939,1.7780945,3.1817429,-0.23282671,0.64805096,0.72513562,0
3.7821777,-4.3481798,-0.38624859,0.43997589,-0.59476781,0.67280936,0
-3.3861277,1.2833216,3.8793936,-0.23282671,0.64805096,0.72513562,0
-3.1191876,3.8755941,1.6992209,-0.23282671,0.64805096,0.72513562,0
-0.0021185875,5.2809801,1.4887908,-0.23282671,0.64805096,0.72513562,0
-1.5864027,-5.5785747,2.0989528,0.43997589,-0.59476781,0.67280936,0
-0.1398077,2.4860604,4.0680923,-0.23282671,0.64805096,0.72513562,0
-4.5940518,0.41121805,4.1974058,-0.86730212,-0.47569016,0.146649,0
-1.8770266,-0.92479205,6.4012327,0.43997589,-0.59476781,0.67280936,0
-0.98852336,3.1696849,-2.3728266,-0.43997589,0.59476781,-0.67280936,0
2.4296391,0.28485945,-5.67976,0.23282671,-0.64805096,-0.72513562,0
-4.1840911,-2.9613295,-3.8883853,-0.86730212,-0.47569016,0.146649,0
4.0733256,-4.0527849,-0.42098069,0.43997589,-0.59476781,0.67280936,0
-2.1359289,4.9537926,1.1173009,-0.23282671,0.64805096,0.72513562,0
0.36517,2.9323399,3.7253237,-0.23282671,0.64805096,0.72513562,0
4.0653505,-4.4227862,-0.92184544,0.23282671,-0.64805096,-0.72513562,0
2.6126928,3.4644504,-3.3861272,0.86730212,0.47569016,-0.146649,0
-1.244381,-7.3448324,0.065789819,-0.86730212,-0.47569016,0.146649,0
-4.9091964,-0.71935654,-0.93477345,-0.86730212,-0.47569016,0.146649,0
0.65661621,-4.3546166,1.5551484,0.43997589,-0.59476781,0.67280936,0
4.1811399,-2.3184464,1.0414186,0.43997589,-0.59476781,0.67280936,0
-0.2007184,6.7130237,-0.008972168,-0.43997589,0.59476781,-0.67280936,0
-0.57455683,-5.6830602,1.2068772,0.43997589,-0.59476781,0.67280936,0
0.549124,6.1588531,-0.81935573,-0.43997589,0.59476781,-0.67280936,0
-4.2239532,-1.1233797,1.8809195,-0.86730212,-0.47569016,0.146649,0
-4.5451355,-1.3533736,-0.47313881,-0.86730212,-0.47569016,0.146649,0
4.2749805,0.72453547,-3.0351508,0.86730212,0.47569016,-0.146649,0
-0.60089684,-3.9932632,-2.7098007,0.23282671,-0.64805096,-0.72513562,0
2.4081609,-1.288697,3.2502689,0.43997589,-0.59476781,0.67280936,0
-0.74637651,3.603657,2.7077792,-0.23282671,0.64805096,0.72513562,0
4.8250108,0.93025255,0.45883799,0.86730212,0.47569016,-0.146649,0
1.8668535,-0.2680676,4.6358538,0.43997589,-0.59476781,0.67280936,0
5.6735463,-1.6418135,-2.0461588,0.86730212,0.47569016,-0.146649,0
2.3589711,-1.7197869,2.9670961,0.43997589,-0.59476781,0.67280936,0
3.1569991,-4.4691849,-0.054237127,0.43997589,-0.59476781,0.67280936,0
5.2065434,-0.42655706,-1.8257771,0.86730212,0.47569016,-0.146649,0
-5.5239878,0.15778255,-0.9231205,-0.86730212,-0.47569016,0.146649,0
-5.0186234,-1.5935147,-3.5302911,-0.86730212,-0.47569016,0.146649,0
-0.71539211,2.1948664,4.073256,-0.23282671,0.64805096,0.72513562,0
-1.5500131,-3.929728,-3.0599842,0.23282671,-0.64805096,-0.72513562,0
5.1188865,-0.59346128,-2.9838696,0.86730212,0.47569016,-0.146649,0
-1.8256974,-0.33224535,-5.0865231,-0.43997589,0.59476781,-0.67280936,0
-4.1031976,-3.0069098,-4.9654837,0.23282671,-0.64805096,-0.72513562,0
-1.0249109,4.5113621,1.8474422,-0.23282671,0.64805096,0.72513562,0
6.4489412,-3.2596161,-1.2963691,0.43997589,-0.59476781,0.67280936,0
0.59097886,-0.74333167,4.7615304,0.43997589,-0.59476781,0.67280936,0
-1.5062623,0.82844633,4.9481649,-0.23282671,0.64805096,0.72513562,0
0.29453057,3.1423993,-3.3560758,-0.43997589,0.59476781,-0.67280936,0
2.3647585,-2.0853662,2.4092343,0.43997589,-0.59476781,0.67280936,0
-0.56726718,-5.6507745,1.3860769,0.43997589,-0.59476781,0.67280936,0
-0.49349213,-3.2492976,-3.5812683,0.23282671,-0.64805096,-0.72513562,0
-0.3471756,-6.3074698,-0.73205411,0.23282671,-0.64805096,-0.72513562,0
2.9223437,3.9582758,-0.97633147,0.86730212,0.47569016,-0.146649,0
-3.8069277,3.9673553,1.5685041,-0.23282671,0.64805096,0.72513562,0
-3.7983654,0.81731784,4.3126097,-0.23282671,0.64805096,0.72513562,0
-2.523807,-2.0073736,-5.3012376,0.23282671,-0.64805096,-0.72513562,0
-3.2943659,-2.6135955,3.0141594,-0.86730212,-0.47569016,0.146649,0
-3.4303279,-2.372185,2.1208754,-0.86730212,-0.47569016,0.146649,0
-0.68270731,-7.0762401,0.28367501,0.43997589,-0.59476781,0.67280936,0
-5.464201,1.0681107,1.4294338,-0.86730212,-0.47569016,0.146649,0
6.0582137,-1.8799841,-1.4182682,0.86730212,0.47569016,-0.146649,0
-4.296896,-2.7181973,-3.2127314,-0.86730212,-0.47569016,0.146649,0
-0.87086725,5.1259279,1.3296077,-0.23282671,0.64805096,0.72513562,0
-4.822629,-1.4726248,-2.1605194,-0.86730212,-0.47569016,0.146649,0
-3.6027985,-3.6545701,-2.8553224,-0.86730212,-0.47569016,0.146649,0
-3.3450933,-2.9040289,1.67573,-0.86730212,-0.47569016,0.146649,0
-5.4820461,0.69125605,0.72779942,-0.86730212,-0.47569016,0.146649,0
-1.1937299,1.0296381,-4.3112907,-0.43997589,0.59476781,-0.67280936,0
3.8991194,-3.2020855,0.51344275,0.43997589,-0.59476781,0.67280936,0
-3.0928209,-3.3026381,1.6866727,-0.86730212,-0.47569016,0.146649,0
4.860714,1.7382784,4.2247329,0.43997589,-0.59476781,0.67280936,0
-3.9841321,-0.98960251,3.8504479,-0.86730212,-0.47569016,0.146649,0
0.52620006,-4.1096792,2.0235929,0.43997589,-0.59476781,0.67280936,0
-0.2807498,0.44836211,5.7119317,-0.23282671,0.64805096,0.72513562,0
0.60552883,-6.1063194,0.25836357,0.43997589,-0.59476781,0.67280936,0
-2.836189,1.3424518,-2.7785604,-0.43997589,0.59476781,-0.67280936,0
3.4232624,-2.6282601,-2.7910647,0.23282671,-0.64805096,-0.72513562,0
3.2305937,-3.9732242,-1.6078763,0.23282671,-0.64805096,-0.72513562,0
2.95926,3.6436734,-1.5141354,0.86730212,0.47569016,-0.146649,0
-1.8673847,4.0209241,-1.2335355,-0.43997589,0.59476781,-0.67280936,0
6.1238546,-2.1366847,-0.0037283897,0.43997589,-0.59476781,0.67280936,0
0.41050959,-1.6183352,-4.5604091,0.23282671,-0.64805096,-0.72513562,0
-3.2799199,-1.6003921,6.01229,-0.86730212,-0.47569016,0.146649,0
2.3208008,4.1862216,-3.8978524,-0.43997589,0.59476781,-0.67280936,0
-5.4526806,0.72574139,0.80014706,-0.86730212,-0.47569016,0.146649,0
-3.3691947,3.0362234,2.2730846,-0.23282671,0.64805096,0.72513562,0
-2.0735431,-5.3457222,0.76755691,-0.86730212,-0.47569016,0.146649,0
-3.5013061,-2.0827188,3.5354564,-0.86730212,-0.47569016,0.146649,0
3.285074,-0.67491335,-4.4205704,0.23282671,-0.64805096,-0.72513562,0
-0.35076499,-6.0140758,0.8512162,0.43997589,-0.59476781,0.67280936,0
2.4610796,3.9818039,-2.9810386,0.86730212,0.47569016,-0.146649,0
-2.4915695,-4.1854029,-3.25243,0.23282671,-0.64805096,-0.72513562,0
0.74781227,-2.027288,3.762361,0.43997589,-0.59476781,0.67280936,0
5.5908494,-2.9066,-1.6936769,0.23282671,-0.64805096,-0.72513562,0
-2.9552734,-4.7255859,-1.5061153,-0.86730212,-0.47569016,0.146649,0
2.4220891,-4.1261339,-1.8711468,0.23282671,-0.64805096,-0.72513562,0
-1.9473603,3.3635881,2.6013849,-0.23282671,0.64805096,0.72513562,0
5.4161897,-1.4242134,-3.2096519,0.86730212,0.47569016,-0.146649,0
2.5127277,4.9373212,0.55334735,0.86730212,0.47569016,-0.146649,0
-3.0053582,-3.0554764,-4.4894857,0.23282671,-0.64805096,-0.72513562,0
1.5971456,6.7481542,0.74729288,-0.23282671,0.64805096,0.72513562,0
-4.2328405,1.5075384,3.4174283,-0.23282671,0.64805096,0.72513562,0
1.7020826,5.323843,1.941823,-0.23282671,0.64805096,0.72513562,0
-1.7826362,-6.3289299,-1.1131694,0.23282671,-0.64805096,-0.72513562,0
-2.5589032,3.2748356,-1.2372684,-0.43997589,0.59476781,-0.67280936,0
5.023622,-1.9819,1.051434,0.43997589,-0.59476781,0.67280936,0
0.8675642,-1.6566961,3.8014894,0.43997589,-0.59476781,0.67280936,0
1.1877308,-0.87307268,-5.1047902,0.23282671,-0.64805096,-0.72513562,0
-0.87332916,6.1724577,0.3848964,-0.23282671,0.64805096,0.72513562,0
-5.7037668,1.1124856,1.0111299,-0.86730212,-0.47569016,0.146649,0
4.3487759,2.9092574,3.9924288,0.86730212,0.47569016,-0.146649,0
-0.060367584,-6.2600164,-0.57914561,0.23282671,-0.64805096,-0.72513562,0
1.9008099,-3.0667944,1.9433963,0.43997589,-0.59476781,0.67280936,0
1.7918742,-5.3083315,-0.99598527,0.23282671,-0.64805096,-0.72513562,0
-1.8700732,-3.1710153,4.3999062,0.43997589,-0.59476781,0.67280936,0
-4.818387,-1.2800663,-1.6921921,-0.86730212,-0.47569016,0.146649,0
2.4844894,4.3517685,-1.2109249,0.86730212,0.47569016,-0.146649,0
2.3851173,-0.4205842,4.0111694,0.43997589,-0.59476781,0.67280936,0
5.0619345,-1.7325296,1.1212006,0.43997589,-0.59476781,0.67280936,0
-3.461956,-2.4021714,2.6485586,-0.86730212,-0.47569016,0.146649,0
5.6000781,-0.36625314,1.3427663,0.86730212,0.47569016,-0.146649,0
3.9908962,-1.1382592,2.3504751,0.43997589,-0.59476781,0.67280936,0
2.1937428,1.7185197,5.4903507,-0.23282671,0.64805096,0.72513562,0
0.32448387,6.5418563,0.34462255,-0.23282671,0.64805096,0.72513562,0
-0.030592442,5.2216163,-1.20399,-0.43997589,0.59476781,-0.67280936,0
4.8650446,0.51891541,0.0035653114,0.86730212,0.47569016,-0.146649,0
-2.2813411,-5.1094217,0.75915599,-0.86730212,-0.47569016,0.146649,0
0.78645551,-3.883142,2.0602636,0.43997589,-0.59476781,0.67280936,0
0.17340541,-5.1327286,1.3509463,0.43997589,-0.59476781,0.67280936,0
-2.0685487,-0.82305396,6.412262,-0.23282671,0.64805096,0.72513562,0
-1.3628252,3.3704891,-2.0222161,-0.43997589,0.59476781,-0.67280936,0
1.3274646,4.8509278,2.4155302,-0.23282671,0.64805096,0.72513562,0
0.37573528,0.72265267,-5.5253716,-0.43997589,0.59476781,-0.67280936,0
-3.8941624,1.4784358,3.721137,-0.23282671,0.64805096,0.72513562,0
-2.7535853,-3.5098588,2.5447628,-0.86730212,-0.47569016,0.146649,0
0.045105219,-4.6248598,1.8545736,0.43997589,-0.59476781,0.67280936,0
0.91380787,-5.2913551,0.79009962,0.43997589,-0.59476781,0.67280936,0
-2.3748732,-3.8743832,-3.5027466,0.23282671,-0.64805096,-0.72513562,0
-2.5332594,-2.4514925,-4.6903558,0.23282671,-0.64805096,-0.72513562,0
5.2042937,-0.069448471,2.5308988,0.43997589,-0.59476781,0.67280936,0
-4.3027272,-2.7486978,-3.9766257,-0.86730212,-0.47569016,0.146649,0
2.5081804,-3.088531,1.5560561,0.43997589,-0.59476781,0.67280936,0
3.7462249,0.38884544,3.9129553,0.43997589,-0.59476781,0.67280936,0
-4.8550882,-1.1710021,-1.8273609,-0.86730212,-0.47569016,0.146649,0
-2.5212069,-3.7972298,3.3178926,-0.86730212,-0.47569016,0.146649,0
-0.80464125,2.5884137,3.7230062,-0.23282671,0.64805096,0.72513562,0
5.5823131,-3.1764524,-0.41782427,0.43997589,-0.59476781,0.67280936,0
-2.7179618,-5.1871567,-1.9764861,-0.86730212,-0.47569016,0.146649,0
0.999367,6.119772,-1.2356617,-0.43997589,0.59476781,-0.67280936,0
3.0145326,1.6233377,-6.4563198,-0.43997589,0.59476781,-0.67280936,0
3.3950088,-2.4680564,1.6362121,0.43997589,-0.59476781,0.67280936,0
1.5270115,2.7653506,-4.6000342,-0.43997589,0.59476781,-0.67280936,0
-1.3636642,5.5752707,0.79710889,-0.23282671,0.64805096,0.72513562,0
-2.437386,-5.2331791,-2.3724902,0.23282671,-0.64805096,-0.72513562,0
1.3166337,-5.2370362,-1.0376807,0.23282671,-0.64805096,-0.72513562,0
-4.344533,-0.57306242,3.2836967,-0.86730212,-0.47569016,0.146649,0
2.0969613,5.0531845,-1.5647217,0.86730212,0.47569016,-0.146649,0
-4.0816402,-2.7490497,-1.8759778,-0.86730212,-0.47569016,0.146649,0
4.2356586,-4.4123268,-0.66207504,0.43997589,-0.59476781,0.67280936,0
-2.9541099,-1.3775514,6.4153028,-0.23282671,0.64805096,0.72513562,0
-2.0657735,1.5805383,-3.1687176,-0.43997589,0.59476781,-0.67280936,0
-4.2409163,-1.9462492,-0.37389612,-0.86730212,-0.47569016,0.146649,0
-3.6451886,-0.99109197,5.9596319,-0.23282671,0.64805096,0.72513562,0
-2.8467202,-1.8697094,-5.3634372,0.23282671,-0.64805096,-0.72513562,0
5.202148,0.32244492,1.5998156,0.86730212,0.47569016,-0.146649,0
-2.1497087,-5.9056654,-0.96835291,-0.86730212,-0.47569016,0.146649,0
5.5691428,-3.2336037,-1.5464821,0.23282671,-0.64805096,-0.72513562,0
-4.042973,-0.34718204,-3.734838,-0.43997589,0.59476781,-0.67280936,0
-0.76392984,-4.3922024,-2.4559054,0.23282671,-0.64805096,-0.72513562,0
-0.15939951,6.0499406,0.86717188,-0.23282671,0.64805096,0.72513562,0
-2.8169932,-2.656795,5.3751535,0.43997589,-0.59476781,0.67280936,0
-5.1632147,-0.21763897,-1.0215778,-0.86730212,-0.47569016,0.146649,0
0.69964314,1.4054046,5.1366701,-0.23282671,0.64805096,0.72513562,0
-0.37212992,-5.2537055,-1.5118062,0.23282671,-0.64805096,-0.72513562,0
-5.8383508,2.739095,0.20756435,-0.43997589,0.59476781,-0.67280936,0
4.5741181,1.3141038,1.2462866,0.86730212,0.47569016,-0.146649,0
1.956146,-3.8620851,-2.1666408,0.23282671,-0.64805096,-0.72513562,0
-4.5663586,-0.99097669,0.99988556,-0.86730212,-0.47569016,0.146649,0
5.9439783,-1.5969014,-1.1438799,0.86730212,0.47569016,-0.146649,0
4.9056377,0.60185075,3.2687576,0.43997589,-0.59476781,0.67280936,0
4.852438,0.32889104,-1.5911145,0.86730212,0.47569016,-0.146649,0
2.4464362,-1.9193786,-3.7948864,0.23282671,-0.64805096,-0.72513562,0
5.1157312,-1.4426327,-3.3572803,0.23282671,-0.64805096,-0.72513562,0
3.2089427,-0.50201619,-4.7954121,0.23282671,-0.64805096,-0.72513562,0
-2.377229,-1.4268847,6.3693161,0.43997589,-0.59476781,0.67280936,0
-4.677762,-0.9629097,0.16715336,-0.86730212,-0.47569016,0.146649,0
-0.55592775,6.3479629,0.22332978,-0.23282671,0.64805096,0.72513562,0
-0.15016031,-1.6146246,-4.8264894,0.23282671,-0.64805096,-0.72513562,0
4.6682167,-0.13199353,-3.6994832,0.86730212,0.47569016,-0.146649,0
-0.93512642,4.6019197,-1.1855763,-0.43997589,0.59476781,-0.67280936,0
2.2881308,4.5430517,-2.7576337,0.86730212,0.47569016,-0.146649,0
-4.0191407,-0.52693343,5.0810022,-0.86730212,-0.47569016,0.146649,0
4.3731861,-1.4480186,1.6965613,0.43997589,-0.59476781,0.67280936,0
3.698565,-2.6388934,-2.5825174,0.23282671,-0.64805096,-0.72513562,0
4.1266203,2.4298685,1.665123,0.86730212,0.47569016,-0.146649,0
4.1267385,-0.85419047,-4.0324993,0.23282671,-0.64805096,-0.72513562,0
2.5458956,0.5823431,4.7654786,0.43997589,-0.59476781,0.67280936,0
0.049923383,-3.5460153,2.6842988,0.43997589,-0.59476781,0.67280936,0
-4.4233928,-2.9080975,-4.5087123,-0.86730212,-0.47569016,0.146649,0
0.76707983,0.25695705,5.6909361,0.43997589,-0.59476781,0.67280936,0
4.4137726,0.73131084,-1.7608094,0.86730212,0.47569016,-0.146649,0
1.0137286,-5.2125082,0.68790603,0.43997589,-0.59476781,0.67280936,0
0.35881329,-5.6286831,-1.0647829,0.23282671,-0.64805096,-0.72513562,0
-3.4973953,-3.7509534,-2.2591343,-0.86730212,-0.47569016,0.146649,0
-3.1674237,-3.8496137,-0.087180853,-0.86730212,-0.47569016,0.146649,0
-1.877866,-5.6249042,0.94456935,-0.86730212,-0.47569016,0.146649,0
-2.8314602,-4.6693516,-0.76441312,-0.86730212,-0.47569016,0.146649,0
-5.3438892,-0.36618519,-2.725291,-0.86730212,-0.47569016,0.146649,0
4.0430636,3.2740114,3.995204,0.86730212,0.47569016,-0.146649,0
-5.7668548,0.96963763,-0.41280746,-0.86730212,-0.47569016,0.146649,0
-0.68488789,0.64077199,5.3152237,-0.23282671,0.64805096,0.72513562,0
-0.66937208,-5.4634552,-1.4748917,0.23282671,-0.64805096,-0.72513562,0
-6.0301247,1.8294375,1.2984986,-0.86730212,-0.47569016,0.146649,0
-4.1541181,3.6285422,0.056223869,-0.43997589,0.59476781,-0.67280936,0
0.61957359,0.42522299,-5.8983669,-0.43997589,0.59476781,-0.67280936,0
4.765696,0.3770957,-1.6997085,0.86730212,0.47569016,-0.146649,0
-2.0002856,4.2152519,-0.91217196,-0.43997589,0.59476781,-0.67280936,0
-2.9584808,-1.4139404,-5.2891049,-0.43997589,0.59476781,-0.67280936,0
0.22492409,-5.4112291,-1.2785041,0.23282671,-0.64805096,-0.72513562,0
2.435302,3.3821499,-4.575664,-0.43997589,0.59476781,-0.67280936,0
4.1890402,0.91091442,-2.34389,0.86730212,0.47569016,-0.146649,0
3.1292226,3.3450394,-1.6978805,0.86730212,0.47569016,-0.146649,0
-3.2975724,-2.9879456,2.0128987,-0.86730212,-0.47569016,0.146649,0
5.5637236,0.051623344,1.7129726,0.86730212,0.47569016,-0.146649,0
0.050336599,1.8155475,-4.4649262,-0.43997589,0.59476781,-0.67280936,0
3.8774524,-0.27791524,3.0633192,0.43997589,-0.59476781,0.67280936,0
0.56932497,1.8477187,-4.5671973,-0.43997589,0.59476781,-0.67280936,0
4.6199675,2.0786955,3.7040479,0.86730212,0.47569016,-0.146649,0
-0.14935839,4.6173759,-1.8529608,-0.43997589,0.59476781,-0.67280936,0
-1.0134211,-1.5754178,-5.167491,0.23282671,-0.64805096,-0.72513562,0
3.3458104,3.8914557,3.7843702,-0.23282671,0.64805096,0.72513562,0
5.8650532,-3.5873005,-1.078424,0.43997589,-0.59476781,0.67280936,0
5.5905404,-1.4695172,1.017343,0.43997589,-0.59476781,0.67280936,0
4.6946373,-1.9318051,-3.0826068,0.23282671,-0.64805096,-0.72513562,0
0.018065274,-4.0782218,2.2575331,0.43997589,-0.59476781,0.67280936,0
-4.422195,-2.6738968,-5.2496691,0.23282671,-0.64805096,-0.72513562,0
4.1094823,-0.3701365,3.0560014,0.43997589,-0.59476781,0.67280936,0
6.2836628,-2.2481558,-0.84993362,0.86730212,0.47569016,-0.146649,0
3.7079587,1.2014477,-5.2521038,0.86730212,0.47569016,-0.146649,0
0.70919681,-2.2472491,3.4624267,0.43997589,-0.59476781,0.67280936,0
0.45382595,0.3373791,-5.9390764,-0.43997589,0.59476781,-0.67280936,0
-4.0676351,-0.98427033,3.3711319,-0.86730212,-0.47569016,0.146649,0
-4.9372082,0.29394603,2.8140779,-0.86730212,-0.47569016,0.146649,0
2.3373172,4.9706292,-1.3908966,0.86730212,0.47569016,-0.146649,0
-1.36693,-1.2290875,-5.4746637,0.23282671,-0.64805096,-0.72513562,0
4.0752726,-2.6709335,0.83763528,0.43997589,-0.59476781,0.67280936,0
0.91448402,-3.4047844,-2.848254,0.23282671,-0.64805096,-0.72513562,0
-1.1757846,-1.8598793,-4.8981371,0.23282671,-0.64805096,-0.72513562,0
-5.4558086,0.060711384,-1.0347729,-0.86730212,-0.47569016,0.146649,0
-0.078154325,-2.2648675,4.0195699,0.43997589,-0.59476781,0.67280936,0
-0.051802337,-3.1690903,3.0392778,0.43997589,-0.59476781,0.67280936,0
-4.4584417,-1.3647525,-4.30861,-0.43997589,0.59476781,-0.67280936,0
-2.8737109,-2.7549415,4.7825603,-0.86730212,-0.47569016,0.146649,0
0.95946872,5.3696065,-1.9506962,-0.43997589,0.59476781,-0.67280936,0
2.0580983,2.3597655,4.7749462,-0.23282671,0.64805096,0.72513562,0
5.1896477,-3.5848687,-0.58105087,0.43997589,-0.59476781,0.67280936,0
-0.10244513,2.7413824,-3.3187513,-0.43997589,0.59476781,-0.67280936,0
-1.1995096,-4.7754736,-2.33956,0.23282671,-0.64805096,-0.72513562,0
-4.7523427,1.772531,2.9719429,-0.23282671,0.64805096,0.72513562,0
-3.1394148,-4.4096661,-3.1630483,0.23282671,-0.64805096,-0.72513562,0
6.1991568,-1.8266323,-0.088222504,0.86730212,0.47569016,-0.146649,0
-3.7248521,-1.1182172,-4.4484487,-0.43997589,0.59476781,-0.67280936,0
-3.6081147,-1.9740521,3.2224638,-0.86730212,-0.47569016,0.146649,0
3.7320056,-4.0794287,-1.4379117,0.23282671,-0.64805096,-0.72513562,0
-0.61412358,-1.4937766,4.9618726,0.43997589,-0.59476781,0.67280936,0
5.5894938,-1.9662049,0.6910882,0.43997589,-0.59476781,0.67280936,0
-0.15327454,6.2073517,-0.25681683,-0.43997589,0.59476781,-0.67280936,0
3.3086555,-2.0116687,-3.3704412,0.23282671,-0.64805096,-0.72513562,0
-0.45190239,-1.1730323,-5.3146009,0.23282671,-0.64805096,-0.72513562,0
2.5039992,-4.3866639,0.52220321,0.43997589,-0.59476781,0.67280936,0
0.10527039,1.2920641,5.0122705,-0.23282671,0.64805096,0.72513562,0
-1.1729665,3.4799271,2.7019398,-0.23282671,0.64805096,0.72513562,0
0.56761789,6.723505,-0.33103001,-0.43997589,0.59476781,-0.67280936,0
3.7286572,2.2156379,-1.2162912,0.86730212,0.47569016,-0.146649,0
-0.7434293,-3.9007099,2.9130797,0.43997589,-0.59476781,0.67280936,0
3.3540797,1.0470383,4.7897253,0.43997589,-0.59476781,0.67280936,0
-5.3710127,-0.65419149,-2.7889068,-0.86730212,-0.47569016,0.146649,0
2.4679768,5.030652,-0.30104709,0.86730212,0.47569016,-0.146649,0
0.20259094,-3.0212746,-3.3196716,0.23282671,-0.64805096,-0.72513562,0
2.274653,4.0262327,-3.8602276,0.86730212,0.47569016,-0.146649,0
1.4229193,-4.5251341,1.09316,0.43997589,-0.59476781,0.67280936,0
4.5863061,1.8929708,3.165637,0.86730212,0.47569016,-0.146649,0
3.3023105,2.7575727,-1.9966578,0.86730212,0.47569016,-0.146649,0
0.41727161,4.0134025,-2.6720462,-0.43997589,0.59476781,-0.67280936,0
5.4742064,-1.2769434,-1.8170357,0.86730212,0.47569016,-0.146649,0
-1.7953362,-6.4121084,-0.83681929,-0.86730212,-0.47569016,0.146649,0
4.4470434,2.3568687,2.5879025,0.86730212,0.47569016,-0.146649,0
-1.1217294,3.6073301,2.6537917,-0.23282671,0.64805096,0.72513562,0
4.10428,2.9800603,3.5434866,0.86730212,0.47569016,-0.146649,0
-5.3004851,3.7995398,0.80096579,-0.43997589,0.59476781,-0.67280936,0
2.5871973,-3.4858499,-2.201123,0.23282671,-0.64805096,-0.72513562,0
-0.58398664,-5.1733103,1.8194369,0.43997589,-0.59476781,0.67280936,0
4.2940197,-3.0087922,0.38443828,0.43997589,-0.59476781,0.67280936,0
0.29672575,0.64750421,-5.5833516,-0.43997589,0.59476781,-0.67280936,0
-2.4180732,4.4643416,-0.39320469,-0.43997589,0.59476781,-0.67280936,0
-3.0910282,4.8623395,0.99970078,-0.23282671,0.64805096,0.72513562,0
1.8985713,-0.49384266,-5.0338855,0.23282671,-0.64805096,-0.72513562,0
-0.048825413,-3.4867597,2.9580503,0.43997589,-0.59476781,0.67280936,0
3.002037,4.1636896,0.15216017,0.86730212,0.47569016,-0.146649,0
-2.867166,-2.788358,4.6401119,-0.86730212,-0.47569016,0.146649,0
2.5263669,-1.953619,2.5719337,0.43997589,-0.59476781,0.67280936,0
-1.2655364,-3.5736885,3.6133614,0.43997589,-0.59476781,0.67280936,0
0.54972076,1.1062932,5.5192084,-0.23282671,0.64805096,0.72513562,0
-3.2940061,-4.04848,-1.4185896,-0.86730212,-0.47569016,0.146649,0
-0.13697243,-0.19653928,5.8295574,0.43997589,-0.59476781,0.67280936,0
5.2008352,-0.37358046,2.0762296,0.43997589,-0.59476781,0.67280936,0
-2.1940813,-4.8545389,2.0929718,-0.86730212,-0.47569016,0.146649,0
0.46422625,-4.7141581,-1.8028378,0.23282671,-0.64805096,-0.72513562,0
-4.4230905,2.7352338,-0.74816489,-0.43997589,0.59476781,-0.67280936,0
4.4163337,0.68617761,-2.8196554,0.86730212,0.47569016,-0.146649,0
3.4134927,2.5997584,-1.8963048,0.86730212,0.47569016,-0.146649,0
-1.059402,-7.2810445,0.2145642,-0.86730212,-0.47569016,0.146649,0
-0.33212984,2.2831335,-3.5684838,-0.43997589,0.59476781,-0.67280936,0
-0.22464597,2.6835141,-3.3762984,-0.43997589,0.59476781,-0.67280936,0
5.0922232,-0.49857998,-2.8525357,0.86730212,0.47569016,-0.146649,0
-1.1278404,2.2169926,-3.2264092,-0.43997589,0.59476781,-0.67280936,0
-3.6394451,-1.0754427,5.4807262,-0.86730212,-0.47569016,0.146649,0
-5.3760643,0.59857726,1.1880803,-0.86730212,-0.47569016,0.146649,0
2.636899,2.4456475,4.7671614,-0.23282671,0.64805096,0.72513562,0
1.153657,-4.8756156,-1.4023333,0.23282671,-0.64805096,-0.72513562,0
-0.046404839,0.42749166,5.7351604,-0.23282671,0.64805096,0.72513562,0
-4.2507291,-2.2819085,-5.2773685,-0.43997589,0.59476781,-0.67280936,0
2.8224461,-0.41043711,3.6163354,0.43997589,-0.59476781,0.67280936,0
1.2265244,5.6573672,1.5656182,-0.23282671,0.64805096,0.72513562,0
-3.8974171,-2.9315503,-2.249953,-0.86730212,-0.47569016,0.146649,0
1.7731152,-0.68286371,-5.0452724,0.23282671,-0.64805096,-0.72513562,0
1.7957528,-3.2247701,1.8013667,0.43997589,-0.59476781,0.67280936,0
1.2140534,5.9646769,-1.4408998,-0.43997589,0.59476781,-0.67280936,0
-3.5556154,3.4356415,-0.54743004,-0.43997589,0.59476781,-0.67280936,0
-3.3509612,1.3544438,-2.4747691,-0.43997589,0.59476781,-0.67280936,0
0.78515244,1.2556746,5.4517069,-0.23282671,0.64805096,0.72513562,0
-5.1858554,3.6452422,0.72442102,-0.43997589,0.59476781,-0.67280936,0
2.3270068,-4.2601657,0.69563484,0.43997589,-0.59476781,0.67280936,0
0.039498866,-3.0659151,3.1264982,0.43997589,-0.59476781,0.67280936,0
-4.3170571,-1.6517457,0.21913147,-0.86730212,-0.47569016,0.146649,0
-4.4039264,1.5102273,3.3810213,-0.23282671,0.64805096,0.72513562,0
-4.3895812,-0.27245164,4.0860577,-0.86730212,-0.47569016,0.146649,0
-0.47279,-5.6989999,1.2052728,0.43997589,-0.59476781,0.67280936,0
-1.0003314,-1.6245997,5.086864,0.43997589,-0.59476781,0.67280936,0
-1.770757,-6.1247272,1.0179591,-0.86730212,-0.47569016,0.146649,0
-3.3720126,-3.6721327,-1.7764115,-0.86730212,-0.47569016,0.146649,0
-4.8845487,-1.5521717,-4.1865239,-0.43997589,0.59476781,-0.67280936,0
4.4833322,2.6949265,4.6952596,0.86730212,0.47569016,-0.146649,0
-0.79646885,2.1366572,-3.619071,-0.43997589,0.59476781,-0.67280936,0
2.8763986,-3.4435441,-2.1388166,0.23282671,-0.64805096,-0.72513562,0
-0.56487155,-5.6672316,1.4493544,0.43997589,-0.59476781,0.67280936,0
-3.3226471,-3.6779637,-1.2743194,-0.86730212,-0.47569016,0.146649,0
2.9317484,2.0314572,5.2595339,-0.23282671,0.64805096,0.72513562,0
-0.2226449,3.6050882,-2.6698871,-0.43997589,0.59476781,-0.67280936,0
0.58701277,2.926815,3.8547909,-0.23282671,0.64805096,0.72513562,0
-3.4592834,-3.187103,-4.5051723,0.23282671,-0.64805096,-0.72513562,0
4.3953562,-1.0340042,2.0647094,0.43997589,-0.59476781,0.67280936,0
-3.1418798,-1.5740395,6.5793614,-0.86730212,-0.47569016,0.146649,0
-2.776535,-1.204042,-5.1363306,-0.43997589,0.59476781,-0.67280936,0
-1.1923403,-2.5209124,4.4982424,0.43997589,-0.59476781,0.67280936,0
-4.8880162,4.0321503,0.86203003,-0.43997589,0.59476781,-0.67280936,0
-2.481843,-5.3013306,-1.6063073,-0.86730212,-0.47569016,0.146649,0
-3.1771352,-2.5244708,3.6023631,-0.86730212,-0.47569016,0.146649,0
-4.6128635,-0.28962588,2.8657432,-0.86730212,-0.47569016,0.146649,0
0.90224075,-2.7509532,-3.5680876,0.23282671,-0.64805096,-0.72513562,0
-2.4641922,-3.108645,4.7866731,0.43997589,-0.59476781,0.67280936,0
3.0759511,-2.7315574,1.5779043,0.43997589,-0.59476781,0.67280936,0
3.6634912,-3.5823221,-1.8418782,0.23282671,-0.64805096,-0.72513562,0
-2.8829551,-4.2904096,-0.87369919,-0.86730212,-0.47569016,0.146649,0
-1.2535353,1.6892287,4.3393087,-0.23282671,0.64805096,0.72513562,0
2.1711416,4.3365693,3.0699043,-0.23282671,0.64805096,0.72513562,0
1.047039,6.9230251,0.31435525,-0.23282671,0.64805096,0.72513562,0
4.2607722,0.83229709,-2.593261,0.86730212,0.47569016,-0.146649,0
-1.1352987,-3.4497342,3.5106215,0.43997589,-0.59476781,0.67280936,0
1.2612493,1.241117,-5.746819,-0.43997589,0.59476781,-0.67280936,0
2.4409947,4.218153,3.2123511,-0.23282671,0.64805096,0.72513562,0
4.6123228,-3.9885373,-1.2440438,0.23282671,-0.64805096,-0.72513562,0
-1.3250583,1.780399,-3.5538821,-0.43997589,0.59476781,-0.67280936,0
2.8729129,3.6215053,-1.709132,0.86730212,0.47569016,-0.146649,0
0.013617992,-5.335175,-1.3881667,0.23282671,-0.64805096,-0.72513562,0
-1.5850022,-3.8175766,3.7428246,0.43997589,-0.59476781,0.67280936,0
6.0858192,-1.6745348,-0.16910172,0.86730212,0.47569016,-0.146649,0
-5.3001094,3.4362106,1.4918933,-0.23282671,0.64805096,0.72513562,0
4.5937853,0.81882167,3.7243714,0.43997589,-0.59476781,0.67280936,0
4.6817694,1.8526566,2.8085198,0.86730212,0.47569016,-0.146649,0
-5.5521288,1.7885489,-0.6234498,-0.43997589,0.59476781,-0.67280936,0
4.2751641,2.7384481,3.5548806,0.86730212,0.47569016,-0.146649,0
2.5224319,-4.7020016,-1.0880706,0.23282671,-0.64805096,-0.72513562,0
4.4103994,2.039835,2.0687132,0.86730212,0.47569016,-0.146649,0
2.1221557,-1.2817862,-4.3699732,0.23282671,-0.64805096,-0.72513562,0
2.324018,-3.4756217,-2.2699571,0.23282671,-0.64805096,-0.72513562,0
4.5649691,0.75961339,-1.5122952,0.86730212,0.47569016,-0.146649,0
-1.5329862,5.4273181,0.99210894,-0.23282671,0.64805096,0.72513562,0
-0.6149857,-5.850543,1.1316184,0.43997589,-0.59476781,0.67280936,0
-3.7780814,-1.9694178,-5.2350192,-0.43997589,0.59476781,-0.67280936,0
2.591311,3.702177,-3.0802207,0.86730212,0.47569016,-0.146649,0
6.5136285,-3.0622377,-1.3411779,0.23282671,-0.64805096,-0.72513562,0
-0.76533222,-4.4838457,-2.49822,0.23282671,-0.64805096,-0.72513562,0
-4.2894201,3.4907625,-0.074422359,-0.43997589,0.59476781,-0.67280936,0
-4.3216972,-0.78415716,3.2328627,-0.86730212,-0.47569016,0.146649,0
-0.74925423,3.541368,2.6623929,-0.23282671,0.64805096,0.72513562,0
-2.3660681,1.8387504,3.8587275,-0.23282671,0.64805096,0.72513562,0
6.3109584,-3.3923514,-1.124074,0.43997589,-0.59476781,0.67280936,0
-0.9007597,4.9613423,-0.88022679,-0.43997589,0.59476781,-0.67280936,0
-3.7716815,3.4489412,-0.37603951,-0.43997589,0.59476781,-0.67280936,0
-4.245039,-2.0154617,-0.45610571,-0.86730212,-0.47569016,0.146649,0
-2.4721847,-5.2046957,-0.94694638,-0.86730212,-0.47569016,0.146649,0
-0.067136288,2.8653722,3.7241983,-0.23282671,0.64805096,0.72513562,0
3.5035212,3.0146258,0.11946249,0.86730212,0.47569016,-0.146649,0
-0.58361959,1.525054,4.5631804,-0.23282671,0.64805096,0.72513562,0
4.3055887,-3.9542305,-0.47636271,0.43997589,-0.59476781,0.67280936,0
-4.751596,-1.4948201,-2.0658433,-0.86730212,-0.47569016,0.146649,0
-2.0208957,-5.2067122,2.2323098,-0.86730212,-0.47569016,0.146649,0
1.6249957,-2.5655065,-3.507236,0.23282671,-0.64805096,-0.72513562,0
-5.4083967,1.203558,-1.427907,-0.43997589,0.59476781,-0.67280936,0
-1.9326143,-1.2694668,-5.6949706,0.23282671,-0.64805096,-0.72513562,0
-1.2670448,-4.0831504,3.158597,0.43997589,-0.59476781,0.67280936,0
-5.9259777,1.7631135,2.0321155,-0.86730212,-0.47569016,0.146649,0
-0.60505247,2.0182533,4.3197145,-0.23282671,0.64805096,0.72513562,0
3.966444,-3.274977,-2.0018945,0.23282671,-0.64805096,-0.72513562,0
4.9608812,1.3887749,3.62448,0.86730212,0.47569016,-0.146649,0
0.33362246,3.1980913,3.3709586,-0.23282671,0.64805096,0.72513562,0
-4.1955447,-2.9414563,-3.5667484,-0.86730212,-0.47569016,0.146649,0
2.9582441,2.9205947,-3.9904282,0.86730212,0.47569016,-0.146649,0
-2.3230975,4.1100435,-0.73386705,-0.43997589,0.59476781,-0.67280936,0
-3.9451182,0.60779667,-2.7359157,-0.43997589,0.59476781,-0.67280936,0
-3.9563012,-2.2560527,0.57986093,-0.86730212,-0.47569016,0.146649,0
5.4868813,-1.5303237,0.93822765,0.43997589,-0.59476781,0.67280936,0
4.9705887,-3.4087646,-1.6326528,0.23282671,-0.64805096,-0.72513562,0
0.56896186,4.3598785,-2.4487731,-0.43997589,0.59476781,-0.67280936,0
-4.8790197,-1.1343503,-2.4174848,-0.86730212,-0.47569016,0.146649,0
2.1853988,-5.5464611,-0.55357194,0.23282671,-0.64805096,-0.72513562,0
4.4255877,0.30648351,-3.7771149,0.86730212,0.47569016,-0.146649,0
-0.6614449,1.1113663,-4.5244713,-0.43997589,0.59476781,-0.67280936,0
3.9079347,2.3484011,5.2503567,-0.23282671,0.64805096,0.72513562,0
-0.42621589,-5.8182602,1.1963066,0.43997589,-0.59476781,0.67280936,0
-1.8034678,-6.1609278,-0.24921525,-0.86730212,-0.47569016,0.146649,0
3.258244,4.5961876,3.186691,0.86730212,0.47569016,-0.146649,0
-0.26800394,-1.390492,-4.9861679,0.23282671,-0.64805096,-0.72513562,0
2.5450337,3.219171,-4.7298093,-0.43997589,0.59476781,-0.67280936,0
2.4774628,1.238847,5.4422793,0.43997589,-0.59476781,0.67280936,0
3.0345316,4.9211845,2.6194875,0.86730212,0.47569016,-0.146649,0
2.4465747,4.8820925,2.6779542,-0.23282671,0.64805096,0.72513562,0
2.2180278,-0.13314366,4.3727942,0.43997589,-0.59476781,0.67280936,0
1.5269074,5.759583,-2.0005994,-0.43997589,0.59476781,-0.67280936,0
2.0918875,0.089774609,4.6519604,0.43997589,-0.59476781,0.67280936,0
-2.645891,1.0413593,4.491086,-0.23282671,0.64805096,0.72513562,0
2.4206464,-1.0986748,3.4478345,0.43997589,-0.59476781,0.67280936,0
-1.3548489,1.2481935,4.7182493,-0.23282671,0.64805096,0.72513562,0
-4.1155062,-1.1338875,-4.2998223,-0.43997589,0.59476781,-0.67280936,0
0.62919903,-5.1890001,-1.43757,0.23282671,-0.64805096,-0.72513562,0
1.1847024,-4.1260233,-2.0564213,0.23282671,-0.64805096,-0.72513562,0
-0.475142,-1.4889572,-5.155057,0.23282671,-0.64805096,-0.72513562,0
6.130487,-2.306803,-1.4554009,0.86730212,0.47569016,-0.146649,0
5.7012858,-2.0369027,-2.5296683,0.23282671,-0.64805096,-0.72513562,0
2.3056517,4.4215374,-2.1147008,0.86730212,0.47569016,-0.146649,0
-3.7826295,-1.1025949,4.4608345,-0.86730212,-0.47569016,0.146649,0
2.3174744,3.5747752,3.7208631,-0.23282671,0.64805096,0.72513562,0
-4.8230395,-1.6626108,-2.9980013,-0.86730212,-0.47569016,0.146649,0
-1.5062011,-4.074439,3.4409561,0.43997589,-0.59476781,0.67280936,0
0.814816,4.610898,2.402776,-0.23282671,0.64805096,0.72513562,0
-4.6491785,-2.2424612,-3.9535179,-0.86730212,-0.47569016,0.146649,0
-2.3578687,-1.8137919,5.9463158,0.43997589,-0.59476781,0.67280936,0
0.57812977,-3.141917,-3.3397462,0.23282671,-0.64805096,-0.72513562,0
-5.8499818,3.523077,1.094934,-0.43997589,0.59476781,-0.67280936,0
-3.6953444,4.8064289,0.71821594,-0.23282671,0.64805096,0.72513562,0
-0.48316002,2.0851367,4.1805706,-0.23282671,0.64805096,0.72513562,0
-3.7446914,-2.7014523,0.15256619,-0.86730212,-0.47569016,0.146649,0
-0.67221975,5.7740355,0.92529833,-0.23282671,0.64805096,0.72513562,0
5.1110363,0.93222785,2.2496836,0.86730212,0.47569016,-0.146649,0
0.66264868,3.9786839,2.9378181,-0.23282671,0.64805096,0.72513562,0
4.5922203,1.2842495,0.66806698,0.86730212,0.47569016,-0.146649,0
-0.65778756,-6.7289472,0.55494541,0.43997589,-0.59476781,0.67280936,0
-3.6833701,-2.8290999,-0.35070395,-0.86730212,-0.47569016,0.146649,0
1.7615346,3.8830936,-3.6808503,-0.43997589,0.59476781,-0.67280936,0
-2.2133665,-3.2966619,-3.9654937,0.23282671,-0.64805096,-0.72513562,0
-0.05424118,4.3086276,2.4145343,-0.23282671,0.64805096,0.72513562,0
-0.86799544,2.7143307,-2.8881168,-0.43997589,0.59476781,-0.67280936,0
-1.9947996,-3.4107623,-3.8243551,0.23282671,-0.64805096,-0.72513562,0
4.5242424,0.96406126,-1.4741683,0.86730212,0.47569016,-0.146649,0
-3.4782274,1.7380672,-2.0094323,-0.43997589,0.59476781,-0.67280936,0
-1.606143,-4.0521545,-3.1915634,0.23282671,-0.64805096,-0.72513562,0
-4.6049685,-0.84730864,1.0933762,-0.86730212,-0.47569016,0.146649,0
1.5062301,-0.97132266,4.2079682,0.43997589,-0.59476781,0.67280936,0
3.7580948,3.8055551,3.9444442,0.86730212,0.47569016,-0.146649,0
5.659277,-2.7953763,-0.1360898,0.43997589,-0.59476781,0.67280936,0
0.89398026,-6.1134381,0.042317867,0.43997589,-0.59476781,0.67280936,0
-1.3968439,-2.9697661,-4.1157517,0.23282671,-0.64805096,-0.72513562,0
2.2955251,0.82526517,5.2932138,0.43997589,-0.59476781,0.67280936,0
-3.3210385,-3.5139759,-0.53731942,-0.86730212,-0.47569016,0.146649,0
3.6325858,2.6678703,-0.2685802,0.86730212,0.47569016,-0.146649,0
-3.8292317,1.3886628,-2.3366885,-0.43997589,0.59476781,-0.67280936,0
-1.9214911,1.8627962,4.0260854,-0.23282671,0.64805096,0.72513562,0
2.0379806,3.7079251,3.6227307,-0.23282671,0.64805096,0.72513562,0
-5.0141964,0.66774273,3.1882272,-0.86730212,-0.47569016,0.146649,0
5.2728639,-0.92895579,1.6589322,0.43997589,-0.59476781,0.67280936,0
0.56606483,-0.43281853,5.0630627,0.43997589,-0.59476781,0.67280936,0
3.4470866,1.5608586,-5.4288902,0.86730212,0.47569016,-0.146649,0
3.4135203,2.5280137,-2.4336035,0.86730212,0.47569016,-0.146649,0
-3.1763096,-3.3980212,1.2025912,-0.86730212,-0.47569016,0.146649,0
2.6015596,2.8505905,4.4811416,-0.23282671,0.64805096,0.72513562,0
-1.4840078,-0.85901976,-5.6033735,-0.43997589,0.59476781,-0.67280936,0
-1.715951,-0.77779949,-5.5652256,-0.43997589,0.59476781,-0.67280936,0
-2.031791,-3.9873936,3.7133632,0.43997589,-0.59476781,0.67280936,0
2.6244392,5.1090469,1.6918,0.86730212,0.47569016,-0.146649,0
3.1183915,2.2336755,-4.7908764,0.86730212,0.47569016,-0.146649,0
-1.2669916,0.35350391,5.4559445,-0.23282671,0.64805096,0.72513562,0
-3.9247837,2.5211546,2.7056046,-0.23282671,0.64805096,0.72513562,0
1.5226803,6.2001829,1.0403404,-0.23282671,0.64805096,0.72513562,0
-0.38529444,0.5482499,5.6841059,-0.23282671,0.64805096,0.72513562,0
-3.6425881,-3.3818865,-2.1120274,-0.86730212,-0.47569016,0.146649,0
3.0312757,-4.6719575,-0.98169518,0.23282671,-0.64805096,-0.72513562,0
-3.027597,-3.5790453,0.99036622,-0.86730212,-0.47569016,0.146649,0
6.0230937,-1.971426,-1.5856838,0.86730212,0.47569016,-0.146649,0
1.9796953,-3.0264735,2.0527108,0.43997589,-0.59476781,0.67280936,0
-5.9683609,1.5665445,0.072970867,-0.86730212,-0.47569016,0.146649,0
-2.73418,-4.3691425,0.68350434,-0.86730212,-0.47569016,0.146649,0
3.4228528,-0.85113454,-4.2641206,0.23282671,-0.64805096,-0.72513562,0
0.42122316,4.8792138,-1.9111253,-0.43997589,0.59476781,-0.67280936,0
-4.6727839,4.1153035,0.87418079,-0.43997589,0.59476781,-0.67280936,0
-5.1170192,-0.35732532,-0.091378689,-0.86730212,-0.47569016,0.146649,0
1.9317555,2.2579067,4.7889123,-0.23282671,0.64805096,0.72513562,0
-4.7122812,1.0783701,3.6833575,-0.23282671,0.64805096,0.72513562,0
1.4481033,-2.5057163,2.6865094,0.43997589,-0.59476781,0.67280936,0
4.354218,-0.61406147,-4.208436,0.23282671,-0.64805096,-0.72513562,0
-1.6950107,-2.4471331,-4.5863223,0.23282671,-0.64805096,-0.72513562,0
-1.2935982,-1.6285915,-5.120369,0.23282671,-0.64805096,-0.72513562,0
0.53516328,3.7368453,-3.0900345,-0.43997589,0.59476781,-0.67280936,0
2.3227611,3.0701883,-4.8652725,-0.43997589,0.59476781,-0.67280936,0
1.7858348,-0.033563614,4.7426944,0.43997589,-0.59476781,0.67280936,0
-3.8419018,-0.79758269,5.637598,-0.23282671,0.64805096,0.72513562,0
-5.4053869,1.178766,3.1323123,-0.86730212,-0.47569016,0.146649,0
-1.0183187,3.9853549,2.253953,-0.23282671,0.64805096,0.72513562,0
-3.9332922,-2.2100861,0.14466667,-0.86730212,-0.47569016,0.146649,0
3.831954,-3.1379471,-2.2829344,0.23282671,-0.64805096,-0.72513562,0
-1.8503032,-5.6379495,-1.8160595,0.23282671,-0.64805096,-0.72513562,0
1.7797325,-2.6979122,2.2934837,0.43997589,-0.59476781,0.67280936,0
-1.5444763,-1.4038332,5.8067703,0.43997589,-0.59476781,0.67280936,0
-5.9049211,3.6344066,1.1463609,-0.23282671,0.64805096,0.72513562,0
-5.2989731,0.45053148,-2.1097345,-0.43997589,0.59476781,-0.67280936,0
-2.9679322,-2.2894101,5.9270387,-0.86730212,-0.47569016,0.146649,0
5.3238029,-2.2763681,0.33765984,0.43997589,-0.59476781,0.67280936,0
-4.463048,0.62863898,-2.4658747,-0.43997589,0.59476781,-0.67280936,0
-2.9162765,-2.8169844,4.798573,-0.86730212,-0.47569016,0.146649,0
-1.0647612,4.770843,1.5220995,-0.23282671,0.64805096,0.72513562,0
-5.1566329,-0.21065378,-1.1046753,-0.86730212,-0.47569016,0.146649,0
0.066242456,3.0820596,-3.322767,-0.43997589,0.59476781,-0.67280936,0
4.336525,0.49566245,-3.9520729,0.86730212,0.47569016,-0.146649,0
-4.1838741,-3.225487,-4.6023459,-0.86730212,-0.47569016,0.146649,0
-3.6318262,-1.4861336,4.3885403,-0.86730212,-0.47569016,0.146649,0
-3.2169127,-1.8237168,6.0705347,-0.86730212,-0.47569016,0.146649,0
0.88012469,2.9795613,-3.7482946,-0.43997589,0.59476781,-0.67280936,0
-5.8677001,1.0024214,-1.0050173,-0.86730212,-0.47569016,0.146649,0
4.1778851,2.0528076,1.2183313,0.86730212,0.47569016,-0.146649,0
-1.2552819,-3.270576,-3.7080688,0.23282671,-0.64805096,-0.72513562,0
-1.7388616,0.65505946,5.1845036,-0.23282671,0.64805096,0.72513562,0
-5.1312704,0.46864486,-2.1566443,-0.43997589,0.59476781,-0.67280936,0
-2.6549721,2.2868416,-2.131047,-0.43997589,0.59476781,-0.67280936,0
5.1080809,-0.46115541,-1.918735,0.86730212,0.47569016,-0.146649,0
2.8089013,2.4093995,4.8222985,-0.23282671,0.64805096,0.72513562,0
-4.1766405,0.75551891,-2.5173688,-0.43997589,0.59476781,-0.67280936,0
-1.7683144,-6.252387,0.022707105,-0.86730212,-0.47569016,0.146649,0
0.83277917,5.3008642,-1.7929363,-0.43997589,0.59476781,-0.67280936,0
0.8193934,-2.5569091,3.0192075,0.43997589,-0.59476781,0.67280936,0
1.2167287,-4.6296139,1.1306436,0.43997589,-0.59476781,0.67280936,0
-1.927474,-0.79855871,-5.4106069,-0.43997589,0.59476781,-0.67280936,0
4.9648108,1.2184663,2.0805821,0.86730212,0.47569016,-0.146649,0
-0.70315814,-3.467159,3.4607546,0.43997589,-0.59476781,0.67280936,0
-2.9701495,0.78294349,4.4638844,-0.23282671,0.64805096,0.72513562,0
-0.97091627,-7.2238164,-0.098389745,0.23282671,-0.64805096,-0.72513562,0
3.5856779,-3.2648957,-2.2175145,0.23282671,-0.64805096,-0.72513562,0
