1.1045313,-0.81153512,-6.2484369,0.024426028,0.50739121,-0.86136973,0
-4.5356817,1.0152843,-1.8374667,-0.97784305,0.19132042,0.084968716,0
-4.1940184,-4.7059484,-0.37377119,-0.20790988,-0.84020877,-0.50082213,0
-5.3366013,-3.5964372,0.30185688,-0.97784305,0.19132042,0.084968716,0
-2.1539419,-3.0762811,-3.9247723,-0.20790988,-0.84020877,-0.50082213,0
-0.4791812,-3.2126398,3.881176,-0.024426028,-0.50739121,0.86136973,0
2.9733124,-2.5755701,-7.0019827,-0.20790988,-0.84020877,-0.50082213,0
5.4263735,4.4047656,-0.20774865,0.97784305,-0.19132042,-0.084968716,0
-4.9721174,-5.267252,1.0391731,-0.20790988,-0.84020877,-0.50082213,0
2.0248413,1.910892,-4.6595039,0.024426028,0.50739121,-0.86136973,0
-2.8059962,-6.0196867,1.2335911,-0.20790988,-0.84020877,-0.50082213,0
5.0737491,0.91930842,4.2451582,0.97784305,-0.19132042,-0.084968716,0
-0.52185565,-3.1628919,3.8411856,-0.024426028,-0.50739121,0.86136973,0
-4.3110261,3.2175899,-3.4572964,-0.97784305,0.19132042,0.084968716,0
-0.92814207,-0.078598261,-5.8607845,0.024426028,0.50739121,-0.86136973,0
4.6049695,1.3387609,-1.8134527,0.97784305,-0.19132042,-0.084968716,0
3.2410502,-2.5414009,-6.9689989,-0.20790988,-0.84020877,-0.50082213,0
-1.4460866,-3.9294922,-2.7121484,-0.20790988,-0.84020877,-0.50082213,0
3.4914141,-6.5562763,1.756278,0.97784305,-0.19132042,-0.084968716,0
4.3862758,-1.2601218,-0.79809833,0.97784305,-0.19132042,-0.084968716,0
-3.5473101,-1.8589857,-5.5468059,-0.20790988,-0.84020877,-0.50082213,0
2.1958933,-1.7983871,-6.8561411,0.024426028,0.50739121,-0.86136973,0
-5.3889084,-4.5950065,0.74911237,-0.97784305,0.19132042,0.084968716,0
-0.81296396,2.2394104,6.5198307,0.20790988,0.84020877,0.50082213,0
-4.3185644,-3.6337166,3.6417503,-0.024426028,-0.50739121,0.86136973,0
-1.8440487,-1.2911315,4.9257131,-0.024426028,-0.50739121,0.86136973,0
5.2857313,4.434257,-1.2426419,0.97784305,-0.19132042,-0.084968716,0
-4.5050302,1.3193784,-1.3414416,-0.97784305,0.19132042,0.084968716,0
2.2753911,5.0615611,0.73519778,0.20790988,0.84020877,0.50082213,0
4.9281654,2.8382475,-1.4909778,0.97784305,-0.19132042,-0.084968716,0
1.3366065,2.2905741,-4.381567,0.024426028,0.50739121,-0.86136973,0
-2.7342033,-0.31840625,-6.0472937,0.024426028,0.50739121,-0.86136973,0
5.5121632,5.1306262,-0.7206552,0.20790988,0.84020877,0.50082213,0
-3.4588814,5.4835362,-0.050940514,-0.97784305,0.19132042,0.084968716,0
0.31573296,-2.8288302,4.1296949,-0.024426028,-0.50739121,0.86136973,0
4.828135,1.3045437,5.6045589,0.20790988,0.84020877,0.50082213,0
4.9056649,-0.56121588,4.8526478,0.97784305,-0.19132042,-0.084968716,0
4.9529891,0.073542118,3.295578,0.97784305,-0.19132042,-0.084968716,0
-5.311492,-4.1615515,1.8867569,-0.97784305,0.19132042,0.084968716,0
-0.055709839,-0.010409832,5.7695904,-0.024426028,-0.50739121,0.86136973,0
1.7520895,4.3836923,2.0287549,0.20790988,0.84020877,0.50082213,0
5.4151583,2.4018726,3.6172004,0.97784305,-0.19132042,-0.084968716,0
2.7992713,4.0334067,1.990055,0.20790988,0.84020877,0.50082213,0
4.6224508,-0.21385384,0.92021728,0.97784305,-0.19132042,-0.084968716,0
-3.4041381,4.6081777,3.4928985,0.20790988,0.84020877,0.50082213,0
-2.1792235,1.3190308,6.4550886,-0.024426028,-0.50739121,0.86136973,0
2.406774,1.9155293,-4.5870247,0.024426028,0.50739121,-0.86136973,0
-3.6617982,-2.3858569,4.2482471,-0.024426028,-0.50739121,0.86136973,0
-4.7331905,-1.5746379,0.91901416,-0.97784305,0.19132042,0.084968716,0
-0.13071203,-3.1416404,-4.7943821,-0.20790988,-0.84020877,-0.50082213,0
-4.6123538,1.1689212,-2.9464431,-0.97784305,0.19132042,0.084968716,0
3.9337485,-4.7240982,3.1351023,0.97784305,-0.19132042,-0.084968716,0
-2.8897998,-2.3170161,-4.7025385,-0.20790988,-0.84020877,-0.50082213,0
3.1501265,0.71218157,-5.3777719,0.024426028,0.50739121,-0.86136973,0
-0.97037435,0.17183173,-5.6400504,0.024426028,0.50739121,-0.86136973,0
-1.1572385,-0.60301089,-6.0853047,0.024426028,0.50739121,-0.86136973,0
-0.69721603,-0.12544918,5.6414127,-0.024426028,-0.50739121,0.86136973,0
-4.7460365,-5.040329,2.6427426,-0.024426028,-0.50739121,0.86136973,0
4.9363675,-0.4953692,4.2722387,0.97784305,-0.19132042,-0.084968716,0
1.435957,5.6569624,-0.072098255,0.20790988,0.84020877,0.50082213,0
-1.9563572,-2.6988363,4.1938682,-0.024426028,-0.50739121,0.86136973,0
3.9715066,-3.8912344,2.4469185,0.97784305,-0.19132042,-0.084968716,0
-2.025497,4.441905,3.3456144,0.20790988,0.84020877,0.50082213,0
-1.8735766,-5.1341081,-0.67186069,-0.20790988,-0.84020877,-0.50082213,0
1.7618508,-3.9720938,-3.9729288,-0.20790988,-0.84020877,-0.50082213,0
-4.9034142,-5.3395844,0.87943983,-0.20790988,-0.84020877,-0.50082213,0
-2.9110479,2.2162986,-4.5282545,0.024426028,0.50739121,-0.86136973,0
-0.59932613,4.1608753,3.2080064,0.20790988,0.84020877,0.50082213,0
-3.4899948,6.2012968,-0.52856541,-0.97784305,0.19132042,0.084968716,0
-4.3224859,-4.2122207,-0.94337076,-0.20790988,-0.84020877,-0.50082213,0
3.2008574,-1.5215482,5.1053839,-0.024426028,-0.50739121,0.86136973,0
-4.7355647,-0.35161066,0.39148313,-0.97784305,0.19132042,0.084968716,0
2.8702819,6.1684809,-2.0774293,0.024426028,0.50739121,-0.86136973,0
3.9141855,-3.3206792,-0.41373777,0.97784305,-0.19132042,-0.084968716,0
5.125762,2.7923398,-0.83712029,0.97784305,-0.19132042,-0.084968716,0
4.0011182,-3.3114476,1.3667593,0.97784305,-0.19132042,-0.084968716,0
2.8910017,3.7718415,2.5228741,0.20790988,0.84020877,0.50082213,0
-4.4375343,0.31474209,0.29188293,-0.97784305,0.19132042,0.084968716,0
-2.7236328,5.3864365,-2.7335076,0.024426028,0.50739121,-0.86136973,0
1.1483898,-5.0929022,-1.7503871,-0.20790988,-0.84020877,-0.50082213,0
4.9827547,1.2709758,0.53172004,0.97784305,-0.19132042,-0.084968716,0
-1.5370471,-0.23254555,-6.0620718,0.024426028,0.50739121,-0.86136973,0
-3.6513143,2.8176355,4.2575369,-0.97784305,0.19132042,0.084968716,0
2.1616101,-2.7901664,-6.3232803,-0.20790988,-0.84020877,-0.50082213,0
4.5834012,-1.589499,3.257009,0.97784305,-0.19132042,-0.084968716,0
3.3614242,-6.256567,-0.64723349,0.97784305,-0.19132042,-0.084968716,0
-1.200141,-5.0373402,-0.85925746,-0.20790988,-0.84020877,-0.50082213,0
4.3315592,-3.2901864,3.7175746,0.97784305,-0.19132042,-0.084968716,0
1.6855989,-4.6583776,-3.0250449,-0.20790988,-0.84020877,-0.50082213,0
1.6145878,-4.2633586,-3.43993,-0.20790988,-0.84020877,-0.50082213,0
3.9562793,-3.867902,1.9173551,0.97784305,-0.19132042,-0.084968716,0
4.9935188,0.56658602,2.7178531,0.97784305,-0.19132042,-0.084968716,0
0.69634175,2.2186975,-4.4352241,0.024426028,0.50739121,-0.86136973,0
-2.788357,-0.088610649,5.7547069,-0.024426028,-0.50739121,0.86136973,0
-4.5109959,1.9211671,-4.4390321,-0.97784305,0.19132042,0.084968716,0
-4.014895,-4.5937471,-0.77111292,-0.20790988,-0.84020877,-0.50082213,0
-1.7883716,3.7939019,4.2607875,0.20790988,0.84020877,0.50082213,0
-0.26941824,-0.18883348,-5.8227453,0.024426028,0.50739121,-0.86136973,0
-5.3966727,-1.7722747,-4.6301589,-0.97784305,0.19132042,0.084968716,0
3.9585385,-3.2645121,3.8872781,-0.024426028,-0.50739121,0.86136973,0
-4.9685864,-2.8407645,2.473608,-0.97784305,0.19132042,0.084968716,0
3.1256087,-4.8990784,3.1168938,-0.024426028,-0.50739121,0.86136973,0
-3.6767681,2.3878665,4.6950898,-0.97784305,0.19132042,0.084968716,0
0.567173,1.1464425,6.4360781,-0.024426028,-0.50739121,0.86136973,0
-3.9848731,1.8286281,3.7028904,-0.97784305,0.19132042,0.084968716,0
2.0182483,5.8760686,-0.61842394,0.20790988,0.84020877,0.50082213,0
-0.04789114,-4.2395515,-2.9039457,-0.20790988,-0.84020877,-0.50082213,0
5.2535706,4.8433166,-2.4364743,0.97784305,-0.19132042,-0.084968716,0
-0.26455402,5.2684522,1.277902,0.20790988,0.84020877,0.50082213,0
-4.585628,-2.570837,-3.7354121,-0.20790988,-0.84020877,-0.50082213,0
-0.55415535,1.2470993,-5.1570683,0.024426028,0.50739121,-0.86136973,0
-0.66322947,-4.5884261,-1.8892039,-0.20790988,-0.84020877,-0.50082213,0
-2.7005606,-3.549402,-2.7613482,-0.20790988,-0.84020877,-0.50082213,0
3.3054299,-2.6240473,-7.0638471,-0.20790988,-0.84020877,-0.50082213,0
4.1589742,3.4941852,2.5211985,0.20790988,0.84020877,0.50082213,0
-4.1736617,1.9161334,0.32646513,-0.97784305,0.19132042,0.084968716,0
-1.954684,6.2538509,-2.077013,0.024426028,0.50739121,-0.86136973,0
1.786288,3.3900821,3.5912385,0.20790988,0.84020877,0.50082213,0
-5.2815242,-4.6379733,-0.12448382,-0.20790988,-0.84020877,-0.50082213,0
-4.6500587,0.66957331,-1.3890393,-0.97784305,0.19132042,0.084968716,0
-3.6023529,5.1849003,0.88189316,-0.97784305,0.19132042,0.084968716,0
-3.321054,3.5198994,5.5181842,0.20790988,0.84020877,0.50082213,0
-0.66490388,-2.9475994,3.952229,-0.024426028,-0.50739121,0.86136973,0
-4.7810445,1.1581936,-4.6161914,-0.97784305,0.19132042,0.084968716,0
0.084801197,-1.1905036,-6.5775595,0.024426028,0.50739121,-0.86136973,0
1.9024224,1.8438994,-4.72716,0.024426028,0.50739121,-0.86136973,0
3.1825323,4.3504858,-3.0786877,0.024426028,0.50739121,-0.86136973,0
-1.9677329,5.5006723,1.6409919,0.20790988,0.84020877,0.50082213,0
-4.0733562,4.1320958,-2.6515145,-0.97784305,0.19132042,0.084968716,0
0.4456085,4.0735464,-3.4270091,0.024426028,0.50739121,-0.86136973,0
-3.5624895,2.3851733,5.979414,-0.97784305,0.19132042,0.084968716,0
2.4117818,-6.5239124,-0.063682556,-0.20790988,-0.84020877,-0.50082213,0
-4.5235224,1.7450953,-2.1383061,-0.97784305,0.19132042,0.084968716,0
2.9304767,4.7348604,0.96371126,0.20790988,0.84020877,0.50082213,0
-5.4003553,-2.8215201,-2.9094954,-0.20790988,-0.84020877,-0.50082213,0
-2.0815611,-1.9688824,4.6942148,-0.024426028,-0.50739121,0.86136973,0
2.8449218,-7.0103703,1.8297091,-0.024426028,-0.50739121,0.86136973,0
-4.228929,-2.8802226,-3.4146216,-0.20790988,-0.84020877,-0.50082213,0
-0.86232901,-4.0836258,3.3224697,-0.024426028,-0.50739121,0.86136973,0
0.3502183,5.4936261,0.68090701,0.20790988,0.84020877,0.50082213,0
-4.3362727,1.9020205,-0.18816042,-0.97784305,0.19132042,0.084968716,0
5.1370811,0.86926746,5.3265343,0.97784305,-0.19132042,-0.084968716,0
2.5973263,3.7353215,-3.4459062,0.024426028,0.50739121,-0.86136973,0
0.20556116,-4.7408867,-2.1992366,-0.20790988,-0.84020877,-0.50082213,0
3.7923121,1.2829702,6.3544984,0.20790988,0.84020877,0.50082213,0
-1.12992,-2.7933917,-4.8516312,-0.20790988,-0.84020877,-0.50082213,0
3.5286021,-3.069315,-5.0045867,0.97784305,-0.19132042,-0.084968716,0
0.50401449,-0.39179397,5.5508385,-0.024426028,-0.50739121,0.86136973,0
-1.2909211,3.9445024,-3.4186974,0.024426028,0.50739121,-0.86136973,0
-3.3709166,6.4874172,-0.87115383,-0.97784305,0.19132042,0.084968716,0
-0.76978827,-2.5264118,-5.5827942,-0.20790988,-0.84020877,-0.50082213,0
-1.5935588,-3.1572733,-3.9411032,-0.20790988,-0.84020877,-0.50082213,0
1.2941523,-0.84339166,-6.2741709,0.024426028,0.50739121,-0.86136973,0
-5.2537856,-4.0396409,1.3519855,-0.97784305,0.19132042,0.084968716,0
-3.9957032,0.33136177,5.4200387,-0.97784305,0.19132042,0.084968716,0
-2.9536772,0.26317602,-5.660419,0.024426028,0.50739121,-0.86136973,0
-1.2915769,5.1973028,1.7742274,0.20790988,0.84020877,0.50082213,0
-1.4969816,-2.9132164,-4.6177425,-0.20790988,-0.84020877,-0.50082213,0
2.9326539,-1.1810675,-6.4210095,0.024426028,0.50739121,-0.86136973,0
-4.2127705,-4.9546556,0.27280617,-0.20790988,-0.84020877,-0.50082213,0
0.28372765,3.1597133,4.7403994,0.20790988,0.84020877,0.50082213,0
4.2235794,-0.71376371,-3.4210491,0.97784305,-0.19132042,-0.084968716,0
3.641844,-5.2502441,1.1429806,0.97784305,-0.19132042,-0.084968716,0
-5.2437558,-1.8830928,-4.0421753,-0.97784305,0.19132042,0.084968716,0
5.2772779,4.4005346,-2.8972507,0.97784305,-0.19132042,-0.084968716,0
0.040187478,-2.2781336,4.5582285,-0.024426028,-0.50739121,0.86136973,0
4.5355592,-0.41446829,0.57737815,0.97784305,-0.19132042,-0.084968716,0
4.7494001,0.12576628,0.92858708,0.97784305,-0.19132042,-0.084968716,0
1.6866288,5.5962296,-0.1786356,0.20790988,0.84020877,0.50082213,0
0.45645034,3.6131499,-3.6257625,0.024426028,0.50739121,-0.86136973,0
-3.7898095,4.7601705,-1.5470991,-0.97784305,0.19132042,0.084968716,0
4.8002634,5.5458326,-2.3463845,0.024426028,0.50739121,-0.86136973,0
5.0781822,5.5899978,-1.3200045,0.20790988,0.84020877,0.50082213,0
-4.4098048,-0.7346549,3.1169739,-0.97784305,0.19132042,0.084968716,0
5.2395463,1.4678998,4.9177132,0.97784305,-0.19132042,-0.084968716,0
-4.3227673,-2.7965169,4.00351,-0.024426028,-0.50739121,0.86136973,0
1.5611444,1.2230142,6.5270443,-0.024426028,-0.50739121,0.86136973,0
-3.7342687,3.8381357,0.77081513,-0.97784305,0.19132042,0.084968716,0
4.1294465,-3.4002941,3.3762712,0.97784305,-0.19132042,-0.084968716,0
-3.3081024,-1.9468215,-5.1966538,-0.20790988,-0.84020877,-0.50082213,0
-2.617835,-6.378325,1.9865451,-0.024426028,-0.50739121,0.86136973,0
-5.014616,-1.91346,-0.27547607,-0.97784305,0.19132042,0.084968716,0
2.4318457,-5.0783014,-2.3637657,-0.20790988,-0.84020877,-0.50082213,0
-4.858531,-0.20313883,-2.354774,-0.97784305,0.19132042,0.084968716,0
3.6433449,-1.8268166,-5.7697296,0.97784305,-0.19132042,-0.084968716,0
-1.4984353,6.5877595,-0.51862764,0.20790988,0.84020877,0.50082213,0
-4.4623861,-3.1473861,3.8314352,-0.024426028,-0.50739121,0.86136973,0
-3.4119802,4.1245737,3.8284678,-0.97784305,0.19132042,0.084968716,0
-5.2496624,-0.82671452,-5.3808651,-0.97784305,0.19132042,0.084968716,0
0.36515021,3.5918453,-3.6800466,0.024426028,0.50739121,-0.86136973,0
2.383666,3.4458785,-3.6293192,0.024426028,0.50739121,-0.86136973,0
0.49378848,-0.60064268,5.5066214,-0.024426028,-0.50739121,0.86136973,0
1.0660148,-5.7824311,-0.8493607,-0.20790988,-0.84020877,-0.50082213,0
-3.2441101,3.7978878,-3.6609597,0.024426028,0.50739121,-0.86136973,0
-4.2800026,-0.061836243,4.1210923,-0.97784305,0.19132042,0.084968716,0
-5.3573661,-3.5975661,-1.6011691,-0.20790988,-0.84020877,-0.50082213,0
-2.2855158,5.763793,-2.374619,0.024426028,0.50739121,-0.86136973,0
3.2836595,-3.4047713,-5.7988329,-0.20790988,-0.84020877,-0.50082213,0
-3.2137485,4.6959863,3.3286862,0.20790988,0.84020877,0.50082213,0
3.5471976,5.0396485,-2.6628404,0.024426028,0.50739121,-0.86136973,0
1.3343415,2.5360947,5.0091124,0.20790988,0.84020877,0.50082213,0
4.1115928,-2.1820168,-1.4447956,0.97784305,-0.19132042,-0.084968716,0
4.6960168,0.94680834,-1.4967871,0.97784305,-0.19132042,-0.084968716,0
1.7660804,-2.7451453,-5.9525042,-0.20790988,-0.84020877,-0.50082213,0
0.3989203,-0.16396284,5.6173296,-0.024426028,-0.50739121,0.86136973,0
-1.0856881,4.5453224,2.7209072,0.20790988,0.84020877,0.50082213,0
1.9909906,-6.4458103,0.0043811798,-0.20790988,-0.84020877,-0.50082213,0
-1.0551901,5.0240431,2.1419597,0.20790988,0.84020877,0.50082213,0
-1.2325039,2.4709365,6.3935156,0.20790988,0.84020877,0.50082213,0
-1.1217406,6.6454659,-0.60581875,0.20790988,0.84020877,0.50082213,0
-1.2809868,5.948698,0.40022469,0.20790988,0.84020877,0.50082213,0
4.5816126,1.3935008,-4.5334249,0.97784305,-0.19132042,-0.084968716,0
-5.0730462,-0.5028801,-3.2492104,-0.97784305,0.19132042,0.084968716,0
-3.7506108,4.8919964,-0.98642349,-0.97784305,0.19132042,0.084968716,0
0.13127136,-5.9367404,-0.25323915,-0.20790988,-0.84020877,-0.50082213,0
-4.9970469,-2.978421,-2.9752936,-0.20790988,-0.84020877,-0.50082213,0
-1.4332728,5.2102051,1.811548,0.20790988,0.84020877,0.50082213,0
4.4947009,0.90883493,-2.6852713,0.97784305,-0.19132042,-0.084968716,0
-5.0051088,-0.89923406,-2.1000924,-0.97784305,0.19132042,0.084968716,0
-1.3861322,-3.3054056,-3.9706376,-0.20790988,-0.84020877,-0.50082213,0
-2.6973076,2.8891811,6.1369095,0.20790988,0.84020877,0.50082213,0
1.1195102,0.80491269,6.2085743,-0.024426028,-0.50739121,0.86136973,0
-0.81454998,-4.5968862,3.0231018,-0.024426028,-0.50739121,0.86136973,0
-2.1081326,7.1039,-0.95328665,0.20790988,0.84020877,0.50082213,0
3.75051,-2.6937938,-3.5123458,0.97784305,-0.19132042,-0.084968716,0
-5.5276871,-4.2983518,-0.28672051,-0.97784305,0.19132042,0.084968716,0
1.1547329,2.5595665,-4.3668594,0.024426028,0.50739121,-0.86136973,0
-1.9195523,1.7822199,6.8902435,-0.024426028,-0.50739121,0.86136973,0
4.0050788,-3.1936893,1.1766639,0.97784305,-0.19132042,-0.084968716,0
5.3165488,3.3364911,0.9103533,0.97784305,-0.19132042,-0.084968716,0
-3.5772281,2.0572033,6.9062214,-0.97784305,0.19132042,0.084968716,0
-4.2315392,2.7798586,-1.1189952,-0.97784305,0.19132042,0.084968716,0
4.523335,-1.9898658,3.4666982,0.97784305,-0.19132042,-0.084968716,0
3.9293556,-2.0767498,-3.8090603,0.97784305,-0.19132042,-0.084968716,0
-4.0754471,3.6515403,-1.3599401,-0.97784305,0.19132042,0.084968716,0
2.2270947,-6.4518137,0.054814339,-0.20790988,-0.84020877,-0.50082213,0
4.652379,-0.73036814,1.2247791,0.97784305,-0.19132042,-0.084968716,0
3.6964128,-5.4815025,1.5185232,0.97784305,-0.19132042,-0.084968716,0
-3.2215273,-2.0075009,-5.4152341,-0.20790988,-0.84020877,-0.50082213,0
3.9528689,-3.1483607,0.39001036,0.97784305,-0.19132042,-0.084968716,0
-2.4296708,-6.448153,2.0033145,-0.024426028,-0.50739121,0.86136973,0
3.747272,5.5614643,-2.4763741,0.024426028,0.50739121,-0.86136973,0
0.75954866,-2.2478271,-6.353343,-0.20790988,-0.84020877,-0.50082213,0
2.356926,-5.6739297,2.4271097,-0.024426028,-0.50739121,0.86136973,0
-2.2251716,1.8431921,-4.7689452,0.024426028,0.50739121,-0.86136973,0
-1.1070346,-4.8799047,2.9406719,-0.024426028,-0.50739121,0.86136973,0
-2.0082808,-5.3165054,-0.32399654,-0.20790988,-0.84020877,-0.50082213,0
1.6073027,2.9810705,-3.982625,0.024426028,0.50739121,-0.86136973,0
-2.5123134,5.4713345,1.8045235,0.20790988,0.84020877,0.50082213,0
4.5460873,-0.59041595,1.7446008,0.97784305,-0.19132042,-0.084968716,0
-3.4764311,5.7993827,0.62809467,-0.97784305,0.19132042,0.084968716,0
4.7800255,0.51462889,-0.082291514,0.97784305,-0.19132042,-0.084968716,0
-3.3824942,6.1554947,-0.63301134,-0.97784305,0.19132042,0.084968716,0
-0.60305792,-3.4306288,3.6521511,-0.024426028,-0.50739121,0.86136973,0
0.44918156,-0.91995502,-6.3743563,0.024426028,0.50739121,-0.86136973,0
-3.9000933,3.6014867,0.53766823,-0.97784305,0.19132042,0.084968716,0
3.4706423,-4.5173774,-2.0248086,0.97784305,-0.19132042,-0.084968716,0
-5.061285,-3.0368075,0.69660127,-0.97784305,0.19132042,0.084968716,0
1.1355009,6.4087677,-1.944603,0.024426028,0.50739121,-0.86136973,0
-4.85602,-1.3600552,0.60278296,-0.97784305,0.19132042,0.084968716,0
3.4041171,-0.46724498,5.7203693,-0.024426028,-0.50739121,0.86136973,0
-2.8465495,2.6876569,-4.2618666,0.024426028,0.50739121,-0.86136973,0
0.32624698,-1.2612531,5.1007581,-0.024426028,-0.50739121,0.86136973,0
-1.514493,3.8497252,4.1115608,0.20790988,0.84020877,0.50082213,0
-4.6412177,-4.6069207,-0.51074636,-0.20790988,-0.84020877,-0.50082213,0
-0.04477644,0.90737081,6.3452835,-0.024426028,-0.50739121,0.86136973,0
-1.8448091,-1.9092671,-6.1226749,-0.20790988,-0.84020877,-0.50082213,0
-3.1813908,7.5014091,-1.4546041,0.20790988,0.84020877,0.50082213,0
4.7757368,2.8941026,-3.4749777,0.97784305,-0.19132042,-0.084968716,0
2.9801335,2.3567305,4.6104441,0.20790988,0.84020877,0.50082213,0
3.2599077,5.2892017,-2.5954065,0.024426028,0.50739121,-0.86136973,0
4.624929,5.4904852,-1.1668482,0.20790988,0.84020877,0.50082213,0
-0.21361774,4.2931566,-3.207828,0.024426028,0.50739121,-0.86136973,0
2.5973063,-0.63885307,-6.2006345,0.024426028,0.50739121,-0.86136973,0
1.4642855,-1.0312985,5.2637014,-0.024426028,-0.50739121,0.86136973,0
4.1001525,-2.9399483,0.98121953,0.97784305,-0.19132042,-0.084968716,0
-3.2094488,2.1901608,7.0794764,-0.024426028,-0.50739121,0.86136973,0
-3.3945844,-1.8316357,-5.4285879,-0.20790988,-0.84020877,-0.50082213,0
2.8058774,2.3217871,-4.4181933,0.024426028,0.50739121,-0.86136973,0
0.07741563,3.7581925,-3.5205379,0.024426028,0.50739121,-0.86136973,0
3.8739436,-2.7980652,-2.5225673,0.97784305,-0.19132042,-0.084968716,0
4.6015973,-2.1168916,4.7002749,0.97784305,-0.19132042,-0.084968716,0
1.5996048,-0.29544705,5.6470518,-0.024426028,-0.50739121,0.86136973,0
-0.49586725,2.6989801,5.6814795,0.20790988,0.84020877,0.50082213,0
-3.8952129,3.8761997,-1.5311971,-0.97784305,0.19132042,0.084968716,0
-0.81521273,-4.1332722,-2.6814692,-0.20790988,-0.84020877,-0.50082213,0
-1.070262,-2.2632525,-5.6981878,-0.20790988,-0.84020877,-0.50082213,0
-3.6897216,2.146101,4.5950451,-0.97784305,0.19132042,0.084968716,0
2.6063294,1.4161497,6.4987073,0.20790988,0.84020877,0.50082213,0
1.5828922,5.3382783,0.34325743,0.20790988,0.84020877,0.50082213,0
-2.7071867,-5.613378,0.46594715,-0.20790988,-0.84020877,-0.50082213,0
0.82066727,2.1253567,6.0212359,0.20790988,0.84020877,0.50082213,0
-4.1901727,-3.5655797,-2.0778463,-0.20790988,-0.84020877,-0.50082213,0
3.4203312,-6.2960892,0.57837296,0.97784305,-0.19132042,-0.084968716,0
3.7020574,-1.9039187,-6.1632719,0.97784305,-0.19132042,-0.084968716,0
0.49165344,0.53635371,-5.4698195,0.024426028,0.50739121,-0.86136973,0
3.5589314,-2.2739305,-6.6476965,0.97784305,-0.19132042,-0.084968716,0
-3.1864786,0.085362554,-5.7293267,0.024426028,0.50739121,-0.86136973,0
-3.3512137,0.48994827,5.9819698,-0.024426028,-0.50739121,0.86136973,0
1.0605478,-0.50750351,-6.0082455,0.024426028,0.50739121,-0.86136973,0
-3.8088429,3.5526996,2.0408661,-0.97784305,0.19132042,0.084968716,0
-5.6066117,-5.2401519,1.3982511,-0.97784305,0.19132042,0.084968716,0
0.44269514,-3.6052122,-4.0468473,-0.20790988,-0.84020877,-0.50082213,0
-0.09122467,4.776505,2.1095185,0.20790988,0.84020877,0.50082213,0
-1.6206365,3.005821,5.4151335,0.20790988,0.84020877,0.50082213,0
4.6998405,1.0186782,-1.2794659,0.97784305,-0.19132042,-0.084968716,0
-3.3867667,6.317605,0.12547684,-0.97784305,0.19132042,0.084968716,0
3.7446246,3.354486,2.6201518,0.20790988,0.84020877,0.50082213,0
-4.9631901,-1.2150137,-2.4316597,-0.97784305,0.19132042,0.084968716,0
-3.1474426,-1.5238085,-6.1030903,-0.20790988,-0.84020877,-0.50082213,0
2.7055521,-3.372848,3.9218507,-0.024426028,-0.50739121,0.86136973,0
5.4578671,2.4717674,3.4038072,0.97784305,-0.19132042,-0.084968716,0
-1.0986795,4.7273388,2.6695781,0.20790988,0.84020877,0.50082213,0
-2.2347884,3.1326003,5.7705545,0.20790988,0.84020877,0.50082213,0
2.2998075,-5.632062,-1.5033092,-0.20790988,-0.84020877,-0.50082213,0
-3.0460458,0.90303087,6.3001657,-0.024426028,-0.50739121,0.86136973,0
-1.4035704,4.8717961,-2.8930349,0.024426028,0.50739121,-0.86136973,0
5.0983486,1.4088933,2.0021133,0.97784305,-0.19132042,-0.084968716,0
4.5463939,5.3005157,-0.76276278,0.20790988,0.84020877,0.50082213,0
-2.7035105,0.30502236,-5.7433929,0.024426028,0.50739121,-0.86136973,0
-0.060605049,1.2196118,-5.0650768,0.024426028,0.50739121,-0.86136973,0
-4.0324426,1.2860832,4.7991605,-0.97784305,0.19132042,0.084968716,0
-0.2817347,6.576231,-1.8410378,0.024426028,0.50739121,-0.86136973,0
3.7423251,6.0368948,-1.7435589,0.20790988,0.84020877,0.50082213,0
-5.3399811,-1.2607665,-4.6748815,-0.97784305,0.19132042,0.084968716,0
3.4091489,3.7297528,-3.5554218,0.024426028,0.50739121,-0.86136973,0
-0.35062754,1.944957,-4.6633511,0.024426028,0.50739121,-0.86136973,0
-1.5259815,-5.6987848,2.3344731,-0.024426028,-0.50739121,0.86136973,0
0.75691521,-2.9358373,3.985261,-0.024426028,-0.50739121,0.86136973,0
-4.2989001,-0.72820902,4.8846712,-0.97784305,0.19132042,0.084968716,0
2.3718386,-4.9682455,3.001545,-0.024426028,-0.50739121,0.86136973,0
-5.2107944,-1.9471748,-3.3088284,-0.97784305,0.19132042,0.084968716,0
-5.3245239,-3.1391163,-1.6004628,-0.97784305,0.19132042,0.084968716,0
3.0698626,0.57040834,-5.4311953,0.024426028,0.50739121,-0.86136973,0
-4.9579158,-2.0000906,0.72829533,-0.97784305,0.19132042,0.084968716,0
-1.8112907,1.8592639,6.8081055,-0.024426028,-0.50739121,0.86136973,0
1.8172364,-3.0870337,4.0315742,-0.024426028,-0.50739121,0.86136973,0
-4.6633835,-3.1270452,-2.7568924,-0.20790988,-0.84020877,-0.50082213,0
-3.6694639,3.8881907,1.5350364,-0.97784305,0.19132042,0.084968716,0
2.7543974,2.3719668,-4.2491069,0.024426028,0.50739121,-0.86136973,0
-3.7826667,-2.4895985,4.2367802,-0.024426028,-0.50739121,0.86136973,0
-2.0096374,-1.670929,-6.3744249,-0.20790988,-0.84020877,-0.50082213,0
-4.1646881,-3.404562,3.651567,-0.024426028,-0.50739121,0.86136973,0
2.7763724,-5.2890539,-2.3398838,-0.20790988,-0.84020877,-0.50082213,0
1.3420017,1.2508565,-4.935555,0.024426028,0.50739121,-0.86136973,0
3.517261,-3.9743805,-2.6370845,0.97784305,-0.19132042,-0.084968716,0
-2.2330179,0.58355761,6.1179867,-0.024426028,-0.50739121,0.86136973,0
3.8523552,-2.5682492,-3.376683,0.97784305,-0.19132042,-0.084968716,0
0.053945482,-2.7892036,4.2053304,-0.024426028,-0.50739121,0.86136973,0
2.1064289,3.2656481,-3.9337206,0.024426028,0.50739121,-0.86136973,0
3.4461596,-6.8040152,0.99681807,0.97784305,-0.19132042,-0.084968716,0
-4.8942251,-3.2352762,3.6443405,-0.97784305,0.19132042,0.084968716,0
2.6724677,-5.1226859,-2.3336704,-0.20790988,-0.84020877,-0.50082213,0
1.1793516,0.66089272,-5.3689837,0.024426028,0.50739121,-0.86136973,0
4.0375328,-4.2118959,2.6660566,0.97784305,-0.19132042,-0.084968716,0
5.4199672,2.5845914,3.2419538,0.20790988,0.84020877,0.50082213,0
-4.2348289,1.9654117,-0.11105943,-0.97784305,0.19132042,0.084968716,0
-2.5421176,4.8019624,-3.0382376,0.024426028,0.50739121,-0.86136973,0
1.4899094,-6.0849543,2.2493482,-0.024426028,-0.50739121,0.86136973,0
-1.0332947,-2.0132318,-6.2206254,-0.20790988,-0.84020877,-0.50082213,0
-4.2468538,1.5871472,0.11395252,-0.97784305,0.19132042,0.084968716,0
5.1488113,1.0098802,6.3494797,0.20790988,0.84020877,0.50082213,0
-1.9769816,1.3026276,6.4443254,-0.024426028,-0.50739121,0.86136973,0
-5.1119695,0.11344361,-5.0118666,-0.97784305,0.19132042,0.084968716,0
-0.25107145,4.6943369,2.0472145,0.20790988,0.84020877,0.50082213,0
1.1932275,-3.2387855,3.9703074,-0.024426028,-0.50739121,0.86136973,0
-0.53900576,6.5369239,-1.9976339,0.024426028,0.50739121,-0.86136973,0
-4.153604,-3.5465634,-2.3729286,-0.20790988,-0.84020877,-0.50082213,0
0.69986248,0.88987982,-5.289628,0.024426028,0.50739121,-0.86136973,0
-2.5135756,7.381321,-1.2634063,0.20790988,0.84020877,0.50082213,0
-3.8857334,1.9853978,4.8465214,-0.97784305,0.19132042,0.084968716,0
-3.9863234,3.249598,0.062460423,-0.97784305,0.19132042,0.084968716,0
1.4074502,5.2077923,0.57129622,0.20790988,0.84020877,0.50082213,0
-5.3443227,-3.0455799,-2.7287843,-0.20790988,-0.84020877,-0.50082213,0
0.53180814,0.48437691,-5.5657597,0.024426028,0.50739121,-0.86136973,0
5.0896115,2.4637411,0.47775799,0.97784305,-0.19132042,-0.084968716,0
-5.2284145,-2.951385,-0.051893115,-0.97784305,0.19132042,0.084968716,0
-3.3986559,-6.003746,2.2622313,-0.024426028,-0.50739121,0.86136973,0
-4.4030113,-5.9096813,2.2612753,-0.024426028,-0.50739121,0.86136973,0
-2.9739571,-3.8731749,-2.31095,-0.20790988,-0.84020877,-0.50082213,0
3.9189892,2.7856975,3.7664323,0.20790988,0.84020877,0.50082213,0
1.6820595,-6.126173,2.3417563,-0.024426028,-0.50739121,0.86136973,0
-4.4730635,-5.8344979,2.2577863,-0.024426028,-0.50739121,0.86136973,0
-1.1524376,-5.0554018,2.7234807,-0.024426028,-0.50739121,0.86136973,0
-4.3176193,-4.3381815,3.1747408,-0.024426028,-0.50739121,0.86136973,0
-3.1261024,-0.46112967,5.3872566,-0.024426028,-0.50739121,0.86136973,0
4.9486332,2.9605618,-2.4524281,0.97784305,-0.19132042,-0.084968716,0
-2.1762753,0.45344448,5.9670897,-0.024426028,-0.50739121,0.86136973,0
-5.0338092,0.14106393,-4.2565598,-0.97784305,0.19132042,0.084968716,0
-1.8000154,4.8204241,2.7794845,0.20790988,0.84020877,0.50082213,0
2.6147473,0.08928816,6.0229082,-0.024426028,-0.50739121,0.86136973,0
-0.19870043,6.1614351,-0.11818886,0.20790988,0.84020877,0.50082213,0
-5.0088906,-4.6381502,2.937408,-0.024426028,-0.50739121,0.86136973,0
0.81438065,-3.6908004,-4.0086198,-0.20790988,-0.84020877,-0.50082213,0
3.0175414,-4.0580478,3.4627185,-0.024426028,-0.50739121,0.86136973,0
0.11567807,1.3753784,-5.0646515,0.024426028,0.50739121,-0.86136973,0
-0.039149284,-6.120862,0.23986006,-0.20790988,-0.84020877,-0.50082213,0
0.47833037,-2.0864305,4.5282907,-0.024426028,-0.50739121,0.86136973,0
4.9295506,1.0552578,1.2684371,0.97784305,-0.19132042,-0.084968716,0
2.4310083,3.9351919,2.3096039,0.20790988,0.84020877,0.50082213,0
-2.6913276,2.0928044,6.9095592,-0.024426028,-0.50739121,0.86136973,0
-0.70522499,1.1020405,6.3523412,-0.024426028,-0.50739121,0.86136973,0
-3.7736371,3.0611811,2.8015909,-0.97784305,0.19132042,0.084968716,0
4.2640805,1.8765991,-4.5843,0.024426028,0.50739121,-0.86136973,0
-2.5284457,-0.29274273,5.5670242,-0.024426028,-0.50739121,0.86136973,0
-5.3470078,-3.262584,-1.4211043,-0.97784305,0.19132042,0.084968716,0
-3.4772809,5.5326791,0.60962391,-0.97784305,0.19132042,0.084968716,0
-0.12440157,5.7852502,0.31179142,0.20790988,0.84020877,0.50082213,0
3.5086651,-3.7078576,-4.7095561,0.97784305,-0.19132042,-0.084968716,0
4.4753551,-0.065598011,-1.973994,0.97784305,-0.19132042,-0.084968716,0
1.8111196,-3.4172277,-5.0926671,-0.20790988,-0.84020877,-0.50082213,0
1.4985662,-5.7279501,-0.87640119,-0.20790988,-0.84020877,-0.50082213,0
-3.2744493,2.963531,6.3809128,0.20790988,0.84020877,0.50082213,0
-3.9180892,-1.5136818,-5.8396215,-0.20790988,-0.84020877,-0.50082213,0
5.1259227,1.3610915,5.4066234,0.20790988,0.84020877,0.50082213,0
3.7821293,-2.5013647,-3.698792,0.97784305,-0.19132042,-0.084968716,0
1.372514,3.6371276,3.1994188,0.20790988,0.84020877,0.50082213,0
-2.5214882,4.4065247,3.451725,0.20790988,0.84020877,0.50082213,0
-2.4005632,-6.1736135,1.5061102,-0.20790988,-0.84020877,-0.50082213,0
2.37217,-0.50846958,-5.9613457,0.024426028,0.50739121,-0.86136973,0
-4.5797868,-4.275022,-1.0485728,-0.20790988,-0.84020877,-0.50082213,0
4.6540089,-0.67859983,1.3468122,0.97784305,-0.19132042,-0.084968716,0
3.1325619,-0.79584861,5.4432192,-0.024426028,-0.50739121,0.86136973,0
1.1829076,-3.1689196,-4.9837122,-0.20790988,-0.84020877,-0.50082213,0
-2.932785,6.3436174,0.60484886,0.20790988,0.84020877,0.50082213,0
-2.9923468,3.2351012,5.6570501,0.20790988,0.84020877,0.50082213,0
3.2723236,-5.3308907,-2.4726236,-0.20790988,-0.84020877,-0.50082213,0
1.4855511,-6.8182096,0.96428728,-0.20790988,-0.84020877,-0.50082213,0
-3.9784274,2.9419751,0.25858903,-0.97784305,0.19132042,0.084968716,0
0.093024254,3.0783801,4.7173405,0.20790988,0.84020877,0.50082213,0
4.1982422,-0.62309313,5.6452627,-0.024426028,-0.50739121,0.86136973,0
-3.6578522,2.5031395,5.8530746,-0.97784305,0.19132042,0.084968716,0
-4.1865072,-3.9406736,3.2713957,-0.024426028,-0.50739121,0.86136973,0
-0.70573473,5.0097585,1.9608896,0.20790988,0.84020877,0.50082213,0
5.1511245,2.9253488,0.3900207,0.97784305,-0.19132042,-0.084968716,0
0.020725727,-4.510191,-2.2566285,-0.20790988,-0.84020877,-0.50082213,0
-1.2512577,-1.4513803,4.894733,-0.024426028,-0.50739121,0.86136973,0
2.2405434,5.7407823,-0.54405785,0.20790988,0.84020877,0.50082213,0
2.7416792,-6.5258255,-0.3432436,-0.20790988,-0.84020877,-0.50082213,0
-0.2350812,-4.8252082,-1.6258247,-0.20790988,-0.84020877,-0.50082213,0
1.3332191,-6.0890522,-0.50892448,-0.20790988,-0.84020877,-0.50082213,0
3.1277637,1.480294,6.3254433,0.20790988,0.84020877,0.50082213,0
-3.3535609,2.1209853,-4.7576857,0.024426028,0.50739121,-0.86136973,0
3.5113466,1.3726287,-4.9099097,0.024426028,0.50739121,-0.86136973,0
-2.3309121,5.7441478,-2.5803971,0.024426028,0.50739121,-0.86136973,0
1.1772809,0.37634659,-5.5203695,0.024426028,0.50739121,-0.86136973,0
1.3423438,-6.6836138,0.69867516,-0.20790988,-0.84020877,-0.50082213,0
5.195971,2.7482982,3.0953536,0.20790988,0.84020877,0.50082213,0
4.1658487,-0.77292347,-3.7063394,0.97784305,-0.19132042,-0.084968716,0
-3.045393,3.5194721,-3.8988504,0.024426028,0.50739121,-0.86136973,0
4.6196041,-1.6517386,3.3910022,0.97784305,-0.19132042,-0.084968716,0
-3.1850519,-5.0505877,-0.058445215,-0.20790988,-0.84020877,-0.50082213,0
3.5508687,5.2447634,-2.503108,0.024426028,0.50739121,-0.86136973,0
-1.8699504,-4.4394493,3.2419152,-0.024426028,-0.50739121,0.86136973,0
4.8679819,3.8930168,1.5547239,0.20790988,0.84020877,0.50082213,0
4.252449,0.38014412,-5.3149843,0.97784305,-0.19132042,-0.084968716,0
4.2450094,0.66046762,-4.9397726,0.97784305,-0.19132042,-0.084968716,0
-2.8506093,5.8431454,1.2098982,0.20790988,0.84020877,0.50082213,0
1.9622018,-7.2337322,1.3369131,-0.20790988,-0.84020877,-0.50082213,0
2.5611377,-6.1308265,-0.91179919,-0.20790988,-0.84020877,-0.50082213,0
-2.1990571,-3.1649187,3.7652903,-0.024426028,-0.50739121,0.86136973,0
0.36617517,3.6760166,3.5175991,0.20790988,0.84020877,0.50082213,0
0.92644882,-0.11929274,-5.9529867,0.024426028,0.50739121,-0.86136973,0
4.4676161,0.26135635,-3.2050843,0.97784305,-0.19132042,-0.084968716,0
3.8886909,-3.2194898,3.9787436,-0.024426028,-0.50739121,0.86136973,0
-5.3439012,-4.8666296,2.2811103,-0.97784305,0.19132042,0.084968716,0
-3.8180134,3.4902372,0.31670451,-0.97784305,0.19132042,0.084968716,0
3.5284495,5.0251875,0.2420404,0.20790988,0.84020877,0.50082213,0
-3.9492009,3.105422,1.3665844,-0.97784305,0.19132042,0.084968716,0
2.4450307,-2.3647294,-6.9783993,-0.20790988,-0.84020877,-0.50082213,0
5.0277481,2.8574553,-0.52461147,0.97784305,-0.19132042,-0.084968716,0
4.1347675,0.034707546,-5.7489624,0.024426028,0.50739121,-0.86136973,0
3.6030195,-3.2039943,-3.1790757,0.97784305,-0.19132042,-0.084968716,0
5.2090111,3.4476094,-0.79905844,0.97784305,-0.19132042,-0.084968716,0
-1.5435853,6.0790434,0.45824909,0.20790988,0.84020877,0.50082213,0
-4.3081236,-3.7179141,-1.7994993,-0.20790988,-0.84020877,-0.50082213,0
-2.8539245,6.6349735,-0.10042524,0.20790988,0.84020877,0.50082213,0
3.5212617,-2.7506604,-6.3130817,0.97784305,-0.19132042,-0.084968716,0
3.6031656,-2.6351242,-4.9044709,0.97784305,-0.19132042,-0.084968716,0
3.7930105,3.5759468,2.2272365,0.20790988,0.84020877,0.50082213,0
1.7832668,3.804671,2.71351,0.20790988,0.84020877,0.50082213,0
4.8088059,2.8803318,-3.9158461,0.024426028,0.50739121,-0.86136973,0
3.6920838,2.5400159,4.0513401,0.20790988,0.84020877,0.50082213,0
3.664793,-2.1222944,-5.9659629,0.97784305,-0.19132042,-0.084968716,0
-3.6728768,5.4179926,-2.2279315,-0.97784305,0.19132042,0.084968716,0
-1.0567832,-1.9190338,-6.3312201,-0.20790988,-0.84020877,-0.50082213,0
-4.2667265,-3.6909018,3.4217644,-0.024426028,-0.50739121,0.86136973,0
0.48101783,-6.8758087,1.8524804,-0.024426028,-0.50739121,0.86136973,0
3.7737107,-4.1972494,0.74288321,0.97784305,-0.19132042,-0.084968716,0
4.0094709,-2.1961718,-0.82710886,0.97784305,-0.19132042,-0.084968716,0
1.5756178,-1.4782023,-6.6026387,0.024426028,0.50739121,-0.86136973,0
-3.3516254,5.7954197,1.559675,-0.97784305,0.19132042,0.084968716,0
-2.7796941,4.5703974,3.3397646,0.20790988,0.84020877,0.50082213,0
-3.6830482,5.2141528,-1.1496787,-0.97784305,0.19132042,0.084968716,0
-1.7282422,-3.7164612,3.5848045,-0.024426028,-0.50739121,0.86136973,0
-0.5441258,-4.4378042,3.273077,-0.024426028,-0.50739121,0.86136973,0
2.4375801,-7.025003,0.90948677,-0.20790988,-0.84020877,-0.50082213,0
5.3827038,3.6844339,1.6292205,0.20790988,0.84020877,0.50082213,0
-0.93262577,2.5676179,-4.4091787,0.024426028,0.50739121,-0.86136973,0
-0.94554996,3.1217203,5.1402574,0.20790988,0.84020877,0.50082213,0
-3.2846031,5.6469946,1.8198552,-0.97784305,0.19132042,0.084968716,0
2.7240477,-2.9258118,-6.1733246,-0.20790988,-0.84020877,-0.50082213,0
0.18264604,6.3355336,-2.0850682,0.024426028,0.50739121,-0.86136973,0
-2.9596229,6.1288853,-2.1809392,0.024426028,0.50739121,-0.86136973,0
3.5670333,-4.9352455,-1.0474958,0.97784305,-0.19132042,-0.084968716,0
-0.71271825,-5.0687938,-1.1188327,-0.20790988,-0.84020877,-0.50082213,0
-4.6588783,-1.7456408,4.3256454,-0.97784305,0.19132042,0.084968716,0
0.54694057,-6.1223717,2.2727771,-0.024426028,-0.50739121,0.86136973,0
-3.5531039,2.5236654,6.2707748,-0.97784305,0.19132042,0.084968716,0
-5.3777027,-4.6884222,1.0163186,-0.97784305,0.19132042,0.084968716,0
-1.0753404,5.421834,-2.5846038,0.024426028,0.50739121,-0.86136973,0
1.1214871,-6.1044788,2.1753459,-0.024426028,-0.50739121,0.86136973,0
0.14237404,-2.3716052,-6.0092583,-0.20790988,-0.84020877,-0.50082213,0
4.5444388,3.914031,1.7187833,0.20790988,0.84020877,0.50082213,0
-2.2039227,1.6654406,6.6242285,-0.024426028,-0.50739121,0.86136973,0
1.0904651,-6.3001823,2.1911693,-0.024426028,-0.50739121,0.86136973,0
4.2397976,-2.3577375,0.73416781,0.97784305,-0.19132042,-0.084968716,0
1.1777849,-1.420959,4.9830961,-0.024426028,-0.50739121,0.86136973,0
-1.9906788,4.5183487,3.0663338,0.20790988,0.84020877,0.50082213,0
-2.6832762,0.10333869,-5.8459258,0.024426028,0.50739121,-0.86136973,0
1.3602564,-4.7440238,2.9477596,-0.024426028,-0.50739121,0.86136973,0
-2.1049581,-1.3436491,-6.5491743,0.024426028,0.50739121,-0.86136973,0
1.1290889,-0.025983572,-5.8973379,0.024426028,0.50739121,-0.86136973,0
2.2899976,2.0338509,5.521512,0.20790988,0.84020877,0.50082213,0
5.3001075,2.6911559,2.3871622,0.97784305,-0.19132042,-0.084968716,0
-0.0055546761,-6.6619678,1.0679355,-0.20790988,-0.84020877,-0.50082213,0
1.6729305,0.85151792,6.2756896,-0.024426028,-0.50739121,0.86136973,0
3.4260499,-6.436739,1.3932467,0.97784305,-0.19132042,-0.084968716,0
-2.3980796,6.6049886,-0.17356062,0.20790988,0.84020877,0.50082213,0
5.3597307,2.9308732,1.4428036,0.97784305,-0.19132042,-0.084968716,0
-0.79744583,-4.5826421,3.1639271,-0.024426028,-0.50739121,0.86136973,0
-3.6644244,3.624651,-3.7927194,0.024426028,0.50739121,-0.86136973,0
4.6315503,0.58277798,-1.6006123,0.97784305,-0.19132042,-0.084968716,0
-2.4511786,6.9143763,-1.7929273,0.024426028,0.50739121,-0.86136973,0
4.2987728,2.9712746,3.067179,0.20790988,0.84020877,0.50082213,0
-0.17537403,-0.59066963,5.3656549,-0.024426028,-0.50739121,0.86136973,0
-1.5451572,-0.85507584,-6.3403172,0.024426028,0.50739121,-0.86136973,0
-5.4860325,-5.158834,2.4983273,-0.97784305,0.19132042,0.084968716,0
1.1952723,-5.2115479,2.6546631,-0.024426028,-0.50739121,0.86136973,0
4.3176351,5.494195,-0.84939814,0.20790988,0.84020877,0.50082213,0
-3.4438467,4.6348701,3.0378494,-0.97784305,0.19132042,0.084968716,0
-3.8297889,-0.54354805,-6.1874714,0.024426028,0.50739121,-0.86136973,0
-5.1956782,-4.0931172,-1.0330021,-0.20790988,-0.84020877,-0.50082213,0
2.0541704,1.0994048,6.4181533,-0.024426028,-0.50739121,0.86136973,0
4.6060786,0.99470091,-2.2116516,0.97784305,-0.19132042,-0.084968716,0
1.8715521,-1.641402,4.975543,-0.024426028,-0.50739121,0.86136973,0
2.3913286,2.3411593,4.9078803,0.20790988,0.84020877,0.50082213,0
4.0856538,6.0706854,-1.7840157,0.20790988,0.84020877,0.50082213,0
-1.1856422,6.7732582,-0.74598694,0.20790988,0.84020877,0.50082213,0
5.1381311,2.1019871,1.4093083,0.97784305,-0.19132042,-0.084968716,0
2.0664394,0.91116309,6.3174362,-0.024426028,-0.50739121,0.86136973,0
5.049284,1.4782369,0.90071696,0.97784305,-0.19132042,-0.084968716,0
3.9878049,-0.64909458,-4.6325488,0.97784305,-0.19132042,-0.084968716,0
-3.0250092,-5.0168085,-0.51023984,-0.20790988,-0.84020877,-0.50082213,0
-3.6726408,2.6478739,4.9755211,-0.97784305,0.19132042,0.084968716,0
4.6852202,0.78252792,-0.92688477,0.97784305,-0.19132042,-0.084968716,0
2.0452867,2.5564289,4.814261,0.20790988,0.84020877,0.50082213,0
-1.7796324,-6.0655961,2.1795774,-0.024426028,-0.50739121,0.86136973,0
2.1238186,-4.3995905,3.1705003,-0.024426028,-0.50739121,0.86136973,0
3.9952106,-1.269105,-4.5206022,0.97784305,-0.19132042,-0.084968716,0
-2.673126,6.7846355,-0.27049541,0.20790988,0.84020877,0.50082213,0
-5.3509378,-5.776906,1.818645,-0.20790988,-0.84020877,-0.50082213,0
-3.46334,6.7119675,-1.4578695,-0.97784305,0.19132042,0.084968716,0
2.3927898,3.9885268,2.1259644,0.20790988,0.84020877,0.50082213,0
-0.31312513,2.5347815,6.0008578,0.20790988,0.84020877,0.50082213,0
2.8384748,-3.1818321,3.901166,-0.024426028,-0.50739121,0.86136973,0
-5.333343,-0.66410327,-6.3136253,-0.97784305,0.19132042,0.084968716,0
-4.3041019,0.81160831,1.9682914,-0.97784305,0.19132042,0.084968716,0
-0.045882702,-5.4127884,-0.69897127,-0.20790988,-0.84020877,-0.50082213,0
4.4701858,-1.6865971,4.929194,-0.024426028,-0.50739121,0.86136973,0
-4.2407184,-0.57344294,5.2688036,-0.97784305,0.19132042,0.084968716,0
-3.1142287,1.9148335,6.8904762,-0.024426028,-0.50739121,0.86136973,0
2.3173788,5.8544574,-0.87386084,0.20790988,0.84020877,0.50082213,0
2.4582007,-4.6058111,3.1568108,-0.024426028,-0.50739121,0.86136973,0
-3.5857077,-5.2776685,2.5363755,-0.024426028,-0.50739121,0.86136973,0
-0.82656288,-0.51032281,5.3756819,-0.024426028,-0.50739121,0.86136973,0
4.090385,4.0760942,-3.2245193,0.024426028,0.50739121,-0.86136973,0
2.4701009,-5.3211889,2.6849866,-0.024426028,-0.50739121,0.86136973,0
-3.6653337,3.2247221,-3.9757776,0.024426028,0.50739121,-0.86136973,0
-0.38978028,-1.9910957,4.6255426,-0.024426028,-0.50739121,0.86136973,0
0.82911825,-6.1399469,0.0034193993,-0.20790988,-0.84020877,-0.50082213,0
-2.3084893,3.10007,-4.0416017,0.024426028,0.50739121,-0.86136973,0
2.6128459,4.2694893,-3.1637115,0.024426028,0.50739121,-0.86136973,0
-0.82219791,5.8992777,0.35154772,0.20790988,0.84020877,0.50082213,0
-4.9926653,-3.5979102,3.1135838,-0.97784305,0.19132042,0.084968716,0
4.5623379,1.7073019,5.3431644,0.20790988,0.84020877,0.50082213,0
-3.1888595,6.348227,0.6372447,0.20790988,0.84020877,0.50082213,0
-0.78792715,-0.87001371,-6.4327989,0.024426028,0.50739121,-0.86136973,0
4.9535589,0.39962125,3.9913688,0.97784305,-0.19132042,-0.084968716,0
1.7179537,-4.9908152,-2.4324007,-0.20790988,-0.84020877,-0.50082213,0
4.3487148,-2.6180797,3.3824191,0.97784305,-0.19132042,-0.084968716,0
0.92407906,2.983669,-3.9095535,0.024426028,0.50739121,-0.86136973,0
2.896399,-7.0593839,0.46182156,-0.20790988,-0.84020877,-0.50082213,0
0.43000984,2.9751158,-4.0790529,0.024426028,0.50739121,-0.86136973,0
4.3587294,-1.2977991,-0.31993651,0.97784305,-0.19132042,-0.084968716,0
-4.7429156,1.5706215,-4.2495422,-0.97784305,0.19132042,0.084968716,0
-1.9657335,6.4959245,-0.21843386,0.20790988,0.84020877,0.50082213,0
4.3389087,0.20250797,-3.3715255,0.97784305,-0.19132042,-0.084968716,0
3.9663908,-4.5435486,3.2947912,-0.024426028,-0.50739121,0.86136973,0
2.7426445,4.5836177,-3.0073347,0.024426028,0.50739121,-0.86136973,0
-4.2812133,2.3121371,-1.6891108,-0.97784305,0.19132042,0.084968716,0
3.8401313,-0.95390081,-6.3555813,0.97784305,-0.19132042,-0.084968716,0
-4.1118112,1.1421428,2.0528464,-0.97784305,0.19132042,0.084968716,0
4.9211302,1.7822775,4.8451271,0.20790988,0.84020877,0.50082213,0
0.013066709,4.3290601,-3.1410527,0.024426028,0.50739121,-0.86136973,0
0.48124313,2.3582811,-4.3128295,0.024426028,0.50739121,-0.86136973,0
-3.6871872,2.5773597,3.6329312,-0.97784305,0.19132042,0.084968716,0
2.9696631,-6.0304127,-1.0842576,-0.20790988,-0.84020877,-0.50082213,0
5.2993255,1.768528,4.8315334,0.20790988,0.84020877,0.50082213,0
4.9669285,0.62540865,1.6890788,0.97784305,-0.19132042,-0.084968716,0
4.4790502,-0.97542048,1.9439671,0.97784305,-0.19132042,-0.084968716,0
-3.1401575,-3.0376525,-3.540767,-0.20790988,-0.84020877,-0.50082213,0
-4.0625114,2.6899829,0.81432331,-0.97784305,0.19132042,0.084968716,0
1.5463295,3.0902123,3.9638128,0.20790988,0.84020877,0.50082213,0
-0.69137764,3.3681352,4.4556355,0.20790988,0.84020877,0.50082213,0
3.3670964,-2.5528927,4.3082218,-0.024426028,-0.50739121,0.86136973,0
-4.1808262,-5.517396,2.4027953,-0.024426028,-0.50739121,0.86136973,0
-3.4266038,4.0158768,4.3035817,-0.97784305,0.19132042,0.084968716,0
0.12739563,2.3704395,5.9248791,0.20790988,0.84020877,0.50082213,0
-2.3603153,4.9657192,2.5408123,0.20790988,0.84020877,0.50082213,0
-5.4134593,-4.8914371,2.2397318,-0.97784305,0.19132042,0.084968716,0
-4.7733183,0.56956935,-4.1221333,-0.97784305,0.19132042,0.084968716,0
-0.69035935,-6.0264649,2.3283043,-0.024426028,-0.50739121,0.86136973,0
5.4039359,3.3272467,1.915697,0.97784305,-0.19132042,-0.084968716,0
-4.6635623,-2.191628,3.8162203,-0.97784305,0.19132042,0.084968716,0
-5.0412884,-2.4086332,0.12007761,-0.97784305,0.19132042,0.084968716,0
-3.5251181,6.034893,-0.73882532,-0.97784305,0.19132042,0.084968716,0
-2.0908697,-2.3968918,-5.2764273,-0.20790988,-0.84020877,-0.50082213,0
2.1381044,-1.3865021,5.1339331,-0.024426028,-0.50739121,0.86136973,0
1.5380664,6.6257339,-1.7910194,0.024426028,0.50739121,-0.86136973,0
-1.6056371,-1.1394165,-6.4096556,0.024426028,0.50739121,-0.86136973,0
3.6026659,1.4984341,-4.7529688,0.024426028,0.50739121,-0.86136973,0
1.8574399,6.1498094,-2.0908546,0.024426028,0.50739121,-0.86136973,0
3.6061029,-6.274087,1.973103,0.97784305,-0.19132042,-0.084968716,0
-4.6932478,1.0512657,-2.2816896,-0.97784305,0.19132042,0.084968716,0
1.7166249,6.0365553,-2.302762,0.024426028,0.50739121,-0.86136973,0
-1.6494451,-1.0849601,-6.5680203,0.024426028,0.50739121,-0.86136973,0
1.8189698,-5.4176903,2.5980945,-0.024426028,-0.50739121,0.86136973,0
-1.338037,-1.9917279,-6.2662773,-0.20790988,-0.84020877,-0.50082213,0
-2.6360373,2.1435637,7.0803585,-0.024426028,-0.50739121,0.86136973,0
2.550308,-7.2625666,1.2013941,-0.20790988,-0.84020877,-0.50082213,0
5.2484627,1.2430062,3.9134552,0.97784305,-0.19132042,-0.084968716,0
-1.4358373,6.6735311,-1.9604182,0.024426028,0.50739121,-0.86136973,0
-2.7164173,-0.61587214,5.4073057,-0.024426028,-0.50739121,0.86136973,0
-1.9987165,-2.1447058,4.4529624,-0.024426028,-0.50739121,0.86136973,0
-4.5106316,-3.3128064,-2.6232831,-0.20790988,-0.84020877,-0.50082213,0
-1.6075747,1.4790111,-4.8985353,0.024426028,0.50739121,-0.86136973,0
-4.1397114,-5.7917194,1.2563267,-0.20790988,-0.84020877,-0.50082213,0
-3.9568443,-4.2165236,-1.1186265,-0.20790988,-0.84020877,-0.50082213,0
-0.43879318,-3.7686417,-3.4846296,-0.20790988,-0.84020877,-0.50082213,0
1.2040744,-1.9826751,-6.9363728,0.024426028,0.50739121,-0.86136973,0
3.8258786,5.0149159,-2.6636314,0.024426028,0.50739121,-0.86136973,0
-4.5584579,-0.52396488,1.779994,-0.97784305,0.19132042,0.084968716,0
-3.0354908,-4.8197002,2.819478,-0.024426028,-0.50739121,0.86136973,0
-3.437439,-4.7059164,-0.66456378,-0.20790988,-0.84020877,-0.50082213,0
-3.3686318,1.1141038,6.3927994,-0.024426028,-0.50739121,0.86136973,0
-4.3023391,0.61875105,3.0448465,-0.97784305,0.19132042,0.084968716,0
0.59105015,-5.2260413,-1.3902454,-0.20790988,-0.84020877,-0.50082213,0
4.9115753,4.0719304,-3.1540003,0.024426028,0.50739121,-0.86136973,0
-4.4399476,-0.70321321,2.3487744,-0.97784305,0.19132042,0.084968716,0
-2.309269,6.2768788,0.28825283,0.20790988,0.84020877,0.50082213,0
3.5247107,0.6426568,-5.44208,0.024426028,0.50739121,-0.86136973,0
2.397253,0.45145753,6.2370601,-0.024426028,-0.50739121,0.86136973,0
-4.6291647,1.5587752,-3.5210671,-0.97784305,0.19132042,0.084968716,0
3.7179327,-1.6101151,-5.9596272,0.97784305,-0.19132042,-0.084968716,0
-4.7156892,-2.4769733,4.076901,-0.97784305,0.19132042,0.084968716,0
-2.2589135,-5.1993237,2.5903101,-0.024426028,-0.50739121,0.86136973,0
4.9611006,2.3316066,-1.7790147,0.97784305,-0.19132042,-0.084968716,0
0.48454618,-3.3534822,-4.4715166,-0.20790988,-0.84020877,-0.50082213,0
-2.0119176,-5.3740749,-0.28839302,-0.20790988,-0.84020877,-0.50082213,0
-0.2323246,-2.4611058,-5.9533911,-0.20790988,-0.84020877,-0.50082213,0
-0.01674509,-3.788502,-3.6914542,-0.20790988,-0.84020877,-0.50082213,0
4.9428854,0.47043109,2.7662959,0.97784305,-0.19132042,-0.084968716,0
4.1340041,-0.59611845,-3.1169384,0.97784305,-0.19132042,-0.084968716,0
-4.8332052,-0.10719919,-2.1679337,-0.97784305,0.19132042,0.084968716,0
-4.5417829,1.4556017,-2.381691,-0.97784305,0.19132042,0.084968716,0
-1.7174606,-2.3024049,-5.2458572,-0.20790988,-0.84020877,-0.50082213,0
-0.71510601,6.5832434,-2.0246148,0.024426028,0.50739121,-0.86136973,0
-1.007946,3.1863883,5.1175156,0.20790988,0.84020877,0.50082213,0
1.0423768,-2.4258723,4.5203056,-0.024426028,-0.50739121,0.86136973,0
-0.074768543,0.97479439,6.3023291,-0.024426028,-0.50739121,0.86136973,0
-1.4178772,2.0980763,6.894187,-0.024426028,-0.50739121,0.86136973,0
0.22258854,6.3675127,-0.81774473,0.20790988,0.84020877,0.50082213,0
3.5529935,-6.2172527,1.2926483,0.97784305,-0.19132042,-0.084968716,0
2.8837814,6.3681078,-1.9252448,0.20790988,0.84020877,0.50082213,0
2.4345145,-1.3508596,-6.5450153,0.024426028,0.50739121,-0.86136973,0
-4.5338717,0.86008644,-0.16975045,-0.97784305,0.19132042,0.084968716,0
-3.3456919,-1.9773717,-5.1835632,-0.20790988,-0.84020877,-0.50082213,0
-3.6033983,2.8776331,5.2125883,-0.97784305,0.19132042,0.084968716,0
0.65117216,-5.0743461,2.7282004,-0.024426028,-0.50739121,0.86136973,0
-4.7431049,-5.1002107,2.6124587,-0.024426028,-0.50739121,0.86136973,0
-2.6094918,-1.1126492,5.1277199,-0.024426028,-0.50739121,0.86136973,0
-0.33041453,1.1025504,-5.0847559,0.024426028,0.50739121,-0.86136973,0
-3.3824053,4.1993284,-3.4261732,0.024426028,0.50739121,-0.86136973,0
-0.6919241,5.6318822,0.6628406,0.20790988,0.84020877,0.50082213,0
-0.5722096,-3.6848831,3.6351886,-0.024426028,-0.50739121,0.86136973,0
