-0.28647935,0.50021088,-2.9976947,-0.12542501,-0.018828698,-0.99192441,0
-0.27989608,-0.45374197,-0.061444066,-0.74797738,-0.65504062,0.10701282,0
-0.5970391,-0.22513807,-0.8788321,-0.74797738,-0.65504062,0.10701282,0
-0.63360345,0.13299988,-2.9468317,-0.12542501,-0.018828698,-0.99192441,0
-0.65938586,0.11869456,-2.9433002,-0.12542501,-0.018828698,-0.99192441,0
0.46515074,-0.19775674,2.9693613,0.12542501,0.018828698,0.99192441,0
-0.46604353,0.33037108,-0.78295869,-0.6517657,0.75535905,0.068075024,0
-0.093375325,-0.26235718,2.4137554,-0.74797738,-0.65504062,0.10701282,0
-0.20162286,-0.12812445,2.4788058,-0.74797738,-0.65504062,0.10701282,0
-0.41436869,-0.49890056,-2.9625585,-0.12542501,-0.018828698,-0.99192441,0
-0.12324478,-0.56661642,-2.2376473,0.6517657,-0.75535905,-0.068075024,0
0.22401364,0.46313101,-0.27168015,0.74797738,0.65504062,-0.10701282,0
0.36787522,-0.039287716,-2.341521,0.74797738,0.65504062,-0.10701282,0
0.43309033,0.17124014,2.9664109,0.12542501,0.018828698,0.99192441,0
0.99546802,0.049121708,2.586271,0.74797738,0.65504062,-0.10701282,0
0.09411113,0.50327641,-0.9339118,0.74797738,0.65504062,-0.10701282,0
-0.52849919,0.20904739,-2.9615655,-0.12542501,-0.018828698,-0.99192441,0
0.49456483,-0.068341464,2.9631853,0.12542501,0.018828698,0.99192441,0
-0.28133118,0.62510037,-2.8124042,0.74797738,0.65504062,-0.10701282,0
0.13606897,0.3189705,-1.7688056,0.74797738,0.65504062,-0.10701282,0
-0.58013928,-0.25154242,-2.9462929,-0.12542501,-0.018828698,-0.99192441,0
-0.79081821,-0.16670361,-1.8755859,-0.74797738,-0.65504062,0.10701282,0
-0.30187717,0.53848171,-1.5203838,-0.6517657,0.75535905,0.068075024,0
-0.30802774,0.19525799,2.2291317,-0.6517657,0.75535905,0.068075024,0
0.52840787,-0.43351805,2.5245657,0.6517657,-0.75535905,-0.068075024,0
0.61394876,0.22899894,1.0206568,0.74797738,0.65504062,-0.10701282,0
-0.13772696,-0.19125685,-3.0033784,-0.12542501,-0.018828698,-0.99192441,0
-0.7585904,-0.061220244,-2.927341,-0.12542501,-0.018828698,-0.99192441,0
0.64673358,-0.21299943,1.2105731,0.6517657,-0.75535905,-0.068075024,0
0.26491973,-0.37943226,2.9981284,0.12542501,0.018828698,0.99192441,0
0.19216493,0.50023133,-0.26719397,0.74797738,0.65504062,-0.10701282,0
-0.55975324,0.32399851,-1.6094465,-0.6517657,0.75535905,0.068075024,0
0.059672184,-0.32070765,-3.0258815,-0.12542501,-0.018828698,-0.99192441,0
-0.18022728,0.64653301,-1.9745349,0.74797738,0.65504062,-0.10701282,0
-0.58160317,-0.074165121,0.15318596,-0.74797738,-0.65504062,0.10701282,0
0.25249878,0.41918945,2.9845393,0.12542501,0.018828698,0.99192441,0
-0.6108737,-0.10387282,-0.23324843,-0.74797738,-0.65504062,0.10701282,0
-0.27901709,0.23304106,-2.993567,-0.12542501,-0.018828698,-0.99192441,0
-0.62542123,-0.44870767,-2.9368246,-0.12542501,-0.018828698,-0.99192441,0
-0.42352003,0.2935169,0.033103995,-0.6517657,0.75535905,0.068075024,0
0.85222203,0.11783584,2.9144273,0.12542501,0.018828698,0.99192441,0
0.13789916,0.67585588,1.1658326,-0.6517657,0.75535905,0.068075024,0
-0.72414541,0.10747865,-0.78087449,-0.6517657,0.75535905,0.068075024,0
0.23166585,-0.36600274,-1.0656579,0.6517657,-0.75535905,-0.068075024,0
-0.85430491,-0.10482711,-1.9405782,-0.74797738,-0.65504062,0.10701282,0
0.13550828,-0.61747271,1.8398491,-0.74797738,-0.65504062,0.10701282,0
0.14450416,0.7007283,0.62694663,0.74797738,0.65504062,-0.10701282,0
-0.57341158,-0.39732301,-2.9443765,-0.12542501,-0.018828698,-0.99192441,0
-0.73859948,0.05680275,-0.3569622,-0.6517657,0.75535905,0.068075024,0
0.28172106,0.36842632,2.9818079,0.12542501,0.018828698,0.99192441,0
-0.18418725,0.39232886,1.2281146,-0.6517657,0.75535905,0.068075024,0
-0.0070159398,0.590572,0.72469133,-0.6517657,0.75535905,0.068075024,0
0.1068409,0.13062824,3.0084348,0.12542501,0.018828698,0.99192441,0
0.45750779,-0.14304215,-1.3773618,0.6517657,-0.75535905,-0.068075024,0
-0.043291651,-0.25962272,-3.0140219,-0.12542501,-0.018828698,-0.99192441,0
-0.28637964,0.57749283,-1.8048739,-0.6517657,0.75535905,0.068075024,0
0.41776651,-0.11987019,-2.0149698,0.6517657,-0.75535905,-0.068075024,0
0.23067872,0.29772913,-1.2375422,0.74797738,0.65504062,-0.10701282,0
0.33197656,-0.27629805,-1.1006213,0.6517657,-0.75535905,-0.068075024,0
-0.16988838,0.26469228,2.7812679,-0.6517657,0.75535905,0.068075024,0
-0.29150075,-0.47741973,-0.28749093,-0.74797738,-0.65504062,0.10701282,0
-0.62997931,-0.27818,-1.433748,-0.74797738,-0.65504062,0.10701282,0
-0.36546129,-0.24630776,0.61022276,-0.74797738,-0.65504062,0.10701282,0
-0.0050708503,0.66497999,-0.082315676,-0.6517657,0.75535905,0.068075024,0
0.0043590218,0.37018681,-2.3759038,0.74797738,0.65504062,-0.10701282,0
0.75671941,0.34272176,2.7146804,0.74797738,0.65504062,-0.10701282,0
0.95309561,0.065469891,2.3901751,0.74797738,0.65504062,-0.10701282,0
-0.34098226,-0.45879629,-0.51935083,-0.74797738,-0.65504062,0.10701282,0
-0.28770947,0.63462961,-2.4515939,-0.6517657,0.75535905,0.068075024,0
-0.63724887,-0.49806768,-2.934392,-0.12542501,-0.018828698,-0.99192441,0
0.25353122,0.61406052,0.85849649,0.74797738,0.65504062,-0.10701282,0
-0.49762177,-0.4285256,-1.4289079,-0.74797738,-0.65504062,0.10701282,0
-0.16024078,-0.23467097,2.1158638,-0.74797738,-0.65504062,0.10701282,0
0.52107757,-0.36308667,1.6728789,0.6517657,-0.75535905,-0.068075024,0
-0.19530739,-0.028817192,-2.999181,-0.12542501,-0.018828698,-0.99192441,0
-0.41294354,0.064230233,2.1791878,-0.74797738,-0.65504062,0.10701282,0
0.72451276,0.35750428,2.5800545,0.74797738,0.65504062,-0.10701282,0
-0.49210536,-0.44552031,-2.9537423,-0.12542501,-0.018828698,-0.99192441,0
-0.47996587,-0.48414212,-2.9545443,-0.12542501,-0.018828698,-0.99192441,0
0.10421649,-0.43916735,-1.4740539,0.6517657,-0.75535905,-0.068075024,0
-0.80324697,-0.21015452,-2.2284269,-0.74797738,-0.65504062,0.10701282,0
-0.44526058,-0.093675077,-2.9663444,-0.12542501,-0.018828698,-0.99192441,0
-0.60652035,-0.46318638,-2.4022293,-0.74797738,-0.65504062,0.10701282,0
0.13798946,0.66174132,0.34276673,0.74797738,0.65504062,-0.10701282,0
0.16154051,0.040024724,-3.0456097,-0.12542501,-0.018828698,-0.99192441,0
0.38282222,0.0056098974,-1.9622227,0.74797738,0.65504062,-0.10701282,0
-0.083062708,-0.50992918,0.97041368,-0.74797738,-0.65504062,0.10701282,0
-0.75685,0.025657937,-2.9292104,-0.12542501,-0.018828698,-0.99192441,0
-0.52296299,0.41619438,-2.9661975,-0.12542501,-0.018828698,-0.99192441,0
0.045388564,-0.5694375,-0.59181076,0.6517657,-0.75535905,-0.068075024,0
-0.39630839,-0.68151134,-2.2693291,-0.74797738,-0.65504062,0.10701282,0
0.43105379,-0.30602154,0.17777739,0.6517657,-0.75535905,-0.068075024,0
0.54337937,-0.41620064,2.4757524,0.6517657,-0.75535905,-0.068075024,0
-0.42182446,0.075272538,2.1847053,-0.74797738,-0.65504062,0.10701282,0
0.47998196,-0.42050749,1.9165603,0.6517657,-0.75535905,-0.068075024,0
-0.23072088,0.21708135,2.7271333,-0.6517657,0.75535905,0.068075024,0
0.077198803,-0.081429884,-3.03264,-0.12542501,-0.018828698,-0.99192441,0
-0.42428011,0.32105508,-0.27973655,-0.6517657,0.75535905,0.068075024,0
0.4581852,-0.34286287,2.9729965,0.12542501,0.018828698,0.99192441,0
0.16978225,-0.4428758,-0.80516315,0.6517657,-0.75535905,-0.068075024,0
0.52115428,-0.18377876,-0.31598315,0.6517657,-0.75535905,-0.068075024,0
-0.8076483,0.19549082,-2.5569315,-0.6517657,0.75535905,0.068075024,0
0.44543654,0.17564496,-0.4837645,0.74797738,0.65504062,-0.10701282,0
0.36521935,0.24941407,-0.59289944,0.74797738,0.65504062,-0.10701282,0
-0.13198321,-0.0055400804,3.0412178,0.12542501,0.018828698,0.99192441,0
0.36339861,0.7264905,2.762974,-0.6517657,0.75535905,0.068075024,0
0.91223651,-0.0050845146,1.6727126,0.74797738,0.65504062,-0.10701282,0
0.0083094835,0.4739818,-1.712948,0.74797738,0.65504062,-0.10701282,0
-0.21006934,-0.49931803,0.14763936,-0.74797738,-0.65504062,0.10701282,0
-0.20917602,-0.08358781,2.6986272,-0.74797738,-0.65504062,0.10701282,0
-0.28452468,-0.19009487,1.5200249,-0.74797738,-0.65504062,0.10701282,0
-0.81498146,-0.26730782,-2.66029,-0.74797738,-0.65504062,0.10701282,0
-0.282493,-0.57960868,-0.8500433,-0.74797738,-0.65504062,0.10701282,0
-0.018160539,0.50423574,1.5759755,-0.6517657,0.75535905,0.068075024,0
-0.42267191,0.057881963,2.0723317,-0.74797738,-0.65504062,0.10701282,0
-0.11075234,0.0092045516,3.0382535,0.12542501,0.018828698,0.99192441,0
0.31527609,-0.55157191,1.7939169,0.6517657,-0.75535905,-0.068075024,0
-0.33603755,0.34834543,0.26230469,-0.6517657,0.75535905,0.068075024,0
0.078253821,-0.54897559,1.8589439,-0.74797738,-0.65504062,0.10701282,0
-0.6383251,0.069033839,0.46737117,-0.6517657,0.75535905,0.068075024,0
-0.084475636,-0.57839924,-1.7357206,0.6517657,-0.75535905,-0.068075024,0
-0.28946266,0.49381149,-2.997196,-0.12542501,-0.018828698,-0.99192441,0
0.80131996,-0.17325364,2.9263887,0.12542501,0.018828698,0.99192441,0
0.73199987,-0.12803426,1.0841596,0.6517657,-0.75535905,-0.068075024,0
-0.52707225,0.016226798,-2.9580858,-0.12542501,-0.018828698,-0.99192441,0
-0.38416538,-0.067009225,1.5770006,-0.74797738,-0.65504062,0.10701282,0
0.18283135,-0.54429436,2.6185539,-0.74797738,-0.65504062,0.10701282,0
-0.46180522,-0.28551716,-2.9606109,-0.12542501,-0.018828698,-0.99192441,0
0.31681433,0.43776637,0.2216993,0.74797738,0.65504062,-0.10701282,0
0.34504396,0.11188758,2.9786706,0.12542501,0.018828698,0.99192441,0
-0.70481879,0.061703011,-2.9364736,-0.12542501,-0.018828698,-0.99192441,0
0.13956371,0.65763444,1.3839542,-0.6517657,0.75535905,0.068075024,0
0.31080085,0.30863878,-0.61074102,0.74797738,0.65504062,-0.10701282,0
-0.52164215,-0.39861336,-1.4137037,-0.74797738,-0.65504062,0.10701282,0
-0.75396311,-0.13915905,-2.9264467,-0.12542501,-0.018828698,-0.99192441,0
-0.5135448,-0.17149806,0.033098385,-0.74797738,-0.65504062,0.10701282,0
-0.56092048,0.094218098,0.92901641,-0.6517657,0.75535905,0.068075024,0
0.40714297,-0.53943467,2.5387962,0.6517657,-0.75535905,-0.068075024,0
0.59793216,0.33787322,2.9424043,0.12542501,0.018828698,0.99192441,0
-0.76647246,0.22204246,-2.4573207,-0.6517657,0.75535905,0.068075024,0
-0.48595622,0.28888193,-0.51324475,-0.6517657,0.75535905,0.068075024,0
0.61271298,-0.011011571,2.9471579,0.12542501,0.018828698,0.99192441,0
-0.32367849,-0.1080658,1.748467,-0.74797738,-0.65504062,0.10701282,0
0.42313412,-0.14212704,-1.7166175,0.6517657,-0.75535905,-0.068075024,0
0.11625738,0.51063216,-0.73409277,0.74797738,0.65504062,-0.10701282,0
0.46934366,-0.40560365,2.9727767,0.12542501,0.018828698,0.99192441,0
0.080084145,0.30643442,-2.2368526,0.74797738,0.65504062,-0.10701282,0
-0.30123425,0.50174379,-1.1065856,-0.6517657,0.75535905,0.068075024,0
0.25280479,0.1389516,-2.0547898,0.74797738,0.65504062,-0.10701282,0
-0.38225272,0.32769716,0.048943006,-0.6517657,0.75535905,0.068075024,0
-0.91750681,-0.024151072,-2.9079504,-0.12542501,-0.018828698,-0.99192441,0
-0.31230468,0.022738859,-2.9853659,-0.12542501,-0.018828698,-0.99192441,0
0.020339772,-0.019657224,-3.0266228,-0.12542501,-0.018828698,-0.99192441,0
-0.6032849,0.31333628,-1.9079205,-0.6517657,0.75535905,0.068075024,0
0.53518409,-0.43078893,2.5591602,0.6517657,-0.75535905,-0.068075024,0
-0.23930755,0.61722994,-1.795117,-0.6517657,0.75535905,0.068075024,0
-0.16173545,0.4326466,-3.0121858,-0.12542501,-0.018828698,-0.99192441,0
-0.21900091,0.49917069,-0.29071367,-0.6517657,0.75535905,0.068075024,0
0.38653168,-0.46066764,1.4674621,0.6517657,-0.75535905,-0.068075024,0
0.10366841,-0.39357448,-1.9851989,0.6517657,-0.75535905,-0.068075024,0
0.0061571747,0.53889036,-1.3306776,0.74797738,0.65504062,-0.10701282,0
-0.038976662,0.42000899,2.3112552,-0.6517657,0.75535905,0.068075024,0
-0.18535128,0.38671544,1.279256,-0.6517657,0.75535905,0.068075024,0
-0.77179533,0.16901268,-1.919866,-0.6517657,0.75535905,0.068075024,0
-0.58962423,-0.22839236,-2.9455328,-0.12542501,-0.018828698,-0.99192441,0
-0.31003124,0.43050972,-0.40039855,-0.6517657,0.75535905,0.068075024,0
-0.65538841,-0.41570371,-2.9336617,-0.12542501,-0.018828698,-0.99192441,0
-0.014242709,0.39101398,-2.3784366,0.74797738,0.65504062,-0.10701282,0
-0.3378222,0.40105391,-0.33963397,-0.6517657,0.75535905,0.068075024,0
0.15658794,0.48767954,2.9953671,0.12542501,0.018828698,0.99192441,0
-0.79476559,-0.04810378,-2.9230158,-0.12542501,-0.018828698,-0.99192441,0
0.62308365,-0.017377093,2.9459674,0.12542501,0.018828698,0.99192441,0
-0.25037488,-0.21553788,1.6029783,-0.74797738,-0.65504062,0.10701282,0
0.52358776,0.64471143,2.9337039,0.74797738,0.65504062,-0.10701282,0
0.32530421,0.1106156,-1.721496,0.74797738,0.65504062,-0.10701282,0
-0.50998467,0.24481715,-2.9645855,-0.12542501,-0.018828698,-0.99192441,0
-0.88608789,-0.016363427,-2.912071,-0.12542501,-0.018828698,-0.99192441,0
-0.30629492,-0.3964681,0.10461969,-0.74797738,-0.65504062,0.10701282,0
-0.94023305,0.082109764,-2.568254,-0.6517657,0.75535905,0.068075024,0
0.44307503,0.41694432,0.97675711,0.74797738,0.65504062,-0.10701282,0
-0.25574946,0.24312834,2.1984873,-0.6517657,0.75535905,0.068075024,0
-0.58554482,0.15121685,0.060800184,-0.6517657,0.75535905,0.068075024,0
0.2227149,-0.052053031,-3.0515974,-0.12542501,-0.018828698,-0.99192441,0
0.64628065,-0.34458792,2.6663396,0.6517657,-0.75535905,-0.068075024,0
-0.44548437,-0.50489813,-2.9585102,-0.12542501,-0.018828698,-0.99192441,0
-0.21382862,0.30995321,1.8583602,-0.6517657,0.75535905,0.068075024,0
0.43569392,0.69449782,2.9561491,0.12542501,0.018828698,0.99192441,0
-0.064219058,0.686764,-0.9174239,0.74797738,0.65504062,-0.10701282,0
-0.61467397,0.13870022,-0.079204671,-0.6517657,0.75535905,0.068075024,0
-0.094510727,0.44406497,-2.6147456,0.74797738,0.65504062,-0.10701282,0
-0.41881755,-0.35917798,-2.9646482,-0.12542501,-0.018828698,-0.99192441,0
-0.28458196,0.43874067,-0.2480711,-0.6517657,0.75535905,0.068075024,0
0.21932283,-0.19572178,3.0004067,0.12542501,0.018828698,0.99192441,0
0.60728097,0.43722969,2.2486615,0.74797738,0.65504062,-0.10701282,0
-1.0200046,-0.033489421,-2.6620855,-0.74797738,-0.65504062,0.10701282,0
-0.49588275,-0.30180907,-0.64110279,-0.74797738,-0.65504062,0.10701282,0
0.82023966,0.24260932,2.9161026,0.12542501,0.018828698,0.99192441,0
-0.63967782,0.18733907,-0.8582924,-0.6517657,0.75535905,0.068075024,0
0.028190777,-0.26838589,3.0259538,0.12542501,0.018828698,0.99192441,0
-0.83329898,-0.086885758,-1.6839331,-0.74797738,-0.65504062,0.10701282,0
0.30157724,-0.045224249,2.9871492,0.12542501,0.018828698,0.99192441,0
-0.85681647,-0.1879027,-2.4666502,-0.74797738,-0.65504062,0.10701282,0
0.25584438,-0.32350576,-1.3057123,0.6517657,-0.75535905,-0.068075024,0
-0.54837108,0.29144353,-2.9606168,-0.12542501,-0.018828698,-0.99192441,0
0.59927547,-0.320806,1.9524181,0.6517657,-0.75535905,-0.068075024,0
0.17838202,0.44179153,-0.7212494,0.74797738,0.65504062,-0.10701282,0
0.5596965,0.013232246,2.9534013,0.12542501,0.018828698,0.99192441,0
-0.30942327,-0.32121658,0.54337895,-0.74797738,-0.65504062,0.10701282,0
0.30225062,0.51293933,0.58004916,0.74797738,0.65504062,-0.10701282,0
0.35188377,-0.0090694726,2.9801018,0.12542501,0.018828698,0.99192441,0
0.81855035,0.15016058,1.96816,0.74797738,0.65504062,-0.10701282,0
0.23718345,-0.50535214,0.5333873,0.6517657,-0.75535905,-0.068075024,0
-0.79966313,-0.11915141,-1.6463345,-0.74797738,-0.65504062,0.10701282,0
0.75415951,-0.17097016,1.7727368,0.6517657,-0.75535905,-0.068075024,0
0.55064225,-0.0063518286,2.9549179,0.12542501,0.018828698,0.99192441,0
-0.71920562,-0.4142701,-2.8904314,-0.74797738,-0.65504062,0.10701282,0
0.32565466,0.49886978,0.65751231,0.74797738,0.65504062,-0.10701282,0
0.48391283,-0.36233252,2.9701128,0.12542501,0.018828698,0.99192441,0
0.39669818,-0.50299084,2.034416,0.6517657,-0.75535905,-0.068075024,0
0.65128273,0.0074244887,2.941931,0.12542501,0.018828698,0.99192441,0
0.2362892,-0.072337672,2.9959192,0.12542501,0.018828698,0.99192441,0
-0.6268779,0.10147342,-2.947084,-0.12542501,-0.018828698,-0.99192441,0
0.47190365,-0.30644065,0.57353371,0.6517657,-0.75535905,-0.068075024,0
-0.18617392,-0.67708015,-0.77344799,-0.74797738,-0.65504062,0.10701282,0
0.035793699,-0.35162765,2.770159,-0.74797738,-0.65504062,0.10701282,0
0.48768011,0.043547176,2.9619322,0.12542501,0.018828698,0.99192441,0
0.34993565,-0.46254498,2.988956,0.12542501,0.018828698,0.99192441,0
-0.062992007,-0.68153095,-0.3856847,0.6517657,-0.75535905,-0.068075024,0
-0.15957987,0.4237614,1.1149362,-0.6517657,0.75535905,0.068075024,0
0.32031003,-0.30583656,-0.884561,0.6517657,-0.75535905,-0.068075024,0
0.038917989,-0.015826792,3.0198033,0.12542501,0.018828698,0.99192441,0
-0.566082,0.3960166,-2.4691513,-0.6517657,0.75535905,0.068075024,0
-0.12427609,0.46027154,1.047827,-0.6517657,0.75535905,0.068075024,0
0.45369685,0.42840534,2.9589238,0.12542501,0.018828698,0.99192441,0
0.10382505,-0.12807861,-3.0351212,-0.12542501,-0.018828698,-0.99192441,0
-0.0034311265,-0.0037799925,3.0249295,0.12542501,0.018828698,0.99192441,0
0.60717469,-0.31929928,2.0113287,0.6517657,-0.75535905,-0.068075024,0
-0.026937824,0.42545751,2.366061,-0.6517657,0.75535905,0.068075024,0
-0.30759963,0.43145892,-0.38764945,-0.6517657,0.75535905,0.068075024,0
0.67922592,-0.25541371,2.9433868,0.12542501,0.018828698,0.99192441,0
-0.041385811,-0.081042416,-3.0176525,-0.12542501,-0.018828698,-0.99192441,0
-0.093957499,0.38390017,2.185519,-0.6517657,0.75535905,0.068075024,0
0.054598793,0.65527678,-0.27967176,0.74797738,0.65504062,-0.10701282,0
0.49530503,-0.04921785,-1.5116208,0.74797738,0.65504062,-0.10701282,0
-0.69089723,-0.37512478,-2.4529531,-0.74797738,-0.65504062,0.10701282,0
-0.088097535,0.61687398,-1.5121317,0.74797738,0.65504062,-0.10701282,0
0.72917205,-0.17732793,1.6040473,0.6517657,-0.75535905,-0.068075024,0
0.068470016,0.47000453,-1.3167951,0.74797738,0.65504062,-0.10701282,0
0.16123204,-0.57420635,2.284488,-0.74797738,-0.65504062,0.10701282,0
0.026227728,-0.58822584,-0.56678587,0.6517657,-0.75535905,-0.068075024,0
0.019493684,0.3875401,-2.1638968,0.74797738,0.65504062,-0.10701282,0
-0.078683868,0.54436189,0.55127251,-0.6517657,0.75535905,0.068075024,0
0.016459204,0.66025937,0.17619765,-0.6517657,0.75535905,0.068075024,0
-0.060868565,0.57228225,0.41203615,-0.6517657,0.75535905,0.068075024,0
0.56309712,-0.35199443,2.9599042,0.12542501,0.018828698,0.99192441,0
1.0082982,0.074169874,2.829273,0.74797738,0.65504062,-0.10701282,0
0.22625226,0.2521854,2.9910283,0.12542501,0.018828698,0.99192441,0
0.16601926,0.53642595,-0.22838946,0.74797738,0.65504062,-0.10701282,0
0.71862894,-0.079654679,0.41932493,0.6517657,-0.75535905,-0.068075024,0
-0.093192242,0.4290739,1.691599,-0.6517657,0.75535905,0.068075024,0
0.19812202,-0.21653143,3.0034823,0.12542501,0.018828698,0.99192441,0
-0.44776452,-0.58257157,-2.9567475,-0.12542501,-0.018828698,-0.99192441,0
0.18054879,-0.13052431,-3.0447762,-0.12542501,-0.018828698,-0.99192441,0
0.90179068,0.072156385,2.0725019,0.74797738,0.65504062,-0.10701282,0
0.1094337,0.37362602,-1.6204218,0.74797738,0.65504062,-0.10701282,0
-0.50872576,-0.40187001,-2.9524693,-0.12542501,-0.018828698,-0.99192441,0
0.95221543,-0.015581757,1.9447827,0.6517657,-0.75535905,-0.068075024,0
0.48973343,-0.30125082,0.6866532,0.6517657,-0.75535905,-0.068075024,0
-0.31482935,-0.33374506,0.42890394,-0.74797738,-0.65504062,0.10701282,0
0.45290595,-0.41533473,2.9750395,0.12542501,0.018828698,0.99192441,0
-0.29224905,-0.27657023,-2.9822204,-0.12542501,-0.018828698,-0.99192441,0
0.40965399,-0.23793502,-0.78259581,0.6517657,-0.75535905,-0.068075024,0
0.24565493,-0.31350425,-1.5142455,0.6517657,-0.75535905,-0.068075024,0
-0.74556881,0.085689723,-0.74421841,-0.6517657,0.75535905,0.068075024,0
-0.23584078,0.13341568,3.0517125,0.12542501,0.018828698,0.99192441,0
-0.20403458,-0.6421268,-2.1732855,0.6517657,-0.75535905,-0.068075024,0
-0.47333914,-0.57851124,-2.1772649,-0.74797738,-0.65504062,0.10701282,0
0.84621799,0.00074619055,1.2469597,0.74797738,0.65504062,-0.10701282,0
-0.035944253,-0.53407776,-1.7628598,0.6517657,-0.75535905,-0.068075024,0
-0.60397065,0.15900697,-0.20205143,-0.6517657,0.75535905,0.068075024,0
0.19120055,0.62636799,2.2252688,-0.6517657,0.75535905,0.068075024,0
-0.1714258,0.2663303,-3.0078034,-0.12542501,-0.018828698,-0.99192441,0
0.46403381,-0.024521228,-1.5790226,0.74797738,0.65504062,-0.10701282,0
-0.56743437,0.26078594,-0.98158246,-0.6517657,0.75535905,0.068075024,0
0.42901221,-0.015226722,2.9704659,0.12542501,0.018828698,0.99192441,0
0.6072771,0.35219216,2.9409509,0.12542501,0.018828698,0.99192441,0
-0.20142987,-0.23813306,1.8067765,-0.74797738,-0.65504062,0.10701282,0
0.28820521,-0.58959877,1.9566801,0.6517657,-0.75535905,-0.068075024,0
-0.29967555,-0.46737945,-2.9776595,-0.12542501,-0.018828698,-0.99192441,0
-0.17342615,-0.71315908,-1.0920602,0.6517657,-0.75535905,-0.068075024,0
-0.87838364,-0.10866258,-2.1323564,-0.74797738,-0.65504062,0.10701282,0
-0.29275304,0.067828283,3.0412962,-0.74797738,-0.65504062,0.10701282,0
-0.14635284,-0.42745948,-2.9978044,-0.12542501,-0.018828698,-0.99192441,0
-0.63496435,0.15076067,-0.40729135,-0.6517657,0.75535905,0.068075024,0
0.089830741,-0.45829308,2.4949422,-0.74797738,-0.65504062,0.10701282,0
0.7010594,0.22737095,1.6195604,0.74797738,0.65504062,-0.10701282,0
0.23321261,-0.38103151,-0.88408971,0.6517657,-0.75535905,-0.068075024,0
-0.10566008,0.15065463,-3.0139234,-0.12542501,-0.018828698,-0.99192441,0
0.16494687,0.66235757,1.5745699,-0.6517657,0.75535905,0.068075024,0
-0.83075827,-0.075443998,-2.9179456,-0.12542501,-0.018828698,-0.99192441,0
-0.20095593,0.27089876,-3.0041561,-0.12542501,-0.018828698,-0.99192441,0
0.33358812,-0.41471106,0.4506354,0.6517657,-0.75535905,-0.068075024,0
-0.81904072,-0.29296589,-2.8457191,-0.74797738,-0.65504062,0.10701282,0
0.42137337,-0.043718882,-1.9947137,0.74797738,0.65504062,-0.10701282,0
0.12266281,0.56364727,-0.36480838,0.74797738,0.65504062,-0.10701282,0
-0.1802935,0.47200218,-3.0105863,-0.12542501,-0.018828698,-0.99192441,0
-0.057109803,-0.05739025,-3.0161133,-0.12542501,-0.018828698,-0.99192441,0
-0.11495727,-0.56209761,-2.2084408,0.6517657,-0.75535905,-0.068075024,0
-0.085065193,0.38616097,-2.9031641,0.74797738,0.65504062,-0.10701282,0
-0.41226763,-0.53766078,-2.9620886,-0.12542501,-0.018828698,-0.99192441,0
1.0526768,-0.001557976,2.8913467,0.12542501,0.018828698,0.99192441,0
0.73472679,0.28976139,2.9260204,0.12542501,0.018828698,0.99192441,0
0.94291884,-0.033432394,2.9058301,0.12542501,0.018828698,0.99192441,0
-0.32646728,0.58765233,-2.3014114,-0.6517657,0.75535905,0.068075024,0
-0.041099466,0.26853603,3.0245235,0.12542501,0.018828698,0.99192441,0
0.58903819,0.50388718,2.5291717,0.74797738,0.65504062,-0.10701282,0
-0.4378064,-0.081680626,1.1122653,-0.74797738,-0.65504062,0.10701282,0
-0.83292049,0.14915206,-2.9219356,-0.12542501,-0.018828698,-0.99192441,0
0.12227152,-0.025225483,3.0094421,0.12542501,0.018828698,0.99192441,0
0.88565028,-0.030833006,1.4767002,0.6517657,-0.75535905,-0.068075024,0
-0.53132361,0.12533185,-2.9596193,-0.12542501,-0.018828698,-0.99192441,0
0.40116739,0.4592936,0.94306505,0.74797738,0.65504062,-0.10701282,0
0.26022881,0.005460076,2.9914155,0.12542501,0.018828698,0.99192441,0
-0.66788107,0.11903021,-0.37036297,-0.6517657,0.75535905,0.068075024,0
0.16512568,-0.65316844,1.4836553,0.6517657,-0.75535905,-0.068075024,0
-0.46441191,0.30247569,-0.45781076,-0.6517657,0.75535905,0.068075024,0
-0.51669413,0.36625016,-1.6660122,-0.6517657,0.75535905,0.068075024,0
0.080972761,0.66937625,-0.0090232827,0.74797738,0.65504062,-0.10701282,0
-0.5399977,0.1385459,-2.9587734,-0.12542501,-0.018828698,-0.99192441,0
-0.098253623,-0.041591801,3.0376372,0.12542501,0.018828698,0.99192441,0
-0.29216844,0.54874402,-1.5413007,-0.6517657,0.75535905,0.068075024,0
-0.11081396,-0.24786,2.3806057,-0.74797738,-0.65504062,0.10701282,0
0.051574647,0.4731912,-1.4153812,0.74797738,0.65504062,-0.10701282,0
-0.062756345,0.67002916,-0.69063485,-0.6517657,0.75535905,0.068075024,0
0.13279,-0.50500745,-0.46992448,0.6517657,-0.75535905,-0.068075024,0
0.5473336,0.44507679,1.877686,0.74797738,0.65504062,-0.10701282,0
-0.69675779,-0.096317001,-0.78729391,-0.74797738,-0.65504062,0.10701282,0
0.34739816,-0.25355819,-1.2052928,0.6517657,-0.75535905,-0.068075024,0
0.61527592,-0.29389787,1.8070372,0.6517657,-0.75535905,-0.068075024,0
0.22066042,-0.63752753,2.3122709,-0.74797738,-0.65504062,0.10701282,0
-0.68587726,-0.074682847,-2.9362798,-0.12542501,-0.018828698,-0.99192441,0
-0.42077744,-0.44318309,-2.962806,-0.12542501,-0.018828698,-0.99192441,0
-0.24383393,-0.020023063,2.8454709,-0.74797738,-0.65504062,0.10701282,0
0.27718526,-0.65574837,2.5851665,0.6517657,-0.75535905,-0.068075024,0
-0.62081265,-0.28781849,-1.4286752,-0.74797738,-0.65504062,0.10701282,0
-0.38247019,0.034211714,2.2084372,-0.74797738,-0.65504062,0.10701282,0
-0.36481035,0.19887249,-2.9820702,-0.12542501,-0.018828698,-0.99192441,0
-0.20954672,-0.032845981,-2.9973042,-0.12542501,-0.018828698,-0.99192441,0
0.99043238,0.087976068,2.788908,0.74797738,0.65504062,-0.10701282,0
-0.18354486,-0.53211337,-2.9911149,-0.12542501,-0.018828698,-0.99192441,0
-0.37574047,-0.36587107,-2.9699681,-0.12542501,-0.018828698,-0.99192441,0
0.31020531,-0.37959942,-0.16283503,0.6517657,-0.75535905,-0.068075024,0
-0.57443452,-0.27660114,-1.0358475,-0.74797738,-0.65504062,0.10701282,0
0.085312501,0.10508787,-3.0372062,-0.12542501,-0.018828698,-0.99192441,0
0.78698844,-0.19610657,2.3659611,0.6517657,-0.75535905,-0.068075024,0
-0.37137786,-0.0030471869,2.0579009,-0.74797738,-0.65504062,0.10701282,0
0.13570839,0.61250049,0.025412887,0.74797738,0.65504062,-0.10701282,0
0.39925262,-0.38560688,2.9812596,0.12542501,0.018828698,0.99192441,0
0.81942898,0.12927061,2.9183567,0.12542501,0.018828698,0.99192441,0
-0.20638664,-0.42671406,0.61779928,-0.74797738,-0.65504062,0.10701282,0
0.77773225,-0.19690737,2.2862263,0.6517657,-0.75535905,-0.068075024,0
-0.21637008,0.53125083,-0.6214866,-0.6517657,0.75535905,0.068075024,0
-1.043009,0.0085666776,-2.8927021,-0.12542501,-0.018828698,-0.99192441,0
-0.077656277,0.25176328,3.0294642,0.12542501,0.018828698,0.99192441,0
0.51507097,0.31574416,0.86052001,0.74797738,0.65504062,-0.10701282,0
-0.10660324,0.22458324,-3.0152075,-0.12542501,-0.018828698,-0.99192441,0
0.51733297,0.07253205,-0.61240566,0.74797738,0.65504062,-0.10701282,0
-0.040818021,-0.57887024,0.84368908,-0.74797738,-0.65504062,0.10701282,0
-0.37170193,-0.023173817,-2.9769838,-0.12542501,-0.018828698,-0.99192441,0
-0.34235042,0.0065679997,2.3196471,-0.74797738,-0.65504062,0.10701282,0
0.21044132,-0.52488679,0.49410743,0.6517657,-0.75535905,-0.068075024,0
0.78295851,0.19660516,2.92169,0.12542501,0.018828698,0.99192441,0
-0.78026146,0.049591333,-0.67582667,-0.6517657,0.75535905,0.068075024,0
-0.50968164,0.031910628,-2.9605823,-0.12542501,-0.018828698,-0.99192441,0
-0.18079907,-0.61178476,-2.2874982,0.6517657,-0.75535905,-0.068075024,0
-0.98554468,-0.10525104,-2.860487,-0.74797738,-0.65504062,0.10701282,0
-0.52189136,-0.46929541,-1.8481003,-0.74797738,-0.65504062,0.10701282,0
0.33609074,0.20285708,-1.0814793,0.74797738,0.65504062,-0.10701282,0
-0.59764737,0.21942307,-2.9530189,-0.12542501,-0.018828698,-0.99192441,0
-0.21338892,0.40476152,-3.005125,-0.12542501,-0.018828698,-0.99192441,0
0.27793199,-0.14715649,-3.051008,0.6517657,-0.75535905,-0.068075024,0
0.36995867,0.58501142,2.9665394,0.12542501,0.018828698,0.99192441,0
-0.92082453,0.028780997,-2.9085357,-0.12542501,-0.018828698,-0.99192441,0
0.32988214,0.26081097,-0.77013087,0.74797738,0.65504062,-0.10701282,0
-0.41427487,-0.19294713,0.59566355,-0.74797738,-0.65504062,0.10701282,0
-0.44135031,-0.29149356,-0.19680011,-0.74797738,-0.65504062,0.10701282,0
0.92151088,-0.02926147,1.8026005,0.6517657,-0.75535905,-0.068075024,0
-0.070659086,0.52536678,-1.9503721,0.74797738,0.65504062,-0.10701282,0
0.087481424,0.056139007,3.0122967,0.12542501,0.018828698,0.99192441,0
-0.40818691,0.24140444,0.75814527,-0.6517657,0.75535905,0.068075024,0
0.65051836,0.061764576,0.25259876,0.74797738,0.65504062,-0.10701282,0
0.31831419,-0.32861999,-0.65086532,0.6517657,-0.75535905,-0.068075024,0
-0.26758254,-0.4120554,0.27979198,-0.74797738,-0.65504062,0.10701282,0
0.71171856,-0.29586077,2.7521818,0.6517657,-0.75535905,-0.068075024,0
-0.18248403,-0.41769385,0.84008306,-0.74797738,-0.65504062,0.10701282,0
0.27376729,0.13614683,-1.9254384,0.74797738,0.65504062,-0.10701282,0
0.39429983,-0.37193906,2.9816263,0.12542501,0.018828698,0.99192441,0
-0.078109898,0.33519578,2.8776705,-0.6517657,0.75535905,0.068075024,0
0.01006835,-0.043036707,-3.0248802,-0.12542501,-0.018828698,-0.99192441,0
0.065018155,-0.18069586,3.0196328,0.12542501,0.018828698,0.99192441,0
0.19053006,-0.58716822,0.99454564,0.6517657,-0.75535905,-0.068075024,0
-0.44605008,-0.43713543,-2.9597251,-0.12542501,-0.018828698,-0.99192441,0
-0.48530817,0.16093521,0.91265404,-0.6517657,0.75535905,0.068075024,0
-0.27249473,-0.72984302,-1.8554409,0.6517657,-0.75535905,-0.068075024,0
-0.46416286,0.23152313,0.3318617,-0.6517657,0.75535905,0.068075024,0
-0.88872594,-0.055409834,-2.9109964,-0.12542501,-0.018828698,-0.99192441,0
0.11058713,0.2105988,-2.6102722,0.74797738,0.65504062,-0.10701282,0
0.28810623,-0.36960778,-0.48528367,0.6517657,-0.75535905,-0.068075024,0
0.039872631,-0.053185094,-3.028456,-0.12542501,-0.018828698,-0.99192441,0
0.052012458,0.53793383,-1.0160217,0.74797738,0.65504062,-0.10701282,0
0.42555571,0.25423113,-0.14168668,0.74797738,0.65504062,-0.10701282,0
0.30361691,0.23556861,2.9815614,0.12542501,0.018828698,0.99192441,0
-0.12332894,0.053635415,3.0390003,0.12542501,0.018828698,0.99192441,0
0.82065612,0.14917299,1.9768336,0.74797738,0.65504062,-0.10701282,0
-0.51894665,-0.54038018,-2.2626379,-0.74797738,-0.65504062,0.10701282,0
0.15780962,0.045045748,-3.0452335,-0.12542501,-0.018828698,-0.99192441,0
0.69437277,-0.12769686,0.72016597,0.6517657,-0.75535905,-0.068075024,0
-0.14954185,0.59783214,-2.0581608,0.74797738,0.65504062,-0.10701282,0
0.35840246,0.71615797,2.8297894,-0.6517657,0.75535905,0.068075024,0
-0.020077765,0.081800893,3.0254099,0.12542501,0.018828698,0.99192441,0
0.22344722,-0.49395013,3.0055461,0.12542501,0.018828698,0.99192441,0
0.56361187,0.3522664,1.4233593,0.74797738,0.65504062,-0.10701282,0
-0.81790483,0.041955575,-2.9217997,-0.12542501,-0.018828698,-0.99192441,0
-0.56671053,0.39708173,-2.4869874,-0.6517657,0.75535905,0.068075024,0
-0.53440356,-0.38822538,-2.9494812,-0.12542501,-0.018828698,-0.99192441,0
-0.43844208,-0.33943105,-2.9625416,-0.12542501,-0.018828698,-0.99192441,0
-0.38794178,-0.4826405,-2.9662089,-0.12542501,-0.018828698,-0.99192441,0
-0.18295443,-0.60229236,-2.413461,0.6517657,-0.75535905,-0.068075024,0
-0.089030437,0.40078089,-2.8413892,0.74797738,0.65504062,-0.10701282,0
0.28893781,0.17435168,-1.5855454,0.74797738,0.65504062,-0.10701282,0
-0.4444257,-0.47600764,-1.3477327,-0.74797738,-0.65504062,0.10701282,0
-0.39026612,-0.05050347,1.635393,-0.74797738,-0.65504062,0.10701282,0
1.0687549,0.0050817281,2.8312762,0.6517657,-0.75535905,-0.068075024,0
-0.062959164,0.34094423,-3.0229349,-0.12542501,-0.018828698,-0.99192441,0
-0.28466141,0.36110288,-2.9952841,-0.12542501,-0.018828698,-0.99192441,0
0.91424459,-0.10743082,2.9108605,0.12542501,0.018828698,0.99192441,0
-0.16563477,0.66423512,-1.6113259,-0.6517657,0.75535905,0.068075024,0
0.62617594,0.22114508,2.9410486,0.12542501,0.018828698,0.99192441,0
0.07051003,-0.16057014,-3.0302918,-0.12542501,-0.018828698,-0.99192441,0
0.46382931,-0.23607369,-0.28456271,0.6517657,-0.75535905,-0.068075024,0
0.51780635,-0.37357137,1.757897,0.6517657,-0.75535905,-0.068075024,0
0.32638732,-0.44703248,0.7403307,0.6517657,-0.75535905,-0.068075024,0
0.77118319,-0.0071392953,0.6742276,0.74797738,0.65504062,-0.10701282,0
0.42446077,0.39442912,0.70883191,0.74797738,0.65504062,-0.10701282,0
0.56142044,0.08216802,-0.24526845,0.74797738,0.65504062,-0.10701282,0
0.43573084,0.032742221,-1.4263315,0.74797738,0.65504062,-0.10701282,0
-0.51479316,-0.40367284,-1.3968018,-0.74797738,-0.65504062,0.10701282,0
0.97543347,-0.0082105547,2.9012401,0.12542501,0.018828698,0.99192441,0
-0.089023553,0.40633222,1.9838523,-0.6517657,0.75535905,0.068075024,0
-0.59448135,0.11507785,0.37623769,-0.6517657,0.75535905,0.068075024,0
1.0268393,-0.030727923,2.8951674,0.12542501,0.018828698,0.99192441,0
-0.17488894,-0.6797322,-0.71080369,-0.74797738,-0.65504062,0.10701282,0
-0.00027151406,0.15951303,-3.0274174,-0.12542501,-0.018828698,-0.99192441,0
0.2812362,0.61526191,2.9771838,0.12542501,0.018828698,0.99192441,0
0.4116151,-0.35871816,2.9791861,0.12542501,0.018828698,0.99192441,0
0.47783858,-0.11023577,2.9660957,0.12542501,0.018828698,0.99192441,0
0.42458874,0.50799942,1.4049062,0.74797738,0.65504062,-0.10701282,0
-0.72532248,-0.15464424,-2.9297743,-0.12542501,-0.018828698,-0.99192441,0
0.30620664,-0.47729757,2.9947655,0.12542501,0.018828698,0.99192441,0
-0.34495881,-0.62299067,-1.5522026,-0.74797738,-0.65504062,0.10701282,0
0.71188986,-0.084140405,2.9360056,0.12542501,0.018828698,0.99192441,0
-0.17566836,0.65968168,-1.6568646,-0.6517657,0.75535905,0.068075024,0
0.1647279,-0.043218356,-3.0444326,-0.12542501,-0.018828698,-0.99192441,0
0.71668625,0.37122461,2.6093342,0.74797738,0.65504062,-0.10701282,0
0.24229279,-0.28794429,-1.8300476,0.6517657,-0.75535905,-0.068075024,0
0.59440374,0.23896334,0.94503814,0.74797738,0.65504062,-0.10701282,0
-0.33980641,-0.493195,-0.72169125,-0.74797738,-0.65504062,0.10701282,0
-0.2950421,0.3818959,0.28252912,-0.6517657,0.75535905,0.068075024,0
-0.032148212,0.55975223,0.82604432,-0.6517657,0.75535905,0.068075024,0
0.141276,0.63049042,1.7015373,-0.6517657,0.75535905,0.068075024,0
-0.38708681,0.35170984,-0.26378399,-0.6517657,0.75535905,0.068075024,0
0.57604325,0.021860424,-0.51221198,0.74797738,0.65504062,-0.10701282,0
-0.56150842,-0.42010888,-2.9454489,-0.12542501,-0.018828698,-0.99192441,0
-0.56104916,0.2313323,-2.9578726,-0.12542501,-0.018828698,-0.99192441,0
-0.049445964,0.2662124,-3.0232251,-0.12542501,-0.018828698,-0.99192441,0
0.15306394,0.37148345,2.998018,0.12542501,0.018828698,0.99192441,0
0.18869072,0.23169394,-1.9352328,0.74797738,0.65504062,-0.10701282,0
0.06016241,-0.6494357,1.1175613,-0.74797738,-0.65504062,0.10701282,0
0.288515,-0.10233493,2.9898849,0.12542501,0.018828698,0.99192441,0
0.71386331,0.053447694,2.9331443,0.12542501,0.018828698,0.99192441,0
-0.20552205,0.3499229,1.494386,-0.6517657,0.75535905,0.068075024,0
0.053437293,-0.47803298,2.119736,-0.74797738,-0.65504062,0.10701282,0
0.85438687,0.23384863,2.7309093,0.74797738,0.65504062,-0.10701282,0
-0.30021152,0.39006957,0.14234118,-0.6517657,0.75535905,0.068075024,0
-0.50243771,-0.19894943,-0.057300806,-0.74797738,-0.65504062,0.10701282,0
-0.43320578,-0.73530376,-2.8564982,-0.74797738,-0.65504062,0.10701282,0
-0.6633231,-0.39182991,-2.9331117,-0.12542501,-0.018828698,-0.99192441,0
0.2844356,-0.4046917,-0.13113609,0.6517657,-0.75535905,-0.068075024,0
-0.076808289,-0.36476099,1.9027245,-0.74797738,-0.65504062,0.10701282,0
0.69475865,0.42410296,2.928524,0.12542501,0.018828698,0.99192441,0
-0.074761711,0.33414093,2.9214315,-0.6517657,0.75535905,0.068075024,0
-0.77827889,0.1284723,-1.5321064,-0.6517657,0.75535905,0.068075024,0
0.46075514,0.26295128,0.15772077,0.74797738,0.65504062,-0.10701282,0
0.29430521,-0.60906726,2.9987714,0.12542501,0.018828698,0.99192441,0
0.58900905,0.30052271,1.2841449,0.74797738,0.65504062,-0.10701282,0
0.64097214,0.27229184,1.4745415,0.74797738,0.65504062,-0.10701282,0
-0.032907538,0.12130506,3.0262823,0.12542501,0.018828698,0.99192441,0
0.33846426,-0.2673353,2.986701,0.12542501,0.018828698,0.99192441,0
0.60723096,0.50388277,2.9380772,0.12542501,0.018828698,0.99192441,0
-0.018467113,-0.065185711,3.0279965,0.12542501,0.018828698,0.99192441,0
-0.030153975,-0.39090884,-3.0131907,-0.12542501,-0.018828698,-0.99192441,0
-0.012493894,-0.15533707,-3.0198956,-0.12542501,-0.018828698,-0.99192441,0
0.48712793,0.27859873,2.9575403,0.12542501,0.018828698,0.99192441,0
-0.27430055,0.15819994,-2.9927428,-0.12542501,-0.018828698,-0.99192441,0
-0.88856673,0.14425524,-2.7631543,-0.6517657,0.75535905,0.068075024,0
-0.53537846,-0.31071094,-2.9508295,-0.12542501,-0.018828698,-0.99192441,0
0.66874814,0.12812477,0.78621799,0.74797738,0.65504062,-0.10701282,0
0.2287574,0.46145812,2.9867392,0.12542501,0.018828698,0.99192441,0
-0.56224167,0.27482665,-2.9585474,-0.12542501,-0.018828698,-0.99192441,0
-0.086411439,0.3038739,3.0295823,0.12542501,0.018828698,0.99192441,0
-0.41944894,-0.23944137,0.27490082,-0.74797738,-0.65504062,0.10701282,0
0.43147352,-0.14759682,-1.5760814,0.6517657,-0.75535905,-0.068075024,0
0.61783105,-0.38322392,2.8226604,0.6517657,-0.75535905,-0.068075024,0
-0.53472251,0.066103742,-2.958065,-0.12542501,-0.018828698,-0.99192441,0
0.14794379,0.41699758,2.9978018,0.12542501,0.018828698,0.99192441,0
-0.030253034,-0.48993793,-2.1981456,0.6517657,-0.75535905,-0.068075024,0
-0.051528409,0.67178285,-0.92042309,0.74797738,0.65504062,-0.10701282,0
-0.13507162,-0.50975746,-2.9817858,0.6517657,-0.75535905,-0.068075024,0
-0.034965515,-0.64289194,0.49270973,-0.74797738,-0.65504062,0.10701282,0
0.079509869,0.31235564,3.0084412,0.12542501,0.018828698,0.99192441,0
0.36307457,0.045125641,2.977658,0.12542501,0.018828698,0.99192441,0
0.27823961,-0.36199009,-0.66427428,0.6517657,-0.75535905,-0.068075024,0
-0.35973969,0.36100629,-2.9857891,-0.12542501,-0.018828698,-0.99192441,0
0.24238791,-0.32181162,-1.4533457,0.6517657,-0.75535905,-0.068075024,0
0.24246809,-0.62918365,1.9580146,0.6517657,-0.75535905,-0.068075024,0
-0.5239746,0.35793871,-1.6434931,-0.6517657,0.75535905,0.068075024,0
-0.53077984,-0.44447121,-1.7582749,-0.74797738,-0.65504062,0.10701282,0
-0.12464894,0.27126271,-3.0138116,-0.12542501,-0.018828698,-0.99192441,0
0.31005529,-0.47437632,0.88737106,0.6517657,-0.75535905,-0.068075024,0
-0.0086530745,0.37084714,-2.4628115,0.74797738,0.65504062,-0.10701282,0
0.62728959,0.37751275,2.9379396,0.12542501,0.018828698,0.99192441,0
0.79103833,-0.086345449,2.9260392,0.12542501,0.018828698,0.99192441,0
0.49005818,0.59228832,2.3784564,0.74797738,0.65504062,-0.10701282,0
-0.14525813,0.18738633,-3.0096138,-0.12542501,-0.018828698,-0.99192441,0
-0.35730314,-0.25718513,0.60066324,-0.74797738,-0.65504062,0.10701282,0
-0.31210482,-0.51822197,-2.9751227,-0.12542501,-0.018828698,-0.99192441,0
0.036627218,-0.24101587,3.0243676,0.12542501,0.018828698,0.99192441,0
0.02781583,-0.58788741,-0.55533648,0.6517657,-0.75535905,-0.068075024,0
-0.64264411,0.019426838,-2.9435329,-0.12542501,-0.018828698,-0.99192441,0
0.53732955,-0.0083181858,-0.96753335,0.74797738,0.65504062,-0.10701282,0
0.28772923,-0.27639833,-1.5231427,0.6517657,-0.75535905,-0.068075024,0
0.30344844,0.62307096,2.974227,0.12542501,0.018828698,0.99192441,0
0.68350524,0.23010185,1.5135798,0.74797738,0.65504062,-0.10701282,0
0.35266787,0.45212188,0.56017363,0.74797738,0.65504062,-0.10701282,0
-0.76647151,0.166086,-1.8364207,-0.6517657,0.75535905,0.068075024,0
-0.27580839,0.46173802,-0.41924939,-0.6517657,0.75535905,0.068075024,0
-0.24399222,-0.50551826,-0.12742063,-0.74797738,-0.65504062,0.10701282,0
0.14728755,-0.62549222,1.0057752,0.6517657,-0.75535905,-0.068075024,0
-0.061216541,-0.42450958,-3.0086253,-0.12542501,-0.018828698,-0.99192441,0
-0.59167081,0.36767638,-2.3996806,-0.6517657,0.75535905,0.068075024,0
-0.41077945,0.29685289,-2.9781175,-0.12542501,-0.018828698,-0.99192441,0
-0.29617274,0.34578389,0.67240232,-0.6517657,0.75535905,0.068075024,0
0.8475098,0.20965123,2.5347261,0.74797738,0.65504062,-0.10701282,0
-0.032587886,-0.18592435,3.032074,0.12542501,0.018828698,0.99192441,0
0.027251992,0.17415905,3.0176721,0.12542501,0.018828698,0.99192441,0
0.16637324,-0.18005921,3.0068045,0.12542501,0.018828698,0.99192441,0
-0.7741639,-0.10158668,-2.9246056,-0.12542501,-0.018828698,-0.99192441,0
-0.2297416,-0.17791396,1.9774981,-0.74797738,-0.65504062,0.10701282,0
0.21970901,-0.37218374,-1.1115512,0.6517657,-0.75535905,-0.068075024,0
-0.8732152,0.005284965,-2.9141097,-0.12542501,-0.018828698,-0.99192441,0
-0.70103061,-0.2339513,-2.9313405,-0.12542501,-0.018828698,-0.99192441,0
0.097051874,0.16935953,-2.9573095,0.74797738,0.65504062,-0.10701282,0
-0.43293729,0.39740533,-1.209803,-0.6517657,0.75535905,0.068075024,0
0.51785213,-0.056167766,2.9600098,0.12542501,0.018828698,0.99192441,0
-0.75994766,-0.21598662,-2.9242318,-0.12542501,-0.018828698,-0.99192441,0
-0.36498994,-0.024850044,1.9690917,-0.74797738,-0.65504062,0.10701282,0
0.29768723,-0.62797308,2.909142,-0.74797738,-0.65504062,0.10701282,0
0.35940951,0.47756824,0.76305568,0.74797738,0.65504062,-0.10701282,0
0.45097637,-0.09046571,-2.0232823,0.6517657,-0.75535905,-0.068075024,0
-0.57946533,0.24471489,-0.91844553,-0.6517657,0.75535905,0.068075024,0
-0.16092193,0.5369398,-0.15373807,-0.6517657,0.75535905,0.068075024,0
0.5009414,0.61158895,2.9494727,0.12542501,0.018828698,0.99192441,0
0.6476534,0.16446465,2.9394088,0.12542501,0.018828698,0.99192441,0
0.6786449,-0.30683756,2.5573246,0.6517657,-0.75535905,-0.068075024,0
-0.3919144,0.57157618,-2.7496364,-0.6517657,0.75535905,0.068075024,0
-0.37684029,0.11888801,2.4177046,-0.6517657,0.75535905,0.068075024,0
0.22047082,0.47949341,2.9874446,0.12542501,0.018828698,0.99192441,0
0.020811923,-0.68626803,0.61706114,-0.74797738,-0.65504062,0.10701282,0
0.076872751,-0.079900183,3.0162203,0.12542501,0.018828698,0.99192441,0
-0.17154583,-0.14835423,2.5652027,-0.74797738,-0.65504062,0.10701282,0
-0.5428232,0.096045196,1.0820109,-0.6517657,0.75535905,0.068075024,0
0.78720975,-0.043302596,0.672571,0.6517657,-0.75535905,-0.068075024,0
0.021784902,0.16628581,-3.0303349,-0.12542501,-0.018828698,-0.99192441,0
-0.21857069,0.23243983,2.6730449,-0.6517657,0.75535905,0.068075024,0
0.42910922,0.57255632,1.8316644,0.74797738,0.65504062,-0.10701282,0
0.95296746,-0.020106971,2.0021944,0.6517657,-0.75535905,-0.068075024,0
-0.032185875,-0.69680721,0.078765661,0.6517657,-0.75535905,-0.068075024,0
-0.04718931,-0.68633741,0.14133464,-0.74797738,-0.65504062,0.10701282,0
-0.047751151,0.51061207,1.2219164,-0.6517657,0.75535905,0.068075024,0
-0.45919478,-0.3499572,-0.67938995,-0.74797738,-0.65504062,0.10701282,0
0.53902376,0.090389624,2.9545507,0.12542501,0.018828698,0.99192441,0
-0.5632689,0.22081016,-0.4981308,-0.6517657,0.75535905,0.068075024,0
0.65207678,0.10714784,2.9399376,0.12542501,0.018828698,0.99192441,0
0.42188418,0.17439446,2.967768,0.12542501,0.018828698,0.99192441,0
0.42096928,-0.12147677,2.9734998,0.12542501,0.018828698,0.99192441,0
0.012921665,-0.55436617,-1.0698872,0.6517657,-0.75535905,-0.068075024,0
0.57184279,-0.070930816,-1.0828384,0.6517657,-0.75535905,-0.068075024,0
-0.58446532,-0.22676718,-0.8009181,-0.74797738,-0.65504062,0.10701282,0
-1.0026513,-0.06918405,-2.7592845,-0.74797738,-0.65504062,0.10701282,0
-0.18430378,0.12668553,-3.0035243,-0.12542501,-0.018828698,-0.99192441,0
-0.65757978,-0.33620146,-1.9818218,-0.74797738,-0.65504062,0.10701282,0
-0.73683488,0.028171986,-0.30540216,-0.74797738,-0.65504062,0.10701282,0
-0.90572035,0.045990318,-1.837041,-0.6517657,0.75535905,0.068075024,0
-0.090734541,0.4254044,1.7558465,-0.6517657,0.75535905,0.068075024,0
0.43031824,-0.12612087,-1.8254391,0.6517657,-0.75535905,-0.068075024,0
0.14283749,-0.19059385,3.0099807,0.12542501,0.018828698,0.99192441,0
-0.54967588,0.20081551,-0.14612837,-0.6517657,0.75535905,0.068075024,0
0.86498624,-0.019323096,2.9154167,0.12542501,0.018828698,0.99192441,0
-0.35615396,0.60591298,-2.7882583,-0.6517657,0.75535905,0.068075024,0
-0.30333045,-0.11382533,1.8554369,-0.74797738,-0.65504062,0.10701282,0
-0.12920126,0.63742244,-0.9649899,-0.6517657,0.75535905,0.068075024,0
0.22040312,0.32868549,-1.1198767,0.74797738,0.65504062,-0.10701282,0
0.25717217,-0.36672908,-0.81339461,0.6517657,-0.75535905,-0.068075024,0
0.27331278,0.68801141,2.3274357,-0.6517657,0.75535905,0.068075024,0
-0.34390777,-0.040001918,2.023701,-0.74797738,-0.65504062,0.10701282,0
0.25745517,-0.57943767,2.9250274,-0.74797738,-0.65504062,0.10701282,0
0.25011969,-0.2928575,-1.7005947,0.6517657,-0.75535905,-0.068075024,0
-0.77698636,-0.30820119,-2.6450336,-0.74797738,-0.65504062,0.10701282,0
0.33973873,0.65360284,2.9690588,0.12542501,0.018828698,0.99192441,0
0.75664878,0.093305245,1.1874732,0.74797738,0.65504062,-0.10701282,0
-0.11887868,0.35006392,-3.0160372,-0.12542501,-0.018828698,-0.99192441,0
-0.155582,0.61121947,-2.0184333,0.74797738,0.65504062,-0.10701282,0
-0.64215553,-0.018589497,-2.942873,-0.12542501,-0.018828698,-0.99192441,0
-0.15138897,0.28659683,-3.0107217,-0.12542501,-0.018828698,-0.99192441,0
-0.54863828,0.21433195,-0.28617182,-0.6517657,0.75535905,0.068075024,0
-0.15152603,0.18745683,-3.0088224,-0.12542501,-0.018828698,-0.99192441,0
0.38652387,-0.16772287,-1.7831212,0.6517657,-0.75535905,-0.068075024,0
-0.18985604,0.32953379,1.870613,-0.6517657,0.75535905,0.068075024,0
0.82648021,-0.032574177,0.9295125,0.6517657,-0.75535905,-0.068075024,0
0.037337687,0.51611114,1.9755584,-0.6517657,0.75535905,0.068075024,0
0.098849133,-0.58771217,1.7657851,-0.74797738,-0.65504062,0.10701282,0
0.54012311,0.4888511,2.9468482,0.12542501,0.018828698,0.99192441,0
0.33669689,-0.082164824,-2.8219018,0.74797738,0.65504062,-0.10701282,0
-0.054070964,-0.26783758,2.6549315,-0.74797738,-0.65504062,0.10701282,0
-0.85808718,-0.064386837,-1.7194738,-0.74797738,-0.65504062,0.10701282,0
-0.3271746,-0.69241124,-2.7943006,0.6517657,-0.75535905,-0.068075024,0
0.47292086,-0.46684581,2.3631251,0.6517657,-0.75535905,-0.068075024,0
-0.68350083,-0.19267051,-1.2844267,-0.74797738,-0.65504062,0.10701282,0
0.28335541,-0.32970691,2.9948533,0.12542501,0.018828698,0.99192441,0
-0.12790583,-0.19429246,2.589035,-0.74797738,-0.65504062,0.10701282,0
0.87476653,-0.12151672,2.9161196,0.12542501,0.018828698,0.99192441,0
0.69777614,-0.29524249,2.6118331,0.6517657,-0.75535905,-0.068075024,0
0.7288208,0.38111377,2.754683,0.74797738,0.65504062,-0.10701282,0
0.12834407,-0.1798681,3.0116096,0.12542501,0.018828698,0.99192441,0
0.17625299,-0.44268852,-0.74528861,0.6517657,-0.75535905,-0.068075024,0
0.60047597,0.045167122,-0.19877303,0.74797738,0.65504062,-0.10701282,0
-0.65090841,0.067533076,-2.9434011,-0.12542501,-0.018828698,-0.99192441,0
-0.59742653,-0.080992274,0.00079709198,-0.74797738,-0.65504062,0.10701282,0
0.76347083,0.036584929,0.88796329,0.74797738,0.65504062,-0.10701282,0
-0.5864808,-0.53799295,-2.9400535,-0.12542501,-0.018828698,-0.99192441,0
-0.45965514,0.51261169,-2.7439327,-0.6517657,0.75535905,0.068075024,0
0.1994967,0.01757244,2.9988649,0.12542501,0.018828698,0.99192441,0
-0.009128958,0.36543825,-2.4992461,0.74797738,0.65504062,-0.10701282,0
0.86059338,0.14070475,2.9129343,0.12542501,0.018828698,0.99192441,0
-0.7282958,-0.14557636,-2.9295707,-0.12542501,-0.018828698,-0.99192441,0
-0.4782885,0.24472651,-2.9685917,-0.12542501,-0.018828698,-0.99192441,0
0.38652486,-0.015200871,-2.0637281,0.74797738,0.65504062,-0.10701282,0
0.76544046,0.36160341,2.8912146,0.74797738,0.65504062,-0.10701282,0
-0.92287195,0.081163689,-2.3915367,-0.6517657,0.75535905,0.068075024,0
0.2844758,-0.54225081,2.9987462,0.12542501,0.018828698,0.99192441,0
0.25488368,0.67072856,2.342761,-0.6517657,0.75535905,0.068075024,0
0.31946874,-0.23834307,-1.6415218,0.6517657,-0.75535905,-0.068075024,0
-0.53985935,0.25963527,-2.9610891,-0.12542501,-0.018828698,-0.99192441,0
-0.64264679,0.06903185,-2.9444742,-0.12542501,-0.018828698,-0.99192441,0
0.20781021,0.49769169,2.9887002,0.12542501,0.018828698,0.99192441,0
-0.2101213,-0.45420492,0.42342031,-0.74797738,-0.65504062,0.10701282,0
0.41927347,-0.38342184,0.92382199,0.6517657,-0.75535905,-0.068075024,0
0.17519037,0.19475654,-2.2556942,0.74797738,0.65504062,-0.10701282,0
-0.002104722,-0.060125206,-3.0230167,-0.12542501,-0.018828698,-0.99192441,0
-0.22555758,0.58193767,-1.2718697,-0.6517657,0.75535905,0.068075024,0
-0.39028254,-0.51149797,-2.9653652,-0.12542501,-0.018828698,-0.99192441,0
0.15224367,0.42341813,2.9971361,0.12542501,0.018828698,0.99192441,0
0.39965525,0.087277606,2.9722323,0.12542501,0.018828698,0.99192441,0
0.6872533,-0.27276325,2.2616558,0.6517657,-0.75535905,-0.068075024,0
0.15516618,0.6294198,0.2649802,0.74797738,0.65504062,-0.10701282,0
-0.35179943,0.4578914,-2.988632,-0.12542501,-0.018828698,-0.99192441,0
0.28825521,-0.32069439,-1.0265986,0.6517657,-0.75535905,-0.068075024,0
0.5181269,-0.32654899,1.2392073,0.6517657,-0.75535905,-0.068075024,0
0.39680377,0.29833609,-0.072679006,0.74797738,0.65504062,-0.10701282,0
