-3.8168986,1.3352215,2.9831519,-0.75612891,0.1732851,0.6310637,0
-2.0565982,0.95993888,1.5047184,-0.28247136,0.78343076,-0.55357587,0
-4.1176615,0.73420501,2.787818,-0.75612891,0.1732851,0.6310637,0
-3.8483977,0.9696964,3.0457804,-0.75612891,0.1732851,0.6310637,0
-4.0017409,1.1134638,2.8225703,-0.75612891,0.1732851,0.6310637,0
2.8463781,-1.3582354,-2.4713931,0.28247136,-0.78343076,0.55357587,0
-0.45478308,-0.42307305,0.53653848,0.28247136,-0.78343076,0.55357587,0
-2.7155585,0.12891066,2.4713147,0.28247136,-0.78343076,0.55357587,0
3.6305764,-0.58165443,-3.4133229,0.75612891,-0.1732851,-0.6310637,0
0.57479292,0.42783669,-0.17418927,0.59032112,0.5968321,0.54342651,0
2.736794,-1.3517109,-2.4062428,0.28247136,-0.78343076,0.55357587,0
3.516412,-0.81889248,-3.4849691,0.75612891,-0.1732851,-0.6310637,0
-2.2358346,1.223556,2.0050602,0.59032112,0.5968321,0.54342651,0
1.9183564,0.049975097,-1.2186985,0.59032112,0.5968321,0.54342651,0
-1.1265997,-0.20491257,0.52878171,-0.59032112,-0.5968321,-0.54342651,0
3.5741529,-0.92379785,-3.3869786,0.75612891,-0.1732851,-0.6310637,0
-4.1000338,0.98418355,2.7402964,-0.75612891,0.1732851,0.6310637,0
1.9978803,0.013902575,-1.9029953,-0.28247136,0.78343076,-0.55357587,0
-1.0144743,0.6553542,1.3023456,0.59032112,0.5968321,0.54342651,0
0.76445335,0.16085523,-0.086997077,0.59032112,0.5968321,0.54342651,0
3.9082069,-0.80082589,-3.0204885,0.75612891,-0.1732851,-0.6310637,0
-0.92396462,0.85664088,0.78058386,-0.28247136,0.78343076,-0.55357587,0
-0.79214817,0.80402684,0.63886201,-0.28247136,0.78343076,-0.55357587,0
3.8551679,-1.0197872,-3.0239139,0.75612891,-0.1732851,-0.6310637,0
-0.94544399,0.83355498,1.0316448,0.59032112,0.5968321,0.54342651,0
-4.1125522,0.92533183,2.7414572,-0.75612891,0.1732851,0.6310637,0
3.9058588,-1.2473866,-2.9006801,0.75612891,-0.1732851,-0.6310637,0
-3.8804662,0.95660317,3.010952,-0.75612891,0.1732851,0.6310637,0
1.8022597,-0.98361009,-1.4084377,0.28247136,-0.78343076,0.55357587,0
-1.4555755,0.99777675,1.4054372,0.59032112,0.5968321,0.54342651,0
1.1439445,-0.20432112,-0.098171949,0.59032112,0.5968321,0.54342651,0
1.6090777,-0.84140575,-1.1086133,0.28247136,-0.78343076,0.55357587,0
2.9416842,-0.37011445,-1.8689598,0.59032112,0.5968321,0.54342651,0
-1.3164214,-0.2048371,1.2850554,0.28247136,-0.78343076,0.55357587,0
-0.077756196,-0.36851946,0.42135948,0.28247136,-0.78343076,0.55357587,0
-1.284016,-0.2570034,0.75699228,-0.59032112,-0.5968321,-0.54342651,0
2.7880313,-0.16019452,-2.5525684,-0.28247136,0.78343076,-0.55357587,0
-0.16421917,0.76018745,0.25640824,-0.28247136,0.78343076,-0.55357587,0
-3.8178265,1.0995628,3.0467503,-0.75612891,0.1732851,0.6310637,0
-1.0578239,0.81729484,1.1715808,0.59032112,0.5968321,0.54342651,0
-1.6898177,0.00037163496,1.7660024,0.28247136,-0.78343076,0.55357587,0
2.8256204,-0.959759,-2.935463,-0.59032112,-0.5968321,-0.54342651,0
0.049609967,-0.50142348,0.16828048,0.28247136,-0.78343076,0.55357587,0
-2.5934327,0.35919291,1.5026506,-0.59032112,-0.5968321,-0.54342651,0
2.1560862,-0.25104678,-1.1463382,0.59032112,0.5968321,0.54342651,0
3.8546753,-0.78881872,-3.0879266,0.75612891,-0.1732851,-0.6310637,0
2.559922,-0.012503326,-2.2271566,-0.28247136,0.78343076,-0.55357587,0
2.9852066,-0.6881057,-1.593853,0.28247136,-0.78343076,0.55357587,0
-3.6325338,1.2513208,3.2270927,-0.75612891,0.1732851,0.6310637,0
-0.51154196,0.099528,-0.47371164,-0.59032112,-0.5968321,-0.54342651,0
-3.2400229,0.62426537,3.4399662,0.28247136,-0.78343076,0.55357587,0
0.052814215,0.050418757,0.80734217,0.59032112,0.5968321,0.54342651,0
-2.5804,0.31972611,2.6723933,0.28247136,-0.78343076,0.55357587,0
-0.63928854,0.3705408,-0.052614748,-0.28247136,0.78343076,-0.55357587,0
3.7839742,-0.45649689,-3.2638922,0.75612891,-0.1732851,-0.6310637,0
0.21822329,0.37796795,0.2679199,0.59032112,0.5968321,0.54342651,0
1.1468779,-0.17796156,-1.7402868,-0.28247136,0.78343076,-0.55357587,0
1.2428877,-0.44293213,-1.7837677,-0.59032112,-0.5968321,-0.54342651,0
2.2723429,-0.53077662,-2.8055816,-0.59032112,-0.5968321,-0.54342651,0
2.9898167,0.0076576471,-2.3361433,0.59032112,0.5968321,0.54342651,0
3.7003014,-0.46025199,-3.363116,0.75612891,-0.1732851,-0.6310637,0
3.6502709,-0.14872503,-2.9763088,-0.28247136,0.78343076,-0.55357587,0
-0.83640754,0.48567748,1.2952645,0.59032112,0.5968321,0.54342651,0
-3.2051842,0.99206239,3.3123031,0.59032112,0.5968321,0.54342651,0
-1.3618912,-0.34475699,0.93796515,-0.59032112,-0.5968321,-0.54342651,0
1.8544793,-1.0756993,-1.5654103,0.28247136,-0.78343076,0.55357587,0
0.92675221,0.22844222,-1.0528138,-0.28247136,0.78343076,-0.55357587,0
-3.8098993,0.46997046,3.2291293,-0.75612891,0.1732851,0.6310637,0
2.4410737,-1.196492,-2.2577343,-0.59032112,-0.5968321,-0.54342651,0
3.9977014,-1.0671984,-2.8401141,0.75612891,-0.1732851,-0.6310637,0
-1.4244374,0.86646152,1.0498567,-0.28247136,0.78343076,-0.55357587,0
-1.4168915,0.1648103,0.4380663,-0.59032112,-0.5968321,-0.54342651,0
3.282943,-0.48471975,-3.2643797,-0.28247136,0.78343076,-0.55357587,0
4.0087008,-0.75735974,-2.912014,0.75612891,-0.1732851,-0.6310637,0
-3.5744295,1.0553577,3.350522,-0.75612891,0.1732851,0.6310637,0
-0.63897735,0.67382079,0.37643391,-0.28247136,0.78343076,-0.55357587,0
-3.9156225,0.40395397,3.1205812,-0.75612891,0.1732851,0.6310637,0
0.19032182,0.5512557,-0.22018629,-0.28247136,0.78343076,-0.55357587,0
-3.6307592,1.1293466,3.2627122,-0.75612891,0.1732851,0.6310637,0
1.8091767,0.25886679,-1.3295176,0.59032112,0.5968321,0.54342651,0
3.9355478,-0.76701117,-2.512686,0.59032112,0.5968321,0.54342651,0
-2.6626906,0.16147292,1.7950358,-0.59032112,-0.5968321,-0.54342651,0
-3.6198347,0.69991589,3.3937201,-0.75612891,0.1732851,0.6310637,0
3.4682543,-0.42182457,-3.2699275,-0.28247136,0.78343076,-0.55357587,0
-2.6864755,0.16904467,2.5132728,0.28247136,-0.78343076,0.55357587,0
-3.5716472,1.1784135,3.320066,-0.75612891,0.1732851,0.6310637,0
-3.7483571,1.1338357,3.1205759,-0.75612891,0.1732851,0.6310637,0
-0.6888597,-0.001281932,-0.1703753,-0.59032112,-0.5968321,-0.54342651,0
-3.9890561,0.49009597,3.0089405,-0.75612891,0.1732851,0.6310637,0
1.5823698,0.0039987266,-1.7049901,-0.28247136,0.78343076,-0.55357587,0
0.19974683,-0.73237455,-0.33272231,-0.59032112,-0.5968321,-0.54342651,0
-2.8087435,0.84710956,1.7288347,-0.28247136,0.78343076,-0.55357587,0
-0.050409466,0.12027337,-0.7072832,-0.28247136,0.78343076,-0.55357587,0
-4.0264482,0.96413577,2.5158067,-0.28247136,0.78343076,-0.55357587,0
0.79759336,-0.64943439,-1.0732508,-0.59032112,-0.5968321,-0.54342651,0
1.6237223,-0.99970549,-1.585976,-0.59032112,-0.5968321,-0.54342651,0
3.6597066,-0.54014176,-3.3898187,0.75612891,-0.1732851,-0.6310637,0
-1.7371578,-0.29081354,1.2863704,-0.59032112,-0.5968321,-0.54342651,0
3.4575908,-0.89338678,-3.5349917,0.75612891,-0.1732851,-0.6310637,0
1.8612148,-0.61956173,-0.92331278,0.28247136,-0.78343076,0.55357587,0
1.1256297,0.21214049,-1.1773648,-0.28247136,0.78343076,-0.55357587,0
-1.3177402,0.012074441,0.49810493,-0.59032112,-0.5968321,-0.54342651,0
-2.3980782,0.81961769,1.4803791,-0.28247136,0.78343076,-0.55357587,0
-2.3417795,0.78935236,2.5970225,0.59032112,0.5968321,0.54342651,0
1.9161457,-0.2038357,-2.169436,-0.28247136,0.78343076,-0.55357587,0
-3.925308,0.56064767,3.0659494,-0.75612891,0.1732851,0.6310637,0
3.7598724,-0.51680779,-3.2762094,0.75612891,-0.1732851,-0.6310637,0
3.8439853,-0.37750214,-3.2136788,0.75612891,-0.1732851,-0.6310637,0
-3.8001137,1.2343142,2.7826777,-0.28247136,0.78343076,-0.55357587,0
-1.4234443,0.0098693669,1.6435221,0.28247136,-0.78343076,0.55357587,0
1.4057376,-0.39984316,-0.37994802,0.28247136,-0.78343076,0.55357587,0
-3.8852284,0.6407063,2.5967414,-0.59032112,-0.5968321,-0.54342651,0
3.6912704,-1.1205995,-3.1926105,0.75612891,-0.1732851,-0.6310637,0
-1.0915337,0.50832844,1.5475297,0.59032112,0.5968321,0.54342651,0
3.8599386,-1.2998576,-2.9412923,0.75612891,-0.1732851,-0.6310637,0
2.5749216,-0.71541137,-1.4231416,0.28247136,-0.78343076,0.55357587,0
-2.2273264,0.87272519,2.3811266,0.59032112,0.5968321,0.54342651,0
-4.0601134,0.72421908,2.8595128,-0.75612891,0.1732851,0.6310637,0
2.4813123,-1.0126529,-2.5033512,-0.59032112,-0.5968321,-0.54342651,0
-1.1764128,0.61698455,1.5203991,0.59032112,0.5968321,0.54342651,0
-0.41005874,0.70923173,0.58660012,0.59032112,0.5968321,0.54342651,0
2.1278884,-0.80034983,-1.3152422,0.28247136,-0.78343076,0.55357587,0
0.25203982,-0.11547898,0.61118311,0.28247136,-0.78343076,0.55357587,0
-2.3555474,0.58191299,2.8398042,0.59032112,0.5968321,0.54342651,0
1.5597075,-1.053333,-1.4575388,-0.59032112,-0.5968321,-0.54342651,0
2.7984769,-0.46677327,-2.9917746,-0.28247136,0.78343076,-0.55357587,0
3.9362805,-0.61686802,-3.037365,0.75612891,-0.1732851,-0.6310637,0
-1.3587599,-0.26105836,1.2270941,0.28247136,-0.78343076,0.55357587,0
3.4198489,-1.1354892,-2.4487824,0.28247136,-0.78343076,0.55357587,0
0.0044188052,-0.14353096,0.69783616,0.28247136,-0.78343076,0.55357587,0
0.87923008,0.37270856,-0.82439649,-0.28247136,0.78343076,-0.55357587,0
3.4485605,-0.71932012,-3.5936093,0.75612891,-0.1732851,-0.6310637,0
-2.9014494,1.0114269,2.0086846,-0.28247136,0.78343076,-0.55357587,0
-3.3205547,0.14917135,2.523181,-0.59032112,-0.5968321,-0.54342651,0
3.6657979,-0.49724483,-3.3942995,0.75612891,-0.1732851,-0.6310637,0
2.6379418,-0.66603231,-1.3854167,0.28247136,-0.78343076,0.55357587,0
3.5868974,-0.46697736,-3.3943682,-0.28247136,0.78343076,-0.55357587,0
2.538213,-0.63706481,-1.2935331,0.28247136,-0.78343076,0.55357587,0
-1.2900052,0.27859661,1.9557405,0.28247136,-0.78343076,0.55357587,0
-0.36422235,-0.52926362,0.056842394,-0.59032112,-0.5968321,-0.54342651,0
1.8202435,-0.38055801,-0.63927501,0.59032112,0.5968321,0.54342651,0
0.52758121,0.24996582,0.072447814,0.59032112,0.5968321,0.54342651,0
-3.6279263,0.25985873,2.7355113,-0.59032112,-0.5968321,-0.54342651,0
2.6747448,-1.0229399,-2.7021775,-0.59032112,-0.5968321,-0.54342651,0
-1.1222626,0.63937414,0.57428867,-0.28247136,0.78343076,-0.55357587,0
-0.70192987,0.07889764,-0.24423653,-0.59032112,-0.5968321,-0.54342651,0
3.583179,-1.2896769,-2.7503328,0.28247136,-0.78343076,0.55357587,0
-3.6550026,0.39450407,2.6170466,-0.59032112,-0.5968321,-0.54342651,0
-3.3299162,0.11698413,2.5687006,-0.59032112,-0.5968321,-0.54342651,0
3.6054504,-0.89643103,-2.2051687,0.28247136,-0.78343076,0.55357587,0
2.8931417,-1.22668,-2.3090758,0.28247136,-0.78343076,0.55357587,0
-1.3326511,0.25186744,0.25094393,-0.59032112,-0.5968321,-0.54342651,0
-2.8567038,0.36078787,1.7868892,-0.59032112,-0.5968321,-0.54342651,0
-3.9354107,0.46828866,3.0792055,-0.75612891,0.1732851,0.6310637,0
-2.6225851,0.28656518,1.6140839,-0.59032112,-0.5968321,-0.54342651,0
-1.0979571,0.23482572,1.7957993,0.28247136,-0.78343076,0.55357587,0
3.2900834,-0.34666002,-3.0726385,-0.28247136,0.78343076,-0.55357587,0
0.36905712,-0.68574011,-0.25557104,0.28247136,-0.78343076,0.55357587,0
0.01896885,-0.005493708,0.8857646,0.28247136,-0.78343076,0.55357587,0
0.077847645,-0.35902169,-0.61034834,-0.59032112,-0.5968321,-0.54342651,0
-1.0864602,-0.035741717,1.4070208,0.28247136,-0.78343076,0.55357587,0
4.0370402,-0.49478054,-2.95016,0.75612891,-0.1732851,-0.6310637,0
2.4263794,0.051764727,-1.7725269,0.59032112,0.5968321,0.54342651,0
1.1870471,0.18950662,-1.240736,-0.28247136,0.78343076,-0.55357587,0
-2.9054956,0.34480071,2.873765,0.28247136,-0.78343076,0.55357587,0
-2.4258528,0.63248891,2.8606303,0.59032112,0.5968321,0.54342651,0
3.6091933,-1.1034119,-3.2956734,0.75612891,-0.1732851,-0.6310637,0
-3.9309299,0.83225751,2.984632,-0.75612891,0.1732851,0.6310637,0
-0.97366428,0.48258805,0.27657738,-0.28247136,0.78343076,-0.55357587,0
2.5156841,-1.0540757,-2.4951949,-0.59032112,-0.5968321,-0.54342651,0
-2.0508661,0.03127867,1.2734039,-0.59032112,-0.5968321,-0.54342651,0
-3.8033128,1.0793622,3.0696869,-0.75612891,0.1732851,0.6310637,0
-0.68580192,-0.31208217,0.16764736,-0.59032112,-0.5968321,-0.54342651,0
-3.4111891,0.91563809,3.5844793,-0.75612891,0.1732851,0.6310637,0
-1.5172023,0.26574957,2.0534902,0.28247136,-0.78343076,0.55357587,0
3.7314248,-0.54621965,-3.3022187,0.75612891,-0.1732851,-0.6310637,0
4.0034089,-0.9210366,-2.4430559,0.28247136,-0.78343076,0.55357587,0
-3.7661028,0.69436312,3.2199888,-0.75612891,0.1732851,0.6310637,0
-1.6634705,0.62356722,0.82807893,-0.28247136,0.78343076,-0.55357587,0
4.0857325,-1.0564361,-2.7375922,0.75612891,-0.1732851,-0.6310637,0
0.48438677,0.39226612,-0.5952428,-0.28247136,0.78343076,-0.55357587,0
3.5035815,-0.61227119,-3.5570788,0.75612891,-0.1732851,-0.6310637,0
3.7906747,-1.0100112,-3.1038728,0.75612891,-0.1732851,-0.6310637,0
1.5706612,-0.47614256,-0.57208335,0.28247136,-0.78343076,0.55357587,0
2.3206174,-0.85360628,-1.4889548,0.28247136,-0.78343076,0.55357587,0
3.5060968,-0.82543248,-3.4955325,0.75612891,-0.1732851,-0.6310637,0
-1.9005172,0.20697531,2.1659048,0.28247136,-0.78343076,0.55357587,0
3.9292781,-1.0101238,-2.9377699,0.75612891,-0.1732851,-0.6310637,0
-3.9927163,0.72170496,2.9409571,-0.75612891,0.1732851,0.6310637,0
1.1037987,-0.74179953,-0.70982176,0.28247136,-0.78343076,0.55357587,0
3.6256938,-0.38697207,-2.5934808,0.59032112,0.5968321,0.54342651,0
0.9893136,-0.4996559,-1.4460135,-0.59032112,-0.5968321,-0.54342651,0
-2.2848914,0.78884912,1.3790793,-0.28247136,0.78343076,-0.55357587,0
3.8513393,-0.68206507,-3.121237,0.75612891,-0.1732851,-0.6310637,0
2.2556658,-0.40228572,-2.6235318,-0.28247136,0.78343076,-0.55357587,0
0.98218536,-0.6557079,-1.2668819,-0.59032112,-0.5968321,-0.54342651,0
-3.6427059,0.48532468,3.4252415,-0.75612891,0.1732851,0.6310637,0
-1.3360956,0.02516076,0.503672,-0.59032112,-0.5968321,-0.54342651,0
-2.4788725,-0.1133045,1.8971369,-0.59032112,-0.5968321,-0.54342651,0
3.1922345,-0.5861485,-1.9038659,0.59032112,0.5968321,0.54342651,0
-2.0144482,0.71741819,1.1399908,-0.28247136,0.78343076,-0.55357587,0
0.5870291,-0.17242625,-1.3684024,-0.59032112,-0.5968321,-0.54342651,0
-3.8156159,1.0851625,3.0533528,-0.75612891,0.1732851,0.6310637,0
3.8117011,-0.93340266,-3.0997157,0.75612891,-0.1732851,-0.6310637,0
-0.34708345,0.6608808,0.57129312,0.59032112,0.5968321,0.54342651,0
-3.9146681,1.1146652,2.6718016,-0.28247136,0.78343076,-0.55357587,0
0.3233695,-0.35216948,0.23981714,0.28247136,-0.78343076,0.55357587,0
2.6511538,-0.83007836,-2.8883657,-0.59032112,-0.5968321,-0.54342651,0
2.1112771,-0.48069915,-2.6608274,-0.28247136,0.78343076,-0.55357587,0
4.0526361,-0.74416697,-2.8629947,0.75612891,-0.1732851,-0.6310637,0
-1.2308654,0.38236278,1.83723,0.59032112,0.5968321,0.54342651,0
-0.98563826,0.53694654,1.4010655,0.59032112,0.5968321,0.54342651,0
1.9370811,-1.1385506,-1.6965072,0.28247136,-0.78343076,0.55357587,0
-1.4655229,0.6545462,1.7932045,0.59032112,0.5968321,0.54342651,0
-0.53944981,-0.2915048,-0.013933733,-0.59032112,-0.5968321,-0.54342651,0
-2.3873231,0.25091869,2.4764953,0.28247136,-0.78343076,0.55357587,0
0.77678859,-0.11724168,0.20503026,0.59032112,0.5968321,0.54342651,0
2.5363147,-0.16535836,-2.4314342,-0.28247136,0.78343076,-0.55357587,0
-3.5606802,0.73110968,3.4560323,-0.75612891,0.1732851,0.6310637,0
3.005425,-0.94489396,-3.1471097,-0.59032112,-0.5968321,-0.54342651,0
2.0015717,-0.66540724,-2.3635828,-0.59032112,-0.5968321,-0.54342651,0
-0.68538696,-0.18235934,0.99487054,0.28247136,-0.78343076,0.55357587,0
-3.7065639,1.1054132,3.1784563,-0.75612891,0.1732851,0.6310637,0
3.0411527,-0.25826758,-2.8205228,-0.28247136,0.78343076,-0.55357587,0
0.24664414,-0.10415852,0.6299572,0.28247136,-0.78343076,0.55357587,0
2.5977783,-0.73363358,-2.9363074,-0.59032112,-0.5968321,-0.54342651,0
-3.5771396,0.73093486,3.4363585,-0.75612891,0.1732851,0.6310637,0
-2.074508,-0.21217258,1.6615007,0.28247136,-0.78343076,0.55357587,0
0.51392078,0.25847289,0.077943943,0.59032112,0.5968321,0.54342651,0
2.4935846,-0.47507286,-2.847944,-0.28247136,0.78343076,-0.55357587,0
-2.7995245,0.0057249069,2.1147325,-0.59032112,-0.5968321,-0.54342651,0
0.57786822,-0.26562089,-1.2560976,-0.59032112,-0.5968321,-0.54342651,0
2.9200699,-0.53265554,-3.1470571,-0.28247136,0.78343076,-0.55357587,0
-1.1469985,0.84027636,1.2432106,0.59032112,0.5968321,0.54342651,0
-1.1587641,0.35241258,0.18680102,-0.28247136,0.78343076,-0.55357587,0
-3.4657106,1.1019118,3.4680037,-0.75612891,0.1732851,0.6310637,0
4.0112238,-1.0454892,-2.8298731,0.75612891,-0.1732851,-0.6310637,0
2.8834007,-0.7507332,-1.6305362,0.28247136,-0.78343076,0.55357587,0
-1.5682117,-0.23535144,1.0419325,-0.59032112,-0.5968321,-0.54342651,0
-2.1915002,0.26076078,2.390502,0.28247136,-0.78343076,0.55357587,0
-2.9894857,0.83410937,3.2514672,0.59032112,0.5968321,0.54342651,0
-3.6071703,1.3301318,3.235842,-0.75612891,0.1732851,0.6310637,0
-3.7460682,0.31945747,2.7983923,-0.59032112,-0.5968321,-0.54342651,0
-1.968707,-0.091792822,1.7778773,0.28247136,-0.78343076,0.55357587,0
-2.8893163,0.17590088,2.6264791,0.28247136,-0.78343076,0.55357587,0
-3.3156116,0.69810498,1.9149305,-0.59032112,-0.5968321,-0.54342651,0
-1.0092692,-0.044384629,0.22502238,-0.59032112,-0.5968321,-0.54342651,0
-3.7634714,0.83861023,3.183533,-0.75612891,0.1732851,0.6310637,0
-1.1204923,-0.35878557,0.96720868,0.28247136,-0.78343076,0.55357587,0
-3.8649704,0.56795084,3.1362395,-0.75612891,0.1732851,0.6310637,0
0.15056333,-0.39612126,0.26579306,0.28247136,-0.78343076,0.55357587,0
0.7808699,-0.48169342,-0.17693481,0.28247136,-0.78343076,0.55357587,0
-4.1090469,0.72762692,2.7999463,-0.75612891,0.1732851,0.6310637,0
-3.869971,1.2357295,2.9468811,-0.75612891,0.1732851,0.6310637,0
2.1341882,-0.65927947,-1.1188111,0.28247136,-0.78343076,0.55357587,0
-3.650193,0.65625399,3.3693347,-0.75612891,0.1732851,0.6310637,0
-3.6900423,1.2849035,3.1489658,-0.75612891,0.1732851,0.6310637,0
1.0514207,-0.14067885,-1.6388149,-0.28247136,0.78343076,-0.55357587,0
0.50202465,-0.35831749,0.13995461,0.28247136,-0.78343076,0.55357587,0
-2.1060698,0.3690201,0.96243834,-0.59032112,-0.5968321,-0.54342651,0
2.2844384,0.10482886,-1.6766157,0.59032112,0.5968321,0.54342651,0
-2.0694079,1.0734627,1.9891158,0.59032112,0.5968321,0.54342651,0
-2.6107526,0.99686497,1.8397435,-0.28247136,0.78343076,-0.55357587,0
0.64410716,-0.69473606,-0.85676575,-0.59032112,-0.5968321,-0.54342651,0
2.9331057,-0.16091913,-2.089395,0.59032112,0.5968321,0.54342651,0
-2.0096691,0.48555493,0.80941492,-0.28247136,0.78343076,-0.55357587,0
-3.9206581,0.73688686,3.0231271,-0.75612891,0.1732851,0.6310637,0
-0.77701354,0.24431801,1.4958245,0.59032112,0.5968321,0.54342651,0
1.1374869,-0.7307964,-1.3531173,-0.59032112,-0.5968321,-0.54342651,0
2.5204659,-1.1074543,-1.9501812,0.28247136,-0.78343076,0.55357587,0
-3.6605222,0.48771405,3.4032378,-0.75612891,0.1732851,0.6310637,0
-4.0639992,0.96109104,2.7898135,-0.75612891,0.1732851,0.6310637,0
0.43471965,-0.59286487,-0.74119204,-0.59032112,-0.5968321,-0.54342651,0
-1.2693053,-0.33477873,1.0771179,0.28247136,-0.78343076,0.55357587,0
0.6547578,-0.24346787,-1.3639524,-0.59032112,-0.5968321,-0.54342651,0
-3.5296011,1.0170788,3.4147458,-0.75612891,0.1732851,0.6310637,0
-1.4174526,-0.35748386,1.1205797,0.28247136,-0.78343076,0.55357587,0
-2.0523603,-0.22257702,1.6354746,0.28247136,-0.78343076,0.55357587,0
2.6995168,-1.0964509,-2.6483521,-0.59032112,-0.5968321,-0.54342651,0
0.74602371,-0.8177768,-0.83234453,-0.59032112,-0.5968321,-0.54342651,0
-2.7774928,1.0695065,2.0276289,-0.28247136,0.78343076,-0.55357587,0
-3.7618918,0.40123469,3.3055253,-0.75612891,0.1732851,0.6310637,0
0.5934242,-0.26478523,-1.2739137,-0.59032112,-0.5968321,-0.54342651,0
-0.3807289,0.20940061,-0.41259772,-0.28247136,0.78343076,-0.55357587,0
-3.5080698,1.0198603,3.4397805,-0.75612891,0.1732851,0.6310637,0
4.0133667,-0.88253713,-2.8720508,0.75612891,-0.1732851,-0.6310637,0
3.7524021,-1.0834758,-3.1295576,0.75612891,-0.1732851,-0.6310637,0
0.8359533,0.14222717,-1.1284952,-0.28247136,0.78343076,-0.55357587,0
-1.8233563,-0.14955592,1.2248676,-0.59032112,-0.5968321,-0.54342651,0
-2.0799234,0.69213474,2.4193418,0.59032112,0.5968321,0.54342651,0
-3.7420628,0.82259363,3.213582,-0.75612891,0.1732851,0.6310637,0
3.8895836,-0.5023241,-3.124769,0.75612891,-0.1732851,-0.6310637,0
-0.12000236,-0.020918202,0.93484807,0.28247136,-0.78343076,0.55357587,0
-1.7244289,0.0074825287,1.7937267,0.28247136,-0.78343076,0.55357587,0
3.8301237,-0.65521401,-3.1540303,0.75612891,-0.1732851,-0.6310637,0
-3.9322493,0.64096856,3.0355768,-0.75612891,0.1732851,0.6310637,0
-2.4721315,-0.037196338,1.8062265,-0.59032112,-0.5968321,-0.54342651,0
1.8095514,0.16383432,-1.5947113,-0.28247136,0.78343076,-0.55357587,0
-0.21584468,0.17748909,-0.54189444,-0.28247136,0.78343076,-0.55357587,0
-1.8396506,0.91589749,1.9125814,0.59032112,0.5968321,0.54342651,0
1.3705401,0.081659421,-1.4869938,-0.28247136,0.78343076,-0.55357587,0
3.3661611,-0.56527323,-2.1157279,0.59032112,0.5968321,0.54342651,0
3.6500785,-1.5042262,-3.1366253,0.75612891,-0.1732851,-0.6310637,0
0.052492775,-0.59286219,0.037403837,0.28247136,-0.78343076,0.55357587,0
3.0383854,-0.80022621,-1.7796633,0.28247136,-0.78343076,0.55357587,0
1.1833795,0.37080175,-0.98229241,-0.28247136,0.78343076,-0.55357587,0
-3.971626,0.69925046,2.972393,-0.75612891,0.1732851,0.6310637,0
0.94980109,-0.35823724,-1.558408,-0.59032112,-0.5968321,-0.54342651,0
0.15036587,0.55257338,0.14986813,0.59032112,0.5968321,0.54342651,0
3.8774333,-1.1041391,-2.9740739,0.75612891,-0.1732851,-0.6310637,0
3.4436545,-0.95503747,-3.5347612,0.75612891,-0.1732851,-0.6310637,0
-3.3523147,0.77923006,3.6924787,-0.75612891,0.1732851,0.6310637,0
3.5274332,-0.31223905,-2.5688181,0.59032112,0.5968321,0.54342651,0
2.1894639,-0.54116094,-0.97985286,0.28247136,-0.78343076,0.55357587,0
3.0492942,-0.019720078,-2.4870806,-0.28247136,0.78343076,-0.55357587,0
-4.0869784,0.63327551,2.8240626,-0.59032112,-0.5968321,-0.54342651,0
2.6137345,-0.83371878,-1.6103776,0.28247136,-0.78343076,0.55357587,0
3.9530931,-1.2261423,-2.8491726,0.28247136,-0.78343076,0.55357587,0
-2.0871186,0.98962152,2.1004353,0.59032112,0.5968321,0.54342651,0
-3.8270152,0.62847447,3.1650975,-0.75612891,0.1732851,0.6310637,0
1.0376533,0.3012175,-1.0064101,-0.28247136,0.78343076,-0.55357587,0
0.80553687,-0.58024001,-1.1578741,-0.59032112,-0.5968321,-0.54342651,0
3.2695298,-1.2774501,-3.0687666,-0.59032112,-0.5968321,-0.54342651,0
-3.6690557,0.20103997,3.0599313,0.28247136,-0.78343076,0.55357587,0
-2.7958856,0.9690668,2.89294,0.59032112,0.5968321,0.54342651,0
-0.39935696,0.028864443,-0.51796955,-0.59032112,-0.5968321,-0.54342651,0
2.7325721,-0.079224765,-1.9612793,0.59032112,0.5968321,0.54342651,0
-1.8602343,-0.22316879,1.3457751,-0.59032112,-0.5968321,-0.54342651,0
3.9692996,-0.75712907,-2.9592872,0.75612891,-0.1732851,-0.6310637,0
3.983711,-0.38345051,-3.0446291,0.75612891,-0.1732851,-0.6310637,0
3.6844587,-0.95815903,-3.2453768,0.75612891,-0.1732851,-0.6310637,0
-3.7885835,0.46380579,2.6860423,-0.59032112,-0.5968321,-0.54342651,0
2.2537971,-0.10229671,-1.4158494,0.59032112,0.5968321,0.54342651,0
1.1017611,0.29220492,-1.0518769,-0.28247136,0.78343076,-0.55357587,0
3.5195172,-0.80666095,-3.4846075,0.75612891,-0.1732851,-0.6310637,0
-1.4043219,0.15585434,1.8403654,0.28247136,-0.78343076,0.55357587,0
0.52032477,0.12024125,0.22280376,0.59032112,0.5968321,0.54342651,0
-0.73597074,-0.50553387,0.56331915,0.28247136,-0.78343076,0.55357587,0
1.2223858,0.31306475,-0.75161445,0.59032112,0.5968321,0.54342651,0
1.5883116,-0.091607869,-0.7046755,0.59032112,0.5968321,0.54342651,0
-3.9804118,0.84979677,2.920527,-0.75612891,0.1732851,0.6310637,0
2.7220325,-0.27714324,-2.6843996,-0.28247136,0.78343076,-0.55357587,0
3.4780006,-0.97252411,-3.4888067,0.75612891,-0.1732851,-0.6310637,0
0.43401805,0.41207629,-0.54150563,-0.28247136,0.78343076,-0.55357587,0
-1.3308346,0.52742195,0.52227932,-0.28247136,0.78343076,-0.55357587,0
4.001081,-0.74313855,-2.9250491,0.75612891,-0.1732851,-0.6310637,0
-1.5462883,0.96673644,1.5380685,0.59032112,0.5968321,0.54342651,0
-1.844129,0.44718069,2.4322267,0.59032112,0.5968321,0.54342651,0
-3.5605726,1.2137101,3.3236427,-0.75612891,0.1732851,0.6310637,0
-3.6804309,0.30569595,3.2138467,0.28247136,-0.78343076,0.55357587,0
2.3736331,-0.290254,-1.3395977,0.59032112,0.5968321,0.54342651,0
-1.4435135,1.010397,1.3784736,0.59032112,0.5968321,0.54342651,0
-2.3415976,0.89070439,1.5521621,-0.28247136,0.78343076,-0.55357587,0
-0.25381345,0.26216692,-0.40268257,-0.28247136,0.78343076,-0.55357587,0
-2.0412555,0.78944868,2.2704594,0.59032112,0.5968321,0.54342651,0
-3.8843036,0.91144621,3.018754,-0.75612891,0.1732851,0.6310637,0
-0.044069678,-0.66517752,-0.14166668,-0.59032112,-0.5968321,-0.54342651,0
-0.0793631,-0.542611,0.17580193,0.28247136,-0.78343076,0.55357587,0
4.0715671,-0.64033949,-2.8688221,0.75612891,-0.1732851,-0.6310637,0
-1.5719743,-0.31723228,1.2563918,0.28247136,-0.78343076,0.55357587,0
3.8003359,-0.50316226,-2.6555848,0.59032112,0.5968321,0.54342651,0
-3.3099864,1.2056198,3.1916041,0.59032112,0.5968321,0.54342651,0
0.32306635,0.53641671,-0.30892187,-0.28247136,0.78343076,-0.55357587,0
-1.9019873,0.98576921,1.462381,-0.28247136,0.78343076,-0.55357587,0
2.2490623,-1.1546869,-1.8785373,0.28247136,-0.78343076,0.55357587,0
-0.22333574,0.1425638,1.0061216,0.59032112,0.5968321,0.54342651,0
-0.99798632,-0.11247806,1.2532768,0.28247136,-0.78343076,0.55357587,0
-2.6167512,0.35933107,2.7469914,0.28247136,-0.78343076,0.55357587,0
-2.302691,0.96631199,2.3602109,0.59032112,0.5968321,0.54342651,0
-3.1260495,0.10525519,2.6472969,0.28247136,-0.78343076,0.55357587,0
0.95621032,-0.4338282,-0.19866544,0.28247136,-0.78343076,0.55357587,0
3.898468,-1.2600627,-2.906055,0.75612891,-0.1732851,-0.6310637,0
-3.6139655,1.4233508,3.2021029,-0.75612891,0.1732851,0.6310637,0
-1.1541319,-0.29360959,0.65610343,-0.59032112,-0.5968321,-0.54342651,0
-1.9735628,-0.2674945,1.5316989,0.28247136,-0.78343076,0.55357587,0
3.7346411,-0.52909273,-3.3030674,0.75612891,-0.1732851,-0.6310637,0
1.0828506,0.34805077,-0.63846231,0.59032112,0.5968321,0.54342651,0
3.5885179,-1.1601779,-2.569788,0.28247136,-0.78343076,0.55357587,0
-0.88831919,0.74670148,1.0649798,0.59032112,0.5968321,0.54342651,0
-2.2119055,0.074077517,2.1367164,0.28247136,-0.78343076,0.55357587,0
-3.6359711,1.0137219,3.2882171,-0.75612891,0.1732851,0.6310637,0
-3.7516606,0.2262165,2.9068716,-0.59032112,-0.5968321,-0.54342651,0
3.6497002,-0.54208207,-3.4012761,0.75612891,-0.1732851,-0.6310637,0
2.3311617,-1.0420104,-2.3080006,-0.59032112,-0.5968321,-0.54342651,0
-3.4646969,0.83063287,3.5437093,-0.75612891,0.1732851,0.6310637,0
-1.7535162,0.14572814,2.0042167,0.28247136,-0.78343076,0.55357587,0
-3.5153258,1.2221475,3.3755398,-0.75612891,0.1732851,0.6310637,0
3.3689902,-0.77355355,-1.9106121,0.28247136,-0.78343076,0.55357587,0
3.8959651,-0.36749768,-3.154145,0.75612891,-0.1732851,-0.6310637,0
2.106746,-0.056414425,-1.3065,0.59032112,0.5968321,0.54342651,0
3.5470748,-1.3897682,-3.246906,-0.59032112,-0.5968321,-0.54342651,0
2.4966717,-0.40534419,-2.7508376,-0.28247136,0.78343076,-0.55357587,0
-1.0912913,-0.26851028,0.56027424,-0.59032112,-0.5968321,-0.54342651,0
-3.3567486,0.18889409,2.5188718,-0.59032112,-0.5968321,-0.54342651,0
3.8394184,-0.49457878,-3.1870031,0.75612891,-0.1732851,-0.6310637,0
0.93605375,-0.19466874,0.11705764,0.59032112,0.5968321,0.54342651,0
0.39293844,-0.70318508,-0.57464337,-0.59032112,-0.5968321,-0.54342651,0
-3.6503234,0.9026857,3.3015099,-0.75612891,0.1732851,0.6310637,0
1.6763949,-0.92934299,-1.2674134,0.28247136,-0.78343076,0.55357587,0
-2.4244912,0.89416701,2.5717568,0.59032112,0.5968321,0.54342651,0
2.9784212,-1.0625941,-2.9885087,-0.59032112,-0.5968321,-0.54342651,0
1.0396353,-0.24466605,-1.7799659,-0.28247136,0.78343076,-0.55357587,0
-0.84631664,0.54692072,0.30264094,-0.28247136,0.78343076,-0.55357587,0
-2.0461693,1.1292219,1.9026326,0.59032112,0.5968321,0.54342651,0
-3.797534,0.88543981,3.1298604,-0.75612891,0.1732851,0.6310637,0
-3.9527266,0.74807918,2.9816298,-0.75612891,0.1732851,0.6310637,0
-3.697298,1.1733247,3.1709104,-0.75612891,0.1732851,0.6310637,0
0.91353184,0.39167386,-0.81505948,-0.28247136,0.78343076,-0.55357587,0
-1.1375399,-0.44225493,0.8577801,0.28247136,-0.78343076,0.55357587,0
3.6525853,-1.4297203,-3.1540799,0.75612891,-0.1732851,-0.6310637,0
-0.8334583,-0.24378005,0.25303108,-0.59032112,-0.5968321,-0.54342651,0
-3.6704326,1.0582186,3.2347074,-0.75612891,0.1732851,0.6310637,0
3.6660423,-0.71014363,-2.2823796,0.59032112,0.5968321,0.54342651,0
-3.6141002,0.27393878,3.135057,0.28247136,-0.78343076,0.55357587,0
3.6208813,-1.0670712,-3.2916481,0.75612891,-0.1732851,-0.6310637,0
-3.5515423,1.308439,3.3084512,-0.75612891,0.1732851,0.6310637,0
0.8553766,-0.055698544,0.052069232,0.59032112,0.5968321,0.54342651,0
1.7986393,0.1751375,-1.5731466,-0.28247136,0.78343076,-0.55357587,0
-3.5185285,0.91595459,3.455781,-0.75612891,0.1732851,0.6310637,0
3.6122894,-1.1570961,-3.2772224,0.75612891,-0.1732851,-0.6310637,0
3.6010346,-0.73619485,-3.4062839,0.75612891,-0.1732851,-0.6310637,0
-3.7389324,0.92394912,3.1895018,-0.75612891,0.1732851,0.6310637,0
-1.768733,0.48983532,0.69253105,-0.28247136,0.78343076,-0.55357587,0
-3.1708386,0.19467378,2.7966981,0.28247136,-0.78343076,0.55357587,0
2.467123,-0.42705512,-2.7664862,-0.28247136,0.78343076,-0.55357587,0
2.8773046,-0.17863297,-2.6242161,-0.28247136,0.78343076,-0.55357587,0
1.1672466,-0.50016344,-1.6387436,-0.59032112,-0.5968321,-0.54342651,0
2.7485788,-0.33378655,-2.7781076,-0.28247136,0.78343076,-0.55357587,0
-3.8937109,1.2424105,2.9166014,-0.75612891,0.1732851,0.6310637,0
3.7551203,-1.2989569,-3.0671315,0.75612891,-0.1732851,-0.6310637,0
0.74511063,-0.080917284,0.19954762,0.59032112,0.5968321,0.54342651,0
3.695565,-1.1832895,-2.6571183,0.28247136,-0.78343076,0.55357587,0
2.2924356,-0.87539905,-2.4489181,-0.59032112,-0.5968321,-0.54342651,0
3.8499525,-0.88067204,-3.0683632,0.75612891,-0.1732851,-0.6310637,0
-3.7476888,1.0272332,3.1506486,-0.75612891,0.1732851,0.6310637,0
1.4399886,-0.97670066,-1.4116524,-0.59032112,-0.5968321,-0.54342651,0
-3.5343404,0.30637294,3.1402593,0.28247136,-0.78343076,0.55357587,0
1.2718948,-0.33306834,-0.21715152,0.28247136,-0.78343076,0.55357587,0
-3.0621221,1.3048072,2.505868,-0.28247136,0.78343076,-0.55357587,0
2.794646,-0.61208719,-1.4434799,0.59032112,0.5968321,0.54342651,0
3.904114,-0.95255506,-2.9837291,0.75612891,-0.1732851,-0.6310637,0
3.9761343,-0.31166834,-3.0734181,0.75612891,-0.1732851,-0.6310637,0
1.4526668,-0.41285303,-0.42230624,0.28247136,-0.78343076,0.55357587,0
-3.1803093,0.33890241,3.0056453,0.28247136,-0.78343076,0.55357587,0
-0.20303369,0.73916388,0.32883617,0.59032112,0.5968321,0.54342651,0
-1.5163202,0.040416092,0.68269432,-0.59032112,-0.5968321,-0.54342651,0
-3.7341855,1.085873,2.53896,-0.28247136,0.78343076,-0.55357587,0
-2.6565146,0.87748635,2.8421223,0.59032112,0.5968321,0.54342651,0
3.7259769,-0.6776405,-3.2726588,0.75612891,-0.1732851,-0.6310637,0
-1.694961,0.84606707,1.8320992,0.59032112,0.5968321,0.54342651,0
4.0276356,-0.75229657,-2.890717,0.75612891,-0.1732851,-0.6310637,0
1.1935685,-0.60149932,-0.5570727,0.28247136,-0.78343076,0.55357587,0
2.2847943,-0.32975322,-1.1997118,0.59032112,0.5968321,0.54342651,0
-1.6170129,-0.25607336,1.3659267,0.28247136,-0.78343076,0.55357587,0
-0.88312471,0.51850182,1.309963,0.59032112,0.5968321,0.54342651,0
1.729757,-0.15027171,-1.9985234,-0.28247136,0.78343076,-0.55357587,0
-0.79142618,-0.15208898,0.10666972,-0.59032112,-0.5968321,-0.54342651,0
-3.5958002,0.61328268,2.3124564,-0.59032112,-0.5968321,-0.54342651,0
-3.9002509,0.68679225,3.0613341,-0.75612891,0.1732851,0.6310637,0
-3.5191257,0.67381287,3.5215554,-0.75612891,0.1732851,0.6310637,0
3.5958257,-0.59339005,-3.4517381,0.75612891,-0.1732851,-0.6310637,0
0.25618553,-0.52805495,0.02518259,0.28247136,-0.78343076,0.55357587,0
-1.8361545,-0.20152809,1.5549409,0.28247136,-0.78343076,0.55357587,0
-3.0206275,0.17396516,2.1701412,-0.59032112,-0.5968321,-0.54342651,0
1.2619346,-0.74753594,-1.4699194,-0.59032112,-0.5968321,-0.54342651,0
-4.1142244,0.68336213,2.8058965,-0.75612891,0.1732851,0.6310637,0
2.3671043,-1.0521293,-1.7936287,0.28247136,-0.78343076,0.55357587,0
-2.8983412,0.33918369,2.862165,0.28247136,-0.78343076,0.55357587,0
-3.5745528,0.72924083,3.4399238,-0.75612891,0.1732851,0.6310637,0
-3.4545128,0.47617239,2.3095613,-0.59032112,-0.5968321,-0.54342651,0
1.830531,-0.26571339,-0.77658123,0.59032112,0.5968321,0.54342651,0
-0.81619525,0.34623176,1.4264579,0.59032112,0.5968321,0.54342651,0
-3.8154943,1.1503249,3.0356052,-0.75612891,0.1732851,0.6310637,0
3.0898116,-1.2861408,-2.4935799,0.28247136,-0.78343076,0.55357587,0
-3.7554135,0.84739059,3.1907768,-0.75612891,0.1732851,0.6310637,0
0.57968253,0.2351799,0.032089379,0.59032112,0.5968321,0.54342651,0
-1.6700566,0.18676594,2.0197077,0.28247136,-0.78343076,0.55357587,0
1.6289701,-0.72715962,-0.9570803,0.28247136,-0.78343076,0.55357587,0
3.4747984,-0.64297813,-3.5831344,0.75612891,-0.1732851,-0.6310637,0
-0.1892055,0.32189441,0.77209169,0.59032112,0.5968321,0.54342651,0
-2.1433601,0.93005455,1.5066971,-0.28247136,0.78343076,-0.55357587,0
-3.3702047,0.61008322,3.4863229,0.28247136,-0.78343076,0.55357587,0
3.7037249,-0.87019181,-3.2464478,0.75612891,-0.1732851,-0.6310637,0
-1.8265516,0.97866333,1.8294179,0.59032112,0.5968321,0.54342651,0
1.9976293,-0.44719517,-0.75878215,0.59032112,0.5968321,0.54342651,0
-1.9546679,0.84260273,2.1180224,0.59032112,0.5968321,0.54342651,0
-3.6571698,1.0118092,3.2633421,-0.75612891,0.1732851,0.6310637,0
3.4756114,-1.4585643,-2.9344575,0.28247136,-0.78343076,0.55357587,0
1.6888361,-0.12990668,-1.9488218,-0.28247136,0.78343076,-0.55357587,0
-1.3303107,0.16231069,0.34675938,-0.59032112,-0.5968321,-0.54342651,0
3.6650102,-1.2678236,-3.1836491,0.75612891,-0.1732851,-0.6310637,0
3.3633759,-0.88491744,-3.6018205,-0.59032112,-0.5968321,-0.54342651,0
0.66524923,-0.74457425,-0.48997119,0.28247136,-0.78343076,0.55357587,0
2.1990783,-0.282188,-2.4246926,-0.28247136,0.78343076,-0.55357587,0
2.6972296,-0.23133183,-1.7558317,0.59032112,0.5968321,0.54342651,0
-1.8826905,-0.14736009,1.2869103,-0.59032112,-0.5968321,-0.54342651,0
0.20805463,-0.52778256,-0.56644547,-0.59032112,-0.5968321,-0.54342651,0
0.17381954,0.13623947,0.58163995,0.59032112,0.5968321,0.54342651,0
-3.1012659,1.0216237,2.1250753,-0.28247136,0.78343076,-0.55357587,0
-1.8236524,0.14549014,0.90114737,-0.59032112,-0.5968321,-0.54342651,0
-2.7489181,0.19398463,2.5804305,0.28247136,-0.78343076,0.55357587,0
-1.5256569,1.0273403,1.4490969,0.59032112,0.5968321,0.54342651,0
-3.2413683,1.070956,2.2663805,-0.28247136,0.78343076,-0.55357587,0
1.8170836,-0.74634194,-2.074286,-0.59032112,-0.5968321,-0.54342651,0
-3.9015033,1.0089595,2.9713688,-0.75612891,0.1732851,0.6310637,0
-3.8665609,1.2623214,2.9436655,-0.75612891,0.1732851,0.6310637,0
1.8544055,-0.04210934,-1.0480949,0.59032112,0.5968321,0.54342651,0
4.0650568,-0.54833949,-2.9018846,0.75612891,-0.1732851,-0.6310637,0
-3.3583534,0.40610474,3.1916015,0.28247136,-0.78343076,0.55357587,0
-0.99510986,0.39715821,0.16661853,-0.28247136,0.78343076,-0.55357587,0
-3.4257836,1.2311568,3.2893476,0.59032112,0.5968321,0.54342651,0
3.4941182,-0.70545077,-3.5428312,0.75612891,-0.1732851,-0.6310637,0
1.2483579,-0.40790996,-0.3110587,0.28247136,-0.78343076,0.55357587,0
-2.9043229,0.55400342,3.1692338,0.28247136,-0.78343076,0.55357587,0
-4.014802,0.46181047,2.9858596,-0.75612891,0.1732851,0.6310637,0
-3.327395,1.048121,2.2779603,-0.28247136,0.78343076,-0.55357587,0
0.18439367,-0.41459319,-0.66505575,-0.59032112,-0.5968321,-0.54342651,0
0.088401735,-0.010361068,-0.96299022,-0.28247136,0.78343076,-0.55357587,0
-3.4024465,0.11186224,2.6531153,-0.59032112,-0.5968321,-0.54342651,0
-3.9677041,0.32108784,3.0809326,-0.75612891,0.1732851,0.6310637,0
-1.8540637,0.9092629,1.9355251,0.59032112,0.5968321,0.54342651,0
-4.0689774,1.0572729,2.6693172,-0.28247136,0.78343076,-0.55357587,0
-3.918427,1.0680113,2.934876,-0.75612891,0.1732851,0.6310637,0
-1.0094395,-0.080096014,1.3049486,0.28247136,-0.78343076,0.55357587,0
-1.8192689,0.36025518,0.66051447,-0.59032112,-0.5968321,-0.54342651,0
3.5643322,-0.77912819,-2.0961285,0.59032112,0.5968321,0.54342651,0
-0.16843776,0.12251037,0.96851039,0.59032112,0.5968321,0.54342651,0
-0.44087261,0.44164458,0.9139576,0.59032112,0.5968321,0.54342651,0
-1.6040443,-0.106024,0.9388203,-0.59032112,-0.5968321,-0.54342651,0
-1.7401685,-0.18398246,1.1723108,-0.59032112,-0.5968321,-0.54342651,0
1.2292482,-0.53914243,-0.48703015,0.28247136,-0.78343076,0.55357587,0
-0.46592307,-0.56890696,0.33583608,0.28247136,-0.78343076,0.55357587,0
-3.4287097,0.36652809,3.1714923,0.28247136,-0.78343076,0.55357587,0
3.5636694,-1.0524468,-3.3642139,0.75612891,-0.1732851,-0.6310637,0
-0.091744989,-0.12528642,-0.68282652,-0.59032112,-0.5968321,-0.54342651,0
3.960573,-0.67935228,-2.9911003,0.75612891,-0.1732851,-0.6310637,0
-1.2065401,0.069975197,0.31371784,-0.59032112,-0.5968321,-0.54342651,0
3.024981,-1.3656642,-2.7062314,-0.59032112,-0.5968321,-0.54342651,0
0.90330476,-0.30436656,0.011547029,0.28247136,-0.78343076,0.55357587,0
-0.67392313,0.56982428,1.0263424,0.59032112,0.5968321,0.54342651,0
1.8878087,-0.8313939,-1.2366712,0.28247136,-0.78343076,0.55357587,0
0.88852024,-0.1358006,-1.5487885,-0.28247136,0.78343076,-0.55357587,0
3.8584626,-0.51951754,-3.1573362,0.75612891,-0.1732851,-0.6310637,0
3.5033484,-0.72100502,-3.5275006,0.75612891,-0.1732851,-0.6310637,0
-1.2044879,0.53220141,1.6440122,0.59032112,0.5968321,0.54342651,0
-3.9851987,0.67153716,2.9637401,-0.75612891,0.1732851,0.6310637,0
1.614189,-0.33618078,-2.2026548,-0.28247136,0.78343076,-0.55357587,0
1.3355716,0.07353887,-1.4806428,-0.28247136,0.78343076,-0.55357587,0
3.9336617,-1.0701525,-2.9160342,0.75612891,-0.1732851,-0.6310637,0
-2.016675,-0.012734443,1.284601,-0.59032112,-0.5968321,-0.54342651,0
2.4596448,0.015812159,-2.1359158,-0.28247136,0.78343076,-0.55357587,0
3.9131565,-0.96623254,-2.9691384,0.75612891,-0.1732851,-0.6310637,0
3.6876271,-0.1301049,-2.9428697,0.59032112,0.5968321,0.54342651,0
2.2066095,-0.27118516,-1.1791034,0.59032112,0.5968321,0.54342651,0
-0.81261176,-0.40769041,0.74089646,0.28247136,-0.78343076,0.55357587,0
-3.8517685,1.0724161,3.0135357,-0.75612891,0.1732851,0.6310637,0
-2.6232839,0.83830428,1.6217396,-0.28247136,0.78343076,-0.55357587,0
1.4054577,0.24118882,-0.87154496,0.59032112,0.5968321,0.54342651,0
-4.0278258,1.0886821,2.7981203,-0.75612891,0.1732851,0.6310637,0
-3.8760679,0.54570472,3.1290512,-0.75612891,0.1732851,0.6310637,0
3.3009386,-0.16839981,-2.4807539,0.59032112,0.5968321,0.54342651,0
-1.3393971,0.77700967,1.5216961,0.59032112,0.5968321,0.54342651,0
-1.8678577,0.28709358,0.79364759,-0.59032112,-0.5968321,-0.54342651,0
3.3195384,-0.9596467,-3.4721262,-0.59032112,-0.5968321,-0.54342651,0
2.0130417,-0.79125702,-2.2378249,-0.59032112,-0.5968321,-0.54342651,0
-1.5991932,-0.306187,1.2859123,0.28247136,-0.78343076,0.55357587,0
3.9620328,-0.82588804,-2.4767938,0.59032112,0.5968321,0.54342651,0
-3.9427824,1.0277219,2.9167571,-0.75612891,0.1732851,0.6310637,0
4.1564898,-0.91741097,-2.6909876,0.75612891,-0.1732851,-0.6310637,0
-3.6269422,0.84525073,3.3452959,-0.75612891,0.1732851,0.6310637,0
2.3470843,-0.43314958,-2.7138588,-0.28247136,0.78343076,-0.55357587,0
-1.8612638,0.28876942,2.2616315,0.28247136,-0.78343076,0.55357587,0
-1.1299843,0.061328799,0.24005198,-0.59032112,-0.5968321,-0.54342651,0
1.5121707,-0.56001508,-0.66093558,0.28247136,-0.78343076,0.55357587,0
3.9189086,-0.31556571,-3.1409149,0.75612891,-0.1732851,-0.6310637,0
-3.170192,0.54164892,3.2874146,0.28247136,-0.78343076,0.55357587,0
3.7972941,-1.3184032,-3.0112596,0.75612891,-0.1732851,-0.6310637,0
-3.6354296,0.9409433,3.3088498,-0.75612891,0.1732851,0.6310637,0
1.2453245,0.046030402,-0.48325536,0.59032112,0.5968321,0.54342651,0
2.9874036,-0.59494692,-3.2695713,-0.28247136,0.78343076,-0.55357587,0
2.1011438,-1.1324296,-1.7715607,0.28247136,-0.78343076,0.55357587,0
4.077745,-0.81080019,-2.619061,0.59032112,0.5968321,0.54342651,0
-1.692884,1.0663668,1.5878931,0.59032112,0.5968321,0.54342651,0
0.7313357,0.12851927,-0.015507802,0.59032112,0.5968321,0.54342651,0
1.2137414,0.36390886,-0.79806495,0.59032112,0.5968321,0.54342651,0
2.6941602,-0.94162959,-2.8125696,-0.59032112,-0.5968321,-0.54342651,0
0.99317765,-0.27272207,0.010471821,0.28247136,-0.78343076,0.55357587,0
3.7835364,-1.2542607,-3.0453568,0.75612891,-0.1732851,-0.6310637,0
-3.7843595,0.95490509,3.1265712,-0.75612891,0.1732851,0.6310637,0
-2.0383165,0.34315729,0.91724271,-0.59032112,-0.5968321,-0.54342651,0
-2.1148517,0.83169717,2.3040059,0.59032112,0.5968321,0.54342651,0
-3.9349251,1.081,2.6344938,-0.28247136,0.78343076,-0.55357587,0
-2.9499514,1.274152,2.7252331,0.59032112,0.5968321,0.54342651,0
-3.4384682,1.0197415,3.5232086,-0.75612891,0.1732851,0.6310637,0
2.3795218,-0.90597415,-1.5931237,0.28247136,-0.78343076,0.55357587,0
-1.6117041,0.29374963,2.1413374,0.28247136,-0.78343076,0.55357587,0
-1.0760412,0.42108434,1.6265182,0.59032112,0.5968321,0.54342651,0
-3.5623178,0.57541466,3.4968224,-0.75612891,0.1732851,0.6310637,0
3.7532277,-0.83397323,-3.1970797,0.75612891,-0.1732851,-0.6310637,0
0.78275025,0.32370466,-0.84451723,-0.28247136,0.78343076,-0.55357587,0
-2.3538535,0.52394086,2.8458023,0.28247136,-0.78343076,0.55357587,0
3.1772079,-0.39607739,-2.0962934,0.59032112,0.5968321,0.54342651,0
-3.6414154,1.4812701,3.1533089,-0.75612891,0.1732851,0.6310637,0
-3.5110896,0.21587729,2.6568959,-0.59032112,-0.5968321,-0.54342651,0
4.0221858,-0.69158506,-2.913918,0.75612891,-0.1732851,-0.6310637,0
1.7360983,-0.4421885,-0.60844779,0.28247136,-0.78343076,0.55357587,0
-4.0415058,0.66266847,2.8987091,-0.75612891,0.1732851,0.6310637,0
3.9609776,-1.0081338,-2.9003348,0.75612891,-0.1732851,-0.6310637,0
3.654037,-0.8048076,-3.3239374,0.75612891,-0.1732851,-0.6310637,0
-3.6465983,0.86695206,3.3157854,-0.75612891,0.1732851,0.6310637,0
1.4283452,0.16868989,-0.81678361,0.59032112,0.5968321,0.54342651,0
-2.08869,0.1301294,2.1531692,0.28247136,-0.78343076,0.55357587,0
-2.0933533,-0.0076412857,1.3623025,-0.59032112,-0.5968321,-0.54342651,0
-3.4555914,0.1130479,2.7095439,-0.59032112,-0.5968321,-0.54342651,0
3.4669571,-0.84965795,-3.5357773,0.75612891,-0.1732851,-0.6310637,0
3.6384704,-0.75076753,-3.3574276,0.75612891,-0.1732851,-0.6310637,0
-3.9354353,1.0601417,2.9166579,-0.75612891,0.1732851,0.6310637,0
-4.0103712,0.62138712,2.94735,-0.75612891,0.1732851,0.6310637,0
-2.6526539,1.2139902,2.1684036,-0.28247136,0.78343076,-0.55357587,0
0.21126857,0.048245214,0.6376012,0.59032112,0.5968321,0.54342651,0
2.2631397,0.065051109,-1.9659622,-0.28247136,0.78343076,-0.55357587,0
-1.9227805,-0.030060291,1.2016323,-0.59032112,-0.5968321,-0.54342651,0
3.2479398,-1.452961,-2.8103542,0.28247136,-0.78343076,0.55357587,0
3.9686043,-1.0862352,-2.8697507,0.75612891,-0.1732851,-0.6310637,0
1.800169,-1.0058172,-1.7709363,-0.59032112,-0.5968321,-0.54342651,0
3.5535295,-0.97849017,-3.3966713,0.75612891,-0.1732851,-0.6310637,0
-3.655688,0.46307355,3.4157958,-0.75612891,0.1732851,0.6310637,0
-3.7663736,0.463548,3.2830443,-0.75612891,0.1732851,0.6310637,0
3.5937247,-0.57794613,-3.4584966,0.75612891,-0.1732851,-0.6310637,0
3.1630542,-1.352085,-2.6242783,0.28247136,-0.78343076,0.55357587,0
-2.4927864,0.75402844,2.7998559,0.59032112,0.5968321,0.54342651,0
1.6702801,-0.60574877,-2.0692241,-0.59032112,-0.5968321,-0.54342651,0
4.1149445,-0.78974891,-2.7758212,0.75612891,-0.1732851,-0.6310637,0
-2.8320923,1.3332239,2.4287071,-0.28247136,0.78343076,-0.55357587,0
3.2967989,-0.12363905,-2.7604418,-0.28247136,0.78343076,-0.55357587,0
2.1568987,-0.77075678,-1.2881644,0.28247136,-0.78343076,0.55357587,0
-1.7363884,-0.25658274,1.4261194,0.28247136,-0.78343076,0.55357587,0
3.175082,-0.43563056,-3.1398699,-0.28247136,0.78343076,-0.55357587,0
-3.939687,0.6535722,3.0232043,-0.75612891,0.1732851,0.6310637,0
-0.28943402,-0.025805611,1.0143865,0.28247136,-0.78343076,0.55357587,0
-2.6655893,-0.080180943,2.0635877,-0.59032112,-0.5968321,-0.54342651,0
-3.8264463,0.85164696,3.1044974,-0.75612891,0.1732851,0.6310637,0
-0.14806645,-0.2990939,-0.43075633,-0.59032112,-0.5968321,-0.54342651,0
0.23213431,-0.27028459,-0.87540674,-0.59032112,-0.5968321,-0.54342651,0
1.1193441,-0.27385592,-1.8352555,-0.59032112,-0.5968321,-0.54342651,0
3.664125,-0.54803997,-3.3823564,0.75612891,-0.1732851,-0.6310637,0
3.9562702,-1.1778287,-2.7824192,0.28247136,-0.78343076,0.55357587,0
0.29358721,-0.25540891,-0.95850039,-0.59032112,-0.5968321,-0.54342651,0
4.032609,-0.48321855,-2.9586446,0.75612891,-0.1732851,-0.6310637,0
-0.22513179,0.16766921,-0.55105281,-0.28247136,0.78343076,-0.55357587,0
3.7258227,-0.88664091,-3.2154536,0.75612891,-0.1732851,-0.6310637,0
3.6812785,-0.46502411,-3.3845983,0.75612891,-0.1732851,-0.6310637,0
-3.5356712,1.1305887,3.3763039,-0.75612891,0.1732851,0.6310637,0
2.2638865,-0.84597898,-1.4492126,0.28247136,-0.78343076,0.55357587,0
2.0876126,-1.1627666,-1.8075895,0.28247136,-0.78343076,0.55357587,0
-1.330632,0.04999122,1.6529444,0.28247136,-0.78343076,0.55357587,0
1.1555963,0.073539957,-1.3888059,-0.28247136,0.78343076,-0.55357587,0
3.6539917,-0.81850356,-2.1502802,0.59032112,0.5968321,0.54342651,0
3.0127358,-0.97256577,-3.1246605,-0.59032112,-0.5968321,-0.54342651,0
2.0306482,0.016916275,-1.9154508,-0.28247136,0.78343076,-0.55357587,0
-1.3814989,0.53283179,0.55578762,-0.28247136,0.78343076,-0.55357587,0
-3.5370715,0.79741114,3.466114,-0.75612891,0.1732851,0.6310637,0
3.1164229,-0.87737119,-1.9286603,0.28247136,-0.78343076,0.55357587,0
-1.5889201,0.53552449,0.66543877,-0.28247136,0.78343076,-0.55357587,0
-1.7909054,-0.21168865,1.5174725,0.28247136,-0.78343076,0.55357587,0
1.32435,-0.056962967,-0.45598513,0.59032112,0.5968321,0.54342651,0
-2.7617846,0.94421792,1.8423029,-0.28247136,0.78343076,-0.55357587,0
-3.0164149,0.3538745,1.9679751,-0.59032112,-0.5968321,-0.54342651,0
3.5268831,-1.1495073,-3.3816385,0.75612891,-0.1732851,-0.6310637,0
-3.8588059,0.40588528,3.1881275,-0.75612891,0.1732851,0.6310637,0
0.60062057,0.45878464,-0.2362351,0.59032112,0.5968321,0.54342651,0
2.5467632,-0.59363472,-1.2364327,0.28247136,-0.78343076,0.55357587,0
-4.0583606,0.9989984,2.5814285,-0.28247136,0.78343076,-0.55357587,0
-3.5599301,0.80130553,3.4376559,-0.75612891,0.1732851,0.6310637,0
-3.679919,0.83081323,3.2857847,-0.75612891,0.1732851,0.6310637,0
-1.3070948,0.79589844,1.4658616,0.59032112,0.5968321,0.54342651,0
2.8431306,-1.0407522,-2.0204282,0.28247136,-0.78343076,0.55357587,0
-1.0788841,0.65892994,1.3683865,0.59032112,0.5968321,0.54342651,0
-2.1600132,0.30254477,1.0940447,-0.59032112,-0.5968321,-0.54342651,0
3.9399505,-0.24094659,-3.1361923,0.75612891,-0.1732851,-0.6310637,0
-3.8881888,1.0302672,2.9814713,-0.75612891,0.1732851,0.6310637,0
-2.0649953,0.14360684,1.165385,-0.59032112,-0.5968321,-0.54342651,0
-2.3451133,1.1669805,2.1859045,0.59032112,0.5968321,0.54342651,0
3.6457818,-0.91688687,-3.3030522,0.75612891,-0.1732851,-0.6310637,0
2.4450035,-0.97474837,-1.7238673,0.28247136,-0.78343076,0.55357587,0
-2.4422512,0.75836337,2.7401991,0.59032112,0.5968321,0.54342651,0
1.1322057,0.084856123,-1.3608556,-0.28247136,0.78343076,-0.55357587,0
-2.8141236,0.30998182,2.7778645,0.28247136,-0.78343076,0.55357587,0
-1.1940111,0.5931499,0.54548228,-0.28247136,0.78343076,-0.55357587,0
-1.2415838,0.15783104,0.25529572,-0.59032112,-0.5968321,-0.54342651,0
3.7169702,-0.58380669,-2.4764552,0.59032112,0.5968321,0.54342651,0
-1.0151978,0.47617161,0.28868991,-0.28247136,0.78343076,-0.55357587,0
0.10986381,0.36278796,-0.44585428,-0.28247136,0.78343076,-0.55357587,0
-3.7277665,1.2190313,3.1218529,-0.75612891,0.1732851,0.6310637,0
1.8786985,-0.33607897,-2.337481,-0.28247136,0.78343076,-0.55357587,0
4.0391464,-0.6353302,-2.9090428,0.75612891,-0.1732851,-0.6310637,0
-3.0925157,1.0141547,3.165648,0.59032112,0.5968321,0.54342651,0
-0.29192153,0.094167352,-0.62099344,-0.28247136,0.78343076,-0.55357587,0
3.5744581,-0.6150943,-3.4713805,0.75612891,-0.1732851,-0.6310637,0
-2.2578137,0.082563698,1.4418848,-0.59032112,-0.5968321,-0.54342651,0
-3.7422583,0.506212,3.3002238,-0.75612891,0.1732851,0.6310637,0
0.15702379,-0.67093688,-0.12642768,0.28247136,-0.78343076,0.55357587,0
3.9191442,-1.1895289,-2.7800336,0.28247136,-0.78343076,0.55357587,0
-1.3713347,0.2460568,1.9511893,0.28247136,-0.78343076,0.55357587,0
-3.1673527,0.56305772,1.9021969,-0.59032112,-0.5968321,-0.54342651,0
