4.8056688,0.53911114,1.5946336,0.93195522,-0.079400063,0.35377276,0
4.3406124,-1.4172192,1.7796159,-0.21272796,-0.90987861,0.35618484,0
3.8228292,0.56168318,0.91044354,0.21272796,0.90987861,-0.35618484,0
2.3606095,0.38663948,1.1974871,-0.29360911,0.4072057,0.86485678,0
3.6473265,-1.1070329,2.1579318,-0.21272796,-0.90987861,0.35618484,0
1.4860542,0.93956637,0.48013461,0.21272796,0.90987861,-0.35618484,0
-0.84443516,0.23346704,-0.97473133,0.29360911,-0.4072057,-0.86485678,0
-3.7882512,1.310769,-1.7216516,0.21272796,0.90987861,-0.35618484,0
0.88442159,0.11769783,0.82296526,-0.29360911,0.4072057,0.86485678,0
-1.0372486,-0.86672652,-0.52217871,0.29360911,-0.4072057,-0.86485678,0
-0.91900432,-0.9090867,-0.063608944,-0.21272796,-0.90987861,0.35618484,0
4.7929668,0.3504436,1.5857501,0.93195522,-0.079400063,0.35377276,0
4.9203906,-0.11282408,1.1460986,0.93195522,-0.079400063,0.35377276,0
-1.8589861,1.1977013,-0.85824943,0.21272796,0.90987861,-0.35618484,0
-3.1682742,0.59865069,-1.9355903,0.29360911,-0.4072057,-0.86485678,0
4.9487724,0.29105866,0.96488094,0.29360911,-0.4072057,-0.86485678,0
-1.6836743,1.1506102,-0.87384081,0.21272796,0.90987861,-0.35618484,0
-4.6306705,1.2866094,-1.6458759,-0.93195522,0.079400063,-0.35377276,0
-4.7838449,-0.20181179,-1.5764217,-0.93195522,0.079400063,-0.35377276,0
-1.1357648,1.2110512,-0.39221013,0.21272796,0.90987861,-0.35618484,0
2.2679095,0.1160076,0.1371789,0.29360911,-0.4072057,-0.86485678,0
2.9479766,-1.3086799,1.2251427,-0.21272796,-0.90987861,0.35618484,0
-4.0594869,1.3340285,-1.4281282,-0.29360911,0.4072057,0.86485678,0
-4.9179344,-0.12210274,-1.2052956,-0.93195522,0.079400063,-0.35377276,0
-3.7539351,1.2160001,-1.9432459,0.21272796,0.90987861,-0.35618484,0
4.6138382,-1.2839751,1.6908097,0.93195522,-0.079400063,0.35377276,0
4.7781506,0.59480143,1.6796231,0.93195522,-0.079400063,0.35377276,0
3.987536,0.60015094,1.1070797,0.21272796,0.90987861,-0.35618484,0
4.7561927,0.39109111,1.6917486,0.93195522,-0.079400063,0.35377276,0
2.255291,0.66495568,0.23805737,0.21272796,0.90987861,-0.35618484,0
4.2299352,0.72173595,1.5624409,0.21272796,0.90987861,-0.35618484,0
-4.004199,-0.23114181,-0.67242002,-0.29360911,0.4072057,0.86485678,0
4.7439022,-0.57696998,1.506856,0.93195522,-0.079400063,0.35377276,0
-3.9746709,1.1297417,-2.2954254,0.21272796,0.90987861,-0.35618484,0
-0.06235671,0.75913477,-0.90555364,0.21272796,0.90987861,-0.35618484,0
4.8830919,0.30975688,1.3391995,0.93195522,-0.079400063,0.35377276,0
-1.1816328,1.0245919,-0.30543506,-0.29360911,0.4072057,0.86485678,0
-4.7502251,0.67868662,-1.46737,-0.93195522,0.079400063,-0.35377276,0
4.7050285,-1.0025556,1.5137453,0.93195522,-0.079400063,0.35377276,0
4.7194386,-0.41792154,1.6069975,0.93195522,-0.079400063,0.35377276,0
4.6968961,-0.67526364,1.608624,0.93195522,-0.079400063,0.35377276,0
4.7931156,-0.41121781,1.414413,0.93195522,-0.079400063,0.35377276,0
1.9611681,0.60524434,-0.090138316,0.21272796,0.90987861,-0.35618484,0
-4.8875036,-0.050520182,-1.2693934,-0.93195522,0.079400063,-0.35377276,0
3.6072791,0.57965267,0.82761216,0.21272796,0.90987861,-0.35618484,0
-4.5931153,1.4122796,-1.7166018,-0.93195522,0.079400063,-0.35377276,0
-4.1150804,1.3828509,-1.7327137,0.21272796,0.90987861,-0.35618484,0
4.7521276,-0.03628993,1.6065369,0.93195522,-0.079400063,0.35377276,0
-3.03234,-0.58267897,-0.49196553,-0.21272796,-0.90987861,0.35618484,0
1.3577522,-0.63708651,1.3390353,-0.29360911,0.4072057,0.86485678,0
-2.3695259,-0.07759127,-0.18976426,-0.29360911,0.4072057,0.86485678,0
4.5719204,-0.43645597,1.9914498,0.93195522,-0.079400063,0.35377276,0
2.5401328,-1.1500683,1.3867369,-0.21272796,-0.90987861,0.35618484,0
4.5934162,-0.49509406,1.9216619,0.93195522,-0.079400063,0.35377276,0
4.7151084,-0.98459482,1.4912219,0.93195522,-0.079400063,0.35377276,0
4.8780384,-0.22064686,1.2334685,0.93195522,-0.079400063,0.35377276,0
3.2474296,0.55236214,0.54298115,0.21272796,0.90987861,-0.35618484,0
-3.8193684,-0.58279228,-0.96229982,-0.21272796,-0.90987861,0.35618484,0
2.8988061,-1.0738356,1.7956889,-0.21272796,-0.90987861,0.35618484,0
-4.9375725,-0.41517651,-1.2193394,-0.93195522,0.079400063,-0.35377276,0
-0.42105061,-0.8679924,0.3387652,-0.21272796,-0.90987861,0.35618484,0
4.8496566,-0.33890975,1.2816939,0.93195522,-0.079400063,0.35377276,0
4.7276297,-0.053927422,1.6671143,0.93195522,-0.079400063,0.35377276,0
-3.9645858,-0.29767156,-0.62764716,-0.29360911,0.4072057,0.86485678,0
3.2012672,-0.25722492,0.62977457,0.29360911,-0.4072057,-0.86485678,0
-3.7747197,-0.53268695,-0.80763936,-0.21272796,-0.90987861,0.35618484,0
-4.8056774,-0.45168638,-1.5749893,-0.93195522,0.079400063,-0.35377276,0
4.6549997,0.27564526,1.9324141,0.93195522,-0.079400063,0.35377276,0
1.6285154,-1.2401659,0.55864692,0.29360911,-0.4072057,-0.86485678,0
1.6118069,-1.1857998,0.52737689,0.29360911,-0.4072057,-0.86485678,0
-2.6553736,-0.65881664,-0.46132064,-0.21272796,-0.90987861,0.35618484,0
0.84495485,0.052464366,0.84028089,-0.29360911,0.4072057,0.86485678,0
4.6784611,0.39243436,1.896821,0.93195522,-0.079400063,0.35377276,0
-4.8040161,0.39865959,-1.3885145,-0.93195522,0.079400063,-0.35377276,0
-2.1325889,-0.22225332,-1.1974757,0.29360911,-0.4072057,-0.86485678,0
4.4621992,-0.48782635,2.2689633,0.93195522,-0.079400063,0.35377276,0
-4.8732409,0.13203335,-1.2659965,-0.93195522,0.079400063,-0.35377276,0
-3.4297161,1.2705327,-1.6103044,0.21272796,0.90987861,-0.35618484,0
-3.607513,-0.15322447,-1.7306967,0.29360911,-0.4072057,-0.86485678,0
-4.1943407,0.54674673,-1.103229,-0.29360911,0.4072057,0.86485678,0
-4.5345478,1.228858,-1.9120564,-0.93195522,0.079400063,-0.35377276,0
-2.3668833,0.67093956,-1.6975629,0.29360911,-0.4072057,-0.86485678,0
-1.1998934,0.75320411,-0.18385541,-0.29360911,0.4072057,0.86485678,0
4.2485089,-1.2806654,1.4671741,0.29360911,-0.4072057,-0.86485678,0
0.76366591,-0.52066779,-0.073725343,0.29360911,-0.4072057,-0.86485678,0
-2.7005522,-0.80659175,-0.86579633,-0.21272796,-0.90987861,0.35618484,0
3.935729,-0.91017485,2.3428092,-0.29360911,0.4072057,0.86485678,0
0.47681212,-0.73045319,1.0839263,-0.29360911,0.4072057,0.86485678,0
-2.8207655,-0.40997386,-0.1864574,-0.29360911,0.4072057,0.86485678,0
4.5426168,-0.50781989,2.0526299,0.93195522,-0.079400063,0.35377276,0
3.0383275,0.8418113,1.1574981,0.21272796,0.90987861,-0.35618484,0
4.5054965,0.55621839,1.3042002,0.21272796,0.90987861,-0.35618484,0
-2.9440923,-0.59330183,-0.46639657,-0.21272796,-0.90987861,0.35618484,0
-3.6684496,-0.49837518,-1.5888751,0.29360911,-0.4072057,-0.86485678,0
2.0079782,-0.97661048,1.5120125,-0.21272796,-0.90987861,0.35618484,0
4.6644144,0.36533368,0.91149473,0.21272796,0.90987861,-0.35618484,0
3.7564492,-0.080977917,0.73526883,0.29360911,-0.4072057,-0.86485678,0
3.188009,0.18193603,1.5747614,-0.29360911,0.4072057,0.86485678,0
3.0341969,0.69329321,0.77563977,0.21272796,0.90987861,-0.35618484,0
-4.7930346,-0.30913401,-1.5763011,-0.93195522,0.079400063,-0.35377276,0
-0.95626152,0.36754352,-1.0758233,0.29360911,-0.4072057,-0.86485678,0
-4.6901083,0.93495345,-1.568222,-0.93195522,0.079400063,-0.35377276,0
1.2485644,-0.40804151,0.037863612,0.29360911,-0.4072057,-0.86485678,0
-0.54518759,-0.99597526,-0.062308159,-0.21272796,-0.90987861,0.35618484,0
-4.7213087,-0.23982406,-1.7496943,-0.93195522,0.079400063,-0.35377276,0
-4.8142195,-0.52486181,-1.5689092,-0.93195522,0.079400063,-0.35377276,0
4.6836157,-0.11022782,1.7704248,0.93195522,-0.079400063,0.35377276,0
4.1002469,-1.1932396,2.2082186,-0.21272796,-0.90987861,0.35618484,0
0.037955046,-0.86956501,0.60888451,-0.21272796,-0.90987861,0.35618484,0
-1.2276448,-0.69481403,0.29942077,-0.21272796,-0.90987861,0.35618484,0
4.5125418,-0.78626966,2.0693617,0.93195522,-0.079400063,0.35377276,0
-4.7773428,0.62392902,-1.4082236,-0.93195522,0.079400063,-0.35377276,0
0.2755796,0.41214129,-0.67862517,0.29360911,-0.4072057,-0.86485678,0
1.893046,0.83716917,0.82662892,-0.29360911,0.4072057,0.86485678,0
0.022477508,0.98069334,0.12401566,-0.29360911,0.4072057,0.86485678,0
-0.27221674,-0.78123045,-0.30271351,0.29360911,-0.4072057,-0.86485678,0
3.2693696,-0.565072,0.79783964,0.29360911,-0.4072057,-0.86485678,0
0.83132207,0.3893083,-0.47920632,0.29360911,-0.4072057,-0.86485678,0
-2.5156937,-0.15902483,-1.3573058,0.29360911,-0.4072057,-0.86485678,0
4.6405997,-1.2186284,1.6349759,0.93195522,-0.079400063,0.35377276,0
2.6532083,-0.079300761,1.5162024,-0.29360911,0.4072057,0.86485678,0
-2.3286464,-0.70449531,-0.38287282,-0.21272796,-0.90987861,0.35618484,0
-0.37369126,0.96328318,-0.56999546,0.21272796,0.90987861,-0.35618484,0
0.3503947,0.57110089,-0.7280702,0.29360911,-0.4072057,-0.86485678,0
1.0397894,0.68362916,-0.44018751,0.21272796,0.90987861,-0.35618484,0
-1.0522021,-0.88160259,-0.072951257,-0.21272796,-0.90987861,0.35618484,0
-4.5917535,1.4492431,-1.7118936,-0.93195522,0.079400063,-0.35377276,0
-3.3840389,1.1294355,-1.9434586,0.21272796,0.90987861,-0.35618484,0
2.1268516,0.74331623,0.36152112,0.21272796,0.90987861,-0.35618484,0
0.82077742,0.759112,-0.37816843,0.21272796,0.90987861,-0.35618484,0
4.8283505,-0.3728143,1.3302116,0.93195522,-0.079400063,0.35377276,0
-4.5707121,1.0218947,-1.8632388,-0.93195522,0.079400063,-0.35377276,0
-3.5461698,-0.46354556,-0.4945178,-0.21272796,-0.90987861,0.35618484,0
-2.527564,1.0403427,-0.76977992,-0.29360911,0.4072057,0.86485678,0
-1.6379416,1.0893941,-0.49085832,-0.29360911,0.4072057,0.86485678,0
1.7837744,-0.0028632879,1.1850499,-0.29360911,0.4072057,0.86485678,0
-4.6957488,0.62961197,-1.6218939,-0.93195522,0.079400063,-0.35377276,0
-4.3711395,0.80847979,-2.4368768,-0.93195522,0.079400063,-0.35377276,0
0.12635958,-0.12673366,-0.47556201,0.29360911,-0.4072057,-0.86485678,0
2.2823062,0.91498363,0.89289176,0.21272796,0.90987861,-0.35618484,0
-3.6145322,0.41524309,-0.84447408,-0.29360911,0.4072057,0.86485678,0
-1.5928574,1.2231346,-0.63433695,0.21272796,0.90987861,-0.35618484,0
-2.6160395,-0.68060666,-0.49349165,-0.21272796,-0.90987861,0.35618484,0
-1.164064,-0.77206469,0.14005613,-0.21272796,-0.90987861,0.35618484,0
-0.19286066,-1.0127543,0.10525331,-0.21272796,-0.90987861,0.35618484,0
4.8452029,-0.40811288,1.2778935,0.93195522,-0.079400063,0.35377276,0
-0.89912999,-0.59885579,0.55484879,-0.29360911,0.4072057,0.86485678,0
-4.6875362,0.4507587,-1.6836691,-0.93195522,0.079400063,-0.35377276,0
-3.765012,0.82132268,-2.2430177,0.29360911,-0.4072057,-0.86485678,0
-4.1448941,0.22491503,-2.0911732,0.29360911,-0.4072057,-0.86485678,0
0.97997612,-0.018433899,-0.2367602,0.29360911,-0.4072057,-0.86485678,0
0.26222926,0.84406495,-0.49474269,0.21272796,0.90987861,-0.35618484,0
-4.1096907,-0.69912195,-1.6441526,0.29360911,-0.4072057,-0.86485678,0
-4.825078,0.044031978,-1.4126239,-0.93195522,0.079400063,-0.35377276,0
4.3159933,0.65575886,1.4452982,0.21272796,0.90987861,-0.35618484,0
-1.4025664,1.0913934,-0.41189241,-0.29360911,0.4072057,0.86485678,0
-4.4419117,1.017766,-2.2034678,-0.93195522,0.079400063,-0.35377276,0
2.9565423,0.82406461,1.0633187,0.21272796,0.90987861,-0.35618484,0
4.4633169,-0.5156126,2.2597814,0.93195522,-0.079400063,0.35377276,0
-0.96881843,-0.91297841,-0.47717035,0.29360911,-0.4072057,-0.86485678,0
-4.9245901,-0.29983675,-1.227653,-0.93195522,0.079400063,-0.35377276,0
-3.8087645,-0.76414299,-1.4192295,-0.21272796,-0.90987861,0.35618484,0
-4.2327776,0.48263907,-1.0860939,-0.29360911,0.4072057,0.86485678,0
-4.6381969,0.99631298,-1.6912022,-0.93195522,0.079400063,-0.35377276,0
0.42936516,0.44562811,0.51407743,-0.29360911,0.4072057,0.86485678,0
1.3317552,0.9831661,0.49935687,0.21272796,0.90987861,-0.35618484,0
2.1686201,-0.097002029,1.3600247,-0.29360911,0.4072057,0.86485678,0
4.5721145,-0.54227614,1.9671888,0.93195522,-0.079400063,0.35377276,0
-4.5031085,0.73514104,-2.1056867,-0.93195522,0.079400063,-0.35377276,0
-2.4123943,1.3213954,-0.87278938,0.21272796,0.90987861,-0.35618484,0
-2.985538,-0.40355325,-1.4016798,0.29360911,-0.4072057,-0.86485678,0
-4.4153795,1.0350091,-2.2694912,-0.93195522,0.079400063,-0.35377276,0
-4.9319029,-0.28084886,-1.2041268,-0.93195522,0.079400063,-0.35377276,0
-4.6630683,-0.053038716,-0.97995663,-0.29360911,0.4072057,0.86485678,0
-1.3036352,0.36493573,-0.036263943,-0.29360911,0.4072057,0.86485678,0
-1.6680754,1.1963984,-0.55146956,-0.29360911,0.4072057,0.86485678,0
3.1213813,-0.90951252,2.0660353,-0.29360911,0.4072057,0.86485678,0
4.8023071,0.18260741,1.5234771,0.93195522,-0.079400063,0.35377276,0
4.7085609,0.22985363,1.7810383,0.93195522,-0.079400063,0.35377276,0
2.5476222,0.18558764,0.1993773,0.29360911,-0.4072057,-0.86485678,0
-0.27799451,-0.88578862,0.3787435,-0.21272796,-0.90987861,0.35618484,0
4.5574846,-0.68631947,1.9734001,0.93195522,-0.079400063,0.35377276,0
-0.081410706,-0.76426321,0.80658925,-0.21272796,-0.90987861,0.35618484,0
-1.3133438,-0.92889774,-0.34973174,-0.21272796,-0.90987861,0.35618484,0
3.09373,0.29059303,1.4915953,-0.29360911,0.4072057,0.86485678,0
-4.9645839,-0.28523803,-1.11902,-0.93195522,0.079400063,-0.35377276,0
2.9751184,0.40783298,1.3961272,-0.29360911,0.4072057,0.86485678,0
-4.707304,0.98975736,-1.4859595,-0.29360911,0.4072057,0.86485678,0
-2.6009867,1.3265498,-0.97225714,0.21272796,0.90987861,-0.35618484,0
-1.3414049,-0.6453259,0.35789675,-0.21272796,-0.90987861,0.35618484,0
4.4071546,0.079290986,0.88071585,0.29360911,-0.4072057,-0.86485678,0
1.3213941,0.83025527,0.10255617,0.21272796,0.90987861,-0.35618484,0
0.16489077,-1.0640943,0.18776828,-0.21272796,-0.90987861,0.35618484,0
4.54182,-0.51013088,2.0542088,0.93195522,-0.079400063,0.35377276,0
-3.9535494,1.104377,-2.3476048,0.21272796,0.90987861,-0.35618484,0
-4.9846859,-0.1640861,-1.0388727,-0.93195522,0.079400063,-0.35377276,0
-2.4652624,-0.88039267,-0.91379762,-0.21272796,-0.90987861,0.35618484,0
4.8203449,0.34080577,1.5114651,0.93195522,-0.079400063,0.35377276,0
0.12150294,0.95960593,-0.2836394,0.21272796,0.90987861,-0.35618484,0
4.5218315,-1.0963323,1.9752998,0.93195522,-0.079400063,0.35377276,0
0.79246414,-0.94981146,0.13810754,0.29360911,-0.4072057,-0.86485678,0
-4.494287,0.48134065,-2.1858873,-0.93195522,0.079400063,-0.35377276,0
-2.0100746,-0.77348107,-0.36883378,-0.21272796,-0.90987861,0.35618484,0
4.2496319,0.24548531,0.74898863,0.29360911,-0.4072057,-0.86485678,0
-4.3168983,1.001159,-2.5150509,0.29360911,-0.4072057,-0.86485678,0
3.5951686,-1.0888197,2.1733069,-0.21272796,-0.90987861,0.35618484,0
4.3828111,-1.2711281,2.1780105,-0.21272796,-0.90987861,0.35618484,0
-3.4257157,1.0674523,-2.1266861,0.21272796,0.90987861,-0.35618484,0
1.7277052,-0.18639421,1.2524279,-0.29360911,0.4072057,0.86485678,0
0.54043329,-1.0276992,0.50502872,-0.21272796,-0.90987861,0.35618484,0
-4.6396074,0.39812779,-1.8217421,-0.93195522,0.079400063,-0.35377276,0
2.7392738,-1.13941,1.5328991,-0.21272796,-0.90987861,0.35618484,0
-2.1381512,0.84239322,-0.54437709,-0.29360911,0.4072057,0.86485678,0
-1.2270205,1.0200975,-0.93450511,0.21272796,0.90987861,-0.35618484,0
-0.74985611,0.015712023,-0.84009594,0.29360911,-0.4072057,-0.86485678,0
-4.5606828,0.45651007,-2.0165524,-0.93195522,0.079400063,-0.35377276,0
3.5407238,-0.32907802,0.77884746,0.29360911,-0.4072057,-0.86485678,0
4.0889478,-0.43615484,2.1716394,-0.29360911,0.4072057,0.86485678,0
0.68377078,0.28245497,0.67727292,-0.29360911,0.4072057,0.86485678,0
4.4515901,-0.54730749,2.2835603,0.93195522,-0.079400063,0.35377276,0
4.7308249,-0.20456195,1.6248879,0.93195522,-0.079400063,0.35377276,0
4.3549843,-0.48172784,2.2834134,-0.29360911,0.4072057,0.86485678,0
4.919292,0.2767961,1.2364388,0.93195522,-0.079400063,0.35377276,0
1.6153996,-0.95661414,1.3286297,-0.21272796,-0.90987861,0.35618484,0
-4.5165734,0.39109516,-2.1474328,-0.93195522,0.079400063,-0.35377276,0
0.3503406,-1.1277003,0.13604414,-0.21272796,-0.90987861,0.35618484,0
4.4777002,-0.41372633,2.2447581,0.93195522,-0.079400063,0.35377276,0
-4.5484514,1.0535787,-1.9147701,-0.93195522,0.079400063,-0.35377276,0
-4.6796227,0.010267377,-1.0153832,-0.29360911,0.4072057,0.86485678,0
1.9522364,0.64131427,0.93893898,-0.29360911,0.4072057,0.86485678,0
-4.3689184,0.95808196,-2.4091525,-0.93195522,0.079400063,-0.35377276,0
4.5940876,-0.25901008,1.9728789,0.93195522,-0.079400063,0.35377276,0
4.4884224,-0.59282112,2.1763172,0.93195522,-0.079400063,0.35377276,0
-4.5443354,1.0707017,-1.9217682,-0.93195522,0.079400063,-0.35377276,0
-4.3226719,1.4769077,-1.6164255,0.21272796,0.90987861,-0.35618484,0
-3.6005042,0.68826556,-2.1245213,0.29360911,-0.4072057,-0.86485678,0
1.8878899,-0.70696652,0.39565229,0.29360911,-0.4072057,-0.86485678,0
3.3900719,0.73518217,1.3828716,-0.29360911,0.4072057,0.86485678,0
1.8462601,0.72199351,0.13947129,0.21272796,0.90987861,-0.35618484,0
3.0121081,-1.2689776,1.3648646,-0.21272796,-0.90987861,0.35618484,0
4.1000338,0.5264554,1.7221715,-0.29360911,0.4072057,0.86485678,0
-0.86223686,0.42065156,0.087352872,-0.29360911,0.4072057,0.86485678,0
-4.6234488,-0.11404371,-1.9792609,-0.93195522,0.079400063,-0.35377276,0
-2.3203621,0.93792146,-0.65121341,-0.29360911,0.4072057,0.86485678,0
-2.7446494,-0.72388291,-0.68085194,-0.21272796,-0.90987861,0.35618484,0
-0.63631541,1.0848345,-0.41634107,0.21272796,0.90987861,-0.35618484,0
-3.4818797,1.2862502,-1.6013079,0.21272796,0.90987861,-0.35618484,0
-3.3217497,0.45167571,-0.76223135,-0.29360911,0.4072057,0.86485678,0
-0.049020708,-0.74363303,0.8786341,-0.21272796,-0.90987861,0.35618484,0
3.1298828,0.64557707,0.71089554,0.21272796,0.90987861,-0.35618484,0
3.9136686,-0.43201876,2.1101871,-0.29360911,0.4072057,0.86485678,0
-1.2339635,1.2023404,-0.47311044,0.21272796,0.90987861,-0.35618484,0
-4.2529206,-0.72206092,-1.681977,0.29360911,-0.4072057,-0.86485678,0
4.5861397,-1.1210536,1.8003416,0.93195522,-0.079400063,0.35377276,0
4.6877689,0.015841961,1.7877784,0.93195522,-0.079400063,0.35377276,0
-0.81876951,-0.73955905,0.42931601,-0.21272796,-0.90987861,0.35618484,0
4.8212838,-0.36154532,1.3513556,0.93195522,-0.079400063,0.35377276,0
1.1744535,-0.60608971,0.10595202,0.29360911,-0.4072057,-0.86485678,0
0.53140324,-0.856305,0.93746459,-0.21272796,-0.90987861,0.35618484,0
-4.5755038,0.006146431,-2.0785885,-0.93195522,0.079400063,-0.35377276,0
2.1871428,0.65009248,0.15938807,0.21272796,0.90987861,-0.35618484,0
4.4694104,-0.96670067,2.1424875,0.93195522,-0.079400063,0.35377276,0
0.88033807,-0.86888528,1.113726,-0.21272796,-0.90987861,0.35618484,0
-0.31541699,-1.0089831,-0.21014538,0.29360911,-0.4072057,-0.86485678,0
2.5773718,0.31924391,1.3028076,-0.29360911,0.4072057,0.86485678,0
4.4636049,-1.0792449,2.1325231,0.93195522,-0.079400063,0.35377276,0
4.2059932,-1.1347145,2.4208779,-0.21272796,-0.90987861,0.35618484,0
-4.4955382,1.3594395,-1.9855142,-0.93195522,0.079400063,-0.35377276,0
4.7664089,-0.0034871101,1.5762768,0.93195522,-0.079400063,0.35377276,0
-3.9177232,1.3099759,-1.3686762,-0.29360911,0.4072057,0.86485678,0
-4.6927547,-0.016014099,-1.774683,-0.93195522,0.079400063,-0.35377276,0
-2.6724229,1.0588237,-1.6988313,0.21272796,0.90987861,-0.35618484,0
4.9408159,0.029022455,1.1241269,0.93195522,-0.079400063,0.35377276,0
4.8751383,0.36981213,1.0487876,0.21272796,0.90987861,-0.35618484,0
-1.6404431,0.23625958,-1.2462821,0.29360911,-0.4072057,-0.86485678,0
-2.5649252,0.50982487,-1.6889377,0.29360911,-0.4072057,-0.86485678,0
4.7450247,-0.70774209,1.4745488,0.93195522,-0.079400063,0.35377276,0
-4.3404999,1.0973788,-2.4527521,-0.93195522,0.079400063,-0.35377276,0
-4.4484611,1.0934985,-2.1692171,-0.93195522,0.079400063,-0.35377276,0
-0.30285728,1.0465215,-0.31505716,0.21272796,0.90987861,-0.35618484,0
-3.5262926,-0.64895332,-0.95627236,-0.21272796,-0.90987861,0.35618484,0
-0.9221372,1.1402675,-0.44544089,0.21272796,0.90987861,-0.35618484,0
-4.8459735,-0.31505489,-1.4381704,-0.93195522,0.079400063,-0.35377276,0
1.4119925,-1.0162745,1.0547438,-0.21272796,-0.90987861,0.35618484,0
-4.6199012,-0.22733855,-2.0140333,-0.93195522,0.079400063,-0.35377276,0
-2.0548604,1.1688933,-1.0488241,0.21272796,0.90987861,-0.35618484,0
3.4605865,0.066026926,0.56561184,0.29360911,-0.4072057,-0.86485678,0
3.574224,0.70742977,1.1342776,0.21272796,0.90987861,-0.35618484,0
3.9447765,-0.8743453,2.329011,-0.29360911,0.4072057,0.86485678,0
2.0641506,0.7631045,0.37462294,0.21272796,0.90987861,-0.35618484,0
-4.444716,0.72418427,-2.261972,-0.93195522,0.079400063,-0.35377276,0
-4.7147589,0.98244679,-1.4926243,-0.93195522,0.079400063,-0.35377276,0
3.5363212,-0.1461606,1.8474891,-0.29360911,0.4072057,0.86485678,0
-4.7744522,-0.12694287,-1.5843625,-0.93195522,0.079400063,-0.35377276,0
-4.3789687,1.1257952,-2.3450341,-0.93195522,0.079400063,-0.35377276,0
3.4332733,-0.26782084,1.8697882,-0.29360911,0.4072057,0.86485678,0
-4.4717946,0.52060699,-2.2363267,-0.93195522,0.079400063,-0.35377276,0
2.7732506,-1.2845612,1.1824009,-0.21272796,-0.90987861,0.35618484,0
2.2174685,0.59767711,0.043604255,0.21272796,0.90987861,-0.35618484,0
-2.2689786,1.1022384,-1.3469744,0.21272796,0.90987861,-0.35618484,0
-4.5336576,0.89085865,-1.9902616,-0.93195522,0.079400063,-0.35377276,0
2.3288579,-1.2649368,0.96712232,-0.21272796,-0.90987861,0.35618484,0
-2.2396502,-0.75940114,-0.46997809,-0.21272796,-0.90987861,0.35618484,0
-4.122839,0.91924709,-1.2543416,-0.29360911,0.4072057,0.86485678,0
-3.6111248,1.361383,-1.4865704,0.21272796,0.90987861,-0.35618484,0
2.0151858,0.71159512,0.21379793,0.21272796,0.90987861,-0.35618484,0
-4.1031456,0.71686935,-2.3086295,0.29360911,-0.4072057,-0.86485678,0
-2.968904,-0.53850514,-0.34123611,-0.21272796,-0.90987861,0.35618484,0
-4.5646696,0.546911,-1.9857612,-0.93195522,0.079400063,-0.35377276,0
2.8604259,0.82410336,1.0060127,0.21272796,0.90987861,-0.35618484,0
-4.1519608,1.001395,-2.459167,0.29360911,-0.4072057,-0.86485678,0
-4.5050697,0.48606992,-2.1564212,-0.93195522,0.079400063,-0.35377276,0
4.5488653,-0.70915914,1.9909801,0.93195522,-0.079400063,0.35377276,0
3.649262,-1.2607766,1.2543716,0.29360911,-0.4072057,-0.86485678,0
2.1847854,-0.5705536,0.43221688,0.29360911,-0.4072057,-0.86485678,0
4.7687325,-0.58549857,1.4395308,0.93195522,-0.079400063,0.35377276,0
-1.8801274,0.69443423,-0.38711619,-0.29360911,0.4072057,0.86485678,0
-3.2682135,-0.76209307,-1.0911539,-0.21272796,-0.90987861,0.35618484,0
-4.8462019,-0.3240087,-1.4395781,-0.93195522,0.079400063,-0.35377276,0
-0.98001009,-0.91679066,-0.1197238,-0.21272796,-0.90987861,0.35618484,0
-0.41821355,-0.98583579,-0.25594223,0.29360911,-0.4072057,-0.86485678,0
3.0283489,-1.3555055,1.153527,-0.21272796,-0.90987861,0.35618484,0
-0.075258017,-0.59487832,0.83267128,-0.29360911,0.4072057,0.86485678,0
-0.68539214,-1.0308845,-0.23522002,-0.21272796,-0.90987861,0.35618484,0
-4.4367805,0.5860486,-2.3138785,-0.93195522,0.079400063,-0.35377276,0
0.27417332,-0.90990859,0.64690542,-0.21272796,-0.90987861,0.35618484,0
3.2093978,-1.1580831,1.7659745,-0.21272796,-0.90987861,0.35618484,0
-4.2047954,-0.51295757,-1.0140991,-0.21272796,-0.90987861,0.35618484,0
4.1829176,-0.90649247,2.4249935,-0.29360911,0.4072057,0.86485678,0
4.7222147,-0.4730382,1.5873141,0.93195522,-0.079400063,0.35377276,0
-4.7486219,-0.41359115,-1.7167416,-0.93195522,0.079400063,-0.35377276,0
-1.6532929,0.32561541,-1.2927161,0.29360911,-0.4072057,-0.86485678,0
-2.868536,-0.23851693,-0.28340316,-0.29360911,0.4072057,0.86485678,0
4.9192629,0.3845216,1.2606921,0.93195522,-0.079400063,0.35377276,0
-4.5109224,1.1929439,-1.9823537,-0.93195522,0.079400063,-0.35377276,0
-3.0586042,-0.2260595,-0.35379457,-0.29360911,0.4072057,0.86485678,0
3.0989718,0.76056075,0.98616195,0.21272796,0.90987861,-0.35618484,0
-0.35698092,-0.98813504,-0.23407188,0.29360911,-0.4072057,-0.86485678,0
-0.9811061,0.93584329,-1.0028635,0.21272796,0.90987861,-0.35618484,0
3.6666389,0.50237739,0.66566324,0.21272796,0.90987861,-0.35618484,0
2.4579234,-0.43267375,0.46002507,0.29360911,-0.4072057,-0.86485678,0
-4.2863379,0.94465369,-1.3218102,-0.29360911,0.4072057,0.86485678,0
3.7930777,-1.2528757,1.2994761,0.29360911,-0.4072057,-0.86485678,0
-4.5887556,1.4254688,-1.7251282,-0.93195522,0.079400063,-0.35377276,0
-4.6656504,0.3979578,-1.1931782,-0.29360911,0.4072057,0.86485678,0
3.856575,0.012576699,0.72521162,0.29360911,-0.4072057,-0.86485678,0
1.1876035,0.31372607,0.83359504,-0.29360911,0.4072057,0.86485678,0
0.66699541,0.2894972,0.66826218,-0.29360911,0.4072057,0.86485678,0
3.7251341,-0.56348896,0.9518218,0.29360911,-0.4072057,-0.86485678,0
-3.6542652,1.2873937,-1.7013416,0.21272796,0.90987861,-0.35618484,0
1.3462083,0.62814909,-0.39890641,0.21272796,0.90987861,-0.35618484,0
3.7853887,-0.78532702,1.0767264,0.29360911,-0.4072057,-0.86485678,0
2.8648725,-0.57415366,0.66479373,0.29360911,-0.4072057,-0.86485678,0
3.1012077,-0.87827539,0.88821816,0.29360911,-0.4072057,-0.86485678,0
4.8149662,0.15057993,1.4829397,0.93195522,-0.079400063,0.35377276,0
4.7305179,0.14399004,1.7039256,0.93195522,-0.079400063,0.35377276,0
-4.2319713,1.2848707,-2.0528169,0.21272796,0.90987861,-0.35618484,0
-0.74105668,0.13621709,0.26241416,-0.29360911,0.4072057,0.86485678,0
-4.6285548,1.3101413,-1.6461668,-0.93195522,0.079400063,-0.35377276,0
1.2369552,0.61614513,-0.44830132,0.29360911,-0.4072057,-0.86485678,0
0.76198536,-0.38373762,1.0174934,-0.29360911,0.4072057,0.86485678,0
4.8206415,-0.11396277,1.4086161,0.93195522,-0.079400063,0.35377276,0
3.1974854,0.78991294,1.1199789,0.21272796,0.90987861,-0.35618484,0
4.7179527,-0.049664736,1.6935625,0.93195522,-0.079400063,0.35377276,0
1.9817579,-1.0092933,1.4128642,-0.21272796,-0.90987861,0.35618484,0
4.3383069,-1.4292517,1.7475019,-0.21272796,-0.90987861,0.35618484,0
-4.6363125,0.44387782,-1.8201547,-0.93195522,0.079400063,-0.35377276,0
-4.4780531,0.72815955,-1.2849622,-0.29360911,0.4072057,0.86485678,0
-3.4501538,-0.73021305,-1.4056087,0.29360911,-0.4072057,-0.86485678,0
-3.0769513,1.1392474,-1.7349885,0.21272796,0.90987861,-0.35618484,0
3.8791885,-1.2153795,1.3110547,0.29360911,-0.4072057,-0.86485678,0
-2.7862258,-0.8578912,-1.1200967,0.29360911,-0.4072057,-0.86485678,0
-4.7420092,-0.68813896,-1.7957811,-0.93195522,0.079400063,-0.35377276,0
-0.98182267,1.127516,-0.5136615,0.21272796,0.90987861,-0.35618484,0
-4.5182166,0.35463929,-2.1512852,-0.93195522,0.079400063,-0.35377276,0
4.7288208,-0.49079883,1.5659251,0.93195522,-0.079400063,0.35377276,0
2.4440901,0.14703196,0.18238258,0.29360911,-0.4072057,-0.86485678,0
-3.6005864,-0.30921257,-0.49864006,-0.29360911,0.4072057,0.86485678,0
-3.4298761,0.83759284,-2.1369033,0.29360911,-0.4072057,-0.86485678,0
-0.46346164,-0.98775935,0.0074892789,-0.21272796,-0.90987861,0.35618484,0
-1.8506567,-0.52726203,0.19810724,-0.29360911,0.4072057,0.86485678,0
-1.6902331,0.6808396,-0.31624866,-0.29360911,0.4072057,0.86485678,0
-1.9784791,-0.60201716,0.088042974,-0.21272796,-0.90987861,0.35618484,0
-3.265007,0.3813957,-1.8661382,0.29360911,-0.4072057,-0.86485678,0
0.80411297,0.055590004,-0.33131692,0.29360911,-0.4072057,-0.86485678,0
-3.7489808,0.94194627,-2.2943692,0.29360911,-0.4072057,-0.86485678,0
-2.4278517,-0.10418409,-0.19704413,-0.29360911,0.4072057,0.86485678,0
4.5568361,-1.3321571,1.8301573,0.93195522,-0.079400063,0.35377276,0
-1.8116899,0.98485273,-0.50062203,-0.29360911,0.4072057,0.86485678,0
-4.6725111,0.41896534,-1.7303863,-0.93195522,0.079400063,-0.35377276,0
-4.8708639,-0.47599959,-1.4087224,-0.93195522,0.079400063,-0.35377276,0
-4.7090168,0.73797393,-1.5626202,-0.93195522,0.079400063,-0.35377276,0
1.9115553,-0.89505327,1.6485054,-0.29360911,0.4072057,0.86485678,0
-3.7039669,1.3074212,-1.6798658,0.21272796,0.90987861,-0.35618484,0
-1.0301214,-0.12583005,0.28766108,-0.29360911,0.4072057,0.86485678,0
-0.54043734,-0.73692924,0.60226506,-0.21272796,-0.90987861,0.35618484,0
-4.5034413,0.64548302,-2.1249337,-0.93195522,0.079400063,-0.35377276,0
-2.9787874,0.50534558,-0.67106915,-0.29360911,0.4072057,0.86485678,0
-1.6908278,-0.67801046,0.065714002,-0.21272796,-0.90987861,0.35618484,0
3.527221,0.092938244,0.57556272,0.29360911,-0.4072057,-0.86485678,0
3.1363208,0.74454987,1.292315,-0.29360911,0.4072057,0.86485678,0
-2.3743794,0.43930304,-1.5910451,0.29360911,-0.4072057,-0.86485678,0
4.6125436,-1.0706514,1.7420969,0.93195522,-0.079400063,0.35377276,0
-4.8436832,0.24811506,-1.3178077,-0.93195522,0.079400063,-0.35377276,0
1.0268248,-0.56661302,0.037246823,0.29360911,-0.4072057,-0.86485678,0
-0.1987738,0.75456047,0.1553748,-0.29360911,0.4072057,0.86485678,0
2.4010143,-0.60338044,1.6773407,-0.29360911,0.4072057,0.86485678,0
-2.2176688,-0.36916411,-1.1571884,0.29360911,-0.4072057,-0.86485678,0
-4.6228333,0.065131426,-1.0219355,-0.29360911,0.4072057,0.86485678,0
-2.6378274,1.0319631,-0.80326748,-0.29360911,0.4072057,0.86485678,0
-2.0707176,1.1062894,-0.64573574,-0.29360911,0.4072057,0.86485678,0
0.61377788,0.89628494,-0.15138704,0.21272796,0.90987861,-0.35618484,0
-1.3810993,-0.69962257,-0.71759069,0.29360911,-0.4072057,-0.86485678,0
-4.6736593,-0.46216416,-1.9251194,-0.93195522,0.079400063,-0.35377276,0
1.2714599,-0.85415918,1.384938,-0.21272796,-0.90987861,0.35618484,0
3.39114,-0.10513568,1.7788861,-0.29360911,0.4072057,0.86485678,0
1.6917677,0.03205514,1.1373738,-0.29360911,0.4072057,0.86485678,0
-1.2321212,-0.18547966,0.24716967,-0.29360911,0.4072057,0.86485678,0
-3.0460651,0.99717855,-0.92548227,-0.29360911,0.4072057,0.86485678,0
-1.524979,-0.98852211,-0.62844002,-0.21272796,-0.90987861,0.35618484,0
4.6135731,-0.68533766,1.8258638,0.93195522,-0.079400063,0.35377276,0
4.96035,0.086241126,1.0652471,0.29360911,-0.4072057,-0.86485678,0
2.831392,-1.0475197,1.8226502,-0.21272796,-0.90987861,0.35618484,0
1.5945895,-0.97578728,1.2672234,-0.21272796,-0.90987861,0.35618484,0
1.8624197,0.77922249,0.29531455,0.21272796,0.90987861,-0.35618484,0
-3.2924623,-0.31320333,-0.39215612,-0.29360911,0.4072057,0.86485678,0
1.7877015,-0.90167284,0.45331407,0.29360911,-0.4072057,-0.86485678,0
-0.311905,-0.10258538,-0.63571775,0.29360911,-0.4072057,-0.86485678,0
-4.657475,0.66423166,-1.7149491,-0.93195522,0.079400063,-0.35377276,0
1.6725563,-0.039303251,0.0081889629,0.29360911,-0.4072057,-0.86485678,0
-1.9907668,0.33722398,-0.25648975,-0.29360911,0.4072057,0.86485678,0
-0.61554903,1.1559677,-0.22222793,0.21272796,0.90987861,-0.35618484,0
-2.4302728,-0.82032633,-1.0169415,0.29360911,-0.4072057,-0.86485678,0
4.6953454,0.44899952,1.143693,0.21272796,0.90987861,-0.35618484,0
-4.7259302,0.11465502,-1.6579609,-0.93195522,0.079400063,-0.35377276,0
-0.55907536,1.0487769,-0.46231985,0.21272796,0.90987861,-0.35618484,0
-2.3909326,1.1727214,-1.2397614,0.21272796,0.90987861,-0.35618484,0
2.0421665,0.15289874,0.043172002,0.29360911,-0.4072057,-0.86485678,0
-4.0623879,-0.68512845,-1.36886,-0.21272796,-0.90987861,0.35618484,0
-0.5636549,0.01590842,-0.77697521,0.29360911,-0.4072057,-0.86485678,0
-4.9749355,-0.23172414,-1.0797396,-0.93195522,0.079400063,-0.35377276,0
3.3162451,-1.0516726,2.1016154,-0.21272796,-0.90987861,0.35618484,0
2.8784425,-0.77490413,1.9201822,-0.29360911,0.4072057,0.86485678,0
-3.6259208,0.13311112,-0.71550226,-0.29360911,0.4072057,0.86485678,0
2.9824557,0.096362829,0.38900852,0.29360911,-0.4072057,-0.86485678,0
0.026089342,-0.0013586879,-0.56863368,0.29360911,-0.4072057,-0.86485678,0
4.6667886,-1.0494349,1.60396,0.93195522,-0.079400063,0.35377276,0
-1.7576237,-0.64758956,-0.86991549,0.29360911,-0.4072057,-0.86485678,0
0.63801897,0.8108989,-0.35502896,0.21272796,0.90987861,-0.35618484,0
4.4513593,0.54867661,1.2526011,0.21272796,0.90987861,-0.35618484,0
3.5407081,-1.2983712,1.6054797,-0.21272796,-0.90987861,0.35618484,0
2.7920165,0.058318138,1.4985304,-0.29360911,0.4072057,0.86485678,0
1.5179425,-0.85161269,1.4944248,-0.29360911,0.4072057,0.86485678,0
-1.2397052,-0.71349007,0.24450964,-0.21272796,-0.90987861,0.35618484,0
1.1217405,-0.3835339,-0.016730666,0.29360911,-0.4072057,-0.86485678,0
-4.5076981,1.4342835,-1.8358145,0.21272796,0.90987861,-0.35618484,0
2.3674674,-0.030442595,1.3961926,-0.29360911,0.4072057,0.86485678,0
1.0816293,-0.14506263,-0.14262867,0.29360911,-0.4072057,-0.86485678,0
-4.5873089,1.4266042,-1.7286825,-0.93195522,0.079400063,-0.35377276,0
-0.47927397,1.050988,-0.40901089,0.21272796,0.90987861,-0.35618484,0
-4.8695836,-0.080072641,-1.3232341,-0.93195522,0.079400063,-0.35377276,0
4.5979652,-1.166744,1.7589335,0.93195522,-0.079400063,0.35377276,0
-3.201292,-0.54709131,-0.50196123,-0.21272796,-0.90987861,0.35618484,0
4.2400894,-0.26925874,2.1443701,-0.29360911,0.4072057,0.86485678,0
-4.6499815,0.48105049,-1.7758017,-0.93195522,0.079400063,-0.35377276,0
-1.1498893,0.54437482,-1.2248162,0.29360911,-0.4072057,-0.86485678,0
4.6251163,0.046573877,1.9597244,0.93195522,-0.079400063,0.35377276,0
-1.8551601,1.1261433,-1.0387599,0.21272796,0.90987861,-0.35618484,0
-1.8678882,-0.88946122,-0.58018684,-0.21272796,-0.90987861,0.35618484,0
-4.1341991,1.2055031,-2.1971684,0.21272796,0.90987861,-0.35618484,0
4.6094909,-0.036460161,1.9822521,0.93195522,-0.079400063,0.35377276,0
2.0844474,-0.092602819,0.17311668,0.29360911,-0.4072057,-0.86485678,0
0.15395164,0.47151232,-0.7478705,0.29360911,-0.4072057,-0.86485678,0
-4.2148376,-0.057874441,-1.981771,0.29360911,-0.4072057,-0.86485678,0
-0.24223357,-0.90497613,0.35108641,-0.21272796,-0.90987861,0.35618484,0
1.4975852,0.99066573,0.61755538,0.21272796,0.90987861,-0.35618484,0
4.7760582,0.51838636,1.3691473,0.21272796,0.90987861,-0.35618484,0
0.59039122,-0.87958223,0.91323256,-0.21272796,-0.90987861,0.35618484,0
2.3498776,-1.0821147,1.446697,-0.21272796,-0.90987861,0.35618484,0
-4.0717812,-0.61334383,-1.1910956,-0.21272796,-0.90987861,0.35618484,0
4.6098447,-0.67278504,1.8385038,0.93195522,-0.079400063,0.35377276,0
3.0190966,-0.67747456,0.76579809,0.29360911,-0.4072057,-0.86485678,0
-4.9194155,0.034443259,-1.1662602,-0.93195522,0.079400063,-0.35377276,0
0.66190535,0.75734794,0.44625321,-0.29360911,0.4072057,0.86485678,0
-4.1489601,-0.57363224,-1.1357462,-0.21272796,-0.90987861,0.35618484,0
-4.1293135,-0.62760746,-1.2618928,-0.21272796,-0.90987861,0.35618484,0
0.82869506,0.88561279,-0.050291985,0.21272796,0.90987861,-0.35618484,0
-1.4426906,1.1036679,-0.84983063,0.21272796,0.90987861,-0.35618484,0
4.2395172,0.75165319,1.6445875,0.21272796,0.90987861,-0.35618484,0
-1.1061759,1.076414,-0.71847069,0.21272796,0.90987861,-0.35618484,0
4.8782921,-0.28369665,1.2186503,0.93195522,-0.079400063,0.35377276,0
-4.8504977,-0.20323443,-1.4011559,-0.93195522,0.079400063,-0.35377276,0
4.854248,0.31749892,1.4169216,0.93195522,-0.079400063,0.35377276,0
0.57268518,-0.85889935,0.95549285,-0.21272796,-0.90987861,0.35618484,0
-3.5678341,1.2560134,-1.7298837,0.21272796,0.90987861,-0.35618484,0
-0.23553395,1.0682174,-0.21942669,0.21272796,0.90987861,-0.35618484,0
4.702785,-0.98531544,1.5235248,0.93195522,-0.079400063,0.35377276,0
1.716709,-0.54860741,0.26297736,0.29360911,-0.4072057,-0.86485678,0
1.4882282,0.80192339,0.70579278,-0.29360911,0.4072057,0.86485678,0
-2.0475492,-0.80320305,-0.46714032,-0.21272796,-0.90987861,0.35618484,0
1.2294333,-0.7058062,0.17156732,0.29360911,-0.4072057,-0.86485678,0
-4.6699753,0.3285861,-1.75735,-0.93195522,0.079400063,-0.35377276,0
0.7118187,0.7587629,0.46253195,-0.29360911,0.4072057,0.86485678,0
-0.92766124,1.0981679,-0.55628407,0.21272796,0.90987861,-0.35618484,0
3.8493032,-1.1080916,2.275857,-0.21272796,-0.90987861,0.35618484,0
-4.5721817,1.2080631,-1.8175821,-0.93195522,0.079400063,-0.35377276,0
-0.35732841,-0.93016988,0.21798965,-0.21272796,-0.90987861,0.35618484,0
-3.5302801,0.5091877,-2.0163651,0.29360911,-0.4072057,-0.86485678,0
-2.6580436,0.06962955,-1.5132906,0.29360911,-0.4072057,-0.86485678,0
0.3868534,-0.91294074,0.7064569,-0.21272796,-0.90987861,0.35618484,0
-1.6441706,0.92770237,-1.4196687,0.21272796,0.90987861,-0.35618484,0
-4.8168054,0.26324797,-1.3852167,-0.93195522,0.079400063,-0.35377276,0
4.3945951,-0.72480822,2.3938651,0.93195522,-0.079400063,0.35377276,0
-4.6661687,0.74110496,-1.6747942,-0.93195522,0.079400063,-0.35377276,0
4.6158724,-0.40146613,1.8835196,0.93195522,-0.079400063,0.35377276,0
1.8105891,-0.50080478,1.428602,-0.29360911,0.4072057,0.86485678,0
4.7601104,-0.56998551,1.4657254,0.93195522,-0.079400063,0.35377276,0
-4.5409303,0.77673388,-1.9967165,-0.93195522,0.079400063,-0.35377276,0
3.5319276,-0.49523139,2.0103531,-0.29360911,0.4072057,0.86485678,0
-4.7955804,-0.13420463,-1.530333,-0.93195522,0.079400063,-0.35377276,0
4.744555,0.23595333,1.6875873,0.93195522,-0.079400063,0.35377276,0
-1.806506,0.89296323,-0.45559716,-0.29360911,0.4072057,0.86485678,0
-3.6959016,-0.25868344,-1.7110498,0.29360911,-0.4072057,-0.86485678,0
-0.26240468,1.0589216,-0.2592212,0.21272796,0.90987861,-0.35618484,0
4.481555,0.27850699,1.9684367,-0.29360911,0.4072057,0.86485678,0
4.5117264,-0.57329774,2.1193094,0.93195522,-0.079400063,0.35377276,0
-1.8529897,1.2127441,-0.81624126,0.21272796,0.90987861,-0.35618484,0
4.6467104,-0.34839821,1.8141909,0.93195522,-0.079400063,0.35377276,0
-2.1744404,0.86195695,-0.56590796,-0.29360911,0.4072057,0.86485678,0
4.9192266,-0.0039135218,1.1736078,0.93195522,-0.079400063,0.35377276,0
-2.1062493,1.1858211,-1.0362735,0.21272796,0.90987861,-0.35618484,0
-0.2086432,-0.19510257,-0.55710113,0.29360911,-0.4072057,-0.86485678,0
-2.7905617,0.71137309,-1.8604348,0.29360911,-0.4072057,-0.86485678,0
4.2548032,-1.0303698,1.3514628,0.29360911,-0.4072057,-0.86485678,0
-4.3994107,1.0112346,-2.3168955,-0.93195522,0.079400063,-0.35377276,0
3.6778994,0.342112,0.50939608,0.29360911,-0.4072057,-0.86485678,0
4.512188,-0.71224248,2.0869079,0.93195522,-0.079400063,0.35377276,0
-4.5759249,0.2191205,-2.0296793,-0.93195522,0.079400063,-0.35377276,0
4.5747342,-0.90087008,1.8798046,0.93195522,-0.079400063,0.35377276,0
0.63409954,-0.83116663,1.0630152,-0.21272796,-0.90987861,0.35618484,0
-4.6295772,0.20746589,-1.8909569,-0.93195522,0.079400063,-0.35377276,0
-4.9198475,-0.18304431,-1.2139335,-0.93195522,0.079400063,-0.35377276,0
-4.8072863,0.53430974,-1.3494558,-0.93195522,0.079400063,-0.35377276,0
2.321888,0.63942707,0.21261835,0.21272796,0.90987861,-0.35618484,0
3.1531873,0.64220726,0.71620631,0.21272796,0.90987861,-0.35618484,0
-4.8213825,0.30111873,-1.3646593,-0.93195522,0.079400063,-0.35377276,0
0.44946986,-0.93372059,0.69077182,-0.21272796,-0.90987861,0.35618484,0
-4.020083,-0.072346449,-0.75257921,-0.29360911,0.4072057,0.86485678,0
3.0790956,-1.1404388,1.7332258,-0.21272796,-0.90987861,0.35618484,0
2.5015235,0.79326963,0.71289635,0.21272796,0.90987861,-0.35618484,0
-2.054867,-0.61964607,-0.0026122332,-0.21272796,-0.90987861,0.35618484,0
-2.5082259,0.48657393,-1.6587412,0.29360911,-0.4072057,-0.86485678,0
2.1761079,0.72271085,0.97661638,-0.29360911,0.4072057,0.86485678,0
4.4965267,-1.4464626,1.7980313,-0.21272796,-0.90987861,0.35618484,0
-0.16873503,0.50914335,-0.87513721,0.29360911,-0.4072057,-0.86485678,0
-3.6278458,1.1663111,-1.9948707,0.21272796,0.90987861,-0.35618484,0
-4.6481614,0.72490513,-1.7258658,-0.93195522,0.079400063,-0.35377276,0
-0.030226409,0.95519203,0.11813024,-0.29360911,0.4072057,0.86485678,0
-4.7620034,-0.66500092,-1.7379179,-0.93195522,0.079400063,-0.35377276,0
2.9087934,-1.2426685,1.3703671,-0.21272796,-0.90987861,0.35618484,0
1.9455047,0.66822171,0.061383724,0.21272796,0.90987861,-0.35618484,0
3.7804141,-1.2534446,1.8634071,-0.21272796,-0.90987861,0.35618484,0
4.7736373,-0.67187619,1.4072227,0.93195522,-0.079400063,0.35377276,0
-4.5969296,0.1464138,-1.9906645,-0.93195522,0.079400063,-0.35377276,0
4.7957382,-0.11789465,1.4733357,0.93195522,-0.079400063,0.35377276,0
-4.8511915,-0.20059681,-1.3987355,-0.93195522,0.079400063,-0.35377276,0
4.42382,-1.3934355,1.8900661,-0.21272796,-0.90987861,0.35618484,0
-4.4310431,0.67671108,-2.3086452,-0.93195522,0.079400063,-0.35377276,0
-4.0838776,-0.64292741,-1.2738919,-0.21272796,-0.90987861,0.35618484,0
-0.94118208,0.6868543,-0.064785957,-0.29360911,0.4072057,0.86485678,0
-4.9057341,-0.39139485,-1.2978749,-0.93195522,0.079400063,-0.35377276,0
4.5606766,-1.403394,1.8040519,0.93195522,-0.079400063,0.35377276,0
4.7358837,0.25823188,1.7154303,0.93195522,-0.079400063,0.35377276,0
-1.857435,0.94314152,-1.5075994,0.21272796,0.90987861,-0.35618484,0
0.71102321,0.945373,0.37439919,-0.29360911,0.4072057,0.86485678,0
-0.84773594,-0.8765524,0.062064856,-0.21272796,-0.90987861,0.35618484,0
1.8212652,-1.1116614,0.56357884,0.29360911,-0.4072057,-0.86485678,0
4.7203913,0.61193252,1.8356271,0.93195522,-0.079400063,0.35377276,0
-1.8299066,1.1505086,-0.96143627,0.21272796,0.90987861,-0.35618484,0
0.46609524,0.28795218,0.60078633,-0.29360911,0.4072057,0.86485678,0
0.64613628,0.66700077,-0.67282236,0.29360911,-0.4072057,-0.86485678,0
-4.5626674,0.82195532,-1.9293046,-0.93195522,0.079400063,-0.35377276,0
1.5716518,-1.0788243,0.99031448,-0.21272796,-0.90987861,0.35618484,0
4.4881611,-0.6061368,2.1740184,0.93195522,-0.079400063,0.35377276,0
3.8253303,0.21971595,0.61707592,0.29360911,-0.4072057,-0.86485678,0
-1.5434339,1.1889527,-0.69213772,0.21272796,0.90987861,-0.35618484,0
-2.2018697,0.53969193,-1.579747,0.29360911,-0.4072057,-0.86485678,0
-2.2153492,0.25704795,-0.29498315,-0.29360911,0.4072057,0.86485678,0
4.6015577,0.34673643,0.82644749,0.21272796,0.90987861,-0.35618484,0
-1.2586746,0.25552124,0.030516028,-0.29360911,0.4072057,0.86485678,0
-0.79880697,0.97533619,-0.79310238,0.21272796,0.90987861,-0.35618484,0
-4.5047884,1.321876,-1.9695759,-0.93195522,0.079400063,-0.35377276,0
-4.6559706,-0.22990441,-1.919589,-0.93195522,0.079400063,-0.35377276,0
-4.6144071,1.0879664,-1.7333021,-0.93195522,0.079400063,-0.35377276,0
3.4356616,-0.81141782,2.1265435,-0.29360911,0.4072057,0.86485678,0
2.5379043,0.24281055,0.16913557,0.29360911,-0.4072057,-0.86485678,0
4.285109,0.6955986,1.5286245,0.21272796,0.90987861,-0.35618484,0
-0.0062004328,-1.025669,0.18374336,-0.21272796,-0.90987861,0.35618484,0
-4.7035437,0.24132633,-1.6885042,-0.93195522,0.079400063,-0.35377276,0
4.9121714,-0.079084873,1.1753235,0.93195522,-0.079400063,0.35377276,0
0.067921773,-0.045155108,-0.53381115,0.29360911,-0.4072057,-0.86485678,0
-4.5130043,1.0494045,-2.0090857,-0.93195522,0.079400063,-0.35377276,0
-1.9186282,0.20041633,-1.3238463,0.29360911,-0.4072057,-0.86485678,0
-4.5627174,0.74549723,-1.9463329,-0.93195522,0.079400063,-0.35377276,0
-1.1255429,0.76310819,-1.3195385,0.29360911,-0.4072057,-0.86485678,0
-0.33121711,-0.84162843,0.45976436,-0.21272796,-0.90987861,0.35618484,0
4.6691117,-0.62444305,1.693224,0.93195522,-0.079400063,0.35377276,0
0.80297941,-0.74295568,0.044282317,0.29360911,-0.4072057,-0.86485678,0
-3.0806892,0.98621708,-0.9320755,-0.29360911,0.4072057,0.86485678,0
4.6392078,-0.65975094,1.7640772,0.93195522,-0.079400063,0.35377276,0
2.732033,-1.1949782,1.3866239,-0.21272796,-0.90987861,0.35618484,0
4.0288672,-1.236915,2.054019,-0.21272796,-0.90987861,0.35618484,0
-1.3589293,0.060680866,-1.0680424,0.29360911,-0.4072057,-0.86485678,0
1.4537345,-0.086393416,-0.043926716,0.29360911,-0.4072057,-0.86485678,0
1.5016265,-1.1989578,0.64161015,-0.21272796,-0.90987861,0.35618484,0
-1.5056837,1.1619895,-0.73846936,0.21272796,0.90987861,-0.35618484,0
4.1623135,0.44647872,0.81890583,0.21272796,0.90987861,-0.35618484,0
1.8304596,0.7748158,0.26496959,0.21272796,0.90987861,-0.35618484,0
4.6055202,0.014233828,2.0040884,0.93195522,-0.079400063,0.35377276,0
-4.7611151,-0.0236516,-1.5963135,-0.93195522,0.079400063,-0.35377276,0
4.1940856,0.1063633,0.79563475,0.29360911,-0.4072057,-0.86485678,0
0.11961812,1.0173316,0.13974321,-0.29360911,0.4072057,0.86485678,0
4.2741976,0.55096602,1.1526418,0.21272796,0.90987861,-0.35618484,0
4.8614531,0.15228832,1.3608594,0.93195522,-0.079400063,0.35377276,0
-4.5586953,0.72520685,-1.9614825,-0.93195522,0.079400063,-0.35377276,0
-2.6455665,-0.5181067,-1.2323272,0.29360911,-0.4072057,-0.86485678,0
-1.0735614,-0.6224913,-0.6495012,0.29360911,-0.4072057,-0.86485678,0
3.6478939,0.61339068,1.5277431,-0.29360911,0.4072057,0.86485678,0
-4.3780847,1.1856275,-2.3339353,-0.93195522,0.079400063,-0.35377276,0
4.5259638,0.56957388,1.8464684,-0.29360911,0.4072057,0.86485678,0
-3.6806369,-0.59113836,-0.90076423,-0.21272796,-0.90987861,0.35618484,0
-2.8792546,1.305805,-1.1914432,0.21272796,0.90987861,-0.35618484,0
4.7913446,0.40760112,1.6028509,0.93195522,-0.079400063,0.35377276,0
2.5467377,-1.0803113,1.5688765,-0.21272796,-0.90987861,0.35618484,0
-3.987134,-0.4420768,-0.70303679,-0.21272796,-0.90987861,0.35618484,0
3.8042045,-1.012979,1.1903009,0.29360911,-0.4072057,-0.86485678,0
1.6805596,-1.2216372,0.56759143,0.29360911,-0.4072057,-0.86485678,0
3.0323164,0.29046607,0.31454515,0.29360911,-0.4072057,-0.86485678,0
2.4986243,-0.76120865,1.7847896,-0.29360911,0.4072057,0.86485678,0
-4.8093948,0.40624213,-1.3726435,-0.93195522,0.079400063,-0.35377276,0
-0.42367363,-0.66325271,-0.40967962,0.29360911,-0.4072057,-0.86485678,0
-1.8992466,-0.74121928,-0.87391055,0.29360911,-0.4072057,-0.86485678,0
-1.1877838,0.28980407,0.038440943,-0.29360911,0.4072057,0.86485678,0
-4.3400488,1.0287499,-2.4693437,-0.93195522,0.079400063,-0.35377276,0
3.7668362,-1.0892003,2.2748623,-0.21272796,-0.90987861,0.35618484,0
1.9145533,0.54878616,0.96971142,-0.29360911,0.4072057,0.86485678,0
-4.8144369,0.045607328,-1.4403019,-0.93195522,0.079400063,-0.35377276,0
2.4793525,-0.26545477,1.5448287,-0.29360911,0.4072057,0.86485678,0
1.9169118,-0.20345405,0.16843319,0.29360911,-0.4072057,-0.86485678,0
-2.2851276,0.46953052,-0.41871667,-0.29360911,0.4072057,0.86485678,0
-4.4702101,-0.55720842,-1.285655,-0.21272796,-0.90987861,0.35618484,0
3.7705619,-0.35715199,2.0263538,-0.29360911,0.4072057,0.86485678,0
-0.72256619,-0.96488023,-0.36913311,0.29360911,-0.4072057,-0.86485678,0
-0.51317298,-0.72250897,0.65538514,-0.21272796,-0.90987861,0.35618484,0
-0.87847471,-0.48355764,-0.64868641,0.29360911,-0.4072057,-0.86485678,0
4.5911498,-0.49359989,1.9279671,0.93195522,-0.079400063,0.35377276,0
-1.1638776,0.15686345,-1.0471107,0.29360911,-0.4072057,-0.86485678,0
4.2329521,-0.79820013,2.3909917,-0.29360911,0.4072057,0.86485678,0
-0.56459284,0.82433772,-1.0389473,0.21272796,0.90987861,-0.35618484,0
3.3393025,0.520679,1.4666317,-0.29360911,0.4072057,0.86485678,0
-1.5472163,1.0175487,-0.42623067,-0.29360911,0.4072057,0.86485678,0
4.3724947,-0.62602806,1.2010388,0.29360911,-0.4072057,-0.86485678,0
4.0639563,0.48219597,0.85140371,0.21272796,0.90987861,-0.35618484,0
2.8958118,-1.238277,1.3738329,-0.21272796,-0.90987861,0.35618484,0
0.10366075,0.20921504,0.51481611,-0.29360911,0.4072057,0.86485678,0
-4.5769801,0.095558882,-2.0546317,-0.93195522,0.079400063,-0.35377276,0
-0.014732957,0.88254392,-0.56186062,0.21272796,0.90987861,-0.35618484,0
4.5603108,-1.137646,1.8646603,0.93195522,-0.079400063,0.35377276,0
-0.48876387,0.83176017,-0.97469896,0.21272796,0.90987861,-0.35618484,0
0.67355382,-1.1382298,0.30218208,-0.21272796,-0.90987861,0.35618484,0
1.7780231,-1.1446699,0.94536471,-0.21272796,-0.90987861,0.35618484,0
-2.3019595,-0.18268907,-1.2736032,0.29360911,-0.4072057,-0.86485678,0
-0.44779673,-0.32524398,0.57924503,-0.29360911,0.4072057,0.86485678,0
3.1711855,0.62863934,0.69229579,0.21272796,0.90987861,-0.35618484,0
-2.018472,0.30811042,-0.25218749,-0.29360911,0.4072057,0.86485678,0
3.4463112,-1.3994889,1.2907948,-0.21272796,-0.90987861,0.35618484,0
-2.3887939,-0.85518682,-0.80373883,-0.21272796,-0.90987861,0.35618484,0
-3.7425478,0.26000327,-0.81484127,-0.29360911,0.4072057,0.86485678,0
-1.9225304,0.72115207,-1.5703523,0.29360911,-0.4072057,-0.86485678,0
-1.6567574,-0.60993803,0.25995421,-0.21272796,-0.90987861,0.35618484,0
1.9196888,0.83630353,0.4753325,0.21272796,0.90987861,-0.35618484,0
-2.2064126,-0.077062637,-0.13463807,-0.29360911,0.4072057,0.86485678,0
-4.1191812,-0.47827029,-0.8743577,-0.21272796,-0.90987861,0.35618484,0
0.18933606,-0.53431332,-0.26227909,0.29360911,-0.4072057,-0.86485678,0
-4.0307846,1.241716,-2.0428991,0.21272796,0.90987861,-0.35618484,0
-3.788228,1.3251116,-1.6849995,0.21272796,0.90987861,-0.35618484,0
-2.1329863,0.94639277,-1.6638639,0.21272796,0.90987861,-0.35618484,0
3.4107151,-1.2657435,1.1757264,0.29360911,-0.4072057,-0.86485678,0
4.7004175,0.552212,1.8748412,0.93195522,-0.079400063,0.35377276,0
3.7407517,-1.1869493,2.0095825,-0.21272796,-0.90987861,0.35618484,0
-4.8271179,-0.12394047,-1.4449487,-0.93195522,0.079400063,-0.35377276,0
-1.1168456,1.0907459,-0.68823183,0.21272796,0.90987861,-0.35618484,0
-3.8243451,-0.49398661,-0.73841715,-0.21272796,-0.90987861,0.35618484,0
-4.6921301,0.75356615,-1.6036067,-0.93195522,0.079400063,-0.35377276,0
