-1.1606559,-0.54318994,-0.81055355,-0.70454931,-0.48993874,-0.5133909,0
-0.27616778,1.3567634,-0.5005579,-0.70767283,0.43102193,0.55983835,0
0.82045519,-0.65136921,2.2493176,0.053003713,-0.75774652,0.65039253,0
1.3564495,0.94214582,0.096164942,0.70767283,-0.43102193,-0.55983835,0
1.011569,-0.73292691,2.1387234,0.053003713,-0.75774652,0.65039253,0
0.85791135,2.029464,-0.19235611,0.70454931,0.48993874,0.5133909,0
-1.4402291,0.64811462,-1.4264162,-0.70767283,0.43102193,0.55983835,0
-1.193532,-2.091027,0.71169424,-0.70454931,-0.48993874,-0.5133909,0
-1.215535,-1.5672235,0.56321037,-0.70767283,0.43102193,0.55983835,0
0.77919072,-1.364429,1.1423137,0.70767283,-0.43102193,-0.55983835,0
-0.4956376,1.3257778,-1.4900619,-0.053003713,0.75774652,-0.65039253,0
-1.4804474,0.92488849,-1.7727044,-0.70454931,-0.48993874,-0.5133909,0
0.31337109,1.2002959,-1.4211059,0.70767283,-0.43102193,-0.55983835,0
0.89656782,1.803563,-1.0468712,-0.053003713,0.75774652,-0.65039253,0
0.35860664,2.0682857,-0.24596524,-0.70767283,0.43102193,0.55983835,0
-0.84015334,-1.5426713,-0.29656935,-0.70454931,-0.48993874,-0.5133909,0
0.17571808,-1.0048681,0.10265696,0.70767283,-0.43102193,-0.55983835,0
0.28656721,-0.42491093,-0.20373395,0.70767283,-0.43102193,-0.55983835,0
1.3758694,0.50728858,0.45551139,0.70767283,-0.43102193,-0.55983835,0
0.53773093,-1.170041,0.68743241,0.70767283,-0.43102193,-0.55983835,0
0.31128749,-0.2305674,-0.32211185,0.70767283,-0.43102193,-0.55983835,0
0.88540983,2.158133,-0.63286614,-0.053003713,0.75774652,-0.65039253,0
-0.68803632,-1.6772776,1.1770072,0.053003713,-0.75774652,0.65039253,0
0.7756232,-1.4219226,1.3552301,0.053003713,-0.75774652,0.65039253,0
-0.94508767,0.018150926,-1.6420857,-0.70454931,-0.48993874,-0.5133909,0
-1.1232874,-0.25801075,-0.32815126,-0.70767283,0.43102193,0.55983835,0
-0.57372582,1.3787591,-0.89362538,-0.70767283,0.43102193,0.55983835,0
0.6142841,-0.42491859,0.2105279,0.70767283,-0.43102193,-0.55983835,0
-0.82336497,-1.2802997,-0.56999499,-0.70454931,-0.48993874,-0.5133909,0
-1.3012476,0.87223089,-1.4232829,-0.70767283,0.43102193,0.55983835,0
-1.0741991,-1.0312647,-0.46342298,-0.70454931,-0.48993874,-0.5133909,0
-0.23448491,-1.1131067,-0.33253324,0.70767283,-0.43102193,-0.55983835,0
1.352746,0.88034177,0.22518921,0.70454931,0.48993874,0.5133909,0
0.71798044,-0.61676842,0.48931289,0.70767283,-0.43102193,-0.55983835,0
-0.65585822,-1.6176503,1.243854,0.053003713,-0.75774652,0.65039253,0
0.43465102,2.1917994,-0.55690885,-0.053003713,0.75774652,-0.65039253,0
1.1759322,0.98783219,0.3652586,0.70454931,0.48993874,0.5133909,0
-0.76477277,-1.7164371,-0.23418951,-0.70454931,-0.48993874,-0.5133909,0
1.0941687,-0.70589781,2.0938249,0.70454931,0.48993874,0.5133909,0
-0.20166907,-1.3644501,1.5018334,0.053003713,-0.75774652,0.65039253,0
0.40741235,1.827873,-0.9786849,-0.053003713,0.75774652,-0.65039253,0
-0.46872458,0.94486517,-0.42684007,-0.70767283,0.43102193,0.55983835,0
0.87301517,0.80152237,-0.40666133,0.70767283,-0.43102193,-0.55983835,0
-0.97037655,1.0454837,-1.7779325,-0.053003713,0.75774652,-0.65039253,0
0.96352768,1.2347559,0.42110682,0.70454931,0.48993874,0.5133909,0
-0.41632822,0.22733399,0.19182283,-0.70767283,0.43102193,0.55983835,0
-0.53817666,-1.7279805,-0.2430259,0.70767283,-0.43102193,-0.55983835,0
-0.12531173,-1.2600418,1.6172526,0.053003713,-0.75774652,0.65039253,0
-0.53372872,-0.051364601,0.25799212,-0.70767283,0.43102193,0.55983835,0
-1.0512668,0.54493046,-1.9990871,-0.70454931,-0.48993874,-0.5133909,0
0.21095192,1.1451637,0.2781052,-0.70767283,0.43102193,0.55983835,0
-0.52448863,-1.6217048,1.2284245,0.053003713,-0.75774652,0.65039253,0
-1.0602417,1.016116,-1.229413,-0.70767283,0.43102193,0.55983835,0
1.297044,-0.73166144,1.8399967,0.70454931,0.48993874,0.5133909,0
1.0611553,0.61309874,0.88038719,0.70454931,0.48993874,0.5133909,0
-0.17875218,1.0669336,-1.8174553,-0.053003713,0.75774652,-0.65039253,0
-0.13909841,1.0485194,-1.8421408,-0.053003713,0.75774652,-0.65039253,0
1.2739252,0.49576509,0.33551934,0.70767283,-0.43102193,-0.55983835,0
0.84301335,1.5005853,-0.98279738,0.70767283,-0.43102193,-0.55983835,0
1.1286831,0.90364963,0.51043767,0.70454931,0.48993874,0.5133909,0
0.54621822,-0.53501612,0.20925248,0.70767283,-0.43102193,-0.55983835,0
-0.65820652,-2.2127037,0.55077243,0.053003713,-0.75774652,0.65039253,0
-0.18252105,1.1058246,-1.7718378,-0.053003713,0.75774652,-0.65039253,0
0.89431483,1.0929863,0.65138406,0.70454931,0.48993874,0.5133909,0
0.059814155,-1.1627656,1.7154984,0.053003713,-0.75774652,0.65039253,0
0.23068154,-1.340495,1.4945083,0.053003713,-0.75774652,0.65039253,0
-1.4011216,0.13545871,-1.128199,-0.70454931,-0.48993874,-0.5133909,0
-0.88545012,-0.3598032,-1.36324,-0.70454931,-0.48993874,-0.5133909,0
1.1053863,0.53149033,0.89756757,0.70454931,0.48993874,0.5133909,0
0.29896581,-0.71767282,1.8235667,-0.70767283,0.43102193,0.55983835,0
-0.78815466,-0.49144554,-1.371134,-0.70454931,-0.48993874,-0.5133909,0
0.78322184,-1.2463607,1.5591509,0.053003713,-0.75774652,0.65039253,0
1.3021941,-0.71133095,1.8135273,0.70454931,0.48993874,0.5133909,0
-0.14259711,-0.11363482,0.80035037,-0.70767283,0.43102193,0.55983835,0
-0.44878113,1.6368411,-0.9343853,-0.70767283,0.43102193,0.55983835,0
1.1404088,0.5188815,0.14894837,0.70767283,-0.43102193,-0.55983835,0
-1.0490317,0.17913036,-0.57084394,-0.70767283,0.43102193,0.55983835,0
-0.21038455,1.5053866,-1.3040538,-0.053003713,0.75774652,-0.65039253,0
-0.91313726,1.3617413,-1.3095617,-0.70767283,0.43102193,0.55983835,0
-0.92960274,0.7137686,-2.1677237,-0.053003713,0.75774652,-0.65039253,0
-0.31566519,1.2129947,-1.6361281,-0.053003713,0.75774652,-0.65039253,0
-1.1834555,0.84289742,-1.996593,-0.053003713,0.75774652,-0.65039253,0
1.044517,-0.33184111,1.8049947,0.70454931,0.48993874,0.5133909,0
0.54398692,0.59920359,-0.66680861,0.70767283,-0.43102193,-0.55983835,0
-0.2200183,-1.4807264,1.3678601,0.053003713,-0.75774652,0.65039253,0
1.0385501,-0.42979753,1.9066652,0.70454931,0.48993874,0.5133909,0
0.096186988,1.8591876,-0.91683793,-0.053003713,0.75774652,-0.65039253,0
0.75146294,0.86601454,-0.60996419,0.70767283,-0.43102193,-0.55983835,0
1.1004522,-0.63490224,2.0174494,0.70454931,0.48993874,0.5133909,0
-0.049001813,-1.221167,1.6563251,0.053003713,-0.75774652,0.65039253,0
0.26928872,0.35759115,0.95820224,-0.70767283,0.43102193,0.55983835,0
0.66327929,-0.23421097,0.12563443,0.70767283,-0.43102193,-0.55983835,0
0.78911865,1.7630492,0.15629578,0.70454931,0.48993874,0.5133909,0
0.54052067,2.0485189,-0.7324667,-0.053003713,0.75774652,-0.65039253,0
0.93796778,1.3037959,-0.71125937,0.70767283,-0.43102193,-0.55983835,0
0.95534515,-0.74125272,0.88519847,0.70767283,-0.43102193,-0.55983835,0
-0.94626874,0.98689091,-1.0628431,-0.70767283,0.43102193,0.55983835,0
-1.145808,-0.43162259,-0.9374007,-0.70454931,-0.48993874,-0.5133909,0
-0.61638802,-2.4285297,0.24173903,-0.70454931,-0.48993874,-0.5133909,0
0.022238225,1.529609,-1.2947907,-0.053003713,0.75774652,-0.65039253,0
0.39249891,0.31157094,1.1493795,-0.70767283,0.43102193,0.55983835,0
-0.72858661,-2.3684709,0.33839869,-0.70454931,-0.48993874,-0.5133909,0
-0.20157963,-1.5012987,0.0079318285,0.70767283,-0.43102193,-0.55983835,0
-0.79813766,-2.1892357,0.2627995,-0.70454931,-0.48993874,-0.5133909,0
1.3115724,1.6378052,-0.44116807,0.70454931,0.48993874,0.5133909,0
-0.18317217,1.351607,-1.4854337,-0.053003713,0.75774652,-0.65039253,0
1.311462,1.672251,-0.47388875,0.70454931,0.48993874,0.5133909,0
0.37348077,2.0553055,-0.71094704,-0.053003713,0.75774652,-0.65039253,0
-0.3147642,-1.5788347,1.261279,0.053003713,-0.75774652,0.65039253,0
-0.95355213,0.66293168,-2.2249999,-0.053003713,0.75774652,-0.65039253,0
0.59054375,-1.2938076,1.5195748,0.053003713,-0.75774652,0.65039253,0
0.24990815,0.44677097,0.86504388,-0.70767283,0.43102193,0.55983835,0
-0.42641383,1.1546729,-1.6950508,-0.053003713,0.75774652,-0.65039253,0
0.62238979,-0.40646139,0.20656347,0.70767283,-0.43102193,-0.55983835,0
-0.65705097,-0.47088483,0.42509505,-0.70767283,0.43102193,0.55983835,0
0.97163188,2.0120316,-0.81010985,-0.053003713,0.75774652,-0.65039253,0
0.011852205,1.2533151,-0.056836009,-0.70767283,0.43102193,0.55983835,0
-0.38968754,1.2737166,-1.5593508,-0.053003713,0.75774652,-0.65039253,0
0.44688773,1.2231958,-1.2699627,0.70767283,-0.43102193,-0.55983835,0
0.25958177,2.0273886,-0.33965206,-0.70767283,0.43102193,0.55983835,0
-0.037980318,0.8270157,0.20838201,-0.70767283,0.43102193,0.55983835,0
1.1281434,0.014558509,0.52172452,0.70767283,-0.43102193,-0.55983835,0
-1.3321023,0.17515145,-0.92560041,-0.70767283,0.43102193,0.55983835,0
-0.28851616,1.5580007,-1.236388,-0.053003713,0.75774652,-0.65039253,0
1.2629433,0.91888666,-0.0041257143,0.70767283,-0.43102193,-0.55983835,0
-1.2276397,-0.40989202,-0.84583735,-0.70454931,-0.48993874,-0.5133909,0
-0.1555559,-1.288411,-0.097794414,0.70767283,-0.43102193,-0.55983835,0
-0.58617055,-0.47654164,-1.2671813,0.70767283,-0.43102193,-0.55983835,0
-0.99659419,1.1630442,-1.6388308,-0.053003713,0.75774652,-0.65039253,0
-0.93565494,-2.1294675,0.39448237,-0.70454931,-0.48993874,-0.5133909,0
0.6314224,-1.3408979,1.4613802,0.053003713,-0.75774652,0.65039253,0
0.23214407,-0.099052727,-0.52340806,0.70767283,-0.43102193,-0.55983835,0
-0.97000504,-0.4377445,-1.1728206,-0.70454931,-0.48993874,-0.5133909,0
1.1555395,-0.49835694,1.8115427,0.70454931,0.48993874,0.5133909,0
0.99864376,-1.2238203,1.3114616,0.70767283,-0.43102193,-0.55983835,0
0.98831534,0.26337451,1.3140973,0.70454931,0.48993874,0.5133909,0
0.79610026,0.28097689,-0.10311669,0.70767283,-0.43102193,-0.55983835,0
1.0174514,0.64995295,-0.10739037,0.70767283,-0.43102193,-0.55983835,0
0.07943356,1.3651621,-1.4910421,-0.053003713,0.75774652,-0.65039253,0
0.79298151,0.42377746,1.429087,0.70454931,0.48993874,0.5133909,0
-0.22323611,1.8800361,-0.86651683,-0.053003713,0.75774652,-0.65039253,0
-0.86731774,-0.95025408,-0.82464552,-0.70454931,-0.48993874,-0.5133909,0
-0.67241013,-1.1998781,0.96693516,-0.70767283,0.43102193,0.55983835,0
-1.039633,-0.33110219,-1.1790377,-0.70454931,-0.48993874,-0.5133909,0
-0.38839459,-1.0435867,-0.5806092,0.70767283,-0.43102193,-0.55983835,0
-0.68430704,0.78685814,-0.57770026,-0.70767283,0.43102193,0.55983835,0
-1.0337868,-0.36136657,-0.13544239,-0.70767283,0.43102193,0.55983835,0
-0.12032846,-1.2000554,-0.12128985,0.70767283,-0.43102193,-0.55983835,0
1.2635173,1.3083751,-0.30326891,0.70767283,-0.43102193,-0.55983835,0
-0.86898798,0.19209981,-1.9125233,-0.70454931,-0.48993874,-0.5133909,0
0.78360879,-1.0121673,1.8319689,0.053003713,-0.75774652,0.65039253,0
-0.99930966,-1.5747094,-0.04757762,-0.70454931,-0.48993874,-0.5133909,0
-0.90316451,-0.72904766,-0.98655266,-0.70454931,-0.48993874,-0.5133909,0
-0.106049,-0.87930745,1.4360445,-0.70767283,0.43102193,0.55983835,0
1.1280218,-0.061985016,1.4328685,0.70454931,0.48993874,0.5133909,0
-0.35571504,0.56148279,0.011179268,-0.70767283,0.43102193,0.55983835,0
1.2233301,1.4584409,-0.14889848,0.70454931,0.48993874,0.5133909,0
0.18216932,-1.0372273,1.8517866,0.053003713,-0.75774652,0.65039253,0
0.72993898,2.3785334,-0.34985781,0.70454931,0.48993874,0.5133909,0
0.34025216,-1.6948442,1.0727403,0.053003713,-0.75774652,0.65039253,0
-0.7579934,0.8747319,-1.9941772,-0.053003713,0.75774652,-0.65039253,0
0.48053777,-0.97918117,1.8950984,0.053003713,-0.75774652,0.65039253,0
1.0353153,1.9135396,-0.93004894,-0.053003713,0.75774652,-0.65039253,0
-1.1157348,-0.2958515,-0.28947058,-0.70767283,0.43102193,0.55983835,0
-1.2919632,-1.9595708,0.72132444,-0.70454931,-0.48993874,-0.5133909,0
0.91752762,0.93202204,0.77313954,0.70454931,0.48993874,0.5133909,0
-1.129529,-1.0993626,-0.32250434,-0.70454931,-0.48993874,-0.5133909,0
0.34162545,2.242707,-0.49001694,-0.053003713,0.75774652,-0.65039253,0
-0.88479614,-1.6038758,-0.1768955,-0.70454931,-0.48993874,-0.5133909,0
-0.93769622,0.51940173,-0.69208503,-0.70767283,0.43102193,0.55983835,0
1.1156242,1.7058268,-0.2371738,0.70454931,0.48993874,0.5133909,0
-1.0172799,-0.3986488,-1.1452531,-0.70454931,-0.48993874,-0.5133909,0
0.81827611,0.17314547,0.0079349987,0.70767283,-0.43102193,-0.55983835,0
0.94121355,1.2718928,0.41628897,0.70454931,0.48993874,0.5133909,0
-1.1351542,0.26747116,-0.74772245,-0.70767283,0.43102193,0.55983835,0
-0.97814649,-1.8097259,1.0463394,0.053003713,-0.75774652,0.65039253,0
0.3587175,1.9705698,-0.8084662,-0.053003713,0.75774652,-0.65039253,0
0.87981874,0.029451489,1.6862291,0.70454931,0.48993874,0.5133909,0
-1.0650518,0.38422811,-1.826808,-0.70454931,-0.48993874,-0.5133909,0
-1.1308268,-2.0341179,0.7973516,0.053003713,-0.75774652,0.65039253,0
-0.74932194,0.94847512,-0.78431296,-0.70767283,0.43102193,0.55983835,0
-0.26675987,-1.6918294,1.1257215,0.053003713,-0.75774652,0.65039253,0
-0.93361479,-1.8777707,0.15148342,-0.70454931,-0.48993874,-0.5133909,0
0.54610908,-1.2249806,1.6033837,0.053003713,-0.75774652,0.65039253,0
-1.2001997,-0.16599861,-1.1162466,-0.70454931,-0.48993874,-0.5133909,0
-1.4641078,0.44101956,-1.3333629,-0.70454931,-0.48993874,-0.5133909,0
-0.61033815,1.084048,-1.762344,-0.053003713,0.75774652,-0.65039253,0
-0.89604837,-0.097579241,-1.5989407,-0.70454931,-0.48993874,-0.5133909,0
-0.48512372,-0.33102459,0.53474343,-0.70767283,0.43102193,0.55983835,0
-0.087744683,-0.85488498,-0.34584999,0.70767283,-0.43102193,-0.55983835,0
1.0390248,-1.0883707,1.7223721,0.053003713,-0.75774652,0.65039253,0
-1.120477,-1.8747268,0.40501797,-0.70454931,-0.48993874,-0.5133909,0
-0.12077333,-1.8187827,0.96591568,0.053003713,-0.75774652,0.65039253,0
0.6661635,2.1814201,-0.58786798,-0.053003713,0.75774652,-0.65039253,0
0.76168233,1.5165579,0.42917931,0.70454931,0.48993874,0.5133909,0
-1.3208048,0.26676446,-0.98185313,-0.70767283,0.43102193,0.55983835,0
1.3044465,1.9183476,-0.69911587,0.70454931,0.48993874,0.5133909,0
-0.20025702,-1.971153,0.794873,0.053003713,-0.75774652,0.65039253,0
1.3117223,-0.33032748,1.4368523,0.70454931,0.48993874,0.5133909,0
-0.38033921,-0.83091837,-0.7341609,0.70767283,-0.43102193,-0.55983835,0
1.2083127,0.143599,1.1264892,0.70454931,0.48993874,0.5133909,0
1.3809434,0.87527102,0.19133195,0.70454931,0.48993874,0.5133909,0
1.1252739,2.0173411,-0.54770064,0.70454931,0.48993874,0.5133909,0
1.0537332,1.8058424,-0.24768496,0.70454931,0.48993874,0.5133909,0
0.596802,2.453341,-0.26541138,-0.053003713,0.75774652,-0.65039253,0
-1.2140876,-1.7213428,0.6836971,-0.70767283,0.43102193,0.55983835,0
1.4501015,-0.76258618,1.6594614,0.70454931,0.48993874,0.5133909,0
-1.1005017,-1.1912339,-0.27466518,-0.70454931,-0.48993874,-0.5133909,0
-0.04841888,-0.84403527,1.4817363,-0.70767283,0.43102193,0.55983835,0
-0.27555409,-1.4504495,-0.12472594,0.70767283,-0.43102193,-0.55983835,0
0.71847004,2.1357028,-0.10238028,0.70454931,0.48993874,0.5133909,0
1.1395659,-1.1702509,1.6187832,0.053003713,-0.75774652,0.65039253,0
0.32074285,1.6848433,-1.1382599,-0.053003713,0.75774652,-0.65039253,0
-1.1121305,-1.1254072,0.35376418,-0.70767283,0.43102193,0.55983835,0
1.4204242,-0.24270594,1.2040575,0.70454931,0.48993874,0.5133909,0
-0.3320384,1.5520056,-1.2398255,-0.053003713,0.75774652,-0.65039253,0
1.2717102,-0.21999112,1.3864669,0.70454931,0.48993874,0.5133909,0
1.2482517,0.73847169,0.11620542,0.70767283,-0.43102193,-0.55983835,0
-0.70381379,-1.7948914,-0.24297571,-0.70454931,-0.48993874,-0.5133909,0
-0.87101698,-2.0895612,0.71158385,0.053003713,-0.75774652,0.65039253,0
-0.91669106,-0.73000216,-0.9670788,-0.70454931,-0.48993874,-0.5133909,0
0.1647796,1.8102932,-0.97939301,-0.053003713,0.75774652,-0.65039253,0
0.97208357,-0.54738045,2.1100919,0.70454931,0.48993874,0.5133909,0
1.0072906,-0.85482782,1.0383028,0.70767283,-0.43102193,-0.55983835,0
-0.2462022,-1.9307761,0.28218246,0.70767283,-0.43102193,-0.55983835,0
0.12127444,1.622834,-1.1942489,-0.053003713,0.75774652,-0.65039253,0
-1.1893997,-1.0854142,0.22529989,-0.70767283,0.43102193,0.55983835,0
0.0068794489,-0.46445042,1.2593931,-0.70767283,0.43102193,0.55983835,0
-0.091537952,-1.3009157,1.5668795,0.053003713,-0.75774652,0.65039253,0
-0.97305369,-1.6718428,0.0090864897,-0.70454931,-0.48993874,-0.5133909,0
0.12906799,1.8291898,-0.352036,-0.70767283,0.43102193,0.55983835,0
1.341156,0.76133323,0.35466698,0.70454931,0.48993874,0.5133909,0
1.3035938,1.4344622,-0.3496846,0.70767283,-0.43102193,-0.55983835,0
1.1636947,0.91927922,0.44747397,0.70454931,0.48993874,0.5133909,0
-1.0293913,0.0061026216,-1.514894,-0.70454931,-0.48993874,-0.5133909,0
0.30489957,0.19763678,1.1263664,-0.70767283,0.43102193,0.55983835,0
-1.2077227,-0.83969527,-0.46300119,-0.70454931,-0.48993874,-0.5133909,0
0.76023376,-0.66683507,2.2362065,0.053003713,-0.75774652,0.65039253,0
-0.21296543,-0.26737893,-0.95646065,0.70767283,-0.43102193,-0.55983835,0
1.3053904,-0.47682372,1.5853462,0.70454931,0.48993874,0.5133909,0
0.44744912,1.5279732,-1.3313489,-0.053003713,0.75774652,-0.65039253,0
-0.84159529,0.70322311,-2.1871819,-0.053003713,0.75774652,-0.65039253,0
0.83716571,1.8885554,-0.94300914,-0.053003713,0.75774652,-0.65039253,0
1.1911325,0.60416669,0.71053761,0.70454931,0.48993874,0.5133909,0
0.82268077,-1.1604375,1.0402341,0.70767283,-0.43102193,-0.55983835,0
0.95810491,-1.2892189,1.4949665,0.053003713,-0.75774652,0.65039253,0
0.24308673,-1.3629301,0.46348894,0.70767283,-0.43102193,-0.55983835,0
1.0186341,-0.35745478,1.8649585,0.70454931,0.48993874,0.5133909,0
1.0550718,0.32445586,1.1641932,0.70454931,0.48993874,0.5133909,0
0.8570807,-1.1370518,1.065713,0.70767283,-0.43102193,-0.55983835,0
-0.71575397,0.88216162,-1.9889632,-0.053003713,0.75774652,-0.65039253,0
-0.46324819,0.99649143,-0.4596647,-0.70767283,0.43102193,0.55983835,0
0.084102064,-0.042943835,-0.75374138,0.70767283,-0.43102193,-0.55983835,0
-0.87488699,-2.0111682,0.80323195,0.053003713,-0.75774652,0.65039253,0
0.89092207,2.2281232,-0.42724276,0.70454931,0.48993874,0.5133909,0
0.98694617,1.5030781,0.1329037,0.70454931,0.48993874,0.5133909,0
0.48741657,2.2384467,-0.50686145,-0.053003713,0.75774652,-0.65039253,0
-0.88399476,-0.85547471,-0.89220846,-0.70454931,-0.48993874,-0.5133909,0
0.608266,1.3909588,-1.1951313,0.70767283,-0.43102193,-0.55983835,0
0.81038892,1.3136967,0.55593121,0.70454931,0.48993874,0.5133909,0
0.85787022,1.9242135,-0.90315223,-0.053003713,0.75774652,-0.65039253,0
-0.42542323,1.516203,-1.2739272,-0.053003713,0.75774652,-0.65039253,0
0.30084819,1.1232731,0.40859365,-0.70767283,0.43102193,0.55983835,0
-0.702896,-0.16876078,-1.6516917,0.70767283,-0.43102193,-0.55983835,0
0.090755478,1.9706126,-0.78657842,-0.053003713,0.75774652,-0.65039253,0
-0.028920114,1.4478226,-1.3859076,-0.053003713,0.75774652,-0.65039253,0
-0.77927768,1.0245295,-1.8179189,-0.053003713,0.75774652,-0.65039253,0
-1.3491901,-1.2320559,0.10557806,-0.70454931,-0.48993874,-0.5133909,0
1.2695378,1.7968946,-0.67177153,0.70767283,-0.43102193,-0.55983835,0
-0.8033911,1.3731763,-1.4097595,-0.053003713,0.75774652,-0.65039253,0
-1.0107033,0.65888989,-2.1635075,-0.70454931,-0.48993874,-0.5133909,0
0.41641372,0.49588031,1.0377086,-0.70767283,0.43102193,0.55983835,0
0.97971034,-0.594872,0.80329847,0.70767283,-0.43102193,-0.55983835,0
0.96279663,0.12017202,1.4857786,0.70454931,0.48993874,0.5133909,0
-0.35300323,-2.2749789,0.45334554,0.053003713,-0.75774652,0.65039253,0
1.3663919,0.45768058,0.60981607,0.70454931,0.48993874,0.5133909,0
-0.41898736,0.62359172,-0.11661905,-0.70767283,0.43102193,0.55983835,0
0.8124485,1.3474561,0.52088755,0.70454931,0.48993874,0.5133909,0
0.96869588,1.1845216,0.46195382,0.70454931,0.48993874,0.5133909,0
0.43139526,1.2075956,-1.2775356,0.70767283,-0.43102193,-0.55983835,0
-0.61407948,0.4882367,-0.25901783,-0.70767283,0.43102193,0.55983835,0
-0.71283638,-0.94701862,-1.0397348,-0.70454931,-0.48993874,-0.5133909,0
0.6595313,-0.91780168,1.9520222,0.053003713,-0.75774652,0.65039253,0
0.92555416,1.0100393,0.68767071,0.70454931,0.48993874,0.5133909,0
-0.23321742,0.90457565,-0.098124266,-0.70767283,0.43102193,0.55983835,0
1.3281741,0.83929783,0.13960612,0.70767283,-0.43102193,-0.55983835,0
0.78801799,-0.25578892,2.0844216,0.70454931,0.48993874,0.5133909,0
-0.97739911,-1.3499272,-0.29216015,-0.70454931,-0.48993874,-0.5133909,0
-0.21628171,1.2347269,-1.6189077,-0.053003713,0.75774652,-0.65039253,0
-1.0358951,1.0525779,-1.764328,-0.053003713,0.75774652,-0.65039253,0
-0.72597456,-0.35559833,-1.5370177,0.70767283,-0.43102193,-0.55983835,0
0.41183582,1.3136729,0.40229988,-0.70767283,0.43102193,0.55983835,0
-1.0517831,-0.21567754,-0.27035764,-0.70767283,0.43102193,0.55983835,0
0.79158652,-1.3634075,1.4221027,0.053003713,-0.75774652,0.65039253,0
-0.13563436,1.5614847,-1.2447877,-0.053003713,0.75774652,-0.65039253,0
-0.77534693,-0.3930904,0.21566692,-0.70767283,0.43102193,0.55983835,0
-0.24729939,-0.022806823,0.59807092,-0.70767283,0.43102193,0.55983835,0
-1.2007172,0.6743632,-1.9175097,-0.70454931,-0.48993874,-0.5133909,0
0.79929709,2.3026583,-0.45746779,-0.053003713,0.75774652,-0.65039253,0
-0.32525593,-0.82778156,-0.66694701,0.70767283,-0.43102193,-0.55983835,0
-0.07428512,-0.62655663,-0.50462729,0.70767283,-0.43102193,-0.55983835,0
-1.2589022,-0.90827501,0.0010641217,-0.70767283,0.43102193,0.55983835,0
-0.035021842,-0.4352318,-0.6022976,0.70767283,-0.43102193,-0.55983835,0
1.1493949,-0.54412359,0.97871935,0.70767283,-0.43102193,-0.55983835,0
-0.78999943,-0.22218883,-1.6255591,-0.70454931,-0.48993874,-0.5133909,0
0.2661342,-0.96409464,1.930148,0.053003713,-0.75774652,0.65039253,0
-1.1226754,-0.11617318,-0.43657902,-0.70767283,0.43102193,0.55983835,0
0.56723607,1.5248916,-1.3447013,-0.053003713,0.75774652,-0.65039253,0
0.16425794,1.2580655,-1.6227293,-0.053003713,0.75774652,-0.65039253,0
-0.62679386,-1.9884441,-0.15451181,0.70767283,-0.43102193,-0.55983835,0
1.0784622,0.13142891,0.36894506,0.70767283,-0.43102193,-0.55983835,0
0.06982246,-0.39135718,-0.50354677,0.70767283,-0.43102193,-0.55983835,0
0.43878281,0.87476003,-1.0119458,0.70767283,-0.43102193,-0.55983835,0
-0.41435552,1.1413687,-1.7115337,-0.053003713,0.75774652,-0.65039253,0
1.1133482,0.6932863,-0.019533157,0.70767283,-0.43102193,-0.55983835,0
1.175832,-0.10440205,0.67359442,0.70767283,-0.43102193,-0.55983835,0
-1.213367,-0.64602858,-0.64007473,-0.70454931,-0.48993874,-0.5133909,0
-1.2772777,-1.616569,0.37383795,-0.70454931,-0.48993874,-0.5133909,0
0.91643059,-1.0592339,1.7663093,0.053003713,-0.75774652,0.65039253,0
1.2475908,0.78059483,0.082939208,0.70767283,-0.43102193,-0.55983835,0
-0.38507962,0.053088903,0.36547512,-0.70767283,0.43102193,0.55983835,0
-1.13131,0.24498969,-1.6030011,-0.70454931,-0.48993874,-0.5133909,0
1.1077342,-0.025692031,0.52691495,0.70767283,-0.43102193,-0.55983835,0
0.77195013,0.68223405,-0.44257361,0.70767283,-0.43102193,-0.55983835,0
0.5941143,1.9448214,-0.85764837,-0.053003713,0.75774652,-0.65039253,0
0.65569425,-0.20683232,0.094967335,0.70767283,-0.43102193,-0.55983835,0
0.016131938,1.4021276,-1.4428164,-0.053003713,0.75774652,-0.65039253,0
1.1607845,-1.0574766,1.7484426,0.053003713,-0.75774652,0.65039253,0
-0.78710145,0.36845517,-0.38550889,-0.70767283,0.43102193,0.55983835,0
0.37592167,1.7790041,-1.0330536,-0.053003713,0.75774652,-0.65039253,0
-0.78552985,-1.4884001,1.0460784,-0.70767283,0.43102193,0.55983835,0
-1.2431922,-0.47749621,-0.75997806,-0.70454931,-0.48993874,-0.5133909,0
0.57828999,-1.0908028,1.7570862,0.053003713,-0.75774652,0.65039253,0
-1.1390462,-1.5615594,0.65553641,-0.70767283,0.43102193,0.55983835,0
-0.66486895,0.73632395,-2.1630197,-0.053003713,0.75774652,-0.65039253,0
-0.91517138,-0.64845657,-1.0469847,-0.70454931,-0.48993874,-0.5133909,0
-0.010983097,2.0012398,-0.74260473,-0.053003713,0.75774652,-0.65039253,0
-1.3816931,0.75286198,-1.744061,-0.70454931,-0.48993874,-0.5133909,0
-0.79166663,-1.610669,-0.29821837,-0.70454931,-0.48993874,-0.5133909,0
-1.4761599,0.84343153,-1.7008524,-0.70454931,-0.48993874,-0.5133909,0
0.5428412,2.2368507,-0.51323795,-0.053003713,0.75774652,-0.65039253,0
-0.51148206,-1.9069089,0.89508438,0.053003713,-0.75774652,0.65039253,0
-0.58905828,-0.84687001,0.800515,-0.70767283,0.43102193,0.55983835,0
1.3764818,-0.020221919,1.0520407,0.70454931,0.48993874,0.5133909,0
-0.77094048,-2.0337586,0.7684412,0.053003713,-0.75774652,0.65039253,0
1.4243178,-0.59505647,1.5349689,0.70454931,0.48993874,0.5133909,0
-0.49821514,0.1963098,-1.6740313,0.70767283,-0.43102193,-0.55983835,0
-0.66556084,0.63331985,-2.222023,0.70767283,-0.43102193,-0.55983835,0
0.74157691,1.8362314,-0.99617958,-0.053003713,0.75774652,-0.65039253,0
-0.32654247,-2.1255939,0.62523174,0.053003713,-0.75774652,0.65039253,0
-0.45720208,-0.016597629,-1.4582697,0.70767283,-0.43102193,-0.55983835,0
-1.3982035,0.81267983,-1.7784888,-0.70454931,-0.48993874,-0.5133909,0
0.15113109,0.00092017651,1.0834459,-0.70767283,0.43102193,0.55983835,0
1.2458014,-0.20476204,1.4074892,0.70454931,0.48993874,0.5133909,0
0.31657049,1.9624462,-0.8144958,-0.053003713,0.75774652,-0.65039253,0
0.24223438,1.9983597,-0.76659656,-0.053003713,0.75774652,-0.65039253,0
-0.60496557,1.2905293,-1.5222188,-0.053003713,0.75774652,-0.65039253,0
1.3606035,0.36039224,0.71060407,0.70454931,0.48993874,0.5133909,0
-1.0326629,-1.5091487,-0.064371109,-0.70454931,-0.48993874,-0.5133909,0
0.90053427,0.60210931,1.111302,0.70454931,0.48993874,0.5133909,0
-0.88301271,-2.2602954,0.51364589,0.053003713,-0.75774652,0.65039253,0
1.3464715,1.1902475,-0.061948895,0.70454931,0.48993874,0.5133909,0
-0.15608092,-1.641216,1.1756692,0.053003713,-0.75774652,0.65039253,0
-1.2547677,-1.6166559,0.55167592,-0.70767283,0.43102193,0.55983835,0
0.58472407,2.0636652,0.0434196,-0.70767283,0.43102193,0.55983835,0
-0.74315673,0.35220462,-0.31744838,-0.70767283,0.43102193,0.55983835,0
-0.94102311,0.46084571,-2.0701356,-0.70454931,-0.48993874,-0.5133909,0
0.68344152,1.9665759,0.1070919,0.70454931,0.48993874,0.5133909,0
-0.35586241,-1.6537083,1.1773963,0.053003713,-0.75774652,0.65039253,0
-1.1322191,-0.52239037,-0.86942792,-0.70454931,-0.48993874,-0.5133909,0
-1.2068999,-0.44385356,-0.84188932,-0.70454931,-0.48993874,-0.5133909,0
1.2882919,0.57199192,0.29499239,0.70767283,-0.43102193,-0.55983835,0
0.51452404,-1.6374307,1.1254284,0.053003713,-0.75774652,0.65039253,0
-1.1805801,0.72039014,-1.9890689,-0.70454931,-0.48993874,-0.5133909,0
-1.0794687,0.60592264,-2.01859,-0.70454931,-0.48993874,-0.5133909,0
-1.2034123,-1.0555511,0.18459517,-0.70767283,0.43102193,0.55983835,0
0.20450598,2.1188221,-0.62317562,-0.053003713,0.75774652,-0.65039253,0
1.2004457,-0.71888012,1.1777967,0.70767283,-0.43102193,-0.55983835,0
-1.1430397,-0.67007804,-0.71363723,-0.70454931,-0.48993874,-0.5133909,0
-1.4058738,0.68168271,-1.6429491,-0.70454931,-0.48993874,-0.5133909,0
-0.50371104,-1.6841928,1.1539289,0.053003713,-0.75774652,0.65039253,0
-1.2582883,-1.4626391,0.42864728,-0.70767283,0.43102193,0.55983835,0
1.0050582,1.3929938,0.21310318,0.70454931,0.48993874,0.5133909,0
0.17334315,-1.3469793,0.3630476,0.70767283,-0.43102193,-0.55983835,0
0.070420325,0.50441796,-1.1924522,0.70767283,-0.43102193,-0.55983835,0
-0.88996804,1.0031183,-1.0041687,-0.70767283,0.43102193,0.55983835,0
-0.87737173,-0.40164131,-1.3343997,-0.70454931,-0.48993874,-0.5133909,0
0.87734169,0.89817107,0.86059296,0.70454931,0.48993874,0.5133909,0
1.0083088,1.919488,-0.29380107,0.70454931,0.48993874,0.5133909,0
-0.28348726,-2.1554224,0.40800762,0.70767283,-0.43102193,-0.55983835,0
-0.72177696,-0.57043529,0.41992146,-0.70767283,0.43102193,0.55983835,0
0.75552213,0.54757184,1.3623549,0.70454931,0.48993874,0.5133909,0
-0.04658119,-1.9573827,0.79839206,0.053003713,-0.75774652,0.65039253,0
1.1218179,-0.040009975,1.4204112,0.70454931,0.48993874,0.5133909,0
0.63170445,-1.2805048,1.5317187,0.053003713,-0.75774652,0.65039253,0
1.2103474,1.8730077,-0.52671051,0.70454931,0.48993874,0.5133909,0
0.84861839,1.5108436,0.31532621,0.70454931,0.48993874,0.5133909,0
1.0383521,-1.3062249,1.4686136,0.053003713,-0.75774652,0.65039253,0
-0.19873548,1.4267035,-1.3966736,-0.053003713,0.75774652,-0.65039253,0
-0.14415869,0.92570657,-0.001816988,-0.70767283,0.43102193,0.55983835,0
0.87662685,-1.4289548,1.3388057,0.053003713,-0.75774652,0.65039253,0
0.81102538,-0.50041115,2.2862952,0.70454931,0.48993874,0.5133909,0
0.36399132,-0.7528075,0.14658415,0.70767283,-0.43102193,-0.55983835,0
-0.043295637,1.526925,-0.33720016,-0.70767283,0.43102193,0.55983835,0
-0.79383063,-2.1837111,0.59560323,0.053003713,-0.75774652,0.65039253,0
0.88533741,0.52046746,1.2100698,0.70454931,0.48993874,0.5133909,0
-1.2642241,-0.13583314,-1.0571705,-0.70454931,-0.48993874,-0.5133909,0
0.78328353,2.1848826,-0.59337878,-0.053003713,0.75774652,-0.65039253,0
-0.5866797,0.81929052,-2.0727305,-0.053003713,0.75774652,-0.65039253,0
-1.2417376,-0.59588104,-0.64899749,-0.70454931,-0.48993874,-0.5133909,0
-0.58414161,1.4500482,-1.3380671,-0.053003713,0.75774652,-0.65039253,0
0.61215162,-0.90540689,1.9703239,0.053003713,-0.75774652,0.65039253,0
0.6642406,0.66150153,-0.56276357,0.70767283,-0.43102193,-0.55983835,0
-0.46720773,1.3663151,-1.4451505,-0.053003713,0.75774652,-0.65039253,0
-0.7421909,-0.2186332,0.12326294,-0.70767283,0.43102193,0.55983835,0
0.85672033,2.0251474,-0.78546476,-0.053003713,0.75774652,-0.65039253,0
0.0038095713,1.1959621,-1.6820074,-0.053003713,0.75774652,-0.65039253,0
-0.12980993,1.5412451,-0.4575851,-0.70767283,0.43102193,0.55983835,0
1.4107144,-0.90427673,1.8487321,0.70454931,0.48993874,0.5133909,0
-0.94058114,-1.5287611,-0.1720227,-0.70454931,-0.48993874,-0.5133909,0
-1.4338001,-0.15280659,-0.80825579,-0.70454931,-0.48993874,-0.5133909,0
0.16170004,-0.49356711,-0.30871558,0.70767283,-0.43102193,-0.55983835,0
-0.74455887,-2.0211971,0.028908253,-0.70454931,-0.48993874,-0.5133909,0
-0.18147893,0.29843718,0.43394512,-0.70767283,0.43102193,0.55983835,0
-1.099351,0.6489141,-0.99613953,-0.70767283,0.43102193,0.55983835,0
-0.13445354,-1.8645489,0.91371036,0.053003713,-0.75774652,0.65039253,0
0.57358098,-0.82603192,2.0659437,0.053003713,-0.75774652,0.65039253,0
0.68526214,1.6816396,0.37651336,0.70454931,0.48993874,0.5133909,0
0.36749345,1.7511939,-1.0647674,-0.053003713,0.75774652,-0.65039253,0
-0.91034245,1.2414391,-1.5545251,-0.053003713,0.75774652,-0.65039253,0
0.95515722,-0.089207649,1.6960773,0.70454931,0.48993874,0.5133909,0
0.21322966,-1.5325096,1.2722216,0.053003713,-0.75774652,0.65039253,0
1.4061183,0.28515536,0.66476941,0.70767283,-0.43102193,-0.55983835,0
-1.1848311,-2.0855961,0.69457054,-0.70454931,-0.48993874,-0.5133909,0
-0.81865084,-1.7940568,-0.086176276,-0.70454931,-0.48993874,-0.5133909,0
0.19697899,0.61533266,0.66836166,-0.70767283,0.43102193,0.55983835,0
1.0536773,0.3265934,1.1640671,0.70454931,0.48993874,0.5133909,0
-0.52678108,-1.1204212,-0.69638348,0.70767283,-0.43102193,-0.55983835,0
0.57255179,-1.3409948,0.8630662,0.70767283,-0.43102193,-0.55983835,0
0.78452772,0.38123465,1.4812877,0.70454931,0.48993874,0.5133909,0
0.99265593,0.50152093,-0.02445513,0.70767283,-0.43102193,-0.55983835,0
-0.84773159,-1.8125498,1.0324211,0.053003713,-0.75774652,0.65039253,0
-1.4357131,0.96570784,-1.8329536,-0.053003713,0.75774652,-0.65039253,0
0.90056455,-0.74650675,2.131948,0.053003713,-0.75774652,0.65039253,0
0.2264858,-1.8687891,0.83196735,0.70767283,-0.43102193,-0.55983835,0
-0.14498495,1.2152134,-0.22575414,-0.70767283,0.43102193,0.55983835,0
1.1569214,-0.13267303,1.4606674,0.70454931,0.48993874,0.5133909,0
-0.9457345,-1.394058,-0.29350007,-0.70454931,-0.48993874,-0.5133909,0
0.8970778,1.8749204,-0.098622084,0.70454931,0.48993874,0.5133909,0
-0.95549923,0.42480862,-2.0158784,-0.70454931,-0.48993874,-0.5133909,0
-0.72504961,0.69399792,-0.55770814,-0.70767283,0.43102193,0.55983835,0
-1.4129329,0.6814245,-1.6330155,-0.70454931,-0.48993874,-0.5133909,0
0.96265984,2.01161,-0.31906867,0.70454931,0.48993874,0.5133909,0
0.83043504,1.9598898,-0.088253021,0.70454931,0.48993874,0.5133909,0
0.82323056,0.1952132,1.6056981,0.70454931,0.48993874,0.5133909,0
-0.59205246,0.36874056,-1.9254029,0.70767283,-0.43102193,-0.55983835,0
0.046266854,1.668524,-1.1349044,-0.053003713,0.75774652,-0.65039253,0
0.3345733,-1.6755767,0.81984186,0.70767283,-0.43102193,-0.55983835,0
0.10404193,0.3011415,0.79278028,-0.70767283,0.43102193,0.55983835,0
-1.2270535,1.0165137,-1.7907662,-0.053003713,0.75774652,-0.65039253,0
0.17472413,0.72186387,0.55821133,-0.70767283,0.43102193,0.55983835,0
-0.78520364,-2.2868965,0.47468305,0.053003713,-0.75774652,0.65039253,0
-1.0580165,-1.7291794,0.18040216,-0.70454931,-0.48993874,-0.5133909,0
-0.79011822,-1.0440547,-0.84107399,-0.70454931,-0.48993874,-0.5133909,0
0.12603259,1.6316651,-1.1843479,-0.053003713,0.75774652,-0.65039253,0
-0.73713923,0.395951,-0.34352243,-0.70767283,0.43102193,0.55983835,0
0.424128,-0.10239506,1.5080749,-0.70767283,0.43102193,0.55983835,0
-1.0435429,-0.23516333,-1.2652285,-0.70454931,-0.48993874,-0.5133909,0
-0.12300676,0.0082424283,0.73127997,-0.70767283,0.43102193,0.55983835,0
0.039410174,-1.5208807,1.2999356,0.053003713,-0.75774652,0.65039253,0
-0.73628497,-0.97180414,0.71059799,-0.70767283,0.43102193,0.55983835,0
0.39676279,-0.10968077,1.4790926,-0.70767283,0.43102193,0.55983835,0
-1.2397857,-0.24897006,-0.98273981,-0.70454931,-0.48993874,-0.5133909,0
0.2088751,1.742965,-1.0614281,-0.053003713,0.75774652,-0.65039253,0
1.4270747,-0.69724935,1.62871,0.70454931,0.48993874,0.5133909,0
-0.52611136,-0.16828793,0.35764071,-0.70767283,0.43102193,0.55983835,0
-0.78436679,-1.6033894,-0.3151834,-0.70454931,-0.48993874,-0.5133909,0
0.6301043,1.0226169,-0.88393819,0.70767283,-0.43102193,-0.55983835,0
1.1146895,0.4869599,0.9272967,0.70454931,0.48993874,0.5133909,0
1.2049937,-1.1297824,1.6605995,0.053003713,-0.75774652,0.65039253,0
1.0507661,-0.1319139,1.6056244,0.70454931,0.48993874,0.5133909,0
1.1314306,-0.67904603,2.0170636,0.70454931,0.48993874,0.5133909,0
-0.68261778,-1.8871405,0.93206239,0.053003713,-0.75774652,0.65039253,0
-0.67841876,0.69226098,-2.2132516,-0.053003713,0.75774652,-0.65039253,0
-1.1978059,0.39331305,-1.6532935,-0.70454931,-0.48993874,-0.5133909,0
0.95765376,0.12604034,1.4872361,0.70454931,0.48993874,0.5133909,0
0.26127064,2.1569149,-0.58342123,-0.053003713,0.75774652,-0.65039253,0
1.0518551,1.4505014,0.094001174,0.70454931,0.48993874,0.5133909,0
0.73225647,0.3521384,1.547622,-0.70767283,0.43102193,0.55983835,0
-0.77385789,-1.8125521,-0.12999713,-0.70454931,-0.48993874,-0.5133909,0
-0.56531286,-0.56991434,-1.1689278,0.70767283,-0.43102193,-0.55983835,0
-0.31196129,1.7842402,-0.97089434,-0.053003713,0.75774652,-0.65039253,0
-1.1702112,-1.4066107,0.02653873,-0.70454931,-0.48993874,-0.5133909,0
-0.94523191,-1.3260747,-0.35906756,-0.70454931,-0.48993874,-0.5133909,0
0.12969142,-1.7095878,1.0727227,0.053003713,-0.75774652,0.65039253,0
0.1391751,-1.8940339,0.74103689,0.70767283,-0.43102193,-0.55983835,0
-0.99822438,0.19465983,-1.7376096,-0.70454931,-0.48993874,-0.5133909,0
-0.10533449,-0.85526049,-0.36779559,0.70767283,-0.43102193,-0.55983835,0
0.22429895,1.8434949,-0.94556165,-0.053003713,0.75774652,-0.65039253,0
-0.2100769,-0.63838124,1.119056,-0.70767283,0.43102193,0.55983835,0
-0.70148796,1.310012,-1.4916542,-0.053003713,0.75774652,-0.65039253,0
-1.3028831,0.36094439,-1.478201,-0.70454931,-0.48993874,-0.5133909,0
-0.74603057,-1.7288543,1.1216435,0.053003713,-0.75774652,0.65039253,0
-1.0783753,-0.16183418,-1.2874058,-0.70454931,-0.48993874,-0.5133909,0
0.43633485,-0.94219363,1.9417936,0.053003713,-0.75774652,0.65039253,0
1.3400666,0.49848473,0.60700327,0.70454931,0.48993874,0.5133909,0
0.97012639,-0.19764495,1.7790182,0.70454931,0.48993874,0.5133909,0
0.16700858,0.36501807,0.82319552,-0.70767283,0.43102193,0.55983835,0
-0.65942562,-2.0651078,-0.046019077,-0.70454931,-0.48993874,-0.5133909,0
-0.4642967,0.6565432,-0.19926262,-0.70767283,0.43102193,0.55983835,0
0.72429407,2.2631707,-0.23201847,0.70454931,0.48993874,0.5133909,0
0.33032894,-1.163708,0.42038679,0.70767283,-0.43102193,-0.55983835,0
0.30475026,0.48665249,0.90366316,-0.70767283,0.43102193,0.55983835,0
0.036025405,1.0528111,-1.6581399,0.70767283,-0.43102193,-0.55983835,0
-0.33678055,1.1247168,-1.7372561,-0.053003713,0.75774652,-0.65039253,0
1.3421297,0.97645587,0.14803511,0.70454931,0.48993874,0.5133909,0
1.0413669,1.9598522,-0.37768865,0.70454931,0.48993874,0.5133909,0
-1.3778324,-0.079191968,-0.95531452,-0.70454931,-0.48993874,-0.5133909,0
0.64489806,1.2526605,0.74387956,-0.70767283,0.43102193,0.55983835,0
-0.90300798,1.3564732,-1.4211013,-0.053003713,0.75774652,-0.65039253,0
-0.82518196,-1.6337779,-0.23017061,-0.70454931,-0.48993874,-0.5133909,0
0.32434249,0.39436269,-0.78674591,0.70767283,-0.43102193,-0.55983835,0
-0.97233444,0.90934086,-1.9363875,-0.053003713,0.75774652,-0.65039253,0
0.94101679,-1.3046992,1.4783235,0.053003713,-0.75774652,0.65039253,0
0.85407281,0.010924459,1.7392421,0.70454931,0.48993874,0.5133909,0
0.11243916,-1.1916106,1.6776035,0.053003713,-0.75774652,0.65039253,0
1.0657166,1.4771423,0.049554467,0.70454931,0.48993874,0.5133909,0
0.82202911,-1.3421005,1.4444456,0.053003713,-0.75774652,0.65039253,0
-0.32251126,1.0558022,-1.8187087,-0.053003713,0.75774652,-0.65039253,0
-0.63622117,-2.1485138,0.0017325878,-0.70454931,-0.48993874,-0.5133909,0
-0.01142475,-1.9204682,0.83853459,0.053003713,-0.75774652,0.65039253,0
-0.92983139,-1.2296133,-0.47225744,-0.70454931,-0.48993874,-0.5133909,0
-1.0769436,-0.4622876,-0.11229615,-0.70767283,0.43102193,0.55983835,0
-1.1393564,1.0684352,-1.7374216,-0.053003713,0.75774652,-0.65039253,0
-0.99501735,-2.1259277,0.6793201,0.053003713,-0.75774652,0.65039253,0
0.87023693,-1.4001601,1.372874,0.053003713,-0.75774652,0.65039253,0
-0.86076218,-2.2251744,0.55275011,0.053003713,-0.75774652,0.65039253,0
-0.089541376,-1.2816634,-0.019542575,0.70767283,-0.43102193,-0.55983835,0
-0.57476258,-2.0323,0.75415325,0.053003713,-0.75774652,0.65039253,0
0.25998682,1.7498152,-1.0576122,-0.053003713,0.75774652,-0.65039253,0
0.79980224,1.9043359,0.006801486,0.70454931,0.48993874,0.5133909,0
0.74555928,0.88214886,1.056734,0.70454931,0.48993874,0.5133909,0
1.0761068,1.122964,0.37329447,0.70454931,0.48993874,0.5133909,0
1.0647352,1.4478931,0.078814387,0.70454931,0.48993874,0.5133909,0
0.099815845,1.3976132,-1.4548957,-0.053003713,0.75774652,-0.65039253,0
0.62598294,-0.047263384,-0.065442562,0.70767283,-0.43102193,-0.55983835,0
1.2103245,0.45139375,0.28928548,0.70767283,-0.43102193,-0.55983835,0
1.0378251,2.0443518,-0.77784944,-0.053003713,0.75774652,-0.65039253,0
1.1290754,-1.2203221,1.5613022,0.053003713,-0.75774652,0.65039253,0
-1.0415969,-0.4053604,-1.1054769,-0.70454931,-0.48993874,-0.5133909,0
0.026556075,0.69522089,-1.3947996,0.70767283,-0.43102193,-0.55983835,0
-1.4588581,0.71111268,-1.598322,-0.70454931,-0.48993874,-0.5133909,0
-1.3454443,-0.61004275,-0.4931612,-0.70454931,-0.48993874,-0.5133909,0
-0.12934995,-1.0022926,1.5012774,-0.70767283,0.43102193,0.55983835,0
-1.2524546,-0.41131616,-0.81042373,-0.70454931,-0.48993874,-0.5133909,0
-0.093023032,-1.4844037,0.13214707,0.70767283,-0.43102193,-0.55983835,0
0.94417524,-0.33977211,1.9502668,0.70454931,0.48993874,0.5133909,0
0.26924837,-0.98703027,1.9031727,0.053003713,-0.75774652,0.65039253,0
-0.44731909,1.3696089,-0.72679424,-0.70767283,0.43102193,0.55983835,0
1.0170854,0.055177435,0.35006714,0.70767283,-0.43102193,-0.55983835,0
0.5883916,0.96830761,-0.894853,0.70767283,-0.43102193,-0.55983835,0
0.85490787,1.9520051,-0.11431408,0.70454931,0.48993874,0.5133909,0
0.42902899,-1.7191429,1.0371962,0.053003713,-0.75774652,0.65039253,0
-0.49893999,1.2175223,-1.6159171,-0.053003713,0.75774652,-0.65039253,0
-0.85952663,-0.067362189,-1.677898,-0.70454931,-0.48993874,-0.5133909,0
-1.0773774,1.2740684,-1.5028975,-0.053003713,0.75774652,-0.65039253,0
-0.5892626,-1.6577421,-0.3616786,0.70767283,-0.43102193,-0.55983835,0
0.003757,1.067667,-1.710367,0.70767283,-0.43102193,-0.55983835,0
-0.29588738,0.17492926,0.38441467,-0.70767283,0.43102193,0.55983835,0
0.64961195,-0.70166391,0.46825206,0.70767283,-0.43102193,-0.55983835,0
-0.80738544,1.2525926,-1.0918503,-0.70767283,0.43102193,0.55983835,0
-0.72407985,-1.6538849,-0.34972906,-0.70454931,-0.48993874,-0.5133909,0
-0.66419429,0.79635608,-0.55958879,-0.70767283,0.43102193,0.55983835,0
1.0397763,-0.54377878,2.0137568,0.70454931,0.48993874,0.5133909,0
-0.075726509,1.1526192,-1.7260228,-0.053003713,0.75774652,-0.65039253,0
1.4768279,-0.64171934,1.5074379,0.70454931,0.48993874,0.5133909,0
1.0193632,-0.88821262,1.0792665,0.70767283,-0.43102193,-0.55983835,0
0.30566803,1.7784177,-1.0280116,-0.053003713,0.75774652,-0.65039253,0
-0.8594985,-2.1604626,0.31954861,-0.70454931,-0.48993874,-0.5133909,0
-0.42038786,0.7040413,-0.18032795,-0.70767283,0.43102193,0.55983835,0
-0.97327435,0.65458167,-2.2107615,-0.70454931,-0.48993874,-0.5133909,0
1.0511405,1.5172544,-0.73254418,0.70767283,-0.43102193,-0.55983835,0
1.3522612,-0.1098133,1.1707783,0.70454931,0.48993874,0.5133909,0
-0.87405729,-0.51618141,-1.2296404,-0.70454931,-0.48993874,-0.5133909,0
-0.9592061,1.3481975,-1.3573685,-0.70767283,0.43102193,0.55983835,0
0.96098107,2.1472843,-0.44624138,0.70454931,0.48993874,0.5133909,0
0.8848893,0.93450868,-0.49403834,0.70767283,-0.43102193,-0.55983835,0
-1.1839278,-0.85500741,-0.48104301,-0.70454931,-0.48993874,-0.5133909,0
0.44939178,-0.88530022,2.0070138,0.053003713,-0.75774652,0.65039253,0
-0.86929113,-0.67097169,-1.0884616,-0.70454931,-0.48993874,-0.5133909,0
-1.3425956,-1.059495,-0.068149865,-0.70454931,-0.48993874,-0.5133909,0
-0.14947796,-1.5271389,0.093686461,0.70767283,-0.43102193,-0.55983835,0
0.81253129,-1.3386023,1.1645743,0.70767283,-0.43102193,-0.55983835,0
1.0474637,1.3431544,-0.6031518,0.70767283,-0.43102193,-0.55983835,0
-1.0967085,-1.5684528,0.71436119,-0.70767283,0.43102193,0.55983835,0
-0.86058378,0.19880304,-0.34777951,-0.70767283,0.43102193,0.55983835,0
0.47810578,-0.50573486,0.10061014,0.70767283,-0.43102193,-0.55983835,0
1.0067972,2.1217804,-0.68511176,-0.053003713,0.75774652,-0.65039253,0
0.75024915,2.1239254,-0.66170549,-0.053003713,0.75774652,-0.65039253,0
1.3916953,-0.1384718,1.1440105,0.70454931,0.48993874,0.5133909,0
-0.096820533,1.693572,-1.0940609,-0.053003713,0.75774652,-0.65039253,0
0.85291976,0.99124873,0.80528241,0.70454931,0.48993874,0.5133909,0
0.27925122,2.0446043,-0.7157352,-0.053003713,0.75774652,-0.65039253,0
0.65319341,-1.3448873,0.96799958,0.70767283,-0.43102193,-0.55983835,0
-1.0966382,-2.0635262,0.76030326,0.053003713,-0.75774652,0.65039253,0
-0.42848545,0.031889081,0.32692909,-0.70767283,0.43102193,0.55983835,0
1.4108329,-0.91576743,1.8595351,0.70454931,0.48993874,0.5133909,0
1.3031746,1.9521736,-0.72965121,0.70454931,0.48993874,0.5133909,0
0.4990871,-1.5938686,1.1774387,0.053003713,-0.75774652,0.65039253,0
-0.53086948,0.95686567,-1.9169954,-0.053003713,0.75774652,-0.65039253,0
-1.0890306,-1.1456007,-0.33395612,-0.70454931,-0.48993874,-0.5133909,0
1.1007075,-0.89507222,1.9425498,0.053003713,-0.75774652,0.65039253,0
0.050961494,0.033689022,0.93159604,-0.70767283,0.43102193,0.55983835,0
0.92903233,2.129168,-0.38510799,0.70454931,0.48993874,0.5133909,0
-0.65367734,0.63880205,-2.2112222,0.70767283,-0.43102193,-0.55983835,0
-0.84042794,-1.0125533,-0.8020941,-0.70454931,-0.48993874,-0.5133909,0
0.82615036,0.30033064,1.5013756,0.70454931,0.48993874,0.5133909,0
0.63477093,-0.95495546,1.9107536,0.053003713,-0.75774652,0.65039253,0
-0.47786623,0.9342609,-1.9476513,-0.053003713,0.75774652,-0.65039253,0
0.8542974,-0.43872857,2.1680465,0.70454931,0.48993874,0.5133909,0
-0.22576147,-0.73580694,-0.61199105,0.70767283,-0.43102193,-0.55983835,0
1.2025151,0.37880844,0.9099806,0.70454931,0.48993874,0.5133909,0
-0.84140784,-2.0710802,0.20942283,-0.70454931,-0.48993874,-0.5133909,0
0.48052078,0.92313975,0.78979528,-0.70767283,0.43102193,0.55983835,0
-0.66742927,1.0212398,-1.8308669,-0.053003713,0.75774652,-0.65039253,0
1.206413,0.36295506,0.91976058,0.70454931,0.48993874,0.5133909,0
0.61766356,0.024803996,-0.13144383,0.70767283,-0.43102193,-0.55983835,0
0.15265542,-1.3335012,1.5090151,0.053003713,-0.75774652,0.65039253,0
-0.080066323,1.4919529,-1.3303249,-0.053003713,0.75774652,-0.65039253,0
-0.097325981,-0.13210076,-0.91443604,0.70767283,-0.43102193,-0.55983835,0
0.38859487,1.834811,-0.028304815,-0.70767283,0.43102193,0.55983835,0
1.281285,0.67162377,0.52244186,0.70454931,0.48993874,0.5133909,0
0.079575703,-1.3429078,0.24138486,0.70767283,-0.43102193,-0.55983835,0
0.93613136,-0.34051418,1.9620141,0.70454931,0.48993874,0.5133909,0
-1.3439159,-1.1381314,0.0087062716,-0.70454931,-0.48993874,-0.5133909,0
1.2004046,2.0495622,-0.68155503,0.70454931,0.48993874,0.5133909,0
-0.49290991,-0.45537263,-1.1655917,0.70767283,-0.43102193,-0.55983835,0
0.041712351,1.9079863,-0.85554528,-0.053003713,0.75774652,-0.65039253,0
1.0396672,1.2772512,0.27606297,0.70454931,0.48993874,0.5133909,0
0.76763201,2.3108308,-0.33697557,0.70454931,0.48993874,0.5133909,0
-0.78527224,0.16886246,-2.0052342,-0.70454931,-0.48993874,-0.5133909,0
-0.57069355,1.0139999,-1.8471853,-0.053003713,0.75774652,-0.65039253,0
-0.71407932,-2.2962551,0.24957299,-0.70454931,-0.48993874,-0.5133909,0
-0.17572719,-0.47202057,1.0343945,-0.70767283,0.43102193,0.55983835,0
0.39884281,2.0702491,-0.69560361,-0.053003713,0.75774652,-0.65039253,0
0.81186771,-1.0825479,0.96659803,0.70767283,-0.43102193,-0.55983835,0
1.4302899,-0.25457281,1.2018428,0.70454931,0.48993874,0.5133909,0
0.76677078,1.3823881,-0.98817217,0.70767283,-0.43102193,-0.55983835,0
0.42420256,0.57557344,0.98619813,-0.70767283,0.43102193,0.55983835,0
-1.0713403,-0.20685321,-1.2540977,-0.70454931,-0.48993874,-0.5133909,0
0.92330641,-1.1068813,1.7102367,0.053003713,-0.75774652,0.65039253,0
1.2679045,1.6549274,-0.56453538,0.70767283,-0.43102193,-0.55983835,0
-1.0075986,-0.088243902,-1.4547645,-0.70454931,-0.48993874,-0.5133909,0
-0.2828427,-0.39675051,0.8410427,-0.70767283,0.43102193,0.55983835,0
-0.19482577,-1.3596511,1.5068669,0.053003713,-0.75774652,0.65039253,0
0.86056864,1.0390668,-0.60528111,0.70767283,-0.43102193,-0.55983835,0
-0.72355211,-2.3073771,0.4457972,0.053003713,-0.75774652,0.65039253,0
0.93136805,-0.91352522,1.9348511,0.053003713,-0.75774652,0.65039253,0
0.95491928,-0.77011639,2.1000118,0.053003713,-0.75774652,0.65039253,0
0.69572473,1.1827788,-0.92429912,0.70767283,-0.43102193,-0.55983835,0
-0.56136107,0.68741816,-0.34572911,-0.70767283,0.43102193,0.55983835,0
-1.4367967,-0.023788393,-0.92726797,-0.70454931,-0.48993874,-0.5133909,0
-0.67300868,1.3014712,-1.5039257,-0.053003713,0.75774652,-0.65039253,0
1.0712909,1.647234,-0.12041688,0.70454931,0.48993874,0.5133909,0
-1.2433984,-1.1798849,-0.089392424,-0.70454931,-0.48993874,-0.5133909,0
-1.3057208,-1.8145312,0.60179043,-0.70454931,-0.48993874,-0.5133909,0
1.4877481,-0.67305541,1.5223565,0.70454931,0.48993874,0.5133909,0
-1.1660944,-2.1021466,0.68465233,-0.70454931,-0.48993874,-0.5133909,0
0.047093123,-1.984586,0.75906491,0.053003713,-0.75774652,0.65039253,0
-0.82285553,-0.40687084,-1.4042238,-0.70454931,-0.48993874,-0.5133909,0
-1.237087,-1.8339827,0.52616417,-0.70454931,-0.48993874,-0.5133909,0
0.81324637,-0.28906476,2.0815554,0.70454931,0.48993874,0.5133909,0
-0.79527724,-1.2043269,-0.68104345,-0.70454931,-0.48993874,-0.5133909,0
-1.0421437,-2.1696055,0.57892632,-0.70454931,-0.48993874,-0.5133909,0
-0.21110097,-1.6020765,0.073485494,0.70767283,-0.43102193,-0.55983835,0
-0.35852045,-1.63729,-0.085751534,0.70767283,-0.43102193,-0.55983835,0
0.63284153,-0.87145597,2.008193,0.053003713,-0.75774652,0.65039253,0
-1.1770988,-0.96123528,-0.38903967,-0.70454931,-0.48993874,-0.5133909,0
-0.99536771,0.44834256,-0.71027678,-0.70767283,0.43102193,0.55983835,0
0.26809669,0.019849598,-0.56950498,0.70767283,-0.43102193,-0.55983835,0
1.0715554,1.3448298,0.16781008,0.70454931,0.48993874,0.5133909,0
0.058673203,-1.7773886,0.99951887,0.053003713,-0.75774652,0.65039253,0
0.73600793,2.0219898,-0.7793057,-0.053003713,0.75774652,-0.65039253,0
-0.13503301,1.8270745,-0.68424845,-0.70767283,0.43102193,0.55983835,0
-0.66924274,-1.7412122,1.1009877,0.053003713,-0.75774652,0.65039253,0
-0.98783642,1.0922035,-1.7220782,-0.053003713,0.75774652,-0.65039253,0
-0.34815297,-1.8344806,0.079171658,0.70767283,-0.43102193,-0.55983835,0
-0.93796539,-0.37079507,-0.0070588589,-0.70767283,0.43102193,0.55983835,0
-0.39428574,1.1661779,-1.6842651,-0.053003713,0.75774652,-0.65039253,0
-0.44103876,-1.5543345,1.300114,0.053003713,-0.75774652,0.65039253,0
