-1.9873769,-0.89974558,1.7257895,-0.010830879,-0.92776805,0.37300009,0
2.7294302,-1.4010253,-1.7891011,0.78253883,-0.24008691,-0.57444859,0
-1.7306776,0.84147906,1.8349586,0.62250751,0.28566527,0.72861493,0
-0.54573309,0.60671479,-0.45784736,-0.62250751,-0.28566527,-0.72861493,0
-2.1749744,-0.51787204,2.6701818,-0.010830879,-0.92776805,0.37300009,0
-2.1102281,2.0069821,0.909271,0.010830879,0.92776805,-0.37300009,0
0.56275725,1.4074286,-0.5043897,0.010830879,0.92776805,-0.37300009,0
-2.4639468,-0.49781758,2.7116714,-0.010830879,-0.92776805,0.37300009,0
1.0643945,-0.28826353,-0.11013603,0.62250751,0.28566527,0.72861493,0
-1.7859062,-0.88952768,1.7570546,-0.010830879,-0.92776805,0.37300009,0
2.0197084,0.13781154,-2.4658451,-0.62250751,-0.28566527,-0.72861493,0
0.64241219,1.1572517,-1.1243451,0.010830879,0.92776805,-0.37300009,0
-2.5169454,-0.039421752,1.4796276,-0.62250751,-0.28566527,-0.72861493,0
-2.6519279,0.64999652,2.2085655,-0.78253883,0.24008691,0.57444859,0
-0.70210999,1.4297971,-0.48548084,0.010830879,0.92776805,-0.37300009,0
2.3723612,-1.0605885,-2.2972889,-0.62250751,-0.28566527,-0.72861493,0
3.0008335,0.66081083,-2.2811143,0.78253883,-0.24008691,-0.57444859,0
-0.94223148,1.7675586,0.34766519,0.010830879,0.92776805,-0.37300009,0
2.2407122,0.83067054,-1.8902445,0.010830879,0.92776805,-0.37300009,0
0.10674961,0.16459882,0.53049606,0.62250751,0.28566527,0.72861493,0
0.26999617,-0.3895607,-0.76417673,-0.62250751,-0.28566527,-0.72861493,0
-1.3661325,0.094992518,1.816174,0.62250751,0.28566527,0.72861493,0
-2.9842243,1.0517728,1.5879772,-0.78253883,0.24008691,0.57444859,0
-0.39227185,0.74345636,-0.64257199,-0.62250751,-0.28566527,-0.72861493,0
-1.0453013,0.20522684,0.12637913,-0.62250751,-0.28566527,-0.72861493,0
-2.9965639,-0.041817069,2.0282269,-0.78253883,0.24008691,0.57444859,0
1.8930157,-0.027151585,-2.2929261,-0.62250751,-0.28566527,-0.72861493,0
-1.321973,-0.85427511,1.8582103,-0.010830879,-0.92776805,0.37300009,0
-0.44415498,0.65567267,-0.56382746,-0.62250751,-0.28566527,-0.72861493,0
2.4232843,-2.3223469,-1.6845925,-0.010830879,-0.92776805,0.37300009,0
2.7233834,-1.4636089,-1.7711823,0.78253883,-0.24008691,-0.57444859,0
-1.570765,-0.908167,1.7169402,-0.010830879,-0.92776805,0.37300009,0
0.31783974,1.1206979,-1.2246904,0.010830879,0.92776805,-0.37300009,0
1.8999527,0.043816034,-0.95420957,0.62250751,0.28566527,0.72861493,0
-1.1948285,1.9045229,0.68100381,0.010830879,0.92776805,-0.37300009,0
3.0383251,-0.58786464,-1.7081664,0.78253883,-0.24008691,-0.57444859,0
-1.5476525,1.7744818,0.34730589,0.010830879,0.92776805,-0.37300009,0
-2.6936822,2.096518,1.5471225,-0.78253883,0.24008691,0.57444859,0
0.66469753,-1.0274304,-0.85131097,-0.62250751,-0.28566527,-0.72861493,0
0.65776229,0.75610912,-0.17218453,0.62250751,0.28566527,0.72861493,0
-0.86173701,1.2344605,0.93848646,0.62250751,0.28566527,0.72861493,0
2.559411,-1.8637357,-1.8273222,0.78253883,-0.24008691,-0.57444859,0
-2.833528,0.41811889,2.058094,-0.78253883,0.24008691,0.57444859,0
-2.5872488,2.2695818,1.5485878,0.010830879,0.92776805,-0.37300009,0
-1.6171257,-0.90735793,1.7176068,-0.010830879,-0.92776805,0.37300009,0
2.6486838,0.33468634,-2.624527,0.78253883,-0.24008691,-0.57444859,0
2.8187954,-0.8212629,-1.909672,0.78253883,-0.24008691,-0.57444859,0
-0.64659393,-1.3664403,0.60390633,-0.010830879,-0.92776805,0.37300009,0
-1.9736669,-0.75694489,2.0813773,-0.010830879,-0.92776805,0.37300009,0
2.8162313,-0.74378401,-1.9455466,0.78253883,-0.24008691,-0.57444859,0
0.31779814,-0.38157582,-0.80814803,-0.62250751,-0.28566527,-0.72861493,0
0.037896752,1.5908837,-0.063319981,0.010830879,0.92776805,-0.37300009,0
-2.5587914,-0.38746759,1.6518369,-0.62250751,-0.28566527,-0.72861493,0
2.795001,0.020397961,-2.2938523,0.78253883,-0.24008691,-0.57444859,0
2.5188684,0.69459134,-2.2206395,0.010830879,0.92776805,-0.37300009,0
-2.4323766,0.28645802,2.6520748,0.62250751,0.28566527,0.72861493,0
-2.7324939,1.758301,1.635607,-0.78253883,0.24008691,0.57444859,0
-2.6622374,-0.028706908,2.4781814,-0.78253883,0.24008691,0.57444859,0
1.3242605,0.78327036,-2.034755,0.010830879,0.92776805,-0.37300009,0
-1.5996404,-0.36674419,0.82424068,-0.62250751,-0.28566527,-0.72861493,0
2.5769849,0.27404094,-2.6968517,0.78253883,-0.24008691,-0.57444859,0
1.7771821,-2.0390811,-0.99878287,-0.010830879,-0.92776805,0.37300009,0
0.71497458,0.63796341,-1.5472108,-0.62250751,-0.28566527,-0.72861493,0
2.3303504,0.84540927,-1.8509817,0.010830879,0.92776805,-0.37300009,0
-1.2556525,1.9195997,0.71673822,0.010830879,0.92776805,-0.37300009,0
2.6879971,0.58384931,-2.4911778,0.010830879,0.92776805,-0.37300009,0
-2.2015281,0.6973812,0.9212687,-0.62250751,-0.28566527,-0.72861493,0
-3.0451181,0.11863026,1.8950257,-0.78253883,0.24008691,0.57444859,0
2.58881,-0.38287246,-1.3754594,0.62250751,0.28566527,0.72861493,0
-2.8177478,1.355904,1.6876497,-0.78253883,0.24008691,0.57444859,0
1.1290852,1.0310547,-1.424105,0.010830879,0.92776805,-0.37300009,0
-0.79184794,0.29874957,-0.12683123,-0.62250751,-0.28566527,-0.72861493,0
-0.21164328,-0.74334264,-0.21397203,-0.62250751,-0.28566527,-0.72861493,0
1.2875321,0.9464528,-0.78486907,0.62250751,0.28566527,0.72861493,0
2.4839821,-2.1523814,-1.8094373,0.78253883,-0.24008691,-0.57444859,0
-1.0737817,-0.46284741,0.41264129,-0.62250751,-0.28566527,-0.72861493,0
2.5726776,-0.82123601,-2.2449553,0.78253883,-0.24008691,-0.57444859,0
-0.28209734,-1.4243828,0.47036904,-0.010830879,-0.92776805,0.37300009,0
2.3452139,-2.0560234,-1.0244286,-0.010830879,-0.92776805,0.37300009,0
2.9051604,-1.5835581,-1.4734259,0.78253883,-0.24008691,-0.57444859,0
-2.8987775,0.8102349,1.8053257,-0.78253883,0.24008691,0.57444859,0
-2.2302995,-0.82545936,1.5429041,-0.62250751,-0.28566527,-0.72861493,0
2.2708478,0.16578621,-1.318912,0.62250751,0.28566527,0.72861493,0
2.6467538,-2.1052144,-1.138026,-0.010830879,-0.92776805,0.37300009,0
2.4756124,0.39286658,-1.5828879,0.62250751,0.28566527,0.72861493,0
0.81902444,0.5525527,-0.23015451,0.62250751,0.28566527,0.72861493,0
3.0176356,-0.45559055,-1.7916338,0.78253883,-0.24008691,-0.57444859,0
-2.929239,0.27872962,1.9859684,-0.78253883,0.24008691,0.57444859,0
-2.079365,-0.95712405,1.5804002,-0.010830879,-0.92776805,0.37300009,0
2.8815851,0.53639996,-1.9860139,0.62250751,0.28566527,0.72861493,0
-2.7205935,-0.18756962,2.4650815,-0.78253883,0.24008691,0.57444859,0
-0.42238164,1.5836217,-0.094748095,0.010830879,0.92776805,-0.37300009,0
0.69662929,0.11640692,-1.3270526,-0.62250751,-0.28566527,-0.72861493,0
2.4225144,0.54243779,-2.6018903,0.010830879,0.92776805,-0.37300009,0
-2.1787503,1.9006578,0.6428194,0.010830879,0.92776805,-0.37300009,0
-0.67279112,-0.99306679,0.2779277,-0.62250751,-0.28566527,-0.72861493,0
2.0476801,-1.8843563,-0.60607862,-0.010830879,-0.92776805,0.37300009,0
-2.7426031,1.2951262,1.8154166,-0.78253883,0.24008691,0.57444859,0
-0.63840628,1.3810087,-0.60498303,0.010830879,0.92776805,-0.37300009,0
0.35442108,0.21595588,0.29875734,0.62250751,0.28566527,0.72861493,0
-0.94817042,0.85732424,-0.21227205,-0.62250751,-0.28566527,-0.72861493,0
2.5691352,-1.5061616,-1.963521,0.78253883,-0.24008691,-0.57444859,0
3.0183563,-0.33897349,-1.839391,0.78253883,-0.24008691,-0.57444859,0
1.2699437,-1.6740232,-1.1149086,-0.62250751,-0.28566527,-0.72861493,0
0.43791294,0.059610724,-1.083745,-0.62250751,-0.28566527,-0.72861493,0
0.19459206,-0.40560418,0.67900342,0.62250751,0.28566527,0.72861493,0
0.89546436,-1.749812,-0.30488211,-0.010830879,-0.92776805,0.37300009,0
-2.322552,0.45637989,2.4916236,0.62250751,0.28566527,0.72861493,0
2.2305431,-0.884547,-2.2451439,-0.62250751,-0.28566527,-0.72861493,0
-0.32970667,1.5138342,-0.26564026,0.010830879,0.92776805,-0.37300009,0
0.48539627,-0.14438862,-1.044332,-0.62250751,-0.28566527,-0.72861493,0
-0.95893115,1.542677,-0.2121703,0.010830879,0.92776805,-0.37300009,0
1.5265183,-0.55088615,-0.40199578,0.62250751,0.28566527,0.72861493,0
2.6914251,0.24059677,-2.526978,0.78253883,-0.24008691,-0.57444859,0
2.4051363,0.63287485,-2.3774502,0.010830879,0.92776805,-0.37300009,0
1.1522555,0.87562925,-0.64152515,0.62250751,0.28566527,0.72861493,0
-0.68603975,1.3639746,0.73759741,0.62250751,0.28566527,0.72861493,0
3.0268369,0.58695406,-2.1299334,0.62250751,0.28566527,0.72861493,0
-0.42182326,0.093117177,-0.36234802,-0.62250751,-0.28566527,-0.72861493,0
2.6175089,0.71581894,-2.1649747,0.010830879,0.92776805,-0.37300009,0
-0.46446702,0.19344789,1.0072162,0.62250751,0.28566527,0.72861493,0
-2.5258403,1.5674545,1.9968829,-0.78253883,0.24008691,0.57444859,0
1.2393835,-1.2884789,-1.2399577,-0.62250751,-0.28566527,-0.72861493,0
2.4343479,0.14761755,-1.4514787,0.62250751,0.28566527,0.72861493,0
2.7733293,-1.0493915,-1.8762631,0.78253883,-0.24008691,-0.57444859,0
2.6844492,-0.95726895,-2.0358415,0.78253883,-0.24008691,-0.57444859,0
1.1078949,-1.9582648,-0.81720102,-0.010830879,-0.92776805,0.37300009,0
-2.9125695,1.9171413,1.3239141,-0.78253883,0.24008691,0.57444859,0
-1.7894335,1.0940773,0.413656,-0.62250751,-0.28566527,-0.72861493,0
2.7621295,-0.33350879,-2.1907179,0.78253883,-0.24008691,-0.57444859,0
-2.7294931,2.064821,1.0351529,0.010830879,0.92776805,-0.37300009,0
-0.72499549,1.8410763,0.53683478,0.010830879,0.92776805,-0.37300009,0
3.0157337,-0.90904558,-1.6047063,0.78253883,-0.24008691,-0.57444859,0
-2.6354766,-0.025094271,2.5131266,-0.78253883,0.24008691,0.57444859,0
1.8623542,-1.328674,-1.7564466,-0.62250751,-0.28566527,-0.72861493,0
-0.68797159,0.01712364,-0.10516408,-0.62250751,-0.28566527,-0.72861493,0
-0.85440516,-1.3413013,0.66040015,-0.010830879,-0.92776805,0.37300009,0
-2.7320051,0.29088706,2.2495682,-0.78253883,0.24008691,0.57444859,0
1.1271393,1.0706644,-1.3256396,0.010830879,0.92776805,-0.37300009,0
-2.774178,-0.63918483,2.3510389,-0.010830879,-0.92776805,0.37300009,0
1.8276324,0.6545769,-2.340239,0.010830879,0.92776805,-0.37300009,0
2.5495043,-0.32908595,-1.3629658,0.62250751,0.28566527,0.72861493,0
-0.41514421,0.90744007,-0.68732285,-0.62250751,-0.28566527,-0.72861493,0
-1.3639276,-0.18918242,0.55323863,-0.62250751,-0.28566527,-0.72861493,0
3.035239,0.66124552,-2.166239,0.62250751,0.28566527,0.72861493,0
0.18257153,-0.76359427,0.82962918,0.62250751,0.28566527,0.72861493,0
-0.78303909,0.70644248,-0.29419982,-0.62250751,-0.28566527,-0.72861493,0
-2.4945774,1.1877401,2.1981692,-0.78253883,0.24008691,0.57444859,0
0.47444713,1.306829,-0.75717682,0.010830879,0.92776805,-0.37300009,0
-0.96824515,0.31319797,1.3906796,0.62250751,0.28566527,0.72861493,0
-2.2349672,1.151059,0.77196646,-0.62250751,-0.28566527,-0.72861493,0
0.11833894,1.1431142,-1.1747274,0.010830879,0.92776805,-0.37300009,0
2.5953147,-2.2214289,-1.628917,0.78253883,-0.24008691,-0.57444859,0
-2.6233222,2.1500397,1.6206007,-0.78253883,0.24008691,0.57444859,0
-1.1128868,0.28834745,0.15153337,-0.62250751,-0.28566527,-0.72861493,0
-1.3835636,0.050456166,1.8485281,0.62250751,0.28566527,0.72861493,0
-2.6992521,1.0359511,1.9827914,-0.78253883,0.24008691,0.57444859,0
2.2524896,-0.58924258,-1.007206,0.62250751,0.28566527,0.72861493,0
-1.1966853,1.935209,0.75727618,0.010830879,0.92776805,-0.37300009,0
1.7651818,-1.9048024,-0.66513777,-0.010830879,-0.92776805,0.37300009,0
-2.700048,-0.075714499,1.6502941,-0.62250751,-0.28566527,-0.72861493,0
-2.8692985,2.0764303,1.0599701,0.010830879,0.92776805,-0.37300009,0
-3.0318451,2.0591371,1.1020856,-0.78253883,0.24008691,0.57444859,0
-2.4565055,0.74695265,2.4342566,-0.78253883,0.24008691,0.57444859,0
-0.12262094,-1.3392338,0.68679225,-0.010830879,-0.92776805,0.37300009,0
-1.5811945,-0.83090246,1.9088185,-0.010830879,-0.92776805,0.37300009,0
1.0228666,-0.58320582,0.040981233,0.62250751,0.28566527,0.72861493,0
-2.0631616,0.54820865,0.86153793,-0.62250751,-0.28566527,-0.72861493,0
-2.6211278,1.3918922,1.9404528,-0.78253883,0.24008691,0.57444859,0
2.574533,-1.6517701,-1.8953116,0.78253883,-0.24008691,-0.57444859,0
-2.7310178,0.90380698,1.9947474,-0.78253883,0.24008691,0.57444859,0
-0.1810056,0.7458756,0.54844689,0.62250751,0.28566527,0.72861493,0
2.7797494,-1.5646285,-1.6521773,0.78253883,-0.24008691,-0.57444859,0
-3.002136,-0.66836601,2.2718368,-0.010830879,-0.92776805,0.37300009,0
-2.709651,1.1897702,1.9043379,-0.78253883,0.24008691,0.57444859,0
1.9106998,0.47333613,-1.1317921,0.62250751,0.28566527,0.72861493,0
0.1668399,0.95447946,0.16947109,0.62250751,0.28566527,0.72861493,0
2.1534839,-2.1451635,-1.2517157,-0.010830879,-0.92776805,0.37300009,0
-1.7326465,1.6908958,0.13402951,0.010830879,0.92776805,-0.37300009,0
-2.768333,-0.57076955,2.5213783,-0.010830879,-0.92776805,0.37300009,0
0.19662279,-0.9891206,0.90604544,0.62250751,0.28566527,0.72861493,0
1.4449668,-0.26754451,-1.8158762,-0.62250751,-0.28566527,-0.72861493,0
0.16160995,-1.1446035,-0.37554798,-0.62250751,-0.28566527,-0.72861493,0
0.27875555,0.82940388,0.12289153,0.62250751,0.28566527,0.72861493,0
2.4996283,-1.6450478,-2.00016,0.78253883,-0.24008691,-0.57444859,0
-2.4828694,0.34832907,2.5649445,-0.78253883,0.24008691,0.57444859,0
-1.3371941,-1.1695842,1.073496,-0.010830879,-0.92776805,0.37300009,0
-3.0477507,0.20149297,1.8568082,-0.78253883,0.24008691,0.57444859,0
2.3387408,-1.3877101,-2.140312,-0.62250751,-0.28566527,-0.72861493,0
-0.11041713,-1.5771893,0.095276415,-0.010830879,-0.92776805,0.37300009,0
2.7528198,-2.2050002,-1.4212232,0.78253883,-0.24008691,-0.57444859,0
1.6606795,0.87323397,-1.8012185,0.010830879,0.92776805,-0.37300009,0
2.6711798,-0.79447776,-2.1219552,0.78253883,-0.24008691,-0.57444859,0
-2.9788671,-0.19899529,2.1180251,-0.78253883,0.24008691,0.57444859,0
2.6745462,-0.039101481,-2.4330733,0.78253883,-0.24008691,-0.57444859,0
2.854485,0.53164834,-2.4264934,0.78253883,-0.24008691,-0.57444859,0
-1.5838079,1.8170218,0.4520663,0.010830879,0.92776805,-0.37300009,0
1.8894607,-1.4420456,-1.7351565,-0.62250751,-0.28566527,-0.72861493,0
-2.7821474,0.19382405,2.2218292,-0.78253883,0.24008691,0.57444859,0
-0.2653867,-1.5376263,0.18918189,-0.010830879,-0.92776805,0.37300009,0
-0.28643757,0.65944219,-0.70005453,-0.62250751,-0.28566527,-0.72861493,0
-2.4616685,-0.23688817,2.8384132,-0.78253883,0.24008691,0.57444859,0
0.051787734,1.3903841,-0.56162226,0.010830879,0.92776805,-0.37300009,0
2.8349342,-1.1080999,-1.7678053,0.78253883,-0.24008691,-0.57444859,0
2.7226481,-0.12286794,-2.3325372,0.78253883,-0.24008691,-0.57444859,0
0.18446863,-1.5651982,0.133665,-0.010830879,-0.92776805,0.37300009,0
-1.5360817,-0.83426327,1.9017687,-0.010830879,-0.92776805,0.37300009,0
2.5359101,0.76855981,-2.0361617,0.010830879,0.92776805,-0.37300009,0
0.5282464,0.86017388,-1.474797,-0.62250751,-0.28566527,-0.72861493,0
-2.8247275,-0.29733837,2.3691022,-0.78253883,0.24008691,0.57444859,0
2.5423646,-0.31767654,-2.4967086,0.78253883,-0.24008691,-0.57444859,0
1.6944075,1.061565,-1.3318007,0.010830879,0.92776805,-0.37300009,0
-2.5864415,0.21941769,2.4777319,-0.78253883,0.24008691,0.57444859,0
2.2382979,-1.8365674,-0.50604749,0.62250751,0.28566527,0.72861493,0
-2.4728668,2.0354578,1.8734465,-0.78253883,0.24008691,0.57444859,0
2.0955801,-1.3733495,-0.56572533,0.62250751,0.28566527,0.72861493,0
-2.2356353,1.8821507,0.59513497,0.010830879,0.92776805,-0.37300009,0
-0.7824887,1.771347,0.3617264,0.010830879,0.92776805,-0.37300009,0
-1.0163177,0.30327225,0.063176036,-0.62250751,-0.28566527,-0.72861493,0
-1.0553581,1.8750436,0.61172938,0.010830879,0.92776805,-0.37300009,0
0.27324784,-1.4523695,0.41688317,-0.010830879,-0.92776805,0.37300009,0
1.0328733,-1.5749562,0.13402909,-0.010830879,-0.92776805,0.37300009,0
-0.1765902,1.6626374,0.18524294,0.62250751,0.28566527,0.72861493,0
-0.42076778,-1.1788304,1.077108,-0.010830879,-0.92776805,0.37300009,0
-0.20619869,-1.5517329,0.15581352,-0.010830879,-0.92776805,0.37300009,0
-1.0435269,1.0815915,-0.21872985,-0.62250751,-0.28566527,-0.72861493,0
2.8603177,-1.862577,-1.4178984,0.78253883,-0.24008691,-0.57444859,0
2.7265866,-1.7803693,-1.6344306,0.78253883,-0.24008691,-0.57444859,0
2.185564,0.62604594,-2.4008112,0.010830879,0.92776805,-0.37300009,0
-2.0657339,-0.63551682,2.3807337,-0.010830879,-0.92776805,0.37300009,0
2.7202678,-0.4971956,-2.1793325,0.78253883,-0.24008691,-0.57444859,0
1.4296902,-1.7591786,-0.31266725,-0.010830879,-0.92776805,0.37300009,0
1.1012518,0.62479222,-1.8720709,-0.62250751,-0.28566527,-0.72861493,0
-2.0908685,-0.53675139,2.6256642,-0.010830879,-0.92776805,0.37300009,0
-2.4565973,-0.049830198,2.7671409,-0.78253883,0.24008691,0.57444859,0
-1.9738914,1.8650854,0.56028819,0.010830879,0.92776805,-0.37300009,0
-2.4548905,-0.66012019,2.308238,-0.010830879,-0.92776805,0.37300009,0
2.4848082,-0.29730442,-1.3201516,0.62250751,0.28566527,0.72861493,0
2.6687133,-1.2180245,-1.9482965,0.78253883,-0.24008691,-0.57444859,0
2.5375192,-0.10657024,-2.5915394,0.78253883,-0.24008691,-0.57444859,0
-1.8739375,1.6051342,0.28548539,-0.62250751,-0.28566527,-0.72861493,0
0.31037235,-1.4614948,0.39526343,-0.010830879,-0.92776805,0.37300009,0
0.98237246,-0.021759868,-0.14454579,0.62250751,0.28566527,0.72861493,0
0.60819387,-1.7939901,-0.42310858,-0.010830879,-0.92776805,0.37300009,0
-0.14272034,-1.0439974,-0.15498129,-0.62250751,-0.28566527,-0.72861493,0
-0.77100384,1.7840731,0.39371431,0.010830879,0.92776805,-0.37300009,0
1.6964476,0.6726405,-2.299119,0.010830879,0.92776805,-0.37300009,0
-2.6130404,-0.36186087,2.6844389,-0.78253883,0.24008691,0.57444859,0
2.4967811,-0.4868674,-1.2560596,0.62250751,0.28566527,0.72861493,0
-2.4758711,-0.84462512,1.8487065,-0.010830879,-0.92776805,0.37300009,0
-1.6254077,0.78958702,1.7653642,0.62250751,0.28566527,0.72861493,0
0.13933592,-0.45805806,-0.62568891,-0.62250751,-0.28566527,-0.72861493,0
-2.3158696,-0.63433492,2.3764107,-0.010830879,-0.92776805,0.37300009,0
-3.0107675,-0.64052194,2.1372058,-0.62250751,-0.28566527,-0.72861493,0
2.5392163,-1.2840517,-2.0971079,0.78253883,-0.24008691,-0.57444859,0
2.8293757,-2.1727135,-1.3006155,-0.010830879,-0.92776805,0.37300009,0
2.5557039,0.77640069,-2.0160835,0.010830879,0.92776805,-0.37300009,0
-2.9610488,1.9448228,1.2463038,-0.78253883,0.24008691,0.57444859,0
-1.0626521,-0.94161892,0.59084272,-0.62250751,-0.28566527,-0.72861493,0
-0.93874514,1.789984,0.40354514,0.010830879,0.92776805,-0.37300009,0
1.5416789,0.91002125,-1.7131724,0.010830879,0.92776805,-0.37300009,0
-1.1374798,1.5119808,-0.29370618,0.010830879,0.92776805,-0.37300009,0
1.5876414,-1.6473832,-0.030010462,-0.010830879,-0.92776805,0.37300009,0
-2.8748834,0.38878053,2.0140195,-0.78253883,0.24008691,0.57444859,0
-1.1765293,-1.245975,0.8881532,-0.010830879,-0.92776805,0.37300009,0
-2.8382738,0.034962595,2.211767,-0.78253883,0.24008691,0.57444859,0
-2.940506,-0.43698558,2.2697487,-0.78253883,0.24008691,0.57444859,0
1.7478364,0.65221483,-2.3484311,0.010830879,0.92776805,-0.37300009,0
-2.8755944,1.5537832,1.5261457,-0.78253883,0.24008691,0.57444859,0
3.0450928,-0.42676896,-1.7662759,0.78253883,-0.24008691,-0.57444859,0
0.13107479,1.2688988,-0.86149174,0.010830879,0.92776805,-0.37300009,0
0.49913037,1.1684229,-0.19830829,0.62250751,0.28566527,0.72861493,0
0.44867039,1.4384837,-0.43045855,0.010830879,0.92776805,-0.37300009,0
-2.072541,1.2286202,0.60278487,-0.62250751,-0.28566527,-0.72861493,0
-1.7749745,1.3652076,1.6674683,0.62250751,0.28566527,0.72861493,0
2.3554497,0.81949282,-1.9147153,0.010830879,0.92776805,-0.37300009,0
1.456439,0.44490385,-2.1050043,-0.62250751,-0.28566527,-0.72861493,0
1.083133,-1.7457135,-0.92719531,-0.62250751,-0.28566527,-0.72861493,0
2.5491433,0.5546965,-2.5677218,0.010830879,0.92776805,-0.37300009,0
-0.77346963,1.5407755,-0.21151489,0.010830879,0.92776805,-0.37300009,0
-2.6982467,1.8020703,0.91253924,-0.62250751,-0.28566527,-0.72861493,0
-1.4660786,1.4756471,1.360257,0.62250751,0.28566527,0.72861493,0
-0.80620766,-0.1157608,1.4204198,0.62250751,0.28566527,0.72861493,0
-0.32722127,-1.3921577,0.13915288,-0.62250751,-0.28566527,-0.72861493,0
1.894022,-1.4428887,-0.36625588,0.62250751,0.28566527,0.72861493,0
2.4468524,-0.08012569,-2.7261026,0.78253883,-0.24008691,-0.57444859,0
-2.4654946,2.0579309,1.8740964,-0.78253883,0.24008691,0.57444859,0
-2.4398384,0.048688412,2.7487962,-0.78253883,0.24008691,0.57444859,0
0.39025715,-0.16614962,-0.95451617,-0.62250751,-0.28566527,-0.72861493,0
-1.2886806,-0.57288301,0.63938606,-0.62250751,-0.28566527,-0.72861493,0
-2.656949,1.9725456,1.6489761,-0.78253883,0.24008691,0.57444859,0
0.29796433,1.0718024,-1.3468859,0.010830879,0.92776805,-0.37300009,0
2.8524742,-0.5301739,-1.9854519,0.78253883,-0.24008691,-0.57444859,0
-2.5920408,1.2951212,2.0205209,-0.78253883,0.24008691,0.57444859,0
-1.5220618,0.73322773,1.6991649,0.62250751,0.28566527,0.72861493,0
-0.99590063,1.5888053,-0.098508298,0.010830879,0.92776805,-0.37300009,0
-0.60978293,-1.1072818,0.26887524,-0.62250751,-0.28566527,-0.72861493,0
-1.3817534,1.6591849,0.06534338,0.010830879,0.92776805,-0.37300009,0
-2.8742738,0.62280256,1.9170425,-0.78253883,0.24008691,0.57444859,0
0.039511085,1.5035148,-0.28058746,0.010830879,0.92776805,-0.37300009,0
0.56746578,1.3070908,-0.75382471,0.010830879,0.92776805,-0.37300009,0
0.074524947,-0.13978004,-0.69510233,-0.62250751,-0.28566527,-0.72861493,0
2.4644418,0.5145402,-2.6700633,0.010830879,0.92776805,-0.37300009,0
-0.82769251,-1.0804451,1.3100072,-0.010830879,-0.92776805,0.37300009,0
2.5361469,-0.86196971,-2.2776945,0.78253883,-0.24008691,-0.57444859,0
-2.7750673,1.1827071,1.8181772,-0.78253883,0.24008691,0.57444859,0
-2.6953306,1.5457349,1.7750731,-0.78253883,0.24008691,0.57444859,0
-2.593653,1.6934443,1.8518484,-0.78253883,0.24008691,0.57444859,0
1.5486627,0.17620301,-2.078449,-0.62250751,-0.28566527,-0.72861493,0
-2.4441648,-0.77771389,2.0160565,-0.010830879,-0.92776805,0.37300009,0
-0.80718887,-0.5245111,0.20904833,-0.62250751,-0.28566527,-0.72861493,0
1.6857476,-2.1504884,-1.2785425,-0.010830879,-0.92776805,0.37300009,0
-2.8340089,-0.3354969,2.3724074,-0.78253883,0.24008691,0.57444859,0
-3.0338571,1.6874061,1.244231,-0.62250751,-0.28566527,-0.72861493,0
-0.2461822,-1.392643,0.55035871,-0.010830879,-0.92776805,0.37300009,0
2.0193145,0.86213225,-1.818418,0.010830879,0.92776805,-0.37300009,0
-2.0844276,2.1146109,1.1777267,0.010830879,0.92776805,-0.37300009,0
-1.1890676,1.6199205,-0.026724339,0.010830879,0.92776805,-0.37300009,0
-0.33889186,-0.25086471,-0.29833847,-0.62250751,-0.28566527,-0.72861493,0
-2.5794661,2.2947197,1.6198754,-0.78253883,0.24008691,0.57444859,0
-3.0400777,-0.50572342,2.1628363,-0.78253883,0.24008691,0.57444859,0
2.5200477,-2.1469114,-1.2454188,-0.010830879,-0.92776805,0.37300009,0
1.9678766,-2.018429,-0.94187689,-0.010830879,-0.92776805,0.37300009,0
-2.4373314,0.69997239,2.480011,-0.78253883,0.24008691,0.57444859,0
-2.8225114,2.1846447,1.3347936,-0.78253883,0.24008691,0.57444859,0
2.793798,-2.1238616,-1.1801381,-0.010830879,-0.92776805,0.37300009,0
-1.2958447,1.5022652,-0.16808897,-0.62250751,-0.28566527,-0.72861493,0
-1.9757018,-0.67318881,2.2896461,-0.010830879,-0.92776805,0.37300009,0
0.67029679,-1.73107,-0.26480371,-0.010830879,-0.92776805,0.37300009,0
1.1840147,0.92508984,-0.68805075,0.62250751,0.28566527,0.72861493,0
0.45421493,-1.5674446,0.13591027,-0.010830879,-0.92776805,0.37300009,0
-2.1764855,1.1337862,2.1012406,0.62250751,0.28566527,0.72861493,0
2.6988473,0.14317697,-2.4761517,0.78253883,-0.24008691,-0.57444859,0
2.9360211,-0.71993464,-1.7923315,0.78253883,-0.24008691,-0.57444859,0
-2.5535197,-0.019056201,2.6222484,-0.78253883,0.24008691,0.57444859,0
-0.57136679,1.4917749,-0.327526,0.010830879,0.92776805,-0.37300009,0
-0.26230514,1.5530926,-0.16603528,0.010830879,0.92776805,-0.37300009,0
-2.8413794,1.8706552,1.440321,-0.78253883,0.24008691,0.57444859,0
-0.071958423,-1.2290661,0.9622848,-0.010830879,-0.92776805,0.37300009,0
0.73635441,-0.75266039,0.35220629,0.62250751,0.28566527,0.72861493,0
-2.2586787,0.11112157,1.199949,-0.62250751,-0.28566527,-0.72861493,0
0.40679061,1.3037034,-0.7669155,0.010830879,0.92776805,-0.37300009,0
1.4264264,0.63632417,-0.78194523,0.62250751,0.28566527,0.72861493,0
-1.9174324,-0.96806777,1.5578818,-0.010830879,-0.92776805,0.37300009,0
3.0307889,-0.64990902,-1.6925018,0.78253883,-0.24008691,-0.57444859,0
1.3993249,-0.98586577,-0.12278438,0.62250751,0.28566527,0.72861493,0
-2.8120682,1.8212488,1.0022659,-0.62250751,-0.28566527,-0.72861493,0
-2.5278115,0.4501797,2.4611547,-0.78253883,0.24008691,0.57444859,0
-0.5261178,0.69413149,0.86358774,0.62250751,0.28566527,0.72861493,0
-1.7768331,0.031118751,2.1921077,0.62250751,0.28566527,0.72861493,0
1.1294935,-1.886728,-0.63863933,-0.010830879,-0.92776805,0.37300009,0
-1.7098776,1.9563199,0.79488385,0.010830879,0.92776805,-0.37300009,0
2.8283243,0.31646413,-2.3721969,0.78253883,-0.24008691,-0.57444859,0
2.9227521,-0.34279495,-1.9680302,0.78253883,-0.24008691,-0.57444859,0
0.85613358,-1.7967899,-0.4228729,-0.010830879,-0.92776805,0.37300009,0
-0.056218863,1.4565277,-0.40023851,0.010830879,0.92776805,-0.37300009,0
0.31451154,1.3266109,-0.71261692,0.010830879,0.92776805,-0.37300009,0
-1.2136483,-0.53299314,1.9321082,0.62250751,0.28566527,0.72861493,0
0.94051826,1.3181108,-0.71558189,0.010830879,0.92776805,-0.37300009,0
2.8032639,-1.2659791,-1.7449629,0.78253883,-0.24008691,-0.57444859,0
2.9210448,-1.7221386,-1.3938689,0.78253883,-0.24008691,-0.57444859,0
-2.8003755,1.7028325,1.5663185,-0.78253883,0.24008691,0.57444859,0
0.86696422,0.69272697,-1.6985373,-0.62250751,-0.28566527,-0.72861493,0
-2.0862095,0.4133836,2.3065567,0.62250751,0.28566527,0.72861493,0
1.6171439,-0.60177863,-1.8319371,-0.62250751,-0.28566527,-0.72861493,0
-0.98338425,1.1806264,1.0635248,0.62250751,0.28566527,0.72861493,0
-2.8769951,-0.023580849,2.1834862,-0.78253883,0.24008691,0.57444859,0
2.671468,-0.45203233,-2.2646856,0.78253883,-0.24008691,-0.57444859,0
2.6438975,0.33493882,-2.6311524,0.78253883,-0.24008691,-0.57444859,0
-0.55273497,1.4766138,0.57954365,0.62250751,0.28566527,0.72861493,0
-1.3871353,1.2352071,1.3870788,0.62250751,0.28566527,0.72861493,0
-1.0307074,0.86858118,-0.14616835,-0.62250751,-0.28566527,-0.72861493,0
-0.23826623,-1.2353139,0.94191521,-0.010830879,-0.92776805,0.37300009,0
-2.3286667,1.9727302,0.81773305,0.010830879,0.92776805,-0.37300009,0
0.34436035,1.3014576,-0.77431434,0.010830879,0.92776805,-0.37300009,0
2.0967107,-1.4044878,-0.55448294,0.62250751,0.28566527,0.72861493,0
0.49253142,-1.6498692,-0.067993551,-0.010830879,-0.92776805,0.37300009,0
2.4613075,0.087633491,-2.7765241,0.78253883,-0.24008691,-0.57444859,0
-2.7367787,2.118371,1.1681371,0.010830879,0.92776805,-0.37300009,0
-2.2476048,1.8504344,0.51589918,0.010830879,0.92776805,-0.37300009,0
2.7730069,-1.184289,-1.8203223,0.78253883,-0.24008691,-0.57444859,0
2.6436687,-0.75760329,-2.1748428,0.78253883,-0.24008691,-0.57444859,0
2.3467169,0.48868448,-2.7377927,0.010830879,0.92776805,-0.37300009,0
1.7530186,0.96612072,-1.1902781,0.62250751,0.28566527,0.72861493,0
2.9093525,-0.10533386,-2.0855289,0.78253883,-0.24008691,-0.57444859,0
-2.5166821,1.0075463,1.068922,-0.62250751,-0.28566527,-0.72861493,0
1.3850807,-1.1111021,-1.4339807,-0.62250751,-0.28566527,-0.72861493,0
2.0346375,-1.4128764,-1.8706276,-0.62250751,-0.28566527,-0.72861493,0
1.0782747,1.137358,-1.1611711,0.010830879,0.92776805,-0.37300009,0
1.2447693,-0.64182413,-0.12562382,0.62250751,0.28566527,0.72861493,0
-0.97636938,1.7691935,0.35074091,0.010830879,0.92776805,-0.37300009,0
2.589308,-0.089640856,-2.5280659,0.78253883,-0.24008691,-0.57444859,0
0.85052174,-1.6233748,0.0083016753,-0.010830879,-0.92776805,0.37300009,0
0.78104913,0.66488636,-1.6142186,-0.62250751,-0.28566527,-0.72861493,0
2.8180151,-1.627331,-1.0833752,0.62250751,0.28566527,0.72861493,0
-0.93613416,1.8347939,0.51507783,0.010830879,0.92776805,-0.37300009,0
2.1616466,-0.44432998,-2.3588746,-0.62250751,-0.28566527,-0.72861493,0
0.50942111,0.70439643,-1.3976382,-0.62250751,-0.28566527,-0.72861493,0
3.0247343,-1.6465912,-1.252439,0.62250751,0.28566527,0.72861493,0
-2.8516872,0.50023705,1.9990358,-0.78253883,0.24008691,0.57444859,0
-2.3040392,0.92108917,2.2936096,0.62250751,0.28566527,0.72861493,0
-1.7323526,-1.0327058,1.4024808,-0.010830879,-0.92776805,0.37300009,0
2.631093,-1.8581181,-1.7320216,0.78253883,-0.24008691,-0.57444859,0
-2.9022155,-0.11579311,2.1876695,-0.78253883,0.24008691,0.57444859,0
0.55730271,1.2031057,-1.0127635,0.010830879,0.92776805,-0.37300009,0
1.5816839,0.90428293,-1.7262836,0.010830879,0.92776805,-0.37300009,0
-2.3746085,0.27009481,1.2366681,-0.62250751,-0.28566527,-0.72861493,0
-1.7868823,0.44014657,0.66786027,-0.62250751,-0.28566527,-0.72861493,0
-2.1721747,2.178725,1.334651,0.010830879,0.92776805,-0.37300009,0
1.2733967,-0.81765187,-0.081146002,0.62250751,0.28566527,0.72861493,0
-1.9485102,1.808331,0.41985917,0.010830879,0.92776805,-0.37300009,0
-2.4216387,2.2138953,1.4148865,0.010830879,0.92776805,-0.37300009,0
1.8070419,-0.9423362,-1.8606596,-0.62250751,-0.28566527,-0.72861493,0
1.1625423,-1.7118632,-0.2027359,-0.010830879,-0.92776805,0.37300009,0
-1.6311359,1.6732826,0.093167663,0.010830879,0.92776805,-0.37300009,0
1.4578369,-1.8371062,-0.50568044,-0.010830879,-0.92776805,0.37300009,0
2.8413305,-0.21773261,-2.1312153,0.78253883,-0.24008691,-0.57444859,0
1.9673524,0.89468348,-1.3453906,0.62250751,0.28566527,0.72861493,0
-2.3812127,2.1494849,1.255851,0.010830879,0.92776805,-0.37300009,0
-2.9341807,-0.23202646,2.1927035,-0.78253883,0.24008691,0.57444859,0
-2.8685145,-0.41640607,2.3592174,-0.78253883,0.24008691,0.57444859,0
-2.2683554,2.3153853,1.6717756,0.010830879,0.92776805,-0.37300009,0
0.56049097,1.2917272,-0.79224122,0.010830879,0.92776805,-0.37300009,0
3.0356612,-0.24888241,-1.8097689,0.62250751,0.28566527,0.72861493,0
2.8371425,0.73190022,-2.1185982,0.010830879,0.92776805,-0.37300009,0
-0.21881485,-1.2818364,0.82676399,-0.010830879,-0.92776805,0.37300009,0
-2.8912416,0.71767139,1.8542778,-0.78253883,0.24008691,0.57444859,0
1.4564886,0.82495344,-1.9272366,0.010830879,0.92776805,-0.37300009,0
-1.6943126,1.0215712,0.36081445,-0.62250751,-0.28566527,-0.72861493,0
2.9781826,-1.5088024,-1.4051955,0.78253883,-0.24008691,-0.57444859,0
-2.2312102,2.3174653,1.6780276,0.010830879,0.92776805,-0.37300009,0
-2.0635958,1.1140914,2.0125122,0.62250751,0.28566527,0.72861493,0
-0.61672693,1.4146303,-0.52072603,0.010830879,0.92776805,-0.37300009,0
1.6663067,1.0320609,-1.4060028,0.010830879,0.92776805,-0.37300009,0
2.1533277,0.32978463,-1.2828047,0.62250751,0.28566527,0.72861493,0
-1.4506639,1.8313262,0.49151182,0.010830879,0.92776805,-0.37300009,0
-2.8994405,0.54432964,1.9155562,-0.78253883,0.24008691,0.57444859,0
-2.7643607,-0.51433671,2.5420299,-0.78253883,0.24008691,0.57444859,0
-2.8848324,1.6327522,1.4805567,-0.78253883,0.24008691,0.57444859,0
-0.13549812,-0.059982479,-0.5469507,-0.62250751,-0.28566527,-0.72861493,0
-2.7615991,0.8085497,1.9929006,-0.78253883,0.24008691,0.57444859,0
2.1575787,-0.20207536,-2.4503794,-0.62250751,-0.28566527,-0.72861493,0
2.0163021,0.95438159,-1.4106174,0.62250751,0.28566527,0.72861493,0
-2.419524,1.3222667,2.2349885,0.62250751,0.28566527,0.72861493,0
2.8985696,-1.402727,-1.5579813,0.78253883,-0.24008691,-0.57444859,0
1.6853366,1.0952611,-1.2482517,0.010830879,0.92776805,-0.37300009,0
-1.2331901,-0.74542141,0.65962303,-0.62250751,-0.28566527,-0.72861493,0
-1.2989874,0.63436151,0.1748718,-0.62250751,-0.28566527,-0.72861493,0
2.7293339,-1.2217367,-1.8641653,0.78253883,-0.24008691,-0.57444859,0
2.8371682,0.23912878,-1.8315148,0.62250751,0.28566527,0.72861493,0
-0.50322831,-1.0361413,0.14994609,-0.62250751,-0.28566527,-0.72861493,0
0.87662846,-0.58292067,-1.2066559,-0.62250751,-0.28566527,-0.72861493,0
1.0062089,0.069697678,-1.5732353,-0.62250751,-0.28566527,-0.72861493,0
-2.4989939,1.0705259,2.2411416,-0.78253883,0.24008691,0.57444859,0
2.2127013,-0.16195218,-1.1407382,0.62250751,0.28566527,0.72861493,0
2.3746171,0.82128417,-1.9097033,0.010830879,0.92776805,-0.37300009,0
0.85458916,0.36082733,-1.5578378,-0.62250751,-0.28566527,-0.72861493,0
-2.8144989,-0.7516256,2.0701933,-0.010830879,-0.92776805,0.37300009,0
1.1496812,1.167486,-1.0841597,0.010830879,0.92776805,-0.37300009,0
2.1269364,-1.9413466,-0.74553037,-0.010830879,-0.92776805,0.37300009,0
0.90379143,-1.8352942,-0.51726151,-0.010830879,-0.92776805,0.37300009,0
-2.5872726,-0.3066448,2.6964636,-0.78253883,0.24008691,0.57444859,0
-0.25131905,-1.5528698,0.15167555,-0.010830879,-0.92776805,0.37300009,0
2.2482772,-1.9003682,-1.8620262,-0.62250751,-0.28566527,-0.72861493,0
-0.85970497,-1.2317142,0.93282378,-0.010830879,-0.92776805,0.37300009,0
0.062157989,-1.5578208,0.14846344,-0.010830879,-0.92776805,0.37300009,0
1.6203723,-0.65605283,-0.44094944,0.62250751,0.28566527,0.72861493,0
0.76414305,-1.3662078,-0.80345118,-0.62250751,-0.28566527,-0.72861493,0
2.7217333,-0.08322683,-1.6065063,0.62250751,0.28566527,0.72861493,0
-1.2566674,1.1246519,1.3189557,0.62250751,0.28566527,0.72861493,0
3.0252364,-0.11243361,-1.9246991,0.78253883,-0.24008691,-0.57444859,0
2.99211,-1.2811798,-1.3678308,0.62250751,0.28566527,0.72861493,0
2.4207122,0.48084944,-2.7551322,0.010830879,0.92776805,-0.37300009,0
1.6588149,0.76845789,-2.0618832,0.010830879,0.92776805,-0.37300009,0
-2.7693357,0.12291342,2.2689185,-0.78253883,0.24008691,0.57444859,0
-1.2250485,-0.15446725,0.4209739,-0.62250751,-0.28566527,-0.72861493,0
2.4474702,-0.5559783,-2.5263815,0.78253883,-0.24008691,-0.57444859,0
1.4474236,0.8074429,-1.9710541,0.010830879,0.92776805,-0.37300009,0
-2.490916,1.5045584,2.0707448,-0.78253883,0.24008691,0.57444859,0
-0.36921382,-1.2715995,0.84785926,-0.010830879,-0.92776805,0.37300009,0
1.197232,1.0221548,-1.4442629,0.010830879,0.92776805,-0.37300009,0
-0.23651445,-1.2102324,1.004352,-0.010830879,-0.92776805,0.37300009,0
-2.6033511,1.6200283,1.8693209,-0.78253883,0.24008691,0.57444859,0
-2.4638298,0.32099354,2.6023054,-0.78253883,0.24008691,0.57444859,0
1.8173937,-1.8087792,-0.4247818,-0.010830879,-0.92776805,0.37300009,0
-0.2113539,1.6873478,0.16937889,0.010830879,0.92776805,-0.37300009,0
1.4641114,0.99243093,-1.5104461,0.010830879,0.92776805,-0.37300009,0
0.62836581,-0.024041653,0.15880185,0.62250751,0.28566527,0.72861493,0
-2.9573712,1.1762621,1.5725288,-0.78253883,0.24008691,0.57444859,0
2.8549263,0.32333881,-2.3388314,0.78253883,-0.24008691,-0.57444859,0
2.5353169,0.26199865,-2.7485807,0.78253883,-0.24008691,-0.57444859,0
-2.4302344,1.6566836,0.74055886,-0.62250751,-0.28566527,-0.72861493,0
-0.54774129,1.7555275,0.32919508,0.010830879,0.92776805,-0.37300009,0
-2.0364208,-0.57687974,2.5274339,-0.010830879,-0.92776805,0.37300009,0
-2.6150179,-0.23949671,2.6306033,-0.78253883,0.24008691,0.57444859,0
-2.610342,1.5474998,1.8901105,-0.78253883,0.24008691,0.57444859,0
2.5925446,-2.1668885,-1.6554859,0.78253883,-0.24008691,-0.57444859,0
-1.1374151,0.25203407,1.559194,0.62250751,0.28566527,0.72861493,0
0.67557192,-1.4041796,0.54842877,-0.010830879,-0.92776805,0.37300009,0
1.2789994,-0.58418941,-0.17746556,0.62250751,0.28566527,0.72861493,0
-2.8970034,0.3255229,2.010325,-0.78253883,0.24008691,0.57444859,0
2.1455884,-0.092584088,-1.1105959,0.62250751,0.28566527,0.72861493,0
2.33602,-2.1316962,-1.2129173,-0.010830879,-0.92776805,0.37300009,0
-2.3079669,-0.42235172,2.823683,0.62250751,0.28566527,0.72861493,0
2.4682949,-0.92991734,-2.341728,0.78253883,-0.24008691,-0.57444859,0
-1.8305454,-0.9708972,1.5533671,-0.010830879,-0.92776805,0.37300009,0
2.953371,-0.70652503,-1.7743015,0.78253883,-0.24008691,-0.57444859,0
1.1869841,-1.8398527,-0.97901416,-0.62250751,-0.28566527,-0.72861493,0
2.2526522,-1.7286557,-0.56061959,0.62250751,0.28566527,0.72861493,0
-0.12819326,1.2787924,-0.84441191,0.010830879,0.92776805,-0.37300009,0
-1.4767497,1.9839644,1.1700799,0.62250751,0.28566527,0.72861493,0
0.53014815,-1.3659248,0.63935804,-0.010830879,-0.92776805,0.37300009,0
-2.1022375,-0.63827699,2.3728085,-0.010830879,-0.92776805,0.37300009,0
-2.4801688,-0.76987058,2.0345194,-0.010830879,-0.92776805,0.37300009,0
2.6992171,-0.54160255,-2.1894484,0.78253883,-0.24008691,-0.57444859,0
-1.0992771,0.74369752,-0.038621664,-0.62250751,-0.28566527,-0.72861493,0
-2.950438,0.85797948,1.7149973,-0.78253883,0.24008691,0.57444859,0
1.2543645,-0.2300477,-1.6677324,-0.62250751,-0.28566527,-0.72861493,0
1.6355668,-0.25291827,-0.61198664,0.62250751,0.28566527,0.72861493,0
0.089685142,0.53901166,-0.97418612,-0.62250751,-0.28566527,-0.72861493,0
2.6677783,-1.1638362,-1.9722176,0.78253883,-0.24008691,-0.57444859,0
-2.8732276,0.10327297,2.1356013,-0.78253883,0.24008691,0.57444859,0
2.3969285,-2.2354686,-1.4692645,-0.010830879,-0.92776805,0.37300009,0
1.2903365,0.94171119,-1.6416481,0.010830879,0.92776805,-0.37300009,0
-2.3277965,0.32089281,1.1767571,-0.62250751,-0.28566527,-0.72861493,0
-0.47572231,1.579573,-0.10636744,0.010830879,0.92776805,-0.37300009,0
2.5151415,-0.91677368,-2.2834046,0.78253883,-0.24008691,-0.57444859,0
-1.6882159,-0.98105532,1.5322337,-0.010830879,-0.92776805,0.37300009,0
1.0297356,-1.8151169,-0.46341658,-0.010830879,-0.92776805,0.37300009,0
-3.0072193,0.51603985,1.7805583,-0.78253883,0.24008691,0.57444859,0
-0.14844215,-1.4253366,-0.00058236718,-0.62250751,-0.28566527,-0.72861493,0
-0.91348833,0.57247758,1.2422422,0.62250751,0.28566527,0.72861493,0
2.6725948,0.54149145,-2.5969827,0.010830879,0.92776805,-0.37300009,0
-2.8202555,0.085786402,2.2150707,-0.78253883,0.24008691,0.57444859,0
-2.5197332,2.2517161,1.719219,-0.78253883,0.24008691,0.57444859,0
2.6678829,-1.879566,-1.6729405,0.78253883,-0.24008691,-0.57444859,0
-2.5667284,1.7906518,0.80465055,-0.62250751,-0.28566527,-0.72861493,0
-2.9125385,1.8971725,1.3323021,-0.78253883,0.24008691,0.57444859,0
-0.23942232,-1.3054811,0.030157208,-0.62250751,-0.28566527,-0.72861493,0
-2.252749,-0.69069123,2.2380676,-0.010830879,-0.92776805,0.37300009,0
3.0285263,-0.98722589,-1.5546045,0.78253883,-0.24008691,-0.57444859,0
-2.7400699,1.2773381,1.8263016,-0.78253883,0.24008691,0.57444859,0
-2.4731889,-0.77410901,2.0241799,-0.010830879,-0.92776805,0.37300009,0
1.5776217,0.12960422,-2.0849214,-0.62250751,-0.28566527,-0.72861493,0
2.5137095,-0.53058898,-2.4467585,0.78253883,-0.24008691,-0.57444859,0
0.96135479,-0.92097259,-1.1465051,-0.62250751,-0.28566527,-0.72861493,0
1.704578,0.95556879,-1.5951512,0.010830879,0.92776805,-0.37300009,0
2.3703542,-1.5432398,-0.73387599,0.62250751,0.28566527,0.72861493,0
2.5558076,-1.3282827,-2.05602,0.78253883,-0.24008691,-0.57444859,0
-1.0928732,1.9083986,0.69360471,0.010830879,0.92776805,-0.37300009,0
1.9112968,-2.0025346,-0.9039855,-0.010830879,-0.92776805,0.37300009,0
-1.658224,-0.88044089,1.7833638,-0.010830879,-0.92776805,0.37300009,0
-3.0470243,0.13372883,1.8861187,-0.78253883,0.24008691,0.57444859,0
-2.0324962,-0.97193551,1.5449202,-0.010830879,-0.92776805,0.37300009,0
-0.15421492,-0.8824026,-0.20851649,-0.62250751,-0.28566527,-0.72861493,0
-1.953178,1.8764963,0.58927202,0.010830879,0.92776805,-0.37300009,0
0.30028456,0.56940448,0.2064348,0.62250751,0.28566527,0.72861493,0
2.8321805,0.4977583,-2.442714,0.78253883,-0.24008691,-0.57444859,0
-2.3160143,0.90377164,2.3106308,0.62250751,0.28566527,0.72861493,0
2.9560912,-0.78412783,-1.738162,0.78253883,-0.24008691,-0.57444859,0
-2.8612559,0.49773574,1.9870465,-0.78253883,0.24008691,0.57444859,0
-1.8983262,1.8738797,0.58435678,0.010830879,0.92776805,-0.37300009,0
1.7736506,-0.35788953,-2.0612729,-0.62250751,-0.28566527,-0.72861493,0
2.568352,0.30149579,-2.7200868,0.78253883,-0.24008691,-0.57444859,0
0.55115867,-0.24810474,0.31261301,0.62250751,0.28566527,0.72861493,0
2.8815699,0.50573564,-2.378767,0.78253883,-0.24008691,-0.57444859,0
0.95964348,-1.5453988,0.20542121,-0.010830879,-0.92776805,0.37300009,0
1.2846034,0.84958678,-0.74438846,0.62250751,0.28566527,0.72861493,0
-1.9612656,1.7772567,0.34219766,0.010830879,0.92776805,-0.37300009,0
1.1062912,1.0218747,-1.4476005,0.010830879,0.92776805,-0.37300009,0
-2.619204,1.0616342,2.0811026,-0.78253883,0.24008691,0.57444859,0
-2.3396258,2.2754788,1.5704458,0.010830879,0.92776805,-0.37300009,0
-0.33515894,1.5062275,0.38204253,0.62250751,0.28566527,0.72861493,0
-2.7166505,-0.5004186,2.6012058,-0.78253883,0.24008691,0.57444859,0
-2.1693325,2.2660155,1.551852,0.010830879,0.92776805,-0.37300009,0
-2.3793321,-0.75575906,2.0725479,-0.010830879,-0.92776805,0.37300009,0
-1.1796256,-1.0206342,1.4485565,-0.010830879,-0.92776805,0.37300009,0
-0.55452931,1.447113,-0.43812543,0.010830879,0.92776805,-0.37300009,0
-0.53775561,1.6063455,-0.041577011,0.010830879,0.92776805,-0.37300009,0
2.2350135,0.2441467,-2.6914856,-0.62250751,-0.28566527,-0.72861493,0
-0.85997701,-1.1131812,0.48494673,-0.62250751,-0.28566527,-0.72861493,0
-2.7765317,1.0314727,1.879389,-0.78253883,0.24008691,0.57444859,0
1.061377,1.2534103,-0.87300301,0.010830879,0.92776805,-0.37300009,0
1.0461655,-0.61232626,0.032492578,0.62250751,0.28566527,0.72861493,0
1.3960146,-1.6146867,0.045751333,-0.010830879,-0.92776805,0.37300009,0
2.7891133,-2.1256871,-1.4049311,0.78253883,-0.24008691,-0.57444859,0
1.6989858,0.13061905,-2.1890092,-0.62250751,-0.28566527,-0.72861493,0
0.91031629,-1.4535211,0.43251735,-0.010830879,-0.92776805,0.37300009,0
-2.6709998,-0.60626358,2.4359205,-0.010830879,-0.92776805,0.37300009,0
-2.4728613,1.1337036,0.98202062,-0.62250751,-0.28566527,-0.72861493,0
3.036098,-1.277542,-1.4229538,0.78253883,-0.24008691,-0.57444859,0
-0.33005762,-1.2690954,0.85522497,-0.010830879,-0.92776805,0.37300009,0
-0.0074837804,0.56266958,-0.90044332,-0.62250751,-0.28566527,-0.72861493,0
-2.5746839,1.2955481,2.043987,-0.78253883,0.24008691,0.57444859,0
2.8473351,-2.0371373,-1.3626273,0.78253883,-0.24008691,-0.57444859,0
-1.305383,-1.0391494,1.3988515,-0.010830879,-0.92776805,0.37300009,0
-0.11153722,1.5166427,-0.25231981,0.010830879,0.92776805,-0.37300009,0
2.7507372,-0.37551492,-2.1886811,0.78253883,-0.24008691,-0.57444859,0
3.0097382,-1.4702641,-1.3783157,0.78253883,-0.24008691,-0.57444859,0
2.8408089,-1.0676875,-1.7766929,0.78253883,-0.24008691,-0.57444859,0
-2.8366613,0.94491923,1.3668568,-0.62250751,-0.28566527,-0.72861493,0
-2.7309854,0.62482429,2.1113906,-0.78253883,0.24008691,0.57444859,0
2.6214724,-0.43665195,-2.3392191,0.78253883,-0.24008691,-0.57444859,0
-2.5418096,2.0632143,1.0366066,0.010830879,0.92776805,-0.37300009,0
-2.4430132,0.21256399,2.6759801,-0.78253883,0.24008691,0.57444859,0
0.86132836,-0.08644262,-0.015769303,0.62250751,0.28566527,0.72861493,0
2.2190924,0.63850719,-2.3688428,0.010830879,0.92776805,-0.37300009,0
-1.038193,0.088208199,1.5386521,0.62250751,0.28566527,0.72861493,0
-2.4756641,-0.53675497,2.6144819,-0.010830879,-0.92776805,0.37300009,0
0.98806429,-1.275769,0.342246,0.62250751,0.28566527,0.72861493,0
-2.3563383,0.45391715,2.5214553,0.62250751,0.28566527,0.72861493,0
0.82389081,0.14901763,-0.076099634,0.62250751,0.28566527,0.72861493,0
2.4679961,-1.3460257,-2.1682248,0.78253883,-0.24008691,-0.57444859,0
0.96063268,-1.6378958,-0.02461946,-0.010830879,-0.92776805,0.37300009,0
-2.6985395,1.1875157,1.9204166,-0.78253883,0.24008691,0.57444859,0
-3.0328872,0.215406,1.8712406,-0.78253883,0.24008691,0.57444859,0
0.38287491,0.34914261,-1.1502377,-0.62250751,-0.28566527,-0.72861493,0
-1.4378501,0.83272839,0.21573937,-0.62250751,-0.28566527,-0.72861493,0
0.2870127,1.169888,-1.1032345,0.010830879,0.92776805,-0.37300009,0
2.7335224,-0.45001507,-2.180995,0.78253883,-0.24008691,-0.57444859,0
-1.3370211,1.3289918,1.3074926,0.62250751,0.28566527,0.72861493,0
0.46085483,0.47791845,-1.2673502,-0.62250751,-0.28566527,-0.72861493,0
-1.30847,-1.048915,1.3744719,-0.010830879,-0.92776805,0.37300009,0
0.77562582,1.0491843,-1.3892744,0.010830879,0.92776805,-0.37300009,0
-2.4694829,-0.16197455,2.7964578,-0.78253883,0.24008691,0.57444859,0
2.6132629,0.22597301,-2.6273422,0.78253883,-0.24008691,-0.57444859,0
2.356488,0.4916302,-2.7301824,0.010830879,0.92776805,-0.37300009,0
-1.4686906,-0.98908329,1.5186398,-0.010830879,-0.92776805,0.37300009,0
-2.4518275,0.8242147,2.4083376,-0.78253883,0.24008691,0.57444859,0
-0.59036672,1.5569948,-0.16585565,0.010830879,0.92776805,-0.37300009,0
0.524773,0.55072176,-1.3505037,-0.62250751,-0.28566527,-0.72861493,0
1.6850373,-2.0519762,-1.0335314,-0.010830879,-0.92776805,0.37300009,0
0.087545991,1.5692426,-0.0038103908,0.62250751,0.28566527,0.72861493,0
-1.4956915,2.0149555,0.94694793,0.010830879,0.92776805,-0.37300009,0
-2.5010078,-0.38685679,2.8475015,-0.78253883,0.24008691,0.57444859,0
2.9423299,-0.030711949,-2.0717936,0.78253883,-0.24008691,-0.57444859,0
-2.673327,0.68548185,1.3290255,-0.62250751,-0.28566527,-0.72861493,0
0.97251463,-1.6043242,0.059228957,-0.010830879,-0.92776805,0.37300009,0
-1.8856878,0.48103443,0.73624611,-0.62250751,-0.28566527,-0.72861493,0
2.5902762,-0.00024473667,-2.5641096,0.78253883,-0.24008691,-0.57444859,0
2.316885,-2.0647013,-1.0468357,-0.010830879,-0.92776805,0.37300009,0
2.5993934,-1.8629662,-1.7731783,0.78253883,-0.24008691,-0.57444859,0
0.8797226,-1.6853819,-0.77706146,-0.62250751,-0.28566527,-0.72861493,0
2.4299417,0.12557016,-1.4390702,0.62250751,0.28566527,0.72861493,0
2.1634178,0.83286822,-1.887023,0.010830879,0.92776805,-0.37300009,0
2.986798,-0.31965882,-1.8904538,0.78253883,-0.24008691,-0.57444859,0
0.71918952,1.0266114,-0.33072084,0.62250751,0.28566527,0.72861493,0
1.8631588,0.63664019,-2.3838222,0.010830879,0.92776805,-0.37300009,0
-1.1853179,-1.2220622,0.94737637,-0.010830879,-0.92776805,0.37300009,0
-2.7552257,-0.36946088,2.4939246,-0.78253883,0.24008691,0.57444859,0
1.9601047,-0.46562159,-2.1783354,-0.62250751,-0.28566527,-0.72861493,0
2.5786214,-0.77122295,-2.2577617,0.78253883,-0.24008691,-0.57444859,0
0.68738723,-0.098521769,-1.2348902,-0.62250751,-0.28566527,-0.72861493,0
2.1729701,-1.6220223,-1.9068158,-0.62250751,-0.28566527,-0.72861493,0
-1.0783542,1.0582319,1.192651,0.62250751,0.28566527,0.72861493,0
-2.8158679,-0.53993809,2.4825647,-0.78253883,0.24008691,0.57444859,0
2.5804534,-1.8359842,-1.8102558,0.78253883,-0.24008691,-0.57444859,0
0.5530988,-1.685281,-0.15431446,-0.010830879,-0.92776805,0.37300009,0
-0.14672709,0.29664773,-0.67717963,-0.62250751,-0.28566527,-0.72861493,0
-2.7034163,1.9309616,1.603055,-0.78253883,0.24008691,0.57444859,0
2.5288191,-1.3660303,-2.0770087,0.78253883,-0.24008691,-0.57444859,0
-0.9928968,-0.908014,1.7341,-0.010830879,-0.92776805,0.37300009,0
0.98808384,1.1988801,-1.0107651,0.010830879,0.92776805,-0.37300009,0
-2.6712999,1.8022807,1.7005875,-0.78253883,0.24008691,0.57444859,0
2.5791826,-2.1150203,-1.6953657,0.78253883,-0.24008691,-0.57444859,0
-2.8780074,0.57606977,1.9314878,-0.78253883,0.24008691,0.57444859,0
-2.7661026,1.3255301,1.7706971,-0.78253883,0.24008691,0.57444859,0
-1.1846182,-1.1000988,1.2507577,-0.010830879,-0.92776805,0.37300009,0
2.6485381,-1.8302338,-1.7199113,0.78253883,-0.24008691,-0.57444859,0
2.594017,-0.5648886,-2.3230247,0.78253883,-0.24008691,-0.57444859,0
-0.26524523,0.55999672,0.69329536,0.62250751,0.28566527,0.72861493,0
-0.2618008,0.21823466,-0.54812092,-0.62250751,-0.28566527,-0.72861493,0
1.8199885,-1.7532864,-0.28667796,-0.010830879,-0.92776805,0.37300009,0
2.5046244,0.6425966,-2.3503802,0.010830879,0.92776805,-0.37300009,0
1.8938198,-2.129185,-1.2195122,-0.010830879,-0.92776805,0.37300009,0
-0.16291511,1.4889382,-0.32272154,0.010830879,0.92776805,-0.37300009,0
1.4393524,-1.8872703,-0.63099134,-0.010830879,-0.92776805,0.37300009,0
2.7890337,-0.9048481,-1.9152808,0.78253883,-0.24008691,-0.57444859,0
-1.6105039,1.393535,0.14337611,-0.62250751,-0.28566527,-0.72861493,0
0.96364796,1.2522118,-0.87882161,0.010830879,0.92776805,-0.37300009,0
-2.590914,2.0790238,1.0745039,0.010830879,0.92776805,-0.37300009,0
-0.75802022,1.0591894,-0.45387548,-0.62250751,-0.28566527,-0.72861493,0
-0.22869408,-1.4595863,0.38435766,-0.010830879,-0.92776805,0.37300009,0
2.4640684,0.16286802,-2.8042068,0.78253883,-0.24008691,-0.57444859,0
1.3256066,-1.9529479,-0.79765451,-0.010830879,-0.92776805,0.37300009,0
-1.9917412,1.0164262,0.61694598,-0.62250751,-0.28566527,-0.72861493,0
-2.920563,0.90931028,1.734241,-0.78253883,0.24008691,0.57444859,0
-0.73171139,1.7767757,0.37670428,0.010830879,0.92776805,-0.37300009,0
-0.27591252,-1.1711917,1.1003143,-0.010830879,-0.92776805,0.37300009,0
0.85687554,-1.0386215,0.36135244,0.62250751,0.28566527,0.72861493,0
-0.72312593,1.7326002,0.26707524,0.010830879,0.92776805,-0.37300009,0
0.087856531,1.4615378,0.038151693,0.62250751,0.28566527,0.72861493,0
-1.3389862,1.8777554,0.61023855,0.010830879,0.92776805,-0.37300009,0
