-0.53128195,1.3925278,0.76558298,-0.33065224,0.51692414,0.78959405,0
1.6003782,-2.3622096,2.8833966,0.52625692,-0.593512,0.6089313,0
2.5769749,-2.3109918,2.0893135,0.52625692,-0.593512,0.6089313,0
0.084353566,0.10142112,1.8686373,-0.33065224,0.51692414,0.78959405,0
2.7515409,-2.8604388,1.1251755,0.33065224,-0.51692414,-0.78959405,0
0.27492046,-1.186269,-0.21644592,-0.78340483,-0.61687386,0.075788856,0
-1.8582155,2.9478412,-1.8114696,0.78340483,0.61687386,-0.075788856,0
-1.8597515,1.8947442,-3.1148667,-0.52625692,0.593512,-0.6089313,0
-0.32791436,1.0688469,-1.287079,0.78340483,0.61687386,-0.075788856,0
-1.2295753,2.2024727,-1.380254,0.78340483,0.61687386,-0.075788856,0
-0.27143407,0.50813699,-2.3460393,0.33065224,-0.51692414,-0.78959405,0
-2.1644938,1.6542,-3.0859525,-0.52625692,0.593512,-0.6089313,0
-0.54785293,-0.057536058,-2.0914636,0.33065224,-0.51692414,-0.78959405,0
2.0255518,-1.6553736,0.86648953,0.78340483,0.61687386,-0.075788856,0
-1.8597509,2.8814816,-2.1531167,-0.52625692,0.593512,-0.6089313,0
2.7732425,-2.9114704,1.33442,0.52625692,-0.593512,0.6089313,0
2.5749328,-2.2602234,1.622166,0.78340483,0.61687386,-0.075788856,0
-0.80814612,0.84106052,-2.7887492,0.33065224,-0.51692414,-0.78959405,0
2.4409957,-2.9982274,1.5369978,0.52625692,-0.593512,0.6089313,0
-2.338304,3.2811451,-1.3499932,-0.52625692,0.593512,-0.6089313,0
-1.5899329,1.7034819,-3.534471,-0.52625692,0.593512,-0.6089313,0
0.94468057,-0.30258143,0.70475543,0.78340483,0.61687386,-0.075788856,0
1.7101932,-1.6544068,3.4783711,0.52625692,-0.593512,0.6089313,0
0.37825495,-1.2114573,0.64667308,-0.78340483,-0.61687386,0.075788856,0
2.2251236,-2.1912036,2.5101488,0.52625692,-0.593512,0.6089313,0
-1.1878644,0.64771527,-0.40929455,-0.78340483,-0.61687386,0.075788856,0
0.049584985,0.42811686,1.6401995,-0.33065224,0.51692414,0.78959405,0
2.9668152,-2.8554823,1.2120795,0.33065224,-0.51692414,-0.78959405,0
-1.5964912,2.282258,-2.9646835,-0.52625692,0.593512,-0.6089313,0
-2.1276939,3.1720603,-1.6383317,-0.52625692,0.593512,-0.6089313,0
-1.1334338,0.97000092,-3.0093811,0.33065224,-0.51692414,-0.78959405,0
0.21648747,-0.97751015,0.87871963,-0.78340483,-0.61687386,0.075788856,0
0.93143237,-1.2032295,-0.72194296,0.33065224,-0.51692414,-0.78959405,0
2.3004692,-1.7870659,2.8389368,0.52625692,-0.593512,0.6089313,0
1.8296129,-2.0414758,2.9978974,0.52625692,-0.593512,0.6089313,0
-1.0538938,0.51978934,-2.6813323,0.33065224,-0.51692414,-0.78959405,0
-1.7081399,1.7362894,-3.4003365,-0.52625692,0.593512,-0.6089313,0
-0.21146035,0.68896103,1.3601166,-0.33065224,0.51692414,0.78959405,0
0.67316586,-0.94403064,2.7996359,-0.33065224,0.51692414,0.78959405,0
0.11234716,-0.7713449,1.4803109,-0.78340483,-0.61687386,0.075788856,0
-1.9149547,1.5939471,-0.22325432,-0.78340483,-0.61687386,0.075788856,0
1.6368525,-2.1167269,0.17150033,0.33065224,-0.51692414,-0.78959405,0
-2.1797633,2.9777985,-1.7826741,-0.52625692,0.593512,-0.6089313,0
1.7984902,-2.670747,2.411458,0.52625692,-0.593512,0.6089313,0
-2.5576935,2.7926767,-1.6364899,-0.52625692,0.593512,-0.6089313,0
-0.65979064,0.97925836,0.98232383,-0.33065224,0.51692414,0.78959405,0
-0.16104797,-0.57514572,0.25125271,-0.78340483,-0.61687386,0.075788856,0
1.6889739,-2.8370647,0.96372628,-0.78340483,-0.61687386,0.075788856,0
0.12036806,-0.81173027,1.2345083,-0.78340483,-0.61687386,0.075788856,0
-0.79831147,1.2918016,0.71970356,-0.33065224,0.51692414,0.78959405,0
2.5527189,-2.7670963,1.6657214,0.52625692,-0.593512,0.6089313,0
1.3728435,-0.73493338,2.9557447,-0.33065224,0.51692414,0.78959405,0
0.86417907,-0.14788881,1.1317389,0.78340483,0.61687386,-0.075788856,0
-1.5102035,2.6037507,-1.0148637,0.78340483,0.61687386,-0.075788856,0
1.8165956,-1.1338315,3.4027183,-0.33065224,0.51692414,0.78959405,0
-0.87414056,0.35386497,0.44181141,-0.78340483,-0.61687386,0.075788856,0
1.2387844,-2.0604429,2.6314785,-0.78340483,-0.61687386,0.075788856,0
-2.081506,1.4408569,-3.1909025,-0.78340483,-0.61687386,0.075788856,0
1.5782373,-1.4155588,-0.31207991,0.33065224,-0.51692414,-0.78959405,0
-2.1792789,3.2854218,-1.4832592,-0.52625692,0.593512,-0.6089313,0
2.4053426,-2.380233,2.1701555,0.52625692,-0.593512,0.6089313,0
-1.6056013,1.8689573,-3.3596449,-0.52625692,0.593512,-0.6089313,0
-1.5807287,1.3996831,-3.4779913,0.33065224,-0.51692414,-0.78959405,0
2.1275134,-1.7168176,1.4203172,0.78340483,0.61687386,-0.075788856,0
-2.9189563,2.8921418,-1.2273285,-0.52625692,0.593512,-0.6089313,0
-2.0576086,1.9624909,-2.8778419,-0.52625692,0.593512,-0.6089313,0
0.32433176,0.20152426,-1.604486,0.78340483,0.61687386,-0.075788856,0
-2.0202386,2.2007813,-2.677881,-0.52625692,0.593512,-0.6089313,0
0.066338375,-0.77645826,0.96311355,-0.78340483,-0.61687386,0.075788856,0
0.71944797,-1.0121365,-0.93581706,0.33065224,-0.51692414,-0.78959405,0
1.1720312,-1.5164154,3.3832655,-0.33065224,0.51692414,0.78959405,0
-2.2550645,2.9229538,-0.95819664,-0.33065224,0.51692414,0.78959405,0
-0.062891245,-0.28014803,2.0567789,-0.33065224,0.51692414,0.78959405,0
-1.1658008,1.8571658,-3.5316198,0.78340483,0.61687386,-0.075788856,0
-2.2307878,1.6750535,-2.8277674,-0.78340483,-0.61687386,0.075788856,0
-0.38480473,1.1945962,-0.85161567,0.78340483,0.61687386,-0.075788856,0
0.29507947,-0.11047715,-1.7038163,0.33065224,-0.51692414,-0.78959405,0
1.5503093,-2.0500743,3.2308991,0.52625692,-0.593512,0.6089313,0
0.043445408,0.68303192,-0.58874571,0.78340483,0.61687386,-0.075788856,0
-2.688704,2.5550714,-1.7548552,-0.52625692,0.593512,-0.6089313,0
1.4486527,-1.0306333,-0.011732936,0.78340483,0.61687386,-0.075788856,0
-1.74389,2.8435502,-1.4785905,0.78340483,0.61687386,-0.075788856,0
-2.7239652,2.5318263,-1.7470375,-0.52625692,0.593512,-0.6089313,0
-2.7498429,2.5373268,-1.719312,-0.52625692,0.593512,-0.6089313,0
-0.69745886,0.30906633,-2.3941166,0.33065224,-0.51692414,-0.78959405,0
1.9204304,-2.5883389,2.3863947,0.52625692,-0.593512,0.6089313,0
1.9702092,-1.2774642,3.3703809,0.78340483,0.61687386,-0.075788856,0
0.55167937,-0.87644005,2.7045124,-0.33065224,0.51692414,0.78959405,0
-1.0821614,0.34029037,-1.8189238,-0.78340483,-0.61687386,0.075788856,0
2.743083,-2.5241234,1.7380229,0.52625692,-0.593512,0.6089313,0
-1.9901389,2.0218143,-0.25730658,-0.33065224,0.51692414,0.78959405,0
-2.3040776,1.7782143,-2.8444457,-0.52625692,0.593512,-0.6089313,0
1.3214493,-2.2958393,0.15668058,0.33065224,-0.51692414,-0.78959405,0
2.4103022,-2.9561629,1.6045229,0.52625692,-0.593512,0.6089313,0
-1.4422716,0.84113348,-1.4647157,-0.78340483,-0.61687386,0.075788856,0
1.0391436,-0.33393833,1.4259627,0.78340483,0.61687386,-0.075788856,0
0.29113209,0.17376582,1.9078662,-0.33065224,0.51692414,0.78959405,0
0.42915741,0.18554914,-0.65096498,0.78340483,0.61687386,-0.075788856,0
-1.8490229,1.6716404,-3.341593,-0.52625692,0.593512,-0.6089313,0
1.9838367,-2.8922567,2.0353758,0.52625692,-0.593512,0.6089313,0
1.3005871,-1.5661623,-0.32975364,0.33065224,-0.51692414,-0.78959405,0
2.7485595,-2.480679,1.6225163,0.78340483,0.61687386,-0.075788856,0
2.4600997,-2.2261257,0.7127049,0.78340483,0.61687386,-0.075788856,0
-2.7228782,2.8235648,-1.0890324,-0.33065224,0.51692414,0.78959405,0
-0.75357926,1.0007021,0.92900985,-0.33065224,0.51692414,0.78959405,0
-1.8915024,1.3947362,-1.6022892,-0.78340483,-0.61687386,0.075788856,0
-0.49722612,1.1012253,0.97055155,-0.33065224,0.51692414,0.78959405,0
-1.8439715,1.4635255,-3.5488038,-0.52625692,0.593512,-0.6089313,0
1.9475261,-1.4176376,1.994987,0.78340483,0.61687386,-0.075788856,0
-1.5156362,0.90558296,-1.6984851,-0.78340483,-0.61687386,0.075788856,0
-1.9317937,1.8710368,-3.0757127,-0.52625692,0.593512,-0.6089313,0
2.0309782,-2.1690176,0.37077808,0.33065224,-0.51692414,-0.78959405,0
2.0081863,-2.8775253,2.0286903,0.52625692,-0.593512,0.6089313,0
0.66968954,-1.6663123,-0.043099046,-0.78340483,-0.61687386,0.075788856,0
-1.617292,1.0718828,-1.3956904,-0.78340483,-0.61687386,0.075788856,0
1.7828184,-1.4355631,0.14655292,0.78340483,0.61687386,-0.075788856,0
-2.4403903,3.1250863,-1.1681345,-0.33065224,0.51692414,0.78959405,0
-2.1769679,1.639209,-2.563199,-0.78340483,-0.61687386,0.075788856,0
-0.25626886,0.10753077,1.7219977,-0.33065224,0.51692414,0.78959405,0
2.0787423,-1.4446304,3.1316218,0.78340483,0.61687386,-0.075788856,0
2.024493,-1.7105386,3.1520333,0.52625692,-0.593512,0.6089313,0
-0.53097987,0.88400543,1.0986239,-0.33065224,0.51692414,0.78959405,0
2.0841265,-1.9429963,0.24506497,0.33065224,-0.51692414,-0.78959405,0
2.096607,-1.5727894,2.2731478,0.78340483,0.61687386,-0.075788856,0
-0.53438962,1.3641407,0.7828657,-0.33065224,0.51692414,0.78959405,0
0.057185292,-0.97729421,-0.76617879,-0.78340483,-0.61687386,0.075788856,0
2.3694522,-2.0253453,1.4099388,0.78340483,0.61687386,-0.075788856,0
1.9372452,-1.6719793,3.2650185,0.52625692,-0.593512,0.6089313,0
-1.3327745,2.1354887,-2.992197,0.78340483,0.61687386,-0.075788856,0
1.1937051,-2.104219,1.8091984,-0.78340483,-0.61687386,0.075788856,0
-0.066154599,-0.370426,2.1145146,-0.33065224,0.51692414,0.78959405,0
2.8595872,-2.8870149,1.2836344,0.52625692,-0.593512,0.6089313,0
-1.9893678,1.6803068,-0.28952885,-0.78340483,-0.61687386,0.075788856,0
0.69230378,-0.8581751,2.7514431,-0.33065224,0.51692414,0.78959405,0
1.7154677,-1.1529195,3.3728662,-0.33065224,0.51692414,0.78959405,0
2.1789622,-1.7138687,3.0152903,0.52625692,-0.593512,0.6089313,0
0.11234593,0.21497053,-1.9933993,0.33065224,-0.51692414,-0.78959405,0
-1.8850271,2.5872996,-2.4180045,-0.52625692,0.593512,-0.6089313,0
1.7214556,-1.6358306,3.4867437,0.52625692,-0.593512,0.6089313,0
1.831579,-3.0037885,0.83377719,0.33065224,-0.51692414,-0.78959405,0
1.5677691,-2.7324705,0.54567981,0.33065224,-0.51692414,-0.78959405,0
2.2338755,-1.8882821,1.1241338,0.78340483,0.61687386,-0.075788856,0
0.46371436,-1.0861228,2.5501862,-0.78340483,-0.61687386,0.075788856,0
-2.047591,2.2828665,-2.5742362,-0.52625692,0.593512,-0.6089313,0
-2.5765653,2.8834562,-1.5316989,-0.52625692,0.593512,-0.6089313,0
-2.2476404,2.8146329,-1.8830469,-0.52625692,0.593512,-0.6089313,0
0.033367634,-0.95440114,-0.82603866,-0.78340483,-0.61687386,0.075788856,0
-1.5044734,2.406013,-2.5650961,0.78340483,0.61687386,-0.075788856,0
-2.9294834,2.7911594,-1.3166564,-0.52625692,0.593512,-0.6089313,0
1.4873431,-2.4123147,2.3367329,-0.78340483,-0.61687386,0.075788856,0
1.2677963,-1.9001852,3.6211491,0.52625692,-0.593512,0.6089313,0
-1.4761026,1.9843498,-3.359091,-0.52625692,0.593512,-0.6089313,0
-1.1413859,1.991257,-2.1878319,0.78340483,0.61687386,-0.075788856,0
-2.5308547,2.9437041,-1.5124815,-0.52625692,0.593512,-0.6089313,0
2.4558554,-2.7933159,1.7238779,0.52625692,-0.593512,0.6089313,0
-0.9812116,1.8440589,-1.7302617,0.78340483,0.61687386,-0.075788856,0
-0.84405017,1.83951,-0.34949005,0.78340483,0.61687386,-0.075788856,0
0.28581131,-0.11416647,2.0941391,-0.33065224,0.51692414,0.78959405,0
0.32353407,-1.1626465,0.47833055,-0.78340483,-0.61687386,0.075788856,0
-1.1558636,2.1399016,-1.1276065,0.78340483,0.61687386,-0.075788856,0
-2.2550483,3.2249548,-1.4767127,-0.52625692,0.593512,-0.6089313,0
-1.7687656,1.4516394,0.12955856,-0.78340483,-0.61687386,0.075788856,0
0.73278427,0.10323431,1.8175391,0.78340483,0.61687386,-0.075788856,0
0.65510607,-1.1901224,-0.84623897,0.33065224,-0.51692414,-0.78959405,0
1.3146987,-2.2973537,0.15484536,0.33065224,-0.51692414,-0.78959405,0
-1.7523737,1.3405391,-0.60529065,-0.78340483,-0.61687386,0.075788856,0
-1.7722986,1.0379704,-3.2739716,-0.78340483,-0.61687386,0.075788856,0
0.38646257,0.43112004,0.90650755,0.78340483,0.61687386,-0.075788856,0
-2.5143127,2.1808677,-2.2702971,-0.52625692,0.593512,-0.6089313,0
1.2149324,-0.70043182,0.26000631,0.78340483,0.61687386,-0.075788856,0
-1.6884878,1.5990242,-3.5511096,-0.52625692,0.593512,-0.6089313,0
-0.3882744,-0.22868365,0.7224713,-0.78340483,-0.61687386,0.075788856,0
-2.1126239,2.4562523,-2.3490372,-0.52625692,0.593512,-0.6089313,0
-1.7990594,2.5980694,-2.4818034,-0.52625692,0.593512,-0.6089313,0
-2.1350944,3.37411,-1.2039142,0.78340483,0.61687386,-0.075788856,0
1.147379,-0.35510591,2.3724697,0.78340483,0.61687386,-0.075788856,0
2.3296514,-3.2682877,1.370003,0.52625692,-0.593512,0.6089313,0
-2.0826271,2.2190046,-2.6062016,-0.52625692,0.593512,-0.6089313,0
-1.2037742,2.1069071,-1.8913994,0.78340483,0.61687386,-0.075788856,0
-0.5480597,1.263533,0.84300613,-0.33065224,0.51692414,0.78959405,0
2.5230761,-2.9564323,1.506798,0.52625692,-0.593512,0.6089313,0
-1.5169282,0.81787413,-2.4257345,-0.78340483,-0.61687386,0.075788856,0
0.30277604,-0.14955896,2.1244137,-0.33065224,0.51692414,0.78959405,0
-0.97353083,1.8660146,-1.4721619,0.78340483,0.61687386,-0.075788856,0
-1.5338268,2.4955797,-0.37638068,-0.33065224,0.51692414,0.78959405,0
-1.0908159,1.0223041,-3.0257757,0.33065224,-0.51692414,-0.78959405,0
-1.4095694,0.66443539,-2.5648975,-0.78340483,-0.61687386,0.075788856,0
-0.26840052,-0.33855706,1.0672678,-0.78340483,-0.61687386,0.075788856,0
-2.6003127,2.3863411,-0.8579843,-0.78340483,-0.61687386,0.075788856,0
-1.0575022,1.9426286,0.18508697,-0.33065224,0.51692414,0.78959405,0
-1.2436535,0.91649276,0.77891469,-0.33065224,0.51692414,0.78959405,0
0.081377625,-0.90288174,0.08956033,-0.78340483,-0.61687386,0.075788856,0
-2.0407004,2.8228264,-0.80287862,-0.33065224,0.51692414,0.78959405,0
-0.010924421,-0.65327585,1.167101,-0.78340483,-0.61687386,0.075788856,0
-2.0327477,1.7634339,-3.093343,-0.52625692,0.593512,-0.6089313,0
-1.6814206,1.7383621,0.057540655,-0.33065224,0.51692414,0.78959405,0
-0.55353469,-0.31292996,-1.6714852,-0.78340483,-0.61687386,0.075788856,0
2.7266674,-2.6308362,1.6481993,0.52625692,-0.593512,0.6089313,0
2.0761042,-1.5621519,3.2520583,0.52625692,-0.593512,0.6089313,0
-1.7644687,1.97124,-0.12969494,-0.33065224,0.51692414,0.78959405,0
-1.2753383,2.356739,-0.59765708,0.78340483,0.61687386,-0.075788856,0
1.9791785,-2.2782211,2.637888,0.52625692,-0.593512,0.6089313,0
1.8965294,-2.6950817,2.3030109,0.52625692,-0.593512,0.6089313,0
0.11937046,0.82061702,1.3159246,0.78340483,0.61687386,-0.075788856,0
-2.5096855,2.5262461,-1.9376633,-0.52625692,0.593512,-0.6089313,0
-2.2265761,2.5454428,-2.1636243,-0.52625692,0.593512,-0.6089313,0
-0.21444774,-0.44385481,0.76790249,-0.78340483,-0.61687386,0.075788856,0
1.3073153,-2.2106559,0.094995022,0.33065224,-0.51692414,-0.78959405,0
-0.038642887,-0.64919502,0.91379881,-0.78340483,-0.61687386,0.075788856,0
-1.3587686,0.78467166,-1.061136,-0.78340483,-0.61687386,0.075788856,0
-1.9964008,1.5786098,-1.1899732,-0.78340483,-0.61687386,0.075788856,0
2.1500092,-2.8947752,1.8893096,0.52625692,-0.593512,0.6089313,0
-1.7944621,2.3548803,-0.39341331,-0.33065224,0.51692414,0.78959405,0
-1.1108396,0.76619649,-2.8664944,0.33065224,-0.51692414,-0.78959405,0
0.93564326,-0.95016086,2.9135652,-0.33065224,0.51692414,0.78959405,0
2.3899286,-2.7611713,1.8121843,0.52625692,-0.593512,0.6089313,0
-1.84447,2.7967353,-0.70362401,-0.33065224,0.51692414,0.78959405,0
-2.4237854,2.0172069,-2.50805,-0.52625692,0.593512,-0.6089313,0
0.44952071,0.39640579,1.2757683,0.78340483,0.61687386,-0.075788856,0
-2.0408146,2.7604802,-0.76211047,-0.33065224,0.51692414,0.78959405,0
-1.8789954,1.5017328,-3.4812949,-0.52625692,0.593512,-0.6089313,0
-2.7765946,2.6620958,-1.0058179,-0.33065224,0.51692414,0.78959405,0
0.33165187,0.34107608,-0.39295527,0.78340483,0.61687386,-0.075788856,0
-2.1641965,2.3085446,-0.51790929,-0.33065224,0.51692414,0.78959405,0
0.36151761,-0.3305774,2.2675197,-0.33065224,0.51692414,0.78959405,0
-2.1805491,1.6474026,-3.078702,-0.52625692,0.593512,-0.6089313,0
-1.0332638,1.8486867,-2.2306433,0.78340483,0.61687386,-0.075788856,0
0.38621211,-1.3784432,-0.63024062,-0.78340483,-0.61687386,0.075788856,0
-0.68838817,0.034799218,-0.23512277,-0.78340483,-0.61687386,0.075788856,0
0.57161075,-0.58034116,2.5190117,-0.33065224,0.51692414,0.78959405,0
1.4959877,-2.5841713,0.41853356,0.33065224,-0.51692414,-0.78959405,0
0.70305669,-0.52827269,2.539969,-0.33065224,0.51692414,0.78959405,0
-2.092191,2.9109464,-1.9235158,-0.52625692,0.593512,-0.6089313,0
2.5700955,-2.6067243,0.88309383,0.33065224,-0.51692414,-0.78959405,0
0.23829049,0.58904833,0.66033751,0.78340483,0.61687386,-0.075788856,0
1.732651,-1.7055116,-0.057593822,0.33065224,-0.51692414,-0.78959405,0
-0.95280159,1.4586606,-3.2536502,0.33065224,-0.51692414,-0.78959405,0
-1.7386415,2.7360153,-0.61955547,-0.33065224,0.51692414,0.78959405,0
1.4241977,-1.0206246,-0.18305188,0.78340483,0.61687386,-0.075788856,0
-2.1205747,2.8466372,-1.9616663,-0.52625692,0.593512,-0.6089313,0
-1.5113438,0.91099775,-1.610043,-0.78340483,-0.61687386,0.075788856,0
0.9529922,-1.851132,-0.28875184,0.33065224,-0.51692414,-0.78959405,0
2.2889807,-2.4847522,2.1688461,0.52625692,-0.593512,0.6089313,0
0.0089825988,-0.81478125,0.058319211,-0.78340483,-0.61687386,0.075788856,0
-1.2803975,1.6533478,0.28113043,-0.33065224,0.51692414,0.78959405,0
-0.36258829,0.84119517,1.1971668,-0.33065224,0.51692414,0.78959405,0
1.1646665,-0.70763111,-0.31817222,0.78340483,0.61687386,-0.075788856,0
1.7861218,-1.6319549,-0.083357453,0.33065224,-0.51692414,-0.78959405,0
1.7552414,-1.1792388,1.947819,0.78340483,0.61687386,-0.075788856,0
1.9941061,-2.3095279,2.5944734,0.52625692,-0.593512,0.6089313,0
-2.2528932,1.7600713,-2.9063647,-0.52625692,0.593512,-0.6089313,0
0.68011296,-1.3746009,2.4389982,-0.78340483,-0.61687386,0.075788856,0
-1.5430341,2.0059965,-3.2801485,-0.52625692,0.593512,-0.6089313,0
-0.15525109,-0.50069958,0.91711789,-0.78340483,-0.61687386,0.075788856,0
-1.6953964,0.99843657,-2.8008392,-0.78340483,-0.61687386,0.075788856,0
-1.6681445,1.7700819,-3.4019647,-0.52625692,0.593512,-0.6089313,0
-0.21401727,0.005271554,1.806637,-0.33065224,0.51692414,0.78959405,0
0.37682414,-0.34496886,2.2833514,-0.33065224,0.51692414,0.78959405,0
-0.18892121,-0.026141644,-1.9617095,0.33065224,-0.51692414,-0.78959405,0
-2.0215359,1.4970845,-3.362638,-0.52625692,0.593512,-0.6089313,0
-2.1317692,1.9711806,-0.28346765,-0.33065224,0.51692414,0.78959405,0
-2.09641,3.3218594,-1.2293353,0.78340483,0.61687386,-0.075788856,0
2.1564736,-1.8549695,2.8971982,0.52625692,-0.593512,0.6089313,0
1.5015936,-2.0691311,3.2544265,0.52625692,-0.593512,0.6089313,0
-2.5010533,2.1305437,-2.3308055,-0.52625692,0.593512,-0.6089313,0
-1.8000848,2.7041638,-2.3775091,-0.52625692,0.593512,-0.6089313,0
-1.9459136,1.456404,-3.4676433,-0.52625692,0.593512,-0.6089313,0
-0.26038504,-0.59833598,-0.96431887,-0.78340483,-0.61687386,0.075788856,0
2.2104645,-3.4031732,1.3415377,0.52625692,-0.593512,0.6089313,0
-1.988011,2.9921329,-1.9344208,-0.52625692,0.593512,-0.6089313,0
1.2174166,-1.887904,3.645474,-0.33065224,0.51692414,0.78959405,0
1.9086171,-3.0290308,1.6716201,-0.78340483,-0.61687386,0.075788856,0
1.3985577,-0.93053818,0.28516084,0.78340483,0.61687386,-0.075788856,0
0.42846632,0.28263006,0.13207012,0.78340483,0.61687386,-0.075788856,0
2.5508642,-2.236016,2.1849566,0.52625692,-0.593512,0.6089313,0
0.86706376,-0.27854347,0.098109186,0.78340483,0.61687386,-0.075788856,0
-0.1215125,-0.47794247,1.4510918,-0.78340483,-0.61687386,0.075788856,0
1.4986366,-1.9964142,3.3278575,0.52625692,-0.593512,0.6089313,0
0.8658222,-1.6641808,2.0016158,-0.78340483,-0.61687386,0.075788856,0
-2.4113669,2.7455578,-1.8088748,-0.52625692,0.593512,-0.6089313,0
1.7854985,-1.9582617,3.1171291,0.52625692,-0.593512,0.6089313,0
-1.8089559,1.4449751,-3.5971453,-0.52625692,0.593512,-0.6089313,0
-1.3967142,2.2126763,-3.0248632,0.78340483,0.61687386,-0.075788856,0
-0.40394318,0.44502896,1.4392072,-0.33065224,0.51692414,0.78959405,0
1.1138633,-1.6547846,3.4494932,-0.33065224,0.51692414,0.78959405,0
0.08215487,0.50056183,-1.6738127,0.78340483,0.61687386,-0.075788856,0
-1.7752689,1.2197877,-1.8247948,-0.78340483,-0.61687386,0.075788856,0
-1.7039149,2.7054353,-2.1895459,0.78340483,0.61687386,-0.075788856,0
-1.9206429,1.7815943,-3.1725273,-0.52625692,0.593512,-0.6089313,0
-0.01025641,-0.59300494,-1.5157828,0.33065224,-0.51692414,-0.78959405,0
2.4288521,-2.3538723,2.1755309,0.52625692,-0.593512,0.6089313,0
-0.34600943,0.9405064,-2.5187349,0.78340483,0.61687386,-0.075788856,0
1.9889137,-2.109304,2.7941146,0.52625692,-0.593512,0.6089313,0
-1.7151806,2.8794117,-0.88993478,0.78340483,0.61687386,-0.075788856,0
-2.7447684,2.9117947,-1.1559606,-0.33065224,0.51692414,0.78959405,0
-1.9839211,1.5427871,-1.3525496,-0.78340483,-0.61687386,0.075788856,0
0.16328514,0.66842586,1.5304896,-0.33065224,0.51692414,0.78959405,0
-0.72298765,1.4190729,-2.5202053,0.78340483,0.61687386,-0.075788856,0
-1.538223,1.7844344,-3.5002575,-0.52625692,0.593512,-0.6089313,0
2.1388774,-1.6865764,3.0765343,0.52625692,-0.593512,0.6089313,0
0.80739355,-0.3464424,-1.071339,0.78340483,0.61687386,-0.075788856,0
-0.64385992,0.14909852,1.1554767,-0.78340483,-0.61687386,0.075788856,0
-0.91035581,1.7705721,-1.5959841,0.78340483,0.61687386,-0.075788856,0
-0.7183606,1.380492,-2.786401,0.78340483,0.61687386,-0.075788856,0
1.5779386,-2.6456103,1.374307,-0.78340483,-0.61687386,0.075788856,0
-0.2299639,0.71722519,1.3338643,-0.33065224,0.51692414,0.78959405,0
0.73011148,-1.4693698,-0.63201457,0.33065224,-0.51692414,-0.78959405,0
1.7196076,-1.9875069,0.12155819,0.33065224,-0.51692414,-0.78959405,0
2.2503681,-2.0190985,0.36450279,0.33065224,-0.51692414,-0.78959405,0
-1.9895011,1.9927802,-2.9071794,-0.52625692,0.593512,-0.6089313,0
1.6257313,-1.2938306,-0.32359266,0.78340483,0.61687386,-0.075788856,0
-2.6055031,3.010838,-1.3825338,-0.52625692,0.593512,-0.6089313,0
-2.006336,3.0981264,-0.96871924,-0.33065224,0.51692414,0.78959405,0
-2.0588198,1.6525867,-1.2330534,-0.78340483,-0.61687386,0.075788856,0
-0.0070512295,0.71186984,-0.87599039,0.78340483,0.61687386,-0.075788856,0
-1.8936404,1.6405312,-3.3333545,-0.52625692,0.593512,-0.6089313,0
-0.85237229,0.4216491,1.2185445,-0.78340483,-0.61687386,0.075788856,0
1.3262453,-2.2726254,1.8084997,-0.78340483,-0.61687386,0.075788856,0
2.2406292,-3.3295133,1.3872635,0.52625692,-0.593512,0.6089313,0
-2.1354594,1.8697457,-0.25771141,-0.78340483,-0.61687386,0.075788856,0
-1.3345389,2.4219298,-0.24470997,-0.33065224,0.51692414,0.78959405,0
-1.9128113,1.4387742,-1.4641107,-0.78340483,-0.61687386,0.075788856,0
-1.6200891,1.1410491,-0.86163068,-0.78340483,-0.61687386,0.075788856,0
1.0126092,-1.7147864,3.107008,-0.78340483,-0.61687386,0.075788856,0
2.4308105,-2.5577698,1.9751037,0.52625692,-0.593512,0.6089313,0
-2.1713464,2.5932703,-2.1647396,-0.52625692,0.593512,-0.6089313,0
0.11900531,0.59645683,-0.5123747,0.78340483,0.61687386,-0.075788856,0
1.4219089,-1.9742399,3.4157805,0.52625692,-0.593512,0.6089313,0
1.5169141,-0.92352331,3.1395404,-0.33065224,0.51692414,0.78959405,0
2.3982821,-2.1006098,1.0953373,0.78340483,0.61687386,-0.075788856,0
-2.752975,2.5953209,-1.6600797,-0.52625692,0.593512,-0.6089313,0
2.4559171,-2.9286482,1.5919189,0.52625692,-0.593512,0.6089313,0
-1.3884807,1.8953183,-3.5215938,-0.52625692,0.593512,-0.6089313,0
-1.2922177,1.9093188,-3.5911412,-0.52625692,0.593512,-0.6089313,0
2.5534136,-2.8421674,1.5919509,0.52625692,-0.593512,0.6089313,0
1.4496701,-1.6432096,3.5825384,-0.33065224,0.51692414,0.78959405,0
-0.20787287,1.1444924,0.5694598,0.78340483,0.61687386,-0.075788856,0
-0.22374308,-0.10757604,-1.9229789,0.33065224,-0.51692414,-0.78959405,0
-1.7961285,1.9534259,-3.1126561,-0.52625692,0.593512,-0.6089313,0
-0.088565797,-0.54730266,1.2271026,-0.78340483,-0.61687386,0.075788856,0
2.1875267,-2.395972,2.3430576,0.52625692,-0.593512,0.6089313,0
2.1362576,-2.5804148,2.2075939,0.52625692,-0.593512,0.6089313,0
0.19528058,-0.97252733,0.70006704,-0.78340483,-0.61687386,0.075788856,0
-0.063870668,-0.21090364,2.0110364,-0.33065224,0.51692414,0.78959405,0
1.3198572,-2.4114339,0.61265266,-0.78340483,-0.61687386,0.075788856,0
-0.80637681,0.83859444,1.0130273,-0.33065224,0.51692414,0.78959405,0
2.0191567,-1.9301274,2.9426169,0.52625692,-0.593512,0.6089313,0
1.7343746,-2.8478808,1.3449824,-0.78340483,-0.61687386,0.075788856,0
-1.0988302,1.9841386,-1.8058842,0.78340483,0.61687386,-0.075788856,0
1.9371314,-2.716583,0.68995333,0.33065224,-0.51692414,-0.78959405,0
-0.4186269,-0.23952819,-1.9182038,0.33065224,-0.51692414,-0.78959405,0
-2.6740866,2.8121576,-1.5169115,-0.52625692,0.593512,-0.6089313,0
-0.63504481,1.4374648,-1.4614694,0.78340483,0.61687386,-0.075788856,0
-1.0470445,1.7745165,-2.97679,0.78340483,0.61687386,-0.075788856,0
-1.1970745,0.52684098,-2.7459073,0.33065224,-0.51692414,-0.78959405,0
2.3861537,-2.2248249,0.55604768,0.33065224,-0.51692414,-0.78959405,0
0.11046898,0.57789648,1.5676389,-0.33065224,0.51692414,0.78959405,0
0.43636209,-1.1338561,1.8789355,-0.78340483,-0.61687386,0.075788856,0
-2.075958,2.8009191,-2.0447862,-0.52625692,0.593512,-0.6089313,0
2.1841981,-3.3340046,1.4316549,0.52625692,-0.593512,0.6089313,0
2.007462,-1.6960815,0.3481611,0.78340483,0.61687386,-0.075788856,0
0.16764438,-0.02786231,1.9881544,-0.33065224,0.51692414,0.78959405,0
-2.2537878,2.6370828,-0.77051091,-0.33065224,0.51692414,0.78959405,0
-0.48803872,1.1980922,-1.8902586,0.78340483,0.61687386,-0.075788856,0
-2.0981112,2.4180198,-0.56190538,-0.33065224,0.51692414,0.78959405,0
-2.0322361,2.1049976,-0.32939291,-0.33065224,0.51692414,0.78959405,0
-1.8864475,2.2885842,-2.7079282,-0.52625692,0.593512,-0.6089313,0
-1.644614,2.3689551,-2.8385923,-0.52625692,0.593512,-0.6089313,0
0.92165774,-0.40765366,2.5525448,-0.33065224,0.51692414,0.78959405,0
2.103035,-1.731124,1.0508467,0.78340483,0.61687386,-0.075788856,0
-2.092288,1.5716534,-3.228811,-0.52625692,0.593512,-0.6089313,0
0.32757482,0.33795244,-0.46052292,0.78340483,0.61687386,-0.075788856,0
-1.3506873,1.4641931,-3.4238913,0.33065224,-0.51692414,-0.78959405,0
-1.4205587,1.6226838,0.24251127,-0.33065224,0.51692414,0.78959405,0
1.3461516,-1.9502671,3.5046186,0.52625692,-0.593512,0.6089313,0
1.3286126,-1.5927238,-0.30062866,0.33065224,-0.51692414,-0.78959405,0
2.1781549,-1.7005651,3.028955,0.52625692,-0.593512,0.6089313,0
1.9804344,-2.0219209,2.8866124,0.52625692,-0.593512,0.6089313,0
0.17838705,0.19806993,1.8447418,-0.33065224,0.51692414,0.78959405,0
2.2642848,-2.4789116,0.67135644,0.33065224,-0.51692414,-0.78959405,0
-1.4322709,2.1776178,-3.2085979,-0.52625692,0.593512,-0.6089313,0
-1.0418037,0.85779864,0.90186721,-0.33065224,0.51692414,0.78959405,0
1.146883,-0.60712367,2.7774479,-0.33065224,0.51692414,0.78959405,0
2.0204136,-2.1720738,2.7057109,0.52625692,-0.593512,0.6089313,0
0.24876392,-0.16493124,-1.6875621,0.33065224,-0.51692414,-0.78959405,0
1.3655316,-2.4705982,0.60321295,-0.78340483,-0.61687386,0.075788856,0
0.38371682,-1.3682034,-0.57268572,-0.78340483,-0.61687386,0.075788856,0
-1.8511169,2.389183,-2.6404109,-0.52625692,0.593512,-0.6089313,0
0.66140795,0.16938755,1.6181908,0.78340483,0.61687386,-0.075788856,0
2.112628,-3.2336559,1.591316,0.52625692,-0.593512,0.6089313,0
-0.76449573,1.0630416,-2.9157946,0.33065224,-0.51692414,-0.78959405,0
2.7508919,-2.4707921,1.7832555,0.52625692,-0.593512,0.6089313,0
-1.9701465,2.1077259,-0.30517852,-0.33065224,0.51692414,0.78959405,0
1.9865756,-2.068892,0.28663492,0.33065224,-0.51692414,-0.78959405,0
-1.7104541,0.99215764,-3.007591,-0.78340483,-0.61687386,0.075788856,0
-2.1502643,3.0570955,-1.7308791,-0.52625692,0.593512,-0.6089313,0
-1.3853469,2.1817501,-0.10874784,-0.33065224,0.51692414,0.78959405,0
0.83855456,-0.097713649,1.2752607,0.78340483,0.61687386,-0.075788856,0
1.9373245,-2.1886139,2.7613971,0.52625692,-0.593512,0.6089313,0
1.461715,-1.3894761,-0.37795067,0.33065224,-0.51692414,-0.78959405,0
1.0672867,-1.1595365,3.1057644,-0.33065224,0.51692414,0.78959405,0
-1.7128425,2.7759972,-0.63492656,-0.33065224,0.51692414,0.78959405,0
1.6031621,-2.7510104,0.57263875,0.33065224,-0.51692414,-0.78959405,0
-2.0054479,2.9645576,-1.946228,-0.52625692,0.593512,-0.6089313,0
-2.2252576,1.9395523,-0.61774516,-0.78340483,-0.61687386,0.075788856,0
1.4753379,-1.4692976,3.4794323,-0.33065224,0.51692414,0.78959405,0
-2.0876777,1.9242325,-0.23426807,-0.33065224,0.51692414,0.78959405,0
1.3424907,-1.9710038,3.4875708,0.52625692,-0.593512,0.6089313,0
0.17180204,-1.0709022,-0.3433333,-0.78340483,-0.61687386,0.075788856,0
0.83313364,-0.17763044,2.3648849,-0.33065224,0.51692414,0.78959405,0
0.28279191,0.22664857,-1.8293753,0.78340483,0.61687386,-0.075788856,0
-0.39211905,1.3100691,0.87784231,-0.33065224,0.51692414,0.78959405,0
-0.49139452,1.3568691,0.80563104,-0.33065224,0.51692414,0.78959405,0
-1.8553547,2.5437028,-0.54252911,-0.33065224,0.51692414,0.78959405,0
-2.1082485,1.5771276,-2.3581724,-0.78340483,-0.61687386,0.075788856,0
2.0345111,-2.4094782,2.4621348,0.52625692,-0.593512,0.6089313,0
-2.411597,2.8352129,-1.7212913,-0.52625692,0.593512,-0.6089313,0
-1.8921916,2.1514959,-2.8365808,-0.52625692,0.593512,-0.6089313,0
1.0936304,-1.4847821,-0.46969634,0.33065224,-0.51692414,-0.78959405,0
1.8228362,-1.4109603,0.76045513,0.78340483,0.61687386,-0.075788856,0
1.6716536,-2.3400919,0.332304,0.33065224,-0.51692414,-0.78959405,0
1.5169691,-0.76414371,2.8634894,0.78340483,0.61687386,-0.075788856,0
1.6305964,-1.4481733,3.5306194,-0.33065224,0.51692414,0.78959405,0
2.0767925,-2.0107069,2.8142672,0.52625692,-0.593512,0.6089313,0
0.74744523,0.060216632,2.1732905,-0.33065224,0.51692414,0.78959405,0
-1.6565381,1.1532032,-1.1394675,-0.78340483,-0.61687386,0.075788856,0
-2.1967657,3.3062263,-1.1847005,-0.33065224,0.51692414,0.78959405,0
-0.52989388,1.4791496,-0.035268545,0.78340483,0.61687386,-0.075788856,0
1.864994,-2.6917739,2.3334889,0.52625692,-0.593512,0.6089313,0
-1.3048762,2.2867422,-1.4727132,0.78340483,0.61687386,-0.075788856,0
-2.4362488,2.3549254,-2.1681118,-0.52625692,0.593512,-0.6089313,0
1.2044408,-2.2039666,0.047535419,0.33065224,-0.51692414,-0.78959405,0
-2.1279538,1.7272135,-1.3402517,-0.78340483,-0.61687386,0.075788856,0
1.2700012,-0.52332175,2.2708023,0.78340483,0.61687386,-0.075788856,0
-2.0751827,1.7063515,-3.1123071,-0.52625692,0.593512,-0.6089313,0
2.0651677,-2.1618376,2.6770101,0.52625692,-0.593512,0.6089313,0
-2.1968222,2.4986761,-2.2349212,-0.52625692,0.593512,-0.6089313,0
-0.94450116,1.9200165,0.2472111,-0.33065224,0.51692414,0.78959405,0
2.3938687,-3.3026609,1.2810016,0.52625692,-0.593512,0.6089313,0
-0.85359043,0.2472862,-0.21325415,-0.78340483,-0.61687386,0.075788856,0
-2.1592691,3.3558607,-1.4318969,-0.52625692,0.593512,-0.6089313,0
2.6247914,-2.586637,0.89284801,0.33065224,-0.51692414,-0.78959405,0
0.25010121,0.4604097,1.7030268,-0.33065224,0.51692414,0.78959405,0
0.62787938,-0.098480701,-0.9086647,0.78340483,0.61687386,-0.075788856,0
1.1356045,-0.51891923,0.91742069,0.78340483,0.61687386,-0.075788856,0
2.1829951,-2.1045887,2.6309791,0.52625692,-0.593512,0.6089313,0
1.5902529,-0.88329649,2.6511712,0.78340483,0.61687386,-0.075788856,0
2.6318848,-2.6912668,0.96431661,0.33065224,-0.51692414,-0.78959405,0
1.9653916,-1.3258408,2.9268255,0.78340483,0.61687386,-0.075788856,0
0.665627,-0.06297332,-0.22947215,0.78340483,0.61687386,-0.075788856,0
0.74880528,-0.33722818,-1.365366,0.33065224,-0.51692414,-0.78959405,0
-0.1483264,0.4252702,1.5591853,-0.33065224,0.51692414,0.78959405,0
0.39076197,-1.1163763,1.5498548,-0.78340483,-0.61687386,0.075788856,0
2.5738251,-2.3673658,0.73863697,0.78340483,0.61687386,-0.075788856,0
2.530055,-2.906014,1.5499082,0.52625692,-0.593512,0.6089313,0
2.8887954,-2.7103667,1.4305675,0.52625692,-0.593512,0.6089313,0
2.1493144,-2.5987225,0.70164776,0.33065224,-0.51692414,-0.78959405,0
-1.2541257,1.4022876,-3.3429275,0.33065224,-0.51692414,-0.78959405,0
1.7345879,-2.5026085,2.6305654,0.52625692,-0.593512,0.6089313,0
2.2743936,-2.1593916,2.4985747,0.52625692,-0.593512,0.6089313,0
1.8891821,-1.5901932,3.386271,0.52625692,-0.593512,0.6089313,0
0.63047403,-0.18913707,2.2875519,-0.33065224,0.51692414,0.78959405,0
-0.13521105,0.95269626,-0.24056005,0.78340483,0.61687386,-0.075788856,0
-0.93328393,1.1976329,0.72483164,-0.33065224,0.51692414,0.78959405,0
1.6243764,-1.683902,3.523788,0.52625692,-0.593512,0.6089313,0
2.4516976,-3.1450794,1.3846152,0.52625692,-0.593512,0.6089313,0
-1.2398636,2.1199131,-2.1585817,0.78340483,0.61687386,-0.075788856,0
-2.2601852,2.6885116,-1.9951324,-0.52625692,0.593512,-0.6089313,0
-2.1213269,3.2633958,-1.554811,-0.52625692,0.593512,-0.6089313,0
1.1356533,-0.80207789,-0.89904505,0.33065224,-0.51692414,-0.78959405,0
0.069392741,0.7661373,0.35589135,0.78340483,0.61687386,-0.075788856,0
1.5262921,-1.9682548,3.3314033,0.52625692,-0.593512,0.6089313,0
-0.96619844,0.38192153,-0.28139848,-0.78340483,-0.61687386,0.075788856,0
2.6728013,-2.5605097,0.89584756,0.33065224,-0.51692414,-0.78959405,0
1.8870457,-2.7556233,2.2521987,0.52625692,-0.593512,0.6089313,0
2.6068163,-2.6975808,0.95795226,0.33065224,-0.51692414,-0.78959405,0
1.7080783,-1.5294039,3.6020365,0.52625692,-0.593512,0.6089313,0
2.2612174,-1.8181872,2.842526,0.52625692,-0.593512,0.6089313,0
2.4525828,-2.8830497,1.014786,0.33065224,-0.51692414,-0.78959405,0
2.1514292,-3.3479385,1.446394,0.52625692,-0.593512,0.6089313,0
0.046267271,-0.61270404,2.0885036,-0.78340483,-0.61687386,0.075788856,0
1.1574985,-0.87469041,-0.84235996,0.33065224,-0.51692414,-0.78959405,0
1.9344656,-1.5091622,3.4261148,0.52625692,-0.593512,0.6089313,0
-0.40358305,0.70401931,-2.5296168,0.33065224,-0.51692414,-0.78959405,0
-0.19174421,-0.10300398,1.8868492,-0.33065224,0.51692414,0.78959405,0
2.233989,-1.9608501,0.53464985,0.78340483,0.61687386,-0.075788856,0
-2.7408834,2.7615113,-1.5085475,-0.52625692,0.593512,-0.6089313,0
-0.66932607,0.51778203,1.2804456,-0.33065224,0.51692414,0.78959405,0
2.5955877,-2.3136013,1.401203,0.78340483,0.61687386,-0.075788856,0
-2.5267859,2.1414392,-2.0913153,-0.78340483,-0.61687386,0.075788856,0
1.4475867,-2.3500271,2.432766,-0.78340483,-0.61687386,0.075788856,0
-1.146791,1.8402303,-3.4729652,0.78340483,0.61687386,-0.075788856,0
1.6005006,-1.2198212,3.368521,-0.33065224,0.51692414,0.78959405,0
-1.4762641,2.5728877,-0.91525042,0.78340483,0.61687386,-0.075788856,0
1.6754974,-1.5390685,3.6089282,-0.33065224,0.51692414,0.78959405,0
-2.6388516,2.6703308,-0.95352721,-0.33065224,0.51692414,0.78959405,0
2.5458207,-2.681675,0.92199659,0.33065224,-0.51692414,-0.78959405,0
1.4320475,-1.7613353,3.6145318,0.52625692,-0.593512,0.6089313,0
2.027916,-2.9770339,0.89848018,0.33065224,-0.51692414,-0.78959405,0
-0.48681259,0.62371349,1.2875252,-0.33065224,0.51692414,0.78959405,0
-1.9576293,1.397976,-2.2594533,-0.78340483,-0.61687386,0.075788856,0
-1.5218382,2.6122103,-1.0662712,0.78340483,0.61687386,-0.075788856,0
-2.3963461,3.0525646,-1.5226238,-0.52625692,0.593512,-0.6089313,0
2.685833,-2.8106174,1.508261,0.52625692,-0.593512,0.6089313,0
-2.2979939,2.3914762,-2.2519708,-0.52625692,0.593512,-0.6089313,0
1.9374545,-2.1159608,2.8320985,0.52625692,-0.593512,0.6089313,0
1.2734832,-0.64498174,1.3165576,0.78340483,0.61687386,-0.075788856,0
-2.1321709,2.0079339,-2.7691102,-0.52625692,0.593512,-0.6089313,0
-0.43459845,0.51962984,1.3775308,-0.33065224,0.51692414,0.78959405,0
-2.2841187,1.9751103,-0.93675804,-0.78340483,-0.61687386,0.075788856,0
0.78010458,-0.31000102,-1.0568053,0.78340483,0.61687386,-0.075788856,0
-1.7486351,2.1279809,-2.9835663,-0.52625692,0.593512,-0.6089313,0
-0.77491587,1.6196078,-1.4247404,0.78340483,0.61687386,-0.075788856,0
-1.3049231,1.4520977,0.40261281,-0.33065224,0.51692414,0.78959405,0
1.3208923,-1.902698,3.5728128,0.52625692,-0.593512,0.6089313,0
-1.9430392,1.9790462,-2.9607196,-0.52625692,0.593512,-0.6089313,0
-1.1287007,2.0838976,-1.3026714,0.78340483,0.61687386,-0.075788856,0
1.6477375,-1.7036307,3.4843698,0.52625692,-0.593512,0.6089313,0
-2.3075852,3.3380814,-1.3210466,-0.52625692,0.593512,-0.6089313,0
1.2772322,-1.9896734,3.5257721,0.52625692,-0.593512,0.6089313,0
-1.2296803,1.2809074,-3.2532268,0.33065224,-0.51692414,-0.78959405,0
0.254269,0.24931431,-1.9397219,0.78340483,0.61687386,-0.075788856,0
1.7654649,-2.5178697,0.48797417,0.33065224,-0.51692414,-0.78959405,0
1.8209158,-1.9245648,3.1193638,0.52625692,-0.593512,0.6089313,0
-0.16050887,-0.73582244,-1.0509839,-0.78340483,-0.61687386,0.075788856,0
1.8043804,-1.4600939,0.16976571,0.78340483,0.61687386,-0.075788856,0
-0.1868245,0.99385071,-0.4391005,0.78340483,0.61687386,-0.075788856,0
1.9562837,-1.8145792,3.1095757,0.52625692,-0.593512,0.6089313,0
2.034286,-1.9030383,2.9559445,0.52625692,-0.593512,0.6089313,0
-1.1515955,0.41866034,-1.8987592,-0.78340483,-0.61687386,0.075788856,0
0.0032843351,-0.24480009,2.0613492,-0.33065224,0.51692414,0.78959405,0
-2.6464338,2.8895483,-1.4653788,-0.52625692,0.593512,-0.6089313,0
-0.84265733,1.4151535,0.62037826,-0.33065224,0.51692414,0.78959405,0
-1.4554834,2.601193,-0.47005677,0.78340483,0.61687386,-0.075788856,0
-1.7456309,1.4227507,0.13355851,-0.78340483,-0.61687386,0.075788856,0
-0.46387494,1.433302,0.2739796,0.78340483,0.61687386,-0.075788856,0
-2.3115444,1.849262,-2.768744,-0.52625692,0.593512,-0.6089313,0
-2.7884226,2.9812474,-1.2532907,-0.52625692,0.593512,-0.6089313,0
0.66115916,-0.45423079,-1.3254707,0.33065224,-0.51692414,-0.78959405,0
0.25833762,-0.046673357,2.0384483,-0.33065224,0.51692414,0.78959405,0
0.18263137,-0.86312521,-1.2581689,0.33065224,-0.51692414,-0.78959405,0
-1.7004073,1.954797,-3.1940446,-0.52625692,0.593512,-0.6089313,0
-2.6964097,2.8964503,-1.4154611,-0.52625692,0.593512,-0.6089313,0
0.35669214,-0.1921874,2.1748993,-0.33065224,0.51692414,0.78959405,0
0.26850128,-1.0178913,1.0876925,-0.78340483,-0.61687386,0.075788856,0
-1.7669066,1.7604071,-3.3260417,-0.52625692,0.593512,-0.6089313,0
1.8940662,-2.7640615,2.2379067,0.52625692,-0.593512,0.6089313,0
2.444442,-2.3214698,0.64372706,0.33065224,-0.51692414,-0.78959405,0
-1.3014693,1.9579155,-3.535779,-0.52625692,0.593512,-0.6089313,0
-0.26565611,0.75743747,1.2925918,-0.33065224,0.51692414,0.78959405,0
1.8739281,-1.6789281,3.3129663,0.52625692,-0.593512,0.6089313,0
-1.6988512,1.7348109,-3.4098051,-0.52625692,0.593512,-0.6089313,0
1.6858735,-1.5825412,3.5694344,0.52625692,-0.593512,0.6089313,0
1.5022703,-1.1181885,3.2608497,-0.33065224,0.51692414,0.78959405,0
0.37535071,-0.96130973,-1.1131868,0.33065224,-0.51692414,-0.78959405,0
2.0408351,-2.5203705,2.3485842,0.52625692,-0.593512,0.6089313,0
-1.8296089,2.7944236,-2.2640193,-0.52625692,0.593512,-0.6089313,0
2.2409515,-1.8568702,2.8223372,0.52625692,-0.593512,0.6089313,0
2.3612883,-2.1374454,2.4448678,0.52625692,-0.593512,0.6089313,0
-0.78494406,0.60573918,1.1744462,-0.33065224,0.51692414,0.78959405,0
1.8890396,-1.795049,3.1867256,0.52625692,-0.593512,0.6089313,0
-1.8660052,2.0783377,-2.9305174,-0.52625692,0.593512,-0.6089313,0
-0.30076659,-0.56312329,-1.095119,-0.78340483,-0.61687386,0.075788856,0
0.16677439,-0.30464023,2.1689885,-0.33065224,0.51692414,0.78959405,0
1.6782975,-1.5471718,3.6104558,0.52625692,-0.593512,0.6089313,0
1.7090194,-2.8211918,0.66291308,0.33065224,-0.51692414,-0.78959405,0
0.36374617,-0.55257541,-1.3856328,0.33065224,-0.51692414,-0.78959405,0
-2.2983077,2.2964985,-0.56618357,-0.33065224,0.51692414,0.78959405,0
1.4317926,-1.2501767,-0.48167616,0.33065224,-0.51692414,-0.78959405,0
-2.0192776,2.2758172,-2.6055763,-0.52625692,0.593512,-0.6089313,0
-1.7211273,2.1389229,-2.9966741,-0.52625692,0.593512,-0.6089313,0
0.94851136,-1.1790378,-0.73062873,0.33065224,-0.51692414,-0.78959405,0
1.8173083,-1.4762726,0.17171466,0.78340483,0.61687386,-0.075788856,0
-1.7574537,1.8973405,-3.2007451,-0.52625692,0.593512,-0.6089313,0
0.53549618,0.014864326,-0.9410423,0.78340483,0.61687386,-0.075788856,0
-0.19250607,1.0644298,0.076639473,0.78340483,0.61687386,-0.075788856,0
0.73737627,-1.1972703,2.9923136,-0.33065224,0.51692414,0.78959405,0
0.69383019,0.050934169,2.1569154,-0.33065224,0.51692414,0.78959405,0
-2.2489426,2.0114498,-2.6647658,-0.52625692,0.593512,-0.6089313,0
-1.8015733,1.433557,-0.35674369,-0.78340483,-0.61687386,0.075788856,0
0.1647855,0.6953007,0.76536918,0.78340483,0.61687386,-0.075788856,0
2.6445522,-2.3950136,1.2446918,0.78340483,0.61687386,-0.075788856,0
-2.1404808,3.2823,-1.5198328,-0.52625692,0.593512,-0.6089313,0
-0.40425831,0.8128621,-2.6011558,0.33065224,-0.51692414,-0.78959405,0
0.48665631,-0.064865828,-1.6534517,0.33065224,-0.51692414,-0.78959405,0
-1.6828308,2.384778,-2.7901418,-0.52625692,0.593512,-0.6089313,0
2.4160633,-1.9826937,2.5483627,0.52625692,-0.593512,0.6089313,0
-1.7506416,1.1045039,-2.5085685,-0.78340483,-0.61687386,0.075788856,0
0.89440727,-0.50240582,-1.1962563,0.33065224,-0.51692414,-0.78959405,0
-0.95953703,0.31658867,-0.74431121,-0.78340483,-0.61687386,0.075788856,0
-1.7155206,1.1373783,-1.8779566,-0.78340483,-0.61687386,0.075788856,0
-0.50964689,0.18029559,-2.2311656,0.33065224,-0.51692414,-0.78959405,0
-1.6608003,1.097513,-1.6368095,-0.78340483,-0.61687386,0.075788856,0
-0.93885684,2.0162013,0.18660522,-0.33065224,0.51692414,0.78959405,0
0.16458338,0.36335886,-1.9385226,0.78340483,0.61687386,-0.075788856,0
-2.2853112,2.290612,-2.3612413,-0.52625692,0.593512,-0.6089313,0
-0.5445832,1.3341972,-1.3669297,0.78340483,0.61687386,-0.075788856,0
0.62233782,-0.081165314,-0.82500982,0.78340483,0.61687386,-0.075788856,0
1.9278414,-2.1020885,2.8539276,0.52625692,-0.593512,0.6089313,0
1.1071017,-1.7949909,3.4309289,-0.78340483,-0.61687386,0.075788856,0
-0.11382902,-0.11003458,-1.8753414,0.33065224,-0.51692414,-0.78959405,0
1.6563942,-2.5508931,2.6510806,0.52625692,-0.593512,0.6089313,0
-0.905092,1.1125805,0.79231858,-0.33065224,0.51692414,0.78959405,0
-0.91472673,1.0573752,0.82442552,-0.33065224,0.51692414,0.78959405,0
-0.97353017,0.73487067,1.0109351,-0.33065224,0.51692414,0.78959405,0
1.5881722,-2.5171082,2.526017,-0.78340483,-0.61687386,0.075788856,0
0.24048531,-0.28013778,-1.6156065,0.33065224,-0.51692414,-0.78959405,0
2.3219991,-2.9230266,1.7131345,0.52625692,-0.593512,0.6089313,0
-0.098756135,0.44659686,-2.2334399,0.33065224,-0.51692414,-0.78959405,0
-0.56757021,0.30562466,-2.337471,0.33065224,-0.51692414,-0.78959405,0
0.76258451,-0.46702984,2.5248032,-0.33065224,0.51692414,0.78959405,0
2.3742669,-2.5235982,2.057277,0.52625692,-0.593512,0.6089313,0
1.3510779,-2.23457,2.3749347,-0.78340483,-0.61687386,0.075788856,0
-1.6796856,1.5944605,-3.5631652,-0.52625692,0.593512,-0.6089313,0
1.8918251,-1.945358,3.0378158,0.52625692,-0.593512,0.6089313,0
-2.0399969,3.185288,-1.7012286,-0.52625692,0.593512,-0.6089313,0
-1.0483949,0.47295773,-0.39006048,-0.78340483,-0.61687386,0.075788856,0
-2.2731059,2.5308015,-2.1376827,-0.52625692,0.593512,-0.6089313,0
1.551662,-1.1562769,0.030377388,0.78340483,0.61687386,-0.075788856,0
-1.0207474,0.25161514,-1.9058695,-0.78340483,-0.61687386,0.075788856,0
1.3872812,-0.97082615,-0.15932143,0.78340483,0.61687386,-0.075788856,0
2.600702,-3.1182723,1.2308056,0.33065224,-0.51692414,-0.78959405,0
-2.468883,2.7822237,-1.7234304,-0.52625692,0.593512,-0.6089313,0
0.81750071,-0.15683419,0.57642877,0.78340483,0.61687386,-0.075788856,0
-2.1931932,2.760273,-1.9830848,-0.52625692,0.593512,-0.6089313,0
-0.65945196,0.80587739,-2.7034483,0.33065224,-0.51692414,-0.78959405,0
0.39607549,-1.0166043,2.4168625,-0.78340483,-0.61687386,0.075788856,0
-0.41977239,1.4109546,0.54795688,0.78340483,0.61687386,-0.075788856,0
2.0047655,-2.3041487,2.5905035,0.52625692,-0.593512,0.6089313,0
1.2550356,-0.67195737,0.90630645,0.78340483,0.61687386,-0.075788856,0
0.80150282,-0.9386183,2.8498354,-0.33065224,0.51692414,0.78959405,0
-2.088758,2.6824255,-2.1492174,-0.52625692,0.593512,-0.6089313,0
-1.461913,0.77396214,-3.0185947,0.33065224,-0.51692414,-0.78959405,0
0.38610482,0.25051093,1.8973947,-0.33065224,0.51692414,0.78959405,0
-2.477658,3.2390313,-1.2706065,-0.52625692,0.593512,-0.6089313,0
1.3667738,-1.3898084,-0.41749084,0.33065224,-0.51692414,-0.78959405,0
-0.17902207,0.39176485,1.5682662,-0.33065224,0.51692414,0.78959405,0
0.79378265,-0.29790062,-0.81692982,0.78340483,0.61687386,-0.075788856,0
-2.0107112,1.445096,-2.4246156,-0.78340483,-0.61687386,0.075788856,0
-0.013680816,0.66817778,1.4565455,-0.33065224,0.51692414,0.78959405,0
-1.7472186,2.3165267,-2.801019,-0.52625692,0.593512,-0.6089313,0
2.2290232,-1.9143692,0.86164248,0.78340483,0.61687386,-0.075788856,0
1.1859831,-0.39548659,2.4428327,0.78340483,0.61687386,-0.075788856,0
-2.3067122,1.805217,-2.8158503,-0.52625692,0.593512,-0.6089313,0
2.5842702,-2.2449002,1.8434047,0.78340483,0.61687386,-0.075788856,0
-1.6874397,1.2254884,-0.87053084,-0.78340483,-0.61687386,0.075788856,0
-2.0161667,1.7761041,-3.095324,-0.52625692,0.593512,-0.6089313,0
2.1258059,-2.6803534,0.74524474,0.33065224,-0.51692414,-0.78959405,0
2.5315206,-2.5396678,1.9057107,0.52625692,-0.593512,0.6089313,0
-2.1274543,2.5254855,-2.2687407,-0.52625692,0.593512,-0.6089313,0
1.5571755,-0.97942448,1.5268383,0.78340483,0.61687386,-0.075788856,0
1.4536246,-1.2578862,3.3319347,-0.33065224,0.51692414,0.78959405,0
1.7657464,-2.5556836,2.5519061,0.52625692,-0.593512,0.6089313,0
-0.95676887,0.41245714,-2.5703928,0.33065224,-0.51692414,-0.78959405,0
-2.3375239,2.6926818,-1.9242293,-0.52625692,0.593512,-0.6089313,0
-2.336844,3.3029871,-1.3299661,-0.52625692,0.593512,-0.6089313,0
-2.4275119,3.0514193,-1.4968057,-0.52625692,0.593512,-0.6089313,0
1.8506613,-2.8060241,2.234519,0.52625692,-0.593512,0.6089313,0
-0.55043828,0.53372765,-2.479629,0.33065224,-0.51692414,-0.78959405,0
0.90148067,-1.7654128,1.5462373,-0.78340483,-0.61687386,0.075788856,0
-1.6587121,1.9167427,-3.2671697,-0.52625692,0.593512,-0.6089313,0
2.3678074,-3.262105,1.3430536,0.52625692,-0.593512,0.6089313,0
-2.2048867,2.9061823,-1.8307648,-0.52625692,0.593512,-0.6089313,0
2.6330059,-2.4556651,1.8998799,0.52625692,-0.593512,0.6089313,0
0.6295132,-1.3341836,2.2449346,-0.78340483,-0.61687386,0.075788856,0
1.0452924,-2.0270116,0.90352046,-0.78340483,-0.61687386,0.075788856,0
1.4753344,-1.7345486,3.6032305,0.52625692,-0.593512,0.6089313,0
-2.0765727,1.5700195,-2.0886059,-0.78340483,-0.61687386,0.075788856,0
0.094643712,0.7764892,0.70115989,0.78340483,0.61687386,-0.075788856,0
-1.585448,2.4924734,-2.6983676,0.78340483,0.61687386,-0.075788856,0
-1.8683003,2.4477377,-0.48512435,-0.33065224,0.51692414,0.78959405,0
-0.65090537,1.3681332,-2.1897314,0.78340483,0.61687386,-0.075788856,0
2.0121641,-3.2174313,1.0492651,0.33065224,-0.51692414,-0.78959405,0
-2.029799,2.7396045,-2.1444402,-0.52625692,0.593512,-0.6089313,0
-1.7219439,2.6421318,-2.5055022,-0.52625692,0.593512,-0.6089313,0
-1.5842304,1.1938438,-0.061257482,-0.78340483,-0.61687386,0.075788856,0
-0.43047944,1.2076781,-1.2172613,0.78340483,0.61687386,-0.075788856,0
0.57960552,-0.30571616,2.342571,-0.33065224,0.51692414,0.78959405,0
0.74892098,-0.16379184,-0.18908897,0.78340483,0.61687386,-0.075788856,0
2.3509474,-2.8709011,0.96427131,0.33065224,-0.51692414,-0.78959405,0
-1.0729401,1.4663731,0.49041253,-0.33065224,0.51692414,0.78959405,0
0.45595998,0.37137547,1.1385965,0.78340483,0.61687386,-0.075788856,0
0.30654562,0.58283406,1.315289,0.78340483,0.61687386,-0.075788856,0
-1.6861835,2.2562566,-2.9125113,-0.52625692,0.593512,-0.6089313,0
-2.5540018,2.7186632,-1.7118194,-0.52625692,0.593512,-0.6089313,0
-1.7558346,1.7209494,-3.374069,-0.52625692,0.593512,-0.6089313,0
2.7737727,-2.5108964,1.6371846,0.78340483,0.61687386,-0.075788856,0
-1.2626302,0.93427986,0.7593233,-0.33065224,0.51692414,0.78959405,0
1.579746,-2.0038433,3.2505198,0.52625692,-0.593512,0.6089313,0
-1.6132699,2.0707965,-3.1562893,-0.52625692,0.593512,-0.6089313,0
1.3633361,-1.8692077,-0.1050818,0.33065224,-0.51692414,-0.78959405,0
0.92194021,-0.45858198,-0.80005199,0.78340483,0.61687386,-0.075788856,0
-2.3900816,2.9180398,-1.6591563,-0.52625692,0.593512,-0.6089313,0
1.9043293,-2.5292413,2.457911,0.52625692,-0.593512,0.6089313,0
-0.075447381,-0.70376253,0.089217305,-0.78340483,-0.61687386,0.075788856,0
2.1324883,-2.7043576,2.0900471,0.52625692,-0.593512,0.6089313,0
0.98641706,-1.8237202,1.9496145,-0.78340483,-0.61687386,0.075788856,0
2.1359282,-2.0558207,0.34062064,0.33065224,-0.51692414,-0.78959405,0
1.1534054,-0.59798634,0.45786512,0.78340483,0.61687386,-0.075788856,0
-2.0956297,1.6982472,-3.1025352,-0.52625692,0.593512,-0.6089313,0
-1.1293106,0.7923916,0.90804255,-0.33065224,0.51692414,0.78959405,0
-1.7239153,1.6956625,-3.4263012,-0.52625692,0.593512,-0.6089313,0
-0.2562753,-0.35484692,-1.7747213,0.33065224,-0.51692414,-0.78959405,0
-1.9697304,1.4708227,-3.4330065,-0.52625692,0.593512,-0.6089313,0
-1.3488183,0.7957058,-0.86847413,-0.78340483,-0.61687386,0.075788856,0
0.8760978,-1.5663011,-0.50742275,0.33065224,-0.51692414,-0.78959405,0
-1.6394718,2.0892596,-0.15461481,-0.33065224,0.51692414,0.78959405,0
