2.5349472,-2.5796056,-1.7854092,-0.46538931,-0.039156318,-0.88423961,0
0.93542385,-2.9743476,-0.72957635,-0.4213469,-0.86876112,0.26023242,0
2.6463258,-3.3243437,-0.77093887,0.77838266,-0.49368101,-0.38781381,0
3.3712726,-1.8972604,-1.1325498,0.77838266,-0.49368101,-0.38781381,0
1.9835075,0.89191145,-1.4963443,0.4213469,0.86876112,-0.26023242,0
2.4474447,-3.659004,-0.56709623,-0.4213469,-0.86876112,0.26023242,0
-3.0721817,1.9875207,1.6179569,-0.77838266,0.49368101,0.38781381,0
1.6204102,0.30956838,-0.30109835,0.46538931,0.039156318,0.88423961,0
-1.2705858,2.1374331,1.1395364,0.46538931,0.039156318,0.88423961,0
-3.1087208,1.7405307,1.8590336,-0.77838266,0.49368101,0.38781381,0
3.4079132,0.11091107,-1.7973595,0.4213469,0.86876112,-0.26023242,0
2.3104784,-3.4113448,-1.3342686,0.77838266,-0.49368101,-0.38781381,0
0.69053257,-0.31904632,-0.91476762,-0.46538931,-0.039156318,-0.88423961,0
-3.4527462,0.92047513,2.2124572,-0.77838266,0.49368101,0.38781381,0
3.0961738,-2.1280024,-0.96987486,0.46538931,0.039156318,0.88423961,0
4.0789032,-0.19756639,-1.5725851,0.46538931,0.039156318,0.88423961,0
3.6772749,-0.82846737,-1.8789291,0.77838266,-0.49368101,-0.38781381,0
-3.6970587,0.97864741,1.6480436,-0.77838266,0.49368101,0.38781381,0
2.4219897,-2.4154193,-1.7332287,-0.46538931,-0.039156318,-0.88423961,0
-0.67803049,-1.8986337,0.24921899,-0.4213469,-0.86876112,0.26023242,0
-2.3545158,3.3609393,0.52493095,-0.46538931,-0.039156318,-0.88423961,0
1.985781,-3.5071373,-0.80759263,-0.4213469,-0.86876112,0.26023242,0
-1.6058862,-1.2910089,0.7754091,-0.4213469,-0.86876112,0.26023242,0
-1.2412935,2.9330437,0.096449852,0.4213469,0.86876112,-0.26023242,0
2.0173004,0.14550531,-1.6336381,-0.46538931,-0.039156318,-0.88423961,0
2.7414801,0.65620959,-1.0559664,0.4213469,0.86876112,-0.26023242,0
3.5689244,-0.62362134,-2.3571658,0.77838266,-0.49368101,-0.38781381,0
2.2859745,0.82166731,-1.241118,0.4213469,0.86876112,-0.26023242,0
-3.1456363,1.8059938,1.7016072,-0.77838266,0.49368101,0.38781381,0
-3.7280629,-0.0036085248,1.6372185,-0.4213469,-0.86876112,0.26023242,0
-1.4720633,3.2859144,0.90083003,0.4213469,0.86876112,-0.26023242,0
2.8530722,-2.4771485,-1.4344437,0.77838266,-0.49368101,-0.38781381,0
-1.4616768,3.1099267,0.33012938,0.4213469,0.86876112,-0.26023242,0
-2.7441308,1.8158661,1.9293261,0.46538931,0.039156318,0.88423961,0
-2.8018155,-0.45762599,1.621228,-0.4213469,-0.86876112,0.26023242,0
3.647265,-1.0498371,-1.6573615,0.77838266,-0.49368101,-0.38781381,0
0.51626921,2.0886505,0.12322287,0.4213469,0.86876112,-0.26023242,0
3.4917161,0.09602809,-1.7113578,0.4213469,0.86876112,-0.26023242,0
0.15106776,0.41232908,0.46768937,0.46538931,0.039156318,0.88423961,0
-2.888108,2.2131219,1.7002254,-0.77838266,0.49368101,0.38781381,0
0.70469964,1.6637354,-0.99022406,0.4213469,0.86876112,-0.26023242,0
-3.0704687,1.7487832,1.9253054,-0.77838266,0.49368101,0.38781381,0
-2.6437972,3.3340771,0.76362395,-0.77838266,0.49368101,0.38781381,0
0.72003984,1.9741058,0.070755117,0.4213469,0.86876112,-0.26023242,0
-2.6611197,3.2141306,0.88154531,-0.77838266,0.49368101,0.38781381,0
-3.3028126,-0.01695323,2.2812002,-0.4213469,-0.86876112,0.26023242,0
-1.4942582,3.1598296,0.44397163,0.4213469,0.86876112,-0.26023242,0
0.73504233,0.67627513,0.14864615,0.46538931,0.039156318,0.88423961,0
3.5720732,-0.034846425,-2.0181637,0.4213469,0.86876112,-0.26023242,0
-1.5096078,-1.2644699,1.0198932,-0.4213469,-0.86876112,0.26023242,0
-2.435329,3.2480917,1.2914996,-0.77838266,0.49368101,0.38781381,0
3.7580402,0.045531034,-1.4487267,0.4213469,0.86876112,-0.26023242,0
-3.0529127,1.9369054,0.95556808,-0.46538931,-0.039156318,-0.88423961,0
-3.3578176,0.0095436573,2.2805955,-0.4213469,-0.86876112,0.26023242,0
-1.8871999,0.65616834,1.5296643,0.46538931,0.039156318,0.88423961,0
-2.5449777,-0.63877785,1.4323215,-0.4213469,-0.86876112,0.26023242,0
2.8605835,-2.1267474,-1.8654232,0.77838266,-0.49368101,-0.38781381,0
-1.4259082,2.7778511,0.062010527,-0.46538931,-0.039156318,-0.88423961,0
2.7847652,0.51268017,-1.4650416,0.4213469,0.86876112,-0.26023242,0
3.4831557,-1.5250211,-1.381844,0.77838266,-0.49368101,-0.38781381,0
-3.0580242,1.9011028,1.756381,-0.77838266,0.49368101,0.38781381,0
-0.095164299,2.4371731,0.29674971,0.4213469,0.86876112,-0.26023242,0
-2.4179697,3.6749065,0.78301215,-0.77838266,0.49368101,0.38781381,0
2.5311074,-2.8674881,-1.583765,0.77838266,-0.49368101,-0.38781381,0
-3.8567519,0.43360519,2.0213528,-0.77838266,0.49368101,0.38781381,0
-4.1025796,0.33439517,1.6542449,-0.77838266,0.49368101,0.38781381,0
0.87741685,1.8626657,-0.046464562,0.4213469,0.86876112,-0.26023242,0
0.73256445,0.65418816,0.15092835,0.46538931,0.039156318,0.88423961,0
4.1135373,-0.37032372,-1.5865145,0.77838266,-0.49368101,-0.38781381,0
-0.94343489,-0.34678,1.0773588,0.46538931,0.039156318,0.88423961,0
2.1771677,-2.7012584,-0.46080184,0.46538931,0.039156318,0.88423961,0
-1.956412,2.434226,1.4873552,0.46538931,0.039156318,0.88423961,0
-3.1845274,1.4554009,2.0698481,-0.77838266,0.49368101,0.38781381,0
3.2090688,0.38010892,-1.2206204,0.4213469,0.86876112,-0.26023242,0
1.498332,-1.3450224,-1.2944925,-0.46538931,-0.039156318,-0.88423961,0
2.5787716,0.72639287,-1.0851099,0.4213469,0.86876112,-0.26023242,0
1.3108728,-2.9810793,-0.14415431,-0.4213469,-0.86876112,0.26023242,0
-2.9412355,0.038679481,2.111764,0.46538931,0.039156318,0.88423961,0
-3.6772842,0.49293303,2.3060408,-0.77838266,0.49368101,0.38781381,0
1.8528965,-2.3973036,-1.4345078,-0.46538931,-0.039156318,-0.88423961,0
2.1540558,0.8407504,-1.3910036,0.4213469,0.86876112,-0.26023242,0
2.0557439,-3.7271662,-1.4288597,-0.4213469,-0.86876112,0.26023242,0
0.094817877,-2.3444057,0.012383819,-0.4213469,-0.86876112,0.26023242,0
0.4731766,-2.329386,-0.71134698,-0.46538931,-0.039156318,-0.88423961,0
-0.38450098,2.6436925,0.51772463,0.4213469,0.86876112,-0.26023242,0
2.5784612,-3.0731146,-1.2269607,0.77838266,-0.49368101,-0.38781381,0
1.7350061,1.1890138,-0.90684986,0.4213469,0.86876112,-0.26023242,0
1.3053089,1.4266012,-0.80941725,0.4213469,0.86876112,-0.26023242,0
1.0444772,1.7163627,-0.26439267,0.4213469,0.86876112,-0.26023242,0
-1.907141,-0.03900075,1.5709431,0.46538931,0.039156318,0.88423961,0
2.3716037,-3.103843,-1.6030288,0.77838266,-0.49368101,-0.38781381,0
1.4663771,-3.2786989,-0.88594937,-0.4213469,-0.86876112,0.26023242,0
-1.08263,-0.50737858,0.026815653,-0.46538931,-0.039156318,-0.88423961,0
2.655549,-3.0713758,-1.0744503,0.77838266,-0.49368101,-0.38781381,0
-3.5241432,1.0840119,1.8609762,-0.77838266,0.49368101,0.38781381,0
-0.59553576,2.6537805,0.2097131,0.4213469,0.86876112,-0.26023242,0
0.77297688,-2.4925857,0.2690053,0.46538931,0.039156318,0.88423961,0
-1.3136945,1.6403742,0.053320885,-0.46538931,-0.039156318,-0.88423961,0
-0.42751366,-0.48309407,0.81185734,0.46538931,0.039156318,0.88423961,0
-2.2288766,-0.78244114,1.4645195,-0.4213469,-0.86876112,0.26023242,0
-3.2512844,0.80037391,1.1103024,-0.46538931,-0.039156318,-0.88423961,0
2.2379935,-3.4948401,-1.3734651,0.77838266,-0.49368101,-0.38781381,0
1.2392995,1.6109151,-0.30097973,0.4213469,0.86876112,-0.26023242,0
-1.9422228,-1.0799048,0.50458574,-0.46538931,-0.039156318,-0.88423961,0
-1.6049618,3.275919,0.65228319,0.4213469,0.86876112,-0.26023242,0
1.5051166,1.3554476,-0.72344398,0.4213469,0.86876112,-0.26023242,0
-0.48340583,-2.044198,0.078386515,-0.4213469,-0.86876112,0.26023242,0
1.3000387,-3.1716323,-0.79783916,-0.4213469,-0.86876112,0.26023242,0
0.98003632,0.49166241,0.027876973,0.46538931,0.039156318,0.88423961,0
-3.0468216,2.4220905,1.1156569,-0.77838266,0.49368101,0.38781381,0
-0.059991896,-0.9644649,-0.49117419,-0.46538931,-0.039156318,-0.88423961,0
-3.852808,0.46096039,1.9944458,-0.77838266,0.49368101,0.38781381,0
1.341194,0.91304213,-1.3117812,-0.46538931,-0.039156318,-0.88423961,0
0.68096179,-0.89791763,0.24681866,0.46538931,0.039156318,0.88423961,0
-2.4664783,1.2241113,0.67848253,-0.46538931,-0.039156318,-0.88423961,0
0.89672792,1.5732226,-0.98147595,0.4213469,0.86876112,-0.26023242,0
-2.257128,-0.84307319,1.216362,-0.4213469,-0.86876112,0.26023242,0
2.7565105,-3.1390493,-0.74633312,0.46538931,0.039156318,0.88423961,0
-1.4503567,0.9972828,0.15372598,-0.46538931,-0.039156318,-0.88423961,0
0.13795471,-2.3589399,0.033707619,-0.4213469,-0.86876112,0.26023242,0
-1.745675,-0.47300953,0.3742646,-0.46538931,-0.039156318,-0.88423961,0
-2.5107481,3.0120311,1.4406261,-0.77838266,0.49368101,0.38781381,0
-0.53343511,0.9287951,0.80508363,0.46538931,0.039156318,0.88423961,0
3.4825625,-0.76181364,-2.3545861,0.77838266,-0.49368101,-0.38781381,0
3.5428207,-1.062722,-1.8505902,0.77838266,-0.49368101,-0.38781381,0
-0.63991952,0.51548952,-0.25148493,-0.46538931,-0.039156318,-0.88423961,0
3.3257248,-0.75532424,-1.1514766,0.46538931,0.039156318,0.88423961,0
1.2496872,-1.4771292,-1.1577768,-0.46538931,-0.039156318,-0.88423961,0
2.6566145,-3.1790981,-0.93518329,0.77838266,-0.49368101,-0.38781381,0
-3.4646175,1.4472523,1.5180507,-0.77838266,0.49368101,0.38781381,0
-2.7635078,2.718857,1.3065174,-0.77838266,0.49368101,0.38781381,0
2.2652059,0.83554804,-1.2284055,0.4213469,0.86876112,-0.26023242,0
-1.3005044,3.1889567,0.85492015,0.4213469,0.86876112,-0.26023242,0
-3.1585789,1.6799583,1.836071,-0.77838266,0.49368101,0.38781381,0
3.0042963,-2.1834855,-1.5047495,0.77838266,-0.49368101,-0.38781381,0
2.5906854,-2.6321545,-1.7637613,0.77838266,-0.49368101,-0.38781381,0
-0.97994089,2.945013,0.55956805,0.4213469,0.86876112,-0.26023242,0
-2.8890467,2.722585,1.0498023,-0.77838266,0.49368101,0.38781381,0
1.2408845,0.34198552,-1.2336987,-0.46538931,-0.039156318,-0.88423961,0
-2.0043654,-0.98004615,1.1683438,-0.4213469,-0.86876112,0.26023242,0
1.5149254,1.3717506,-0.65313697,0.4213469,0.86876112,-0.26023242,0
-3.391712,-0.13443482,1.745059,-0.4213469,-0.86876112,0.26023242,0
-0.58876824,2.2998967,-0.35742456,-0.46538931,-0.039156318,-0.88423961,0
1.6352282,-2.9745092,-1.2943859,-0.46538931,-0.039156318,-0.88423961,0
2.7403648,-2.7760971,-1.2801023,0.77838266,-0.49368101,-0.38781381,0
-2.8409996,-0.33692646,1.9607277,-0.4213469,-0.86876112,0.26023242,0
2.4578612,-3.3309851,-1.1407526,0.77838266,-0.49368101,-0.38781381,0
1.3123951,-1.4770391,-1.1907852,-0.46538931,-0.039156318,-0.88423961,0
2.4081879,-3.6618524,-0.64016795,-0.4213469,-0.86876112,0.26023242,0
-1.1566004,-0.73938453,0.076021194,-0.46538931,-0.039156318,-0.88423961,0
-2.7224712,3.0094781,1.0189261,-0.77838266,0.49368101,0.38781381,0
3.8254709,-0.70112169,-1.7435937,0.77838266,-0.49368101,-0.38781381,0
-0.36752939,2.4045591,-0.25312001,0.4213469,0.86876112,-0.26023242,0
3.0750763,-2.3138452,-1.1967409,0.77838266,-0.49368101,-0.38781381,0
2.5988326,-2.6229744,-1.7590954,0.77838266,-0.49368101,-0.38781381,0
3.6934328,-1.1929451,-1.382524,0.77838266,-0.49368101,-0.38781381,0
1.7450299,-3.4909852,-1.1434755,-0.4213469,-0.86876112,0.26023242,0
-3.2815399,1.6704056,1.6014357,-0.77838266,0.49368101,0.38781381,0
1.1975609,0.67241406,-1.225529,-0.46538931,-0.039156318,-0.88423961,0
0.41691995,2.0515149,-0.16160838,0.4213469,0.86876112,-0.26023242,0
2.3866239,-3.3619208,-1.2443523,0.77838266,-0.49368101,-0.38781381,0
3.8003075,-0.32202947,-2.2766781,0.77838266,-0.49368101,-0.38781381,0
-2.7003868,2.8797948,1.2283363,-0.77838266,0.49368101,0.38781381,0
-1.4109654,3.0751436,0.29611564,0.4213469,0.86876112,-0.26023242,0
2.8302236,-0.33424747,-0.90933251,0.46538931,0.039156318,0.88423961,0
-1.9599382,2.7958028,0.34228396,-0.46538931,-0.039156318,-0.88423961,0
3.1503489,-0.6975807,-2.1926458,-0.46538931,-0.039156318,-0.88423961,0
2.7096486,-2.7679715,-1.3520966,0.77838266,-0.49368101,-0.38781381,0
-2.4526386,3.5131946,0.91928506,-0.77838266,0.49368101,0.38781381,0
-2.2973566,2.1977406,1.6772716,0.46538931,0.039156318,0.88423961,0
3.5379987,-0.67856455,-2.3492951,0.77838266,-0.49368101,-0.38781381,0
-3.5354691,1.5455083,1.2507663,-0.77838266,0.49368101,0.38781381,0
3.4079287,-1.6274775,-1.4024067,0.77838266,-0.49368101,-0.38781381,0
3.8998175,-0.20694768,-2.0620499,0.4213469,0.86876112,-0.26023242,0
-2.1744463,-0.032648206,1.7113488,0.46538931,0.039156318,0.88423961,0
-2.405524,3.2771358,1.3143482,-0.77838266,0.49368101,0.38781381,0
-0.78538871,-1.7595271,0.53978765,-0.4213469,-0.86876112,0.26023242,0
-0.92103565,2.7800155,0.1041131,0.4213469,0.86876112,-0.26023242,0
-1.6214424,0.66094041,0.2586652,-0.46538931,-0.039156318,-0.88423961,0
-4.023284,0.24868453,1.9225063,-0.77838266,0.49368101,0.38781381,0
-3.8652544,0.6866793,1.6821289,-0.77838266,0.49368101,0.38781381,0
0.30119491,2.1273422,-0.095838666,0.4213469,0.86876112,-0.26023242,0
1.0101124,-2.9501605,-0.52790058,-0.4213469,-0.86876112,0.26023242,0
-0.73977816,0.99543667,0.9107343,0.46538931,0.039156318,0.88423961,0
-2.7717185,2.3756852,1.7268908,-0.77838266,0.49368101,0.38781381,0
-0.27946115,2.5509465,0.37817264,0.4213469,0.86876112,-0.26023242,0
0.91526389,-2.7265813,0.064925313,-0.4213469,-0.86876112,0.26023242,0
-0.72598851,-1.6466804,1.0126917,-0.4213469,-0.86876112,0.26023242,0
-2.6067209,2.1235938,1.8433783,0.46538931,0.039156318,0.88423961,0
-2.8365827,1.735904,1.9815261,0.46538931,0.039156318,0.88423961,0
1.801469,-2.3440852,-1.4097977,-0.46538931,-0.039156318,-0.88423961,0
2.6200802,-3.2226727,-0.95304203,0.77838266,-0.49368101,-0.38781381,0
1.1888927,-3.1848795,-1.022022,-0.4213469,-0.86876112,0.26023242,0
-0.41996503,2.6031821,0.32506514,0.4213469,0.86876112,-0.26023242,0
0.16245723,-2.4182286,-0.12455058,-0.4213469,-0.86876112,0.26023242,0
2.6250207,-0.28635156,-1.9343674,-0.46538931,-0.039156318,-0.88423961,0
-2.5317602,3.6254909,0.6175282,-0.77838266,0.49368101,0.38781381,0
-3.1511459,2.3547359,0.99200845,-0.77838266,0.49368101,0.38781381,0
2.3294609,-3.6554136,-0.98547196,0.77838266,-0.49368101,-0.38781381,0
2.1350119,-3.2149343,-1.546783,-0.46538931,-0.039156318,-0.88423961,0
3.1449413,-1.7178311,-1.8152318,0.77838266,-0.49368101,-0.38781381,0
-0.52322078,-2.0268266,0.071914718,-0.4213469,-0.86876112,0.26023242,0
3.0964296,-1.9678266,-1.5943596,0.77838266,-0.49368101,-0.38781381,0
1.5618221,-3.1093237,-0.16596937,-0.4213469,-0.86876112,0.26023242,0
-1.1503799,-1.6788623,0.21811545,-0.4213469,-0.86876112,0.26023242,0
-3.9287167,0.42363858,1.8896003,-0.77838266,0.49368101,0.38781381,0
3.4124856,-1.2107062,-1.9238043,0.77838266,-0.49368101,-0.38781381,0
-2.3722789,2.2803268,1.713047,0.46538931,0.039156318,0.88423961,0
-3.6290426,0.47907424,2.4205084,-0.77838266,0.49368101,0.38781381,0
-3.3536086,1.8502524,1.2278442,-0.77838266,0.49368101,0.38781381,0
-1.7603816,-1.0377049,1.3708946,-0.4213469,-0.86876112,0.26023242,0
3.0495729,-2.4880404,-1.026181,0.77838266,-0.49368101,-0.38781381,0
1.4034492,1.413088,-0.69562924,0.4213469,0.86876112,-0.26023242,0
3.860059,-0.32068491,-2.1584611,0.77838266,-0.49368101,-0.38781381,0
-3.8390172,0.50921357,1.9607005,-0.77838266,0.49368101,0.38781381,0
3.1387916,-1.9431354,-1.5407653,0.77838266,-0.49368101,-0.38781381,0
0.64080143,-2.5175924,-0.79123664,-0.46538931,-0.039156318,-0.88423961,0
-1.4426761,3.2355611,0.78031206,0.4213469,0.86876112,-0.26023242,0
-3.377593,1.0232847,2.2324224,-0.77838266,0.49368101,0.38781381,0
1.3356071,1.3803527,-0.91475725,0.4213469,0.86876112,-0.26023242,0
0.64645457,-2.6715717,-0.18666291,-0.4213469,-0.86876112,0.26023242,0
3.9856718,-0.27847207,-1.9600801,0.77838266,-0.49368101,-0.38781381,0
2.2361352,0.10440755,-1.7469943,-0.46538931,-0.039156318,-0.88423961,0
2.6911478,0.46856689,-1.7638867,0.4213469,0.86876112,-0.26023242,0
1.5948535,-0.2771678,-1.3925805,-0.46538931,-0.039156318,-0.88423961,0
-2.4228702,-0.66690505,1.5361278,-0.4213469,-0.86876112,0.26023242,0
-1.4823407,3.0683565,0.15789342,0.4213469,0.86876112,-0.26023242,0
0.31451112,0.88205248,-0.77004921,-0.46538931,-0.039156318,-0.88423961,0
-1.6369752,0.57246691,0.27075815,-0.46538931,-0.039156318,-0.88423961,0
3.289432,0.039912581,-2.2262163,0.4213469,0.86876112,-0.26023242,0
-2.5739357,2.9900289,1.3418109,-0.77838266,0.49368101,0.38781381,0
0.12289619,2.0909874,-0.50589287,0.4213469,0.86876112,-0.26023242,0
-3.1184113,1.9973977,1.5125966,-0.77838266,0.49368101,0.38781381,0
-3.471669,1.0747454,1.9780931,-0.77838266,0.49368101,0.38781381,0
0.29364336,-1.0512261,-0.67345595,-0.46538931,-0.039156318,-0.88423961,0
1.9777167,-3.3856375,-0.41503453,-0.4213469,-0.86876112,0.26023242,0
1.6088674,-3.0455434,-0.14645076,0.46538931,0.039156318,0.88423961,0
-3.1071727,1.1590141,1.0185726,-0.46538931,-0.039156318,-0.88423961,0
1.765679,1.1777536,-0.89477777,0.4213469,0.86876112,-0.26023242,0
1.4424073,1.4364958,-0.5544064,0.4213469,0.86876112,-0.26023242,0
1.2359866,-1.8197002,-1.1353962,-0.46538931,-0.039156318,-0.88423961,0
-3.7588639,0.73235863,1.8375163,-0.77838266,0.49368101,0.38781381,0
3.4550128,-1.6489897,-1.2805195,0.77838266,-0.49368101,-0.38781381,0
2.5105076,-2.8960342,-1.5887718,0.77838266,-0.49368101,-0.38781381,0
0.6641711,1.7070234,-0.91133201,0.4213469,0.86876112,-0.26023242,0
-0.48576021,-2.0770397,-0.03506466,-0.4213469,-0.86876112,0.26023242,0
1.0255157,1.4618104,-1.1448925,0.4213469,0.86876112,-0.26023242,0
-0.87817371,2.903827,0.58684468,0.4213469,0.86876112,-0.26023242,0
0.16030836,-2.2358575,0.48079956,-0.4213469,-0.86876112,0.26023242,0
3.4500945,-0.91908455,-2.2195497,0.77838266,-0.49368101,-0.38781381,0
-0.1891439,-2.0588536,0.50590527,-0.4213469,-0.86876112,0.26023242,0
-0.84746253,-0.28913128,-0.10662121,-0.46538931,-0.039156318,-0.88423961,0
2.9897389,-1.9064853,-1.886585,0.77838266,-0.49368101,-0.38781381,0
-0.1098361,-1.657196,-0.43426457,-0.46538931,-0.039156318,-0.88423961,0
-0.026138693,-0.30767679,-0.53807575,-0.46538931,-0.039156318,-0.88423961,0
2.5757084,-3.1932359,-1.0795741,0.77838266,-0.49368101,-0.38781381,0
-2.358285,3.4019647,1.2502568,-0.77838266,0.49368101,0.38781381,0
0.14541149,-2.2576854,0.38380837,-0.4213469,-0.86876112,0.26023242,0
-2.9619904,2.4921231,1.1967709,-0.77838266,0.49368101,0.38781381,0
3.4964678,-0.80368459,-2.273376,0.77838266,-0.49368101,-0.38781381,0
-2.1140895,1.2959766,1.6207476,0.46538931,0.039156318,0.88423961,0
2.6076922,-2.7591612,-1.5679495,0.77838266,-0.49368101,-0.38781381,0
-1.2691087,0.9978357,1.1892231,0.46538931,0.039156318,0.88423961,0
3.5437791,-1.4552813,-1.3489442,0.77838266,-0.49368101,-0.38781381,0
-2.4442818,3.4789817,0.97961092,-0.77838266,0.49368101,0.38781381,0
0.86489224,1.7971138,-0.28558266,0.4213469,0.86876112,-0.26023242,0
0.96697307,1.1448548,-1.1250879,-0.46538931,-0.039156318,-0.88423961,0
1.9520011,-0.78923106,-0.42696261,0.46538931,0.039156318,0.88423961,0
-1.369166,3.3053088,1.1321793,0.4213469,0.86876112,-0.26023242,0
-0.72648764,1.9658837,0.86076546,0.46538931,0.039156318,0.88423961,0
3.3093209,-1.2830026,-2.0388341,0.77838266,-0.49368101,-0.38781381,0
2.2991302,-3.6212325,-1.0898619,0.77838266,-0.49368101,-0.38781381,0
-3.5796132,0.13542855,2.3417377,-0.4213469,-0.86876112,0.26023242,0
0.33141994,2.2095811,0.22764531,0.4213469,0.86876112,-0.26023242,0
0.46971846,1.9277489,-0.48930207,0.4213469,0.86876112,-0.26023242,0
0.46837497,-2.6565561,-0.42486739,-0.4213469,-0.86876112,0.26023242,0
2.0699697,-0.41587365,-1.6364994,-0.46538931,-0.039156318,-0.88423961,0
3.8582907,-0.67437071,-1.7117753,0.77838266,-0.49368101,-0.38781381,0
-1.5304568,0.56340319,1.3460124,0.46538931,0.039156318,0.88423961,0
-1.2741864,-1.5798017,0.34836298,-0.4213469,-0.86876112,0.26023242,0
2.1834936,-3.6585085,-1.2745047,0.77838266,-0.49368101,-0.38781381,0
-2.8019023,2.8266139,1.092283,-0.77838266,0.49368101,0.38781381,0
1.225143,-2.9834316,-0.29081273,-0.4213469,-0.86876112,0.26023242,0
2.3802991,-1.8541681,-0.60522437,0.46538931,0.039156318,0.88423961,0
1.1519418,1.7012135,-0.14096922,0.4213469,0.86876112,-0.26023242,0
3.9487526,-0.45909268,-1.8042536,0.77838266,-0.49368101,-0.38781381,0
1.0553837,1.5698888,-0.73572397,0.4213469,0.86876112,-0.26023242,0
0.12033987,-2.4176679,-0.19087094,-0.4213469,-0.86876112,0.26023242,0
3.0796409,-2.2318375,-1.2919741,0.77838266,-0.49368101,-0.38781381,0
-3.088027,-0.33117986,1.579946,-0.4213469,-0.86876112,0.26023242,0
-1.6298689,3.206727,0.38096571,0.4213469,0.86876112,-0.26023242,0
-1.7702693,-1.2669233,0.58966053,-0.4213469,-0.86876112,0.26023242,0
0.99050033,-0.53886616,-1.0629114,-0.46538931,-0.039156318,-0.88423961,0
3.9428923,-0.45452404,-1.8218312,0.77838266,-0.49368101,-0.38781381,0
-0.65743268,2.1990309,-0.31681889,-0.46538931,-0.039156318,-0.88423961,0
-3.1052699,1.8832123,1.6843286,-0.77838266,0.49368101,0.38781381,0
2.5288048,-2.7385612,-1.7525089,0.77838266,-0.49368101,-0.38781381,0
0.2278502,-2.4858868,-0.24454176,-0.4213469,-0.86876112,0.26023242,0
-2.5212302,-0.82173133,0.85999846,-0.4213469,-0.86876112,0.26023242,0
1.1606466,-2.9859571,-0.40367174,-0.4213469,-0.86876112,0.26023242,0
0.67406589,-0.044676423,-0.91825086,-0.46538931,-0.039156318,-0.88423961,0
0.25970399,1.5845153,-0.77231014,-0.46538931,-0.039156318,-0.88423961,0
2.7678578,-1.6110909,-0.81996655,0.46538931,0.039156318,0.88423961,0
-3.7537713,1.0903007,1.3920827,-0.77838266,0.49368101,0.38781381,0
-3.6913209,0.49867678,1.3552604,-0.46538931,-0.039156318,-0.88423961,0
0.67762882,-0.2723797,0.22087252,0.46538931,0.039156318,0.88423961,0
3.3624773,-1.6580007,-1.4547768,0.77838266,-0.49368101,-0.38781381,0
2.2737813,-3.2515237,-1.6113727,0.77838266,-0.49368101,-0.38781381,0
2.1533074,-3.3914752,-0.41767955,0.46538931,0.039156318,0.88423961,0
-2.8856366,2.3274949,1.5595901,-0.77838266,0.49368101,0.38781381,0
-4.0070086,0.36417502,1.8081555,-0.77838266,0.49368101,0.38781381,0
2.0407338,-1.7923619,-0.42924261,0.46538931,0.039156318,0.88423961,0
-1.1479809,-0.056780577,1.1721724,0.46538931,0.039156318,0.88423961,0
-1.7252729,3.3816764,0.81054688,0.4213469,0.86876112,-0.26023242,0
3.6664433,-0.050676465,-1.9182134,0.4213469,0.86876112,-0.26023242,0
2.5521052,-3.1737258,-1.1517839,0.77838266,-0.49368101,-0.38781381,0
1.4002162,-3.1872537,-0.68779039,-0.4213469,-0.86876112,0.26023242,0
2.3576331,0.84452081,-1.0488002,0.4213469,0.86876112,-0.26023242,0
0.37624407,-2.5775898,-0.31041706,-0.4213469,-0.86876112,0.26023242,0
-1.9681176,2.0187359,1.5119145,0.46538931,0.039156318,0.88423961,0
2.7216513,-3.1773436,-0.80688214,0.77838266,-0.49368101,-0.38781381,0
-3.9689295,0.41133928,1.8245444,-0.77838266,0.49368101,0.38781381,0
-0.70119202,0.23713781,-0.20691019,-0.46538931,-0.039156318,-0.88423961,0
1.3325748,-3.1881385,-1.1256344,-0.46538931,-0.039156318,-0.88423961,0
0.086769581,2.2430012,-0.056902617,0.4213469,0.86876112,-0.26023242,0
-3.6730318,0.561849,2.2268462,-0.77838266,0.49368101,0.38781381,0
0.84207904,-2.8343227,-0.88314664,-0.46538931,-0.039156318,-0.88423961,0
-2.6149769,2.6315236,1.7158084,-0.77838266,0.49368101,0.38781381,0
-3.5140493,1.4223337,1.4505568,-0.77838266,0.49368101,0.38781381,0
-1.450079,3.0463471,0.13665366,0.4213469,0.86876112,-0.26023242,0
-3.9018836,0.1737802,1.9479775,-0.4213469,-0.86876112,0.26023242,0
-4.1550245,0.25312042,1.6524439,-0.77838266,0.49368101,0.38781381,0
0.055580258,1.052747,-0.64132857,-0.46538931,-0.039156318,-0.88423961,0
2.6439426,-2.9886374,-1.2030711,0.77838266,-0.49368101,-0.38781381,0
2.6447189,-1.2604923,-0.77068233,0.46538931,0.039156318,0.88423961,0
2.8092508,0.64049768,-0.99869037,0.4213469,0.86876112,-0.26023242,0
0.90531218,-2.7161822,0.083528996,-0.4213469,-0.86876112,0.26023242,0
-2.1334665,3.5971217,1.4530587,-0.77838266,0.49368101,0.38781381,0
0.45491028,-2.6250246,-0.34140301,-0.4213469,-0.86876112,0.26023242,0
1.9575596,0.93118489,-0.50607204,0.46538931,0.039156318,0.88423961,0
-2.4521675,-0.72841102,1.2833595,-0.4213469,-0.86876112,0.26023242,0
-2.2862651,3.43593,1.3515706,-0.77838266,0.49368101,0.38781381,0
0.65281892,1.9088546,-0.25591809,0.4213469,0.86876112,-0.26023242,0
-0.49720526,2.7410839,0.66037583,0.4213469,0.86876112,-0.26023242,0
2.8312628,-2.3767824,-1.6059821,0.77838266,-0.49368101,-0.38781381,0
0.66206515,-2.7118402,-0.29582071,-0.4213469,-0.86876112,0.26023242,0
1.2778057,-3.1573539,-0.78617001,-0.4213469,-0.86876112,0.26023242,0
1.5311669,-3.3060513,-0.87235951,-0.4213469,-0.86876112,0.26023242,0
1.276251,1.3792572,-1.0145191,0.4213469,0.86876112,-0.26023242,0
0.50143826,-0.97169417,-0.78634363,-0.46538931,-0.039156318,-0.88423961,0
-3.1833804,1.5378355,1.9672122,-0.77838266,0.49368101,0.38781381,0
-0.70252669,2.6618137,0.063300252,0.4213469,0.86876112,-0.26023242,0
1.4628005,1.2884518,-1.0156182,0.4213469,0.86876112,-0.26023242,0
1.9586186,1.1506381,-0.67290843,0.4213469,0.86876112,-0.26023242,0
-0.95094562,2.4334457,-0.17271864,-0.46538931,-0.039156318,-0.88423961,0
1.6604317,-2.4984145,-0.19781828,0.46538931,0.039156318,0.88423961,0
3.2059302,-1.7387042,-1.6662498,0.77838266,-0.49368101,-0.38781381,0
2.7976758,-2.8674195,-1.0488212,0.77838266,-0.49368101,-0.38781381,0
2.3490093,-3.6466022,-0.68507361,-0.4213469,-0.86876112,0.26023242,0
0.73324364,0.39624962,-0.96892226,-0.46538931,-0.039156318,-0.88423961,0
-1.1973002,2.6392221,-0.052170634,-0.46538931,-0.039156318,-0.88423961,0
-2.5694449,3.455441,0.75836158,-0.77838266,0.49368101,0.38781381,0
3.3839984,-1.3648286,-1.7847862,0.77838266,-0.49368101,-0.38781381,0
2.2738872,0.98481971,-0.71602011,0.4213469,0.86876112,-0.26023242,0
-4.0739307,0.22975922,1.8449454,-0.77838266,0.49368101,0.38781381,0
2.7963533,-2.5270414,-1.4847715,0.77838266,-0.49368101,-0.38781381,0
-1.8816462,3.3497891,1.4074609,0.46538931,0.039156318,0.88423961,0
2.8040202,0.55239677,-1.301276,0.4213469,0.86876112,-0.26023242,0
2.645905,-1.7596509,-1.8801181,-0.46538931,-0.039156318,-0.88423961,0
3.6997564,-1.0137478,-1.5979471,0.77838266,-0.49368101,-0.38781381,0
-1.8005599,0.43539223,0.36292529,-0.46538931,-0.039156318,-0.88423961,0
-0.64980763,1.6411611,-0.29612815,-0.46538931,-0.039156318,-0.88423961,0
2.142612,1.0698342,-0.64475715,0.4213469,0.86876112,-0.26023242,0
1.5718292,-0.74556684,-0.22880542,0.46538931,0.039156318,0.88423961,0
0.42150211,-2.567425,-0.20320368,-0.4213469,-0.86876112,0.26023242,0
-3.8139391,0.40815318,2.1396837,-0.77838266,0.49368101,0.38781381,0
3.7432923,-0.74138367,-1.8572822,0.77838266,-0.49368101,-0.38781381,0
1.1543841,-2.3321602,0.061160684,0.46538931,0.039156318,0.88423961,0
2.6142094,-3.2486985,-0.93169475,0.77838266,-0.49368101,-0.38781381,0
2.5635877,-3.1446025,-1.1658099,0.77838266,-0.49368101,-0.38781381,0
-2.6791849,1.993547,0.75636101,-0.46538931,-0.039156318,-0.88423961,0
3.7537923,-0.86410272,-1.6799879,0.77838266,-0.49368101,-0.38781381,0
-3.6244226,0.74042833,2.0970817,-0.77838266,0.49368101,0.38781381,0
1.1230228,-2.8467109,0.00027060509,-0.4213469,-0.86876112,0.26023242,0
-1.4328597,-1.2010508,1.3558762,-0.4213469,-0.86876112,0.26023242,0
-0.361848,2.4356611,-0.14009064,0.4213469,0.86876112,-0.26023242,0
-1.2748902,-1.6269941,0.18967533,-0.4213469,-0.86876112,0.26023242,0
-0.83183193,1.1615688,-0.17908835,-0.46538931,-0.039156318,-0.88423961,0
3.3088059,-1.824595,-1.3504295,0.77838266,-0.49368101,-0.38781381,0
-3.0451992,1.5222126,0.96987152,-0.46538931,-0.039156318,-0.88423961,0
-1.1104707,-1.178055,0.071167767,-0.46538931,-0.039156318,-0.88423961,0
0.063412666,-2.3061996,0.089083493,-0.4213469,-0.86876112,0.26023242,0
0.34961823,0.23429283,0.37107295,0.46538931,0.039156318,0.88423961,0
3.8054874,-0.46502268,-2.0842538,0.77838266,-0.49368101,-0.38781381,0
-0.1429348,-2.1488059,0.28042635,-0.4213469,-0.86876112,0.26023242,0
3.2897,-1.7937243,-1.4280748,0.77838266,-0.49368101,-0.38781381,0
-3.6308808,0.71593869,2.115294,-0.77838266,0.49368101,0.38781381,0
2.7090237,-2.702913,-1.4361689,0.77838266,-0.49368101,-0.38781381,0
-1.7138163,3.4240916,0.97069597,0.4213469,0.86876112,-0.26023242,0
1.1778678,0.73729849,-1.2180375,-0.46538931,-0.039156318,-0.88423961,0
3.230865,-1.7276263,-1.6303048,0.77838266,-0.49368101,-0.38781381,0
3.7392735,-0.20014894,-2.2992916,0.4213469,0.86876112,-0.26023242,0
-0.61290562,0.47135147,-0.26374823,-0.46538931,-0.039156318,-0.88423961,0
-2.9275007,2.3478069,1.4497077,-0.77838266,0.49368101,0.38781381,0
2.8352644,-0.26336503,-2.0460401,-0.46538931,-0.039156318,-0.88423961,0
-0.76001376,1.5550598,-0.23431218,-0.46538931,-0.039156318,-0.88423961,0
-1.0576451,2.892648,0.25893962,0.4213469,0.86876112,-0.26023242,0
2.7449598,-1.7558647,-0.80150437,0.46538931,0.039156318,0.88423961,0
-1.9965193,0.1328845,1.610373,0.46538931,0.039156318,0.88423961,0
3.588357,-1.1282101,-1.6758285,0.77838266,-0.49368101,-0.38781381,0
0.79496241,-2.8740091,-0.62202978,-0.4213469,-0.86876112,0.26023242,0
-0.44384861,-2.0868919,-9.457767e-05,-0.4213469,-0.86876112,0.26023242,0
-2.0467262,3.5940783,0.99915957,0.4213469,0.86876112,-0.26023242,0
-0.82734227,0.040382534,-0.13180256,-0.46538931,-0.039156318,-0.88423961,0
-2.8016486,2.6627276,1.3014169,-0.77838266,0.49368101,0.38781381,0
0.81102002,-2.8325863,-0.45774436,-0.4213469,-0.86876112,0.26023242,0
-1.2004194,-1.4360833,0.94759071,-0.4213469,-0.86876112,0.26023242,0
2.195153,-3.5663135,-0.66614866,-0.4213469,-0.86876112,0.26023242,0
2.5711851,-2.8608699,-1.511749,0.77838266,-0.49368101,-0.38781381,0
-2.6018744,2.3983793,1.8286593,0.46538931,0.039156318,0.88423961,0
2.7699258,-2.4045057,-1.6938009,0.77838266,-0.49368101,-0.38781381,0
0.54720831,0.058275223,-0.85604268,-0.46538931,-0.039156318,-0.88423961,0
-2.1115582,3.2540538,1.532707,0.46538931,0.039156318,0.88423961,0
1.5004267,1.3936342,-0.60355604,0.4213469,0.86876112,-0.26023242,0
1.4673303,-3.0739288,-1.2016158,-0.46538931,-0.039156318,-0.88423961,0
0.44620246,-0.026067019,0.33176851,0.46538931,0.039156318,0.88423961,0
2.8096566,0.53444624,-1.3520756,0.4213469,0.86876112,-0.26023242,0
-3.856514,0.18737185,2.066812,-0.4213469,-0.86876112,0.26023242,0
1.4741691,-0.95224434,-1.2991688,-0.46538931,-0.039156318,-0.88423961,0
-2.3520958,0.7791661,1.7688997,0.46538931,0.039156318,0.88423961,0
2.5507817,0.72899187,-1.121752,0.4213469,0.86876112,-0.26023242,0
-2.769069,0.93596321,0.85050058,-0.46538931,-0.039156318,-0.88423961,0
-1.9714609,0.64324951,0.44366884,-0.46538931,-0.039156318,-0.88423961,0
0.27014986,-0.37016994,0.4396655,0.46538931,0.039156318,0.88423961,0
2.3089862,-3.6679161,-1.0106528,0.77838266,-0.49368101,-0.38781381,0
3.3945045,-0.029247046,-2.2869749,0.4213469,0.86876112,-0.26023242,0
-2.107522,-0.99397945,0.95480561,-0.4213469,-0.86876112,0.26023242,0
0.68280995,-2.816453,-0.61147261,-0.4213469,-0.86876112,0.26023242,0
-1.0083114,2.7587543,-0.1081748,0.4213469,0.86876112,-0.26023242,0
2.3527069,-2.8370013,-0.54718018,0.46538931,0.039156318,0.88423961,0
-2.77056,-0.58794123,1.2367892,-0.4213469,-0.86876112,0.26023242,0
-3.1209571,2.2820094,1.1451802,-0.77838266,0.49368101,0.38781381,0
-3.4051914,1.3248672,1.7931199,-0.77838266,0.49368101,0.38781381,0
-3.9935541,0.15270692,1.5296507,-0.46538931,-0.039156318,-0.88423961,0
-3.4173377,0.62748802,2.3362699,0.46538931,0.039156318,0.88423961,0
2.3650498,-2.3717313,-1.705195,-0.46538931,-0.039156318,-0.88423961,0
-0.17549658,-2.1613891,-0.37737948,-0.46538931,-0.039156318,-0.88423961,0
0.27864671,1.5754069,-0.78187662,-0.46538931,-0.039156318,-0.88423961,0
0.51103592,2.0465376,-0.025839545,0.4213469,0.86876112,-0.26023242,0
-1.0645442,2.3377664,-0.108693,-0.46538931,-0.039156318,-0.88423961,0
2.2963111,-3.6037259,-0.62726045,-0.4213469,-0.86876112,0.26023242,0
-1.6544459,-1.0009251,0.34962666,-0.46538931,-0.039156318,-0.88423961,0
-2.9977376,0.55379283,2.1186912,0.46538931,0.039156318,0.88423961,0
-3.8235731,-0.010595798,1.4474187,-0.46538931,-0.039156318,-0.88423961,0
2.6109419,-2.3655338,-0.70397091,0.46538931,0.039156318,0.88423961,0
-3.7438505,0.75718689,1.8360448,-0.77838266,0.49368101,0.38781381,0
-0.72421026,-1.9626892,-0.039394826,-0.4213469,-0.86876112,0.26023242,0
3.2921262,-1.4866635,-1.8140888,0.77838266,-0.49368101,-0.38781381,0
2.2562482,-1.4334565,-0.5585649,0.46538931,0.039156318,0.88423961,0
1.6387773,-3.4629734,-1.2219956,-0.4213469,-0.86876112,0.26023242,0
-2.6390319,2.4149075,0.71656895,-0.46538931,-0.039156318,-0.88423961,0
3.6290393,-0.1478765,-2.303268,0.4213469,0.86876112,-0.26023242,0
1.1832169,-2.9413309,-0.21814799,-0.4213469,-0.86876112,0.26023242,0
3.6305425,-0.62666321,-2.2296195,0.77838266,-0.49368101,-0.38781381,0
-1.0734987,-1.7541839,0.091141164,-0.4213469,-0.86876112,0.26023242,0
-3.6874371,0.65218759,2.0829334,-0.77838266,0.49368101,0.38781381,0
-0.52831101,2.5281618,-0.10080838,0.4213469,0.86876112,-0.26023242,0
1.2005501,0.32397705,-1.2116725,-0.46538931,-0.039156318,-0.88423961,0
-2.4320681,3.0971348,1.4902096,-0.77838266,0.49368101,0.38781381,0
-1.3880345,3.1318519,0.52256036,0.4213469,0.86876112,-0.26023242,0
0.4057337,1.2752445,0.29544261,0.46538931,0.039156318,0.88423961,0
2.677465,-3.05794,-1.0475674,0.77838266,-0.49368101,-0.38781381,0
-3.6665266,0.88733763,1.8255606,-0.77838266,0.49368101,0.38781381,0
-3.8346241,0.64071929,1.8021126,-0.77838266,0.49368101,0.38781381,0
2.0277135,1.1496825,-0.56422603,0.4213469,0.86876112,-0.26023242,0
-0.4197073,-1.8628958,0.7867825,-0.4213469,-0.86876112,0.26023242,0
-2.3667762,-0.84581542,1.0296741,-0.4213469,-0.86876112,0.26023242,0
-3.8335481,0.4867785,2.0002379,-0.77838266,0.49368101,0.38781381,0
-3.6382508,1.0555608,1.6681681,-0.77838266,0.49368101,0.38781381,0
3.3502541,-1.7277,-1.390584,0.77838266,-0.49368101,-0.38781381,0
0.16478026,1.8476019,-0.73400033,-0.46538931,-0.039156318,-0.88423961,0
-2.1080549,0.28459817,0.53144217,-0.46538931,-0.039156318,-0.88423961,0
-2.623868,2.5828876,1.759876,-0.77838266,0.49368101,0.38781381,0
-3.7797883,1.0113503,1.4403667,-0.77838266,0.49368101,0.38781381,0
3.90556,-0.044906199,-1.5117927,0.4213469,0.86876112,-0.26023242,0
-3.3476284,1.0581878,2.2481332,-0.77838266,0.49368101,0.38781381,0
0.56083584,-2.7500336,-0.58722782,-0.4213469,-0.86876112,0.26023242,0
0.39573634,-2.4428322,0.17101902,-0.4213469,-0.86876112,0.26023242,0
-1.106337,-1.5068378,0.86371338,-0.4213469,-0.86876112,0.26023242,0
2.0153658,-1.685877,-1.5515223,-0.46538931,-0.039156318,-0.88423961,0
2.1781881,-3.5268743,-1.4527216,0.77838266,-0.49368101,-0.38781381,0
-0.32574224,-2.1582122,-0.046963036,-0.4213469,-0.86876112,0.26023242,0
3.3509021,0.0085790157,-2.2312937,0.4213469,0.86876112,-0.26023242,0
1.3358179,-1.1623183,-0.086134315,0.46538931,0.039156318,0.88423961,0
0.35324717,-2.6515217,-0.59446633,-0.4213469,-0.86876112,0.26023242,0
2.3103068,-3.6346631,-1.0503321,0.77838266,-0.49368101,-0.38781381,0
3.1334438,-2.0608692,-1.4016256,0.77838266,-0.49368101,-0.38781381,0
1.673963,1.2614601,-0.7638309,0.4213469,0.86876112,-0.26023242,0
3.4577727,0.024127841,-2.0063488,0.4213469,0.86876112,-0.26023242,0
2.85464,-2.5222075,-1.3739371,0.77838266,-0.49368101,-0.38781381,0
2.4908285,-3.3256781,-1.0813396,0.77838266,-0.49368101,-0.38781381,0
-1.0229486,2.901047,0.34315634,0.4213469,0.86876112,-0.26023242,0
-2.5778558,1.5583671,0.72230077,-0.46538931,-0.039156318,-0.88423961,0
1.2220663,-0.78290325,-1.1739815,-0.46538931,-0.039156318,-0.88423961,0
0.38406694,-2.4806914,0.025735736,-0.4213469,-0.86876112,0.26023242,0
0.29803133,-2.388267,0.19498432,-0.4213469,-0.86876112,0.26023242,0
-1.1679804,2.2811606,1.0791688,0.46538931,0.039156318,0.88423961,0
-0.76239085,-1.9107915,0.07204175,-0.4213469,-0.86876112,0.26023242,0
3.7315049,-0.97281921,-1.5863256,0.77838266,-0.49368101,-0.38781381,0
3.316154,0.30145186,-1.1932356,0.46538931,0.039156318,0.88423961,0
2.7007275,-2.594408,-1.5909464,0.77838266,-0.49368101,-0.38781381,0
-1.9073508,-0.97947711,1.3273211,-0.4213469,-0.86876112,0.26023242,0
-3.1357846,2.1963034,1.2245224,-0.77838266,0.49368101,0.38781381,0
-1.8347021,0.78175825,0.36555719,-0.46538931,-0.039156318,-0.88423961,0
0.93204844,-0.15585911,-1.0491078,-0.46538931,-0.039156318,-0.88423961,0
-4.0137291,0.51769441,1.5992403,-0.77838266,0.49368101,0.38781381,0
-1.6656635,3.1755514,0.21893215,0.4213469,0.86876112,-0.26023242,0
3.0966733,-1.5036711,-2.1286998,-0.46538931,-0.039156318,-0.88423961,0
-2.7918968,2.3730891,1.6896946,-0.77838266,0.49368101,0.38781381,0
-1.2545887,1.6557505,1.152447,0.46538931,0.039156318,0.88423961,0
1.4836619,-3.3104644,-0.96400905,-0.4213469,-0.86876112,0.26023242,0
-2.7007041,0.80605328,0.82027149,-0.46538931,-0.039156318,-0.88423961,0
-3.5535741,1.1416763,1.7284989,-0.77838266,0.49368101,0.38781381,0
-3.2790587,-0.054291278,1.1627669,-0.46538931,-0.039156318,-0.88423961,0
-0.38779294,-1.1818359,0.82189369,0.46538931,0.039156318,0.88423961,0
0.30011153,2.0955684,-0.20366648,0.4213469,0.86876112,-0.26023242,0
-1.4529715,-0.30281729,0.21267366,-0.46538931,-0.039156318,-0.88423961,0
1.6979673,0.11812133,-1.4643555,-0.46538931,-0.039156318,-0.88423961,0
3.783628,-0.94512081,-1.5169697,0.77838266,-0.49368101,-0.38781381,0
0.66215634,1.8787682,-0.34124058,0.4213469,0.86876112,-0.26023242,0
-1.7381394,0.96297008,0.30670977,-0.46538931,-0.039156318,-0.88423961,0
1.8528736,-3.38673,-0.62081718,-0.4213469,-0.86876112,0.26023242,0
1.2933408,-0.4492493,-0.095354438,0.46538931,0.039156318,0.88423961,0
1.4646399,1.3826433,-0.69819057,0.4213469,0.86876112,-0.26023242,0
3.0333295,-2.1934426,-1.4338014,0.77838266,-0.49368101,-0.38781381,0
2.9000247,-1.2029668,-0.90760064,0.46538931,0.039156318,0.88423961,0
-2.6082602,3.1389902,1.0832925,-0.77838266,0.49368101,0.38781381,0
3.0469875,0.22699916,-1.0482717,0.46538931,0.039156318,0.88423961,0
-3.6701078,0.4049412,2.4324565,-0.77838266,0.49368101,0.38781381,0
0.80442619,1.9073712,-0.015400082,0.4213469,0.86876112,-0.26023242,0
3.2491364,-1.403318,-1.0824723,0.46538931,0.039156318,0.88423961,0
-1.8310122,0.47140777,0.3773582,-0.46538931,-0.039156318,-0.88423961,0
0.37843919,-2.6141386,-0.64887595,-0.46538931,-0.039156318,-0.88423961,0
-3.6691356,0.47128069,2.3499584,-0.77838266,0.49368101,0.38781381,0
3.8474202,-0.30066335,-2.2093163,0.77838266,-0.49368101,-0.38781381,0
-1.8676912,3.4261582,0.72845292,0.4213469,0.86876112,-0.26023242,0
-0.84252083,2.7811756,0.23511076,0.4213469,0.86876112,-0.26023242,0
-2.3082302,-0.95067644,0.77439928,-0.4213469,-0.86876112,0.26023242,0
-2.1678758,3.6976004,1.256088,-0.77838266,0.49368101,0.38781381,0
-0.86849946,1.7250496,-0.18474197,-0.46538931,-0.039156318,-0.88423961,0
-3.8309307,0.68892992,1.7481556,-0.77838266,0.49368101,0.38781381,0
-1.8053341,-0.32658347,0.39918029,-0.46538931,-0.039156318,-0.88423961,0
-1.1573856,0.32927996,1.1600268,0.46538931,0.039156318,0.88423961,0
-0.7017839,2.3260143,0.83181608,0.46538931,0.039156318,0.88423961,0
-0.49140978,2.6803281,0.46693182,0.4213469,0.86876112,-0.26023242,0
2.0377047,-2.219928,-0.40871501,0.46538931,0.039156318,0.88423961,0
0.56208229,2.0253708,-0.013852578,0.4213469,0.86876112,-0.26023242,0
0.076061487,2.3123949,0.15742493,0.4213469,0.86876112,-0.26023242,0
-2.42942,3.2601514,1.288007,-0.77838266,0.49368101,0.38781381,0
0.92135632,1.2037457,-1.1036868,-0.46538931,-0.039156318,-0.88423961,0
3.1951828,-1.8648086,-1.5272913,0.77838266,-0.49368101,-0.38781381,0
-2.4995315,-0.052643329,0.75241661,-0.46538931,-0.039156318,-0.88423961,0
2.0229745,-1.2354228,-1.575474,-0.46538931,-0.039156318,-0.88423961,0
3.6387918,-0.13997531,-2.2611003,0.4213469,0.86876112,-0.26023242,0
3.6297023,-1.20207,-1.4988213,0.77838266,-0.49368101,-0.38781381,0
3.5179214,0.065573454,-1.7705977,0.4213469,0.86876112,-0.26023242,0
-3.4280872,-0.14524913,1.6500614,-0.4213469,-0.86876112,0.26023242,0
-0.024820089,2.4237354,0.36578518,0.4213469,0.86876112,-0.26023242,0
-3.6703827,0.79151392,1.9398036,-0.77838266,0.49368101,0.38781381,0
-0.61234343,-1.3331409,-0.18413693,-0.46538931,-0.039156318,-0.88423961,0
-3.7941976,0.24770069,2.3691106,-0.4213469,-0.86876112,0.26023242,0
2.7742758,-0.18593302,-0.88645411,0.46538931,0.039156318,0.88423961,0
-3.0854506,1.8274693,1.7950687,-0.77838266,0.49368101,0.38781381,0
-2.306654,2.6129787,0.53286195,-0.46538931,-0.039156318,-0.88423961,0
-2.4178889,3.289129,1.2742634,-0.77838266,0.49368101,0.38781381,0
1.9441633,-0.49357963,-1.5668449,-0.46538931,-0.039156318,-0.88423961,0
-2.8026795,2.5582337,1.4323676,-0.77838266,0.49368101,0.38781381,0
-0.78831911,-1.8707948,0.16358602,-0.4213469,-0.86876112,0.26023242,0
-1.2256533,0.086541869,0.075790763,-0.46538931,-0.039156318,-0.88423961,0
2.742682,-3.0027871,-0.9868784,0.77838266,-0.49368101,-0.38781381,0
-0.63280571,0.33332515,0.88375288,0.46538931,0.039156318,0.88423961,0
0.23444581,-1.0764309,0.48973203,0.46538931,0.039156318,0.88423961,0
-1.6098683,2.7616582,1.2904642,0.46538931,0.039156318,0.88423961,0
-1.9212555,-1.0253539,1.1516529,-0.4213469,-0.86876112,0.26023242,0
-0.37121859,-0.2810576,0.77328175,0.46538931,0.039156318,0.88423961,0
0.87901986,-2.6851146,0.14467454,-0.4213469,-0.86876112,0.26023242,0
-2.2494426,2.0033979,1.6606598,0.46538931,0.039156318,0.88423961,0
1.9672514,-2.6574998,-0.35225749,0.46538931,0.039156318,0.88423961,0
-3.3007908,1.577318,1.6812968,-0.77838266,0.49368101,0.38781381,0
-2.3304114,-0.90891683,0.87789583,-0.4213469,-0.86876112,0.26023242,0
1.2166549,-3.0786972,-0.62259173,-0.4213469,-0.86876112,0.26023242,0
1.3998665,1.4287614,-0.64910614,0.4213469,0.86876112,-0.26023242,0
2.2421818,-3.5566618,-1.2863612,0.77838266,-0.49368101,-0.38781381,0
2.7446055,-3.0583045,-0.91234493,0.77838266,-0.49368101,-0.38781381,0
1.6477683,-2.0931172,-0.20910048,0.46538931,0.039156318,0.88423961,0
1.6386924,-3.1738429,-0.2568984,-0.4213469,-0.86876112,0.26023242,0
-2.0905132,-0.84773368,1.4705727,-0.4213469,-0.86876112,0.26023242,0
-3.008671,0.55816257,0.99333668,-0.46538931,-0.039156318,-0.88423961,0
-3.8074706,0.76404184,1.699625,-0.77838266,0.49368101,0.38781381,0
1.4515055,1.4173161,-0.60370517,0.4213469,0.86876112,-0.26023242,0
-3.0067239,-0.52338463,1.0699282,-0.4213469,-0.86876112,0.26023242,0
3.8977869,-0.30760288,-2.0993915,0.77838266,-0.49368101,-0.38781381,0
-0.40987772,-0.50278658,-0.32746789,-0.46538931,-0.039156318,-0.88423961,0
-0.62283516,1.2306999,0.83876741,0.46538931,0.039156318,0.88423961,0
3.4808633,-1.5944982,-1.2980022,0.77838266,-0.49368101,-0.38781381,0
2.6203337,-3.2870574,-0.87057257,0.77838266,-0.49368101,-0.38781381,0
0.16996729,1.8245442,0.39520597,0.46538931,0.039156318,0.88423961,0
-1.8404061,1.7033564,1.4586639,0.46538931,0.039156318,0.88423961,0
2.1677117,-3.6797917,-1.089416,-0.4213469,-0.86876112,0.26023242,0
-0.65816754,1.6477252,0.83889639,0.46538931,0.039156318,0.88423961,0
-2.5338449,2.9558074,1.4658408,-0.77838266,0.49368101,0.38781381,0
-0.27321005,2.5528731,0.59620512,0.46538931,0.039156318,0.88423961,0
3.029022,-1.2333033,-0.9741509,0.46538931,0.039156318,0.88423961,0
-1.1785097,0.95570868,1.1434048,0.46538931,0.039156318,0.88423961,0
-3.6048951,1.1145039,1.6600823,-0.77838266,0.49368101,0.38781381,0
0.99817955,1.5386065,-0.93277711,0.4213469,0.86876112,-0.26023242,0
2.6652381,-2.7527661,-1.4605892,0.77838266,-0.49368101,-0.38781381,0
-1.9830983,3.3887265,0.41663313,0.4213469,0.86876112,-0.26023242,0
1.7582431,0.20527802,-0.3690238,0.46538931,0.039156318,0.88423961,0
2.842382,-1.1053931,-2.0124986,-0.46538931,-0.039156318,-0.88423961,0
-3.1025934,-0.2728827,1.0795708,-0.46538931,-0.039156318,-0.88423961,0
-3.4526966,0.97695363,2.1406603,-0.77838266,0.49368101,0.38781381,0
0.68802416,0.85209167,-0.96530831,-0.46538931,-0.039156318,-0.88423961,0
-2.3063691,3.2242744,0.50564218,-0.46538931,-0.039156318,-0.88423961,0
2.7927606,0.56949884,-1.2624121,0.4213469,0.86876112,-0.26023242,0
1.4036463,1.3472517,-0.91509855,0.4213469,0.86876112,-0.26023242,0
-2.3405848,3.402667,1.2848895,-0.77838266,0.49368101,0.38781381,0
-2.1574154,-0.57223332,1.7262793,0.46538931,0.039156318,0.88423961,0
-0.65437675,-1.606576,0.9810096,0.46538931,0.039156318,0.88423961,0
-4.0784531,0.25915468,1.7984495,-0.77838266,0.49368101,0.38781381,0
2.5207701,0.7425642,-1.1250355,0.4213469,0.86876112,-0.26023242,0
0.95285261,1.5465716,-0.97957516,0.4213469,0.86876112,-0.26023242,0
0.45296335,-2.6324089,-0.36920774,-0.4213469,-0.86876112,0.26023242,0
2.7137628,0.55303895,-1.4452684,0.4213469,0.86876112,-0.26023242,0
-2.990242,1.8554536,1.9505382,-0.77838266,0.49368101,0.38781381,0
1.4169357,0.067589164,-1.3142066,-0.46538931,-0.039156318,-0.88423961,0
1.5476996,-1.1925201,-1.327229,-0.46538931,-0.039156318,-0.88423961,0
-3.1089814,2.2163849,1.2527554,-0.77838266,0.49368101,0.38781381,0
1.8193504,-0.63837796,-0.36382651,0.46538931,0.039156318,0.88423961,0
1.8465185,0.50042456,-1.5594695,-0.46538931,-0.039156318,-0.88423961,0
2.9849105,-2.6845143,-0.90585709,0.77838266,-0.49368101,-0.38781381,0
-3.2675152,2.0061927,1.2021327,-0.77838266,0.49368101,0.38781381,0
-3.0569239,2.1815276,1.4016135,-0.77838266,0.49368101,0.38781381,0
2.5398571,-3.5338004,-0.71799755,0.77838266,-0.49368101,-0.38781381,0
3.0205493,-2.0466707,-1.646291,0.77838266,-0.49368101,-0.38781381,0
2.290853,-3.3205838,-1.4891958,0.77838266,-0.49368101,-0.38781381,0
-0.00066828728,2.1572199,-0.48484632,0.4213469,0.86876112,-0.26023242,0
2.8427746,0.063527316,-0.93355274,0.46538931,0.039156318,0.88423961,0
-1.6299018,0.52298641,1.4001417,0.46538931,0.039156318,0.88423961,0
-0.24929738,2.3765202,-0.15529263,0.4213469,0.86876112,-0.26023242,0
-3.0056357,1.8798567,0.93321109,-0.46538931,-0.039156318,-0.88423961,0
-2.339715,3.6005893,1.034683,-0.77838266,0.49368101,0.38781381,0
3.7821891,-0.59239376,-1.3989358,0.46538931,0.039156318,0.88423961,0
2.0890265,-3.2986813,-0.38795662,0.46538931,0.039156318,0.88423961,0
0.45141077,1.9512435,-0.44051015,0.4213469,0.86876112,-0.26023242,0
3.4815991,-1.3742497,-1.5768981,0.77838266,-0.49368101,-0.38781381,0
2.840152,-2.8398945,-0.99860573,0.77838266,-0.49368101,-0.38781381,0
-3.8029144,0.36779666,2.2131844,-0.77838266,0.49368101,0.38781381,0
3.4304852,-0.047211528,-2.2886901,0.4213469,0.86876112,-0.26023242,0
1.4553707,1.3063004,-0.96806276,0.4213469,0.86876112,-0.26023242,0
4.0682273,-0.39564884,-1.6452198,0.77838266,-0.49368101,-0.38781381,0
3.3122268,-1.9251871,-1.2155104,0.77838266,-0.49368101,-0.38781381,0
-2.3231072,-0.098227903,0.66158032,-0.46538931,-0.039156318,-0.88423961,0
2.8635411,-2.7487066,-1.0677421,0.77838266,-0.49368101,-0.38781381,0
2.5693512,-2.8002484,-1.5926003,0.77838266,-0.49368101,-0.38781381,0
-2.7356625,2.4328735,1.726459,-0.77838266,0.49368101,0.38781381,0
2.0891695,-2.9342957,-0.40416765,0.46538931,0.039156318,0.88423961,0
1.3131238,-3.2051599,-0.8885808,-0.4213469,-0.86876112,0.26023242,0
-3.297936,1.8685287,1.316319,-0.77838266,0.49368101,0.38781381,0
-1.3060803,-1.4421432,0.7562834,-0.4213469,-0.86876112,0.26023242,0
-0.42568576,-0.92854452,0.83062106,0.46538931,0.039156318,0.88423961,0
3.7198548,-0.61009932,-1.3653445,0.46538931,0.039156318,0.88423961,0
2.7260427,0.54604936,-0.89348197,0.46538931,0.039156318,0.88423961,0
-1.0208449,-1.7558455,0.17084682,-0.4213469,-0.86876112,0.26023242,0
-2.1799264,0.42000768,0.56327343,-0.46538931,-0.039156318,-0.88423961,0
2.3859956,-3.3765383,-1.2270057,0.77838266,-0.49368101,-0.38781381,0
-3.040328,2.1235437,1.5087352,-0.77838266,0.49368101,0.38781381,0
-2.4879291,3.0785322,1.4017723,-0.77838266,0.49368101,0.38781381,0
1.3159068,-3.0098143,-0.23193169,-0.4213469,-0.86876112,0.26023242,0
-0.81744617,1.7869391,-0.21435267,-0.46538931,-0.039156318,-0.88423961,0
-3.0394025,0.55409557,1.0096912,-0.46538931,-0.039156318,-0.88423961,0
-2.8796277,2.2480452,1.6727889,-0.77838266,0.49368101,0.38781381,0
-0.4352988,1.8472632,0.71276104,0.46538931,0.039156318,0.88423961,0
-2.479423,3.0077682,1.5089257,-0.77838266,0.49368101,0.38781381,0
3.0388005,-1.7818825,-1.9467301,0.77838266,-0.49368101,-0.38781381,0
1.9765301,-1.0708642,-0.42740107,0.46538931,0.039156318,0.88423961,0
-2.2187858,0.31232953,0.58849382,-0.46538931,-0.039156318,-0.88423961,0
-3.6088343,0.8807199,1.9497805,-0.77838266,0.49368101,0.38781381,0
0.087387204,-1.5670395,-0.54205871,-0.46538931,-0.039156318,-0.88423961,0
1.6078637,-1.5221012,-1.3442993,-0.46538931,-0.039156318,-0.88423961,0
-3.6179323,1.0093093,1.7678275,-0.77838266,0.49368101,0.38781381,0
-3.2406745,2.0896974,1.0476241,-0.46538931,-0.039156318,-0.88423961,0
3.9288721,-0.57343751,-1.698596,0.77838266,-0.49368101,-0.38781381,0
0.22364211,2.1236086,-0.23387006,0.4213469,0.86876112,-0.26023242,0
-3.1711922,2.1708996,1.1857934,-0.77838266,0.49368101,0.38781381,0
-0.20456672,2.3701458,-0.10414934,0.4213469,0.86876112,-0.26023242,0
-2.3701298,2.3244863,1.7099609,0.46538931,0.039156318,0.88423961,0
