0.7743454,-1.1164148,2.1583643,0.08096236,0.78806949,0.61023962,0
-0.91272688,-1.3776844,2.6130486,-0.11527205,-0.60073793,0.7910921,0
-3.3142529,1.386371,-0.76949048,-0.99002928,0.13439213,-0.042204857,0
-2.5307355,-0.45360911,1.7409067,0.08096236,0.78806949,0.61023962,0
-2.0273497,-0.75525904,0.42497277,-0.08096236,-0.78806949,-0.61023962,0
1.3598392,1.9292085,-1.8524616,0.08096236,0.78806949,0.61023962,0
3.1446855,-2.0682311,2.5759001,0.99002928,-0.13439213,0.042204857,0
2.2570677,-0.60229939,1.2977132,0.08096236,0.78806949,0.61023962,0
-1.5252655,-1.4907813,1.30822,-0.08096236,-0.78806949,-0.61023962,0
-1.0368813,1.6523199,-2.6885781,0.11527205,0.60073793,-0.7910921,0
3.5855179,0.27180943,-0.31363821,0.99002928,-0.13439213,0.042204857,0
-2.0702395,-1.7788551,1.7525446,-0.08096236,-0.78806949,-0.61023962,0
-3.1478593,2.0960953,-2.4127214,-0.99002928,0.13439213,-0.042204857,0
-1.0273206,-1.5209286,2.4875746,-0.11527205,-0.60073793,0.7910921,0
-2.8689246,1.1848496,-0.3301456,0.08096236,0.78806949,0.61023962,0
-2.6938019,0.74592865,0.21344686,0.08096236,0.78806949,0.61023962,0
-2.7201447,1.116675,-0.26184344,0.08096236,0.78806949,0.61023962,0
-3.3027353,1.2139127,-1.588815,-0.99002928,0.13439213,-0.042204857,0
3.2900712,-1.4306376,1.195775,0.99002928,-0.13439213,0.042204857,0
0.15197396,-1.0201849,2.1166639,0.08096236,0.78806949,0.61023962,0
3.0255246,0.15405262,-1.4197016,-0.08096236,-0.78806949,-0.61023962,0
2.7492809,0.97239542,-0.80116582,0.08096236,0.78806949,0.61023962,0
2.685349,-0.56497258,1.1926875,0.08096236,0.78806949,0.61023962,0
-2.668859,-1.2676237,2.4407365,-0.11527205,-0.60073793,0.7910921,0
0.68738079,1.3960447,-2.631942,0.11527205,0.60073793,-0.7910921,0
-3.7097621,-0.64347768,2.0446043,-0.99002928,0.13439213,-0.042204857,0
-0.58395457,-1.7733943,2.3604617,-0.11527205,-0.60073793,0.7910921,0
1.4778709,0.54325855,-0.078292489,0.08096236,0.78806949,0.61023962,0
3.7137499,0.8489511,-1.4838696,0.99002928,-0.13439213,0.042204857,0
-1.047116,1.6145271,-1.1267405,0.08096236,0.78806949,0.61023962,0
0.70947576,1.6911408,-2.4046335,0.11527205,0.60073793,-0.7910921,0
3.6959176,0.6235652,-1.7832491,0.99002928,-0.13439213,0.042204857,0
-0.54078269,-1.1453607,2.3702273,0.08096236,0.78806949,0.61023962,0
1.3696368,0.083788276,-1.1092699,-0.08096236,-0.78806949,-0.61023962,0
1.176996,0.92221421,-2.1664629,-0.08096236,-0.78806949,-0.61023962,0
0.013711691,-1.2638935,2.4497354,0.08096236,0.78806949,0.61023962,0
3.2217178,-1.5723047,2.3480668,0.99002928,-0.13439213,0.042204857,0
-0.68482637,-1.982735,1.8320301,-0.08096236,-0.78806949,-0.61023962,0
3.2621937,-1.5645363,1.4233525,0.99002928,-0.13439213,0.042204857,0
1.8246472,-1.8902198,2.6227093,-0.11527205,-0.60073793,0.7910921,0
-0.57047617,1.382937,-0.89090002,0.08096236,0.78806949,0.61023962,0
-0.18978119,-1.5717235,2.5710421,-0.11527205,-0.60073793,0.7910921,0
3.1363795,-2.1675446,2.4544992,0.99002928,-0.13439213,0.042204857,0
3.3227551,-1.3130643,0.80347443,0.99002928,-0.13439213,0.042204857,0
-3.5150518,0.072811365,-0.2419641,-0.99002928,0.13439213,-0.042204857,0
3.1361628,-2.3033121,2.0272682,0.99002928,-0.13439213,0.042204857,0
1.9421589,1.6600456,-2.2486293,0.11527205,0.60073793,-0.7910921,0
1.3337768,0.0056214333,-1.0035667,-0.08096236,-0.78806949,-0.61023962,0
3.139914,-2.151947,2.4212575,0.99002928,-0.13439213,0.042204857,0
1.8072147,1.9689533,-2.0337143,0.11527205,0.60073793,-0.7910921,0
-3.4511194,0.37461302,-0.78064108,-0.99002928,0.13439213,-0.042204857,0
-3.3409986,1.2468914,-0.58624411,-0.99002928,0.13439213,-0.042204857,0
-2.2718844,2.2028036,-1.7239518,0.08096236,0.78806949,0.61023962,0
1.747279,-1.9180107,2.5903323,-0.11527205,-0.60073793,0.7910921,0
-3.2217507,1.8016044,-1.6171519,-0.99002928,0.13439213,-0.042204857,0
-3.572655,-0.0042997599,0.86373019,-0.99002928,0.13439213,-0.042204857,0
1.5204866,1.452118,-2.4679675,0.11527205,0.60073793,-0.7910921,0
-3.6449368,-1.1605932,1.1630359,-0.08096236,-0.78806949,-0.61023962,0
3.4997077,-0.46875703,-0.65890241,0.99002928,-0.13439213,0.042204857,0
-3.4591932,0.67280293,0.35826635,-0.99002928,0.13439213,-0.042204857,0
-0.64399934,-1.7697351,2.354491,-0.11527205,-0.60073793,0.7910921,0
1.9214853,-1.9957561,1.5030577,-0.08096236,-0.78806949,-0.61023962,0
-3.6584558,-0.68920857,0.69547462,-0.99002928,0.13439213,-0.042204857,0
-2.3594246,-1.1751394,2.5560553,-0.11527205,-0.60073793,0.7910921,0
3.7112069,0.85885286,-1.3926847,0.99002928,-0.13439213,0.042204857,0
-3.1771712,2.1336589,-1.6055276,-0.99002928,0.13439213,-0.042204857,0
1.695774,-2.244045,1.8536466,-0.08096236,-0.78806949,-0.61023962,0
-3.4527791,0.48565203,-0.38812995,-0.99002928,0.13439213,-0.042204857,0
-2.9501872,2.1065607,-2.6224298,0.11527205,0.60073793,-0.7910921,0
3.5590198,-0.0075876713,-0.58172441,0.99002928,-0.13439213,0.042204857,0
3.3343687,-0.9989478,1.5312804,0.99002928,-0.13439213,0.042204857,0
3.4069791,1.4881434,-1.554467,0.08096236,0.78806949,0.61023962,0
1.1239595,-0.80706656,0.073783278,-0.08096236,-0.78806949,-0.61023962,0
-3.2648511,1.4289539,-1.7927358,-0.99002928,0.13439213,-0.042204857,0
2.6040895,-1.1124625,0.27180076,-0.08096236,-0.78806949,-0.61023962,0
-3.1259789,1.4193008,-0.59881353,0.08096236,0.78806949,0.61023962,0
-3.3963714,0.65884733,-1.1598167,-0.99002928,0.13439213,-0.042204857,0
-0.10049081,2.2415376,-2.1046963,0.11527205,0.60073793,-0.7910921,0
-3.5852356,-0.012583494,1.1324644,-0.99002928,0.13439213,-0.042204857,0
-3.3938107,0.85479563,-0.59593511,-0.99002928,0.13439213,-0.042204857,0
-1.7531357,2.0655921,-1.61558,0.08096236,0.78806949,0.61023962,0
-1.1388323,2.1765382,-2.3053541,0.11527205,0.60073793,-0.7910921,0
2.8049302,1.649946,-2.1305828,0.11527205,0.60073793,-0.7910921,0
-3.2039413,2.0014875,-1.3984351,-0.99002928,0.13439213,-0.042204857,0
1.1085175,1.0440905,-0.67606819,0.08096236,0.78806949,0.61023962,0
3.2430491,-1.8002894,1.1217382,0.99002928,-0.13439213,0.042204857,0
-1.1648017,0.49018854,-1.2978467,-0.08096236,-0.78806949,-0.61023962,0
-1.2130258,-0.7253074,0.27825427,-0.08096236,-0.78806949,-0.61023962,0
-3.3787198,-1.4677913,2.1852992,-0.11527205,-0.60073793,0.7910921,0
3.4075875,-0.75712538,0.58377433,0.99002928,-0.13439213,0.042204857,0
0.91738272,2.0037158,-2.1369758,0.11527205,0.60073793,-0.7910921,0
3.2303808,-1.8262146,1.3363456,0.99002928,-0.13439213,0.042204857,0
3.5727108,0.22408193,-0.16518188,0.99002928,-0.13439213,0.042204857,0
-1.450506,-0.76557994,0.3617698,-0.08096236,-0.78806949,-0.61023962,0
3.3538671,-1.0854995,0.79829907,0.99002928,-0.13439213,0.042204857,0
-0.60946155,1.9014528,-2.4371121,0.11527205,0.60073793,-0.7910921,0
1.2144763,0.40590018,0.13403893,0.08096236,0.78806949,0.61023962,0
-1.2480061,1.1871569,-0.5481779,0.08096236,0.78806949,0.61023962,0
2.5925322,-1.2767591,0.4855082,-0.08096236,-0.78806949,-0.61023962,0
0.21577597,1.9961984,-1.7871865,0.08096236,0.78806949,0.61023962,0
-3.7825124,-1.2321858,1.8765485,-0.99002928,0.13439213,-0.042204857,0
-0.20605779,1.3695344,-2.5606418,-0.08096236,-0.78806949,-0.61023962,0
2.3026936,0.46334517,-0.084523439,0.08096236,0.78806949,0.61023962,0
-0.2604897,-0.0067471862,0.86262417,0.08096236,0.78806949,0.61023962,0
-2.3320222,1.8652117,-2.7156308,0.11527205,0.60073793,-0.7910921,0
0.85764354,-1.4974644,1.0007026,-0.08096236,-0.78806949,-0.61023962,0
-2.832171,-0.48243681,0.17942595,-0.08096236,-0.78806949,-0.61023962,0
-0.64933407,-1.4407437,1.1273885,-0.08096236,-0.78806949,-0.61023962,0
-3.2103164,-1.2762614,2.3552806,-0.11527205,-0.60073793,0.7910921,0
-2.7066555,-0.76765805,2.1698124,0.08096236,0.78806949,0.61023962,0
-3.2147777,-1.6866286,1.7852924,-0.08096236,-0.78806949,-0.61023962,0
-3.5001926,0.42747724,0.53882456,-0.99002928,0.13439213,-0.042204857,0
-3.1808219,1.9460653,-2.117238,-0.99002928,0.13439213,-0.042204857,0
-2.7154989,-0.82117903,0.60140157,-0.08096236,-0.78806949,-0.61023962,0
-3.5316479,-0.48222029,0.27194834,-0.08096236,-0.78806949,-0.61023962,0
3.6591389,0.43949687,-1.5066357,0.99002928,-0.13439213,0.042204857,0
-0.34331989,1.9819938,-1.6946653,0.08096236,0.78806949,0.61023962,0
3.3869185,-0.77111238,1.0240767,0.99002928,-0.13439213,0.042204857,0
0.21079461,-0.45403266,-0.26097554,-0.08096236,-0.78806949,-0.61023962,0
-3.2958727,1.3699186,-1.2530365,-0.99002928,0.13439213,-0.042204857,0
-0.52576995,0.48452955,0.26338032,0.08096236,0.78806949,0.61023962,0
3.5986795,0.40392125,-0.20170546,0.99002928,-0.13439213,0.042204857,0
-3.1272707,-1.5528617,2.157337,-0.11527205,-0.60073793,0.7910921,0
1.9479538,-1.6749549,1.0852604,-0.08096236,-0.78806949,-0.61023962,0
3.5682902,0.07976836,-0.52102923,0.99002928,-0.13439213,0.042204857,0
1.443907,2.0094135,-2.0559282,0.11527205,0.60073793,-0.7910921,0
1.7520671,0.4959498,-0.053575993,0.08096236,0.78806949,0.61023962,0
-0.48071337,1.6148667,-2.6359787,0.11527205,0.60073793,-0.7910921,0
-3.6924038,-0.85777348,0.9550612,-0.99002928,0.13439213,-0.042204857,0
-2.772445,-1.6927729,2.1027946,-0.11527205,-0.60073793,0.7910921,0
1.3476155,1.336355,-2.5810647,0.11527205,0.60073793,-0.7910921,0
-3.6901696,-1.0596409,2.4498568,-0.11527205,-0.60073793,0.7910921,0
1.5507679,1.6525972,-2.3113158,0.11527205,0.60073793,-0.7910921,0
-0.29838675,0.22470686,-1.0699513,-0.08096236,-0.78806949,-0.61023962,0
2.4505098,1.6466656,-2.1847167,0.11527205,0.60073793,-0.7910921,0
2.5345535,-0.16470528,-0.94291615,-0.08096236,-0.78806949,-0.61023962,0
-1.940269,-1.2874341,2.5318575,-0.11527205,-0.60073793,0.7910921,0
-3.3066366,1.4278619,-0.81603527,-0.99002928,0.13439213,-0.042204857,0
2.7484949,-1.5413289,0.80648398,-0.08096236,-0.78806949,-0.61023962,0
1.2382662,-1.0842328,0.41655302,-0.08096236,-0.78806949,-0.61023962,0
1.0603261,1.2190419,-2.5343099,-0.08096236,-0.78806949,-0.61023962,0
1.5489939,-1.0130422,1.9220928,0.08096236,0.78806949,0.61023962,0
-3.540406,0.17581236,0.6807642,-0.99002928,0.13439213,-0.042204857,0
3.4204698,-0.73036826,0.36679077,0.99002928,-0.13439213,0.042204857,0
-3.3501527,0.91860354,-1.4168577,-0.99002928,0.13439213,-0.042204857,0
-2.0393779,-1.5575988,2.3122592,-0.11527205,-0.60073793,0.7910921,0
-1.1495535,-1.5579213,2.4416721,-0.11527205,-0.60073793,0.7910921,0
1.0219355,-2.0841818,1.736598,-0.08096236,-0.78806949,-0.61023962,0
-0.90259337,-0.92146343,2.129087,0.08096236,0.78806949,0.61023962,0
-3.5365877,-1.5726335,2.0826805,-0.11527205,-0.60073793,0.7910921,0
-3.3756306,-1.6084553,2.0789313,-0.11527205,-0.60073793,0.7910921,0
2.7929091,0.24566245,0.13155556,0.08096236,0.78806949,0.61023962,0
3.7259722,0.87770075,-1.6790309,0.99002928,-0.13439213,0.042204857,0
-3.2055748,-1.3923562,2.2678115,-0.11527205,-0.60073793,0.7910921,0
-0.68580931,1.3296888,-0.80683327,0.08096236,0.78806949,0.61023962,0
2.0783153,-2.4319072,2.2483265,-0.11527205,-0.60073793,0.7910921,0
-2.0282116,1.2860472,-0.57237327,0.08096236,0.78806949,0.61023962,0
-3.0613048,-1.0810616,2.5252235,-0.11527205,-0.60073793,0.7910921,0
-3.7978268,-1.4442396,1.5605552,-0.99002928,0.13439213,-0.042204857,0
2.0479074,1.402549,-2.4287577,0.11527205,0.60073793,-0.7910921,0
-0.18063593,-1.582654,2.5640738,-0.11527205,-0.60073793,0.7910921,0
3.3662016,0.70222336,-0.53411198,0.08096236,0.78806949,0.61023962,0
-2.5459485,2.4807045,-2.2794106,0.11527205,0.60073793,-0.7910921,0
-3.2772379,1.4305878,-1.496976,-0.99002928,0.13439213,-0.042204857,0
-3.7524331,-1.1460778,1.4451468,-0.99002928,0.13439213,-0.042204857,0
1.7456207,1.6566687,-2.2798314,0.11527205,0.60073793,-0.7910921,0
-3.0942497,0.88324845,-1.549462,-0.08096236,-0.78806949,-0.61023962,0
3.5178618,-0.047090501,0.25795221,0.99002928,-0.13439213,0.042204857,0
-3.2899065,0.52568895,-1.0617478,-0.08096236,-0.78806949,-0.61023962,0
1.2287288,-2.1541047,2.3354883,-0.11527205,-0.60073793,0.7910921,0
2.6481719,-1.8233033,2.7935219,-0.11527205,-0.60073793,0.7910921,0
-1.8437936,0.9137519,-0.11605501,0.08096236,0.78806949,0.61023962,0
-1.1484895,-1.0963978,0.74892139,-0.08096236,-0.78806949,-0.61023962,0
0.58878493,0.083682299,0.63316655,0.08096236,0.78806949,0.61023962,0
-3.451052,0.55719173,-0.20084763,-0.99002928,0.13439213,-0.042204857,0
-3.6895723,-0.84854388,0.91802979,-0.99002928,0.13439213,-0.042204857,0
-3.7319012,-0.80065811,2.0634348,-0.99002928,0.13439213,-0.042204857,0
1.2146208,1.1371717,-0.81035137,0.08096236,0.78806949,0.61023962,0
-3.5292344,-0.62689507,0.45846224,-0.08096236,-0.78806949,-0.61023962,0
3.7130718,0.7528826,-1.773875,0.99002928,-0.13439213,0.042204857,0
3.5895925,0.10286725,-0.94717503,0.99002928,-0.13439213,0.042204857,0
-2.911062,-1.8261689,1.9252009,-0.08096236,-0.78806949,-0.61023962,0
2.3898573,-1.2740386,0.50888443,-0.08096236,-0.78806949,-0.61023962,0
-0.1345439,1.9605666,-2.3230212,0.11527205,0.60073793,-0.7910921,0
2.7878509,-0.60600972,1.2320842,0.08096236,0.78806949,0.61023962,0
1.0837072,-1.5851481,1.0839452,-0.08096236,-0.78806949,-0.61023962,0
0.43779302,-1.9832051,2.3500171,-0.11527205,-0.60073793,0.7910921,0
2.2239301,-2.104728,2.517997,-0.11527205,-0.60073793,0.7910921,0
0.5433687,0.74897426,-0.21997213,0.08096236,0.78806949,0.61023962,0
3.5560918,-0.062285066,-0.68722224,0.99002928,-0.13439213,0.042204857,0
3.5804102,0.8220799,-2.3560169,-0.08096236,-0.78806949,-0.61023962,0
2.8918688,-2.3660591,2.4168746,-0.11527205,-0.60073793,0.7910921,0
3.4597588,-0.54133028,0.047112703,0.99002928,-0.13439213,0.042204857,0
-3.5598636,0.15916109,1.0841808,-0.99002928,0.13439213,-0.042204857,0
1.1549865,-0.49103862,-0.33845472,-0.08096236,-0.78806949,-0.61023962,0
-0.00877738,1.664838,-2.5292652,0.11527205,0.60073793,-0.7910921,0
-3.3824172,-0.58063769,2.0179479,0.08096236,0.78806949,0.61023962,0
3.6597242,0.5486694,-1.1727433,0.99002928,-0.13439213,0.042204857,0
2.832365,1.1387877,-1.0270696,0.08096236,0.78806949,0.61023962,0
-2.262105,-1.2926331,2.4810145,-0.11527205,-0.60073793,0.7910921,0
3.230144,-1.606286,2.0422096,0.99002928,-0.13439213,0.042204857,0
2.9964323,0.10142887,-1.3478832,-0.08096236,-0.78806949,-0.61023962,0
-3.6485443,-0.45182163,1.2188652,-0.99002928,0.13439213,-0.042204857,0
-2.5582693,1.1938924,-2.0217404,-0.08096236,-0.78806949,-0.61023962,0
0.30087304,-1.4142261,2.6057775,0.08096236,0.78806949,0.61023962,0
-1.6269736,-1.7953663,2.1917963,-0.11527205,-0.60073793,0.7910921,0
3.7454343,1.0979395,-1.4342728,0.99002928,-0.13439213,0.042204857,0
-0.31414533,0.88907188,-1.9258277,-0.08096236,-0.78806949,-0.61023962,0
3.7543952,0.99222332,-1.9810953,0.99002928,-0.13439213,0.042204857,0
3.4173274,-0.83316398,0.11317086,0.99002928,-0.13439213,0.042204857,0
1.0757074,-1.2060595,0.59544837,-0.08096236,-0.78806949,-0.61023962,0
-3.7083111,-0.95580637,1.0160422,-0.99002928,0.13439213,-0.042204857,0
1.1400237,-2.0048261,1.6184498,-0.08096236,-0.78806949,-0.61023962,0
2.5521789,-0.32145989,0.8958813,0.08096236,0.78806949,0.61023962,0
3.5669787,-0.068295956,-0.96173501,0.99002928,-0.13439213,0.042204857,0
3.3270402,-1.2122118,1.0241005,0.99002928,-0.13439213,0.042204857,0
1.6605442,1.603773,-2.3323963,0.11527205,0.60073793,-0.7910921,0
-3.4262161,0.54374266,-0.82625723,-0.99002928,0.13439213,-0.042204857,0
2.6885815,-1.7514046,1.0857269,-0.08096236,-0.78806949,-0.61023962,0
0.061041355,2.2373643,-2.0843279,0.11527205,0.60073793,-0.7910921,0
-2.5655587,0.094501555,-0.60100985,-0.08096236,-0.78806949,-0.61023962,0
3.3701942,1.6509805,-2.0474312,0.11527205,0.60073793,-0.7910921,0
2.0003481,-1.7956877,1.2342246,-0.08096236,-0.78806949,-0.61023962,0
3.2356784,-1.6389543,1.8083644,0.99002928,-0.13439213,0.042204857,0
1.355397,-1.5585533,2.6522563,0.08096236,0.78806949,0.61023962,0
-0.58542907,-0.27715522,1.2549424,0.08096236,0.78806949,0.61023962,0
3.0236144,-0.92362624,1.6109775,0.08096236,0.78806949,0.61023962,0
-1.3708243,-2.0473766,2.0065224,-0.08096236,-0.78806949,-0.61023962,0
-2.6815052,0.12792969,1.0099051,0.08096236,0.78806949,0.61023962,0
-2.9429445,-1.7415004,1.8200893,-0.08096236,-0.78806949,-0.61023962,0
0.86464691,1.0336109,-2.2688811,-0.08096236,-0.78806949,-0.61023962,0
1.4555272,-2.3419976,2.2258544,-0.11527205,-0.60073793,0.7910921,0
3.3961399,-0.85478836,0.54132748,0.99002928,-0.13439213,0.042204857,0
3.8021271,1.3194561,-2.058779,0.99002928,-0.13439213,0.042204857,0
-0.61370605,1.1203487,-0.54605567,0.08096236,0.78806949,0.61023962,0
-3.1660697,-1.4064023,2.2629015,-0.11527205,-0.60073793,0.7910921,0
2.5202386,0.36452699,-1.6244729,-0.08096236,-0.78806949,-0.61023962,0
2.2910786,-0.31103021,0.9170531,0.08096236,0.78806949,0.61023962,0
3.20979,-1.8036344,1.8912561,0.99002928,-0.13439213,0.042204857,0
-0.45984292,-1.4263144,2.6421111,-0.11527205,-0.60073793,0.7910921,0
3.3339477,-1.1754942,0.97898865,0.99002928,-0.13439213,0.042204857,0
3.5067108,-0.22736448,-0.054518223,0.99002928,-0.13439213,0.042204857,0
-3.181633,2.123322,-1.5337884,-0.99002928,0.13439213,-0.042204857,0
-3.5221472,-1.5062693,2.1351802,-0.11527205,-0.60073793,0.7910921,0
3.3937254,-0.79521728,0.78764963,0.99002928,-0.13439213,0.042204857,0
2.8220396,1.6219606,-2.1493411,0.11527205,0.60073793,-0.7910921,0
-3.4169755,-1.3227127,2.2898936,-0.11527205,-0.60073793,0.7910921,0
0.79103303,-1.9513191,2.4257019,-0.11527205,-0.60073793,0.7910921,0
3.1700583,-2.0197933,2.1349587,0.99002928,-0.13439213,0.042204857,0
0.91036963,1.744323,-2.3349752,0.11527205,0.60073793,-0.7910921,0
-3.2097583,1.8875319,-1.624845,-0.99002928,0.13439213,-0.042204857,0
-3.4332507,0.55870116,-0.61360431,-0.99002928,0.13439213,-0.042204857,0
2.5492752,0.18649836,0.24028444,0.08096236,0.78806949,0.61023962,0
3.7621474,1.0675462,-1.9230912,0.99002928,-0.13439213,0.042204857,0
-2.2032814,1.4557221,-2.4069674,-0.08096236,-0.78806949,-0.61023962,0
3.4832149,-0.35798049,0.080728531,0.99002928,-0.13439213,0.042204857,0
-3.822243,-1.5272419,1.8690007,-0.99002928,0.13439213,-0.042204857,0
-0.75398427,1.2207425,-0.65709424,0.08096236,0.78806949,0.61023962,0
-1.4053476,0.68640929,0.11936736,0.08096236,0.78806949,0.61023962,0
-3.2443719,1.5235596,-1.9718795,-0.99002928,0.13439213,-0.042204857,0
2.6068606,-2.0462992,2.6181643,-0.11527205,-0.60073793,0.7910921,0
-0.63460898,2.3212876,-2.121963,0.11527205,0.60073793,-0.7910921,0
-3.2546215,1.4512528,-1.9616933,-0.99002928,0.13439213,-0.042204857,0
3.5581784,-0.12597525,-0.93897223,0.99002928,-0.13439213,0.042204857,0
3.234108,-0.13553415,0.56530142,0.08096236,0.78806949,0.61023962,0
3.7444639,1.0063918,-1.7030244,0.99002928,-0.13439213,0.042204857,0
-3.4821932,0.41214603,0.067795992,-0.99002928,0.13439213,-0.042204857,0
3.7775588,1.0769334,-2.2547183,0.99002928,-0.13439213,0.042204857,0
-2.430418,-1.2587688,2.4822044,-0.11527205,-0.60073793,0.7910921,0
-0.75603056,1.6657323,-2.63747,0.11527205,0.60073793,-0.7910921,0
3.7136898,0.77056152,-1.7320662,0.99002928,-0.13439213,0.042204857,0
1.0046813,-1.0987411,0.46627939,-0.08096236,-0.78806949,-0.61023962,0
-3.7634375,-1.203236,1.521291,-0.99002928,0.13439213,-0.042204857,0
-2.1541128,1.7476776,-2.77896,0.11527205,0.60073793,-0.7910921,0
0.82951927,-2.0577948,2.3504543,-0.11527205,-0.60073793,0.7910921,0
2.0114384,0.52091384,-0.12022638,0.08096236,0.78806949,0.61023962,0
-3.53075,0.1984266,0.52627516,-0.99002928,0.13439213,-0.042204857,0
-1.3620249,-1.0055305,0.65990508,-0.08096236,-0.78806949,-0.61023962,0
-0.28718328,-1.5515268,2.5721858,-0.11527205,-0.60073793,0.7910921,0
-1.2069852,-1.0178472,2.2939427,0.08096236,0.78806949,0.61023962,0
3.5049062,-0.25773513,-0.10889053,0.99002928,-0.13439213,0.042204857,0
3.2285206,-1.5707642,2.1934004,0.99002928,-0.13439213,0.042204857,0
-3.3303213,0.19458699,1.0099039,0.08096236,0.78806949,0.61023962,0
3.6503925,0.66944307,-0.56927061,0.99002928,-0.13439213,0.042204857,0
0.76556504,-1.5467905,1.0766189,-0.08096236,-0.78806949,-0.61023962,0
-2.8361721,2.4420235,-2.3510733,0.11527205,0.60073793,-0.7910921,0
1.3644016,1.5435278,-1.3549956,0.08096236,0.78806949,0.61023962,0
-1.2500682,-1.6451683,2.3607726,-0.11527205,-0.60073793,0.7910921,0
0.27716449,-0.41846043,-0.31571925,-0.08096236,-0.78806949,-0.61023962,0
3.3094635,-1.2715511,1.2474542,0.99002928,-0.13439213,0.042204857,0
3.5650647,-0.10209584,-1.0244701,0.99002928,-0.13439213,0.042204857,0
-3.5131302,0.10970992,-0.16954279,-0.99002928,0.13439213,-0.042204857,0
-0.48488331,-1.7255294,2.4112451,-0.11527205,-0.60073793,0.7910921,0
-3.2416883,1.5369779,-1.9921074,-0.99002928,0.13439213,-0.042204857,0
0.63869143,1.3302187,-2.6219449,-0.08096236,-0.78806949,-0.61023962,0
-3.5181949,0.087924123,-0.12010288,-0.99002928,0.13439213,-0.042204857,0
2.6929417,-2.0625224,1.4869286,-0.08096236,-0.78806949,-0.61023962,0
-0.72320539,0.61969054,0.11502653,0.08096236,0.78806949,0.61023962,0
2.9963636,1.5112443,-2.2080152,0.11527205,0.60073793,-0.7910921,0
0.54774952,-1.0261325,2.071836,0.08096236,0.78806949,0.61023962,0
3.3071966,-1.4457227,0.74602318,0.99002928,-0.13439213,0.042204857,0
-0.71539283,-2.0759845,1.9565084,-0.08096236,-0.78806949,-0.61023962,0
3.4915273,-0.4711051,-0.47448444,0.99002928,-0.13439213,0.042204857,0
-2.9852121,1.9452825,-2.7500045,0.11527205,0.60073793,-0.7910921,0
3.5856407,0.32890409,-0.13471913,0.99002928,-0.13439213,0.042204857,0
0.86867762,1.7164805,-2.3621931,0.11527205,0.60073793,-0.7910921,0
-0.17941833,1.7182308,-2.5135841,0.11527205,0.60073793,-0.7910921,0
-3.5144999,0.06886524,-0.26747584,-0.99002928,0.13439213,-0.042204857,0
-1.4504761,-0.23719949,1.3181117,0.08096236,0.78806949,0.61023962,0
-1.919788,2.1331041,-2.4521317,0.11527205,0.60073793,-0.7910921,0
-3.6243768,-0.48867759,0.53460002,-0.99002928,0.13439213,-0.042204857,0
3.2139363,-1.9008301,1.4845001,0.99002928,-0.13439213,0.042204857,0
-3.6253223,-0.27285695,1.2440026,-0.99002928,0.13439213,-0.042204857,0
-2.337851,1.1132452,-1.9468356,-0.08096236,-0.78806949,-0.61023962,0
3.5609865,0.023225904,-0.52974224,0.99002928,-0.13439213,0.042204857,0
-2.8983335,2.3053932,-1.7733243,0.08096236,0.78806949,0.61023962,0
1.9269779,1.4984617,-2.3735447,0.11527205,0.60073793,-0.7910921,0
-1.3178446,2.3784864,-2.1780834,0.11527205,0.60073793,-0.7910921,0
3.1510499,-2.282876,1.7431239,0.99002928,-0.13439213,0.042204857,0
3.3890209,-0.84893149,0.7269671,0.99002928,-0.13439213,0.042204857,0
-2.7606001,-0.86511225,2.3028224,0.08096236,0.78806949,0.61023962,0
-3.2863107,1.2321242,-1.9161097,-0.99002928,0.13439213,-0.042204857,0
1.8766072,1.2896006,-2.5394888,0.11527205,0.60073793,-0.7910921,0
2.7780817,-0.60625315,-0.40500641,-0.08096236,-0.78806949,-0.61023962,0
-3.1347358,2.2793841,-2.1369319,-0.99002928,0.13439213,-0.042204857,0
-0.69039321,1.7996111,-2.5262411,0.11527205,0.60073793,-0.7910921,0
2.8394067,-2.5414238,2.2760623,-0.11527205,-0.60073793,0.7910921,0
-3.6351652,-1.3678193,2.2238479,-0.11527205,-0.60073793,0.7910921,0
3.2929649,1.6543258,-1.7539494,0.08096236,0.78806949,0.61023962,0
3.2047322,-1.8416135,1.8889656,0.99002928,-0.13439213,0.042204857,0
-0.4228723,-1.7350955,1.4774717,-0.08096236,-0.78806949,-0.61023962,0
0.97286075,-1.3960316,0.85442507,-0.08096236,-0.78806949,-0.61023962,0
0.70562077,1.8151352,-2.3110361,0.11527205,0.60073793,-0.7910921,0
-3.3289371,1.3612515,-0.50502205,-0.99002928,0.13439213,-0.042204857,0
3.5455947,0.11196962,0.11389446,0.99002928,-0.13439213,0.042204857,0
1.9117367,1.0904108,-2.481154,-0.08096236,-0.78806949,-0.61023962,0
1.1544654,1.5698999,-2.4318607,0.11527205,0.60073793,-0.7910921,0
-3.0959997,2.5280774,-2.2536795,-0.99002928,0.13439213,-0.042204857,0
-2.618314,-1.5895329,2.2036512,-0.11527205,-0.60073793,0.7910921,0
-2.9102077,1.8641663,-1.2019444,0.08096236,0.78806949,0.61023962,0
3.0552073,0.10034049,-1.3542757,-0.08096236,-0.78806949,-0.61023962,0
0.73887706,-1.8972454,2.4591644,-0.11527205,-0.60073793,0.7910921,0
3.4432251,-0.43004224,0.78931785,0.99002928,-0.13439213,0.042204857,0
-0.76101828,-1.7080057,2.384316,-0.11527205,-0.60073793,0.7910921,0
2.7491183,0.23912776,-1.492897,-0.08096236,-0.78806949,-0.61023962,0
-3.3328471,1.0123641,-1.5242547,-0.99002928,0.13439213,-0.042204857,0
0.71862793,1.6320944,-2.4481382,0.11527205,0.60073793,-0.7910921,0
-3.1255894,2.2160246,-2.5532346,-0.99002928,0.13439213,-0.042204857,0
-2.0612891,1.1266947,-0.36219525,0.08096236,0.78806949,0.61023962,0
-0.88954568,-0.94425362,0.51808619,-0.08096236,-0.78806949,-0.61023962,0
1.0532998,0.18267098,0.443703,0.08096236,0.78806949,0.61023962,0
-3.6681561,-0.43508697,1.7322092,-0.99002928,0.13439213,-0.042204857,0
0.76210618,-2.2198312,2.2175846,-0.11527205,-0.60073793,0.7910921,0
3.5809302,0.27370995,-0.19997883,0.99002928,-0.13439213,0.042204857,0
-3.746587,-0.9390316,1.9673212,-0.99002928,0.13439213,-0.042204857,0
-3.4933023,0.28514069,-0.076036215,-0.99002928,0.13439213,-0.042204857,0
-3.6984529,-0.65569144,1.740438,-0.99002928,0.13439213,-0.042204857,0
-2.0655477,-1.8263006,2.1043994,-0.11527205,-0.60073793,0.7910921,0
1.2456319,1.3508104,-2.5849481,0.11527205,0.60073793,-0.7910921,0
-0.91279888,2.2325156,-2.2299101,0.11527205,0.60073793,-0.7910921,0
1.9741237,-2.1042864,2.4819326,-0.11527205,-0.60073793,0.7910921,0
-3.627821,-0.44243473,0.76263857,-0.99002928,0.13439213,-0.042204857,0
0.41674781,1.7119358,-2.4314959,0.11527205,0.60073793,-0.7910921,0
2.6897752,-0.20883553,0.73218155,0.08096236,0.78806949,0.61023962,0
1.8930094,-1.5961838,2.6295257,0.08096236,0.78806949,0.61023962,0
-1.4151816,-1.4570823,2.4795418,-0.11527205,-0.60073793,0.7910921,0
-1.665676,2.1299808,-2.4174759,0.11527205,0.60073793,-0.7910921,0
-3.1981153,2.0333965,-1.4334936,-0.99002928,0.13439213,-0.042204857,0
3.4203362,1.4080888,-2.2245712,0.11527205,0.60073793,-0.7910921,0
-3.0001533,-1.6848638,1.7545381,-0.08096236,-0.78806949,-0.61023962,0
0.515962,-0.92735058,1.9484856,0.08096236,0.78806949,0.61023962,0
-1.2183901,0.24606252,-0.97547036,-0.08096236,-0.78806949,-0.61023962,0
2.5119138,-2.5763006,2.201858,-0.11527205,-0.60073793,0.7910921,0
3.6322966,0.40689838,-0.980793,0.99002928,-0.13439213,0.042204857,0
0.014052153,1.7246242,-2.4805384,0.11527205,0.60073793,-0.7910921,0
-3.4052219,0.7078684,-0.79611111,-0.99002928,0.13439213,-0.042204857,0
-2.2010379,1.9639816,-2.6215408,0.11527205,0.60073793,-0.7910921,0
-1.2774618,0.42133272,-1.1939788,-0.08096236,-0.78806949,-0.61023962,0
2.0897045,0.51777393,-1.7652568,-0.08096236,-0.78806949,-0.61023962,0
1.5418495,-0.40242624,1.1344856,0.08096236,0.78806949,0.61023962,0
0.48957422,-0.31742579,-0.47437748,-0.08096236,-0.78806949,-0.61023962,0
3.3888321,1.441103,-1.4913104,0.08096236,0.78806949,0.61023962,0
3.3050945,1.4763174,-2.1895521,0.11527205,0.60073793,-0.7910921,0
-2.4994106,-1.2922729,2.4467089,-0.11527205,-0.60073793,0.7910921,0
-3.7962756,-1.3798437,1.7292256,-0.99002928,0.13439213,-0.042204857,0
3.511435,-0.12972629,0.14556956,0.99002928,-0.13439213,0.042204857,0
3.5433288,-0.23087215,-0.92464733,0.99002928,-0.13439213,0.042204857,0
3.5444806,0.022297502,-0.14551234,0.99002928,-0.13439213,0.042204857,0
-0.25325149,0.36331362,0.3837637,0.08096236,0.78806949,0.61023962,0
3.4467864,-0.42661041,0.71671414,0.99002928,-0.13439213,0.042204857,0
0.1862824,-2.0674181,2.2494195,-0.11527205,-0.60073793,0.7910921,0
1.2333724,0.17833976,0.42540562,0.08096236,0.78806949,0.61023962,0
3.4268334,-0.51555741,0.90152693,0.99002928,-0.13439213,0.042204857,0
-1.4602776,-0.61833578,0.17291367,-0.08096236,-0.78806949,-0.61023962,0
-1.531013,1.270417,-2.2568545,-0.08096236,-0.78806949,-0.61023962,0
1.8080349,1.8166255,-1.7665342,0.08096236,0.78806949,0.61023962,0
-3.5269251,-1.5301546,2.1163461,-0.11527205,-0.60073793,0.7910921,0
-0.66474199,-1.7466166,2.3690243,-0.11527205,-0.60073793,0.7910921,0
3.6170969,1.299579,-2.2783012,0.11527205,0.60073793,-0.7910921,0
3.505142,-0.27777183,-0.17822814,0.99002928,-0.13439213,0.042204857,0
-3.1249242,2.3217824,-2.2320833,-0.99002928,0.13439213,-0.042204857,0
1.7568126,-1.8495603,2.6437011,-0.11527205,-0.60073793,0.7910921,0
-0.49186999,1.1561588,-0.60846567,0.08096236,0.78806949,0.61023962,0
-3.3228197,1.3885961,-0.56144619,-0.99002928,0.13439213,-0.042204857,0
-2.2799203,2.0993874,-2.5302112,0.11527205,0.60073793,-0.7910921,0
-2.6269267,-1.6020865,2.1928635,-0.11527205,-0.60073793,0.7910921,0
-3.7920146,-1.3696684,1.6616745,-0.99002928,0.13439213,-0.042204857,0
-0.72959828,1.6805109,-1.2540784,0.08096236,0.78806949,0.61023962,0
-3.6493323,-0.64728242,0.61496139,-0.99002928,0.13439213,-0.042204857,0
-1.2828262,-1.843709,2.2052321,-0.11527205,-0.60073793,0.7910921,0
-0.36989164,1.6388807,-2.6015952,0.11527205,0.60073793,-0.7910921,0
0.36349034,-1.9148594,2.3910904,-0.11527205,-0.60073793,0.7910921,0
3.1626925,-2.1987071,1.7380353,0.99002928,-0.13439213,0.042204857,0
-1.2567153,2.1513536,-2.3416557,0.11527205,0.60073793,-0.7910921,0
-3.2080693,1.6850424,-2.3092484,-0.99002928,0.13439213,-0.042204857,0
0.22722197,2.1482718,-2.1277683,0.11527205,0.60073793,-0.7910921,0
-0.88865221,-1.3731114,1.0717986,-0.08096236,-0.78806949,-0.61023962,0
-3.5053782,0.22841811,0.026619196,-0.99002928,0.13439213,-0.042204857,0
-1.5775192,-1.1243994,0.84200382,-0.08096236,-0.78806949,-0.61023962,0
-3.7250836,-0.70681417,2.2023294,-0.99002928,0.13439213,-0.042204857,0
2.2938066,-0.48654389,1.1433512,0.08096236,0.78806949,0.61023962,0
-1.1159459,-0.85258466,0.4297415,-0.08096236,-0.78806949,-0.61023962,0
-1.3867414,2.0602124,-2.4298124,0.11527205,0.60073793,-0.7910921,0
3.3309569,-1.200578,0.96927166,0.99002928,-0.13439213,0.042204857,0
-3.7654059,-1.1581496,1.7110326,-0.99002928,0.13439213,-0.042204857,0
1.4783577,-1.8626707,2.5931711,-0.11527205,-0.60073793,0.7910921,0
0.23038256,-0.70456171,1.6986628,0.08096236,0.78806949,0.61023962,0
-2.565876,1.107146,-1.9087064,-0.08096236,-0.78806949,-0.61023962,0
2.1011958,-2.4863479,2.2103193,-0.11527205,-0.60073793,0.7910921,0
1.9707396,-0.32823229,0.98176849,0.08096236,0.78806949,0.61023962,0
-0.040260315,1.7142422,-2.4963362,0.11527205,0.60073793,-0.7910921,0
-3.1758442,2.120698,-1.6779295,-0.99002928,0.13439213,-0.042204857,0
0.24308467,-1.6279014,2.5914555,-0.11527205,-0.60073793,0.7910921,0
-1.252774,2.2971094,-2.2303977,0.11527205,0.60073793,-0.7910921,0
-2.5603371,-1.4132867,2.3459368,-0.11527205,-0.60073793,0.7910921,0
-0.72485876,-1.7249705,2.3767018,-0.11527205,-0.60073793,0.7910921,0
-1.4667507,2.3588943,-2.0323491,0.08096236,0.78806949,0.61023962,0
-0.91961432,-2.0775867,1.985672,-0.08096236,-0.78806949,-0.61023962,0
-0.94065571,0.38486058,0.44713801,0.08096236,0.78806949,0.61023962,0
-3.4305358,0.47231084,-0.95238566,-0.99002928,0.13439213,-0.042204857,0
1.4904995,1.8367937,-2.180223,0.11527205,0.60073793,-0.7910921,0
1.6416723,-2.368479,2.0215189,-0.08096236,-0.78806949,-0.61023962,0
2.959847,-1.8858788,2.7914183,-0.11527205,-0.60073793,0.7910921,0
-3.3404481,1.2577153,-0.5646894,-0.99002928,0.13439213,-0.042204857,0
-0.23459196,-1.6330721,2.5179255,-0.11527205,-0.60073793,0.7910921,0
3.1851327,-2.1055682,1.5082215,0.99002928,-0.13439213,0.042204857,0
-3.7501941,-1.0907898,2.4174569,-0.11527205,-0.60073793,0.7910921,0
-3.2171981,1.581957,-2.4233541,-0.99002928,0.13439213,-0.042204857,0
0.54364324,1.8637615,-1.6596553,0.08096236,0.78806949,0.61023962,0
2.5928383,-2.3883367,1.9209695,-0.08096236,-0.78806949,-0.61023962,0
-1.8348671,2.0247159,-2.5220652,0.11527205,0.60073793,-0.7910921,0
-2.7273698,-1.6289585,2.1578209,-0.11527205,-0.60073793,0.7910921,0
-2.3799491,-1.5310844,1.4736617,-0.08096236,-0.78806949,-0.61023962,0
-3.5949945,-0.23053157,0.66737676,-0.99002928,0.13439213,-0.042204857,0
2.200815,-0.75807655,1.5063486,0.08096236,0.78806949,0.61023962,0
-3.8005066,-1.3447239,1.9403038,-0.99002928,0.13439213,-0.042204857,0
2.9083784,1.3427618,-2.3487775,0.11527205,0.60073793,-0.7910921,0
-3.5371332,-0.071718276,-0.18420219,-0.99002928,0.13439213,-0.042204857,0
-3.4978118,-1.3442627,1.3807092,-0.08096236,-0.78806949,-0.61023962,0
3.6799054,1.2864282,-2.2791355,0.11527205,0.60073793,-0.7910921,0
-3.3058357,1.273284,-1.3270354,-0.99002928,0.13439213,-0.042204857,0
-1.3136266,1.9432365,-2.5079875,0.11527205,0.60073793,-0.7910921,0
3.3272872,-1.0623122,1.4956239,0.99002928,-0.13439213,0.042204857,0
2.6411419,1.2145572,-2.4850731,0.11527205,0.60073793,-0.7910921,0
0.15616274,-1.5309536,2.6524098,-0.11527205,-0.60073793,0.7910921,0
0.034792781,-0.78255731,1.8253365,0.08096236,0.78806949,0.61023962,0
-2.6320071,-1.5258613,2.2500067,-0.11527205,-0.60073793,0.7910921,0
1.7330368,1.0081017,-0.71244895,0.08096236,0.78806949,0.61023962,0
0.34773779,-2.2727518,2.0695667,-0.08096236,-0.78806949,-0.61023962,0
-1.9716468,1.6037647,-0.99018085,0.08096236,0.78806949,0.61023962,0
-0.026114702,1.9135044,-2.3429596,0.11527205,0.60073793,-0.7910921,0
-3.6275656,-0.21185875,1.4908738,-0.99002928,0.13439213,-0.042204857,0
-3.3569255,0.92777073,-1.2288005,-0.99002928,0.13439213,-0.042204857,0
0.63448024,-1.5624243,2.6982083,-0.11527205,-0.60073793,0.7910921,0
1.5461934,0.046513319,-1.0845568,-0.08096236,-0.78806949,-0.61023962,0
3.4994948,-0.30197424,-0.12282538,0.99002928,-0.13439213,0.042204857,0
3.6696362,0.75220686,-0.75712895,0.99002928,-0.13439213,0.042204857,0
3.1780436,-1.909245,2.2996588,0.99002928,-0.13439213,0.042204857,0
-1.1309115,0.30318397,0.57785785,0.08096236,0.78806949,0.61023962,0
0.72385895,0.45918268,-1.5083802,-0.08096236,-0.78806949,-0.61023962,0
-3.0933876,1.9518924,-2.7607474,0.11527205,0.60073793,-0.7910921,0
3.6993635,0.64215279,-1.8048959,0.99002928,-0.13439213,0.042204857,0
-2.8566241,-0.44875854,0.13917804,-0.08096236,-0.78806949,-0.61023962,0
-2.1382542,2.3273814,-2.3364348,0.11527205,0.60073793,-0.7910921,0
-0.47819877,-1.2466649,0.85404801,-0.08096236,-0.78806949,-0.61023962,0
3.2273743,-1.8587639,1.3032242,0.99002928,-0.13439213,0.042204857,0
-2.2929776,0.36959463,-0.99243188,-0.08096236,-0.78806949,-0.61023962,0
3.7557442,1.1922503,-1.3758168,0.99002928,-0.13439213,0.042204857,0
3.383112,-0.95752347,0.51979637,0.99002928,-0.13439213,0.042204857,0
2.6419358,-1.4128994,0.65476656,-0.08096236,-0.78806949,-0.61023962,0
2.4009004,1.1724181,-2.5520785,0.11527205,0.60073793,-0.7910921,0
-3.6011088,-0.39524955,0.28629446,-0.99002928,0.13439213,-0.042204857,0
0.67572713,1.8334787,-2.3014624,0.11527205,0.60073793,-0.7910921,0
-3.8040605,-1.4100659,1.8156087,-0.99002928,0.13439213,-0.042204857,0
0.61062133,0.85462451,-2.004034,-0.08096236,-0.78806949,-0.61023962,0
-1.3213272,-1.2978665,2.6141229,-0.11527205,-0.60073793,0.7910921,0
1.6619198,0.32104859,0.18425322,0.08096236,0.78806949,0.61023962,0
2.0916719,-2.4990871,2.1992576,-0.11527205,-0.60073793,0.7910921,0
3.2612634,-1.5167392,1.597367,0.99002928,-0.13439213,0.042204857,0
-2.924433,-1.8351793,1.9725077,-0.11527205,-0.60073793,0.7910921,0
-3.0899878,-0.080747843,1.3335879,0.08096236,0.78806949,0.61023962,0
1.5478839,0.13163805,0.4439894,0.08096236,0.78806949,0.61023962,0
-2.2269506,2.4840159,-2.2304142,0.11527205,0.60073793,-0.7910921,0
-3.0652537,-0.13644779,1.4022377,0.08096236,0.78806949,0.61023962,0
-3.4904342,0.44233239,0.35721469,-0.99002928,0.13439213,-0.042204857,0
-2.0068707,-1.3984168,1.2528358,-0.08096236,-0.78806949,-0.61023962,0
-3.154264,2.013123,-2.5266936,-0.99002928,0.13439213,-0.042204857,0
-3.3893156,0.80352336,-0.86464739,-0.99002928,0.13439213,-0.042204857,0
-0.47320139,-1.4867756,1.1634662,-0.08096236,-0.78806949,-0.61023962,0
-0.68860769,-1.8428276,1.6518538,-0.08096236,-0.78806949,-0.61023962,0
-3.7336626,-0.81617236,2.0553527,-0.99002928,0.13439213,-0.042204857,0
1.7603066,1.4224046,-2.4555862,0.11527205,0.60073793,-0.7910921,0
3.4595976,-0.60548091,-0.15337968,0.99002928,-0.13439213,0.042204857,0
0.11346483,-1.3740418,0.94004601,-0.08096236,-0.78806949,-0.61023962,0
-3.6803927,-0.51172996,1.7751849,-0.99002928,0.13439213,-0.042204857,0
3.5447662,1.3595544,-2.2432959,0.11527205,0.60073793,-0.7910921,0
3.3257565,-0.92075658,-0.07151556,-0.08096236,-0.78806949,-0.61023962,0
-0.77374494,1.4025296,-0.88923401,0.08096236,0.78806949,0.61023962,0
-3.6822224,-0.54018164,1.7275031,-0.99002928,0.13439213,-0.042204857,0
-2.5618219,1.8737127,-2.7426598,0.11527205,0.60073793,-0.7910921,0
3.7884638,1.3943696,-1.4997256,0.99002928,-0.13439213,0.042204857,0
-3.3796642,0.82606262,-1.0192747,-0.99002928,0.13439213,-0.042204857,0
3.6090174,0.38268003,-0.51183224,0.99002928,-0.13439213,0.042204857,0
2.9721646,-2.1933208,2.5597484,-0.11527205,-0.60073793,0.7910921,0
3.3659506,-1.109352,0.43888855,0.99002928,-0.13439213,0.042204857,0
-1.4642928,-2.0489316,2.022949,-0.11527205,-0.60073793,0.7910921,0
2.37779,-1.2542322,0.48490739,-0.08096236,-0.78806949,-0.61023962,0
-2.9351504,-1.0499961,2.5647416,0.08096236,0.78806949,0.61023962,0
2.9713206,-1.87242,2.8033104,-0.11527205,-0.60073793,0.7910921,0
2.9610116,1.4331194,-2.2724926,0.11527205,0.60073793,-0.7910921,0
3.3083682,0.10249978,0.24804974,0.08096236,0.78806949,0.61023962,0
-3.5133314,0.28666306,0.39864087,-0.99002928,0.13439213,-0.042204857,0
3.5016992,-0.33095729,-0.26682091,0.99002928,-0.13439213,0.042204857,0
-2.6638556,2.3859222,-1.9084289,0.08096236,0.78806949,0.61023962,0
0.85487103,-1.756448,2.5829844,-0.11527205,-0.60073793,0.7910921,0
1.1874163,0.10965261,0.52020597,0.08096236,0.78806949,0.61023962,0
-0.97520065,1.7477616,-2.6071143,0.11527205,0.60073793,-0.7910921,0
3.7998576,1.3428572,-1.9310234,0.99002928,-0.13439213,0.042204857,0
-1.2693114,-0.75092316,0.31880224,-0.08096236,-0.78806949,-0.61023962,0
2.1175127,-2.0685968,2.5299277,-0.11527205,-0.60073793,0.7910921,0
-0.92945242,2.15643,-2.2901144,0.11527205,0.60073793,-0.7910921,0
2.4878197,-1.9003403,2.7116563,-0.11527205,-0.60073793,0.7910921,0
-0.81564379,1.7568207,-2.5769858,0.11527205,0.60073793,-0.7910921,0
-0.81997693,-0.60400355,0.069454074,-0.08096236,-0.78806949,-0.61023962,0
0.96659875,-0.1407758,-0.76579338,-0.08096236,-0.78806949,-0.61023962,0
-1.9065492,2.4774241,-2.1887336,0.11527205,0.60073793,-0.7910921,0
2.8954458,-1.8627584,2.7995915,-0.11527205,-0.60073793,0.7910921,0
-3.7649302,-1.2788321,1.3316507,-0.08096236,-0.78806949,-0.61023962,0
-3.7167468,-0.89295089,1.4140723,-0.99002928,0.13439213,-0.042204857,0
-3.234107,-0.24007738,1.5584686,0.08096236,0.78806949,0.61023962,0
3.4002872,-0.74589348,0.7907865,0.99002928,-0.13439213,0.042204857,0
-0.090856016,0.77050889,-0.16363755,0.08096236,0.78806949,0.61023962,0
3.4820011,-0.28179806,0.35178924,0.99002928,-0.13439213,0.042204857,0
-3.3191018,1.1174277,-1.5121318,-0.99002928,0.13439213,-0.042204857,0
3.7910168,1.3359793,-1.7455516,0.99002928,-0.13439213,0.042204857,0
-2.1300406,-1.5953326,2.2703943,-0.11527205,-0.60073793,0.7910921,0
-3.5805922,-0.046631813,0.91512251,-0.99002928,0.13439213,-0.042204857,0
-2.7841666,-1.1970075,2.4775593,-0.11527205,-0.60073793,0.7910921,0
-3.8036902,-1.4740915,1.6030436,-0.99002928,0.13439213,-0.042204857,0
-3.1726592,1.8907965,-2.4847066,-0.99002928,0.13439213,-0.042204857,0
-0.41800356,1.4675386,-2.6590858,-0.08096236,-0.78806949,-0.61023962,0
2.4397593,1.6855333,-2.1567683,0.11527205,0.60073793,-0.7910921,0
-0.98690772,2.0032675,-2.4147947,0.11527205,0.60073793,-0.7910921,0
-3.8120759,-1.35981,2.1636529,-0.99002928,0.13439213,-0.042204857,0
3.1711655,-2.0473137,2.0213537,0.99002928,-0.13439213,0.042204857,0
3.5188148,-0.068662405,0.16689944,0.99002928,-0.13439213,0.042204857,0
2.1851435,-1.8913387,2.6743886,-0.11527205,-0.60073793,0.7910921,0
-3.5494313,-0.46492279,1.890671,0.08096236,0.78806949,0.61023962,0
3.1292596,-0.19748364,0.65921378,0.08096236,0.78806949,0.61023962,0
3.7419579,1.0448968,-2.4535065,0.11527205,0.60073793,-0.7910921,0
-3.3,0.96685946,-1.6301402,-0.08096236,-0.78806949,-0.61023962,0
-1.1110665,1.6304471,-2.7159975,0.11527205,0.60073793,-0.7910921,0
2.1572392,1.4209828,-1.301928,0.08096236,0.78806949,0.61023962,0
1.8382864,-0.043359295,0.63145387,0.08096236,0.78806949,0.61023962,0
1.0673859,-0.74690741,1.6423004,0.08096236,0.78806949,0.61023962,0
-2.3486311,1.0481145,-1.8612952,-0.08096236,-0.78806949,-0.61023962,0
3.2296045,-1.6310463,1.9760194,0.99002928,-0.13439213,0.042204857,0
3.2854176,-1.2903923,1.7515161,0.99002928,-0.13439213,0.042204857,0
-3.7439311,-1.0664556,1.4992635,-0.99002928,0.13439213,-0.042204857,0
0.9989357,1.3562567,-2.6167588,0.11527205,0.60073793,-0.7910921,0
2.0632129,-2.3697233,2.2933469,-0.11527205,-0.60073793,0.7910921,0
1.8637242,-1.743745,2.7396331,-0.11527205,-0.60073793,0.7910921,0
-3.2266955,1.5450547,-2.3180752,-0.99002928,0.13439213,-0.042204857,0
-3.4377694,0.60897368,-0.34752917,-0.99002928,0.13439213,-0.042204857,0
-1.8514462,-1.4993531,2.3838735,-0.11527205,-0.60073793,0.7910921,0
-0.49498653,-1.8761302,1.6691728,-0.08096236,-0.78806949,-0.61023962,0
-3.5387588,0.14587438,0.54679775,-0.99002928,0.13439213,-0.042204857,0
-2.2789083,1.8368418,-1.2504139,0.08096236,0.78806949,0.61023962,0
3.3090377,-1.1047558,1.7885633,0.99002928,-0.13439213,0.042204857,0
3.5372028,1.5119853,-2.1286461,0.11527205,0.60073793,-0.7910921,0
1.5934896,-1.124624,2.0602872,0.08096236,0.78806949,0.61023962,0
2.2700779,0.49415389,-0.11998272,0.08096236,0.78806949,0.61023962,0
3.6227808,0.20032942,-1.4153392,0.99002928,-0.13439213,0.042204857,0
3.2497742,-1.5455979,1.7749788,0.99002928,-0.13439213,0.042204857,0
1.8937613,0.47660089,-1.6860889,-0.08096236,-0.78806949,-0.61023962,0
-3.2959757,1.2910094,-1.5018847,-0.99002928,0.13439213,-0.042204857,0
-3.3894091,0.94120961,-0.42402053,-0.99002928,0.13439213,-0.042204857,0
-3.7489307,-1.0038273,1.8159597,-0.99002928,0.13439213,-0.042204857,0
-1.9520149,-1.6569169,2.2495687,-0.11527205,-0.60073793,0.7910921,0
3.1128395,-2.3392627,2.459898,0.99002928,-0.13439213,0.042204857,0
-3.118849,2.2953722,-2.4586821,-0.99002928,0.13439213,-0.042204857,0
-3.7441487,-1.1065536,1.3766749,-0.99002928,0.13439213,-0.042204857,0
-3.0420771,0.67884076,0.34629154,0.08096236,0.78806949,0.61023962,0
2.8595202,0.44663179,-1.7755172,-0.08096236,-0.78806949,-0.61023962,0
3.6327972,0.55780822,-0.51201367,0.99002928,-0.13439213,0.042204857,0
3.3218822,-1.1489444,1.3465521,0.99002928,-0.13439213,0.042204857,0
1.2361686,-2.1182349,2.363811,-0.11527205,-0.60073793,0.7910921,0
-3.7273579,-0.94825721,1.4868777,-0.99002928,0.13439213,-0.042204857,0
-1.708172,0.81856769,-1.649828,-0.08096236,-0.78806949,-0.61023962,0
-1.5243503,1.963922,-2.5229847,0.11527205,0.60073793,-0.7910921,0
-2.2024758,-1.9143509,2.0175843,-0.11527205,-0.60073793,0.7910921,0
-2.3788297,2.5272157,-2.2197399,0.11527205,0.60073793,-0.7910921,0
0.67293453,-1.415978,2.5586774,0.08096236,0.78806949,0.61023962,0
1.9473538,-0.93498683,1.7684398,0.08096236,0.78806949,0.61023962,0
-3.0816948,-1.8178144,1.9627788,-0.11527205,-0.60073793,0.7910921,0
2.6649504,1.1455997,-2.5339687,0.11527205,0.60073793,-0.7910921,0
-0.21821882,0.29170251,0.47159508,0.08096236,0.78806949,0.61023962,0
-1.1018827,0.77837604,-0.039660931,0.08096236,0.78806949,0.61023962,0
0.059648037,-2.1171763,2.1931818,-0.11527205,-0.60073793,0.7910921,0
3.5037472,-0.15094715,0.25833154,0.99002928,-0.13439213,0.042204857,0
-2.7394009,-0.87378591,0.67250991,-0.08096236,-0.78806949,-0.61023962,0
-1.8034011,2.1581314,-2.4161675,0.11527205,0.60073793,-0.7910921,0
-2.0802155,1.7754166,-2.7471278,0.11527205,0.60073793,-0.7910921,0
3.0189798,-0.92200208,-0.029206276,-0.08096236,-0.78806949,-0.61023962,0
3.3577423,1.7914093,-1.9395747,0.08096236,0.78806949,0.61023962,0
-3.5279133,0.012482643,-0.1323595,-0.99002928,0.13439213,-0.042204857,0
-0.71647716,0.02120316,-0.75167531,-0.08096236,-0.78806949,-0.61023962,0
2.6813095,1.863457,-1.9428732,0.08096236,0.78806949,0.61023962,0
1.227056,0.39296472,-1.4896264,-0.08096236,-0.78806949,-0.61023962,0
-3.5799665,0.0039753914,1.0615995,-0.99002928,0.13439213,-0.042204857,0
3.4993002,-0.42676377,-0.51562929,0.99002928,-0.13439213,0.042204857,0
-1.4063123,0.36795223,-1.1079476,-0.08096236,-0.78806949,-0.61023962,0
-3.362103,1.1048975,-0.5433321,-0.99002928,0.13439213,-0.042204857,0
1.5160062,-1.7020433,2.720634,-0.11527205,-0.60073793,0.7910921,0
1.7617943,-0.78071195,-0.044874907,-0.08096236,-0.78806949,-0.61023962,0
-1.6119602,-1.3341594,2.5442142,-0.11527205,-0.60073793,0.7910921,0
1.4808779,-0.82212466,0.045876026,-0.08096236,-0.78806949,-0.61023962,0
3.476213,-0.4971385,-0.19814372,0.99002928,-0.13439213,0.042204857,0
3.1846113,-0.70879424,1.3121815,0.08096236,0.78806949,0.61023962,0
0.90589595,-1.9489782,2.4442163,-0.11527205,-0.60073793,0.7910921,0
-3.3880901,1.0226429,-0.19565868,-0.99002928,0.13439213,-0.042204857,0
-0.45655185,0.32773608,0.45668149,0.08096236,0.78806949,0.61023962,0
3.2153144,-1.8871834,1.4956284,0.99002928,-0.13439213,0.042204857,0
2.2549708,-1.9696528,2.625093,-0.11527205,-0.60073793,0.7910921,0
-0.68409789,-0.082957447,1.0172441,0.08096236,0.78806949,0.61023962,0
-0.087733984,-2.1340761,1.9482553,-0.08096236,-0.78806949,-0.61023962,0
-2.3960235,2.4577117,-2.2750249,0.11527205,0.60073793,-0.7910921,0
0.032611132,-2.0233045,2.2605264,-0.11527205,-0.60073793,0.7910921,0
-2.1170125,-1.2510144,2.5337601,-0.11527205,-0.60073793,0.7910921,0
1.7325824,1.396666,-1.2141843,0.08096236,0.78806949,0.61023962,0
-3.3407073,1.247602,-0.59081316,-0.99002928,0.13439213,-0.042204857,0
0.93541002,-1.9151009,2.4742427,-0.11527205,-0.60073793,0.7910921,0
-0.17152989,-1.3867095,0.99421632,-0.08096236,-0.78806949,-0.61023962,0
-3.3877616,0.77234983,-1.0003617,-0.99002928,0.13439213,-0.042204857,0
-0.5729171,-0.26971895,1.243679,0.08096236,0.78806949,0.61023962,0
-0.84146225,-0.6401667,1.7577074,0.08096236,0.78806949,0.61023962,0
3.6443868,0.44590092,-1.1401896,0.99002928,-0.13439213,0.042204857,0
-1.530206,1.0380803,-0.31821847,0.08096236,0.78806949,0.61023962,0
-3.2910657,1.4239274,-1.1938171,-0.99002928,0.13439213,-0.042204857,0
0.58124614,1.7447171,-1.5109091,0.08096236,0.78806949,0.61023962,0
3.1127343,1.3092408,-2.3444557,0.11527205,0.60073793,-0.7910921,0
3.6407008,0.50897968,-0.85287786,0.99002928,-0.13439213,0.042204857,0
-2.6210852,1.4273715,-0.67622221,0.08096236,0.78806949,0.61023962,0
-3.2428956,1.6453604,-1.6186689,-0.99002928,0.13439213,-0.042204857,0
3.2007146,-1.722147,2.3636177,0.99002928,-0.13439213,0.042204857,0
-3.2069304,1.6445959,-2.4647493,-0.99002928,0.13439213,-0.042204857,0
-2.4274917,-1.7287394,2.1257458,-0.11527205,-0.60073793,0.7910921,0
3.4224215,-0.72435701,0.34014487,0.99002928,-0.13439213,0.042204857,0
2.7352509,1.1593202,-2.5133059,0.11527205,0.60073793,-0.7910921,0
3.2687178,0.0092861056,0.37368727,0.08096236,0.78806949,0.61023962,0
-3.6700859,-0.63863575,1.1293223,-0.99002928,0.13439213,-0.042204857,0
2.2951531,-1.9441476,2.6503165,-0.11527205,-0.60073793,0.7910921,0
-1.9671086,1.189574,-0.45589375,0.08096236,0.78806949,0.61023962,0
-1.1321838,-1.2831525,2.6266365,0.08096236,0.78806949,0.61023962,0
-1.7043934,-1.5463436,2.3696179,-0.11527205,-0.60073793,0.7910921,0
-0.50146055,2.1119819,-2.2615037,0.11527205,0.60073793,-0.7910921,0
-3.4397156,0.73573411,0.10175848,-0.99002928,0.13439213,-0.042204857,0
1.4798167,0.92081368,-0.56612885,0.08096236,0.78806949,0.61023962,0
3.5511942,-0.053502679,-0.54436588,0.99002928,-0.13439213,0.042204857,0
-3.1296306,-0.28068244,1.5970452,0.08096236,0.78806949,0.61023962,0
2.3177993,-0.92044264,1.7005091,0.08096236,0.78806949,0.61023962,0
-3.2356651,-1.5264717,2.1615827,-0.11527205,-0.60073793,0.7910921,0
3.231461,-1.6672245,1.8172716,0.99002928,-0.13439213,0.042204857,0
-0.12809753,1.7451251,-1.4173249,0.08096236,0.78806949,0.61023962,0
-3.7638628,-1.2149115,1.4940846,-0.99002928,0.13439213,-0.042204857,0
-2.4039454,1.9384103,-2.6705253,0.11527205,0.60073793,-0.7910921,0
-3.5918624,-0.23143393,0.59102798,-0.99002928,0.13439213,-0.042204857,0
2.7618647,-0.88591099,1.5969988,0.08096236,0.78806949,0.61023962,0
-3.3842065,0.97155172,-0.44944477,-0.99002928,0.13439213,-0.042204857,0
-3.1510625,-0.72679269,2.1759994,0.08096236,0.78806949,0.61023962,0
3.5082159,-0.37502396,-0.56000471,0.99002928,-0.13439213,0.042204857,0
-0.035456538,-0.33438915,-0.38281333,-0.08096236,-0.78806949,-0.61023962,0
-1.4259393,-1.6148217,2.3581905,-0.11527205,-0.60073793,0.7910921,0
-0.46281457,-1.8746009,2.301259,-0.11527205,-0.60073793,0.7910921,0
3.7156754,0.88111997,-1.4265976,0.99002928,-0.13439213,0.042204857,0
3.1478782,-2.0035012,2.7071278,0.99002928,-0.13439213,0.042204857,0
-3.2968607,1.2218865,-1.7012252,-0.99002928,0.13439213,-0.042204857,0
0.60230851,0.048076749,0.67735374,0.08096236,0.78806949,0.61023962,0
