1.6361196,-1.8304188,-3.069756,0.8587935,-0.25282431,0.44559348,0
-1.6977875,-2.1585414,3.067749,-0.50840461,-0.31321454,0.80213547,0
-2.3051035,-4.7056117,1.6882539,-0.50840461,-0.31321454,0.80213547,0
0.50536799,4.3616328,1.1958015,0.063232988,0.91541052,0.3975237,0
2.4084029,5.0181613,-1.5007386,0.50840461,0.31321454,-0.80213547,0
0.44382602,0.2479088,0.40737224,0.8587935,-0.25282431,0.44559348,0
-1.8388827,0.40043381,2.6491859,-0.8587935,0.25282431,-0.44559348,0
2.5813203,3.7166824,-1.8993372,0.50840461,0.31321454,-0.80213547,0
0.92140567,-3.7095828,-2.9242833,-0.063232988,-0.91541052,-0.3975237,0
1.4780148,2.6885433,-0.20103645,0.8587935,-0.25282431,0.44559348,0
0.94494092,1.8807857,-1.8761514,-0.8587935,0.25282431,-0.44559348,0
2.1534038,2.5661037,-2.6198297,0.50840461,0.31321454,-0.80213547,0
1.9404529,-1.2579092,-4.2479858,0.50840461,0.31321454,-0.80213547,0
2.0722947,5.4404774,-1.5377905,0.063232988,0.91541052,0.3975237,0
0.30550194,-2.9623661,-1.1475061,0.8587935,-0.25282431,0.44559348,0
-0.80429137,1.0567211,1.0275846,-0.8587935,0.25282431,-0.44559348,0
0.024385095,-3.7097695,-2.781167,-0.063232988,-0.91541052,-0.3975237,0
2.4121656,4.0801239,-1.8646345,0.50840461,0.31321454,-0.80213547,0
1.44923,1.7264212,-2.9356537,-0.8587935,0.25282431,-0.44559348,0
-1.0219524,3.13888,4.2544818,0.063232988,0.91541052,0.3975237,0
-1.2240466,2.8750429,4.8941879,0.063232988,0.91541052,0.3975237,0
2.3737049,1.6914836,-2.8217177,0.50840461,0.31321454,-0.80213547,0
0.50067139,4.6219335,0.59713292,0.063232988,0.91541052,0.3975237,0
-1.541297,2.5646913,5.0112429,-0.50840461,-0.31321454,0.80213547,0
2.0612011,1.1595362,-3.2275,0.50840461,0.31321454,-0.80213547,0
2.1243131,4.3960738,-1.9237087,0.50840461,0.31321454,-0.80213547,0
-0.93602747,-0.089036234,0.63139135,-0.8587935,0.25282431,-0.44559348,0
0.46373993,-3.4213309,-3.515265,-0.063232988,-0.91541052,-0.3975237,0
1.8068058,3.4814436,-2.48209,0.50840461,0.31321454,-0.80213547,0
2.5167189,4.37672,-1.6825535,0.50840461,0.31321454,-0.80213547,0
-1.2801197,3.014535,3.0554895,-0.8587935,0.25282431,-0.44559348,0
0.87964255,-2.3876548,-4.1721625,-0.8587935,0.25282431,-0.44559348,0
-1.636776,0.58011734,4.1757994,-0.50840461,-0.31321454,0.80213547,0
-1.9377642,2.6786141,4.804441,-0.50840461,-0.31321454,0.80213547,0
1.5738086,0.81834996,-3.669641,0.50840461,0.31321454,-0.80213547,0
1.8521972,-2.253871,-4.6928225,0.50840461,0.31321454,-0.80213547,0
1.9898815,0.84718442,-3.3946691,0.50840461,0.31321454,-0.80213547,0
-0.4903543,-4.4821224,-0.92072797,-0.063232988,-0.91541052,-0.3975237,0
-1.3943195,-4.1471119,1.4563546,0.8587935,-0.25282431,0.44559348,0
-0.1712358,-1.8559432,0.39908266,0.8587935,-0.25282431,0.44559348,0
1.3956432,-3.0389075,-4.5441389,-0.063232988,-0.91541052,-0.3975237,0
-0.17342788,-0.19935155,-0.90096051,-0.8587935,0.25282431,-0.44559348,0
1.6495761,1.6532972,-1.1190724,0.8587935,-0.25282431,0.44559348,0
1.5384398,-0.023260355,-4.0206866,0.50840461,0.31321454,-0.80213547,0
2.2594666,-0.31546861,-3.6777902,0.50840461,0.31321454,-0.80213547,0
-2.1157625,0.88923424,3.9929135,-0.50840461,-0.31321454,0.80213547,0
-0.58139277,-2.5643485,0.78763855,0.8587935,-0.25282431,0.44559348,0
-0.59331477,3.7001462,2.8938258,0.063232988,0.91541052,0.3975237,0
-0.83291686,1.1353827,3.3715842,0.8587935,-0.25282431,0.44559348,0
1.0338684,-3.5925086,-3.2117691,-0.063232988,-0.91541052,-0.3975237,0
-1.00822,-4.9089603,0.14456201,-0.063232988,-0.91541052,-0.3975237,0
0.75688744,4.5134315,0.80623341,0.063232988,0.91541052,0.3975237,0
2.2955523,0.44952893,-3.3562055,0.50840461,0.31321454,-0.80213547,0
-0.19524181,-1.4726459,0.66282743,0.8587935,-0.25282431,0.44559348,0
1.9800285,1.241268,-3.2470336,0.50840461,0.31321454,-0.80213547,0
-1.9036753,-3.3140609,2.4860516,-0.50840461,-0.31321454,0.80213547,0
1.2837756,-3.1194992,-4.3407588,-0.063232988,-0.91541052,-0.3975237,0
2.6246631,4.1054168,-1.7200745,0.50840461,0.31321454,-0.80213547,0
1.8390009,-2.7794888,-4.9064274,0.50840461,0.31321454,-0.80213547,0
2.1672258,2.9997194,-1.3527967,0.8587935,-0.25282431,0.44559348,0
0.68335152,4.675694,0.21380782,-0.8587935,0.25282431,-0.44559348,0
-2.0726857,0.16938609,2.9687011,-0.8587935,0.25282431,-0.44559348,0
1.8548059,3.5881402,-2.4100046,0.50840461,0.31321454,-0.80213547,0
1.9724305,-1.7972584,-4.4383206,0.50840461,0.31321454,-0.80213547,0
-1.5802383,0.25508165,4.0847149,-0.50840461,-0.31321454,0.80213547,0
-1.5527854,1.8376318,4.7200627,-0.50840461,-0.31321454,0.80213547,0
-1.8250711,3.0379491,4.6146531,0.063232988,0.91541052,0.3975237,0
-1.9686759,-4.8992357,0.2749455,-0.063232988,-0.91541052,-0.3975237,0
-2.5512478,-3.338594,2.0660317,-0.50840461,-0.31321454,0.80213547,0
0.035389304,-3.3305902,-0.83584332,0.8587935,-0.25282431,0.44559348,0
-1.5196905,1.3667035,4.5571523,-0.50840461,-0.31321454,0.80213547,0
1.9691637,4.6920648,-1.9064672,0.50840461,0.31321454,-0.80213547,0
-1.7532523,-4.7934957,-0.0028171539,-0.063232988,-0.91541052,-0.3975237,0
-2.6521266,-4.228066,1.6547762,-0.50840461,-0.31321454,0.80213547,0
-1.0273842,3.0967636,4.3523307,0.063232988,0.91541052,0.3975237,0
1.4285672,4.7621956,0.12654138,0.063232988,0.91541052,0.3975237,0
1.0941226,-0.024304453,-1.0003965,0.8587935,-0.25282431,0.44559348,0
-1.923846,0.1249671,2.6566391,-0.8587935,0.25282431,-0.44559348,0
2.1235552,1.58653,-3.0212481,0.50840461,0.31321454,-0.80213547,0
0.85117793,4.8582129,-0.0027213097,0.063232988,0.91541052,0.3975237,0
0.67967135,-2.1996298,-3.6800745,-0.8587935,0.25282431,-0.44559348,0
1.9559455,5.1692557,-1.7285132,0.50840461,0.31321454,-0.80213547,0
1.7546008,-1.4864688,-4.4550281,0.50840461,0.31321454,-0.80213547,0
-1.1143879,2.9726322,4.6520181,0.063232988,0.91541052,0.3975237,0
-2.3367569,-3.2211928,2.2478216,-0.50840461,-0.31321454,0.80213547,0
2.1521413,-2.993655,-4.7686796,-0.063232988,-0.91541052,-0.3975237,0
-1.6592571,0.2229048,4.0220675,-0.50840461,-0.31321454,0.80213547,0
-1.3614842,3.3436923,3.8368516,0.063232988,0.91541052,0.3975237,0
2.3876548,5.2027998,-1.0406332,0.063232988,0.91541052,0.3975237,0
1.8789694,5.2759166,-1.7356534,0.50840461,0.31321454,-0.80213547,0
-1.6743038,1.7197964,3.0805829,-0.8587935,0.25282431,-0.44559348,0
2.4545934,2.7816129,-2.3447807,0.50840461,0.31321454,-0.80213547,0
2.3186159,-0.5200302,-3.7201767,0.50840461,0.31321454,-0.80213547,0
1.303997,4.6521668,0.39972973,0.063232988,0.91541052,0.3975237,0
-0.51495004,-3.3262119,-2.0168865,-0.8587935,0.25282431,-0.44559348,0
0.98000419,4.2089882,1.4718091,0.063232988,0.91541052,0.3975237,0
-1.578536,-3.2897768,2.2978361,0.8587935,-0.25282431,0.44559348,0
2.2382524,5.2568798,-1.141402,0.063232988,0.91541052,0.3975237,0
0.39598477,4.090457,1.8376589,0.063232988,0.91541052,0.3975237,0
0.73251677,4.2928042,1.3181665,0.063232988,0.91541052,0.3975237,0
-2.1611359,-1.0393955,3.211072,-0.50840461,-0.31321454,0.80213547,0
-2.2517939,0.16491848,3.623867,-0.50840461,-0.31321454,0.80213547,0
-2.2606869,0.54438567,3.5438068,-0.8587935,0.25282431,-0.44559348,0
-0.26477009,3.7191143,2.7978849,0.063232988,0.91541052,0.3975237,0
1.0927527,4.6944246,-0.56460476,-0.8587935,0.25282431,-0.44559348,0
0.56054008,0.26766235,0.19363692,0.8587935,-0.25282431,0.44559348,0
-1.3464659,0.19406366,1.5830579,-0.8587935,0.25282431,-0.44559348,0
1.2207048,0.69794923,-0.83456087,0.8587935,-0.25282431,0.44559348,0
1.414324,-2.400068,-5.0274391,0.50840461,0.31321454,-0.80213547,0
-1.8566571,-0.24394989,3.7146568,-0.50840461,-0.31321454,0.80213547,0
1.5680516,-1.0927063,-2.5199993,0.8587935,-0.25282431,0.44559348,0
-1.8387721,-4.2581306,2.1585517,-0.50840461,-0.31321454,0.80213547,0
2.1481104,-1.6577106,-3.9585249,0.8587935,-0.25282431,0.44559348,0
-1.5405455,-4.8775849,0.15698767,-0.063232988,-0.91541052,-0.3975237,0
1.6528106,4.8291688,-0.063352585,0.063232988,0.91541052,0.3975237,0
0.52856457,2.7461891,1.6615493,0.8587935,-0.25282431,0.44559348,0
-2.0054862,-4.4578195,1.9749122,-0.50840461,-0.31321454,0.80213547,0
-1.6106349,1.2143145,4.4400063,-0.50840461,-0.31321454,0.80213547,0
0.59293413,4.4869003,0.89340806,0.063232988,0.91541052,0.3975237,0
-2.1821816,-4.532321,1.8338295,-0.50840461,-0.31321454,0.80213547,0
-1.8555543,2.176719,4.6605687,-0.50840461,-0.31321454,0.80213547,0
2.5122063,4.9363475,-1.4668927,0.50840461,0.31321454,-0.80213547,0
1.0050042,3.5685468,1.2099016,0.8587935,-0.25282431,0.44559348,0
-0.17305648,-2.7221539,-2.3330841,-0.8587935,0.25282431,-0.44559348,0
-1.818828,3.1513791,4.3524561,0.063232988,0.91541052,0.3975237,0
0.32138431,4.0590243,1.9219084,0.063232988,0.91541052,0.3975237,0
-0.046627522,4.0006037,2.1149776,0.063232988,0.91541052,0.3975237,0
1.8067615,4.0167499,-2.2730942,0.50840461,0.31321454,-0.80213547,0
-2.2722752,-1.445792,2.4369385,-0.8587935,0.25282431,-0.44559348,0
-1.5436486,2.2452605,3.1269126,-0.8587935,0.25282431,-0.44559348,0
1.2517024,0.55301321,-3.220736,-0.8587935,0.25282431,-0.44559348,0
-2.334106,0.23931706,3.6007473,-0.50840461,-0.31321454,0.80213547,0
-1.8725519,-3.4080935,2.4690607,-0.50840461,-0.31321454,0.80213547,0
-0.014531493,4.2209654,1.6024265,0.063232988,0.91541052,0.3975237,0
-0.57504416,3.9314666,2.3582385,0.063232988,0.91541052,0.3975237,0
0.13864529,-3.9183378,-2.3190548,-0.063232988,-0.91541052,-0.3975237,0
0.01735568,-3.647768,-2.9228249,-0.063232988,-0.91541052,-0.3975237,0
1.3513083,5.0439739,-0.51004267,0.063232988,0.91541052,0.3975237,0
0.70052791,-3.202317,-4.057272,-0.063232988,-0.91541052,-0.3975237,0
1.7523644,-2.2542925,-4.7562628,0.50840461,0.31321454,-0.80213547,0
-1.6371369,2.8089325,5.0458694,-0.50840461,-0.31321454,0.80213547,0
-1.4341013,2.4175415,5.0217271,-0.50840461,-0.31321454,0.80213547,0
1.4141747,-2.6440868,-3.1036663,0.8587935,-0.25282431,0.44559348,0
2.1692145,2.1172614,-2.7850707,0.50840461,0.31321454,-0.80213547,0
-0.72383714,3.0164733,4.2286625,0.8587935,-0.25282431,0.44559348,0
-2.2495904,-0.5467937,3.3473573,-0.50840461,-0.31321454,0.80213547,0
1.3726953,-3.3112152,-3.9134231,-0.063232988,-0.91541052,-0.3975237,0
-0.65040946,-3.4625545,-1.8331742,-0.8587935,0.25282431,-0.44559348,0
1.7628467,4.5393772,-1.94405,-0.8587935,0.25282431,-0.44559348,0
1.9979632,5.1223373,-0.79335856,0.063232988,0.91541052,0.3975237,0
1.3532133,2.8127177,0.10994911,0.8587935,-0.25282431,0.44559348,0
-2.1342018,2.1864319,4.487751,-0.50840461,-0.31321454,0.80213547,0
-2.1358833,0.48505038,3.8223367,-0.50840461,-0.31321454,0.80213547,0
-2.5702417,-4.3181987,1.6714813,-0.50840461,-0.31321454,0.80213547,0
1.3550203,-3.2932653,-3.9519458,-0.063232988,-0.91541052,-0.3975237,0
1.552555,-2.2471731,-4.8801246,0.50840461,0.31321454,-0.80213547,0
2.6002471,4.5895429,-1.5465102,0.50840461,0.31321454,-0.80213547,0
2.1405344,0.57982969,-3.4035788,0.50840461,0.31321454,-0.80213547,0
2.0883956,0.46638548,-3.4809222,0.50840461,0.31321454,-0.80213547,0
-1.9864011,-2.8183119,2.627197,-0.50840461,-0.31321454,0.80213547,0
-2.1829269,-5.4076099,1.4915776,-0.50840461,-0.31321454,0.80213547,0
-1.1853969,-4.3721824,-1.0633378,-0.063232988,-0.91541052,-0.3975237,0
2.2551031,2.3657103,-2.6336203,0.50840461,0.31321454,-0.80213547,0
0.084748924,-0.25275403,0.81535256,0.8587935,-0.25282431,0.44559348,0
-1.2254771,3.0829763,4.4155893,0.063232988,0.91541052,0.3975237,0
1.5911543,-1.6648742,-4.6282864,0.50840461,0.31321454,-0.80213547,0
-1.6376767,-3.3419225,2.3822322,0.8587935,-0.25282431,0.44559348,0
-0.36309749,0.78829736,0.024970084,-0.8587935,0.25282431,-0.44559348,0
2.6814721,4.8804164,-1.3814492,0.50840461,0.31321454,-0.80213547,0
0.37926972,4.0032835,2.0410602,0.063232988,0.91541052,0.3975237,0
-1.0181476,0.70869511,1.2422845,-0.8587935,0.25282431,-0.44559348,0
-1.3261073,2.5776141,5.1404157,0.8587935,-0.25282431,0.44559348,0
0.72657323,4.2469149,1.4247859,0.063232988,0.91541052,0.3975237,0
0.90649378,-3.2068281,-4.0796461,-0.063232988,-0.91541052,-0.3975237,0
-1.3438107,2.1558459,2.6910319,-0.8587935,0.25282431,-0.44559348,0
1.1798097,-3.1361623,-4.2858496,-0.063232988,-0.91541052,-0.3975237,0
0.057117403,1.4504801,-0.40919676,-0.8587935,0.25282431,-0.44559348,0
-2.0160377,-4.3251028,2.0200477,-0.50840461,-0.31321454,0.80213547,0
-2.041018,-3.9258342,2.1601193,-0.50840461,-0.31321454,0.80213547,0
-2.1722307,0.11573958,3.6550922,-0.50840461,-0.31321454,0.80213547,0
-1.7939049,2.8497281,4.9624372,-0.50840461,-0.31321454,0.80213547,0
-1.6079596,2.8053231,5.0629525,-0.50840461,-0.31321454,0.80213547,0
-1.5461404,-0.81297302,3.6407087,0.8587935,-0.25282431,0.44559348,0
-0.38618529,3.6344757,3.0121024,0.063232988,0.91541052,0.3975237,0
-0.96665597,0.098505855,3.0410287,0.8587935,-0.25282431,0.44559348,0
-1.8710539,-1.1370648,3.3567922,-0.50840461,-0.31321454,0.80213547,0
1.6915411,-1.8331085,-4.6303511,0.50840461,0.31321454,-0.80213547,0
-1.2839987,-4.8455935,0.042508602,-0.063232988,-0.91541052,-0.3975237,0
-0.82656413,1.1153952,1.103802,-0.8587935,0.25282431,-0.44559348,0
1.9974597,0.6117717,-3.4817886,0.50840461,0.31321454,-0.80213547,0
2.2352753,4.7118096,-0.51252985,0.8587935,-0.25282431,0.44559348,0
1.8847728,-0.75648475,-2.9396489,0.8587935,-0.25282431,0.44559348,0
-2.4602988,-2.713284,2.3678453,-0.50840461,-0.31321454,0.80213547,0
2.3862603,2.2171865,-2.6084857,0.50840461,0.31321454,-0.80213547,0
2.4384286,3.357774,-2.1300492,0.50840461,0.31321454,-0.80213547,0
-1.7081423,-5.3183875,1.1987188,-0.063232988,-0.91541052,-0.3975237,0
0.6679945,1.876634,0.89945078,0.8587935,-0.25282431,0.44559348,0
1.1722134,3.9575558,1.1083577,0.8587935,-0.25282431,0.44559348,0
1.8291426,4.9459743,-0.3603797,0.063232988,0.91541052,0.3975237,0
-1.2355163,2.2400887,2.5301142,-0.8587935,0.25282431,-0.44559348,0
-1.0307347,1.4032617,1.6606324,-0.8587935,0.25282431,-0.44559348,0
-0.82548094,-4.3793015,-1.1041949,-0.063232988,-0.91541052,-0.3975237,0
0.10397291,3.9811668,2.1357808,0.063232988,0.91541052,0.3975237,0
2.4759674,2.2922113,-2.5223327,0.50840461,0.31321454,-0.80213547,0
2.560133,3.9819362,-1.8091906,0.50840461,0.31321454,-0.80213547,0
0.97702456,4.1963696,-0.62415147,-0.8587935,0.25282431,-0.44559348,0
2.3556416,0.52278912,-3.1213114,0.8587935,-0.25282431,0.44559348,0
-0.64729834,-4.3380575,-0.091721773,0.8587935,-0.25282431,0.44559348,0
1.2948009,-2.8365712,-4.9940338,-0.063232988,-0.91541052,-0.3975237,0
-0.57369852,-3.4919143,0.24652028,0.8587935,-0.25282431,0.44559348,0
2.4015746,0.93116039,-3.1009414,0.50840461,0.31321454,-0.80213547,0
1.7724872,3.5518963,-0.27871728,0.8587935,-0.25282431,0.44559348,0
1.7130034,4.8506184,-0.12232113,0.063232988,0.91541052,0.3975237,0
-1.0432742,-1.926142,2.0399346,0.8587935,-0.25282431,0.44559348,0
2.3575735,1.1669755,-3.0367498,0.50840461,0.31321454,-0.80213547,0
0.90673202,-0.70617253,-3.2703197,-0.8587935,0.25282431,-0.44559348,0
1.213093,4.5140877,0.73215437,0.063232988,0.91541052,0.3975237,0
-1.4105034,-4.7571526,-0.14102793,-0.063232988,-0.91541052,-0.3975237,0
0.63574409,1.1250696,-1.7090195,-0.8587935,0.25282431,-0.44559348,0
0.44967389,4.4912424,0.90619731,0.063232988,0.91541052,0.3975237,0
-1.0060363,2.9283266,2.4783344,-0.8587935,0.25282431,-0.44559348,0
0.94236541,4.6652732,0.42707109,0.063232988,0.91541052,0.3975237,0
0.34215409,0.53023338,-1.4806856,-0.8587935,0.25282431,-0.44559348,0
-0.92087173,0.18300152,3.0007305,0.8587935,-0.25282431,0.44559348,0
-0.98821187,3.5449486,3.3140264,0.063232988,0.91541052,0.3975237,0
-1.6893865,-0.29424989,3.8010345,-0.50840461,-0.31321454,0.80213547,0
-1.4695667,2.8873916,4.9048052,0.063232988,0.91541052,0.3975237,0
2.2266719,1.5722739,-2.961458,0.50840461,0.31321454,-0.80213547,0
1.8067354,-0.35682905,-3.9808879,0.50840461,0.31321454,-0.80213547,0
-2.1031444,2.248822,4.5317974,-0.50840461,-0.31321454,0.80213547,0
-0.82845283,-3.1388531,0.93783116,0.8587935,-0.25282431,0.44559348,0
-1.9005101,2.5020447,3.9603889,-0.8587935,0.25282431,-0.44559348,0
1.6745167,1.484943,-1.262663,0.8587935,-0.25282431,0.44559348,0
0.98448277,3.0073502,-1.3131617,-0.8587935,0.25282431,-0.44559348,0
-1.5091603,2.7832716,5.1169624,-0.50840461,-0.31321454,0.80213547,0
-0.95284754,3.1077712,4.3151264,0.063232988,0.91541052,0.3975237,0
-0.73689413,-4.6254878,-0.55137205,-0.063232988,-0.91541052,-0.3975237,0
0.92156816,-3.3653793,-3.7169352,-0.063232988,-0.91541052,-0.3975237,0
1.5375211,-1.5770204,-4.6279745,0.50840461,0.31321454,-0.80213547,0
0.42834282,3.8180547,2.4597955,0.063232988,0.91541052,0.3975237,0
0.89269769,-1.1746969,-3.5091064,-0.8587935,0.25282431,-0.44559348,0
-0.91674399,-2.4396319,1.5047245,0.8587935,-0.25282431,0.44559348,0
2.0584686,-2.091403,-4.4986448,0.50840461,0.31321454,-0.80213547,0
1.5262227,3.8229775,0.34971666,0.8587935,-0.25282431,0.44559348,0
1.6852093,-2.2345374,-3.3936586,0.8587935,-0.25282431,0.44559348,0
-2.4057698,-3.1345592,2.2379084,-0.50840461,-0.31321454,0.80213547,0
-0.52953351,3.6885595,2.9103618,0.063232988,0.91541052,0.3975237,0
-1.8111467,-2.243288,2.9628086,-0.50840461,-0.31321454,0.80213547,0
0.52915204,-2.1707325,-1.1293844,0.8587935,-0.25282431,0.44559348,0
2.3357408,2.5350771,-2.5163772,0.50840461,0.31321454,-0.80213547,0
1.7349341,1.5568284,-3.2791591,0.50840461,0.31321454,-0.80213547,0
0.46796989,2.4229188,-0.64928406,-0.8587935,0.25282431,-0.44559348,0
-0.93511009,-4.1846576,-1.5349789,-0.063232988,-0.91541052,-0.3975237,0
1.8743968,2.4821858,-2.8294363,0.50840461,0.31321454,-0.80213547,0
1.1221061,1.0865543,-2.6682396,-0.8587935,0.25282431,-0.44559348,0
1.8701334,-2.9663367,-4.7867298,-0.063232988,-0.91541052,-0.3975237,0
-0.75292021,3.5551472,3.2531147,0.063232988,0.91541052,0.3975237,0
0.76506972,2.943948,-0.92625952,-0.8587935,0.25282431,-0.44559348,0
1.3970969,-0.90451312,-2.083739,0.8587935,-0.25282431,0.44559348,0
-2.3423133,-0.47208089,3.3177614,-0.50840461,-0.31321454,0.80213547,0
-2.0011084,-5.2183971,1.0150642,-0.063232988,-0.91541052,-0.3975237,0
-0.16996098,-4.3328981,-1.3153234,-0.063232988,-0.91541052,-0.3975237,0
-1.8227037,-0.20154983,2.2764459,-0.8587935,0.25282431,-0.44559348,0
1.3035533,-0.021845698,-3.6468358,-0.8587935,0.25282431,-0.44559348,0
-2.3282046,-3.4589696,2.1603956,-0.50840461,-0.31321454,0.80213547,0
0.011665344,-4.1636829,-1.7338793,-0.063232988,-0.91541052,-0.3975237,0
1.9129435,1.0788099,-3.3529892,0.50840461,0.31321454,-0.80213547,0
-1.2860732,-2.5167603,-0.071425676,-0.8587935,0.25282431,-0.44559348,0
-1.6835068,2.7978184,5.0121393,-0.50840461,-0.31321454,0.80213547,0
1.6607952,3.8502781,0.10584474,0.8587935,-0.25282431,0.44559348,0
-1.965026,2.7174339,4.8023205,-0.50840461,-0.31321454,0.80213547,0
-1.2402611,-4.765883,-0.14800382,-0.063232988,-0.91541052,-0.3975237,0
2.0885363,1.8601792,-2.9365902,0.50840461,0.31321454,-0.80213547,0
1.9171805,1.4705033,-3.1973567,0.50840461,0.31321454,-0.80213547,0
-0.79002154,-2.5876803,-1.0677067,-0.8587935,0.25282431,-0.44559348,0
0.61132783,-3.4144294,-3.5546343,-0.063232988,-0.91541052,-0.3975237,0
-2.0027406,-2.7779014,2.6326201,-0.50840461,-0.31321454,0.80213547,0
-0.3153832,-4.0237494,-2.0040936,-0.063232988,-0.91541052,-0.3975237,0
0.51905358,3.9247262,2.1997254,0.063232988,0.91541052,0.3975237,0
2.0097148,3.8826408,-2.196826,0.50840461,0.31321454,-0.80213547,0
0.80233192,0.47173682,-0.15657991,0.8587935,-0.25282431,0.44559348,0
2.1541464,3.2720613,-1.1730658,0.8587935,-0.25282431,0.44559348,0
-0.84232593,-4.6339564,-0.51510072,-0.063232988,-0.91541052,-0.3975237,0
2.4354129,4.7607765,-1.5841217,0.50840461,0.31321454,-0.80213547,0
-2.2398205,-2.142833,2.7303348,-0.50840461,-0.31321454,0.80213547,0
-1.0418777,-4.8607659,0.038934708,-0.063232988,-0.91541052,-0.3975237,0
-2.369792,-1.1239916,2.8074684,-0.8587935,0.25282431,-0.44559348,0
-0.18156889,3.4540522,3.3950312,0.063232988,0.91541052,0.3975237,0
0.8469398,-3.435966,-3.5425186,-0.063232988,-0.91541052,-0.3975237,0
-0.70842195,-3.0591805,0.7517004,0.8587935,-0.25282431,0.44559348,0
2.0740993,3.7815266,-2.1955009,0.50840461,0.31321454,-0.80213547,0
-2.3908968,-5.2724776,1.201602,-0.063232988,-0.91541052,-0.3975237,0
1.4281454,-3.4430072,-3.5838904,0.8587935,-0.25282431,0.44559348,0
-1.8188449,-2.1530948,1.161726,-0.8587935,0.25282431,-0.44559348,0
-1.8871326,3.0517087,4.2464795,-0.8587935,0.25282431,-0.44559348,0
-1.4794283,-5.0710702,0.59281874,-0.063232988,-0.91541052,-0.3975237,0
1.6314025,-3.1358855,-4.3583212,-0.063232988,-0.91541052,-0.3975237,0
-1.5927227,-1.1182131,3.5405636,-0.50840461,-0.31321454,0.80213547,0
0.45084855,-0.86193985,-2.4800746,-0.8587935,0.25282431,-0.44559348,0
0.41520512,4.2512836,1.4642529,0.063232988,0.91541052,0.3975237,0
-1.9703536,-3.0400302,0.95049286,-0.8587935,0.25282431,-0.44559348,0
-0.44411457,-2.7148335,0.43767858,0.8587935,-0.25282431,0.44559348,0
-0.723001,-4.3435378,0.051070452,0.8587935,-0.25282431,0.44559348,0
-0.5068202,-1.9799516,-1.2687033,-0.8587935,0.25282431,-0.44559348,0
-2.3011501,-2.7478623,2.4552138,-0.50840461,-0.31321454,0.80213547,0
-0.63273084,-1.0900857,1.7230614,0.8587935,-0.25282431,0.44559348,0
2.2178504,5.2155447,-1.0429711,0.063232988,0.91541052,0.3975237,0
-1.7962279,-2.2798901,2.957972,-0.50840461,-0.31321454,0.80213547,0
-0.5240705,-4.5564399,-0.74422884,-0.063232988,-0.91541052,-0.3975237,0
-2.2242157,-5.1769218,0.95504403,-0.063232988,-0.91541052,-0.3975237,0
1.9259572,5.3934412,-1.406198,0.063232988,0.91541052,0.3975237,0
0.15322077,-2.2140589,-2.6736317,-0.8587935,0.25282431,-0.44559348,0
-1.2638203,-1.6691746,2.6107938,0.8587935,-0.25282431,0.44559348,0
-0.6927762,-4.0157495,-1.9624853,-0.063232988,-0.91541052,-0.3975237,0
-1.5530117,-4.7900944,-0.042501211,-0.063232988,-0.91541052,-0.3975237,0
1.5197599,4.3716226,-1.5707302,-0.8587935,0.25282431,-0.44559348,0
1.2124701,3.785691,-1.3109407,-0.8587935,0.25282431,-0.44559348,0
-1.1809703,2.6976688,4.9288106,0.8587935,-0.25282431,0.44559348,0
1.348743,-0.76915717,-1.9137475,0.8587935,-0.25282431,0.44559348,0
0.87139356,-3.4799829,-3.4450467,-0.063232988,-0.91541052,-0.3975237,0
-1.1174533,-1.2324331,0.33230436,-0.8587935,0.25282431,-0.44559348,0
-0.77517372,3.1322973,4.2303858,0.063232988,0.91541052,0.3975237,0
-1.9588728,-4.0896177,2.1482308,-0.50840461,-0.31321454,0.80213547,0
-0.34007224,0.66700327,2.1559706,0.8587935,-0.25282431,0.44559348,0
-0.10299659,-3.7113862,-2.7571821,-0.063232988,-0.91541052,-0.3975237,0
-0.31821799,1.8104882,2.7626505,0.8587935,-0.25282431,0.44559348,0
-0.3272447,3.868052,2.4648519,0.063232988,0.91541052,0.3975237,0
1.6284688,5.1013532,-0.68626285,0.063232988,0.91541052,0.3975237,0
0.76645839,-3.5152404,-3.3471646,-0.063232988,-0.91541052,-0.3975237,0
1.5555573,4.6748962,0.30737329,0.063232988,0.91541052,0.3975237,0
2.1248655,1.7007401,-2.9758213,0.50840461,0.31321454,-0.80213547,0
1.358768,-2.9461224,-4.7519369,-0.063232988,-0.91541052,-0.3975237,0
-1.9122097,2.0466125,4.5738564,-0.50840461,-0.31321454,0.80213547,0
-2.412323,-3.7886214,1.9783593,-0.50840461,-0.31321454,0.80213547,0
0.65816712,-3.2964211,-3.8338323,-0.063232988,-0.91541052,-0.3975237,0
-2.2738791,-4.6846309,1.7162366,-0.50840461,-0.31321454,0.80213547,0
2.3616214,0.87759501,-3.1471806,0.50840461,0.31321454,-0.80213547,0
-2.1460958,-2.5742188,2.6212931,-0.50840461,-0.31321454,0.80213547,0
1.9672227,-2.4481103,-4.058363,0.8587935,-0.25282431,0.44559348,0
-2.0092471,1.5697694,4.3261566,-0.50840461,-0.31321454,0.80213547,0
0.90357375,-0.88395107,-3.3651021,-0.8587935,0.25282431,-0.44559348,0
-0.41737652,-4.4238091,-1.0666187,-0.063232988,-0.91541052,-0.3975237,0
-2.4983263,-5.2198381,1.0974722,-0.063232988,-0.91541052,-0.3975237,0
1.7360104,1.2236719,-1.5294222,0.8587935,-0.25282431,0.44559348,0
-0.58884889,3.4767137,3.4076319,0.063232988,0.91541052,0.3975237,0
0.9700774,3.1247993,1.025439,0.8587935,-0.25282431,0.44559348,0
0.166327,-3.477181,-3.3393457,-0.063232988,-0.91541052,-0.3975237,0
-2.0374556,-1.3338432,3.1744871,-0.50840461,-0.31321454,0.80213547,0
1.7462666,-2.9258261,-4.8603125,-0.063232988,-0.91541052,-0.3975237,0
1.8976334,-2.2113125,-3.789887,0.8587935,-0.25282431,0.44559348,0
-1.3761623,2.5990157,5.1293111,-0.50840461,-0.31321454,0.80213547,0
0.52047259,-0.16821277,-2.2206492,-0.8587935,0.25282431,-0.44559348,0
-1.0397834,-1.6997626,2.1616523,0.8587935,-0.25282431,0.44559348,0
-0.25795746,-4.3165269,-1.3390253,-0.063232988,-0.91541052,-0.3975237,0
1.6532934,1.2294472,-3.4587388,0.50840461,0.31321454,-0.80213547,0
-1.0287282,-4.9178915,0.16839099,-0.063232988,-0.91541052,-0.3975237,0
-0.10712326,-3.7955434,-2.5627296,-0.063232988,-0.91541052,-0.3975237,0
0.2553395,3.9233303,2.2448883,0.063232988,0.91541052,0.3975237,0
1.7858939,-0.72470164,-4.137743,0.50840461,0.31321454,-0.80213547,0
0.98717141,-1.6032028,-3.9343147,-0.8587935,0.25282431,-0.44559348,0
2.3003955,-1.1552662,-3.9669435,0.8587935,-0.25282431,0.44559348,0
2.4135363,5.1137023,-1.4601781,0.50840461,0.31321454,-0.80213547,0
1.4257563,-1.7355019,-4.7606959,0.50840461,0.31321454,-0.80213547,0
-1.8915055,-0.68872845,3.5188942,-0.50840461,-0.31321454,0.80213547,0
-1.9243149,-1.2491128,3.2792826,-0.50840461,-0.31321454,0.80213547,0
1.5162023,2.35321,-0.46489906,0.8587935,-0.25282431,0.44559348,0
-2.5287712,-2.5276101,2.3969476,-0.50840461,-0.31321454,0.80213547,0
-1.654891,1.5466383,2.9449205,-0.8587935,0.25282431,-0.44559348,0
1.7806361,-0.062447608,-2.3451581,0.8587935,-0.25282431,0.44559348,0
2.1763928,-0.65123081,-3.4419689,0.8587935,-0.25282431,0.44559348,0
-1.8023343,-2.3306589,1.029157,-0.8587935,0.25282431,-0.44559348,0
-1.8575686,0.095139146,3.8464854,-0.50840461,-0.31321454,0.80213547,0
-2.3920786,-5.3202763,1.3118603,-0.063232988,-0.91541052,-0.3975237,0
-1.7781427,-5.3757277,1.498996,0.8587935,-0.25282431,0.44559348,0
-1.4269314,-1.4150312,0.82515806,-0.8587935,0.25282431,-0.44559348,0
-2.6805253,-4.276876,1.6174366,-0.8587935,0.25282431,-0.44559348,0
1.3871602,-2.8321295,-3.1582942,0.8587935,-0.25282431,0.44559348,0
-1.1365753,-2.342099,-0.26045263,-0.8587935,0.25282431,-0.44559348,0
-2.012728,-4.7211356,1.8675039,-0.50840461,-0.31321454,0.80213547,0
-0.64484954,-4.3688083,-0.11388922,0.8587935,-0.25282431,0.44559348,0
-0.31006214,-1.8738626,-1.5877222,-0.8587935,0.25282431,-0.44559348,0
-1.642416,3.0435791,4.5726347,0.063232988,0.91541052,0.3975237,0
-0.33634138,-4.0335026,-1.9783001,-0.063232988,-0.91541052,-0.3975237,0
-1.4736787,3.1744123,4.2445135,0.063232988,0.91541052,0.3975237,0
-1.0636686,3.6390457,3.1093445,0.063232988,0.91541052,0.3975237,0
1.5560052,4.8837085,-1.3500357,-0.8587935,0.25282431,-0.44559348,0
-1.2355859,-4.5160518,-0.72405481,-0.063232988,-0.91541052,-0.3975237,0
-2.5252256,-4.287138,1.3123052,-0.8587935,0.25282431,-0.44559348,0
0.47681877,-1.620237,-0.71617782,0.8587935,-0.25282431,0.44559348,0
2.145788,2.1135108,-2.8013833,0.50840461,0.31321454,-0.80213547,0
-2.3385642,-3.9166532,1.9751153,-0.50840461,-0.31321454,0.80213547,0
2.1953304,-1.0750387,-4.0150342,0.50840461,0.31321454,-0.80213547,0
-1.7142968,0.73622251,4.1876202,-0.50840461,-0.31321454,0.80213547,0
2.5972822,4.0530515,-1.757876,0.50840461,0.31321454,-0.80213547,0
-2.5695069,-4.3233981,1.6699166,-0.50840461,-0.31321454,0.80213547,0
-1.7452188,-5.3777943,1.341418,-0.063232988,-0.91541052,-0.3975237,0
2.0938959,0.047171235,-3.6411293,0.50840461,0.31321454,-0.80213547,0
0.36904424,-0.18017286,-1.9355869,-0.8587935,0.25282431,-0.44559348,0
-1.6361594,2.3074338,4.8506651,-0.50840461,-0.31321454,0.80213547,0
-2.0833583,-5.3234978,1.2701705,-0.063232988,-0.91541052,-0.3975237,0
-2.5521901,-5.1746459,1.3485007,-0.50840461,-0.31321454,0.80213547,0
1.1188565,-3.5305657,-3.3679285,-0.063232988,-0.91541052,-0.3975237,0
2.0843351,0.73046851,-3.3803778,0.50840461,0.31321454,-0.80213547,0
1.8871322,1.4398332,-3.2283778,0.50840461,0.31321454,-0.80213547,0
-2.218122,-2.1516032,2.7406628,-0.50840461,-0.31321454,0.80213547,0
-0.28373587,-0.3307755,-0.76293206,-0.8587935,0.25282431,-0.44559348,0
-0.35394973,3.9346209,2.3158057,0.063232988,0.91541052,0.3975237,0
1.595449,1.1910632,-3.5103893,0.50840461,0.31321454,-0.80213547,0
0.24782497,-3.5533726,-3.1768568,-0.063232988,-0.91541052,-0.3975237,0
0.24858582,-3.5280232,-3.2353523,-0.063232988,-0.91541052,-0.3975237,0
-0.25424975,0.38985777,1.8333156,0.8587935,-0.25282431,0.44559348,0
-1.8126507,-5.1472406,0.8212285,-0.063232988,-0.91541052,-0.3975237,0
-1.5293419,3.2288857,4.1279278,0.063232988,0.91541052,0.3975237,0
1.0903091,0.84387851,-2.7446482,-0.8587935,0.25282431,-0.44559348,0
0.018470168,-4.2360649,-1.5682817,-0.063232988,-0.91541052,-0.3975237,0
-1.7066033,-0.025242925,3.8951631,-0.50840461,-0.31321454,0.80213547,0
1.3554542,-2.2727683,-5.0150442,0.50840461,0.31321454,-0.80213547,0
-2.2009587,-4.4987149,0.56729841,-0.8587935,0.25282431,-0.44559348,0
0.141716,-3.6634657,-2.9064579,-0.063232988,-0.91541052,-0.3975237,0
-1.9862238,-1.2330354,2.0063462,-0.8587935,0.25282431,-0.44559348,0
-2.2858012,1.0451182,3.9460094,-0.50840461,-0.31321454,0.80213547,0
1.3082745,5.0358028,-0.48438215,0.063232988,0.91541052,0.3975237,0
2.0697801,4.6768141,-0.21342587,0.8587935,-0.25282431,0.44559348,0
-1.4755011,-4.5728807,-0.55502629,-0.063232988,-0.91541052,-0.3975237,0
-0.61738753,3.4471087,3.480345,0.063232988,0.91541052,0.3975237,0
0.047240496,-3.8567047,-2.4464431,-0.063232988,-0.91541052,-0.3975237,0
-0.8834216,0.40269291,0.8090049,-0.8587935,0.25282431,-0.44559348,0
1.4179056,2.8231637,-2.2530036,-0.8587935,0.25282431,-0.44559348,0
2.2473278,5.2148719,-1.0461104,0.063232988,0.91541052,0.3975237,0
-2.2874465,-1.355304,3.0076594,-0.50840461,-0.31321454,0.80213547,0
-2.018208,-1.6956108,3.0454249,-0.50840461,-0.31321454,0.80213547,0
0.85187554,-3.5937951,-3.1798577,-0.063232988,-0.91541052,-0.3975237,0
-1.0303073,-3.2982099,-1.0077493,-0.8587935,0.25282431,-0.44559348,0
1.8829515,5.0224714,-0.54509449,0.063232988,0.91541052,0.3975237,0
1.8503654,2.5037546,-2.8362455,0.50840461,0.31321454,-0.80213547,0
-2.4879189,-3.3073361,2.1183763,-0.50840461,-0.31321454,0.80213547,0
-2.0202374,-0.2631942,3.6034632,-0.50840461,-0.31321454,0.80213547,0
-1.0313377,-4.5444417,-0.69116759,-0.063232988,-0.91541052,-0.3975237,0
2.3400495,1.1342492,-3.0606356,0.50840461,0.31321454,-0.80213547,0
-2.3343709,-3.0286629,2.324512,-0.50840461,-0.31321454,0.80213547,0
0.57260787,2.5242968,-0.793432,-0.8587935,0.25282431,-0.44559348,0
0.36827406,-0.49538419,0.13124844,0.8587935,-0.25282431,0.44559348,0
-1.510524,1.656666,4.6761856,-0.50840461,-0.31321454,0.80213547,0
0.54941642,-3.4215112,-3.5284789,-0.063232988,-0.91541052,-0.3975237,0
-0.62212706,-0.43400216,2.0748785,0.8587935,-0.25282431,0.44559348,0
-1.3887773,-2.0382652,2.642206,0.8587935,-0.25282431,0.44559348,0
-0.79112232,-4.069901,-1.8221424,-0.063232988,-0.91541052,-0.3975237,0
-2.1108902,-3.0104511,2.4732685,-0.50840461,-0.31321454,0.80213547,0
-1.7508404,-1.9316274,3.1227279,-0.50840461,-0.31321454,0.80213547,0
-1.3821104,-5.0829592,0.60471845,-0.063232988,-0.91541052,-0.3975237,0
1.278518,3.1352053,0.43688536,0.8587935,-0.25282431,0.44559348,0
0.32527542,-3.870306,-2.459348,-0.063232988,-0.91541052,-0.3975237,0
0.96921289,0.75467503,-2.561872,-0.8587935,0.25282431,-0.44559348,0
-0.97536254,-3.1598067,1.2090816,0.8587935,-0.25282431,0.44559348,0
-2.4285555,-1.46788,2.8742647,-0.50840461,-0.31321454,0.80213547,0
-1.158671,-0.10512553,1.0513639,-0.8587935,0.25282431,-0.44559348,0
-2.6953008,-5.2554207,1.226254,-0.50840461,-0.31321454,0.80213547,0
-1.5411124,-4.9323316,0.28314638,-0.063232988,-0.91541052,-0.3975237,0
2.1173275,5.3064108,-1.2362273,0.063232988,0.91541052,0.3975237,0
-0.46416911,1.1107054,2.646894,0.8587935,-0.25282431,0.44559348,0
0.76352453,-0.031458139,-2.611491,-0.8587935,0.25282431,-0.44559348,0
2.0979791,-2.9477682,-4.8079929,0.50840461,0.31321454,-0.80213547,0
0.79596865,-3.1795638,-4.1248493,-0.063232988,-0.91541052,-0.3975237,0
0.46656871,3.8746514,2.3233852,0.063232988,0.91541052,0.3975237,0
1.8907039,4.5395765,0.053840399,0.8587935,-0.25282431,0.44559348,0
1.1922264,4.5176482,0.72727537,0.063232988,0.91541052,0.3975237,0
-2.5857942,-3.3278425,2.0483341,-0.50840461,-0.31321454,0.80213547,0
-0.77517486,-1.5438557,1.7401302,0.8587935,-0.25282431,0.44559348,0
0.53276074,-0.2222662,-2.275001,-0.8587935,0.25282431,-0.44559348,0
1.9183497,2.3732367,-2.84412,0.50840461,0.31321454,-0.80213547,0
-2.3425257,-1.6799123,2.8459978,-0.50840461,-0.31321454,0.80213547,0
1.5265752,0.81608057,-1.3570397,0.8587935,-0.25282431,0.44559348,0
-2.0093358,-5.2808723,1.1602399,-0.063232988,-0.91541052,-0.3975237,0
1.9558797,3.9814386,-2.192369,0.50840461,0.31321454,-0.80213547,0
1.6478271,1.5262907,-1.1877644,0.8587935,-0.25282431,0.44559348,0
-1.2305908,-4.8631921,0.074539185,-0.063232988,-0.91541052,-0.3975237,0
2.1620274,-0.79693061,-3.9275477,0.50840461,0.31321454,-0.80213547,0
2.3117812,0.97317344,-3.141449,0.50840461,0.31321454,-0.80213547,0
0.27074683,-3.9885681,-2.1783426,-0.063232988,-0.91541052,-0.3975237,0
0.19336128,4.4147139,1.1231968,0.063232988,0.91541052,0.3975237,0
2.3648708,3.4121249,-2.1554482,0.50840461,0.31321454,-0.80213547,0
-0.72542334,-4.3647671,-1.1535807,-0.063232988,-0.91541052,-0.3975237,0
-0.32419598,-4.0790992,-1.8752332,-0.063232988,-0.91541052,-0.3975237,0
-2.0701299,-2.1959896,2.8171303,-0.50840461,-0.31321454,0.80213547,0
0.12189806,-2.9181504,-0.76855838,0.8587935,-0.25282431,0.44559348,0
2.0152245,0.36735189,-3.5659695,0.50840461,0.31321454,-0.80213547,0
0.53884792,1.400411,-1.3660457,-0.8587935,0.25282431,-0.44559348,0
-1.3681267,1.4916801,2.3610568,-0.8587935,0.25282431,-0.44559348,0
-0.95777088,3.2178259,4.0624776,0.063232988,0.91541052,0.3975237,0
-1.7738427,2.0194654,4.6509547,-0.50840461,-0.31321454,0.80213547,0
1.9481558,-1.3232315,-4.26861,0.50840461,0.31321454,-0.80213547,0
0.71986246,-3.4307847,-3.5342355,-0.063232988,-0.91541052,-0.3975237,0
1.6574581,-2.0245318,-4.7266998,0.50840461,0.31321454,-0.80213547,0
2.2943013,1.5294737,-2.4319093,0.8587935,-0.25282431,0.44559348,0
-1.1462289,2.8741632,4.8838348,0.063232988,0.91541052,0.3975237,0
0.63975894,0.67476332,-1.9722557,-0.8587935,0.25282431,-0.44559348,0
1.0760736,-3.5062497,-3.4171181,-0.063232988,-0.91541052,-0.3975237,0
-2.3172164,-1.4564569,2.517503,-0.8587935,0.25282431,-0.44559348,0
0.80686545,1.7128261,-1.7053362,-0.8587935,0.25282431,-0.44559348,0
-2.5082304,-4.7609353,1.5379066,-0.50840461,-0.31321454,0.80213547,0
-2.21965,-1.5299997,2.9824157,-0.50840461,-0.31321454,0.80213547,0
0.048954606,3.760205,2.6533592,0.063232988,0.91541052,0.3975237,0
1.1094198,3.4259267,0.92774034,0.8587935,-0.25282431,0.44559348,0
-0.90098596,-4.2279878,-1.4406273,-0.063232988,-0.91541052,-0.3975237,0
2.1578798,4.5514927,-1.841746,0.50840461,0.31321454,-0.80213547,0
2.1179512,5.3752003,-1.394733,0.063232988,0.91541052,0.3975237,0
1.3389103,4.7183347,0.24180484,0.063232988,0.91541052,0.3975237,0
-1.2416157,-1.3246067,2.7635024,0.8587935,-0.25282431,0.44559348,0
-0.98339009,-2.8273368,1.413193,0.8587935,-0.25282431,0.44559348,0
-2.3886333,-5.0738354,1.491529,-0.50840461,-0.31321454,0.80213547,0
1.8054798,5.2310944,-1.0131838,0.063232988,0.91541052,0.3975237,0
-2.1957669,-4.5023236,1.8369321,-0.50840461,-0.31321454,0.80213547,0
-0.19930536,1.9986627,0.39603961,-0.8587935,0.25282431,-0.44559348,0
1.1191435,-2.5330117,-2.4720292,0.8587935,-0.25282431,0.44559348,0
-1.8671976,0.87756014,4.1458988,-0.50840461,-0.31321454,0.80213547,0
-1.6980553,0.70075953,4.1840672,-0.50840461,-0.31321454,0.80213547,0
1.9847449,1.180895,-3.2676187,0.50840461,0.31321454,-0.80213547,0
-1.390035,-0.60148931,3.4598391,0.8587935,-0.25282431,0.44559348,0
1.671097,3.526485,-2.341924,-0.8587935,0.25282431,-0.44559348,0
-2.1255603,-2.3108242,2.7371576,-0.50840461,-0.31321454,0.80213547,0
-1.0416473,3.1397247,4.2556691,0.063232988,0.91541052,0.3975237,0
-1.6494169,0.49138129,4.1331377,-0.50840461,-0.31321454,0.80213547,0
-2.1728642,-3.3401194,2.3052609,-0.50840461,-0.31321454,0.80213547,0
0.074981093,-3.5329854,-3.1963105,-0.063232988,-0.91541052,-0.3975237,0
0.45928496,0.23736036,-1.8726046,-0.8587935,0.25282431,-0.44559348,0
2.0169883,3.0710833,-2.5091095,0.50840461,0.31321454,-0.80213547,0
2.1064863,-0.73720884,-3.9394305,0.50840461,0.31321454,-0.80213547,0
-0.52262521,-2.2351673,0.86114913,0.8587935,-0.25282431,0.44559348,0
-2.4168553,-2.9380829,2.3076017,-0.50840461,-0.31321454,0.80213547,0
0.087411642,2.8714232,0.33864284,-0.8587935,0.25282431,-0.44559348,0
-0.6010384,3.4729419,2.006789,-0.8587935,0.25282431,-0.44559348,0
-2.6118705,-4.1366172,1.7159996,-0.50840461,-0.31321454,0.80213547,0
-2.0246139,-0.15372133,3.6434357,-0.50840461,-0.31321454,0.80213547,0
1.2547312,-0.27171743,-3.694515,-0.8587935,0.25282431,-0.44559348,0
-0.91757739,-3.7694516,-1.4923909,-0.8587935,0.25282431,-0.44559348,0
0.53092468,2.3473003,-0.81352186,-0.8587935,0.25282431,-0.44559348,0
1.5686545,4.2553291,0.51324916,0.8587935,-0.25282431,0.44559348,0
-0.87814307,-2.8295,1.2091225,0.8587935,-0.25282431,0.44559348,0
-1.5259788,-3.9887631,-0.44425154,-0.8587935,0.25282431,-0.44559348,0
-1.3164656,3.2487054,4.0484252,0.063232988,0.91541052,0.3975237,0
-0.48420167,-4.5984802,-0.65376019,-0.063232988,-0.91541052,-0.3975237,0
-2.0746379,2.7699561,4.7533555,-0.50840461,-0.31321454,0.80213547,0
-1.1911577,-0.70290351,3.0190017,0.8587935,-0.25282431,0.44559348,0
-0.14442576,0.24693745,-0.70363748,-0.8587935,0.25282431,-0.44559348,0
-2.6336963,-5.2250853,1.1310892,-0.063232988,-0.91541052,-0.3975237,0
1.2305176,-3.073379,-4.4384918,-0.063232988,-0.91541052,-0.3975237,0
1.9473591,0.091363788,-3.7167499,0.50840461,0.31321454,-0.80213547,0
2.179934,1.8065166,-2.8996153,0.50840461,0.31321454,-0.80213547,0
-1.8733108,1.7462534,4.4812284,-0.50840461,-0.31321454,0.80213547,0
-2.1117969,3.0339704,4.6694241,0.063232988,0.91541052,0.3975237,0
-1.3786498,-1.6042669,0.62473541,-0.8587935,0.25282431,-0.44559348,0
-0.062719703,-4.2026601,-1.6322925,-0.063232988,-0.91541052,-0.3975237,0
1.828378,4.9240432,-0.30975461,0.063232988,0.91541052,0.3975237,0
-2.0865924,1.9889172,4.4408016,-0.50840461,-0.31321454,0.80213547,0
-2.2130635,-4.9959216,0.53646564,-0.063232988,-0.91541052,-0.3975237,0
-0.75414538,-4.1730394,-1.5905192,-0.063232988,-0.91541052,-0.3975237,0
-0.56736356,-1.4714125,-0.86347914,-0.8587935,0.25282431,-0.44559348,0
0.55157065,1.4072164,0.85749292,0.8587935,-0.25282431,0.44559348,0
0.53965199,-1.3404406,-2.9227214,-0.8587935,0.25282431,-0.44559348,0
-1.2983735,-3.125412,1.8511364,0.8587935,-0.25282431,0.44559348,0
2.4076138,1.493162,-2.8776655,0.50840461,0.31321454,-0.80213547,0
-2.2414436,-4.6435356,0.56315541,-0.8587935,0.25282431,-0.44559348,0
-2.1392894,-4.9673367,0.45890641,-0.063232988,-0.91541052,-0.3975237,0
1.987674,2.8876576,-2.5993125,0.50840461,0.31321454,-0.80213547,0
2.0066526,3.8064985,-2.2284982,0.50840461,0.31321454,-0.80213547,0
-2.3639305,-3.2487426,2.219841,-0.50840461,-0.31321454,0.80213547,0
2.3002717,3.2247782,-2.2695467,0.50840461,0.31321454,-0.80213547,0
2.026403,-0.86266392,-4.0391755,0.50840461,0.31321454,-0.80213547,0
2.3324354,5.0079913,-0.5832479,0.063232988,0.91541052,0.3975237,0
1.9734743,-1.8190017,-4.4461493,0.50840461,0.31321454,-0.80213547,0
1.6620411,-0.95281971,-4.3053169,0.50840461,0.31321454,-0.80213547,0
0.45689067,-1.3409055,-0.51928109,0.8587935,-0.25282431,0.44559348,0
0.51539451,-0.33026195,-0.058608867,0.8587935,-0.25282431,0.44559348,0
1.3818233,-3.3673875,-3.7855222,-0.063232988,-0.91541052,-0.3975237,0
-1.41254,1.7656038,4.7808266,-0.50840461,-0.31321454,0.80213547,0
-1.3423228,3.1956143,4.1747952,0.063232988,0.91541052,0.3975237,0
-2.0774992,3.0172486,4.7024755,0.063232988,0.91541052,0.3975237,0
-0.69199717,3.3559091,3.7022257,0.063232988,0.91541052,0.3975237,0
-2.2184765,-3.3751106,1.2385796,-0.8587935,0.25282431,-0.44559348,0
-0.66613114,-0.62534869,2.05112,0.8587935,-0.25282431,0.44559348,0
-0.12322491,-1.4796168,-1.7241241,-0.8587935,0.25282431,-0.44559348,0
0.14141965,4.2665925,1.4725502,0.063232988,0.91541052,0.3975237,0
0.27582431,-1.587328,-0.31012851,0.8587935,-0.25282431,0.44559348,0
-1.3478497,-3.1030087,-0.28499436,-0.8587935,0.25282431,-0.44559348,0
1.4008757,-3.3222277,-3.8925457,-0.063232988,-0.91541052,-0.3975237,0
-1.4256139,-4.9687743,0.34869456,-0.063232988,-0.91541052,-0.3975237,0
1.3949393,-0.8937853,-2.073494,0.8587935,-0.25282431,0.44559348,0
2.4129477,1.5069346,-2.868907,0.50840461,0.31321454,-0.80213547,0
0.30777776,1.7337532,-0.73156941,-0.8587935,0.25282431,-0.44559348,0
-1.0230943,3.6059549,3.1790915,0.063232988,0.91541052,0.3975237,0
2.2796557,5.3334899,-1.3244057,0.063232988,0.91541052,0.3975237,0
2.4962845,5.0981913,-0.81702185,0.063232988,0.91541052,0.3975237,0
-1.347554,-4.7776065,-0.10394049,-0.063232988,-0.91541052,-0.3975237,0
-1.4126021,1.2402641,4.5483217,0.8587935,-0.25282431,0.44559348,0
1.8356545,5.2050285,-0.95796013,0.063232988,0.91541052,0.3975237,0
0.8456614,4.7357864,0.28007746,0.063232988,0.91541052,0.3975237,0
-1.1113249,-0.22502637,3.1362813,0.8587935,-0.25282431,0.44559348,0
-0.5107913,1.6141549,0.77820218,-0.8587935,0.25282431,-0.44559348,0
-2.1694257,-2.0833938,1.8769487,-0.8587935,0.25282431,-0.44559348,0
1.3584656,-3.0186517,-4.5848694,-0.063232988,-0.91541052,-0.3975237,0
-1.7928361,-0.48613191,3.6605415,-0.50840461,-0.31321454,0.80213547,0
1.3730024,-3.0670505,-4.4757299,-0.063232988,-0.91541052,-0.3975237,0
-1.7445495,0.99508935,4.2695274,-0.50840461,-0.31321454,0.80213547,0
-2.1298521,-5.0370388,0.6179142,-0.063232988,-0.91541052,-0.3975237,0
-2.3815165,-5.2573757,1.1653337,-0.063232988,-0.91541052,-0.3975237,0
-1.7751405,-2.1036053,3.0401726,-0.50840461,-0.31321454,0.80213547,0
0.69211835,0.14545888,-0.12929095,0.8587935,-0.25282431,0.44559348,0
-1.4392207,-4.4658313,-0.8073101,-0.063232988,-0.91541052,-0.3975237,0
1.1112295,4.2838411,1.2785649,0.063232988,0.91541052,0.3975237,0
2.2661808,5.2772093,-1.4897285,0.50840461,0.31321454,-0.80213547,0
-2.0490663,-3.1604321,2.4538889,-0.50840461,-0.31321454,0.80213547,0
1.7159209,-1.2723444,-4.3959341,0.50840461,0.31321454,-0.80213547,0
2.357121,1.343559,-2.6584675,0.8587935,-0.25282431,0.44559348,0
1.6083741,1.7143197,-1.0050404,0.8587935,-0.25282431,0.44559348,0
-0.31309205,3.8819296,2.4306431,0.063232988,0.91541052,0.3975237,0
-2.008512,1.305367,4.2233801,-0.50840461,-0.31321454,0.80213547,0
0.73154205,-0.20079815,-2.6459322,-0.8587935,0.25282431,-0.44559348,0
2.1008236,2.7670841,-2.5746779,0.50840461,0.31321454,-0.80213547,0
1.3901386,-0.38840079,-4.0216908,-0.8587935,0.25282431,-0.44559348,0
-2.0658879,1.6523004,4.3224835,-0.50840461,-0.31321454,0.80213547,0
-0.81631672,3.2157264,4.0448112,0.063232988,0.91541052,0.3975237,0
-1.5550984,2.3926468,3.2326047,-0.8587935,0.25282431,-0.44559348,0
0.28536132,-3.4991312,-3.307734,-0.063232988,-0.91541052,-0.3975237,0
-2.2845292,-5.2621288,1.1608508,-0.063232988,-0.91541052,-0.3975237,0
-2.2080226,-4.8924809,0.35749459,-0.8587935,0.25282431,-0.44559348,0
2.2739782,2.3956563,-1.9012792,0.8587935,-0.25282431,0.44559348,0
-1.1887804,3.1957135,4.1501431,0.063232988,0.91541052,0.3975237,0
1.4595318,-2.5940738,-5.0745401,0.50840461,0.31321454,-0.80213547,0
0.0049049854,4.327343,1.323729,-0.8587935,0.25282431,-0.44559348,0
-1.695142,0.87085354,4.2523313,-0.50840461,-0.31321454,0.80213547,0
-2.0714793,3.0063889,4.7265248,0.063232988,0.91541052,0.3975237,0
-2.6247385,-4.3523021,1.4671233,-0.8587935,0.25282431,-0.44559348,0
-1.6025015,1.2805605,4.4710293,-0.50840461,-0.31321454,0.80213547,0
-2.2091064,1.7315032,4.2626367,-0.50840461,-0.31321454,0.80213547,0
-1.5920041,2.6618452,5.0170403,-0.50840461,-0.31321454,0.80213547,0
-0.84285629,3.1065855,2.2649789,-0.8587935,0.25282431,-0.44559348,0
-0.61477363,3.2083967,4.0296311,0.063232988,0.91541052,0.3975237,0
0.21476942,2.8606896,2.3312936,0.8587935,-0.25282431,0.44559348,0
-0.53688467,3.560472,3.2064879,0.063232988,0.91541052,0.3975237,0
0.4219324,1.5538507,1.1905433,0.8587935,-0.25282431,0.44559348,0
-0.48961341,-4.0691729,-1.8717782,-0.063232988,-0.91541052,-0.3975237,0
1.5345348,2.4588962,-0.44026637,0.8587935,-0.25282431,0.44559348,0
1.2653666,4.7134347,-0.88649845,-0.8587935,0.25282431,-0.44559348,0
1.9251015,3.8294263,-0.41538453,0.8587935,-0.25282431,0.44559348,0
-0.47212958,-4.4778495,-0.93346667,-0.063232988,-0.91541052,-0.3975237,0
1.651258,1.6198076,-3.3076026,0.50840461,0.31321454,-0.80213547,0
-0.59665257,0.91979879,2.7939119,0.8587935,-0.25282431,0.44559348,0
2.0355856,-2.2553101,-4.0807266,0.8587935,-0.25282431,0.44559348,0
-2.2729528,-2.1201899,2.7181766,-0.50840461,-0.31321454,0.80213547,0
-0.19286597,4.1041455,1.8998048,0.063232988,0.91541052,0.3975237,0
-2.5251772,-2.3357432,2.4741449,-0.50840461,-0.31321454,0.80213547,0
0.33499336,3.831331,2.444072,0.063232988,0.91541052,0.3975237,0
1.7787168,5.0028224,-1.7116847,-0.8587935,0.25282431,-0.44559348,0
-1.7581488,0.84881854,4.2037926,-0.50840461,-0.31321454,0.80213547,0
0.87546921,4.2081189,1.4904389,0.063232988,0.91541052,0.3975237,0
1.7219877,4.7024913,0.21735406,0.063232988,0.91541052,0.3975237,0
1.4167645,-3.203217,-4.1691294,-0.063232988,-0.91541052,-0.3975237,0
-1.5777445,-3.0872724,2.4112096,0.8587935,-0.25282431,0.44559348,0
-1.812772,3.2073767,4.2225423,0.063232988,0.91541052,0.3975237,0
0.6145798,4.278965,1.3687954,0.063232988,0.91541052,0.3975237,0
1.7601001,0.6584717,-3.6139951,0.50840461,0.31321454,-0.80213547,0
0.17883641,-3.5633719,-3.1428571,-0.063232988,-0.91541052,-0.3975237,0
-1.7190886,1.3990115,4.4433866,-0.50840461,-0.31321454,0.80213547,0
2.4418542,5.196466,-1.0346694,0.063232988,0.91541052,0.3975237,0
-0.094492078,4.0803185,1.9390247,0.063232988,0.91541052,0.3975237,0
-1.8592579,-0.59288353,2.1248591,-0.8587935,0.25282431,-0.44559348,0
-0.1931811,3.7492938,2.7170007,0.063232988,0.91541052,0.3975237,0
2.1787763,0.70771599,-3.3294039,0.50840461,0.31321454,-0.80213547,0
-1.0184104,-4.5501738,-0.68002439,-0.063232988,-0.91541052,-0.3975237,0
1.2072709,-2.8295112,-2.8101077,0.8587935,-0.25282431,0.44559348,0
2.645921,4.1144223,-1.7030843,0.50840461,0.31321454,-0.80213547,0
0.2486701,0.92933106,-1.0740705,-0.8587935,0.25282431,-0.44559348,0
-1.0954711,-4.3070083,-1.2277236,-0.063232988,-0.91541052,-0.3975237,0
-1.1725864,1.7366807,4.3673997,0.8587935,-0.25282431,0.44559348,0
-0.58863342,-1.386536,-0.77432799,-0.8587935,0.25282431,-0.44559348,0
-1.6786358,-1.6413883,3.2818232,-0.50840461,-0.31321454,0.80213547,0
-2.0664563,1.5165937,4.2691331,-0.50840461,-0.31321454,0.80213547,0
1.7439163,4.721045,0.17114043,0.063232988,0.91541052,0.3975237,0
-1.7064817,-1.8116133,3.1977053,-0.50840461,-0.31321454,0.80213547,0
-2.0993512,-3.8168216,2.1657143,-0.50840461,-0.31321454,0.80213547,0
-1.8559806,-3.6631002,2.3799896,-0.50840461,-0.31321454,0.80213547,0
-1.5809331,-4.6213751,-0.42658377,-0.063232988,-0.91541052,-0.3975237,0
-1.962888,-3.2555585,2.4713655,-0.50840461,-0.31321454,0.80213547,0
-2.2079484,-2.3906846,1.7768409,-0.8587935,0.25282431,-0.44559348,0
-1.0550969,1.3708389,3.9333878,0.8587935,-0.25282431,0.44559348,0
1.9476752,4.3885713,-2.0385938,0.50840461,0.31321454,-0.80213547,0
-1.9082383,0.20770371,2.6735024,-0.8587935,0.25282431,-0.44559348,0
0.99934918,-3.4031928,-3.6422315,-0.063232988,-0.91541052,-0.3975237,0
1.6720459,1.2494279,-3.4390514,0.50840461,0.31321454,-0.80213547,0
0.20527279,4.3518562,1.2660491,0.063232988,0.91541052,0.3975237,0
-0.12971863,3.2136583,3.1954963,0.8587935,-0.25282431,0.44559348,0
1.5358166,-0.88315499,-4.3581171,0.50840461,0.31321454,-0.80213547,0
-1.5325843,2.9919436,4.6740694,0.063232988,0.91541052,0.3975237,0
-1.1475521,-0.48423374,3.0590312,0.8587935,-0.25282431,0.44559348,0
-1.4545531,0.054150105,3.9561872,0.8587935,-0.25282431,0.44559348,0
-0.76469564,3.4849005,3.4167514,0.063232988,0.91541052,0.3975237,0
1.9740882,5.2650809,-1.1182687,0.063232988,0.91541052,0.3975237,0
-0.58954471,-0.52786469,-0.28537184,-0.8587935,0.25282431,-0.44559348,0
-1.1377934,3.1194816,4.3175788,0.063232988,0.91541052,0.3975237,0
-0.53012741,2.4251499,3.519815,0.8587935,-0.25282431,0.44559348,0
0.22545218,-2.6533103,-0.81787157,0.8587935,-0.25282431,0.44559348,0
1.3772886,-1.9559153,-4.8774819,0.50840461,0.31321454,-0.80213547,0
-1.1225269,-3.089915,-0.7118299,-0.8587935,0.25282431,-0.44559348,0
-1.9946275,-5.3700905,1.3633494,-0.063232988,-0.91541052,-0.3975237,0
1.9273814,-2.9436746,-4.848021,-0.063232988,-0.91541052,-0.3975237,0
