2.8119783,0.42476606,-4.2281928,0.76144147,-0.2776238,-0.5857746,0
-0.20850468,-1.9454342,2.4472268,-0.57341015,-0.70992887,-0.40890312,0
4.3744273,-4.7347078,0.87591648,0.30233711,-0.64724493,0.69976151,0
3.6771989,-2.2130859,-0.091486931,0.57341015,0.70992887,0.40890312,0
3.7385526,-3.89239,1.9297533,0.30233711,-0.64724493,0.69976151,0
4.3836598,-2.9474344,-0.58695245,0.76144147,-0.2776238,-0.5857746,0
-2.635534,-1.2328303,4.8405266,-0.76144147,0.2776238,0.5857746,0
3.6345782,-1.843858,-0.67276537,0.57341015,0.70992887,0.40890312,0
0.81344008,1.1839736,-4.4190702,-0.57341015,-0.70992887,-0.40890312,0
2.5223646,-3.9716358,2.3819175,0.30233711,-0.64724493,0.69976151,0
4.3288112,-3.0517077,-0.60882974,0.76144147,-0.2776238,-0.5857746,0
-0.91941881,2.9308665,-4.0371428,-0.30233711,0.64724493,-0.69976151,0
-3.1766415,1.9207796,2.3426116,0.57341015,0.70992887,0.40890312,0
3.3577347,-1.9293259,-2.4030657,0.76144147,-0.2776238,-0.5857746,0
3.9692194,-3.105386,-1.0508182,0.76144147,-0.2776238,-0.5857746,0
3.4162583,-0.53283864,-2.9888468,0.76144147,-0.2776238,-0.5857746,0
-3.4778299,0.96642452,2.7033155,-0.76144147,0.2776238,0.5857746,0
-0.73479521,3.0570912,-4.0001583,-0.30233711,0.64724493,-0.69976151,0
-2.6632912,-0.80288291,4.6006756,-0.76144147,0.2776238,0.5857746,0
1.0564499,2.1552601,-4.0006065,0.57341015,0.70992887,0.40890312,0
-2.6767161,0.34662461,4.0384235,-0.76144147,0.2776238,0.5857746,0
-4.5273623,4.1292386,-0.15995264,-0.76144147,0.2776238,0.5857746,0
2.0936208,1.5428072,-5.691865,0.76144147,-0.2776238,-0.5857746,0
0.52928519,2.1595871,-5.3764601,-0.30233711,0.64724493,-0.69976151,0
-4.0211277,2.7615156,1.1463186,-0.76144147,0.2776238,0.5857746,0
-4.3795581,3.7633586,0.20558262,-0.76144147,0.2776238,0.5857746,0
-3.5362835,1.7706627,2.2461693,-0.76144147,0.2776238,0.5857746,0
-0.566764,3.1966012,-3.943717,-0.30233711,0.64724493,-0.69976151,0
-0.86133647,-2.7240407,4.9978342,0.30233711,-0.64724493,0.69976151,0
0.049176693,0.42166531,-2.0238309,-0.57341015,-0.70992887,-0.40890312,0
2.2414489,0.39804363,-4.9571524,0.76144147,-0.2776238,-0.5857746,0
1.84431,-2.9300323,3.6383085,0.30233711,-0.64724493,0.69976151,0
1.1642644,0.39205134,-1.0905509,0.57341015,0.70992887,0.40890312,0
-2.3997211,3.6568818,-2.726038,-0.30233711,0.64724493,-0.69976151,0
-0.4811399,2.0908999,-1.7326837,0.57341015,0.70992887,0.40890312,0
3.9272976,-4.4334645,0.96720266,-0.57341015,-0.70992887,-0.40890312,0
3.5771639,-2.3002889,-1.9420165,0.76144147,-0.2776238,-0.5857746,0
-2.3952692,3.9587183,-2.2913418,0.57341015,0.70992887,0.40890312,0
-0.63544536,-2.1545625,5.4269757,0.30233711,-0.64724493,0.69976151,0
-2.6610432,3.0285468,-0.30370092,0.57341015,0.70992887,0.40890312,0
-3.59589,2.2309933,-0.053623438,-0.57341015,-0.70992887,-0.40890312,0
0.82626879,-2.7717216,4.2245893,0.30233711,-0.64724493,0.69976151,0
-1.4410069,2.8209159,-3.913486,-0.30233711,0.64724493,-0.69976151,0
1.9356492,-1.3982973,0.93609142,0.57341015,0.70992887,0.40890312,0
2.4786143,0.57072449,-4.7307048,0.76144147,-0.2776238,-0.5857746,0
-3.0646262,3.6194463,-2.4733872,-0.30233711,0.64724493,-0.69976151,0
2.3468947,0.0069511831,-2.0803654,0.57341015,0.70992887,0.40890312,0
-4.8874621,3.5210233,-0.33978319,-0.76144147,0.2776238,0.5857746,0
-0.16761875,-2.2185936,5.1656213,0.30233711,-0.64724493,0.69976151,0
-0.39443731,-1.6038288,2.1148741,-0.57341015,-0.70992887,-0.40890312,0
-1.3952578,0.38055646,2.5186577,0.57341015,0.70992887,0.40890312,0
1.7904723,1.2620577,-3.479176,0.57341015,0.70992887,0.40890312,0
1.6617032,-3.1225553,3.5391302,0.30233711,-0.64724493,0.69976151,0
-4.9635677,4.0737123,-0.70065451,-0.76144147,0.2776238,0.5857746,0
0.57509422,-2.9597402,4.1592031,0.30233711,-0.64724493,0.69976151,0
1.0394473,2.0179501,-3.7383685,0.57341015,0.70992887,0.40890312,0
-0.68727851,-2.613246,5.0251112,0.30233711,-0.64724493,0.69976151,0
-3.5474594,2.4849138,1.8831761,0.57341015,0.70992887,0.40890312,0
0.66274476,1.2017974,-4.2386937,-0.57341015,-0.70992887,-0.40890312,0
3.473809,-3.7060733,2.2164712,0.30233711,-0.64724493,0.69976151,0
3.5929809,-1.665351,-2.2223811,0.76144147,-0.2776238,-0.5857746,0
4.35288,-2.369277,-0.90097618,0.76144147,-0.2776238,-0.5857746,0
2.3682697,0.34845662,-4.7687979,0.76144147,-0.2776238,-0.5857746,0
0.038795918,-0.33795303,-0.6904406,-0.57341015,-0.70992887,-0.40890312,0
-1.0809554,2.0532212,-3.2717047,-0.57341015,-0.70992887,-0.40890312,0
0.3947618,-2.9792709,4.2190518,0.30233711,-0.64724493,0.69976151,0
3.6520534,-4.3464603,1.5471334,0.30233711,-0.64724493,0.69976151,0
4.1089878,-4.5136547,1.1950645,0.30233711,-0.64724493,0.69976151,0
3.994772,-4.2835064,1.4572887,0.30233711,-0.64724493,0.69976151,0
3.4435894,-2.0615945,-2.2287757,0.76144147,-0.2776238,-0.5857746,0
-3.799547,3.3379827,-1.6899643,-0.57341015,-0.70992887,-0.40890312,0
3.6903615,-4.4706049,1.3639441,-0.57341015,-0.70992887,-0.40890312,0
-4.3693171,3.6394269,0.27763176,-0.76144147,0.2776238,0.5857746,0
-2.3665793,0.82228577,3.1138332,0.57341015,0.70992887,0.40890312,0
1.8495905,1.5489521,-6.0119891,0.76144147,-0.2776238,-0.5857746,0
-1.9303441,0.17375565,3.6280589,0.57341015,0.70992887,0.40890312,0
-3.0079341,4.0959754,-2.0571156,-0.30233711,0.64724493,-0.69976151,0
-0.94396639,-1.9431266,5.7558422,0.30233711,-0.64724493,0.69976151,0
-0.40570736,2.9833777,-3.3879647,0.57341015,0.70992887,0.40890312,0
-4.7135739,3.1576071,0.058490992,-0.76144147,0.2776238,0.5857746,0
1.2289391,-3.4403498,3.0269213,-0.57341015,-0.70992887,-0.40890312,0
2.2321608,1.2531564,-5.3745003,0.76144147,-0.2776238,-0.5857746,0
4.1558313,-3.4328465,-0.65304589,0.76144147,-0.2776238,-0.5857746,0
1.3535776,2.4032722,-5.507206,-0.30233711,0.64724493,-0.69976151,0
1.6060778,-2.447542,3.2199297,0.57341015,0.70992887,0.40890312,0
4.1593699,-3.7856669,-0.48122954,0.76144147,-0.2776238,-0.5857746,0
-1.7869364,0.65967071,2.5833216,0.57341015,0.70992887,0.40890312,0
-0.69162488,-2.4525599,5.1756163,0.30233711,-0.64724493,0.69976151,0
-2.0117626,-0.92646217,5.5061588,-0.76144147,0.2776238,0.5857746,0
2.2814813,-2.7739837,2.8395643,0.57341015,0.70992887,0.40890312,0
-0.16946715,-0.044011712,-0.90872514,-0.57341015,-0.70992887,-0.40890312,0
4.6841908,-3.8405428,0.22698689,0.76144147,-0.2776238,-0.5857746,0
-2.5493767,2.6987863,-2.3333344,-0.57341015,-0.70992887,-0.40890312,0
-3.3598375,3.3699694,0.08345747,0.57341015,0.70992887,0.40890312,0
-3.0050423,3.9501066,-2.1932864,-0.30233711,0.64724493,-0.69976151,0
0.10598469,-0.57275391,2.0685625,0.57341015,0.70992887,0.40890312,0
3.3101668,-1.6456032,-2.5993667,0.76144147,-0.2776238,-0.5857746,0
-2.0653656,3.2951174,-3.2051134,-0.30233711,0.64724493,-0.69976151,0
-4.3862433,4.0863585,-1.4705024,-0.30233711,0.64724493,-0.69976151,0
1.711147,-2.1082082,0.037879705,-0.57341015,-0.70992887,-0.40890312,0
2.547787,1.2926857,-4.9829559,0.76144147,-0.2776238,-0.5857746,0
2.5760069,-3.443294,2.8474317,0.30233711,-0.64724493,0.69976151,0
-3.6162529,2.6079044,1.7454127,-0.76144147,0.2776238,0.5857746,0
-4.2632174,2.8934102,0.76911831,-0.76144147,0.2776238,0.5857746,0
0.54151165,-3.1862068,3.5496716,-0.57341015,-0.70992887,-0.40890312,0
0.30889559,-2.7250922,4.4912539,0.30233711,-0.64724493,0.69976151,0
0.24613607,-0.95087814,2.5285177,0.57341015,0.70992887,0.40890312,0
-4.2014728,2.1929958,1.1813356,-0.76144147,0.2776238,0.5857746,0
-4.5023608,2.8273311,0.4895761,-0.76144147,0.2776238,0.5857746,0
-3.6866984,0.84745663,2.488194,-0.76144147,0.2776238,0.5857746,0
-2.4431205,2.1617153,0.8956784,0.57341015,0.70992887,0.40890312,0
3.8278825,-2.898303,-1.3326859,0.76144147,-0.2776238,-0.5857746,0
3.8979483,-2.7250855,-1.3237039,0.76144147,-0.2776238,-0.5857746,0
-1.8019223,2.9980102,-3.5937457,-0.30233711,0.64724493,-0.69976151,0
-2.5263588,0.19215775,4.3070793,-0.76144147,0.2776238,0.5857746,0
2.8622494,-0.87214577,-3.5481839,0.76144147,-0.2776238,-0.5857746,0
-3.7913058,4.4779429,-1.2351294,0.57341015,0.70992887,0.40890312,0
3.2892163,-4.2152767,1.8252382,0.30233711,-0.64724493,0.69976151,0
-1.2740507,-2.4359839,5.4425888,0.30233711,-0.64724493,0.69976151,0
2.9325237,0.4822185,-4.0987263,0.76144147,-0.2776238,-0.5857746,0
-4.6289816,3.823127,-0.14696693,-0.76144147,0.2776238,0.5857746,0
2.3867304,0.58188808,-4.8554344,0.76144147,-0.2776238,-0.5857746,0
-3.3995101,1.752912,2.4323716,-0.76144147,0.2776238,0.5857746,0
-2.1167793,3.8841767,-2.6380491,-0.30233711,0.64724493,-0.69976151,0
-2.0589244,-1.2863691,5.6154299,-0.76144147,0.2776238,0.5857746,0
0.051005363,-2.1645429,4.9092908,0.57341015,0.70992887,0.40890312,0
-0.43655407,3.1784472,-4.016768,-0.30233711,0.64724493,-0.69976151,0
-3.431901,3.5449991,-2.3835635,-0.30233711,0.64724493,-0.69976151,0
4.7798629,-4.2836123,0.56133938,0.76144147,-0.2776238,-0.5857746,0
2.8596134,-3.4437633,2.724463,0.30233711,-0.64724493,0.69976151,0
-0.22094059,-2.7803133,4.6690979,0.30233711,-0.64724493,0.69976151,0
0.076013818,-1.0508953,0.49516356,-0.57341015,-0.70992887,-0.40890312,0
-4.7244673,4.3108439,-1.1167321,-0.30233711,0.64724493,-0.69976151,0
1.7678518,1.5812101,-6.1335287,0.76144147,-0.2776238,-0.5857746,0
0.92509782,-2.0009484,0.95394397,-0.57341015,-0.70992887,-0.40890312,0
3.3028936,-1.1231751,-2.8564224,0.76144147,-0.2776238,-0.5857746,0
-0.92580605,-1.0621872,4.3651991,0.57341015,0.70992887,0.40890312,0
3.3460252,-3.821595,2.1648297,0.30233711,-0.64724493,0.69976151,0
-3.1519251,4.1858997,-1.624701,0.57341015,0.70992887,0.40890312,0
-0.89362681,1.5948997,-0.2931031,0.57341015,0.70992887,0.40890312,0
-3.0651116,3.4222031,-2.6556182,-0.30233711,0.64724493,-0.69976151,0
-2.968013,1.0053602,3.3475668,-0.76144147,0.2776238,0.5857746,0
3.4104552,-1.6721551,-2.4564185,0.76144147,-0.2776238,-0.5857746,0
1.3162096,2.3592634,-5.5317659,-0.30233711,0.64724493,-0.69976151,0
-4.435245,4.1910553,-0.069508076,-0.76144147,0.2776238,0.5857746,0
-2.3235974,3.5490823,-2.8586373,-0.30233711,0.64724493,-0.69976151,0
2.6479399,-3.7902012,2.4954805,0.30233711,-0.64724493,0.69976151,0
-1.0874152,-2.2077882,5.5730205,0.30233711,-0.64724493,0.69976151,0
-0.25997323,1.2096394,-0.51280284,0.57341015,0.70992887,0.40890312,0
4.3100977,-3.7094426,1.6189327,0.57341015,0.70992887,0.40890312,0
-2.8747718,0.13715589,3.8802493,-0.76144147,0.2776238,0.5857746,0
2.1458778,-0.62581748,-0.69987762,0.57341015,0.70992887,0.40890312,0
4.4392242,-3.2690542,-0.36229539,0.76144147,-0.2776238,-0.5857746,0
2.3988361,-3.5993881,1.6624789,-0.57341015,-0.70992887,-0.40890312,0
1.8699052,2.3024592,-5.823535,-0.30233711,0.64724493,-0.69976151,0
-0.43482718,-0.0085634589,-0.5981518,-0.57341015,-0.70992887,-0.40890312,0
0.97244,-2.248024,1.3165226,-0.57341015,-0.70992887,-0.40890312,0
2.6922505,-1.3472257,-0.21356964,0.57341015,0.70992887,0.40890312,0
-4.3434763,3.3872614,0.43073344,-0.76144147,0.2776238,0.5857746,0
-1.9152329,-2.1651616,5.9701133,0.30233711,-0.64724493,0.69976151,0
-0.23402214,-1.2888968,3.7887113,0.57341015,0.70992887,0.40890312,0
-4.6189427,3.9096742,-0.17493629,-0.76144147,0.2776238,0.5857746,0
-2.9464774,-0.30679905,3.4417577,-0.57341015,-0.70992887,-0.40890312,0
-1.0419061,-1.8770757,5.859252,0.30233711,-0.64724493,0.69976151,0
1.6127672,-2.8139243,3.8457422,0.30233711,-0.64724493,0.69976151,0
-3.5884027,1.0772438,2.5070615,-0.76144147,0.2776238,0.5857746,0
2.0616736,-3.0403988,3.4423108,0.30233711,-0.64724493,0.69976151,0
2.4615607,1.4519974,-4.7500219,0.57341015,0.70992887,0.40890312,0
-2.8855824,-0.51543331,4.1754866,-0.76144147,0.2776238,0.5857746,0
-2.6263397,-0.029179096,4.2820168,-0.76144147,0.2776238,0.5857746,0
3.1255419,-1.0984184,-3.0986927,0.76144147,-0.2776238,-0.5857746,0
-1.3997988,2.7398536,-4.0062675,-0.30233711,0.64724493,-0.69976151,0
3.8672199,-3.6648779,2.0845985,0.30233711,-0.64724493,0.69976151,0
4.7287974,-3.5158412,0.13108063,0.76144147,-0.2776238,-0.5857746,0
1.0441024,-0.33946037,-2.0975776,-0.57341015,-0.70992887,-0.40890312,0
3.8960314,-2.0883906,-1.6279523,0.76144147,-0.2776238,-0.5857746,0
2.1169879,1.2680277,-5.53126,0.76144147,-0.2776238,-0.5857746,0
-4.0741243,3.0545247,-0.81278658,-0.57341015,-0.70992887,-0.40890312,0
4.3262873,-4.4378982,1.1712499,0.30233711,-0.64724493,0.69976151,0
1.6539267,-3.7169652,2.9926906,0.30233711,-0.64724493,0.69976151,0
4.0372062,-4.3604369,1.3677974,0.30233711,-0.64724493,0.69976151,0
-2.2565675,3.7107844,-2.7380314,-0.30233711,0.64724493,-0.69976151,0
-2.3189511,-1.6323197,5.4413843,-0.76144147,0.2776238,0.5857746,0
1.4990821,-3.0612013,3.6661406,0.30233711,-0.64724493,0.69976151,0
-0.040019751,-2.2568102,5.0751438,0.30233711,-0.64724493,0.69976151,0
-3.5987806,0.66966295,2.6867409,-0.76144147,0.2776238,0.5857746,0
4.7458906,-3.5817063,0.18451548,0.76144147,-0.2776238,-0.5857746,0
-0.86722219,3.2532709,-3.761487,-0.30233711,0.64724493,-0.69976151,0
3.4116802,-3.6095753,2.3325701,0.30233711,-0.64724493,0.69976151,0
-3.7787719,3.8677452,-1.9351716,-0.30233711,0.64724493,-0.69976151,0
2.1788449,-0.72061646,-3.0270867,-0.57341015,-0.70992887,-0.40890312,0
-4.6655431,4.5383859,-0.53348494,-0.76144147,0.2776238,0.5857746,0
0.93182981,-3.2413914,3.7445593,0.30233711,-0.64724493,0.69976151,0
0.23034096,2.859941,-4.5995078,-0.30233711,0.64724493,-0.69976151,0
-1.9977537,0.94208038,2.3886395,0.57341015,0.70992887,0.40890312,0
-0.81680369,-2.3355796,5.3379006,0.30233711,-0.64724493,0.69976151,0
-0.68534982,0.80931282,-1.66682,-0.57341015,-0.70992887,-0.40890312,0
2.4969492,-2.6542313,-0.11606741,-0.57341015,-0.70992887,-0.40890312,0
1.8782418,2.4514675,-5.6893115,-0.30233711,0.64724493,-0.69976151,0
3.7241678,-3.7634811,2.055203,0.30233711,-0.64724493,0.69976151,0
-0.54249752,3.2508767,-3.9039998,-0.30233711,0.64724493,-0.69976151,0
-3.8491292,4.298893,-1.5059824,-0.30233711,0.64724493,-0.69976151,0
2.5448337,-0.23514175,-4.2626929,0.76144147,-0.2776238,-0.5857746,0
0.89155722,2.4181139,-5.293859,-0.30233711,0.64724493,-0.69976151,0
-1.5882742,-2.1824412,5.8128657,0.30233711,-0.64724493,0.69976151,0
0.098127604,-2.9402282,4.3833284,0.30233711,-0.64724493,0.69976151,0
-2.4482574,0.052278042,4.4748974,-0.76144147,0.2776238,0.5857746,0
4.5285192,-4.3292055,0.2562294,0.76144147,-0.2776238,-0.5857746,0
4.1344862,-4.5524802,0.8832922,-0.57341015,-0.70992887,-0.40890312,0
2.6742804,1.0469445,-4.7020621,0.76144147,-0.2776238,-0.5857746,0
-2.4198189,0.93289006,2.9964626,0.57341015,0.70992887,0.40890312,0
2.1349416,-3.5219283,2.9652638,0.30233711,-0.64724493,0.69976151,0
-2.5444221,1.4642372,2.2486815,0.57341015,0.70992887,0.40890312,0
-2.9025483,0.46513915,3.6886978,-0.76144147,0.2776238,0.5857746,0
1.8687574,-1.6008039,-1.0640845,-0.57341015,-0.70992887,-0.40890312,0
0.27034056,0.66662169,-2.7592597,-0.57341015,-0.70992887,-0.40890312,0
-4.878859,4.2203736,-1.1337061,-0.30233711,0.64724493,-0.69976151,0
-3.0775692,2.3170493,1.5156868,0.57341015,0.70992887,0.40890312,0
3.2908964,-0.70523554,-3.070097,0.76144147,-0.2776238,-0.5857746,0
0.27780378,0.59735632,-2.6494684,-0.57341015,-0.70992887,-0.40890312,0
2.7407351,0.83490527,-4.5151834,0.76144147,-0.2776238,-0.5857746,0
3.5384102,-3.8680203,2.0387664,0.30233711,-0.64724493,0.69976151,0
3.4048886,-1.5150313,-2.5381224,0.76144147,-0.2776238,-0.5857746,0
2.6600013,0.89113832,-4.64678,0.76144147,-0.2776238,-0.5857746,0
-0.17788339,-2.6929533,4.731297,0.30233711,-0.64724493,0.69976151,0
2.9110036,-2.803987,-0.43669915,-0.57341015,-0.70992887,-0.40890312,0
-1.1327602,-0.24507153,3.2367556,0.57341015,0.70992887,0.40890312,0
0.65915728,2.5721118,-5.0510077,-0.30233711,0.64724493,-0.69976151,0
1.2030894,-3.3354416,3.540369,0.30233711,-0.64724493,0.69976151,0
-2.3256276,-0.10607296,2.2226357,-0.57341015,-0.70992887,-0.40890312,0
-3.7931254,1.7137557,1.9392745,-0.76144147,0.2776238,0.5857746,0
-3.1044602,0.38010895,3.4665341,-0.76144147,0.2776238,0.5857746,0
-1.787724,-1.4526269,6.0467558,-0.76144147,0.2776238,0.5857746,0
4.3300123,-2.3876407,-0.92199826,0.76144147,-0.2776238,-0.5857746,0
-0.71825707,0.012594581,-0.23742875,-0.57341015,-0.70992887,-0.40890312,0
-3.279124,3.9722183,-2.0544152,-0.30233711,0.64724493,-0.69976151,0
1.0601052,-0.30147111,-2.1859746,-0.57341015,-0.70992887,-0.40890312,0
-2.8652329,0.98982537,3.4885325,-0.76144147,0.2776238,0.5857746,0
1.1703987,1.9083517,-5.8858385,-0.30233711,0.64724493,-0.69976151,0
-1.9183279,3.8047667,-2.7972422,-0.30233711,0.64724493,-0.69976151,0
-0.24956357,0.74886584,-2.1729817,-0.57341015,-0.70992887,-0.40890312,0
1.4312725,-1.1316789,1.1804883,0.57341015,0.70992887,0.40890312,0
3.6815956,-1.5020114,-1.3322053,0.57341015,0.70992887,0.40890312,0
1.7554781,-1.2397767,-1.5320388,-0.57341015,-0.70992887,-0.40890312,0
2.171572,1.5711813,-5.6039858,0.76144147,-0.2776238,-0.5857746,0
2.7636433,-3.3820143,2.8230419,0.30233711,-0.64724493,0.69976151,0
-4.4385233,4.115303,-0.037867069,-0.76144147,0.2776238,0.5857746,0
1.9275506,1.1545975,-5.7237492,0.76144147,-0.2776238,-0.5857746,0
2.653971,1.2698154,-4.8340902,0.76144147,-0.2776238,-0.5857746,0
3.9628694,-3.2145605,-1.0073299,0.76144147,-0.2776238,-0.5857746,0
-2.8113365,3.3094594,-0.58065653,0.57341015,0.70992887,0.40890312,0
-2.9315562,1.0346074,3.3810952,-0.76144147,0.2776238,0.5857746,0
-2.7634158,3.8180327,-2.4198446,-0.30233711,0.64724493,-0.69976151,0
2.2935443,-3.1996443,3.1948342,0.30233711,-0.64724493,0.69976151,0
-2.9793887,1.0610191,1.113133,-0.57341015,-0.70992887,-0.40890312,0
-2.4769046,-0.27951145,4.5949092,-0.76144147,0.2776238,0.5857746,0
1.7195176,-1.7616435,-0.57555711,-0.57341015,-0.70992887,-0.40890312,0
3.2257609,-1.8456059,-0.096441507,0.57341015,0.70992887,0.40890312,0
-0.89838803,-0.97425497,1.728518,-0.57341015,-0.70992887,-0.40890312,0
3.2075713,-3.6384096,2.3940868,0.30233711,-0.64724493,0.69976151,0
-3.8428395,4.1204834,-1.6737199,-0.30233711,0.64724493,-0.69976151,0
3.464334,-0.93063146,-2.7378225,0.76144147,-0.2776238,-0.5857746,0
0.86827362,1.9286659,-3.3433161,0.57341015,0.70992887,0.40890312,0
0.33419228,-1.0252497,0.08859098,-0.57341015,-0.70992887,-0.40890312,0
3.0437846,-1.1092737,-3.1998234,0.76144147,-0.2776238,-0.5857746,0
-4.5946536,4.0846472,-1.38204,-0.30233711,0.64724493,-0.69976151,0
-3.517091,1.5172894,2.3912015,-0.76144147,0.2776238,0.5857746,0
3.6651814,-2.2477338,-1.8525116,0.76144147,-0.2776238,-0.5857746,0
2.2045956,-0.10937452,-4.1244221,-0.57341015,-0.70992887,-0.40890312,0
-1.8455124,-1.9594916,6.1302247,0.30233711,-0.64724493,0.69976151,0
-1.4192364,1.5106158,0.59029794,0.57341015,0.70992887,0.40890312,0
2.2814529,1.3485883,-5.3556557,0.76144147,-0.2776238,-0.5857746,0
1.6566598,1.9664859,-6.0421596,-0.30233711,0.64724493,-0.69976151,0
4.3322749,-3.9694214,1.6019812,0.30233711,-0.64724493,0.69976151,0
1.8191056,2.4543169,-5.6611266,-0.30233711,0.64724493,-0.69976151,0
1.5218543,-3.1377616,2.0908155,-0.57341015,-0.70992887,-0.40890312,0
-0.70993167,0.15586513,-0.49784663,-0.57341015,-0.70992887,-0.40890312,0
2.3437924,-1.3725975,0.31912756,0.57341015,0.70992887,0.40890312,0
4.2393007,-2.5281951,-0.97329843,0.76144147,-0.2776238,-0.5857746,0
-0.78072333,-2.1997108,5.4479842,0.30233711,-0.64724493,0.69976151,0
3.3113761,-0.61009276,-3.088568,0.76144147,-0.2776238,-0.5857746,0
4.7004876,-4.7710466,0.68917656,0.76144147,-0.2776238,-0.5857746,0
-4.8071451,3.8365889,-1.1426659,-0.57341015,-0.70992887,-0.40890312,0
-4.2352815,3.9084923,0.32434082,-0.76144147,0.2776238,0.5857746,0
-4.2971759,3.286927,0.53847194,-0.76144147,0.2776238,0.5857746,0
-0.35588956,0.022428036,1.6829127,0.57341015,0.70992887,0.40890312,0
-4.0614109,2.9651759,-0.67548943,-0.57341015,-0.70992887,-0.40890312,0
-3.6139071,1.8533602,2.1060734,-0.76144147,0.2776238,0.5857746,0
2.642139,1.291844,-4.8599105,0.76144147,-0.2776238,-0.5857746,0
-4.8707442,4.4773197,-0.77128124,-0.76144147,0.2776238,0.5857746,0
4.2115927,-2.4399779,-1.0511254,0.76144147,-0.2776238,-0.5857746,0
-2.6081822,-0.81976807,4.6803131,-0.76144147,0.2776238,0.5857746,0
3.7213311,-3.1717079,-0.93460178,-0.57341015,-0.70992887,-0.40890312,0
1.4164028,2.3811243,-5.5548358,-0.30233711,0.64724493,-0.69976151,0
-1.8727667,-2.1668878,5.9501686,0.30233711,-0.64724493,0.69976151,0
-0.62369633,-1.7896857,5.2046146,0.57341015,0.70992887,0.40890312,0
0.16746545,-2.4124222,2.7307737,-0.57341015,-0.70992887,-0.40890312,0
3.4544487,-0.77519125,-2.8243418,0.76144147,-0.2776238,-0.5857746,0
0.46799183,-2.9458518,4.2183242,0.30233711,-0.64724493,0.69976151,0
-2.150203,-1.9939353,5.8321228,-0.76144147,0.2776238,0.5857746,0
0.072873056,-1.6949241,1.617717,-0.57341015,-0.70992887,-0.40890312,0
-0.26163244,2.3773506,-4.8333187,-0.30233711,0.64724493,-0.69976151,0
-4.9511771,3.5719008,-0.44671822,-0.76144147,0.2776238,0.5857746,0
-4.237257,3.5151968,0.50817204,-0.76144147,0.2776238,0.5857746,0
-2.9058406,3.4309838,-2.7163105,-0.30233711,0.64724493,-0.69976151,0
-3.0859513,4.2652168,-1.8668675,-0.30233711,0.64724493,-0.69976151,0
-1.2780553,3.2284842,-3.6069088,-0.30233711,0.64724493,-0.69976151,0
2.8954773,-0.47523427,-3.6931047,0.76144147,-0.2776238,-0.5857746,0
1.9673584,2.0115342,-6.0781417,0.76144147,-0.2776238,-0.5857746,0
-3.822052,3.2480092,0.94337177,0.57341015,0.70992887,0.40890312,0
1.7843728,-1.7327167,1.7288401,0.57341015,0.70992887,0.40890312,0
-4.7080584,4.0761476,-0.36967468,-0.76144147,0.2776238,0.5857746,0
-1.4101255,2.2991357,-3.2370567,-0.57341015,-0.70992887,-0.40890312,0
3.9873562,-3.8119874,1.8966241,0.30233711,-0.64724493,0.69976151,0
3.5697856,-1.3842381,-2.3857632,0.76144147,-0.2776238,-0.5857746,0
2.5648785,-3.8024368,2.5200491,0.30233711,-0.64724493,0.69976151,0
4.8768263,-4.2107325,1.1435027,0.30233711,-0.64724493,0.69976151,0
-2.1262963,2.5310707,-2.6354415,-0.57341015,-0.70992887,-0.40890312,0
0.094096661,-0.42464232,1.8280853,0.57341015,0.70992887,0.40890312,0
4.9428663,-4.3556361,0.98094034,0.30233711,-0.64724493,0.69976151,0
2.0107872,1.5815383,-5.8178959,0.76144147,-0.2776238,-0.5857746,0
1.5145574,-3.1506279,3.5767403,0.30233711,-0.64724493,0.69976151,0
-2.231755,3.5618494,-1.8316035,0.57341015,0.70992887,0.40890312,0
-4.0765648,2.4105771,0.3086431,-0.57341015,-0.70992887,-0.40890312,0
-2.4949939,-0.97899699,4.9029112,-0.76144147,0.2776238,0.5857746,0
-1.9568532,-2.2833595,5.8787684,0.30233711,-0.64724493,0.69976151,0
-2.1777151,3.196635,-3.2476635,-0.30233711,0.64724493,-0.69976151,0
-3.0612202,4.0576992,-2.0694962,-0.30233711,0.64724493,-0.69976151,0
0.79897606,-0.090512037,-2.186053,-0.57341015,-0.70992887,-0.40890312,0
3.2776375,-0.29292077,-3.2827456,0.76144147,-0.2776238,-0.5857746,0
0.38677001,-1.2129166,2.7862506,0.57341015,0.70992887,0.40890312,0
2.6162634,-0.1341145,-4.2177229,0.76144147,-0.2776238,-0.5857746,0
-1.0346854,-2.6175749,4.7727466,-0.57341015,-0.70992887,-0.40890312,0
1.497025,-2.8527479,3.8598385,0.30233711,-0.64724493,0.69976151,0
1.7433655,0.02934885,-3.7184815,-0.57341015,-0.70992887,-0.40890312,0
0.95382512,0.43670392,-3.3185406,-0.57341015,-0.70992887,-0.40890312,0
-0.1083703,-2.2449,2.8267331,-0.57341015,-0.70992887,-0.40890312,0
-0.5320828,-2.4090002,5.1469741,0.30233711,-0.64724493,0.69976151,0
3.7646322,-3.8546035,0.19030571,-0.57341015,-0.70992887,-0.40890312,0
3.7633531,-2.9343636,-1.3994761,0.76144147,-0.2776238,-0.5857746,0
0.90483379,-3.1831555,3.8100891,0.30233711,-0.64724493,0.69976151,0
1.7933774,-1.0989974,-1.8296034,-0.57341015,-0.70992887,-0.40890312,0
-0.24109572,0.62317872,-1.9666414,-0.57341015,-0.70992887,-0.40890312,0
4.6043701,-3.3800011,-0.095041513,0.76144147,-0.2776238,-0.5857746,0
0.57486796,2.900692,-4.7106695,-0.30233711,0.64724493,-0.69976151,0
-2.3652418,3.2528908,-3.1146073,-0.30233711,0.64724493,-0.69976151,0
1.2528992,2.5070682,-5.3677006,-0.30233711,0.64724493,-0.69976151,0
-0.74815392,-2.3120196,5.3300319,0.30233711,-0.64724493,0.69976151,0
1.9744834,-1.2489141,0.62227798,0.57341015,0.70992887,0.40890312,0
3.6197038,-3.8333471,2.0357146,0.30233711,-0.64724493,0.69976151,0
-1.4398806,2.98932,-3.7582064,-0.30233711,0.64724493,-0.69976151,0
1.3761919,-3.2280772,3.5648856,0.30233711,-0.64724493,0.69976151,0
-1.6124308,-1.8409843,4.2346258,-0.57341015,-0.70992887,-0.40890312,0
3.8357973,-4.0206523,1.7691016,0.30233711,-0.64724493,0.69976151,0
1.3865296,-2.5907876,1.3309388,-0.57341015,-0.70992887,-0.40890312,0
-3.3480654,1.29567,1.2227368,-0.57341015,-0.70992887,-0.40890312,0
-3.2527776,1.2350473,2.8685465,-0.76144147,0.2776238,0.5857746,0
-0.26289105,2.6534803,-4.5773678,-0.30233711,0.64724493,-0.69976151,0
-2.8233285,-0.0088883638,4.0163369,-0.76144147,0.2776238,0.5857746,0
0.21895421,-2.7103012,3.1757412,-0.57341015,-0.70992887,-0.40890312,0
2.9860449,-0.50431752,-3.5615928,0.76144147,-0.2776238,-0.5857746,0
0.83587992,-2.8570499,2.5654006,-0.57341015,-0.70992887,-0.40890312,0
3.660799,-2.1906776,-0.10739422,0.57341015,0.70992887,0.40890312,0
4.123188,-4.1728826,0.24008656,-0.57341015,-0.70992887,-0.40890312,0
-3.0248611,1.7123089,0.046144247,-0.57341015,-0.70992887,-0.40890312,0
-1.5121729,1.6826864,-2.0236883,-0.57341015,-0.70992887,-0.40890312,0
1.7074189,-2.248456,2.7321684,0.57341015,0.70992887,0.40890312,0
3.5069084,-4.2444329,1.7042141,0.30233711,-0.64724493,0.69976151,0
-2.7801492,-0.1117661,4.121223,-0.76144147,0.2776238,0.5857746,0
-0.43450117,1.6052995,-0.95499682,0.57341015,0.70992887,0.40890312,0
2.2574522,-2.4317029,-0.16656733,-0.57341015,-0.70992887,-0.40890312,0
-4.4489975,2.8222055,0.56137204,-0.76144147,0.2776238,0.5857746,0
-2.2624047,3.3608971,-3.0591388,-0.30233711,0.64724493,-0.69976151,0
-3.5857451,2.320044,1.9214993,-0.76144147,0.2776238,0.5857746,0
-2.7789726,2.2312126,-1.1995776,-0.57341015,-0.70992887,-0.40890312,0
-0.53906345,3.0982609,-4.0466466,-0.30233711,0.64724493,-0.69976151,0
-1.2055767,2.8487031,-3.9895024,-0.30233711,0.64724493,-0.69976151,0
2.7514772,-0.83470261,-3.6320219,-0.57341015,-0.70992887,-0.40890312,0
-1.5438819,-1.0973308,5.2929506,0.57341015,0.70992887,0.40890312,0
-2.0634751,3.3628318,-3.1432981,-0.30233711,0.64724493,-0.69976151,0
3.6324587,-2.4449866,-1.8015612,0.76144147,-0.2776238,-0.5857746,0
4.1313839,-3.6866415,-0.56454015,0.76144147,-0.2776238,-0.5857746,0
-2.7284989,0.9649561,0.92808944,-0.57341015,-0.70992887,-0.40890312,0
2.3126771,-3.7151313,2.7097688,0.30233711,-0.64724493,0.69976151,0
-4.6849914,4.5688257,-0.57319164,-0.76144147,0.2776238,0.5857746,0
-3.6817675,1.9514406,1.9713778,-0.76144147,0.2776238,0.5857746,0
-2.4032474,-0.86051691,4.9660187,-0.76144147,0.2776238,0.5857746,0
1.4725358,-2.7986574,1.5712302,-0.57341015,-0.70992887,-0.40890312,0
4.2266316,-3.0871453,-0.72485614,0.76144147,-0.2776238,-0.5857746,0
2.7978039,-0.50151527,-3.8076134,0.76144147,-0.2776238,-0.5857746,0
1.2183805,-0.69463181,-1.7253294,-0.57341015,-0.70992887,-0.40890312,0
3.3222828,-0.65486169,-2.2991395,0.57341015,0.70992887,0.40890312,0
1.4107585,1.9896145,-5.9145241,-0.30233711,0.64724493,-0.69976151,0
2.2742457,-3.358886,3.0558825,0.30233711,-0.64724493,0.69976151,0
2.2613666,-1.2399914,-2.2410808,-0.57341015,-0.70992887,-0.40890312,0
1.6139705,1.2497604,-5.6558819,-0.57341015,-0.70992887,-0.40890312,0
-1.1690279,-0.64437455,1.5353087,-0.57341015,-0.70992887,-0.40890312,0
1.9440131,1.9704813,-6.0890307,0.76144147,-0.2776238,-0.5857746,0
-0.24715424,-2.6494491,4.8014665,0.30233711,-0.64724493,0.69976151,0
-0.97779989,-2.2072465,5.5261621,0.30233711,-0.64724493,0.69976151,0
1.4852034,-3.123244,2.1170063,-0.57341015,-0.70992887,-0.40890312,0
0.37619054,-2.982444,3.4277358,-0.57341015,-0.70992887,-0.40890312,0
-1.9526408,3.849329,-2.722126,0.57341015,0.70992887,0.40890312,0
3.1887517,-0.18870765,-2.9212141,0.57341015,0.70992887,0.40890312,0
-0.24280739,-2.5700908,4.8729906,0.30233711,-0.64724493,0.69976151,0
-0.13235489,-0.74770069,0.26096147,-0.57341015,-0.70992887,-0.40890312,0
-2.7024615,3.4329247,-2.8023858,-0.30233711,0.64724493,-0.69976151,0
-0.37313819,-1.7486992,2.3365271,-0.57341015,-0.70992887,-0.40890312,0
-3.4075589,1.0981077,2.7322493,-0.76144147,0.2776238,0.5857746,0
4.6502662,-4.4803538,0.99200296,0.30233711,-0.64724493,0.69976151,0
-2.226151,-0.40281725,4.979301,-0.76144147,0.2776238,0.5857746,0
-3.7807636,1.7661468,1.930513,-0.76144147,0.2776238,0.5857746,0
0.46682453,2.9032469,-4.4724059,0.57341015,0.70992887,0.40890312,0
2.0272353,1.6408129,-5.8246069,0.76144147,-0.2776238,-0.5857746,0
2.5734124,-2.1216717,1.2976551,0.57341015,0.70992887,0.40890312,0
-1.8775988,1.2397569,-0.7422421,-0.57341015,-0.70992887,-0.40890312,0
1.7115653,2.4866889,-5.5847197,-0.30233711,0.64724493,-0.69976151,0
3.2961531,-1.2411395,-1.2446146,0.57341015,0.70992887,0.40890312,0
0.77400351,1.7512749,-5.3487053,-0.57341015,-0.70992887,-0.40890312,0
-2.5791502,3.2290573,-3.0442314,-0.30233711,0.64724493,-0.69976151,0
-0.3334105,-2.9841421,4.5291586,0.30233711,-0.64724493,0.69976151,0
-0.1624558,-2.7015705,4.7166619,0.30233711,-0.64724493,0.69976151,0
4.0681376,-2.2584665,-1.3236272,0.76144147,-0.2776238,-0.5857746,0
2.3644838,1.295845,-5.2227268,0.76144147,-0.2776238,-0.5857746,0
-3.3732917,2.0973043,2.303231,-0.76144147,0.2776238,0.5857746,0
-4.3713541,3.8857439,-1.6624937,-0.30233711,0.64724493,-0.69976151,0
-0.20262909,1.5442019,-3.6196442,-0.57341015,-0.70992887,-0.40890312,0
-4.4811821,2.5742886,0.63703418,-0.76144147,0.2776238,0.5857746,0
1.628201,-3.3863332,3.3096228,0.30233711,-0.64724493,0.69976151,0
-1.4137229,2.7272396,-3.9752765,-0.57341015,-0.70992887,-0.40890312,0
-2.5437822,-0.04323554,4.3959937,-0.76144147,0.2776238,0.5857746,0
-3.0812497,1.7391839,2.5241251,0.57341015,0.70992887,0.40890312,0
-1.1245422,2.7005672,-1.8889229,0.57341015,0.70992887,0.40890312,0
3.046452,-3.1770678,0.021094322,-0.57341015,-0.70992887,-0.40890312,0
4.4828324,-2.9619355,-0.45116639,0.76144147,-0.2776238,-0.5857746,0
2.6944697,-1.4743212,0.0039790869,0.57341015,0.70992887,0.40890312,0
2.2100739,2.2875586,-5.8934584,0.76144147,-0.2776238,-0.5857746,0
-2.5151944,3.9281676,-2.070128,0.57341015,0.70992887,0.40890312,0
3.1395702,-1.5845777,-2.8500459,0.76144147,-0.2776238,-0.5857746,0
2.6103005,-2.8714366,2.5476518,0.57341015,0.70992887,0.40890312,0
4.341845,-2.6827693,-0.76674271,0.76144147,-0.2776238,-0.5857746,0
2.8388882,-1.8100483,0.384341,0.57341015,0.70992887,0.40890312,0
1.0789127,2.0944524,-5.6741772,-0.30233711,0.64724493,-0.69976151,0
-1.5615237,0.48033035,0.13302201,-0.57341015,-0.70992887,-0.40890312,0
-0.50575829,2.6068692,-4.5155482,-0.30233711,0.64724493,-0.69976151,0
3.2061777,-0.92015195,-3.0783637,0.76144147,-0.2776238,-0.5857746,0
-1.17777,0.38606298,-0.24145573,-0.57341015,-0.70992887,-0.40890312,0
-4.3373837,3.985698,0.15502834,-0.76144147,0.2776238,0.5857746,0
2.2890086,1.1051065,-5.2304373,0.76144147,-0.2776238,-0.5857746,0
0.40554112,-0.54329163,-0.84822738,-0.57341015,-0.70992887,-0.40890312,0
-4.2497439,2.6855922,0.88512564,-0.76144147,0.2776238,0.5857746,0
1.8869634,1.9866145,-6.1230469,-0.30233711,0.64724493,-0.69976151,0
2.9964523,-1.1305212,-1.0163932,0.57341015,0.70992887,0.40890312,0
2.6348078,0.34252179,-4.4195151,0.76144147,-0.2776238,-0.5857746,0
1.2310947,-3.0626664,3.7805715,0.30233711,-0.64724493,0.69976151,0
-4.9583821,4.4197116,-0.85789824,-0.76144147,0.2776238,0.5857746,0
4.878027,-4.3718576,0.99395132,0.30233711,-0.64724493,0.69976151,0
3.4992523,-1.2173064,-2.556565,0.76144147,-0.2776238,-0.5857746,0
3.8230045,-3.6524949,2.1151557,0.30233711,-0.64724493,0.69976151,0
-0.25169659,2.6461058,-4.589026,-0.30233711,0.64724493,-0.69976151,0
3.9131379,-2.5818198,-1.3718587,0.76144147,-0.2776238,-0.5857746,0
1.0181305,2.4907792,-5.2813334,-0.30233711,0.64724493,-0.69976151,0
4.5480213,-3.3135219,-0.19979596,0.76144147,-0.2776238,-0.5857746,0
1.4837785,-3.4237928,3.3373737,0.30233711,-0.64724493,0.69976151,0
-0.28031349,-1.2225679,3.7384665,0.57341015,0.70992887,0.40890312,0
1.1819662,0.31269622,-3.4231656,-0.57341015,-0.70992887,-0.40890312,0
2.5631983,-0.20437026,-4.2534046,0.76144147,-0.2776238,-0.5857746,0
2.1062298,-2.4028075,2.4408932,0.57341015,0.70992887,0.40890312,0
-4.140316,3.8192749,-1.8237963,-0.30233711,0.64724493,-0.69976151,0
0.49303773,0.83932149,-0.92582166,0.57341015,0.70992887,0.40890312,0
-2.6911898,-0.35096037,4.350225,-0.76144147,0.2776238,0.5857746,0
-0.37882018,-2.1860356,5.2869873,0.30233711,-0.64724493,0.69976151,0
3.6962123,-1.5950713,-2.1214998,0.76144147,-0.2776238,-0.5857746,0
1.500248,1.7269099,-6.1961775,-0.30233711,0.64724493,-0.69976151,0
-2.4738925,-0.45138872,4.6802835,-0.76144147,0.2776238,0.5857746,0
-0.98828816,-1.8939248,5.8205009,0.30233711,-0.64724493,0.69976151,0
0.71847868,2.0134296,-5.5933909,-0.30233711,0.64724493,-0.69976151,0
3.5775852,-0.66148877,-2.7181671,0.76144147,-0.2776238,-0.5857746,0
-0.31236792,2.6244977,-4.582799,-0.30233711,0.64724493,-0.69976151,0
-0.34583986,-1.5904958,2.023577,-0.57341015,-0.70992887,-0.40890312,0
2.9108462,-4.0031314,2.1849394,0.30233711,-0.64724493,0.69976151,0
-4.7793145,4.3826365,-0.60755825,-0.76144147,0.2776238,0.5857746,0
-0.3932966,-0.19669127,2.1157992,0.57341015,0.70992887,0.40890312,0
0.49545038,-0.64455199,1.6470646,0.57341015,0.70992887,0.40890312,0
-3.0435801,3.6539006,-2.4506121,-0.30233711,0.64724493,-0.69976151,0
2.7923493,0.51180208,-4.2949581,0.76144147,-0.2776238,-0.5857746,0
3.3642101,-0.18248653,-3.2225504,0.76144147,-0.2776238,-0.5857746,0
-0.47332466,1.3926505,-0.53135717,0.57341015,0.70992887,0.40890312,0
4.9996896,-4.3540492,0.95785713,0.30233711,-0.64724493,0.69976151,0
2.7899892,0.21640575,-4.1580253,0.76144147,-0.2776238,-0.5857746,0
-0.1106757,-0.69750834,0.14341778,-0.57341015,-0.70992887,-0.40890312,0
0.87400579,0.97112083,-4.1344523,-0.57341015,-0.70992887,-0.40890312,0
4.6063881,-3.2533522,-0.15244269,0.76144147,-0.2776238,-0.5857746,0
-4.4448366,4.1995831,-1.3404589,-0.30233711,0.64724493,-0.69976151,0
1.9849579,1.1003714,-5.6234255,0.76144147,-0.2776238,-0.5857746,0
-2.7360644,-0.99703634,4.5980959,-0.76144147,0.2776238,0.5857746,0
1.6963258,2.3288343,-5.724144,-0.30233711,0.64724493,-0.69976151,0
2.6729989,-0.48432672,-3.977993,0.76144147,-0.2776238,-0.5857746,0
1.2167068,-3.2767849,3.5887394,0.30233711,-0.64724493,0.69976151,0
2.2211137,-3.3746545,1.5215235,-0.57341015,-0.70992887,-0.40890312,0
3.2742479,-0.30618328,-3.2808661,0.76144147,-0.2776238,-0.5857746,0
-1.8155212,3.4169798,-3.2003446,-0.30233711,0.64724493,-0.69976151,0
0.53335559,0.17566538,-2.2757015,-0.57341015,-0.70992887,-0.40890312,0
-4.0128045,2.9356759,1.0745952,-0.76144147,0.2776238,0.5857746,0
-2.7272127,1.1588168,0.58970869,-0.57341015,-0.70992887,-0.40890312,0
1.4983308,-0.9374423,-1.6963445,-0.57341015,-0.70992887,-0.40890312,0
-2.9917278,0.40021503,2.27771,-0.57341015,-0.70992887,-0.40890312,0
4.0209713,-1.58903,-1.702213,0.76144147,-0.2776238,-0.5857746,0
-4.5833497,3.5471263,0.043158054,-0.76144147,0.2776238,0.5857746,0
3.2515545,-0.87213159,-3.0421376,0.76144147,-0.2776238,-0.5857746,0
-4.2150288,4.0017166,-1.622766,-0.30233711,0.64724493,-0.69976151,0
-0.82379842,-0.91104066,3.9597352,0.57341015,0.70992887,0.40890312,0
-1.4349318,-2.5080416,5.4454489,0.30233711,-0.64724493,0.69976151,0
-0.97549772,-1.0421909,4.4001656,0.57341015,0.70992887,0.40890312,0
0.90708876,2.4928539,-5.2314386,-0.30233711,0.64724493,-0.69976151,0
1.1988572,-2.7686834,4.0664191,0.30233711,-0.64724493,0.69976151,0
-2.3526943,-0.46905231,4.8462,-0.76144147,0.2776238,0.5857746,0
-0.96888781,-0.69019854,3.7797754,0.57341015,0.70992887,0.40890312,0
2.2798898,0.52257895,-4.9662056,0.76144147,-0.2776238,-0.5857746,0
-0.62334156,-2.284122,5.3019099,0.30233711,-0.64724493,0.69976151,0
2.2391245,-3.4431813,2.9930878,0.30233711,-0.64724493,0.69976151,0
2.9312744,-0.46005332,-3.6537676,0.76144147,-0.2776238,-0.5857746,0
-3.9206772,3.0771306,1.1273091,-0.76144147,0.2776238,0.5857746,0
-3.6612396,3.6504805,-2.1869111,-0.30233711,0.64724493,-0.69976151,0
2.9382651,0.62235415,-4.1576796,0.76144147,-0.2776238,-0.5857746,0
1.0227015,-2.6337695,1.9157639,-0.57341015,-0.70992887,-0.40890312,0
3.8201084,-2.1412985,-1.7015684,0.76144147,-0.2776238,-0.5857746,0
2.9837422,-1.2020308,-3.2339101,0.76144147,-0.2776238,-0.5857746,0
0.58752632,2.552933,-5.0377989,-0.30233711,0.64724493,-0.69976151,0
3.1757166,-0.70863688,-3.2182055,0.76144147,-0.2776238,-0.5857746,0
4.234973,-3.4748204,-0.53027725,0.76144147,-0.2776238,-0.5857746,0
0.46206093,1.1118528,-3.8011127,-0.57341015,-0.70992887,-0.40890312,0
4.2680397,-4.6332731,1.0157037,0.30233711,-0.64724493,0.69976151,0
-2.0692756,-0.68380404,5.3117609,0.57341015,0.70992887,0.40890312,0
-1.3808762,-1.4594625,3.2475243,-0.57341015,-0.70992887,-0.40890312,0
0.27417946,2.3432899,-5.0963244,-0.30233711,0.64724493,-0.69976151,0
-1.6387868,3.4768655,-3.2213116,-0.30233711,0.64724493,-0.69976151,0
-0.019151568,-0.85790801,2.7391212,0.57341015,0.70992887,0.40890312,0
-2.0437379,-1.613034,5.7899904,-0.76144147,0.2776238,0.5857746,0
-1.3649396,0.30803227,0.15648988,-0.57341015,-0.70992887,-0.40890312,0
-0.77522504,3.1463752,-3.9001074,-0.30233711,0.64724493,-0.69976151,0
4.9044504,-3.9370251,0.55902672,0.76144147,-0.2776238,-0.5857746,0
-1.4231464,2.7484055,-3.9882708,-0.30233711,0.64724493,-0.69976151,0
1.8733342,1.8946314,-6.1449571,0.76144147,-0.2776238,-0.5857746,0
-2.5780308,-0.6340121,4.6314697,-0.76144147,0.2776238,0.5857746,0
-3.7280686,3.5890281,-2.2148776,-0.30233711,0.64724493,-0.69976151,0
-2.5636053,1.1750425,2.7776761,0.57341015,0.70992887,0.40890312,0
-4.224225,3.3851228,0.58676004,-0.76144147,0.2776238,0.5857746,0
-2.6278872,-0.81570482,3.8785455,-0.57341015,-0.70992887,-0.40890312,0
-2.4838078,1.0909579,0.36619455,-0.57341015,-0.70992887,-0.40890312,0
4.0140257,-3.4713416,-0.81913376,0.76144147,-0.2776238,-0.5857746,0
1.5722928,2.143558,-5.8419247,-0.30233711,0.64724493,-0.69976151,0
-2.1012461,-2.015126,5.9058056,-0.76144147,0.2776238,0.5857746,0
3.1294868,-0.45973706,-3.3962634,0.76144147,-0.2776238,-0.5857746,0
0.11910439,-2.4048471,4.8694654,0.30233711,-0.64724493,0.69976151,0
3.9271731,-1.9996381,-1.6295356,0.76144147,-0.2776238,-0.5857746,0
-1.8109783,0.75430942,2.4527254,0.57341015,0.70992887,0.40890312,0
2.9133005,0.27114606,-4.0236778,0.76144147,-0.2776238,-0.5857746,0
-0.021242619,0.95211947,-2.8460438,-0.57341015,-0.70992887,-0.40890312,0
-4.6774783,4.7448969,-0.64687347,-0.76144147,0.2776238,0.5857746,0
-4.8403287,3.9445171,-1.283515,-0.57341015,-0.70992887,-0.40890312,0
-2.7626686,2.9030712,-2.3889074,-0.57341015,-0.70992887,-0.40890312,0
-4.005074,2.1589077,1.4527881,-0.76144147,0.2776238,0.5857746,0
-2.4212,-1.8332124,5.3552799,-0.57341015,-0.70992887,-0.40890312,0
-0.39924037,-0.21586215,2.1574185,0.57341015,0.70992887,0.40890312,0
2.6639378,-0.34260392,-4.0569396,0.76144147,-0.2776238,-0.5857746,0
-1.3585677,2.8077941,-1.7469118,0.57341015,0.70992887,0.40890312,0
1.1010146,-2.744014,4.1315117,0.30233711,-0.64724493,0.69976151,0
-2.5419035,2.8974597,-0.24318004,0.57341015,0.70992887,0.40890312,0
-0.27650833,-2.9146106,4.5688863,0.30233711,-0.64724493,0.69976151,0
1.5312648,1.1938004,-5.4427462,-0.57341015,-0.70992887,-0.40890312,0
3.3637688,-2.1415119,0.22377443,0.57341015,0.70992887,0.40890312,0
-3.8690648,3.7153935,-2.037077,-0.30233711,0.64724493,-0.69976151,0
-1.1019053,2.1816723,-3.4653406,-0.57341015,-0.70992887,-0.40890312,0
0.83181322,-2.108119,1.2708256,-0.57341015,-0.70992887,-0.40890312,0
-0.006411314,3.0328774,-4.3372588,-0.30233711,0.64724493,-0.69976151,0
-2.5235403,0.65506506,1.1786995,-0.57341015,-0.70992887,-0.40890312,0
-1.327857,-2.6099694,5.3049078,0.30233711,-0.64724493,0.69976151,0
3.1566358,-2.5360649,1.1992545,0.57341015,0.70992887,0.40890312,0
-2.3027153,-0.019238114,2.0397446,-0.57341015,-0.70992887,-0.40890312,0
1.1692357,-0.65088314,0.71319854,0.57341015,0.70992887,0.40890312,0
3.7711225,-3.3987768,-0.61019325,-0.57341015,-0.70992887,-0.40890312,0
-2.8709221,3.8243165,-2.3675838,-0.30233711,0.64724493,-0.69976151,0
2.1475577,1.9109669,-5.7962399,0.76144147,-0.2776238,-0.5857746,0
3.4606066,-1.0329094,-2.6941938,0.76144147,-0.2776238,-0.5857746,0
0.48249316,2.7800195,-4.7823739,-0.30233711,0.64724493,-0.69976151,0
3.5362122,-2.1879559,-2.0484886,0.76144147,-0.2776238,-0.5857746,0
0.56949329,2.4611454,-5.1149063,-0.30233711,0.64724493,-0.69976151,0
4.2010994,-4.0191636,1.6126471,0.30233711,-0.64724493,0.69976151,0
0.055260181,2.7035413,-4.6685243,-0.30233711,0.64724493,-0.69976151,0
1.2626868,-2.5219026,3.830575,0.57341015,0.70992887,0.40890312,0
-4.2410555,4.6594877,-0.91963339,0.57341015,0.70992887,0.40890312,0
1.5114317,2.3293719,-5.6437616,-0.30233711,0.64724493,-0.69976151,0
1.4697299,0.29637954,-1.3528056,0.57341015,0.70992887,0.40890312,0
-1.6673216,3.3229737,-2.2083864,0.57341015,0.70992887,0.40890312,0
2.951056,0.065784574,-3.8772707,0.76144147,-0.2776238,-0.5857746,0
-2.1087701,3.4083595,-3.0816164,-0.30233711,0.64724493,-0.69976151,0
-1.6691353,-1.9430053,6.0692692,0.30233711,-0.64724493,0.69976151,0
1.04924,-2.296268,1.2925861,-0.57341015,-0.70992887,-0.40890312,0
-4.6761189,4.343503,-0.45486832,-0.76144147,0.2776238,0.5857746,0
1.0107719,-2.952172,3.9779649,0.30233711,-0.64724493,0.69976151,0
3.3541527,-1.0483009,-1.6607506,0.57341015,0.70992887,0.40890312,0
1.0609881,-1.5428216,-0.03200686,-0.57341015,-0.70992887,-0.40890312,0
0.4735539,2.9043007,-4.6635575,-0.30233711,0.64724493,-0.69976151,0
-3.5379519,0.84287804,2.6837173,-0.76144147,0.2776238,0.5857746,0
-4.3540606,3.3728037,0.42382741,-0.76144147,0.2776238,0.5857746,0
4.3754592,-2.7579932,-0.68739676,0.76144147,-0.2776238,-0.5857746,0
-0.070129514,-1.7173873,1.8572514,-0.57341015,-0.70992887,-0.40890312,0
-3.1982815,3.4325082,-0.25167274,0.57341015,0.70992887,0.40890312,0
-1.0417273,-1.2001115,4.7672186,0.57341015,0.70992887,0.40890312,0
0.25158197,-0.34770513,-0.97190166,-0.57341015,-0.70992887,-0.40890312,0
-3.0334065,0.44298622,2.2618985,-0.57341015,-0.70992887,-0.40890312,0
1.9289092,-2.3835473,2.6561127,0.57341015,0.70992887,0.40890312,0
-4.4054646,3.6694365,0.21642065,-0.76144147,0.2776238,0.5857746,0
2.7587004,-0.15058291,-4.024766,0.76144147,-0.2776238,-0.5857746,0
1.6474195,2.4360201,-5.6038723,-0.30233711,0.64724493,-0.69976151,0
-3.1796539,-0.0027951002,3.5502658,-0.76144147,0.2776238,0.5857746,0
-2.0211897,1.7471267,-1.4217675,-0.57341015,-0.70992887,-0.40890312,0
2.3386073,1.628871,-5.4141994,0.76144147,-0.2776238,-0.5857746,0
0.36085916,-2.4050972,4.764782,0.30233711,-0.64724493,0.69976151,0
-2.7816863,3.5637541,-2.6471453,-0.30233711,0.64724493,-0.69976151,0
-4.2644992,2.5607429,0.92511785,-0.76144147,0.2776238,0.5857746,0
2.4392159,-3.3848915,2.9605527,0.30233711,-0.64724493,0.69976151,0
2.3539147,0.27996445,-2.5642095,0.57341015,0.70992887,0.40890312,0
-2.6241708,0.17052579,4.190187,-0.76144147,0.2776238,0.5857746,0
4.7997274,-4.1833701,1.2021222,0.30233711,-0.64724493,0.69976151,0
1.9341018,-2.3956249,2.6698005,0.57341015,0.70992887,0.40890312,0
-0.81860006,-0.33669862,0.50971889,-0.57341015,-0.70992887,-0.40890312,0
-1.5270259,3.0728991,-3.6432481,-0.30233711,0.64724493,-0.69976151,0
-1.4694277,3.5643604,-2.9049854,0.57341015,0.70992887,0.40890312,0
-1.2857177,3.3326497,-3.5072503,-0.30233711,0.64724493,-0.69976151,0
-1.859669,-1.3618803,5.9102268,-0.76144147,0.2776238,0.5857746,0
-3.012624,1.5657691,0.28340316,-0.57341015,-0.70992887,-0.40890312,0
-2.6129713,3.6101818,-2.6770973,-0.30233711,0.64724493,-0.69976151,0
2.9007583,0.1458813,-3.9806135,0.76144147,-0.2776238,-0.5857746,0
-4.5604501,4.203373,-1.2870026,-0.30233711,0.64724493,-0.69976151,0
-2.8082032,-0.83601058,4.4280062,-0.76144147,0.2776238,0.5857746,0
-4.5630879,4.2303247,-1.2609334,-0.30233711,0.64724493,-0.69976151,0
-2.0641508,-0.72088194,5.3406267,-0.76144147,0.2776238,0.5857746,0
-3.9321234,1.6125202,1.8065722,-0.76144147,0.2776238,0.5857746,0
3.6732059,-3.6691551,2.1644678,0.30233711,-0.64724493,0.69976151,0
0.022835255,-0.99871123,2.9247024,0.57341015,0.70992887,0.40890312,0
1.4657279,-0.56690902,0.15162975,0.57341015,0.70992887,0.40890312,0
-3.6106291,3.7715809,-2.096766,-0.30233711,0.64724493,-0.69976151,0
0.36904442,-2.6830978,2.9180379,-0.57341015,-0.70992887,-0.40890312,0
4.2075977,-2.7970369,0.17857027,0.57341015,0.70992887,0.40890312,0
2.8762925,-3.3407931,2.812499,0.30233711,-0.64724493,0.69976151,0
-1.333523,3.5040264,-3.3280807,-0.30233711,0.64724493,-0.69976151,0
3.3704047,-2.6516461,1.1001537,0.57341015,0.70992887,0.40890312,0
-2.1373105,-2.050725,5.8757977,-0.76144147,0.2776238,0.5857746,0
0.44396996,1.0100561,-3.5990062,-0.57341015,-0.70992887,-0.40890312,0
-2.5891023,-1.4155643,4.8656197,-0.57341015,-0.70992887,-0.40890312,0
-2.2935584,1.8685856,-1.2506957,-0.57341015,-0.70992887,-0.40890312,0
0.023844957,-3.1463194,4.2247977,0.30233711,-0.64724493,0.69976151,0
3.9476883,-4.0476823,1.6957564,0.30233711,-0.64724493,0.69976151,0
-4.3491955,4.4112463,-1.1860042,-0.30233711,0.64724493,-0.69976151,0
4.9104862,-4.0255971,1.3002009,0.30233711,-0.64724493,0.69976151,0
3.6612825,-0.89517629,-2.4986148,0.76144147,-0.2776238,-0.5857746,0
2.8703508,-1.6527295,0.067086935,0.57341015,0.70992887,0.40890312,0
-0.15287924,3.1264613,-4.1874156,-0.30233711,0.64724493,-0.69976151,0
-1.1825731,-2.5488825,5.2986393,0.30233711,-0.64724493,0.69976151,0
0.21124029,1.2298568,-3.6542597,-0.57341015,-0.70992887,-0.40890312,0
1.5370473,-1.9340403,2.4252017,0.57341015,0.70992887,0.40890312,0
3.3328438,-1.541567,-2.6191964,0.76144147,-0.2776238,-0.5857746,0
-3.0463512,-0.0042318106,3.724225,-0.76144147,0.2776238,0.5857746,0
3.5374839,-2.0887227,-2.0938663,0.76144147,-0.2776238,-0.5857746,0
-4.3538542,4.4017162,-1.1928058,-0.30233711,0.64724493,-0.69976151,0
-0.087959051,0.046745062,1.2649717,0.57341015,0.70992887,0.40890312,0
4.2975941,-3.9823666,1.604991,0.30233711,-0.64724493,0.69976151,0
-0.79937506,2.7367864,-2.4077928,0.57341015,0.70992887,0.40890312,0
-0.6239922,-1.9792562,5.5341578,0.57341015,0.70992887,0.40890312,0
-0.30284786,0.83919936,-2.255096,-0.57341015,-0.70992887,-0.40890312,0
-0.48045468,-2.2830119,5.2412014,0.30233711,-0.64724493,0.69976151,0
2.2041452,-3.0360405,3.3847852,0.30233711,-0.64724493,0.69976151,0
4.2793255,-4.4607358,1.1704164,0.30233711,-0.64724493,0.69976151,0
0.97272474,-0.57242632,-1.593013,-0.57341015,-0.70992887,-0.40890312,0
0.68844461,2.3251381,-5.2921,-0.30233711,0.64724493,-0.69976151,0
4.3551197,-4.5858593,0.63184738,-0.57341015,-0.70992887,-0.40890312,0
-0.17736912,2.7220228,-3.2544074,0.57341015,0.70992887,0.40890312,0
1.9615284,-3.3211465,3.2259021,0.30233711,-0.64724493,0.69976151,0
2.0544024,-3.4910793,3.0285954,0.30233711,-0.64724493,0.69976151,0
-2.3508956,-0.92025316,5.0623808,-0.76144147,0.2776238,0.5857746,0
-1.0919425,-2.1453295,5.6327481,0.30233711,-0.64724493,0.69976151,0
1.2825177,1.8445717,-5.9932747,-0.30233711,0.64724493,-0.69976151,0
-4.2836056,3.5512993,0.43081403,-0.76144147,0.2776238,0.5857746,0
3.0935433,-1.3258705,-3.0324879,0.76144147,-0.2776238,-0.5857746,0
4.7438097,-4.2895179,1.1281004,0.30233711,-0.64724493,0.69976151,0
-0.65461546,-1.1196773,1.6391521,-0.57341015,-0.70992887,-0.40890312,0
-3.6766369,3.2732053,-1.7498569,-0.57341015,-0.70992887,-0.40890312,0
-2.094795,0.32523501,1.1501086,-0.57341015,-0.70992887,-0.40890312,0
-1.4836869,-2.129494,4.5549917,-0.57341015,-0.70992887,-0.40890312,0
-3.2294478,1.6935258,2.6815796,-0.76144147,0.2776238,0.5857746,0
2.9378929,-0.5590421,-3.598249,0.76144147,-0.2776238,-0.5857746,0
-3.6720986,1.6446877,2.1293299,-0.76144147,0.2776238,0.5857746,0
2.4604368,0.8992604,-4.9100409,0.76144147,-0.2776238,-0.5857746,0
-3.8978677,3.0643332,1.1630242,-0.76144147,0.2776238,0.5857746,0
-1.9844279,2.2304361,0.13313651,0.57341015,0.70992887,0.40890312,0
4.9956779,-3.7246423,0.57695532,0.76144147,-0.2776238,-0.5857746,0
4.1119332,-3.9723396,1.6944818,0.30233711,-0.64724493,0.69976151,0
-0.92780805,3.0166712,-3.9541516,-0.30233711,0.64724493,-0.69976151,0
2.9698935,-3.9066164,2.2486992,0.30233711,-0.64724493,0.69976151,0
-0.83004886,1.8574352,-0.83806777,0.57341015,0.70992887,0.40890312,0
0.10893965,-2.6214473,4.6735129,0.30233711,-0.64724493,0.69976151,0
-1.7257698,2.6124687,-3.3384266,-0.57341015,-0.70992887,-0.40890312,0
1.2423471,-0.45874327,0.27708441,0.57341015,0.70992887,0.40890312,0
-3.4421582,1.2034621,2.6373422,-0.76144147,0.2776238,0.5857746,0
-4.9895811,4.2726402,-1.0375242,-0.30233711,0.64724493,-0.69976151,0
