-1.0872349,0.5833593,0.18826088,-0.60774517,0.35175717,0.71197808,0
1.6439303,1.9807879,-0.94263685,-0.46558851,0.56847084,-0.67828333,0
-1.6242234,-1.7883089,-0.68846452,-0.64332974,-0.74371219,-0.18171126,0
0.29212946,1.6501989,0.83860862,-0.60774517,0.35175717,0.71197808,0
-1.1944077,-1.5058426,-1.6801144,0.60774517,-0.35175717,-0.71197808,0
1.0980195,2.2112505,0.82040834,0.64332974,0.74371219,0.18171126,0
0.73169714,-0.27981579,-0.64171571,0.60774517,-0.35175717,-0.71197808,0
0.12076831,-1.219102,0.36968005,0.46558851,-0.56847084,0.67828333,0
-2.0085402,-0.55039781,-0.55689394,-0.46558851,0.56847084,-0.67828333,0
1.8758447,1.8600138,-0.49585032,0.64332974,0.74371219,0.18171126,0
-0.52757919,-2.296674,-0.72019386,0.60774517,-0.35175717,-0.71197808,0
-0.48613179,-2.4486995,-0.60970521,0.60774517,-0.35175717,-0.71197808,0
-1.032411,0.60509062,-0.25851291,-0.46558851,0.56847084,-0.67828333,0
0.23114443,2.0130773,0.054191828,-0.46558851,0.56847084,-0.67828333,0
1.1204264,1.3865495,1.6759017,-0.60774517,0.35175717,0.71197808,0
0.46392941,-1.5781552,-0.22882974,0.60774517,-0.35175717,-0.71197808,0
1.8617077,0.57029396,0.67435795,0.46558851,-0.56847084,0.67828333,0
1.8300211,1.563916,0.87825954,0.64332974,0.74371219,0.18171126,0
0.0032923222,1.151403,-0.51157677,-0.46558851,0.56847084,-0.67828333,0
1.0251327,1.3624382,1.6064711,-0.60774517,0.35175717,0.71197808,0
0.19769925,1.1815795,-0.61973071,-0.46558851,0.56847084,-0.67828333,0
0.888695,-0.50796294,0.43856558,0.46558851,-0.56847084,0.67828333,0
0.63472229,1.196188,-0.90746945,-0.46558851,0.56847084,-0.67828333,0
1.7960805,1.0247276,1.1002678,0.46558851,-0.56847084,0.67828333,0
2.1855605,0.46356475,0.23203188,0.60774517,-0.35175717,-0.71197808,0
2.0175393,1.6231234,-0.027954102,0.64332974,0.74371219,0.18171126,0
0.29680452,-0.11972773,1.1702329,0.46558851,-0.56847084,0.67828333,0
-1.8748491,-1.6569867,-0.33862889,-0.64332974,-0.74371219,-0.18171126,0
2.1047595,0.28909767,0.24925643,0.60774517,-0.35175717,-0.71197808,0
2.0650077,1.472692,0.41967762,0.64332974,0.74371219,0.18171126,0
-1.4296603,-0.23536754,0.30046323,-0.60774517,0.35175717,0.71197808,0
1.4895123,1.602421,1.7948689,0.46558851,-0.56847084,0.67828333,0
1.8347809,0.44973147,-0.06055969,0.60774517,-0.35175717,-0.71197808,0
-0.89179516,-1.0245607,1.1494911,-0.60774517,0.35175717,0.71197808,0
-0.72607541,-0.78548664,-1.6342342,-0.46558851,0.56847084,-0.67828333,0
1.7332942,-0.023229718,0.26507023,0.46558851,-0.56847084,0.67828333,0
1.68265,1.5765874,-0.74714887,0.60774517,-0.35175717,-0.71197808,0
1.2252413,2.2048788,0.39607167,0.64332974,0.74371219,0.18171126,0
1.7476596,1.5610392,1.1816258,0.64332974,0.74371219,0.18171126,0
-1.2544979,-1.5926661,-1.6885117,0.60774517,-0.35175717,-0.71197808,0
-0.29076439,-0.82093096,0.9858731,0.46558851,-0.56847084,0.67828333,0
-2.1848185,-1.2270945,-1.0006871,-0.64332974,-0.74371219,-0.18171126,0
-1.7533729,-0.64338481,0.22572529,-0.60774517,0.35175717,0.71197808,0
-2.0879068,-1.5388372,-0.067885041,-0.64332974,-0.74371219,-0.18171126,0
-2.0882473,-1.5389795,-0.066097736,-0.64332974,-0.74371219,-0.18171126,0
0.91997784,2.3844361,0.74192786,0.64332974,0.74371219,0.18171126,0
0.37163305,-1.6976765,-0.24856377,0.60774517,-0.35175717,-0.71197808,0
0.62420177,0.23306751,-0.98686689,0.60774517,-0.35175717,-0.71197808,0
-0.22807267,0.11290193,-1.2231328,-0.46558851,0.56847084,-0.67828333,0
0.49424765,0.023878694,-0.99444497,0.60774517,-0.35175717,-0.71197808,0
1.1214535,0.36928532,1.0140188,0.46558851,-0.56847084,0.67828333,0
0.72254556,1.2025957,-0.96238309,-0.46558851,0.56847084,-0.67828333,0
0.90438783,2.3972676,0.74460554,0.64332974,0.74371219,0.18171126,0
-1.5758058,-1.8861555,-0.45941305,-0.64332974,-0.74371219,-0.18171126,0
1.593122,1.8500431,-0.95867229,0.60774517,-0.35175717,-0.71197808,0
-0.010920525,-1.635089,-0.60603368,0.60774517,-0.35175717,-0.71197808,0
-1.7094167,-0.2846036,-0.53945595,-0.46558851,0.56847084,-0.67828333,0
0.48166519,-0.78706348,0.48404494,0.46558851,-0.56847084,0.67828333,0
-1.3664687,-0.18411982,0.32908446,-0.60774517,0.35175717,0.71197808,0
-0.43025634,0.74495721,0.66921991,-0.60774517,0.35175717,0.71197808,0
1.155333,2.390429,-0.26393199,-0.46558851,0.56847084,-0.67828333,0
0.04701519,2.1922264,0.36158681,-0.60774517,0.35175717,0.71197808,0
-0.24277604,-2.2402625,-0.23661184,0.46558851,-0.56847084,0.67828333,0
0.57603955,0.74911714,-1.2418795,-0.46558851,0.56847084,-0.67828333,0
0.64898592,0.21993887,1.2131633,0.46558851,-0.56847084,0.67828333,0
0.35360479,-0.96692085,0.42120963,0.46558851,-0.56847084,0.67828333,0
-0.47279924,1.3518459,-0.016785264,-0.46558851,0.56847084,-0.67828333,0
-1.5299067,-2.1485195,0.45189691,-0.64332974,-0.74371219,-0.18171126,0
0.70876843,0.27378416,-0.93479717,0.60774517,-0.35175717,-0.71197808,0
-2.5695286,-0.97655439,-0.30634153,-0.60774517,0.35175717,0.71197808,0
0.47943276,-0.36662599,0.83794701,0.46558851,-0.56847084,0.67828333,0
-0.4677304,0.5483641,0.73436016,-0.60774517,0.35175717,0.71197808,0
0.262909,-0.29356468,-1.035081,0.60774517,-0.35175717,-0.71197808,0
-1.0951122,0.47222495,0.23644324,-0.60774517,0.35175717,0.71197808,0
0.019329101,0.84451729,1.0037981,-0.60774517,0.35175717,0.71197808,0
1.787811,1.4778904,1.3797874,0.64332974,0.74371219,0.18171126,0
-0.82300401,-0.022388816,0.71308208,-0.60774517,0.35175717,0.71197808,0
-1.9452614,-1.5848939,-0.38440466,-0.64332974,-0.74371219,-0.18171126,0
0.94066799,-0.31537303,0.56430018,0.46558851,-0.56847084,0.67828333,0
-0.25581288,1.3964763,-0.12832463,-0.46558851,0.56847084,-0.67828333,0
-1.9511063,-0.90427208,-0.89290059,-0.46558851,0.56847084,-0.67828333,0
-0.20329559,0.78667927,-0.67544591,-0.46558851,0.56847084,-0.67828333,0
-1.1318536,-2.1601017,-0.90996599,-0.64332974,-0.74371219,-0.18171126,0
-0.67805117,-2.2153239,-0.88882852,0.60774517,-0.35175717,-0.71197808,0
1.0524808,0.29671609,-0.65273356,0.60774517,-0.35175717,-0.71197808,0
-1.1194253,-2.3626249,-0.12507486,-0.64332974,-0.74371219,-0.18171126,0
-1.2451475,-0.78552663,-1.2779654,-0.46558851,0.56847084,-0.67828333,0
-0.74575317,0.85497463,0.34555662,-0.60774517,0.35175717,0.71197808,0
-0.94838011,-0.91434896,-1.5896393,-0.46558851,0.56847084,-0.67828333,0
-1.1184323,0.26069355,0.32104558,-0.60774517,0.35175717,0.71197808,0
0.61891627,1.5621712,-0.58988857,-0.46558851,0.56847084,-0.67828333,0
1.4118916,1.9671041,0.70842505,0.64332974,0.74371219,0.18171126,0
2.2205677,0.52910089,0.22953546,0.60774517,-0.35175717,-0.71197808,0
1.0073076,-0.64127016,0.24542224,0.46558851,-0.56847084,0.67828333,0
1.8398027,1.8327204,-0.73954701,0.60774517,-0.35175717,-0.71197808,0
0.23332214,2.1224985,0.14440346,-0.46558851,0.56847084,-0.67828333,0
-1.5955287,-1.8236153,-0.64555228,-0.64332974,-0.74371219,-0.18171126,0
-0.06311655,1.8214452,0.095571637,-0.46558851,0.56847084,-0.67828333,0
-0.23297071,1.5766861,0.0070303679,-0.46558851,0.56847084,-0.67828333,0
2.4394164,1.2186006,0.13407397,0.64332974,0.74371219,0.18171126,0
0.5229001,0.53578365,-1.2228971,0.60774517,-0.35175717,-0.71197808,0
-0.70956856,-1.7073531,-1.1666976,0.60774517,-0.35175717,-0.71197808,0
0.93961239,2.3297641,0.89617729,0.64332974,0.74371219,0.18171126,0
1.2968246,1.1169732,1.5202792,0.46558851,-0.56847084,0.67828333,0
-1.6023258,-1.9116958,0.97198498,0.46558851,-0.56847084,0.67828333,0
1.2383552,2.069809,0.9024601,0.64332974,0.74371219,0.18171126,0
-0.10525084,0.64789861,0.99459726,-0.60774517,0.35175717,0.71197808,0
0.58001894,0.77800107,1.5152663,-0.60774517,0.35175717,0.71197808,0
0.91429716,1.5121576,1.437892,-0.60774517,0.35175717,0.71197808,0
-1.1343634,-2.3116784,-0.28070283,-0.64332974,-0.74371219,-0.18171126,0
0.83556819,0.4255518,1.2574139,0.46558851,-0.56847084,0.67828333,0
-2.0860736,-1.5562358,-0.0031658411,-0.64332974,-0.74371219,-0.18171126,0
-0.1246298,-0.21904063,1.3762804,0.46558851,-0.56847084,0.67828333,0
1.7429179,1.8181313,0.14618039,0.64332974,0.74371219,0.18171126,0
-0.057302117,1.2312803,-0.40303802,-0.46558851,0.56847084,-0.67828333,0
-1.8060346,-0.73010242,0.22361642,-0.60774517,0.35175717,0.71197808,0
-1.5585648,-1.6891395,-1.3268046,-0.64332974,-0.74371219,-0.18171126,0
1.3617774,0.43712687,-0.45808855,0.60774517,-0.35175717,-0.71197808,0
-0.46435446,0.13286328,0.94252247,-0.60774517,0.35175717,0.71197808,0
1.3695045,1.9885612,0.77067208,0.64332974,0.74371219,0.18171126,0
-0.59014332,0.77166682,-0.42248717,-0.46558851,0.56847084,-0.67828333,0
2.3207185,1.0315094,0.74582875,0.46558851,-0.56847084,0.67828333,0
-1.20517,-1.9691653,-1.431865,-0.64332974,-0.74371219,-0.18171126,0
0.73639822,-1.0564153,-0.25401902,0.60774517,-0.35175717,-0.71197808,0
1.56967,1.057287,-0.58702505,0.60774517,-0.35175717,-0.71197808,0
-0.95285475,-0.81904399,-1.5066925,-0.46558851,0.56847084,-0.67828333,0
0.28314525,-0.96370423,-0.68672061,0.60774517,-0.35175717,-0.71197808,0
2.3237863,0.65376759,0.25605047,0.60774517,-0.35175717,-0.71197808,0
0.41821164,0.48618269,-1.2877536,0.60774517,-0.35175717,-0.71197808,0
1.5786406,1.578837,1.7071759,0.64332974,0.74371219,0.18171126,0
-0.70856166,-0.06313014,0.8308987,-0.60774517,0.35175717,0.71197808,0
-1.1568592,-1.3639966,1.0909324,-0.60774517,0.35175717,0.71197808,0
-1.6468015,-1.8267735,-0.45109963,-0.64332974,-0.74371219,-0.18171126,0
-1.7897162,-1.7416133,-0.29367113,-0.64332974,-0.74371219,-0.18171126,0
-1.6675185,-1.6052766,-1.2843008,-0.64332974,-0.74371219,-0.18171126,0
-0.25887567,0.87152684,0.75297803,-0.60774517,0.35175717,0.71197808,0
0.12103295,-1.8722332,-0.17789233,0.46558851,-0.56847084,0.67828333,0
-0.71801144,-1.2363075,-1.4066274,0.60774517,-0.35175717,-0.71197808,0
-1.8600281,-0.45095658,0.039613843,-0.60774517,0.35175717,0.71197808,0
-1.2055962,-0.71776062,-1.2483194,-0.46558851,0.56847084,-0.67828333,0
0.43839335,1.5788196,0.99872506,-0.60774517,0.35175717,0.71197808,0
0.69077688,1.1817174,1.410351,-0.60774517,0.35175717,0.71197808,0
-0.41792768,-0.63791066,-1.4461176,0.60774517,-0.35175717,-0.71197808,0
-1.3884513,-1.911067,-1.020763,-0.64332974,-0.74371219,-0.18171126,0
0.34597051,2.387305,0.28901386,-0.46558851,0.56847084,-0.67828333,0
-0.94615835,-0.32464874,0.75729078,-0.60774517,0.35175717,0.71197808,0
-1.9826996,-1.5685282,-0.31884062,-0.64332974,-0.74371219,-0.18171126,0
1.5932872,1.8730302,0.45124078,0.64332974,0.74371219,0.18171126,0
1.1328347,0.1764787,0.84461486,0.46558851,-0.56847084,0.67828333,0
1.1347231,2.3649278,0.061489582,0.64332974,0.74371219,0.18171126,0
-0.83712161,-2.48946,-0.60542703,-0.64332974,-0.74371219,-0.18171126,0
0.70949811,1.0168036,-1.1091396,-0.46558851,0.56847084,-0.67828333,0
1.1056105,0.7117976,1.3119543,0.46558851,-0.56847084,0.67828333,0
0.77588403,2.6177642,0.29710674,0.64332974,0.74371219,0.18171126,0
1.0255487,2.3772252,0.39767909,0.64332974,0.74371219,0.18171126,0
0.2626133,2.2720337,0.24962306,-0.46558851,0.56847084,-0.67828333,0
-1.288583,-0.67534149,0.63825881,-0.60774517,0.35175717,0.71197808,0
1.0901333,0.45680562,1.1088686,0.46558851,-0.56847084,0.67828333,0
-1.5845243,-0.28276277,0.19168702,-0.60774517,0.35175717,0.71197808,0
-1.0027817,0.1754221,-0.63895714,-0.46558851,0.56847084,-0.67828333,0
-0.31663239,-1.894526,0.10384691,0.46558851,-0.56847084,0.67828333,0
-0.37172949,-2.2443054,-0.15148377,0.46558851,-0.56847084,0.67828333,0
1.7014937,1.6335714,1.0482099,0.64332974,0.74371219,0.18171126,0
-2.1678343,-1.2589545,-0.9304204,-0.64332974,-0.74371219,-0.18171126,0
-1.9012396,-1.4299698,-1.1743356,-0.64332974,-0.74371219,-0.18171126,0
-0.47976506,1.5987294,0.19490981,-0.46558851,0.56847084,-0.67828333,0
-0.24960391,-0.89842749,-1.1737263,0.60774517,-0.35175717,-0.71197808,0
1.4047877,-0.28747326,0.26910117,0.46558851,-0.56847084,0.67828333,0
2.5506749,1.0398756,0.47166491,0.64332974,0.74371219,0.18171126,0
-0.9779852,-0.60174251,0.86702329,-0.60774517,0.35175717,0.71197808,0
1.4147362,1.7180036,1.717878,0.64332974,0.74371219,0.18171126,0
1.0004821,1.0855837,1.6973875,0.46558851,-0.56847084,0.67828333,0
-1.1633027,-2.2940178,-0.2505281,-0.64332974,-0.74371219,-0.18171126,0
-0.04336679,1.3106599,-0.3460753,-0.46558851,0.56847084,-0.67828333,0
-1.6560763,-1.6117847,-1.2981744,-0.64332974,-0.74371219,-0.18171126,0
1.5694683,2.0987599,-0.38830161,0.64332974,0.74371219,0.18171126,0
0.61112964,2.7218437,0.45442367,0.64332974,0.74371219,0.18171126,0
1.6691334,1.6160998,-0.77820766,0.60774517,-0.35175717,-0.71197808,0
1.4331526,1.5844262,-0.96399283,0.60774517,-0.35175717,-0.71197808,0
1.4856658,2.1046209,-0.11559653,0.64332974,0.74371219,0.18171126,0
0.89868927,-0.562029,0.3863925,0.46558851,-0.56847084,0.67828333,0
0.57119334,-0.32316458,0.81138563,0.46558851,-0.56847084,0.67828333,0
-1.3084576,0.069420457,0.25333947,-0.60774517,0.35175717,0.71197808,0
1.2922072,0.57633436,-0.58624983,0.60774517,-0.35175717,-0.71197808,0
0.10491705,2.2640324,0.35116291,-0.46558851,0.56847084,-0.67828333,0
-1.3064616,-1.8364084,-1.6124457,0.60774517,-0.35175717,-0.71197808,0
-1.6568599,-2.0024574,0.93335104,0.46558851,-0.56847084,0.67828333,0
-1.9334111,-0.41383612,-0.041365564,-0.60774517,0.35175717,0.71197808,0
-1.5106785,-2.177917,0.50413918,-0.64332974,-0.74371219,-0.18171126,0
0.59376556,-0.6942786,-0.55468631,0.60774517,-0.35175717,-0.71197808,0
-0.23708707,-1.7107279,-0.76171982,0.60774517,-0.35175717,-0.71197808,0
0.0063959509,0.58761382,1.1196831,-0.60774517,0.35175717,0.71197808,0
1.9640129,0.9780612,-0.21127176,0.60774517,-0.35175717,-0.71197808,0
-0.27846628,-0.57959419,-1.3558847,0.60774517,-0.35175717,-0.71197808,0
-1.2711403,-0.081791639,0.35990083,-0.60774517,0.35175717,0.71197808,0
0.25066197,-0.39748186,0.96911991,0.46558851,-0.56847084,0.67828333,0
0.22047019,0.30978799,-1.3660116,-0.46558851,0.56847084,-0.67828333,0
1.3329781,-0.075464189,0.49607807,0.46558851,-0.56847084,0.67828333,0
1.6677277,1.8778048,0.16815066,0.64332974,0.74371219,0.18171126,0
0.28319204,-1.7591956,-0.29366338,0.60774517,-0.35175717,-0.71197808,0
1.4375403,1.3065926,1.5826092,0.46558851,-0.56847084,0.67828333,0
0.46627289,0.87187779,-1.0636473,-0.46558851,0.56847084,-0.67828333,0
-1.714627,-0.14264178,0.011403531,-0.60774517,0.35175717,0.71197808,0
0.53757262,-1.0409064,-0.43139893,0.60774517,-0.35175717,-0.71197808,0
0.81962764,0.61083484,1.4236418,0.46558851,-0.56847084,0.67828333,0
-1.1573138,-2.1451221,0.47088385,0.46558851,-0.56847084,0.67828333,0
-1.9862144,-1.4216946,0.4115001,-0.60774517,0.35175717,0.71197808,0
2.2653263,1.2831981,0.48603594,0.64332974,0.74371219,0.18171126,0
-1.7162701,-0.37512732,-0.61061984,-0.46558851,0.56847084,-0.67828333,0
-0.068123698,-2.1147799,-0.2513299,0.46558851,-0.56847084,0.67828333,0
-2.2358422,-1.2404854,-0.76523614,-0.64332974,-0.74371219,-0.18171126,0
-2.1002688,-1.5098403,-0.1427983,-0.64332974,-0.74371219,-0.18171126,0
-1.324784,-0.12285089,0.33439592,-0.60774517,0.35175717,0.71197808,0
-2.1489835,-0.69978482,-0.58569217,-0.46558851,0.56847084,-0.67828333,0
-2.0764277,-1.4961858,-0.28309047,-0.64332974,-0.74371219,-0.18171126,0
1.184185,-0.47696698,0.26171255,0.46558851,-0.56847084,0.67828333,0
-0.10808969,-1.9840727,-0.51655996,0.60774517,-0.35175717,-0.71197808,0
2.123198,1.6183436,-0.39172626,0.60774517,-0.35175717,-0.71197808,0
-0.15871572,-1.5381104,0.29416227,0.46558851,-0.56847084,0.67828333,0
-1.4838278,-0.50399673,-0.87817907,-0.46558851,0.56847084,-0.67828333,0
-0.20142734,-1.4392301,0.40635228,0.46558851,-0.56847084,0.67828333,0
1.8861946,1.6500251,0.32695317,0.64332974,0.74371219,0.18171126,0
0.79031742,2.4728284,0.83920383,0.64332974,0.74371219,0.18171126,0
-1.8917511,-0.48860705,0.031136632,-0.60774517,0.35175717,0.71197808,0
-1.5232015,-1.9390687,-0.4290874,-0.64332974,-0.74371219,-0.18171126,0
-0.85756552,-0.24931109,0.79569268,-0.60774517,0.35175717,0.71197808,0
-0.94490027,-0.57659656,-1.3089569,-0.46558851,0.56847084,-0.67828333,0
1.5142324,-0.33829421,0.055148743,0.60774517,-0.35175717,-0.71197808,0
-1.481509,-2.1982632,0.48414159,-0.64332974,-0.74371219,-0.18171126,0
-0.23510683,1.6318165,0.054701447,-0.46558851,0.56847084,-0.67828333,0
-0.1888991,-1.2009457,-0.97244757,0.60774517,-0.35175717,-0.71197808,0
0.18006074,2.1071849,0.16812897,-0.46558851,0.56847084,-0.67828333,0
-1.6567702,-2.1057754,0.7260983,-0.64332974,-0.74371219,-0.18171126,0
-2.1864715,-1.2958471,-0.71344352,-0.64332974,-0.74371219,-0.18171126,0
1.6755943,1.1621258,-0.5484041,0.60774517,-0.35175717,-0.71197808,0
0.97674423,-0.72890562,-0.21066761,0.60774517,-0.35175717,-0.71197808,0
-0.87083024,-0.93379736,1.1225446,-0.60774517,0.35175717,0.71197808,0
-1.6718814,-0.20527828,0.078837246,-0.60774517,0.35175717,0.71197808,0
-0.4013108,-1.4032258,-1.0538247,0.60774517,-0.35175717,-0.71197808,0
-1.3930538,-2.2599447,0.42342544,-0.64332974,-0.74371219,-0.18171126,0
0.6862343,1.5257345,-0.66663468,-0.46558851,0.56847084,-0.67828333,0
2.1000452,1.0012963,-0.10663378,0.60774517,-0.35175717,-0.71197808,0
0.43376571,1.942487,0.81510282,-0.60774517,0.35175717,0.71197808,0
1.4292955,1.6243773,1.8220521,-0.60774517,0.35175717,0.71197808,0
0.44339037,-1.3061895,0.075236917,0.46558851,-0.56847084,0.67828333,0
-1.6821229,-0.24183995,-0.52235079,-0.46558851,0.56847084,-0.67828333,0
-1.2172272,-1.411906,1.0630722,-0.60774517,0.35175717,0.71197808,0
1.8991029,1.401126,1.2999526,0.64332974,0.74371219,0.18171126,0
-1.0963216,-2.2378285,-0.71764064,-0.64332974,-0.74371219,-0.18171126,0
0.33570158,1.3222017,1.037851,-0.60774517,0.35175717,0.71197808,0
-1.0449991,0.54215181,0.24467203,-0.60774517,0.35175717,0.71197808,0
-0.99669635,-1.2738845,-1.6259483,0.60774517,-0.35175717,-0.71197808,0
0.73473883,-0.90075278,-0.33234149,0.60774517,-0.35175717,-0.71197808,0
0.45702201,-0.91263044,0.39572257,0.46558851,-0.56847084,0.67828333,0
-0.79980654,-0.49299553,-1.3384862,-0.46558851,0.56847084,-0.67828333,0
-1.2912941,-2.2522564,0.031689167,-0.64332974,-0.74371219,-0.18171126,0
1.4706317,2.0047133,0.34653473,0.64332974,0.74371219,0.18171126,0
0.20407391,-0.19794905,-1.1325423,0.60774517,-0.35175717,-0.71197808,0
-1.078372,-1.9453328,0.5841403,0.46558851,-0.56847084,0.67828333,0
1.1701643,0.088848233,-0.44958043,0.60774517,-0.35175717,-0.71197808,0
0.19005191,1.9241462,0.61612988,-0.60774517,0.35175717,0.71197808,0
1.9221826,0.88576454,0.89724338,0.46558851,-0.56847084,0.67828333,0
-0.93616998,-2.5035262,-0.19718552,-0.64332974,-0.74371219,-0.18171126,0
-0.36883938,-0.72975063,1.1158838,0.46558851,-0.56847084,0.67828333,0
-0.52555215,-1.2258487,-1.2475116,0.60774517,-0.35175717,-0.71197808,0
-0.49538779,-2.4071913,-0.6381135,0.60774517,-0.35175717,-0.71197808,0
0.44764858,-0.86451954,0.44247854,0.46558851,-0.56847084,0.67828333,0
1.2128451,0.16923499,-0.45286354,0.60774517,-0.35175717,-0.71197808,0
2.4948692,0.94747138,0.25698078,0.60774517,-0.35175717,-0.71197808,0
-0.82162786,1.142596,0.047285497,-0.46558851,0.56847084,-0.67828333,0
1.8809974,0.13151026,0.29337138,0.46558851,-0.56847084,0.67828333,0
1.2874674,2.1582646,0.36654949,0.64332974,0.74371219,0.18171126,0
-0.71838689,-0.35703671,-1.280427,-0.46558851,0.56847084,-0.67828333,0
-0.41061774,0.12902743,-1.0843149,-0.46558851,0.56847084,-0.67828333,0
-0.22731829,1.6454931,0.39753246,-0.60774517,0.35175717,0.71197808,0
0.12162507,0.68857461,-0.98070031,-0.46558851,0.56847084,-0.67828333,0
-1.1508483,-1.1796118,1.0049672,-0.60774517,0.35175717,0.71197808,0
1.9860781,1.6272632,0.066486597,0.64332974,0.74371219,0.18171126,0
1.3121045,0.25844765,-0.41221172,0.60774517,-0.35175717,-0.71197808,0
-1.0974734,-2.3075266,-0.42830181,-0.64332974,-0.74371219,-0.18171126,0
1.8745631,1.6660013,0.30274653,0.64332974,0.74371219,0.18171126,0
1.9200321,1.8529067,-0.62320292,0.64332974,0.74371219,0.18171126,0
1.7534208,0.38819551,-0.099606395,0.60774517,-0.35175717,-0.71197808,0
-0.972489,0.93673348,0.1116212,-0.60774517,0.35175717,0.71197808,0
1.9657187,1.5263027,0.55178034,0.64332974,0.74371219,0.18171126,0
0.35352507,-0.82562757,-0.69486195,0.60774517,-0.35175717,-0.71197808,0
1.3783438,1.9883624,0.74019074,0.64332974,0.74371219,0.18171126,0
1.979192,0.38582247,0.43910801,0.46558851,-0.56847084,0.67828333,0
0.71029532,-1.1554524,0.018360615,0.46558851,-0.56847084,0.67828333,0
1.6039248,1.6112285,1.4850874,0.64332974,0.74371219,0.18171126,0
1.3746575,0.55346727,-0.50457275,0.60774517,-0.35175717,-0.71197808,0
2.4682469,1.160449,0.2700063,0.64332974,0.74371219,0.18171126,0
0.29801857,1.320033,-0.57255405,-0.46558851,0.56847084,-0.67828333,0
0.48456156,1.464365,-0.5796361,-0.46558851,0.56847084,-0.67828333,0
1.1591804,2.3842599,-0.10422277,0.64332974,0.74371219,0.18171126,0
0.82787406,2.4619646,0.75070238,0.64332974,0.74371219,0.18171126,0
-1.9840721,-1.3551859,-1.1871536,-0.64332974,-0.74371219,-0.18171126,0
-0.059576869,-0.031646252,-1.4397576,0.60774517,-0.35175717,-0.71197808,0
-1.5263822,-2.0781116,0.15125155,-0.64332974,-0.74371219,-0.18171126,0
-0.36674726,-0.94423389,-1.2510891,0.60774517,-0.35175717,-0.71197808,0
-1.3354872,-1.9906523,-0.88254869,-0.64332974,-0.74371219,-0.18171126,0
0.74631691,0.20386291,-0.86820066,0.60774517,-0.35175717,-0.71197808,0
-2.0215592,-0.54449129,-0.052057803,-0.60774517,0.35175717,0.71197808,0
0.70255941,1.3044707,-0.8632825,-0.46558851,0.56847084,-0.67828333,0
-0.82707167,-2.5712984,-0.30605793,-0.64332974,-0.74371219,-0.18171126,0
-1.9506372,-1.7867994,0.46099198,-0.64332974,-0.74371219,-0.18171126,0
-1.3569741,-1.2699182,-1.6071749,-0.46558851,0.56847084,-0.67828333,0
-0.85602152,-1.7380213,-1.2765583,0.60774517,-0.35175717,-0.71197808,0
-0.99980831,-2.312216,-0.75488067,-0.64332974,-0.74371219,-0.18171126,0
-0.67895526,-1.6074893,-1.1899048,0.60774517,-0.35175717,-0.71197808,0
1.5241663,2.0290914,0.057225943,0.64332974,0.74371219,0.18171126,0
1.3798704,1.7729642,-0.93555784,-0.46558851,0.56847084,-0.67828333,0
-0.86490393,-2.1769619,0.24348259,0.46558851,-0.56847084,0.67828333,0
0.88348764,1.3228451,1.505124,-0.60774517,0.35175717,0.71197808,0
1.922914,0.26022744,0.37247705,0.46558851,-0.56847084,0.67828333,0
0.58498085,-0.2492367,-0.78206062,0.60774517,-0.35175717,-0.71197808,0
-0.17534356,-0.21440709,-1.448282,0.60774517,-0.35175717,-0.71197808,0
-0.091842532,1.6693681,0.50137937,-0.60774517,0.35175717,0.71197808,0
1.7520838,1.6237777,0.90918481,0.64332974,0.74371219,0.18171126,0
0.78126729,1.6239408,-0.64956057,-0.46558851,0.56847084,-0.67828333,0
-1.4908661,-1.5064222,0.87619042,-0.60774517,0.35175717,0.71197808,0
-1.488729,-1.3143491,-1.5539731,-0.46558851,0.56847084,-0.67828333,0
-0.42998281,0.82178491,0.63149607,-0.60774517,0.35175717,0.71197808,0
-2.0789275,-1.3393409,-0.91617858,-0.64332974,-0.74371219,-0.18171126,0
1.4504243,1.9240097,0.74838161,0.64332974,0.74371219,0.18171126,0
1.7925848,0.32510293,-0.035004675,0.60774517,-0.35175717,-0.71197808,0
1.6448166,2.0541081,-0.4723134,0.64332974,0.74371219,0.18171126,0
2.2326622,1.472312,-0.17232978,0.64332974,0.74371219,0.18171126,0
-0.27716839,1.77373,0.20251155,-0.46558851,0.56847084,-0.67828333,0
0.072578073,-0.79550546,0.75777608,0.46558851,-0.56847084,0.67828333,0
0.31080925,-1.5427343,-0.37703335,0.60774517,-0.35175717,-0.71197808,0
1.5851685,1.5978053,1.6064314,0.64332974,0.74371219,0.18171126,0
-1.1839511,-2.3701799,0.13429379,-0.64332974,-0.74371219,-0.18171126,0
0.4499242,0.5695852,-1.3018891,0.60774517,-0.35175717,-0.71197808,0
-1.3711454,-1.4695994,0.96019149,-0.60774517,0.35175717,0.71197808,0
1.1695224,2.1494713,-0.47561932,-0.46558851,0.56847084,-0.67828333,0
-0.38692355,-2.3530307,-0.23217726,0.46558851,-0.56847084,0.67828333,0
1.0445523,0.1441133,-0.58410698,0.60774517,-0.35175717,-0.71197808,0
1.4673635,-0.22011602,0.2826001,0.46558851,-0.56847084,0.67828333,0
-1.8535935,-1.5025278,0.56464195,-0.60774517,0.35175717,0.71197808,0
1.8497244,1.5077057,-0.57050252,0.60774517,-0.35175717,-0.71197808,0
1.6732686,2.0931454,-0.73281765,0.64332974,0.74371219,0.18171126,0
2.3440418,1.2301387,0.42451382,0.64332974,0.74371219,0.18171126,0
0.31208777,2.0498855,0.029479742,-0.46558851,0.56847084,-0.67828333,0
0.77297246,0.76192272,1.5822941,0.46558851,-0.56847084,0.67828333,0
-2.0004315,-1.4453588,-0.76017296,-0.64332974,-0.74371219,-0.18171126,0
-1.6230671,0.03065443,0.0039411783,-0.60774517,0.35175717,0.71197808,0
1.8546193,0.30154669,0.45398587,0.46558851,-0.56847084,0.67828333,0
0.043556362,0.96325213,0.9658168,-0.60774517,0.35175717,0.71197808,0
-0.25924996,-0.27920926,-1.4878887,0.60774517,-0.35175717,-0.71197808,0
0.57828289,0.96662939,-1.0611218,-0.46558851,0.56847084,-0.67828333,0
-1.7536658,-1.5056698,-1.3869779,-0.64332974,-0.74371219,-0.18171126,0
-0.54174644,0.77331668,0.56004059,-0.60774517,0.35175717,0.71197808,0
1.6323907,2.0558574,-0.43547964,0.64332974,0.74371219,0.18171126,0
0.48834914,1.5143356,1.0732262,-0.60774517,0.35175717,0.71197808,0
-2.5548747,-0.98367107,-0.29031706,-0.60774517,0.35175717,0.71197808,0
-0.63183868,-2.0025144,0.22970641,0.46558851,-0.56847084,0.67828333,0
1.5929897,1.4470183,1.5935965,0.46558851,-0.56847084,0.67828333,0
-0.47546023,0.80861115,-0.47024497,-0.46558851,0.56847084,-0.67828333,0
0.36199045,-0.1937027,1.0634893,0.46558851,-0.56847084,0.67828333,0
-1.0723155,0.4592787,0.2622987,-0.60774517,0.35175717,0.71197808,0
1.2167995,2.3289039,-0.081653833,0.64332974,0.74371219,0.18171126,0
-0.84977412,-2.5253422,-0.41377306,-0.64332974,-0.74371219,-0.18171126,0
1.0950135,2.3504822,-0.25600672,-0.46558851,0.56847084,-0.67828333,0
0.21837395,0.3312844,-1.3465567,-0.46558851,0.56847084,-0.67828333,0
0.73002392,0.37679493,-0.96754652,0.60774517,-0.35175717,-0.71197808,0
-0.036272168,-1.9898207,-0.16846502,0.46558851,-0.56847084,0.67828333,0
0.4371435,-1.3583453,0.035813093,0.46558851,-0.56847084,0.67828333,0
0.26290569,1.0947691,1.0880766,-0.60774517,0.35175717,0.71197808,0
-1.4020116,-1.7080133,-1.7574416,0.60774517,-0.35175717,-0.71197808,0
-1.1869391,-1.1548117,0.96190721,-0.60774517,0.35175717,0.71197808,0
-1.356343,-0.23219514,0.3614794,-0.60774517,0.35175717,0.71197808,0
-1.3696374,-0.67318702,-1.0983607,-0.46558851,0.56847084,-0.67828333,0
-1.4847093,-1.8586202,-0.89462781,-0.64332974,-0.74371219,-0.18171126,0
-0.96404803,-2.5041285,-0.096023083,-0.64332974,-0.74371219,-0.18171126,0
1.814254,1.3586906,-0.52715826,0.60774517,-0.35175717,-0.71197808,0
-0.96958625,-2.3930607,-0.53099585,-0.64332974,-0.74371219,-0.18171126,0
-1.5635405,-1.777926,-0.94580078,-0.64332974,-0.74371219,-0.18171126,0
0.22002614,-1.5796859,-0.00065875053,0.46558851,-0.56847084,0.67828333,0
0.50354367,-1.3917993,-0.037803411,0.46558851,-0.56847084,0.67828333,0
-0.34695959,-1.5795068,0.38868272,0.46558851,-0.56847084,0.67828333,0
0.9284572,-0.2371259,0.63826114,0.46558851,-0.56847084,0.67828333,0
-1.8981737,-0.36192167,-0.036935449,-0.60774517,0.35175717,0.71197808,0
-0.16801172,0.84178418,-0.65348202,-0.46558851,0.56847084,-0.67828333,0
1.0628788,-0.72101724,0.1404407,0.46558851,-0.56847084,0.67828333,0
2.3590212,1.2486767,0.29560852,0.64332974,0.74371219,0.18171126,0
-1.5885735,-1.7535188,-0.9570694,-0.64332974,-0.74371219,-0.18171126,0
1.4325702,1.5894375,1.8230737,0.46558851,-0.56847084,0.67828333,0
0.054903507,2.0805557,0.42349219,-0.60774517,0.35175717,0.71197808,0
-0.97797656,-2.4390998,-0.31286097,-0.64332974,-0.74371219,-0.18171126,0
0.035970986,-1.3572934,-0.70325375,0.60774517,-0.35175717,-0.71197808,0
0.74577957,1.5572726,1.2717559,-0.60774517,0.35175717,0.71197808,0
-0.49618566,-2.6777053,-0.42928839,0.46558851,-0.56847084,0.67828333,0
0.60547256,-0.33808237,0.77535301,0.46558851,-0.56847084,0.67828333,0
-1.5169727,-2.0054832,-0.17931819,-0.64332974,-0.74371219,-0.18171126,0
-1.2373995,-0.37938032,-0.9428916,-0.46558851,0.56847084,-0.67828333,0
-1.7166443,-1.6847876,-0.7849524,-0.64332974,-0.74371219,-0.18171126,0
1.1900356,-0.59716868,-0.093687356,0.60774517,-0.35175717,-0.71197808,0
1.4738646,2.1217453,-0.14390302,0.64332974,0.74371219,0.18171126,0
0.80371869,-0.70241964,-0.37144792,0.60774517,-0.35175717,-0.71197808,0
-1.8706946,-1.8190832,0.31009543,-0.64332974,-0.74371219,-0.18171126,0
0.6914463,1.0851307,1.4586415,-0.60774517,0.35175717,0.71197808,0
1.6039261,0.54510963,-0.30473971,0.60774517,-0.35175717,-0.71197808,0
-0.13852078,-1.3994354,-0.83137941,0.60774517,-0.35175717,-0.71197808,0
0.33574402,2.2572653,0.57591319,-0.60774517,0.35175717,0.71197808,0
-0.11827964,-0.64207137,1.0173784,0.46558851,-0.56847084,0.67828333,0
1.6102674,2.0436926,-0.30736637,0.64332974,0.74371219,0.18171126,0
0.43308508,0.90931594,-1.0094895,-0.46558851,0.56847084,-0.67828333,0
1.527585,0.74496245,1.0500972,0.46558851,-0.56847084,0.67828333,0
0.38632238,0.66857469,-1.1791564,-0.46558851,0.56847084,-0.67828333,0
-1.5896178,0.064065576,-0.32946825,-0.46558851,0.56847084,-0.67828333,0
-0.56573355,-1.9791063,0.20394862,0.46558851,-0.56847084,0.67828333,0
1.8435788,0.058840036,0.25815132,0.46558851,-0.56847084,0.67828333,0
1.2585286,2.1606276,0.4593339,0.64332974,0.74371219,0.18171126,0
-0.84265524,0.62369603,-0.37317219,-0.46558851,0.56847084,-0.67828333,0
1.2511588,0.012536108,0.62599397,0.46558851,-0.56847084,0.67828333,0
1.4216212,0.97263294,1.3136442,0.46558851,-0.56847084,0.67828333,0
0.18064392,1.3460355,-0.47019267,-0.46558851,0.56847084,-0.67828333,0
-0.92732984,-1.627696,0.74667406,0.46558851,-0.56847084,0.67828333,0
-1.6564646,-1.0565114,-1.2227414,-0.46558851,0.56847084,-0.67828333,0
-1.5626959,-0.71290183,0.42283261,-0.60774517,0.35175717,0.71197808,0
0.52267814,1.7365857,-0.37765145,-0.46558851,0.56847084,-0.67828333,0
1.7470555,1.9004867,-0.20553422,0.64332974,0.74371219,0.18171126,0
-0.30881393,-2.2572224,-0.55294704,0.60774517,-0.35175717,-0.71197808,0
0.30916488,-1.1949131,0.26063317,0.46558851,-0.56847084,0.67828333,0
-2.0606532,-1.1497253,-1.0234203,-0.46558851,0.56847084,-0.67828333,0
0.0026684999,-1.3053235,0.37848389,0.46558851,-0.56847084,0.67828333,0
1.5812719,0.79528344,-0.44767731,0.60774517,-0.35175717,-0.71197808,0
-2.5915651,-1.0145855,-0.4304049,-0.64332974,-0.74371219,-0.18171126,0
-1.4734515,-1.8975803,-0.77502799,-0.64332974,-0.74371219,-0.18171126,0
1.1145155,2.1844425,0.87172604,0.64332974,0.74371219,0.18171126,0
1.1671743,-0.23800454,0.47366405,0.46558851,-0.56847084,0.67828333,0
-1.4019744,-1.77652,-1.5235633,-0.64332974,-0.74371219,-0.18171126,0
0.3537885,1.8295205,-0.183833,-0.46558851,0.56847084,-0.67828333,0
0.9984268,-0.75248277,0.15831062,0.46558851,-0.56847084,0.67828333,0
-0.69363678,-2.6149573,-0.59978104,-0.64332974,-0.74371219,-0.18171126,0
0.72967768,-0.39595431,0.64159322,0.46558851,-0.56847084,0.67828333,0
0.70842421,2.6056428,0.58555245,0.64332974,0.74371219,0.18171126,0
-0.99549121,-2.0238311,0.46145976,0.46558851,-0.56847084,0.67828333,0
1.9331086,1.4792441,0.85983574,0.64332974,0.74371219,0.18171126,0
-1.2052758,-1.9959575,-1.3218354,-0.64332974,-0.74371219,-0.18171126,0
0.52513683,0.41975731,1.4656442,0.46558851,-0.56847084,0.67828333,0
-1.0944144,-2.217344,-0.80823159,-0.64332974,-0.74371219,-0.18171126,0
-1.5970249,-2.110121,0.53236175,-0.64332974,-0.74371219,-0.18171126,0
-2.2915421,-1.3562837,-0.094095111,-0.64332974,-0.74371219,-0.18171126,0
1.6989111,1.7878494,-0.83764362,0.60774517,-0.35175717,-0.71197808,0
1.022444,-0.79564041,0.10565433,0.46558851,-0.56847084,0.67828333,0
1.3526125,2.280726,-0.36530161,0.64332974,0.74371219,0.18171126,0
-1.6774199,-1.9426572,0.93247259,-0.60774517,0.35175717,0.71197808,0
0.94476235,1.1343911,1.6505349,-0.60774517,0.35175717,0.71197808,0
-1.5172668,-0.91774285,0.56281388,-0.60774517,0.35175717,0.71197808,0
1.1996667,2.1652229,0.64892006,0.64332974,0.74371219,0.18171126,0
-0.89736068,-2.4509568,-0.54974437,-0.64332974,-0.74371219,-0.18171126,0
1.1242895,1.0256205,-0.95155722,0.60774517,-0.35175717,-0.71197808,0
-0.91625714,-1.6811799,-1.3560587,0.60774517,-0.35175717,-0.71197808,0
-1.166952,-1.3662293,1.0834205,-0.60774517,0.35175717,0.71197808,0
1.2384663,1.997882,1.1964514,0.64332974,0.74371219,0.18171126,0
-1.2209375,-0.99345833,-1.4688518,-0.46558851,0.56847084,-0.67828333,0
-2.2263417,-0.57994866,-0.20934278,-0.60774517,0.35175717,0.71197808,0
1.0123172,2.2567635,0.93755198,0.64332974,0.74371219,0.18171126,0
-0.18083692,1.3827763,-0.1912719,-0.46558851,0.56847084,-0.67828333,0
-2.4133203,-0.81268978,-0.25396037,-0.60774517,0.35175717,0.71197808,0
-1.0959362,-2.2033548,-0.86009955,-0.64332974,-0.74371219,-0.18171126,0
1.4025302,1.7266529,1.7256923,0.64332974,0.74371219,0.18171126,0
-1.874157,-1.680799,-0.24361897,-0.64332974,-0.74371219,-0.18171126,0
-1.6591051,0.082851171,-0.05260919,-0.60774517,0.35175717,0.71197808,0
1.9968818,0.90652871,0.86337054,0.46558851,-0.56847084,0.67828333,0
-1.0955206,-2.2904453,-0.50512528,-0.64332974,-0.74371219,-0.18171126,0
1.6069922,0.91563368,-0.48518205,0.60774517,-0.35175717,-0.71197808,0
-1.7286656,-0.28671622,0.070600986,-0.60774517,0.35175717,0.71197808,0
-1.313406,-2.213563,-0.048391581,-0.64332974,-0.74371219,-0.18171126,0
-0.22378607,0.57489115,0.92948526,-0.60774517,0.35175717,0.71197808,0
-1.3508112,-0.76098591,-1.1848679,-0.46558851,0.56847084,-0.67828333,0
-2.0639315,-1.6223075,0.1888622,-0.64332974,-0.74371219,-0.18171126,0
-0.66186541,0.95970911,-0.21565682,-0.46558851,0.56847084,-0.67828333,0
1.4212852,-0.41125268,0.011854559,0.60774517,-0.35175717,-0.71197808,0
0.19900548,-1.6713803,-0.40891063,0.60774517,-0.35175717,-0.71197808,0
2.5579648,0.98934281,0.29015255,0.60774517,-0.35175717,-0.71197808,0
-2.0729694,-1.3418221,-0.92711675,-0.64332974,-0.74371219,-0.18171126,0
0.7621659,0.036307096,0.98157191,0.46558851,-0.56847084,0.67828333,0
1.7701843,1.6196171,0.86213028,0.64332974,0.74371219,0.18171126,0
1.3244344,1.8514259,1.491509,0.64332974,0.74371219,0.18171126,0
1.5864164,-0.086005092,-0.0078797787,0.60774517,-0.35175717,-0.71197808,0
0.088207006,-1.7379811,-0.47058392,0.60774517,-0.35175717,-0.71197808,0
0.7275511,-0.9369781,-0.32057965,0.60774517,-0.35175717,-0.71197808,0
-1.3089567,0.40028554,0.089447536,-0.60774517,0.35175717,0.71197808,0
-0.016060114,-1.5336292,0.19999611,0.46558851,-0.56847084,0.67828333,0
-2.266057,-1.2983681,-0.42136049,-0.64332974,-0.74371219,-0.18171126,0
1.2903624,2.0712175,0.71256828,0.64332974,0.74371219,0.18171126,0
1.8216658,1.7158375,0.28605342,0.64332974,0.74371219,0.18171126,0
1.8063377,1.5348213,1.0811864,0.64332974,0.74371219,0.18171126,0
-1.4669088,-1.0308344,0.66167307,-0.60774517,0.35175717,0.71197808,0
-2.335568,-0.73167515,-0.48434377,-0.46558851,0.56847084,-0.67828333,0
2.1490984,1.0387342,-0.083258271,0.60774517,-0.35175717,-0.71197808,0
1.2911454,0.76328528,-0.67952043,0.60774517,-0.35175717,-0.71197808,0
1.8614433,0.92211473,-0.27118421,0.60774517,-0.35175717,-0.71197808,0
-0.35922796,0.8443104,-0.52010977,-0.46558851,0.56847084,-0.67828333,0
1.4763732,0.5685879,-0.42521852,0.60774517,-0.35175717,-0.71197808,0
-0.29529786,-1.7328904,0.22466969,0.46558851,-0.56847084,0.67828333,0
-0.078011394,1.7157902,0.017246127,-0.46558851,0.56847084,-0.67828333,0
-0.34789813,1.0401382,-0.36376321,-0.46558851,0.56847084,-0.67828333,0
0.29270864,-1.737138,-0.18251061,0.46558851,-0.56847084,0.67828333,0
0.17885697,-1.1612442,0.37829745,0.46558851,-0.56847084,0.67828333,0
-0.42858839,-2.613131,-0.42156863,0.46558851,-0.56847084,0.67828333,0
1.5453178,1.8534825,0.70107734,0.64332974,0.74371219,0.18171126,0
1.0119636,1.9928493,1.2837712,-0.60774517,0.35175717,0.71197808,0
-0.14651965,-0.18946135,-1.4360025,0.60774517,-0.35175717,-0.71197808,0
1.2347171,2.0321522,-0.61869574,-0.46558851,0.56847084,-0.67828333,0
-1.3947905,-2.0624609,-0.3786912,-0.64332974,-0.74371219,-0.18171126,0
0.68061548,1.2560463,-0.88880402,-0.46558851,0.56847084,-0.67828333,0
-1.8361688,-1.3372183,0.49784327,-0.60774517,0.35175717,0.71197808,0
-0.59958172,-2.5056152,-0.21408582,0.46558851,-0.56847084,0.67828333,0
0.67221659,0.23994547,1.2139848,0.46558851,-0.56847084,0.67828333,0
1.2610371,-0.035143614,-0.31075239,0.60774517,-0.35175717,-0.71197808,0
-1.8707741,-0.20073462,-0.35840619,-0.46558851,0.56847084,-0.67828333,0
1.1887403,0.80388874,1.3320737,0.46558851,-0.56847084,0.67828333,0
1.5252957,1.2320826,-0.71126175,0.60774517,-0.35175717,-0.71197808,0
2.0383863,1.4057655,0.78784537,0.64332974,0.74371219,0.18171126,0
0.97557402,2.417037,0.41166592,0.64332974,0.74371219,0.18171126,0
-0.69948936,-2.3713789,-0.8300283,0.60774517,-0.35175717,-0.71197808,0
1.3470631,2.2942536,-0.40102029,0.64332974,0.74371219,0.18171126,0
-1.2394198,-2.322751,0.13655591,-0.64332974,-0.74371219,-0.18171126,0
0.64464897,0.51753712,1.4655581,0.46558851,-0.56847084,0.67828333,0
-0.61420929,0.15978396,-0.91878819,-0.46558851,0.56847084,-0.67828333,0
-0.88496733,0.73431414,0.28633633,-0.60774517,0.35175717,0.71197808,0
-1.6319851,-1.6341574,-1.2918992,-0.64332974,-0.74371219,-0.18171126,0
0.63130057,2.6736722,0.58016777,0.64332974,0.74371219,0.18171126,0
-1.2468787,-2.0217719,-1.0688907,-0.64332974,-0.74371219,-0.18171126,0
-1.9862107,-1.7593555,0.47461283,-0.64332974,-0.74371219,-0.18171126,0
0.29561901,1.2873253,1.0208673,-0.60774517,0.35175717,0.71197808,0
0.038481116,1.9067028,0.097287536,-0.46558851,0.56847084,-0.67828333,0
0.36341983,0.77229798,1.3331946,-0.60774517,0.35175717,0.71197808,0
1.583673,0.69869435,-0.39790708,0.60774517,-0.35175717,-0.71197808,0
-0.25966445,-0.07769978,-1.3611912,-0.46558851,0.56847084,-0.67828333,0
1.2945318,-0.55752593,0.11845157,0.46558851,-0.56847084,0.67828333,0
-0.13730073,1.5693578,0.51198709,-0.60774517,0.35175717,0.71197808,0
-1.4424243,-1.8135099,-1.2289608,-0.64332974,-0.74371219,-0.18171126,0
-1.6861284,-0.17581862,-0.46426871,-0.46558851,0.56847084,-0.67828333,0
2.2017851,1.0561274,-0.046877861,0.60774517,-0.35175717,-0.71197808,0
-1.6846671,-1.7755787,-0.52657151,-0.64332974,-0.74371219,-0.18171126,0
1.4849885,2.1109753,-0.13920593,0.64332974,0.74371219,0.18171126,0
-0.67508042,0.026876807,0.81500995,-0.60774517,0.35175717,0.71197808,0
1.0942333,2.3547456,-0.25189805,-0.46558851,0.56847084,-0.67828333,0
1.2914044,1.1924744,1.5872774,0.46558851,-0.56847084,0.67828333,0
1.3985786,1.3624169,-0.88382018,0.60774517,-0.35175717,-0.71197808,0
-1.7247369,-1.2357407,-1.3260901,-0.46558851,0.56847084,-0.67828333,0
0.39009678,-1.5907937,-0.12670863,0.46558851,-0.56847084,0.67828333,0
0.33931842,-0.079082608,-1.075824,0.60774517,-0.35175717,-0.71197808,0
-1.6024365,-0.50748605,-0.79968792,-0.46558851,0.56847084,-0.67828333,0
0.021000028,0.97429502,-0.67216611,-0.46558851,0.56847084,-0.67828333,0
-1.1910543,-2.1176748,-0.87401676,-0.64332974,-0.74371219,-0.18171126,0
1.3170086,2.1628859,0.24304843,0.64332974,0.74371219,0.18171126,0
2.3592288,1.2869154,0.13836932,0.64332974,0.74371219,0.18171126,0
-0.37007642,-2.5460303,-0.40549493,0.46558851,-0.56847084,0.67828333,0
-1.8506415,-1.7995095,0.15898752,-0.64332974,-0.74371219,-0.18171126,0
-0.81583583,-2.5436578,-0.45896602,-0.64332974,-0.74371219,-0.18171126,0
2.3108325,1.2406129,0.49921942,0.64332974,0.74371219,0.18171126,0
-0.82245433,-2.373745,0.04941988,0.46558851,-0.56847084,0.67828333,0
0.55484533,-0.82317495,-0.52422667,0.60774517,-0.35175717,-0.71197808,0
-0.83861405,-2.3766446,-0.94618368,0.60774517,-0.35175717,-0.71197808,0
-0.82157439,0.95551896,-0.10954094,-0.46558851,0.56847084,-0.67828333,0
0.11122358,1.8188512,0.60086358,-0.60774517,0.35175717,0.71197808,0
0.96048141,-0.49921107,-0.33803147,0.60774517,-0.35175717,-0.71197808,0
0.24092758,-0.34507793,1.0197216,0.46558851,-0.56847084,0.67828333,0
-1.5504098,-1.1633177,0.65585077,-0.60774517,0.35175717,0.71197808,0
-0.47617304,-2.6316023,-0.51084018,0.60774517,-0.35175717,-0.71197808,0
-1.3456022,-1.8808155,-1.2962805,-0.64332974,-0.74371219,-0.18171126,0
1.0953966,-0.69223469,-0.12750331,0.60774517,-0.35175717,-0.71197808,0
-1.012848,-1.28254,1.0946516,0.46558851,-0.56847084,0.67828333,0
1.9161065,1.7786244,-0.30528033,0.64332974,0.74371219,0.18171126,0
-1.2163849,-1.9480188,-1.4787087,-0.64332974,-0.74371219,-0.18171126,0
-1.9718014,-0.16642928,-0.26030725,-0.46558851,0.56847084,-0.67828333,0
0.67070758,2.494086,0.15560079,-0.46558851,0.56847084,-0.67828333,0
-0.39924455,-1.1574481,-1.1734889,0.60774517,-0.35175717,-0.71197808,0
0.78605056,1.9069977,1.1333474,-0.60774517,0.35175717,0.71197808,0
2.2181582,0.59278762,0.44853443,0.46558851,-0.56847084,0.67828333,0
-1.9379493,-0.4119311,-0.48929983,-0.46558851,0.56847084,-0.67828333,0
0.82947338,2.4824889,0.66103625,0.64332974,0.74371219,0.18171126,0
-2.2628484,-1.3659298,-0.15620244,-0.64332974,-0.74371219,-0.18171126,0
-0.47186345,-0.23312259,1.1169302,-0.60774517,0.35175717,0.71197808,0
1.1722308,0.59710491,-0.69892371,0.60774517,-0.35175717,-0.71197808,0
1.1422447,0.3624357,0.99400669,0.46558851,-0.56847084,0.67828333,0
1.8581665,1.5374646,-0.57799888,0.60774517,-0.35175717,-0.71197808,0
0.10803384,-1.3868126,-0.62715662,0.60774517,-0.35175717,-0.71197808,0
0.51136839,1.3567364,1.1707383,-0.60774517,0.35175717,0.71197808,0
-1.1491648,-2.2479801,-0.48900652,-0.64332974,-0.74371219,-0.18171126,0
-0.86070192,-2.4770544,-0.57271767,-0.64332974,-0.74371219,-0.18171126,0
-1.651351,-1.5114229,0.74167109,-0.60774517,0.35175717,0.71197808,0
-1.9022465,-1.5799016,-0.55712688,-0.64332974,-0.74371219,-0.18171126,0
-1.8783077,-0.13554692,-0.1318197,-0.60774517,0.35175717,0.71197808,0
1.0898062,-0.17948949,-0.38560027,0.60774517,-0.35175717,-0.71197808,0
0.84095931,2.4285707,0.84105015,0.64332974,0.74371219,0.18171126,0
-0.54830313,-0.93837929,1.0642196,0.46558851,-0.56847084,0.67828333,0
-0.52954555,-2.5863032,-0.32978487,0.46558851,-0.56847084,0.67828333,0
1.5474597,-0.23260379,0.031294778,0.60774517,-0.35175717,-0.71197808,0
-0.40748733,-0.18368751,-1.3485509,-0.46558851,0.56847084,-0.67828333,0
-0.20512915,-1.8005794,-0.69004893,0.60774517,-0.35175717,-0.71197808,0
1.3655279,2.1727571,-0.59064579,-0.46558851,0.56847084,-0.67828333,0
-0.95502365,-0.79395199,0.9815855,-0.60774517,0.35175717,0.71197808,0
-1.5060182,0.34065551,-0.15504217,-0.46558851,0.56847084,-0.67828333,0
-2.0138657,-1.7347332,0.47174764,-0.64332974,-0.74371219,-0.18171126,0
-0.67944962,-0.93292248,1.1588147,0.46558851,-0.56847084,0.67828333,0
-1.1070611,0.57983363,-0.2284393,-0.46558851,0.56847084,-0.67828333,0
-0.4067831,-0.91810203,0.98407161,0.46558851,-0.56847084,0.67828333,0
1.361389,1.9920475,0.78513527,0.64332974,0.74371219,0.18171126,0
-0.39792967,-1.8968869,0.15767252,0.46558851,-0.56847084,0.67828333,0
1.7798963,0.91630906,1.0205112,0.46558851,-0.56847084,0.67828333,0
-0.29639447,1.2822701,-0.19618511,-0.46558851,0.56847084,-0.67828333,0
-0.10163414,-0.34226477,1.2572212,0.46558851,-0.56847084,0.67828333,0
0.49065164,-0.060871363,-0.95564312,0.60774517,-0.35175717,-0.71197808,0
-1.3130611,-1.0534132,0.80415267,-0.60774517,0.35175717,0.71197808,0
-0.87893856,-0.59472847,-1.3694308,-0.46558851,0.56847084,-0.67828333,0
-0.31273818,-0.1248101,-1.3642435,-0.46558851,0.56847084,-0.67828333,0
-1.6716291,-1.7201957,-0.79940462,-0.64332974,-0.74371219,-0.18171126,0
-1.4243264,-1.1302481,-1.4438848,-0.46558851,0.56847084,-0.67828333,0
1.79026,0.13672185,0.056081712,0.60774517,-0.35175717,-0.71197808,0
-1.9959345,-1.5662272,-0.28140128,-0.64332974,-0.74371219,-0.18171126,0
1.2214267,2.3499229,-0.18406343,0.64332974,0.74371219,0.18171126,0
1.1324378,-0.18850768,-0.34475434,0.60774517,-0.35175717,-0.71197808,0
-0.9752993,-2.3101549,-0.85008836,-0.64332974,-0.74371219,-0.18171126,0
2.2296371,1.2404178,0.78748119,0.64332974,0.74371219,0.18171126,0
-0.82658648,0.64988452,0.37788326,-0.60774517,0.35175717,0.71197808,0
-0.51800138,-0.39534438,1.1576936,-0.60774517,0.35175717,0.71197808,0
-0.8880564,-2.5472331,-0.18864417,-0.64332974,-0.74371219,-0.18171126,0
1.5171297,1.9903618,0.24065137,0.64332974,0.74371219,0.18171126,0
-0.3089526,-0.554304,1.2218186,0.46558851,-0.56847084,0.67828333,0
0.79104555,0.99351662,1.588922,-0.60774517,0.35175717,0.71197808,0
-0.96898097,-2.3578906,-0.67708373,-0.64332974,-0.74371219,-0.18171126,0
-0.74972212,0.99590969,0.27253884,-0.60774517,0.35175717,0.71197808,0
-2.4012287,-1.1231049,-0.66012073,-0.64332974,-0.74371219,-0.18171126,0
-2.0900917,-1.5548677,0.0054613352,-0.64332974,-0.74371219,-0.18171126,0
-1.3361673,0.44408339,-0.18494843,-0.46558851,0.56847084,-0.67828333,0
1.7545295,1.5026577,1.3962493,0.64332974,0.74371219,0.18171126,0
-2.2035103,-1.3471364,-0.44320142,-0.64332974,-0.74371219,-0.18171126,0
-0.6931178,1.2257384,0.028755188,-0.46558851,0.56847084,-0.67828333,0
-1.8725936,-1.4095094,-1.3594943,-0.64332974,-0.74371219,-0.18171126,0
-1.299641,-2.1554129,-0.33512259,-0.64332974,-0.74371219,-0.18171126,0
-1.6815097,-1.9116262,0.01906848,-0.64332974,-0.74371219,-0.18171126,0
-1.0489454,0.64543653,-0.21334928,-0.46558851,0.56847084,-0.67828333,0
0.32687452,-0.087987423,-1.0820466,0.60774517,-0.35175717,-0.71197808,0
1.906749,1.8437361,-0.53864133,0.64332974,0.74371219,0.18171126,0
-0.51825666,-2.5812984,-0.57161546,0.60774517,-0.35175717,-0.71197808,0
0.57981205,2.5983028,0.61575818,-0.60774517,0.35175717,0.71197808,0
-0.15364444,-1.692302,-0.69959652,0.60774517,-0.35175717,-0.71197808,0
-0.55630445,-0.71466357,-1.5263159,0.60774517,-0.35175717,-0.71197808,0
0.26860034,-1.6940012,-0.3383286,0.60774517,-0.35175717,-0.71197808,0
0.70120645,2.4976802,0.13767767,-0.46558851,0.56847084,-0.67828333,0
-1.6168131,-1.7512602,-0.86633265,-0.64332974,-0.74371219,-0.18171126,0
0.14579976,1.7145674,-0.13740742,-0.46558851,0.56847084,-0.67828333,0
-0.74759769,-2.6400962,-0.22519302,0.46558851,-0.56847084,0.67828333,0
-1.2459267,-0.43031076,-0.97972316,-0.46558851,0.56847084,-0.67828333,0
-0.5713439,-1.5173328,-1.1425898,0.60774517,-0.35175717,-0.71197808,0
1.4740207,1.8394758,1.0108238,0.64332974,0.74371219,0.18171126,0
1.8365004,1.7609338,-0.7068994,0.60774517,-0.35175717,-0.71197808,0
-0.52037656,-2.6288095,-0.37170315,0.46558851,-0.56847084,0.67828333,0
0.65999448,2.3042476,0.82948208,-0.60774517,0.35175717,0.71197808,0
-0.6122694,-1.2891411,-1.2902634,0.60774517,-0.35175717,-0.71197808,0
1.9894798,1.4018281,0.97710955,0.64332974,0.74371219,0.18171126,0
-0.93948853,-2.4403195,-0.44413137,-0.64332974,-0.74371219,-0.18171126,0
-1.7374461,-1.6086226,-1.0230348,-0.64332974,-0.74371219,-0.18171126,0
-0.86375546,-1.116511,-1.590221,0.60774517,-0.35175717,-0.71197808,0
0.0038141161,0.184425,1.3166773,-0.60774517,0.35175717,0.71197808,0
-1.7006904,-1.9503212,0.24534774,-0.64332974,-0.74371219,-0.18171126,0
-0.77847695,-0.0044144392,0.74221003,-0.60774517,0.35175717,0.71197808,0
-1.6775039,-1.8819869,-0.11642218,-0.64332974,-0.74371219,-0.18171126,0
0.22819743,0.42221552,1.3907292,-0.60774517,0.35175717,0.71197808,0
1.9643464,1.2720768,-0.35624707,0.60774517,-0.35175717,-0.71197808,0
0.91781199,0.98383009,1.6688541,0.46558851,-0.56847084,0.67828333,0
0.7844249,0.57462478,-1.0188489,0.60774517,-0.35175717,-0.71197808,0
0.16647732,2.1221502,0.49818146,-0.60774517,0.35175717,0.71197808,0
1.2943547,1.3633472,1.7284614,0.46558851,-0.56847084,0.67828333,0
0.17641163,1.8957205,0.61853051,-0.60774517,0.35175717,0.71197808,0
1.7339084,1.7596475,0.41744196,0.64332974,0.74371219,0.18171126,0
-0.88124585,-1.2821538,-1.5233141,0.60774517,-0.35175717,-0.71197808,0
2.1048477,1.4446468,0.39341223,0.64332974,0.74371219,0.18171126,0
-0.21149051,1.2597971,-0.27329969,-0.46558851,0.56847084,-0.67828333,0
-0.25544822,-2.1639836,-0.55345941,0.60774517,-0.35175717,-0.71197808,0
1.2665856,1.9931202,1.1163871,0.64332974,0.74371219,0.18171126,0
1.7098185,1.5875657,1.2070299,0.64332974,0.74371219,0.18171126,0
-1.332283,-2.2625289,0.21885109,-0.64332974,-0.74371219,-0.18171126,0
1.6236905,1.8041445,0.62553906,0.64332974,0.74371219,0.18171126,0
-0.15717459,1.0663164,0.74355322,-0.60774517,0.35175717,0.71197808,0
-1.6590735,-2.0233166,0.3967638,-0.64332974,-0.74371219,-0.18171126,0
-1.1050659,-0.16397405,0.54226482,-0.60774517,0.35175717,0.71197808,0
1.126567,2.1086745,1.1391648,0.64332974,0.74371219,0.18171126,0
1.9136221,1.3908122,1.2907618,0.64332974,0.74371219,0.18171126,0
-1.8280921,-0.1056776,-0.10371274,-0.60774517,0.35175717,0.71197808,0
0.15659058,2.1740346,0.24026561,-0.46558851,0.56847084,-0.67828333,0
-0.96843517,-2.4778986,-0.18784356,-0.64332974,-0.74371219,-0.18171126,0
1.6556693,1.8916783,0.15406013,0.64332974,0.74371219,0.18171126,0
