0.75334495,-0.90095484,1.1192346,-0.32678103,-0.83632302,0.44020218,0
-1.9019687,-0.35422695,-0.16793537,-0.71025616,-0.089963078,-0.69817102,0
-1.3727684,-0.38099337,0.5287838,-0.32678103,-0.83632302,0.44020218,0
0.18196058,1.2719618,0.75374496,-0.62349844,0.54080546,0.56460541,0
1.5643085,-0.27059865,0.21552235,0.62349844,-0.54080546,-0.56460541,0
1.1449566,-1.2068256,0.64919019,0.62349844,-0.54080546,-0.56460541,0
1.0403607,1.1612231,0.94047171,0.71025616,0.089963078,0.69817102,0
-1.3297919,0.41522223,-0.84916401,-0.71025616,-0.089963078,-0.69817102,0
0.44096696,-0.79862309,1.0817592,-0.32678103,-0.83632302,0.44020218,0
1.0338436,0.1120677,-0.73680991,0.62349844,-0.54080546,-0.56460541,0
-1.2483668,0.29359269,0.11134997,-0.62349844,0.54080546,0.56460541,0
0.58360332,0.3501049,1.5096525,0.71025616,0.089963078,0.69817102,0
-1.2109796,0.66031325,-0.19862512,-0.62349844,0.54080546,0.56460541,0
0.15612215,-0.65445495,-0.97187406,0.62349844,-0.54080546,-0.56460541,0
1.6018283,0.66967452,0.43262398,0.71025616,0.089963078,0.69817102,0
-0.32893932,-0.50272804,1.0723842,-0.32678103,-0.83632302,0.44020218,0
1.5592551,0.50988871,0.49652332,0.71025616,0.089963078,0.69817102,0
-0.2578916,-0.54071218,-1.5380212,0.62349844,-0.54080546,-0.56460541,0
1.1130885,0.39328718,-0.69819885,0.32678103,0.83632302,-0.44020218,0
-0.0829373,0.70680398,1.0025504,-0.62349844,0.54080546,0.56460541,0
-1.0303349,0.63592958,-1.1822438,-0.71025616,-0.089963078,-0.69817102,0
0.91301244,-0.99857342,1.0523008,-0.32678103,-0.83632302,0.44020218,0
0.26700127,-0.46386468,-1.0319856,0.62349844,-0.54080546,-0.56460541,0
1.4365668,-0.23981273,0.044968069,0.62349844,-0.54080546,-0.56460541,0
1.7407479,0.26154125,-0.099342585,0.62349844,-0.54080546,-0.56460541,0
-0.21049744,0.51337665,-1.4526005,0.32678103,0.83632302,-0.44020218,0
-0.52387518,1.0844778,-0.60022146,0.32678103,0.83632302,-0.44020218,0
1.009065,-0.85750896,1.2324336,0.71025616,0.089963078,0.69817102,0
-1.1764181,-1.0014832,-0.82264262,-0.71025616,-0.089963078,-0.69817102,0
-0.29571545,0.47596961,-1.5869296,0.32678103,0.83632302,-0.44020218,0
-1.4270984,-0.48101342,0.29842836,-0.32678103,-0.83632302,0.44020218,0
1.4952543,-0.770473,0.61806816,0.62349844,-0.54080546,-0.56460541,0
0.4138906,-0.54825217,-0.78894413,0.62349844,-0.54080546,-0.56460541,0
1.4396867,-0.075353026,0.69357318,0.71025616,0.089963078,0.69817102,0
1.3397551,0.71542412,0.082080662,0.32678103,0.83632302,-0.44020218,0
-0.58603674,0.30817068,0.82880288,-0.62349844,0.54080546,0.56460541,0
1.3727945,-0.055091858,-0.20239061,0.62349844,-0.54080546,-0.56460541,0
-0.1533736,0.4936378,1.1289475,-0.62349844,0.54080546,0.56460541,0
0.69745773,-1.238688,0.18553309,0.62349844,-0.54080546,-0.56460541,0
-1.1248522,-0.21493983,0.73484439,-0.62349844,0.54080546,0.56460541,0
0.95924133,-0.13321105,1.18979,0.71025616,0.089963078,0.69817102,0
-1.5714327,-0.20409727,-0.52353787,-0.71025616,-0.089963078,-0.69817102,0
0.90554529,-0.86121655,0.053765982,0.62349844,-0.54080546,-0.56460541,0
-1.0047133,1.2499278,-0.64283621,0.32678103,0.83632302,-0.44020218,0
0.67566323,1.2772669,0.65651995,0.32678103,0.83632302,-0.44020218,0
0.80306995,-0.083112955,-0.80470228,0.62349844,-0.54080546,-0.56460541,0
-0.68288374,-0.24372649,-1.4223609,-0.71025616,-0.089963078,-0.69817102,0
0.61868191,-0.24630041,1.5508168,0.71025616,0.089963078,0.69817102,0
-0.19069088,-1.4143559,-0.62699407,0.62349844,-0.54080546,-0.56460541,0
-0.18298614,-1.0598447,-0.95805311,0.62349844,-0.54080546,-0.56460541,0
1.4427458,-0.44945192,0.73866546,0.71025616,0.089963078,0.69817102,0
0.74791676,0.66092998,-0.46079746,0.32678103,0.83632302,-0.44020218,0
-0.4382689,-1.1343091,-0.2086919,-0.32678103,-0.83632302,0.44020218,0
-0.74130565,1.0482776,-0.051570758,-0.62349844,0.54080546,0.56460541,0
-0.49897948,0.73585212,0.515288,-0.62349844,0.54080546,0.56460541,0
1.4030969,-0.070192099,0.73013103,0.71025616,0.089963078,0.69817102,0
0.8927176,1.1855786,1.0875323,0.71025616,0.089963078,0.69817102,0
1.6741879,-0.41761839,0.49911547,0.71025616,0.089963078,0.69817102,0
1.552637,0.7866137,0.3753624,0.32678103,0.83632302,-0.44020218,0
1.1423993,-0.46068513,-0.068321735,0.62349844,-0.54080546,-0.56460541,0
0.28681594,0.56502134,-0.98530555,0.32678103,0.83632302,-0.44020218,0
-0.31585193,-0.56090933,-1.5826814,0.62349844,-0.54080546,-0.56460541,0
-0.6474449,-0.21509847,-1.4621022,-0.71025616,-0.089963078,-0.69817102,0
-0.19656345,0.20634162,-1.975093,-0.71025616,-0.089963078,-0.69817102,0
0.33172977,0.46717203,-1.1378641,0.32678103,0.83632302,-0.44020218,0
0.20893592,-0.68984282,1.1161799,-0.32678103,-0.83632302,0.44020218,0
0.15043986,0.51929343,1.4398772,-0.62349844,0.54080546,0.56460541,0
0.068335772,0.84280634,-0.61973989,0.32678103,0.83632302,-0.44020218,0
-0.4282589,-0.96529686,-1.3194721,0.62349844,-0.54080546,-0.56460541,0
-0.29020655,1.1163003,0.38142663,-0.62349844,0.54080546,0.56460541,0
-0.09751606,-1.1852108,-0.74358618,0.62349844,-0.54080546,-0.56460541,0
1.3917286,0.089356601,0.72113734,0.71025616,0.089963078,0.69817102,0
-1.5377221,0.37779117,-0.28883684,-0.62349844,0.54080546,0.56460541,0
-1.8077497,-0.37088335,0.13008463,-0.62349844,0.54080546,0.56460541,0
1.2753477,-0.89133531,0.49099106,0.62349844,-0.54080546,-0.56460541,0
-0.55566132,1.2332879,-0.34109885,0.32678103,0.83632302,-0.44020218,0
0.4555974,1.2227623,1.1030498,-0.62349844,0.54080546,0.56460541,0
-0.76028073,-0.73651648,0.30801538,-0.32678103,-0.83632302,0.44020218,0
0.45068231,0.47262901,1.6290865,0.71025616,0.089963078,0.69817102,0
0.071162343,0.45943344,-1.345997,0.32678103,0.83632302,-0.44020218,0
-0.33852869,0.49258614,-1.5871427,0.32678103,0.83632302,-0.44020218,0
0.212273,-1.3818729,-0.21311146,0.62349844,-0.54080546,-0.56460541,0
1.7807791,-0.11323595,0.30384326,0.62349844,-0.54080546,-0.56460541,0
1.2234309,1.0498642,0.63111842,0.32678103,0.83632302,-0.44020218,0
1.1645732,-0.4022181,-0.099837273,0.62349844,-0.54080546,-0.56460541,0
1.4293039,0.57898629,-0.1106562,0.32678103,0.83632302,-0.44020218,0
-0.76727808,-1.4531013,-1.1806715,-0.71025616,-0.089963078,-0.69817102,0
-0.91844422,0.82986772,-1.3210613,-0.71025616,-0.089963078,-0.69817102,0
1.2205484,1.0131778,0.55927908,0.32678103,0.83632302,-0.44020218,0
0.81557357,-1.2281252,0.30585176,0.62349844,-0.54080546,-0.56460541,0
-0.43153977,1.3598695,-0.0079509616,-0.62349844,0.54080546,0.56460541,0
-1.0318803,0.23701867,-1.1292701,-0.71025616,-0.089963078,-0.69817102,0
1.484386,0.11218607,0.62393463,0.71025616,0.089963078,0.69817102,0
-0.0381639,-0.55288136,-1.2837176,0.62349844,-0.54080546,-0.56460541,0
0.14441264,-0.96634805,0.54296005,-0.32678103,-0.83632302,0.44020218,0
-0.12927735,-1.1096495,0.067535251,-0.32678103,-0.83632302,0.44020218,0
-0.55749279,1.0986664,0.10315076,-0.62349844,0.54080546,0.56460541,0
-1.1235753,-0.015712917,-1.003422,-0.71025616,-0.089963078,-0.69817102,0
-0.35792276,0.026700318,-1.7877929,-0.71025616,-0.089963078,-0.69817102,0
0.87161851,-1.1693819,0.69706005,-0.32678103,-0.83632302,0.44020218,0
0.81538224,-1.1203619,0.74844462,-0.32678103,-0.83632302,0.44020218,0
-0.35163927,-1.2459253,-0.96606123,0.62349844,-0.54080546,-0.56460541,0
-0.51699561,0.80071169,0.433267,-0.62349844,0.54080546,0.56460541,0
1.691686,0.6210835,0.16409969,0.32678103,0.83632302,-0.44020218,0
1.0225652,-0.091564655,-0.55421621,0.62349844,-0.54080546,-0.56460541,0
-0.083163619,0.87642157,-0.66834009,0.32678103,0.83632302,-0.44020218,0
-0.5676862,0.65551549,0.51636457,-0.62349844,0.54080546,0.56460541,0
1.2458576,1.0446359,0.63783371,0.32678103,0.83632302,-0.44020218,0
-0.76705754,-1.2412019,-0.65584743,-0.32678103,-0.83632302,0.44020218,0
-1.3769534,1.1020937,-0.80506915,-0.62349844,0.54080546,0.56460541,0
-0.022162676,-0.32628477,1.6353354,-0.32678103,-0.83632302,0.44020218,0
-0.83512956,-0.53431237,-1.2300363,-0.71025616,-0.089963078,-0.69817102,0
-0.27368629,-0.64117885,-1.4592316,0.62349844,-0.54080546,-0.56460541,0
0.43487561,1.2306073,1.0726523,-0.62349844,0.54080546,0.56460541,0
-0.49195647,-1.4582666,-0.86402088,-0.32678103,-0.83632302,0.44020218,0
0.79300857,-0.44121087,-0.47281006,0.62349844,-0.54080546,-0.56460541,0
1.7678347,-0.18709505,0.3602944,0.62349844,-0.54080546,-0.56460541,0
0.42565817,0.58670187,-0.84104717,0.32678103,0.83632302,-0.44020218,0
-0.31390542,0.76568401,-1.0500156,0.32678103,0.83632302,-0.44020218,0
-0.54525459,1.1504757,-0.49070525,0.32678103,0.83632302,-0.44020218,0
-1.2790716,-0.30097842,-0.80847609,-0.71025616,-0.089963078,-0.69817102,0
0.12168261,-0.14382231,2.0432141,0.71025616,0.089963078,0.69817102,0
-0.62660182,0.5760138,0.52745414,-0.62349844,0.54080546,0.56460541,0
1.2637273,0.035277963,0.8583228,0.71025616,0.089963078,0.69817102,0
-0.16208595,-0.71020806,0.80206335,-0.32678103,-0.83632302,0.44020218,0
-0.6366334,-1.4617066,-0.97795689,-0.32678103,-0.83632302,0.44020218,0
0.26012933,-1.1936586,-0.34054363,0.62349844,-0.54080546,-0.56460541,0
0.028187901,-0.2917785,-1.4605414,0.62349844,-0.54080546,-0.56460541,0
-0.42571571,0.27186644,1.0406207,-0.62349844,0.54080546,0.56460541,0
0.60985518,1.2410231,0.53880948,0.32678103,0.83632302,-0.44020218,0
-0.1048671,-1.1052821,0.093953758,-0.32678103,-0.83632302,0.44020218,0
-0.21741891,1.210632,-0.13305041,0.32678103,0.83632302,-0.44020218,0
0.4419024,1.0309912,1.2716135,-0.62349844,0.54080546,0.56460541,0
0.095794201,0.82308471,-0.63682455,0.32678103,0.83632302,-0.44020218,0
1.1049604,0.82694137,0.11965001,0.32678103,0.83632302,-0.44020218,0
1.0223111,-1.0082922,0.32358748,0.62349844,-0.54080546,-0.56460541,0
-0.34817305,0.37054551,1.0317324,-0.62349844,0.54080546,0.56460541,0
1.6912926,-0.24897468,0.459984,0.71025616,0.089963078,0.69817102,0
0.18116784,-0.95995003,0.5824002,-0.32678103,-0.83632302,0.44020218,0
1.7798769,0.45907557,0.27863014,0.71025616,0.089963078,0.69817102,0
0.98589462,-0.46048766,1.2048467,0.71025616,0.089963078,0.69817102,0
1.3565028,0.43913519,-0.43039745,0.32678103,0.83632302,-0.44020218,0
-1.3844543,1.1391717,-0.88684016,-0.71025616,-0.089963078,-0.69817102,0
0.50421005,-0.83467555,-0.41485399,0.62349844,-0.54080546,-0.56460541,0
-1.7943687,-0.30408025,0.080874443,-0.62349844,0.54080546,0.56460541,0
0.037281793,0.10314214,1.7135248,-0.62349844,0.54080546,0.56460541,0
0.9217487,-0.40239632,1.2626177,0.71025616,0.089963078,0.69817102,0
0.96359897,1.2767766,0.86933535,0.32678103,0.83632302,-0.44020218,0
0.28128874,-1.1087837,0.37396097,-0.32678103,-0.83632302,0.44020218,0
-0.49295509,0.48007333,-1.7088426,-0.71025616,-0.089963078,-0.69817102,0
0.91967934,0.24011445,-0.98553169,0.62349844,-0.54080546,-0.56460541,0
0.95079345,0.17827117,1.1582479,0.71025616,0.089963078,0.69817102,0
-1.0768496,-0.06123057,-1.0450912,-0.71025616,-0.089963078,-0.69817102,0
0.72882271,0.7639423,1.3085942,0.71025616,0.089963078,0.69817102,0
-1.5812331,0.21820283,-0.18402535,-0.62349844,0.54080546,0.56460541,0
1.3701713,-0.7927829,0.50130749,0.62349844,-0.54080546,-0.56460541,0
-0.86299717,-0.52648604,-1.2026947,-0.71025616,-0.089963078,-0.69817102,0
-0.30555654,0.0039281845,-1.8381312,-0.71025616,-0.089963078,-0.69817102,0
0.95673895,0.72312093,-0.18762583,0.32678103,0.83632302,-0.44020218,0
-1.0131435,-0.89092112,-1.0029899,-0.71025616,-0.089963078,-0.69817102,0
1.1490772,-0.67902523,1.0669992,0.71025616,0.089963078,0.69817102,0
-0.25175303,0.84176517,-0.85933352,0.32678103,0.83632302,-0.44020218,0
1.1764526,0.60169786,-0.25520962,0.32678103,0.83632302,-0.44020218,0
0.79410732,1.2068529,1.1851082,0.71025616,0.089963078,0.69817102,0
1.3730024,0.38059306,-0.52937073,0.32678103,0.83632302,-0.44020218,0
0.03497684,-1.2957103,-0.16402152,-0.32678103,-0.83632302,0.44020218,0
-1.8185654,-0.044400215,-0.29270524,-0.71025616,-0.089963078,-0.69817102,0
0.8943733,1.1013567,1.0967004,0.71025616,0.089963078,0.69817102,0
1.4818616,-0.19690084,0.66633028,0.71025616,0.089963078,0.69817102,0
1.2720155,0.046607256,0.84843135,0.71025616,0.089963078,0.69817102,0
-0.83933479,-0.44369519,0.80564988,-0.32678103,-0.83632302,0.44020218,0
1.6333777,-0.091608763,0.12035137,0.62349844,-0.54080546,-0.56460541,0
0.55552852,-1.2032686,0.39803261,-0.32678103,-0.83632302,0.44020218,0
-0.24768353,-0.12756836,1.6198205,-0.62349844,0.54080546,0.56460541,0
-0.12770838,-0.39673132,1.4231455,-0.32678103,-0.83632302,0.44020218,0
-0.18518203,0.64333379,0.95043522,-0.62349844,0.54080546,0.56460541,0
-0.19778693,-1.0585245,0.11380813,-0.32678103,-0.83632302,0.44020218,0
0.0080108643,-0.95170867,0.46951598,-0.32678103,-0.83632302,0.44020218,0
-0.28382862,-0.6314739,-1.4797277,0.62349844,-0.54080546,-0.56460541,0
-0.83040893,-0.33824658,1.0126138,-0.32678103,-0.83632302,0.44020218,0
0.43894088,1.0774879,0.10123879,0.32678103,0.83632302,-0.44020218,0
-0.38201547,-0.34182113,-1.7157972,-0.71025616,-0.089963078,-0.69817102,0
1.426149,-0.41123986,0.75062597,0.71025616,0.089963078,0.69817102,0
1.355311,-0.38032532,0.81870651,0.71025616,0.089963078,0.69817102,0
1.4963952,-0.72731876,0.71989214,0.71025616,0.089963078,0.69817102,0
-0.79255259,0.46905017,0.446648,-0.62349844,0.54080546,0.56460541,0
-0.13213134,0.43546543,-1.5424464,0.32678103,0.83632302,-0.44020218,0
-0.45875877,0.34885782,-1.7267231,-0.71025616,-0.089963078,-0.69817102,0
-0.90052426,-0.90027285,-0.10720801,-0.32678103,-0.83632302,0.44020218,0
0.19057798,0.49181819,-1.195823,0.32678103,0.83632302,-0.44020218,0
0.71602356,-0.81444162,-0.20032769,0.62349844,-0.54080546,-0.56460541,0
0.6992085,1.4159666,0.93750906,0.32678103,0.83632302,-0.44020218,0
0.77091789,-0.32078171,-0.61255789,0.62349844,-0.54080546,-0.56460541,0
-1.4155031,0.4725486,-0.76935601,-0.71025616,-0.089963078,-0.69817102,0
1.6196105,0.11028028,-0.08823055,0.62349844,-0.54080546,-0.56460541,0
-1.3655229,-0.46673983,-0.6991691,-0.71025616,-0.089963078,-0.69817102,0
0.9497788,1.2304668,1.0236992,0.71025616,0.089963078,0.69817102,0
-0.1584816,-1.1084111,-0.88447338,0.62349844,-0.54080546,-0.56460541,0
1.5858611,0.54245174,0.46526104,0.71025616,0.089963078,0.69817102,0
0.57664835,-0.55897826,-0.5989356,0.62349844,-0.54080546,-0.56460541,0
-1.30111,0.56968045,-0.21134442,-0.62349844,0.54080546,0.56460541,0
-0.8764984,1.2912891,-0.43363279,-0.62349844,0.54080546,0.56460541,0
1.1649208,-0.053197742,0.97024024,0.71025616,0.089963078,0.69817102,0
-0.76088488,-1.3553708,-1.1997685,-0.71025616,-0.089963078,-0.69817102,0
-1.5937921,-0.50446045,0.13013804,-0.32678103,-0.83632302,0.44020218,0
0.40442789,1.0866947,1.1768749,-0.62349844,0.54080546,0.56460541,0
1.6821821,0.6303792,0.17470551,0.32678103,0.83632302,-0.44020218,0
1.3845066,-0.12743151,0.75641888,0.71025616,0.089963078,0.69817102,0
-0.88797092,-1.2576177,-1.0830786,-0.71025616,-0.089963078,-0.69817102,0
0.84203923,0.090236619,1.2802285,0.71025616,0.089963078,0.69817102,0
-0.01504612,0.51943684,1.2569922,-0.62349844,0.54080546,0.56460541,0
-0.14028579,-0.33651364,1.5282142,-0.32678103,-0.83632302,0.44020218,0
0.82536143,0.12825468,1.2922962,0.71025616,0.089963078,0.69817102,0
0.7275213,0.18972149,1.3839097,0.71025616,0.089963078,0.69817102,0
0.4177621,0.51939625,-0.97477984,0.32678103,0.83632302,-0.44020218,0
-0.54405391,0.090170026,1.0839761,-0.62349844,0.54080546,0.56460541,0
-0.58300179,1.0030934,0.16652527,-0.62349844,0.54080546,0.56460541,0
1.325442,-0.94398201,0.59673786,0.62349844,-0.54080546,-0.56460541,0
1.4255571,-0.46854937,0.75861263,0.71025616,0.089963078,0.69817102,0
1.2375309,0.73182303,0.79521912,0.71025616,0.089963078,0.69817102,0
-0.18138391,-0.14037406,-1.8369956,0.62349844,-0.54080546,-0.56460541,0
-1.2972704,0.67634046,-0.30926841,-0.62349844,0.54080546,0.56460541,0
-0.94512379,-0.84040332,-1.0786967,-0.71025616,-0.089963078,-0.69817102,0
0.10745382,-1.0504203,-0.64634496,0.62349844,-0.54080546,-0.56460541,0
-1.722482,-0.14372754,-0.37765288,-0.71025616,-0.089963078,-0.69817102,0
1.3167841,-0.92345369,0.92788535,0.71025616,0.089963078,0.69817102,0
-0.66459298,-1.3678311,-0.82036167,-0.32678103,-0.83632302,0.44020218,0
0.029370546,0.033455133,1.7715377,-0.62349844,0.54080546,0.56460541,0
0.55913061,0.74114513,-0.44854373,0.32678103,0.83632302,-0.44020218,0
-0.23980665,-0.45209813,1.2347412,-0.32678103,-0.83632302,0.44020218,0
0.44406712,1.1943166,1.1175635,-0.62349844,0.54080546,0.56460541,0
0.47225004,-0.36651501,1.7152735,0.71025616,0.089963078,0.69817102,0
-0.61667037,0.6602819,-1.4750205,0.32678103,0.83632302,-0.44020218,0
1.2869527,-0.4494561,0.080554008,0.62349844,-0.54080546,-0.56460541,0
0.75928813,0.60599893,-0.5567174,0.32678103,0.83632302,-0.44020218,0
-1.0391383,0.17320091,-1.1136632,-0.71025616,-0.089963078,-0.69817102,0
0.1068278,0.6837135,-0.89341986,0.32678103,0.83632302,-0.44020218,0
-0.5677942,0.99590534,-0.80109966,0.32678103,0.83632302,-0.44020218,0
1.4644448,0.50514686,-0.22485417,0.32678103,0.83632302,-0.44020218,0
-0.32189968,-0.41246039,-1.7315513,0.62349844,-0.54080546,-0.56460541,0
-1.2928259,-0.67098904,0.037176728,-0.32678103,-0.83632302,0.44020218,0
0.032915883,-0.16598129,-1.5758147,0.62349844,-0.54080546,-0.56460541,0
1.1363702,-0.17003691,-0.35337627,0.62349844,-0.54080546,-0.56460541,0
-1.4696635,-0.52894104,0.17577446,-0.32678103,-0.83632302,0.44020218,0
1.6175115,-0.1070174,0.11758935,0.62349844,-0.54080546,-0.56460541,0
-0.078818858,0.67841154,-1.0413064,0.32678103,0.83632302,-0.44020218,0
-0.78890103,-0.96557999,-1.2214938,-0.71025616,-0.089963078,-0.69817102,0
-0.99879909,1.2232435,-0.68914199,0.32678103,0.83632302,-0.44020218,0
-1.483272,0.8115201,-0.644153,-0.62349844,0.54080546,0.56460541,0
0.65409529,0.22578371,-1.2650919,0.62349844,-0.54080546,-0.56460541,0
1.2362772,-0.0050505996,0.89144468,0.71025616,0.089963078,0.69817102,0
1.5431136,0.5275172,-0.12395442,0.32678103,0.83632302,-0.44020218,0
-1.3562875,0.42793965,-0.1365118,-0.62349844,0.54080546,0.56460541,0
-0.50573039,1.1246388,-0.5104512,0.32678103,0.83632302,-0.44020218,0
0.091623068,-0.98415762,0.4699364,-0.32678103,-0.83632302,0.44020218,0
0.53839117,0.12157556,1.5850945,0.71025616,0.089963078,0.69817102,0
0.53306651,1.1614965,1.2472827,-0.62349844,0.54080546,0.56460541,0
-1.3779138,1.1858592,-0.89950991,-0.71025616,-0.089963078,-0.69817102,0
-1.3640829,-0.43447089,0.43363202,-0.32678103,-0.83632302,0.44020218,0
-1.3542948,-0.21614003,0.48261851,-0.62349844,0.54080546,0.56460541,0
-0.20296896,0.15780687,1.3958534,-0.62349844,0.54080546,0.56460541,0
1.0537882,-0.55680436,1.1481888,0.71025616,0.089963078,0.69817102,0
0.33160487,-0.32244426,1.8526745,0.71025616,0.089963078,0.69817102,0
-1.168952,-0.077078581,0.55409455,-0.62349844,0.54080546,0.56460541,0
-0.66424274,-1.3065342,-1.2532181,0.62349844,-0.54080546,-0.56460541,0
1.1988081,0.55011857,-0.33660781,0.32678103,0.83632302,-0.44020218,0
1.8398517,0.37590837,-0.09944737,0.62349844,-0.54080546,-0.56460541,0
1.9068606,0.34432602,0.16423464,0.71025616,0.089963078,0.69817102,0
-0.9591741,0.94523722,-1.1878999,0.32678103,0.83632302,-0.44020218,0
-0.51604074,-0.62065387,-1.5435228,-0.71025616,-0.089963078,-0.69817102,0
-0.52979082,0.30813524,-1.6492143,-0.71025616,-0.089963078,-0.69817102,0
1.2207341,0.40233779,0.85476261,0.71025616,0.089963078,0.69817102,0
-0.41313785,-0.72139621,0.59444082,-0.32678103,-0.83632302,0.44020218,0
-1.0022868,0.27590024,0.40004474,-0.62349844,0.54080546,0.56460541,0
0.29206383,-0.057535768,-1.3935096,0.62349844,-0.54080546,-0.56460541,0
-1.4823073,0.66484034,-0.72617328,-0.71025616,-0.089963078,-0.69817102,0
0.46319354,0.37380689,1.6290923,0.71025616,0.089963078,0.69817102,0
-1.745832,-0.44077468,-0.31562269,-0.71025616,-0.089963078,-0.69817102,0
-0.19329,1.1704103,-0.19155398,0.32678103,0.83632302,-0.44020218,0
0.90339953,-0.95260286,1.1325027,-0.32678103,-0.83632302,0.44020218,0
-0.37964272,-0.74241608,-1.4792705,0.62349844,-0.54080546,-0.56460541,0
-0.39216018,1.1719199,-0.33631563,0.32678103,0.83632302,-0.44020218,0
0.13232148,-0.67856717,1.0807278,-0.32678103,-0.83632302,0.44020218,0
0.70992416,-0.34291562,1.4704444,0.71025616,0.089963078,0.69817102,0
-1.0663798,-0.43044671,-1.0081668,-0.71025616,-0.089963078,-0.69817102,0
1.0285032,1.0175176,0.42496097,0.32678103,0.83632302,-0.44020218,0
0.87523532,0.35951519,-0.93892962,0.32678103,0.83632302,-0.44020218,0
0.48822376,-0.36651123,-0.88093734,0.62349844,-0.54080546,-0.56460541,0
0.83170259,0.56128538,-0.58791047,0.32678103,0.83632302,-0.44020218,0
1.0127201,0.87002069,1.0061138,0.71025616,0.089963078,0.69817102,0
1.1250968,0.87106037,0.21841806,0.32678103,0.83632302,-0.44020218,0
1.6014941,-0.62574339,0.59988546,0.71025616,0.089963078,0.69817102,0
-0.16932118,1.0945638,-0.3178587,0.32678103,0.83632302,-0.44020218,0
-1.0282454,0.69810498,-0.03302899,-0.62349844,0.54080546,0.56460541,0
1.3310912,-0.90340215,0.91074693,0.71025616,0.089963078,0.69817102,0
-0.57454121,-0.98642623,-0.028896213,-0.32678103,-0.83632302,0.44020218,0
-1.0477216,0.6557008,-0.013920009,-0.62349844,0.54080546,0.56460541,0
0.36213744,1.11906,0.12320554,0.32678103,0.83632302,-0.44020218,0
-1.0464363,0.24921179,-1.1160332,-0.71025616,-0.089963078,-0.69817102,0
1.0034817,-0.50895917,1.1932011,0.71025616,0.089963078,0.69817102,0
-1.3175168,0.64198649,-0.89087129,-0.71025616,-0.089963078,-0.69817102,0
1.1083595,-0.85073525,0.26769593,0.62349844,-0.54080546,-0.56460541,0
-1.655864,0.28216255,-0.32770437,-0.62349844,0.54080546,0.56460541,0
-0.61469352,1.0351126,0.10085827,-0.62349844,0.54080546,0.56460541,0
-1.1552186,0.61913788,-1.0530347,-0.71025616,-0.089963078,-0.69817102,0
0.79483831,-1.0350416,0.89529073,-0.32678103,-0.83632302,0.44020218,0
0.29083866,-0.14522636,-1.3108684,0.62349844,-0.54080546,-0.56460541,0
-0.0053619146,1.1984397,0.0012052357,0.32678103,0.83632302,-0.44020218,0
0.46030647,-0.76483035,1.1603172,-0.32678103,-0.83632302,0.44020218,0
-0.033957303,-0.73538935,0.84933782,-0.32678103,-0.83632302,0.44020218,0
0.77734816,-0.90802389,1.1236229,-0.32678103,-0.83632302,0.44020218,0
1.1004219,-0.42433828,1.083679,0.71025616,0.089963078,0.69817102,0
-1.3904647,-0.034531593,0.26872259,-0.62349844,0.54080546,0.56460541,0
-0.64842027,0.88082093,0.21140133,-0.62349844,0.54080546,0.56460541,0
-0.61314535,0.50894934,-1.5902927,-0.71025616,-0.089963078,-0.69817102,0
0.34351152,0.59962785,-0.87747049,0.32678103,0.83632302,-0.44020218,0
1.0999517,-0.28842968,1.0666448,0.71025616,0.089963078,0.69817102,0
0.83155376,-1.2189324,0.57317924,-0.32678103,-0.83632302,0.44020218,0
0.019122958,-1.1362365,-0.66169071,0.62349844,-0.54080546,-0.56460541,0
-0.50437409,0.1686652,-1.6570995,-0.71025616,-0.089963078,-0.69817102,0
-0.98575294,-0.40109706,0.77788794,-0.32678103,-0.83632302,0.44020218,0
-1.4212792,-0.58215714,0.11058873,-0.32678103,-0.83632302,0.44020218,0
-0.20413519,0.049959064,-1.9472394,-0.71025616,-0.089963078,-0.69817102,0
-0.83131403,1.2699871,-0.36333144,-0.62349844,0.54080546,0.56460541,0
-0.98045123,0.69478929,0.022926509,-0.62349844,0.54080546,0.56460541,0
0.090482891,-0.15468812,2.019237,-0.62349844,0.54080546,0.56460541,0
-0.2641117,0.61897933,0.88660061,-0.62349844,0.54080546,0.56460541,0
1.3572303,0.49987441,0.7033357,0.71025616,0.089963078,0.69817102,0
0.15168309,0.80977619,-0.62062031,0.32678103,0.83632302,-0.44020218,0
0.66663635,-0.75650173,-0.31036395,0.62349844,-0.54080546,-0.56460541,0
-0.090968668,-0.7348792,0.80798513,-0.32678103,-0.83632302,0.44020218,0
-0.048139632,-0.38418025,1.5060583,-0.32678103,-0.83632302,0.44020218,0
0.22900143,0.58990002,1.459003,-0.62349844,0.54080546,0.56460541,0
-0.28784513,-0.0091136098,-1.8544686,-0.71025616,-0.089963078,-0.69817102,0
-1.1405916,-0.53084671,0.41643813,-0.32678103,-0.83632302,0.44020218,0
-0.34472203,-1.2331569,-0.32704544,-0.32678103,-0.83632302,0.44020218,0
-0.25288755,0.013307691,1.479136,-0.62349844,0.54080546,0.56460541,0
-1.6936935,0.35605025,-0.47133863,-0.71025616,-0.089963078,-0.69817102,0
-0.91139692,-0.25976062,1.0134959,-0.62349844,0.54080546,0.56460541,0
0.4649635,0.087850392,1.6641388,0.71025616,0.089963078,0.69817102,0
1.3184531,0.38239068,0.75792253,0.71025616,0.089963078,0.69817102,0
0.078466296,1.0032645,0.89682591,-0.62349844,0.54080546,0.56460541,0
-0.22302938,0.8777684,-0.76960957,0.32678103,0.83632302,-0.44020218,0
-0.77604109,0.47651744,0.45772925,-0.62349844,0.54080546,0.56460541,0
-0.65778655,-0.10408831,1.1444501,-0.62349844,0.54080546,0.56460541,0
0.41861793,-0.68052149,-0.65703011,0.62349844,-0.54080546,-0.56460541,0
0.97838175,0.82196879,1.0472383,0.71025616,0.089963078,0.69817102,0
1.4242804,-0.27636397,0.73514736,0.71025616,0.089963078,0.69817102,0
0.029815376,0.70021045,1.1333797,-0.62349844,0.54080546,0.56460541,0
0.11246026,-1.1211631,0.22511315,-0.32678103,-0.83632302,0.44020218,0
-0.0105474,0.36330694,1.4115087,-0.62349844,0.54080546,0.56460541,0
0.77111667,1.082776,1.2244847,0.71025616,0.089963078,0.69817102,0
-0.62900716,0.46286452,0.63317752,-0.62349844,0.54080546,0.56460541,0
-1.8460077,-0.16975057,-0.24863577,-0.71025616,-0.089963078,-0.69817102,0
-0.20087233,0.18251085,-1.9676389,-0.71025616,-0.089963078,-0.69817102,0
-1.0727065,-0.21800637,-1.0291047,-0.71025616,-0.089963078,-0.69817102,0
1.2294688,-0.24421,-0.17952016,0.62349844,-0.54080546,-0.56460541,0
0.45609185,0.27224278,-1.4158833,0.32678103,0.83632302,-0.44020218,0
-0.17012379,0.46530247,1.137591,-0.62349844,0.54080546,0.56460541,0
-1.1871135,-0.50244045,-0.87606645,-0.71025616,-0.089963078,-0.69817102,0
-0.39247048,-1.4489669,-0.81666911,0.62349844,-0.54080546,-0.56460541,0
0.65895545,-0.32543242,1.5200427,0.71025616,0.089963078,0.69817102,0
0.26083291,0.66385812,1.4233143,-0.62349844,0.54080546,0.56460541,0
-0.7237159,-0.24663775,-1.3804468,-0.71025616,-0.089963078,-0.69817102,0
-0.26427925,0.14254379,1.3427677,-0.62349844,0.54080546,0.56460541,0
0.6464572,-0.057495773,1.4982322,0.71025616,0.089963078,0.69817102,0
1.493024,0.5634523,0.55699909,0.71025616,0.089963078,0.69817102,0
-0.57142216,0.030693889,1.1107223,-0.62349844,0.54080546,0.56460541,0
-1.1762562,-0.71854329,0.033365548,-0.32678103,-0.83632302,0.44020218,0
0.20181152,0.4813,1.5329992,-0.62349844,0.54080546,0.56460541,0
0.46241385,-0.65402055,1.3724048,-0.32678103,-0.83632302,0.44020218,0
0.21743834,1.281908,0.7833963,-0.62349844,0.54080546,0.56460541,0
-0.11847675,-1.2231479,-0.7303952,0.62349844,-0.54080546,-0.56460541,0
-0.60969025,0.25004232,-1.5604461,-0.71025616,-0.089963078,-0.69817102,0
-0.44059718,-0.81818438,0.39017236,-0.32678103,-0.83632302,0.44020218,0
-1.397575,0.062198758,0.16821796,-0.62349844,0.54080546,0.56460541,0
-1.2615832,-0.0096675158,-0.86380422,-0.71025616,-0.089963078,-0.69817102,0
-0.92920023,1.2440757,-0.59789753,0.32678103,0.83632302,-0.44020218,0
0.1043942,-1.2180394,0.035073966,-0.32678103,-0.83632302,0.44020218,0
-0.65157318,0.83670461,-1.1657517,0.32678103,0.83632302,-0.44020218,0
-0.52716649,0.61575669,0.59919375,-0.62349844,0.54080546,0.56460541,0
-1.0257277,-0.60585922,-1.0269196,-0.71025616,-0.089963078,-0.69817102,0
0.7669698,-0.19450593,-0.73787063,0.62349844,-0.54080546,-0.56460541,0
1.0389946,0.54820764,-0.45887476,0.32678103,0.83632302,-0.44020218,0
0.12945104,0.11589491,-1.7392042,0.62349844,-0.54080546,-0.56460541,0
0.54403996,1.4288822,0.84685862,0.32678103,0.83632302,-0.44020218,0
1.0346289,0.53145856,1.0274515,0.71025616,0.089963078,0.69817102,0
0.62039244,-0.19366395,-0.90054369,0.62349844,-0.54080546,-0.56460541,0
-1.5654668,-0.48967779,-0.49280846,-0.71025616,-0.089963078,-0.69817102,0
1.2085747,-0.28148818,0.95524728,0.71025616,0.089963078,0.69817102,0
-0.64694339,0.92634606,-0.99200845,0.32678103,0.83632302,-0.44020218,0
-0.92705536,-1.2280453,-1.047128,-0.71025616,-0.089963078,-0.69817102,0
-1.4019761,0.57490665,-0.79630649,-0.71025616,-0.089963078,-0.69817102,0
1.2566373,-1.1880796,0.75456446,0.62349844,-0.54080546,-0.56460541,0
1.8110659,-0.029381752,0.30984175,0.71025616,0.089963078,0.69817102,0
-1.8616793,-0.50210464,-0.064250112,-0.32678103,-0.83632302,0.44020218,0
-0.63376844,1.218972,-0.096315533,-0.62349844,0.54080546,0.56460541,0
-0.26438457,0.70570576,0.80322844,-0.62349844,0.54080546,0.56460541,0
0.23585057,-1.3294635,-0.079030395,-0.32678103,-0.83632302,0.44020218,0
-0.484097,-1.4475956,-0.91916651,0.62349844,-0.54080546,-0.56460541,0
1.2663569,0.83754432,0.75227141,0.71025616,0.089963078,0.69817102,0
-0.2261585,-1.1556067,-0.091696322,-0.32678103,-0.83632302,0.44020218,0
1.3446327,0.24809945,-0.52390051,0.62349844,-0.54080546,-0.56460541,0
1.1179867,0.49196601,-0.50708687,0.32678103,0.83632302,-0.44020218,0
1.6968863,-0.1054734,0.20376468,0.62349844,-0.54080546,-0.56460541,0
-1.9221046,-0.27447319,-0.1577276,-0.71025616,-0.089963078,-0.69817102,0
0.65793586,0.83489728,1.3715651,0.71025616,0.089963078,0.69817102,0
0.86556536,-0.0096455812,-0.80605841,0.62349844,-0.54080546,-0.56460541,0
0.21382201,0.87578607,-0.44908229,0.32678103,0.83632302,-0.44020218,0
-0.40123606,1.3455324,0.039246559,-0.62349844,0.54080546,0.56460541,0
0.92117167,-0.10514307,-0.65318006,0.62349844,-0.54080546,-0.56460541,0
-1.3623917,-0.17201525,-0.74033135,-0.71025616,-0.089963078,-0.69817102,0
-0.11771977,-1.246345,-0.18358755,-0.32678103,-0.83632302,0.44020218,0
0.94730163,0.89807111,1.0690503,0.71025616,0.089963078,0.69817102,0
1.1462429,0.07532227,0.97268093,0.71025616,0.089963078,0.69817102,0
0.35387486,-1.0053424,-0.41739774,0.62349844,-0.54080546,-0.56460541,0
0.29701328,1.3325516,0.82276273,-0.62349844,0.54080546,0.56460541,0
1.0151454,-0.96888655,1.1845196,-0.32678103,-0.83632302,0.44020218,0
0.7919417,0.18278313,-1.0716788,0.62349844,-0.54080546,-0.56460541,0
0.039094567,-1.2487391,-0.071726024,-0.32678103,-0.83632302,0.44020218,0
-0.389687,0.077609658,1.2664758,-0.62349844,0.54080546,0.56460541,0
-0.77982348,0.98876536,-0.037102547,-0.62349844,0.54080546,0.56460541,0
-0.36175656,-1.4479151,-0.78375882,0.62349844,-0.54080546,-0.56460541,0
-0.83876181,0.54183578,0.32590139,-0.62349844,0.54080546,0.56460541,0
0.66851431,-0.87606925,1.1035403,-0.32678103,-0.83632302,0.44020218,0
0.81222272,-0.88468921,-0.026807725,0.62349844,-0.54080546,-0.56460541,0
-1.0002258,-0.97177696,-1.0057125,-0.71025616,-0.089963078,-0.69817102,0
0.86769515,0.1933533,-0.99814832,0.62349844,-0.54080546,-0.56460541,0
0.92620981,-0.3803167,1.2552342,0.71025616,0.089963078,0.69817102,0
0.1105907,-1.3731192,-0.33378458,0.62349844,-0.54080546,-0.56460541,0
-0.067637205,-0.84426725,-1.0371624,0.62349844,-0.54080546,-0.56460541,0
-0.051858902,-1.2376983,-0.11826873,-0.32678103,-0.83632302,0.44020218,0
-0.63381696,-0.74973357,0.37678435,-0.32678103,-0.83632302,0.44020218,0
0.97101772,1.1191373,0.57535058,0.32678103,0.83632302,-0.44020218,0
-0.57501256,0.50360727,0.65377885,-0.62349844,0.54080546,0.56460541,0
-1.1082469,-0.66164702,0.19194663,-0.32678103,-0.83632302,0.44020218,0
-1.4445829,0.4563719,-0.26125085,-0.62349844,0.54080546,0.56460541,0
-0.081360817,-0.62676328,-1.2606529,0.62349844,-0.54080546,-0.56460541,0
1.2848952,0.96378148,0.51320016,0.32678103,0.83632302,-0.44020218,0
1.3232284,-1.0647235,0.93953282,0.71025616,0.089963078,0.69817102,0
0.89165139,0.49674714,-0.66602165,0.32678103,0.83632302,-0.44020218,0
-0.57545704,-0.78394073,0.35511839,-0.32678103,-0.83632302,0.44020218,0
1.5518672,0.0055035353,0.56903183,0.71025616,0.089963078,0.69817102,0
-0.099082947,-0.62433201,-1.2825522,0.62349844,-0.54080546,-0.56460541,0
1.6156578,0.74590373,0.40873289,0.71025616,0.089963078,0.69817102,0
1.6670524,-0.28460658,0.34240073,0.62349844,-0.54080546,-0.56460541,0
-0.43898249,-0.83744889,0.35477141,-0.32678103,-0.83632302,0.44020218,0
1.0290011,1.183395,0.74047446,0.32678103,0.83632302,-0.44020218,0
-1.179803,-0.19920754,-0.92257679,-0.71025616,-0.089963078,-0.69817102,0
-0.80331671,0.69054931,0.22259878,-0.62349844,0.54080546,0.56460541,0
-1.4986894,-0.021785736,-0.62103206,-0.71025616,-0.089963078,-0.69817102,0
1.5351617,0.71198487,0.49499273,0.71025616,0.089963078,0.69817102,0
-0.6872102,-1.3850226,-1.2034013,0.62349844,-0.54080546,-0.56460541,0
-0.014706254,1.1551356,-0.088003337,0.32678103,0.83632302,-0.44020218,0
1.1703693,0.29787725,0.91945964,0.71025616,0.089963078,0.69817102,0
0.5921967,1.3364875,1.1449661,-0.62349844,0.54080546,0.56460541,0
-0.86303097,0.65561336,-1.3549802,-0.71025616,-0.089963078,-0.69817102,0
0.37821114,1.2745149,0.43048,0.32678103,0.83632302,-0.44020218,0
-0.87132281,-0.78559315,0.13234526,-0.32678103,-0.83632302,0.44020218,0
1.2350028,-0.25326198,0.92472458,0.71025616,0.089963078,0.69817102,0
0.056618571,-1.0053922,-0.7456128,0.62349844,-0.54080546,-0.56460541,0
-1.1995327,0.07668525,-0.93805575,-0.71025616,-0.089963078,-0.69817102,0
0.13100505,-0.74747682,-0.91051036,0.62349844,-0.54080546,-0.56460541,0
0.39361918,0.78811479,-0.4821744,0.32678103,0.83632302,-0.44020218,0
1.359881,0.76881808,0.19846213,0.32678103,0.83632302,-0.44020218,0
-0.43184027,-0.59696048,-1.6322339,-0.71025616,-0.089963078,-0.69817102,0
-0.95845366,1.0111141,-1.0622085,0.32678103,0.83632302,-0.44020218,0
-1.2117392,0.5491116,-0.092950016,-0.62349844,0.54080546,0.56460541,0
0.059685826,-0.93561578,0.53845072,-0.32678103,-0.83632302,0.44020218,0
0.19619694,-0.17804468,-1.3839471,0.62349844,-0.54080546,-0.56460541,0
0.54066348,1.1043224,1.3104364,-0.62349844,0.54080546,0.56460541,0
-0.75556433,0.59909308,0.36293322,-0.62349844,0.54080546,0.56460541,0
0.58151162,0.97196996,1.4316497,0.71025616,0.089963078,0.69817102,0
-0.29312456,1.0751929,0.41757876,-0.62349844,0.54080546,0.56460541,0
-1.465081,0.03835237,-0.6629715,-0.71025616,-0.089963078,-0.69817102,0
1.2979951,-0.043063343,0.83355647,0.71025616,0.089963078,0.69817102,0
0.35452265,-0.56174892,1.4676158,-0.32678103,-0.83632302,0.44020218,0
0.22437084,-0.81872487,-0.73916107,0.62349844,-0.54080546,-0.56460541,0
1.5481501,0.78543878,0.36979949,0.32678103,0.83632302,-0.44020218,0
0.3278262,0.22950053,-1.5923047,0.32678103,0.83632302,-0.44020218,0
-0.3911469,1.3578603,0.017697334,0.32678103,0.83632302,-0.44020218,0
-0.45040575,-0.2918278,-1.6526649,-0.71025616,-0.089963078,-0.69817102,0
-1.514779,-0.40169048,0.38404208,-0.32678103,-0.83632302,0.44020218,0
-1.1184816,-0.34257483,0.79054177,-0.32678103,-0.83632302,0.44020218,0
0.73214585,-0.72474414,1.4382735,-0.32678103,-0.83632302,0.44020218,0
0.12875986,-1.2828773,-0.07002151,-0.32678103,-0.83632302,0.44020218,0
1.455327,-0.090428472,-0.077402234,0.62349844,-0.54080546,-0.56460541,0
-0.8349309,0.17159343,0.68476719,-0.62349844,0.54080546,0.56460541,0
-0.63577551,0.8932336,-1.046627,0.32678103,0.83632302,-0.44020218,0
-0.34391356,0.61816698,-1.3525538,0.32678103,0.83632302,-0.44020218,0
-1.1399789,1.1459515,-0.58538544,-0.62349844,0.54080546,0.56460541,0
-0.71835148,0.50481939,0.49432749,-0.62349844,0.54080546,0.56460541,0
0.14610314,0.96779048,-0.32455742,0.32678103,0.83632302,-0.44020218,0
1.2396983,0.54322422,0.81731629,0.71025616,0.089963078,0.69817102,0
-1.7521064,0.10386944,-0.26320821,-0.62349844,0.54080546,0.56460541,0
1.0513022,1.1268063,0.64951885,0.32678103,0.83632302,-0.44020218,0
-1.5331532,-0.12213492,-0.57304138,-0.71025616,-0.089963078,-0.69817102,0
1.7712872,0.4988687,-0.0089995861,0.32678103,0.83632302,-0.44020218,0
0.15808809,-0.63280213,-0.99044317,0.62349844,-0.54080546,-0.56460541,0
1.7288473,0.23853135,-0.090444446,0.62349844,-0.54080546,-0.56460541,0
1.3785498,-1.0634432,0.76981115,0.62349844,-0.54080546,-0.56460541,0
0.83987778,0.071461439,-0.91211355,0.62349844,-0.54080546,-0.56460541,0
-0.46773288,-0.16159445,-1.6518192,-0.71025616,-0.089963078,-0.69817102,0
-1.5415291,0.19013524,-0.1132955,-0.62349844,0.54080546,0.56460541,0
1.4887025,-0.060521841,0.6417976,0.71025616,0.089963078,0.69817102,0
0.82069916,1.0513898,1.1780882,0.71025616,0.089963078,0.69817102,0
0.90134579,1.0039301,0.30475181,0.32678103,0.83632302,-0.44020218,0
0.80757529,0.91548586,0.067110479,0.32678103,0.83632302,-0.44020218,0
1.0776509,1.2130047,0.89586365,0.71025616,0.089963078,0.69817102,0
0.76749885,0.0010336153,1.3675535,0.71025616,0.089963078,0.69817102,0
-0.27473462,0.81119728,-0.93446839,0.32678103,0.83632302,-0.44020218,0
-0.75664097,-0.73047388,0.32219732,-0.32678103,-0.83632302,0.44020218,0
0.30475366,-1.0571343,0.48950687,-0.32678103,-0.83632302,0.44020218,0
-1.3796868,-0.092407823,-0.73299468,-0.71025616,-0.089963078,-0.69817102,0
1.0378579,-0.89747071,1.2082916,0.71025616,0.089963078,0.69817102,0
1.6640153,-0.087833643,0.46696961,0.71025616,0.089963078,0.69817102,0
-1.1058707,0.16580629,0.39110929,-0.62349844,0.54080546,0.56460541,0
1.4714067,-0.026544333,-0.12083656,0.62349844,-0.54080546,-0.56460541,0
1.3150244,0.68512189,0.0061522126,0.32678103,0.83632302,-0.44020218,0
-0.59875977,0.56017667,0.57336974,-0.62349844,0.54080546,0.56460541,0
1.8465929,0.16735041,0.10776353,0.62349844,-0.54080546,-0.56460541,0
-1.455601,-0.44123775,-0.61081785,-0.71025616,-0.089963078,-0.69817102,0
0.27285016,-0.101412,1.883965,0.71025616,0.089963078,0.69817102,0
1.0317912,-0.73457611,1.1934736,0.71025616,0.089963078,0.69817102,0
-0.6144259,-0.25846827,1.3245151,-0.32678103,-0.83632302,0.44020218,0
-0.65953362,-1.3501916,-1.2062006,0.62349844,-0.54080546,-0.56460541,0
0.79947579,-1.2312419,0.29106006,0.62349844,-0.54080546,-0.56460541,0
-0.68532431,-1.1457242,-1.303651,-0.71025616,-0.089963078,-0.69817102,0
1.0913738,-0.31341338,-0.26573342,0.62349844,-0.54080546,-0.56460541,0
-0.68655694,1.0309844,-0.82261688,0.32678103,0.83632302,-0.44020218,0
0.29988784,-0.4824273,-0.97788864,0.62349844,-0.54080546,-0.56460541,0
-0.67256832,-1.3479252,-0.78846383,-0.32678103,-0.83632302,0.44020218,0
-0.50434953,-0.98769569,-1.382045,0.62349844,-0.54080546,-0.56460541,0
0.51661372,1.2266594,1.1666977,-0.62349844,0.54080546,0.56460541,0
1.1357083,-1.1834017,0.8664695,-0.32678103,-0.83632302,0.44020218,0
0.30770689,-0.66246325,1.2415193,-0.32678103,-0.83632302,0.44020218,0
1.3571386,0.55729985,-0.20542878,0.32678103,0.83632302,-0.44020218,0
-0.4684566,0.44856524,0.82417125,-0.62349844,0.54080546,0.56460541,0
1.9065366,0.21028256,0.13283718,0.62349844,-0.54080546,-0.56460541,0
-1.2177751,0.42970777,0.014755279,-0.62349844,0.54080546,0.56460541,0
1.3216078,0.083470643,0.79323053,0.71025616,0.089963078,0.69817102,0
-0.8761034,0.16614918,-1.2786113,-0.71025616,-0.089963078,-0.69817102,0
-1.1891484,0.47121191,0.0066132843,-0.62349844,0.54080546,0.56460541,0
0.74588251,-0.22799742,1.4190558,0.71025616,0.089963078,0.69817102,0
0.67720133,-0.10228638,1.4727273,0.71025616,0.089963078,0.69817102,0
1.4514065,0.064901352,0.6635778,0.71025616,0.089963078,0.69817102,0
-0.15011346,1.3481313,0.3140741,-0.62349844,0.54080546,0.56460541,0
-1.4373324,0.41574621,-0.73982966,-0.71025616,-0.089963078,-0.69817102,0
-1.4927369,-0.28066862,-0.59372932,-0.71025616,-0.089963078,-0.69817102,0
-0.14631085,0.20354176,1.4146144,-0.62349844,0.54080546,0.56460541,0
-1.7009352,-0.58396709,-0.34284532,-0.71025616,-0.089963078,-0.69817102,0
-0.56973785,0.59197086,0.574965,-0.62349844,0.54080546,0.56460541,0
0.71307659,1.3040758,1.2550138,0.71025616,0.089963078,0.69817102,0
0.67168397,-1.0644324,0.74802989,-0.32678103,-0.83632302,0.44020218,0
-0.4280681,0.74313188,0.58662295,-0.62349844,0.54080546,0.56460541,0
1.1398473,-1.1781235,0.87957001,-0.32678103,-0.83632302,0.44020218,0
-0.35279974,-0.31591988,-1.7488561,-0.71025616,-0.089963078,-0.69817102,0
0.011932373,0.82836318,-0.68905032,0.32678103,0.83632302,-0.44020218,0
-1.3955939,0.73817903,-0.8238377,-0.71025616,-0.089963078,-0.69817102,0
1.6798916,0.39984465,-0.26497859,0.32678103,0.83632302,-0.44020218,0
0.88818115,-1.2659769,0.52583802,-0.32678103,-0.83632302,0.44020218,0
-1.1966542,0.28274345,0.1788483,-0.62349844,0.54080546,0.56460541,0
0.17072892,-1.0837691,-0.54452688,0.62349844,-0.54080546,-0.56460541,0
0.092007324,-0.1762712,-1.5007032,0.62349844,-0.54080546,-0.56460541,0
-0.12238169,1.3435879,0.19009787,0.32678103,0.83632302,-0.44020218,0
-0.88260257,0.41332024,-1.303849,-0.71025616,-0.089963078,-0.69817102,0
-0.42871231,0.27242944,-1.7474415,-0.71025616,-0.089963078,-0.69817102,0
-1.1583,0.4148562,0.094659448,-0.62349844,0.54080546,0.56460541,0
-0.83884591,0.45225924,-1.3533806,-0.71025616,-0.089963078,-0.69817102,0
1.3507891,0.91386783,0.6565429,0.71025616,0.089963078,0.69817102,0
-1.2688748,-0.48233038,-0.79548126,-0.71025616,-0.089963078,-0.69817102,0
-0.3782354,-0.90716493,-1.3199123,0.62349844,-0.54080546,-0.56460541,0
-0.31775153,0.14822257,-1.8443183,-0.71025616,-0.089963078,-0.69817102,0
-0.22914755,-0.70087922,-1.3528633,0.62349844,-0.54080546,-0.56460541,0
-0.29688644,-1.1068321,-1.0388273,0.62349844,-0.54080546,-0.56460541,0
-1.3248403,-0.11167496,-0.78630793,-0.71025616,-0.089963078,-0.69817102,0
-1.0700692,0.23477271,-1.0901306,-0.71025616,-0.089963078,-0.69817102,0
0.62202489,1.4100237,1.1074694,-0.62349844,0.54080546,0.56460541,0
-0.98560286,1.1218011,-0.87207234,0.32678103,0.83632302,-0.44020218,0
-1.3247311,-0.73534763,-0.10877985,-0.32678103,-0.83632302,0.44020218,0
0.27528328,-0.56865346,1.3956754,-0.32678103,-0.83632302,0.44020218,0
-0.68898612,-0.47226471,0.86298192,-0.32678103,-0.83632302,0.44020218,0
-0.39715081,-0.54747719,0.93673056,-0.32678103,-0.83632302,0.44020218,0
-1.6652032,-0.13308454,-0.43729466,-0.71025616,-0.089963078,-0.69817102,0
1.609514,-0.20990241,0.20730537,0.62349844,-0.54080546,-0.56460541,0
0.60898888,-0.64585859,-0.4800036,0.62349844,-0.54080546,-0.56460541,0
-0.45960379,-0.079418063,-1.6706779,-0.71025616,-0.089963078,-0.69817102,0
-0.69585186,-0.90839571,-1.3235223,-0.71025616,-0.089963078,-0.69817102,0
-1.405954,-0.87898088,-0.44195843,-0.32678103,-0.83632302,0.44020218,0
0.2191419,-0.82143635,-0.74233842,0.62349844,-0.54080546,-0.56460541,0
-0.71989232,-0.10564433,-1.4025043,-0.71025616,-0.089963078,-0.69817102,0
1.5120308,-0.30024648,0.64895529,0.71025616,0.089963078,0.69817102,0
-1.5873127,-0.0036021471,0.021716177,-0.62349844,0.54080546,0.56460541,0
-0.11092837,-0.016634822,1.6645831,-0.62349844,0.54080546,0.56460541,0
0.9736737,1.0494673,1.0227134,0.71025616,0.089963078,0.69817102,0
1.242617,-0.49041879,0.07082969,0.62349844,-0.54080546,-0.56460541,0
-1.6294441,-0.68803108,-0.24508643,-0.32678103,-0.83632302,0.44020218,0
0.041819811,-0.65024692,1.0673491,-0.32678103,-0.83632302,0.44020218,0
-0.078445852,-0.59017241,-1.2924823,0.62349844,-0.54080546,-0.56460541,0
-0.07345143,0.35601753,1.3490252,-0.62349844,0.54080546,0.56460541,0
-1.6635337,-0.36037982,0.27928275,-0.62349844,0.54080546,0.56460541,0
1.5005395,0.47230715,0.56109774,0.71025616,0.089963078,0.69817102,0
0.73746085,-0.47918823,1.4599906,0.71025616,0.089963078,0.69817102,0
1.0413272,0.7622956,0.99089259,0.71025616,0.089963078,0.69817102,0
-0.15312219,-1.0590931,0.14588442,-0.32678103,-0.83632302,0.44020218,0
1.9371802,0.29980159,0.13912761,0.71025616,0.089963078,0.69817102,0
0.36815611,0.23031163,-1.5608255,0.32678103,0.83632302,-0.44020218,0
-1.079415,-0.67668229,-0.96317726,-0.71025616,-0.089963078,-0.69817102,0
-1.5094609,0.46550071,-0.67286366,-0.71025616,-0.089963078,-0.69817102,0
-0.4866983,0.26262414,-1.6871883,-0.71025616,-0.089963078,-0.69817102,0
0.11312401,1.1948346,0.7516042,-0.62349844,0.54080546,0.56460541,0
1.712433,0.52054179,-0.011513829,0.32678103,0.83632302,-0.44020218,0
0.047825098,0.60240757,1.2469481,-0.62349844,0.54080546,0.56460541,0
-0.93112135,0.97166681,-1.1168628,0.32678103,0.83632302,-0.44020218,0
0.90606219,-1.0939661,0.27727517,0.62349844,-0.54080546,-0.56460541,0
1.2002299,-0.80107796,0.32158518,0.62349844,-0.54080546,-0.56460541,0
1.5759263,0.039603353,0.54016238,0.71025616,0.089963078,0.69817102,0
-0.6553793,0.59206641,-1.5580378,-0.71025616,-0.089963078,-0.69817102,0
0.44542855,0.79207492,1.5043526,-0.62349844,0.54080546,0.56460541,0
0.86511862,1.4270868,1.0844893,0.71025616,0.089963078,0.69817102,0
-1.0608194,-0.78216958,-0.0018219948,-0.32678103,-0.83632302,0.44020218,0
-0.60698974,-1.3953581,-0.8298977,-0.32678103,-0.83632302,0.44020218,0
-0.10165679,1.1711479,0.53710806,-0.62349844,0.54080546,0.56460541,0
1.5685158,0.60295451,0.038223386,0.32678103,0.83632302,-0.44020218,0
1.1887945,-0.69766223,1.0289959,0.71025616,0.089963078,0.69817102,0
-0.62371868,-0.62447059,0.62226295,-0.32678103,-0.83632302,0.44020218,0
1.3361608,0.64549994,-0.053433597,0.32678103,0.83632302,-0.44020218,0
1.3827424,-0.3591857,0.099870384,0.62349844,-0.54080546,-0.56460541,0
-1.5218632,-0.30738926,-0.56065559,-0.71025616,-0.089963078,-0.69817102,0
-1.2524954,-0.52573526,0.34307843,-0.32678103,-0.83632302,0.44020218,0
0.4063313,1.0825996,0.086742699,0.32678103,0.83632302,-0.44020218,0
-0.7815454,0.2871792,-1.3904015,-0.71025616,-0.089963078,-0.69817102,0
0.1792413,1.4224578,0.56384778,0.32678103,0.83632302,-0.44020218,0
-0.082495928,-0.98156393,0.34560794,-0.32678103,-0.83632302,0.44020218,0
-0.81450438,0.80124009,0.1042195,-0.62349844,0.54080546,0.56460541,0
-0.45575392,0.17086899,1.1041894,-0.62349844,0.54080546,0.56460541,0
0.75725412,0.26137316,-1.185262,0.62349844,-0.54080546,-0.56460541,0
-0.35435468,0.15703022,-1.8082165,-0.71025616,-0.089963078,-0.69817102,0
0.88549399,0.58751142,-0.49815315,0.32678103,0.83632302,-0.44020218,0
1.4622005,0.013146758,0.65926594,0.71025616,0.089963078,0.69817102,0
0.78372979,1.2274957,1.1930053,0.71025616,0.089963078,0.69817102,0
-1.0600539,0.83072078,-1.1771102,-0.71025616,-0.089963078,-0.69817102,0
-1.0886791,0.7059015,-1.1319059,-0.71025616,-0.089963078,-0.69817102,0
1.0119703,-1.0837864,0.96386892,-0.32678103,-0.83632302,0.44020218,0
0.13662508,-0.50332117,-1.1381677,0.62349844,-0.54080546,-0.56460541,0
1.4858806,-0.91865897,0.75524402,0.71025616,0.089963078,0.69817102,0
-0.5341996,-0.93543923,-1.4650624,0.62349844,-0.54080546,-0.56460541,0
-0.74309921,0.91446733,-1.0859571,0.32678103,0.83632302,-0.44020218,0
-0.8423633,-1.0878541,-1.1513507,-0.71025616,-0.089963078,-0.69817102,0
0.029486299,-0.80294704,-0.96948636,0.62349844,-0.54080546,-0.56460541,0
-0.98923832,0.23446655,0.45414138,-0.62349844,0.54080546,0.56460541,0
0.59941763,-0.31870091,-0.80394,0.62349844,-0.54080546,-0.56460541,0
-0.53686351,0.35394859,0.83925724,-0.62349844,0.54080546,0.56460541,0
-1.2408494,-0.22192299,-0.85754657,-0.71025616,-0.089963078,-0.69817102,0
1.7533908,0.38780844,0.31475794,0.71025616,0.089963078,0.69817102,0
0.62610161,-1.3228874,0.22316307,-0.32678103,-0.83632302,0.44020218,0
-0.70114481,-0.90031236,0.040724993,-0.32678103,-0.83632302,0.44020218,0
0.96448278,-0.41513133,-0.30842996,0.62349844,-0.54080546,-0.56460541,0
-0.68622136,-0.56006408,0.69822794,-0.32678103,-0.83632302,0.44020218,0
0.47345293,0.32584584,1.6248355,0.71025616,0.089963078,0.69817102,0
-0.94084251,-0.94572902,-1.0694802,-0.71025616,-0.089963078,-0.69817102,0
-1.1393087,1.1762784,-0.61369383,-0.62349844,0.54080546,0.56460541,0
1.0966532,-0.61093974,0.025081366,0.62349844,-0.54080546,-0.56460541,0
-0.77056348,-0.76074737,0.25434679,-0.32678103,-0.83632302,0.44020218,0
1.270946,0.76969039,0.75634611,0.71025616,0.089963078,0.69817102,0
-0.20706213,1.2241117,-0.099752635,0.32678103,0.83632302,-0.44020218,0
-0.22552995,-0.027344227,-1.9155134,-0.71025616,-0.089963078,-0.69817102,0
-0.53635371,1.1476145,0.079610124,-0.62349844,0.54080546,0.56460541,0
-0.087740779,1.0496533,0.66884887,-0.62349844,0.54080546,0.56460541,0
-1.0904608,0.61114931,-1.1178842,-0.71025616,-0.089963078,-0.69817102,0
-1.4606979,0.45925307,-0.72166562,-0.71025616,-0.089963078,-0.69817102,0
0.3584685,-0.3213104,1.8251997,0.71025616,0.089963078,0.69817102,0
-0.36962599,-0.237481,1.546113,-0.32678103,-0.83632302,0.44020218,0
-0.89611495,-1.0650346,-0.41695946,-0.32678103,-0.83632302,0.44020218,0
0.70920497,0.09582366,1.4146421,0.71025616,0.089963078,0.69817102,0
0.22091991,0.77655822,-0.63233215,0.32678103,0.83632302,-0.44020218,0
1.0155017,0.17679131,-0.81906039,0.62349844,-0.54080546,-0.56460541,0
-0.52595776,-0.14452171,1.3287587,-0.62349844,0.54080546,0.56460541,0
1.6058979,-0.20377564,0.54103273,0.71025616,0.089963078,0.69817102,0
-0.22542706,-0.53420085,-1.5084072,0.62349844,-0.54080546,-0.56460541,0
-1.1161066,-0.12524688,-0.99690586,-0.71025616,-0.089963078,-0.69817102,0
0.043151855,0.96556371,-0.40521291,0.32678103,0.83632302,-0.44020218,0
-0.61033499,0.79539943,0.33527979,-0.62349844,0.54080546,0.56460541,0
