0.93185014,2.3880472,0.068419218,-0.4554252,0.81603861,-0.35590562,0
1.5598905,0.066855296,2.3718171,0.4554252,-0.81603861,0.35590562,0
0.22207463,-2.154299,-1.0090588,0.4554252,-0.81603861,0.35590562,0
0.408876,2.0837688,0.039964318,-0.4554252,0.81603861,-0.35590562,0
1.5984315,-0.26041335,1.5721207,0.4554252,-0.81603861,0.35590562,0
-2.3448422,-1.0800531,-2.6204062,-0.48821601,-0.56322241,-0.66665256,0
1.9709034,1.0886782,2.8869693,0.48821601,0.56322241,0.66665256,0
0.73079771,-0.87927556,1.2634064,0.4554252,-0.81603861,0.35590562,0
2.0560894,0.33856839,0.87746096,0.74446821,0.12985152,-0.65490878,0
-0.62376463,-2.9104028,-2.3344452,-0.48821601,-0.56322241,-0.66665256,0
-0.1902914,2.390213,1.5093043,-0.4554252,0.81603861,-0.35590562,0
-2.4494963,-0.78805327,-1.4137878,-0.74446821,-0.12985152,0.65490878,0
2.964159,0.90552664,2.3143048,0.48821601,0.56322241,0.66665256,0
-0.39287233,1.8727851,0.58214593,-0.4554252,0.81603861,-0.35590562,0
0.0068184137,-2.2053761,-0.85072386,0.4554252,-0.81603861,0.35590562,0
-1.0046598,-0.98270118,0.19003767,-0.74446821,-0.12985152,0.65490878,0
1.7208707,1.1138022,3.0488522,0.48821601,0.56322241,0.66665256,0
1.1888814,-1.0831269,0.20983079,0.4554252,-0.81603861,0.35590562,0
-1.3103228,0.57885283,-1.2106571,-0.4554252,0.81603861,-0.35590562,0
-2.666333,-0.95835042,-2.4877863,-0.48821601,-0.56322241,-0.66665256,0
0.82655406,-1.5267453,-0.89005834,0.74446821,0.12985152,-0.65490878,0
0.92935985,0.048415899,-0.46087968,0.74446821,0.12985152,-0.65490878,0
-2.3171916,-0.87214708,-2.8163054,-0.48821601,-0.56322241,-0.66665256,0
2.5136728,1.3715043,2.2505317,0.48821601,0.56322241,0.66665256,0
1.187801,2.6872127,2.1099415,0.48821601,0.56322241,0.66665256,0
-0.93456346,-1.260155,-2.8391521,0.74446821,0.12985152,-0.65490878,0
-0.53240144,-2.9577827,-2.3613253,-0.48821601,-0.56322241,-0.66665256,0
2.5085022,1.08434,2.4969296,0.48821601,0.56322241,0.66665256,0
-0.6182543,-1.1247582,-2.4527416,0.74446821,0.12985152,-0.65490878,0
-0.044954181,-2.376529,-1.1769029,0.4554252,-0.81603861,0.35590562,0
-0.044919252,-2.1928082,-2.0127692,0.74446821,0.12985152,-0.65490878,0
-0.98423779,-2.6781564,-2.2666705,-0.48821601,-0.56322241,-0.66665256,0
2.6332633,1.0563986,2.4291682,0.48821601,0.56322241,0.66665256,0
1.3832047,-0.72415757,-0.098152488,0.74446821,0.12985152,-0.65490878,0
1.56656,-0.30519092,1.510236,0.4554252,-0.81603861,0.35590562,0
-0.73256028,-2.8342924,-1.3466086,0.4554252,-0.81603861,0.35590562,0
-0.47344851,-2.3564334,-2.5323434,0.74446821,0.12985152,-0.65490878,0
0.36756873,2.0881405,2.3587885,-0.74446821,-0.12985152,0.65490878,0
1.1722516,2.4624271,2.3112397,0.48821601,0.56322241,0.66665256,0
-2.0043101,-0.49973834,-2.7956638,-0.4554252,0.81603861,-0.35590562,0
1.6958435,0.30662638,2.7476079,0.4554252,-0.81603861,0.35590562,0
1.0904812,1.6719606,0.044182181,0.74446821,0.12985152,-0.65490878,0
0.016918182,1.7322528,-0.26445109,-0.4554252,0.81603861,-0.35590562,0
-0.35212153,1.3175693,-0.74302715,-0.4554252,0.81603861,-0.35590562,0
-0.72279555,-1.4741912,-2.6408627,0.74446821,0.12985152,-0.65490878,0
-0.19161022,1.5230266,-0.47733805,-0.4554252,0.81603861,-0.35590562,0
0.7845515,-1.7672327,-0.84133178,0.4554252,-0.81603861,0.35590562,0
1.3176647,2.9649074,1.7802265,0.48821601,0.56322241,0.66665256,0
1.1678383,0.2926822,2.912503,-0.74446821,-0.12985152,0.65490878,0
1.3767177,-0.80865109,-0.12227964,0.74446821,0.12985152,-0.65490878,0
1.5370601,3.0715816,1.529431,0.48821601,0.56322241,0.66665256,0
-1.1577663,-1.5335603,-3.1066024,-0.48821601,-0.56322241,-0.66665256,0
1.8149629,2.34338,1.9411339,0.48821601,0.56322241,0.66665256,0
1.0218815,2.8796561,2.0688648,0.48821601,0.56322241,0.66665256,0
-1.3044879,-1.6187122,-2.9272118,-0.48821601,-0.56322241,-0.66665256,0
-0.70257759,0.31574434,0.79087818,-0.74446821,-0.12985152,0.65490878,0
-1.7017945,-1.9705215,-2.3390217,-0.48821601,-0.56322241,-0.66665256,0
1.3026662,0.22945136,-0.00062866509,0.74446821,0.12985152,-0.65490878,0
-0.22297257,1.4798641,-0.53617144,-0.4554252,0.81603861,-0.35590562,0
-1.4194251,0.9849,-0.14004147,-0.4554252,0.81603861,-0.35590562,0
-0.54839975,-0.016280591,0.90030813,-0.74446821,-0.12985152,0.65490878,0
2.8506687,1.1519073,2.1892633,0.48821601,0.56322241,0.66665256,0
0.61931062,-1.9466343,-1.0412271,0.4554252,-0.81603861,0.35590562,0
-0.82069439,0.88105106,-1.1443017,-0.4554252,0.81603861,-0.35590562,0
0.71475613,0.2720924,2.3933785,-0.74446821,-0.12985152,0.65490878,0
-2.7142947,-1.0450034,-2.3794532,-0.48821601,-0.56322241,-0.66665256,0
-0.828457,-2.9597793,-2.1428256,-0.48821601,-0.56322241,-0.66665256,0
-0.48238379,-1.9748354,0.30386662,0.4554252,-0.81603861,0.35590562,0
-0.38631487,-2.62485,-2.4865141,0.74446821,0.12985152,-0.65490878,0
-0.64621305,-2.7727666,-1.3160318,0.4554252,-0.81603861,0.35590562,0
1.4102955,-0.64718127,0.92606258,0.4554252,-0.81603861,0.35590562,0
-0.45822418,1.3088967,-0.62714064,-0.4554252,0.81603861,-0.35590562,0
0.66707069,-0.14694381,-0.79777193,0.74446821,0.12985152,-0.65490878,0
-1.1303024,-0.6868881,-2.9479945,0.74446821,0.12985152,-0.65490878,0
0.18979692,2.2585633,2.1904969,-0.74446821,-0.12985152,0.65490878,0
1.830061,3.1986699,1.2074841,0.48821601,0.56322241,0.66665256,0
2.0830309,0.42097276,2.514333,0.4554252,-0.81603861,0.35590562,0
-2.4837804,-0.72533786,-2.6993885,-0.4554252,0.81603861,-0.35590562,0
1.1466818,0.22300065,2.8746371,-0.74446821,-0.12985152,0.65490878,0
-1.7636192,0.50909519,-0.37692553,-0.74446821,-0.12985152,0.65490878,0
-2.210156,-2.3558569,-1.6411773,-0.48821601,-0.56322241,-0.66665256,0
1.6285905,-0.4516536,1.0950432,0.4554252,-0.81603861,0.35590562,0
0.11887622,-2.2322903,-1.0558265,0.4554252,-0.81603861,0.35590562,0
-0.22126889,0.78968883,-1.6218828,0.74446821,0.12985152,-0.65490878,0
1.3565816,-0.28276032,-0.040898606,0.74446821,0.12985152,-0.65490878,0
1.6078318,2.5003793,1.9601829,0.48821601,0.56322241,0.66665256,0
-2.7785103,-0.52841389,-1.7363154,-0.74446821,-0.12985152,0.65490878,0
1.6378539,2.1294184,2.2516036,0.48821601,0.56322241,0.66665256,0
0.20635596,0.74245965,-1.1451441,0.74446821,0.12985152,-0.65490878,0
0.073259771,1.4033177,-1.0907466,-0.4554252,0.81603861,-0.35590562,0
-1.529466,-2.5006456,-0.70750582,-0.74446821,-0.12985152,0.65490878,0
1.6874599,0.099159032,2.2826438,0.4554252,-0.81603861,0.35590562,0
0.87073785,-0.89647162,1.0449078,0.4554252,-0.81603861,0.35590562,0
1.8106053,-0.53445542,0.67228055,0.4554252,-0.81603861,0.35590562,0
-1.8204539,-1.9898088,-2.2358277,-0.48821601,-0.56322241,-0.66665256,0
0.67445904,-0.43964165,2.2064524,-0.74446821,-0.12985152,0.65490878,0
0.071779013,2.1513426,0.62625837,-0.4554252,0.81603861,-0.35590562,0
0.10229683,-2.4153919,-1.4544359,0.4554252,-0.81603861,0.35590562,0
1.1908846,2.5121515,2.2555842,0.48821601,0.56322241,0.66665256,0
-1.219394,-0.85581529,-0.028903365,-0.74446821,-0.12985152,0.65490878,0
-0.75519133,-2.4540155,-0.44573164,0.4554252,-0.81603861,0.35590562,0
2.435029,0.94669056,2.6670303,0.48821601,0.56322241,0.66665256,0
-2.6187344,-1.6204643,-1.7712153,-0.74446821,-0.12985152,0.65490878,0
2.8757627,0.7140528,1.8836744,0.74446821,0.12985152,-0.65490878,0
1.2008125,-1.3443816,-0.40445435,0.4554252,-0.81603861,0.35590562,0
-0.82508856,0.93426639,-1.0166638,-0.4554252,0.81603861,-0.35590562,0
1.0690299,2.8084519,0.85680616,-0.4554252,0.81603861,-0.35590562,0
-0.45654058,1.7665397,1.3582163,-0.74446821,-0.12985152,0.65490878,0
-1.8539324,-3.1612308,-1.2216324,-0.48821601,-0.56322241,-0.66665256,0
0.43469143,-1.1036291,1.1279013,0.4554252,-0.81603861,0.35590562,0
0.96133888,2.3026426,0.02242744,0.74446821,0.12985152,-0.65490878,0
1.9825722,-0.24644846,0.67789644,0.74446821,0.12985152,-0.65490878,0
1.2856847,1.3127308,3.1994908,0.48821601,0.56322241,0.66665256,0
1.8108057,3.0702519,1.1402569,0.74446821,0.12985152,-0.65490878,0
1.7903007,3.0278609,1.1085427,0.74446821,0.12985152,-0.65490878,0
-0.46201199,1.4651009,-0.26414061,-0.4554252,0.81603861,-0.35590562,0
0.48725188,-0.81641519,-1.1349199,0.74446821,0.12985152,-0.65490878,0
1.7359009,1.8392415,2.4249563,0.48821601,0.56322241,0.66665256,0
-1.6934401,-2.2767344,-2.0864353,-0.48821601,-0.56322241,-0.66665256,0
-0.9285984,1.6024117,0.64774758,-0.4554252,0.81603861,-0.35590562,0
-1.0494001,-2.7191284,-2.1843343,-0.48821601,-0.56322241,-0.66665256,0
0.00016151369,-0.49234486,1.4294944,-0.74446821,-0.12985152,0.65490878,0
-1.5428017,-0.56960005,-0.33978853,-0.74446821,-0.12985152,0.65490878,0
-0.35358059,0.91084772,-1.6737121,-0.4554252,0.81603861,-0.35590562,0
0.64937425,-0.01274693,-0.79128063,0.74446821,0.12985152,-0.65490878,0
2.3496087,2.0708394,1.5545843,0.74446821,0.12985152,-0.65490878,0
-0.9972136,-2.8365149,-2.1233783,-0.48821601,-0.56322241,-0.66665256,0
-0.80270565,-0.20971572,-2.4809875,0.74446821,0.12985152,-0.65490878,0
1.2108519,-0.10946706,2.4141743,0.4554252,-0.81603861,0.35590562,0
1.3941747,0.077362716,2.6079626,0.4554252,-0.81603861,0.35590562,0
0.25933063,1.9674677,-0.035335183,-0.4554252,0.81603861,-0.35590562,0
-0.057831824,-1.4317338,1.0058508,0.4554252,-0.81603861,0.35590562,0
-0.12639058,2.3560619,1.8504018,-0.74446821,-0.12985152,0.65490878,0
-1.7889447,-0.8539716,-3.2185171,-0.48821601,-0.56322241,-0.66665256,0
-2.519397,-0.98500693,-2.5728724,-0.48821601,-0.56322241,-0.66665256,0
1.2260568,2.4736366,0.35724986,0.74446821,0.12985152,-0.65490878,0
1.5080959,0.64232445,0.31475583,0.74446821,0.12985152,-0.65490878,0
1.784707,0.064702362,2.0792003,0.4554252,-0.81603861,0.35590562,0
1.4889765,3.2118258,1.2443091,-0.4554252,0.81603861,-0.35590562,0
-1.6860538,-0.11955938,-2.3312182,-0.4554252,0.81603861,-0.35590562,0
-0.070111156,2.553503,1.9535247,-0.74446821,-0.12985152,0.65490878,0
1.6744225,2.9203982,0.95551109,0.74446821,0.12985152,-0.65490878,0
-2.1500835,-2.6220095,-1.4370569,-0.74446821,-0.12985152,0.65490878,0
-0.48981273,-2.8304827,-1.6485,0.4554252,-0.81603861,0.35590562,0
-1.0682985,-0.031039417,-2.7474737,0.74446821,0.12985152,-0.65490878,0
0.2159555,-2.2526541,-1.2267424,0.4554252,-0.81603861,0.35590562,0
0.4874565,0.76860923,2.2334423,-0.74446821,-0.12985152,0.65490878,0
-2.6079836,-0.95658284,-2.5320115,-0.48821601,-0.56322241,-0.66665256,0
-1.5928797,-0.10068224,-2.4071639,-0.4554252,0.81603861,-0.35590562,0
1.6047248,2.9761045,1.5605412,0.48821601,0.56322241,0.66665256,0
1.6558876,1.5777996,0.668239,0.74446821,0.12985152,-0.65490878,0
1.7659363,0.23393223,2.4912386,0.4554252,-0.81603861,0.35590562,0
-0.023502335,-0.45959496,1.4090879,-0.74446821,-0.12985152,0.65490878,0
0.78791988,2.9458203,2.1843052,0.48821601,0.56322241,0.66665256,0
-1.8505504,0.31636974,-1.1212038,-0.4554252,0.81603861,-0.35590562,0
1.3710123,1.4798957,2.9957724,0.48821601,0.56322241,0.66665256,0
-0.72511053,-2.9862697,-2.1961293,-0.48821601,-0.56322241,-0.66665256,0
2.7432046,1.0523406,2.3520823,0.48821601,0.56322241,0.66665256,0
2.0000505,1.4727937,2.5411029,0.48821601,0.56322241,0.66665256,0
1.8715179,2.0520921,2.1458116,0.48821601,0.56322241,0.66665256,0
-0.99292076,-1.5012898,-2.9533007,0.74446821,0.12985152,-0.65490878,0
-0.12422335,-1.7481959,0.36520642,0.4554252,-0.81603861,0.35590562,0
0.28207803,-2.3224597,-1.6667619,0.74446821,0.12985152,-0.65490878,0
-1.1821351,0.30548805,-2.0014739,-0.4554252,0.81603861,-0.35590562,0
-0.81208575,-0.50832927,0.50300211,-0.74446821,-0.12985152,0.65490878,0
1.2331918,1.6855862,2.9229259,0.48821601,0.56322241,0.66665256,0
-0.40772235,-2.9100754,-1.936039,0.4554252,-0.81603861,0.35590562,0
2.7609222,1.1699772,1.8435273,0.74446821,0.12985152,-0.65490878,0
-0.64612067,1.7884978,0.71295029,-0.4554252,0.81603861,-0.35590562,0
-1.7156368,-0.13658823,-2.3324075,-0.4554252,0.81603861,-0.35590562,0
2.2953367,1.0797713,2.656899,0.48821601,0.56322241,0.66665256,0
0.89702034,2.4204955,0.1873877,-0.4554252,0.81603861,-0.35590562,0
-0.82983303,-2.8084292,-2.2696857,-0.48821601,-0.56322241,-0.66665256,0
0.49529278,-1.2997195,0.60074872,0.4554252,-0.81603861,0.35590562,0
-1.1530776,-0.88060433,-3.0122933,0.74446821,0.12985152,-0.65490878,0
1.6407706,2.495101,1.9405198,0.48821601,0.56322241,0.66665256,0
0.47492075,-1.4927115,0.18431491,0.4554252,-0.81603861,0.35590562,0
-1.5462502,0.23743826,-1.6915716,-0.4554252,0.81603861,-0.35590562,0
-0.0016484261,-1.7038641,0.31000274,0.4554252,-0.81603861,0.35590562,0
-0.81368661,-2.0248544,-2.8533654,0.74446821,0.12985152,-0.65490878,0
2.0619659,1.579432,1.1301723,0.74446821,0.12985152,-0.65490878,0
0.33282614,2.4327133,0.93735731,-0.4554252,0.81603861,-0.35590562,0
1.7832135,0.049395204,0.50993347,0.74446821,0.12985152,-0.65490878,0
-2.4050686,-1.3804084,-1.4807339,-0.74446821,-0.12985152,0.65490878,0
0.84988213,2.8875089,2.1881924,0.48821601,0.56322241,0.66665256,0
0.71848887,-0.9237622,1.1771559,0.4554252,-0.81603861,0.35590562,0
1.3321302,1.4967577,3.0100017,0.48821601,0.56322241,0.66665256,0
-1.0335082,1.4063983,0.63094103,-0.74446821,-0.12985152,0.65490878,0
0.42019665,1.693115,2.3402901,-0.74446821,-0.12985152,0.65490878,0
-0.96854961,0.041830003,0.43422401,-0.74446821,-0.12985152,0.65490878,0
2.5170422,1.9710997,1.741495,0.48821601,0.56322241,0.66665256,0
-1.1349344,1.0433115,-0.37015355,-0.4554252,0.81603861,-0.35590562,0
-1.1221586,-1.5941234,-0.06475842,-0.74446821,-0.12985152,0.65490878,0
-0.84848762,-3.1555078,-1.9627945,-0.48821601,-0.56322241,-0.66665256,0
1.8214016,0.46699518,0.63614333,0.74446821,0.12985152,-0.65490878,0
-2.3623743,-2.1257408,-1.7241157,-0.48821601,-0.56322241,-0.66665256,0
-0.80732656,-3.0027671,-2.1219816,-0.48821601,-0.56322241,-0.66665256,0
2.4688849,1.2966068,2.3466089,0.48821601,0.56322241,0.66665256,0
-0.010675788,-2.3858774,-2.0121236,0.74446821,0.12985152,-0.65490878,0
-1.8198487,-1.7465692,-2.4417725,-0.48821601,-0.56322241,-0.66665256,0
-0.1934123,-2.8450148,-2.061101,0.4554252,-0.81603861,0.35590562,0
-2.2304914,-1.5405778,-2.3150747,-0.48821601,-0.56322241,-0.66665256,0
-0.73826516,-2.8661888,-1.4124428,0.4554252,-0.81603861,0.35590562,0
0.91179186,2.1698573,2.7491627,0.48821601,0.56322241,0.66665256,0
1.4682292,-0.066452846,2.1834533,0.4554252,-0.81603861,0.35590562,0
0.16856587,-1.9159793,-0.39415622,0.4554252,-0.81603861,0.35590562,0
-0.28394949,-2.1873612,-0.43734527,0.4554252,-0.81603861,0.35590562,0
-1.0618217,-2.9906793,-1.2838502,0.4554252,-0.81603861,0.35590562,0
2.8425741,0.73113465,2.2535589,0.4554252,-0.81603861,0.35590562,0
-1.434913,-0.092138886,-0.12247765,-0.74446821,-0.12985152,0.65490878,0
-1.8480166,-0.17526948,-0.60855627,-0.74446821,-0.12985152,0.65490878,0
1.3071768,2.9977984,1.7601193,0.48821601,0.56322241,0.66665256,0
-2.3517771,-1.9712172,-1.8624259,-0.48821601,-0.56322241,-0.66665256,0
-1.3265377,1.0475862,-0.11517227,-0.4554252,0.81603861,-0.35590562,0
2.0139349,2.3262446,1.8098959,0.48821601,0.56322241,0.66665256,0
-2.0463986,-1.7309247,-2.2890782,-0.48821601,-0.56322241,-0.66665256,0
2.0257375,2.1965299,1.9108417,0.48821601,0.56322241,0.66665256,0
-2.5362935,-0.92624128,-1.5398542,-0.74446821,-0.12985152,0.65490878,0
2.6354246,1.68556,1.8960376,0.48821601,0.56322241,0.66665256,0
-1.8462896,0.22561041,-1.3347536,-0.4554252,0.81603861,-0.35590562,0
-1.0667464,0.016793907,0.31763476,-0.74446821,-0.12985152,0.65490878,0
0.96551567,0.22715384,-0.38434029,0.74446821,0.12985152,-0.65490878,0
-3.0777652,-0.96086681,-2.1843524,-0.48821601,-0.56322241,-0.66665256,0
1.297758,1.5928445,2.9539945,0.48821601,0.56322241,0.66665256,0
-0.99701726,1.1922975,-0.205033,-0.4554252,0.81603861,-0.35590562,0
0.93179721,0.8475045,2.7541897,-0.74446821,-0.12985152,0.65490878,0
0.14241707,-1.8798765,-0.27791691,0.4554252,-0.81603861,0.35590562,0
-1.5902491,-2.1354694,-2.2813544,-0.48821601,-0.56322241,-0.66665256,0
-0.094826698,-1.5575452,-1.9435457,0.74446821,0.12985152,-0.65490878,0
-0.56846446,-0.97432476,0.68754399,-0.74446821,-0.12985152,0.65490878,0
1.8043277,2.7327964,1.6199234,0.48821601,0.56322241,0.66665256,0
-0.44813204,0.78917563,-1.8316977,-0.4554252,0.81603861,-0.35590562,0
-1.2720101,0.76258779,-0.83840597,-0.4554252,0.81603861,-0.35590562,0
-2.0010185,-2.8909678,-1.3422476,-0.48821601,-0.56322241,-0.66665256,0
-1.0212041,0.43022412,-1.9214036,-0.4554252,0.81603861,-0.35590562,0
-0.90636492,-3.1140606,-1.765672,0.4554252,-0.81603861,0.35590562,0
1.0815673,-1.0205822,0.49055821,0.4554252,-0.81603861,0.35590562,0
-1.9668322,-1.8769639,-1.081022,-0.74446821,-0.12985152,0.65490878,0
1.8053548,-0.066030204,1.7530286,0.4554252,-0.81603861,0.35590562,0
-0.4105885,1.4317304,-0.40645686,-0.4554252,0.81603861,-0.35590562,0
0.71062928,2.3726749,0.31625199,-0.4554252,0.81603861,-0.35590562,0
1.574816,-0.21580575,1.7046183,0.4554252,-0.81603861,0.35590562,0
-0.27536535,-2.7118287,-1.6508554,0.4554252,-0.81603861,0.35590562,0
0.061236382,2.7423201,2.1402721,-0.74446821,-0.12985152,0.65490878,0
-0.18936008,0.94637644,1.4993168,-0.74446821,-0.12985152,0.65490878,0
-0.5285567,-2.2909544,-0.36186385,0.4554252,-0.81603861,0.35590562,0
1.4482963,0.315056,3.0837028,0.4554252,-0.81603861,0.35590562,0
-1.1783053,1.1503072,-0.069329739,-0.4554252,0.81603861,-0.35590562,0
-0.2693553,-2.7372773,-1.7168958,0.4554252,-0.81603861,0.35590562,0
-0.034611404,0.31628215,1.5502961,-0.74446821,-0.12985152,0.65490878,0
2.1635671,1.1144422,2.7241073,0.48821601,0.56322241,0.66665256,0
3.0300231,1.0645174,2.1285183,0.74446821,0.12985152,-0.65490878,0
-0.0043662786,2.2182362,0.87707305,-0.4554252,0.81603861,-0.35590562,0
1.6872457,2.8265228,1.626482,0.48821601,0.56322241,0.66665256,0
-1.1685598,-2.6491446,-0.3641777,0.4554252,-0.81603861,0.35590562,0
-1.4497255,0.56681287,-0.0086624622,-0.74446821,-0.12985152,0.65490878,0
-1.0699594,1.1346954,-0.24376717,-0.4554252,0.81603861,-0.35590562,0
2.5171387,0.96850193,2.5884707,0.48821601,0.56322241,0.66665256,0
0.77145624,-1.4212828,-0.03136313,0.4554252,-0.81603861,0.35590562,0
-2.6651678,-1.4285012,-1.7859373,-0.74446821,-0.12985152,0.65490878,0
-1.3010995,-1.5963366,-2.948597,-0.48821601,-0.56322241,-0.66665256,0
0.0048112869,2.3497045,1.1667658,-0.4554252,0.81603861,-0.35590562,0
0.13140523,-2.237355,-1.8211647,0.74446821,0.12985152,-0.65490878,0
-1.089151,-1.1635754,0.05812937,-0.74446821,-0.12985152,0.65490878,0
1.2537737,2.3421931,2.3531179,0.48821601,0.56322241,0.66665256,0
-0.54669219,-0.75663292,0.75545633,-0.74446821,-0.12985152,0.65490878,0
1.3012799,1.4287999,0.23559541,0.74446821,0.12985152,-0.65490878,0
0.41058517,1.9299102,-0.31499761,-0.4554252,0.81603861,-0.35590562,0
-0.52527255,0.77998501,-1.7540598,-0.4554252,0.81603861,-0.35590562,0
-2.0938928,-0.89715898,-2.9587047,-0.48821601,-0.56322241,-0.66665256,0
-0.38092065,-3.0224075,-2.2278957,0.4554252,-0.81603861,0.35590562,0
-1.8796233,-0.20614886,-0.65060771,-0.74446821,-0.12985152,0.65490878,0
-2.1576598,-2.0368898,-1.949102,-0.48821601,-0.56322241,-0.66665256,0
0.63766742,2.6621828,1.0734147,-0.4554252,0.81603861,-0.35590562,0
-0.5122807,-2.4589553,-0.76789188,0.4554252,-0.81603861,0.35590562,0
1.941962,0.35329324,2.539669,0.4554252,-0.81603861,0.35590562,0
0.35566413,-2.1426251,-1.1532364,0.4554252,-0.81603861,0.35590562,0
-1.5912088,-2.3988962,-0.75751758,-0.74446821,-0.12985152,0.65490878,0
-2.3234091,-0.55673039,-2.5180116,-0.4554252,0.81603861,-0.35590562,0
-2.0653548,-1.5024745,-1.1187662,-0.74446821,-0.12985152,0.65490878,0
-2.3432293,-2.096643,-1.5524485,-0.74446821,-0.12985152,0.65490878,0
-2.1680474,-1.9868574,-1.9837645,-0.48821601,-0.56322241,-0.66665256,0
0.98303944,-0.47283795,1.872533,0.4554252,-0.81603861,0.35590562,0
-2.5687912,-1.1107403,-2.4304733,-0.48821601,-0.56322241,-0.66665256,0
1.1317682,1.1337664,-0.015594721,0.74446821,0.12985152,-0.65490878,0
-0.069710374,-2.6103702,-2.1237426,0.74446821,0.12985152,-0.65490878,0
1.4989586,0.43673533,3.2978668,0.4554252,-0.81603861,0.35590562,0
0.69317484,2.3839419,0.36442065,-0.4554252,0.81603861,-0.35590562,0
-2.1092563,-0.033983111,-1.593465,-0.4554252,0.81603861,-0.35590562,0
0.53965634,-0.71087462,1.8941135,0.4554252,-0.81603861,0.35590562,0
-0.35755557,-1.0034763,-2.1323452,0.74446821,0.12985152,-0.65490878,0
0.39402655,-0.48652369,1.8783751,-0.74446821,-0.12985152,0.65490878,0
0.87748075,2.7989666,1.0801691,-0.4554252,0.81603861,-0.35590562,0
-0.78677267,-2.0275466,-2.8233047,0.74446821,0.12985152,-0.65490878,0
-1.2595558,0.70411074,-0.98842192,-0.4554252,0.81603861,-0.35590562,0
-0.077566504,-1.9517679,-0.16125739,0.4554252,-0.81603861,0.35590562,0
1.1798089,2.4172943,2.3438358,0.48821601,0.56322241,0.66665256,0
1.0704104,2.0086825,2.7691689,0.48821601,0.56322241,0.66665256,0
-0.85558748,0.71384621,-1.4830273,-0.4554252,0.81603861,-0.35590562,0
-1.7469019,0.67379636,-0.43430892,-0.4554252,0.81603861,-0.35590562,0
0.51576626,2.6269298,1.1485723,-0.4554252,0.81603861,-0.35590562,0
-0.679533,-3.0199687,-2.2010369,-0.48821601,-0.56322241,-0.66665256,0
-0.72406524,0.97051007,-1.0628344,-0.4554252,0.81603861,-0.35590562,0
0.36355245,2.9866459,2.4605949,0.48821601,0.56322241,0.66665256,0
-0.65176457,0.97530699,-1.1443535,-0.4554252,0.81603861,-0.35590562,0
1.5378823,3.2179279,1.4051876,0.48821601,0.56322241,0.66665256,0
-2.1260529,-1.4706198,-1.1814487,-0.74446821,-0.12985152,0.65490878,0
1.3583567,-0.88707232,0.44249043,0.4554252,-0.81603861,0.35590562,0
-1.4311529,-3.1157,-1.5697172,-0.48821601,-0.56322241,-0.66665256,0
1.1368099,2.453629,2.3446283,0.48821601,0.56322241,0.66665256,0
1.4777274,1.8473001,0.51915014,0.74446821,0.12985152,-0.65490878,0
1.5928829,1.2100439,0.52370179,0.74446821,0.12985152,-0.65490878,0
-2.0855165,-1.5893898,-2.3800066,-0.48821601,-0.56322241,-0.66665256,0
-1.5402814,0.637254,-0.097635299,-0.74446821,-0.12985152,0.65490878,0
-0.071845293,-2.5939858,-1.6410885,0.4554252,-0.81603861,0.35590562,0
0.21776378,-2.4008529,-1.7554144,0.74446821,0.12985152,-0.65490878,0
-1.6596935,-1.7899987,-2.5223689,-0.48821601,-0.56322241,-0.66665256,0
-1.4826252,0.13672,-0.13133751,-0.74446821,-0.12985152,0.65490878,0
-1.7988902,0.13996577,-0.49020869,-0.74446821,-0.12985152,0.65490878,0
-0.41997945,1.6796544,0.17401266,-0.4554252,0.81603861,-0.35590562,0
0.030206323,2.5674841,2.0703335,-0.74446821,-0.12985152,0.65490878,0
0.42486292,-0.49883673,-1.1428733,0.74446821,0.12985152,-0.65490878,0
1.952925,0.11902708,0.71665931,0.74446821,0.12985152,-0.65490878,0
1.7816007,-0.044303954,1.8332398,0.4554252,-0.81603861,0.35590562,0
-0.55547875,0.91566181,1.0770413,-0.74446821,-0.12985152,0.65490878,0
1.0742588,0.70028633,-0.16691658,0.74446821,0.12985152,-0.65490878,0
-2.4694607,-1.9224989,-1.8174012,-0.48821601,-0.56322241,-0.66665256,0
0.014557123,-0.84494507,-1.677913,0.74446821,0.12985152,-0.65490878,0
-2.2630296,-1.2594132,-2.5287881,-0.48821601,-0.56322241,-0.66665256,0
-0.20668757,1.9229414,1.6732475,-0.74446821,-0.12985152,0.65490878,0
-1.3168668,-1.6445078,-2.8963528,-0.48821601,-0.56322241,-0.66665256,0
1.5355492,2.0359273,2.4055116,0.48821601,0.56322241,0.66665256,0
-1.8073674,0.24217379,-1.3465818,-0.4554252,0.81603861,-0.35590562,0
0.43259192,2.5068727,0.97973096,-0.4554252,0.81603861,-0.35590562,0
-1.1283557,-2.8131604,-0.79168725,0.4554252,-0.81603861,0.35590562,0
1.5857966,-0.82449746,0.29492784,0.4554252,-0.81603861,0.35590562,0
-1.9195206,-3.0090928,-1.2517128,-0.74446821,-0.12985152,0.65490878,0
-0.73965895,0.24191147,0.73408681,-0.74446821,-0.12985152,0.65490878,0
1.8351972,2.4380183,1.84636,0.48821601,0.56322241,0.66665256,0
-1.0063196,-2.1148527,-2.7264066,-0.48821601,-0.56322241,-0.66665256,0
-1.4993539,-0.94461584,-0.36475486,-0.74446821,-0.12985152,0.65490878,0
1.7780124,2.5772543,1.7706053,0.48821601,0.56322241,0.66665256,0
-0.98269367,-3.0764847,-1.5818441,0.4554252,-0.81603861,0.35590562,0
-0.83919531,0.40474921,0.65322518,-0.74446821,-0.12985152,0.65490878,0
1.3439356,3.1894982,1.5712415,0.48821601,0.56322241,0.66665256,0
-0.46205997,1.7077339,0.29224229,-0.4554252,0.81603861,-0.35590562,0
-1.0068153,0.45725456,0.47309348,-0.74446821,-0.12985152,0.65490878,0
1.771771,0.3734318,2.8036239,0.4554252,-0.81603861,0.35590562,0
1.3792602,1.8446872,2.6815374,0.48821601,0.56322241,0.66665256,0
1.4313834,0.091590226,2.5929713,0.4554252,-0.81603861,0.35590562,0
0.36526799,-1.8142461,-0.41260153,0.4554252,-0.81603861,0.35590562,0
2.5260434,0.85562438,2.6773143,0.48821601,0.56322241,0.66665256,0
-1.9360205,-2.3073356,-1.1313287,-0.74446821,-0.12985152,0.65490878,0
-1.5728338,-2.4736814,-2.008369,-0.48821601,-0.56322241,-0.66665256,0
-0.88140905,0.97002,-0.86261696,-0.4554252,0.81603861,-0.35590562,0
0.20369351,2.3077447,0.816064,-0.4554252,0.81603861,-0.35590562,0
-1.4962077,-0.40188187,-3.2214735,-0.4554252,0.81603861,-0.35590562,0
1.4304842,1.9493936,2.5555627,0.48821601,0.56322241,0.66665256,0
1.940856,0.15968567,2.0971708,0.4554252,-0.81603861,0.35590562,0
-2.503176,-0.64074874,-2.480619,-0.4554252,0.81603861,-0.35590562,0
-2.0904045,-0.72855908,-3.1037011,-0.48821601,-0.56322241,-0.66665256,0
1.9322715,-0.39538682,0.5911864,0.74446821,0.12985152,-0.65490878,0
-1.6747776,-2.4456525,-1.9573919,-0.48821601,-0.56322241,-0.66665256,0
-2.3246541,-0.55276883,-2.5073349,-0.4554252,0.81603861,-0.35590562,0
2.0852258,1.5073793,2.4495063,0.48821601,0.56322241,0.66665256,0
-0.63192856,-2.1310606,-2.66781,0.74446821,0.12985152,-0.65490878,0
-2.7592859,-1.5301545,-1.9130816,-0.74446821,-0.12985152,0.65490878,0
1.54039,2.250479,2.2207022,0.48821601,0.56322241,0.66665256,0
-2.5046179,-1.8965815,-1.8135505,-0.48821601,-0.56322241,-0.66665256,0
-0.87539494,-1.1300163,0.30777082,-0.74446821,-0.12985152,0.65490878,0
2.0307965,1.0720967,2.8571162,0.48821601,0.56322241,0.66665256,0
-1.4375439,-0.28733832,-0.16417111,-0.74446821,-0.12985152,0.65490878,0
-2.4699509,-1.9547222,-1.7898184,-0.48821601,-0.56322241,-0.66665256,0
1.8125057,1.6671187,2.5142736,0.48821601,0.56322241,0.66665256,0
-0.82886517,-0.50640488,-2.5695503,0.74446821,0.12985152,-0.65490878,0
-1.5971432,-1.2227859,-3.0473876,-0.48821601,-0.56322241,-0.66665256,0
-2.7725275,-0.49784172,-1.8082863,-0.4554252,0.81603861,-0.35590562,0
-0.29064766,-1.1493965,0.96864033,-0.74446821,-0.12985152,0.65490878,0
0.023239851,2.5211933,2.0532353,-0.74446821,-0.12985152,0.65490878,0
-0.9184674,1.5545301,0.52499849,-0.4554252,0.81603861,-0.35590562,0
-1.3174353,1.0017867,-0.23183128,-0.4554252,0.81603861,-0.35590562,0
0.96921128,2.5399399,0.36887813,-0.4554252,0.81603861,-0.35590562,0
-1.8026428,0.19721976,-1.4557008,-0.4554252,0.81603861,-0.35590562,0
-0.022893906,2.5823135,1.7355565,-0.4554252,0.81603861,-0.35590562,0
-1.7654872,-3.1034787,-1.3351963,-0.48821601,-0.56322241,-0.66665256,0
-2.2463365,-1.5725571,-2.276453,-0.48821601,-0.56322241,-0.66665256,0
-0.97246146,-1.3827302,0.14732373,-0.74446821,-0.12985152,0.65490878,0
-2.1257014,0.030057251,-1.4255861,-0.4554252,0.81603861,-0.35590562,0
-2.5813978,-1.0525844,-2.4703741,-0.48821601,-0.56322241,-0.66665256,0
-1.7957301,0.41343135,-0.43239516,-0.74446821,-0.12985152,0.65490878,0
-0.76772594,1.2675433,-0.32591197,-0.4554252,0.81603861,-0.35590562,0
-2.326134,-1.0925441,-2.6235538,-0.48821601,-0.56322241,-0.66665256,0
-0.299595,1.4966218,1.4831066,-0.74446821,-0.12985152,0.65490878,0
0.18884814,1.5356371,2.0460806,-0.74446821,-0.12985152,0.65490878,0
0.71383154,-0.23278248,2.2922242,-0.74446821,-0.12985152,0.65490878,0
-0.47863042,-2.0469251,-2.4768662,0.74446821,0.12985152,-0.65490878,0
-0.0048263073,1.6855222,1.8556392,-0.74446821,-0.12985152,0.65490878,0
1.5103812,0.75735688,3.3940217,-0.74446821,-0.12985152,0.65490878,0
-1.3546515,-2.9486079,-0.8126756,0.4554252,-0.81603861,0.35590562,0
-0.96232611,-0.28957957,-2.6782713,0.74446821,0.12985152,-0.65490878,0
-0.083023131,1.5220178,-0.61860156,-0.4554252,0.81603861,-0.35590562,0
2.5289791,1.0595088,2.5029123,0.48821601,0.56322241,0.66665256,0
2.5989451,0.97372758,1.6204886,0.74446821,0.12985152,-0.65490878,0
0.68332362,3.1283839,2.1066661,0.48821601,0.56322241,0.66665256,0
-2.33933,-0.1786803,-1.1677334,-0.74446821,-0.12985152,0.65490878,0
-1.5402706,-1.0976163,-3.1947873,-0.48821601,-0.56322241,-0.66665256,0
-1.7289946,-1.7633746,-0.78813809,-0.74446821,-0.12985152,0.65490878,0
-2.4628873,-1.8250208,-1.90457,-0.48821601,-0.56322241,-0.66665256,0
-2.0636048,-1.2005136,-1.0569059,-0.74446821,-0.12985152,0.65490878,0
-1.828487,-2.4190626,-1.8672888,-0.48821601,-0.56322241,-0.66665256,0
0.75249267,2.3504577,2.7132435,0.48821601,0.56322241,0.66665256,0
2.2937238,2.2021909,1.7098023,0.48821601,0.56322241,0.66665256,0
0.86723351,-0.32581055,2.3578327,0.4554252,-0.81603861,0.35590562,0
-0.015860438,2.2156126,0.88576496,-0.4554252,0.81603861,-0.35590562,0
-1.2405615,-1.8837316,-2.7501254,-0.48821601,-0.56322241,-0.66665256,0
0.82692289,2.0939543,2.8754425,0.48821601,0.56322241,0.66665256,0
0.98660266,0.96299136,-0.214472,0.74446821,0.12985152,-0.65490878,0
0.50545359,2.7293308,2.5740681,0.48821601,0.56322241,0.66665256,0
0.99352658,-1.2187673,-0.63918787,0.74446821,0.12985152,-0.65490878,0
-0.39549482,-2.8536265,-1.8222564,0.4554252,-0.81603861,0.35590562,0
0.63689256,-1.6804377,-0.45337564,0.4554252,-0.81603861,0.35590562,0
1.5414101,-0.0099825114,2.2192874,0.4554252,-0.81603861,0.35590562,0
2.372483,1.7997437,1.9921318,0.48821601,0.56322241,0.66665256,0
0.061658144,-2.3513384,-1.2555684,0.4554252,-0.81603861,0.35590562,0
-0.46142042,1.3092149,1.2619934,-0.74446821,-0.12985152,0.65490878,0
-1.6292207,-2.6673617,-0.8539573,-0.74446821,-0.12985152,0.65490878,0
-0.99887675,-0.14901829,0.36190939,-0.74446821,-0.12985152,0.65490878,0
-2.0502903,-1.0884966,-2.8289847,-0.48821601,-0.56322241,-0.66665256,0
1.3572533,-1.1097573,-0.066681325,0.4554252,-0.81603861,0.35590562,0
0.50861919,-1.8308518,-1.3117676,0.74446821,0.12985152,-0.65490878,0
-2.8614597,-1.253525,-2.0955086,-0.48821601,-0.56322241,-0.66665256,0
0.27394083,-0.17391944,-1.2500112,0.74446821,0.12985152,-0.65490878,0
2.6064196,0.76125556,2.6248105,0.4554252,-0.81603861,0.35590562,0
1.8715506,0.87289864,0.7736302,0.74446821,0.12985152,-0.65490878,0
0.79116118,2.1313934,2.8488836,-0.74446821,-0.12985152,0.65490878,0
1.2452528,2.8150246,0.64637792,-0.4554252,0.81603861,-0.35590562,0
1.4116243,1.9378923,2.5790915,0.48821601,0.56322241,0.66665256,0
1.8856983,1.5252857,2.5804996,0.48821601,0.56322241,0.66665256,0
0.96526462,-1.1621144,-0.66008198,0.74446821,0.12985152,-0.65490878,0
1.4585552,1.9235419,2.5568461,0.48821601,0.56322241,0.66665256,0
1.2653904,2.7321615,2.0151448,0.48821601,0.56322241,0.66665256,0
1.7633088,0.40045321,2.8764086,0.4554252,-0.81603861,0.35590562,0
-0.95726311,1.4749448,0.39216536,-0.4554252,0.81603861,-0.35590562,0
0.26371801,-1.7495773,-1.5740442,0.74446821,0.12985152,-0.65490878,0
2.1985347,1.4041044,2.4537776,0.48821601,0.56322241,0.66665256,0
-1.8531592,-1.5934809,-2.5467148,-0.48821601,-0.56322241,-0.66665256,0
-2.9559686,-0.86005259,-2.0037963,-0.74446821,-0.12985152,0.65490878,0
-1.8070414,-1.1765448,-2.9327376,-0.48821601,-0.56322241,-0.66665256,0
0.18436408,-0.83138818,1.5716633,-0.74446821,-0.12985152,0.65490878,0
-2.532681,-0.44660568,-1.9977226,-0.4554252,0.81603861,-0.35590562,0
-1.2225777,-1.4358782,-0.14753413,-0.74446821,-0.12985152,0.65490878,0
-2.0364952,-1.3090246,-2.6527739,-0.48821601,-0.56322241,-0.66665256,0
0.64832443,-0.77286953,1.6129144,0.4554252,-0.81603861,0.35590562,0
-1.4257426,0.7470578,0.054338098,-0.74446821,-0.12985152,0.65490878,0
-1.3502986,-1.9758604,-0.39978564,-0.74446821,-0.12985152,0.65490878,0
0.91971421,0.40735745,-0.40067545,0.74446821,0.12985152,-0.65490878,0
-0.98645365,1.5267041,0.54819471,-0.4554252,0.81603861,-0.35590562,0
2.7493534,0.99680459,2.3944993,0.48821601,0.56322241,0.66665256,0
1.1679592,-0.32087132,1.9843419,0.4554252,-0.81603861,0.35590562,0
0.045104742,2.7801533,2.1021605,-0.4554252,0.81603861,-0.35590562,0
0.56784713,1.5990603,-0.56437683,0.74446821,0.12985152,-0.65490878,0
2.0886798,0.18138188,1.9577585,0.4554252,-0.81603861,0.35590562,0
-2.9102371,-1.1844852,-2.0161378,-0.74446821,-0.12985152,0.65490878,0
0.73021507,2.5433836,2.5665646,0.48821601,0.56322241,0.66665256,0
0.67072439,2.7370574,1.2027904,-0.4554252,0.81603861,-0.35590562,0
0.13925624,-1.7779474,-0.040164411,0.4554252,-0.81603861,0.35590562,0
1.0099137,-1.1988307,-0.61660683,0.74446821,0.12985152,-0.65490878,0
-1.413319,-0.48602194,-0.17602745,-0.74446821,-0.12985152,0.65490878,0
1.2048161,-0.76596439,0.91664696,0.4554252,-0.81603861,0.35590562,0
1.0078509,0.8520574,-0.21231352,0.74446821,0.12985152,-0.65490878,0
-0.3013581,1.9696927,0.68723679,-0.4554252,0.81603861,-0.35590562,0
0.13023639,-1.8188145,-0.12232411,0.4554252,-0.81603861,0.35590562,0
0.1741845,-1.3385878,0.92252702,0.4554252,-0.81603861,0.35590562,0
1.5064225,0.93691438,0.37126344,0.74446821,0.12985152,-0.65490878,0
-1.7992675,0.19049051,-1.4754491,-0.4554252,0.81603861,-0.35590562,0
1.1281562,-0.4809112,1.6683272,0.4554252,-0.81603861,0.35590562,0
1.6645539,-0.70105124,0.47719181,0.4554252,-0.81603861,0.35590562,0
-2.993933,-1.1131424,-2.0971339,-0.74446821,-0.12985152,0.65490878,0
-0.96781504,1.2818267,0.68091851,-0.74446821,-0.12985152,0.65490878,0
1.383477,1.0553429,3.3088462,-0.74446821,-0.12985152,0.65490878,0
1.3548203,1.9824573,2.5830407,0.48821601,0.56322241,0.66665256,0
0.47039384,0.28678098,2.1185119,-0.74446821,-0.12985152,0.65490878,0
1.233368,0.68972582,3.0657175,-0.74446821,-0.12985152,0.65490878,0
1.2499506,-1.2654593,-0.35695535,0.74446821,0.12985152,-0.65490878,0
-0.15826356,2.2429972,1.130776,-0.4554252,0.81603861,-0.35590562,0
-0.79785961,-0.93634772,-2.6195512,0.74446821,0.12985152,-0.65490878,0
-0.46313775,-2.9721785,-2.0075212,0.4554252,-0.81603861,0.35590562,0
-1.7444172,-1.9935511,-0.85130787,-0.74446821,-0.12985152,0.65490878,0
1.8502488,0.90400219,3.1313531,0.48821601,0.56322241,0.66665256,0
-1.8970313,-0.53526068,-3.0143876,-0.4554252,0.81603861,-0.35590562,0
0.37632161,0.89423352,-0.92184246,0.74446821,0.12985152,-0.65490878,0
-0.27574357,-0.50694454,-1.940896,0.74446821,0.12985152,-0.65490878,0
-0.04283309,-2.3000805,-2.0316672,0.74446821,0.12985152,-0.65490878,0
-0.079477072,-2.6619089,-1.78706,0.4554252,-0.81603861,0.35590562,0
-1.1222908,0.56693405,-1.4785951,-0.4554252,0.81603861,-0.35590562,0
-0.13438326,0.28017706,1.4297216,-0.74446821,-0.12985152,0.65490878,0
1.2684383,2.5885046,2.1342816,0.48821601,0.56322241,0.66665256,0
-2.2567401,-2.1083331,-1.8161824,-0.48821601,-0.56322241,-0.66665256,0
-2.0193353,-2.807533,-1.3993236,-0.48821601,-0.56322241,-0.66665256,0
0.40836841,0.52686065,2.0956061,-0.74446821,-0.12985152,0.65490878,0
0.9333936,1.6448605,2.9140997,-0.74446821,-0.12985152,0.65490878,0
-1.6727803,-2.5019622,-1.9112816,-0.48821601,-0.56322241,-0.66665256,0
-1.5448141,-1.5256476,-0.53163558,-0.74446821,-0.12985152,0.65490878,0
1.0724847,1.945125,2.8213463,0.48821601,0.56322241,0.66665256,0
0.32566166,0.014896035,1.9000798,-0.74446821,-0.12985152,0.65490878,0
-1.0249821,-1.8631973,-0.0076432228,-0.74446821,-0.12985152,0.65490878,0
0.078872502,-1.2641151,1.2152455,0.4554252,-0.81603861,0.35590562,0
-2.5913992,-0.66501421,-2.4233634,-0.4554252,0.81603861,-0.35590562,0
-1.0059605,-2.2759037,-2.5906057,-0.48821601,-0.56322241,-0.66665256,0
1.3632562,2.5709739,2.0796537,0.48821601,0.56322241,0.66665256,0
-0.32123458,-2.6577563,-2.4190583,0.74446821,0.12985152,-0.65490878,0
-0.58886933,1.9392481,1.242035,-0.74446821,-0.12985152,0.65490878,0
-1.2994546,0.61678958,-1.137581,-0.4554252,0.81603861,-0.35590562,0
1.0709566,2.5978076,0.37136471,-0.4554252,0.81603861,-0.35590562,0
1.0984883,-0.85081601,0.8581543,0.4554252,-0.81603861,0.35590562,0
-0.91318536,-0.42959023,0.40368891,-0.74446821,-0.12985152,0.65490878,0
0.20171285,0.99706239,-1.099941,0.74446821,0.12985152,-0.65490878,0
1.1371599,-0.2235986,2.2467856,0.4554252,-0.81603861,0.35590562,0
1.3855072,2.3581972,2.2431228,0.48821601,0.56322241,0.66665256,0
-1.398914,-1.9741478,-2.5577693,-0.48821601,-0.56322241,-0.66665256,0
0.90935087,-0.93077618,0.9168424,0.4554252,-0.81603861,0.35590562,0
-1.6741819,-1.7220186,-2.5691912,-0.48821601,-0.56322241,-0.66665256,0
1.2650617,1.4054065,3.1362967,0.48821601,0.56322241,0.66665256,0
1.941143,2.8260031,1.2399898,0.74446821,0.12985152,-0.65490878,0
1.2907113,-0.31031132,-0.12123935,0.74446821,0.12985152,-0.65490878,0
0.48676527,2.9301658,2.4180789,0.48821601,0.56322241,0.66665256,0
1.4651773,1.5544459,2.8638277,0.48821601,0.56322241,0.66665256,0
1.8528442,1.3664467,2.7387555,0.48821601,0.56322241,0.66665256,0
1.9827853,0.091101348,0.74506629,0.74446821,0.12985152,-0.65490878,0
-1.1016637,0.27348724,-2.17782,-0.4554252,0.81603861,-0.35590562,0
-0.28818846,2.0144379,0.77297878,-0.4554252,0.81603861,-0.35590562,0
-0.22100389,-2.6364915,-1.5476811,0.4554252,-0.81603861,0.35590562,0
2.4348156,0.19026279,1.2785734,0.74446821,0.12985152,-0.65490878,0
2.4731543,2.0067804,1.7434909,0.48821601,0.56322241,0.66665256,0
2.1524916,-0.14475101,1.1283292,0.4554252,-0.81603861,0.35590562,0
0.85781932,0.11619723,2.5250959,-0.74446821,-0.12985152,0.65490878,0
-1.134057,0.97475779,-0.52845991,-0.4554252,0.81603861,-0.35590562,0
-0.72005135,-0.43187231,-2.4310782,0.74446821,0.12985152,-0.65490878,0
-0.26469779,-2.901587,-2.0995939,0.4554252,-0.81603861,0.35590562,0
1.2229975,0.1047352,2.8897662,0.4554252,-0.81603861,0.35590562,0
-1.4398475,-0.11488217,-2.6355455,-0.4554252,0.81603861,-0.35590562,0
1.8825749,2.8094645,1.497847,0.48821601,0.56322241,0.66665256,0
1.5524139,2.3285511,0.69946969,0.74446821,0.12985152,-0.65490878,0
-1.4666456,0.74826276,-0.62219089,-0.4554252,0.81603861,-0.35590562,0
-2.3736956,-1.3038249,-2.4102216,-0.48821601,-0.56322241,-0.66665256,0
0.11637473,-2.26261,-1.1221434,0.4554252,-0.81603861,0.35590562,0
1.6204679,2.227246,2.1816864,0.48821601,0.56322241,0.66665256,0
-1.6834521,-1.2754956,-2.9396482,-0.48821601,-0.56322241,-0.66665256,0
-0.26288033,0.55493367,1.3381296,-0.74446821,-0.12985152,0.65490878,0
1.8378246,2.2363236,2.014838,0.48821601,0.56322241,0.66665256,0
-0.58731163,1.2043972,-0.70155883,-0.4554252,0.81603861,-0.35590562,0
-0.12176687,0.65091789,1.5175717,-0.74446821,-0.12985152,0.65490878,0
-1.1459206,-1.8858378,-2.8176551,-0.48821601,-0.56322241,-0.66665256,0
-2.4093633,-1.3739444,-1.484334,-0.74446821,-0.12985152,0.65490878,0
0.90047777,2.8001466,2.2249475,0.48821601,0.56322241,0.66665256,0
-0.52323008,-2.1053715,-2.5391533,0.74446821,0.12985152,-0.65490878,0
-1.5193534,0.76812989,-0.047895879,-0.74446821,-0.12985152,0.65490878,0
1.8914524,-0.36435986,0.95883048,0.4554252,-0.81603861,0.35590562,0
1.6993222,0.99809861,3.1623852,0.48821601,0.56322241,0.66665256,0
2.3685703,0.99842405,2.6719933,0.48821601,0.56322241,0.66665256,0
0.018819094,-1.9839638,-1.8989064,0.74446821,0.12985152,-0.65490878,0
1.745086,-0.20014453,0.41711462,0.74446821,0.12985152,-0.65490878,0
-1.4127873,-0.074236602,-2.576978,-0.4554252,0.81603861,-0.35590562,0
-0.64266878,-0.49399865,0.69842839,-0.74446821,-0.12985152,0.65490878,0
1.6015885,-0.18869138,0.25626481,0.74446821,0.12985152,-0.65490878,0
1.2267752,2.2872941,2.419271,0.48821601,0.56322241,0.66665256,0
-1.7480052,0.33632541,-0.39343181,-0.74446821,-0.12985152,0.65490878,0
-0.33461228,-0.61310649,-2.0288641,0.74446821,0.12985152,-0.65490878,0
-0.83649206,-2.8419023,-1.2310647,0.4554252,-0.81603861,0.35590562,0
0.40922451,2.8381467,2.5526071,0.48821601,0.56322241,0.66665256,0
-1.3061152,-1.7618259,-2.8051102,-0.48821601,-0.56322241,-0.66665256,0
-0.35356462,1.9067372,0.60969388,-0.4554252,0.81603861,-0.35590562,0
1.1673642,-1.1397405,0.10755804,0.4554252,-0.81603861,0.35590562,0
-1.0161973,-2.7933648,-0.88981974,0.4554252,-0.81603861,0.35590562,0
1.1608524,3.0331626,1.2545363,-0.4554252,0.81603861,-0.35590562,0
-1.4525063,-0.9190712,-0.30643606,-0.74446821,-0.12985152,0.65490878,0
0.13004842,0.14404804,-1.3505363,0.74446821,0.12985152,-0.65490878,0
1.7930446,0.94188625,0.69806713,0.74446821,0.12985152,-0.65490878,0
-0.3230617,-2.4886501,-1.0781068,0.4554252,-0.81603861,0.35590562,0
0.23051476,-1.2896495,-1.5205964,0.74446821,0.12985152,-0.65490878,0
-1.5090566,-1.6977031,-2.7106621,-0.48821601,-0.56322241,-0.66665256,0
0.67278898,2.3877807,2.7400811,0.48821601,0.56322241,0.66665256,0
-0.81648648,-2.5936308,-2.460933,-0.48821601,-0.56322241,-0.66665256,0
-0.87464595,-2.9505579,-1.4313729,0.4554252,-0.81603861,0.35590562,0
2.2613463,1.8111491,2.0638857,0.48821601,0.56322241,0.66665256,0
-0.20964837,-0.4087657,-1.8462956,0.74446821,0.12985152,-0.65490878,0
-1.6488832,-1.7946023,-2.5263963,-0.48821601,-0.56322241,-0.66665256,0
-1.6375949,-2.9893565,-1.5252731,-0.48821601,-0.56322241,-0.66665256,0
2.1926155,1.8859649,2.051012,0.48821601,0.56322241,0.66665256,0
1.447023,2.3594551,2.1970096,0.48821601,0.56322241,0.66665256,0
1.4199932,0.18793634,2.828454,0.4554252,-0.81603861,0.35590562,0
1.4893929,1.3725464,2.9997718,0.48821601,0.56322241,0.66665256,0
3.0488014,0.89000356,2.2654326,0.48821601,0.56322241,0.66665256,0
1.932773,1.2841324,2.7497637,0.48821601,0.56322241,0.66665256,0
1.1903816,1.414968,3.1606493,-0.74446821,-0.12985152,0.65490878,0
-1.1442939,0.66911823,-1.2161465,-0.4554252,0.81603861,-0.35590562,0
2.3634348,1.6657472,2.1119654,0.48821601,0.56322241,0.66665256,0
-1.8660698,-1.1626654,-2.9012349,-0.48821601,-0.56322241,-0.66665256,0
-0.14901215,-0.85524744,-1.8658931,0.74446821,0.12985152,-0.65490878,0
-0.95455468,-3.0837643,-1.9457295,-0.48821601,-0.56322241,-0.66665256,0
0.29256845,2.0507727,0.11313915,-0.4554252,0.81603861,-0.35590562,0
-0.14452374,-1.6869483,0.53161526,0.4554252,-0.81603861,0.35590562,0
0.51315081,-1.6073688,-0.12749708,0.4554252,-0.81603861,0.35590562,0
0.17393315,-2.4351211,-1.591339,0.4554252,-0.81603861,0.35590562,0
0.11815405,1.700985,1.9985032,-0.74446821,-0.12985152,0.65490878,0
-1.280445,0.62179399,-1.1504316,-0.4554252,0.81603861,-0.35590562,0
-1.943197,-2.9933407,-1.2981026,-0.48821601,-0.56322241,-0.66665256,0
-1.2540058,-2.275074,-0.34965098,-0.74446821,-0.12985152,0.65490878,0
-0.65303242,1.5669626,1.095283,-0.74446821,-0.12985152,0.65490878,0
-0.78934622,1.70056,0.69459671,-0.4554252,0.81603861,-0.35590562,0
-1.1840842,-0.82256949,0.017826736,-0.74446821,-0.12985152,0.65490878,0
-1.1574205,-2.9137151,-1.9408295,-0.48821601,-0.56322241,-0.66665256,0
-0.62496853,-1.0006225,-2.4357615,0.74446821,0.12985152,-0.65490878,0
-0.27314472,-2.824276,-1.9115224,0.4554252,-0.81603861,0.35590562,0
1.7738395,1.4565099,2.7205238,0.48821601,0.56322241,0.66665256,0
0.36253002,0.95134008,2.1276627,-0.74446821,-0.12985152,0.65490878,0
0.19029716,-0.096630514,1.7240912,-0.74446821,-0.12985152,0.65490878,0
1.3031185,-0.30046958,-0.10518424,0.74446821,0.12985152,-0.65490878,0
1.8865134,2.124882,2.0733333,0.48821601,0.56322241,0.66665256,0
1.9241161,2.3184707,1.8822411,0.48821601,0.56322241,0.66665256,0
-0.89785123,-1.9033453,0.12891227,-0.74446821,-0.12985152,0.65490878,0
-2.354351,-0.12785488,-1.4950697,-0.4554252,0.81603861,-0.35590562,0
-0.20255408,-0.38150495,1.2210339,-0.74446821,-0.12985152,0.65490878,0
0.71890807,-1.5111108,-0.1700837,0.4554252,-0.81603861,0.35590562,0
-1.7495179,-3.0452704,-1.3960685,-0.48821601,-0.56322241,-0.66665256,0
-0.92248905,-2.9208543,-2.1068478,-0.48821601,-0.56322241,-0.66665256,0
0.04529798,-1.6144489,0.45494494,0.4554252,-0.81603861,0.35590562,0
-2.0034895,-2.3692746,-1.7811912,-0.48821601,-0.56322241,-0.66665256,0
1.4922942,2.763231,1.8227252,0.48821601,0.56322241,0.66665256,0
-0.97100598,-1.6001687,-2.9479942,0.74446821,0.12985152,-0.65490878,0
0.50188684,2.8345892,1.6424648,-0.4554252,0.81603861,-0.35590562,0
-2.2593851,-2.2028975,-1.4782063,-0.74446821,-0.12985152,0.65490878,0
-0.12933254,1.2067239,1.6191735,-0.74446821,-0.12985152,0.65490878,0
-2.0967221,-1.3713679,-2.5559964,-0.48821601,-0.56322241,-0.66665256,0
1.1388716,2.5960152,2.2228229,0.48821601,0.56322241,0.66665256,0
0.0033956766,-2.1152387,-0.63967228,0.4554252,-0.81603861,0.35590562,0
-1.3591466,-2.5034678,-2.1396956,-0.48821601,-0.56322241,-0.66665256,0
-0.36157316,-1.2986512,-2.1954377,0.74446821,0.12985152,-0.65490878,0
-0.57472396,0.74887818,-1.7621039,-0.4554252,0.81603861,-0.35590562,0
-0.66586113,-2.9895484,-2.2367501,-0.48821601,-0.56322241,-0.66665256,0
-1.6240672,-0.19999379,-2.5949619,-0.4554252,0.81603861,-0.35590562,0
1.8493394,-0.33676523,1.0759896,0.4554252,-0.81603861,0.35590562,0
-2.852324,-0.66498494,-2.0894113,-0.4554252,0.81603861,-0.35590562,0
-0.74724281,0.54381913,-2.0115147,-0.4554252,0.81603861,-0.35590562,0
-1.0982172,0.81118202,0.43936703,-0.74446821,-0.12985152,0.65490878,0
-0.63793814,-2.779984,-1.3431689,0.4554252,-0.81603861,0.35590562,0
0.41424328,1.0625441,2.2084966,-0.74446821,-0.12985152,0.65490878,0
-1.2760166,-3.1488726,-1.655304,-0.48821601,-0.56322241,-0.66665256,0
0.083434641,-0.95746899,-1.6219273,0.74446821,0.12985152,-0.65490878,0
0.24614525,-1.7849867,-1.601041,0.74446821,0.12985152,-0.65490878,0
0.28231955,2.9093542,2.0948532,-0.4554252,0.81603861,-0.35590562,0
-0.063041806,2.2272916,0.97291803,-0.4554252,0.81603861,-0.35590562,0
2.2544096,2.0087099,1.9020563,0.48821601,0.56322241,0.66665256,0
2.0761068,2.0818028,1.9708818,0.48821601,0.56322241,0.66665256,0
1.3898335,3.0157101,0.92151129,-0.4554252,0.81603861,-0.35590562,0
1.9127693,1.4570367,2.6183348,0.48821601,0.56322241,0.66665256,0
1.3722746,3.2058625,1.3799706,-0.4554252,0.81603861,-0.35590562,0
2.0985599,2.2486572,1.3044609,0.74446821,0.12985152,-0.65490878,0
-1.1570044,0.93362939,0.39681888,-0.74446821,-0.12985152,0.65490878,0
1.1331618,2.6079464,2.2169247,0.48821601,0.56322241,0.66665256,0
-2.2620156,-1.0584135,-2.6993454,-0.48821601,-0.56322241,-0.66665256,0
-1.7812774,-1.0340439,-3.0719976,-0.48821601,-0.56322241,-0.66665256,0
-0.92788196,-1.8421612,0.10690594,-0.74446821,-0.12985152,0.65490878,0
1.9034064,0.87129837,0.80952501,0.74446821,0.12985152,-0.65490878,0
1.6692785,-0.41173315,1.1345096,0.4554252,-0.81603861,0.35590562,0
0.072831631,-1.6785061,0.27283847,0.4554252,-0.81603861,0.35590562,0
-1.1556311,-2.6722593,-0.43372035,0.4554252,-0.81603861,0.35590562,0
0.92831415,0.049607873,-0.46183196,0.74446821,0.12985152,-0.65490878,0
-0.24242139,1.776891,0.16975445,-0.4554252,0.81603861,-0.35590562,0
2.4487903,1.7222273,2.001739,0.48821601,0.56322241,0.66665256,0
1.8035154,3.2422605,1.1900969,0.48821601,0.56322241,0.66665256,0
-2.0991535,-0.23251668,-2.0616004,-0.4554252,0.81603861,-0.35590562,0
-0.93653589,-1.7757831,-2.9436307,0.74446821,0.12985152,-0.65490878,0
1.1557338,-0.60803866,1.3415539,0.4554252,-0.81603861,0.35590562,0
-2.3292689,-1.2031971,-2.5277727,-0.48821601,-0.56322241,-0.66665256,0
0.41989094,-0.088513315,1.9866915,-0.74446821,-0.12985152,0.65490878,0
-0.75976443,-2.9405928,-2.209341,-0.48821601,-0.56322241,-0.66665256,0
-2.0258641,0.37813628,-0.70099837,-0.74446821,-0.12985152,0.65490878,0
-0.37266374,2.1423619,1.5280795,-0.74446821,-0.12985152,0.65490878,0
0.66424167,-0.40417156,-0.85198951,0.74446821,0.12985152,-0.65490878,0
1.7159338,1.8580215,2.4237127,0.48821601,0.56322241,0.66665256,0
1.0453385,0.12905252,2.7408075,-0.74446821,-0.12985152,0.65490878,0
-2.4576883,-1.1095781,-2.51282,-0.48821601,-0.56322241,-0.66665256,0
0.46238661,2.3855927,0.66352808,-0.4554252,0.81603861,-0.35590562,0
1.3355191,0.78554648,3.2008362,-0.74446821,-0.12985152,0.65490878,0
-0.8487345,-2.6787972,-2.3653634,-0.48821601,-0.56322241,-0.66665256,0
-1.8571925,-1.0989051,-2.9616039,-0.48821601,-0.56322241,-0.66665256,0
0.30749691,2.1115458,0.23337984,-0.4554252,0.81603861,-0.35590562,0
0.41489226,0.36496907,2.0709231,-0.74446821,-0.12985152,0.65490878,0
-2.0653398,-1.7268982,-2.2786086,-0.48821601,-0.56322241,-0.66665256,0
1.3512958,2.9437823,0.80590463,-0.4554252,0.81603861,-0.35590562,0
0.48597896,2.6213238,1.1738354,-0.4554252,0.81603861,-0.35590562,0
-1.4728081,-0.96769106,-3.35396,-0.48821601,-0.56322241,-0.66665256,0
0.035279259,-0.55121773,1.4577415,-0.74446821,-0.12985152,0.65490878,0
-1.3067384,0.53271914,0.1471183,-0.74446821,-0.12985152,0.65490878,0
-0.81851959,0.48075986,-2.0648925,-0.4554252,0.81603861,-0.35590562,0
0.3604593,0.32036161,-1.0536581,0.74446821,0.12985152,-0.65490878,0
1.1954353,1.7952638,2.8579149,0.48821601,0.56322241,0.66665256,0
-0.21663499,2.4268148,1.626936,-0.4554252,0.81603861,-0.35590562,0
-0.49664092,-2.3635836,-0.56923175,0.4554252,-0.81603861,0.35590562,0
