-2.7772298,-1.3483161,-1.3968542,-0.9485395,0.27037761,-0.16482985,0
-1.8938904,-1.4895039,-1.8385079,-0.084745646,-0.71829087,-0.69056249,0
-2.1396701,2.2234068,0.79306543,-0.9485395,0.27037761,-0.16482985,0
-2.0047622,-1.0295807,-0.38579082,-0.30510837,-0.64105725,0.70424056,0
1.9537046,1.6213961,1.693979,0.084745646,0.71829087,0.69056249,0
0.20982432,-2.2926917,-0.57612026,-0.30510837,-0.64105725,0.70424056,0
-0.35104251,-2.3228939,-1.160992,-0.084745646,-0.71829087,-0.69056249,0
-0.31819338,0.79157412,-0.8372699,0.30510837,0.64105725,-0.70424056,0
1.8115132,-0.14080614,-0.7633146,0.30510837,0.64105725,-0.70424056,0
0.82007957,-1.607142,-2.0492034,-0.084745646,-0.71829087,-0.69056249,0
0.73460001,-1.852133,0.052268445,-0.30510837,-0.64105725,0.70424056,0
-1.7624292,-0.77887386,-2.5938051,-0.084745646,-0.71829087,-0.69056249,0
1.9956666,-1.9732972,0.44589257,0.9485395,-0.27037761,0.16482985,0
-0.93469131,-0.71677488,-2.477386,0.30510837,0.64105725,-0.70424056,0
-2.2338884,-0.14706051,-2.5216558,0.30510837,0.64105725,-0.70424056,0
-1.6205617,2.5214336,1.1964347,0.084745646,0.71829087,0.69056249,0
2.126708,-1.6072367,0.29225945,0.9485395,-0.27037761,0.16482985,0
-2.4187069,-0.49975097,-2.06809,-0.9485395,0.27037761,-0.16482985,0
-1.4008588,2.6312773,0.36831915,0.30510837,0.64105725,-0.70424056,0
1.5765039,-2.7936764,-0.44005072,-0.30510837,-0.64105725,0.70424056,0
-1.6070504,1.2363017,1.8491063,-0.30510837,-0.64105725,0.70424056,0
-1.5272183,2.8489728,0.84428865,0.084745646,0.71829087,0.69056249,0
-1.0015552,-2.2217937,-1.0364063,-0.30510837,-0.64105725,0.70424056,0
0.065626144,2.2239985,1.2988844,0.084745646,0.71829087,0.69056249,0
0.50996804,1.2246526,-0.084250122,0.30510837,0.64105725,-0.70424056,0
-1.916669,-0.48173434,0.15106928,-0.30510837,-0.64105725,0.70424056,0
0.4979229,1.7376316,0.37748659,0.30510837,0.64105725,-0.70424056,0
2.5352879,0.26808035,1.0171881,0.9485395,-0.27037761,0.16482985,0
2.1727359,-2.4358118,-1.3317649,0.9485395,-0.27037761,0.16482985,0
0.53952372,-0.87324917,-1.9811264,0.30510837,0.64105725,-0.70424056,0
0.42390227,2.0628147,0.64142597,0.30510837,0.64105725,-0.70424056,0
-0.86620951,-1.7324075,-1.7119673,-0.084745646,-0.71829087,-0.69056249,0
-0.98430967,-2.2148583,-1.1956512,-0.084745646,-0.71829087,-0.69056249,0
-1.2177395,1.8970555,-0.22069395,0.30510837,0.64105725,-0.70424056,0
2.6424799,0.33039415,0.50254893,0.9485395,-0.27037761,0.16482985,0
2.2631726,-0.62514627,1.1179171,0.9485395,-0.27037761,0.16482985,0
-1.715579,1.7363884,-0.58263254,0.30510837,0.64105725,-0.70424056,0
1.2013839,0.35209966,2.2609723,-0.30510837,-0.64105725,0.70424056,0
1.1910385,0.14107835,2.0644014,-0.30510837,-0.64105725,0.70424056,0
-1.9717853,2.5203876,0.31409645,-0.9485395,0.27037761,-0.16482985,0
1.2135301,0.24068999,2.1648202,-0.30510837,-0.64105725,0.70424056,0
-1.9054861,-2.0039124,-1.302021,-0.084745646,-0.71829087,-0.69056249,0
-0.90284741,0.17183518,-1.6547048,0.30510837,0.64105725,-0.70424056,0
2.7945673,1.5358893,1.1888528,0.30510837,0.64105725,-0.70424056,0
0.19257092,-2.5701194,-0.83613223,-0.30510837,-0.64105725,0.70424056,0
-1.3123193,-1.2888719,-2.118566,-0.084745646,-0.71829087,-0.69056249,0
1.5119741,-1.4775279,0.73005784,-0.30510837,-0.64105725,0.70424056,0
1.6387486,1.6928288,1.6583298,0.084745646,0.71829087,0.69056249,0
2.4819725,-0.12569883,0.67806435,0.9485395,-0.27037761,0.16482985,0
-0.19958639,1.2524049,2.3420377,0.084745646,0.71829087,0.69056249,0
2.078248,-2.4824066,-0.86445117,0.9485395,-0.27037761,0.16482985,0
2.3068919,-0.64352292,0.8361845,0.9485395,-0.27037761,0.16482985,0
-2.3170371,0.62253773,-0.81222582,-0.9485395,0.27037761,-0.16482985,0
0.21954894,-1.6166452,-1.9656216,-0.084745646,-0.71829087,-0.69056249,0
-2.4750206,-0.52500236,-1.7854426,-0.9485395,0.27037761,-0.16482985,0
-1.0879279,0.65463638,-1.295405,0.30510837,0.64105725,-0.70424056,0
1.0763426,2.1442339,1.2578173,0.084745646,0.71829087,0.69056249,0
2.2650583,-0.94811511,0.57728672,0.9485395,-0.27037761,0.16482985,0
2.6114197,1.240818,0.84090757,0.30510837,0.64105725,-0.70424056,0
-2.4612422,1.7619779,1.9575458,-0.30510837,-0.64105725,0.70424056,0
1.9009753,-2.9571943,-0.62312162,0.9485395,-0.27037761,0.16482985,0
0.5880115,-1.5148878,-2.1166828,-0.084745646,-0.71829087,-0.69056249,0
-1.6120712,2.6039534,0.25194013,0.30510837,0.64105725,-0.70424056,0
2.3993502,-1.4854815,-1.0769852,0.9485395,-0.27037761,0.16482985,0
2.2104535,-0.043945432,-0.50230539,0.30510837,0.64105725,-0.70424056,0
-1.2902164,-0.7575261,0.1714282,-0.30510837,-0.64105725,0.70424056,0
-1.6466041,0.020076096,0.72486234,-0.30510837,-0.64105725,0.70424056,0
0.6698724,-0.36959291,1.3737547,-0.30510837,-0.64105725,0.70424056,0
-0.16020608,-0.7012713,0.71220672,-0.30510837,-0.64105725,0.70424056,0
0.54180956,2.3443878,1.1152241,0.084745646,0.71829087,0.69056249,0
-2.1981936,2.0108945,0.78125489,-0.9485395,0.27037761,-0.16482985,0
-1.0253258,-1.90804,-0.76110077,-0.30510837,-0.64105725,0.70424056,0
-1.2046688,-1.2237151,-2.1995502,-0.084745646,-0.71829087,-0.69056249,0
0.20434523,2.4176493,1.0804347,0.084745646,0.71829087,0.69056249,0
2.3199058,0.87264395,0.37946844,0.30510837,0.64105725,-0.70424056,0
-0.9935776,1.5443395,2.1358192,0.084745646,0.71829087,0.69056249,0
2.6760192,0.45349941,0.51147413,0.9485395,-0.27037761,0.16482985,0
-2.188477,2.1423459,0.94096649,-0.9485395,0.27037761,-0.16482985,0
-2.1070623,2.3962872,1.3863094,0.084745646,0.71829087,0.69056249,0
2.2475948,-1.808979,-2.014446,-0.084745646,-0.71829087,-0.69056249,0
1.2861563,-2.2393296,-1.4488282,-0.084745646,-0.71829087,-0.69056249,0
1.5188956,-2.9204552,-0.76891482,-0.084745646,-0.71829087,-0.69056249,0
2.3457239,-1.3568888,-0.55744696,0.9485395,-0.27037761,0.16482985,0
0.019857883,-1.8166754,-1.7330534,-0.084745646,-0.71829087,-0.69056249,0
-1.4072413,-0.092161834,0.72639674,-0.30510837,-0.64105725,0.70424056,0
-0.39022565,0.84166479,-0.8228808,0.30510837,0.64105725,-0.70424056,0
-1.8495736,2.7326593,1.004832,0.084745646,0.71829087,0.69056249,0
1.6623224,-2.781894,-0.93064064,-0.084745646,-0.71829087,-0.69056249,0
-0.88106596,-1.1017625,0.035338521,-0.30510837,-0.64105725,0.70424056,0
-1.1506023,-2.2386005,-1.1162792,-0.30510837,-0.64105725,0.70424056,0
1.8556468,-0.94958854,-1.4804137,0.30510837,0.64105725,-0.70424056,0
2.80217,1.3381304,1.2366214,0.9485395,-0.27037761,0.16482985,0
1.9755313,-2.8202353,-0.82750678,0.9485395,-0.27037761,0.16482985,0
-2.2869475,0.53642094,-1.1266408,-0.9485395,0.27037761,-0.16482985,0
-1.4635077,-1.4431071,-0.52772081,-0.30510837,-0.64105725,0.70424056,0
1.8089743,1.9414208,1.3788656,0.084745646,0.71829087,0.69056249,0
0.58530712,2.313714,1.1417918,0.084745646,0.71829087,0.69056249,0
1.4510959,1.4966893,0.57111847,0.30510837,0.64105725,-0.70424056,0
1.979033,-2.2306161,0.11952138,0.9485395,-0.27037761,0.16482985,0
-2.579627,0.66273463,0.76482868,-0.9485395,0.27037761,-0.16482985,0
-1.7234585,-2.0310993,-1.2960812,-0.084745646,-0.71829087,-0.69056249,0
-1.4596653,0.19773293,-1.8723688,0.30510837,0.64105725,-0.70424056,0
-1.9510007,-0.66032058,-0.02636826,-0.30510837,-0.64105725,0.70424056,0
-0.24506426,-2.102201,-0.59979779,-0.30510837,-0.64105725,0.70424056,0
0.87585223,-2.2536244,-1.3836071,-0.084745646,-0.71829087,-0.69056249,0
0.62040818,0.75775284,2.3785267,-0.30510837,-0.64105725,0.70424056,0
0.40040898,-1.4597251,-2.1510377,-0.084745646,-0.71829087,-0.69056249,0
-0.64569336,0.52458674,1.617748,-0.30510837,-0.64105725,0.70424056,0
0.99936932,1.0377903,-0.042316914,0.30510837,0.64105725,-0.70424056,0
-0.52791667,2.6270409,0.95249826,0.084745646,0.71829087,0.69056249,0
2.2931857,-0.68345404,0.84955835,0.9485395,-0.27037761,0.16482985,0
-2.5175581,-0.86163032,-2.0928404,-0.9485395,0.27037761,-0.16482985,0
1.869879,-2.459101,-1.2918663,-0.084745646,-0.71829087,-0.69056249,0
-2.6017098,-1.6637359,-1.2216749,-0.30510837,-0.64105725,0.70424056,0
-0.51012635,-1.9084978,-1.572505,-0.084745646,-0.71829087,-0.69056249,0
-2.2346129,2.2143025,1.3244956,-0.9485395,0.27037761,-0.16482985,0
-1.0532478,1.9318228,1.7400999,0.084745646,0.71829087,0.69056249,0
-2.756556,-0.80326933,-0.62175798,-0.9485395,0.27037761,-0.16482985,0
1.4163288,1.7030153,0.74387038,0.30510837,0.64105725,-0.70424056,0
2.4640844,-0.3848618,0.35588908,0.9485395,-0.27037761,0.16482985,0
2.0731144,-1.9793582,-0.0097358227,0.9485395,-0.27037761,0.16482985,0
-1.250827,1.7808079,1.9214253,0.084745646,0.71829087,0.69056249,0
0.95643139,1.3039979,2.146507,0.084745646,0.71829087,0.69056249,0
1.4280415,0.60831362,-0.24754167,0.30510837,0.64105725,-0.70424056,0
-2.2754066,-0.47227529,0.0042586327,-0.30510837,-0.64105725,0.70424056,0
-2.4494686,1.7364018,1.7769954,-0.9485395,0.27037761,-0.16482985,0
-0.29586363,-0.42132807,-1.9316779,0.30510837,0.64105725,-0.70424056,0
0.62738872,0.82291645,2.4408681,-0.30510837,-0.64105725,0.70424056,0
0.1336205,1.3327771,2.2175474,0.084745646,0.71829087,0.69056249,0
-2.4269333,1.9085945,1.9297676,-0.9485395,0.27037761,-0.16482985,0
-1.3369915,-2.0259717,-1.3488415,-0.084745646,-0.71829087,-0.69056249,0
-0.095460415,-1.7193191,-1.8201673,-0.084745646,-0.71829087,-0.69056249,0
1.8813106,0.58381325,-0.073467731,0.30510837,0.64105725,-0.70424056,0
-0.21145201,2.0344412,1.5300562,0.084745646,0.71829087,0.69056249,0
1.6772842,1.5420673,1.8104155,0.084745646,0.71829087,0.69056249,0
1.3105857,-1.1347041,-1.8850656,0.30510837,0.64105725,-0.70424056,0
2.4823363,1.8301693,1.3214583,0.30510837,0.64105725,-0.70424056,0
1.3470408,-2.4883387,-0.2615211,-0.30510837,-0.64105725,0.70424056,0
-2.7267299,-0.5787763,-0.4251492,-0.9485395,0.27037761,-0.16482985,0
-2.1185036,2.0169387,1.7822939,0.084745646,0.71829087,0.69056249,0
-1.1752217,1.8305149,-0.26284409,0.30510837,0.64105725,-0.70424056,0
2.4795566,-0.71053237,-0.2673614,0.9485395,-0.27037761,0.16482985,0
-2.5351477,-0.12995517,-0.79142022,-0.9485395,0.27037761,-0.16482985,0
2.524148,1.7725921,1.4667077,0.084745646,0.71829087,0.69056249,0
-0.14079475,-2.1445379,-1.3723111,-0.084745646,-0.71829087,-0.69056249,0
2.5457957,0.24687929,0.92193913,0.9485395,-0.27037761,0.16482985,0
0.64388871,1.228065,2.263844,0.084745646,0.71829087,0.69056249,0
1.1907823,0.91454607,2.5228372,0.084745646,0.71829087,0.69056249,0
2.1663253,-0.7469635,1.4754193,0.9485395,-0.27037761,0.16482985,0
-1.1898334,-1.2165852,-2.2087867,-0.084745646,-0.71829087,-0.69056249,0
2.668237,1.5926658,1.6361759,0.084745646,0.71829087,0.69056249,0
-0.3679564,0.045869589,-1.5376304,0.30510837,0.64105725,-0.70424056,0
2.3909261,-1.3116707,-0.74339795,0.9485395,-0.27037761,0.16482985,0
0.18117619,-2.5866339,-0.95197564,-0.084745646,-0.71829087,-0.69056249,0
-2.236074,0.19954753,-1.9719889,-0.9485395,0.27037761,-0.16482985,0
0.15085506,-1.8937912,-0.23855624,-0.30510837,-0.64105725,0.70424056,0
1.9785049,1.9103,1.3904316,0.084745646,0.71829087,0.69056249,0
-2.0962157,1.4350947,-0.75010467,-0.9485395,0.27037761,-0.16482985,0
-0.28352046,-2.3708048,-1.1194435,-0.084745646,-0.71829087,-0.69056249,0
-1.4509957,0.29145539,1.05664,-0.30510837,-0.64105725,0.70424056,0
-1.8875988,2.0784974,1.6899269,0.084745646,0.71829087,0.69056249,0
-1.0875471,-2.0046854,-0.87603223,-0.30510837,-0.64105725,0.70424056,0
0.32166606,-0.42385054,1.1735065,-0.30510837,-0.64105725,0.70424056,0
0.52431941,-2.0187314,-1.5847917,-0.084745646,-0.71829087,-0.69056249,0
2.0007293,-0.56008399,-1.0629987,0.30510837,0.64105725,-0.70424056,0
-1.6526335,1.8165507,-0.48239148,0.30510837,0.64105725,-0.70424056,0
2.7332449,0.57587993,0.28840685,0.30510837,0.64105725,-0.70424056,0
0.52428782,-0.1571036,-1.3358332,0.30510837,0.64105725,-0.70424056,0
-2.1944447,1.5726571,0.040820837,-0.9485395,0.27037761,-0.16482985,0
-1.3123012,-1.6218742,-0.62493968,-0.30510837,-0.64105725,0.70424056,0
2.5983548,0.8538841,1.6151781,0.9485395,-0.27037761,0.16482985,0
2.5177896,-0.11133614,0.49550939,0.9485395,-0.27037761,0.16482985,0
-2.4300463,1.0320038,0.50977123,-0.9485395,0.27037761,-0.16482985,0
2.5226021,-0.45021483,-0.088062763,0.9485395,-0.27037761,0.16482985,0
-1.9700768,-0.71618211,-2.6335313,-0.084745646,-0.71829087,-0.69056249,0
0.79256737,-2.4522562,-1.1667787,-0.084745646,-0.71829087,-0.69056249,0
-0.83562171,-1.5388464,-0.34284228,-0.30510837,-0.64105725,0.70424056,0
1.116873,-1.4205652,-2.2292047,0.30510837,0.64105725,-0.70424056,0
-0.038623929,1.4846671,-0.085238233,0.30510837,0.64105725,-0.70424056,0
-2.1466782,2.3155875,0.98460209,-0.9485395,0.27037761,-0.16482985,0
-2.4363048,0.28949738,-0.67218113,-0.9485395,0.27037761,-0.16482985,0
-1.622951,3.0000005,0.69894493,0.084745646,0.71829087,0.69056249,0
1.5496089,1.9990436,1.3507586,0.084745646,0.71829087,0.69056249,0
-1.6778929,-1.4393102,-1.917224,-0.084745646,-0.71829087,-0.69056249,0
-1.5503989,1.8026563,-0.45074677,0.30510837,0.64105725,-0.70424056,0
2.3825448,0.044167161,1.5288749,0.9485395,-0.27037761,0.16482985,0
-2.1597695,2.2487175,0.95024872,-0.9485395,0.27037761,-0.16482985,0
0.42671108,-0.973665,-2.1214087,0.30510837,0.64105725,-0.70424056,0
-1.1486568,-1.0992099,-2.3359282,-0.084745646,-0.71829087,-0.69056249,0
-2.6959949,-0.89618218,-1.1226757,-0.9485395,0.27037761,-0.16482985,0
-2.1534221,2.1175711,0.69859612,-0.9485395,0.27037761,-0.16482985,0
-0.077748537,-2.3301406,-1.1869926,-0.084745646,-0.71829087,-0.69056249,0
-0.56374431,-2.2367938,-1.2244468,-0.084745646,-0.71829087,-0.69056249,0
2.5828063,-0.56191337,-0.6177417,0.9485395,-0.27037761,0.16482985,0
0.74533492,0.13993335,-0.96967852,0.30510837,0.64105725,-0.70424056,0
-0.36089534,0.82369113,-0.82653475,0.30510837,0.64105725,-0.70424056,0
-2.5741975,-0.17756763,-0.64480281,-0.9485395,0.27037761,-0.16482985,0
2.3228338,-0.51062411,0.96244407,0.9485395,-0.27037761,0.16482985,0
-1.8436778,-1.2267908,-2.1179321,-0.084745646,-0.71829087,-0.69056249,0
2.4518783,0.71744353,2.2342937,0.9485395,-0.27037761,0.16482985,0
-1.0528696,2.7432568,0.89603758,0.084745646,0.71829087,0.69056249,0
-0.53059238,0.17737365,-1.4883857,0.30510837,0.64105725,-0.70424056,0
0.23001361,2.1860411,1.3181927,0.084745646,0.71829087,0.69056249,0
-1.9637753,2.7821481,0.69737875,-0.9485395,0.27037761,-0.16482985,0
-1.5759861,-0.83517116,-0.023058534,-0.30510837,-0.64105725,0.70424056,0
2.660213,0.82527661,1.2122786,0.9485395,-0.27037761,0.16482985,0
-2.5603004,0.6876415,0.69446564,-0.9485395,0.27037761,-0.16482985,0
2.283865,-2.1340909,-1.4763501,0.9485395,-0.27037761,0.16482985,0
-1.0853095,-0.86413091,-2.5882206,-0.084745646,-0.71829087,-0.69056249,0
-2.6872563,-0.86856371,-1.1276619,-0.9485395,0.27037761,-0.16482985,0
-1.5825982,2.4176414,1.2997355,0.084745646,0.71829087,0.69056249,0
-0.63649684,-0.24233603,0.92361689,-0.30510837,-0.64105725,0.70424056,0
-2.7017939,-0.93615389,-1.1548719,-0.9485395,0.27037761,-0.16482985,0
-1.589932,1.8901532,1.8493041,0.084745646,0.71829087,0.69056249,0
2.2467294,-1.7604227,-0.649701,0.9485395,-0.27037761,0.16482985,0
2.3916116,0.12468791,1.6087821,0.9485395,-0.27037761,0.16482985,0
2.2479868,-2.168443,-1.6405962,-0.084745646,-0.71829087,-0.69056249,0
-2.2251446,-0.56961668,-2.7546799,-0.084745646,-0.71829087,-0.69056249,0
2.0124426,-1.2196125,1.1816585,-0.30510837,-0.64105725,0.70424056,0
-2.687336,-0.68211234,-0.82135487,-0.9485395,0.27037761,-0.16482985,0
2.4229207,-1.1585889,-0.67640781,0.9485395,-0.27037761,0.16482985,0
-0.55578685,0.88959587,-0.85097855,0.30510837,0.64105725,-0.70424056,0
0.017779589,-0.90606916,-2.2370443,0.30510837,0.64105725,-0.70424056,0
2.3141754,-1.9025241,-1.2709264,0.9485395,-0.27037761,0.16482985,0
-1.9381461,2.8454218,0.65368199,-0.9485395,0.27037761,-0.16482985,0
0.92153502,-1.0661526,-1.9912184,0.30510837,0.64105725,-0.70424056,0
2.4972959,0.81008077,2.1248853,0.9485395,-0.27037761,0.16482985,0
-2.2983453,1.9157201,1.2014756,-0.9485395,0.27037761,-0.16482985,0
2.0395892,0.28192258,-0.2796998,0.30510837,0.64105725,-0.70424056,0
2.0993364,-1.4468098,0.7129283,0.9485395,-0.27037761,0.16482985,0
-0.31048203,1.9805576,1.5982563,0.084745646,0.71829087,0.69056249,0
1.6324439,-0.3208127,1.8351871,-0.30510837,-0.64105725,0.70424056,0
1.7671328,-1.7209805,0.61899352,-0.30510837,-0.64105725,0.70424056,0
-2.1597388,2.0288038,1.7750126,0.084745646,0.71829087,0.69056249,0
-2.3293693,2.0549018,1.7686839,0.084745646,0.71829087,0.69056249,0
2.1959124,-0.57864952,1.5812483,0.9485395,-0.27037761,0.16482985,0
-2.3685336,-1.1769233,-2.1053915,-0.084745646,-0.71829087,-0.69056249,0
-2.1736386,0.61249471,-1.6539102,-0.9485395,0.27037761,-0.16482985,0
-0.52702045,-1.8380082,-0.48146409,-0.30510837,-0.64105725,0.70424056,0
-1.9158061,2.9431739,0.68546915,-0.9485395,0.27037761,-0.16482985,0
0.18771267,2.4871194,1.010216,0.084745646,0.71829087,0.69056249,0
-1.7915294,0.49410778,1.0935764,-0.30510837,-0.64105725,0.70424056,0
0.53186488,2.0417361,1.4312485,0.084745646,0.71829087,0.69056249,0
0.74295449,-2.431659,-1.1821144,-0.084745646,-0.71829087,-0.69056249,0
2.1505141,1.1841282,2.1246524,0.084745646,0.71829087,0.69056249,0
0.65546989,1.7493443,1.7202122,0.084745646,0.71829087,0.69056249,0
-2.699404,-0.50676179,-0.46427393,-0.9485395,0.27037761,-0.16482985,0
-0.73445874,-0.62234026,0.53526449,-0.30510837,-0.64105725,0.70424056,0
2.6135421,1.094855,1.9230547,0.9485395,-0.27037761,0.16482985,0
2.3321791,-1.2316332,-0.2740376,0.9485395,-0.27037761,0.16482985,0
0.094726562,-1.4640749,-2.1090002,-0.084745646,-0.71829087,-0.69056249,0
-1.4593577,-1.2398819,-2.1514788,-0.084745646,-0.71829087,-0.69056249,0
2.5934277,-0.54752213,-0.65525806,0.9485395,-0.27037761,0.16482985,0
2.0028095,-2.6366844,-0.68339765,0.9485395,-0.27037761,0.16482985,0
0.5773381,0.16852367,1.8235021,-0.30510837,-0.64105725,0.70424056,0
2.204613,-0.98252392,0.8686862,0.9485395,-0.27037761,0.16482985,0
2.3232856,-1.2110633,-0.18911862,0.9485395,-0.27037761,0.16482985,0
-2.7974973,-1.0101418,-0.72549677,-0.9485395,0.27037761,-0.16482985,0
2.3417127,-1.7125809,-1.9643661,0.30510837,0.64105725,-0.70424056,0
2.1715252,-1.5793252,0.080135584,0.9485395,-0.27037761,0.16482985,0
-2.1639047,-1.1965562,-2.1100819,-0.084745646,-0.71829087,-0.69056249,0
0.64173508,-2.5164099,-1.0815389,-0.084745646,-0.71829087,-0.69056249,0
-2.4120312,1.8989251,1.8281507,-0.9485395,0.27037761,-0.16482985,0
-1.3883055,0.50876367,-1.5583273,0.30510837,0.64105725,-0.70424056,0
2.3740501,-0.25409487,-0.62272298,0.30510837,0.64105725,-0.70424056,0
-0.030679226,1.74125,1.8128356,0.084745646,0.71829087,0.69056249,0
-1.9774424,2.8512886,0.88944244,-0.9485395,0.27037761,-0.16482985,0
2.1429915,-0.69109809,1.7013347,0.9485395,-0.27037761,0.16482985,0
-2.5500259,0.9948886,1.1393315,-0.9485395,0.27037761,-0.16482985,0
-0.55316615,1.8894424,1.7228119,0.084745646,0.71829087,0.69056249,0
1.6649195,-2.1419401,-1.5966097,-0.084745646,-0.71829087,-0.69056249,0
-2.4183581,-1.3527237,-1.9164176,-0.084745646,-0.71829087,-0.69056249,0
-1.9676659,0.67348337,-1.6593904,0.30510837,0.64105725,-0.70424056,0
-0.41897559,-0.091679811,-1.684943,0.30510837,0.64105725,-0.70424056,0
1.6104258,-0.24755102,-0.94760245,0.30510837,0.64105725,-0.70424056,0
-1.2591662,-0.26718998,-2.2087145,0.30510837,0.64105725,-0.70424056,0
-1.4316489,1.7183346,2.0085974,0.084745646,0.71829087,0.69056249,0
2.0744894,1.4800308,1.8261981,0.084745646,0.71829087,0.69056249,0
0.21031976,-2.388624,-1.1615127,-0.084745646,-0.71829087,-0.69056249,0
2.1681552,-0.62967849,1.6572769,0.9485395,-0.27037761,0.16482985,0
1.1231387,0.30299062,-0.65756905,0.30510837,0.64105725,-0.70424056,0
-2.448626,-1.3722695,-1.8923726,-0.084745646,-0.71829087,-0.69056249,0
-2.2502995,2.1628366,1.3303432,-0.9485395,0.27037761,-0.16482985,0
0.49331403,-1.7686687,-1.8410903,-0.084745646,-0.71829087,-0.69056249,0
2.1181424,-2.4384744,-1.3437877,-0.084745646,-0.71829087,-0.69056249,0
-2.1632614,-0.79309261,-0.23918891,-0.30510837,-0.64105725,0.70424056,0
2.2515917,-0.71739125,1.0332489,0.9485395,-0.27037761,0.16482985,0
-2.0701566,1.6823773,-0.49443698,-0.9485395,0.27037761,-0.16482985,0
-2.1118329,-0.95544255,-2.3672678,-0.084745646,-0.71829087,-0.69056249,0
0.99931908,0.10329437,1.946946,-0.30510837,-0.64105725,0.70424056,0
2.0927629,-1.9476889,-0.070858955,0.9485395,-0.27037761,0.16482985,0
0.60023022,1.7871407,1.6876771,0.084745646,0.71829087,0.69056249,0
0.63225102,2.2018771,0.85827756,0.30510837,0.64105725,-0.70424056,0
-1.789506,-1.5548115,-1.783388,-0.084745646,-0.71829087,-0.69056249,0
0.49227285,-2.2137575,-0.38189846,-0.30510837,-0.64105725,0.70424056,0
-2.5787885,0.7970717,0.9803623,-0.9485395,0.27037761,-0.16482985,0
2.419627,-0.63505733,0.20131874,0.9485395,-0.27037761,0.16482985,0
-1.5082951,-1.4980111,-1.876979,-0.084745646,-0.71829087,-0.69056249,0
2.5528934,-0.84156501,-0.90432835,0.9485395,-0.27037761,0.16482985,0
0.94406736,0.023920059,1.8507556,-0.30510837,-0.64105725,0.70424056,0
2.51829,-0.73968238,-1.0022534,0.30510837,0.64105725,-0.70424056,0
0.045707464,-1.8750411,-1.6755166,-0.084745646,-0.71829087,-0.69056249,0
-0.20099413,0.2246753,1.5374079,-0.30510837,-0.64105725,0.70424056,0
1.942363,-0.31574237,-0.86586583,0.30510837,0.64105725,-0.70424056,0
2.7253907,0.40092564,0.14112234,0.9485395,-0.27037761,0.16482985,0
0.80306959,0.40907192,2.1402657,-0.30510837,-0.64105725,0.70424056,0
-1.8975821,-1.6977475,-1.6214492,-0.084745646,-0.71829087,-0.69056249,0
0.61755097,-1.51334,-2.1219177,-0.084745646,-0.71829087,-0.69056249,0
1.6638372,-1.6742024,0.61682236,-0.30510837,-0.64105725,0.70424056,0
1.0262653,-1.4753115,-2.2116301,-0.084745646,-0.71829087,-0.69056249,0
2.5896916,-0.75193453,-0.98247206,0.30510837,0.64105725,-0.70424056,0
0.43543994,1.9322898,0.52761018,0.30510837,0.64105725,-0.70424056,0
-0.73664021,2.7509189,0.76499552,0.30510837,0.64105725,-0.70424056,0
0.79872417,1.84402,1.6041551,0.084745646,0.71829087,0.69056249,0
-1.597996,-0.29647118,0.45777428,-0.30510837,-0.64105725,0.70424056,0
-1.9854164,1.7516174,2.0419364,0.084745646,0.71829087,0.69056249,0
2.3129857,-0.52188885,1.0006392,0.9485395,-0.27037761,0.16482985,0
-1.0571373,1.9945022,-0.062410116,0.30510837,0.64105725,-0.70424056,0
-0.12906861,-2.3281569,-1.1827582,-0.084745646,-0.71829087,-0.69056249,0
0.3171041,1.7354964,1.7761403,0.084745646,0.71829087,0.69056249,0
1.8664887,0.36952609,-0.27495086,0.30510837,0.64105725,-0.70424056,0
2.5248749,-0.08608067,0.4961617,0.9485395,-0.27037761,0.16482985,0
0.9926793,-0.64635956,-1.5782659,0.30510837,0.64105725,-0.70424056,0
-2.5606713,-0.22578837,-0.80174088,-0.9485395,0.27037761,-0.16482985,0
-2.2745619,0.27932763,-1.6196382,-0.9485395,0.27037761,-0.16482985,0
1.2547374,-2.0622964,0.086307287,-0.30510837,-0.64105725,0.70424056,0
0.25898528,2.1270049,0.6284076,0.30510837,0.64105725,-0.70424056,0
-0.99730921,2.4824693,1.1604781,0.084745646,0.71829087,0.69056249,0
2.1629853,-1.9182549,-0.42668247,0.9485395,-0.27037761,0.16482985,0
-2.1204367,1.4621584,-0.5663271,-0.9485395,0.27037761,-0.16482985,0
-2.3566391,1.2232925,0.40111613,-0.9485395,0.27037761,-0.16482985,0
2.751651,1.0055565,0.68750763,0.30510837,0.64105725,-0.70424056,0
-2.6090448,-0.15730253,-0.41102672,-0.9485395,0.27037761,-0.16482985,0
2.2516434,-1.7283673,-0.62539959,0.9485395,-0.27037761,0.16482985,0
1.116236,-0.54407144,1.4083145,-0.30510837,-0.64105725,0.70424056,0
1.9943457,-2.0217814,0.37396336,0.9485395,-0.27037761,0.16482985,0
1.9356422,0.65015507,2.7064357,0.084745646,0.71829087,0.69056249,0
0.28299391,-2.1465468,-0.41138697,-0.30510837,-0.64105725,0.70424056,0
1.4377211,-2.3852322,-1.3156669,-0.084745646,-0.71829087,-0.69056249,0
2.241292,-1.6003283,-0.35580087,0.9485395,-0.27037761,0.16482985,0
2.2078269,-0.68271601,1.3419819,0.9485395,-0.27037761,0.16482985,0
2.4508052,1.6168652,1.6376879,0.084745646,0.71829087,0.69056249,0
-2.4084282,1.1089107,0.51151919,-0.9485395,0.27037761,-0.16482985,0
-0.32009697,-2.1521358,-1.3424044,-0.084745646,-0.71829087,-0.69056249,0
-1.7090652,1.7582893,2.0010829,0.084745646,0.71829087,0.69056249,0
0.14511085,1.7085739,0.19818221,0.30510837,0.64105725,-0.70424056,0
-0.4240725,-1.3320489,0.023703039,-0.30510837,-0.64105725,0.70424056,0
0.84160757,-0.29515207,-1.3240192,0.30510837,0.64105725,-0.70424056,0
-2.4441738,-0.07553187,0.29228926,-0.30510837,-0.64105725,0.70424056,0
-0.79040313,-0.70773536,-2.4066458,0.30510837,0.64105725,-0.70424056,0
-2.122987,1.0940286,-1.1555107,-0.9485395,0.27037761,-0.16482985,0
2.4225278,-1.2113281,-0.76065719,0.9485395,-0.27037761,0.16482985,0
-2.5985572,-1.0097324,-1.8696556,-0.9485395,0.27037761,-0.16482985,0
0.92726099,-1.2451782,-2.1517015,0.30510837,0.64105725,-0.70424056,0
1.0934372,-2.1148515,-1.5546541,-0.084745646,-0.71829087,-0.69056249,0
-2.2075064,1.8863826,0.63060534,-0.9485395,0.27037761,-0.16482985,0
1.8106866,-1.1634459,-1.6945628,0.30510837,0.64105725,-0.70424056,0
-1.5832931,2.1030252,1.6270701,0.084745646,0.71829087,0.69056249,0
0.23847127,-2.2940421,-1.263347,-0.084745646,-0.71829087,-0.69056249,0
1.3658044,2.1811235,1.1839238,0.084745646,0.71829087,0.69056249,0
-2.10026,-1.7095456,-1.584305,-0.084745646,-0.71829087,-0.69056249,0
-0.13694727,0.8927784,-0.66662169,0.30510837,0.64105725,-0.70424056,0
-0.38044298,0.53016269,1.7377422,-0.30510837,-0.64105725,0.70424056,0
-2.4188635,0.28837389,-0.77439284,-0.9485395,0.27037761,-0.16482985,0
-2.0124385,2.4132068,1.3570979,0.084745646,0.71829087,0.69056249,0
2.0775983,0.99132234,0.38252091,0.30510837,0.64105725,-0.70424056,0
2.4484231,1.0329074,2.2453856,0.084745646,0.71829087,0.69056249,0
-0.40491182,1.1768123,-0.52416486,0.30510837,0.64105725,-0.70424056,0
-2.3609097,0.42135662,-0.88975954,-0.9485395,0.27037761,-0.16482985,0
0.4362967,1.3757441,2.1357107,0.084745646,0.71829087,0.69056249,0
2.5021596,-0.61083716,-0.23389912,0.9485395,-0.27037761,0.16482985,0
-0.62353891,0.99071848,-0.78828192,0.30510837,0.64105725,-0.70424056,0
-2.1999023,-0.57403845,-0.055662632,-0.30510837,-0.64105725,0.70424056,0
0.39846635,1.210302,-0.1456207,0.30510837,0.64105725,-0.70424056,0
-2.0187409,1.7430263,-0.6908319,-0.9485395,0.27037761,-0.16482985,0
0.6964227,-1.4775227,0.37672925,-0.30510837,-0.64105725,0.70424056,0
-1.4249486,2.4489717,1.2478006,0.084745646,0.71829087,0.69056249,0
0.88531417,-0.032308698,1.774117,-0.30510837,-0.64105725,0.70424056,0
-1.8543984,1.6888998,2.0910938,0.084745646,0.71829087,0.69056249,0
-2.2672892,2.0196404,1.193223,-0.9485395,0.27037761,-0.16482985,0
1.1312928,-1.083625,0.92369246,-0.30510837,-0.64105725,0.70424056,0
-1.2517114,-1.4573398,-0.44891691,-0.30510837,-0.64105725,0.70424056,0
0.56612736,-1.5296113,0.27286404,-0.30510837,-0.64105725,0.70424056,0
-0.79966021,1.0000273,1.9838275,-0.30510837,-0.64105725,0.70424056,0
2.3574169,-1.8338974,-2.0020041,-0.084745646,-0.71829087,-0.69056249,0
-1.2639236,-2.1046264,-1.2759956,-0.084745646,-0.71829087,-0.69056249,0
-2.2853866,-0.38553131,-2.6479449,-0.9485395,0.27037761,-0.16482985,0
-2.0359552,2.6801343,0.9454118,-0.9485395,0.27037761,-0.16482985,0
0.771613,-2.4192841,-1.1985031,-0.084745646,-0.71829087,-0.69056249,0
0.29715347,-2.471313,-1.0861597,-0.084745646,-0.71829087,-0.69056249,0
2.1912611,-0.8224839,1.2080436,0.9485395,-0.27037761,0.16482985,0
-0.26453733,1.932987,0.22498333,0.30510837,0.64105725,-0.70424056,0
-2.3355646,0.27809536,-1.2706101,-0.9485395,0.27037761,-0.16482985,0
2.616607,1.074728,1.872402,0.9485395,-0.27037761,0.16482985,0
-0.18683434,-2.1776495,-0.64324927,-0.30510837,-0.64105725,0.70424056,0
2.3429101,-1.4732654,-0.73215163,0.9485395,-0.27037761,0.16482985,0
-2.4362004,-0.58624941,-2.1093094,-0.9485395,0.27037761,-0.16482985,0
0.29500294,-2.3795288,-0.61826324,-0.30510837,-0.64105725,0.70424056,0
2.4648871,1.1411679,0.68671346,0.30510837,0.64105725,-0.70424056,0
-2.1877029,-1.0153368,-2.2956579,-0.084745646,-0.71829087,-0.69056249,0
-2.1191745,2.2297165,0.68546951,-0.9485395,0.27037761,-0.16482985,0
0.24697185,2.3865526,1.1075487,0.084745646,0.71829087,0.69056249,0
2.4454284,-1.1340932,-0.7657516,0.9485395,-0.27037761,0.16482985,0
-2.2982006,0.37582886,-1.3253102,-0.9485395,0.27037761,-0.16482985,0
1.5143018,-1.9225178,-1.8063589,-0.084745646,-0.71829087,-0.69056249,0
-1.9364332,-0.0189538,-2.2761719,0.30510837,0.64105725,-0.70424056,0
-1.8423792,1.2126058,1.7255816,-0.30510837,-0.64105725,0.70424056,0
-0.99408484,1.281208,-0.6843915,0.30510837,0.64105725,-0.70424056,0
-2.1950595,-0.53204679,-2.7974508,-0.084745646,-0.71829087,-0.69056249,0
0.36176109,-2.5062971,-1.0576994,-0.084745646,-0.71829087,-0.69056249,0
0.71376491,2.0953593,0.79663199,0.30510837,0.64105725,-0.70424056,0
2.5031767,0.59309369,1.7351122,0.9485395,-0.27037761,0.16482985,0
2.3716729,-1.5825676,-1.0769652,0.9485395,-0.27037761,0.16482985,0
-2.788363,-1.1694471,-1.039377,-0.9485395,0.27037761,-0.16482985,0
1.8925709,0.94071007,0.25628746,0.30510837,0.64105725,-0.70424056,0
2.6237085,1.5816745,1.6530731,0.084745646,0.71829087,0.69056249,0
-2.1205661,1.4478167,-0.58910704,-0.9485395,0.27037761,-0.16482985,0
-0.26622701,-0.90597433,-2.3600025,0.30510837,0.64105725,-0.70424056,0
-0.92515266,-1.7548618,-0.57826579,-0.30510837,-0.64105725,0.70424056,0
-0.31811774,-1.7738383,-0.33254531,-0.30510837,-0.64105725,0.70424056,0
2.254529,-1.4628282,-0.20642781,0.9485395,-0.27037761,0.16482985,0
-1.3605535,-2.115823,-1.2524906,-0.084745646,-0.71829087,-0.69056249,0
-0.50355494,-1.4556419,-0.12323654,-0.30510837,-0.64105725,0.70424056,0
-2.4019322,-0.051288605,-1.4289894,-0.9485395,0.27037761,-0.16482985,0
-0.75856972,-0.94051486,-2.5488663,-0.084745646,-0.71829087,-0.69056249,0
-1.9581748,-0.029634595,0.54462528,-0.30510837,-0.64105725,0.70424056,0
0.68059373,-2.2069979,-0.29415643,-0.30510837,-0.64105725,0.70424056,0
1.3585792,-1.6438642,-2.077091,-0.084745646,-0.71829087,-0.69056249,0
2.5117803,1.4568181,0.99435973,0.30510837,0.64105725,-0.70424056,0
-1.3125546,2.537956,0.32162774,0.30510837,0.64105725,-0.70424056,0
-0.11625242,1.9673656,1.5881424,0.084745646,0.71829087,0.69056249,0
-2.2701089,1.6149429,0.54560637,-0.9485395,0.27037761,-0.16482985,0
1.4415923,0.11336952,-0.69220936,0.30510837,0.64105725,-0.70424056,0
2.371882,-2.0151284,-1.8152714,-0.084745646,-0.71829087,-0.69056249,0
1.9586692,-2.6606386,-1.0931326,-0.084745646,-0.71829087,-0.69056249,0
-0.055109739,-1.660877,-1.8859076,-0.084745646,-0.71829087,-0.69056249,0
-2.104943,2.2686043,0.66736245,-0.9485395,0.27037761,-0.16482985,0
-2.1134214,2.5400829,1.1614718,-0.9485395,0.27037761,-0.16482985,0
2.361567,-0.64981496,0.5112257,0.9485395,-0.27037761,0.16482985,0
-2.4806867,0.29870665,-0.40167284,-0.9485395,0.27037761,-0.16482985,0
2.4296246,1.5133417,1.0102186,0.30510837,0.64105725,-0.70424056,0
2.6084733,0.62876689,1.1876791,0.9485395,-0.27037761,0.16482985,0
-2.8052452,-1.5483305,-1.5637236,-0.9485395,0.27037761,-0.16482985,0
2.6228514,1.4123025,1.8293509,0.084745646,0.71829087,0.69056249,0
-0.78641248,-0.81640893,-2.5038404,0.30510837,0.64105725,-0.70424056,0
2.3768439,1.4136425,1.8581471,0.084745646,0.71829087,0.69056249,0
1.7915217,0.021866202,-0.62389827,0.30510837,0.64105725,-0.70424056,0
2.7590666,1.413682,1.6085978,0.9485395,-0.27037761,0.16482985,0
-0.75599778,1.7437832,1.8992114,0.084745646,0.71829087,0.69056249,0
1.4987409,1.4408331,1.9376254,0.084745646,0.71829087,0.69056249,0
1.2587804,1.7274827,0.69788575,0.30510837,0.64105725,-0.70424056,0
-0.39928487,-0.066650867,1.1863105,-0.30510837,-0.64105725,0.70424056,0
-2.2099168,2.118057,1.0245013,-0.9485395,0.27037761,-0.16482985,0
-2.3854327,1.7637244,1.4533093,-0.9485395,0.27037761,-0.16482985,0
2.3735313,0.45800126,2.2595761,0.9485395,-0.27037761,0.16482985,0
2.2340949,1.8045628,1.4690483,0.084745646,0.71829087,0.69056249,0
-1.1152165,-1.6794786,-1.7364631,-0.084745646,-0.71829087,-0.69056249,0
-0.71919155,2.170433,1.4509132,0.084745646,0.71829087,0.69056249,0
-2.4013791,0.15347815,-1.0962858,-0.9485395,0.27037761,-0.16482985,0
-2.2868912,0.13458055,0.55169261,-0.30510837,-0.64105725,0.70424056,0
-2.2525988,-0.040644526,-2.2708952,-0.9485395,0.27037761,-0.16482985,0
-2.2566986,1.2958167,-0.055042505,-0.9485395,0.27037761,-0.16482985,0
-0.17552233,0.50817561,1.8065083,-0.30510837,-0.64105725,0.70424056,0
-0.85589027,-2.1579678,-1.270586,-0.084745646,-0.71829087,-0.69056249,0
-2.5119352,0.14355797,-0.47634387,-0.9485395,0.27037761,-0.16482985,0
-2.7414522,-1.4203918,-1.7209671,-0.9485395,0.27037761,-0.16482985,0
-2.2687371,1.0186369,-0.44043565,-0.9485395,0.27037761,-0.16482985,0
-0.89795947,2.4704583,0.43980706,0.30510837,0.64105725,-0.70424056,0
2.2102156,-2.1992049,-1.1593316,0.9485395,-0.27037761,0.16482985,0
-1.5849171,1.3553482,-0.87287784,0.30510837,0.64105725,-0.70424056,0
-0.83793962,2.5368135,1.0843945,0.084745646,0.71829087,0.69056249,0
1.5932961,-0.33576596,1.8046147,-0.30510837,-0.64105725,0.70424056,0
-2.4108641,-0.43479252,-2.00667,-0.9485395,0.27037761,-0.16482985,0
-1.9647825,2.8593347,0.82978785,-0.9485395,0.27037761,-0.16482985,0
2.0219004,-2.6141131,-0.75623405,0.9485395,-0.27037761,0.16482985,0
-0.95918435,0.36944366,-1.4992332,0.30510837,0.64105725,-0.70424056,0
1.1782179,-2.221242,-1.4543958,-0.084745646,-0.71829087,-0.69056249,0
1.4178033,2.1101756,1.2513392,0.084745646,0.71829087,0.69056249,0
1.5663657,1.7273675,1.6312867,0.084745646,0.71829087,0.69056249,0
-1.4201312,-1.9815886,-0.99909806,-0.30510837,-0.64105725,0.70424056,0
-2.0908775,-1.3105115,-2.0005131,-0.084745646,-0.71829087,-0.69056249,0
-2.0303576,2.2580423,0.22082353,-0.9485395,0.27037761,-0.16482985,0
-1.9804952,2.2156968,-0.13557959,-0.9485395,0.27037761,-0.16482985,0
2.3064809,-1.0047736,-1.3353262,0.30510837,0.64105725,-0.70424056,0
-2.8496726,-1.5228578,-1.2008648,-0.30510837,-0.64105725,0.70424056,0
-0.59617525,-0.013888955,-1.6909022,0.30510837,0.64105725,-0.70424056,0
1.3731884,-1.9939733,-1.7147166,-0.084745646,-0.71829087,-0.69056249,0
2.6295588,0.48625356,0.83256912,0.9485395,-0.27037761,0.16482985,0
-2.1724515,2.4315505,1.3231385,-0.9485395,0.27037761,-0.16482985,0
-2.2220142,1.8042409,0.5793519,-0.9485395,0.27037761,-0.16482985,0
-2.4546051,-0.85776699,-2.4268005,-0.084745646,-0.71829087,-0.69056249,0
1.9477456,1.8080778,1.5005331,0.084745646,0.71829087,0.69056249,0
0.87607503,1.8570311,0.65000623,0.30510837,0.64105725,-0.70424056,0
1.6802776,1.5139287,1.839317,0.084745646,0.71829087,0.69056249,0
2.4417343,-1.4976778,-1.3408972,0.9485395,-0.27037761,0.16482985,0
-1.9321384,1.4003506,1.8575945,-0.30510837,-0.64105725,0.70424056,0
1.8812411,1.9861073,1.3235165,0.084745646,0.71829087,0.69056249,0
0.49312353,2.1317282,1.3423977,0.084745646,0.71829087,0.69056249,0
2.3017626,-1.3348383,-0.26829386,0.9485395,-0.27037761,0.16482985,0
-1.1230443,-0.066034555,0.87330681,-0.30510837,-0.64105725,0.70424056,0
-2.663321,-1.5646354,-1.665935,-0.084745646,-0.71829087,-0.69056249,0
1.6210859,0.19739401,2.3019805,-0.30510837,-0.64105725,0.70424056,0
1.3118055,1.3438728,2.0614195,0.084745646,0.71829087,0.69056249,0
-2.3040383,1.8763423,1.1696428,-0.9485395,0.27037761,-0.16482985,0
-0.41652298,-1.9893557,-1.4998873,-0.084745646,-0.71829087,-0.69056249,0
-0.50561142,-1.3275685,-2.1773148,-0.084745646,-0.71829087,-0.69056249,0
-0.94727147,-0.33552122,0.70415062,-0.30510837,-0.64105725,0.70424056,0
-1.6957414,1.7771187,1.9798623,0.084745646,0.71829087,0.69056249,0
0.086729854,0.54886937,-0.88276881,0.30510837,0.64105725,-0.70424056,0
-2.7371564,-0.673177,-0.51999903,-0.9485395,0.27037761,-0.16482985,0
-0.98571467,2.3512745,1.2955182,0.084745646,0.71829087,0.69056249,0
-2.3970022,-1.8865649,-1.3637617,-0.084745646,-0.71829087,-0.69056249,0
-0.40008903,-1.7507664,-0.34705696,-0.30510837,-0.64105725,0.70424056,0
0.02487421,2.4468198,0.81810135,0.30510837,0.64105725,-0.70424056,0
1.3057685,1.5328231,1.865623,0.084745646,0.71829087,0.69056249,0
-2.1794131,2.3403075,1.2135304,-0.9485395,0.27037761,-0.16482985,0
-2.6541111,0.13347906,0.32529688,-0.9485395,0.27037761,-0.16482985,0
-1.8716973,1.1585468,1.6636705,-0.30510837,-0.64105725,0.70424056,0
0.24636996,0.064395308,1.5853258,-0.30510837,-0.64105725,0.70424056,0
1.7838538,0.79147774,2.5780654,0.084745646,0.71829087,0.69056249,0
0.5403266,2.17241,1.2942895,0.084745646,0.71829087,0.69056249,0
0.42186093,1.8121743,1.6835281,0.084745646,0.71829087,0.69056249,0
1.2557628,-0.91230005,-1.706367,0.30510837,0.64105725,-0.70424056,0
-2.2512488,0.93057531,-0.68552661,-0.9485395,0.27037761,-0.16482985,0
-1.6853471,-1.834056,-1.505713,-0.084745646,-0.71829087,-0.69056249,0
-1.742718,-1.5796633,-1.7632798,-0.084745646,-0.71829087,-0.69056249,0
1.4893746,2.0376985,1.3179437,0.084745646,0.71829087,0.69056249,0
0.83229172,1.7733755,0.554887,0.30510837,0.64105725,-0.70424056,0
2.435936,0.60020351,2.1337199,0.9485395,-0.27037761,0.16482985,0
-0.56700683,-1.7577212,-1.7223556,-0.084745646,-0.71829087,-0.69056249,0
-1.6678092,-1.9575983,-1.0845654,-0.30510837,-0.64105725,0.70424056,0
2.7078974,0.98580933,1.2012014,0.9485395,-0.27037761,0.16482985,0
-1.9764928,2.2306905,-0.13401723,-0.9485395,0.27037761,-0.16482985,0
-0.0084207058,-0.41735506,-1.8035283,0.30510837,0.64105725,-0.70424056,0
0.79447818,-1.3079668,-2.2663841,0.30510837,0.64105725,-0.70424056,0
2.68049,0.1889872,-0.086630344,0.30510837,0.64105725,-0.70424056,0
2.6645443,0.2075853,0.17412686,0.9485395,-0.27037761,0.16482985,0
2.5964372,0.23131026,0.60497761,0.9485395,-0.27037761,0.16482985,0
1.282269,2.0143135,1.3676834,0.084745646,0.71829087,0.69056249,0
-1.3559711,1.6864815,-0.47226381,0.30510837,0.64105725,-0.70424056,0
2.1016428,-1.704339,0.27721858,0.9485395,-0.27037761,0.16482985,0
-2.520113,0.10822546,0.42666006,-0.30510837,-0.64105725,0.70424056,0
-2.2857671,0.23986697,-1.6198852,-0.9485395,0.27037761,-0.16482985,0
2.6814811,1.4463649,1.786726,0.084745646,0.71829087,0.69056249,0
-1.8993235,2.9963818,0.73662531,0.084745646,0.71829087,0.69056249,0
0.52079302,-0.12991428,-1.3125974,0.30510837,0.64105725,-0.70424056,0
-1.129069,2.5464354,0.40884042,0.30510837,0.64105725,-0.70424056,0
1.565799,0.99222147,2.3960209,0.084745646,0.71829087,0.69056249,0
2.3144619,-1.8662732,-1.213111,0.9485395,-0.27037761,0.16482985,0
-0.55408692,0.16804063,-1.5070603,0.30510837,0.64105725,-0.70424056,0
2.6587296,1.1172954,1.6998239,0.9485395,-0.27037761,0.16482985,0
2.3253083,0.11270976,1.9706862,0.9485395,-0.27037761,0.16482985,0
2.3614326,-0.63915008,0.52949524,0.9485395,-0.27037761,0.16482985,0
2.0584145,-2.2098165,-0.30317473,0.9485395,-0.27037761,0.16482985,0
-2.1779342,-0.88196963,-0.32644916,-0.30510837,-0.64105725,0.70424056,0
-2.6015348,-1.0130353,-1.8579426,-0.9485395,0.27037761,-0.16482985,0
-0.80050397,-1.1741166,-2.3007388,-0.084745646,-0.71829087,-0.69056249,0
0.43284321,1.705506,1.7931316,0.084745646,0.71829087,0.69056249,0
-2.1053076,2.3373461,0.78222084,-0.9485395,0.27037761,-0.16482985,0
1.6668832,-3.0058968,-0.59407473,-0.30510837,-0.64105725,0.70424056,0
2.096791,-0.77310854,-1.2152927,0.30510837,0.64105725,-0.70424056,0
1.457527,0.96438086,0.089354038,0.30510837,0.64105725,-0.70424056,0
-1.6562914,-1.6492172,-0.7988615,-0.30510837,-0.64105725,0.70424056,0
-0.10851592,0.28502429,-1.2075311,0.30510837,0.64105725,-0.70424056,0
0.87688684,-1.9468102,-1.7028675,-0.084745646,-0.71829087,-0.69056249,0
2.6832671,0.92040384,1.2356524,0.9485395,-0.27037761,0.16482985,0
-2.2584426,1.3180662,-0.0085101128,-0.9485395,0.27037761,-0.16482985,0
-1.7231808,1.6387606,-0.67479479,0.30510837,0.64105725,-0.70424056,0
-2.1273253,0.91452765,-1.4249887,-0.9485395,0.27037761,-0.16482985,0
-1.9204376,2.6121325,0.16910052,-0.9485395,0.27037761,-0.16482985,0
2.2854481,-0.39798284,1.3623555,0.9485395,-0.27037761,0.16482985,0
1.5451108,-2.822814,-0.87369323,-0.084745646,-0.71829087,-0.69056249,0
2.2206097,-0.17054784,2.1085522,0.9485395,-0.27037761,0.16482985,0
-0.52709448,1.0521774,2.1493864,-0.30510837,-0.64105725,0.70424056,0
-2.1791956,2.1660795,1.6346128,0.084745646,0.71829087,0.69056249,0
2.1769834,1.0623189,0.490206,0.30510837,0.64105725,-0.70424056,0
-2.2900324,1.2811372,0.11270118,-0.9485395,0.27037761,-0.16482985,0
-1.258217,2.5721858,0.37632787,0.30510837,0.64105725,-0.70424056,0
0.48405719,1.9926547,1.4881682,0.084745646,0.71829087,0.69056249,0
-0.32998538,-0.55337578,-2.0666616,0.30510837,0.64105725,-0.70424056,0
2.1208382,-1.1223181,1.1214714,0.9485395,-0.27037761,0.16482985,0
-2.4103351,1.4833982,1.1367825,-0.9485395,0.27037761,-0.16482985,0
-2.5183029,1.3293415,1.5053937,-0.9485395,0.27037761,-0.16482985,0
1.7019842,-2.8774028,-0.83616418,-0.084745646,-0.71829087,-0.69056249,0
-0.83230221,2.5761361,1.0428005,0.084745646,0.71829087,0.69056249,0
2.402113,0.80277663,2.4904408,0.084745646,0.71829087,0.69056249,0
0.90597963,1.4979278,1.9509814,0.084745646,0.71829087,0.69056249,0
-2.4660349,-0.34191722,-1.5368323,-0.9485395,0.27037761,-0.16482985,0
-1.2929493,1.5323634,2.1850147,0.084745646,0.71829087,0.69056249,0
-0.1918757,2.3805437,1.1676542,0.084745646,0.71829087,0.69056249,0
2.2609394,0.47492585,-0.0081136227,0.30510837,0.64105725,-0.70424056,0
0.85117513,-0.48945153,1.3431978,-0.30510837,-0.64105725,0.70424056,0
0.14425048,-0.50637043,1.0215256,-0.30510837,-0.64105725,0.70424056,0
0.76197815,-0.74632204,1.0707294,-0.30510837,-0.64105725,0.70424056,0
0.30847788,-1.2883278,-2.3180356,-0.084745646,-0.71829087,-0.69056249,0
1.5489872,1.2259463,2.1549745,0.084745646,0.71829087,0.69056249,0
-1.3935635,-1.2226362,-2.1774912,-0.084745646,-0.71829087,-0.69056249,0
-0.1501987,1.8635023,1.7003418,0.084745646,0.71829087,0.69056249,0
-0.48928332,-1.827747,-1.6590557,-0.084745646,-0.71829087,-0.69056249,0
-2.3377476,1.8401558,1.3042711,-0.9485395,0.27037761,-0.16482985,0
-2.0190003,2.1867042,0.038446188,-0.9485395,0.27037761,-0.16482985,0
-0.026168823,-1.5072095,-2.0492971,-0.084745646,-0.71829087,-0.69056249,0
-2.132355,1.3322399,1.7088516,-0.30510837,-0.64105725,0.70424056,0
0.15198112,-2.5403218,-0.99656475,-0.084745646,-0.71829087,-0.69056249,0
-0.010614157,-2.3199716,-1.2058088,-0.084745646,-0.71829087,-0.69056249,0
1.8639828,-1.1255856,1.20293,-0.30510837,-0.64105725,0.70424056,0
-2.1363001,2.215426,0.76058173,-0.9485395,0.27037761,-0.16482985,0
-1.4828535,2.8515484,0.83616543,0.084745646,0.71829087,0.69056249,0
-0.24946198,-0.82410818,0.56172109,-0.30510837,-0.64105725,0.70424056,0
-0.31076908,1.5959098,1.998384,0.084745646,0.71829087,0.69056249,0
-1.115667,0.82074416,-1.1562182,0.30510837,0.64105725,-0.70424056,0
1.7923135,-1.160471,1.1401242,-0.30510837,-0.64105725,0.70424056,0
1.1977955,-1.6813139,0.4084388,-0.30510837,-0.64105725,0.70424056,0
1.6521851,-0.31677794,1.8474125,-0.30510837,-0.64105725,0.70424056,0
-1.5776954,2.515348,0.18617737,0.30510837,0.64105725,-0.70424056,0
2.4512844,-0.41406855,0.38163805,0.9485395,-0.27037761,0.16482985,0
-0.54234171,-2.4005141,-1.0001408,-0.30510837,-0.64105725,0.70424056,0
-0.19394398,2.2183881,1.3365746,0.084745646,0.71829087,0.69056249,0
2.7245455,0.98626798,1.1061478,0.9485395,-0.27037761,0.16482985,0
-2.222415,-0.38497433,0.1066854,-0.30510837,-0.64105725,0.70424056,0
-2.4402683,-0.071718156,-1.2418904,-0.9485395,0.27037761,-0.16482985,0
-2.1581638,1.7596145,2.0548177,0.084745646,0.71829087,0.69056249,0
-0.41999555,1.6185486,1.9882406,0.084745646,0.71829087,0.69056249,0
-1.8907917,-1.2039042,-2.1359553,-0.084745646,-0.71829087,-0.69056249,0
-2.0539615,1.4354181,-0.99273205,-0.9485395,0.27037761,-0.16482985,0
0.27223194,-0.92917931,-2.1478412,0.30510837,0.64105725,-0.70424056,0
0.01465559,-1.7600915,-1.791271,-0.084745646,-0.71829087,-0.69056249,0
-1.2892032,-1.2272139,-2.1855364,-0.084745646,-0.71829087,-0.69056249,0
-2.4593067,1.5238497,1.4849504,-0.9485395,0.27037761,-0.16482985,0
0.33098841,1.9086242,1.594357,0.084745646,0.71829087,0.69056249,0
1.7772456,1.1124284,0.36263537,0.30510837,0.64105725,-0.70424056,0
1.3823223,0.85787016,2.5582833,0.084745646,0.71829087,0.69056249,0
-2.4714611,-0.50467825,-0.1101768,-0.30510837,-0.64105725,0.70424056,0
-2.2957957,0.8005777,-0.64241576,-0.9485395,0.27037761,-0.16482985,0
2.1662946,-1.1180826,0.86683321,0.9485395,-0.27037761,0.16482985,0
-2.4973655,0.6139667,0.21144414,-0.9485395,0.27037761,-0.16482985,0
-2.2832661,0.21594024,-1.6735256,-0.9485395,0.27037761,-0.16482985,0
-0.29648399,-1.8571488,-1.6521337,-0.084745646,-0.71829087,-0.69056249,0
-1.1202068,-2.2328274,-1.0978552,-0.30510837,-0.64105725,0.70424056,0
2.4047818,1.0516328,2.2312646,0.084745646,0.71829087,0.69056249,0
-2.0589564,2.4955142,0.77493501,-0.9485395,0.27037761,-0.16482985,0
-1.9840196,2.7999091,0.84301269,-0.9485395,0.27037761,-0.16482985,0
-2.0465004,-1.6199205,-0.94124937,-0.30510837,-0.64105725,0.70424056,0
0.48356438,-0.42592084,1.2417634,-0.30510837,-0.64105725,0.70424056,0
-2.0551293,-0.99450052,-0.37567949,-0.30510837,-0.64105725,0.70424056,0
2.6870055,1.1180596,1.5383615,0.9485395,-0.27037761,0.16482985,0
2.2799199,0.62079525,2.6947246,0.084745646,0.71829087,0.69056249,0
-2.280699,1.7203351,0.77942848,-0.9485395,0.27037761,-0.16482985,0
0.08953619,2.2442346,1.274902,0.084745646,0.71829087,0.69056249,0
1.6851017,-1.8378844,-1.9153509,-0.084745646,-0.71829087,-0.69056249,0
1.0940013,-2.2948155,-1.3675328,-0.084745646,-0.71829087,-0.69056249,0
-2.0902412,2.0021052,0.14560866,-0.9485395,0.27037761,-0.16482985,0
1.6525532,0.40427113,2.5039296,-0.30510837,-0.64105725,0.70424056,0
0.12061179,-0.61928988,-1.9314435,0.30510837,0.64105725,-0.70424056,0
2.7409351,1.4331155,1.7448149,0.9485395,-0.27037761,0.16482985,0
0.77306819,0.91818595,2.570313,0.084745646,0.71829087,0.69056249,0
1.5307989,-0.59034371,-1.2941382,0.30510837,0.64105725,-0.70424056,0
2.3568397,-1.1715753,-0.31743693,0.9485395,-0.27037761,0.16482985,0
-0.10233426,2.1786547,0.51888371,0.30510837,0.64105725,-0.70424056,0
-1.4908274,0.84795177,1.5459516,-0.30510837,-0.64105725,0.70424056,0
0.98112273,1.8823805,1.5418705,0.084745646,0.71829087,0.69056249,0
2.2399104,-1.4300432,-0.068523884,0.9485395,-0.27037761,0.16482985,0
-2.3702297,1.3102539,0.62197125,-0.9485395,0.27037761,-0.16482985,0
2.2834623,-1.3652241,-0.21282482,0.9485395,-0.27037761,0.16482985,0
0.14169478,1.8857838,1.6413448,0.084745646,0.71829087,0.69056249,0
0.41156626,2.3715487,1.1029563,0.084745646,0.71829087,0.69056249,0
2.3313544,-1.9819669,-1.5000987,0.9485395,-0.27037761,0.16482985,0
1.963889,-2.481689,-0.20517588,0.9485395,-0.27037761,0.16482985,0
1.9487865,-0.62164712,1.6983967,-0.30510837,-0.64105725,0.70424056,0
1.6444217,0.80058181,0.021221995,0.30510837,0.64105725,-0.70424056,0
2.3457944,-0.81269646,0.3348105,0.9485395,-0.27037761,0.16482985,0
0.96622598,-2.7441871,-0.88443708,-0.084745646,-0.71829087,-0.69056249,0
0.36103773,1.6961493,1.8116757,0.084745646,0.71829087,0.69056249,0
-2.0662005,1.9020897,-0.15679836,-0.9485395,0.27037761,-0.16482985,0
-2.448535,0.41931671,-0.38885188,-0.9485395,0.27037761,-0.16482985,0
-0.29240441,2.6334243,0.91695631,0.084745646,0.71829087,0.69056249,0
-2.5844688,-0.66347098,-1.3827443,-0.9485395,0.27037761,-0.16482985,0
0.28844786,-0.6799047,-1.9139059,0.30510837,0.64105725,-0.70424056,0
-0.99629593,1.7977189,-0.2151792,0.30510837,0.64105725,-0.70424056,0
2.6543756,0.35172245,0.46907806,0.9485395,-0.27037761,0.16482985,0
-1.0101309,0.78955591,1.7010539,-0.30510837,-0.64105725,0.70424056,0
2.3691297,-0.30960995,1.0257595,0.9485395,-0.27037761,0.16482985,0
2.1419346,1.7565236,1.5303264,0.084745646,0.71829087,0.69056249,0
0.10120749,-2.0249431,-1.5264063,-0.084745646,-0.71829087,-0.69056249,0
-2.4123991,-1.252178,-2.0217321,-0.084745646,-0.71829087,-0.69056249,0
-2.2074876,-0.55684495,-2.7701313,-0.084745646,-0.71829087,-0.69056249,0
-1.5790911,1.4446708,2.050894,-0.30510837,-0.64105725,0.70424056,0
-0.39612746,1.644567,-0.094570875,0.30510837,0.64105725,-0.70424056,0
-2.4464159,0.1375728,0.4853034,-0.30510837,-0.64105725,0.70424056,0
1.2056499,-0.23381543,-1.1104661,0.30510837,0.64105725,-0.70424056,0
0.62118983,2.2483587,1.2053674,0.084745646,0.71829087,0.69056249,0
-1.4999187,-0.80539989,-2.5984287,-0.084745646,-0.71829087,-0.69056249,0
-2.548296,1.0267732,1.1816775,-0.9485395,0.27037761,-0.16482985,0
-0.77023578,-2.1555862,-1.2835746,-0.084745646,-0.71829087,-0.69056249,0
1.8899238,1.1270195,2.2160339,0.084745646,0.71829087,0.69056249,0
2.0815043,1.9802533,1.3050292,0.084745646,0.71829087,0.69056249,0
1.8935485,1.8535552,1.0876567,0.30510837,0.64105725,-0.70424056,0
