-0.3201524,-0.95214468,1.2892345,0.51130503,-0.80118251,0.31092387,0
-4.1618867,-1.9383237,-0.68770838,-0.7627086,-0.58976209,-0.2654357,0
1.0713509,-0.59597147,-0.081271082,0.51130503,-0.80118251,0.31092387,0
2.5201483,3.5465045,1.8319581,0.7627086,0.58976209,0.2654357,0
-3.6903491,-2.4516892,-0.90200782,-0.7627086,-0.58976209,-0.2654357,0
4.1826181,1.7205549,0.77152157,0.51130503,-0.80118251,0.31092387,0
-0.99781644,-1.2088996,1.344972,-0.39603359,0.10142581,0.91261715,0
-3.5429742,-2.6325395,-0.92365193,-0.7627086,-0.58976209,-0.2654357,0
-3.5035822,-2.9180312,-0.40251875,-0.7627086,-0.58976209,-0.2654357,0
-0.32727623,-1.2641727,-1.6451504,0.39603359,-0.10142581,-0.91261715,0
-0.66178858,0.40615362,-1.0813607,-0.51130503,0.80118251,-0.31092387,0
0.50514817,1.0636015,1.7446296,-0.39603359,0.10142581,0.91261715,0
-0.85962433,-1.5081061,0.74378961,0.51130503,-0.80118251,0.31092387,0
-0.10107911,-0.52785742,1.6584253,-0.39603359,0.10142581,0.91261715,0
2.8020709,2.4260116,-0.69727552,0.39603359,-0.10142581,-0.91261715,0
-0.048528314,1.6376417,1.0834244,-0.51130503,0.80118251,-0.31092387,0
0.49664029,1.6057835,1.6806808,-0.39603359,0.10142581,0.91261715,0
-2.2405415,-2.1496978,-2.3770041,0.39603359,-0.10142581,-0.91261715,0
-0.32400697,-0.99880624,-1.6732239,0.39603359,-0.10142581,-0.91261715,0
3.5741599,2.8732696,0.29917336,0.7627086,0.58976209,0.2654357,0
3.9607954,2.4094565,0.21873546,0.7627086,0.58976209,0.2654357,0
2.5432925,2.3736076,2.4834988,-0.39603359,0.10142581,0.91261715,0
4.1986847,1.9959153,0.45401335,0.7627086,0.58976209,0.2654357,0
-2.0927711,-0.82788622,-1.9080019,-0.51130503,0.80118251,-0.31092387,0
-2.6305737,-1.9103458,-2.572861,0.39603359,-0.10142581,-0.91261715,0
-3.2476974,-3.1238959,-0.68038154,-0.7627086,-0.58976209,-0.2654357,0
1.9633338,3.2075918,2.1391373,-0.39603359,0.10142581,0.91261715,0
-0.8527562,0.89240372,1.1743884,-0.39603359,0.10142581,0.91261715,0
3.4925034,1.7116873,1.8835454,0.51130503,-0.80118251,0.31092387,0
2.6526632,3.1851583,2.2540472,0.7627086,0.58976209,0.2654357,0
0.62920815,0.19896466,1.8945591,-0.39603359,0.10142581,0.91261715,0
-2.8035064,-3.4358513,-1.2636061,-0.7627086,-0.58976209,-0.2654357,0
2.4918518,2.7557709,-0.21298122,-0.51130503,0.80118251,-0.31092387,0
1.0828807,1.0203285,2.0001478,-0.39603359,0.10142581,0.91261715,0
-0.52243239,0.97960156,0.16712113,-0.51130503,0.80118251,-0.31092387,0
2.4680569,1.9194181,2.501328,-0.39603359,0.10142581,0.91261715,0
2.7667112,2.2128417,-0.68892908,0.39603359,-0.10142581,-0.91261715,0
1.6268942,0.72143066,2.269443,-0.39603359,0.10142581,0.91261715,0
-3.311626,-2.2999134,0.46213794,-0.39603359,0.10142581,0.91261715,0
-2.5075369,-2.57829,0.69610393,0.51130503,-0.80118251,0.31092387,0
-0.95454586,-1.5265038,-1.8882018,0.39603359,-0.10142581,-0.91261715,0
2.8897488,1.3725822,2.0009582,0.51130503,-0.80118251,0.31092387,0
1.4470174,1.6345375,-1.1973438,0.39603359,-0.10142581,-0.91261715,0
-4.3002844,-1.8254566,-0.019623756,-0.39603359,0.10142581,0.91261715,0
-0.84457153,-0.10755992,-1.9981753,0.39603359,-0.10142581,-0.91261715,0
1.6952221,-0.086126283,-0.89840466,0.39603359,-0.10142581,-0.91261715,0
-3.274477,-2.8313794,-1.2533627,-0.7627086,-0.58976209,-0.2654357,0
-0.64946914,0.25730622,-1.4851665,-0.51130503,0.80118251,-0.31092387,0
3.3813004,3.0308664,0.50318122,0.7627086,0.58976209,0.2654357,0
2.7745266,1.5051658,-0.60688829,0.39603359,-0.10142581,-0.91261715,0
-1.8155787,-2.0287199,0.97432077,0.51130503,-0.80118251,0.31092387,0
3.1073174,2.6946433,2.0374923,0.7627086,0.58976209,0.2654357,0
0.27669591,-0.6300447,-1.4535298,0.39603359,-0.10142581,-0.91261715,0
-1.8220272,-0.20239076,-0.74146819,-0.51130503,0.80118251,-0.31092387,0
3.4035475,2.3850346,1.8742068,0.7627086,0.58976209,0.2654357,0
0.43040657,-1.0227584,-0.12699331,0.51130503,-0.80118251,0.31092387,0
-2.4092977,-3.5123174,-1.8722308,0.51130503,-0.80118251,0.31092387,0
2.5713844,2.6105599,-0.71794665,-0.51130503,0.80118251,-0.31092387,0
0.66825712,0.67350811,-1.4284836,0.39603359,-0.10142581,-0.91261715,0
-2.6658983,-3.4579144,-1.6099906,-0.7627086,-0.58976209,-0.2654357,0
-3.8179104,-1.5568807,0.1598556,-0.39603359,0.10142581,0.91261715,0
-1.7711308,-1.5628115,1.0487221,-0.39603359,0.10142581,0.91261715,0
3.1205714,2.9767163,1.3726797,0.7627086,0.58976209,0.2654357,0
3.5504262,2.1855001,1.8954999,0.7627086,0.58976209,0.2654357,0
-0.54108238,-0.38601565,1.4517205,-0.39603359,0.10142581,0.91261715,0
-2.9532642,-3.3105006,-1.1118004,-0.7627086,-0.58976209,-0.2654357,0
-3.9456019,-1.8898339,-1.4169242,-0.7627086,-0.58976209,-0.2654357,0
3.8814354,1.4554695,0.58374119,0.51130503,-0.80118251,0.31092387,0
2.3316431,0.58783507,0.89662528,0.51130503,-0.80118251,0.31092387,0
-0.96729314,1.0402553,1.0549725,-0.51130503,0.80118251,-0.31092387,0
-1.7746552,0.02840589,-0.22465801,-0.51130503,0.80118251,-0.31092387,0
-2.9752684,-2.7594864,-2.2728515,-0.7627086,-0.58976209,-0.2654357,0
-3.3456643,-2.1368368,-2.5919919,-0.7627086,-0.58976209,-0.2654357,0
-1.2076631,-1.8192981,-1.9655023,0.39603359,-0.10142581,-0.91261715,0
-3.8112833,-2.5856912,-0.25677776,-0.7627086,-0.58976209,-0.2654357,0
-3.9944346,-1.5658749,-0.68240786,-0.51130503,0.80118251,-0.31092387,0
3.7395749,2.5923896,0.44794297,0.7627086,0.58976209,0.2654357,0
-2.1127191,-0.21297434,-0.29070556,-0.51130503,0.80118251,-0.31092387,0
2.5099518,1.8833673,-0.76373398,0.39603359,-0.10142581,-0.91261715,0
3.3384123,3.1200409,0.42828417,0.7627086,0.58976209,0.2654357,0
-1.9499104,-1.580842,-2.3141046,0.39603359,-0.10142581,-0.91261715,0
-2.1591995,-3.2625964,-1.640033,0.51130503,-0.80118251,0.31092387,0
2.9641438,2.1898491,2.6865516,-0.39603359,0.10142581,0.91261715,0
-1.7605236,0.12792659,0.0085458755,-0.51130503,0.80118251,-0.31092387,0
3.401165,2.6911483,1.2009094,0.7627086,0.58976209,0.2654357,0
2.6553812,0.71515948,-0.57079268,0.39603359,-0.10142581,-0.91261715,0
-4.04954,-2.4625597,0.15425253,-0.7627086,-0.58976209,-0.2654357,0
2.653192,2.1078911,-0.72652698,0.39603359,-0.10142581,-0.91261715,0
3.3549654,2.771646,1.1548061,0.7627086,0.58976209,0.2654357,0
-1.4199574,-0.56249344,-2.1973062,0.39603359,-0.10142581,-0.91261715,0
-3.3551161,-1.9823484,-2.8069084,-0.51130503,0.80118251,-0.31092387,0
2.544991,0.98962384,1.5811028,0.51130503,-0.80118251,0.31092387,0
-3.1099713,-3.2021735,0.07917881,0.51130503,-0.80118251,0.31092387,0
-1.2878251,-0.58304101,-2.1376832,0.39603359,-0.10142581,-0.91261715,0
0.93176389,2.296037,1.7927914,-0.39603359,0.10142581,0.91261715,0
3.6261578,1.783253,1.8481631,0.51130503,-0.80118251,0.31092387,0
-3.5096872,-1.9901071,-2.4466982,-0.7627086,-0.58976209,-0.2654357,0
2.7119622,0.46855751,-0.036150217,0.51130503,-0.80118251,0.31092387,0
-0.72029471,-1.9904966,-1.7349807,0.39603359,-0.10142581,-0.91261715,0
3.4323053,2.3008685,1.9785788,0.7627086,0.58976209,0.2654357,0
-1.0787151,-2.1153076,-1.8766474,0.39603359,-0.10142581,-0.91261715,0
1.0162578,-0.23298669,-1.1767222,0.39603359,-0.10142581,-0.91261715,0
3.2108901,2.9918008,1.0796404,0.7627086,0.58976209,0.2654357,0
0.21598291,1.0961076,1.6155325,-0.39603359,0.10142581,0.91261715,0
1.2507207,-0.52840889,-1.0421436,0.39603359,-0.10142581,-0.91261715,0
2.6109169,3.3961766,1.9051476,0.7627086,0.58976209,0.2654357,0
0.65358388,2.1340771,1.6900742,-0.39603359,0.10142581,0.91261715,0
1.5500106,-0.071905315,-0.96300024,0.39603359,-0.10142581,-0.91261715,0
-3.8521636,-2.2049062,-0.98536372,-0.7627086,-0.58976209,-0.2654357,0
-4.2492805,-1.5754989,-0.28812003,-0.51130503,0.80118251,-0.31092387,0
-1.7247564,-2.0069642,0.88102525,0.51130503,-0.80118251,0.31092387,0
0.53334433,-0.25499529,1.682085,0.51130503,-0.80118251,0.31092387,0
-2.7396939,-1.7974503,-2.632761,0.39603359,-0.10142581,-0.91261715,0
-3.3556795,-2.3985782,-1.9816597,-0.7627086,-0.58976209,-0.2654357,0
3.5425448,3.0756612,-0.059670687,0.7627086,0.58976209,0.2654357,0
3.297585,3.3398604,0.057188272,0.7627086,0.58976209,0.2654357,0
2.0160418,2.6653945,2.2222686,-0.39603359,0.10142581,0.91261715,0
-1.8835691,-2.7619817,-0.80332565,0.51130503,-0.80118251,0.31092387,0
0.87935668,-0.57569808,-1.1980428,0.39603359,-0.10142581,-0.91261715,0
-0.39211071,1.3459814,0.89689112,-0.51130503,0.80118251,-0.31092387,0
-3.8677282,-2.3365221,-0.64820743,-0.7627086,-0.58976209,-0.2654357,0
2.1654108,0.33607122,0.52124953,0.51130503,-0.80118251,0.31092387,0
0.16244698,0.74286461,1.6315589,-0.39603359,0.10142581,0.91261715,0
3.1072166,2.5380998,2.3856008,0.7627086,0.58976209,0.2654357,0
-1.5180144,-2.1657395,0.13191557,0.51130503,-0.80118251,0.31092387,0
3.437798,2.0336404,2.5565407,0.7627086,0.58976209,0.2654357,0
0.80382735,1.900322,1.7812517,-0.39603359,0.10142581,0.91261715,0
-2.0107508,0.014272481,0.12717521,-0.51130503,0.80118251,-0.31092387,0
-3.8430955,-2.4614232,-0.44147468,-0.7627086,-0.58976209,-0.2654357,0
-3.0616426,-2.4874406,-2.6291125,-0.7627086,-0.58976209,-0.2654357,0
4.0025949,1.5591896,0.65176272,0.51130503,-0.80118251,0.31092387,0
1.4208293,-0.49339777,-0.39166757,0.51130503,-0.80118251,0.31092387,0
3.8003786,1.9952095,1.6000826,0.7627086,0.58976209,0.2654357,0
-3.5255072,-3.0621984,-0.019198656,-0.7627086,-0.58976209,-0.2654357,0
-3.3885956,-2.6512928,-1.3255808,-0.7627086,-0.58976209,-0.2654357,0
1.6549761,-0.2627514,-0.18239021,0.51130503,-0.80118251,0.31092387,0
2.9512661,2.6383429,2.6109855,0.7627086,0.58976209,0.2654357,0
2.9110627,2.9105513,2.121696,0.7627086,0.58976209,0.2654357,0
1.4558158,2.4317245,0.65575278,-0.51130503,0.80118251,-0.31092387,0
-4.0981817,-2.105649,-0.49898648,-0.7627086,-0.58976209,-0.2654357,0
-0.22347802,0.52218145,1.4886115,-0.39603359,0.10142581,0.91261715,0
-1.4424047,-0.40481934,1.062678,-0.39603359,0.10142581,0.91261715,0
1.9080577,1.5335431,2.3011992,-0.39603359,0.10142581,0.91261715,0
3.07426,3.3810093,0.60746813,0.7627086,0.58976209,0.2654357,0
-3.694346,-2.5605493,-0.64864945,-0.7627086,-0.58976209,-0.2654357,0
-2.2014537,-0.16204616,-0.013553381,-0.51130503,0.80118251,-0.31092387,0
-1.5811548,-1.3766742,1.1104761,-0.39603359,0.10142581,0.91261715,0
0.6203295,-1.1894459,-0.86883247,0.51130503,-0.80118251,0.31092387,0
-3.2924943,-2.2078207,-2.5870545,-0.7627086,-0.58976209,-0.2654357,0
-2.5869167,-2.5335937,-2.4846497,0.39603359,-0.10142581,-0.91261715,0
0.77729511,0.78734708,-1.3938179,0.39603359,-0.10142581,-0.91261715,0
3.3415031,2.1647458,2.5419388,0.7627086,0.58976209,0.2654357,0
-2.8023252,-2.9673631,-2.3079176,-0.7627086,-0.58976209,-0.2654357,0
3.2894433,3.3130245,-0.088675976,-0.51130503,0.80118251,-0.31092387,0
4.1744909,2.181581,0.11100698,0.7627086,0.58976209,0.2654357,0
0.62643737,-0.77109689,0.19911633,0.51130503,-0.80118251,0.31092387,0
3.5607564,2.8737304,0.33666229,0.7627086,0.58976209,0.2654357,0
3.223994,2.8077097,1.4510128,0.7627086,0.58976209,0.2654357,0
-3.3154402,-2.6812308,-1.4692695,-0.7627086,-0.58976209,-0.2654357,0
-2.7156751,-2.4417732,-2.5507295,0.39603359,-0.10142581,-0.91261715,0
2.0269511,1.9566476,2.3057706,-0.39603359,0.10142581,0.91261715,0
3.2689886,3.3158975,0.19260001,0.7627086,0.58976209,0.2654357,0
2.1211462,2.2447405,2.3146293,-0.39603359,0.10142581,0.91261715,0
2.6636503,3.1782706,2.237781,0.7627086,0.58976209,0.2654357,0
0.58952594,1.3156862,1.7532297,-0.39603359,0.10142581,0.91261715,0
-1.1058693,-2.2518568,-0.76774967,0.51130503,-0.80118251,0.31092387,0
-3.4964914,-3.2264013,0.48488235,-0.39603359,0.10142581,0.91261715,0
3.7726672,2.4271049,0.72009492,0.7627086,0.58976209,0.2654357,0
3.2682528,3.3362703,0.0060691833,-0.51130503,0.80118251,-0.31092387,0
-3.1911788,-2.570307,-2.072782,-0.7627086,-0.58976209,-0.2654357,0
-3.0553102,-2.2153349,-2.7232811,0.39603359,-0.10142581,-0.91261715,0
-3.8167913,-2.184875,-1.131511,-0.7627086,-0.58976209,-0.2654357,0
-1.7692804,-1.6440589,1.0585548,-0.39603359,0.10142581,0.91261715,0
-0.92777777,-1.5844988,0.6590187,0.51130503,-0.80118251,0.31092387,0
2.6101134,2.2117224,2.530488,-0.39603359,0.10142581,0.91261715,0
0.45460236,1.2918911,-0.63488173,-0.51130503,0.80118251,-0.31092387,0
3.4199905,2.8319788,0.83390975,0.7627086,0.58976209,0.2654357,0
-2.0724139,-0.018465295,0.14422083,-0.51130503,0.80118251,-0.31092387,0
-2.1219046,-2.6406889,-0.098845482,0.51130503,-0.80118251,0.31092387,0
3.5725939,3.2083149,-0.44075155,0.7627086,0.58976209,0.2654357,0
1.4812999,2.1097677,-0.21576715,-0.51130503,0.80118251,-0.31092387,0
-3.061739,-0.86577398,-0.41219187,-0.51130503,0.80118251,-0.31092387,0
3.9611347,2.2514451,0.56884241,0.7627086,0.58976209,0.2654357,0
-3.8300829,-2.5099132,-0.37112737,-0.7627086,-0.58976209,-0.2654357,0
3.1912484,1.5088073,-0.42645526,0.39603359,-0.10142581,-0.91261715,0
0.16161633,0.031605422,1.7102458,-0.39603359,0.10142581,0.91261715,0
3.5244782,2.1856046,1.9698279,0.7627086,0.58976209,0.2654357,0
-3.4164245,-2.8571222,-0.78829074,-0.7627086,-0.58976209,-0.2654357,0
3.6821313,2.8454928,0.05064106,0.7627086,0.58976209,0.2654357,0
2.0276744,0.61977124,-0.83258718,0.39603359,-0.10142581,-0.91261715,0
-3.3634746,-2.8353982,-0.98870635,-0.7627086,-0.58976209,-0.2654357,0
0.22328347,0.93128884,1.6370182,-0.39603359,0.10142581,0.91261715,0
-0.22474781,-1.3052721,0.22241274,0.51130503,-0.80118251,0.31092387,0
1.132089,0.51675355,-1.2097807,0.39603359,-0.10142581,-0.91261715,0
2.8954535,1.8967396,2.6893189,-0.39603359,0.10142581,0.91261715,0
-1.8169039,-1.9252266,-2.218112,0.39603359,-0.10142581,-0.91261715,0
-0.78385729,0.49362716,-0.6552223,-0.51130503,0.80118251,-0.31092387,0
2.4939957,1.0368048,1.7865379,0.51130503,-0.80118251,0.31092387,0
1.0791605,0.84689283,2.0178087,-0.39603359,0.10142581,0.91261715,0
-2.5965548,-3.0733011,-0.43304372,0.51130503,-0.80118251,0.31092387,0
-0.41293424,0.9060446,-0.20248535,-0.51130503,0.80118251,-0.31092387,0
3.6449203,2.03631,1.9554603,0.7627086,0.58976209,0.2654357,0
-0.52989298,0.99457401,0.2179708,-0.51130503,0.80118251,-0.31092387,0
-2.8643744,-1.1939015,-1.5822647,-0.51130503,0.80118251,-0.31092387,0
-2.4091339,-1.2790346,0.74032009,-0.39603359,0.10142581,0.91261715,0
1.5897217,1.0989875,2.2113514,-0.39603359,0.10142581,0.91261715,0
3.5343797,2.4281778,1.4024119,0.7627086,0.58976209,0.2654357,0
-0.29796654,1.3238128,1.3671958,-0.39603359,0.10142581,0.91261715,0
1.6332002,2.3085556,2.0957911,-0.39603359,0.10142581,0.91261715,0
3.2891843,2.3478737,2.285387,0.7627086,0.58976209,0.2654357,0
1.0999672,1.0448213,2.0048409,-0.39603359,0.10142581,0.91261715,0
-2.2191815,-3.3643732,-1.8036511,0.51130503,-0.80118251,0.31092387,0
0.15949196,-1.5853779,-1.3982176,0.39603359,-0.10142581,-0.91261715,0
-2.7015386,-3.4267869,-1.1712554,0.51130503,-0.80118251,0.31092387,0
-0.88139248,0.60878634,1.193482,-0.39603359,0.10142581,0.91261715,0
-3.1507654,-2.470716,-2.4101839,-0.7627086,-0.58976209,-0.2654357,0
-1.4850448,-2.5438688,-2.0053465,0.39603359,-0.10142581,-0.91261715,0
4.3642774,1.8016108,0.40991378,0.7627086,0.58976209,0.2654357,0
2.1901712,0.94009209,-0.79767078,0.39603359,-0.10142581,-0.91261715,0
3.2746358,3.2080653,0.41596198,0.7627086,0.58976209,0.2654357,0
-2.1007752,-2.1623468,0.97230262,-0.39603359,0.10142581,0.91261715,0
4.2916212,1.868706,0.46960998,0.7627086,0.58976209,0.2654357,0
4.1549664,1.9593418,0.66089463,0.7627086,0.58976209,0.2654357,0
1.2996751,0.96700293,2.100153,-0.39603359,0.10142581,0.91261715,0
-3.085355,-2.7171364,-2.0506225,-0.7627086,-0.58976209,-0.2654357,0
-1.2686442,-0.077560157,1.1017114,-0.39603359,0.10142581,0.91261715,0
-0.22546375,1.3798546,0.71012902,-0.51130503,0.80118251,-0.31092387,0
-3.837256,-2.5732691,-0.20974731,-0.7627086,-0.58976209,-0.2654357,0
3.2162766,3.276861,0.43079686,0.7627086,0.58976209,0.2654357,0
-4.0632906,-2.3304391,-0.09979105,-0.7627086,-0.58976209,-0.2654357,0
0.69882649,1.4836318,-0.54242754,-0.51130503,0.80118251,-0.31092387,0
-3.9532266,-2.5192139,0.0033819675,-0.7627086,-0.58976209,-0.2654357,0
-2.0592332,-0.34159023,-0.71007657,-0.51130503,0.80118251,-0.31092387,0
-0.23123837,-0.24324584,1.5703113,-0.39603359,0.10142581,0.91261715,0
-2.6634822,-3.0932236,-2.427227,-0.7627086,-0.58976209,-0.2654357,0
3.2608702,1.6116527,2.0066919,0.51130503,-0.80118251,0.31092387,0
-2.220751,-2.5837469,0.21043181,0.51130503,-0.80118251,0.31092387,0
-2.1190236,-0.25012153,-0.37605822,-0.51130503,0.80118251,-0.31092387,0
-3.9206386,-1.8911884,-1.4856446,-0.7627086,-0.58976209,-0.2654357,0
-2.380075,-2.7457728,-2.371309,0.39603359,-0.10142581,-0.91261715,0
-4.1219902,-2.1347275,-0.36596513,-0.7627086,-0.58976209,-0.2654357,0
3.1739602,0.91057229,-0.3674711,0.39603359,-0.10142581,-0.91261715,0
-1.4472599,-1.8998182,0.70078313,0.51130503,-0.80118251,0.31092387,0
3.2386787,2.6915269,1.6669598,0.7627086,0.58976209,0.2654357,0
-0.94759411,0.78870922,0.37439942,-0.51130503,0.80118251,-0.31092387,0
3.3667719,3.003063,0.60670328,0.7627086,0.58976209,0.2654357,0
3.7960818,1.7359838,1.4469268,0.51130503,-0.80118251,0.31092387,0
-1.217386,-0.28099096,-1.9383178,-0.51130503,0.80118251,-0.31092387,0
2.4221902,2.1167324,-0.82775366,0.39603359,-0.10142581,-0.91261715,0
3.979676,2.1072209,0.83601022,0.7627086,0.58976209,0.2654357,0
-1.0141724,-1.5685652,0.84214884,0.51130503,-0.80118251,0.31092387,0
-3.6548874,-2.6685185,-0.52213645,-0.7627086,-0.58976209,-0.2654357,0
0.6611129,1.2538711,-1.0724511,-0.51130503,0.80118251,-0.31092387,0
2.1351936,2.8795793,2.2501709,-0.39603359,0.10142581,0.91261715,0
3.3598068,2.230588,2.3430507,0.7627086,0.58976209,0.2654357,0
3.2097018,0.83040154,0.077724934,0.51130503,-0.80118251,0.31092387,0
3.6404092,2.3740449,1.2180207,0.7627086,0.58976209,0.2654357,0
-2.2885945,-0.37285763,-0.41346776,-0.51130503,0.80118251,-0.31092387,0
-1.9018706,-2.2360058,-2.2204447,0.39603359,-0.10142581,-0.91261715,0
1.7435365,2.531523,0.43976331,-0.51130503,0.80118251,-0.31092387,0
3.0911603,3.397532,0.52219415,0.7627086,0.58976209,0.2654357,0
-1.146634,-2.0996063,-0.30839741,0.51130503,-0.80118251,0.31092387,0
-2.3913755,-2.6914093,0.21359658,0.51130503,-0.80118251,0.31092387,0
3.5641737,1.380499,-0.25036287,0.39603359,-0.10142581,-0.91261715,0
4.071105,1.8743217,1.0907681,0.7627086,0.58976209,0.2654357,0
2.4224403,2.9643154,0.43853784,-0.51130503,0.80118251,-0.31092387,0
-0.7634486,-0.51001763,1.369005,-0.39603359,0.10142581,0.91261715,0
3.6796982,2.9638903,-0.20542979,0.7627086,0.58976209,0.2654357,0
-2.6179914,-3.2455425,-2.2195091,-0.7627086,-0.58976209,-0.2654357,0
3.4992783,2.9383667,0.36970353,0.7627086,0.58976209,0.2654357,0
-1.8230143,-0.18142031,0.87268317,-0.39603359,0.10142581,0.91261715,0
2.577388,3.3725612,2.053961,0.7627086,0.58976209,0.2654357,0
-2.5405655,-3.4410968,-2.0074914,-0.7627086,-0.58976209,-0.2654357,0
-0.81054509,-1.7444779,-1.8014867,0.39603359,-0.10142581,-0.91261715,0
3.1609871,3.2677639,0.60987997,0.7627086,0.58976209,0.2654357,0
0.92505628,-0.79490668,-1.1538491,0.39603359,-0.10142581,-0.91261715,0
1.3061371,1.5169824,2.0418339,-0.39603359,0.10142581,0.91261715,0
2.4823747,0.39676464,-0.61048412,0.39603359,-0.10142581,-0.91261715,0
1.0608115,0.17219555,1.9154581,0.51130503,-0.80118251,0.31092387,0
0.35939389,-1.2653613,-1.3470353,0.39603359,-0.10142581,-0.91261715,0
-3.3976092,-0.82784033,0.26122355,-0.39603359,0.10142581,0.91261715,0
-1.6696575,-0.54906464,-1.8853378,-0.51130503,0.80118251,-0.31092387,0
-3.4453583,-0.85991418,0.2337575,-0.51130503,0.80118251,-0.31092387,0
0.47392237,-0.81490016,-1.3473983,0.39603359,-0.10142581,-0.91261715,0
-3.5866456,-1.4615202,-1.0841062,-0.51130503,0.80118251,-0.31092387,0
-2.7951808,-1.3343568,0.5789423,-0.39603359,0.10142581,0.91261715,0
-3.3626447,-2.4718733,-1.7987936,-0.7627086,-0.58976209,-0.2654357,0
1.5280926,1.1372051,2.1803598,-0.39603359,0.10142581,0.91261715,0
1.5570073,1.9195728,2.1059575,-0.39603359,0.10142581,0.91261715,0
2.4873912,3.4729521,2.089504,0.7627086,0.58976209,0.2654357,0
3.6958592,1.8445544,-0.24479127,0.39603359,-0.10142581,-0.91261715,0
3.0931892,0.64702517,-0.20319438,0.51130503,-0.80118251,0.31092387,0
2.5075397,0.81917244,1.2034738,0.51130503,-0.80118251,0.31092387,0
-4.0903139,-1.3661536,-0.010099649,-0.51130503,0.80118251,-0.31092387,0
3.8737772,2.499644,0.26839256,0.7627086,0.58976209,0.2654357,0
-2.8778701,-3.3865981,-1.1593611,-0.7627086,-0.58976209,-0.2654357,0
0.76707923,1.9742163,1.7570924,-0.39603359,0.10142581,0.91261715,0
2.3132143,3.1808479,2.2939417,-0.39603359,0.10142581,0.91261715,0
-3.3897095,-2.6438403,-1.3389382,-0.7627086,-0.58976209,-0.2654357,0
-3.0144432,-2.6389983,-2.427994,-0.7627086,-0.58976209,-0.2654357,0
2.0867059,2.7476149,2.2437956,-0.39603359,0.10142581,0.91261715,0
2.966768,2.0950854,-0.58902633,0.39603359,-0.10142581,-0.91261715,0
-0.33550653,-1.9369857,-1.2232348,0.51130503,-0.80118251,0.31092387,0
-3.5158536,-2.876663,-0.45917177,-0.7627086,-0.58976209,-0.2654357,0
-1.3089597,-2.5824857,-1.9246418,0.39603359,-0.10142581,-0.91261715,0
2.8168983,0.37728018,-0.44391584,0.51130503,-0.80118251,0.31092387,0
0.50815672,-0.29208148,1.6279427,0.51130503,-0.80118251,0.31092387,0
-1.6187482,0.12177622,0.92762882,-0.39603359,0.10142581,0.91261715,0
-4.0994811,-1.8833411,-0.98919129,-0.7627086,-0.58976209,-0.2654357,0
3.2225494,3.213331,0.55392861,0.7627086,0.58976209,0.2654357,0
-0.3502835,1.3065002,1.3464167,-0.39603359,0.10142581,0.91261715,0
-1.7628847,-1.7428619,1.0723108,-0.39603359,0.10142581,0.91261715,0
-3.6008492,-3.0647092,0.20286822,-0.7627086,-0.58976209,-0.2654357,0
-0.21490031,0.057445526,-1.7432655,0.39603359,-0.10142581,-0.91261715,0
-0.56366581,0.64210415,1.3276579,-0.39603359,0.10142581,0.91261715,0
1.2845216,-0.79048324,-0.99834937,0.39603359,-0.10142581,-0.91261715,0
-3.6809747,-2.4436455,-0.94681573,-0.7627086,-0.58976209,-0.2654357,0
0.092504084,-0.52686882,-1.5449271,0.39603359,-0.10142581,-0.91261715,0
3.2922008,3.0264578,0.76899815,0.7627086,0.58976209,0.2654357,0
-3.6776009,-2.7258906,-0.32940054,-0.7627086,-0.58976209,-0.2654357,0
3.5223486,2.3668146,1.573323,0.7627086,0.58976209,0.2654357,0
-0.21738371,-1.3999799,-0.033738732,0.51130503,-0.80118251,0.31092387,0
-0.79046154,0.55747157,-0.47984895,-0.51130503,0.80118251,-0.31092387,0
4.0186472,2.2414773,0.42573142,0.7627086,0.58976209,0.2654357,0
4.0770025,2.4106424,-0.14230609,0.39603359,-0.10142581,-0.91261715,0
-3.1782587,-3.3225589,-0.11873126,0.51130503,-0.80118251,0.31092387,0
0.096675374,-1.4429564,-0.66093999,0.51130503,-0.80118251,0.31092387,0
-3.4032969,-2.1256585,-2.4512262,-0.7627086,-0.58976209,-0.2654357,0
-3.5820832,-2.6182659,-0.84299016,-0.7627086,-0.58976209,-0.2654357,0
3.6067996,2.8838015,0.18198562,0.7627086,0.58976209,0.2654357,0
3.4160042,2.1369042,2.3897269,0.7627086,0.58976209,0.2654357,0
-4.0794125,-2.3003714,-0.12027311,-0.7627086,-0.58976209,-0.2654357,0
-1.4827913,-2.3133717,-2.0299854,0.39603359,-0.10142581,-0.91261715,0
3.0772922,3.3990929,0.55857515,0.7627086,0.58976209,0.2654357,0
-0.052614629,-1.1259216,0.40149158,0.51130503,-0.80118251,0.31092387,0
1.8999736,-0.0087266713,0.069284558,0.51130503,-0.80118251,0.31092387,0
0.090626493,-1.2227209,-0.083494276,0.51130503,-0.80118251,0.31092387,0
-1.5387166,-1.6870226,1.1633836,-0.39603359,0.10142581,0.91261715,0
2.1489501,-0.051541343,-0.45047373,0.51130503,-0.80118251,0.31092387,0
0.50449789,-0.87907147,0.12141538,0.51130503,-0.80118251,0.31092387,0
0.56665021,1.5176293,-0.23746347,-0.51130503,0.80118251,-0.31092387,0
-3.1364138,-2.4397368,-2.5202534,-0.7627086,-0.58976209,-0.2654357,0
-3.7333131,-1.9276917,-1.9428051,-0.7627086,-0.58976209,-0.2654357,0
-0.2236824,1.2688437,1.4055407,-0.39603359,0.10142581,0.91261715,0
-3.0165856,-3.3272457,-0.39667463,0.51130503,-0.80118251,0.31092387,0
-3.2995934,-2.3599229,-2.2287047,-0.7627086,-0.58976209,-0.2654357,0
-0.43320948,-1.3799298,-1.6782556,0.39603359,-0.10142581,-0.91261715,0
-3.6340122,-2.7898088,-0.31263137,-0.7627086,-0.58976209,-0.2654357,0
-1.5753268,-1.8033395,1.1599889,0.51130503,-0.80118251,0.31092387,0
2.8312972,3.2661574,1.5607879,0.7627086,0.58976209,0.2654357,0
0.38923919,-0.83270407,-1.3821681,0.39603359,-0.10142581,-0.91261715,0
-1.3510544,-0.70543528,1.1357294,-0.39603359,0.10142581,0.91261715,0
-4.1341977,-1.5486913,-0.40829301,-0.51130503,0.80118251,-0.31092387,0
3.6958866,1.1413057,-0.16662216,0.39603359,-0.10142581,-0.91261715,0
-2.973232,-0.64951771,0.425565,-0.39603359,0.10142581,0.91261715,0
-2.9265885,-3.1695464,-0.13831592,0.51130503,-0.80118251,0.31092387,0
-0.74772108,-1.4744874,0.64639592,0.51130503,-0.80118251,0.31092387,0
-0.29707313,0.79150385,1.4267428,-0.39603359,0.10142581,0.91261715,0
-3.6436958,-2.5074003,-0.91227841,-0.7627086,-0.58976209,-0.2654357,0
2.2474091,2.620285,-0.1601193,-0.51130503,0.80118251,-0.31092387,0
-2.8439348,-1.1505636,-1.5042045,-0.51130503,0.80118251,-0.31092387,0
-0.036475778,-0.3122797,1.6625015,-0.39603359,0.10142581,0.91261715,0
1.8234975,0.43187815,-0.90030861,0.39603359,-0.10142581,-0.91261715,0
0.88578671,1.8178221,0.01125741,-0.51130503,0.80118251,-0.31092387,0
3.1381853,2.9011841,1.4898906,0.7627086,0.58976209,0.2654357,0
2.826371,1.3699019,2.0982745,0.51130503,-0.80118251,0.31092387,0
-1.6135334,-2.7605765,-1.2437696,0.51130503,-0.80118251,0.31092387,0
-3.5753567,-2.1924782,-1.8083606,-0.7627086,-0.58976209,-0.2654357,0
-2.641305,-3.2610638,-2.1180325,-0.7627086,-0.58976209,-0.2654357,0
2.8980858,3.4006031,1.0701561,0.7627086,0.58976209,0.2654357,0
3.7348163,2.678349,0.2706275,0.7627086,0.58976209,0.2654357,0
2.058074,0.22863352,0.42091811,0.51130503,-0.80118251,0.31092387,0
-3.2244363,-1.6935196,-2.277559,-0.51130503,0.80118251,-0.31092387,0
1.7460475,-0.34043869,-0.84808528,0.39603359,-0.10142581,-0.91261715,0
4.127357,1.7587112,-0.048001289,0.39603359,-0.10142581,-0.91261715,0
-1.7762636,-2.0266905,-2.1891997,0.39603359,-0.10142581,-0.91261715,0
2.7225676,2.8755236,-0.2838099,-0.51130503,0.80118251,-0.31092387,0
3.4551289,2.732553,0.95385242,0.7627086,0.58976209,0.2654357,0
-1.1830417,0.5758549,1.0662402,-0.39603359,0.10142581,0.91261715,0
3.2852654,3.2424729,0.30896974,0.7627086,0.58976209,0.2654357,0
3.1366787,3.0394564,1.1869967,0.7627086,0.58976209,0.2654357,0
-1.6500622,0.15349044,-0.10723197,-0.51130503,0.80118251,-0.31092387,0
3.9787025,2.1004307,0.85389566,0.7627086,0.58976209,0.2654357,0
-0.98948717,-2.2497952,-0.95382416,0.51130503,-0.80118251,0.31092387,0
-1.2689064,-0.43848461,1.1417098,-0.39603359,0.10142581,0.91261715,0
2.4952197,2.716038,-0.32090282,-0.51130503,0.80118251,-0.31092387,0
1.3934344,0.70851612,2.1695681,-0.39603359,0.10142581,0.91261715,0
-1.9436339,-0.91272604,0.90161514,-0.39603359,0.10142581,0.91261715,0
-2.846096,-3.2471395,-1.5605197,-0.7627086,-0.58976209,-0.2654357,0
2.5322144,1.6712538,2.5567496,-0.39603359,0.10142581,0.91261715,0
-1.6208698,-0.65264535,1.0127752,-0.39603359,0.10142581,0.91261715,0
1.536638,0.062138766,0.84938347,0.51130503,-0.80118251,0.31092387,0
-1.1793839,-1.2791209,1.2739843,-0.39603359,0.10142581,0.91261715,0
-2.9872179,-1.4659359,-2.0812244,-0.51130503,0.80118251,-0.31092387,0
2.8786035,2.8770146,2.289479,0.7627086,0.58976209,0.2654357,0
-3.5065067,-2.7745066,-0.71300793,-0.7627086,-0.58976209,-0.2654357,0
3.756964,2.5521941,0.48728681,0.7627086,0.58976209,0.2654357,0
2.4521048,3.5446758,2.0315368,0.7627086,0.58976209,0.2654357,0
2.3506758,0.042252775,-0.54051906,0.51130503,-0.80118251,0.31092387,0
-3.9522321,-2.1042848,-0.92139316,-0.7627086,-0.58976209,-0.2654357,0
-1.7265112,-0.25717971,-1.0397199,-0.51130503,0.80118251,-0.31092387,0
3.2915933,3.0230892,0.77822685,0.7627086,0.58976209,0.2654357,0
1.2654145,2.6935513,1.8934016,-0.39603359,0.10142581,0.91261715,0
0.26540738,0.86033893,1.6631832,-0.39603359,0.10142581,0.91261715,0
-3.8699574,-2.2547014,-0.82359719,-0.7627086,-0.58976209,-0.2654357,0
-2.482311,-3.1293921,-0.76544833,0.51130503,-0.80118251,0.31092387,0
1.8110456,2.4917538,0.22627044,-0.51130503,0.80118251,-0.31092387,0
2.8824117,3.343375,1.2423472,0.7627086,0.58976209,0.2654357,0
-3.8292019,-2.0393763,-1.4191275,-0.7627086,-0.58976209,-0.2654357,0
-2.8452034,-0.94193006,0.51362157,-0.39603359,0.10142581,0.91261715,0
3.1633766,0.70558316,-0.16772413,0.51130503,-0.80118251,0.31092387,0
-1.2005017,0.30608565,-0.45331645,-0.51130503,0.80118251,-0.31092387,0
-0.22634491,-1.5583448,-0.42707366,0.51130503,-0.80118251,0.31092387,0
2.6710656,3.3640473,1.8037028,0.7627086,0.58976209,0.2654357,0
-1.7878954,-1.2352624,-2.2822046,0.39603359,-0.10142581,-0.91261715,0
-4.2367887,-2.164773,0.03065443,-0.7627086,-0.58976209,-0.2654357,0
-3.1203306,-3.0056531,-1.309078,-0.7627086,-0.58976209,-0.2654357,0
0.95761919,1.7444662,-0.29589111,-0.51130503,0.80118251,-0.31092387,0
-1.7983642,-1.5133337,-2.2558434,0.39603359,-0.10142581,-0.91261715,0
2.5173016,3.2200441,0.94149756,-0.51130503,0.80118251,-0.31092387,0
3.8065116,1.1591487,-0.056602001,0.51130503,-0.80118251,0.31092387,0
-2.9028006,-2.9692025,-2.0151222,-0.7627086,-0.58976209,-0.2654357,0
-2.8778028,-3.3342242,-0.64288044,0.51130503,-0.80118251,0.31092387,0
-2.6994047,-3.2318759,-2.0159397,-0.7627086,-0.58976209,-0.2654357,0
-4.2901564,-1.6723387,-0.032245636,-0.39603359,0.10142581,0.91261715,0
-2.7004173,-3.4707568,-1.4822695,-0.7627086,-0.58976209,-0.2654357,0
3.3748856,2.8272865,0.97394085,0.7627086,0.58976209,0.2654357,0
3.3275476,2.3802323,2.1032574,0.7627086,0.58976209,0.2654357,0
3.5890913,2.8663609,-0.40468454,0.39603359,-0.10142581,-0.91261715,0
-3.6434631,-2.7109573,-0.46067238,-0.7627086,-0.58976209,-0.2654357,0
-0.53854966,-0.021994352,-1.8748856,0.39603359,-0.10142581,-0.91261715,0
3.5908179,2.2484512,1.639569,0.7627086,0.58976209,0.2654357,0
0.70003253,0.63371325,1.876977,-0.39603359,0.10142581,0.91261715,0
-0.47420931,0.32390571,1.4018414,-0.39603359,0.10142581,0.91261715,0
0.10894704,-0.12676612,-1.5822579,0.39603359,-0.10142581,-0.91261715,0
-2.3730092,-2.4222703,0.87690568,0.51130503,-0.80118251,0.31092387,0
0.45920977,2.1049228,1.4525447,-0.51130503,0.80118251,-0.31092387,0
-4.0108819,-1.9177029,-1.1674273,-0.7627086,-0.58976209,-0.2654357,0
2.2700326,0.95269674,-0.7644155,0.39603359,-0.10142581,-0.91261715,0
-3.7697287,-1.919937,-1.855397,-0.7627086,-0.58976209,-0.2654357,0
3.0612535,2.4623876,-0.58884501,0.39603359,-0.10142581,-0.91261715,0
4.0567846,2.2294438,0.34288168,0.7627086,0.58976209,0.2654357,0
0.21722829,0.258553,1.7091565,-0.39603359,0.10142581,0.91261715,0
-2.8576565,-1.2913165,-1.8443289,-0.51130503,0.80118251,-0.31092387,0
-3.8656557,-2.1593273,-1.0478661,-0.7627086,-0.58976209,-0.2654357,0
3.0197742,0.6737951,-0.40806592,0.39603359,-0.10142581,-0.91261715,0
2.1152527,2.4999104,-0.25297105,-0.51130503,0.80118251,-0.31092387,0
-0.87741089,-2.246263,-1.7747366,0.39603359,-0.10142581,-0.91261715,0
1.7586561,-0.087283671,0.099252701,0.51130503,-0.80118251,0.31092387,0
-2.2857459,-0.31347573,-0.26513851,-0.51130503,0.80118251,-0.31092387,0
-2.1216657,-2.7517519,-2.2585068,0.39603359,-0.10142581,-0.91261715,0
3.6833415,1.4186091,0.8145206,0.51130503,-0.80118251,0.31092387,0
-1.2001011,-1.9759064,-1.9448159,0.39603359,-0.10142581,-0.91261715,0
3.1032796,3.3265367,0.64511299,0.7627086,0.58976209,0.2654357,0
-0.54341608,-1.2550292,-1.7399614,0.39603359,-0.10142581,-0.91261715,0
-0.38819301,-0.51285768,-1.7550845,0.39603359,-0.10142581,-0.91261715,0
-3.5617294,-3.0853515,0.13632607,-0.7627086,-0.58976209,-0.2654357,0
-2.0165625,-1.5739722,0.94345641,-0.39603359,0.10142581,0.91261715,0
3.4494262,1.6875288,1.8921337,0.51130503,-0.80118251,0.31092387,0
-3.6032228,-2.9476297,-0.050445557,-0.7627086,-0.58976209,-0.2654357,0
-0.77245724,1.0648334,1.1900711,-0.39603359,0.10142581,0.91261715,0
-2.9871082,-3.1299596,-1.4156904,-0.7627086,-0.58976209,-0.2654357,0
0.76908422,0.33721304,-1.3473544,0.39603359,-0.10142581,-0.91261715,0
-2.2111206,-2.5876665,0.18449545,0.51130503,-0.80118251,0.31092387,0
0.40177488,0.95710027,-1.4106908,-0.51130503,0.80118251,-0.31092387,0
-3.2114661,-3.0833676,-0.87453651,-0.7627086,-0.58976209,-0.2654357,0
-2.968147,-3.0214853,-1.7111893,-0.7627086,-0.58976209,-0.2654357,0
0.59756315,0.69063622,-1.4610652,0.39603359,-0.10142581,-0.91261715,0
2.7293653,1.2841225,2.0367627,0.51130503,-0.80118251,0.31092387,0
-2.4189696,-3.2242703,-2.3350084,0.39603359,-0.10142581,-0.91261715,0
2.5622501,2.4976058,2.4779453,-0.39603359,0.10142581,0.91261715,0
-0.24565494,1.1489317,1.4093324,-0.39603359,0.10142581,0.91261715,0
-0.73070276,-2.1892686,-1.7174063,0.39603359,-0.10142581,-0.91261715,0
-3.3426611,-2.6990662,-1.3514233,-0.7627086,-0.58976209,-0.2654357,0
-2.7885101,-2.9082503,-2.4789543,-0.7627086,-0.58976209,-0.2654357,0
3.3148348,3.1928093,0.33435011,0.7627086,0.58976209,0.2654357,0
0.99103796,1.0002898,-1.3247292,0.39603359,-0.10142581,-0.91261715,0
-0.48206973,-0.64181429,1.5057578,-0.39603359,0.10142581,0.91261715,0
0.32766628,1.258749,1.6459225,-0.39603359,0.10142581,0.91261715,0
1.4727516,2.7562289,1.4640791,-0.51130503,0.80118251,-0.31092387,0
4.0973563,2.2273455,0.23096609,0.7627086,0.58976209,0.2654357,0
3.441083,2.1326294,2.3271618,0.7627086,0.58976209,0.2654357,0
-2.8973145,-3.2069929,-1.502548,-0.7627086,-0.58976209,-0.2654357,0
-3.4041548,-2.3250597,-2.0057182,-0.7627086,-0.58976209,-0.2654357,0
2.6523061,0.31108996,-0.34380639,0.51130503,-0.80118251,0.31092387,0
-0.52297878,0.54242611,-0.95848477,-0.51130503,0.80118251,-0.31092387,0
-0.85750318,-0.82943308,-1.9235603,0.39603359,-0.10142581,-0.91261715,0
0.72936314,-1.2223592,-1.1329454,0.51130503,-0.80118251,0.31092387,0
-2.6426821,-3.3750305,-1.8608565,-0.7627086,-0.58976209,-0.2654357,0
-1.0096757,-2.0456512,-0.39459085,0.51130503,-0.80118251,0.31092387,0
3.5325561,2.1779335,1.9636617,0.7627086,0.58976209,0.2654357,0
-2.2037137,0.076908834,0.67876732,-0.39603359,0.10142581,0.91261715,0
-2.4647088,-3.0485063,-2.3743916,0.39603359,-0.10142581,-0.91261715,0
2.0652325,1.7305529,-0.93973792,0.39603359,-0.10142581,-0.91261715,0
-3.2519004,-2.4254265,-2.2202067,-0.7627086,-0.58976209,-0.2654357,0
-0.37622166,-1.2161095,0.70125926,0.51130503,-0.80118251,0.31092387,0
-2.8901615,-3.3354902,-1.2375977,-0.7627086,-0.58976209,-0.2654357,0
-3.3556507,-1.456632,-1.4513738,-0.51130503,0.80118251,-0.31092387,0
-3.3162618,-2.1357799,-2.6788266,-0.7627086,-0.58976209,-0.2654357,0
-3.9785225,-2.5614631,0.16993952,-0.7627086,-0.58976209,-0.2654357,0
0.76220977,2.2027326,1.7295824,-0.39603359,0.10142581,0.91261715,0
0.76338142,2.2314336,1.2783347,-0.51130503,0.80118251,-0.31092387,0
-2.6215243,-2.71738,-2.4792426,0.39603359,-0.10142581,-0.91261715,0
3.6654804,3.0472698,-0.34983397,0.7627086,0.58976209,0.2654357,0
-3.8893576,-2.3141692,-0.63572383,-0.7627086,-0.58976209,-0.2654357,0
-4.1667285,-1.8703185,-0.82489514,-0.7627086,-0.58976209,-0.2654357,0
-0.47564107,0.80128276,1.3481659,-0.39603359,0.10142581,0.91261715,0
-2.1720226,-2.2476196,-2.3363874,0.39603359,-0.10142581,-0.91261715,0
-2.285125,-3.2711527,-1.4550002,0.51130503,-0.80118251,0.31092387,0
-2.9952264,-3.0208008,0.35784125,0.51130503,-0.80118251,0.31092387,0
4.0414953,1.6681147,0.86846757,0.51130503,-0.80118251,0.31092387,0
-3.236434,-1.9100348,0.45143795,-0.39603359,0.10142581,0.91261715,0
0.1744737,1.1975114,-0.41741449,-0.51130503,0.80118251,-0.31092387,0
3.6574326,2.6877029,0.47220087,0.7627086,0.58976209,0.2654357,0
3.273984,3.1320028,0.58683491,0.7627086,0.58976209,0.2654357,0
-1.9632545,-2.7225945,-2.1930041,0.39603359,-0.10142581,-0.91261715,0
2.453784,0.98737872,1.7253046,0.51130503,-0.80118251,0.31092387,0
-1.5524327,-0.88971353,1.0688208,-0.39603359,0.10142581,0.91261715,0
-2.2094276,-2.9787149,-0.82593536,0.51130503,-0.80118251,0.31092387,0
-1.6849771,-1.543548,-2.2032804,0.39603359,-0.10142581,-0.91261715,0
2.94507,1.4302011,2.0584545,0.51130503,-0.80118251,0.31092387,0
-3.2861798,-2.8306131,-1.2214384,-0.7627086,-0.58976209,-0.2654357,0
-2.9031816,-2.6139576,-2.6129622,0.39603359,-0.10142581,-0.91261715,0
2.4869366,0.48703223,0.38150346,0.51130503,-0.80118251,0.31092387,0
-3.1792791,-2.8504443,-1.4845476,-0.7627086,-0.58976209,-0.2654357,0
2.9503169,2.9836512,1.8464842,0.7627086,0.58976209,0.2654357,0
-3.5407989,-2.0636418,-2.1939175,-0.7627086,-0.58976209,-0.2654357,0
-2.7883124,-3.0950742,-2.0644248,-0.7627086,-0.58976209,-0.2654357,0
2.4189234,1.2130657,2.364177,0.51130503,-0.80118251,0.31092387,0
0.33992115,-0.69247341,0.87287897,0.51130503,-0.80118251,0.31092387,0
3.3286638,2.9799154,0.76763463,0.7627086,0.58976209,0.2654357,0
-0.7002759,-2.2088561,-1.3239328,0.51130503,-0.80118251,0.31092387,0
-4.0613856,-2.0126903,-0.81125855,-0.7627086,-0.58976209,-0.2654357,0
3.0839725,2.8154128,1.8362386,0.7627086,0.58976209,0.2654357,0
-1.8902559,-1.3642361,-2.3122904,0.39603359,-0.10142581,-0.91261715,0
0.31216699,-1.1705407,-1.3780677,0.39603359,-0.10142581,-0.91261715,0
-2.9267182,-1.3515913,0.52377641,-0.39603359,0.10142581,0.91261715,0
-2.9580965,-1.9206938,-2.7138407,0.39603359,-0.10142581,-0.91261715,0
3.8787546,2.0067668,1.3491955,0.7627086,0.58976209,0.2654357,0
0.19747412,-1.0522798,-1.4409823,0.39603359,-0.10142581,-0.91261715,0
-3.6082573,-2.9890916,0.41000748,-0.39603359,0.10142581,0.91261715,0
2.7669201,2.7555852,-0.66580129,-0.51130503,0.80118251,-0.31092387,0
-3.1237366,-0.83248365,-0.2244575,-0.51130503,0.80118251,-0.31092387,0
-1.1292406,0.44677806,-0.20796984,-0.51130503,0.80118251,-0.31092387,0
-1.5423336,-2.2277703,0.012067914,0.51130503,-0.80118251,0.31092387,0
-1.5988104,-0.053526595,0.95576358,-0.39603359,0.10142581,0.91261715,0
-3.0075178,-2.3069508,-2.6923599,0.39603359,-0.10142581,-0.91261715,0
2.0993233,2.7313123,2.2510829,-0.39603359,0.10142581,0.91261715,0
-0.15651476,0.33383739,-1.7486464,0.39603359,-0.10142581,-0.91261715,0
1.313405,0.52125436,2.1556504,-0.39603359,0.10142581,0.91261715,0
3.2191834,1.1221873,0.81399965,0.51130503,-0.80118251,0.31092387,0
2.4085255,2.4910984,-0.75795627,-0.51130503,0.80118251,-0.31092387,0
-2.6858077,-2.5780253,-2.5226257,0.39603359,-0.10142581,-0.91261715,0
-2.7812974,-2.9169471,-2.4803555,-0.7627086,-0.58976209,-0.2654357,0
3.6994243,2.9825156,-0.30349398,0.7627086,0.58976209,0.2654357,0
-3.8766611,-2.4933195,-0.27415729,-0.7627086,-0.58976209,-0.2654357,0
-1.0378062,-0.83694834,-2.000968,0.39603359,-0.10142581,-0.91261715,0
3.9438148,1.8602741,1.4877384,0.7627086,0.58976209,0.2654357,0
2.3637464,3.2534816,1.2801757,-0.51130503,0.80118251,-0.31092387,0
3.0475695,2.3041468,2.710052,-0.39603359,0.10142581,0.91261715,0
0.24991775,0.89533037,1.6525725,-0.39603359,0.10142581,0.91261715,0
-3.0952399,-2.6157,-2.2475975,-0.7627086,-0.58976209,-0.2654357,0
-1.4595065,-2.7339482,-1.973139,0.39603359,-0.10142581,-0.91261715,0
-3.1479125,-1.8707169,0.48548245,-0.39603359,0.10142581,0.91261715,0
-1.916754,-2.5660644,-2.1902213,0.39603359,-0.10142581,-0.91261715,0
-2.3331182,-0.42275462,-0.46882379,-0.51130503,0.80118251,-0.31092387,0
-3.5927329,-1.9293847,-2.2796793,-0.51130503,0.80118251,-0.31092387,0
-3.7547929,-2.5618949,-0.47197104,-0.7627086,-0.58976209,-0.2654357,0
3.2334912,3.1332731,0.70036554,0.7627086,0.58976209,0.2654357,0
3.8269675,1.9391892,1.6481504,0.7627086,0.58976209,0.2654357,0
3.91785,2.6368957,-0.16320229,0.7627086,0.58976209,0.2654357,0
-0.86586928,-0.32730478,1.304253,-0.39603359,0.10142581,0.91261715,0
3.5722592,2.6560173,0.78734112,0.7627086,0.58976209,0.2654357,0
-2.3581762,-3.5411172,-2.030509,0.51130503,-0.80118251,0.31092387,0
-3.0746469,-2.9991145,-1.4548736,-0.7627086,-0.58976209,-0.2654357,0
1.1873553,0.15419137,1.6609675,0.51130503,-0.80118251,0.31092387,0
0.52840823,-0.94638562,-1.3091409,0.39603359,-0.10142581,-0.91261715,0
3.2858047,2.9309201,0.99964714,0.7627086,0.58976209,0.2654357,0
-1.2572615,-0.68025059,-2.1136165,0.39603359,-0.10142581,-0.91261715,0
2.8170114,3.1128225,1.9425259,0.7627086,0.58976209,0.2654357,0
-3.6831155,-2.3182182,-1.2193468,-0.7627086,-0.58976209,-0.2654357,0
-3.2848742,-2.2179289,0.46463561,-0.39603359,0.10142581,0.91261715,0
3.6555951,2.9080446,-0.012090206,0.7627086,0.58976209,0.2654357,0
1.6408672,0.028493315,0.59128487,0.51130503,-0.80118251,0.31092387,0
-1.7955357,-1.2350051,1.0017,-0.39603359,0.10142581,0.91261715,0
-3.7464395,-2.6502492,-0.29966235,-0.7627086,-0.58976209,-0.2654357,0
1.2091234,-0.04702723,1.1066749,0.51130503,-0.80118251,0.31092387,0
-2.8691938,-0.97897553,-1.0205221,-0.51130503,0.80118251,-0.31092387,0
-3.106523,-3.1241848,0.27446747,0.51130503,-0.80118251,0.31092387,0
-1.4374015,-1.5340934,-2.0968952,0.39603359,-0.10142581,-0.91261715,0
0.22734281,1.8761719,1.2444026,-0.51130503,0.80118251,-0.31092387,0
-3.9289865,-1.4467731,-0.48313594,-0.51130503,0.80118251,-0.31092387,0
2.2521331,2.8555977,2.3035824,-0.39603359,0.10142581,0.91261715,0
-0.31472456,0.62152731,-1.0971262,-0.51130503,0.80118251,-0.31092387,0
3.5399747,3.0154285,0.081543446,0.7627086,0.58976209,0.2654357,0
2.9621465,2.2336464,2.6808176,-0.39603359,0.10142581,0.91261715,0
-1.7151771,-1.2876329,1.0424209,-0.39603359,0.10142581,0.91261715,0
0.9802711,1.9549642,1.8517474,-0.39603359,0.10142581,0.91261715,0
1.5829268,2.8103418,2.0182078,-0.39603359,0.10142581,0.91261715,0
0.044035673,-0.98713845,0.60016674,0.51130503,-0.80118251,0.31092387,0
3.4228375,2.7163408,1.0826612,0.7627086,0.58976209,0.2654357,0
2.2127409,0.87747771,-0.78091782,0.39603359,-0.10142581,-0.91261715,0
-0.93150818,-0.41090071,1.2850593,-0.39603359,0.10142581,0.91261715,0
-3.636549,-2.9994099,0.1603632,-0.7627086,-0.58976209,-0.2654357,0
-3.0491679,-3.3635614,-0.71833611,-0.7627086,-0.58976209,-0.2654357,0
-0.59626317,-2.0696917,-1.6723551,0.39603359,-0.10142581,-0.91261715,0
-0.093875408,-0.22775936,1.6281993,-0.39603359,0.10142581,0.91261715,0
-1.6067915,-0.54484451,-1.9778446,-0.51130503,0.80118251,-0.31092387,0
-2.372251,-1.0033553,-1.9005506,-0.51130503,0.80118251,-0.31092387,0
-0.59737629,0.69988775,1.3066071,-0.39603359,0.10142581,0.91261715,0
4.3253007,1.8413432,0.43362856,0.7627086,0.58976209,0.2654357,0
3.7018731,2.5468724,0.65741014,0.7627086,0.58976209,0.2654357,0
3.1815484,3.1811454,0.74325347,0.7627086,0.58976209,0.2654357,0
2.3609829,2.236145,2.4196625,-0.39603359,0.10142581,0.91261715,0
-1.8720844,-0.29191163,0.8636688,-0.39603359,0.10142581,0.91261715,0
-2.9707046,-2.8645883,-2.0524445,-0.7627086,-0.58976209,-0.2654357,0
1.7546214,-0.33773467,-0.53946948,0.51130503,-0.80118251,0.31092387,0
-0.63732839,0.96510696,0.31871474,-0.51130503,0.80118251,-0.31092387,0
3.537024,2.3825099,1.4962826,0.7627086,0.58976209,0.2654357,0
-2.6494718,-3.1889198,-0.64394712,0.51130503,-0.80118251,0.31092387,0
1.8754952,3.0989635,2.1130919,-0.39603359,0.10142581,0.91261715,0
-3.0181906,-2.589813,-2.52651,-0.7627086,-0.58976209,-0.2654357,0
-2.7708001,-1.0429432,0.55713534,-0.39603359,0.10142581,0.91261715,0
0.83039391,1.371177,-1.0485573,-0.51130503,0.80118251,-0.31092387,0
3.2980456,2.496191,1.9303844,0.7627086,0.58976209,0.2654357,0
-2.8862152,-3.2150059,-1.5166364,-0.7627086,-0.58976209,-0.2654357,0
-3.1597977,-3.2693927,-0.60967875,-0.7627086,-0.58976209,-0.2654357,0
-3.1971569,-2.8760724,-1.3762341,-0.7627086,-0.58976209,-0.2654357,0
1.1186069,2.5768785,1.5843123,-0.51130503,0.80118251,-0.31092387,0
-2.4577351,-0.71338797,0.65636539,-0.39603359,0.10142581,0.91261715,0
-2.0677037,-0.93576026,-2.2271917,-0.51130503,0.80118251,-0.31092387,0
3.4237235,2.1942616,2.240104,0.7627086,0.58976209,0.2654357,0
-3.2910848,-2.208272,-2.5901036,-0.7627086,-0.58976209,-0.2654357,0
1.0593624,1.4434004,1.9429229,-0.39603359,0.10142581,0.91261715,0
-3.477139,-3.2743881,0.49689364,0.51130503,-0.80118251,0.31092387,0
3.6413245,2.8610461,0.13333941,0.7627086,0.58976209,0.2654357,0
-3.1314583,-2.725734,0.58764696,-0.39603359,0.10142581,0.91261715,0
-4.1949878,-2.2344825,0.065428972,-0.7627086,-0.58976209,-0.2654357,0
3.0680447,3.0766282,1.3016207,0.7627086,0.58976209,0.2654357,0
3.0016046,2.7458038,2.2275772,0.7627086,0.58976209,0.2654357,0
3.9795959,2.409816,0.1639154,0.7627086,0.58976209,0.2654357,0
-3.450804,-2.4899039,-1.5054133,-0.7627086,-0.58976209,-0.2654357,0
0.50092161,0.74767226,-1.5093418,0.39603359,-0.10142581,-0.91261715,0
-2.6347444,-3.1590998,-0.59132648,0.51130503,-0.80118251,0.31092387,0
4.0094543,1.9066145,1.1961658,0.7627086,0.58976209,0.2654357,0
3.7025375,1.3414634,-0.18598104,0.39603359,-0.10142581,-0.91261715,0
-4.2651772,-1.910591,0.0050728321,-0.39603359,0.10142581,0.91261715,0
-4.0452833,-2.225347,0.13547826,-0.39603359,0.10142581,0.91261715,0
0.31921959,-1.3144959,-0.69589281,0.51130503,-0.80118251,0.31092387,0
0.14449668,0.95940727,-0.98165965,-0.51130503,0.80118251,-0.31092387,0
-1.4725364,0.6246593,0.81493068,-0.51130503,0.80118251,-0.31092387,0
-2.6397357,-2.6869545,-2.4905264,0.39603359,-0.10142581,-0.91261715,0
2.502677,3.4722204,2.047209,0.7627086,0.58976209,0.2654357,0
-1.3273716,0.10388744,-0.7657029,-0.51130503,0.80118251,-0.31092387,0
3.04211,3.2310877,0.10692286,-0.51130503,0.80118251,-0.31092387,0
-2.4559381,-3.450304,-2.2302041,-0.7627086,-0.58976209,-0.2654357,0
-3.4110761,-2.1008081,-2.4840863,-0.7627086,-0.58976209,-0.2654357,0
1.1965418,-0.70579505,-0.5701347,0.51130503,-0.80118251,0.31092387,0
-0.60871446,-1.6688107,-0.082924485,0.51130503,-0.80118251,0.31092387,0
-3.5915933,-1.2250109,0.22118354,-0.39603359,0.10142581,0.91261715,0
-2.5335932,-1.0941614,-1.8692162,-0.51130503,0.80118251,-0.31092387,0
2.7759392,3.0151973,2.2774544,0.7627086,0.58976209,0.2654357,0
3.775965,2.8800209,-0.29569793,0.7627086,0.58976209,0.2654357,0
-0.99094498,-1.9106159,-0.077436447,0.51130503,-0.80118251,0.31092387,0
4.4594331,1.7854443,0.17241096,0.7627086,0.58976209,0.2654357,0
-2.7543252,-2.6282616,-2.5467758,0.39603359,-0.10142581,-0.91261715,0
2.6506152,1.4464846,2.584636,0.51130503,-0.80118251,0.31092387,0
-3.6937866,-2.2506094,-1.3389015,-0.7627086,-0.58976209,-0.2654357,0
-2.7983928,-0.37461078,0.47088492,-0.39603359,0.10142581,0.91261715,0
-1.4378369,-2.8084383,-1.6560273,0.51130503,-0.80118251,0.31092387,0
3.5836411,1.8528552,-0.29441142,0.39603359,-0.10142581,-0.91261715,0
2.5720241,3.4605913,1.4713447,-0.51130503,0.80118251,-0.31092387,0
4.1852045,1.918318,-0.040636063,0.39603359,-0.10142581,-0.91261715,0
-0.43823028,-1.006542,1.34324,0.51130503,-0.80118251,0.31092387,0
-0.32519948,-1.2058949,0.6436758,0.51130503,-0.80118251,0.31092387,0
2.9730947,3.3876145,0.88348222,0.7627086,0.58976209,0.2654357,0
3.1117854,3.2251093,-0.023060799,-0.51130503,0.80118251,-0.31092387,0
0.87479424,-1.0717419,-1.1448938,0.39603359,-0.10142581,-0.91261715,0
-1.1388631,0.39995947,1.1049602,-0.39603359,0.10142581,0.91261715,0
-2.8599391,-2.9731429,-2.1295254,-0.7627086,-0.58976209,-0.2654357,0
1.6851816,0.61544245,2.0308495,0.51130503,-0.80118251,0.31092387,0
3.8721066,1.895135,1.6163297,0.7627086,0.58976209,0.2654357,0
-1.4258651,-2.263694,-0.27202857,0.51130503,-0.80118251,0.31092387,0
-1.2591435,-1.8290439,0.57380098,0.51130503,-0.80118251,0.31092387,0
-0.16271201,1.364724,0.56794763,-0.51130503,0.80118251,-0.31092387,0
-3.4285524,-1.2668655,-0.84250212,-0.51130503,0.80118251,-0.31092387,0
2.9563289,3.3258622,1.0688627,0.7627086,0.58976209,0.2654357,0
2.9328847,3.3653967,1.0483885,0.7627086,0.58976209,0.2654357,0
-3.9999254,-2.2203836,-0.52639318,-0.7627086,-0.58976209,-0.2654357,0
-0.26482236,1.3439293,0.68228173,-0.51130503,0.80118251,-0.31092387,0
0.71109474,0.83159304,1.8597854,-0.39603359,0.10142581,0.91261715,0
-3.1333017,-3.2331533,-0.76633096,-0.7627086,-0.58976209,-0.2654357,0
1.1510742,-0.28632894,0.58550704,0.51130503,-0.80118251,0.31092387,0
-3.7357724,-2.1510954,-1.4393666,-0.7627086,-0.58976209,-0.2654357,0
-3.9984558,-1.3128345,0.054384708,-0.39603359,0.10142581,0.91261715,0
3.9510863,2.4181459,0.2273283,0.7627086,0.58976209,0.2654357,0
2.956516,2.184669,-0.60343134,0.39603359,-0.10142581,-0.91261715,0
-0.61743486,-1.7106022,-0.17627156,0.51130503,-0.80118251,0.31092387,0
-0.66038275,0.85922945,1.2615564,-0.39603359,0.10142581,0.91261715,0
1.2806106,2.1058824,0.104249,-0.51130503,0.80118251,-0.31092387,0
-2.8135414,-3.3327289,-1.4638956,-0.7627086,-0.58976209,-0.2654357,0
-3.4142442,-2.6040931,-1.3567529,-0.7627086,-0.58976209,-0.2654357,0
3.8374484,1.9122472,1.677896,0.7627086,0.58976209,0.2654357,0
-0.18357511,1.0108534,-0.30959043,-0.51130503,0.80118251,-0.31092387,0
3.9134679,2.5700855,-0.0021677017,0.7627086,0.58976209,0.2654357,0
