-0.66062248,-2.4422131,1.8501835,0.70719761,-0.69579828,-0.12544516,0
-1.3864658,-2.5020123,-1.9100749,0.70719761,-0.69579828,-0.12544516,0
3.2555814,2.5927019,-0.29019189,0.70490146,0.68018281,0.20116019,0
-0.78980613,-2.4339335,1.0759873,0.70719761,-0.69579828,-0.12544516,0
1.7734807,1.6073854,3.054791,-0.054641128,-0.23068643,0.97149277,0
-0.81383181,-1.4780054,2.1766253,-0.054641128,-0.23068643,0.97149277,0
-1.4952416,-0.20686436,0.68958074,-0.70719761,0.69579828,0.12544516,0
2.7753944,1.5439098,-0.88881397,0.70719761,-0.69579828,-0.12544516,0
0.40819347,2.1986651,-2.0283155,0.054641128,0.23068643,-0.97149277,0
1.2520881,2.4277477,1.5644374,-0.70719761,0.69579828,0.12544516,0
2.3537166,3.2238045,0.73615837,0.70490146,0.68018281,0.20116019,0
-2.2187376,-3.1665146,-1.4028645,-0.70490146,-0.68018281,-0.20116019,0
-2.6646426,-2.9254477,-0.65545225,-0.70490146,-0.68018281,-0.20116019,0
-0.95496905,-2.4481297,0.22362232,0.70719761,-0.69579828,-0.12544516,0
2.6997218,1.5260594,-1.2164099,0.70719761,-0.69579828,-0.12544516,0
-1.25014,-2.2600055,1.9663951,-0.054641128,-0.23068643,0.97149277,0
2.9044261,2.3264427,-1.8575745,0.054641128,0.23068643,-0.97149277,0
3.3300536,2.1717298,0.87227774,0.70490146,0.68018281,0.20116019,0
-1.2943869,-2.2791097,-2.6273379,0.70719761,-0.69579828,-0.12544516,0
2.0633283,2.0261421,-1.9761897,0.054641128,0.23068643,-0.97149277,0
-1.9226334,-0.26562333,-1.3939259,-0.70719761,0.69579828,0.12544516,0
1.1641661,1.4419361,-2.1654856,0.054641128,0.23068643,-0.97149277,0
-1.8850627,-0.64912319,-2.8335218,0.054641128,0.23068643,-0.97149277,0
2.2507257,1.1878929,2.9820225,-0.054641128,-0.23068643,0.97149277,0
-1.8976765,-2.4986274,-3.2734067,0.054641128,0.23068643,-0.97149277,0
-1.8087311,-0.5968107,1.0851722,-0.70719761,0.69579828,0.12544516,0
2.7678738,2.3773482,2.1469996,0.70490146,0.68018281,0.20116019,0
-2.04321,-3.0071762,-2.5567145,-0.70490146,-0.68018281,-0.20116019,0
3.3763835,2.3082528,0.24830484,0.70490146,0.68018281,0.20116019,0
-2.7358565,-2.5432849,-1.6981122,-0.70490146,-0.68018281,-0.20116019,0
0.75095296,2.4713554,-1.502588,-0.70719761,0.69579828,0.12544516,0
-2.4920781,-1.1953826,0.55286014,-0.70719761,0.69579828,0.12544516,0
2.8637028,2.9014382,-1.7233291,0.054641128,0.23068643,-0.97149277,0
-1.4481739,-1.9223268,2.0354404,-0.054641128,-0.23068643,0.97149277,0
-0.17447734,-1.783731,0.93847108,0.70719761,-0.69579828,-0.12544516,0
-2.3837166,-3.7173097,1.0376568,-0.70490146,-0.68018281,-0.20116019,0
2.3256412,3.5211382,-0.17083406,0.70490146,0.68018281,0.20116019,0
-2.2099166,-3.4140475,-0.59679127,-0.70490146,-0.68018281,-0.20116019,0
-1.0422918,-0.11314744,2.4878688,-0.054641128,-0.23068643,0.97149277,0
1.6628782,2.1345515,-1.9729702,0.054641128,0.23068643,-0.97149277,0
1.2426403,2.2383504,2.5616925,-0.70719761,0.69579828,0.12544516,0
0.1625917,-0.27739048,2.5166366,-0.054641128,-0.23068643,0.97149277,0
3.1225924,1.3701345,2.0323815,0.70719761,-0.69579828,-0.12544516,0
-0.065345764,-0.17298798,-2.6181118,0.054641128,0.23068643,-0.97149277,0
-1.1435313,-2.6366029,0.20599294,0.70719761,-0.69579828,-0.12544516,0
-1.5518878,-2.5087657,-2.8051808,0.70719761,-0.69579828,-0.12544516,0
-1.5929254,-0.44212618,1.4437991,-0.70719761,0.69579828,0.12544516,0
3.2264493,2.1515141,-1.7161496,0.70719761,-0.69579828,-0.12544516,0
2.5086606,1.3187866,3.0276113,-0.054641128,-0.23068643,0.97149277,0
0.33810446,-1.1551552,0.341676,0.70719761,-0.69579828,-0.12544516,0
-0.2872982,-1.6077359,-0.67373669,0.70719761,-0.69579828,-0.12544516,0
-3.1467361,-1.7095737,-3.0773442,-0.70490146,-0.68018281,-0.20116019,0
2.5707426,2.5716915,2.1806517,0.70490146,0.68018281,0.20116019,0
2.2254858,3.3134525,0.88237476,0.70490146,0.68018281,0.20116019,0
-2.946703,-2.5554104,-0.91826892,-0.70490146,-0.68018281,-0.20116019,0
1.6556251,-0.052628756,1.6538925,0.70719761,-0.69579828,-0.12544516,0
-2.7543852,-2.4355989,-1.997303,-0.70490146,-0.68018281,-0.20116019,0
-0.082933664,-0.26291555,2.5062644,-0.054641128,-0.23068643,0.97149277,0
2.2363789,0.34200943,2.7389822,0.70719761,-0.69579828,-0.12544516,0
-2.7893248,-3.2482548,0.87296581,-0.70490146,-0.68018281,-0.20116019,0
1.3119924,2.6563163,0.63436294,-0.70719761,0.69579828,0.12544516,0
1.2765858,2.1292217,3.1507561,-0.054641128,-0.23068643,0.97149277,0
1.6290965,0.75338954,-2.302835,0.054641128,0.23068643,-0.97149277,0
-2.1900525,-2.6844766,-3.1332984,-0.70490146,-0.68018281,-0.20116019,0
-0.041505508,1.3825748,0.068989515,-0.70719761,0.69579828,0.12544516,0
0.068306684,-1.6430855,2.1870415,-0.054641128,-0.23068643,0.97149277,0
1.6401134,0.015637636,1.1877966,0.70719761,-0.69579828,-0.12544516,0
-0.65139937,-2.2214148,0.67749453,0.70719761,-0.69579828,-0.12544516,0
-2.5371258,-3.2751598,0.080189705,-0.70490146,-0.68018281,-0.20116019,0
-2.9068437,-1.4773291,-0.2215271,-0.70719761,0.69579828,0.12544516,0
-0.086511612,0.46260452,2.6783419,-0.054641128,-0.23068643,0.97149277,0
0.64551723,1.0215075,-2.2944899,0.054641128,0.23068643,-0.97149277,0
-3.1181271,-3.0411472,1.3248551,-0.70490146,-0.68018281,-0.20116019,0
1.5063086,-0.36175895,2.5721796,-0.054641128,-0.23068643,0.97149277,0
-2.4127412,-3.8251264,1.5039256,-0.70490146,-0.68018281,-0.20116019,0
-2.6577513,-1.2598515,-0.023539066,-0.70719761,0.69579828,0.12544516,0
1.4518642,1.929413,3.1131687,-0.054641128,-0.23068643,0.97149277,0
2.6277561,2.7317224,1.4397519,0.70490146,0.68018281,0.20116019,0
-1.8395967,-1.034162,2.2243247,-0.054641128,-0.23068643,0.97149277,0
2.846637,1.8974092,-1.962701,0.054641128,0.23068643,-0.97149277,0
1.3313956,1.8444121,-2.0605099,0.054641128,0.23068643,-0.97149277,0
-1.0654702,-2.7713618,1.39352,0.70719761,-0.69579828,-0.12544516,0
-2.6571755,-0.87581336,-2.1504104,-0.70719761,0.69579828,0.12544516,0
3.4534731,2.7475009,-1.5070624,0.70490146,0.68018281,0.20116019,0
-2.6487699,-0.80190158,-2.512985,-0.70719761,0.69579828,0.12544516,0
0.76892447,0.92634255,2.8365729,-0.054641128,-0.23068643,0.97149277,0
-0.38902318,0.73566186,1.6980453,-0.70719761,0.69579828,0.12544516,0
-2.4026532,-3.1990685,-0.64831448,-0.70490146,-0.68018281,-0.20116019,0
-1.4190303,-2.806464,-0.40497756,0.70719761,-0.69579828,-0.12544516,0
3.2103798,1.842101,2.4062102,0.70490146,0.68018281,0.20116019,0
1.3472984,0.14204097,2.6828663,-0.054641128,-0.23068643,0.97149277,0
0.85131669,-0.35613084,2.5366764,-0.054641128,-0.23068643,0.97149277,0
0.67425036,1.7501916,2.065032,-0.70719761,0.69579828,0.12544516,0
2.5460782,1.5059755,-1.9711764,0.70719761,-0.69579828,-0.12544516,0
1.726536,3.1939499,-1.7178297,0.054641128,0.23068643,-0.97149277,0
1.2161074,-0.54541123,1.9093913,0.70719761,-0.69579828,-0.12544516,0
-2.5627842,-2.3062685,-3.106015,-0.70490146,-0.68018281,-0.20116019,0
3.4070096,2.3104453,-1.5797739,0.70719761,-0.69579828,-0.12544516,0
2.7378511,2.5465546,1.6800673,0.70490146,0.68018281,0.20116019,0
-1.0281984,-1.1207867,2.2493918,-0.054641128,-0.23068643,0.97149277,0
0.89067686,1.065218,-2.2703218,0.054641128,0.23068643,-0.97149277,0
2.2114284,2.7017522,2.99998,0.70490146,0.68018281,0.20116019,0
0.80779541,1.6665809,-2.1321864,0.054641128,0.23068643,-0.97149277,0
1.7097907,0.25017512,0.27971101,0.70719761,-0.69579828,-0.12544516,0
0.50237167,1.0068164,-2.3060296,0.054641128,0.23068643,-0.97149277,0
-0.62813926,-0.59040773,2.3978343,-0.054641128,-0.23068643,0.97149277,0
-0.79460251,0.59005272,0.21923067,-0.70719761,0.69579828,0.12544516,0
-2.9924331,-3.1935039,1.3995643,-0.70490146,-0.68018281,-0.20116019,0
-0.92683947,-2.3400285,-0.21739531,0.70719761,-0.69579828,-0.12544516,0
-3.2368779,-2.0625699,-1.567884,-0.70490146,-0.68018281,-0.20116019,0
-2.3814712,-2.77142,-2.1685488,-0.70490146,-0.68018281,-0.20116019,0
-2.167968,-0.71691024,-2.8655305,0.054641128,0.23068643,-0.97149277,0
2.3956704,0.628757,2.8574049,-0.054641128,-0.23068643,0.97149277,0
-2.4923909,-2.3662858,-3.149749,-0.70490146,-0.68018281,-0.20116019,0
1.9020439,3.1093638,-1.728044,0.054641128,0.23068643,-0.97149277,0
1.0323869,-0.34434474,-0.24157256,0.70719761,-0.69579828,-0.12544516,0
3.353101,1.8782047,1.7840121,0.70490146,0.68018281,0.20116019,0
-2.1293092,-3.254873,-1.4174719,-0.70490146,-0.68018281,-0.20116019,0
1.1348732,-0.64631951,2.4837179,-0.054641128,-0.23068643,0.97149277,0
2.2928166,3.687777,-0.61926746,0.70490146,0.68018281,0.20116019,0
-2.6483994,-1.3641764,0.60783422,-0.70719761,0.69579828,0.12544516,0
-2.212121,-3.8125789,0.75848842,-0.70490146,-0.68018281,-0.20116019,0
-2.2795823,-3.7228978,0.6916461,-0.70490146,-0.68018281,-0.20116019,0
-2.4757247,-2.9056582,1.7441487,-0.054641128,-0.23068643,0.97149277,0
2.2020895,2.9076457,2.3365169,0.70490146,0.68018281,0.20116019,0
-1.3230525,-1.199281,2.214169,-0.054641128,-0.23068643,0.97149277,0
-1.9617084,-3.6114364,1.605468,-0.054641128,-0.23068643,0.97149277,0
2.7766631,2.2338114,2.6015399,0.70490146,0.68018281,0.20116019,0
-0.70338035,0.92986572,-1.1513213,-0.70719761,0.69579828,0.12544516,0
1.5920591,-0.13027453,1.7262115,0.70719761,-0.69579828,-0.12544516,0
-0.424703,-1.5835373,2.1734524,-0.054641128,-0.23068643,0.97149277,0
-0.92144096,-2.6135116,1.3299491,0.70719761,-0.69579828,-0.12544516,0
3.3806829,1.8579489,1.7558503,0.70490146,0.68018281,0.20116019,0
-2.837563,-2.5385494,-1.3577266,-0.70490146,-0.68018281,-0.20116019,0
-1.636917,-0.12183905,-0.58071613,-0.70719761,0.69579828,0.12544516,0
-2.0934353,-3.1870706,-1.7724395,-0.70490146,-0.68018281,-0.20116019,0
-2.2756357,-3.6769323,0.52239466,-0.70490146,-0.68018281,-0.20116019,0
2.5075188,1.5506388,3.0826015,-0.054641128,-0.23068643,0.97149277,0
-2.5950463,-1.7693472,2.0072608,-0.054641128,-0.23068643,0.97149277,0
3.6053987,2.4413528,-1.1874511,0.70719761,-0.69579828,-0.12544516,0
-0.73880112,-1.8596761,-1.8216655,0.70719761,-0.69579828,-0.12544516,0
-1.443285,-2.796277,-0.59821463,0.70719761,-0.69579828,-0.12544516,0
2.2532072,2.8220832,2.446702,0.70490146,0.68018281,0.20116019,0
3.3026183,2.7193625,-0.88329482,0.70490146,0.68018281,0.20116019,0
0.020780683,1.3166131,0.78599298,-0.70719761,0.69579828,0.12544516,0
2.0620666,2.9026661,2.8440189,0.70490146,0.68018281,0.20116019,0
1.521842,2.0171626,-2.0087774,0.054641128,0.23068643,-0.97149277,0
-1.7437904,-1.9554086,-3.135761,0.054641128,0.23068643,-0.97149277,0
3.5127964,2.180784,0.20130038,0.70490146,0.68018281,0.20116019,0
-2.5777023,-0.70755768,-2.6356306,-0.70719761,0.69579828,0.12544516,0
-1.3124598,0.22749591,-0.68922061,-0.70719761,0.69579828,0.12544516,0
2.3492,3.7897925,-1.1617918,0.70490146,0.68018281,0.20116019,0
2.1610043,1.172866,-2.1733112,0.054641128,0.23068643,-0.97149277,0
3.1117892,2.0671048,-1.8943568,0.70719761,-0.69579828,-0.12544516,0
-2.8200839,-2.7665539,-0.64802504,-0.70490146,-0.68018281,-0.20116019,0
0.11705661,-1.1703491,-0.82020748,0.70719761,-0.69579828,-0.12544516,0
-3.3631101,-1.8651897,-1.792948,-0.70490146,-0.68018281,-0.20116019,0
-2.5042028,-0.78348935,-1.8001142,-0.70719761,0.69579828,0.12544516,0
-0.21228504,1.5440801,-1.7895893,-0.70719761,0.69579828,0.12544516,0
1.0505059,-0.46665406,2.5216351,-0.054641128,-0.23068643,0.97149277,0
3.3583746,2.7503843,-1.7313747,0.054641128,0.23068643,-0.97149277,0
-3.1689923,-1.6157008,-0.93189526,-0.70719761,0.69579828,0.12544516,0
-1.81761,-3.4128165,0.71124458,0.70719761,-0.69579828,-0.12544516,0
-1.5917387,-2.5061004,-3.0446265,0.70719761,-0.69579828,-0.12544516,0
-2.9621494,-2.5666184,-0.82624221,-0.70490146,-0.68018281,-0.20116019,0
2.0701137,3.3111322,1.2762513,-0.70719761,0.69579828,0.12544516,0
-1.3190706,-0.5137009,-2.7695312,0.054641128,0.23068643,-0.97149277,0
2.8663907,2.8020043,0.36588907,0.70490146,0.68018281,0.20116019,0
1.1406742,-0.10688722,-0.94819134,0.70719761,-0.69579828,-0.12544516,0
1.8619119,0.65406656,-1.102942,0.70719761,-0.69579828,-0.12544516,0
2.122997,1.0759578,2.9482589,-0.054641128,-0.23068643,0.97149277,0
3.0563555,2.1062012,2.0529377,0.70490146,0.68018281,0.20116019,0
3.4881334,2.5707481,-1.0308635,0.70490146,0.68018281,0.20116019,0
3.3994074,2.5013778,-0.48539042,0.70490146,0.68018281,0.20116019,0
-2.936615,-2.2722266,-1.9111466,-0.70490146,-0.68018281,-0.20116019,0
-2.4699721,-1.2472819,0.96534884,-0.70719761,0.69579828,0.12544516,0
1.6718585,2.5234127,-1.8801279,0.054641128,0.23068643,-0.97149277,0
-0.84134591,-2.184104,-0.60028005,0.70719761,-0.69579828,-0.12544516,0
0.89903498,-0.49763381,-0.14310591,0.70719761,-0.69579828,-0.12544516,0
0.9311713,2.6816597,-1.6530873,-0.70719761,0.69579828,0.12544516,0
-3.0160654,-1.2836514,-1.911526,-0.70719761,0.69579828,0.12544516,0
1.2722992,2.7101004,0.11227393,-0.70719761,0.69579828,0.12544516,0
-3.5389633,-2.1622152,-0.17239189,-0.70490146,-0.68018281,-0.20116019,0
-0.85855818,-2.557734,1.3750732,0.70719761,-0.69579828,-0.12544516,0
0.25068569,-0.8802402,2.3784413,-0.054641128,-0.23068643,0.97149277,0
-0.4607774,-1.5707432,-1.8569117,0.70719761,-0.69579828,-0.12544516,0
3.3220828,2.1164618,-0.98259139,0.70719761,-0.69579828,-0.12544516,0
-0.33192778,-1.0297773,2.310164,-0.054641128,-0.23068643,0.97149277,0
1.8031951,3.4588661,-1.0479283,-0.70719761,0.69579828,0.12544516,0
2.6670148,1.8467984,3.1618979,-0.054641128,-0.23068643,0.97149277,0
-1.4152286,-1.2780032,-2.9564276,0.054641128,0.23068643,-0.97149277,0
-2.8427846,-2.265074,-2.2641325,-0.70490146,-0.68018281,-0.20116019,0
-1.0425395,-2.2077489,-1.6033599,0.70719761,-0.69579828,-0.12544516,0
-3.1067986,-1.6232995,-0.5391326,-0.70719761,0.69579828,0.12544516,0
-2.6717629,-3.3557544,0.82449532,-0.70490146,-0.68018281,-0.20116019,0
-0.32072473,0.10659117,2.5806313,-0.054641128,-0.23068643,0.97149277,0
0.40664411,1.3425143,2.8176355,-0.70719761,0.69579828,0.12544516,0
3.2233648,1.6630143,2.9662545,0.70490146,0.68018281,0.20116019,0
-2.3651981,-2.7024138,-2.458904,-0.70490146,-0.68018281,-0.20116019,0
0.065010071,0.76023471,2.7575378,-0.054641128,-0.23068643,0.97149277,0
3.533143,2.1258886,0.31561732,0.70490146,0.68018281,0.20116019,0
-0.81888986,-1.7340069,-2.9702065,0.70719761,-0.69579828,-0.12544516,0
0.76440692,-0.59112906,-0.38348895,0.70719761,-0.69579828,-0.12544516,0
-3.5614979,-2.3834569,1.113812,-0.70719761,0.69579828,0.12544516,0
2.1037371,2.5510859,-1.8492659,0.054641128,0.23068643,-0.97149277,0
-3.1112328,-2.7140656,0.19473386,-0.70490146,-0.68018281,-0.20116019,0
1.2059996,-0.25800312,2.5799263,-0.054641128,-0.23068643,0.97149277,0
2.6474361,2.8301888,1.0378447,0.70490146,0.68018281,0.20116019,0
2.3548074,1.0008547,-0.24774849,0.70719761,-0.69579828,-0.12544516,0
2.6327367,3.4103656,-0.87239647,0.70490146,0.68018281,0.20116019,0
3.245471,1.7608144,2.5581002,0.70490146,0.68018281,0.20116019,0
-2.8369212,-1.6338198,1.0406551,-0.70719761,0.69579828,0.12544516,0
-2.8837938,-2.390209,-1.69731,-0.70490146,-0.68018281,-0.20116019,0
-0.86321163,0.97788835,-2.3897054,0.054641128,0.23068643,-0.97149277,0
1.9000931,2.9858565,2.1219454,-0.70719761,0.69579828,0.12544516,0
2.4835982,2.5663865,2.5039585,0.70490146,0.68018281,0.20116019,0
2.3779283,3.1924639,0.75728846,0.70490146,0.68018281,0.20116019,0
-1.3924404,-0.88557577,2.2847574,-0.054641128,-0.23068643,0.97149277,0
0.69588858,2.2221873,-0.430969,-0.70719761,0.69579828,0.12544516,0
2.4060977,3.8008304,-1.3984921,0.70490146,0.68018281,0.20116019,0
2.4769537,3.2188392,0.32110071,0.70490146,0.68018281,0.20116019,0
-0.36743987,0.79489046,1.4912021,-0.70719761,0.69579828,0.12544516,0
2.5421689,2.4378204,-1.8515022,0.054641128,0.23068643,-0.97149277,0
2.3990364,2.5297244,-1.8377296,0.054641128,0.23068643,-0.97149277,0
1.4598575,0.020218372,0.14619672,0.70719761,-0.69579828,-0.12544516,0
0.57649517,-0.7883538,-0.34890842,0.70719761,-0.69579828,-0.12544516,0
2.9869995,1.2828692,3.0459869,-0.054641128,-0.23068643,0.97149277,0
1.6355128,0.71771502,2.8357735,-0.054641128,-0.23068643,0.97149277,0
-2.1556783,-2.9912515,-2.2164531,-0.70490146,-0.68018281,-0.20116019,0
3.2633731,1.716738,2.6444018,0.70490146,0.68018281,0.20116019,0
-0.66629159,0.94191074,-1.0090408,-0.70719761,0.69579828,0.12544516,0
-2.5419593,-3.3665922,0.40628505,-0.70490146,-0.68018281,-0.20116019,0
0.49974823,-0.25593805,2.5406938,-0.054641128,-0.23068643,0.97149277,0
-2.8190129,-1.9806937,-3.2022405,0.054641128,0.23068643,-0.97149277,0
0.85092199,-0.34989226,-1.2338111,0.70719761,-0.69579828,-0.12544516,0
2.2549927,3.7289245,-1.5610743,0.054641128,0.23068643,-0.97149277,0
-3.1221151,-1.3751543,-2.001847,-0.70719761,0.69579828,0.12544516,0
0.22788614,-1.0092839,-1.0887749,0.70719761,-0.69579828,-0.12544516,0
1.3979869,-0.31033218,1.6308435,0.70719761,-0.69579828,-0.12544516,0
-2.7455401,-2.1375415,-3.0361207,-0.70490146,-0.68018281,-0.20116019,0
2.4858177,3.5535982,-0.84187913,0.70490146,0.68018281,0.20116019,0
1.2147219,0.2245743,-2.3692427,0.70719761,-0.69579828,-0.12544516,0
1.898819,3.2465155,0.66898179,-0.70719761,0.69579828,0.12544516,0
1.0065957,-0.66278994,1.3793265,0.70719761,-0.69579828,-0.12544516,0
1.0461855,1.9316964,3.0908942,-0.054641128,-0.23068643,0.97149277,0
-3.2460713,-2.7824178,0.89835382,-0.70490146,-0.68018281,-0.20116019,0
-3.3546417,-1.7048045,-2.364933,-0.70490146,-0.68018281,-0.20116019,0
-1.2823095,-1.8970082,2.0507812,-0.054641128,-0.23068643,0.97149277,0
-2.2346134,-3.2462268,-1.077702,-0.70490146,-0.68018281,-0.20116019,0
-2.0665309,-1.3008724,-2.9984901,0.054641128,0.23068643,-0.97149277,0
3.0460408,2.0363619,2.3252296,0.70490146,0.68018281,0.20116019,0
-0.47379693,-1.8843389,-0.19090855,0.70719761,-0.69579828,-0.12544516,0
2.1216083,0.6346854,0.46859717,0.70719761,-0.69579828,-0.12544516,0
1.0412838,-0.024886191,-1.9633347,0.70719761,-0.69579828,-0.12544516,0
-0.55219543,0.68457985,1.061494,-0.70719761,0.69579828,0.12544516,0
-0.072781026,-1.6862723,0.9712168,0.70719761,-0.69579828,-0.12544516,0
0.78864145,-0.91119385,1.5284142,0.70719761,-0.69579828,-0.12544516,0
1.7214928,2.6379082,3.0450251,-0.70719761,0.69579828,0.12544516,0
-0.29952621,0.097307801,-2.5671,0.054641128,0.23068643,-0.97149277,0
3.476934,1.8689442,1.3813927,0.70490146,0.68018281,0.20116019,0
2.6211567,1.2877696,-0.33761549,0.70719761,-0.69579828,-0.12544516,0
-1.0000408,0.45297825,-2.5220442,0.054641128,0.23068643,-0.97149277,0
2.9905698,1.128234,2.6298366,0.70719761,-0.69579828,-0.12544516,0
3.3533468,1.5419052,2.9202819,0.70490146,0.68018281,0.20116019,0
2.4997435,2.9500625,1.1500573,0.70490146,0.68018281,0.20116019,0
-0.94464958,0.02659443,2.4986351,-0.70719761,0.69579828,0.12544516,0
-0.44876623,-0.91074741,-2.8148623,0.054641128,0.23068643,-0.97149277,0
-2.4250135,-2.7971294,-1.9290373,-0.70490146,-0.68018281,-0.20116019,0
0.61076248,1.8131618,1.3578458,-0.70719761,0.69579828,0.12544516,0
0.15904129,-0.92171246,-1.9626143,0.70719761,-0.69579828,-0.12544516,0
0.52894258,1.6418287,1.8469065,-0.70719761,0.69579828,0.12544516,0
0.10257268,0.129289,2.6098292,-0.054641128,-0.23068643,0.97149277,0
-0.73868537,0.34443516,1.8968138,-0.70719761,0.69579828,0.12544516,0
2.7774596,2.3330536,2.2631838,0.70490146,0.68018281,0.20116019,0
3.5414708,2.319103,-0.36688042,0.70490146,0.68018281,0.20116019,0
-2.0948567,-3.1501107,-1.8924313,-0.70490146,-0.68018281,-0.20116019,0
3.203445,2.0690315,1.6631911,0.70490146,0.68018281,0.20116019,0
-0.45675921,-0.56785733,2.4128284,-0.054641128,-0.23068643,0.97149277,0
-2.3157887,-3.2028158,-0.94003487,-0.70490146,-0.68018281,-0.20116019,0
-1.8835912,-0.69106853,1.1859618,-0.70719761,0.69579828,0.12544516,0
-1.5336509,-2.48682,-2.8240957,0.70719761,-0.69579828,-0.12544516,0
2.2221656,1.0199835,-1.1016176,0.70719761,-0.69579828,-0.12544516,0
-3.0468163,-2.8291755,0.35822916,-0.70490146,-0.68018281,-0.20116019,0
3.0246127,2.977263,-0.78115177,0.70490146,0.68018281,0.20116019,0
1.7941475,0.2141912,0.95486164,0.70719761,-0.69579828,-0.12544516,0
-3.171628,-1.6540101,-3.1445007,0.054641128,0.23068643,-0.97149277,0
-3.0997443,-2.4784775,-0.64211798,-0.70490146,-0.68018281,-0.20116019,0
-1.2293296,-1.6026099,2.1236677,-0.054641128,-0.23068643,0.97149277,0
0.90914559,2.0235813,1.8728609,-0.70719761,0.69579828,0.12544516,0
2.6343012,2.5432711,2.0540283,0.70490146,0.68018281,0.20116019,0
1.7378982,0.62653339,-1.6493533,0.70719761,-0.69579828,-0.12544516,0
2.6404977,2.2842541,-1.8824369,0.054641128,0.23068643,-0.97149277,0
-0.12173128,0.6501826,2.7209024,-0.054641128,-0.23068643,0.97149277,0
-3.1349199,-1.9109528,-2.4378276,-0.70490146,-0.68018281,-0.20116019,0
-1.0970254,0.026780427,1.6385849,-0.70719761,0.69579828,0.12544516,0
3.0974379,2.3890109,0.95271301,0.70490146,0.68018281,0.20116019,0
1.9753723,0.85222858,2.8868301,-0.054641128,-0.23068643,0.97149277,0
-0.17493987,-1.2876236,-1.8158594,0.70719761,-0.69579828,-0.12544516,0
-2.2698395,-3.4181874,-0.37281227,-0.70490146,-0.68018281,-0.20116019,0
2.5556431,1.9662862,-1.9627128,0.054641128,0.23068643,-0.97149277,0
3.5178041,2.4526086,-1.7436945,0.70719761,-0.69579828,-0.12544516,0
-2.3576474,-1.4951216,2.0857296,-0.054641128,-0.23068643,0.97149277,0
-2.2574451,-2.2541492,1.91113,-0.054641128,-0.23068643,0.97149277,0
-2.6655016,-3.4966962,1.2791221,-0.70490146,-0.68018281,-0.20116019,0
-2.4210436,-2.3362086,1.8824431,-0.054641128,-0.23068643,0.97149277,0
2.6837115,3.4459574,-1.1713684,0.70490146,0.68018281,0.20116019,0
2.6943886,3.0658572,-1.6938097,0.054641128,0.23068643,-0.97149277,0
-2.207844,-2.2315664,1.9192822,-0.054641128,-0.23068643,0.97149277,0
2.3754647,1.3138365,-1.8672876,0.70719761,-0.69579828,-0.12544516,0
1.7865511,3.3016279,-0.26961589,-0.70719761,0.69579828,0.12544516,0
3.307744,2.18455,-1.4410872,0.70719761,-0.69579828,-0.12544516,0
1.9579105,1.5967481,3.062638,-0.054641128,-0.23068643,0.97149277,0
-0.60423183,0.094064057,2.5617108,-0.054641128,-0.23068643,0.97149277,0
-0.89841497,-0.28699353,2.4546804,-0.054641128,-0.23068643,0.97149277,0
-2.1889367,-1.3163424,-3.0090482,0.054641128,0.23068643,-0.97149277,0
-2.4904904,-3.5133824,0.72227216,-0.70490146,-0.68018281,-0.20116019,0
1.5718069,1.4864662,-2.1319842,0.054641128,0.23068643,-0.97149277,0
-0.2572566,-1.7551942,0.31352043,0.70719761,-0.69579828,-0.12544516,0
-0.48083496,-1.4843118,2.193857,-0.054641128,-0.23068643,0.97149277,0
-2.9202397,-1.9501541,-3.0575545,-0.70490146,-0.68018281,-0.20116019,0
2.4431436,2.9383857,1.387877,0.70490146,0.68018281,0.20116019,0
-2.4452844,-2.60777,-2.4982889,-0.70490146,-0.68018281,-0.20116019,0
-1.0591847,-2.7859192,1.5096986,0.70719761,-0.69579828,-0.12544516,0
-2.3240495,-3.7242172,0.85192823,-0.70490146,-0.68018281,-0.20116019,0
1.9835815,0.89325231,-1.7437046,0.70719761,-0.69579828,-0.12544516,0
0.1128962,-0.42072558,2.4798057,-0.054641128,-0.23068643,0.97149277,0
-3.3392062,-2.2331226,-0.63261676,-0.70490146,-0.68018281,-0.20116019,0
-0.66251111,0.72161323,0.23417944,-0.70719761,0.69579828,0.12544516,0
2.3486485,0.7223419,1.2623385,0.70719761,-0.69579828,-0.12544516,0
1.8059034,2.5380054,-1.8691237,0.054641128,0.23068643,-0.97149277,0
2.9112687,2.6313829,0.78555012,0.70490146,0.68018281,0.20116019,0
-0.10938972,1.4393846,-0.62881011,-0.70719761,0.69579828,0.12544516,0
-0.402349,1.4249889,-2.20052,-0.70719761,0.69579828,0.12544516,0
-0.35564542,-1.5357491,2.188684,-0.054641128,-0.23068643,0.97149277,0
2.7211893,2.242173,2.7676587,0.70490146,0.68018281,0.20116019,0
3.2504783,1.5804,1.58707,0.70719761,-0.69579828,-0.12544516,0
2.7973785,2.4596834,1.7652102,0.70490146,0.68018281,0.20116019,0
-3.4973803,-1.9247309,-1.1211135,-0.70490146,-0.68018281,-0.20116019,0
0.95847964,0.35714817,2.7120757,-0.054641128,-0.23068643,0.97149277,0
-1.7562163,-1.0692528,2.2206819,-0.054641128,-0.23068643,0.97149277,0
0.90657735,1.8227643,2.9722402,-0.70719761,0.69579828,0.12544516,0
-2.7255149,-2.1814301,1.9020712,-0.054641128,-0.23068643,0.97149277,0
-2.5896528,-0.77094746,-2.9020793,0.054641128,0.23068643,-0.97149277,0
-0.37905717,-0.43199784,-2.6972599,0.054641128,0.23068643,-0.97149277,0
-2.5559583,-3.3260603,0.31829095,-0.70490146,-0.68018281,-0.20116019,0
2.231791,3.6424961,-1.582902,0.054641128,0.23068643,-0.97149277,0
0.99777162,1.5478693,-2.1496902,0.054641128,0.23068643,-0.97149277,0
3.5340154,2.6050849,-1.3077462,0.70490146,0.68018281,0.20116019,0
0.9774276,-0.10777205,-1.863587,0.70719761,-0.69579828,-0.12544516,0
-0.99884391,0.79700184,-2.4402866,0.054641128,0.23068643,-0.97149277,0
2.9172497,2.4105809,1.5111899,0.70490146,0.68018281,0.20116019,0
-0.90862107,-2.4853702,0.691468,0.70719761,-0.69579828,-0.12544516,0
3.2657371,2.3325582,0.55384564,0.70490146,0.68018281,0.20116019,0
-0.72780824,0.49791974,1.1068119,-0.70719761,0.69579828,0.12544516,0
-1.3085136,-2.1791921,1.9823012,-0.054641128,-0.23068643,0.97149277,0
-2.2796292,-3.1797152,-1.1448536,-0.70490146,-0.68018281,-0.20116019,0
0.82963371,0.43872949,2.7242007,-0.054641128,-0.23068643,0.97149277,0
1.9455693,0.29793322,2.7535334,-0.054641128,-0.23068643,0.97149277,0
-3.4219933,-2.332016,-0.0081284046,-0.70490146,-0.68018281,-0.20116019,0
1.3066916,2.2996712,2.582659,-0.70719761,0.69579828,0.12544516,0
-0.54064357,0.91913092,-0.17434984,-0.70719761,0.69579828,0.12544516,0
-1.7551385,-1.346251,2.1549675,-0.054641128,-0.23068643,0.97149277,0
0.76264811,2.3210537,-0.60298908,-0.70719761,0.69579828,0.12544516,0
-1.0964859,-0.018601239,1.8933421,-0.70719761,0.69579828,0.12544516,0
0.92916679,1.4331176,2.9659219,-0.054641128,-0.23068643,0.97149277,0
-0.8316896,-1.4656463,-2.9681635,0.054641128,0.23068643,-0.97149277,0
2.2128024,0.92917228,-0.6507057,0.70719761,-0.69579828,-0.12544516,0
2.5398221,2.0149522,-1.9520466,0.054641128,0.23068643,-0.97149277,0
0.60159898,0.0030873045,-2.5387897,0.054641128,0.23068643,-0.97149277,0
2.9727998,2.4166386,1.2960491,0.70490146,0.68018281,0.20116019,0
2.4003468,0.93357027,0.38218164,0.70719761,-0.69579828,-0.12544516,0
1.1198756,-0.5680567,1.4924932,0.70719761,-0.69579828,-0.12544516,0
2.1090407,1.1187775,2.9576421,-0.054641128,-0.23068643,0.97149277,0
2.1624529,1.1128696,-1.9534531,0.70719761,-0.69579828,-0.12544516,0
-0.12445557,1.464542,-0.85328299,-0.70719761,0.69579828,0.12544516,0
0.86953413,1.9449116,-2.0626228,0.054641128,0.23068643,-0.97149277,0
2.8908267,1.9025224,3.1877179,-0.054641128,-0.23068643,0.97149277,0
-2.5603497,-1.1977048,0.18085837,-0.70719761,0.69579828,0.12544516,0
-1.8444963,-0.54676616,0.6059677,-0.70719761,0.69579828,0.12544516,0
2.0483663,1.8239801,3.1216834,-0.054641128,-0.23068643,0.97149277,0
-0.48665071,-1.1223156,2.2794878,-0.054641128,-0.23068643,0.97149277,0
3.1378634,2.0246413,2.0430982,0.70490146,0.68018281,0.20116019,0
-2.8654969,-2.5319474,-1.2821653,-0.70490146,-0.68018281,-0.20116019,0
-3.0333877,-2.9059606,0.57080626,-0.70490146,-0.68018281,-0.20116019,0
1.7732267,1.5601455,3.0435588,-0.054641128,-0.23068643,0.97149277,0
-2.8901467,-2.2438459,-2.1699443,-0.70490146,-0.68018281,-0.20116019,0
3.3393512,2.2464328,-1.6061406,0.70719761,-0.69579828,-0.12544516,0
0.022366762,-0.038236022,2.5655384,-0.054641128,-0.23068643,0.97149277,0
-0.80917549,-1.500077,-2.9750729,0.054641128,0.23068643,-0.97149277,0
2.4380519,0.54327977,2.8394916,-0.054641128,-0.23068643,0.97149277,0
-0.60928881,-1.7910458,-1.4722066,0.70719761,-0.69579828,-0.12544516,0
-2.6693234,-3.2908564,1.6417921,-0.054641128,-0.23068643,0.97149277,0
0.29721999,-0.40232614,-2.6521773,0.054641128,0.23068643,-0.97149277,0
-1.7204821,-0.85545456,-2.87326,0.054641128,0.23068643,-0.97149277,0
1.3074324,2.8325205,-1.8272256,0.054641128,0.23068643,-0.97149277,0
-2.2218699,-3.7050667,0.42912006,-0.70490146,-0.68018281,-0.20116019,0
-1.6659046,-2.8422451,-1.5982647,0.70719761,-0.69579828,-0.12544516,0
2.4129746,2.5581322,2.7793465,0.70490146,0.68018281,0.20116019,0
2.3758435,2.9730563,1.5064778,0.70490146,0.68018281,0.20116019,0
2.3577752,2.9336991,1.7028689,0.70490146,0.68018281,0.20116019,0
-3.0137963,-1.6402333,0.079093933,-0.70719761,0.69579828,0.12544516,0
-2.9539504,-3.2957268,1.6103601,-0.70490146,-0.68018281,-0.20116019,0
1.1752208,-0.32734108,0.46934003,0.70719761,-0.69579828,-0.12544516,0
-0.94878054,-2.5087094,0.59452248,0.70719761,-0.69579828,-0.12544516,0
3.3512745,2.215796,0.64891458,0.70490146,0.68018281,0.20116019,0
-3.2829139,-1.6935101,-2.6544673,-0.70490146,-0.68018281,-0.20116019,0
3.23242,2.5784104,-0.16070461,0.70490146,0.68018281,0.20116019,0
-2.3031788,-3.1941016,-1.0136862,-0.70490146,-0.68018281,-0.20116019,0
-3.1183271,-2.0000103,-2.1948402,-0.70490146,-0.68018281,-0.20116019,0
0.28636098,-0.24194224,-2.6147039,0.054641128,0.23068643,-0.97149277,0
-3.2906084,-2.1828909,1.5284874,-0.70719761,0.69579828,0.12544516,0
-3.0140412,-1.157585,-3.0177581,0.054641128,0.23068643,-0.97149277,0
-2.9111831,-1.9766034,-2.999856,-0.70490146,-0.68018281,-0.20116019,0
2.9591384,2.5381937,0.93290782,0.70490146,0.68018281,0.20116019,0
1.5240173,3.0917611,-0.58559728,-0.70719761,0.69579828,0.12544516,0
1.9400586,3.0436964,2.0264328,-0.70719761,0.69579828,0.12544516,0
-2.4645648,-2.7299435,-2.0176196,-0.70490146,-0.68018281,-0.20116019,0
2.3380306,2.6811242,2.6260896,0.70490146,0.68018281,0.20116019,0
3.4508471,2.2433193,-0.96031523,0.70719761,-0.69579828,-0.12544516,0
-1.3665644,-2.4940736,-1.8419125,0.70719761,-0.69579828,-0.12544516,0
-2.1740296,-3.4639409,1.6285496,-0.054641128,-0.23068643,0.97149277,0
-2.0590367,-2.9803801,-2.5918617,-0.70490146,-0.68018281,-0.20116019,0
3.3896439,1.9522545,1.4055738,0.70490146,0.68018281,0.20116019,0
0.11514235,0.2811012,2.6465847,-0.054641128,-0.23068643,0.97149277,0
-3.1512156,-1.7092745,-3.0626597,-0.70490146,-0.68018281,-0.20116019,0
0.2845304,-0.33588946,2.509604,-0.054641128,-0.23068643,0.97149277,0
1.0271662,2.1319187,1.9372962,-0.70719761,0.69579828,0.12544516,0
1.774929,0.47892582,-0.62186694,0.70719761,-0.69579828,-0.12544516,0
1.4107127,3.1415215,-1.5003552,-0.70719761,0.69579828,0.12544516,0
-2.2979169,-3.2734647,-0.76377439,-0.70490146,-0.68018281,-0.20116019,0
-1.2359409,-1.7856028,2.079843,-0.054641128,-0.23068643,0.97149277,0
0.43366793,-0.8953985,-0.56036085,0.70719761,-0.69579828,-0.12544516,0
-2.3827386,-2.828872,1.7676117,-0.054641128,-0.23068643,0.97149277,0
-3.1763549,-1.8923748,-2.3554513,-0.70490146,-0.68018281,-0.20116019,0
-3.2268126,-1.9711879,-1.9121444,-0.70490146,-0.68018281,-0.20116019,0
-0.74539804,-1.025655,-2.8588314,0.054641128,0.23068643,-0.97149277,0
-1.788038,-2.8195686,-2.4125714,0.70719761,-0.69579828,-0.12544516,0
-0.71503341,-1.3292592,2.2175026,-0.054641128,-0.23068643,0.97149277,0
-0.4710232,-1.0404496,2.2998064,-0.054641128,-0.23068643,0.97149277,0
-3.4473002,-2.0161684,-0.9874239,-0.70490146,-0.68018281,-0.20116019,0
2.944715,2.5264339,1.0232131,0.70490146,0.68018281,0.20116019,0
-3.344806,-2.5114391,0.32807732,-0.70490146,-0.68018281,-0.20116019,0
2.9919052,1.9668055,2.7501214,0.70490146,0.68018281,0.20116019,0
-0.82593393,0.87093174,-1.515332,-0.70719761,0.69579828,0.12544516,0
1.744626,-0.033470869,2.6635377,-0.054641128,-0.23068643,0.97149277,0
2.1269188,3.0749393,2.0342569,0.70490146,0.68018281,0.20116019,0
3.216856,1.645256,3.049108,0.70490146,0.68018281,0.20116019,0
-2.7761889,-2.1278389,-2.9615266,-0.70490146,-0.68018281,-0.20116019,0
-3.0910532,-1.6935177,-3.1493499,0.054641128,0.23068643,-0.97149277,0
-2.7156816,-2.6994636,-1.2407227,-0.70490146,-0.68018281,-0.20116019,0
3.1465344,1.6150365,3.1338351,-0.054641128,-0.23068643,0.97149277,0
0.56454587,2.2165213,-1.1399882,-0.70719761,0.69579828,0.12544516,0
0.3412993,0.27668208,2.6582556,-0.054641128,-0.23068643,0.97149277,0
1.9384124,0.62211406,2.8301091,-0.054641128,-0.23068643,0.97149277,0
1.1477095,2.4039743,1.1078668,-0.70719761,0.69579828,0.12544516,0
0.98059607,-0.70815349,1.4843681,0.70719761,-0.69579828,-0.12544516,0
2.8096125,3.0090892,-0.13536596,0.70490146,0.68018281,0.20116019,0
-0.24753773,0.83678812,1.93476,-0.70719761,0.69579828,0.12544516,0
2.8851731,2.2926793,2.0222542,0.70490146,0.68018281,0.20116019,0
1.1923448,2.8854795,-1.3112338,-0.70719761,0.69579828,0.12544516,0
2.8930066,2.9556756,-1.7088017,0.054641128,0.23068643,-0.97149277,0
-1.3641605,-1.9765424,-3.1194274,0.054641128,0.23068643,-0.97149277,0
0.81166947,2.0461056,1.198405,-0.70719761,0.69579828,0.12544516,0
2.6517198,2.0005243,3.1975403,-0.054641128,-0.23068643,0.97149277,0
2.6435118,2.536463,2.0447726,0.70490146,0.68018281,0.20116019,0
2.9089034,2.2606425,2.0474248,0.70490146,0.68018281,0.20116019,0
1.7219394,0.089960933,1.2368492,0.70719761,-0.69579828,-0.12544516,0
-0.61696529,0.51669705,1.627538,-0.70719761,0.69579828,0.12544516,0
-0.48165774,-1.7864996,-0.77790141,0.70719761,-0.69579828,-0.12544516,0
0.085379601,-0.63476527,-2.719286,0.054641128,0.23068643,-0.97149277,0
0.98235607,2.625448,-1.0527465,-0.70719761,0.69579828,0.12544516,0
2.3492236,3.5502932,-0.35205317,0.70490146,0.68018281,0.20116019,0
-2.7081621,-2.1622026,-3.0837126,-0.70490146,-0.68018281,-0.20116019,0
2.6053185,1.9000928,3.1710825,-0.054641128,-0.23068643,0.97149277,0
-3.1727424,-2.5753384,-0.05880332,-0.70490146,-0.68018281,-0.20116019,0
-2.845762,-2.9493043,0.05989027,-0.70490146,-0.68018281,-0.20116019,0
3.3024397,2.5598955,-0.34346271,0.70490146,0.68018281,0.20116019,0
-2.8465743,-3.4005291,1.6057804,-0.054641128,-0.23068643,0.97149277,0
0.4426837,-0.65505242,-1.8426455,0.70719761,-0.69579828,-0.12544516,0
0.48539972,0.40270907,-2.4504328,0.054641128,0.23068643,-0.97149277,0
1.4576452,1.2439134,-2.1960006,0.054641128,0.23068643,-0.97149277,0
-3.3353438,-1.7975399,-2.118989,-0.70490146,-0.68018281,-0.20116019,0
-3.3948181,-1.8263235,-1.8132551,-0.70490146,-0.68018281,-0.20116019,0
-0.1997298,-1.7235167,2.1528671,-0.054641128,-0.23068643,0.97149277,0
-3.4627037,-2.3431978,1.4474626,-0.70719761,0.69579828,0.12544516,0
1.3010902,0.32619786,2.7239964,-0.054641128,-0.23068643,0.97149277,0
3.5772636,2.422719,-1.2427056,0.70719761,-0.69579828,-0.12544516,0
2.9187336,2.5072262,1.1792035,0.70490146,0.68018281,0.20116019,0
2.6808264,2.7350919,1.2423916,0.70490146,0.68018281,0.20116019,0
1.8390344,3.2568972,-1.6965554,0.054641128,0.23068643,-0.97149277,0
3.263813,2.209691,0.97603893,0.70490146,0.68018281,0.20116019,0
-0.10159469,-1.8908582,2.1186504,-0.054641128,-0.23068643,0.97149277,0
2.6441104,3.1034331,0.1255765,0.70490146,0.68018281,0.20116019,0
-3.1050127,-2.0212364,-2.1697237,-0.70490146,-0.68018281,-0.20116019,0
-2.953985,-1.9197191,-3.0422134,-0.70490146,-0.68018281,-0.20116019,0
-2.1475174,-3.4902594,-0.55775452,-0.70490146,-0.68018281,-0.20116019,0
3.3311155,2.0660598,1.2258587,0.70490146,0.68018281,0.20116019,0
0.78250504,2.1318746,-2.0231223,0.054641128,0.23068643,-0.97149277,0
-0.73969066,-2.3434737,1.9752848,-0.054641128,-0.23068643,0.97149277,0
-2.383112,-2.0851123,1.9442008,-0.054641128,-0.23068643,0.97149277,0
0.38187027,1.3697176,2.5270863,-0.70719761,0.69579828,0.12544516,0
1.8955173,0.19542372,1.6304317,0.70719761,-0.69579828,-0.12544516,0
-2.6235044,-2.7791066,1.7658874,-0.054641128,-0.23068643,0.97149277,0
-2.459445,-2.8011591,-1.7947578,-0.70490146,-0.68018281,-0.20116019,0
-0.3329277,-1.6400192,-0.75191009,0.70719761,-0.69579828,-0.12544516,0
1.4584566,2.7044616,1.1930103,-0.70719761,0.69579828,0.12544516,0
0.16468167,0.49309361,-2.4470093,0.054641128,0.23068643,-0.97149277,0
3.1053996,2.6976492,-0.1187861,0.70490146,0.68018281,0.20116019,0
-0.53879285,0.17686588,-2.5616658,0.054641128,0.23068643,-0.97149277,0
3.3402822,2.2856021,0.45139813,0.70490146,0.68018281,0.20116019,0
-2.1546798,-3.3608072,1.6541278,-0.054641128,-0.23068643,0.97149277,0
2.8011394,1.6601899,-1.38864,0.70719761,-0.69579828,-0.12544516,0
-0.46698534,-1.0799265,2.2906597,-0.054641128,-0.23068643,0.97149277,0
1.3192184,0.54087967,2.7759933,-0.054641128,-0.23068643,0.97149277,0
-2.241534,-2.7450335,-2.748136,-0.70490146,-0.68018281,-0.20116019,0
-3.1888146,-2.3921728,-0.62182117,-0.70490146,-0.68018281,-0.20116019,0
-2.5388212,-3.6252291,1.2698202,-0.70490146,-0.68018281,-0.20116019,0
-2.8623285,-2.6457694,-0.90840101,-0.70490146,-0.68018281,-0.20116019,0
-2.2710376,-1.1640607,-2.9775059,0.054641128,0.23068643,-0.97149277,0
1.1855998,0.0051832199,-1.3165368,0.70719761,-0.69579828,-0.12544516,0
2.1071222,0.28814554,2.3090572,0.70719761,-0.69579828,-0.12544516,0
2.3189344,3.4874032,-0.033265114,0.70490146,0.68018281,0.20116019,0
-0.7508018,-0.48106921,-2.7298207,0.054641128,0.23068643,-0.97149277,0
2.474546,2.8846521,1.459527,0.70490146,0.68018281,0.20116019,0
2.6008453,1.8590708,-1.9856293,0.054641128,0.23068643,-0.97149277,0
-2.7316394,-3.3676493,1.0745337,-0.70490146,-0.68018281,-0.20116019,0
-1.3496306,-1.5435333,2.1309295,-0.054641128,-0.23068643,0.97149277,0
0.80539119,1.9340677,1.7844443,-0.70719761,0.69579828,0.12544516,0
0.43356967,0.1919878,-2.5033851,0.054641128,0.23068643,-0.97149277,0
1.589015,0.17160559,2.7034817,-0.054641128,-0.23068643,0.97149277,0
1.0192318,-0.23132265,2.575757,-0.054641128,-0.23068643,0.97149277,0
2.2378805,3.5206933,0.13819885,0.70490146,0.68018281,0.20116019,0
-0.33607507,-0.3967858,-2.686481,0.054641128,0.23068643,-0.97149277,0
2.3450308,2.3946838,3.2738864,-0.054641128,-0.23068643,0.97149277,0
3.2998528,1.7671571,2.3460884,0.70490146,0.68018281,0.20116019,0
2.2281942,3.8253093,-0.85785723,0.70490146,0.68018281,0.20116019,0
2.8170686,3.1740253,-0.7191925,0.70490146,0.68018281,0.20116019,0
3.0996661,2.5166559,0.51329994,0.70490146,0.68018281,0.20116019,0
-2.8480258,-2.3388295,-1.9963772,-0.70490146,-0.68018281,-0.20116019,0
2.5742435,3.4192729,-0.69754624,0.70490146,0.68018281,0.20116019,0
2.1847327,2.1533718,3.2075698,-0.054641128,-0.23068643,0.97149277,0
2.9861977,1.9235127,2.9165065,0.70490146,0.68018281,0.20116019,0
1.0353673,-0.53746402,2.5039697,-0.054641128,-0.23068643,0.97149277,0
3.0536261,2.3668287,1.1812418,0.70490146,0.68018281,0.20116019,0
3.2269216,1.9074817,2.1271751,0.70490146,0.68018281,0.20116019,0
-2.6107049,-3.3962152,0.74734902,-0.70490146,-0.68018281,-0.20116019,0
0.35427332,0.049490236,-2.541682,0.054641128,0.23068643,-0.97149277,0
1.5487041,2.4828153,2.9311745,-0.70719761,0.69579828,0.12544516,0
-1.1194077,-2.3905873,-1.0225682,0.70719761,-0.69579828,-0.12544516,0
-0.10617697,-1.3927557,-0.84508002,0.70719761,-0.69579828,-0.12544516,0
-1.8410201,-2.7997835,-2.820997,0.70719761,-0.69579828,-0.12544516,0
2.6273899,1.9140599,3.1756403,-0.054641128,-0.23068643,0.97149277,0
-3.144804,-1.8459556,0.48160219,-0.70719761,0.69579828,0.12544516,0
2.6246655,3.1126719,0.16247797,0.70490146,0.68018281,0.20116019,0
-1.0944778,-0.12833253,2.4813278,-0.054641128,-0.23068643,0.97149277,0
-1.9802833,-0.73893237,0.90634209,-0.70719761,0.69579828,0.12544516,0
-0.59333265,0.84588802,-0.065133929,-0.70719761,0.69579828,0.12544516,0
0.39356911,-1.2126836,0.97344595,0.70719761,-0.69579828,-0.12544516,0
2.3264143,3.4357007,0.11534643,0.70490146,0.68018281,0.20116019,0
-1.1038501,-0.60832018,-2.7798941,0.054641128,0.23068643,-0.97149277,0
3.0118434,2.6656604,0.31721616,0.70490146,0.68018281,0.20116019,0
2.4339976,3.4366426,-0.26483059,0.70490146,0.68018281,0.20116019,0
-0.50726563,0.96235681,-0.22593844,-0.70719761,0.69579828,0.12544516,0
-3.2847018,-1.8074398,-2.2629716,-0.70490146,-0.68018281,-0.20116019,0
2.3953302,1.2040551,2.9939933,-0.054641128,-0.23068643,0.97149277,0
2.6502504,2.8933401,0.81444931,0.70490146,0.68018281,0.20116019,0
-2.9708443,-1.0616909,-2.8877261,-0.70719761,0.69579828,0.12544516,0
2.3300922,0.47064722,2.8161724,-0.054641128,-0.23068643,0.97149277,0
-2.6978867,-1.8524404,1.9817457,-0.054641128,-0.23068643,0.97149277,0
-2.9142382,-1.9500096,-3.0790734,-0.70490146,-0.68018281,-0.20116019,0
-2.2677917,-1.8418121,-3.1382589,0.054641128,0.23068643,-0.97149277,0
-1.7953336,-0.74019194,1.9559822,-0.70719761,0.69579828,0.12544516,0
2.1239898,0.78036439,-0.32600522,0.70719761,-0.69579828,-0.12544516,0
1.6949427,2.2907743,3.2126482,-0.054641128,-0.23068643,0.97149277,0
-2.372704,-0.54277694,-2.3939316,-0.70719761,0.69579828,0.12544516,0
2.502296,2.7092562,1.955353,0.70490146,0.68018281,0.20116019,0
2.4933705,2.8215475,1.6069388,0.70490146,0.68018281,0.20116019,0
2.6216612,3.4843483,-1.0837455,0.70490146,0.68018281,0.20116019,0
1.6935904,0.70447338,-2.310823,0.054641128,0.23068643,-0.97149277,0
0.44834399,0.76629037,2.7805367,-0.054641128,-0.23068643,0.97149277,0
-1.4235473,-3.058579,0.96794844,0.70719761,-0.69579828,-0.12544516,0
-3.0594301,-1.3864825,-1.5856273,-0.70719761,0.69579828,0.12544516,0
-2.7633171,-2.8503938,-0.5634594,-0.70490146,-0.68018281,-0.20116019,0
3.0747416,2.687902,0.021603584,0.70490146,0.68018281,0.20116019,0
0.1597352,-1.5817006,2.2067602,-0.054641128,-0.23068643,0.97149277,0
3.2679257,2.129663,1.2322271,0.70490146,0.68018281,0.20116019,0
1.0011275,2.0774622,2.0925522,-0.70719761,0.69579828,0.12544516,0
-3.2924707,-1.6431913,-2.7911227,-0.70490146,-0.68018281,-0.20116019,0
-3.3177493,-1.7403913,-2.3738797,-0.70490146,-0.68018281,-0.20116019,0
1.8704897,0.51945758,-0.30795836,0.70719761,-0.69579828,-0.12544516,0
-0.39194638,1.1822828,-0.7956754,-0.70719761,0.69579828,0.12544516,0
-3.2280557,-1.9763761,-1.8902466,-0.70490146,-0.68018281,-0.20116019,0
-0.84343565,-1.11736,2.2605975,-0.054641128,-0.23068643,0.97149277,0
1.0581067,0.82062411,2.827734,-0.054641128,-0.23068643,0.97149277,0
1.289952,0.94044596,2.8692265,-0.054641128,-0.23068643,0.97149277,0
-2.6915293,-3.128231,0.12443542,-0.70490146,-0.68018281,-0.20116019,0
-2.5693362,-1.1234667,-0.28157544,-0.70719761,0.69579828,0.12544516,0
3.3087125,2.8749089,-1.4305992,0.70490146,0.68018281,0.20116019,0
-0.43916523,-1.4241281,2.2104917,-0.054641128,-0.23068643,0.97149277,0
2.2125208,1.7384384,-2.0361154,0.054641128,0.23068643,-0.97149277,0
-3.1104569,-1.8595037,0.75038266,-0.70719761,0.69579828,0.12544516,0
-0.15512455,-1.5058824,-0.49355054,0.70719761,-0.69579828,-0.12544516,0
1.5988349,3.1366174,-0.41261292,-0.70719761,0.69579828,0.12544516,0
0.63037503,-0.76113826,-0.19611564,0.70719761,-0.69579828,-0.12544516,0
-3.201638,-1.3302016,-2.6994951,-0.70719761,0.69579828,0.12544516,0
2.1438782,1.056512,-1.7455719,0.70719761,-0.69579828,-0.12544516,0
-0.58263969,-1.7340932,-1.6378655,0.70719761,-0.69579828,-0.12544516,0
-1.6959785,-0.049270391,-1.3161879,-0.70719761,0.69579828,0.12544516,0
0.010613084,1.6736286,-1.2515587,-0.70719761,0.69579828,0.12544516,0
2.568795,1.5341356,-1.9993058,0.70719761,-0.69579828,-0.12544516,0
1.1008564,-0.35786581,0.21942094,0.70719761,-0.69579828,-0.12544516,0
-2.5962589,-1.7088147,-3.1251528,0.054641128,0.23068643,-0.97149277,0
-1.0241303,-0.42417008,-2.731683,0.054641128,0.23068643,-0.97149277,0
1.3108932,2.6647866,-1.8668602,0.054641128,0.23068643,-0.97149277,0
1.2574501,2.2500553,2.5802608,-0.70719761,0.69579828,0.12544516,0
2.4417644,3.3161869,-1.648576,0.054641128,0.23068643,-0.97149277,0
-0.94910896,-2.6154313,1.1846188,0.70719761,-0.69579828,-0.12544516,0
-2.7236757,-2.3977451,-2.2329092,-0.70490146,-0.68018281,-0.20116019,0
1.5766989,-0.11693001,1.5656028,0.70719761,-0.69579828,-0.12544516,0
0.76999128,1.9430938,-2.0686531,0.054641128,0.23068643,-0.97149277,0
-1.4631209,-0.83690846,-2.8543806,0.054641128,0.23068643,-0.97149277,0
2.3419411,3.3229017,0.44234467,0.70490146,0.68018281,0.20116019,0
2.9317853,2.4499164,1.3272491,0.70490146,0.68018281,0.20116019,0
-1.877811,-1.6621345,2.0730596,-0.054641128,-0.23068643,0.97149277,0
-1.6784251,-1.7132194,-3.0745754,0.054641128,0.23068643,-0.97149277,0
1.0368023,1.7418574,3.0452883,-0.054641128,-0.23068643,0.97149277,0
1.7637789,0.50970548,-0.85545027,0.70719761,-0.69579828,-0.12544516,0
1.3445382,2.3093016,2.7426012,-0.70719761,0.69579828,0.12544516,0
0.36788702,0.86261654,2.7988844,-0.054641128,-0.23068643,0.97149277,0
0.009100914,0.15395823,-2.5362897,0.054641128,0.23068643,-0.97149277,0
-3.5894711,-2.3095286,0.50270748,-0.70490146,-0.68018281,-0.20116019,0
-0.64018559,0.28953397,-2.5406151,0.054641128,0.23068643,-0.97149277,0
-2.1747284,-3.5534678,-0.24867582,-0.70490146,-0.68018281,-0.20116019,0
0.58829927,1.2695838,2.9079182,-0.054641128,-0.23068643,0.97149277,0
-3.4485254,-2.3834929,1.7508944,-0.70719761,0.69579828,0.12544516,0
1.8148503,2.7497897,2.9507618,-0.70719761,0.69579828,0.12544516,0
-2.154531,-0.98645747,1.2969518,-0.70719761,0.69579828,0.12544516,0
-2.4736347,-3.6858652,1.2464237,-0.70490146,-0.68018281,-0.20116019,0
-2.1478636,-3.4475532,-0.70094347,-0.70490146,-0.68018281,-0.20116019,0
-2.7765098,-3.2207613,0.73509598,-0.70490146,-0.68018281,-0.20116019,0
-2.2259419,-0.93606687,-2.9208312,0.054641128,0.23068643,-0.97149277,0
1.0052805,1.8009111,3.0575378,-0.054641128,-0.23068643,0.97149277,0
3.0147934,3.2353516,-1.6194198,0.70490146,0.68018281,0.20116019,0
3.0135345,2.6119695,0.49283528,0.70490146,0.68018281,0.20116019,0
-0.38769305,-1.8475581,2.1128409,-0.054641128,-0.23068643,0.97149277,0
-0.60579145,-2.3547187,1.6739936,0.70719761,-0.69579828,-0.12544516,0
-2.9281344,-1.5097311,-0.16183472,-0.70719761,0.69579828,0.12544516,0
-2.2845104,-3.7835865,0.91412139,-0.70490146,-0.68018281,-0.20116019,0
-0.052444339,1.7121196,-1.8205414,-0.70719761,0.69579828,0.12544516,0
-0.94663262,0.72966242,-2.4533401,0.054641128,0.23068643,-0.97149277,0
-0.9439559,-2.0680759,-1.82231,0.70719761,-0.69579828,-0.12544516,0
-1.8851295,-1.1924696,-2.9625466,0.054641128,0.23068643,-0.97149277,0
-2.5591707,-0.89945149,-1.4667945,-0.70719761,0.69579828,0.12544516,0
1.3987209,0.47198266,-2.3826141,0.054641128,0.23068643,-0.97149277,0
0.59463793,1.9619703,0.44155788,-0.70719761,0.69579828,0.12544516,0
-3.1964285,-3.053839,1.6421525,-0.70490146,-0.68018281,-0.20116019,0
-1.2797897,-0.87568432,-2.8532772,0.054641128,0.23068643,-0.97149277,0
-2.7789133,-1.0379632,-1.9373214,-0.70719761,0.69579828,0.12544516,0
-2.3699076,-0.55740309,-2.2970421,-0.70719761,0.69579828,0.12544516,0
3.4858513,2.7409482,-1.5983653,0.70490146,0.68018281,0.20116019,0
0.028032899,-1.2193178,-1.0504681,0.70719761,-0.69579828,-0.12544516,0
3.0887368,1.3089125,2.1810958,0.70719761,-0.69579828,-0.12544516,0
-2.3253,-2.6751719,-2.69083,-0.70490146,-0.68018281,-0.20116019,0
-2.5599236,-3.5171874,0.97844458,-0.70490146,-0.68018281,-0.20116019,0
2.6260977,3.6098101,-1.523515,0.70490146,0.68018281,0.20116019,0
1.9853214,0.53839719,0.23435438,0.70719761,-0.69579828,-0.12544516,0
-0.94912434,-2.0962958,-1.6949217,0.70719761,-0.69579828,-0.12544516,0
3.0560062,2.9630218,-0.84300613,0.70490146,0.68018281,0.20116019,0
0.43954158,-1.1143295,2.3334775,-0.054641128,-0.23068643,0.97149277,0
-2.8956146,-2.8388033,-0.13905478,-0.70490146,-0.68018281,-0.20116019,0
1.8828256,1.6058414,3.0605743,-0.054641128,-0.23068643,0.97149277,0
1.8233213,0.17714,1.3248385,0.70719761,-0.69579828,-0.12544516,0
1.3101085,3.0589948,-1.6097656,-0.70719761,0.69579828,0.12544516,0
0.50876909,1.8732352,0.44965029,-0.70719761,0.69579828,0.12544516,0
1.0390468,0.72984493,2.8051062,-0.054641128,-0.23068643,0.97149277,0
-2.3897204,-2.9443336,-1.5549698,-0.70490146,-0.68018281,-0.20116019,0
2.7286992,2.3436275,2.398294,0.70490146,0.68018281,0.20116019,0
1.0256876,1.5373756,-2.1506116,0.054641128,0.23068643,-0.97149277,0
1.8521245,1.8591317,-2.0277264,0.054641128,0.23068643,-0.97149277,0
-1.2046826,0.32418478,-0.61792451,-0.70719761,0.69579828,0.12544516,0
3.4712784,1.9603907,0.72416711,0.70719761,-0.69579828,-0.12544516,0
2.0580914,1.104682,-2.1952901,0.054641128,0.23068643,-0.97149277,0
2.4733112,3.1130204,0.69167137,0.70490146,0.68018281,0.20116019,0
3.2778544,2.7941854,-1.0495152,0.70490146,0.68018281,0.20116019,0
2.5308657,1.624265,-2.045321,0.054641128,0.23068643,-0.97149277,0
-1.9875712,-0.96544808,-2.9144006,0.054641128,0.23068643,-0.97149277,0
3.301399,1.5085363,3.1172564,-0.054641128,-0.23068643,0.97149277,0
-2.9009061,-2.8076172,-0.22596312,-0.70490146,-0.68018281,-0.20116019,0
2.9385393,1.3869554,0.9014833,0.70719761,-0.69579828,-0.12544516,0
-0.47145844,-1.2684966,-2.9010882,0.054641128,0.23068643,-0.97149277,0
1.0550139,2.8096523,-1.6648517,-0.70719761,0.69579828,0.12544516,0
2.2716377,2.6814687,2.8575785,0.70490146,0.68018281,0.20116019,0
-1.9859983,-0.52662235,-0.30348039,-0.70719761,0.69579828,0.12544516,0
0.055581331,-1.6826499,1.6747681,0.70719761,-0.69579828,-0.12544516,0
0.49130917,-0.36761904,-2.6330194,0.054641128,0.23068643,-0.97149277,0
-2.4991977,-0.89670682,-2.9268541,0.054641128,0.23068643,-0.97149277,0
3.1406958,1.7417006,2.9898794,0.70490146,0.68018281,0.20116019,0
-3.2566459,-2.3550744,-0.50956869,-0.70490146,-0.68018281,-0.20116019,0
