-1.2656038,-0.75593591,-2.4257412,-0.54580796,0.20979337,-0.8112216,0
-1.1187437,0.89097846,-2.0986369,-0.54580796,0.20979337,-0.8112216,0
-0.05853498,-0.68799496,-1.1870677,0.62886691,-0.53723657,-0.56205267,0
-2.0437982,0.94472218,-1.4105729,-0.62886691,0.53723657,0.56205267,0
-0.18171859,1.2255707,-2.6425576,-0.54580796,0.20979337,-0.8112216,0
-0.33604717,2.6958838,-2.1584785,-0.54580796,0.20979337,-0.8112216,0
1.6935148,-0.23971236,1.8803447,0.54580796,-0.20979337,0.8112216,0
1.1608515,-1.5201886,1.9075831,0.54580796,-0.20979337,0.8112216,0
2.0833759,1.0238425,1.9448103,0.54580796,-0.20979337,0.8112216,0
-2.7961895,-2.0166235,-1.2137229,-0.55373287,-0.8169232,0.16129595,0
1.2536548,-0.71796024,0.30975145,0.62886691,-0.53723657,-0.56205267,0
-1.1618968,-2.279516,2.6580448,-0.62886691,0.53723657,0.56205267,0
-1.4186323,-0.66122156,-2.2982855,-0.54580796,0.20979337,-0.8112216,0
-0.15858036,-1.1660998,-0.84201092,0.62886691,-0.53723657,-0.56205267,0
-1.9273214,-2.3526449,0.067258835,-0.55373287,-0.8169232,0.16129595,0
-1.7466273,-0.78666109,0.57686251,-0.62886691,0.53723657,0.56205267,0
1.5883157,2.566097,-0.14999342,0.55373287,0.8169232,-0.16129595,0
0.39666343,2.1967258,-2.7805519,-0.54580796,0.20979337,-0.8112216,0
-0.63231015,0.49439865,-2.528481,-0.54580796,0.20979337,-0.8112216,0
0.68315846,0.42669952,-1.4226832,0.62886691,-0.53723657,-0.56205267,0
-1.6174147,-0.21440263,-2.0489869,-0.54580796,0.20979337,-0.8112216,0
-0.64361835,-2.9738863,1.3278118,-0.55373287,-0.8169232,0.16129595,0
-2.0001159,0.28772163,-1.6616408,-0.54580796,0.20979337,-0.8112216,0
0.064235926,1.5814404,-2.7160087,-0.54580796,0.20979337,-0.8112216,0
-1.7808578,-1.4921197,-2.2694545,-0.54580796,0.20979337,-0.8112216,0
1.6404173,0.24161144,2.0405471,0.54580796,-0.20979337,0.8112216,0
-1.5079069,-1.749842,-1.7937706,0.62886691,-0.53723657,-0.56205267,0
-0.71023917,-0.91990453,-1.6945732,0.62886691,-0.53723657,-0.56205267,0
-0.42717558,0.31027228,1.0046636,-0.62886691,0.53723657,0.56205267,0
1.9894898,1.2764237,2.0733008,0.54580796,-0.20979337,0.8112216,0
-0.46398228,-2.1139731,-0.27769494,0.62886691,-0.53723657,-0.56205267,0
1.6332146,2.7255836,0.81190515,0.55373287,0.8169232,-0.16129595,0
2.5441303,2.2213261,1.3851647,0.55373287,0.8169232,-0.16129595,0
-2.171994,-2.0609686,0.70455861,-0.55373287,-0.8169232,0.16129595,0
0.1676818,2.3855796,-0.31344271,-0.62886691,0.53723657,0.56205267,0
-1.7920334,0.66721559,-1.7035006,-0.54580796,0.20979337,-0.8112216,0
1.2129462,2.6756914,-0.88357735,0.55373287,0.8169232,-0.16129595,0
2.1060381,0.97183526,1.9161131,0.54580796,-0.20979337,0.8112216,0
-0.66702378,-2.9046996,1.5978746,-0.55373287,-0.8169232,0.16129595,0
2.2190313,2.0463274,-0.61723256,0.55373287,0.8169232,-0.16129595,0
1.2058759,0.89151955,2.2762613,-0.62886691,0.53723657,0.56205267,0
-0.39495945,-0.37361726,1.6944036,-0.62886691,0.53723657,0.56205267,0
-0.53103673,-0.88200313,2.0280895,-0.62886691,0.53723657,0.56205267,0
0.72599584,2.9521255,-1.1552198,0.55373287,0.8169232,-0.16129595,0
2.2152317,2.005789,-0.8355937,0.55373287,0.8169232,-0.16129595,0
2.0076721,1.8006378,2.1966352,0.54580796,-0.20979337,0.8112216,0
0.74106479,2.6556098,-2.6052666,0.55373287,0.8169232,-0.16129595,0
1.3492651,1.5677261,-1.7680402,0.62886691,-0.53723657,-0.56205267,0
1.0992687,1.070482,1.9859201,-0.62886691,0.53723657,0.56205267,0
-0.06428051,-1.2384961,2.804729,0.54580796,-0.20979337,0.8112216,0
-0.32986158,-3.1317818,1.6052458,-0.55373287,-0.8169232,0.16129595,0
-1.114624,-2.38836,2.6763806,-0.55373287,-0.8169232,0.16129595,0
1.4018559,1.4195614,1.9908106,-0.62886691,0.53723657,0.56205267,0
-1.8771218,-1.8430824,1.4406331,-0.62886691,0.53723657,0.56205267,0
-2.7639709,-1.9919174,-0.97798681,-0.55373287,-0.8169232,0.16129595,0
-0.56309581,0.69049716,0.48914868,-0.62886691,0.53723657,0.56205267,0
-0.85253698,1.0907859,-0.21731493,-0.62886691,0.53723657,0.56205267,0
2.5468042,1.0136788,0.10144174,0.62886691,-0.53723657,-0.56205267,0
2.5612471,2.2629871,1.6549301,0.55373287,0.8169232,-0.16129595,0
-1.8775724,-2.223774,0.89074802,-0.55373287,-0.8169232,0.16129595,0
-0.86948389,1.2425636,-0.38135281,-0.62886691,0.53723657,0.56205267,0
0.013334155,0.36425,1.4459445,-0.62886691,0.53723657,0.56205267,0
-1.624469,0.19251817,-1.9390053,-0.54580796,0.20979337,-0.8112216,0
-1.9274113,-1.8392992,1.3807491,-0.62886691,0.53723657,0.56205267,0
-2.0277195,-1.0396299,0.5041548,-0.62886691,0.53723657,0.56205267,0
2.0722513,0.0062040687,1.6891195,0.54580796,-0.20979337,0.8112216,0
0.6874994,2.4292445,-2.9160995,-0.54580796,0.20979337,-0.8112216,0
0.43918395,0.9229539,-2.1700039,0.62886691,-0.53723657,-0.56205267,0
-3.0228684,-1.8223715,-1.0080788,-0.55373287,-0.8169232,0.16129595,0
0.21985853,-2.1684854,0.53954339,0.62886691,-0.53723657,-0.56205267,0
0.83117372,-0.60501587,-0.27091002,0.62886691,-0.53723657,-0.56205267,0
-0.88797796,-2.9120553,0.8020792,-0.55373287,-0.8169232,0.16129595,0
1.910691,0.8662852,2.0202501,0.54580796,-0.20979337,0.8112216,0
0.10227038,-1.3804417,-0.34527314,0.62886691,-0.53723657,-0.56205267,0
-0.22097698,1.8314099,-0.21860182,-0.62886691,0.53723657,0.56205267,0
-0.44232047,-2.3895011,2.7614164,0.54580796,-0.20979337,0.8112216,0
-0.67620933,-3.0205894,0.97938776,-0.55373287,-0.8169232,0.16129595,0
-2.1994767,-2.3422093,-0.8142035,-0.55373287,-0.8169232,0.16129595,0
2.0681655,2.2450175,-0.12884235,0.55373287,0.8169232,-0.16129595,0
-2.9607368,-1.0602242,-1.3639119,-0.54580796,0.20979337,-0.8112216,0
-1.469401,-2.4114656,1.341399,-0.55373287,-0.8169232,0.16129595,0
-0.82728648,-0.92520761,-1.8204657,0.62886691,-0.53723657,-0.56205267,0
-2.4441416,-2.0649445,-1.971323,-0.54580796,0.20979337,-0.8112216,0
-1.4767052,-2.4866095,0.93573976,-0.55373287,-0.8169232,0.16129595,0
0.58812881,2.1296167,-2.926729,-0.54580796,0.20979337,-0.8112216,0
-1.3837056,-2.4414935,1.4835099,-0.55373287,-0.8169232,0.16129595,0
0.33773232,-0.40283269,2.54212,-0.62886691,0.53723657,0.56205267,0
0.70917499,2.8959353,-1.4975555,0.55373287,0.8169232,-0.16129595,0
-2.2019942,-2.3937807,-1.0840418,-0.55373287,-0.8169232,0.16129595,0
-3.4194775,-1.5311816,-1.1770568,-0.54580796,0.20979337,-0.8112216,0
1.9779527,2.4271305,0.48381066,0.55373287,0.8169232,-0.16129595,0
-3.280714,-1.6396425,-0.96779203,-0.55373287,-0.8169232,0.16129595,0
-1.8894653,-2.0799258,1.5784734,-0.55373287,-0.8169232,0.16129595,0
2.8250408,2.0471292,1.4672728,0.55373287,0.8169232,-0.16129595,0
1.6806457,0.27811927,2.022922,0.54580796,-0.20979337,0.8112216,0
0.51998925,2.7893419,-2.686904,0.55373287,0.8169232,-0.16129595,0
0.74953079,-1.5711424,2.1711514,0.54580796,-0.20979337,0.8112216,0
-1.7491045,1.0285299,-1.160955,-0.62886691,0.53723657,0.56205267,0
-1.2497847,1.9746189,-1.5065955,-0.62886691,0.53723657,0.56205267,0
-0.78011417,0.76295257,0.17707577,-0.62886691,0.53723657,0.56205267,0
0.80531192,-2.3369389,1.3556082,0.62886691,-0.53723657,-0.56205267,0
-2.4967623,-0.14519429,-0.87558985,-0.62886691,0.53723657,0.56205267,0
2.5726697,1.6202854,1.7698514,0.54580796,-0.20979337,0.8112216,0
1.0486653,1.5936947,-2.1291959,0.62886691,-0.53723657,-0.56205267,0
-1.1129048,0.63528776,-0.073247358,-0.62886691,0.53723657,0.56205267,0
-1.9190351,-2.357842,0.069384813,-0.55373287,-0.8169232,0.16129595,0
3.2636211,1.2740103,1.2154121,0.54580796,-0.20979337,0.8112216,0
-1.5413986,-2.7807894,-0.77630353,-0.55373287,-0.8169232,0.16129595,0
1.1866446,2.3706472,-2.5188441,0.55373287,0.8169232,-0.16129595,0
-2.5342467,-2.1344764,-0.91136193,-0.55373287,-0.8169232,0.16129595,0
-1.8241221,0.21370578,-0.466043,-0.62886691,0.53723657,0.56205267,0
-2.0268736,0.81758666,-1.5066071,-0.54580796,0.20979337,-0.8112216,0
0.034971476,-2.5740583,2.3925548,0.54580796,-0.20979337,0.8112216,0
-0.073341727,-3.1848626,2.2170429,-0.55373287,-0.8169232,0.16129595,0
-0.39576888,0.70747447,-2.6325271,-0.54580796,0.20979337,-0.8112216,0
-1.3603275,-2.0776696,2.2430911,-0.62886691,0.53723657,0.56205267,0
3.0383053,1.7375579,0.63151622,0.55373287,0.8169232,-0.16129595,0
-1.3642901,0.88993883,-0.59792405,-0.62886691,0.53723657,0.56205267,0
-0.39785743,0.72599721,-2.6263318,-0.54580796,0.20979337,-0.8112216,0
-0.55298042,2.1360102,-2.1573119,-0.54580796,0.20979337,-0.8112216,0
-0.36374056,-3.1579823,0.83237696,0.62886691,-0.53723657,-0.56205267,0
0.84432161,2.1456156,-2.8853831,0.62886691,-0.53723657,-0.56205267,0
-1.7811871,0.2423476,-1.8206751,-0.54580796,0.20979337,-0.8112216,0
0.70118868,2.7623734,-2.2014318,0.55373287,0.8169232,-0.16129595,0
1.3346989,-0.67268372,2.0097914,0.54580796,-0.20979337,0.8112216,0
-1.9000638,-2.4888837,-0.52917981,-0.55373287,-0.8169232,0.16129595,0
-0.80781341,-2.9907379,0.67877746,-0.55373287,-0.8169232,0.16129595,0
0.35770822,-0.76255941,2.6438894,0.54580796,-0.20979337,0.8112216,0
0.98183036,2.676532,-1.6727458,0.55373287,0.8169232,-0.16129595,0
-1.8087599,-1.5946988,1.2797047,-0.62886691,0.53723657,0.56205267,0
-2.3284945,-2.0114181,0.41825008,-0.55373287,-0.8169232,0.16129595,0
0.76401818,2.1235449,0.60424852,-0.62886691,0.53723657,0.56205267,0
-1.1949875,0.04607873,-2.265841,-0.54580796,0.20979337,-0.8112216,0
2.946588,1.992382,1.6072681,0.55373287,0.8169232,-0.16129595,0
-3.4715059,-1.3061651,-0.8564949,-0.62886691,0.53723657,0.56205267,0
0.6447466,-1.5568485,0.43030816,0.62886691,-0.53723657,-0.56205267,0
-2.5272818,-1.8321667,0.64367199,-0.55373287,-0.8169232,0.16129595,0
2.982512,1.2595435,1.4008074,0.54580796,-0.20979337,0.8112216,0
-2.8296609,-1.0677246,-1.4540422,-0.54580796,0.20979337,-0.8112216,0
2.0173934,2.4377728,0.67311239,0.55373287,0.8169232,-0.16129595,0
-1.7744863,-1.4460905,1.1760055,-0.62886691,0.53723657,0.56205267,0
2.1518741,0.35136431,1.7248111,0.54580796,-0.20979337,0.8112216,0
0.26054698,3.25595,-1.2143223,0.55373287,0.8169232,-0.16129595,0
-2.487582,-1.8670151,0.60346293,-0.55373287,-0.8169232,0.16129595,0
3.5898902,1.3447984,1.0141978,0.54580796,-0.20979337,0.8112216,0
2.4978921,-0.0015443563,1.4007349,0.54580796,-0.20979337,0.8112216,0
-1.2148836,-2.8598652,-0.055868387,-0.55373287,-0.8169232,0.16129595,0
-0.18792117,-3.0807195,2.3511493,-0.55373287,-0.8169232,0.16129595,0
3.1642075,1.6287158,0.51248288,0.55373287,0.8169232,-0.16129595,0
2.8214412,0.65914655,1.3539083,0.54580796,-0.20979337,0.8112216,0
-0.88629651,-0.15772057,0.93829429,-0.62886691,0.53723657,0.56205267,0
-1.2874968,-2.4324751,1.859473,-0.55373287,-0.8169232,0.16129595,0
1.9113281,2.6317015,1.2911868,0.55373287,0.8169232,-0.16129595,0
-0.31238317,-0.95708239,-1.2138858,0.62886691,-0.53723657,-0.56205267,0
-1.3434892,0.1382345,0.14386469,-0.62886691,0.53723657,0.56205267,0
1.4139442,-0.57620937,1.9814228,0.54580796,-0.20979337,0.8112216,0
2.0981896,2.5647769,1.59373,0.55373287,0.8169232,-0.16129595,0
0.33949047,3.0522459,-0.75844145,-0.62886691,0.53723657,0.56205267,0
0.73479539,2.0366516,0.65460896,-0.62886691,0.53723657,0.56205267,0
-3.5194376,-1.4422375,-0.78752923,-0.55373287,-0.8169232,0.16129595,0
-2.5395386,-2.077697,-0.64195514,-0.55373287,-0.8169232,0.16129595,0
0.81389832,-1.4224236,2.1663043,0.54580796,-0.20979337,0.8112216,0
-1.3721215,-2.7800236,-0.19129086,-0.55373287,-0.8169232,0.16129595,0
0.026538432,-0.67625141,-1.1031064,0.62886691,-0.53723657,-0.56205267,0
0.021850348,1.7465348,-2.6447949,-0.54580796,0.20979337,-0.8112216,0
-2.5640218,-0.15006781,-0.94618601,-0.62886691,0.53723657,0.56205267,0
2.4293511,1.9476898,-0.39477468,0.55373287,0.8169232,-0.16129595,0
-1.4910655,0.46278417,-0.33147481,-0.62886691,0.53723657,0.56205267,0
1.7024481,2.1602454,-1.8137091,0.55373287,0.8169232,-0.16129595,0
0.076884031,-2.6455557,2.3458645,0.54580796,-0.20979337,0.8112216,0
1.5482459,2.3698516,-1.2814872,0.55373287,0.8169232,-0.16129595,0
0.70135379,1.6349385,1.0011685,-0.62886691,0.53723657,0.56205267,0
0.3104316,-2.2916217,0.75858235,0.62886691,-0.53723657,-0.56205267,0
2.4315004,2.1833775,0.80630255,0.55373287,0.8169232,-0.16129595,0
-2.7355442,-1.87968,-0.3119421,-0.55373287,-0.8169232,0.16129595,0
3.0671477,0.65605545,1.1877919,0.54580796,-0.20979337,0.8112216,0
1.330584,2.5541341,-1.0953807,0.55373287,0.8169232,-0.16129595,0
1.7881296,0.40062928,-0.16143906,0.62886691,-0.53723657,-0.56205267,0
-3.4604924,-1.3625395,-1.1058476,-0.54580796,0.20979337,-0.8112216,0
-0.23845351,-3.0276115,2.4466484,-0.55373287,-0.8169232,0.16129595,0
0.52255201,1.4247782,-2.5563931,0.62886691,-0.53723657,-0.56205267,0
-1.0181082,-2.7089889,1.3838173,-0.55373287,-0.8169232,0.16129595,0
0.2372508,-1.6167905,2.5040195,0.54580796,-0.20979337,0.8112216,0
-0.53593779,-2.4683723,2.8040068,0.54580796,-0.20979337,0.8112216,0
-0.59755254,-1.4947972,-1.0189812,0.62886691,-0.53723657,-0.56205267,0
-2.2099898,-0.19022733,-1.6440368,-0.54580796,0.20979337,-0.8112216,0
-0.5322547,1.1656336,-2.4222097,-0.54580796,0.20979337,-0.8112216,0
-2.6275396,-2.1816478,-1.4705501,-0.55373287,-0.8169232,0.16129595,0
1.3540362,2.414108,-1.7240655,0.55373287,0.8169232,-0.16129595,0
-1.4979265,-0.75880897,0.82850528,-0.62886691,0.53723657,0.56205267,0
-0.55296755,-2.9839144,1.5882289,-0.55373287,-0.8169232,0.16129595,0
-1.066214,-2.6925271,-0.39850783,0.62886691,-0.53723657,-0.56205267,0
1.7840662,0.97862214,2.1344981,0.54580796,-0.20979337,0.8112216,0
0.38104722,-0.23204619,-1.1310475,0.62886691,-0.53723657,-0.56205267,0
-0.1259563,2.300283,-2.4021404,-0.54580796,0.20979337,-0.8112216,0
0.41861948,-0.16032958,-1.1575592,0.62886691,-0.53723657,-0.56205267,0
-0.60011601,2.6743977,-1.4485788,-0.62886691,0.53723657,0.56205267,0
0.1176573,2.8070598,-0.77228439,-0.62886691,0.53723657,0.56205267,0
-2.5737119,-0.68860894,-0.44226503,-0.62886691,0.53723657,0.56205267,0
0.16677105,0.77322519,-2.3316822,0.62886691,-0.53723657,-0.56205267,0
0.615646,-0.49588716,-0.61636907,0.62886691,-0.53723657,-0.56205267,0
2.5732646,1.4203689,-0.25768661,0.62886691,-0.53723657,-0.56205267,0
1.0217308,0.79186958,-1.3929099,0.62886691,-0.53723657,-0.56205267,0
-2.3665755,-1.6582712,-1.9183395,-0.54580796,0.20979337,-0.8112216,0
-1.1329668,1.2859582,-0.71763599,-0.62886691,0.53723657,0.56205267,0
2.9736927,1.6180813,1.499464,0.54580796,-0.20979337,0.8112216,0
-0.72467554,-2.2869477,2.9779127,0.54580796,-0.20979337,0.8112216,0
-2.1980963,-0.024541974,-0.65674478,-0.62886691,0.53723657,0.56205267,0
2.1830673,2.2428734,0.25475931,0.55373287,0.8169232,-0.16129595,0
1.7373989,-0.10696542,1.8851489,0.54580796,-0.20979337,0.8112216,0
-0.86500484,-2.5388196,-0.32030106,0.62886691,-0.53723657,-0.56205267,0
2.2769184,0.45183396,0.33651078,0.62886691,-0.53723657,-0.56205267,0
-2.8525932,-0.98725224,-0.46884131,-0.62886691,0.53723657,0.56205267,0
-1.4849424,-0.34393281,-2.1716158,-0.54580796,0.20979337,-0.8112216,0
2.0109653,-0.57146215,1.0170579,0.62886691,-0.53723657,-0.56205267,0
-1.2554349,-2.9013958,-0.40542197,-0.55373287,-0.8169232,0.16129595,0
2.0680475,1.7014738,-1.0916551,0.62886691,-0.53723657,-0.56205267,0
-2.5254037,-1.5302178,-1.7783599,-0.54580796,0.20979337,-0.8112216,0
-0.46924937,2.2795823,-0.9247719,-0.62886691,0.53723657,0.56205267,0
-1.0218737,-1.4679253,-1.5194293,0.62886691,-0.53723657,-0.56205267,0
1.5644863,0.90534979,2.2632871,0.54580796,-0.20979337,0.8112216,0
-0.86236048,0.025824934,-2.4948778,-0.54580796,0.20979337,-0.8112216,0
-2.6501689,-1.984959,-0.55205941,-0.55373287,-0.8169232,0.16129595,0
-3.3454552,-1.5615309,-0.79443574,-0.55373287,-0.8169232,0.16129595,0
-0.81273913,2.5709672,-1.5876136,-0.62886691,0.53723657,0.56205267,0
2.2927363,2.0523667,-0.33361506,0.55373287,0.8169232,-0.16129595,0
-0.18690968,1.1738611,-2.6524377,-0.54580796,0.20979337,-0.8112216,0
-0.63865203,-3.0819116,0.7977407,-0.55373287,-0.8169232,0.16129595,0
2.0784318,2.1723258,-0.46176338,0.55373287,0.8169232,-0.16129595,0
0.8484273,-0.054529876,2.4968293,0.54580796,-0.20979337,0.8112216,0
1.2897524,-1.464329,1.0635549,0.62886691,-0.53723657,-0.56205267,0
2.8269565,1.9837894,1.1530514,0.55373287,0.8169232,-0.16129595,0
0.52451372,1.1594123,1.2578366,-0.62886691,0.53723657,0.56205267,0
1.7033974,2.5786932,0.30888224,0.55373287,0.8169232,-0.16129595,0
-0.88607925,-2.5774765,2.503154,-0.55373287,-0.8169232,0.16129595,0
0.66962123,-0.70679682,2.4484484,0.54580796,-0.20979337,0.8112216,0
-1.4703438,0.83494014,-1.8765647,-0.54580796,0.20979337,-0.8112216,0
1.969298,2.1653516,-0.87174511,0.55373287,0.8169232,-0.16129595,0
1.3146584,0.91850829,-1.1862077,0.62886691,-0.53723657,-0.56205267,0
2.4840901,0.055651426,1.4248128,0.54580796,-0.20979337,0.8112216,0
-0.2117517,0.23886582,-2.2444358,0.62886691,-0.53723657,-0.56205267,0
-0.88470948,-2.7576523,1.5953103,-0.55373287,-0.8169232,0.16129595,0
-0.41852462,-1.4068451,2.6556454,-0.62886691,0.53723657,0.56205267,0
2.4099908,0.79420686,0.1581459,0.62886691,-0.53723657,-0.56205267,0
-2.0338497,-2.1634135,0.65995431,-0.55373287,-0.8169232,0.16129595,0
-1.8505814,1.2015222,-1.4398491,-0.62886691,0.53723657,0.56205267,0
2.8381281,1.8156147,0.33963823,0.55373287,0.8169232,-0.16129595,0
-0.66016304,1.6208347,-0.50871819,-0.62886691,0.53723657,0.56205267,0
-0.46791494,-2.1637409,2.8370216,0.54580796,-0.20979337,0.8112216,0
-2.6074798,-0.57906938,-1.4771571,-0.54580796,0.20979337,-0.8112216,0
1.2303164,-1.7802384,1.7935929,0.54580796,-0.20979337,0.8112216,0
-0.80908465,-1.8593452,2.6511784,-0.62886691,0.53723657,0.56205267,0
-1.9931774,-2.5920231,-1.3712173,-0.55373287,-0.8169232,0.16129595,0
2.8786011,0.5080353,1.2763699,0.54580796,-0.20979337,0.8112216,0
0.30044389,-1.346458,2.5314136,0.54580796,-0.20979337,0.8112216,0
1.1339308,2.5295067,-1.8952281,0.55373287,0.8169232,-0.16129595,0
0.51331735,-3.0553527,1.946243,0.54580796,-0.20979337,0.8112216,0
0.0097658634,-1.1862309,-0.63441008,0.62886691,-0.53723657,-0.56205267,0
-2.7926402,-0.36334872,-0.99811804,-0.62886691,0.53723657,0.56205267,0
1.9880915,1.8370874,-1.3107417,0.62886691,-0.53723657,-0.56205267,0
-2.6732879,-1.392771,-1.6433146,-0.54580796,0.20979337,-0.8112216,0
-2.5002668,-2.1610587,-1.9584167,-0.54580796,0.20979337,-0.8112216,0
-1.8477201,-2.558531,-0.70222998,-0.55373287,-0.8169232,0.16129595,0
-2.2333679,-0.38646358,-1.6790576,-0.54580796,0.20979337,-0.8112216,0
-1.3664818,-2.0112257,2.1726954,-0.62886691,0.53723657,0.56205267,0
-2.4315283,-0.48499179,-1.5712115,-0.54580796,0.20979337,-0.8112216,0
-2.4423981,-2.258883,-1.22613,-0.55373287,-0.8169232,0.16129595,0
-1.293934,-2.4355898,1.8215976,-0.55373287,-0.8169232,0.16129595,0
2.9613323,0.53383601,1.2273792,0.54580796,-0.20979337,0.8112216,0
-2.1567976,-0.80896699,-1.8398409,-0.54580796,0.20979337,-0.8112216,0
0.01425004,1.2420986,-2.7701354,-0.54580796,0.20979337,-0.8112216,0
2.0120549,1.994813,2.1236947,-0.62886691,0.53723657,0.56205267,0
-2.9863627,-0.46009874,-1.1223906,-0.62886691,0.53723657,0.56205267,0
0.1335963,3.2261798,-1.800928,0.55373287,0.8169232,-0.16129595,0
1.1346455,0.49405566,2.4461269,0.54580796,-0.20979337,0.8112216,0
-1.0868928,-1.1199574,-1.9247823,0.62886691,-0.53723657,-0.56205267,0
-0.70628083,0.12324548,0.87114859,-0.62886691,0.53723657,0.56205267,0
0.91469586,2.5513332,-2.5373211,0.55373287,0.8169232,-0.16129595,0
-0.071259499,-1.2959319,2.7945707,0.54580796,-0.20979337,0.8112216,0
-3.1015511,-1.7873983,-1.1010683,-0.55373287,-0.8169232,0.16129595,0
0.33989215,3.0983419,-1.7401749,0.55373287,0.8169232,-0.16129595,0
0.84149551,2.8940127,-1.0530353,0.55373287,0.8169232,-0.16129595,0
2.1196609,0.59561032,1.8096503,0.54580796,-0.20979337,0.8112216,0
2.3589888,2.3687906,1.4964392,0.55373287,0.8169232,-0.16129595,0
0.53143525,1.8117502,0.64204597,-0.62886691,0.53723657,0.56205267,0
0.65482962,3.0707664,-0.79864931,0.55373287,0.8169232,-0.16129595,0
1.1512766,2.6193402,-1.3806949,0.55373287,0.8169232,-0.16129595,0
0.98188376,-0.45837891,-0.24244678,0.62886691,-0.53723657,-0.56205267,0
1.0111327,-0.71896887,0.039363503,0.62886691,-0.53723657,-0.56205267,0
1.6495466,2.4860723,-0.34509087,0.55373287,0.8169232,-0.16129595,0
-1.5211127,-2.4000492,1.2216939,-0.55373287,-0.8169232,0.16129595,0
2.9591253,1.8012953,1.5566475,0.54580796,-0.20979337,0.8112216,0
1.0033844,2.6909432,-1.5257627,0.55373287,0.8169232,-0.16129595,0
0.99190438,2.6367891,-1.8394504,0.55373287,0.8169232,-0.16129595,0
-0.40590751,3.3094497,-1.952798,-0.54580796,0.20979337,-0.8112216,0
-1.9019146,-0.72932303,-1.9907349,-0.54580796,0.20979337,-0.8112216,0
2.2067523,-0.6987108,1.4163235,0.54580796,-0.20979337,0.8112216,0
0.70661688,-2.61308,1.930565,0.54580796,-0.20979337,0.8112216,0
0.12363533,2.1291471,-0.11761475,-0.62886691,0.53723657,0.56205267,0
0.23522043,-0.92016768,2.6855421,0.54580796,-0.20979337,0.8112216,0
-0.071530223,3.147227,-1.3091098,-0.62886691,0.53723657,0.56205267,0
-2.6920819,-2.0852785,-1.2040391,-0.55373287,-0.8169232,0.16129595,0
1.685046,0.72679853,2.1359959,0.54580796,-0.20979337,0.8112216,0
-0.23717237,2.8349247,-1.1959298,-0.62886691,0.53723657,0.56205267,0
0.85311055,2.9765539,-0.59510827,0.55373287,0.8169232,-0.16129595,0
1.6498865,2.2817886,-1.378569,0.55373287,0.8169232,-0.16129595,0
1.3113565,2.421639,-1.8324434,0.55373287,0.8169232,-0.16129595,0
2.0824399,2.195255,-0.33187342,0.55373287,0.8169232,-0.16129595,0
-0.48601913,1.6834791,-2.319396,-0.54580796,0.20979337,-0.8112216,0
-1.0161676,-2.5921481,1.9822487,-0.55373287,-0.8169232,0.16129595,0
-1.4247468,-2.3477807,1.8172462,-0.55373287,-0.8169232,0.16129595,0
0.26171684,2.4346972,-2.6282139,-0.54580796,0.20979337,-0.8112216,0
-0.79762918,-2.6692419,2.3420367,-0.55373287,-0.8169232,0.16129595,0
-0.86286485,-2.5489352,2.7274048,-0.55373287,-0.8169232,0.16129595,0
-1.6286442,-2.6259494,-0.29159212,-0.55373287,-0.8169232,0.16129595,0
0.42071974,0.6619212,1.6172299,-0.62886691,0.53723657,0.56205267,0
0.34289759,2.2008739,0.059152603,-0.62886691,0.53723657,0.56205267,0
-0.38045484,-0.10764021,1.4563988,-0.62886691,0.53723657,0.56205267,0
0.75144911,1.6665229,-2.5313566,0.62886691,-0.53723657,-0.56205267,0
0.71537173,0.56481856,-1.5186614,0.62886691,-0.53723657,-0.56205267,0
0.67779565,-0.54486525,2.4848261,0.54580796,-0.20979337,0.8112216,0
2.428596,0.53769088,1.5868129,0.54580796,-0.20979337,0.8112216,0
0.81267327,2.8712442,-1.2672992,0.55373287,0.8169232,-0.16129595,0
0.83223772,0.68528068,2.0553393,-0.62886691,0.53723657,0.56205267,0
-2.4953701,-1.8346529,0.74063253,-0.55373287,-0.8169232,0.16129595,0
1.1708343,1.5784678,1.5804354,-0.62886691,0.53723657,0.56205267,0
1.7704668,2.2522435,-1.1142517,0.55373287,0.8169232,-0.16129595,0
1.3659058,1.8637092,-2.0323362,0.62886691,-0.53723657,-0.56205267,0
-0.059330463,-2.900547,2.3715682,0.54580796,-0.20979337,0.8112216,0
-1.6456738,-0.036730409,-0.027002573,-0.62886691,0.53723657,0.56205267,0
-0.20461059,-1.6400959,2.7952867,0.54580796,-0.20979337,0.8112216,0
-1.063848,0.76253855,-0.13999137,-0.62886691,0.53723657,0.56205267,0
-0.6811986,2.0462081,-2.0942681,-0.54580796,0.20979337,-0.8112216,0
2.0327859,2.4069958,0.57007647,0.55373287,0.8169232,-0.16129595,0
-1.6978294,-1.5706537,1.3808388,-0.62886691,0.53723657,0.56205267,0
-1.575336,-2.2412505,1.8398175,-0.55373287,-0.8169232,0.16129595,0
-1.8368394,-0.40079868,-1.949558,-0.54580796,0.20979337,-0.8112216,0
-0.51182914,-2.8514843,2.4001837,-0.55373287,-0.8169232,0.16129595,0
2.4468985,2.2309754,2.0124059,0.54580796,-0.20979337,0.8112216,0
-0.84962571,-2.8850634,1.0704494,-0.55373287,-0.8169232,0.16129595,0
-2.1265814,-2.447829,-1.0988891,-0.55373287,-0.8169232,0.16129595,0
0.54129684,2.8998351,-2.054136,0.55373287,0.8169232,-0.16129595,0
0.39339334,-2.2584291,0.81967926,0.62886691,-0.53723657,-0.56205267,0
-0.33313072,3.0196548,-1.4798688,-0.62886691,0.53723657,0.56205267,0
0.368765,2.9621875,-2.3306415,0.55373287,0.8169232,-0.16129595,0
3.2880774,1.6749345,1.1718166,0.55373287,0.8169232,-0.16129595,0
1.6688006,0.51100862,2.09112,0.54580796,-0.20979337,0.8112216,0
1.9374521,2.4158416,0.28759408,0.55373287,0.8169232,-0.16129595,0
1.3575079,-0.39470005,2.0663354,0.54580796,-0.20979337,0.8112216,0
-1.6348832,-0.81858778,0.73240733,-0.62886691,0.53723657,0.56205267,0
0.75764704,-0.7006582,2.3908103,0.54580796,-0.20979337,0.8112216,0
-1.4029106,0.92371273,-0.67341816,-0.62886691,0.53723657,0.56205267,0
-2.3142881,-2.3267601,-1.1301053,-0.55373287,-0.8169232,0.16129595,0
1.318575,-1.531885,1.160377,0.62886691,-0.53723657,-0.56205267,0
1.2133329,2.5754898,-1.3897467,0.55373287,0.8169232,-0.16129595,0
-0.16454399,-0.26817584,1.8514236,-0.62886691,0.53723657,0.56205267,0
-1.9785635,-2.5659487,-1.1889858,-0.55373287,-0.8169232,0.16129595,0
1.3995481,1.3363185,2.0677962,-0.62886691,0.53723657,0.56205267,0
1.1856309,2.5173345,-1.7793902,0.55373287,0.8169232,-0.16129595,0
0.33176553,1.8859742,0.34769332,-0.62886691,0.53723657,0.56205267,0
1.9646945,-0.85535777,1.5386742,0.54580796,-0.20979337,0.8112216,0
-1.0768321,1.9995543,-1.8401425,-0.54580796,0.20979337,-0.8112216,0
0.98699617,1.6975499,-2.297466,0.62886691,-0.53723657,-0.56205267,0
0.78248239,1.7275774,1.0033923,-0.62886691,0.53723657,0.56205267,0
-3.0965493,-1.1131892,-0.62142134,-0.62886691,0.53723657,0.56205267,0
0.68049121,1.7477576,-2.6883976,0.62886691,-0.53723657,-0.56205267,0
-2.6872597,-1.3171701,0.031497717,-0.62886691,0.53723657,0.56205267,0
-3.2683158,-1.512767,-0.43167067,-0.62886691,0.53723657,0.56205267,0
-1.1494473,-0.87458444,1.3290739,-0.62886691,0.53723657,0.56205267,0
1.831203,0.56136525,-0.26688433,0.62886691,-0.53723657,-0.56205267,0
2.2115607,2.4386909,1.344341,0.55373287,0.8169232,-0.16129595,0
2.0264616,0.42753035,1.8288888,0.54580796,-0.20979337,0.8112216,0
-0.34565544,2.4390905,-2.2184238,-0.54580796,0.20979337,-0.8112216,0
-1.6723927,1.1580085,-1.1988864,-0.62886691,0.53723657,0.56205267,0
-0.77680123,-2.7059438,2.2276523,-0.55373287,-0.8169232,0.16129595,0
-0.958534,1.950255,-1.157434,-0.62886691,0.53723657,0.56205267,0
1.6591704,2.5939574,1.1561697,-0.62886691,0.53723657,0.56205267,0
-1.192964,-2.8601372,0.018004894,-0.55373287,-0.8169232,0.16129595,0
1.4771602,1.2027988,2.282259,-0.62886691,0.53723657,0.56205267,0
0.94727421,-1.4518386,0.66842568,0.62886691,-0.53723657,-0.56205267,0
-0.70128787,-1.7004476,-0.93847799,0.62886691,-0.53723657,-0.56205267,0
-0.071162194,1.685903,0.088104963,-0.62886691,0.53723657,0.56205267,0
1.1574774,2.5622561,-1.6485238,0.55373287,0.8169232,-0.16129595,0
-2.1463923,0.6922729,-1.4586,-0.54580796,0.20979337,-0.8112216,0
-1.8573205,-0.40478528,-1.9368087,-0.54580796,0.20979337,-0.8112216,0
-0.26170468,-3.0174847,2.4181163,-0.55373287,-0.8169232,0.16129595,0
-2.2270839,-0.97427166,-1.8353008,-0.54580796,0.20979337,-0.8112216,0
2.5701952,2.2218623,1.4773607,0.55373287,0.8169232,-0.16129595,0
-0.19111699,1.511518,0.12057602,-0.62886691,0.53723657,0.56205267,0
-0.37779903,-0.41171092,-1.80837,0.62886691,-0.53723657,-0.56205267,0
2.1323192,1.1432704,1.9427662,0.54580796,-0.20979337,0.8112216,0
0.68341291,2.6705766,-2.7273839,0.55373287,0.8169232,-0.16129595,0
1.8841336,-1.0659784,1.538408,0.54580796,-0.20979337,0.8112216,0
2.9583497,1.915738,1.2594628,0.55373287,0.8169232,-0.16129595,0
-2.4646752,-1.923656,0.39523053,-0.55373287,-0.8169232,0.16129595,0
2.6248131,1.1827573,1.6216172,0.54580796,-0.20979337,0.8112216,0
0.98318529,-1.8822885,1.9334767,0.54580796,-0.20979337,0.8112216,0
-2.9387662,-0.37897384,-1.2025126,-0.54580796,0.20979337,-0.8112216,0
1.4029696,0.56333303,2.283509,0.54580796,-0.20979337,0.8112216,0
1.6027534,1.1114643,-1.0483017,0.62886691,-0.53723657,-0.56205267,0
-0.76923484,0.65314066,0.29421189,-0.62886691,0.53723657,0.56205267,0
-1.4450397,0.82602954,-1.8958941,-0.54580796,0.20979337,-0.8112216,0
-0.15679812,0.87250072,0.76977748,-0.62886691,0.53723657,0.56205267,0
-0.7173717,-2.7955079,1.9780567,-0.55373287,-0.8169232,0.16129595,0
1.379513,2.7991896,0.31373739,0.55373287,0.8169232,-0.16129595,0
2.2092109,2.1540835,-0.10519004,0.55373287,0.8169232,-0.16129595,0
-0.62924552,0.53882527,-2.5190539,-0.54580796,0.20979337,-0.8112216,0
1.1520147,0.17809808,2.3527296,0.54580796,-0.20979337,0.8112216,0
1.3945472,-1.1753116,1.8395374,0.54580796,-0.20979337,0.8112216,0
-2.5080748,-1.9021566,0.35512805,-0.55373287,-0.8169232,0.16129595,0
1.162591,-1.8926682,1.3307043,0.62886691,-0.53723657,-0.56205267,0
0.43017912,2.5306094,-2.7167547,-0.54580796,0.20979337,-0.8112216,0
2.651093,2.0870986,1.0725429,0.55373287,0.8169232,-0.16129595,0
0.2502687,-0.49040461,2.5279641,-0.62886691,0.53723657,0.56205267,0
2.9609809,1.7680465,1.5467997,0.54580796,-0.20979337,0.8112216,0
1.9869658,-0.40357077,0.82972658,0.62886691,-0.53723657,-0.56205267,0
0.31584632,3.1102042,-1.7626455,0.55373287,0.8169232,-0.16129595,0
-1.3619301,-2.5140355,1.1908581,-0.55373287,-0.8169232,0.16129595,0
-0.064171791,2.1251707,-2.4889967,-0.54580796,0.20979337,-0.8112216,0
2.7793169,1.8519499,0.32176828,0.55373287,0.8169232,-0.16129595,0
-0.49579644,-1.7616403,2.908318,-0.62886691,0.53723657,0.56205267,0
0.81856894,-0.69869357,2.3503284,0.54580796,-0.20979337,0.8112216,0
-0.035643578,-0.96930575,2.6658206,-0.62886691,0.53723657,0.56205267,0
-0.61854035,-1.0044825,2.0472553,-0.62886691,0.53723657,0.56205267,0
0.50454378,0.92980158,-2.1034198,0.62886691,-0.53723657,-0.56205267,0
-0.44158366,1.0717231,0.26071179,-0.62886691,0.53723657,0.56205267,0
-3.0850656,-1.7757188,-0.98531985,-0.55373287,-0.8169232,0.16129595,0
-0.38983917,-0.97248226,-1.2858295,0.62886691,-0.53723657,-0.56205267,0
-3.1623933,-1.7214155,-0.97575593,-0.55373287,-0.8169232,0.16129595,0
1.7759721,-0.60013771,1.7316545,0.54580796,-0.20979337,0.8112216,0
-2.1245899,-2.2565246,-0.12314224,-0.55373287,-0.8169232,0.16129595,0
0.21749592,-1.5358264,2.5382495,0.54580796,-0.20979337,0.8112216,0
-1.4761229,-1.5074253,-1.9899216,0.62886691,-0.53723657,-0.56205267,0
-0.80596626,-2.3946295,3.0047591,0.54580796,-0.20979337,0.8112216,0
1.2778076,2.4170413,-1.9709045,0.55373287,0.8169232,-0.16129595,0
0.97867042,0.21015841,-0.88506174,0.62886691,-0.53723657,-0.56205267,0
-0.37584448,1.3872788,-2.4701257,-0.54580796,0.20979337,-0.8112216,0
-1.2198889,-2.2616677,2.5760987,-0.62886691,0.53723657,0.56205267,0
0.53117633,-3.0715292,1.9300439,0.54580796,-0.20979337,0.8112216,0
-1.3371131,-0.69129992,-2.3609126,-0.54580796,0.20979337,-0.8112216,0
0.89493716,2.8568406,-1.0578356,0.55373287,0.8169232,-0.16129595,0
0.8793304,-0.72068006,2.303761,0.54580796,-0.20979337,0.8112216,0
-1.7552178,-2.4144197,0.3452208,-0.55373287,-0.8169232,0.16129595,0
1.846554,2.3529015,-0.34323621,0.55373287,0.8169232,-0.16129595,0
2.4795613,2.238616,1.2510681,0.55373287,0.8169232,-0.16129595,0
-0.42838621,-1.8745267,2.8852208,0.54580796,-0.20979337,0.8112216,0
0.65696943,-1.0155433,-0.073421001,0.62886691,-0.53723657,-0.56205267,0
1.2849534,-2.0002737,1.5704672,0.62886691,-0.53723657,-0.56205267,0
-0.87279409,-2.8399079,1.2196137,-0.55373287,-0.8169232,0.16129595,0
-2.3255515,-2.2393918,-0.72627664,-0.55373287,-0.8169232,0.16129595,0
2.4384425,0.35202974,1.5321734,0.54580796,-0.20979337,0.8112216,0
-0.66854274,-2.8860316,1.6872082,-0.55373287,-0.8169232,0.16129595,0
1.5391381,2.7192271,0.45674348,0.55373287,0.8169232,-0.16129595,0
-0.48900384,0.0015154481,1.2306099,-0.62886691,0.53723657,0.56205267,0
2.4105778,2.045537,0.036347151,0.55373287,0.8169232,-0.16129595,0
-2.7364886,-0.28712332,-1.3148558,-0.54580796,0.20979337,-0.8112216,0
2.1533372,1.4805579,2.0158522,0.54580796,-0.20979337,0.8112216,0
0.12669529,2.2555795,-0.23504102,-0.62886691,0.53723657,0.56205267,0
-0.39599907,-2.9093719,2.5046437,-0.55373287,-0.8169232,0.16129595,0
2.04704,0.97556299,1.9567721,0.54580796,-0.20979337,0.8112216,0
-3.1823583,-1.579182,-1.3490093,-0.54580796,0.20979337,-0.8112216,0
0.30030185,2.3389583,-0.1204946,-0.62886691,0.53723657,0.56205267,0
-1.4855955,-2.5316029,0.67733717,-0.55373287,-0.8169232,0.16129595,0
-2.0252318,-2.5332808,-1.1837473,-0.55373287,-0.8169232,0.16129595,0
2.6515248,0.75110483,1.4920133,0.54580796,-0.20979337,0.8112216,0
-0.07136488,1.1277044,-2.7421157,-0.54580796,0.20979337,-0.8112216,0
-1.9044049,1.0460869,-1.5299134,-0.54580796,0.20979337,-0.8112216,0
0.5425337,3.1105814,-0.98251224,0.55373287,0.8169232,-0.16129595,0
2.9435344,0.88426721,0.66903126,0.62886691,-0.53723657,-0.56205267,0
1.0392187,0.081333697,2.4035966,0.54580796,-0.20979337,0.8112216,0
-2.1106191,-0.50148606,-0.10298288,-0.62886691,0.53723657,0.56205267,0
-2.1039717,-2.1890907,0.28917456,-0.55373287,-0.8169232,0.16129595,0
-0.35925865,-1.3659544,2.6828713,-0.62886691,0.53723657,0.56205267,0
-1.5300736,-0.093354851,-2.0764472,-0.54580796,0.20979337,-0.8112216,0
2.3534219,0.095303297,1.5229843,0.54580796,-0.20979337,0.8112216,0
0.96253008,2.8635213,-0.79195142,0.55373287,0.8169232,-0.16129595,0
0.67822623,1.2325077,1.3599539,-0.62886691,0.53723657,0.56205267,0
2.3766778,2.4494946,1.9659111,0.55373287,0.8169232,-0.16129595,0
3.1338594,0.71866822,1.1590999,0.54580796,-0.20979337,0.8112216,0
1.7530893,2.549299,0.33060169,0.55373287,0.8169232,-0.16129595,0
0.31863713,-3.4978087,1.9628031,0.54580796,-0.20979337,0.8112216,0
0.091246128,-0.88977301,-0.82661223,0.62886691,-0.53723657,-0.56205267,0
2.2810678,2.1314626,0.026928425,0.55373287,0.8169232,-0.16129595,0
1.116483,0.72956896,-1.2273442,0.62886691,-0.53723657,-0.56205267,0
-2.9245689,-1.6998075,-0.049859285,-0.55373287,-0.8169232,0.16129595,0
0.21151495,-1.0456269,2.6690464,0.54580796,-0.20979337,0.8112216,0
0.13812375,-2.9723268,2.2201538,0.54580796,-0.20979337,0.8112216,0
-1.9651363,-2.6152823,-1.392751,-0.55373287,-0.8169232,0.16129595,0
-0.88419485,-2.0993407,2.7965386,-0.62886691,0.53723657,0.56205267,0
1.6757278,2.5606911,0.12271571,0.55373287,0.8169232,-0.16129595,0
-1.1362921,-2.5300291,1.8844764,-0.55373287,-0.8169232,0.16129595,0
-1.9478508,-2.5649195,-1.0783348,-0.55373287,-0.8169232,0.16129595,0
-0.17694283,1.7110409,-2.5202217,-0.54580796,0.20979337,-0.8112216,0
2.3483639,1.995455,-0.43088746,0.55373287,0.8169232,-0.16129595,0
-2.1061277,-2.3267369,-0.41537118,-0.55373287,-0.8169232,0.16129595,0
-0.70550394,-0.52572119,1.4923311,-0.62886691,0.53723657,0.56205267,0
0.58866596,0.71962428,1.7499857,-0.62886691,0.53723657,0.56205267,0
1.7052542,2.5960829,0.40333056,0.55373287,0.8169232,-0.16129595,0
1.1950002,2.7598734,-0.51882553,0.55373287,0.8169232,-0.16129595,0
-2.5908027,-2.2026834,-1.4509711,-0.55373287,-0.8169232,0.16129595,0
0.11566424,-2.5298808,2.3496873,0.54580796,-0.20979337,0.8112216,0
2.7432761,1.9302905,0.59481406,0.55373287,0.8169232,-0.16129595,0
-1.0518453,1.2642989,-2.0471015,-0.54580796,0.20979337,-0.8112216,0
-0.86700374,-1.022068,1.7860647,-0.62886691,0.53723657,0.56205267,0
1.0564847,-0.49684656,-0.12220837,0.62886691,-0.53723657,-0.56205267,0
-2.2228937,-0.90699804,-1.8207221,-0.54580796,0.20979337,-0.8112216,0
-0.87214673,-3.0269423,0.27455354,-0.55373287,-0.8169232,0.16129595,0
-1.1862891,-2.5263608,1.7314134,-0.55373287,-0.8169232,0.16129595,0
-0.5081557,-1.9321713,2.9239836,0.54580796,-0.20979337,0.8112216,0
-2.0164657,-2.5000248,-0.98521757,-0.55373287,-0.8169232,0.16129595,0
-0.53366113,0.82088554,-2.5104203,-0.54580796,0.20979337,-0.8112216,0
1.3956383,-1.1719347,0.90254372,0.62886691,-0.53723657,-0.56205267,0
-0.53487134,-2.9318542,0.42475867,0.62886691,-0.53723657,-0.56205267,0
2.6612263,0.51985383,1.4256814,0.54580796,-0.20979337,0.8112216,0
1.5061313,-1.5268756,1.365441,0.62886691,-0.53723657,-0.56205267,0
2.9693472,0.72095627,1.2703785,0.54580796,-0.20979337,0.8112216,0
-1.783767,0.22006428,-1.8247021,-0.54580796,0.20979337,-0.8112216,0
0.019263029,-1.915368,2.5734704,0.54580796,-0.20979337,0.8112216,0
-1.6457136,-1.3314698,1.2105266,-0.62886691,0.53723657,0.56205267,0
-0.76021075,-0.87311304,-1.7952108,0.62886691,-0.53723657,-0.56205267,0
0.42759967,2.949775,-2.1915278,0.55373287,0.8169232,-0.16129595,0
-2.153218,0.44345272,-1.0538634,-0.62886691,0.53723657,0.56205267,0
-1.2093911,-2.7745397,-0.48031378,0.62886691,-0.53723657,-0.56205267,0
-2.104929,-0.955562,-1.9126508,-0.54580796,0.20979337,-0.8112216,0
0.21401,-2.0410786,2.4099298,0.54580796,-0.20979337,0.8112216,0
-1.8892777,-0.2506237,-0.095115542,-0.62886691,0.53723657,0.56205267,0
-2.8855147,-1.7430092,-0.13459158,-0.55373287,-0.8169232,0.16129595,0
0.77200365,2.8539762,-1.4943765,0.55373287,0.8169232,-0.16129595,0
-0.19337189,-3.2061338,1.697244,-0.55373287,-0.8169232,0.16129595,0
-1.0030739,-2.7989309,0.97989655,-0.55373287,-0.8169232,0.16129595,0
2.13572,2.2129841,-0.059167862,0.55373287,0.8169232,-0.16129595,0
-1.0789487,0.13841593,-2.3200352,-0.54580796,0.20979337,-0.8112216,0
1.2720426,1.6135025,-1.8981978,0.62886691,-0.53723657,-0.56205267,0
-0.61382079,-1.5685019,-0.96673286,0.62886691,-0.53723657,-0.56205267,0
0.43988544,3.107846,-1.34876,0.55373287,0.8169232,-0.16129595,0
-1.3024507,-2.821341,-0.16137314,-0.55373287,-0.8169232,0.16129595,0
1.9663768,2.2404566,-0.5013864,0.55373287,0.8169232,-0.16129595,0
2.1542997,-0.69841683,1.4516908,0.54580796,-0.20979337,0.8112216,0
-1.7938206,0.53121209,-1.7374706,-0.54580796,0.20979337,-0.8112216,0
0.067862511,-2.3547254,2.4271474,0.54580796,-0.20979337,0.8112216,0
1.8836395,2.5136757,0.59835935,0.55373287,0.8169232,-0.16129595,0
0.33079934,2.7568073,-2.5913916,-0.54580796,0.20979337,-0.8112216,0
2.0151622,2.1602952,-0.73990226,0.55373287,0.8169232,-0.16129595,0
1.9249955,2.3970633,0.14972281,0.55373287,0.8169232,-0.16129595,0
-0.68786311,-2.6597121,2.767133,-0.55373287,-0.8169232,0.16129595,0
-1.2823958,-2.7562475,0.2371583,-0.55373287,-0.8169232,0.16129595,0
0.87798673,2.9106827,-0.84333014,0.55373287,0.8169232,-0.16129595,0
-3.2516043,-1.6551961,-0.94663358,-0.55373287,-0.8169232,0.16129595,0
1.6047118,-0.49575084,1.8738782,0.54580796,-0.20979337,0.8112216,0
-3.3262556,-1.2171047,-1.1585536,-0.54580796,0.20979337,-0.8112216,0
-0.8128562,2.0321717,-2.009316,-0.54580796,0.20979337,-0.8112216,0
3.4115553,1.5793648,1.1116836,0.55373287,0.8169232,-0.16129595,0
1.7989849,0.083389997,0.15393919,0.62886691,-0.53723657,-0.56205267,0
-1.8008246,-0.5958662,-2.0242369,-0.54580796,0.20979337,-0.8112216,0
1.1376642,2.5293932,-1.8829871,0.55373287,0.8169232,-0.16129595,0
-0.85529137,2.4631889,-1.8692975,-0.54580796,0.20979337,-0.8112216,0
-0.076608419,-2.0519786,2.6026452,0.54580796,-0.20979337,0.8112216,0
-0.05240345,-1.6011945,2.7029388,0.54580796,-0.20979337,0.8112216,0
1.0818467,-0.13452363,-0.44015697,0.62886691,-0.53723657,-0.56205267,0
1.1637965,-0.82487321,0.3114033,0.62886691,-0.53723657,-0.56205267,0
-2.9024427,-0.30158007,-1.2069373,-0.54580796,0.20979337,-0.8112216,0
-2.596096,-2.2628043,-1.7736425,-0.55373287,-0.8169232,0.16129595,0
-0.48804843,3.1268322,-1.7556478,-0.62886691,0.53723657,0.56205267,0
-0.7616992,-1.4534682,-1.2421453,0.62886691,-0.53723657,-0.56205267,0
1.790416,-1.06049,1.6028826,0.54580796,-0.20979337,0.8112216,0
-0.44875556,-0.25473875,1.5205827,-0.62886691,0.53723657,0.56205267,0
-1.8806952,-1.5313402,1.1386569,-0.62886691,0.53723657,0.56205267,0
3.247081,1.2208452,1.2127914,0.54580796,-0.20979337,0.8112216,0
-1.4694662,-2.5329673,0.72579956,-0.55373287,-0.8169232,0.16129595,0
2.0677729,2.1158783,-0.78424788,0.55373287,0.8169232,-0.16129595,0
0.31742859,-2.0275593,2.3438435,0.54580796,-0.20979337,0.8112216,0
1.4053538,2.3800809,-1.7202301,0.55373287,0.8169232,-0.16129595,0
-1.0418462,-1.4724799,-1.5374223,0.62886691,-0.53723657,-0.56205267,0
1.5065069,-0.74481654,0.61833203,0.62886691,-0.53723657,-0.56205267,0
1.5230267,0.29690501,2.1338296,0.54580796,-0.20979337,0.8112216,0
-0.10192776,-0.70313418,2.3372376,-0.62886691,0.53723657,0.56205267,0
2.9723916,0.88340193,0.70214534,0.62886691,-0.53723657,-0.56205267,0
0.34907365,-3.3450425,1.9818323,0.54580796,-0.20979337,0.8112216,0
-0.61104155,1.0686985,0.074000597,-0.62886691,0.53723657,0.56205267,0
-1.5753766,-2.7220464,-0.59543037,-0.55373287,-0.8169232,0.16129595,0
1.7552617,-0.28399909,0.45618635,0.62886691,-0.53723657,-0.56205267,0
2.7296519,1.2930644,1.5796062,0.54580796,-0.20979337,0.8112216,0
-2.5607281,-1.2897329,0.1468451,-0.62886691,0.53723657,0.56205267,0
-0.48001468,2.8288,-1.4617854,-0.62886691,0.53723657,0.56205267,0
0.60532331,2.9043002,-1.8117157,0.55373287,0.8169232,-0.16129595,0
-1.1246974,-2.6698384,1.2161822,-0.55373287,-0.8169232,0.16129595,0
-1.2207818,-2.6912274,0.77799153,-0.55373287,-0.8169232,0.16129595,0
0.69747829,-1.0070785,-0.036187649,0.62886691,-0.53723657,-0.56205267,0
1.8640376,1.018818,-0.66740155,0.62886691,-0.53723657,-0.56205267,0
0.85131598,-2.6349473,1.6919318,0.62886691,-0.53723657,-0.56205267,0
1.3694206,2.8299878,0.43507409,0.55373287,0.8169232,-0.16129595,0
-1.6401582,-0.13151625,-2.0122492,-0.54580796,0.20979337,-0.8112216,0
-0.68341589,1.3607687,-2.2700408,-0.54580796,0.20979337,-0.8112216,0
1.9014161,2.5209532,0.69624567,0.55373287,0.8169232,-0.16129595,0
-2.1741524,-2.0022693,0.99444616,-0.55373287,-0.8169232,0.16129595,0
2.6801808,2.1251872,1.3653088,0.55373287,0.8169232,-0.16129595,0
0.20795202,-1.7214226,2.4966731,0.54580796,-0.20979337,0.8112216,0
-0.081701875,2.3672009,-0.57490456,-0.62886691,0.53723657,0.56205267,0
-2.3160727,0.42926717,-1.4124525,-0.54580796,0.20979337,-0.8112216,0
-2.354085,-2.2667952,-0.96302342,-0.55373287,-0.8169232,0.16129595,0
-2.2041016,-1.9690349,1.0599545,-0.55373287,-0.8169232,0.16129595,0
-1.7196116,-0.12495899,-1.9570951,-0.54580796,0.20979337,-0.8112216,0
2.6950011,0.81078649,1.478196,0.54580796,-0.20979337,0.8112216,0
-0.87206936,0.36786968,-2.399888,-0.54580796,0.20979337,-0.8112216,0
3.5784633,1.4432163,0.99512434,0.55373287,0.8169232,-0.16129595,0
0.55484504,2.9680047,-0.43696499,-0.62886691,0.53723657,0.56205267,0
-0.9330616,1.5246989,-0.72216666,-0.62886691,0.53723657,0.56205267,0
2.889149,1.5737517,1.5448828,0.54580796,-0.20979337,0.8112216,0
-3.2161608,-1.624945,-0.67174125,-0.55373287,-0.8169232,0.16129595,0
-2.9214833,-1.4898572,-1.5014312,-0.54580796,0.20979337,-0.8112216,0
0.90091944,2.7913933,-1.3687731,0.55373287,0.8169232,-0.16129595,0
-1.1406119,-2.1142576,2.5238981,-0.62886691,0.53723657,0.56205267,0
-0.42280853,-3.0303061,1.800105,-0.55373287,-0.8169232,0.16129595,0
0.85851365,-0.48081064,-0.35904133,0.62886691,-0.53723657,-0.56205267,0
-1.9077139,1.1211443,-1.4269444,-0.62886691,0.53723657,0.56205267,0
1.6078415,1.4348669,-1.3517325,0.62886691,-0.53723657,-0.56205267,0
-2.5655682,-1.5679253,-1.7610884,-0.54580796,0.20979337,-0.8112216,0
-0.19668412,0.65246892,0.93546695,-0.62886691,0.53723657,0.56205267,0
1.5363126,0.063303351,-0.12075877,0.62886691,-0.53723657,-0.56205267,0
-2.6307683,-0.23720717,-0.93757546,-0.62886691,0.53723657,0.56205267,0
1.6326127,-0.86580789,0.87507808,0.62886691,-0.53723657,-0.56205267,0
0.52486902,-1.2204475,-0.025368035,0.62886691,-0.53723657,-0.56205267,0
0.44357175,-1.9735689,0.60353994,0.62886691,-0.53723657,-0.56205267,0
2.1371644,0.80851573,-0.16078973,0.62886691,-0.53723657,-0.56205267,0
-0.50059235,2.4949617,-1.1657109,-0.62886691,0.53723657,0.56205267,0
-1.0871429,-1.0114539,1.5296109,-0.62886691,0.53723657,0.56205267,0
-1.1881225,1.4408032,-0.9273566,-0.62886691,0.53723657,0.56205267,0
1.4411726,2.3665285,-1.6659031,0.55373287,0.8169232,-0.16129595,0
2.7418158,1.0839691,1.5173469,0.54580796,-0.20979337,0.8112216,0
3.0347641,1.3805851,1.3969541,0.54580796,-0.20979337,0.8112216,0
2.5308816,0.70056063,1.5601133,0.54580796,-0.20979337,0.8112216,0
0.45745754,-0.59010053,2.621376,0.54580796,-0.20979337,0.8112216,0
-2.7218406,-1.2528148,-1.5744526,-0.54580796,0.20979337,-0.8112216,0
-0.44385409,2.0122337,-2.2627447,-0.54580796,0.20979337,-0.8112216,0
0.70009828,2.2078528,-2.9818318,-0.54580796,0.20979337,-0.8112216,0
-0.23487902,0.51959747,-2.5386493,0.62886691,-0.53723657,-0.56205267,0
2.7120664,0.37167811,0.90000391,0.62886691,-0.53723657,-0.56205267,0
0.29897058,-3.101542,1.5199193,0.62886691,-0.53723657,-0.56205267,0
-1.7302206,-2.4715726,0.14157224,-0.55373287,-0.8169232,0.16129595,0
-1.6222122,-2.3303399,1.2276753,-0.55373287,-0.8169232,0.16129595,0
-2.0556042,-2.2243614,-1.9530072,0.62886691,-0.53723657,-0.56205267,0
-0.93597388,-2.4374001,3.0413165,-0.55373287,-0.8169232,0.16129595,0
-2.2474625,-2.1833992,-0.17460704,-0.55373287,-0.8169232,0.16129595,0
-0.41463494,-1.9820662,2.8481574,0.54580796,-0.20979337,0.8112216,0
-2.2628863,-1.4149492,-1.9251779,-0.54580796,0.20979337,-0.8112216,0
2.069874,2.1110215,-0.80163407,0.55373287,0.8169232,-0.16129595,0
-0.46630991,-1.9215256,2.898582,0.54580796,-0.20979337,0.8112216,0
-3.558311,-1.2639384,-1.0145335,-0.54580796,0.20979337,-0.8112216,0
-1.4075336,0.61775482,-0.38614163,-0.62886691,0.53723657,0.56205267,0
-2.3337059,-1.3748626,0.48222554,-0.62886691,0.53723657,0.56205267,0
-0.75590593,-2.2506185,-0.47370911,0.62886691,-0.53723657,-0.56205267,0
-2.4693074,-1.0409497,0.011334658,-0.62886691,0.53723657,0.56205267,0
-1.5732613,-2.5152903,0.45899844,-0.55373287,-0.8169232,0.16129595,0
2.8399389,1.9069037,0.80821204,0.55373287,0.8169232,-0.16129595,0
-0.25976253,0.64959764,-2.6907511,0.62886691,-0.53723657,-0.56205267,0
-2.9031086,-0.78743339,-0.71635771,-0.62886691,0.53723657,0.56205267,0
-0.30038869,-3.216645,1.2766168,-0.55373287,-0.8169232,0.16129595,0
-1.6955874,-2.6837831,-0.81432366,-0.55373287,-0.8169232,0.16129595,0
1.0452529,-1.6786172,0.99481755,0.62886691,-0.53723657,-0.56205267,0
-1.023737,1.9542798,-1.8875748,-0.54580796,0.20979337,-0.8112216,0
0.20620775,-2.1865625,2.3775549,0.54580796,-0.20979337,0.8112216,0
-1.4629791,0.44616199,-0.28416169,-0.62886691,0.53723657,0.56205267,0
3.4238997,1.1344066,1.07147,0.54580796,-0.20979337,0.8112216,0
1.236671,1.099806,-1.4467587,0.62886691,-0.53723657,-0.56205267,0
-1.2486848,-2.425756,2.026747,-0.55373287,-0.8169232,0.16129595,0
-2.4920378,-1.888797,0.47784591,-0.55373287,-0.8169232,0.16129595,0
-0.80974925,1.964819,-1.0048833,-0.62886691,0.53723657,0.56205267,0
0.30100811,-3.3682346,2.0081742,0.54580796,-0.20979337,0.8112216,0
-0.78164387,2.8216553,-1.8261451,-0.54580796,0.20979337,-0.8112216,0
-2.210017,-2.1348937,0.19961357,-0.55373287,-0.8169232,0.16129595,0
3.0165184,1.7486668,0.61298323,0.55373287,0.8169232,-0.16129595,0
-0.82320553,0.42020833,0.45647326,-0.62886691,0.53723657,0.56205267,0
-1.4321165,0.83494866,-0.62125099,-0.62886691,0.53723657,0.56205267,0
1.5187515,1.2976525,-1.3202569,0.62886691,-0.53723657,-0.56205267,0
-0.66444409,-2.7472262,2.4042921,-0.55373287,-0.8169232,0.16129595,0
1.1734741,2.3612676,-2.6115642,0.55373287,0.8169232,-0.16129595,0
-2.2713091,-1.0420725,-1.8230793,-0.54580796,0.20979337,-0.8112216,0
0.16310549,-1.336771,2.6263232,0.54580796,-0.20979337,0.8112216,0
-1.9549093,-0.88310647,-1.994849,-0.54580796,0.20979337,-0.8112216,0
0.11023068,0.48810619,-2.1224134,0.62886691,-0.53723657,-0.56205267,0
-0.11972737,0.27391851,1.3834085,-0.62886691,0.53723657,0.56205267,0
0.84247398,3.0347536,-0.33685875,0.55373287,0.8169232,-0.16129595,0
2.2303085,2.033114,-0.64544034,0.55373287,0.8169232,-0.16129595,0
-1.3374245,0.97036803,-1.9309721,-0.54580796,0.20979337,-0.8112216,0
-0.57868034,0.47729534,0.67549992,-0.62886691,0.53723657,0.56205267,0
-1.051712,1.3097888,-0.64950049,-0.62886691,0.53723657,0.56205267,0
-3.3769531,-1.4663682,-1.1889067,-0.54580796,0.20979337,-0.8112216,0
0.21723175,1.8694031,-2.7444761,-0.54580796,0.20979337,-0.8112216,0
-1.2222873,-2.8173428,0.1340816,-0.55373287,-0.8169232,0.16129595,0
-0.67452657,-0.60417962,1.6019852,-0.62886691,0.53723657,0.56205267,0
-3.1033669,-1.7646828,-1.4501302,-0.54580796,0.20979337,-0.8112216,0
0.8920517,-0.72234219,2.2947717,0.54580796,-0.20979337,0.8112216,0
0.57391763,2.5505278,-2.8083141,-0.54580796,0.20979337,-0.8112216,0
-2.4632974,-2.0749328,-0.36621881,-0.55373287,-0.8169232,0.16129595,0
0.60534859,-2.6571577,1.9873016,0.54580796,-0.20979337,0.8112216,0
-0.53899324,-0.3282069,1.4898422,-0.62886691,0.53723657,0.56205267,0
0.65449882,-2.2449863,2.0608256,0.54580796,-0.20979337,0.8112216,0
1.4824729,-1.693967,1.6462475,0.54580796,-0.20979337,0.8112216,0
-3.2842548,-1.6091396,-0.82546043,-0.55373287,-0.8169232,0.16129595,0
1.8046112,-0.28056377,1.7950315,0.54580796,-0.20979337,0.8112216,0
-2.1722021,-1.3060609,-1.9580317,-0.54580796,0.20979337,-0.8112216,0
1.0383043,2.0262258,1.004163,-0.62886691,0.53723657,0.56205267,0
-2.2676566,-2.1082854,-2.1012747,-0.54580796,0.20979337,-0.8112216,0
-2.0725915,-0.27226722,-1.7576988,-0.54580796,0.20979337,-0.8112216,0
