-2.6360512,-1.5324752,-3.8853083,0.3996619,0.0051752478,-0.91664797,0
4.3461275,1.5285962,2.1514137,0.81075984,0.46459541,0.35611731,0
-1.9122655,0.41131508,1.8958956,-0.3996619,-0.0051752478,0.91664797,0
1.7934783,0.24681836,2.4876118,0.42771345,-0.88550794,0.18148521,0
4.4824538,2.4858387,0.59221315,0.81075984,0.46459541,0.35611731,0
4.8908434,1.8510731,0.49057102,0.81075984,0.46459541,0.35611731,0
-2.648314,-0.63894874,-2.3862798,-0.42771345,0.88550794,-0.18148521,0
1.0857328,-0.97520971,-1.8069711,0.42771345,-0.88550794,0.18148521,0
-0.21036911,0.026334301,-2.8189013,0.3996619,0.0051752478,-0.91664797,0
-1.2829669,-1.3783504,-3.2944884,0.3996619,0.0051752478,-0.91664797,0
-4.6060781,-2.2888401,-0.56776905,-0.81075984,-0.46459541,-0.35611731,0
3.5909717,3.1683421,1.7314162,0.81075984,0.46459541,0.35611731,0
-3.7357793,-1.6118083,-3.4324119,-0.81075984,-0.46459541,-0.35611731,0
4.7280397,1.0578004,-0.47141862,0.42771345,-0.88550794,0.18148521,0
-1.4180641,-2.1966002,-3.3580112,0.3996619,0.0051752478,-0.91664797,0
-0.39023399,-0.10078032,-2.8980405,0.3996619,0.0051752478,-0.91664797,0
-4.8357663,-2.5743032,0.32757235,-0.81075984,-0.46459541,-0.35611731,0
4.4725542,1.9393696,1.3276823,0.81075984,0.46459541,0.35611731,0
-3.0956764,-3.0338445,-3.0345049,-0.81075984,-0.46459541,-0.35611731,0
-3.6172676,-2.2153981,-2.9147727,-0.81075984,-0.46459541,-0.35611731,0
-3.0545187,-0.46874714,-0.59850931,-0.42771345,0.88550794,-0.18148521,0
2.5643473,1.838112,-1.5988855,0.3996619,0.0051752478,-0.91664797,0
2.296828,1.894019,3.7394474,-0.3996619,-0.0051752478,0.91664797,0
4.7796068,1.5448016,1.1433849,0.81075984,0.46459541,0.35611731,0
2.1025457,0.52804959,3.131412,0.42771345,-0.88550794,0.18148521,0
-2.6771505,-2.990742,-3.9114611,0.3996619,0.0051752478,-0.91664797,0
-3.9828291,-3.1310525,-0.88793659,-0.81075984,-0.46459541,-0.35611731,0
-4.375443,-2.0381787,-1.4198642,-0.81075984,-0.46459541,-0.35611731,0
5.0751386,2.2789583,-0.48723269,0.81075984,0.46459541,0.35611731,0
1.5999808,0.80367756,3.4294629,-0.3996619,-0.0051752478,0.91664797,0
-1.6566159,0.52495015,0.95547372,-0.42771345,0.88550794,-0.18148521,0
0.095343947,0.95398271,-1.0800916,-0.42771345,0.88550794,-0.18148521,0
-5.0802536,-1.4550643,-0.57598495,-0.81075984,-0.46459541,-0.35611731,0
-0.76629227,-1.6661463,-0.81346667,0.42771345,-0.88550794,0.18148521,0
-3.4423051,-0.34795165,0.90479183,-0.42771345,0.88550794,-0.18148521,0
-1.8577329,-1.9233706,-3.5481656,0.3996619,0.0051752478,-0.91664797,0
3.5276339,1.0463959,-1.1833591,0.3996619,0.0051752478,-0.91664797,0
-2.0502138,-0.32237929,1.8316075,-0.3996619,-0.0051752478,0.91664797,0
0.31606936,-1.0015559,-2.5951755,0.3996619,0.0051752478,-0.91664797,0
-2.1616328,-0.5709427,-3.2014441,-0.42771345,0.88550794,-0.18148521,0
3.2746909,1.6669307,4.1645169,-0.3996619,-0.0051752478,0.91664797,0
-1.9242268,-1.8939607,0.80392432,0.42771345,-0.88550794,0.18148521,0
-3.7842534,-1.0351212,-1.6421828,-0.42771345,0.88550794,-0.18148521,0
0.35691047,0.89775378,-1.9708891,-0.42771345,0.88550794,-0.18148521,0
-1.2146988,0.61124253,0.33503085,-0.42771345,0.88550794,-0.18148521,0
-2.90713,-1.0802889,-3.9297175,-0.42771345,0.88550794,-0.18148521,0
0.98309636,1.410275,3.163924,-0.3996619,-0.0051752478,0.91664797,0
-3.8138471,-0.84582406,-0.64881539,-0.42771345,0.88550794,-0.18148521,0
4.0254054,0.99531215,0.87961221,0.42771345,-0.88550794,0.18148521,0
3.5036156,3.1632423,1.6669815,-0.42771345,0.88550794,-0.18148521,0
3.6751618,1.5570614,-1.1161532,0.3996619,0.0051752478,-0.91664797,0
0.42057705,-0.086639374,2.910212,-0.3996619,-0.0051752478,0.91664797,0
-1.6910809,-2.21398,-3.4771454,0.3996619,0.0051752478,-0.91664797,0
-2.9299011,-0.30290532,-0.083019495,-0.42771345,0.88550794,-0.18148521,0
3.4655981,1.5966278,4.0673294,0.81075984,0.46459541,0.35611731,0
2.335237,2.0070729,3.7568316,-0.3996619,-0.0051752478,0.91664797,0
-1.2766879,-0.082238674,-2.9025307,-0.42771345,0.88550794,-0.18148521,0
4.8426657,2.2587438,-0.60315609,0.3996619,0.0051752478,-0.91664797,0
-0.69625938,-0.45137554,-3.0334482,0.3996619,0.0051752478,-0.91664797,0
4.4274449,1.7275467,1.706728,0.81075984,0.46459541,0.35611731,0
-4.842752,-2.0340049,-0.36140299,-0.81075984,-0.46459541,-0.35611731,0
4.4577379,2.8191791,0.21360254,0.81075984,0.46459541,0.35611731,0
-2.556057,-2.7513847,-3.8573124,0.3996619,0.0051752478,-0.91664797,0
1.4742856,2.0311162,0.92568326,-0.42771345,0.88550794,-0.18148521,0
2.9711936,0.51336843,-1.4289784,0.3996619,0.0051752478,-0.91664797,0
-1.7562718,-1.4506471,-3.5012593,0.3996619,0.0051752478,-0.91664797,0
4.4397058,2.7992661,0.28063345,0.81075984,0.46459541,0.35611731,0
0.93437105,1.8857071,1.4886363,-0.42771345,0.88550794,-0.18148521,0
2.8425226,2.5790923,3.9812398,-0.3996619,-0.0051752478,0.91664797,0
3.2866735,2.4034452,3.4220953,0.81075984,0.46459541,0.35611731,0
-0.94389951,-0.84605622,-3.1436484,0.3996619,0.0051752478,-0.91664797,0
-1.302011,0.65684843,0.7633239,-0.42771345,0.88550794,-0.18148521,0
-2.7281017,-0.17202652,0.079978943,-0.42771345,0.88550794,-0.18148521,0
3.9282384,0.88035762,-1.0096314,0.3996619,0.0051752478,-0.91664797,0
-0.40424228,0.93875366,2.5563772,-0.3996619,-0.0051752478,0.91664797,0
-4.6368999,-2.1074443,0.69372463,-0.3996619,-0.0051752478,0.91664797,0
-0.90507054,-1.5198128,-3.1305227,0.3996619,0.0051752478,-0.91664797,0
2.2970562,2.6097634,3.7435873,-0.3996619,-0.0051752478,0.91664797,0
-2.7669654,-1.3238287,1.513447,-0.3996619,-0.0051752478,0.91664797,0
-3.2309339,-0.82990706,-1.9449257,-0.42771345,0.88550794,-0.18148521,0
0.72369695,0.96260953,-2.406359,0.3996619,0.0051752478,-0.91664797,0
-2.5516624,-1.9200784,1.6039536,-0.3996619,-0.0051752478,0.91664797,0
4.3478017,3.1903086,-0.19048214,-0.42771345,0.88550794,-0.18148521,0
-3.3646574,-2.9424567,-2.5413511,-0.81075984,-0.46459541,-0.35611731,0
-2.447155,-2.8185594,-2.4749985,0.42771345,-0.88550794,0.18148521,0
-4.7734613,-2.4871669,0.07204771,-0.81075984,-0.46459541,-0.35611731,0
-0.58257139,-1.3805499,-2.9891257,0.3996619,0.0051752478,-0.91664797,0
-1.308763,0.68174636,0.90072066,-0.42771345,0.88550794,-0.18148521,0
-4.4830608,-1.5967565,-1.7507386,-0.81075984,-0.46459541,-0.35611731,0
4.4443712,2.3424275,0.86600971,0.81075984,0.46459541,0.35611731,0
0.4201799,-0.87592089,0.2460171,0.42771345,-0.88550794,0.18148521,0
-5.0858622,-2.2510004,0.47517395,-0.81075984,-0.46459541,-0.35611731,0
1.90641,-0.44322658,-1.8986287,0.3996619,0.0051752478,-0.91664797,0
3.3092902,2.6251559,-0.50048995,-0.42771345,0.88550794,-0.18148521,0
-2.8792205,-0.88439202,-3.0396681,-0.42771345,0.88550794,-0.18148521,0
-5.0854568,-1.4712458,-0.54302788,-0.81075984,-0.46459541,-0.35611731,0
-3.8450384,-2.7301214,-1.7246997,-0.81075984,-0.46459541,-0.35611731,0
4.2047791,2.3266845,1.4320199,0.81075984,0.46459541,0.35611731,0
-2.9076874,-3.026403,-2.4037592,0.42771345,-0.88550794,0.18148521,0
-1.5995563,0.13987589,-1.0578656,-0.42771345,0.88550794,-0.18148521,0
2.8725793,0.74258906,2.36343,0.42771345,-0.88550794,0.18148521,0
3.2658641,0.72937495,1.3720851,0.42771345,-0.88550794,0.18148521,0
1.7606441,2.1816125,0.98511517,-0.42771345,0.88550794,-0.18148521,0
2.4755397,1.7986073,3.8168273,-0.3996619,-0.0051752478,0.91664797,0
-3.6672187,-1.0001175,-1.7472122,-0.42771345,0.88550794,-0.18148521,0
2.2216721,1.9439992,3.7069607,-0.3996619,-0.0051752478,0.91664797,0
-0.2557261,0.39137661,-2.836616,0.3996619,0.0051752478,-0.91664797,0
2.3051801,0.59399527,2.9756193,0.42771345,-0.88550794,0.18148521,0
-4.4050732,-1.2055824,0.79989409,-0.3996619,-0.0051752478,0.91664797,0
-4.1263742,-2.4114225,-1.4999702,-0.81075984,-0.46459541,-0.35611731,0
-4.1506219,-1.8822873,-2.1350846,-0.81075984,-0.46459541,-0.35611731,0
3.2409215,0.55275458,-1.3111539,0.3996619,0.0051752478,-0.91664797,0
-0.64550209,-1.3107076,-3.0161695,0.3996619,0.0051752478,-0.91664797,0
3.3321202,2.5633962,-0.85563517,-0.42771345,0.88550794,-0.18148521,0
-2.482625,-0.5286833,1.6419095,-0.3996619,-0.0051752478,0.91664797,0
3.5085623,0.89156157,-1.1925483,0.3996619,0.0051752478,-0.91664797,0
2.6737492,2.2790532,-0.69139981,-0.42771345,0.88550794,-0.18148521,0
2.1200314,-0.14301276,-0.18406439,0.42771345,-0.88550794,0.18148521,0
-4.648243,-2.9062743,0.33374071,-0.81075984,-0.46459541,-0.35611731,0
-0.76750231,-1.4444077,0.27129745,0.42771345,-0.88550794,0.18148521,0
2.7864943,0.61005253,1.919634,0.42771345,-0.88550794,0.18148521,0
1.667868,-0.1792078,0.70496368,0.42771345,-0.88550794,0.18148521,0
-3.6301403,-1.9977552,-3.169405,-0.81075984,-0.46459541,-0.35611731,0
-1.6769493,-0.86590564,1.9912832,-0.3996619,-0.0051752478,0.91664797,0
0.67718351,1.8071364,3.0327854,-0.3996619,-0.0051752478,0.91664797,0
-0.9360826,-0.26702654,2.3176854,-0.3996619,-0.0051752478,0.91664797,0
1.7205353,1.6008503,-1.7540282,-0.42771345,0.88550794,-0.18148521,0
3.3701687,1.1885341,3.3666096,0.42771345,-0.88550794,0.18148521,0
-3.6740324,-3.0025382,-1.7586246,-0.81075984,-0.46459541,-0.35611731,0
0.73047066,0.49777734,-2.4060297,0.3996619,0.0051752478,-0.91664797,0
-4.3938036,-1.6595057,-1.8720849,-0.81075984,-0.46459541,-0.35611731,0
-3.0586507,-2.52633,-3.78091,-0.81075984,-0.46459541,-0.35611731,0
-3.449472,-2.9077468,-2.393539,-0.81075984,-0.46459541,-0.35611731,0
-4.831162,-2.4007239,0.090636253,-0.81075984,-0.46459541,-0.35611731,0
4.529798,2.0477762,1.0559275,0.81075984,0.46459541,0.35611731,0
-3.0862963,-0.27310503,1.3801498,-0.3996619,-0.0051752478,0.91664797,0
-1.239527,-1.6995506,0.13883686,0.42771345,-0.88550794,0.18148521,0
2.8450897,2.8917246,3.7904181,0.81075984,0.46459541,0.35611731,0
2.5811436,-0.12377703,-1.602639,0.3996619,0.0051752478,-0.91664797,0
2.8163753,0.79805928,2.7665403,0.42771345,-0.88550794,0.18148521,0
0.38664484,-1.4266995,-2.5668046,0.3996619,0.0051752478,-0.91664797,0
-0.024055958,0.56198168,-2.7113595,-0.42771345,0.88550794,-0.18148521,0
1.3230782,0.91281509,3.3093488,-0.3996619,-0.0051752478,0.91664797,0
1.4799721,-0.087212086,1.5966536,0.42771345,-0.88550794,0.18148521,0
4.4979372,3.2158833,-0.39546394,0.81075984,0.46459541,0.35611731,0
-2.3138437,-2.7904561,-2.652055,0.42771345,-0.88550794,0.18148521,0
3.0238411,0.42045927,-1.4065486,0.3996619,0.0051752478,-0.91664797,0
0.12396646,1.5000508,2.7898471,-0.3996619,-0.0051752478,0.91664797,0
1.8732665,-0.22894812,-0.021801591,0.42771345,-0.88550794,0.18148521,0
-1.6667883,-0.30864659,1.9988601,-0.3996619,-0.0051752478,0.91664797,0
0.49513185,-1.3244202,-2.1189547,0.42771345,-0.88550794,0.18148521,0
3.354526,2.4789076,3.169168,0.81075984,0.46459541,0.35611731,0
-3.1178677,-1.0269449,-3.1727858,-0.42771345,0.88550794,-0.18148521,0
1.9693973,2.1018429,0.10392523,-0.42771345,0.88550794,-0.18148521,0
3.2873015,2.2551172,-1.2813208,0.3996619,0.0051752478,-0.91664797,0
-3.354743,-3.0809941,-1.6165276,0.42771345,-0.88550794,0.18148521,0
-3.0421414,-2.9517455,-3.2634926,-0.81075984,-0.46459541,-0.35611731,0
-2.9401886,-3.1562848,-3.2287607,-0.81075984,-0.46459541,-0.35611731,0
4.2676792,2.6426065,0.8766613,0.81075984,0.46459541,0.35611731,0
2.9866765,1.979908,-1.4139481,0.3996619,0.0051752478,-0.91664797,0
2.165318,1.0888443,3.6775625,-0.3996619,-0.0051752478,0.91664797,0
-4.6484308,-2.629014,-0.02755022,-0.81075984,-0.46459541,-0.35611731,0
-3.4693553,-2.9142356,-2.3398063,-0.81075984,-0.46459541,-0.35611731,0
-2.2431185,-2.3028965,-0.43982244,0.42771345,-0.88550794,0.18148521,0
3.82182,2.7053299,1.8099029,0.81075984,0.46459541,0.35611731,0
1.7736516,2.0889707,0.50243998,-0.42771345,0.88550794,-0.18148521,0
4.4793139,1.60376,1.7501333,0.81075984,0.46459541,0.35611731,0
-3.429564,-1.1830504,-3.1998739,-0.42771345,0.88550794,-0.18148521,0
-0.8178423,-1.4924865,0.15534866,0.42771345,-0.88550794,0.18148521,0
0.17279398,-0.87206119,0.8478744,0.42771345,-0.88550794,0.18148521,0
4.6750326,2.6546898,-0.066510201,0.81075984,0.46459541,0.35611731,0
-1.1201113,-2.2944694,-3.2286551,0.3996619,0.0051752478,-0.91664797,0
-0.8860271,0.58829474,2.3443384,-0.3996619,-0.0051752478,0.91664797,0
-4.6189251,-1.6887975,-1.3213449,-0.81075984,-0.46459541,-0.35611731,0
0.38741982,1.6387513,1.5727048,-0.42771345,0.88550794,-0.18148521,0
-3.1364164,-2.6947799,-0.2466383,0.42771345,-0.88550794,0.18148521,0
0.64252853,-0.55178225,1.3035458,0.42771345,-0.88550794,0.18148521,0
4.2210627,1.8589375,2.0051751,0.81075984,0.46459541,0.35611731,0
4.243072,2.5802627,1.0140181,0.81075984,0.46459541,0.35611731,0
4.5169764,1.4387591,1.8796504,0.81075984,0.46459541,0.35611731,0
-2.5346992,-2.6907301,-1.6449718,0.42771345,-0.88550794,0.18148521,0
-2.5617638,-1.3100924,-3.8516629,0.3996619,0.0051752478,-0.91664797,0
-0.049500227,-0.8796016,-2.7538767,0.3996619,0.0051752478,-0.91664797,0
2.688776,3.1316776,3.4333358,-0.42771345,0.88550794,-0.18148521,0
1.7513094,2.0099967,0.1697638,-0.42771345,0.88550794,-0.18148521,0
-3.3986311,-2.2248406,-3.4002151,-0.81075984,-0.46459541,-0.35611731,0
-3.7051146,-0.80129147,-0.68778443,-0.42771345,0.88550794,-0.18148521,0
0.0040659904,1.4712617,2.7374074,-0.3996619,-0.0051752478,0.91664797,0
-3.6986616,-3.162936,-1.2058153,0.42771345,-0.88550794,0.18148521,0
0.5096277,-0.91945183,-0.17718577,0.42771345,-0.88550794,0.18148521,0
2.4529672,1.329182,3.8043356,-0.3996619,-0.0051752478,0.91664797,0
-2.4557865,-1.8611405,-3.808568,0.3996619,0.0051752478,-0.91664797,0
2.5234838,1.3097501,-1.6196854,0.3996619,0.0051752478,-0.91664797,0
0.14670563,0.16583088,2.7922287,-0.3996619,-0.0051752478,0.91664797,0
4.1328039,3.200628,0.45572615,0.81075984,0.46459541,0.35611731,0
-3.8073792,-1.5136349,1.0587509,-0.3996619,-0.0051752478,0.91664797,0
1.9004564,1.047491,3.5618482,-0.3996619,-0.0051752478,0.91664797,0
3.5884204,1.0964701,2.4030464,0.42771345,-0.88550794,0.18148521,0
0.86857641,-0.85569668,-0.71205807,0.42771345,-0.88550794,0.18148521,0
3.4703708,2.9024072,0.47265697,-0.42771345,0.88550794,-0.18148521,0
0.5770458,1.3173736,2.9863601,-0.3996619,-0.0051752478,0.91664797,0
-2.9767628,-0.65700847,-1.7003295,-0.42771345,0.88550794,-0.18148521,0
3.7633469,2.3541942,2.4011238,0.81075984,0.46459541,0.35611731,0
-1.4804645,-2.3102052,-2.2728605,0.42771345,-0.88550794,0.18148521,0
3.4904616,2.4197764,2.9368317,0.81075984,0.46459541,0.35611731,0
4.5157242,0.95473909,-0.47390747,0.42771345,-0.88550794,0.18148521,0
0.54610062,0.2051647,2.9665885,-0.3996619,-0.0051752478,0.91664797,0
-2.3716793,-1.1996722,1.6864939,-0.3996619,-0.0051752478,0.91664797,0
1.8929983,-0.353616,-0.67658722,0.42771345,-0.88550794,0.18148521,0
3.2604051,1.0547757,2.9726555,0.42771345,-0.88550794,0.18148521,0
-0.90166998,-1.831141,-3.1307979,0.3996619,0.0051752478,-0.91664797,0
0.2865501,1.6087252,1.6639236,-0.42771345,0.88550794,-0.18148521,0
-4.8412113,-1.9663746,-0.45314121,-0.81075984,-0.46459541,-0.35611731,0
-0.52037007,0.87622917,-0.0083906502,-0.42771345,0.88550794,-0.18148521,0
-2.6496983,-1.8438028,1.5616403,-0.3996619,-0.0051752478,0.91664797,0
-1.5020561,-0.0079826117,-2.0090837,-0.42771345,0.88550794,-0.18148521,0
-4.2001314,-0.97315693,-0.35972857,-0.42771345,0.88550794,-0.18148521,0
5.052516,1.8396963,0.13733721,0.81075984,0.46459541,0.35611731,0
-4.2446313,-1.4186909,-2.4287174,-0.42771345,0.88550794,-0.18148521,0
-3.1628394,-2.822423,-3.1574204,-0.81075984,-0.46459541,-0.35611731,0
0.31297326,-0.14588714,2.8629622,-0.3996619,-0.0051752478,0.91664797,0
4.3286619,2.5029128,0.92006922,0.81075984,0.46459541,0.35611731,0
-3.6357341,-0.48672187,0.68356204,-0.42771345,0.88550794,-0.18148521,0
-4.8287477,-2.7716,0.56899214,-0.81075984,-0.46459541,-0.35611731,0
1.9100835,1.0740628,-1.8884606,0.3996619,0.0051752478,-0.91664797,0
2.5601954,0.96035379,3.8490047,-0.3996619,-0.0051752478,0.91664797,0
2.3610337,0.62332857,-1.6943893,0.3996619,0.0051752478,-0.91664797,0
3.5542221,0.71224076,-1.1736526,0.3996619,0.0051752478,-0.91664797,0
-3.7086363,-1.3696183,1.1026163,-0.3996619,-0.0051752478,0.91664797,0
-0.11534452,-0.85497379,-2.7824459,0.3996619,0.0051752478,-0.91664797,0
-0.90476036,-1.5498629,-3.1305573,0.3996619,0.0051752478,-0.91664797,0
0.99179077,1.191061,-2.0360239,-0.42771345,0.88550794,-0.18148521,0
4.953557,2.370851,-0.33031797,0.81075984,0.46459541,0.35611731,0
4.3702173,2.3754954,0.99169421,0.81075984,0.46459541,0.35611731,0
-3.0883994,-2.7282057,-3.4498119,-0.81075984,-0.46459541,-0.35611731,0
-3.1972992,-2.6789749,-3.2661114,-0.81075984,-0.46459541,-0.35611731,0
-4.2573709,-1.935648,-1.8224366,-0.81075984,-0.46459541,-0.35611731,0
-4.4290657,-0.8944962,0.56361508,-0.42771345,0.88550794,-0.18148521,0
-3.3999085,-2.3728981,-3.2041497,-0.81075984,-0.46459541,-0.35611731,0
3.9031327,2.9729986,1.2755783,0.81075984,0.46459541,0.35611731,0
1.726647,1.6903648,3.4896963,-0.3996619,-0.0051752478,0.91664797,0
5.2323241,1.6449596,-0.017967701,0.81075984,0.46459541,0.35611731,0
5.1869044,1.5712357,0.18161678,0.81075984,0.46459541,0.35611731,0
-1.0619968,-0.86138511,-3.1952262,0.3996619,0.0051752478,-0.91664797,0
-2.115495,-0.33084404,1.803097,-0.3996619,-0.0051752478,0.91664797,0
-0.28213191,-0.70679837,2.600327,-0.3996619,-0.0051752478,0.91664797,0
-2.6816409,-2.1159556,-3.9084802,0.3996619,0.0051752478,-0.91664797,0
-4.8316255,-1.4267077,-1.0844386,-0.42771345,0.88550794,-0.18148521,0
-2.3810048,-2.3287992,-0.24124551,0.42771345,-0.88550794,0.18148521,0
2.124712,0.017805219,-1.8008456,0.3996619,0.0051752478,-0.91664797,0
-4.8734202,-1.7118526,0.592834,-0.3996619,-0.0051752478,0.91664797,0
-3.626888,-2.6472721,1.1310461,-0.3996619,-0.0051752478,0.91664797,0
-1.2619858,-2.0866697,-1.6970763,0.42771345,-0.88550794,0.18148521,0
2.1464305,-0.38815296,-1.4423757,0.42771345,-0.88550794,0.18148521,0
-3.2780957,-3.136816,-2.4848585,-0.81075984,-0.46459541,-0.35611731,0
2.476249,2.4546916,3.8208408,-0.3996619,-0.0051752478,0.91664797,0
-1.7050292,0.68537676,1.8523304,-0.42771345,0.88550794,-0.18148521,0
-5.2378931,-1.7117982,0.11784744,-0.81075984,-0.46459541,-0.35611731,0
5.2502832,1.809291,-0.2732439,0.81075984,0.46459541,0.35611731,0
0.78193003,-0.51750761,1.1422467,0.42771345,-0.88550794,0.18148521,0
3.7481232,1.8128028,-1.0828977,0.3996619,0.0051752478,-0.91664797,0
4.2506027,0.75300229,-0.86979866,0.3996619,0.0051752478,-0.91664797,0
-3.3055997,-0.78405493,-1.5452353,-0.42771345,0.88550794,-0.18148521,0
-3.6129818,-0.49558675,0.58668613,-0.42771345,0.88550794,-0.18148521,0
3.9223275,2.2951369,2.1162245,0.81075984,0.46459541,0.35611731,0
1.7889616,2.2952015,1.4726067,-0.42771345,0.88550794,-0.18148521,0
4.8641782,1.8357632,0.57125187,0.81075984,0.46459541,0.35611731,0
1.0934983,0.39812589,3.2063453,-0.3996619,-0.0051752478,0.91664797,0
2.4793582,0.27495122,1.0084383,0.42771345,-0.88550794,0.18148521,0
-0.89086056,0.41244721,-1.39814,-0.42771345,0.88550794,-0.18148521,0
2.3397655,0.49162185,2.3946075,0.42771345,-0.88550794,0.18148521,0
1.1618994,1.8247759,3.2442231,-0.3996619,-0.0051752478,0.91664797,0
-2.9244146,-0.16281152,0.58759904,-0.42771345,0.88550794,-0.18148521,0
-4.7104096,-1.7489591,-1.0345769,-0.81075984,-0.46459541,-0.35611731,0
-3.1252375,-2.7479146,-3.3402319,-0.81075984,-0.46459541,-0.35611731,0
-4.2735548,-2.0937877,-1.5792811,-0.81075984,-0.46459541,-0.35611731,0
2.0371895,-0.33979642,-1.8410242,0.3996619,0.0051752478,-0.91664797,0
3.5094543,2.4364858,2.871793,0.81075984,0.46459541,0.35611731,0
3.9798362,1.5757473,2.9238217,0.81075984,0.46459541,0.35611731,0
-1.1757017,-1.201786,-3.2467237,0.3996619,0.0051752478,-0.91664797,0
5.2161517,1.6700046,-0.4436388,0.3996619,0.0051752478,-0.91664797,0
-0.91654205,-2.1760392,-2.9472513,0.42771345,-0.88550794,0.18148521,0
4.5114651,3.1107357,-0.28908443,0.81075984,0.46459541,0.35611731,0
2.0549431,2.0526257,-0.33782554,-0.42771345,0.88550794,-0.18148521,0
4.3042383,1.5334516,-0.84200668,0.3996619,0.0051752478,-0.91664797,0
-0.168975,-1.1454303,0.31950426,0.42771345,-0.88550794,0.18148521,0
-0.25022578,-1.514057,-1.2876236,0.42771345,-0.88550794,0.18148521,0
-1.9504775,-2.3037403,-3.5907505,0.3996619,0.0051752478,-0.91664797,0
4.0388746,0.6470567,-0.96271062,0.3996619,0.0051752478,-0.91664797,0
-5.1210976,-1.9969196,0.22391558,-0.81075984,-0.46459541,-0.35611731,0
-2.0740616,-2.5293455,-1.9431412,0.42771345,-0.88550794,0.18148521,0
-3.6168549,-1.4444433,1.1422112,-0.3996619,-0.0051752478,0.91664797,0
-1.3333364,-1.9822586,-1.0194765,0.42771345,-0.88550794,0.18148521,0
-0.44225717,1.0450881,0.63141865,-0.42771345,0.88550794,-0.18148521,0
-3.8124883,-0.61081946,1.0616205,-0.3996619,-0.0051752478,0.91664797,0
4.8911877,1.846252,0.49607611,0.81075984,0.46459541,0.35611731,0
-4.4309473,-1.168434,-0.76855826,-0.42771345,0.88550794,-0.18148521,0
2.524055,0.66801775,2.8209608,0.42771345,-0.88550794,0.18148521,0
1.5135468,1.7722069,3.3972456,-0.3996619,-0.0051752478,0.91664797,0
1.2333621,2.1716261,2.1790559,-0.42771345,0.88550794,-0.18148521,0
3.737164,3.0483656,1.5551076,0.81075984,0.46459541,0.35611731,0
4.7998657,2.2250929,0.20974493,0.81075984,0.46459541,0.35611731,0
2.5170109,3.038981,3.8419116,-0.3996619,-0.0051752478,0.91664797,0
-4.9230986,-2.5696528,0.52033234,-0.81075984,-0.46459541,-0.35611731,0
2.6513073,0.52623087,-1.5683773,0.3996619,0.0051752478,-0.91664797,0
-3.2918015,-2.9931982,-2.6410215,-0.81075984,-0.46459541,-0.35611731,0
4.5019917,2.1575046,0.97607994,0.81075984,0.46459541,0.35611731,0
-1.538034,-0.80831617,2.0521762,-0.3996619,-0.0051752478,0.91664797,0
4.8331919,1.8730483,0.59315395,0.81075984,0.46459541,0.35611731,0
0.7902087,-0.62294412,0.60828769,0.42771345,-0.88550794,0.18148521,0
-3.531271,-1.2434844,-3.2550473,-0.42771345,0.88550794,-0.18148521,0
-5.2555361,-1.7905343,0.26073265,-0.81075984,-0.46459541,-0.35611731,0
-2.5951788,-2.1331043,1.2183475,0.42771345,-0.88550794,0.18148521,0
-3.5161808,-0.68595505,1.1903877,-0.3996619,-0.0051752478,0.91664797,0
4.741868,1.2040627,-0.65305853,0.3996619,0.0051752478,-0.91664797,0
-2.7785654,-2.2930515,0.87012339,0.42771345,-0.88550794,0.18148521,0
-0.76663041,-0.15071483,2.3922234,-0.3996619,-0.0051752478,0.91664797,0
-4.1135178,-1.8447592,-2.2685182,-0.81075984,-0.46459541,-0.35611731,0
-1.7792134,0.56680477,1.9547848,-0.3996619,-0.0051752478,0.91664797,0
-3.6265841,-3.2053406,-1.5825841,0.42771345,-0.88550794,0.18148521,0
-2.5829046,-2.3435574,0.16257215,0.42771345,-0.88550794,0.18148521,0
4.6299224,2.9412711,-0.33768654,0.81075984,0.46459541,0.35611731,0
-3.9349873,-2.7164259,0.99632311,-0.3996619,-0.0051752478,0.91664797,0
-4.9076958,-1.8885347,-0.4033289,-0.81075984,-0.46459541,-0.35611731,0
-1.8153632,-1.195359,-3.5255821,0.3996619,0.0051752478,-0.91664797,0
-4.5965281,-2.0867133,0.7114439,-0.3996619,-0.0051752478,0.91664797,0
2.4837766,0.70213628,-1.6404281,0.3996619,0.0051752478,-0.91664797,0
-2.3606501,-2.7815809,-2.4984405,0.42771345,-0.88550794,0.18148521,0
-2.9894109,-0.79906118,-2.3636293,-0.42771345,0.88550794,-0.18148521,0
2.2822647,-0.22848988,-0.98346686,0.42771345,-0.88550794,0.18148521,0
-1.9658949,-0.62424916,1.8666664,-0.3996619,-0.0051752478,0.91664797,0
0.92513776,-1.0542742,-2.329917,0.3996619,0.0051752478,-0.91664797,0
-1.428862,0.39413798,-0.21954477,-0.42771345,0.88550794,-0.18148521,0
-1.3737502,-1.1835202,-3.3329701,0.3996619,0.0051752478,-0.91664797,0
0.70506448,-0.71823752,0.34399179,0.42771345,-0.88550794,0.18148521,0
-4.7128067,-2.1506188,0.66038513,-0.3996619,-0.0051752478,0.91664797,0
2.0861742,0.18306297,-1.816715,0.3996619,0.0051752478,-0.91664797,0
1.73491,1.7521958,3.4936481,-0.3996619,-0.0051752478,0.91664797,0
-4.0619106,-1.7045805,-2.5688877,-0.81075984,-0.46459541,-0.35611731,0
-0.48560619,-1.4041378,-2.9469817,0.3996619,0.0051752478,-0.91664797,0
2.8399878,2.361866,-0.67911839,-0.42771345,0.88550794,-0.18148521,0
3.8259683,1.8406267,2.9285626,0.81075984,0.46459541,0.35611731,0
-4.127583,-2.0433688,-1.977387,-0.81075984,-0.46459541,-0.35611731,0
4.6844554,1.8493633,0.96267724,0.81075984,0.46459541,0.35611731,0
-1.9909663,-0.1437608,-1.5193422,-0.42771345,0.88550794,-0.18148521,0
1.4014467,1.0617322,3.3443584,-0.3996619,-0.0051752478,0.91664797,0
1.2329278,-0.85066867,-2.1945701,0.3996619,0.0051752478,-0.91664797,0
1.9221559,2.7075303,3.1705482,-0.42771345,0.88550794,-0.18148521,0
-3.4512479,-0.28875303,1.2147119,-0.42771345,0.88550794,-0.18148521,0
-3.9000981,-1.4307423,-3.2945342,-0.81075984,-0.46459541,-0.35611731,0
-2.2441425,-0.8484419,-3.710573,0.3996619,0.0051752478,-0.91664797,0
1.8642743,2.1098108,3.5520706,-0.3996619,-0.0051752478,0.91664797,0
-1.7422318,-1.6165804,1.7284131,0.42771345,-0.88550794,0.18148521,0
2.5584185,-0.19799483,-1.4854983,0.42771345,-0.88550794,0.18148521,0
-3.010988,-1.841548,-4.0505271,0.3996619,0.0051752478,-0.91664797,0
-3.1591392,-2.5950584,-3.4624677,-0.81075984,-0.46459541,-0.35611731,0
0.28507495,-0.43170571,2.7318518,0.42771345,-0.88550794,0.18148521,0
-3.9313598,-2.3662152,-2.0029316,-0.81075984,-0.46459541,-0.35611731,0
0.088865995,-0.78086591,1.490633,0.42771345,-0.88550794,0.18148521,0
0.66730797,1.5357907,3.0269477,-0.3996619,-0.0051752478,0.91664797,0
0.94618118,2.2304811,3.1430347,-0.42771345,0.88550794,-0.18148521,0
-4.3471036,-2.1008954,0.82011366,-0.3996619,-0.0051752478,0.91664797,0
-2.3952048,-2.8832664,-3.787925,0.3996619,0.0051752478,-0.91664797,0
-4.4707346,-2.2484488,0.76537657,-0.3996619,-0.0051752478,0.91664797,0
-0.47184801,0.14807367,-2.9322197,0.3996619,0.0051752478,-0.91664797,0
-0.30403984,-0.96476382,1.5193293,0.42771345,-0.88550794,0.18148521,0
-1.4501743,0.13048786,2.0957835,-0.3996619,-0.0051752478,0.91664797,0
3.2713408,2.8070929,0.47665882,-0.42771345,0.88550794,-0.18148521,0
-3.3371511,-2.6337614,-3.0067019,-0.81075984,-0.46459541,-0.35611731,0
3.2258677,2.8264208,0.67813301,-0.42771345,0.88550794,-0.18148521,0
-3.7171159,-3.0586782,-1.5872972,-0.81075984,-0.46459541,-0.35611731,0
-4.6647,-2.3134551,-0.40219355,-0.81075984,-0.46459541,-0.35611731,0
-2.0886452,0.45912206,1.6524658,-0.42771345,0.88550794,-0.18148521,0
-4.2868185,-1.3454728,-1.9720447,-0.42771345,0.88550794,-0.18148521,0
-4.2257485,-2.1805754,0.87257528,-0.3996619,-0.0051752478,0.91664797,0
2.09203,2.6936455,2.702451,-0.42771345,0.88550794,-0.18148521,0
-3.0903158,-0.45099688,-0.42753696,-0.42771345,0.88550794,-0.18148521,0
-1.0360799,0.84072387,2.2803402,-0.3996619,-0.0051752478,0.91664797,0
-3.0013509,-2.7629275,-3.6026947,-0.81075984,-0.46459541,-0.35611731,0
-3.6750808,-0.89089549,-1.1957636,-0.42771345,0.88550794,-0.18148521,0
0.85695577,-0.30165452,2.0186274,0.42771345,-0.88550794,0.18148521,0
-1.6450175,0.54675341,1.034524,-0.42771345,0.88550794,-0.18148521,0
0.53249121,-1.2006378,-2.5019386,0.3996619,0.0051752478,-0.91664797,0
3.5524876,2.66628,-0.87298918,-0.42771345,0.88550794,-0.18148521,0
1.1068162,-0.77799177,-0.89438772,0.42771345,-0.88550794,0.18148521,0
0.023290396,-1.2420415,-2.7241859,0.3996619,0.0051752478,-0.91664797,0
-4.1968832,-3.1419783,0.070620537,0.42771345,-0.88550794,0.18148521,0
-2.2947819,-2.6036849,-1.7856796,0.42771345,-0.88550794,0.18148521,0
-4.8568916,-1.8195552,-0.6089859,-0.81075984,-0.46459541,-0.35611731,0
-4.5630713,-2.8412759,0.055036068,-0.81075984,-0.46459541,-0.35611731,0
2.0580359,-0.27137721,-1.8315489,0.3996619,0.0051752478,-0.91664797,0
-0.9559319,-1.3138936,1.3521868,0.42771345,-0.88550794,0.18148521,0
-3.6962676,-2.0118976,-3.0004053,-0.81075984,-0.46459541,-0.35611731,0
-0.55121887,0.34478664,-2.5287185,-0.42771345,0.88550794,-0.18148521,0
-0.24081314,1.4766328,2.262274,-0.42771345,0.88550794,-0.18148521,0
-1.1889615,-0.96280241,2.203501,-0.3996619,-0.0051752478,0.91664797,0
-0.53827667,-1.3259002,-2.9695046,0.3996619,0.0051752478,-0.91664797,0
2.4078071,0.26332939,-1.6760287,0.3996619,0.0051752478,-0.91664797,0
-1.7458959,-0.048052132,1.9658396,-0.3996619,-0.0051752478,0.91664797,0
3.5647008,2.6659482,2.4466555,0.81075984,0.46459541,0.35611731,0
4.5679145,2.8677006,-0.10053492,0.81075984,0.46459541,0.35611731,0
-5.1227365,-1.6827383,0.48429537,-0.3996619,-0.0051752478,0.91664797,0
3.4538214,2.7229381,2.6247411,0.81075984,0.46459541,0.35611731,0
-1.8518409,0.1919229,-0.20934772,-0.42771345,0.88550794,-0.18148521,0
-1.120239,-1.8873837,-1.0587746,0.42771345,-0.88550794,0.18148521,0
3.3455088,2.9272866,2.6047363,0.81075984,0.46459541,0.35611731,0
1.7888017,1.892323,3.517936,-0.3996619,-0.0051752478,0.91664797,0
2.1998129,-0.38815033,-1.568171,0.42771345,-0.88550794,0.18148521,0
2.3861144,2.8780227,2.9089909,-0.42771345,0.88550794,-0.18148521,0
3.4251714,2.1515751,3.4353757,0.81075984,0.46459541,0.35611731,0
1.7804883,0.063311815,1.6228554,0.42771345,-0.88550794,0.18148521,0
3.7117529,2.7488792,-0.84531593,-0.42771345,0.88550794,-0.18148521,0
2.1122811,-0.13036144,-1.8071016,0.3996619,0.0051752478,-0.91664797,0
2.859832,2.8238091,3.8454578,0.81075984,0.46459541,0.35611731,0
0.47978088,1.3862336,0.12294209,-0.42771345,0.88550794,-0.18148521,0
-1.3172805,-1.7492654,0.079512,0.42771345,-0.88550794,0.18148521,0
-3.2973447,-2.6316454,-3.1000879,-0.81075984,-0.46459541,-0.35611731,0
0.3766396,1.7630726,2.9014986,-0.3996619,-0.0051752478,0.91664797,0
1.5133393,0.13512123,-2.0667439,0.3996619,0.0051752478,-0.91664797,0
-0.339748,-1.3079027,-0.070769072,0.42771345,-0.88550794,0.18148521,0
-4.4773207,-1.145417,-0.54696083,-0.42771345,0.88550794,-0.18148521,0
4.3192563,3.0217924,0.26454639,0.81075984,0.46459541,0.35611731,0
4.1131439,1.5124307,2.7029293,0.81075984,0.46459541,0.35611731,0
-3.4901395,-3.0797148,-2.0766015,-0.81075984,-0.46459541,-0.35611731,0
-1.7261701,-0.40479398,1.9724261,-0.3996619,-0.0051752478,0.91664797,0
-4.932879,-1.2927132,-0.19202185,-0.42771345,0.88550794,-0.18148521,0
-2.3830347,-0.36080825,-1.6543636,-0.42771345,0.88550794,-0.18148521,0
-4.7750936,-1.9658198,-0.60439301,-0.81075984,-0.46459541,-0.35611731,0
-4.2618093,-2.986141,-0.44184351,-0.81075984,-0.46459541,-0.35611731,0
-1.7171108,0.35182953,0.2533496,-0.42771345,0.88550794,-0.18148521,0
-2.6979394,-0.75617814,-2.841315,-0.42771345,0.88550794,-0.18148521,0
-0.33152986,-0.55248511,-2.8749957,0.3996619,0.0051752478,-0.91664797,0
-3.6002066,-3.1615725,-1.4311945,0.42771345,-0.88550794,0.18148521,0
-0.63459247,0.48194087,-1.6630213,-0.42771345,0.88550794,-0.18148521,0
-3.0561476,-3.0242705,-3.1369886,-0.81075984,-0.46459541,-0.35611731,0
2.1318703,0.32267404,2.0602276,0.42771345,-0.88550794,0.18148521,0
-2.5326118,-2.5187912,-0.81096125,0.42771345,-0.88550794,0.18148521,0
-2.8627527,-3.0590279,-3.531939,-0.81075984,-0.46459541,-0.35611731,0
1.4104962,1.746779,-0.31132996,-0.42771345,0.88550794,-0.18148521,0
-0.75575638,0.28076237,-2.3590655,-0.42771345,0.88550794,-0.18148521,0
-3.6720545,-2.4308372,-2.5089755,-0.81075984,-0.46459541,-0.35611731,0
2.9541731,2.0064547,4.0266867,-0.3996619,-0.0051752478,0.91664797,0
1.4583156,-0.83493686,-2.096211,0.3996619,0.0051752478,-0.91664797,0
2.797214,0.28104591,0.28907251,0.42771345,-0.88550794,0.18148521,0
4.5060282,1.8062521,-0.7524848,0.3996619,0.0051752478,-0.91664797,0
1.073845,1.4926088,-0.75808394,-0.42771345,0.88550794,-0.18148521,0
2.8162103,2.8669138,3.8885345,0.81075984,0.46459541,0.35611731,0
3.0038142,2.718785,3.6546752,0.81075984,0.46459541,0.35611731,0
1.0440015,1.3524839,-1.3714521,-0.42771345,0.88550794,-0.18148521,0
2.6377532,1.4698077,-1.5689595,0.3996619,0.0051752478,-0.91664797,0
-4.9564676,-1.5547049,-0.72781134,-0.81075984,-0.46459541,-0.35611731,0
0.30507183,0.95443952,2.8657293,-0.3996619,-0.0051752478,0.91664797,0
4.4203491,2.0382104,1.3175867,0.81075984,0.46459541,0.35611731,0
2.8834887,2.4837987,3.9985633,-0.3996619,-0.0051752478,0.91664797,0
-4.5490494,-2.484807,-0.44194269,-0.81075984,-0.46459541,-0.35611731,0
4.1700115,0.80156541,-0.40652204,0.42771345,-0.88550794,0.18148521,0
3.91225,0.72924924,-0.15189123,0.42771345,-0.88550794,0.18148521,0
-3.5703044,-2.8027914,-2.2553701,-0.81075984,-0.46459541,-0.35611731,0
-3.7056286,-3.0963128,-1.5643516,-0.81075984,-0.46459541,-0.35611731,0
4.1335764,2.8453708,0.91743994,0.81075984,0.46459541,0.35611731,0
2.8473065,2.1350765,3.9808187,-0.3996619,-0.0051752478,0.91664797,0
4.3898373,2.5509629,0.7181077,0.81075984,0.46459541,0.35611731,0
2.6694176,2.1090994,-1.5104356,-0.42771345,0.88550794,-0.18148521,0
-3.8453364,-1.6794479,-3.0947433,-0.81075984,-0.46459541,-0.35611731,0
3.5700064,2.8697886,0.078686714,-0.42771345,0.88550794,-0.18148521,0
4.3741264,3.1880598,-0.077289581,0.81075984,0.46459541,0.35611731,0
-3.3959084,-0.62610638,-0.56173325,-0.42771345,0.88550794,-0.18148521,0
-3.7930899,-2.4093978,-2.2613893,-0.81075984,-0.46459541,-0.35611731,0
-3.7376618,-1.1417519,-2.2722623,-0.42771345,0.88550794,-0.18148521,0
-1.4216962,-1.3274984,2.0999684,-0.3996619,-0.0051752478,0.91664797,0
-3.2754796,-3.0661447,-2.5830133,-0.81075984,-0.46459541,-0.35611731,0
-2.3397472,-2.280025,-0.10049844,0.42771345,-0.88550794,0.18148521,0
-3.2352653,-0.47530544,-0.20453525,-0.42771345,0.88550794,-0.18148521,0
4.1415973,2.413079,1.4631526,0.81075984,0.46459541,0.35611731,0
1.7213011,1.7133391,-1.2069762,-0.42771345,0.88550794,-0.18148521,0
2.2155027,2.3232164,0.60405087,-0.42771345,0.88550794,-0.18148521,0
-4.2402787,-2.2865062,-1.4036179,-0.81075984,-0.46459541,-0.35611731,0
4.2050934,1.6668366,2.29215,0.81075984,0.46459541,0.35611731,0
-3.129843,-0.90267724,1.3576088,-0.3996619,-0.0051752478,0.91664797,0
-3.4104261,-1.8280032,-3.8910811,-0.81075984,-0.46459541,-0.35611731,0
3.1178899,2.2781141,3.9698687,0.81075984,0.46459541,0.35611731,0
-5.0451279,-1.782173,-0.22920465,-0.81075984,-0.46459541,-0.35611731,0
4.0095668,2.5871408,-0.96453571,0.3996619,0.0051752478,-0.91664797,0
4.6281557,2.6055305,0.10434675,0.81075984,0.46459541,0.35611731,0
-0.16758358,0.82070017,-1.1107554,-0.42771345,0.88550794,-0.18148521,0
-3.4917233,-3.0574622,-2.1020269,-0.81075984,-0.46459541,-0.35611731,0
-0.42959577,0.88643336,-0.172534,-0.42771345,0.88550794,-0.18148521,0
3.1326864,3.0549312,2.9227352,0.81075984,0.46459541,0.35611731,0
3.7730966,2.4332204,2.2758281,0.81075984,0.46459541,0.35611731,0
4.0375071,2.327678,1.8115463,0.81075984,0.46459541,0.35611731,0
-4.6733451,-2.2837029,-0.42132568,-0.81075984,-0.46459541,-0.35611731,0
-0.74255335,0.11597061,-3.0504293,0.3996619,0.0051752478,-0.91664797,0
-1.3764689,-0.066844046,2.1268055,-0.3996619,-0.0051752478,0.91664797,0
1.4874847,1.3064185,-2.0714035,0.3996619,0.0051752478,-0.91664797,0
3.6973777,2.8299651,-0.41579866,-0.42771345,0.88550794,-0.18148521,0
-2.1916625,-1.5443718,1.7630359,-0.3996619,-0.0051752478,0.91664797,0
-3.6521046,-2.8793724,-1.9692309,-0.81075984,-0.46459541,-0.35611731,0
1.7638693,0.51697356,-1.9553562,0.3996619,0.0051752478,-0.91664797,0
-1.4529963,-1.1145126,-3.3671322,0.3996619,0.0051752478,-0.91664797,0
2.1187756,0.12396359,1.1215347,0.42771345,-0.88550794,0.18148521,0
1.4911163,-0.65936482,-2.0809186,0.3996619,0.0051752478,-0.91664797,0
-4.6807413,-2.3831406,-0.27475977,-0.81075984,-0.46459541,-0.35611731,0
-4.5014229,-3.1439464,0.30955029,-0.81075984,-0.46459541,-0.35611731,0
-4.3998432,-3.1769695,0.37821627,0.42771345,-0.88550794,0.18148521,0
-2.1575327,-1.2859272,-3.6752808,0.3996619,0.0051752478,-0.91664797,0
-3.3115668,-1.5743849,-4.1800723,0.3996619,0.0051752478,-0.91664797,0
-0.75244164,-1.157854,1.6339653,0.42771345,-0.88550794,0.18148521,0
5.1826305,1.5993108,0.15472174,0.81075984,0.46459541,0.35611731,0
-1.1563123,-1.8529999,-0.8059938,0.42771345,-0.88550794,0.18148521,0
3.412812,2.036397,-1.2278326,0.3996619,0.0051752478,-0.91664797,0
1.0108647,1.1744051,3.1746995,-0.3996619,-0.0051752478,0.91664797,0
4.6677418,2.1958203,0.54873657,0.81075984,0.46459541,0.35611731,0
0.79493308,0.34202158,-2.3788033,0.3996619,0.0051752478,-0.91664797,0
-0.90324664,-1.2662771,1.4603527,0.42771345,-0.88550794,0.18148521,0
-4.861268,-2.6798458,0.52332497,-0.81075984,-0.46459541,-0.35611731,0
-2.8941226,-2.8496077,-3.7337327,-0.81075984,-0.46459541,-0.35611731,0
4.3434496,2.0329745,1.4994929,0.81075984,0.46459541,0.35611731,0
4.0580277,1.8288826,2.4155631,0.81075984,0.46459541,0.35611731,0
4.0075407,2.8144703,1.2446942,0.81075984,0.46459541,0.35611731,0
-0.71643084,0.61240596,-0.83358037,-0.42771345,0.88550794,-0.18148521,0
-2.9312336,-3.0657766,-3.3672266,-0.81075984,-0.46459541,-0.35611731,0
-1.9629749,-1.3513176,-3.5908217,0.3996619,0.0051752478,-0.91664797,0
0.28744841,0.47708476,-2.5993061,0.3996619,0.0051752478,-0.91664797,0
-2.763196,-0.07953918,0.61395311,-0.42771345,0.88550794,-0.18148521,0
-2.7184012,-1.1378424,1.5356712,-0.3996619,-0.0051752478,0.91664797,0
-4.0473485,-2.022089,-2.1878157,-0.81075984,-0.46459541,-0.35611731,0
0.90919161,1.5402021,3.1324348,-0.3996619,-0.0051752478,0.91664797,0
-4.3866563,-2.1016841,-1.3114848,-0.81075984,-0.46459541,-0.35611731,0
2.0004735,0.39883375,2.7414954,0.42771345,-0.88550794,0.18148521,0
-3.6927023,-1.2481141,1.1102498,-0.3996619,-0.0051752478,0.91664797,0
-1.5997937,-1.8094075,0.45187545,0.42771345,-0.88550794,0.18148521,0
0.52356148,0.15614785,2.9564846,-0.3996619,-0.0051752478,0.91664797,0
4.313303,1.8463089,1.8116515,0.81075984,0.46459541,0.35611731,0
0.95118308,-0.41160417,1.2600883,0.42771345,-0.88550794,0.18148521,0
-3.8317165,-1.722487,-3.0696025,-0.81075984,-0.46459541,-0.35611731,0
0.23609999,1.2990294,0.27174485,-0.42771345,0.88550794,-0.18148521,0
4.2288609,1.5972379,-0.87451124,0.3996619,0.0051752478,-0.91664797,0
4.3103333,2.3293281,1.1882586,0.81075984,0.46459541,0.35611731,0
-4.9919882,-2.0510285,0.00056648254,-0.81075984,-0.46459541,-0.35611731,0
3.9178286,1.9572644,2.5672605,0.81075984,0.46459541,0.35611731,0
-0.94684124,-1.2810357,1.4910822,0.42771345,-0.88550794,0.18148521,0
-2.8027437,-2.1097698,1.4934103,-0.3996619,-0.0051752478,0.91664797,0
2.6766233,0.11254013,-0.24890447,0.42771345,-0.88550794,0.18148521,0
-5.0918064,-2.1025751,0.29506874,-0.81075984,-0.46459541,-0.35611731,0
3.1914515,2.108485,4.0236931,0.81075984,0.46459541,0.35611731,0
-2.0192587,-2.5351591,-2.1006632,0.42771345,-0.88550794,0.18148521,0
1.4707811,0.478369,3.371295,-0.3996619,-0.0051752478,0.91664797,0
-4.1544838,-1.3580112,0.90829062,-0.3996619,-0.0051752478,0.91664797,0
-2.4642167,-3.0405343,-3.5178545,0.42771345,-0.88550794,0.18148521,0
0.91889644,1.7618246,0.92065537,-0.42771345,0.88550794,-0.18148521,0
0.26431155,1.0738773,-0.89331102,-0.42771345,0.88550794,-0.18148521,0
-3.719326,-2.3360186,-2.5250566,-0.81075984,-0.46459541,-0.35611731,0
5.2377052,1.8926928,-0.35341597,0.81075984,0.46459541,0.35611731,0
2.6959636,1.0717826,-1.5458272,0.3996619,0.0051752478,-0.91664797,0
-3.9116111,-2.6663311,-1.6563566,-0.81075984,-0.46459541,-0.35611731,0
4.0055823,1.4801061,2.9899814,0.81075984,0.46459541,0.35611731,0
4.3194113,1.6469522,2.0578284,0.81075984,0.46459541,0.35611731,0
-3.7711473,-1.7428002,-3.1809974,-0.81075984,-0.46459541,-0.35611731,0
-1.2548082,-1.0709608,-3.2804756,0.3996619,0.0051752478,-0.91664797,0
2.1914062,0.61403322,3.3415248,0.42771345,-0.88550794,0.18148521,0
-1.8375435,-2.5532827,-2.6173487,0.42771345,-0.88550794,0.18148521,0
-4.7125773,-2.2887049,-0.32548189,-0.81075984,-0.46459541,-0.35611731,0
1.091223,-0.37979794,-2.2536952,0.3996619,0.0051752478,-0.91664797,0
4.484973,2.489769,-0.75780678,0.3996619,0.0051752478,-0.91664797,0
-1.5061498,0.26679432,2.0721476,-0.3996619,-0.0051752478,0.91664797,0
-1.2348068,-1.9946072,-3.2769697,0.3996619,0.0051752478,-0.91664797,0
1.284106,1.9103894,0.78483212,-0.42771345,0.88550794,-0.18148521,0
4.1616702,2.914247,-0.89637089,0.3996619,0.0051752478,-0.91664797,0
-0.11374283,-0.91851449,-2.7821064,0.3996619,0.0051752478,-0.91664797,0
-2.9279528,-0.60965657,1.447288,-0.3996619,-0.0051752478,0.91664797,0
-1.0070772,0.67599607,0.16166767,-0.42771345,0.88550794,-0.18148521,0
-0.84016335,-1.0032662,-3.0993066,0.3996619,0.0051752478,-0.91664797,0
3.7243412,1.4777123,3.6333961,0.81075984,0.46459541,0.35611731,0
-0.52052975,-1.987904,-2.9625945,0.42771345,-0.88550794,0.18148521,0
-0.63909698,-0.59239376,2.4453349,-0.3996619,-0.0051752478,0.91664797,0
-3.9762559,-2.0180058,-2.3549967,-0.81075984,-0.46459541,-0.35611731,0
2.6146946,0.81705064,3.3345127,0.42771345,-0.88550794,0.18148521,0
3.1180339,2.6890683,0.26209474,-0.42771345,0.88550794,-0.18148521,0
-0.16834855,-0.81621218,1.9243579,0.42771345,-0.88550794,0.18148521,0
2.4561996,0.46697634,1.9999511,0.42771345,-0.88550794,0.18148521,0
0.02751112,-0.086580627,-2.7158222,0.3996619,0.0051752478,-0.91664797,0
1.7482866,2.5452926,3.5039582,-0.3996619,-0.0051752478,0.91664797,0
0.87699866,1.4962947,3.1181507,-0.3996619,-0.0051752478,0.91664797,0
-2.9222131,-2.7577624,-3.7896032,-0.81075984,-0.46459541,-0.35611731,0
0.78109735,-0.42818606,1.580029,0.42771345,-0.88550794,0.18148521,0
3.2795241,1.5847628,4.1661601,-0.3996619,-0.0051752478,0.91664797,0
1.9166019,2.2948389,3.5759301,-0.3996619,-0.0051752478,0.91664797,0
-3.7383468,-1.0844878,1.0912726,-0.3996619,-0.0051752478,0.91664797,0
-4.0009832,-1.5247715,-2.9421809,-0.81075984,-0.46459541,-0.35611731,0
1.9637814,0.14391828,1.5841784,0.42771345,-0.88550794,0.18148521,0
-3.0880966,-1.8101442,-4.0839696,0.3996619,0.0051752478,-0.91664797,0
-4.1352401,-1.5844573,-2.5586557,-0.81075984,-0.46459541,-0.35611731,0
-0.90066171,-1.3885591,0.85761869,0.42771345,-0.88550794,0.18148521,0
-0.098161459,0.59322643,-2.3842621,-0.42771345,0.88550794,-0.18148521,0
-3.5038707,-0.68749666,-0.6068325,-0.42771345,0.88550794,-0.18148521,0
-5.0001101,-1.5156566,-0.67939472,-0.81075984,-0.46459541,-0.35611731,0
-1.8133407,-0.22942305,-2.3559256,-0.42771345,0.88550794,-0.18148521,0
-4.058248,-2.3910031,-1.6817117,-0.81075984,-0.46459541,-0.35611731,0
-4.201385,-2.8954022,-0.69778872,-0.81075984,-0.46459541,-0.35611731,0
0.55344796,-0.062032431,-2.4863729,0.3996619,0.0051752478,-0.91664797,0
3.4029064,1.9155498,3.7939873,0.81075984,0.46459541,0.35611731,0
-5.0553851,-1.5999348,-0.44360304,-0.81075984,-0.46459541,-0.35611731,0
1.6720928,1.2644106,3.4635057,-0.3996619,-0.0051752478,0.91664797,0
-3.0253725,-3.0007169,-3.2377815,-0.81075984,-0.46459541,-0.35611731,0
1.0065944,-0.61775851,0.1236237,0.42771345,-0.88550794,0.18148521,0
4.2434363,2.6212628,0.95969915,0.81075984,0.46459541,0.35611731,0
-3.4400859,-2.3992696,-3.0782752,-0.81075984,-0.46459541,-0.35611731,0
-4.0547085,-2.9151373,0.8423624,0.42771345,-0.88550794,0.18148521,0
3.4205136,1.8216345,3.8764238,0.81075984,0.46459541,0.35611731,0
-2.9120874,-2.3050115,1.1264446,0.42771345,-0.88550794,0.18148521,0
-3.8611231,-0.8913781,-0.75966573,-0.42771345,0.88550794,-0.18148521,0
2.5224771,2.1882641,3.8394923,-0.3996619,-0.0051752478,0.91664797,0
0.51208282,1.1472583,-1.1192007,-0.42771345,0.88550794,-0.18148521,0
4.2714267,1.9581282,1.7611098,0.81075984,0.46459541,0.35611731,0
-4.1509113,-1.0068307,0.9118309,-0.3996619,-0.0051752478,0.91664797,0
-0.73796678,-0.9138186,2.4004126,-0.3996619,-0.0051752478,0.91664797,0
1.362947,0.018060446,2.3861001,0.42771345,-0.88550794,0.18148521,0
2.8268225,0.04093492,-1.4945918,0.3996619,0.0051752478,-0.91664797,0
0.014040232,0.31613529,2.7352347,-0.3996619,-0.0051752478,0.91664797,0
-0.90322709,0.9650141,2.3389664,-0.3996619,-0.0051752478,0.91664797,0
-1.7083341,-0.37901962,-3.3333147,-0.42771345,0.88550794,-0.18148521,0
2.3252513,0.35729563,-1.7114929,0.3996619,0.0051752478,-0.91664797,0
4.5357928,1.6219585,1.5978074,0.81075984,0.46459541,0.35611731,0
-2.4124601,0.29800773,1.6294975,-0.42771345,0.88550794,-0.18148521,0
0.68305099,-0.80454278,-0.025230981,0.42771345,-0.88550794,0.18148521,0
-1.1909261,-0.00812006,2.2080343,-0.3996619,-0.0051752478,0.91664797,0
-0.29096234,-1.3842003,-2.8620038,0.3996619,0.0051752478,-0.91664797,0
3.4899089,2.7416534,2.5181656,0.81075984,0.46459541,0.35611731,0
-4.0044045,-2.9856362,-1.0285287,-0.81075984,-0.46459541,-0.35611731,0
4.7183385,1.5046536,1.3352487,0.81075984,0.46459541,0.35611731,0
2.7967043,2.6269472,3.9615326,-0.3996619,-0.0051752478,0.91664797,0
2.152514,-0.074676871,0.072809458,0.42771345,-0.88550794,0.18148521,0
-2.4590495,-2.7286937,-2.0084913,0.42771345,-0.88550794,0.18148521,0
-1.9742719,-2.540988,-3.602464,0.3996619,0.0051752478,-0.91664797,0
-3.2783077,-2.3756652,-3.4773841,-0.81075984,-0.46459541,-0.35611731,0
4.4138336,1.4642678,2.081192,0.81075984,0.46459541,0.35611731,0
4.4679499,1.8375504,1.471,0.81075984,0.46459541,0.35611731,0
-0.94240069,-1.089263,2.310288,-0.3996619,-0.0051752478,0.91664797,0
-3.2492442,-1.0134032,-2.7970929,-0.42771345,0.88550794,-0.18148521,0
-3.329742,-2.2351141,-3.5436502,-0.81075984,-0.46459541,-0.35611731,0
3.0677295,1.0975871,-1.38359,0.3996619,0.0051752478,-0.91664797,0
-3.7944016,-1.5921865,-3.3245473,-0.81075984,-0.46459541,-0.35611731,0
0.3665874,-0.32815686,-2.5693476,0.3996619,0.0051752478,-0.91664797,0
-4.5905094,-1.9715495,-1.0171556,-0.81075984,-0.46459541,-0.35611731,0
4.4885197,2.4606678,0.61124229,0.81075984,0.46459541,0.35611731,0
3.5735416,2.9949038,0.68082166,-0.42771345,0.88550794,-0.18148521,0
0.23938894,-1.3339552,-2.6304851,0.3996619,0.0051752478,-0.91664797,0
0.056349277,-1.1612089,-2.7093158,0.3996619,0.0051752478,-0.91664797,0
-4.8027725,-2.5146537,0.17463732,-0.81075984,-0.46459541,-0.35611731,0
1.3618131,0.12980759,2.9340124,0.42771345,-0.88550794,0.18148521,0
-2.555629,-1.8168298,1.6028073,-0.3996619,-0.0051752478,0.91664797,0
-4.8217869,-2.2632866,-0.11001015,-0.81075984,-0.46459541,-0.35611731,0
2.6658616,2.0747917,3.9013679,-0.3996619,-0.0051752478,0.91664797,0
4.6764441,2.0923071,0.66396761,0.81075984,0.46459541,0.35611731,0
3.7584927,2.5447516,-1.0742443,0.3996619,0.0051752478,-0.91664797,0
-4.1900291,-1.8271255,-2.1173313,-0.81075984,-0.46459541,-0.35611731,0
-3.7901096,-2.295486,1.0618663,-0.3996619,-0.0051752478,0.91664797,0
4.6450777,1.1274641,-0.69569182,0.3996619,0.0051752478,-0.91664797,0
1.6304181,1.4594543,3.4464366,-0.3996619,-0.0051752478,0.91664797,0
0.7751689,1.7064168,3.0749388,-0.3996619,-0.0051752478,0.91664797,0
2.045064,-0.16096973,-0.095001698,0.42771345,-0.88550794,0.18148521,0
-1.0733099,0.62354863,2.2628815,-0.3996619,-0.0051752478,0.91664797,0
-2.7432175,-3.0696979,-3.0026183,0.42771345,-0.88550794,0.18148521,0
-2.3959138,-0.1671195,-0.67895913,-0.42771345,0.88550794,-0.18148521,0
-0.39352512,-0.24546376,-2.9002926,0.3996619,0.0051752478,-0.91664797,0
1.3482368,1.6004552,3.3242004,-0.3996619,-0.0051752478,0.91664797,0
-0.19327116,0.55172491,2.6461763,-0.3996619,-0.0051752478,0.91664797,0
-0.37844872,-0.54230881,2.5592613,-0.3996619,-0.0051752478,0.91664797,0
3.3047004,3.1143339,2.45362,0.81075984,0.46459541,0.35611731,0
-3.4719875,-0.47029579,1.2108738,-0.3996619,-0.0051752478,0.91664797,0
0.67125201,1.1679277,-1.3934705,-0.42771345,0.88550794,-0.18148521,0
-3.9707458,-2.783083,-1.3694117,-0.81075984,-0.46459541,-0.35611731,0
3.24524,2.8891678,0.93863463,-0.42771345,0.88550794,-0.18148521,0
-3.4592862,-2.3116748,-3.1488392,-0.81075984,-0.46459541,-0.35611731,0
4.0207939,1.8604181,2.4591901,0.81075984,0.46459541,0.35611731,0
-4.2163706,-0.79517651,0.54695058,-0.42771345,0.88550794,-0.18148521,0
1.2605228,-0.44243228,0.38063765,0.42771345,-0.88550794,0.18148521,0
-3.3153458,-2.2895486,-3.5054092,-0.81075984,-0.46459541,-0.35611731,0
-1.5264764,-1.8508189,-3.403327,0.3996619,0.0051752478,-0.91664797,0
-3.4403872,-0.43131781,1.2248714,-0.3996619,-0.0051752478,0.91664797,0
0.4943428,-1.1828954,-1.4265652,0.42771345,-0.88550794,0.18148521,0
-4.60602,-3.18539,0.70110273,-0.3996619,-0.0051752478,0.91664797,0
4.378778,2.481822,0.83348703,0.81075984,0.46459541,0.35611731,0
2.0497301,0.29936951,-1.831948,0.3996619,0.0051752478,-0.91664797,0
4.3275862,2.7856274,0.55368614,0.81075984,0.46459541,0.35611731,0
4.3414965,2.8960836,0.37791443,0.81075984,0.46459541,0.35611731,0
0.63416445,-0.18012786,3.0028095,-0.3996619,-0.0051752478,0.91664797,0
2.0779891,2.1654038,0.15812969,-0.42771345,0.88550794,-0.18148521,0
4.4808331,2.4017627,0.70558834,0.81075984,0.46459541,0.35611731,0
1.1775262,-0.7610985,-0.9786064,0.42771345,-0.88550794,0.18148521,0
4.3953457,1.925649,1.5213602,0.81075984,0.46459541,0.35611731,0
-3.2369061,-2.6944323,-3.1557739,-0.81075984,-0.46459541,-0.35611731,0
-4.8669882,-1.4684815,-1.0440145,-0.81075984,-0.46459541,-0.35611731,0
4.8928924,2.0591025,0.21450615,0.81075984,0.46459541,0.35611731,0
4.5437865,1.0154047,-0.24404049,0.42771345,-0.88550794,0.18148521,0
-4.0488629,-0.85908884,-0.15966487,-0.42771345,0.88550794,-0.18148521,0
