-0.38674712,-4.1774726,2.0517938,-0.92719233,-0.27725416,-0.25188228,0
-1.1610742,4.4747586,-2.9738588,-0.36060935,0.8426342,0.39991075,0
-1.1536763,4.1463909,-2.2752981,-0.36060935,0.8426342,0.39991075,0
1.2920462,-2.3657136,1.8180267,0.92719233,0.27725416,0.25188228,0
-0.19479382,2.7650044,1.500006,-0.36060935,0.8426342,0.39991075,0
-0.12275255,2.7537913,-4.2452917,0.10136764,0.46162531,-0.88126427,0
-0.44067574,-1.5792377,-0.60964513,-0.92719233,-0.27725416,-0.25188228,0
1.1694274,-0.49988669,-5.3938837,0.36060935,-0.8426342,-0.39991075,0
-0.50203323,1.2879438,-3.5397751,-0.92719233,-0.27725416,-0.25188228,0
0.7458111,0.96443069,0.16316137,0.92719233,0.27725416,0.25188228,0
-1.3871405,2.9154577,0.10782456,-0.36060935,0.8426342,0.39991075,0
1.2634656,-2.8898079,-0.27339041,0.36060935,-0.8426342,-0.39991075,0
1.5242574,-3.5619857,2.2800169,0.92719233,0.27725416,0.25188228,0
0.75007391,-0.27716792,1.514133,0.92719233,0.27725416,0.25188228,0
-0.022470951,4.1341062,-3.5107179,0.10136764,0.46162531,-0.88126427,0
1.7215949,1.8479351,-4.4012513,0.92719233,0.27725416,0.25188228,0
0.68427432,3.0925086,-3.9750357,0.10136764,0.46162531,-0.88126427,0
0.9755075,-0.57066739,-5.4196067,0.36060935,-0.8426342,-0.39991075,0
-0.34725785,4.6153588,-3.2959857,0.10136764,0.46162531,-0.88126427,0
0.021672606,-1.283872,5.0036402,-0.10136764,-0.46162531,0.88126427,0
1.1189133,-1.3820262,-3.5807168,0.36060935,-0.8426342,-0.39991075,0
0.062245324,-0.40898436,4.1911621,0.92719233,0.27725416,0.25188228,0
-1.8420253,-0.42702499,3.280525,-0.92719233,-0.27725416,-0.25188228,0
0.90141594,-1.7648206,-2.9702706,0.36060935,-0.8426342,-0.39991075,0
-1.3895888,-0.42807236,5.2895956,-0.10136764,-0.46162531,0.88126427,0
-0.61805058,1.7948496,-3.670675,-0.92719233,-0.27725416,-0.25188228,0
-0.46081805,4.4308615,-3.4056919,0.10136764,0.46162531,-0.88126427,0
0.20682359,3.8022738,-3.658164,0.10136764,0.46162531,-0.88126427,0
0.69258332,2.9146931,-4.0672235,0.10136764,0.46162531,-0.88126427,0
1.844238,1.2006994,-4.1402764,0.92719233,0.27725416,0.25188228,0
0.98062545,0.59113002,-0.29030028,0.92719233,0.27725416,0.25188228,0
1.0542668,-1.5495036,1.794879,0.92719233,0.27725416,0.25188228,0
0.48496151,-4.6456881,2.7243488,0.36060935,-0.8426342,-0.39991075,0
0.47677898,-1.6253233,-3.6471045,0.36060935,-0.8426342,-0.39991075,0
-1.2580426,1.3841102,-0.86271626,-0.92719233,-0.27725416,-0.25188228,0
-0.63556123,-0.40285128,5.3895392,-0.10136764,-0.46162531,0.88126427,0
-2.3453646,0.40192145,4.5399303,-0.36060935,0.8426342,0.39991075,0
-0.83717728,-3.3565063,3.81916,-0.10136764,-0.46162531,0.88126427,0
0.73835158,-2.7641075,-1.0117571,0.36060935,-0.8426342,-0.39991075,0
0.17273885,1.8626256,-4.6781139,0.10136764,0.46162531,-0.88126427,0
0.49103785,-3.445354,3.9253983,-0.10136764,-0.46162531,0.88126427,0
-0.36081696,3.8748381,-3.6854465,0.10136764,0.46162531,-0.88126427,0
-1.2712684,-1.7758322,2.6642091,-0.92719233,-0.27725416,-0.25188228,0
-0.99849236,-2.6674685,2.6415555,-0.92719233,-0.27725416,-0.25188228,0
0.39611602,3.938086,-1.8227801,0.92719233,0.27725416,0.25188228,0
-1.800648,3.0719273,-0.72318685,-0.92719233,-0.27725416,-0.25188228,0
0.34976673,-2.1123111,-2.7355242,0.36060935,-0.8426342,-0.39991075,0
1.5926367,-0.30229408,-5.4286036,0.36060935,-0.8426342,-0.39991075,0
1.4307046,0.14073801,-1.4513063,0.92719233,0.27725416,0.25188228,0
0.31300986,-2.2116041,4.5511851,-0.10136764,-0.46162531,0.88126427,0
-0.3115412,-1.9656265,4.6081939,-0.10136764,-0.46162531,0.88126427,0
1.8172568,0.92361492,-4.9808269,0.10136764,0.46162531,-0.88126427,0
-0.1916821,3.4900601,-0.024920583,-0.36060935,0.8426342,0.39991075,0
2.3042729,0.44034475,-5.1779552,0.10136764,0.46162531,-0.88126427,0
-1.200721,4.3495188,-2.7457213,-0.36060935,0.8426342,0.39991075,0
0.48603928,0.29403359,-5.4637389,0.10136764,0.46162531,-0.88126427,0
-0.5933789,2.9375768,-4.2031546,0.10136764,0.46162531,-0.88126427,0
1.1908036,1.2746215,-4.8690205,0.10136764,0.46162531,-0.88126427,0
0.56715822,2.6657441,-1.0518934,0.92719233,0.27725416,0.25188228,0
0.35309887,-4.0594072,1.3701198,0.36060935,-0.8426342,-0.39991075,0
-0.53509778,0.51966476,-2.5723958,-0.92719233,-0.27725416,-0.25188228,0
-0.073573112,1.544252,-4.8732171,0.10136764,0.46162531,-0.88126427,0
-0.22353864,-4.8938465,2.6083608,0.36060935,-0.8426342,-0.39991075,0
0.3612411,-4.3815608,2.0562563,0.36060935,-0.8426342,-0.39991075,0
-0.73491025,4.4417567,-2.5200396,-0.36060935,0.8426342,0.39991075,0
1.8493104,1.284647,-4.7880239,0.10136764,0.46162531,-0.88126427,0
-1.002547,1.5448525,-1.980144,-0.92719233,-0.27725416,-0.25188228,0
0.24623179,-4.8542705,2.948575,0.36060935,-0.8426342,-0.39991075,0
0.76501715,2.6730294,-1.7882419,0.92719233,0.27725416,0.25188228,0
-0.27960849,-2.9135509,4.115324,-0.10136764,-0.46162531,0.88126427,0
2.2009208,-0.25700939,-4.9755163,0.36060935,-0.8426342,-0.39991075,0
-0.51801556,-2.313194,0.48293388,-0.92719233,-0.27725416,-0.25188228,0
0.89741921,2.3780775,-4.3247528,0.10136764,0.46162531,-0.88126427,0
-0.421911,4.7952123,-2.9825506,-0.36060935,0.8426342,0.39991075,0
1.3936942,-2.338661,-1.3172579,0.36060935,-0.8426342,-0.39991075,0
-0.028121769,-0.47547543,-3.3432221,-0.92719233,-0.27725416,-0.25188228,0
1.9214363,-2.6321371,-0.22300917,0.36060935,-0.8426342,-0.39991075,0
0.33002424,-4.4561491,2.1852698,0.36060935,-0.8426342,-0.39991075,0
0.91684175,-1.2173588,-4.1098924,0.36060935,-0.8426342,-0.39991075,0
-0.063516378,-1.8641062,4.6899018,-0.10136764,-0.46162531,0.88126427,0
-1.3252997,1.7612103,2.5956507,-0.36060935,0.8426342,0.39991075,0
1.4875672,-0.49027115,-0.96604991,0.92719233,0.27725416,0.25188228,0
-2.3437805,0.29316908,4.7705054,-0.36060935,0.8426342,0.39991075,0
-1.2867234,0.39412826,0.33256117,-0.92719233,-0.27725416,-0.25188228,0
1.2843598,1.676651,-2.6032271,0.92719233,0.27725416,0.25188228,0
1.9496142,1.2246356,-4.8079214,0.10136764,0.46162531,-0.88126427,0
1.4412,-4.4298673,3.1318665,0.36060935,-0.8426342,-0.39991075,0
-0.13370049,2.7117758,-4.268559,0.10136764,0.46162531,-0.88126427,0
1.6678439,-2.4175229,-0.90388346,0.36060935,-0.8426342,-0.39991075,0
-1.4715885,-2.221169,3.8917937,-0.92719233,-0.27725416,-0.25188228,0
1.3304303,-2.0958698,-1.8858788,0.36060935,-0.8426342,-0.39991075,0
-0.22624826,4.337698,-1.8421084,-0.36060935,0.8426342,0.39991075,0
1.5670959,-1.0655292,-3.8434558,0.36060935,-0.8426342,-0.39991075,0
0.34815741,-2.9186988,-1.0378723,0.36060935,-0.8426342,-0.39991075,0
-0.092026353,0.87966907,-4.5996327,-0.92719233,-0.27725416,-0.25188228,0
1.1400657,-3.8933697,1.7298964,0.36060935,-0.8426342,-0.39991075,0
-0.49519467,1.5427127,3.804564,-0.36060935,0.8426342,0.39991075,0
0.53980356,0.59236479,-5.3012829,0.10136764,0.46162531,-0.88126427,0
0.65421081,-4.7647009,3.1277325,0.36060935,-0.8426342,-0.39991075,0
0.32347119,2.5071437,-4.323164,0.10136764,0.46162531,-0.88126427,0
0.69299078,4.0251203,-3.011394,0.92719233,0.27725416,0.25188228,0
-1.2818029,1.1473384,3.9283354,-0.36060935,0.8426342,0.39991075,0
-1.1200969,0.8652994,-0.7994318,-0.92719233,-0.27725416,-0.25188228,0
-1.8510591,2.1812484,1.2365179,-0.36060935,0.8426342,0.39991075,0
0.92300612,2.3507633,-2.01508,0.92719233,0.27725416,0.25188228,0
1.1583531,-3.1351857,3.1571379,0.92719233,0.27725416,0.25188228,0
-1.9399998,-0.52756655,3.7518439,-0.92719233,-0.27725416,-0.25188228,0
0.92330956,-0.95173103,1.6189549,0.92719233,0.27725416,0.25188228,0
-0.60475636,3.5073814,-3.9059873,0.10136764,0.46162531,-0.88126427,0
0.59735191,2.9246767,-4.0729475,0.10136764,0.46162531,-0.88126427,0
0.62412947,-1.4348406,3.2520256,0.92719233,0.27725416,0.25188228,0
-1.6223178,-0.16078058,5.4028392,-0.10136764,-0.46162531,0.88126427,0
-0.66612923,-2.7766476,1.5382853,-0.92719233,-0.27725416,-0.25188228,0
0.93697906,-4.1690512,2.1276445,0.36060935,-0.8426342,-0.39991075,0
0.20797896,3.8430514,-1.025631,0.92719233,0.27725416,0.25188228,0
-0.58111763,4.7065544,-2.9393034,-0.36060935,0.8426342,0.39991075,0
-0.24925566,3.9111292,-0.96405101,-0.36060935,0.8426342,0.39991075,0
-0.456496,-3.6001925,1.6731138,-0.92719233,-0.27725416,-0.25188228,0
-1.2092345,4.1171021,-3.6561325,0.10136764,0.46162531,-0.88126427,0
-1.0219804,-1.3667629,4.8401737,-0.10136764,-0.46162531,0.88126427,0
1.4822724,-4.2928271,3.239023,0.92719233,0.27725416,0.25188228,0
0.044360846,1.1089698,-5.0876622,0.10136764,0.46162531,-0.88126427,0
-1.9188631,1.0658849,3.5255089,-0.36060935,0.8426342,0.39991075,0
0.19947803,2.6389468,0.33105433,0.92719233,0.27725416,0.25188228,0
-0.90986323,2.810173,0.76003784,-0.36060935,0.8426342,0.39991075,0
-0.16116995,-0.3880955,4.9905734,0.92719233,0.27725416,0.25188228,0
0.57252955,-3.5371513,3.8866863,-0.10136764,-0.46162531,0.88126427,0
0.115556,3.863822,-3.6364222,0.10136764,0.46162531,-0.88126427,0
-1.6454728,1.3930614,3.082653,-0.36060935,0.8426342,0.39991075,0
-1.0626235,-3.2970679,3.8243628,-0.10136764,-0.46162531,0.88126427,0
1.7275991,1.8432817,-4.4182315,0.92719233,0.27725416,0.25188228,0
0.85010266,-3.4341998,0.50093371,0.36060935,-0.8426342,-0.39991075,0
-1.0591327,0.82561213,4.8070173,-0.36060935,0.8426342,0.39991075,0
0.098425999,0.70994526,-5.1138783,-0.92719233,-0.27725416,-0.25188228,0
-0.9102416,2.2383063,1.9646513,-0.36060935,0.8426342,0.39991075,0
1.2585835,-3.7311428,1.494946,0.36060935,-0.8426342,-0.39991075,0
1.7647271,-2.596869,-0.43862978,0.36060935,-0.8426342,-0.39991075,0
-1.6590102,-0.45329979,2.6357579,-0.92719233,-0.27725416,-0.25188228,0
1.326827,2.2174647,-3.3548408,0.92719233,0.27725416,0.25188228,0
0.4555738,-3.4191117,3.9350653,-0.10136764,-0.46162531,0.88126427,0
1.1092285,-1.9687192,-2.353255,0.36060935,-0.8426342,-0.39991075,0
-0.26792157,0.60159862,4.2941465,0.92719233,0.27725416,0.25188228,0
-0.32897604,-2.249373,-0.28318062,-0.92719233,-0.27725416,-0.25188228,0
0.87982798,-1.8519517,-2.8061466,0.36060935,-0.8426342,-0.39991075,0
0.027845383,-4.848732,2.7399809,0.36060935,-0.8426342,-0.39991075,0
0.89708018,-3.5299859,0.74512112,0.36060935,-0.8426342,-0.39991075,0
-0.37128878,-2.4312336,0.072754323,-0.92719233,-0.27725416,-0.25188228,0
-0.80690348,0.83878803,5.0066957,-0.36060935,0.8426342,0.39991075,0
-0.86730051,3.012095,0.37295714,-0.36060935,0.8426342,0.39991075,0
0.88420016,-0.29463422,-5.7262974,0.10136764,0.46162531,-0.88126427,0
-1.3208014,2.0560293,1.9785076,-0.36060935,0.8426342,0.39991075,0
-0.59416676,1.7850772,3.2046425,-0.36060935,0.8426342,0.39991075,0
0.17668152,-2.889292,-1.254458,0.36060935,-0.8426342,-0.39991075,0
-0.043481112,-4.2393413,1.3916448,0.36060935,-0.8426342,-0.39991075,0
0.89234626,-0.44783378,-5.7534122,0.36060935,-0.8426342,-0.39991075,0
1.1279194,0.97890574,-5.0311556,0.10136764,0.46162531,-0.88126427,0
-0.45007443,3.7584434,-3.7566833,0.10136764,0.46162531,-0.88126427,0
-1.714448,-0.89395767,5.0081878,-0.10136764,-0.46162531,0.88126427,0
1.9935659,0.17550923,-5.3524208,0.10136764,0.46162531,-0.88126427,0
1.3301611,-2.4150426,1.7320218,0.92719233,0.27725416,0.25188228,0
-0.83706605,1.7995923,-2.8696871,-0.92719233,-0.27725416,-0.25188228,0
-0.91112185,4.5279732,-2.8605962,-0.36060935,0.8426342,0.39991075,0
-2.047405,-0.80261523,5.0177364,-0.10136764,-0.46162531,0.88126427,0
-0.059685469,1.8671222,-4.7024932,0.10136764,0.46162531,-0.88126427,0
0.89128613,-1.5753534,-3.3786225,0.36060935,-0.8426342,-0.39991075,0
0.53423327,-0.42036295,-5.4739456,-0.92719233,-0.27725416,-0.25188228,0
-0.29736733,2.8534617,-4.2131667,0.10136764,0.46162531,-0.88126427,0
0.77633113,1.2179097,-0.22819625,0.92719233,0.27725416,0.25188228,0
0.90091467,-2.0114374,-2.451087,0.36060935,-0.8426342,-0.39991075,0
0.26969966,1.2560891,-4.9846778,0.10136764,0.46162531,-0.88126427,0
-0.11426044,4.0508046,-3.5649109,0.10136764,0.46162531,-0.88126427,0
-0.035826169,-0.29892159,4.4310193,0.92719233,0.27725416,0.25188228,0
0.66228211,-0.75504696,-5.3135524,0.36060935,-0.8426342,-0.39991075,0
0.68148875,-3.1112883,-0.3315025,0.36060935,-0.8426342,-0.39991075,0
-1.5168828,0.77259648,4.50596,-0.36060935,0.8426342,0.39991075,0
1.3499832,1.964547,-4.4893126,0.10136764,0.46162531,-0.88126427,0
0.95061851,-1.2516427,-4.0071969,0.36060935,-0.8426342,-0.39991075,0
-1.6141951,1.9985182,1.8351262,-0.36060935,0.8426342,0.39991075,0
1.2114167,2.6947916,-4.1227336,0.10136764,0.46162531,-0.88126427,0
0.73608309,0.10914147,1.1404123,0.92719233,0.27725416,0.25188228,0
-0.0026522279,0.70483768,3.2040372,0.92719233,0.27725416,0.25188228,0
0.5455544,4.6338243,-3.1836171,0.10136764,0.46162531,-0.88126427,0
-1.3446202,4.3250523,-3.5627766,0.10136764,0.46162531,-0.88126427,0
-1.7136617,2.4658289,-0.37623721,-0.92719233,-0.27725416,-0.25188228,0
-1.9080772,0.80680466,4.0811315,-0.36060935,0.8426342,0.39991075,0
1.3552873,-0.3473618,-0.63642591,0.92719233,0.27725416,0.25188228,0
-0.90808856,-0.35032195,5.3857074,-0.10136764,-0.46162531,0.88126427,0
2.0805447,0.92102367,-4.9518995,0.10136764,0.46162531,-0.88126427,0
0.06988132,-2.1719887,-1.8365757,-0.92719233,-0.27725416,-0.25188228,0
-1.6534767,0.67222428,4.5942793,-0.36060935,0.8426342,0.39991075,0
-1.4879813,4.2270026,-2.7466035,-0.36060935,0.8426342,0.39991075,0
-0.63160324,3.3657515,-3.983264,0.10136764,0.46162531,-0.88126427,0
-1.0513837,3.7388003,-1.3242437,-0.36060935,0.8426342,0.39991075,0
0.20258999,2.0275989,-4.588264,0.10136764,0.46162531,-0.88126427,0
-0.84699893,-1.3255944,4.881866,-0.10136764,-0.46162531,0.88126427,0
0.36815906,-1.2858484,-3.9099526,-0.92719233,-0.27725416,-0.25188228,0
0.11343265,2.4781697,-4.3625007,0.10136764,0.46162531,-0.88126427,0
0.46038163,3.6558883,-1.748723,0.92719233,0.27725416,0.25188228,0
-0.86991048,4.2988319,-2.3406224,-0.36060935,0.8426342,0.39991075,0
1.0927391,-0.17491651,0.14021324,0.92719233,0.27725416,0.25188228,0
0.29697132,3.0898185,-4.0209947,0.10136764,0.46162531,-0.88126427,0
0.88288546,-4.0185828,3.6702008,-0.10136764,-0.46162531,0.88126427,0
1.2000258,-1.1061087,-4.0889487,0.36060935,-0.8426342,-0.39991075,0
0.81790447,-4.3684926,3.4794359,-0.10136764,-0.46162531,0.88126427,0
0.30169916,0.19233191,-5.2923865,-0.92719233,-0.27725416,-0.25188228,0
0.64921284,-2.4607298,4.288919,0.92719233,0.27725416,0.25188228,0
-0.45949221,2.996361,0.77384025,-0.36060935,0.8426342,0.39991075,0
0.067869663,-3.3317349,3.9362392,-0.10136764,-0.46162531,0.88126427,0
0.77548552,-4.6173372,2.926585,0.36060935,-0.8426342,-0.39991075,0
1.7864556,-2.5073736,-0.60760826,0.36060935,-0.8426342,-0.39991075,0
-0.31640422,0.4170301,4.6757736,0.92719233,0.27725416,0.25188228,0
0.61529016,-3.82686,1.1165535,0.36060935,-0.8426342,-0.39991075,0
-0.08110261,4.3072319,-1.6470331,-0.36060935,0.8426342,0.39991075,0
-0.4439224,1.4740963,-3.9585876,-0.92719233,-0.27725416,-0.25188228,0
1.3185583,2.520227,-4.2018504,0.10136764,0.46162531,-0.88126427,0
-0.47788978,4.7567506,-3.2369478,0.10136764,0.46162531,-0.88126427,0
1.7059966,-1.6081039,-2.5749707,0.36060935,-0.8426342,-0.39991075,0
0.22114268,0.25497282,-5.0648036,-0.92719233,-0.27725416,-0.25188228,0
-2.0109525,1.3635631,1.9314028,-0.92719233,-0.27725416,-0.25188228,0
0.87695026,-2.7260134,-0.9670459,0.36060935,-0.8426342,-0.39991075,0
0.2608161,3.5794725,-3.7686617,0.10136764,0.46162531,-0.88126427,0
1.8860664,-0.29412133,-5.1812315,0.36060935,-0.8426342,-0.39991075,0
1.1085718,-4.1770287,3.6131635,-0.10136764,-0.46162531,0.88126427,0
-1.0394856,-1.4541506,4.7923841,-0.10136764,-0.46162531,0.88126427,0
-1.6169035,0.5329107,4.9207997,-0.36060935,0.8426342,0.39991075,0
0.50636232,-2.503428,4.4205618,-0.10136764,-0.46162531,0.88126427,0
1.2911584,-3.2766404,0.56665802,0.36060935,-0.8426342,-0.39991075,0
-0.98003662,-1.1869191,4.9392042,-0.10136764,-0.46162531,0.88126427,0
0.66257262,0.46197861,1.0226302,0.92719233,0.27725416,0.25188228,0
-1.4064853,-2.4327874,3.8850799,-0.92719233,-0.27725416,-0.25188228,0
0.67305136,-1.4989822,-3.7363284,0.36060935,-0.8426342,-0.39991075,0
-1.1953768,0.70755595,4.9329138,-0.36060935,0.8426342,0.39991075,0
1.6032975,-3.5838361,2.0131178,0.92719233,0.27725416,0.25188228,0
-0.73865247,1.7344514,-3.1602507,-0.92719233,-0.27725416,-0.25188228,0
1.6905088,-0.0035130978,-5.4810562,0.10136764,0.46162531,-0.88126427,0
-0.20792902,2.4157887,-4.4321423,0.10136764,0.46162531,-0.88126427,0
0.41772157,-1.2984316,3.8616755,0.92719233,0.27725416,0.25188228,0
0.022571504,-0.22368395,-3.8069813,-0.92719233,-0.27725416,-0.25188228,0
-0.072259903,4.0590734,-3.5557485,0.10136764,0.46162531,-0.88126427,0
0.63144982,3.905035,-2.6526783,0.92719233,0.27725416,0.25188228,0
1.7467386,-1.0921948,-3.625282,0.36060935,-0.8426342,-0.39991075,0
1.0165327,-4.0182967,3.6857233,-0.10136764,-0.46162531,0.88126427,0
-0.016727209,-4.3396578,1.627141,0.36060935,-0.8426342,-0.39991075,0
-1.3367995,2.3104935,-1.5925052,-0.92719233,-0.27725416,-0.25188228,0
1.6882914,0.35700196,-2.6375456,0.92719233,0.27725416,0.25188228,0
0.05128634,1.0833836,2.5888102,0.92719233,0.27725416,0.25188228,0
-0.38950789,1.0669641,-3.7107484,-0.92719233,-0.27725416,-0.25188228,0
0.84891713,-2.4329343,3.5232015,0.92719233,0.27725416,0.25188228,0
-1.8437059,-1.2527523,4.8053756,-0.10136764,-0.46162531,0.88126427,0
1.1454285,-1.4009762,-3.5168784,0.36060935,-0.8426342,-0.39991075,0
-1.5108402,0.48055905,5.1267476,-0.36060935,0.8426342,0.39991075,0
-0.73790312,1.2302957,4.2439871,-0.36060935,0.8426342,0.39991075,0
-0.033613443,-4.6741266,2.316659,0.36060935,-0.8426342,-0.39991075,0
-0.80054307,3.5135233,-3.9252901,0.10136764,0.46162531,-0.88126427,0
-1.5078994,0.89644289,4.253109,-0.36060935,0.8426342,0.39991075,0
0.96208215,3.4988985,-3.4227073,0.92719233,0.27725416,0.25188228,0
0.28031623,3.331938,-3.8960824,0.10136764,0.46162531,-0.88126427,0
-0.5487535,3.5970252,-3.8525884,0.10136764,0.46162531,-0.88126427,0
0.088415265,3.3048394,-3.9323506,0.10136764,0.46162531,-0.88126427,0
1.5489058,-4.1038628,2.5420775,0.36060935,-0.8426342,-0.39991075,0
1.571941,-1.99159,-1.887826,0.36060935,-0.8426342,-0.39991075,0
1.5335863,0.44872817,-2.1690335,0.92719233,0.27725416,0.25188228,0
1.0514126,0.67982316,-0.64849865,0.92719233,0.27725416,0.25188228,0
0.064721823,3.9320745,-3.6065173,0.10136764,0.46162531,-0.88126427,0
0.57164109,4.0295467,-2.5695724,0.92719233,0.27725416,0.25188228,0
-1.1227366,-1.47349,4.7726779,-0.10136764,-0.46162531,0.88126427,0
-0.85503364,-0.59073257,5.2658777,-0.10136764,-0.46162531,0.88126427,0
-2.1074483,0.48066172,4.5885549,-0.36060935,0.8426342,0.39991075,0
-1.5633492,3.2570086,-1.8004209,-0.92719233,-0.27725416,-0.25188228,0
0.27434564,4.0648661,-1.5140896,0.92719233,0.27725416,0.25188228,0
-1.9092174,0.59385765,4.5287943,-0.36060935,0.8426342,0.39991075,0
-1.1366113,-0.24030304,0.47832733,-0.92719233,-0.27725416,-0.25188228,0
-1.4575936,-2.1602814,4.3744049,-0.10136764,-0.46162531,0.88126427,0
1.0115627,-1.5472453,-3.329392,0.36060935,-0.8426342,-0.39991075,0
0.048980474,2.9258008,-4.1354351,0.10136764,0.46162531,-0.88126427,0
-1.7024074,-0.064173162,2.3671825,-0.92719233,-0.27725416,-0.25188228,0
0.52448082,4.2680144,-3.3776603,0.10136764,0.46162531,-0.88126427,0
-0.13752919,0.83258522,-4.3803082,-0.92719233,-0.27725416,-0.25188228,0
-0.8424983,4.1281762,-1.9563223,-0.36060935,0.8426342,0.39991075,0
1.7791886,-0.9913981,-3.8084049,0.36060935,-0.8426342,-0.39991075,0
0.23619151,-4.2413836,3.4791067,-0.10136764,-0.46162531,0.88126427,0
-1.5586973,0.6891911,4.6439943,-0.36060935,0.8426342,0.39991075,0
-1.1527439,1.5247723,-1.405158,-0.92719233,-0.27725416,-0.25188228,0
0.90982789,-0.74824381,1.4445975,0.92719233,0.27725416,0.25188228,0
-0.57592881,2.2525625,-4.3295455,-0.92719233,-0.27725416,-0.25188228,0
-0.92372364,1.3265831,-2.0300412,-0.92719233,-0.27725416,-0.25188228,0
-0.58881521,2.9924347,0.66549909,-0.36060935,0.8426342,0.39991075,0
0.010404043,0.37304497,-4.4190288,-0.92719233,-0.27725416,-0.25188228,0
1.3559172,-2.5691144,-0.86574423,0.36060935,-0.8426342,-0.39991075,0
-0.27510881,3.9064519,-0.97750807,-0.36060935,0.8426342,0.39991075,0
-2.0994589,-0.47194129,5.1849632,-0.10136764,-0.46162531,0.88126427,0
0.61781383,-2.9775438,-0.6707269,0.36060935,-0.8426342,-0.39991075,0
0.2391448,4.8022709,-3.1306257,0.10136764,0.46162531,-0.88126427,0
1.8124416,-1.4126956,-1.1465912,0.92719233,0.27725416,0.25188228,0
1.5914979,-3.9530833,2.4629927,0.92719233,0.27725416,0.25188228,0
0.086708307,2.1993663,-4.5116177,0.10136764,0.46162531,-0.88126427,0
2.0241809,-0.10060826,-5.4644327,0.36060935,-0.8426342,-0.39991075,0
1.794575,0.49819359,-5.2062807,0.10136764,0.46162531,-0.88126427,0
-1.6774884,2.1133139,-0.12136936,-0.92719233,-0.27725416,-0.25188228,0
-1.1035657,-2.3817847,4.299099,-0.10136764,-0.46162531,0.88126427,0
-1.7032464,2.9739499,-0.97388017,-0.92719233,-0.27725416,-0.25188228,0
-0.27369595,4.5392923,-3.3273697,0.10136764,0.46162531,-0.88126427,0
-0.01367712,-3.3334513,-0.25053561,-0.92719233,-0.27725416,-0.25188228,0
0.54239416,-2.7568841,-1.2036768,0.36060935,-0.8426342,-0.39991075,0
-0.34569669,4.3117108,-3.4548638,0.10136764,0.46162531,-0.88126427,0
-0.63802069,0.44649839,5.8272252,0.92719233,0.27725416,0.25188228,0
0.26136303,-3.7896214,0.71894538,0.36060935,-0.8426342,-0.39991075,0
1.4949205,-2.9243095,0.0080142617,0.36060935,-0.8426342,-0.39991075,0
0.81833339,-3.6031339,0.8282392,0.36060935,-0.8426342,-0.39991075,0
0.42463863,1.0957439,-5.0508485,0.10136764,0.46162531,-0.88126427,0
-0.65962982,3.8487282,-3.733494,0.10136764,0.46162531,-0.88126427,0
0.70956337,0.98087907,-5.0782437,0.10136764,0.46162531,-0.88126427,0
-0.016206026,-4.3862133,3.3742099,-0.10136764,-0.46162531,0.88126427,0
0.45036554,-4.4125037,3.4141059,-0.10136764,-0.46162531,0.88126427,0
0.7525661,-3.1915331,-0.0983302,0.36060935,-0.8426342,-0.39991075,0
1.3153903,1.110819,-4.9404926,0.10136764,0.46162531,-0.88126427,0
-1.5030103,-1.2224838,2.9081769,-0.92719233,-0.27725416,-0.25188228,0
-2.08041,1.7263191,1.9882669,-0.36060935,0.8426342,0.39991075,0
-0.43178046,2.5502954,-4.3874331,0.10136764,0.46162531,-0.88126427,0
0.43122554,3.9955523,-3.5311089,0.10136764,0.46162531,-0.88126427,0
0.72557473,4.1322336,-3.4256546,0.10136764,0.46162531,-0.88126427,0
0.65375268,-0.6285013,2.25542,0.92719233,0.27725416,0.25188228,0
-1.3727915,-0.013253808,1.0978,-0.92719233,-0.27725416,-0.25188228,0
-0.46909916,2.5796955,1.6431149,-0.36060935,0.8426342,0.39991075,0
1.0672698,-3.9113297,3.747591,-0.10136764,-0.46162531,0.88126427,0
0.68480802,-3.409569,0.29998493,0.36060935,-0.8426342,-0.39991075,0
-0.44715238,-4.5766249,3.2248983,-0.10136764,-0.46162531,0.88126427,0
-1.2579458,3.3618414,-3.0400205,-0.92719233,-0.27725416,-0.25188228,0
-1.9524497,2.2763076,0.9447965,-0.36060935,0.8426342,0.39991075,0
-0.83605886,-1.8740106,1.1702465,-0.92719233,-0.27725416,-0.25188228,0
1.1281116,2.7612162,-4.0975208,0.10136764,0.46162531,-0.88126427,0
-0.89345908,3.1580889,0.0417521,-0.36060935,0.8426342,0.39991075,0
-0.50059807,1.7824244,3.2946053,-0.36060935,0.8426342,0.39991075,0
1.2811954,-2.7279968,-0.59834832,0.36060935,-0.8426342,-0.39991075,0
-0.032207966,-1.836854,-1.8296711,-0.92719233,-0.27725416,-0.25188228,0
0.59497762,-3.3847988,3.969074,-0.10136764,-0.46162531,0.88126427,0
0.19065356,0.54971385,2.6632171,0.92719233,0.27725416,0.25188228,0
-1.0891281,-2.4293208,2.7130549,-0.92719233,-0.27725416,-0.25188228,0
0.32686603,-2.3418765,4.484539,-0.10136764,-0.46162531,0.88126427,0
-0.22988844,-2.8252089,4.1673188,-0.10136764,-0.46162531,0.88126427,0
1.3312168,2.7265861,-4.0922985,0.10136764,0.46162531,-0.88126427,0
0.72502708,-2.6716347,-1.2186172,0.36060935,-0.8426342,-0.39991075,0
0.19242764,-4.2425375,3.4734688,-0.10136764,-0.46162531,0.88126427,0
-1.4724619,3.9378195,-2.8843703,-0.92719233,-0.27725416,-0.25188228,0
-1.0701871,0.56054616,5.3555579,-0.36060935,0.8426342,0.39991075,0
0.47408825,-0.085471749,2.3190458,0.92719233,0.27725416,0.25188228,0
-1.191062,0.51008159,5.3528934,-0.36060935,0.8426342,0.39991075,0
-1.9267571,1.673267,1.2805753,-0.92719233,-0.27725416,-0.25188228,0
-1.1863514,-2.6520298,4.148016,-0.10136764,-0.46162531,0.88126427,0
0.67858028,-0.60842454,2.1419291,0.92719233,0.27725416,0.25188228,0
-1.8786901,-0.66746771,5.1079359,-0.10136764,-0.46162531,0.88126427,0
1.4366057,-2.3877478,-1.1751345,0.36060935,-0.8426342,-0.39991075,0
0.47962463,1.7264085,-4.7141681,0.10136764,0.46162531,-0.88126427,0
-1.2476472,-0.97445071,5.0197177,-0.10136764,-0.46162531,0.88126427,0
1.2524493,-1.0740621,-4.109201,0.36060935,-0.8426342,-0.39991075,0
-2.0241308,1.984388,1.4952505,-0.36060935,0.8426342,0.39991075,0
1.2248355,-1.4214065,-3.4022272,0.36060935,-0.8426342,-0.39991075,0
-0.59701288,0.22786218,-2.0232871,-0.92719233,-0.27725416,-0.25188228,0
1.2575194,2.2251079,-4.363461,0.10136764,0.46162531,-0.88126427,0
1.13375,-1.7591689,-2.7726777,0.36060935,-0.8426342,-0.39991075,0
1.6927382,-1.2723048,-0.86048871,0.92719233,0.27725416,0.25188228,0
-1.1750847,2.7275548,-2.6468573,-0.92719233,-0.27725416,-0.25188228,0
-2.0501535,1.1457375,3.2388673,-0.36060935,0.8426342,0.39991075,0
-1.6647388,0.28064424,5.4092045,-0.36060935,0.8426342,0.39991075,0
1.8114651,-1.05444,-1.5373397,0.92719233,0.27725416,0.25188228,0
-1.2452575,-0.97437519,5.0200319,-0.10136764,-0.46162531,0.88126427,0
-1.8218684,0.74456382,4.2900133,-0.36060935,0.8426342,0.39991075,0
0.63259792,1.4606237,0.033730924,0.92719233,0.27725416,0.25188228,0
2.306004,0.46501574,-5.1648331,0.10136764,0.46162531,-0.88126427,0
-0.60536337,-0.43969506,-1.2577487,-0.92719233,-0.27725416,-0.25188228,0
-2.0225897,0.028252125,5.4558167,-0.10136764,-0.46162531,0.88126427,0
-0.35148978,-2.7879348,4.1728563,-0.10136764,-0.46162531,0.88126427,0
1.0369797,1.5209427,-4.7576852,0.10136764,0.46162531,-0.88126427,0
-1.194289,4.0386162,-3.6955261,0.10136764,0.46162531,-0.88126427,0
1.2469602,-4.4501948,3.4859908,-0.10136764,-0.46162531,0.88126427,0
-1.6267896,3.9711485,-2.3326709,-0.36060935,0.8426342,0.39991075,0
0.5830484,1.7707896,-4.6790237,0.10136764,0.46162531,-0.88126427,0
-0.14411992,-1.8988799,4.6624155,-0.10136764,-0.46162531,0.88126427,0
1.1152787,-3.2712915,0.39679265,0.36060935,-0.8426342,-0.39991075,0
1.4095694,0.6597203,-1.9447656,0.92719233,0.27725416,0.25188228,0
-0.029561281,3.7280293,-0.38014638,-0.36060935,0.8426342,0.39991075,0
0.76143837,-3.38026,3.9905987,-0.10136764,-0.46162531,0.88126427,0
-0.75239241,2.398603,1.7692339,-0.36060935,0.8426342,0.39991075,0
0.6131711,2.8425274,-4.1141596,0.10136764,0.46162531,-0.88126427,0
-0.072477937,1.7208519,2.3427131,0.92719233,0.27725416,0.25188228,0
0.099730968,1.3005974,2.1713886,0.92719233,0.27725416,0.25188228,0
1.6894292,-1.1753116,-3.5018272,0.36060935,-0.8426342,-0.39991075,0
0.054454088,-3.5932901,0.11869013,0.36060935,-0.8426342,-0.39991075,0
-0.17487359,-4.1136293,3.498744,-0.10136764,-0.46162531,0.88126427,0
0.74641716,-2.171082,3.6122813,0.92719233,0.27725416,0.25188228,0
1.2661517,-4.0523376,2.178546,0.36060935,-0.8426342,-0.39991075,0
0.17580867,3.6716888,-3.7301345,0.10136764,0.46162531,-0.88126427,0
-0.54138732,3.9131539,-3.6861455,0.10136764,0.46162531,-0.88126427,0
1.0656947,-1.7165704,1.9367082,0.92719233,0.27725416,0.25188228,0
0.54586291,3.8637643,-3.586956,0.10136764,0.46162531,-0.88126427,0
1.9116666,-0.1902571,-5.3769946,0.36060935,-0.8426342,-0.39991075,0
0.35682535,3.6108122,-3.7412019,0.10136764,0.46162531,-0.88126427,0
-1.6622969,-0.21407795,2.3845379,-0.92719233,-0.27725416,-0.25188228,0
-0.14884317,2.2965326,1.9901483,0.92719233,0.27725416,0.25188228,0
-0.80328512,3.9919147,-1.6338537,-0.36060935,0.8426342,0.39991075,0
-2.0657246,-0.96588862,4.6971173,-0.92719233,-0.27725416,-0.25188228,0
0.59421682,2.9900939,-1.5085182,0.92719233,0.27725416,0.25188228,0
-0.52299023,4.1602464,-3.5545974,0.10136764,0.46162531,-0.88126427,0
-0.31304997,1.3426375,-4.2956362,-0.92719233,-0.27725416,-0.25188228,0
1.6577637,-1.4581009,-2.9345284,0.36060935,-0.8426342,-0.39991075,0
0.32162356,-1.6225965,4.5722346,0.92719233,0.27725416,0.25188228,0
1.9375621,-1.1431918,-3.345758,0.36060935,-0.8426342,-0.39991075,0
-1.234495,2.4412472,1.2446569,-0.36060935,0.8426342,0.39991075,0
1.0304955,1.3063558,-4.8708367,0.10136764,0.46162531,-0.88126427,0
-0.87398291,3.1915975,-4.1023693,0.10136764,0.46162531,-0.88126427,0
-0.47995949,-3.7441971,3.6571681,-0.10136764,-0.46162531,0.88126427,0
-1.758069,2.6044624,0.42863348,-0.36060935,0.8426342,0.39991075,0
-1.9412366,2.0268223,1.4805863,-0.36060935,0.8426342,0.39991075,0
1.1957985,-0.92182088,-4.4810658,0.36060935,-0.8426342,-0.39991075,0
-1.6114359,0.93604493,4.076304,-0.36060935,0.8426342,0.39991075,0
-1.4288369,-1.2543298,4.8522696,-0.10136764,-0.46162531,0.88126427,0
-1.2651825,3.3538918,-3.0046301,-0.92719233,-0.27725416,-0.25188228,0
1.0437226,1.1321974,-4.9605432,0.10136764,0.46162531,-0.88126427,0
-1.9960523,-0.20071867,5.3389301,-0.10136764,-0.46162531,0.88126427,0
1.446547,0.072632909,-5.4692311,0.10136764,0.46162531,-0.88126427,0
0.1254921,3.930969,-0.81876475,0.92719233,0.27725416,0.25188228,0
0.12851763,3.2254243,-0.05328995,0.92719233,0.27725416,0.25188228,0
-1.0377042,-1.4948506,4.7712698,-0.10136764,-0.46162531,0.88126427,0
2.0710433,-0.003700763,-5.4373832,0.10136764,0.46162531,-0.88126427,0
1.8009303,-0.89343822,-3.9952071,0.36060935,-0.8426342,-0.39991075,0
1.4668566,-0.54913026,-0.82502621,0.92719233,0.27725416,0.25188228,0
1.1239202,1.3108757,-4.8577228,0.10136764,0.46162531,-0.88126427,0
1.1186526,0.024801016,-5.5320024,0.10136764,0.46162531,-0.88126427,0
0.64185768,1.3949091,-4.8691535,0.10136764,0.46162531,-0.88126427,0
1.1390796,-0.053981841,-5.5709209,0.10136764,0.46162531,-0.88126427,0
0.55547482,2.3400226,-0.65035391,0.92719233,0.27725416,0.25188228,0
-0.23337871,-1.1115315,-1.8875346,-0.92719233,-0.27725416,-0.25188228,0
1.1899012,-1.8515664,1.6280921,0.92719233,0.27725416,0.25188228,0
0.14624643,0.67511892,2.6886454,0.92719233,0.27725416,0.25188228,0
1.1706078,0.32787529,-5.3672695,0.10136764,0.46162531,-0.88126427,0
-0.47402644,2.8036609,-4.2595739,0.10136764,0.46162531,-0.88126427,0
-2.1021087,0.095547408,3.6626959,-0.92719233,-0.27725416,-0.25188228,0
1.6547647,-3.3237736,1.5374047,0.92719233,0.27725416,0.25188228,0
0.82342958,-2.3436241,-1.8210211,0.36060935,-0.8426342,-0.39991075,0
1.9577928,-1.7773491,-1.9913113,0.36060935,-0.8426342,-0.39991075,0
1.840492,-2.7985244,0.27557576,0.92719233,0.27725416,0.25188228,0
0.81923068,-2.1867547,-2.1553404,0.36060935,-0.8426342,-0.39991075,0
2.333225,-0.53942978,-4.2611389,0.36060935,-0.8426342,-0.39991075,0
-1.7788336,2.9211426,-0.25735319,-0.36060935,0.8426342,0.39991075,0
0.89562368,0.14133871,-5.4966116,0.10136764,0.46162531,-0.88126427,0
1.7618837,-2.7740936,-0.067771673,0.36060935,-0.8426342,-0.39991075,0
-0.3474026,-1.6037214,4.793643,-0.10136764,-0.46162531,0.88126427,0
-1.2502217,-0.80844915,1.5219085,-0.92719233,-0.27725416,-0.25188228,0
2.159929,-0.099078551,-5.3452492,0.36060935,-0.8426342,-0.39991075,0
-1.3806518,0.6181013,4.9543324,-0.36060935,0.8426342,0.39991075,0
0.82523727,-2.3297436,3.4967825,0.92719233,0.27725416,0.25188228,0
-1.0065784,4.4395356,-3.4639244,0.10136764,0.46162531,-0.88126427,0
0.64863682,0.42635477,-5.3757238,0.10136764,0.46162531,-0.88126427,0
-1.3420686,-1.6728704,4.6430097,-0.10136764,-0.46162531,0.88126427,0
-0.055168033,1.8178293,-4.7277946,0.10136764,0.46162531,-0.88126427,0
-1.2231343,4.4062738,-2.8855181,-0.36060935,0.8426342,0.39991075,0
1.9333673,-1.651592,-1.3287656,0.92719233,0.27725416,0.25188228,0
0.76084518,-4.2477975,2.1347423,0.36060935,-0.8426342,-0.39991075,0
-0.531991,1.8688669,3.0841582,-0.36060935,0.8426342,0.39991075,0
1.711031,-1.3067224,-3.2054586,0.36060935,-0.8426342,-0.39991075,0
-0.46582508,-4.1786952,2.3442302,-0.92719233,-0.27725416,-0.25188228,0
1.0541213,-4.4818687,2.8923974,0.36060935,-0.8426342,-0.39991075,0
1.0307992,-4.4909606,3.4397728,-0.10136764,-0.46162531,0.88126427,0
-1.042325,4.121233,-2.1218815,-0.36060935,0.8426342,0.39991075,0
-1.1526048,0.12866187,5.6084843,-0.10136764,-0.46162531,0.88126427,0
2.2738264,-0.011309817,-5.4180441,0.10136764,0.46162531,-0.88126427,0
-1.274035,1.1466153,3.9368634,-0.36060935,0.8426342,0.39991075,0
1.8919785,-1.5940034,-2.4369769,0.36060935,-0.8426342,-0.39991075,0
-0.22828221,3.9023442,-0.9266296,-0.36060935,0.8426342,0.39991075,0
1.1817634,-4.434155,2.9069614,0.36060935,-0.8426342,-0.39991075,0
1.1004341,-4.0384092,1.9997652,0.36060935,-0.8426342,-0.39991075,0
0.86978018,-0.16938996,0.95485389,0.92719233,0.27725416,0.25188228,0
-0.89819062,-0.67011589,0.073795073,-0.92719233,-0.27725416,-0.25188228,0
1.1558993,-4.0904298,2.15939,0.36060935,-0.8426342,-0.39991075,0
-2.0378189,-0.51966774,4.1032267,-0.92719233,-0.27725416,-0.25188228,0
1.0445088,-2.8300953,3.2403841,0.92719233,0.27725416,0.25188228,0
-0.85244596,-1.6484119,4.7121406,-0.10136764,-0.46162531,0.88126427,0
0.014669657,2.5733819,-4.323987,0.10136764,0.46162531,-0.88126427,0
-1.4698627,-1.8300295,4.5459867,-0.10136764,-0.46162531,0.88126427,0
1.3730316,-4.5664487,3.4395962,-0.10136764,-0.46162531,0.88126427,0
1.6530955,-2.9560113,0.21744233,0.36060935,-0.8426342,-0.39991075,0
-0.18949078,0.43471295,-3.7510853,-0.92719233,-0.27725416,-0.25188228,0
-1.2843745,-0.74526316,1.5780755,-0.92719233,-0.27725416,-0.25188228,0
2.0002503,-1.939598,-1.6111587,0.36060935,-0.8426342,-0.39991075,0
-0.7687971,-1.3758531,0.37431607,-0.92719233,-0.27725416,-0.25188228,0
0.26153803,-1.9970773,-2.7346039,-0.92719233,-0.27725416,-0.25188228,0
-1.8464571,1.3730407,2.9436052,-0.36060935,0.8426342,0.39991075,0
0.95951343,-1.0222008,-4.4826226,0.36060935,-0.8426342,-0.39991075,0
1.1607618,-0.32504705,0.055070758,0.92719233,0.27725416,0.25188228,0
-1.5937057,2.363342,1.0848982,-0.36060935,0.8426342,0.39991075,0
1.7307897,-1.8448915,-2.0536897,0.36060935,-0.8426342,-0.39991075,0
-1.1300788,3.2407603,-3.3774271,-0.92719233,-0.27725416,-0.25188228,0
-1.6257879,2.4234607,0.92929536,-0.36060935,0.8426342,0.39991075,0
-0.57234788,2.9303303,0.81120646,-0.36060935,0.8426342,0.39991075,0
0.88249302,-0.70735931,-5.2154627,0.36060935,-0.8426342,-0.39991075,0
-0.67070317,4.6239257,-2.8459826,-0.36060935,0.8426342,0.39991075,0
-0.55368125,-3.4323492,3.8120408,-0.10136764,-0.46162531,0.88126427,0
0.23770177,2.8694062,-4.1432681,0.10136764,0.46162531,-0.88126427,0
1.1167419,2.6428995,-3.0497942,0.92719233,0.27725416,0.25188228,0
-0.64338845,0.29360569,-1.924942,-0.92719233,-0.27725416,-0.25188228,0
-0.24271348,0.83820987,-3.9993098,-0.92719233,-0.27725416,-0.25188228,0
-1.0431509,1.2971975,-1.5580775,-0.92719233,-0.27725416,-0.25188228,0
-0.043079376,3.6550388,-3.764034,0.10136764,0.46162531,-0.88126427,0
1.8810878,-1.2352833,-3.2026405,0.36060935,-0.8426342,-0.39991075,0
1.6399934,-0.75927263,-1.2310418,0.92719233,0.27725416,0.25188228,0
0.95763421,3.1197698,-3.9293122,0.10136764,0.46162531,-0.88126427,0
0.67802,-2.97756,-0.61640316,0.36060935,-0.8426342,-0.39991075,0
1.4984579,-4.2966824,3.1836879,0.92719233,0.27725416,0.25188228,0
-0.18014383,-1.0655921,-2.1340621,-0.92719233,-0.27725416,-0.25188228,0
-2.2335703,-0.097872645,4.3595157,-0.92719233,-0.27725416,-0.25188228,0
1.745284,-1.9529166,-0.30474362,0.92719233,0.27725416,0.25188228,0
-0.62931252,-0.044496894,5.5779715,-0.10136764,-0.46162531,0.88126427,0
-0.86899674,2.1043925,-3.0876517,-0.92719233,-0.27725416,-0.25188228,0
0.46462035,4.5428629,-3.2405746,0.10136764,0.46162531,-0.88126427,0
-1.5963067,-0.28036124,2.2145844,-0.92719233,-0.27725416,-0.25188228,0
1.4347849,1.8460083,-3.3433669,0.92719233,0.27725416,0.25188228,0
1.7480301,-1.1485467,-1.2002456,0.92719233,0.27725416,0.25188228,0
0.9691571,-2.1769054,-2.0409009,0.36060935,-0.8426342,-0.39991075,0
-1.2496271,-2.0784698,4.4411812,-0.10136764,-0.46162531,0.88126427,0
1.2553699,1.0414426,-1.7973217,0.92719233,0.27725416,0.25188228,0
-2.1804278,0.039861485,5.4437428,-0.10136764,-0.46162531,0.88126427,0
1.2904423,0.98661685,-1.8660769,0.92719233,0.27725416,0.25188228,0
0.62644488,2.6882505,-4.1934462,0.10136764,0.46162531,-0.88126427,0
0.6506505,-3.8355212,3.7393794,-0.10136764,-0.46162531,0.88126427,0
1.5016799,-0.40408319,-5.2961464,0.36060935,-0.8426342,-0.39991075,0
1.0455251,-2.9119458,-0.42326751,0.36060935,-0.8426342,-0.39991075,0
1.0828552,-2.238107,-1.8094223,0.36060935,-0.8426342,-0.39991075,0
2.1369646,0.079526201,-5.3862047,0.10136764,0.46162531,-0.88126427,0
-1.0842919,-2.2092993,4.3916674,-0.10136764,-0.46162531,0.88126427,0
-1.7656739,1.0590856,3.6779706,-0.36060935,0.8426342,0.39991075,0
-0.065357685,-4.1375113,1.1573561,0.36060935,-0.8426342,-0.39991075,0
-1.1329643,1.202207,-1.1229107,-0.92719233,-0.27725416,-0.25188228,0
0.7098363,-1.2868917,2.7736819,0.92719233,0.27725416,0.25188228,0
1.6571803,-2.8957369,0.094124079,0.36060935,-0.8426342,-0.39991075,0
-1.996224,-0.79113102,5.0296392,-0.10136764,-0.46162531,0.88126427,0
-1.8449311,1.7560675,2.1379228,-0.36060935,0.8426342,0.39991075,0
-1.1028712,4.2903881,-2.5328968,-0.36060935,0.8426342,0.39991075,0
2.0799446,-0.35829675,-4.8711853,0.36060935,-0.8426342,-0.39991075,0
0.065332174,-3.5543633,3.8193295,-0.10136764,-0.46162531,0.88126427,0
1.4520628,-3.1147628,2.0534978,0.92719233,0.27725416,0.25188228,0
0.74389982,3.4742527,-3.7682114,0.10136764,0.46162531,-0.88126427,0
2.1534479,-0.86968076,-3.7273912,0.36060935,-0.8426342,-0.39991075,0
1.3137617,-2.2210937,1.5789037,0.92719233,0.27725416,0.25188228,0
-1.4729373,0.2502785,1.1763644,-0.92719233,-0.27725416,-0.25188228,0
1.1049089,2.1957793,-4.396378,0.10136764,0.46162531,-0.88126427,0
2.0238862,0.81766486,-5.0125585,0.10136764,0.46162531,-0.88126427,0
1.8042279,-0.95243108,-3.8679321,0.36060935,-0.8426342,-0.39991075,0
-0.58982068,0.42799747,5.6701627,0.92719233,0.27725416,0.25188228,0
-1.9023625,0.36384362,2.6320975,-0.92719233,-0.27725416,-0.25188228,0
1.0244446,-3.0724781,-0.10402572,0.36060935,-0.8426342,-0.39991075,0
0.73624945,-3.1100421,4.1292477,-0.10136764,-0.46162531,0.88126427,0
1.0526793,-3.9968979,1.8692374,0.36060935,-0.8426342,-0.39991075,0
1.8613338,-2.7731872,0.1709646,0.92719233,0.27725416,0.25188228,0
-0.35067096,0.31466162,4.9145913,0.92719233,0.27725416,0.25188228,0
1.7572324,-2.2103243,-1.2598588,0.36060935,-0.8426342,-0.39991075,0
-0.43984628,-3.3732915,3.8560705,-0.10136764,-0.46162531,0.88126427,0
-1.1041901,3.782094,-3.8195343,0.10136764,0.46162531,-0.88126427,0
1.9263489,-0.36845687,-4.9882789,0.36060935,-0.8426342,-0.39991075,0
-1.0979898,3.743619,-1.3764222,-0.36060935,0.8426342,0.39991075,0
-1.3789674,1.3481935,3.4175067,-0.36060935,0.8426342,0.39991075,0
-0.73599595,-1.9744452,4.5547519,-0.10136764,-0.46162531,0.88126427,0
-0.76088953,3.452549,-3.9526691,0.10136764,0.46162531,-0.88126427,0
-1.2025955,4.1393857,-2.3046501,-0.36060935,0.8426342,0.39991075,0
0.96572518,-0.10741079,-5.6188483,0.10136764,0.46162531,-0.88126427,0
1.0979838,-0.68886554,-5.0601168,0.36060935,-0.8426342,-0.39991075,0
-1.5956228,1.2311455,3.4687703,-0.36060935,0.8426342,0.39991075,0
1.0292587,3.1504307,-3.9050124,0.10136764,0.46162531,-0.88126427,0
-0.89960271,-1.2905107,0.76187974,-0.92719233,-0.27725416,-0.25188228,0
1.943289,1.2606412,-4.7897887,0.10136764,0.46162531,-0.88126427,0
1.3583456,-0.38408771,-0.60725802,0.92719233,0.27725416,0.25188228,0
0.59555554,3.9577234,-3.532022,0.10136764,0.46162531,-0.88126427,0
-0.13448392,0.57521224,-4.1082196,-0.92719233,-0.27725416,-0.25188228,0
2.157434,-1.4716858,-2.3515952,0.92719233,0.27725416,0.25188228,0
2.0871992,-1.306253,-2.8672476,0.36060935,-0.8426342,-0.39991075,0
-0.38512868,-1.9819223,-0.37086993,-0.92719233,-0.27725416,-0.25188228,0
-0.35826093,0.27384293,4.9874606,0.92719233,0.27725416,0.25188228,0
-0.31925464,-3.6740761,3.7123845,-0.10136764,-0.46162531,0.88126427,0
0.36761546,-1.11555,3.8448153,0.92719233,0.27725416,0.25188228,0
0.29172683,-3.3921537,-0.091160834,0.36060935,-0.8426342,-0.39991075,0
-0.68598127,4.22369,-3.540112,0.10136764,0.46162531,-0.88126427,0
-0.31022149,-1.97768,-0.6512776,-0.92719233,-0.27725416,-0.25188228,0
0.9913038,-0.18268681,-5.6553369,0.10136764,0.46162531,-0.88126427,0
0.6748898,2.8569126,-1.6588829,0.92719233,0.27725416,0.25188228,0
-0.83669341,-3.2943828,3.8517575,-0.10136764,-0.46162531,0.88126427,0
0.25984764,-4.5870585,2.3978233,0.36060935,-0.8426342,-0.39991075,0
0.61622119,-0.58696544,-5.5923634,-0.92719233,-0.27725416,-0.25188228,0
0.7318511,-3.8289034,1.2259645,0.36060935,-0.8426342,-0.39991075,0
0.14658993,-0.68997824,-3.7502358,-0.92719233,-0.27725416,-0.25188228,0
0.052740097,-4.3322744,3.4103947,-0.10136764,-0.46162531,0.88126427,0
-0.047817707,-2.0173731,-1.5735091,-0.92719233,-0.27725416,-0.25188228,0
-1.3097104,-1.6175489,4.6757097,-0.10136764,-0.46162531,0.88126427,0
1.5753515,0.72109586,-2.6225765,0.92719233,0.27725416,0.25188228,0
0.39391828,-2.6021953,-1.6634989,0.36060935,-0.8426342,-0.39991075,0
0.031308889,4.4774117,-1.9042488,-0.36060935,0.8426342,0.39991075,0
-0.1303575,3.1931043,0.65608042,-0.36060935,0.8426342,0.39991075,0
1.3591044,-2.0307019,-1.997335,0.36060935,-0.8426342,-0.39991075,0
0.078941822,-4.4100246,1.8616757,0.36060935,-0.8426342,-0.39991075,0
-0.091809988,4.7945371,-3.1727455,0.10136764,0.46162531,-0.88126427,0
0.32322621,-3.7257743,3.7592049,-0.10136764,-0.46162531,0.88126427,0
-0.16291308,3.8345823,-3.6837692,0.10136764,0.46162531,-0.88126427,0
1.0204275,-4.2692394,3.5547221,-0.10136764,-0.46162531,0.88126427,0
-1.5998465,1.3145781,0.47201812,-0.92719233,-0.27725416,-0.25188228,0
1.1917223,-1.1058016,0.80050248,0.92719233,0.27725416,0.25188228,0
-1.3196042,2.4356937,1.1796131,-0.36060935,0.8426342,0.39991075,0
-1.177753,-0.88830978,5.0728798,-0.10136764,-0.46162531,0.88126427,0
0.73697579,-0.34716904,-5.770751,0.10136764,0.46162531,-0.88126427,0
-0.071090639,-0.36710203,-3.3043411,-0.92719233,-0.27725416,-0.25188228,0
-0.29749131,3.0100613,-4.1311512,0.10136764,0.46162531,-0.88126427,0
-1.1869397,4.0723534,-3.6770089,0.10136764,0.46162531,-0.88126427,0
-1.3417549,3.5353434,-1.157383,-0.36060935,0.8426342,0.39991075,0
-0.19763589,4.2053986,-1.5375463,-0.36060935,0.8426342,0.39991075,0
1.3515135,0.26264751,-1.2939888,0.92719233,0.27725416,0.25188228,0
-0.26965046,4.7819462,-2.8173003,-0.36060935,0.8426342,0.39991075,0
-1.3151817,-0.86815751,5.0676284,-0.10136764,-0.46162531,0.88126427,0
1.5637833,-2.0764732,0.49937254,0.92719233,0.27725416,0.25188228,0
-0.42226779,2.2865171,2.3030868,-0.36060935,0.8426342,0.39991075,0
-1.0668993,0.96271944,-1.1024888,-0.92719233,-0.27725416,-0.25188228,0
1.2531757,-3.3563464,0.70035279,0.36060935,-0.8426342,-0.39991075,0
1.2468376,-3.7974277,1.6240191,0.36060935,-0.8426342,-0.39991075,0
-0.63236153,2.3301425,-4.2072082,-0.92719233,-0.27725416,-0.25188228,0
0.87455368,-3.995091,1.7048104,0.36060935,-0.8426342,-0.39991075,0
1.2120556,-2.3008478,-1.5607201,0.36060935,-0.8426342,-0.39991075,0
-1.1925232,4.5168762,-3.4448004,0.10136764,0.46162531,-0.88126427,0
-1.6128384,2.4104695,-0.68643737,-0.92719233,-0.27725416,-0.25188228,0
1.7634686,-1.0167711,-3.7691181,0.36060935,-0.8426342,-0.39991075,0
-0.66388524,-3.8562961,3.5772924,-0.10136764,-0.46162531,0.88126427,0
1.8254429,-2.2293029,-1.1583626,0.36060935,-0.8426342,-0.39991075,0
-0.62480903,3.4187682,-3.954711,0.10136764,0.46162531,-0.88126427,0
1.2567458,-3.5825696,3.2873979,0.92719233,0.27725416,0.25188228,0
-0.89216685,3.1991653,-0.043632746,-0.36060935,0.8426342,0.39991075,0
0.53654313,-4.5190129,2.5039504,0.36060935,-0.8426342,-0.39991075,0
1.1551235,-2.3775401,-1.4504621,0.36060935,-0.8426342,-0.39991075,0
0.093847632,-2.6198351,-1.4318393,-0.92719233,-0.27725416,-0.25188228,0
0.5883736,2.6263976,-4.2302256,0.10136764,0.46162531,-0.88126427,0
-0.2075671,3.0292542,-4.1107535,0.10136764,0.46162531,-0.88126427,0
2.1632943,-0.3465783,-4.8207188,0.36060935,-0.8426342,-0.39991075,0
-0.39651775,-4.7343764,2.7007589,-0.92719233,-0.27725416,-0.25188228,0
-0.7517153,1.3628733,-2.7031586,-0.92719233,-0.27725416,-0.25188228,0
1.6485475,1.6228335,-3.884584,0.92719233,0.27725416,0.25188228,0
0.9392764,1.7396448,-4.6543627,0.10136764,0.46162531,-0.88126427,0
-1.0732102,-3.2913449,3.8261433,-0.10136764,-0.46162531,0.88126427,0
0.57788789,2.392889,-4.3537483,0.10136764,0.46162531,-0.88126427,0
1.5370876,-1.289762,-0.26831535,0.92719233,0.27725416,0.25188228,0
-2.0513887,0.21607746,5.196599,-0.36060935,0.8426342,0.39991075,0
0.086423159,3.6048684,-0.31600183,0.92719233,0.27725416,0.25188228,0
-2.2253654,0.0095279962,5.4226847,-0.10136764,-0.46162531,0.88126427,0
-1.0856049,4.1407833,-3.6295075,0.10136764,0.46162531,-0.88126427,0
0.97887945,1.4848242,-4.783288,0.10136764,0.46162531,-0.88126427,0
-0.22594059,2.4921131,-4.3942332,0.10136764,0.46162531,-0.88126427,0
0.08523941,-4.1615753,1.3438576,0.36060935,-0.8426342,-0.39991075,0
0.30886889,2.0546639,0.5715183,0.92719233,0.27725416,0.25188228,0
-0.39003032,-0.42440659,5.4064903,-0.10136764,-0.46162531,0.88126427,0
1.0869274,-3.5298142,0.91594887,0.36060935,-0.8426342,-0.39991075,0
1.5394957,2.173007,-4.3583179,0.10136764,0.46162531,-0.88126427,0
-2.260906,0.078960046,5.2965865,-0.36060935,0.8426342,0.39991075,0
1.4865534,-4.4490871,3.3952649,0.92719233,0.27725416,0.25188228,0
0.39199859,-0.4587177,-4.908154,-0.92719233,-0.27725416,-0.25188228,0
-0.5289737,-2.9804246,1.2577118,-0.92719233,-0.27725416,-0.25188228,0
2.1079664,-0.26832354,-3.4940784,0.92719233,0.27725416,0.25188228,0
-0.79347229,4.4421196,-3.4380584,0.10136764,0.46162531,-0.88126427,0
-0.26687795,-1.868196,-0.93133926,-0.92719233,-0.27725416,-0.25188228,0
0.93079901,-1.007175,1.6524146,0.92719233,0.27725416,0.25188228,0
0.16590369,-1.5225364,-2.9049101,-0.92719233,-0.27725416,-0.25188228,0
-0.7433691,-3.4340076,2.5461841,-0.92719233,-0.27725416,-0.25188228,0
-0.43399215,4.7906318,-2.9837923,-0.36060935,0.8426342,0.39991075,0
-0.19153929,4.915453,-3.028173,-0.36060935,0.8426342,0.39991075,0
1.5538712,-4.1437349,2.8113542,0.92719233,0.27725416,0.25188228,0
-1.4198557,-0.70628464,2.0338848,-0.92719233,-0.27725416,-0.25188228,0
-1.5299312,1.8612472,2.2003465,-0.36060935,0.8426342,0.39991075,0
-1.3382068,1.6700677,2.7760544,-0.36060935,0.8426342,0.39991075,0
-0.73115766,-1.8351948,4.6282506,-0.10136764,-0.46162531,0.88126427,0
-0.63769531,-4.0709481,3.4678655,-0.10136764,-0.46162531,0.88126427,0
-2.206079,-0.74070275,4.9659009,-0.92719233,-0.27725416,-0.25188228,0
0.36813855,3.9131076,-3.5815516,0.10136764,0.46162531,-0.88126427,0
0.76772392,-1.9713955,-2.6555588,0.36060935,-0.8426342,-0.39991075,0
1.1029549,-0.62571967,-5.1886864,0.36060935,-0.8426342,-0.39991075,0
0.91670263,3.4561889,-3.2086506,0.92719233,0.27725416,0.25188228,0
0.11275518,2.8706486,-4.1569896,0.10136764,0.46162531,-0.88126427,0
0.09046945,0.46838427,3.1215227,0.92719233,0.27725416,0.25188228,0
-1.1437153,2.2312789,-2.2160649,-0.92719233,-0.27725416,-0.25188228,0
-0.7995398,-1.4039925,0.51845539,-0.92719233,-0.27725416,-0.25188228,0
-0.71764934,-2.2023318,4.4374905,-0.10136764,-0.46162531,0.88126427,0
-2.054657,1.9725692,1.4926269,-0.36060935,0.8426342,0.39991075,0
1.473109,-3.5866537,1.3839424,0.36060935,-0.8426342,-0.39991075,0
-0.40770125,4.7964282,-2.9722996,-0.36060935,0.8426342,0.39991075,0
1.0395226,-1.6429651,-3.1024921,0.36060935,-0.8426342,-0.39991075,0
-1.1599699,-0.4130947,5.323853,-0.10136764,-0.46162531,0.88126427,0
-0.93827605,0.6033262,5.3843651,-0.36060935,0.8426342,0.39991075,0
0.92790985,-1.2272273,-4.0791187,0.36060935,-0.8426342,-0.39991075,0
-1.4251587,2.6263387,0.68273205,-0.36060935,0.8426342,0.39991075,0
-1.34692,4.5280437,-3.4567101,0.10136764,0.46162531,-0.88126427,0
-0.01229763,3.7085581,-3.7324591,0.10136764,0.46162531,-0.88126427,0
1.0666912,-2.736177,-0.77453601,0.36060935,-0.8426342,-0.39991075,0
0.9889093,0.72836715,-5.1783829,0.10136764,0.46162531,-0.88126427,0
0.35110781,0.27133942,-5.4911475,0.10136764,0.46162531,-0.88126427,0
0.50470597,2.1567698,-0.26176015,0.92719233,0.27725416,0.25188228,0
1.3567884,-0.76645219,-0.18064617,0.92719233,0.27725416,0.25188228,0
-0.44001675,3.7018471,-3.7851725,0.10136764,0.46162531,-0.88126427,0
0.062731504,1.746845,1.8163886,0.92719233,0.27725416,0.25188228,0
1.8848478,0.88759559,-4.99192,0.10136764,0.46162531,-0.88126427,0
1.6876618,1.4144889,-4.7386036,0.10136764,0.46162531,-0.88126427,0
0.74917006,3.4250026,-2.5576265,0.92719233,0.27725416,0.25188228,0
