-1.2149148,0.71509814,-1.164268,-0.94773334,-0.31294966,-0.062163204,0
0.47894263,-0.70763648,-3.5951216,-0.12931585,0.55486387,-0.82182944,0
1.75685,-3.7365184,-1.9552343,0.29168329,-0.77083647,-0.5663321,0
-0.43712679,-1.391903,-2.4150186,-0.94773334,-0.31294966,-0.062163204,0
0.45501584,1.6454912,0.86563694,0.94773334,0.31294966,0.062163204,0
0.19831467,-3.3948941,0.71870315,0.12931585,-0.55486387,0.82182944,0
-0.11327016,1.8501813,4.3089795,0.12931585,-0.55486387,0.82182944,0
-0.83950841,-0.12626982,-2.6519575,-0.94773334,-0.31294966,-0.062163204,0
-0.051405206,2.6048274,3.7568717,0.94773334,0.31294966,0.062163204,0
0.647542,-2.835644,-3.7527537,0.29168329,-0.77083647,-0.5663321,0
-1.6412868,4.3918133,1.1228304,-0.29168329,0.77083647,0.5663321,0
2.0400181,-2.4319298,-2.7720823,0.94773334,0.31294966,0.062163204,0
1.4225049,-1.707522,1.6653165,0.12931585,-0.55486387,0.82182944,0
-0.99734879,5.0396519,0.57270861,-0.29168329,0.77083647,0.5663321,0
0.01615119,3.019433,-1.0059447,-0.12931585,0.55486387,-0.82182944,0
-1.50573,3.3367944,2.6286364,-0.29168329,0.77083647,0.5663321,0
-1.8998004,3.8869123,1.6769075,-0.29168329,0.77083647,0.5663321,0
0.51697695,1.3672546,1.3217169,0.94773334,0.31294966,0.062163204,0
0.13225794,1.3313277,3.9200382,0.12931585,-0.55486387,0.82182944,0
0.35351562,2.2490795,-0.62555671,0.94773334,0.31294966,0.062163204,0
-1.3046083,3.5477927,2.4450314,-0.29168329,0.77083647,0.5663321,0
0.87477899,-4.1701593,0.088835001,0.12931585,-0.55486387,0.82182944,0
1.2430861,-0.73803598,-3.7358851,-0.12931585,0.55486387,-0.82182944,0
-0.098279715,-1.2517927,-3.871686,-0.12931585,0.55486387,-0.82182944,0
0.48373508,-3.6482558,0.50273299,0.12931585,-0.55486387,0.82182944,0
-1.4025458,0.85690749,0.98241973,-0.94773334,-0.31294966,-0.062163204,0
1.3376211,-0.86467385,0.046513289,0.94773334,0.31294966,0.062163204,0
-1.691402,2.4084821,3.7965364,-0.29168329,0.77083647,0.5663321,0
-1.9445978,2.1741221,2.6152031,-0.94773334,-0.31294966,-0.062163204,0
0.82688129,-3.6363358,-2.5705633,0.29168329,-0.77083647,-0.5663321,0
-0.30402553,-2.1345272,-0.70565319,-0.94773334,-0.31294966,-0.062163204,0
0.95967197,-4.9397793,-0.4441371,0.12931585,-0.55486387,0.82182944,0
1.9503032,-2.5196476,-0.96269763,0.94773334,0.31294966,0.062163204,0
-0.23862797,3.0370142,3.689275,-0.29168329,0.77083647,0.5663321,0
-1.7426646,1.5871381,2.4916184,-0.94773334,-0.31294966,-0.062163204,0
0.94523978,0.39417174,-2.9246006,-0.12931585,0.55486387,-0.82182944,0
-0.076982617,-0.10754251,2.9814992,0.12931585,-0.55486387,0.82182944,0
-0.069711208,3.0869048,1.6090238,0.94773334,0.31294966,0.062163204,0
0.60891509,-0.41525406,-3.418169,-0.12931585,0.55486387,-0.82182944,0
0.59523439,0.47580516,3.2695763,0.12931585,-0.55486387,0.82182944,0
-0.47965533,3.2742991,3.2421675,-0.29168329,0.77083647,0.5663321,0
-0.14843428,1.9391861,4.3746047,0.12931585,-0.55486387,0.82182944,0
1.838105,-2.5312037,0.80604911,0.94773334,0.31294966,0.062163204,0
-1.0806882,2.3760228,4.1552587,-0.29168329,0.77083647,0.5663321,0
-0.84955788,3.732831,-0.38806891,-0.12931585,0.55486387,-0.82182944,0
0.38107347,-3.0116544,-3.6504283,0.29168329,-0.77083647,-0.5663321,0
-0.65444553,0.22241151,-2.7888536,-0.12931585,0.55486387,-0.82182944,0
-2.0203729,2.3657081,2.8059552,-0.94773334,-0.31294966,-0.062163204,0
1.3028506,-0.46378076,-1.441605,0.94773334,0.31294966,0.062163204,0
-1.2998745,4.5599098,1.0698748,-0.29168329,0.77083647,0.5663321,0
0.69539368,-2.6780348,-3.9426308,0.29168329,-0.77083647,-0.5663321,0
-0.43625498,4.026751,-0.25466037,-0.12931585,0.55486387,-0.82182944,0
-1.9424682,2.8249013,3.1004381,-0.29168329,0.77083647,0.5663321,0
-2.4196329,3.8795893,1.2716565,-0.94773334,-0.31294966,-0.062163204,0
1.5868258,-1.6559695,0.23080283,0.94773334,0.31294966,0.062163204,0
1.3580923,-4.3451266,-0.10534501,0.12931585,-0.55486387,0.82182944,0
-0.18727577,1.871951,4.3353224,0.12931585,-0.55486387,0.82182944,0
-0.89616013,3.4970293,2.724493,-0.29168329,0.77083647,0.5663321,0
-2.2012382,3.1421709,1.6544418,-0.94773334,-0.31294966,-0.062163204,0
0.39792061,1.0440676,3.6842902,0.12931585,-0.55486387,0.82182944,0
1.264327,-4.4987073,-1.1714857,0.29168329,-0.77083647,-0.5663321,0
-0.083393693,0.24062431,3.2175751,0.12931585,-0.55486387,0.82182944,0
0.61032385,-1.5831753,-4.2069206,-0.12931585,0.55486387,-0.82182944,0
0.28249037,1.5925932,3.7622514,0.94773334,0.31294966,0.062163204,0
2.3761864,-4.5398293,-0.54286242,0.29168329,-0.77083647,-0.5663321,0
-0.6525563,-0.60999572,2.7328315,0.12931585,-0.55486387,0.82182944,0
-1.8976003,3.3342094,2.430326,-0.29168329,0.77083647,0.5663321,0
0.77942824,-3.0675225,0.84829152,0.12931585,-0.55486387,0.82182944,0
0.49560642,-3.4588704,-2.9827318,0.29168329,-0.77083647,-0.5663321,0
-0.46620369,4.5080705,0.49929953,0.94773334,0.31294966,0.062163204,0
1.9955268,-2.8365242,-3.0572906,0.29168329,-0.77083647,-0.5663321,0
1.1813867,-1.1419326,2.0851178,0.12931585,-0.55486387,0.82182944,0
2.2199821,-3.7219296,-1.7365601,0.29168329,-0.77083647,-0.5663321,0
0.036480427,-2.9587152,-1.7477405,-0.94773334,-0.31294966,-0.062163204,0
0.39698136,-1.033129,-3.8019836,-0.12931585,0.55486387,-0.82182944,0
-0.07531172,2.2205925,4.5530925,0.12931585,-0.55486387,0.82182944,0
-0.46957922,1.3291743,-2.0707042,-0.12931585,0.55486387,-0.82182944,0
1.623704,-1.2240502,-4.1239114,-0.12931585,0.55486387,-0.82182944,0
0.28069925,2.4108286,-0.32970572,0.94773334,0.31294966,0.062163204,0
-0.64792871,2.1142657,-1.5125809,-0.12931585,0.55486387,-0.82182944,0
1.9195361,-2.7450752,0.6412518,0.94773334,0.31294966,0.062163204,0
1.4271538,-2.6062851,1.0577788,0.12931585,-0.55486387,0.82182944,0
1.3699253,-4.696424,-0.84798574,0.29168329,-0.77083647,-0.5663321,0
2.3694391,-3.9271562,-0.26694298,0.94773334,0.31294966,0.062163204,0
-1.8615367,4.4073052,0.98830676,-0.29168329,0.77083647,0.5663321,0
-0.80028725,-0.13116986,3.07936,0.12931585,-0.55486387,0.82182944,0
1.5872835,-1.5112917,-0.50452894,0.94773334,0.31294966,0.062163204,0
-0.6807797,-0.75604701,-1.9014158,-0.94773334,-0.31294966,-0.062163204,0
1.4569511,-3.7277226,0.29594398,0.12931585,-0.55486387,0.82182944,0
0.70849389,-2.4126334,-4.2971225,0.29168329,-0.77083647,-0.5663321,0
-0.033284426,0.17828381,3.1676006,0.12931585,-0.55486387,0.82182944,0
-0.43211389,4.4409952,0.31725335,0.94773334,0.31294966,0.062163204,0
0.68752861,-5.1409488,-0.59440255,0.29168329,-0.77083647,-0.5663321,0
2.3705063,-3.8185511,-0.82996082,0.94773334,0.31294966,0.062163204,0
-1.2873042,4.336421,0.088329077,-0.12931585,0.55486387,-0.82182944,0
0.65407318,-2.5941544,-4.0780826,0.29168329,-0.77083647,-0.5663321,0
2.1472831,-3.0900438,-1.0942748,0.94773334,0.31294966,0.062163204,0
-1.6519904,1.2243577,2.9355636,-0.94773334,-0.31294966,-0.062163204,0
1.6208084,-3.0906861,0.7002604,0.12931585,-0.55486387,0.82182944,0
1.6362057,-1.1141851,-3.2495563,0.94773334,0.31294966,0.062163204,0
-0.81682479,-1.0324913,1.5644259,-0.94773334,-0.31294966,-0.062163204,0
-1.4027867,3.9579382,1.836216,-0.29168329,0.77083647,0.5663321,0
1.3200214,-3.4810643,-2.5279176,0.29168329,-0.77083647,-0.5663321,0
-1.8722637,4.564218,0.76920748,-0.29168329,0.77083647,0.5663321,0
2.1567526,-3.3932252,-2.216526,0.29168329,-0.77083647,-0.5663321,0
-1.0248566,1.6276239,4.3021574,0.12931585,-0.55486387,0.82182944,0
-0.20639729,-2.3030159,-1.3458556,-0.94773334,-0.31294966,-0.062163204,0
-0.82532752,-0.4956882,-1.0083855,-0.94773334,-0.31294966,-0.062163204,0
0.72205615,-0.3607738,2.6847987,0.12931585,-0.55486387,0.82182944,0
0.81072724,0.9752385,-1.1832342,0.94773334,0.31294966,0.062163204,0
0.072710752,2.5497053,-1.331984,-0.12931585,0.55486387,-0.82182944,0
1.4964526,-2.5146146,1.1087666,0.12931585,-0.55486387,0.82182944,0
0.99678135,-4.7498336,-0.96747327,0.29168329,-0.77083647,-0.5663321,0
1.1624792,-4.8344965,-0.76689744,0.29168329,-0.77083647,-0.5663321,0
2.0522575,-3.458499,0.38403964,0.12931585,-0.55486387,0.82182944,0
-1.2517211,0.1116258,3.3143184,0.12931585,-0.55486387,0.82182944,0
0.17536306,-0.55799317,-3.4463205,-0.12931585,0.55486387,-0.82182944,0
-0.33611965,1.2182889,3.917419,0.12931585,-0.55486387,0.82182944,0
-2.5214267,4.3411093,0.73853731,-0.29168329,0.77083647,0.5663321,0
-1.9819657,3.9381247,1.5648839,-0.29168329,0.77083647,0.5663321,0
-2.0700941,2.8488162,1.1318794,-0.94773334,-0.31294966,-0.062163204,0
-0.21425083,2.8534913,3.9516239,-0.29168329,0.77083647,0.5663321,0
0.2279222,-3.7927432,-0.46767282,-0.94773334,-0.31294966,-0.062163204,0
0.87915015,-3.5618501,0.49885106,0.12931585,-0.55486387,0.82182944,0
-0.15189981,-0.47170413,-3.3365664,-0.12931585,0.55486387,-0.82182944,0
-1.0875452,4.8923454,0.72675276,-0.29168329,0.77083647,0.5663321,0
-1.5759573,0.91785729,3.3193941,-0.94773334,-0.31294966,-0.062163204,0
1.2112007,-3.5488369,0.45538878,0.12931585,-0.55486387,0.82182944,0
2.1252041,-3.0564094,-0.92698586,0.94773334,0.31294966,0.062163204,0
0.55819696,-3.2282066,-3.2644525,0.29168329,-0.77083647,-0.5663321,0
0.15654349,-1.2414601,2.1791816,0.12931585,-0.55486387,0.82182944,0
0.70295334,0.50483549,2.8280406,0.94773334,0.31294966,0.062163204,0
-2.2314935,4.3591814,0.86326647,-0.29168329,0.77083647,0.5663321,0
0.99917459,0.20587569,-0.18306069,0.94773334,0.31294966,0.062163204,0
1.4259732,-0.54164207,-2.9267414,0.94773334,0.31294966,0.062163204,0
0.7152034,-0.80776441,-3.6998997,-0.12931585,0.55486387,-0.82182944,0
-0.46488968,-1.3976095,-1.9630179,-0.94773334,-0.31294966,-0.062163204,0
-1.3724461,0.47521275,2.4450979,-0.94773334,-0.31294966,-0.062163204,0
-2.2905831,3.3096879,2.261301,-0.29168329,0.77083647,0.5663321,0
0.2557559,2.5848758,-0.82563448,0.94773334,0.31294966,0.062163204,0
2.1457162,-4.5340838,-0.66938424,0.29168329,-0.77083647,-0.5663321,0
1.7004979,-2.5986185,1.0199438,0.12931585,-0.55486387,0.82182944,0
2.1539266,-4.3291535,-0.94408727,0.29168329,-0.77083647,-0.5663321,0
-0.51769471,2.9866014,-0.94411016,-0.12931585,0.55486387,-0.82182944,0
-0.94522691,1.940655,-1.5830153,-0.12931585,0.55486387,-0.82182944,0
0.47262263,-4.2417083,-1.9290464,0.29168329,-0.77083647,-0.5663321,0
0.41736388,0.043215513,3.0054984,0.12931585,-0.55486387,0.82182944,0
-1.4109175,0.89377499,3.8674417,0.12931585,-0.55486387,0.82182944,0
1.2690239,-2.5854347,-3.7732272,0.29168329,-0.77083647,-0.5663321,0
-0.46897268,0.062471509,-2.9260225,-0.12931585,0.55486387,-0.82182944,0
-0.31008577,0.5158422,-2.6449273,-0.12931585,0.55486387,-0.82182944,0
1.3477887,-1.3851963,1.8946933,0.12931585,-0.55486387,0.82182944,0
-0.88096416,-0.92804831,2.0164905,-0.94773334,-0.31294966,-0.062163204,0
-1.6345279,0.9756707,3.9213026,-0.94773334,-0.31294966,-0.062163204,0
-1.0828574,-0.065169692,0.75052065,-0.94773334,-0.31294966,-0.062163204,0
-1.7108264,1.1837193,4.0371609,-0.94773334,-0.31294966,-0.062163204,0
1.8513446,-2.3900979,-3.7391827,0.29168329,-0.77083647,-0.5663321,0
1.9851062,-2.1628368,-3.9796159,0.29168329,-0.77083647,-0.5663321,0
-1.4774382,3.5182996,-0.4341135,-0.12931585,0.55486387,-0.82182944,0
0.068917274,-0.49324143,2.6981344,0.12931585,-0.55486387,0.82182944,0
-1.1548662,4.7739096,0.85328341,-0.29168329,0.77083647,0.5663321,0
1.645849,-3.0849829,-2.8992107,0.29168329,-0.77083647,-0.5663321,0
-0.66861254,-0.99694437,-0.87415773,-0.94773334,-0.31294966,-0.062163204,0
-1.2251167,4.0806837,1.7606528,-0.29168329,0.77083647,0.5663321,0
0.16599596,2.4354475,1.2951043,0.94773334,0.31294966,0.062163204,0
-0.17029738,3.7535839,-0.48093987,-0.12931585,0.55486387,-0.82182944,0
1.150178,-3.6322675,-2.4095905,0.29168329,-0.77083647,-0.5663321,0
-0.90829706,-0.31333482,-0.66146582,-0.94773334,-0.31294966,-0.062163204,0
0.47919881,-1.2818775,-3.9828649,-0.12931585,0.55486387,-0.82182944,0
1.037231,-0.43756557,2.4760337,0.94773334,0.31294966,0.062163204,0
0.7595284,1.102731,-1.0445024,0.94773334,0.31294966,0.062163204,0
0.59042883,-4.4540944,-0.058122873,0.12931585,-0.55486387,0.82182944,0
-1.3443856,0.7570768,0.59829545,-0.94773334,-0.31294966,-0.062163204,0
1.485636,-2.8204157,-3.3418298,0.29168329,-0.77083647,-0.5663321,0
0.39798895,-2.998162,-3.66008,0.29168329,-0.77083647,-0.5663321,0
-0.5365659,1.471024,4.1195951,0.12931585,-0.55486387,0.82182944,0
-1.3455856,4.7855501,0.73921204,-0.29168329,0.77083647,0.5663321,0
-1.7396419,4.5350499,0.2936101,-0.12931585,0.55486387,-0.82182944,0
0.92559302,0.1458776,1.2408061,0.94773334,0.31294966,0.062163204,0
0.55302298,1.6681685,-0.74273497,0.94773334,0.31294966,0.062163204,0
-1.3066034,4.7339802,0.8294816,-0.29168329,0.77083647,0.5663321,0
0.60528672,-0.088725984,-3.1971405,-0.12931585,0.55486387,-0.82182944,0
-1.5577117,1.9625795,4.4723115,-0.29168329,0.77083647,0.5663321,0
0.45982218,1.56706,-2.0563362,-0.12931585,0.55486387,-0.82182944,0
1.7466469,-3.128418,-2.7881765,0.29168329,-0.77083647,-0.5663321,0
0.83443171,-2.6831861,-3.8640099,0.29168329,-0.77083647,-0.5663321,0
-1.4154117,1.3091054,-1.0979409,-0.94773334,-0.31294966,-0.062163204,0
1.8869877,-3.2577448,-2.5398686,0.29168329,-0.77083647,-0.5663321,0
0.1543541,-1.577014,1.9529743,0.12931585,-0.55486387,0.82182944,0
-1.1090722,4.5600295,1.1679826,-0.29168329,0.77083647,0.5663321,0
-0.25799435,-1.968129,-2.245142,-0.94773334,-0.31294966,-0.062163204,0
0.5745132,1.8064194,-1.7663729,0.94773334,0.31294966,0.062163204,0
-0.24119282,1.7883458,-1.796628,-0.12931585,0.55486387,-0.82182944,0
1.0624859,-3.6985447,-2.3645449,0.29168329,-0.77083647,-0.5663321,0
-0.99959946,4.6249108,1.136055,-0.29168329,0.77083647,0.5663321,0
2.2225595,-4.4245157,-0.29497004,0.12931585,-0.55486387,0.82182944,0
-0.41755998,1.4337664,4.0757141,0.12931585,-0.55486387,0.82182944,0
-0.84007525,0.43563569,-2.6156847,-0.12931585,0.55486387,-0.82182944,0
1.7179689,-4.7284336,-0.42076445,0.12931585,-0.55486387,0.82182944,0
-1.8987803,2.2292755,1.639014,-0.94773334,-0.31294966,-0.062163204,0
1.1120251,-0.44778466,1.3871734,0.94773334,0.31294966,0.062163204,0
-0.73260057,-1.1877218,1.0618312,-0.94773334,-0.31294966,-0.062163204,0
-0.049682617,2.9523387,1.9811225,0.94773334,0.31294966,0.062163204,0
0.60688734,-2.6212647,1.1767347,0.12931585,-0.55486387,0.82182944,0
2.002634,-2.8386064,-0.15478384,0.94773334,0.31294966,0.062163204,0
1.3235848,-2.0316408,-4.4988966,0.29168329,-0.77083647,-0.5663321,0
1.0116426,-3.7311063,-2.3464119,0.29168329,-0.77083647,-0.5663321,0
-0.55592084,2.0017145,-1.6030481,-0.12931585,0.55486387,-0.82182944,0
0.44496202,-2.0470495,-4.4940886,-0.12931585,0.55486387,-0.82182944,0
-0.43062258,1.777505,-1.7741404,-0.12931585,0.55486387,-0.82182944,0
-0.95319152,3.1154358,-0.7886008,-0.12931585,0.55486387,-0.82182944,0
-2.3118434,3.7210336,1.6904674,-0.29168329,0.77083647,0.5663321,0
0.55810261,-1.5905781,1.8802863,0.12931585,-0.55486387,0.82182944,0
0.10101521,-2.8660319,-3.1982312,-0.94773334,-0.31294966,-0.062163204,0
1.6267236,-1.3399177,-1.9685832,0.94773334,0.31294966,0.062163204,0
1.5876961,-1.0849643,-2.6570916,0.94773334,0.31294966,0.062163204,0
0.30650163,2.485136,-1.0971833,0.94773334,0.31294966,0.062163204,0
1.5590935,-0.84833992,-3.8600814,-0.12931585,0.55486387,-0.82182944,0
-0.044645667,2.9137747,2.0984747,0.94773334,0.31294966,0.062163204,0
-0.83493245,0.15776443,-2.8041005,-0.12931585,0.55486387,-0.82182944,0
0.15582302,2.1843719,2.7141976,0.94773334,0.31294966,0.062163204,0
-1.1697618,2.4381809,4.0247784,-0.29168329,0.77083647,0.5663321,0
-1.5196755,4.6888614,0.36284518,-0.12931585,0.55486387,-0.82182944,0
-1.7742381,3.884491,1.744873,-0.29168329,0.77083647,0.5663321,0
1.6139053,-1.7298961,0.19012219,0.94773334,0.31294966,0.062163204,0
-0.82811928,5.0095539,0.70083451,-0.29168329,0.77083647,0.5663321,0
2.5045357,-4.5099545,-0.51742077,0.29168329,-0.77083647,-0.5663321,0
1.0245821,-4.6762986,-0.27645993,0.12931585,-0.55486387,0.82182944,0
-1.0939335,2.2812922,4.2773743,-0.29168329,0.77083647,0.5663321,0
-1.2415303,3.2814522,2.8400357,-0.29168329,0.77083647,0.5663321,0
0.89068866,-4.100852,-1.9054463,0.29168329,-0.77083647,-0.5663321,0
-0.46594954,4.5697622,0.18484545,0.94773334,0.31294966,0.062163204,0
1.1611426,-0.14104116,-0.90591425,0.94773334,0.31294966,0.062163204,0
1.9238006,-2.0729549,-2.8074398,0.94773334,0.31294966,0.062163204,0
-1.1690114,4.4426508,1.2968757,-0.29168329,0.77083647,0.5663321,0
1.751744,-2.1878042,0.39390719,0.94773334,0.31294966,0.062163204,0
-1.0459177,4.0726919,1.8638258,-0.29168329,0.77083647,0.5663321,0
0.0051936507,-2.4774582,-3.6935496,-0.94773334,-0.31294966,-0.062163204,0
1.3487189,-0.92008835,-3.8754203,-0.12931585,0.55486387,-0.82182944,0
1.3212619,-4.0585289,-1.7412896,0.29168329,-0.77083647,-0.5663321,0
0.33669466,-2.7688413,-4.0037785,0.29168329,-0.77083647,-0.5663321,0
-0.19094056,1.4628379,4.0596838,0.12931585,-0.55486387,0.82182944,0
-1.0846783,2.5771384,3.8794641,-0.29168329,0.77083647,0.5663321,0
0.17823482,-3.7243252,-0.054583549,-0.94773334,-0.31294966,-0.062163204,0
-1.2913221,1.8405423,4.4878392,0.12931585,-0.55486387,0.82182944,0
0.48126096,-1.2421713,-3.9563811,-0.12931585,0.55486387,-0.82182944,0
-0.62211573,0.655343,3.5823438,0.12931585,-0.55486387,0.82182944,0
-1.6355834,3.6832833,2.0901501,-0.29168329,0.77083647,0.5663321,0
-1.9219025,3.8142154,1.764472,-0.29168329,0.77083647,0.5663321,0
0.34327269,-3.9517994,-1.4255588,-0.94773334,-0.31294966,-0.062163204,0
0.62831783,-4.060998,-2.0948231,0.29168329,-0.77083647,-0.5663321,0
-0.46308658,2.9926295,3.6340823,-0.29168329,0.77083647,0.5663321,0
1.6928065,-2.3817792,1.1675546,0.12931585,-0.55486387,0.82182944,0
-0.51583552,-1.758034,0.62819123,-0.94773334,-0.31294966,-0.062163204,0
-0.52217591,3.6676102,2.684931,-0.29168329,0.77083647,0.5663321,0
0.036221027,2.9058752,-1.0857723,-0.12931585,0.55486387,-0.82182944,0
-0.50000095,-0.54192257,-3.329201,-0.12931585,0.55486387,-0.82182944,0
-1.6474686,1.0982401,3.5015419,-0.94773334,-0.31294966,-0.062163204,0
0.93869495,0.13214886,1.1101735,0.94773334,0.31294966,0.062163204,0
-1.5138812,3.6291435,-0.35354209,-0.12931585,0.55486387,-0.82182944,0
0.92695737,-3.4116435,0.59274185,0.12931585,-0.55486387,0.82182944,0
1.4561009,-3.7501216,-2.0916162,0.29168329,-0.77083647,-0.5663321,0
1.1094472,-1.1584125,2.0853112,0.12931585,-0.55486387,0.82182944,0
1.0537517,-4.206706,-1.6773829,0.29168329,-0.77083647,-0.5663321,0
0.86288047,-3.6264639,0.45778704,0.12931585,-0.55486387,0.82182944,0
0.047236919,-3.4128046,0.7303828,0.12931585,-0.55486387,0.82182944,0
-0.6767844,3.566926,2.7423429,-0.29168329,0.77083647,0.5663321,0
0.48578906,-3.1575031,0.83374465,0.12931585,-0.55486387,0.82182944,0
1.0768456,-3.107193,-3.1620395,0.29168329,-0.77083647,-0.5663321,0
1.9349204,-3.8153148,-1.7562714,0.29168329,-0.77083647,-0.5663321,0
-1.4689941,0.57879347,3.3956044,-0.94773334,-0.31294966,-0.062163204,0
0.77547693,-3.5727358,0.50781488,0.12931585,-0.55486387,0.82182944,0
1.5300874,-1.2839211,-0.77718139,0.94773334,0.31294966,0.062163204,0
-0.5725975,1.8758184,-1.6854236,-0.12931585,0.55486387,-0.82182944,0
1.9994624,-2.9775419,0.59301889,0.94773334,0.31294966,0.062163204,0
1.6533134,-1.4444166,-1.8478847,0.94773334,0.31294966,0.062163204,0
-1.8659315,4.3627157,1.0467343,-0.29168329,0.77083647,0.5663321,0
0.7943449,-1.9576566,1.5952777,0.12931585,-0.55486387,0.82182944,0
0.33927,-1.874522,-4.3609748,-0.12931585,0.55486387,-0.82182944,0
-0.73813581,-0.6466912,-1.5775026,-0.94773334,-0.31294966,-0.062163204,0
1.4879118,-3.4623137,-2.4669685,0.29168329,-0.77083647,-0.5663321,0
2.043066,-2.6094069,-1.9250754,0.94773334,0.31294966,0.062163204,0
0.9704107,-2.3058321,-4.3075924,0.29168329,-0.77083647,-0.5663321,0
0.75217772,-4.6400642,-0.20913291,0.12931585,-0.55486387,0.82182944,0
0.11711884,-3.0884304,-2.32412,-0.94773334,-0.31294966,-0.062163204,0
0.53246665,1.2895544,1.4767337,0.94773334,0.31294966,0.062163204,0
-1.0626773,-0.02079916,0.21947981,-0.94773334,-0.31294966,-0.062163204,0
-1.9534392,4.1797523,0.087370157,-0.12931585,0.55486387,-0.82182944,0
-1.3397554,0.5259611,1.6912169,-0.94773334,-0.31294966,-0.062163204,0
0.70440602,-2.0300233,1.5605707,0.12931585,-0.55486387,0.82182944,0
-2.1442699,3.1585534,0.70343089,-0.94773334,-0.31294966,-0.062163204,0
-1.3389363,4.8231249,0.69149303,-0.29168329,0.77083647,0.5663321,0
1.8340014,-3.8257732,-1.7940133,0.29168329,-0.77083647,-0.5663321,0
-0.34645379,-1.2626821,-3.8399875,-0.12931585,0.55486387,-0.82182944,0
-0.29728556,2.9386134,-1.011191,-0.12931585,0.55486387,-0.82182944,0
0.4621312,-1.5977507,-4.1934428,-0.12931585,0.55486387,-0.82182944,0
1.2919872,-4.0233583,-1.8042383,0.29168329,-0.77083647,-0.5663321,0
1.5202831,-2.9789836,-3.1081586,0.29168329,-0.77083647,-0.5663321,0
0.617212,1.0502971,1.3892115,0.94773334,0.31294966,0.062163204,0
1.394948,-1.2240435,-4.0879116,-0.12931585,0.55486387,-0.82182944,0
-0.32627809,1.3879623,4.0304265,0.12931585,-0.55486387,0.82182944,0
-2.2014368,4.3109784,0.94435525,-0.29168329,0.77083647,0.5663321,0
-0.084928393,-2.5534244,-1.9371217,-0.94773334,-0.31294966,-0.062163204,0
-0.78458619,4.3279023,1.6510541,-0.29168329,0.77083647,0.5663321,0
1.2716297,-2.029593,-4.5284429,0.29168329,-0.77083647,-0.5663321,0
2.3261924,-3.5125163,-1.6950424,0.94773334,0.31294966,0.062163204,0
-0.90515697,3.1766782,3.1558895,-0.29168329,0.77083647,0.5663321,0
-2.4918985,4.3708229,0.71330214,-0.29168329,0.77083647,0.5663321,0
0.84992743,-2.4074402,1.2828574,0.12931585,-0.55486387,0.82182944,0
1.2193655,-3.1087403,-3.0865307,0.29168329,-0.77083647,-0.5663321,0
-1.6039515,1.1324955,2.6656313,-0.94773334,-0.31294966,-0.062163204,0
0.80271459,-3.0051208,-3.4421587,0.29168329,-0.77083647,-0.5663321,0
-0.28344655,-2.0127211,-1.6326095,-0.94773334,-0.31294966,-0.062163204,0
-1.231061,1.7150402,4.3936238,0.12931585,-0.55486387,0.82182944,0
-2.4289522,4.0980625,0.3138752,-0.94773334,-0.31294966,-0.062163204,0
-1.1837761,4.8595853,0.7217803,-0.29168329,0.77083647,0.5663321,0
0.22971654,2.6259291,-1.3052266,-0.12931585,0.55486387,-0.82182944,0
-1.5465657,3.8808601,1.867075,-0.29168329,0.77083647,0.5663321,0
0.26410282,-3.3566318,-3.2148092,-0.94773334,-0.31294966,-0.062163204,0
-0.27625966,2.4364104,-1.3535655,-0.12931585,0.55486387,-0.82182944,0
0.30455822,1.5087894,3.8476992,0.94773334,0.31294966,0.062163204,0
1.0800759,-3.1105723,-3.1557765,0.29168329,-0.77083647,-0.5663321,0
2.2792621,-4.334806,-0.87184048,0.29168329,-0.77083647,-0.5663321,0
-1.8894545,2.4135876,0.56894314,-0.94773334,-0.31294966,-0.062163204,0
-1.6470671,1.5206432,1.3689032,-0.94773334,-0.31294966,-0.062163204,0
-1.1029997,2.8546302,-0.941113,-0.12931585,0.55486387,-0.82182944,0
0.15686655,2.6600666,0.30348396,0.94773334,0.31294966,0.062163204,0
1.6782963,-4.2114034,-1.3493254,0.29168329,-0.77083647,-0.5663321,0
2.0161269,-2.3447807,-2.8465779,0.94773334,0.31294966,0.062163204,0
0.18021584,0.35508364,-2.8306141,-0.12931585,0.55486387,-0.82182944,0
-1.2301123,4.2222352,1.565414,-0.29168329,0.77083647,0.5663321,0
0.2645247,-2.1714005,-4.5496531,-0.12931585,0.55486387,-0.82182944,0
1.8318547,-1.8472549,-2.5418899,0.94773334,0.31294966,0.062163204,0
-1.9903389,2.6651676,0.84047961,-0.94773334,-0.31294966,-0.062163204,0
-0.29173601,0.08650732,-2.9376831,-0.12931585,0.55486387,-0.82182944,0
-0.31160307,3.8247318,1.5824199,0.94773334,0.31294966,0.062163204,0
0.21601534,2.6802716,-0.70000815,0.94773334,0.31294966,0.062163204,0
-2.1492629,3.1572473,0.78613734,-0.94773334,-0.31294966,-0.062163204,0
0.10021663,1.8787318,-1.7893245,-0.12931585,0.55486387,-0.82182944,0
-2.3443785,3.5858417,1.8577204,-0.29168329,0.77083647,0.5663321,0
-1.7103611,1.9419396,0.21293604,-0.94773334,-0.31294966,-0.062163204,0
-0.86111712,1.9196467,-1.6104336,-0.12931585,0.55486387,-0.82182944,0
1.6001334,-2.8665819,0.85481894,0.12931585,-0.55486387,0.82182944,0
-0.46505308,4.3609428,1.2224505,0.94773334,0.31294966,0.062163204,0
-0.28825068,2.8153751,-1.0958177,-0.12931585,0.55486387,-0.82182944,0
0.18348384,0.41446447,-2.7910368,-0.12931585,0.55486387,-0.82182944,0
-0.76923746,3.2322867,3.1502051,-0.29168329,0.77083647,0.5663321,0
2.4939523,-4.4874148,-0.55355096,0.29168329,-0.77083647,-0.5663321,0
-0.58452702,2.5195098,4.2155004,-0.29168329,0.77083647,0.5663321,0
-1.9054649,2.4658744,3.6081686,-0.29168329,0.77083647,0.5663321,0
-1.6905105,3.9545455,1.6926446,-0.29168329,0.77083647,0.5663321,0
1.4719093,-1.0164351,-1.2368132,0.94773334,0.31294966,0.062163204,0
0.60384297,-1.6758256,1.8155336,0.12931585,-0.55486387,0.82182944,0
-0.77286601,3.3761301,2.9525504,-0.29168329,0.77083647,0.5663321,0
0.2228229,1.3825517,-2.1436162,-0.12931585,0.55486387,-0.82182944,0
-2.0352359,2.9674087,2.8586917,-0.29168329,0.77083647,0.5663321,0
-0.89130712,3.6577301,2.5082617,-0.29168329,0.77083647,0.5663321,0
1.8200395,-3.8992996,-1.7011271,0.29168329,-0.77083647,-0.5663321,0
-1.4330604,4.8406925,0.61910391,-0.29168329,0.77083647,0.5663321,0
1.2621801,-4.410955,-1.2920315,0.29168329,-0.77083647,-0.5663321,0
0.29507685,0.31621033,-2.8749328,-0.12931585,0.55486387,-0.82182944,0
-1.8688152,1.9560761,2.557544,-0.94773334,-0.31294966,-0.062163204,0
1.4288495,-2.292017,-4.0902824,0.29168329,-0.77083647,-0.5663321,0
0.78718716,-3.124238,-3.2880249,0.29168329,-0.77083647,-0.5663321,0
-0.76118112,1.8661649,4.4217205,0.12931585,-0.55486387,0.82182944,0
-1.3149438,4.5754418,1.040972,-0.29168329,0.77083647,0.5663321,0
0.46447355,-3.2588639,-3.2709956,0.29168329,-0.77083647,-0.5663321,0
0.72015071,-3.6651781,0.45410752,0.12931585,-0.55486387,0.82182944,0
1.6299362,-1.1597283,-2.9246919,0.94773334,0.31294966,0.062163204,0
-0.34039211,-2.2874031,0.61841679,-0.94773334,-0.31294966,-0.062163204,0
-1.5511928,1.1770864,1.6367915,-0.94773334,-0.31294966,-0.062163204,0
0.24703288,-3.7050402,-1.2005587,-0.94773334,-0.31294966,-0.062163204,0
-0.27724874,3.4919095,2.7341943,0.94773334,0.31294966,0.062163204,0
0.75077009,-0.048121214,2.8913698,0.12931585,-0.55486387,0.82182944,0
-0.038207054,-1.7595104,-4.2239275,-0.12931585,0.55486387,-0.82182944,0
-0.095062017,2.8170993,3.3538134,0.94773334,0.31294966,0.062163204,0
-1.5480442,3.4334288,2.4753132,-0.29168329,0.77083647,0.5663321,0
-0.70499599,2.2849066,4.4727736,-0.29168329,0.77083647,0.5663321,0
0.56731415,-4.0584888,0.21261001,0.12931585,-0.55486387,0.82182944,0
-0.66648364,2.4421294,4.2786121,-0.29168329,0.77083647,0.5663321,0
0.13016677,2.9452038,-0.72492361,0.94773334,0.31294966,0.062163204,0
-0.90083742,4.9597225,0.44834399,-0.12931585,0.55486387,-0.82182944,0
-0.99415308,2.7377787,3.7074406,-0.29168329,0.77083647,0.5663321,0
1.2602307,-3.1510262,-3.0079274,0.29168329,-0.77083647,-0.5663321,0
-0.51879382,0.65202308,-2.520143,-0.12931585,0.55486387,-0.82182944,0
-1.3492918,2.4367929,-1.184464,-0.12931585,0.55486387,-0.82182944,0
2.0626986,-3.9905126,-1.451998,0.29168329,-0.77083647,-0.5663321,0
-0.28832096,-1.9686995,-1.7799162,-0.94773334,-0.31294966,-0.062163204,0
2.2793272,-3.6196008,-0.44144273,0.94773334,0.31294966,0.062163204,0
-0.89131117,4.5225201,1.3311913,-0.29168329,0.77083647,0.5663321,0
-0.16866353,-1.9942122,-3.4757595,-0.94773334,-0.31294966,-0.062163204,0
1.6797968,-2.8794031,-3.1615419,0.29168329,-0.77083647,-0.5663321,0
1.3262348,-3.2906594,-2.7838776,0.29168329,-0.77083647,-0.5663321,0
2.1380224,-3.3765249,-2.2489038,0.29168329,-0.77083647,-0.5663321,0
-2.0295942,3.2215946,-0.5475533,-0.12931585,0.55486387,-0.82182944,0
-1.2769647,0.65776622,0.070362896,-0.94773334,-0.31294966,-0.062163204,0
-1.6388125,1.1613431,3.0518923,-0.94773334,-0.31294966,-0.062163204,0
0.77452087,-1.8143939,1.6951221,0.12931585,-0.55486387,0.82182944,0
-1.6410155,4.5443506,0.91535115,-0.29168329,0.77083647,0.5663321,0
-0.057959318,0.25902247,-2.8579931,-0.12931585,0.55486387,-0.82182944,0
1.0085204,-3.5133085,0.5112679,0.12931585,-0.55486387,0.82182944,0
-1.7112603,1.4262365,2.8228617,-0.94773334,-0.31294966,-0.062163204,0
-0.86035073,0.53354371,-2.546391,-0.12931585,0.55486387,-0.82182944,0
-2.3021183,4.6228409,0.46802378,-0.29168329,0.77083647,0.5663321,0
-0.6833334,0.83769846,3.715095,0.12931585,-0.55486387,0.82182944,0
0.3894074,-1.9730974,1.6485703,0.12931585,-0.55486387,0.82182944,0
-1.3226531,2.708292,3.5783844,-0.29168329,0.77083647,0.5663321,0
0.69899082,-4.8297281,-1.0121024,0.29168329,-0.77083647,-0.5663321,0
-1.7906426,2.434731,3.7096963,-0.29168329,0.77083647,0.5663321,0
0.72164798,-1.817425,1.7013949,0.12931585,-0.55486387,0.82182944,0
-2.0593705,4.5909176,0.38163996,-0.12931585,0.55486387,-0.82182944,0
2.0210721,-4.0782752,-1.3539834,0.29168329,-0.77083647,-0.5663321,0
1.7355758,-2.0067396,-4.3205981,0.29168329,-0.77083647,-0.5663321,0
1.3519192,-1.0137383,-3.939152,-0.12931585,0.55486387,-0.82182944,0
-1.6397521,3.1318164,2.8386056,-0.29168329,0.77083647,0.5663321,0
0.8968091,-2.9793773,0.88933325,0.12931585,-0.55486387,0.82182944,0
-0.80566204,-1.0017521,1.2394893,-0.94773334,-0.31294966,-0.062163204,0
0.44778025,1.8930326,-0.27025664,0.94773334,0.31294966,0.062163204,0
-0.071144104,3.225126,0.93502355,0.94773334,0.31294966,0.062163204,0
-0.041556358,-3.0196278,-0.25134492,-0.94773334,-0.31294966,-0.062163204,0
-1.9190869,1.9321796,4.3275666,-0.29168329,0.77083647,0.5663321,0
2.0215948,-2.954628,0.14022875,0.94773334,0.31294966,0.062163204,0
0.34690714,-4.2449379,0.12140894,0.12931585,-0.55486387,0.82182944,0
0.63456881,-0.066155016,-3.1865091,-0.12931585,0.55486387,-0.82182944,0
-0.1442287,-0.0068870783,3.0600386,0.12931585,-0.55486387,0.82182944,0
1.1453967,-3.3771846,0.58163536,0.12931585,-0.55486387,0.82182944,0
-1.4013226,4.5838385,0.98505497,-0.29168329,0.77083647,0.5663321,0
1.706485,-2.1728797,-4.109447,0.29168329,-0.77083647,-0.5663321,0
0.39201847,-2.7170794,-4.0457373,0.29168329,-0.77083647,-0.5663321,0
1.1259582,-4.4590383,-0.14572668,0.12931585,-0.55486387,0.82182944,0
1.6652451,-1.1441019,-3.5416756,0.94773334,0.31294966,0.062163204,0
1.0900041,-0.31608325,-3.426913,-0.12931585,0.55486387,-0.82182944,0
1.630203,-1.3954381,-1.7421209,0.94773334,0.31294966,0.062163204,0
-1.1466526,2.5228171,3.9214816,-0.29168329,0.77083647,0.5663321,0
2.0241127,-2.1513705,-3.9751329,0.29168329,-0.77083647,-0.5663321,0
-1.0968028,2.8177028,3.5457869,-0.29168329,0.77083647,0.5663321,0
-0.83367646,-0.16049933,-2.5685482,-0.94773334,-0.31294966,-0.062163204,0
-0.57230371,2.5537047,4.1752529,-0.29168329,0.77083647,0.5663321,0
-0.82227993,4.9110451,0.83792281,-0.29168329,0.77083647,0.5663321,0
-1.1723464,3.1660154,-0.71996689,-0.12931585,0.55486387,-0.82182944,0
1.0027304,-3.6804471,-2.4199543,0.29168329,-0.77083647,-0.5663321,0
-1.7919849,2.7631612,3.2619777,-0.29168329,0.77083647,0.5663321,0
-1.0418081,3.1413708,3.1335659,-0.29168329,0.77083647,0.5663321,0
-0.576653,1.8482331,-1.7034099,-0.12931585,0.55486387,-0.82182944,0
-0.42103934,-2.1630039,1.6478783,0.12931585,-0.55486387,0.82182944,0
0.51900136,0.16287398,3.0702939,0.12931585,-0.55486387,0.82182944,0
-0.60910344,2.2001362,-1.4607141,-0.12931585,0.55486387,-0.82182944,0
-1.393232,0.61136127,2.0765822,-0.94773334,-0.31294966,-0.062163204,0
0.49107444,-0.10865927,2.8913608,0.12931585,-0.55486387,0.82182944,0
-1.1360517,4.9953923,0.56151271,-0.29168329,0.77083647,0.5663321,0
-0.89266872,-0.20730983,3.0424895,0.12931585,-0.55486387,0.82182944,0
-0.63156462,4.7557974,1.1474574,-0.29168329,0.77083647,0.5663321,0
1.8168159,-4.5808344,-0.77514887,0.29168329,-0.77083647,-0.5663321,0
-1.4304919,4.2755795,0.069782019,-0.12931585,0.55486387,-0.82182944,0
0.56806576,-3.8102427,-2.4671583,0.29168329,-0.77083647,-0.5663321,0
1.0245876,-1.782355,-4.4065828,-0.12931585,0.55486387,-0.82182944,0
-1.0780334,1.3456832,-1.9638169,-0.12931585,0.55486387,-0.82182944,0
0.67137975,-3.2504268,-3.1759143,0.29168329,-0.77083647,-0.5663321,0
-1.9120176,4.6368103,0.38943839,-0.12931585,0.55486387,-0.82182944,0
-1.4696789,1.7282487,4.4400887,0.12931585,-0.55486387,0.82182944,0
-2.0601788,3.7341926,1.8021734,-0.29168329,0.77083647,0.5663321,0
-1.5014013,2.6023116,3.6305723,-0.29168329,0.77083647,0.5663321,0
0.7447859,-3.3404472,-3.0155807,0.29168329,-0.77083647,-0.5663321,0
-0.80274677,3.2942824,3.0485635,-0.29168329,0.77083647,0.5663321,0
-0.74662352,0.11823779,3.239305,0.12931585,-0.55486387,0.82182944,0
1.80759,-1.9422994,-1.6934683,0.94773334,0.31294966,0.062163204,0
-0.73677683,5.1164379,0.60239959,-0.29168329,0.77083647,0.5663321,0
1.257467,-4.7542195,-0.82724071,0.29168329,-0.77083647,-0.5663321,0
-0.0054996014,-2.7276573,1.2012626,0.12931585,-0.55486387,0.82182944,0
2.0059266,-2.6273923,-1.2683016,0.94773334,0.31294966,0.062163204,0
-1.6108822,2.1069684,4.2483988,-0.29168329,0.77083647,0.5663321,0
0.91920859,-1.8512323,-4.4365044,-0.12931585,0.55486387,-0.82182944,0
-1.5860691,1.8281776,-1.1092923,-0.94773334,-0.31294966,-0.062163204,0
1.1186194,-4.8438015,-0.4043479,0.12931585,-0.55486387,0.82182944,0
-1.6067814,1.3984318,1.3699629,-0.94773334,-0.31294966,-0.062163204,0
-0.62992555,2.5182223,4.1938705,-0.29168329,0.77083647,0.5663321,0
-0.2254951,-0.43848133,-3.3025558,-0.12931585,0.55486387,-0.82182944,0
1.311976,-2.0454681,-4.4860554,0.29168329,-0.77083647,-0.5663321,0
-0.49352717,-0.77721274,-3.4890771,-0.12931585,0.55486387,-0.82182944,0
-1.77372,4.616282,0.74909663,-0.29168329,0.77083647,0.5663321,0
0.73994118,-2.5189469,-4.1362224,0.29168329,-0.77083647,-0.5663321,0
1.8437732,-2.8055558,-3.1776011,0.29168329,-0.77083647,-0.5663321,0
-0.3011238,2.7174802,4.0920057,-0.29168329,0.77083647,0.5663321,0
0.76733708,-4.0259638,-2.0709076,0.29168329,-0.77083647,-0.5663321,0
-0.67500216,-0.62777698,-2.6352558,-0.94773334,-0.31294966,-0.062163204,0
-0.89786923,2.4890547,4.0955696,-0.29168329,0.77083647,0.5663321,0
-0.1514976,-2.3744497,-1.8232306,-0.94773334,-0.31294966,-0.062163204,0
-0.98704433,5.0215921,0.60259771,-0.29168329,0.77083647,0.5663321,0
2.2771525,-4.3419685,-0.86317825,0.29168329,-0.77083647,-0.5663321,0
-0.5219841,3.9111633,2.353529,-0.29168329,0.77083647,0.5663321,0
-1.8856301,1.7931061,3.6343489,-0.94773334,-0.31294966,-0.062163204,0
-1.2546573,0.54259729,0.31006521,-0.94773334,-0.31294966,-0.062163204,0
-2.0749342,4.6078277,0.60546637,-0.29168329,0.77083647,0.5663321,0
0.36275291,-4.2797279,-0.071646452,-0.94773334,-0.31294966,-0.062163204,0
-0.10959802,2.6946552,4.1918483,0.94773334,0.31294966,0.062163204,0
1.7294788,-1.9676495,-4.3769436,0.29168329,-0.77083647,-0.5663321,0
-1.3488463,2.183702,4.2789149,-0.29168329,0.77083647,0.5663321,0
0.58873832,1.2120372,1.0090665,0.94773334,0.31294966,0.062163204,0
-0.35379195,3.3232448,-0.74261308,-0.12931585,0.55486387,-0.82182944,0
-0.20206189,-2.6907015,0.53978014,-0.94773334,-0.31294966,-0.062163204,0
-0.52271366,1.0126575,-2.276042,-0.12931585,0.55486387,-0.82182944,0
2.0143232,-2.1191859,-4.0239811,0.29168329,-0.77083647,-0.5663321,0
-0.43492299,2.012109,4.4689188,0.12931585,-0.55486387,0.82182944,0
-0.49478006,4.3604445,1.6781702,0.94773334,0.31294966,0.062163204,0
2.2621129,-3.8064759,0.11607957,0.12931585,-0.55486387,0.82182944,0
-0.56533766,4.0787344,2.1031189,-0.29168329,0.77083647,0.5663321,0
1.0232651,-3.9795167,0.19418406,0.12931585,-0.55486387,0.82182944,0
-1.4008751,1.2349209,-0.94609362,-0.94773334,-0.31294966,-0.062163204,0
-0.4226141,3.4019527,-0.67864358,-0.12931585,0.55486387,-0.82182944,0
-2.1474705,3.7203188,1.7760985,-0.29168329,0.77083647,0.5663321,0
-1.2117811,2.6836619,3.6690121,-0.29168329,0.77083647,0.5663321,0
1.0307899,0.3269321,-1.2745008,0.94773334,0.31294966,0.062163204,0
-1.5915707,1.7282032,-0.52211177,-0.94773334,-0.31294966,-0.062163204,0
-0.75730264,-0.64375257,-1.3000824,-0.94773334,-0.31294966,-0.062163204,0
-0.78429055,-0.61478245,-1.0344715,-0.94773334,-0.31294966,-0.062163204,0
-0.47228765,3.9866581,2.2763684,-0.29168329,0.77083647,0.5663321,0
0.41953158,1.8827758,0.21205676,0.94773334,0.31294966,0.062163204,0
-0.8630296,-0.63219106,0.25361818,-0.94773334,-0.31294966,-0.062163204,0
-1.3726356,2.4362283,-1.1811719,-0.12931585,0.55486387,-0.82182944,0
-1.329741,4.8099771,0.71412468,-0.29168329,0.77083647,0.5663321,0
-1.405843,3.1561832,2.9259129,-0.29168329,0.77083647,0.5663321,0
-0.30825877,-2.193598,-0.34373212,-0.94773334,-0.31294966,-0.062163204,0
2.1163218,-3.0539067,-0.80416632,0.94773334,0.31294966,0.062163204,0
1.0231102,-4.688715,-1.037102,0.29168329,-0.77083647,-0.5663321,0
1.522665,-1.735045,1.6070853,0.94773334,0.31294966,0.062163204,0
-1.8791816,1.660094,4.458509,0.12931585,-0.55486387,0.82182944,0
0.85657835,0.068641663,2.6818264,0.94773334,0.31294966,0.062163204,0
2.280833,-3.4920113,-1.106729,0.94773334,0.31294966,0.062163204,0
-1.6894076,1.9035288,4.4848571,-0.29168329,0.77083647,0.5663321,0
-1.266326,3.5270605,-0.4614172,-0.12931585,0.55486387,-0.82182944,0
1.5284915,-1.9408157,-4.5169835,0.29168329,-0.77083647,-0.5663321,0
0.5477941,1.8523779,-1.5903866,0.94773334,0.31294966,0.062163204,0
-0.73911643,3.4301255,-0.60982084,-0.12931585,0.55486387,-0.82182944,0
-0.50519913,1.4848164,4.123971,0.12931585,-0.55486387,0.82182944,0
-2.218416,3.378521,0.72646809,-0.94773334,-0.31294966,-0.062163204,0
-0.19995117,3.5106664,1.4613008,0.94773334,0.31294966,0.062163204,0
-1.5365899,4.4499416,0.2041986,-0.12931585,0.55486387,-0.82182944,0
0.18063569,-3.7665331,0.12129998,-0.94773334,-0.31294966,-0.062163204,0
1.9166043,-3.2260985,0.56229174,0.12931585,-0.55486387,0.82182944,0
0.63994986,-2.8553736,-3.7298105,0.29168329,-0.77083647,-0.5663321,0
-1.607517,2.8907795,-0.83731997,-0.12931585,0.55486387,-0.82182944,0
-0.14932585,0.016103268,3.0763626,0.12931585,-0.55486387,0.82182944,0
1.0746182,-1.8015815,-4.4274364,-0.12931585,0.55486387,-0.82182944,0
-0.027875662,0.79129648,-2.5033586,-0.12931585,0.55486387,-0.82182944,0
1.7981184,-2.1419613,-0.54389918,0.94773334,0.31294966,0.062163204,0
-1.4050903,3.9847927,-0.13054156,-0.12931585,0.55486387,-0.82182944,0
-0.87132502,-0.22591293,-1.6652482,-0.94773334,-0.31294966,-0.062163204,0
-1.3319907,3.8891959,1.9662435,-0.29168329,0.77083647,0.5663321,0
1.1890879,-3.2947178,-2.8489904,0.29168329,-0.77083647,-0.5663321,0
1.7410522,-3.7329013,-1.9682939,0.29168329,-0.77083647,-0.5663321,0
1.5472541,-0.76986563,-3.626827,0.94773334,0.31294966,0.062163204,0
-0.57631612,-0.68277192,2.6716995,0.12931585,-0.55486387,0.82182944,0
0.48078752,-4.4462366,-1.0329344,-0.94773334,-0.31294966,-0.062163204,0
1.0551217,-0.17294788,0.87109876,0.94773334,0.31294966,0.062163204,0
-1.8114123,2.8851378,3.0859489,-0.29168329,0.77083647,0.5663321,0
-0.45446813,-1.8123372,-0.034032106,-0.94773334,-0.31294966,-0.062163204,0
-0.39625973,2.7906654,3.9433951,-0.29168329,0.77083647,0.5663321,0
-1.9287188,2.9751368,-0.7298243,-0.12931585,0.55486387,-0.82182944,0
-0.11757684,-2.755692,1.1999707,0.12931585,-0.55486387,0.82182944,0
-1.4635448,2.2987204,4.0632887,-0.29168329,0.77083647,0.5663321,0
-1.1310929,-0.29722312,2.6541471,-0.94773334,-0.31294966,-0.062163204,0
0.85663354,0.81152797,-1.0589441,0.94773334,0.31294966,0.062163204,0
0.82603824,0.23356795,2.317148,0.94773334,0.31294966,0.062163204,0
0.43640769,-3.6454272,-2.7592978,0.29168329,-0.77083647,-0.5663321,0
-0.35812652,-2.0172446,-0.47127318,-0.94773334,-0.31294966,-0.062163204,0
1.1317289,-3.7912078,-2.2027581,0.29168329,-0.77083647,-0.5663321,0
-0.15336537,0.77476311,3.5892129,0.12931585,-0.55486387,0.82182944,0
0.13235259,2.6508465,0.72364247,0.94773334,0.31294966,0.062163204,0
0.39818305,1.7282139,1.3156501,0.94773334,0.31294966,0.062163204,0
-0.14616609,3.5227408,0.58050942,0.94773334,0.31294966,0.062163204,0
0.57869697,-3.8497238,-2.4079454,0.29168329,-0.77083647,-0.5663321,0
-1.4344937,2.7222099,3.5018387,-0.29168329,0.77083647,0.5663321,0
-1.4113057,3.1245675,-0.71035063,-0.12931585,0.55486387,-0.82182944,0
-0.23175693,-2.5472727,0.27044487,-0.94773334,-0.31294966,-0.062163204,0
0.52047634,-0.0013642311,2.9591751,0.12931585,-0.55486387,0.82182944,0
-0.14297181,-1.9545012,-4.0673733,-0.94773334,-0.31294966,-0.062163204,0
-0.48634195,-1.9516523,1.1532713,-0.94773334,-0.31294966,-0.062163204,0
2.157721,-3.5300651,-2.0297742,0.29168329,-0.77083647,-0.5663321,0
0.83555186,0.54240716,0.61730731,0.94773334,0.31294966,0.062163204,0
-0.78799826,-0.38188696,-2.1504154,-0.94773334,-0.31294966,-0.062163204,0
-0.14917874,3.6735353,-0.13271141,0.94773334,0.31294966,0.062163204,0
1.9261456,-2.0452909,-2.98246,0.94773334,0.31294966,0.062163204,0
-1.9378297,3.0131719,-0.70271087,-0.12931585,0.55486387,-0.82182944,0
-0.48270798,4.4798756,0.89286375,0.94773334,0.31294966,0.062163204,0
1.8193227,-1.7703725,-2.7378778,0.94773334,0.31294966,0.062163204,0
1.890641,-2.2043562,-3.9717569,0.29168329,-0.77083647,-0.5663321,0
-0.79285502,4.0512285,2.0233762,-0.29168329,0.77083647,0.5663321,0
0.96278095,-0.032751679,1.5731223,0.94773334,0.31294966,0.062163204,0
-0.40540195,3.9373541,2.3779249,-0.29168329,0.77083647,0.5663321,0
-2.0212147,3.5877872,2.0215144,-0.29168329,0.77083647,0.5663321,0
-1.8331435,3.3647408,2.421968,-0.29168329,0.77083647,0.5663321,0
-1.1655294,3.010231,3.2483394,-0.29168329,0.77083647,0.5663321,0
-0.99656314,0.11744964,-1.4844787,-0.94773334,-0.31294966,-0.062163204,0
1.9899824,-4.727087,-0.48689604,0.29168329,-0.77083647,-0.5663321,0
-0.41993737,3.8577013,2.4788539,-0.29168329,0.77083647,0.5663321,0
-1.7472861,3.8639889,-0.1582582,-0.12931585,0.55486387,-0.82182944,0
1.6031055,-4.8478155,-0.52182889,0.29168329,-0.77083647,-0.5663321,0
-0.66493189,0.066070318,3.1912296,0.12931585,-0.55486387,0.82182944,0
-0.90283954,3.597409,2.5844252,-0.29168329,0.77083647,0.5663321,0
0.32403827,-2.7548099,-4.0293951,0.29168329,-0.77083647,-0.5663321,0
-0.23405457,0.83491683,-2.4414654,-0.12931585,0.55486387,-0.82182944,0
0.45708668,0.65295398,3.4109173,0.12931585,-0.55486387,0.82182944,0
-0.74483037,1.5488299,-1.879091,-0.12931585,0.55486387,-0.82182944,0
1.133855,-0.66967714,2.1714361,0.94773334,0.31294966,0.062163204,0
1.6965492,-4.2579184,-0.099722624,0.12931585,-0.55486387,0.82182944,0
0.54002345,-2.8020866,-3.8538058,0.29168329,-0.77083647,-0.5663321,0
0.25117305,1.9662905,2.3583941,0.94773334,0.31294966,0.062163204,0
1.1985327,-0.98704767,2.1869915,0.12931585,-0.55486387,0.82182944,0
-0.24404365,3.1582143,3.5215204,-0.29168329,0.77083647,0.5663321,0
-0.023430467,2.9215631,1.735816,0.94773334,0.31294966,0.062163204,0
0.28769588,-2.0516229,1.6115577,0.12931585,-0.55486387,0.82182944,0
0.97203714,0.24509346,0.033240646,0.94773334,0.31294966,0.062163204,0
-0.88834596,4.621418,1.1981084,-0.29168329,0.77083647,0.5663321,0
0.86405993,-3.5496552,0.50945902,0.12931585,-0.55486387,0.82182944,0
0.62512493,1.4140236,-0.5625459,0.94773334,0.31294966,0.062163204,0
-0.017965794,-2.4834869,1.3680778,0.12931585,-0.55486387,0.82182944,0
-1.9165611,4.3257871,1.0709217,-0.29168329,0.77083647,0.5663321,0
0.46476841,1.4483187,1.7095788,0.94773334,0.31294966,0.062163204,0
-1.1831305,1.9749035,4.5615301,0.12931585,-0.55486387,0.82182944,0
0.27620935,1.8507856,-1.8358854,-0.12931585,0.55486387,-0.82182944,0
1.0679362,-3.7272596,0.35746861,0.12931585,-0.55486387,0.82182944,0
-1.3304397,0.61424637,1.1047322,-0.94773334,-0.31294966,-0.062163204,0
0.55351901,1.7090205,-1.9752339,-0.12931585,0.55486387,-0.82182944,0
1.2415614,-0.95024878,-3.878922,-0.12931585,0.55486387,-0.82182944,0
0.37500852,-2.6648192,-4.1256294,0.29168329,-0.77083647,-0.5663321,0
-1.1688941,2.841274,-0.93976164,-0.12931585,0.55486387,-0.82182944,0
0.93868828,0.024304152,1.6531992,0.94773334,0.31294966,0.062163204,0
-2.2070262,3.4229882,2.1501226,-0.29168329,0.77083647,0.5663321,0
0.23165488,-1.0019186,2.3290908,0.12931585,-0.55486387,0.82182944,0
-1.5932814,3.0106502,3.0274601,-0.29168329,0.77083647,0.5663321,0
2.0074468,-4.3119493,-1.0429463,0.29168329,-0.77083647,-0.5663321,0
-1.2960615,0.41648412,1.5762064,-0.94773334,-0.31294966,-0.062163204,0
0.59923393,-2.2345693,-4.5957589,0.29168329,-0.77083647,-0.5663321,0
-2.2601061,4.1231666,1.1697702,-0.29168329,0.77083647,0.5663321,0
-1.6855099,2.9832609,-0.76260805,-0.12931585,0.55486387,-0.82182944,0
0.67328477,-2.0467858,1.5541503,0.12931585,-0.55486387,0.82182944,0
-1.1805584,0.22156256,0.79655695,-0.94773334,-0.31294966,-0.062163204,0
1.9052448,-3.2771659,0.52960098,0.12931585,-0.55486387,0.82182944,0
0.52660137,1.4038976,0.99050969,0.94773334,0.31294966,0.062163204,0
0.19395405,-2.0070817,-4.4276075,-0.12931585,0.55486387,-0.82182944,0
1.7338741,-2.5103726,-3.6359782,0.29168329,-0.77083647,-0.5663321,0
-0.36670542,-1.5770649,2.0349295,0.12931585,-0.55486387,0.82182944,0
-0.51502156,1.2986606,-2.0841553,-0.12931585,0.55486387,-0.82182944,0
-0.53087389,-0.082155824,-3.0139284,-0.12931585,0.55486387,-0.82182944,0
1.9629356,-2.6418183,-0.54024565,0.94773334,0.31294966,0.062163204,0
-0.013800859,-0.49141359,2.7123842,0.12931585,-0.55486387,0.82182944,0
0.89599413,-1.6969755,-4.3287039,-0.12931585,0.55486387,-0.82182944,0
2.2876585,-4.5583811,-0.56320763,0.29168329,-0.77083647,-0.5663321,0
-0.69792008,2.2475927,-1.4146981,-0.12931585,0.55486387,-0.82182944,0
-0.42207479,1.2442422,-2.1355214,-0.12931585,0.55486387,-0.82182944,0
-0.19516063,-2.5040429,-0.50513244,-0.94773334,-0.31294966,-0.062163204,0
1.0516336,-1.1450702,-3.9805715,-0.12931585,0.55486387,-0.82182944,0
-1.8105085,2.6363316,-0.9771713,-0.12931585,0.55486387,-0.82182944,0
-1.372872,3.0172958,3.1319337,-0.29168329,0.77083647,0.5663321,0
-1.4154713,3.5702889,-0.40876317,-0.12931585,0.55486387,-0.82182944,0
-1.0819774,4.0115108,1.9285269,-0.29168329,0.77083647,0.5663321,0
0.42495286,1.2557178,3.2862213,0.94773334,0.31294966,0.062163204,0
0.93140936,-4.7072096,-1.0591578,0.29168329,-0.77083647,-0.5663321,0
0.33683467,0.44319558,-2.7957687,-0.12931585,0.55486387,-0.82182944,0
0.67038441,-4.4165978,-1.5891488,0.29168329,-0.77083647,-0.5663321,0
-0.60782379,2.7834692,3.8442259,-0.29168329,0.77083647,0.5663321,0
-0.073047161,1.7629478,-1.8402338,-0.12931585,0.55486387,-0.82182944,0
1.0001657,-2.2452664,-4.3747039,0.29168329,-0.77083647,-0.5663321,0
0.17203999,1.4420587,3.988539,0.12931585,-0.55486387,0.82182944,0
1.3153148,-3.4253907,-2.6061192,0.29168329,-0.77083647,-0.5663321,0
0.20695806,-3.7526824,-0.34973955,-0.94773334,-0.31294966,-0.062163204,0
1.8825974,-3.6205583,-2.0483027,0.29168329,-0.77083647,-0.5663321,0
1.1774302,-0.091675639,-1.4027557,0.94773334,0.31294966,0.062163204,0
-0.22882533,3.1638169,-0.86991525,-0.12931585,0.55486387,-0.82182944,0
-0.39350075,2.1019092,4.5230298,0.12931585,-0.55486387,0.82182944,0
-0.86801672,4.4504499,1.4412847,-0.29168329,0.77083647,0.5663321,0
-0.48002744,1.2269111,-2.1381037,-0.12931585,0.55486387,-0.82182944,0
0.42746592,-1.898131,1.6931957,0.12931585,-0.55486387,0.82182944,0
0.88573027,-1.2093977,2.0860903,0.12931585,-0.55486387,0.82182944,0
1.6986024,-4.7322373,-0.42028522,0.12931585,-0.55486387,0.82182944,0
1.8575016,-2.0715814,-1.8035679,0.94773334,0.31294966,0.062163204,0
-1.6464088,4.5939145,0.84511137,-0.29168329,0.77083647,0.5663321,0
-0.53854239,2.556108,4.1893702,-0.29168329,0.77083647,0.5663321,0
-0.35694313,-2.2657001,0.76149237,-0.94773334,-0.31294966,-0.062163204,0
-1.4735805,3.4376905,2.5078645,-0.29168329,0.77083647,0.5663321,0
-1.2478962,4.4012804,1.3125563,-0.29168329,0.77083647,0.5663321,0
-0.16344714,3.0742171,3.1019883,0.94773334,0.31294966,0.062163204,0
1.3642316,-3.739593,-2.1532631,0.29168329,-0.77083647,-0.5663321,0
-1.7948987,2.5424695,-1.0429993,-0.12931585,0.55486387,-0.82182944,0
0.6942879,-0.93869352,-3.7850063,-0.12931585,0.55486387,-0.82182944,0
-1.5710802,3.0237575,3.0210536,-0.29168329,0.77083647,0.5663321,0
-0.51192641,2.0344024,-1.5879011,-0.12931585,0.55486387,-0.82182944,0
-1.4274838,2.5827327,-1.0736284,-0.12931585,0.55486387,-0.82182944,0
-1.2028415,3.6920631,-0.36000371,-0.12931585,0.55486387,-0.82182944,0
-0.061920881,-2.7635024,1.1859399,0.12931585,-0.55486387,0.82182944,0
2.0996249,-3.7355306,-1.780036,0.29168329,-0.77083647,-0.5663321,0
-1.5293803,4.5705161,0.93723345,-0.29168329,0.77083647,0.5663321,0
-1.5337024,0.99705452,3.9564919,0.12931585,-0.55486387,0.82182944,0
-0.51886445,1.2160974,3.944694,0.12931585,-0.55486387,0.82182944,0
1.513936,-1.2716477,-0.59272796,0.94773334,0.31294966,0.062163204,0
-1.3764133,0.72884202,1.2287291,-0.94773334,-0.31294966,-0.062163204,0
0.45943797,-1.0237998,-3.8055124,-0.12931585,0.55486387,-0.82182944,0
-0.10261589,2.8139048,3.4850597,0.94773334,0.31294966,0.062163204,0
1.0760398,-1.3954091,1.9305581,0.12931585,-0.55486387,0.82182944,0
