1.5508748,-3.4707942,0.025574684,-0.15269881,-0.36312246,-0.91914368,0
-3.3746147,-1.1899923,0.33697289,-0.86715746,-0.39688939,0.30085981,0
3.5273337,-2.9767988,1.2524977,0.47404736,-0.84298325,0.25427991,0
3.8373556,-3.1710567,0.03053093,0.47404736,-0.84298325,0.25427991,0
1.4260461,4.5451975,-1.5271295,0.86715746,0.39688939,-0.30085981,0
-4.9020834,2.7593279,0.58945799,-0.47404736,0.84298325,-0.25427991,0
-0.94800472,-5.0817108,2.1972132,-0.86715746,-0.39688939,0.30085981,0
4.9148264,-2.0881443,-0.22214127,0.86715746,0.39688939,-0.30085981,0
-2.8017251,-0.22847295,-0.53225207,-0.15269881,-0.36312246,-0.91914368,0
-4.2170477,2.7558951,-0.69901752,-0.47404736,0.84298325,-0.25427991,0
-3.8555133,1.2941412,-0.95871782,-0.15269881,-0.36312246,-0.91914368,0
3.9023938,-2.3800693,1.3799431,0.15269881,0.36312246,0.91914368,0
-3.6993341,0.36882961,-0.61910498,-0.15269881,-0.36312246,-0.91914368,0
-0.30268717,0.54727948,0.92204338,0.15269881,0.36312246,0.91914368,0
3.9207973,-0.52209091,-1.0212827,0.86715746,0.39688939,-0.30085981,0
-2.038141,-2.6131101,2.3116899,-0.86715746,-0.39688939,0.30085981,0
-4.3978801,0.90328765,0.1490736,-0.86715746,-0.39688939,0.30085981,0
-0.028411388,-2.5237556,2.0897396,0.15269881,0.36312246,0.91914368,0
0.348021,-0.79799438,1.3454125,0.15269881,0.36312246,0.91914368,0
0.0088176578,0.61021638,0.84542847,0.15269881,0.36312246,0.91914368,0
2.4496961,3.0075212,-0.60517973,0.86715746,0.39688939,-0.30085981,0
3.2111745,1.0798049,-0.95340961,0.86715746,0.39688939,-0.30085981,0
-3.2076745,-0.94514096,1.1411418,-0.86715746,-0.39688939,0.30085981,0
2.076318,-4.0927544,0.18399763,-0.15269881,-0.36312246,-0.91914368,0
2.2316248,-1.1914411,1.1879239,0.15269881,0.36312246,0.91914368,0
2.4234116,-2.3356018,-0.56785703,-0.15269881,-0.36312246,-0.91914368,0
-1.3593007,4.1865611,-1.2837267,-0.47404736,0.84298325,-0.25427991,0
-1.1476164,2.329004,-1.8174244,-0.15269881,-0.36312246,-0.91914368,0
2.4493632,-3.7836235,0.58736205,0.47404736,-0.84298325,0.25427991,0
-3.8688068,3.1570177,-0.018438816,-0.47404736,0.84298325,-0.25427991,0
-3.9188957,3.1076775,-0.088632107,-0.47404736,0.84298325,-0.25427991,0
-1.7821453,-3.7097893,0.67371356,-0.15269881,-0.36312246,-0.91914368,0
1.7321784,4.2363725,-1.0521715,0.86715746,0.39688939,-0.30085981,0
-1.9191515,3.8049188,-1.5052235,-0.47404736,0.84298325,-0.25427991,0
-0.88241935,-4.9522161,2.5570755,-0.86715746,-0.39688939,0.30085981,0
-2.8478484,0.92229748,1.1967183,0.15269881,0.36312246,0.91914368,0
3.891783,0.35399947,0.050815344,0.86715746,0.39688939,-0.30085981,0
1.3306479,4.3355808,-2.0786157,0.86715746,0.39688939,-0.30085981,0
-1.8672421,-1.5448205,-0.16745481,-0.15269881,-0.36312246,-0.91914368,0
-3.7704465,-0.32000548,0.34375501,-0.86715746,-0.39688939,0.30085981,0
-4.3999319,1.6327224,1.1054189,-0.86715746,-0.39688939,0.30085981,0
1.294049,4.2246304,-2.3304677,0.86715746,0.39688939,-0.30085981,0
-0.32096314,-4.7341409,2.6008735,0.47404736,-0.84298325,0.25427991,0
3.631814,0.21804285,-0.87783778,0.86715746,0.39688939,-0.30085981,0
-1.092834,-4.5269017,2.5116718,-0.86715746,-0.39688939,0.30085981,0
-3.3036075,3.0880551,-1.3007498,-0.47404736,0.84298325,-0.25427991,0
4.6280794,-1.9969194,-0.92827916,0.86715746,0.39688939,-0.30085981,0
-0.74166816,0.2295717,1.1204877,0.15269881,0.36312246,0.91914368,0
-1.9957091,3.9837427,-0.76966643,-0.47404736,0.84298325,-0.25427991,0
5.1720324,-1.8773229,0.79730678,0.86715746,0.39688939,-0.30085981,0
-5.2812328,2.0955887,-0.82411933,-0.86715746,-0.39688939,0.30085981,0
-2.2973623,-3.3236785,0.60676831,-0.15269881,-0.36312246,-0.91914368,0
-1.8514242,-2.3560777,0.15041751,-0.15269881,-0.36312246,-0.91914368,0
1.6912143,3.2655036,-2.4509983,0.86715746,0.39688939,-0.30085981,0
-3.2108078,-1.1868103,0.81330734,-0.86715746,-0.39688939,0.30085981,0
-0.21122491,3.0130672,-2.2432389,-0.15269881,-0.36312246,-0.91914368,0
-4.7478447,2.0014348,0.58904123,-0.86715746,-0.39688939,0.30085981,0
-1.2208917,-2.2318475,2.1725252,0.15269881,0.36312246,0.91914368,0
-2.7633505,3.6842439,-0.33146334,-0.47404736,0.84298325,-0.25427991,0
-4.5457726,2.8217947,0.13228703,-0.47404736,0.84298325,-0.25427991,0
-2.2741561,3.9192686,-0.46430874,-0.47404736,0.84298325,-0.25427991,0
-0.12392497,3.3411691,-0.21142578,0.15269881,0.36312246,0.91914368,0
0.023676872,4.6545448,-0.75481725,0.15269881,0.36312246,0.91914368,0
3.4412446,-2.4088142,1.4679108,0.15269881,0.36312246,0.91914368,0
-5.1309633,2.4007399,-0.17262936,-0.47404736,0.84298325,-0.25427991,0
0.50784844,-2.2800646,1.904376,0.15269881,0.36312246,0.91914368,0
-4.9480915,2.5285249,0.70720625,-0.86715746,-0.39688939,0.30085981,0
2.1737649,-2.4674113,1.7016287,0.15269881,0.36312246,0.91914368,0
-0.71005225,4.4372444,-1.663044,-0.47404736,0.84298325,-0.25427991,0
0.30934393,0.59538031,-1.3745756,-0.15269881,-0.36312246,-0.91914368,0
-1.0499704,-4.8474936,2.2122965,-0.86715746,-0.39688939,0.30085981,0
2.0761707,-3.6893749,1.5955448,0.47404736,-0.84298325,0.25427991,0
3.3233485,-3.2362697,0.77258968,0.47404736,-0.84298325,0.25427991,0
-2.025491,-3.4596391,1.2314223,-0.86715746,-0.39688939,0.30085981,0
2.149693,-1.0527719,1.1467516,0.15269881,0.36312246,0.91914368,0
-0.20799185,0.63755023,-1.3052896,-0.15269881,-0.36312246,-0.91914368,0
-1.2293968,-0.72369421,-0.5978204,-0.15269881,-0.36312246,-0.91914368,0
-0.93204665,-4.2343006,2.9156404,0.15269881,0.36312246,0.91914368,0
1.8855228,4.067699,-0.83270645,0.86715746,0.39688939,-0.30085981,0
3.3938868,1.1141256,-0.38150865,0.86715746,0.39688939,-0.30085981,0
-3.1735473,3.5418046,0.21594858,0.15269881,0.36312246,0.91914368,0
2.945971,-3.437717,0.80829144,0.47404736,-0.84298325,0.25427991,0
3.0737305,-2.0608687,-0.78443336,-0.15269881,-0.36312246,-0.91914368,0
2.8897693,1.1424822,0.15653104,0.15269881,0.36312246,0.91914368,0
-0.49916077,-5.2283058,1.2948399,0.47404736,-0.84298325,0.25427991,0
0.75052845,2.298408,0.055259347,0.15269881,0.36312246,0.91914368,0
2.3267345,-3.9355865,0.080303192,-0.15269881,-0.36312246,-0.91914368,0
1.4469273,-3.5691566,2.2576418,0.15269881,0.36312246,0.91914368,0
0.68418968,-4.5065641,0.57875657,-0.15269881,-0.36312246,-0.91914368,0
-0.17075658,2.6009154,-2.0871348,-0.15269881,-0.36312246,-0.91914368,0
4.761981,-1.4203746,0.21822906,0.86715746,0.39688939,-0.30085981,0
0.53096521,2.8759649,-0.1364373,0.15269881,0.36312246,0.91914368,0
-3.2225697,-1.0742396,0.92790699,-0.86715746,-0.39688939,0.30085981,0
1.5838988,0.039978504,-1.3668989,-0.15269881,-0.36312246,-0.91914368,0
2.7748916,1.5686209,-1.5660542,0.86715746,0.39688939,-0.30085981,0
-4.9214878,2.3799834,-0.63196182,-0.47404736,0.84298325,-0.25427991,0
1.8415136,-3.7348232,1.8823411,0.47404736,-0.84298325,0.25427991,0
0.38338393,-2.3224168,1.9417851,0.15269881,0.36312246,0.91914368,0
-1.1154579,-0.10489929,1.3147241,0.15269881,0.36312246,0.91914368,0
-4.8168888,2.4054978,-0.74237823,-0.47404736,0.84298325,-0.25427991,0
1.117209,4.5205135,-2.4498434,0.86715746,0.39688939,-0.30085981,0
-3.7595189,-0.12422642,0.63351965,-0.86715746,-0.39688939,0.30085981,0
-4.332036,2.5840364,-1.0543897,-0.47404736,0.84298325,-0.25427991,0
-4.6373792,2.0898805,1.0241082,-0.86715746,-0.39688939,0.30085981,0
4.301116,-1.1323212,-0.73011065,0.86715746,0.39688939,-0.30085981,0
4.1992574,-0.44481054,-0.11674142,0.86715746,0.39688939,-0.30085981,0
3.7610469,-2.9452119,0.92150831,0.47404736,-0.84298325,0.25427991,0
-0.83361197,-4.8735657,2.8015039,-0.86715746,-0.39688939,0.30085981,0
-2.0786424,-2.5258183,2.3101089,-0.86715746,-0.39688939,0.30085981,0
-1.9103172,-1.7333012,2.0901017,0.15269881,0.36312246,0.91914368,0
2.2077398,2.2480927,-2.3043871,0.86715746,0.39688939,-0.30085981,0
4.4356537,-1.6471908,-1.0215468,0.86715746,0.39688939,-0.30085981,0
4.3035851,-2.9196353,-0.0051398277,0.47404736,-0.84298325,0.25427991,0
3.8327627,-0.39956403,-1.1133885,0.86715746,0.39688939,-0.30085981,0
2.5459497,1.6342725,-2.1393178,0.86715746,0.39688939,-0.30085981,0
0.25718582,-1.8249745,1.7662281,0.15269881,0.36312246,0.91914368,0
5.2032523,-1.8789024,0.88520575,0.86715746,0.39688939,-0.30085981,0
-2.6230969,3.7826445,-0.26671886,-0.47404736,0.84298325,-0.25427991,0
1.5811939,3.3987479,-2.5923307,0.86715746,0.39688939,-0.30085981,0
-3.2823448,2.4497643,0.66545177,0.15269881,0.36312246,0.91914368,0
1.350296,4.4976764,-1.8081518,0.86715746,0.39688939,-0.30085981,0
0.310148,4.3452516,-2.8561561,-0.15269881,-0.36312246,-0.91914368,0
-4.3614864,1.4708495,1.0026879,-0.86715746,-0.39688939,0.30085981,0
-0.73346233,-4.3584685,2.9317038,0.15269881,0.36312246,0.91914368,0
-4.7683535,2.3266618,-1.0942168,-0.47404736,0.84298325,-0.25427991,0
-3.2023594,3.2501166,-0.95224118,-0.47404736,0.84298325,-0.25427991,0
-2.3899055,-2.1438789,1.9168136,-0.86715746,-0.39688939,0.30085981,0
5.043828,-2.3018019,0.66307163,0.47404736,-0.84298325,0.25427991,0
-3.4471016,1.7524078,0.96832466,0.15269881,0.36312246,0.91914368,0
5.1058183,-2.1622124,0.23063803,0.86715746,0.39688939,-0.30085981,0
1.8938627,-3.8380218,1.442627,0.47404736,-0.84298325,0.25427991,0
3.0993421,1.866462,-0.23799333,0.86715746,0.39688939,-0.30085981,0
-2.628438,-1.9621235,1.4690688,-0.86715746,-0.39688939,0.30085981,0
-2.7979155,-1.7264946,1.2914288,-0.86715746,-0.39688939,0.30085981,0
-3.1010044,-0.88243055,1.5313206,-0.86715746,-0.39688939,0.30085981,0
-0.64028299,3.4908485,-0.18477583,0.15269881,0.36312246,0.91914368,0
0.69206703,2.280508,0.0720433,0.15269881,0.36312246,0.91914368,0
2.5321786,2.6924124,-0.78312898,0.86715746,0.39688939,-0.30085981,0
-4.1034689,0.88720441,0.97642851,-0.86715746,-0.39688939,0.30085981,0
-2.4771552,-2.2808192,1.4846894,-0.86715746,-0.39688939,0.30085981,0
1.5497646,3.7069092,-2.2763975,0.86715746,0.39688939,-0.30085981,0
0.48138785,2.7510748,-2.2547994,-0.15269881,-0.36312246,-0.91914368,0
1.203943,-4.2690344,1.2999427,0.47404736,-0.84298325,0.25427991,0
-0.81284142,3.9200811,-2.5016217,-0.15269881,-0.36312246,-0.91914368,0
-4.3669167,0.54077321,-0.23990536,-0.86715746,-0.39688939,0.30085981,0
1.3418258,0.086905479,0.83071601,0.15269881,0.36312246,0.91914368,0
-2.0996346,3.5894139,-1.8831911,-0.47404736,0.84298325,-0.25427991,0
-0.27136946,4.9084239,-0.91882443,-0.47404736,0.84298325,-0.25427991,0
-0.14092827,4.8487935,-1.3596885,-0.47404736,0.84298325,-0.25427991,0
1.606508,-1.2387959,-0.86545455,-0.15269881,-0.36312246,-0.91914368,0
-0.21593037,0.26606172,-1.1572082,-0.15269881,-0.36312246,-0.91914368,0
-2.675858,-2.6359594,0.44347918,-0.86715746,-0.39688939,0.30085981,0
-0.69679737,-4.9521976,2.5786359,0.47404736,-0.84298325,0.25427991,0
-0.070668399,-0.10324627,1.1404985,0.15269881,0.36312246,0.91914368,0
2.4775391,2.1264625,-1.6872054,0.86715746,0.39688939,-0.30085981,0
2.1247895,-1.6885,-0.77389503,-0.15269881,-0.36312246,-0.91914368,0
1.8126435,3.7571826,-0.69750357,0.15269881,0.36312246,0.91914368,0
2.9027491,2.1441443,-0.43831304,0.86715746,0.39688939,-0.30085981,0
-2.2175021,3.6822546,-1.3556705,-0.47404736,0.84298325,-0.25427991,0
4.2113223,-2.1465414,1.2363613,0.15269881,0.36312246,0.91914368,0
-1.64579,4.0635877,-1.1573112,-0.47404736,0.84298325,-0.25427991,0
-2.4911947,0.11834216,1.4550825,0.15269881,0.36312246,0.91914368,0
2.1155715,-3.7292118,1.3900254,0.47404736,-0.84298325,0.25427991,0
0.54474664,-4.7787118,0.83919406,0.47404736,-0.84298325,0.25427991,0
-2.2178197,-2.0623212,2.2711725,0.15269881,0.36312246,0.91914368,0
-1.1440091,-4.6904588,2.1484094,-0.86715746,-0.39688939,0.30085981,0
1.9894719,-4.1361542,0.27602196,0.47404736,-0.84298325,0.25427991,0
-1.2412699,3.896399,-0.245152,0.15269881,0.36312246,0.91914368,0
-2.7031028,-1.8480389,1.4043652,-0.86715746,-0.39688939,0.30085981,0
1.3002228,-4.3057775,0.99864149,0.47404736,-0.84298325,0.25427991,0
-1.8496861,2.2249432,-1.6596776,-0.15269881,-0.36312246,-0.91914368,0
0.046478748,-4.4621429,2.817585,0.47404736,-0.84298325,0.25427991,0
0.1631341,-4.7073259,1.7872813,0.47404736,-0.84298325,0.25427991,0
1.8865225,3.4427342,-0.58554983,0.15269881,0.36312246,0.91914368,0
-3.9174342,3.1236274,-0.038479805,-0.47404736,0.84298325,-0.25427991,0
-0.66454339,-5.191957,1.7236609,0.47404736,-0.84298325,0.25427991,0
-4.125442,3.056854,0.12793827,-0.47404736,0.84298325,-0.25427991,0
-2.4153614,-2.5766969,0.33126447,-0.15269881,-0.36312246,-0.91914368,0
-2.2949221,3.2354898,-1.9849427,-0.15269881,-0.36312246,-0.91914368,0
-0.41001558,-1.2869219,1.6645049,0.15269881,0.36312246,0.91914368,0
1.558006,3.5931752,-2.4026809,0.86715746,0.39688939,-0.30085981,0
2.9385328,-3.1585608,1.747611,0.47404736,-0.84298325,0.25427991,0
-1.3129956,3.9521475,-2.1471753,-0.47404736,0.84298325,-0.25427991,0
0.53218281,-4.0124273,0.40879273,-0.15269881,-0.36312246,-0.91914368,0
3.8437715,-0.62320662,-1.3766816,0.86715746,0.39688939,-0.30085981,0
-0.14183354,-4.9359846,1.5977795,0.47404736,-0.84298325,0.25427991,0
-1.1123415,-0.36808932,1.4181838,0.15269881,0.36312246,0.91914368,0
1.8653965,-3.9016349,1.284807,0.47404736,-0.84298325,0.25427991,0
5.1502337,-2.2882502,0.19238806,0.86715746,0.39688939,-0.30085981,0
-4.5737991,2.567112,-0.65978289,-0.47404736,0.84298325,-0.25427991,0
4.7065144,-2.6269143,0.21411133,0.47404736,-0.84298325,0.25427991,0
-1.6803492,3.760608,-2.0973158,-0.47404736,0.84298325,-0.25427991,0
-2.3842688,1.5328017,0.8785131,0.15269881,0.36312246,0.91914368,0
-1.2130928,-4.7667108,1.8487022,-0.86715746,-0.39688939,0.30085981,0
4.616334,-1.7161236,-0.59171295,0.86715746,0.39688939,-0.30085981,0
0.19735813,4.7115636,-2.445287,-0.47404736,0.84298325,-0.25427991,0
4.1032453,-2.8758669,0.51344776,0.47404736,-0.84298325,0.25427991,0
-1.6916324,4.2780614,-0.36083078,-0.47404736,0.84298325,-0.25427991,0
-1.2059262,4.2459402,-1.372807,-0.47404736,0.84298325,-0.25427991,0
0.59452772,1.4597127,-1.763422,-0.15269881,-0.36312246,-0.91914368,0
-4.1234822,2.9294903,-0.29794788,-0.47404736,0.84298325,-0.25427991,0
4.3977356,-1.127598,-0.44539571,0.86715746,0.39688939,-0.30085981,0
-2.6902947,-1.8262057,1.470083,-0.86715746,-0.39688939,0.30085981,0
0.88722897,5.3639078,-1.5687599,-0.47404736,0.84298325,-0.25427991,0
1.3505344,-3.0036952,2.050261,0.15269881,0.36312246,0.91914368,0
-4.3255711,3.0751934,0.56183147,-0.47404736,0.84298325,-0.25427991,0
0.085739613,-4.5490413,2.4563076,0.47404736,-0.84298325,0.25427991,0
3.6910517,0.43065214,-0.42662668,0.86715746,0.39688939,-0.30085981,0
3.4962058,-2.7969217,1.6121078,0.15269881,0.36312246,0.91914368,0
3.7576284,-2.9088809,1.0483246,0.47404736,-0.84298325,0.25427991,0
-3.9006915,2.4059825,0.78547502,0.15269881,0.36312246,0.91914368,0
3.880913,0.47411957,0.17794323,0.86715746,0.39688939,-0.30085981,0
0.55717015,5.0662117,-1.0060833,0.15269881,0.36312246,0.91914368,0
-1.5135589,4.343915,-0.47449183,-0.47404736,0.84298325,-0.25427991,0
-2.5083051,-2.5491371,1.0409449,-0.86715746,-0.39688939,0.30085981,0
0.19478822,-4.6933465,1.7746124,0.47404736,-0.84298325,0.25427991,0
-3.3928928,3.2904422,-0.46334887,-0.47404736,0.84298325,-0.25427991,0
4.0612774,0.094383806,0.19685936,0.86715746,0.39688939,-0.30085981,0
-1.794311,4.238605,-0.30021334,-0.47404736,0.84298325,-0.25427991,0
-0.89055914,4.5088563,-1.0891228,-0.47404736,0.84298325,-0.25427991,0
-1.9684442,4.085566,-0.48293161,-0.47404736,0.84298325,-0.25427991,0
1.7349992,4.2151537,-1.0720351,0.86715746,0.39688939,-0.30085981,0
-2.201756,3.8988316,-0.66703343,-0.47404736,0.84298325,-0.25427991,0
-2.2414505,-2.8283131,1.4418058,-0.86715746,-0.39688939,0.30085981,0
-3.6784816,-0.49926725,0.37234294,-0.86715746,-0.39688939,0.30085981,0
-4.4810157,0.8152023,-0.20674634,-0.86715746,-0.39688939,0.30085981,0
-0.53647447,-3.7262638,2.6492152,0.15269881,0.36312246,0.91914368,0
5.1704197,-2.0077951,0.62054396,0.86715746,0.39688939,-0.30085981,0
-3.1450844,-0.71061724,1.6309242,-0.86715746,-0.39688939,0.30085981,0
-1.8092086,-2.9931164,2.4702346,-0.86715746,-0.39688939,0.30085981,0
0.38876665,2.3049245,-2.0631533,-0.15269881,-0.36312246,-0.91914368,0
2.1208708,-3.7059417,1.4572916,0.47404736,-0.84298325,0.25427991,0
-1.9567268,3.6605952,-1.9136322,-0.47404736,0.84298325,-0.25427991,0
-1.6224251,4.093914,-1.1003313,-0.47404736,0.84298325,-0.25427991,0
-1.2192737,3.6784968,-0.16272068,0.15269881,0.36312246,0.91914368,0
4.5348086,-2.9146116,-0.41954994,0.47404736,-0.84298325,0.25427991,0
4.2498951,-0.46290553,0.0053398609,0.86715746,0.39688939,-0.30085981,0
-1.1994648,-5.0383244,1.5296731,-0.86715746,-0.39688939,0.30085981,0
0.99436188,4.8353438,-0.98750639,0.15269881,0.36312246,0.91914368,0
-0.93899721,4.5641012,-0.81567478,-0.47404736,0.84298325,-0.25427991,0
-4.1188493,2.9723725,-0.16442394,-0.47404736,0.84298325,-0.25427991,0
1.8283496,-2.3079216,1.6960042,0.15269881,0.36312246,0.91914368,0
0.65293992,2.37605,0.040798426,0.15269881,0.36312246,0.91914368,0
2.9003487,-3.57988,0.42204762,0.47404736,-0.84298325,0.25427991,0
-4.3282547,1.3864483,0.98713017,-0.86715746,-0.39688939,0.30085981,0
3.7140818,-2.9264867,1.071142,0.47404736,-0.84298325,0.25427991,0
-2.5039058,3.6163628,-1.0401781,-0.47404736,0.84298325,-0.25427991,0
-3.9010344,-0.18504237,0.14540625,-0.86715746,-0.39688939,0.30085981,0
-3.3925951,-0.66484398,-0.26169455,-0.15269881,-0.36312246,-0.91914368,0
0.54013735,-1.3547878,1.5334661,0.15269881,0.36312246,0.91914368,0
-0.66767526,-5.094903,2.0512495,0.47404736,-0.84298325,0.25427991,0
1.7364967,-3.6879642,2.2334685,0.47404736,-0.84298325,0.25427991,0
-1.3927423,1.0085137,-1.2550201,-0.15269881,-0.36312246,-0.91914368,0
-2.3272152,-2.5171764,1.6050553,-0.86715746,-0.39688939,0.30085981,0
0.33513701,-2.8454249,-0.019515276,-0.15269881,-0.36312246,-0.91914368,0
0.92265964,4.6028471,-2.9019737,0.86715746,0.39688939,-0.30085981,0
-2.5072832,-1.8349148,1.9860809,-0.86715746,-0.39688939,0.30085981,0
2.2072535,2.6339483,-0.31930923,0.15269881,0.36312246,0.91914368,0
-3.8105378,-0.19855076,-0.3764776,-0.15269881,-0.36312246,-0.91914368,0
4.534276,-1.8383601,-0.98947597,0.86715746,0.39688939,-0.30085981,0
4.8486528,-2.751642,-0.46436787,0.47404736,-0.84298325,0.25427991,0
2.7547605,1.9143785,-1.167959,0.86715746,0.39688939,-0.30085981,0
0.26623821,-4.9377527,0.83115888,0.47404736,-0.84298325,0.25427991,0
-1.4902159,4.1514874,-1.1559405,-0.47404736,0.84298325,-0.25427991,0
-5.2012081,2.1443646,-0.52912331,-0.86715746,-0.39688939,0.30085981,0
-1.0978577,-4.545064,2.4732327,-0.86715746,-0.39688939,0.30085981,0
-4.8190432,2.3553147,0.85066175,-0.86715746,-0.39688939,0.30085981,0
-1.0373433,4.5218997,-0.7722373,-0.47404736,0.84298325,-0.25427991,0
1.1083581,4.2511148,-2.8307409,0.86715746,0.39688939,-0.30085981,0
-0.30799556,-4.6307287,2.9195299,0.47404736,-0.84298325,0.25427991,0
1.621232,-3.7685046,2.1813474,0.47404736,-0.84298325,0.25427991,0
0.17774034,-4.7100124,1.7511456,0.47404736,-0.84298325,0.25427991,0
0.68635726,5.189764,-1.7715971,-0.47404736,0.84298325,-0.25427991,0
0.3837871,-2.2072661,-0.2797122,-0.15269881,-0.36312246,-0.91914368,0
-1.4632368,-0.09029758,1.3667326,0.15269881,0.36312246,0.91914368,0
-2.0644748,-3.3794425,1.2248555,-0.86715746,-0.39688939,0.30085981,0
-1.8534837,-3.7529204,1.3403022,-0.86715746,-0.39688939,0.30085981,0
-0.52338469,2.9902873,-2.18238,-0.15269881,-0.36312246,-0.91914368,0
3.7405143,-2.8086219,1.412607,0.47404736,-0.84298325,0.25427991,0
-2.0958228,4.1029811,-0.18772984,-0.47404736,0.84298325,-0.25427991,0
-2.6247511,-2.3273296,0.99792111,-0.86715746,-0.39688939,0.30085981,0
-1.3849049,-0.24242944,-0.76211703,-0.15269881,-0.36312246,-0.91914368,0
0.46363997,4.9979258,-1.9923697,-0.47404736,0.84298325,-0.25427991,0
1.0690649,4.899425,-2.0887547,0.86715746,0.39688939,-0.30085981,0
2.6052456,-1.2190135,1.1367464,0.15269881,0.36312246,0.91914368,0
2.1678483,0.77712607,-1.7551335,-0.15269881,-0.36312246,-0.91914368,0
-3.6622555,0.9044795,-0.83688188,-0.15269881,-0.36312246,-0.91914368,0
-3.1682346,3.3195691,-0.78561163,-0.47404736,0.84298325,-0.25427991,0
-2.7438059,3.3633475,-1.4317305,-0.47404736,0.84298325,-0.25427991,0
2.0523095,3.0287213,-1.7225851,0.86715746,0.39688939,-0.30085981,0
1.3929436,-3.2673995,2.1473961,0.15269881,0.36312246,0.91914368,0
3.3744071,0.5535174,-1.1772001,0.86715746,0.39688939,-0.30085981,0
3.3112466,-3.3517148,0.41242886,0.47404736,-0.84298325,0.25427991,0
1.6448526,4.2017283,-1.3495723,0.86715746,0.39688939,-0.30085981,0
-3.3651478,-1.2908403,0.23122358,-0.86715746,-0.39688939,0.30085981,0
3.4025502,1.2577546,0.025801897,0.15269881,0.36312246,0.91914368,0
-2.4219792,-0.13385022,1.5432162,0.15269881,0.36312246,0.91914368,0
2.0652413,-3.5894008,1.9473536,0.47404736,-0.84298325,0.25427991,0
-2.1832218,-2.674751,1.8122137,-0.86715746,-0.39688939,0.30085981,0
2.1583307,3.350862,-0.99204153,0.86715746,0.39688939,-0.30085981,0
0.49933767,4.7773414,-2.7901964,-0.47404736,0.84298325,-0.25427991,0
3.2835448,0.92197114,-0.95303202,0.86715746,0.39688939,-0.30085981,0
2.1583643,-2.1267688,1.5696108,0.15269881,0.36312246,0.91914368,0
0.47259724,-4.312438,2.5194819,0.47404736,-0.84298325,0.25427991,0
5.1472092,-1.9939742,0.5718751,0.86715746,0.39688939,-0.30085981,0
2.8070946,-3.0231559,1.8159685,0.15269881,0.36312246,0.91914368,0
4.6805897,-1.0154247,0.51784158,0.86715746,0.39688939,-0.30085981,0
-4.9825315,2.555212,0.062754631,-0.47404736,0.84298325,-0.25427991,0
2.9117227,-3.5585787,0.47146034,0.47404736,-0.84298325,0.25427991,0
1.7892182,-2.6069694,1.8206488,0.15269881,0.36312246,0.91914368,0
-0.8565259,-4.8560801,0.97279978,-0.15269881,-0.36312246,-0.91914368,0
1.2919945,1.2937225,0.36222208,0.15269881,0.36312246,0.91914368,0
3.0754671,-2.48946,-0.61540008,-0.15269881,-0.36312246,-0.91914368,0
3.6616704,-0.17128396,-1.3053772,0.86715746,0.39688939,-0.30085981,0
0.70757324,-3.5777545,0.20793056,-0.15269881,-0.36312246,-0.91914368,0
1.9903333,2.8064256,-2.1944664,0.86715746,0.39688939,-0.30085981,0
2.4357686,2.2872012,-1.595557,0.86715746,0.39688939,-0.30085981,0
-2.6106617,0.58613431,1.2901207,0.15269881,0.36312246,0.91914368,0
-2.0545039,-2.6990337,2.1511774,-0.86715746,-0.39688939,0.30085981,0
-4.1686959,1.0613369,1.0181394,-0.86715746,-0.39688939,0.30085981,0
2.6771071,-3.3292749,1.6690314,0.47404736,-0.84298325,0.25427991,0
1.6926785,-3.9453185,1.4619813,0.47404736,-0.84298325,0.25427991,0
1.7907739,-0.89412367,-1.0322353,-0.15269881,-0.36312246,-0.91914368,0
0.012373209,-4.7643199,1.8793952,0.47404736,-0.84298325,0.25427991,0
-1.4691944,3.2029915,0.066655159,0.15269881,0.36312246,0.91914368,0
-0.038492203,4.4756346,-2.7877455,-0.47404736,0.84298325,-0.25427991,0
-2.6670296,-2.3500204,0.84613079,-0.86715746,-0.39688939,0.30085981,0
3.9213982,-2.9451785,0.62268162,0.47404736,-0.84298325,0.25427991,0
4.758244,-2.6549878,0.024603844,0.47404736,-0.84298325,0.25427991,0
0.53453285,-1.9912245,1.7858317,0.15269881,0.36312246,0.91914368,0
1.4293411,3.8667326,-0.67710459,0.15269881,0.36312246,0.91914368,0
1.2275414,-2.3149016,-0.37736368,-0.15269881,-0.36312246,-0.91914368,0
-4.8737893,2.1238017,0.38745928,-0.86715746,-0.39688939,0.30085981,0
4.7218494,-1.4061158,0.85902953,0.15269881,0.36312246,0.91914368,0
-0.10227939,0.53810465,-1.2835643,-0.15269881,-0.36312246,-0.91914368,0
-3.3624341,3.2078705,-0.79387116,-0.47404736,0.84298325,-0.25427991,0
0.70950127,2.7111645,-0.10099077,0.15269881,0.36312246,0.91914368,0
-0.16632128,4.7003694,-1.8044012,-0.47404736,0.84298325,-0.25427991,0
0.71441692,0.1366834,0.91528285,0.15269881,0.36312246,0.91914368,0
-1.0270405,2.3454132,-1.8439385,-0.15269881,-0.36312246,-0.91914368,0
-4.1366563,0.44711024,0.30020761,-0.86715746,-0.39688939,0.30085981,0
-1.7468667,-3.1121144,0.43173158,-0.15269881,-0.36312246,-0.91914368,0
-2.8445404,3.7492862,0.035523415,-0.47404736,0.84298325,-0.25427991,0
1.1533332,5.096417,-1.1170578,0.15269881,0.36312246,0.91914368,0
-0.28433061,-4.8874927,2.0241926,0.47404736,-0.84298325,0.25427991,0
1.5439909,3.5290711,-2.5276406,0.86715746,0.39688939,-0.30085981,0
2.6354475,1.6196767,-1.9006165,0.86715746,0.39688939,-0.30085981,0
0.88341057,-0.3513639,1.0800186,0.15269881,0.36312246,0.91914368,0
1.132786,4.7911549,-2.0479212,0.86715746,0.39688939,-0.30085981,0
4.4488554,-2.7148335,0.40298986,0.47404736,-0.84298325,0.25427991,0
2.1412435,-3.5344746,1.9877548,0.47404736,-0.84298325,0.25427991,0
5.1840181,-1.9436461,0.74435997,0.86715746,0.39688939,-0.30085981,0
0.77368104,-0.47320083,1.146382,0.15269881,0.36312246,0.91914368,0
-1.693172,-1.7945271,2.0782154,0.15269881,0.36312246,0.91914368,0
-2.7937303,-1.4705293,1.6411568,-0.86715746,-0.39688939,0.30085981,0
-3.1965518,-1.1835172,-0.089353263,-0.15269881,-0.36312246,-0.91914368,0
3.8181109,-2.9156117,0.91325498,0.47404736,-0.84298325,0.25427991,0
-0.70603132,-3.2402272,0.30942905,-0.15269881,-0.36312246,-0.91914368,0
-4.1592083,0.19623613,-0.095744133,-0.86715746,-0.39688939,0.30085981,0
0.13796556,1.5014524,0.47187555,0.15269881,0.36312246,0.91914368,0
-0.33931708,4.3795681,-2.545403,-0.47404736,0.84298325,-0.25427991,0
-0.15994668,4.9806838,-0.88699245,-0.47404736,0.84298325,-0.25427991,0
-4.7175074,2.6130776,-0.23948812,-0.47404736,0.84298325,-0.25427991,0
2.5412574,2.0479491,-1.607128,0.86715746,0.39688939,-0.30085981,0
-2.5028696,-2.2991188,1.3864322,-0.86715746,-0.39688939,0.30085981,0
-2.7614534,-2.1914542,0.78315318,-0.86715746,-0.39688939,0.30085981,0
-0.44197977,4.3836198,-2.34058,-0.47404736,0.84298325,-0.25427991,0
0.29024768,4.8451495,-2.1755984,-0.47404736,0.84298325,-0.25427991,0
-0.7545985,0.67365348,0.9471941,0.15269881,0.36312246,0.91914368,0
4.1581187,-3.0672045,-0.22316885,0.47404736,-0.84298325,0.25427991,0
4.2782269,-2.5338612,1.3210452,0.47404736,-0.84298325,0.25427991,0
0.15500998,2.3954637,-2.0600879,-0.15269881,-0.36312246,-0.91914368,0
-4.4663053,1.3863645,0.58912134,-0.86715746,-0.39688939,0.30085981,0
-1.4874141,-3.4810376,2.7103159,0.15269881,0.36312246,0.91914368,0
2.2195659,3.0736952,-1.1811793,0.86715746,0.39688939,-0.30085981,0
-0.089857817,4.0114484,-2.6578283,-0.15269881,-0.36312246,-0.91914368,0
-0.69249338,2.3606725,0.27039218,0.15269881,0.36312246,0.91914368,0
2.5070424,2.8664858,-0.62594283,0.86715746,0.39688939,-0.30085981,0
1.9564269,-3.6130533,0.014401436,-0.15269881,-0.36312246,-0.91914368,0
-4.6606526,1.9963572,0.8336525,-0.86715746,-0.39688939,0.30085981,0
1.3365786,3.1797857,-0.39030445,0.15269881,0.36312246,0.91914368,0
-2.8255196,-1.2095735,1.8937808,-0.86715746,-0.39688939,0.30085981,0
0.74923682,4.9153352,-2.7986026,-0.47404736,0.84298325,-0.25427991,0
2.3514261,-3.889806,0.4179287,0.47404736,-0.84298325,0.25427991,0
3.5582623,-2.9359007,1.3304219,0.47404736,-0.84298325,0.25427991,0
-2.3870878,0.33701298,-0.82454079,-0.15269881,-0.36312246,-0.91914368,0
-3.9278829,2.8060715,-1.0717547,-0.47404736,0.84298325,-0.25427991,0
0.86277503,-2.7344594,2.0249271,0.15269881,0.36312246,0.91914368,0
2.4013002,3.0403817,-0.70131868,0.86715746,0.39688939,-0.30085981,0
-2.9450326,-0.4073571,1.7381651,0.15269881,0.36312246,0.91914368,0
3.2765255,0.73086095,-1.2253721,0.86715746,0.39688939,-0.30085981,0
-1.7144387,3.9062054,-1.5510817,-0.47404736,0.84298325,-0.25427991,0
1.4063498,-0.42460743,1.022078,0.15269881,0.36312246,0.91914368,0
-4.7890921,1.7111669,0.08723855,-0.86715746,-0.39688939,0.30085981,0
-0.45408458,0.71251661,-1.2940224,-0.15269881,-0.36312246,-0.91914368,0
-3.2368712,3.5146973,-0.010768414,-0.47404736,0.84298325,-0.25427991,0
4.5732336,-1.9639552,-1.0428739,0.86715746,0.39688939,-0.30085981,0
-2.9114435,-1.6370884,1.0821544,-0.86715746,-0.39688939,0.30085981,0
0.93400908,-0.98677325,-0.85329688,-0.15269881,-0.36312246,-0.91914368,0
3.7669744,-3.0926712,0.42160368,0.47404736,-0.84298325,0.25427991,0
0.11821771,4.9643788,-1.4596207,-0.47404736,0.84298325,-0.25427991,0
3.1875458,-3.4191751,0.41939926,0.47404736,-0.84298325,0.25427991,0
5.2310901,-2.1283398,0.88902235,0.47404736,-0.84298325,0.25427991,0
1.8544927,-3.9757297,1.0594971,0.47404736,-0.84298325,0.25427991,0
-4.4626951,2.9890599,0.53192234,-0.47404736,0.84298325,-0.25427991,0
4.1462593,-0.48686075,-0.32496858,0.86715746,0.39688939,-0.30085981,0
3.543385,-3.2896359,0.185462,0.47404736,-0.84298325,0.25427991,0
-3.4241798,0.39381534,-0.67468774,-0.15269881,-0.36312246,-0.91914368,0
1.7831316,-0.4862507,0.98383576,0.15269881,0.36312246,0.91914368,0
3.9770498,-1.6458654,1.0774813,0.15269881,0.36312246,0.91914368,0
-1.0841217,4.2307496,-0.4033494,0.15269881,0.36312246,0.91914368,0
-0.12578607,4.7988577,-1.5534632,-0.47404736,0.84298325,-0.25427991,0
-1.4098122,0.36744678,-0.99892056,-0.15269881,-0.36312246,-0.91914368,0
0.73801887,-3.2260516,2.2398646,0.15269881,0.36312246,0.91914368,0
4.2516956,-1.2244731,-0.99411654,0.86715746,0.39688939,-0.30085981,0
2.8575501,-3.3045683,1.4145432,0.47404736,-0.84298325,0.25427991,0
-2.9512775,-0.96398973,1.8552816,-0.86715746,-0.39688939,0.30085981,0
-1.3360643,0.42965773,-1.0357499,-0.15269881,-0.36312246,-0.91914368,0
-3.2660828,3.1523025,-1.1577153,-0.47404736,0.84298325,-0.25427991,0
-1.47167,3.8874044,-2.0659983,-0.47404736,0.84298325,-0.25427991,0
-2.2032969,1.2442435,-1.2134905,-0.15269881,-0.36312246,-0.91914368,0
1.6630678,1.9144158,0.05535996,0.15269881,0.36312246,0.91914368,0
1.0177352,5.0905957,-1.9845104,0.86715746,0.39688939,-0.30085981,0
-0.54268885,-2.5304561,0.0018862486,-0.15269881,-0.36312246,-0.91914368,0
-2.7980523,-1.9436257,1.0045978,-0.86715746,-0.39688939,0.30085981,0
-2.5912359,3.3156462,-1.874301,-0.47404736,0.84298325,-0.25427991,0
-0.77695882,4.0738215,-2.5683205,-0.15269881,-0.36312246,-0.91914368,0
-2.6624172,-2.3041179,0.91997725,-0.86715746,-0.39688939,0.30085981,0
-3.9549727,0.36550754,0.71621943,-0.86715746,-0.39688939,0.30085981,0
-1.2170894,-2.2887318,0.018428326,-0.15269881,-0.36312246,-0.91914368,0
-3.7466097,0.44704115,1.4243343,-0.86715746,-0.39688939,0.30085981,0
3.0198166,-3.3810923,0.8583436,0.47404736,-0.84298325,0.25427991,0
4.8232393,-1.3046397,0.80209541,0.15269881,0.36312246,0.91914368,0
3.6464324,0.89787292,0.061117768,0.86715746,0.39688939,-0.30085981,0
-4.3917732,0.4467718,-0.43555164,-0.86715746,-0.39688939,0.30085981,0
4.1164322,-0.77349383,-0.78905797,0.86715746,0.39688939,-0.30085981,0
-3.1330376,2.8340507,-1.6871097,-0.15269881,-0.36312246,-0.91914368,0
3.4717088,-0.22295552,0.59929085,0.15269881,0.36312246,0.91914368,0
-0.31356907,-4.6946111,2.7181392,0.47404736,-0.84298325,0.25427991,0
-1.9207699,3.6511137,-2.0120983,-0.47404736,0.84298325,-0.25427991,0
-0.15664148,-4.7412395,0.81115699,-0.15269881,-0.36312246,-0.91914368,0
-1.6807022,4.1100545,-0.93818021,-0.47404736,0.84298325,-0.25427991,0
-3.7717946,-0.023712516,0.73073506,-0.86715746,-0.39688939,0.30085981,0
2.4154623,2.4924455,-1.3833286,0.86715746,0.39688939,-0.30085981,0
-3.7732592,0.24145043,1.0763118,-0.86715746,-0.39688939,0.30085981,0
1.5958698,-4.3313212,0.36279249,0.47404736,-0.84298325,0.25427991,0
3.5845649,-0.012747288,-1.3184769,0.86715746,0.39688939,-0.30085981,0
-1.8022802,-3.0870376,2.3663056,-0.86715746,-0.39688939,0.30085981,0
-0.8861165,-5.2826195,1.8361709,0.47404736,-0.84298325,0.25427991,0
-4.5159626,1.6968631,0.85560179,-0.86715746,-0.39688939,0.30085981,0
-0.95978951,-5.0297256,1.0585561,-0.15269881,-0.36312246,-0.91914368,0
2.0489898,1.7386599,-2.1152568,-0.15269881,-0.36312246,-0.91914368,0
0.37894452,-3.3800726,0.18442822,-0.15269881,-0.36312246,-0.91914368,0
-3.607666,0.076602101,1.3361294,-0.86715746,-0.39688939,0.30085981,0
-0.65560198,4.4168386,-1.8322046,-0.47404736,0.84298325,-0.25427991,0
-2.4591129,3.8473957,-0.35776901,-0.47404736,0.84298325,-0.25427991,0
1.2815611,-3.777456,2.3674064,0.15269881,0.36312246,0.91914368,0
1.2424333,4.240396,-2.4584413,0.86715746,0.39688939,-0.30085981,0
1.2444673,4.4543552,-2.1703262,0.86715746,0.39688939,-0.30085981,0
1.9157935,-3.7348881,1.7436488,0.47404736,-0.84298325,0.25427991,0
-1.510677,4.2659745,-0.73824978,-0.47404736,0.84298325,-0.25427991,0
0.32396543,2.3662236,-2.0766048,-0.15269881,-0.36312246,-0.91914368,0
-1.3348503,-4.250844,2.178287,-0.86715746,-0.39688939,0.30085981,0
-5.112627,1.8826966,-0.61899543,-0.86715746,-0.39688939,0.30085981,0
-3.9808383,0.10482308,0.2977767,-0.86715746,-0.39688939,0.30085981,0
0.036704302,-3.124512,2.3162603,0.15269881,0.36312246,0.91914368,0
2.9880767,0.97240913,-1.7381091,0.86715746,0.39688939,-0.30085981,0
2.0546169,2.9183497,-1.8615335,0.86715746,0.39688939,-0.30085981,0
3.2447414,-2.3945179,-0.68103051,-0.15269881,-0.36312246,-0.91914368,0
-0.0052082539,0.41675609,-1.25175,-0.15269881,-0.36312246,-0.91914368,0
0.39525044,-4.7876048,1.088414,0.47404736,-0.84298325,0.25427991,0
0.97657752,4.791502,-0.96723151,0.15269881,0.36312246,0.91914368,0
2.7373235,1.6042645,-1.6273142,0.86715746,0.39688939,-0.30085981,0
0.30157518,1.934584,-1.902359,-0.15269881,-0.36312246,-0.91914368,0
-0.05063653,4.4950123,-2.7008648,-0.47404736,0.84298325,-0.25427991,0
0.16144103,-2.1382074,-0.27005625,-0.15269881,-0.36312246,-0.91914368,0
3.5337696,0.88615364,-0.27906632,0.86715746,0.39688939,-0.30085981,0
-2.942225,0.61123669,-0.84065151,-0.15269881,-0.36312246,-0.91914368,0
-0.2178492,-0.093038559,-1.0150211,-0.15269881,-0.36312246,-0.91914368,0
3.4060946,-3.4406042,-0.059078217,0.47404736,-0.84298325,0.25427991,0
3.4008985,-3.3076649,0.39132738,0.47404736,-0.84298325,0.25427991,0
0.96311629,-2.0162203,-0.4514327,-0.15269881,-0.36312246,-0.91914368,0
-0.31683016,-4.8997869,2.0440226,0.47404736,-0.84298325,0.25427991,0
4.1673613,-0.27360836,0.017173529,0.86715746,0.39688939,-0.30085981,0
-2.7301986,3.2967782,-1.6777859,-0.47404736,0.84298325,-0.25427991,0
1.7044785,1.3540883,0.26984704,0.15269881,0.36312246,0.91914368,0
0.69669497,-4.5495081,1.3157718,0.47404736,-0.84298325,0.25427991,0
-1.8326001,-0.7678231,-0.4801755,-0.15269881,-0.36312246,-0.91914368,0
-0.97695875,-4.4827332,2.9039218,-0.86715746,-0.39688939,0.30085981,0
0.27263272,2.4925718,-2.1179926,-0.15269881,-0.36312246,-0.91914368,0
0.073320389,-4.7386279,1.8509471,0.47404736,-0.84298325,0.25427991,0
3.2094796,-3.4005408,-0.27772665,-0.15269881,-0.36312246,-0.91914368,0
-4.0882854,2.6730371,-1.2137539,-0.47404736,0.84298325,-0.25427991,0
-3.4638116,1.8586882,-1.2468252,-0.15269881,-0.36312246,-0.91914368,0
4.9990463,-2.5916746,-0.2144227,0.47404736,-0.84298325,0.25427991,0
3.447947,-2.63675,-0.61909175,-0.15269881,-0.36312246,-0.91914368,0
3.7593315,0.64159769,0.048449993,0.86715746,0.39688939,-0.30085981,0
-3.522393,-0.58332264,0.71134555,-0.86715746,-0.39688939,0.30085981,0
2.8578527,1.9762895,-0.78914821,0.86715746,0.39688939,-0.30085981,0
2.128026,-3.8996003,0.80193973,0.47404736,-0.84298325,0.25427991,0
-2.9936929,-1.5769228,0.92445827,-0.86715746,-0.39688939,0.30085981,0
-1.3088834,3.9951138,-2.0124006,-0.47404736,0.84298325,-0.25427991,0
-1.4454153,-1.3427678,1.8585804,0.15269881,0.36312246,0.91914368,0
-2.1855764,0.51139593,1.2490271,0.15269881,0.36312246,0.91914368,0
-0.32213563,1.1882889,0.67203337,0.15269881,0.36312246,0.91914368,0
-2.5403726,-1.7462546,2.007668,-0.86715746,-0.39688939,0.30085981,0
-0.032485485,4.6606612,-2.1855478,-0.47404736,0.84298325,-0.25427991,0
-3.6506383,0.81546044,-0.80364347,-0.15269881,-0.36312246,-0.91914368,0
4.8123856,-2.5638425,0.22583199,0.47404736,-0.84298325,0.25427991,0
-0.44142807,4.282577,-2.676584,-0.47404736,0.84298325,-0.25427991,0
3.3433478,0.77005583,-0.98106641,0.86715746,0.39688939,-0.30085981,0
-1.7706738,3.7098784,-2.0971034,-0.47404736,0.84298325,-0.25427991,0
-0.76602888,4.2664194,-2.1250043,-0.47404736,0.84298325,-0.25427991,0
-2.5775788,-1.419737,2.0770764,0.15269881,0.36312246,0.91914368,0
0.29727149,-4.3740959,2.6419294,0.47404736,-0.84298325,0.25427991,0
-1.1010945,4.4736271,-0.8134172,-0.47404736,0.84298325,-0.25427991,0
-2.4483531,1.1617281,1.0357585,0.15269881,0.36312246,0.91914368,0
-3.74793,1.2066343,-0.94201994,-0.15269881,-0.36312246,-0.91914368,0
-4.1660976,0.85316575,0.75101137,-0.86715746,-0.39688939,0.30085981,0
2.7725382,2.2065172,-0.73133421,0.86715746,0.39688939,-0.30085981,0
-4.1389861,2.5971262,-1.370892,-0.47404736,0.84298325,-0.25427991,0
-3.0688288,-0.68057835,-0.30926627,-0.15269881,-0.36312246,-0.91914368,0
-2.4663973,-2.7859225,0.8493706,-0.86715746,-0.39688939,0.30085981,0
-0.98894858,4.2326279,-1.8214459,-0.47404736,0.84298325,-0.25427991,0
1.9805362,1.4969721,0.16753641,0.15269881,0.36312246,0.91914368,0
1.5597856,-2.5998728,-0.31997705,-0.15269881,-0.36312246,-0.91914368,0
1.540409,-0.52863991,-1.1350319,-0.15269881,-0.36312246,-0.91914368,0
-3.3233466,-1.2585106,0.39435291,-0.86715746,-0.39688939,0.30085981,0
4.1893578,-0.68927312,-0.46776485,0.86715746,0.39688939,-0.30085981,0
-0.99113131,-5.3205314,1.757863,-0.86715746,-0.39688939,0.30085981,0
-1.1892266,-3.1355314,2.5242796,0.15269881,0.36312246,0.91914368,0
0.79724717,-4.5267687,1.2036996,0.47404736,-0.84298325,0.25427991,0
2.6695344,-3.5547628,0.93561602,0.47404736,-0.84298325,0.25427991,0
-0.76360798,-3.0693145,2.4274108,0.15269881,0.36312246,0.91914368,0
-4.6555419,2.3499539,-1.2273109,-0.47404736,0.84298325,-0.25427991,0
-3.2651501,-1.1509483,-0.090823829,-0.15269881,-0.36312246,-0.91914368,0
-1.9852808,-2.8580718,2.1408978,-0.86715746,-0.39688939,0.30085981,0
-0.9492451,-0.37607592,1.3942436,0.15269881,0.36312246,0.91914368,0
-1.2296336,4.473897,-0.57289171,-0.47404736,0.84298325,-0.25427991,0
-1.7761352,-3.3372695,2.1115613,-0.86715746,-0.39688939,0.30085981,0
1.5409967,-4.1889744,0.93699455,0.47404736,-0.84298325,0.25427991,0
-4.3986931,2.8023291,-0.20644283,-0.47404736,0.84298325,-0.25427991,0
-2.6038494,3.3827369,-1.6283669,-0.47404736,0.84298325,-0.25427991,0
-4.62077,2.5341225,-0.68158293,-0.47404736,0.84298325,-0.25427991,0
-2.7393472,-2.4001107,0.57161385,-0.86715746,-0.39688939,0.30085981,0
1.1226649,-0.37570202,-1.1260521,-0.15269881,-0.36312246,-0.91914368,0
1.4375422,-4.2579165,0.90130711,0.47404736,-0.84298325,0.25427991,0
2.3378859,-3.6692176,1.1744623,0.47404736,-0.84298325,0.25427991,0
4.3202906,-1.2641124,-0.84870148,0.86715746,0.39688939,-0.30085981,0
1.1821995,4.1984525,-2.6873813,0.86715746,0.39688939,-0.30085981,0
-2.244602,-3.0374606,0.48492789,-0.15269881,-0.36312246,-0.91914368,0
-1.8016021,-1.076282,1.8124747,0.15269881,0.36312246,0.91914368,0
1.416806,4.3163919,-1.8555993,0.86715746,0.39688939,-0.30085981,0
1.847574,-3.6410999,2.1817536,0.47404736,-0.84298325,0.25427991,0
-2.240726,3.5098844,-1.8838122,-0.47404736,0.84298325,-0.25427991,0
-0.78452969,1.8909882,-1.7046995,-0.15269881,-0.36312246,-0.91914368,0
-1.6859686,-4.1296582,1.3261386,-0.86715746,-0.39688939,0.30085981,0
-3.0816627,0.16254961,-0.64022529,-0.15269881,-0.36312246,-0.91914368,0
-1.6790895,4.239337,-0.51259112,-0.47404736,0.84298325,-0.25427991,0
0.203439,4.5833893,-2.8815455,-0.47404736,0.84298325,-0.25427991,0
1.9702913,-3.0758486,1.9758053,0.15269881,0.36312246,0.91914368,0
-3.1485481,3.1470244,-1.3943291,-0.47404736,0.84298325,-0.25427991,0
0.9345789,2.9081573,-0.21620858,0.15269881,0.36312246,0.91914368,0
0.99666911,-2.5137496,1.9154884,0.15269881,0.36312246,0.91914368,0
2.2903628,2.4612045,-1.7851119,0.86715746,0.39688939,-0.30085981,0
4.161665,-0.47798684,-0.26885748,0.86715746,0.39688939,-0.30085981,0
-2.9720759,-1.690297,0.83720362,-0.86715746,-0.39688939,0.30085981,0
1.2342997,-4.1288729,1.7080095,0.47404736,-0.84298325,0.25427991,0
4.4155536,-2.93418,-0.26209927,0.47404736,-0.84298325,0.25427991,0
2.2910252,-3.1285872,-0.23258185,-0.15269881,-0.36312246,-0.91914368,0
2.626873,1.7949033,-1.6941741,0.86715746,0.39688939,-0.30085981,0
-3.7952089,2.0330276,-1.2606454,-0.15269881,-0.36312246,-0.91914368,0
-1.4989288,4.2103477,-0.94456625,-0.47404736,0.84298325,-0.25427991,0
-1.2773778,-4.0450087,2.6154735,-0.86715746,-0.39688939,0.30085981,0
3.2808013,0.48134542,-1.5422027,0.86715746,0.39688939,-0.30085981,0
5.0656047,-2.2361805,0.017154217,0.86715746,0.39688939,-0.30085981,0
2.7913308,-3.5659912,0.67133093,0.47404736,-0.84298325,0.25427991,0
2.221998,3.3495152,-0.81031239,0.86715746,0.39688939,-0.30085981,0
-3.3910894,-0.25882596,1.517869,-0.86715746,-0.39688939,0.30085981,0
4.2826004,-0.46903709,0.091518402,0.86715746,0.39688939,-0.30085981,0
-2.8707044,-1.4281347,1.4752234,-0.86715746,-0.39688939,0.30085981,0
3.20297,-3.2011392,1.1134722,0.47404736,-0.84298325,0.25427991,0
-0.22776151,4.5298772,-2.2550716,-0.47404736,0.84298325,-0.25427991,0
2.6811173,-2.5122979,-0.54086351,-0.15269881,-0.36312246,-0.91914368,0
-0.63639641,4.34237,-2.1148853,-0.47404736,0.84298325,-0.25427991,0
1.9925481,-3.7073698,1.6917846,0.47404736,-0.84298325,0.25427991,0
-2.6994286,3.4587719,-1.1981118,-0.47404736,0.84298325,-0.25427991,0
3.1514792,-0.39498127,0.72045267,0.15269881,0.36312246,0.91914368,0
4.5693622,-0.84371042,0.42377615,0.86715746,0.39688939,-0.30085981,0
-4.2545819,3.0876944,0.47093248,-0.47404736,0.84298325,-0.25427991,0
-0.74968177,1.3972501,0.66050887,0.15269881,0.36312246,0.91914368,0
-3.0031934,3.289166,-1.1940861,-0.47404736,0.84298325,-0.25427991,0
-0.15516758,-3.167474,2.365109,0.15269881,0.36312246,0.91914368,0
1.5854421,4.2832074,-1.4133229,0.86715746,0.39688939,-0.30085981,0
-1.173023,0.2752862,-1.0018493,-0.15269881,-0.36312246,-0.91914368,0
-1.2443082,-4.5819473,2.0024664,-0.86715746,-0.39688939,0.30085981,0
0.7691803,0.57844877,0.73165846,0.15269881,0.36312246,0.91914368,0
-2.012845,-2.8358488,0.36677605,-0.15269881,-0.36312246,-0.91914368,0
-1.9123788,-3.6760142,1.2720046,-0.86715746,-0.39688939,0.30085981,0
-0.46449471,-5.0713677,1.7504897,0.47404736,-0.84298325,0.25427991,0
-3.4838588,1.6198204,1.0268118,0.15269881,0.36312246,0.91914368,0
2.0257468,-2.4951479,-0.43876147,-0.15269881,-0.36312246,-0.91914368,0
-0.25670147,4.5769382,-2.0451043,-0.47404736,0.84298325,-0.25427991,0
0.07888639,-3.8753641,0.42995048,-0.15269881,-0.36312246,-0.91914368,0
1.9252892,0.91292882,-1.7684878,-0.15269881,-0.36312246,-0.91914368,0
3.5580616,-2.5863144,1.5186279,0.15269881,0.36312246,0.91914368,0
1.2481928,-4.1257248,1.6925459,0.47404736,-0.84298325,0.25427991,0
-3.0541341,3.4881487,-0.43945456,-0.47404736,0.84298325,-0.25427991,0
-1.2102578,4.2163835,-0.376719,0.15269881,0.36312246,0.91914368,0
-0.71136379,-4.3346815,2.9186351,0.15269881,0.36312246,0.91914368,0
4.4418192,-1.2036381,-0.41864681,0.86715746,0.39688939,-0.30085981,0
-4.2970486,0.81371689,0.32153559,-0.86715746,-0.39688939,0.30085981,0
4.1440935,-2.8090987,0.6586442,0.47404736,-0.84298325,0.25427991,0
-2.8157549,2.0491185,-1.4297204,-0.15269881,-0.36312246,-0.91914368,0
-4.0306215,0.62175542,0.83621693,-0.86715746,-0.39688939,0.30085981,0
3.1332371,-3.3499324,0.7501967,0.47404736,-0.84298325,0.25427991,0
1.7217636,4.0066271,-1.385269,0.86715746,0.39688939,-0.30085981,0
-3.6229804,2.9133737,-1.2844524,-0.47404736,0.84298325,-0.25427991,0
-4.1705241,3.0177727,0.082422733,-0.47404736,0.84298325,-0.25427991,0
0.71422935,-4.2622261,2.2354741,0.47404736,-0.84298325,0.25427991,0
2.4847865,-1.0857077,1.1040938,0.15269881,0.36312246,0.91914368,0
2.3044968,3.263339,-0.68621039,0.86715746,0.39688939,-0.30085981,0
-2.8565979,3.4796124,-0.8360157,-0.47404736,0.84298325,-0.25427991,0
-3.6410515,1.458035,-1.0590954,-0.15269881,-0.36312246,-0.91914368,0
2.7079501,1.4575187,-1.9055594,0.86715746,0.39688939,-0.30085981,0
-1.9280365,3.7194192,-1.7721055,-0.47404736,0.84298325,-0.25427991,0
-4.8638783,2.7993035,0.65075922,-0.47404736,0.84298325,-0.25427991,0
4.1705217,-1.0968016,-1.0596609,0.86715746,0.39688939,-0.30085981,0
3.0888851,-0.22975433,-1.5103625,-0.15269881,-0.36312246,-0.91914368,0
-0.84879088,4.4453292,-1.377594,-0.47404736,0.84298325,-0.25427991,0
1.133774,-1.0195,1.3023834,0.15269881,0.36312246,0.91914368,0
1.2471339,-1.4152119,1.439883,0.15269881,0.36312246,0.91914368,0
-3.3557575,3.3162301,-0.44708681,-0.47404736,0.84298325,-0.25427991,0
-0.41634393,2.5455561,-2.0244641,-0.15269881,-0.36312246,-0.91914368,0
0.80768609,4.0181255,-2.8095765,-0.15269881,-0.36312246,-0.91914368,0
4.9404616,-2.5312123,0.095239162,0.47404736,-0.84298325,0.25427991,0
3.0659237,1.2783182,-1.110183,0.86715746,0.39688939,-0.30085981,0
0.97372055,1.3153129,-1.7693706,-0.15269881,-0.36312246,-0.91914368,0
-1.9196692,-0.63343543,-0.51880252,-0.15269881,-0.36312246,-0.91914368,0
2.019877,-3.9845572,0.72191024,0.47404736,-0.84298325,0.25427991,0
-1.1073152,1.958945,-1.677922,-0.15269881,-0.36312246,-0.91914368,0
4.1060033,-3.0068626,0.074030876,0.47404736,-0.84298325,0.25427991,0
1.7441247,1.9797728,0.016073883,0.15269881,0.36312246,0.91914368,0
-0.095965624,-2.5037928,-0.082862616,-0.15269881,-0.36312246,-0.91914368,0
2.7374203,-1.1105301,1.0719299,0.15269881,0.36312246,0.91914368,0
2.1473224,-2.3065596,-0.53346372,-0.15269881,-0.36312246,-0.91914368,0
1.0625594,1.5466638,-1.8755283,-0.15269881,-0.36312246,-0.91914368,0
2.815773,0.75336802,0.32255,0.15269881,0.36312246,0.91914368,0
-2.5832193,0.65359938,1.2589085,0.15269881,0.36312246,0.91914368,0
-1.4694331,-3.7839363,2.4063208,-0.86715746,-0.39688939,0.30085981,0
-3.6835899,-0.061706781,-0.45163012,-0.15269881,-0.36312246,-0.91914368,0
0.73064131,0.97093153,0.58300424,0.15269881,0.36312246,0.91914368,0
0.38553318,-0.83144063,1.352394,0.15269881,0.36312246,0.91914368,0
1.7003794,3.1064458,-0.42176938,0.15269881,0.36312246,0.91914368,0
-1.8240852,-1.6681081,-0.12591785,-0.15269881,-0.36312246,-0.91914368,0
0.8068499,-3.7249625,0.24959397,-0.15269881,-0.36312246,-0.91914368,0
-4.8907042,1.3174357,-0.72504044,-0.86715746,-0.39688939,0.30085981,0
1.7453442,3.2722557,-2.2860732,0.86715746,0.39688939,-0.30085981,0
4.9562445,-2.2420766,1.0243526,0.47404736,-0.84298325,0.25427991,0
0.7847842,-4.2646942,2.0957587,0.47404736,-0.84298325,0.25427991,0
0.96407318,3.6760643,-0.52448249,0.15269881,0.36312246,0.91914368,0
3.2544751,0.64943659,-1.3963399,0.86715746,0.39688939,-0.30085981,0
1.5730186,4.4973974,-1.1665747,0.86715746,0.39688939,-0.30085981,0
-4.3146048,0.46676213,-0.18676114,-0.86715746,-0.39688939,0.30085981,0
-0.53173554,4.4487419,-0.58124018,0.15269881,0.36312246,0.91914368,0
0.68545139,-0.92752635,1.3405282,0.15269881,0.36312246,0.91914368,0
-0.066806674,-1.547451,-0.46552479,-0.15269881,-0.36312246,-0.91914368,0
-3.3899779,-1.3733635,0.050793588,-0.86715746,-0.39688939,0.30085981,0
-0.78620696,-5.1347079,2.1402643,0.47404736,-0.84298325,0.25427991,0
3.3376946,-3.091625,1.2253675,0.47404736,-0.84298325,0.25427991,0
-0.56977195,0.46723908,-1.1779023,-0.15269881,-0.36312246,-0.91914368,0
-4.5943122,0.78525716,-0.57280087,-0.86715746,-0.39688939,0.30085981,0
-4.5718861,2.813477,0.15339422,-0.47404736,0.84298325,-0.25427991,0
-1.8171034,2.7076244,-1.8557816,-0.15269881,-0.36312246,-0.91914368,0
0.53886569,1.6187798,0.35892153,0.15269881,0.36312246,0.91914368,0
-1.3615336,-4.7186637,1.4842399,-0.86715746,-0.39688939,0.30085981,0
-2.9628403,-1.0081265,1.7637312,-0.86715746,-0.39688939,0.30085981,0
-2.2301345,3.764883,-1.058192,-0.47404736,0.84298325,-0.25427991,0
-0.035813332,4.7806301,-1.781625,-0.47404736,0.84298325,-0.25427991,0
-1.1591914,-3.380631,0.44018197,-0.15269881,-0.36312246,-0.91914368,0
0.36791825,-4.4615049,2.2204475,0.47404736,-0.84298325,0.25427991,0
-4.7412119,2.7563941,0.27982378,-0.47404736,0.84298325,-0.25427991,0
-2.2937841,2.616847,0.43521166,0.15269881,0.36312246,0.91914368,0
-2.4437878,-2.4336042,1.3793101,-0.86715746,-0.39688939,0.30085981,0
1.6279213,-4.3150425,0.35700655,0.47404736,-0.84298325,0.25427991,0
1.0722923,-4.4394832,0.9803071,0.47404736,-0.84298325,0.25427991,0
2.4775436,-3.8541903,0.3008852,0.47404736,-0.84298325,0.25427991,0
-2.5436978,-0.40484911,-0.50543833,-0.15269881,-0.36312246,-0.91914368,0
-3.1165488,3.3161111,-0.89343309,-0.47404736,0.84298325,-0.25427991,0
2.760371,2.4974294,-0.38263682,0.86715746,0.39688939,-0.30085981,0
-4.3328114,0.78282851,0.17771125,-0.86715746,-0.39688939,0.30085981,0
-4.5720673,1.2231519,0.068980932,-0.86715746,-0.39688939,0.30085981,0
4.2425423,-1.0778234,-0.82704234,0.86715746,0.39688939,-0.30085981,0
4.1613054,-2.7453058,0.83804059,0.47404736,-0.84298325,0.25427991,0
-3.4476285,2.9842658,-1.3763359,-0.47404736,0.84298325,-0.25427991,0
-0.44034016,-0.050758481,1.1811765,0.15269881,0.36312246,0.91914368,0
-1.8415987,3.6691561,-2.0998809,-0.47404736,0.84298325,-0.25427991,0
-0.51628208,-2.969914,0.17111409,-0.15269881,-0.36312246,-0.91914368,0
-0.34498885,0.9416554,0.77326655,0.15269881,0.36312246,0.91914368,0
