-2.8426199,2.0044208,-1.477248,-0.89457858,0.17412984,-0.41159201,0
1.3709521,3.168493,1.472545,0.11894876,0.98052204,0.15629366,0
-1.4203746,0.79237759,0.51244861,-0.43079033,-0.090858579,0.89786649,0
-1.279218,1.9232924,0.6946162,-0.43079033,-0.090858579,0.89786649,0
-0.90926623,-1.7900169,0.49635252,-0.43079033,-0.090858579,0.89786649,0
-3.1219277,0.92830193,-1.3254511,-0.89457858,0.17412984,-0.41159201,0
3.1145172,0.46672082,1.9317427,0.89457858,-0.17412984,0.41159201,0
-2.9390991,1.4396315,-1.5064974,-0.89457858,0.17412984,-0.41159201,0
3.4700909,1.6838566,1.6738442,0.89457858,-0.17412984,0.41159201,0
1.4862312,2.9663904,2.1270156,-0.43079033,-0.090858579,0.89786649,0
3.2621965,0.06138432,1.4392834,0.89457858,-0.17412984,0.41159201,0
-3.1254885,-1.6803812,-2.4213536,-0.89457858,0.17412984,-0.41159201,0
0.97304642,-2.3003132,1.3478348,-0.43079033,-0.090858579,0.89786649,0
3.2180731,0.27420747,1.625222,0.89457858,-0.17412984,0.41159201,0
2.2525101,0.89960682,0.058022797,0.43079033,0.090858579,-0.89786649,0
-3.0141602,0.30139893,-1.8249006,-0.89457858,0.17412984,-0.41159201,0
3.0780957,-3.3285382,0.026270866,0.43079033,0.090858579,-0.89786649,0
1.3028526,3.3755298,0.22550964,0.11894876,0.98052204,0.15629366,0
0.090242624,3.545917,0.079437613,0.11894876,0.98052204,0.15629366,0
-1.0552211,-3.3539047,-0.54963869,-0.11894876,-0.98052204,-0.15629366,0
-3.0307269,3.9430704,-0.036896229,0.11894876,0.98052204,0.15629366,0
-2.603653,-3.0547566,-1.2479222,-0.11894876,-0.98052204,-0.15629366,0
0.18119335,3.6507089,-0.64720309,0.11894876,0.98052204,0.15629366,0
-2.3865895,2.0351937,-2.0528722,0.43079033,0.090858579,-0.89786649,0
0.57723093,-3.7029073,0.39746833,-0.11894876,-0.98052204,-0.15629366,0
3.1947184,-2.5792136,0.4688015,0.89457858,-0.17412984,0.41159201,0
-1.8897948,-3.0471261,-1.8390826,-0.11894876,-0.98052204,-0.15629366,0
-1.4382174,-3.3766708,-0.11532998,-0.11894876,-0.98052204,-0.15629366,0
-2.933588,3.9570768,-0.45343399,-0.89457858,0.17412984,-0.41159201,0
-0.33007789,3.5754635,0.21396422,0.11894876,0.98052204,0.15629366,0
3.4835558,1.1793272,1.4311306,0.89457858,-0.17412984,0.41159201,0
2.5192225,-1.0258149,2.2186513,-0.43079033,-0.090858579,0.89786649,0
-3.7103493,-0.8269639,-0.78913105,-0.89457858,0.17412984,-0.41159201,0
0.35710454,-3.7288389,0.72768235,-0.11894876,-0.98052204,-0.15629366,0
-3.4152255,-2.4010646,-2.0965168,-0.89457858,0.17412984,-0.41159201,0
3.428025,2.579123,2.1440277,0.89457858,-0.17412984,0.41159201,0
1.3596056,-2.6015909,1.502816,-0.43079033,-0.090858579,0.89786649,0
2.8381701,-1.3747659,1.7533042,0.89457858,-0.17412984,0.41159201,0
1.3043184,-3.659533,-0.42800188,-0.11894876,-0.98052204,-0.15629366,0
-2.971684,0.10476983,-2.0004077,-0.89457858,0.17412984,-0.41159201,0
3.15727,-3.5162385,0.045264244,0.43079033,0.090858579,-0.89786649,0
3.3615785,0.89156526,1.5745013,0.89457858,-0.17412984,0.41159201,0
2.9543068,-0.36533278,1.9279407,0.89457858,-0.17412984,0.41159201,0
3.2064703,1.1538594,2.0225902,0.89457858,-0.17412984,0.41159201,0
2.5253646,-4.0535345,1.2998822,0.89457858,-0.17412984,0.41159201,0
-2.9324713,3.5690336,-0.62002802,-0.89457858,0.17412984,-0.41159201,0
2.3909426,-4.0568666,1.5906334,0.89457858,-0.17412984,0.41159201,0
-3.1017423,-0.68414837,-2.0514939,-0.89457858,0.17412984,-0.41159201,0
-1.0237496,-3.4872017,0.26266003,-0.11894876,-0.98052204,-0.15629366,0
2.8256612,-0.82078302,0.1589241,0.43079033,0.090858579,-0.89786649,0
2.2042363,-2.3054459,1.9380322,-0.43079033,-0.090858579,0.89786649,0
0.7202673,-3.6242568,-0.20481205,-0.11894876,-0.98052204,-0.15629366,0
-2.8370936,1.0409236,-1.8968804,-0.89457858,0.17412984,-0.41159201,0
3.2303095,2.8227866,2.226285,0.11894876,0.98052204,0.15629366,0
2.5947304,-4.0098162,0.78744936,-0.11894876,-0.98052204,-0.15629366,0
3.1739218,0.83312106,0.49338233,0.43079033,0.090858579,-0.89786649,0
2.2050171,-0.64964449,2.1059637,-0.43079033,-0.090858579,0.89786649,0
-1.8061932,-3.0327592,-1.9928418,-0.11894876,-0.98052204,-0.15629366,0
-2.1497455,0.30758893,0.11344373,-0.43079033,-0.090858579,0.89786649,0
0.48897266,-3.6494715,0.1294024,-0.11894876,-0.98052204,-0.15629366,0
1.8045311,-4.0267091,1.4948168,-0.11894876,-0.98052204,-0.15629366,0
3.1103323,-1.9133806,0.93390179,0.89457858,-0.17412984,0.41159201,0
-3.8110819,-2.2872021,-1.1879675,-0.89457858,0.17412984,-0.41159201,0
-0.097984791,-3.5345874,-0.14462209,-0.11894876,-0.98052204,-0.15629366,0
-2.1684887,2.7754986,-1.8733146,0.43079033,0.090858579,-0.89786649,0
-3.135983,2.127986,-0.787359,-0.89457858,0.17412984,-0.41159201,0
-2.3285341,-0.87744033,-0.092255533,-0.43079033,-0.090858579,0.89786649,0
-0.79861355,3.554013,0.7051208,0.11894876,0.98052204,0.15629366,0
-3.3605311,1.2095126,-0.68788671,-0.89457858,0.17412984,-0.41159201,0
-0.84141135,-3.4672451,-0.0013097525,-0.11894876,-0.98052204,-0.15629366,0
-0.33975649,3.4146845,1.2299917,0.11894876,0.98052204,0.15629366,0
2.5456691,-3.7069874,1.4023628,0.89457858,-0.17412984,0.41159201,0
-3.1636481,2.6795506,-0.49388194,-0.89457858,0.17412984,-0.41159201,0
-0.10665131,3.436476,0.91587543,0.11894876,0.98052204,0.15629366,0
-2.7460649,2.1553416,-1.6232567,-0.89457858,0.17412984,-0.41159201,0
2.7650316,0.25401366,2.4660997,-0.43079033,-0.090858579,0.89786649,0
-0.6741811,0.09627974,-1.4274759,0.43079033,0.090858579,-0.89786649,0
-1.9613752,-1.3793002,-2.1943827,0.43079033,0.090858579,-0.89786649,0
2.6696529,-2.6715589,1.5709422,0.89457858,-0.17412984,0.41159201,0
0.058157325,-0.80245304,1.0604514,-0.43079033,-0.090858579,0.89786649,0
2.8954806,-2.1359644,1.3067064,0.89457858,-0.17412984,0.41159201,0
0.68067884,-3.4932814,-0.99637032,-0.11894876,-0.98052204,-0.15629366,0
0.22201586,3.5791559,-0.22937524,0.11894876,0.98052204,0.15629366,0
-2.5350099,-1.7896197,-0.28362831,-0.43079033,-0.090858579,0.89786649,0
2.4505184,1.3163006,2.4226952,-0.43079033,-0.090858579,0.89786649,0
-3.2630877,-0.060446501,-1.4369497,-0.89457858,0.17412984,-0.41159201,0
-2.2973819,2.4009395,-1.9730594,0.43079033,0.090858579,-0.89786649,0
3.1931696,-1.7917777,0.80530405,0.89457858,-0.17412984,0.41159201,0
-3.3139753,-1.166081,-1.7941029,-0.89457858,0.17412984,-0.41159201,0
2.3702416,-3.663209,-0.34721923,0.43079033,0.090858579,-0.89786649,0
3.2446156,-2.0758834,0.57329345,0.89457858,-0.17412984,0.41159201,0
-1.800589,3.5401895,0.60808611,-0.43079033,-0.090858579,0.89786649,0
3.1554856,-1.0708961,1.192188,0.89457858,-0.17412984,0.41159201,0
0.046352148,-3.5986133,0.14719892,-0.11894876,-0.98052204,-0.15629366,0
-0.27745032,3.5795655,0.14817667,0.11894876,0.98052204,0.15629366,0
1.3511833,-0.63029212,1.6982583,-0.43079033,-0.090858579,0.89786649,0
-3.1887326,0.42047012,-1.3950989,-0.89457858,0.17412984,-0.41159201,0
2.9534607,1.7219267,0.47754788,0.43079033,0.090858579,-0.89786649,0
-2.9678445,-0.79299396,-2.3885641,-0.89457858,0.17412984,-0.41159201,0
3.4729066,-0.40455747,0.78419018,0.89457858,-0.17412984,0.41159201,0
3.0879383,-1.6598827,1.0898204,0.89457858,-0.17412984,0.41159201,0
-1.3748052,-3.3251808,-0.4866184,-0.11894876,-0.98052204,-0.15629366,0
1.319571,-3.8495474,0.7524631,-0.11894876,-0.98052204,-0.15629366,0
0.31945896,-2.3180814,-1.1950524,0.43079033,0.090858579,-0.89786649,0
3.7470698,1.4371297,0.82949686,0.43079033,0.090858579,-0.89786649,0
0.071659625,-0.99263149,-1.1798176,0.43079033,0.090858579,-0.89786649,0
2.2695069,-0.97709209,2.1037698,-0.43079033,-0.090858579,0.89786649,0
1.8403556,3.1224308,1.4042772,0.11894876,0.98052204,0.15629366,0
3.9487295,2.8455555,1.1250157,0.89457858,-0.17412984,0.41159201,0
1.0053174,2.4436517,-0.38412404,0.43079033,0.090858579,-0.89786649,0
2.939522,0.19557381,0.31640279,0.43079033,0.090858579,-0.89786649,0
0.3485477,-3.570513,-0.2590785,-0.11894876,-0.98052204,-0.15629366,0
-0.46759385,0.79134715,-1.2580202,0.43079033,0.090858579,-0.89786649,0
2.7832646,-3.4717698,0.98547125,0.89457858,-0.17412984,0.41159201,0
3.063283,-2.6618099,0.7195282,0.89457858,-0.17412984,0.41159201,0
1.0023079,3.2507613,1.2369883,0.11894876,0.98052204,0.15629366,0
-1.8737457,3.8868518,-1.619436,0.43079033,0.090858579,-0.89786649,0
0.82811916,1.7899305,1.6922073,-0.43079033,-0.090858579,0.89786649,0
2.9932327,-0.69606769,1.703415,0.89457858,-0.17412984,0.41159201,0
-3.3136296,-0.87909496,-1.6734402,-0.89457858,0.17412984,-0.41159201,0
-2.408529,-1.4826994,-2.4193878,0.43079033,0.090858579,-0.89786649,0
3.0905824,-0.54390156,1.5562052,0.89457858,-0.17412984,0.41159201,0
-2.4621668,-2.9298925,-2.1389484,-0.11894876,-0.98052204,-0.15629366,0
-2.716038,2.0610583,-1.7284074,-0.89457858,0.17412984,-0.41159201,0
3.4019063,1.0055966,1.5350931,0.89457858,-0.17412984,0.41159201,0
-1.8472303,2.3174915,-1.7655239,0.43079033,0.090858579,-0.89786649,0
3.2766342,-2.3232408,0.39905429,0.89457858,-0.17412984,0.41159201,0
1.8325949,-3.9263783,0.84402752,-0.11894876,-0.98052204,-0.15629366,0
-0.66052485,3.5275116,0.76628447,0.11894876,0.98052204,0.15629366,0
1.0041652,-3.4299154,-0.97904587,0.43079033,0.090858579,-0.89786649,0
2.4154544,2.9558318,2.0117664,0.11894876,0.98052204,0.15629366,0
-3.1210294,-0.24569869,-1.8240817,-0.89457858,0.17412984,-0.41159201,0
3.1669166,0.15508199,1.6860108,0.89457858,-0.17412984,0.41159201,0
-1.5885692,-3.0992165,-1.7415404,-0.11894876,-0.98052204,-0.15629366,0
-2.50458,4.0738626,-1.2578597,0.11894876,0.98052204,0.15629366,0
-3.2184563,1.6772277,-0.79880714,-0.89457858,0.17412984,-0.41159201,0
2.5660362,-4.0665302,1.1650922,-0.11894876,-0.98052204,-0.15629366,0
-3.0888438,2.065464,-0.91626477,-0.89457858,0.17412984,-0.41159201,0
-0.44985437,-3.4038014,-0.69732749,-0.11894876,-0.98052204,-0.15629366,0
0.69661713,2.2324843,-0.5536052,0.43079033,0.090858579,-0.89786649,0
3.5036285,0.72862542,1.1968272,0.89457858,-0.17412984,0.41159201,0
3.1524267,0.40677851,1.8239877,0.89457858,-0.17412984,0.41159201,0
3.0865312,-2.8133843,0.60487318,0.89457858,-0.17412984,0.41159201,0
-0.26650667,3.4512026,0.94514477,0.11894876,0.98052204,0.15629366,0
-3.1641414,1.8961409,-0.82424355,-0.89457858,0.17412984,-0.41159201,0
-0.73995805,3.2900457,1.0916569,-0.43079033,-0.090858579,0.89786649,0
-3.4147167,-0.53338182,-0.57858241,-0.43079033,-0.090858579,0.89786649,0
1.4547721,1.7549037,1.9893267,-0.43079033,-0.090858579,0.89786649,0
3.1059341,-2.9083028,0.52254438,0.89457858,-0.17412984,0.41159201,0
-3.1900361,3.0603008,-0.10712314,-0.43079033,-0.090858579,0.89786649,0
0.5966028,-2.095324,1.1879634,-0.43079033,-0.090858579,0.89786649,0
-1.4001838,-0.12910485,0.42888772,-0.43079033,-0.090858579,0.89786649,0
-0.66608644,-3.1591215,0.47448349,-0.43079033,-0.090858579,0.89786649,0
-0.29944277,3.6712432,-0.41023278,0.11894876,0.98052204,0.15629366,0
3.6458447,0.44893646,0.76939929,0.89457858,-0.17412984,0.41159201,0
-3.8381476,-2.4128165,-0.97192901,-0.43079033,-0.090858579,0.89786649,0
-0.21726608,3.6367011,-0.25607157,0.11894876,0.98052204,0.15629366,0
-1.5994781,0.17511752,-1.8634496,0.43079033,0.090858579,-0.89786649,0
-1.258184,-3.1998234,-1.3618141,-0.11894876,-0.98052204,-0.15629366,0
-1.515651,3.7588077,-0.033969641,0.11894876,0.98052204,0.15629366,0
-3.1106472,0.45884728,-1.5485789,-0.89457858,0.17412984,-0.41159201,0
3.0027325,2.9064541,1.8745886,0.11894876,0.98052204,0.15629366,0
-3.73472,-1.0559956,-0.83305812,-0.89457858,0.17412984,-0.41159201,0
-2.5996051,-1.6933844,-0.30488223,-0.43079033,-0.090858579,0.89786649,0
-3.3444462,1.1615596,-0.74313259,-0.89457858,0.17412984,-0.41159201,0
2.2909546,0.72910035,2.2867165,-0.43079033,-0.090858579,0.89786649,0
-1.3409657,3.8847446,-0.9569943,0.11894876,0.98052204,0.15629366,0
0.57247818,1.2328374,1.513178,-0.43079033,-0.090858579,0.89786649,0
2.755115,-3.8118587,-0.17760205,0.43079033,0.090858579,-0.89786649,0
0.91195518,-0.0075979233,-0.67697001,0.43079033,0.090858579,-0.89786649,0
-2.8091121,3.8823094,0.15882349,-0.43079033,-0.090858579,0.89786649,0
-3.4827495,-1.4835134,-1.5615731,-0.89457858,0.17412984,-0.41159201,0
1.792115,-3.9477158,1.0086946,-0.11894876,-0.98052204,-0.15629366,0
-2.3706503,3.8640532,-0.043533325,0.11894876,0.98052204,0.15629366,0
0.99027252,-3.6116972,-0.48909855,-0.11894876,-0.98052204,-0.15629366,0
-0.16684103,1.5180705,-1.0401809,0.43079033,0.090858579,-0.89786649,0
0.2727766,-3.4451749,-0.98773289,-0.11894876,-0.98052204,-0.15629366,0
-1.3906882,3.6127665,0.78712845,0.11894876,0.98052204,0.15629366,0
2.901803,-3.9689386,0.51749754,0.89457858,-0.17412984,0.41159201,0
2.3337824,3.1075907,1.1218522,0.11894876,0.98052204,0.15629366,0
1.8440683,3.0052574,2.1365504,0.11894876,0.98052204,0.15629366,0
2.9749126,2.3731337,2.7812412,-0.43079033,-0.090858579,0.89786649,0
-3.0082245,3.2193277,-0.60332942,-0.89457858,0.17412984,-0.41159201,0
-2.9161453,2.7018173,-1.0224001,-0.89457858,0.17412984,-0.41159201,0
3.2397044,2.2075205,2.3961236,0.89457858,-0.17412984,0.41159201,0
3.4645138,1.8916782,1.7738879,0.89457858,-0.17412984,0.41159201,0
1.3546239,1.4443018,-0.31765705,0.43079033,0.090858579,-0.89786649,0
1.3098279,1.6673392,-0.31658,0.43079033,0.090858579,-0.89786649,0
-3.3020544,-0.02377975,-1.3367448,-0.89457858,0.17412984,-0.41159201,0
3.7948661,2.9457045,1.0254873,0.11894876,0.98052204,0.15629366,0
2.3442156,-3.8589344,0.031536341,-0.11894876,-0.98052204,-0.15629366,0
1.8027918,-3.8336139,0.28474307,-0.11894876,-0.98052204,-0.15629366,0
1.6635079,-1.8399062,-0.50179815,0.43079033,0.090858579,-0.89786649,0
-2.7518418,3.9768791,-0.84007263,-0.89457858,0.17412984,-0.41159201,0
3.4399736,1.6099322,1.7080282,0.89457858,-0.17412984,0.41159201,0
-0.59734464,3.6849401,-0.26944137,0.11894876,0.98052204,0.15629366,0
-2.9478059,-1.1024839,-2.5630522,-0.89457858,0.17412984,-0.41159201,0
-3.2095284,1.9217294,-0.71477103,-0.89457858,0.17412984,-0.41159201,0
-2.3997507,-0.14452934,-0.05225873,-0.43079033,-0.090858579,0.89786649,0
-2.2455866,-3.0633645,-1.4664303,-0.11894876,-0.98052204,-0.15629366,0
-0.92945266,-3.2544267,-1.2694407,-0.11894876,-0.98052204,-0.15629366,0
1.1439219,-3.8677201,1.0001493,-0.11894876,-0.98052204,-0.15629366,0
3.4789724,-0.78246164,0.61112928,0.89457858,-0.17412984,0.41159201,0
-3.0034344,2.3690748,-0.087540865,-0.43079033,-0.090858579,0.89786649,0
2.9259858,0.28995061,2.2667229,0.89457858,-0.17412984,0.41159201,0
-1.182544,3.8196988,-0.66948938,0.11894876,0.98052204,0.15629366,0
0.21991229,3.510417,0.20346487,0.11894876,0.98052204,0.15629366,0
-2.0792956,-2.1825376,-2.332243,0.43079033,0.090858579,-0.89786649,0
-3.2607412,0.15776742,-1.3497314,-0.89457858,0.17412984,-0.41159201,0
-2.8477664,-0.1437315,-2.3748691,-0.89457858,0.17412984,-0.41159201,0
-1.2899373,-3.1892157,-1.4041955,-0.11894876,-0.98052204,-0.15629366,0
-2.5753417,-2.4579902,-0.37061405,-0.43079033,-0.090858579,0.89786649,0
1.2802637,3.1736908,1.5089574,0.11894876,0.98052204,0.15629366,0
-3.3895047,-1.8517269,-1.9200149,-0.89457858,0.17412984,-0.41159201,0
-1.7500994,4.0080509,-1.4191914,0.11894876,0.98052204,0.15629366,0
-0.41922507,-0.24911249,-1.3401012,0.43079033,0.090858579,-0.89786649,0
1.7274525,-2.8698421,-0.57534146,0.43079033,0.090858579,-0.89786649,0
2.1353374,1.7657964,2.3169599,-0.43079033,-0.090858579,0.89786649,0
-1.8060005,-0.95196301,0.15091142,-0.43079033,-0.090858579,0.89786649,0
1.110903,-3.5673709,-0.85898972,-0.11894876,-0.98052204,-0.15629366,0
2.1654248,-4.0874,1.6009083,-0.11894876,-0.98052204,-0.15629366,0
-3.3125005,-1.4527632,-0.62257504,-0.43079033,-0.090858579,0.89786649,0
2.3670287,-1.5796446,-0.13791704,0.43079033,0.090858579,-0.89786649,0
3.4128294,2.8604426,1.851138,0.11894876,0.98052204,0.15629366,0
-2.3623426,1.8161349,-2.063406,0.43079033,0.090858579,-0.89786649,0
-2.8926263,2.2954369,-1.2454431,-0.89457858,0.17412984,-0.41159201,0
1.2810404,3.425833,-0.073471904,0.11894876,0.98052204,0.15629366,0
-0.76492381,1.9349072,0.94254661,-0.43079033,-0.090858579,0.89786649,0
2.1342082,0.9827106,0.0096721053,0.43079033,0.090858579,-0.89786649,0
2.6001935,-3.0058286,1.5804925,0.89457858,-0.17412984,0.41159201,0
1.6496332,3.1231015,1.5452216,0.11894876,0.98052204,0.15629366,0
-3.4636407,0.98393703,-0.55921483,-0.89457858,0.17412984,-0.41159201,0
-0.9112767,1.3827519,-1.4110495,0.43079033,0.090858579,-0.89786649,0
1.8015716,-0.87639582,-0.3380549,0.43079033,0.090858579,-0.89786649,0
3.3052821,0.13729119,1.3777523,0.89457858,-0.17412984,0.41159201,0
-1.455404,3.3048682,-1.4776123,0.43079033,0.090858579,-0.89786649,0
-1.505778,1.0163568,-1.7333643,0.43079033,0.090858579,-0.89786649,0
2.8992367,-3.8373528,-0.1110332,0.43079033,0.090858579,-0.89786649,0
1.1054411,-1.4058121,-0.72562742,0.43079033,0.090858579,-0.89786649,0
1.8969822,3.0025151,2.1134841,0.11894876,0.98052204,0.15629366,0
0.094174981,-2.0766792,-1.2787137,0.43079033,0.090858579,-0.89786649,0
-2.8033557,0.23081398,-2.3129368,-0.89457858,0.17412984,-0.41159201,0
1.0487962,1.4488766,1.7635741,-0.43079033,-0.090858579,0.89786649,0
3.824425,2.3519917,1.186377,0.89457858,-0.17412984,0.41159201,0
1.3641731,-3.213407,-0.78440714,0.43079033,0.090858579,-0.89786649,0
2.8016908,-2.5397527,1.339726,0.89457858,-0.17412984,0.41159201,0
-1.8154633,3.7447708,0.28226781,0.11894876,0.98052204,0.15629366,0
-1.8200343,-2.648859,-2.2550399,0.43079033,0.090858579,-0.89786649,0
0.60161197,1.1625063,-0.70746326,0.43079033,0.090858579,-0.89786649,0
-0.53491592,-3.1236389,-1.6864934,0.43079033,0.090858579,-0.89786649,0
2.7685196,-2.9586434,1.2346039,0.89457858,-0.17412984,0.41159201,0
-2.9822309,-2.7676651,-2.7608969,-0.11894876,-0.98052204,-0.15629366,0
1.0724375,-3.8429997,0.89946747,-0.11894876,-0.98052204,-0.15629366,0
1.2221006,2.6247644,1.9657171,-0.43079033,-0.090858579,0.89786649,0
3.1129427,1.0547968,2.1839585,0.89457858,-0.17412984,0.41159201,0
2.9874151,2.5236835,2.8024745,-0.43079033,-0.090858579,0.89786649,0
1.8062563,-3.8047643,0.10111451,-0.11894876,-0.98052204,-0.15629366,0
3.1140397,1.8741646,2.5282197,0.89457858,-0.17412984,0.41159201,0
-3.2672486,-0.26173449,-1.5130638,-0.89457858,0.17412984,-0.41159201,0
3.0942726,-0.5519383,1.5447845,0.89457858,-0.17412984,0.41159201,0
-3.3659573,0.14184844,-1.1277832,-0.89457858,0.17412984,-0.41159201,0
1.6200814,3.0739121,1.8763047,0.11894876,0.98052204,0.15629366,0
-3.3528364,-0.60799003,-1.4735316,-0.89457858,0.17412984,-0.41159201,0
-0.30351123,-0.13053679,0.95491904,-0.43079033,-0.090858579,0.89786649,0
-2.7057419,2.523567,-1.555114,-0.89457858,0.17412984,-0.41159201,0
3.5707715,1.1944103,1.2479511,0.89457858,-0.17412984,0.41159201,0
0.12451863,-3.4854786,-0.6220504,-0.11894876,-0.98052204,-0.15629366,0
0.3377018,3.5728841,-0.2780726,0.11894876,0.98052204,0.15629366,0
1.213553,-3.0198445,1.3904164,-0.43079033,-0.090858579,0.89786649,0
-1.4442704,0.97467244,0.51943064,-0.43079033,-0.090858579,0.89786649,0
2.0778873,-0.028247714,-0.11965322,0.43079033,0.090858579,-0.89786649,0
0.69924879,-3.4833868,-1.0725793,-0.11894876,-0.98052204,-0.15629366,0
3.1163607,2.8891621,1.896594,0.11894876,0.98052204,0.15629366,0
-2.778192,3.0735593,-1.1649656,-0.89457858,0.17412984,-0.41159201,0
-1.0842633,3.0003371,-1.3303576,0.43079033,0.090858579,-0.89786649,0
3.4630909,0.54743814,0.60321426,0.43079033,0.090858579,-0.89786649,0
-0.7923708,-0.30590326,-1.524881,0.43079033,0.090858579,-0.89786649,0
-1.1162312,-3.4583125,0.22823095,-0.43079033,-0.090858579,0.89786649,0
3.0348172,-0.81109631,1.5643685,0.89457858,-0.17412984,0.41159201,0
-2.2214599,-3.0736208,-1.4204478,-0.11894876,-0.98052204,-0.15629366,0
0.674891,-3.537358,1.0796006,-0.43079033,-0.090858579,0.89786649,0
-3.51489,-0.72893834,-1.172483,-0.89457858,0.17412984,-0.41159201,0
-3.115602,-0.55905569,-1.968448,-0.89457858,0.17412984,-0.41159201,0
-2.4921629,3.5925975,-1.5670519,-0.89457858,0.17412984,-0.41159201,0
-2.0604675,4.0720139,-1.5842593,0.11894876,0.98052204,0.15629366,0
0.71617448,-0.74042469,1.3824406,-0.43079033,-0.090858579,0.89786649,0
-2.5434146,-2.8668027,-2.4729142,-0.11894876,-0.98052204,-0.15629366,0
-3.1172173,-1.2363831,-0.5069834,-0.43079033,-0.090858579,0.89786649,0
0.37069631,2.5288236,1.5475104,-0.43079033,-0.090858579,0.89786649,0
-2.2264667,4.0022974,-1.0205495,0.11894876,0.98052204,0.15629366,0
-3.11113,-2.0225885,-2.5973365,-0.89457858,0.17412984,-0.41159201,0
3.3196306,0.30833364,1.418929,0.89457858,-0.17412984,0.41159201,0
0.80889392,-3.7645481,0.60786605,-0.11894876,-0.98052204,-0.15629366,0
1.7123889,2.2722197,-0.062223852,0.43079033,0.090858579,-0.89786649,0
2.8351552,-1.6209869,1.6556895,0.89457858,-0.17412984,0.41159201,0
-2.1393666,-2.3683958,-2.3798721,0.43079033,0.090858579,-0.89786649,0
-2.6644707,2.4725108,-1.6664166,-0.89457858,0.17412984,-0.41159201,0
-2.889174,2.4370265,-1.1930442,-0.89457858,0.17412984,-0.41159201,0
-1.4677296,-1.8266436,0.22469914,-0.43079033,-0.090858579,0.89786649,0
1.9352202,3.2171531,0.73783118,0.11894876,0.98052204,0.15629366,0
2.8760931,-0.52059531,2.032249,0.89457858,-0.17412984,0.41159201,0
-0.74770778,0.056031227,0.76067597,-0.43079033,-0.090858579,0.89786649,0
3.1802583,-2.1589394,0.67803359,0.89457858,-0.17412984,0.41159201,0
-2.4409838,-0.515091,-2.337043,0.43079033,0.090858579,-0.89786649,0
-0.00087332726,0.67862725,-1.0454973,0.43079033,0.090858579,-0.89786649,0
0.72523475,2.5026848,-0.51253188,0.43079033,0.090858579,-0.89786649,0
3.6026907,1.6463466,1.3697743,0.89457858,-0.17412984,0.41159201,0
3.8644342,2.182024,1.027511,0.89457858,-0.17412984,0.41159201,0
-3.2782061,-2.3063352,-2.3542469,-0.89457858,0.17412984,-0.41159201,0
-2.8849456,2.7918024,-1.0521417,-0.89457858,0.17412984,-0.41159201,0
-2.3239603,1.5004961,-2.076931,0.43079033,0.090858579,-0.89786649,0
-3.1572978,0.77824938,-1.312058,-0.89457858,0.17412984,-0.41159201,0
1.3135915,-3.8858843,0.98497581,-0.11894876,-0.98052204,-0.15629366,0
-2.2659655,2.9238763,0.32243443,-0.43079033,-0.090858579,0.89786649,0
1.0651987,0.17569429,1.6426057,-0.43079033,-0.090858579,0.89786649,0
-2.7944579,3.9359999,-0.76474309,-0.89457858,0.17412984,-0.41159201,0
-0.14855689,0.48281279,-1.1361701,0.43079033,0.090858579,-0.89786649,0
-1.5239444,-3.1485033,-1.4815189,-0.11894876,-0.98052204,-0.15629366,0
-2.974328,0.96774286,-1.6295679,-0.89457858,0.17412984,-0.41159201,0
-2.1061125,-2.9848585,-2.0650916,-0.11894876,-0.98052204,-0.15629366,0
2.3567171,3.0588958,1.4098873,0.11894876,0.98052204,0.15629366,0
-2.8822613,1.511652,-1.5995617,-0.89457858,0.17412984,-0.41159201,0
-3.0834262,-1.2830771,-2.3446887,-0.89457858,0.17412984,-0.41159201,0
-3.1401219,-2.5929646,-2.7756305,-0.89457858,0.17412984,-0.41159201,0
0.69290709,2.4363449,1.6927465,-0.43079033,-0.090858579,0.89786649,0
0.01966548,-2.4144592,0.87885833,-0.43079033,-0.090858579,0.89786649,0
-2.4391046,3.9185398,-1.5444772,-0.89457858,0.17412984,-0.41159201,0
-0.25933743,-3.2975616,-1.5088283,-0.11894876,-0.98052204,-0.15629366,0
-3.8285928,-2.1454496,-0.9402886,-0.43079033,-0.090858579,0.89786649,0
-1.6692152,0.16612543,-1.8978186,0.43079033,0.090858579,-0.89786649,0
0.39933729,-1.5601344,1.1474745,-0.43079033,-0.090858579,0.89786649,0
3.0826461,-2.5005465,0.7456677,0.89457858,-0.17412984,0.41159201,0
0.26112127,3.3993669,0.86878359,0.11894876,0.98052204,0.15629366,0
-0.68099976,-3.5418758,0.34481025,-0.11894876,-0.98052204,-0.15629366,0
-0.04916358,3.5566554,0.11816716,0.11894876,0.98052204,0.15629366,0
3.1084375,-0.14551246,1.6859421,0.89457858,-0.17412984,0.41159201,0
0.99215794,3.3833756,0.41274476,0.11894876,0.98052204,0.15629366,0
3.0222614,-0.84716856,1.5763969,0.89457858,-0.17412984,0.41159201,0
3.2962751,2.1965432,2.2685249,0.89457858,-0.17412984,0.41159201,0
-1.9001722,3.8037894,-0.0235219,0.11894876,0.98052204,0.15629366,0
-0.76324654,-3.4415822,-0.22179592,-0.11894876,-0.98052204,-0.15629366,0
-3.2776666,0.74183273,-1.0658476,-0.89457858,0.17412984,-0.41159201,0
3.3749671,0.52354574,1.3897055,0.89457858,-0.17412984,0.41159201,0
-0.20871902,3.5093246,-0.85877109,0.43079033,0.090858579,-0.89786649,0
-3.4822216,-0.64125061,-1.2063892,-0.89457858,0.17412984,-0.41159201,0
-1.454164,-3.162291,-1.4481254,-0.11894876,-0.98052204,-0.15629366,0
0.022123337,-3.6582394,0.53970885,-0.11894876,-0.98052204,-0.15629366,0
-2.2627678,3.8992708,-0.34657836,0.11894876,0.98052204,0.15629366,0
-2.981041,3.965317,-0.21427536,0.11894876,0.98052204,0.15629366,0
-3.6773782,-2.2768207,-1.4741755,-0.89457858,0.17412984,-0.41159201,0
-0.67855787,-3.3725836,-0.71911842,-0.11894876,-0.98052204,-0.15629366,0
3.4528446,-0.32375193,0.51013899,0.43079033,0.090858579,-0.89786649,0
3.3069868,1.8170106,2.0846767,0.89457858,-0.17412984,0.41159201,0
0.41518283,1.0772079,1.42196,-0.43079033,-0.090858579,0.89786649,0
2.7680364,-3.5714641,-0.14707613,0.43079033,0.090858579,-0.89786649,0
-1.4739885,3.6916437,0.35568333,0.11894876,0.98052204,0.15629366,0
-2.0710959,-1.7449869,-2.2840312,0.43079033,0.090858579,-0.89786649,0
1.9674715,-3.0452256,-0.47792935,0.43079033,0.090858579,-0.89786649,0
1.3467727,3.2094028,1.2342955,0.11894876,0.98052204,0.15629366,0
1.6845298,3.0630634,1.8953171,0.11894876,0.98052204,0.15629366,0
3.1502709,-2.3396811,0.66674399,0.89457858,-0.17412984,0.41159201,0
0.81904435,-3.0915365,1.1938787,-0.43079033,-0.090858579,0.89786649,0
1.2535754,1.1121972,-0.39974651,0.43079033,0.090858579,-0.89786649,0
3.3893304,0.12689722,1.1906798,0.89457858,-0.17412984,0.41159201,0
3.5761166,1.9675285,1.5634131,0.89457858,-0.17412984,0.41159201,0
-2.0908105,3.7876902,0.22256398,0.11894876,0.98052204,0.15629366,0
-1.8071967,-1.9812965,0.046175167,-0.43079033,-0.090858579,0.89786649,0
-0.39301407,-2.3275602,-1.5378516,0.43079033,0.090858579,-0.89786649,0
-3.6172907,-1.813243,-0.80528998,-0.43079033,-0.090858579,0.89786649,0
2.5567122,-2.6837189,1.8112702,0.89457858,-0.17412984,0.41159201,0
-1.5149662,3.8636351,-1.4496455,0.43079033,0.090858579,-0.89786649,0
-1.011138,3.8099313,-0.73866272,0.11894876,0.98052204,0.15629366,0
2.9926033,2.9574583,1.5623178,0.11894876,0.98052204,0.15629366,0
0.25846422,-1.4719688,-1.138696,0.43079033,0.090858579,-0.89786649,0
-2.8284273,2.2316427,-1.4119658,-0.89457858,0.17412984,-0.41159201,0
-3.2279239,-1.9044507,-2.29351,-0.89457858,0.17412984,-0.41159201,0
-0.15414238,3.4513001,0.85901654,0.11894876,0.98052204,0.15629366,0
3.0983372,-0.33973408,1.6257268,0.89457858,-0.17412984,0.41159201,0
-3.6582665,-2.0448477,-1.4175744,-0.89457858,0.17412984,-0.41159201,0
3.3675506,2.9052403,1.6045548,0.11894876,0.98052204,0.15629366,0
3.0388138,-1.4230758,0.2002449,0.43079033,0.090858579,-0.89786649,0
-1.7049092,1.0517924,-1.8253205,0.43079033,0.090858579,-0.89786649,0
-0.014625072,-3.5275612,-0.25214386,-0.11894876,-0.98052204,-0.15629366,0
2.054004,-3.7840345,-0.21748662,-0.11894876,-0.98052204,-0.15629366,0
-0.35573196,-3.5325537,0.58560073,-0.43079033,-0.090858579,0.89786649,0
0.62596512,-2.1599302,1.1955135,-0.43079033,-0.090858579,0.89786649,0
-0.55247021,0.69872648,0.91938645,-0.43079033,-0.090858579,0.89786649,0
-3.67822,-0.83371115,-0.73540092,-0.43079033,-0.090858579,0.89786649,0
-2.8790693,0.10633427,-2.2010396,-0.89457858,0.17412984,-0.41159201,0
3.1934643,-0.16265786,1.4938864,0.89457858,-0.17412984,0.41159201,0
2.9130242,-0.0053541064,2.1699612,0.89457858,-0.17412984,0.41159201,0
0.1703968,1.9303513,-0.83665621,0.43079033,0.090858579,-0.89786649,0
2.2463241,-3.1089849,1.8769126,-0.43079033,-0.090858579,0.89786649,0
-1.9913173,3.9230793,-0.70253158,0.11894876,0.98052204,0.15629366,0
-1.7368708,3.9457378,-1.038331,0.11894876,0.98052204,0.15629366,0
-1.4340262,-0.62553751,0.36241436,-0.43079033,-0.090858579,0.89786649,0
2.7289786,1.5117477,2.5760767,-0.43079033,-0.090858579,0.89786649,0
3.4818468,0.66939163,1.2191088,0.89457858,-0.17412984,0.41159201,0
1.267128,-2.7237055,-0.78141379,0.43079033,0.090858579,-0.89786649,0
3.1889825,-1.8716503,0.78061295,0.89457858,-0.17412984,0.41159201,0
1.7931044,-3.8439918,0.35722041,-0.11894876,-0.98052204,-0.15629366,0
3.0642009,-0.46556938,1.6466839,0.89457858,-0.17412984,0.41159201,0
1.7374775,3.0883217,1.6965592,0.11894876,0.98052204,0.15629366,0
-1.6216264,3.8139675,-0.29936624,0.11894876,0.98052204,0.15629366,0
-1.2670584,-2.1763165,0.28559506,-0.43079033,-0.090858579,0.89786649,0
2.2541304,-1.0002443,-0.13345301,0.43079033,0.090858579,-0.89786649,0
1.0324614,-1.3298658,-0.75295717,0.43079033,0.090858579,-0.89786649,0
-1.8351796,-3.2254477,-0.76193094,-0.11894876,-0.98052204,-0.15629366,0
0.28815651,3.5991623,-0.4052248,0.11894876,0.98052204,0.15629366,0
1.9829358,0.57868373,-0.10379249,0.43079033,0.090858579,-0.89786649,0
-1.4604571,1.3200309,-1.6808898,0.43079033,0.090858579,-0.89786649,0
1.6994818,-0.29918206,-0.32862651,0.43079033,0.090858579,-0.89786649,0
-0.93946934,-3.4212916,-0.21497524,-0.11894876,-0.98052204,-0.15629366,0
3.9255419,2.9172881,1.1043086,0.11894876,0.98052204,0.15629366,0
-2.5713241,-0.51224089,-0.17178857,-0.43079033,-0.090858579,0.89786649,0
0.30474913,2.3133402,1.4940637,-0.43079033,-0.090858579,0.89786649,0
2.1368654,0.80073953,2.2200348,-0.43079033,-0.090858579,0.89786649,0
-3.2061605,0.56770575,-1.29493,-0.89457858,0.17412984,-0.41159201,0
1.4655886,3.2062275,1.1637911,0.11894876,0.98052204,0.15629366,0
3.1550195,-1.8759905,0.85259461,0.89457858,-0.17412984,0.41159201,0
3.1559067,2.9659379,1.3848382,0.11894876,0.98052204,0.15629366,0
2.9341054,-2.9898362,0.86151314,0.89457858,-0.17412984,0.41159201,0
-1.6711276,1.1588905,-1.7982743,0.43079033,0.090858579,-0.89786649,0
-1.4034435,2.4308891,-1.5411232,0.43079033,0.090858579,-0.89786649,0
-3.4649372,-1.7951218,-1.7321179,-0.89457858,0.17412984,-0.41159201,0
-2.6989474,3.5680737,-1.1279874,-0.89457858,0.17412984,-0.41159201,0
-2.0302639,3.9039991,-0.55319166,0.11894876,0.98052204,0.15629366,0
1.2801794,1.4375958,-0.35405371,0.43079033,0.090858579,-0.89786649,0
3.1835797,-2.4727907,0.53803468,0.89457858,-0.17412984,0.41159201,0
-0.8617475,-2.4820042,0.4491269,-0.43079033,-0.090858579,0.89786649,0
1.936442,3.0280967,1.9229624,0.11894876,0.98052204,0.15629366,0
-3.380352,1.5681189,-0.49309301,-0.89457858,0.17412984,-0.41159201,0
-0.4979198,-2.1918595,0.65304995,-0.43079033,-0.090858579,0.89786649,0
3.0431042,-2.6384554,0.77326584,0.89457858,-0.17412984,0.41159201,0
-0.38705611,-3.3305049,-1.2049532,-0.11894876,-0.98052204,-0.15629366,0
-0.36482504,-0.72314662,-1.3619698,0.43079033,0.090858579,-0.89786649,0
2.4514761,-3.8501742,-0.10505104,-0.11894876,-0.98052204,-0.15629366,0
0.96548963,3.2476971,1.2842319,0.11894876,0.98052204,0.15629366,0
2.1650476,2.9426472,2.2850556,0.11894876,0.98052204,0.15629366,0
2.9679329,1.406478,2.6479151,0.89457858,-0.17412984,0.41159201,0
2.6690743,2.9974985,0.47018135,0.43079033,0.090858579,-0.89786649,0
0.45698285,3.5791097,-0.4079088,0.11894876,0.98052204,0.15629366,0
1.2981725,3.2508917,1.0109996,0.11894876,0.98052204,0.15629366,0
2.8719661,3.0764294,0.90775466,0.11894876,0.98052204,0.15629366,0
-2.9588938,3.5016861,0.048442841,-0.43079033,-0.090858579,0.89786649,0
-0.85805988,-3.2702694,-1.2243832,-0.11894876,-0.98052204,-0.15629366,0
-0.81830883,-3.2543006,0.39181697,-0.43079033,-0.090858579,0.89786649,0
-2.5528045,3.4412119,-1.4992959,-0.89457858,0.17412984,-0.41159201,0
-1.69402,3.8851058,-0.69056463,0.11894876,0.98052204,0.15629366,0
2.3409741,-3.9882379,1.728272,0.89457858,-0.17412984,0.41159201,0
1.9523187,-3.0904136,1.7377298,-0.43079033,-0.090858579,0.89786649,0
3.0841737,-3.6316824,-0.0014891624,0.43079033,0.090858579,-0.89786649,0
-0.042584181,2.5297589,1.3493156,-0.43079033,-0.090858579,0.89786649,0
1.2279224,-1.7986885,-0.70661843,0.43079033,0.090858579,-0.89786649,0
0.56571484,2.7647278,1.6649508,-0.43079033,-0.090858579,0.89786649,0
-3.8146398,-2.3603759,-1.211192,-0.89457858,0.17412984,-0.41159201,0
2.8590522,0.083862633,2.3250117,0.89457858,-0.17412984,0.41159201,0
2.1181517,-3.4000998,-0.44154525,0.43079033,0.090858579,-0.89786649,0
-3.2075603,-2.044445,-2.3969958,-0.89457858,0.17412984,-0.41159201,0
-1.7222095,3.6676161,0.65858698,-0.43079033,-0.090858579,0.89786649,0
-0.74572587,3.5258248,0.84171021,0.11894876,0.98052204,0.15629366,0
-0.088844299,0.55484784,-1.1002309,0.43079033,0.090858579,-0.89786649,0
-1.0209978,3.6520765,0.2591579,0.11894876,0.98052204,0.15629366,0
-3.2268996,0.14473176,-1.4287999,-0.89457858,0.17412984,-0.41159201,0
2.7647898,-3.7591884,0.90402842,0.89457858,-0.17412984,0.41159201,0
3.2347863,0.65148723,1.748511,0.89457858,-0.17412984,0.41159201,0
3.6058118,1.0264614,1.1007397,0.89457858,-0.17412984,0.41159201,0
-3.0790701,-0.89502823,-2.1899867,-0.89457858,0.17412984,-0.41159201,0
-1.1055474,-3.1361079,-1.8777058,-0.11894876,-0.98052204,-0.15629366,0
3.6544962,2.4980118,1.6174872,0.89457858,-0.17412984,0.41159201,0
-2.5393305,-3.1274056,-0.84110498,-0.11894876,-0.98052204,-0.15629366,0
1.9270618,3.101665,1.4685659,0.11894876,0.98052204,0.15629366,0
3.0946629,-1.4225715,1.1756024,0.89457858,-0.17412984,0.41159201,0
2.8199804,0.79771304,0.31998038,0.43079033,0.090858579,-0.89786649,0
1.9898617,-3.9400799,0.81029463,-0.11894876,-0.98052204,-0.15629366,0
1.2403831,3.3892035,0.18726945,0.11894876,0.98052204,0.15629366,0
-2.8908672,1.3078021,-1.6670992,-0.89457858,0.17412984,-0.41159201,0
-0.25556064,-3.6220708,0.5241369,-0.11894876,-0.98052204,-0.15629366,0
2.7246866,-3.0877261,1.2752626,0.89457858,-0.17412984,0.41159201,0
0.015048027,-3.5288286,-0.26677835,-0.11894876,-0.98052204,-0.15629366,0
-0.56980968,-2.1049094,-1.6001461,0.43079033,0.090858579,-0.89786649,0
-3.8446608,-1.8907775,-0.94727242,-0.89457858,0.17412984,-0.41159201,0
3.2842264,-0.25783467,1.2563524,0.89457858,-0.17412984,0.41159201,0
-2.9463811,-1.0856276,-2.5590169,-0.89457858,0.17412984,-0.41159201,0
0.48801577,-0.40488288,1.3069263,-0.43079033,-0.090858579,0.89786649,0
1.2760961,-2.5175092,1.4712572,-0.43079033,-0.090858579,0.89786649,0
-1.0155599,-0.1060183,0.61576384,-0.43079033,-0.090858579,0.89786649,0
-2.6539102,3.6009204,-1.2119777,-0.89457858,0.17412984,-0.41159201,0
0.55594593,0.79406732,-0.76665723,0.43079033,0.090858579,-0.89786649,0
-2.529357,3.9698434,-0.58642936,0.11894876,0.98052204,0.15629366,0
-1.8074319,3.716408,0.45409155,0.11894876,0.98052204,0.15629366,0
-1.3985267,-0.24467289,0.417988,-0.43079033,-0.090858579,0.89786649,0
2.2666285,1.0261579,2.3051054,-0.43079033,-0.090858579,0.89786649,0
-2.6181116,-2.9829698,-1.6872792,-0.11894876,-0.98052204,-0.15629366,0
0.78118491,-3.4229918,-1.0853297,0.43079033,0.090858579,-0.89786649,0
2.8336329,-0.82518238,1.9956745,0.89457858,-0.17412984,0.41159201,0
-0.76728046,0.53411543,-1.427838,0.43079033,0.090858579,-0.89786649,0
-0.88549876,3.1399584,-1.2208631,0.43079033,0.090858579,-0.89786649,0
3.1319187,1.7543385,2.4386663,0.89457858,-0.17412984,0.41159201,0
-3.1347556,0.17521179,-1.6161758,-0.89457858,0.17412984,-0.41159201,0
-1.1939442,0.69696128,0.61143291,-0.43079033,-0.090858579,0.89786649,0
1.8876488,-3.7517929,-0.29315162,-0.11894876,-0.98052204,-0.15629366,0
-3.0399067,1.7138504,-1.1713829,-0.89457858,0.17412984,-0.41159201,0
2.6187687,-4.0437803,0.98223233,-0.11894876,-0.98052204,-0.15629366,0
-3.5260437,-2.8244421,-1.9908271,-0.11894876,-0.98052204,-0.15629366,0
0.65385985,3.5334642,-0.27138484,0.11894876,0.98052204,0.15629366,0
-3.5251799,0.31311464,-0.54592133,-0.43079033,-0.090858579,0.89786649,0
2.5935647,-2.2223456,1.9263632,0.89457858,-0.17412984,0.41159201,0
2.0154455,-0.61268926,-0.20875406,0.43079033,0.090858579,-0.89786649,0
-1.7927074,-2.1604655,-2.1925063,0.43079033,0.090858579,-0.89786649,0
1.6441207,1.8635982,2.0911741,-0.43079033,-0.090858579,0.89786649,0
2.4064534,1.160051,2.3857415,-0.43079033,-0.090858579,0.89786649,0
-0.31391191,-3.4187078,0.61718607,-0.43079033,-0.090858579,0.89786649,0
-1.5700879,3.9225509,-1.0197976,0.11894876,0.98052204,0.15629366,0
1.2942195,0.029399395,-0.48981822,0.43079033,0.090858579,-0.89786649,0
-3.3564358,0.22312629,-1.1140924,-0.89457858,0.17412984,-0.41159201,0
-2.6511688,-1.720178,-0.33233356,-0.43079033,-0.090858579,0.89786649,0
-3.2895057,-0.97218603,-1.7652563,-0.89457858,0.17412984,-0.41159201,0
3.0167153,0.060940742,0.33981586,0.43079033,0.090858579,-0.89786649,0
-3.5880413,-2.8866985,-1.5530733,-0.11894876,-0.98052204,-0.15629366,0
2.8385589,3.0344741,1.1963903,0.11894876,0.98052204,0.15629366,0
-3.4501839,-1.2306099,-1.5253586,-0.89457858,0.17412984,-0.41159201,0
3.4228845,2.7918983,2.2452185,0.89457858,-0.17412984,0.41159201,0
2.7426143,3.0437098,1.2114689,0.11894876,0.98052204,0.15629366,0
3.3533244,0.26237762,1.3262542,0.89457858,-0.17412984,0.41159201,0
1.8755147,2.512392,2.2678494,-0.43079033,-0.090858579,0.89786649,0
3.7345977,1.0241009,0.8198303,0.89457858,-0.17412984,0.41159201,0
-1.751923,0.3462199,0.30822563,-0.43079033,-0.090858579,0.89786649,0
2.6046731,-2.5053196,1.7825036,0.89457858,-0.17412984,0.41159201,0
0.61725283,3.3224177,1.0804942,0.11894876,0.98052204,0.15629366,0
1.6334617,-1.4414294,1.7516117,-0.43079033,-0.090858579,0.89786649,0
-2.7823019,2.5831275,0.040217876,-0.43079033,-0.090858579,0.89786649,0
-1.9303181,3.9987042,-1.2233958,0.11894876,0.98052204,0.15629366,0
-0.51917434,-2.2846456,-1.5940397,0.43079033,0.090858579,-0.89786649,0
-2.9439991,-1.1699778,-2.5998795,-0.89457858,0.17412984,-0.41159201,0
-3.1426389,3.6592913,-0.12505198,-0.89457858,0.17412984,-0.41159201,0
0.60935295,-1.0142337,1.3034804,-0.43079033,-0.090858579,0.89786649,0
2.9875805,-3.8309844,0.38942719,0.89457858,-0.17412984,0.41159201,0
0.36839461,3.5779502,-0.33321548,0.11894876,0.98052204,0.15629366,0
-2.1602194,-2.2278652,-2.3756564,0.43079033,0.090858579,-0.89786649,0
0.78146052,3.4970982,-0.1403501,0.11894876,0.98052204,0.15629366,0
-2.5771375,3.9300897,-1.2395811,-0.89457858,0.17412984,-0.41159201,0
3.0955567,-0.86741281,1.4085276,0.89457858,-0.17412984,0.41159201,0
-3.1772497,1.2010089,-1.0898385,-0.89457858,0.17412984,-0.41159201,0
1.9299598,-0.10577476,2.0290294,-0.43079033,-0.090858579,0.89786649,0
2.7969613,2.4254513,0.47365302,0.43079033,0.090858579,-0.89786649,0
-0.9285593,3.8533132,-1.0736713,0.11894876,0.98052204,0.15629366,0
-2.2719412,-1.8039615,-0.15886113,-0.43079033,-0.090858579,0.89786649,0
-0.35795617,1.3192416,-1.1519971,0.43079033,0.090858579,-0.89786649,0
-2.7116947,3.7330956,-1.0304675,-0.89457858,0.17412984,-0.41159201,0
3.3396878,1.5374696,1.895339,0.89457858,-0.17412984,0.41159201,0
3.114789,-0.46150172,1.5384535,0.89457858,-0.17412984,0.41159201,0
-2.858439,-0.58119673,-2.5367486,-0.89457858,0.17412984,-0.41159201,0
-3.4727292,-1.5624843,-1.6167614,-0.89457858,0.17412984,-0.41159201,0
-2.872144,0.36597651,-2.106246,-0.89457858,0.17412984,-0.41159201,0
-2.543076,2.3716152,-1.9729481,-0.89457858,0.17412984,-0.41159201,0
-1.684104,3.9379303,-1.523279,0.43079033,0.090858579,-0.89786649,0
-2.009275,-3.265986,-0.37511325,-0.11894876,-0.98052204,-0.15629366,0
3.6627283,2.959985,1.036461,0.11894876,0.98052204,0.15629366,0
3.0845461,0.34375775,0.40097964,0.43079033,0.090858579,-0.89786649,0
1.6787659,-1.439135,-0.45392191,0.43079033,0.090858579,-0.89786649,0
3.3735304,-0.36626267,1.016382,0.89457858,-0.17412984,0.41159201,0
0.43861151,-2.9970899,-1.2065954,0.43079033,0.090858579,-0.89786649,0
2.5843332,-3.4156828,1.4415696,0.89457858,-0.17412984,0.41159201,0
3.6176322,1.3333549,1.2048845,0.89457858,-0.17412984,0.41159201,0
2.2135773,-1.8616674,1.9874218,-0.43079033,-0.090858579,0.89786649,0
-3.345767,1.8499217,-0.44904113,-0.89457858,0.17412984,-0.41159201,0
-3.6091714,-0.92513061,-1.0505686,-0.89457858,0.17412984,-0.41159201,0
1.6965461,-3.145267,1.6094611,-0.43079033,-0.090858579,0.89786649,0
-0.58857381,-1.3496526,0.69478095,-0.43079033,-0.090858579,0.89786649,0
-3.0197735,3.7134933,-0.36916375,-0.89457858,0.17412984,-0.41159201,0
-0.26861191,3.6817026,-0.49931526,0.11894876,0.98052204,0.15629366,0
-1.3643813,-3.3915958,-0.077890873,-0.11894876,-0.98052204,-0.15629366,0
-2.9981146,1.7263505,-1.2569277,-0.89457858,0.17412984,-0.41159201,0
-2.2310774,-3.212563,-0.28179654,-0.43079033,-0.090858579,0.89786649,0
-3.2123318,0.62737787,-1.2562721,-0.89457858,0.17412984,-0.41159201,0
-1.3408384,-3.0977712,-1.9391432,-0.11894876,-0.98052204,-0.15629366,0
3.239265,0.81782544,1.8091477,0.89457858,-0.17412984,0.41159201,0
0.7047205,-3.707135,0.32696199,-0.11894876,-0.98052204,-0.15629366,0
-3.4970734,-2.8573895,-1.8061783,-0.11894876,-0.98052204,-0.15629366,0
3.3362408,-1.2458642,0.36088109,0.43079033,0.090858579,-0.89786649,0
3.7965026,2.4195523,1.2756479,0.89457858,-0.17412984,0.41159201,0
-3.3735557,-2.9330301,-1.4256426,-0.11894876,-0.98052204,-0.15629366,0
2.5806577,-3.6181223,1.3639116,0.89457858,-0.17412984,0.41159201,0
1.5674112,-2.5134454,-0.61606288,0.43079033,0.090858579,-0.89786649,0
-2.147202,-0.071234584,0.07632947,-0.43079033,-0.090858579,0.89786649,0
-0.71596014,1.6891923,-1.2863283,0.43079033,0.090858579,-0.89786649,0
-3.247426,3.0656667,-0.1341157,-0.43079033,-0.090858579,0.89786649,0
0.92624664,2.4170294,1.8027468,-0.43079033,-0.090858579,0.89786649,0
-1.4989982,3.6971776,0.33999825,0.11894876,0.98052204,0.15629366,0
-3.4735179,-1.3370386,-1.5196697,-0.89457858,0.17412984,-0.41159201,0
3.0372198,-0.9771533,1.488893,0.89457858,-0.17412984,0.41159201,0
-2.2168727,-3.10903,-0.26450449,-0.43079033,-0.090858579,0.89786649,0
-1.811018,-3.3348165,-0.094185054,-0.11894876,-0.98052204,-0.15629366,0
0.47539449,3.4270554,0.53200567,0.11894876,0.98052204,0.15629366,0
3.1078703,-2.2539904,0.14929414,0.43079033,0.090858579,-0.89786649,0
0.48577237,-3.6421957,0.086192608,-0.11894876,-0.98052204,-0.15629366,0
0.40446341,-1.6582339,-1.0874953,0.43079033,0.090858579,-0.89786649,0
-3.0831277,0.47521329,-1.6014673,-0.89457858,0.17412984,-0.41159201,0
3.2861176,-1.1918842,0.85707879,0.89457858,-0.17412984,0.41159201,0
-3.2089291,-0.37277579,-1.6867973,-0.89457858,0.17412984,-0.41159201,0
2.7466292,-1.8933923,0.01246357,0.43079033,0.090858579,-0.89786649,0
2.9369254,-1.4305146,0.15060711,0.43079033,0.090858579,-0.89786649,0
-3.5070336,0.41010427,-0.70767021,-0.89457858,0.17412984,-0.41159201,0
-1.1979896,-1.1216786,0.4254567,-0.43079033,-0.090858579,0.89786649,0
3.3504224,2.1695998,2.1394393,0.89457858,-0.17412984,0.41159201,0
-1.8796976,1.7160691,0.38554049,-0.43079033,-0.090858579,0.89786649,0
-0.22954166,2.0924199,1.2153586,-0.43079033,-0.090858579,0.89786649,0
2.158601,-4.0785565,1.5506196,-0.11894876,-0.98052204,-0.15629366,0
-0.5127306,3.54948,0.51598465,0.11894876,0.98052204,0.15629366,0
1.7132974,3.1158938,1.5419858,0.11894876,0.98052204,0.15629366,0
-2.8710506,-0.61194271,-2.5223455,-0.89457858,0.17412984,-0.41159201,0
-1.2692119,0.039300919,0.50876868,-0.43079033,-0.090858579,0.89786649,0
2.9978371,2.8222761,0.61018813,0.43079033,0.090858579,-0.89786649,0
3.6312346,1.3049389,1.1632984,0.89457858,-0.17412984,0.41159201,0
3.1415801,-3.3638763,0.25233245,0.89457858,-0.17412984,0.41159201,0
1.3777218,-1.375861,1.6355443,-0.43079033,-0.090858579,0.89786649,0
-3.3997374,-0.75581598,-1.4341341,-0.89457858,0.17412984,-0.41159201,0
0.040202498,1.7176783,1.3068585,-0.43079033,-0.090858579,0.89786649,0
-1.1887211,1.5312183,-1.5291418,0.43079033,0.090858579,-0.89786649,0
3.0188003,1.2457108,2.4693422,0.89457858,-0.17412984,0.41159201,0
-1.5021963,-0.56869125,-1.8920431,0.43079033,0.090858579,-0.89786649,0
-3.0397069,2.7893381,-0.71681666,-0.89457858,0.17412984,-0.41159201,0
2.7492013,-2.6073351,1.4252181,0.89457858,-0.17412984,0.41159201,0
3.2045236,-0.44249272,1.3514616,0.89457858,-0.17412984,0.41159201,0
0.80021667,3.4508185,0.13571465,0.11894876,0.98052204,0.15629366,0
-3.4008324,1.0954984,-0.6485281,-0.89457858,0.17412984,-0.41159201,0
3.118494,-2.8169451,0.53389692,0.89457858,-0.17412984,0.41159201,0
3.1429586,-2.19663,0.17193389,0.43079033,0.090858579,-0.89786649,0
-3.4088624,-0.80499291,-1.4351064,-0.89457858,0.17412984,-0.41159201,0
3.3951757,0.92772096,1.5167748,0.89457858,-0.17412984,0.41159201,0
3.2215903,1.9367694,2.3209486,0.89457858,-0.17412984,0.41159201,0
-0.2866776,-3.2941849,0.64285398,-0.43079033,-0.090858579,0.89786649,0
-3.3156605,1.1388619,-0.81529999,-0.89457858,0.17412984,-0.41159201,0
3.6788311,2.6541173,1.6306388,0.89457858,-0.17412984,0.41159201,0
-0.081268936,0.10262179,1.0851436,-0.43079033,-0.090858579,0.89786649,0
-2.9904025,-1.748359,-0.49794716,-0.43079033,-0.090858579,0.89786649,0
3.4308281,0.49425352,1.2559017,0.89457858,-0.17412984,0.41159201,0
0.5340817,3.3247736,1.1290148,0.11894876,0.98052204,0.15629366,0
1.886543,-3.8329849,0.21705723,-0.11894876,-0.98052204,-0.15629366,0
0.2765677,-3.4652791,-0.86449146,-0.11894876,-0.98052204,-0.15629366,0
3.5550449,2.5299308,1.8471435,0.89457858,-0.17412984,0.41159201,0
0.039138317,3.3608539,1.2793424,0.11894876,0.98052204,0.15629366,0
-2.1254237,1.1268967,-2.0194802,0.43079033,0.090858579,-0.89786649,0
-2.8961298,3.2426581,0.052344322,-0.43079033,-0.090858579,0.89786649,0
3.1973403,0.55672216,1.7898059,0.89457858,-0.17412984,0.41159201,0
1.7247424,2.7409759,2.218641,-0.43079033,-0.090858579,0.89786649,0
2.8885534,-3.03548,0.94120908,0.89457858,-0.17412984,0.41159201,0
-2.8353562,0.82545561,-1.9918134,-0.89457858,0.17412984,-0.41159201,0
-0.45579886,-3.5525389,0.24031615,-0.11894876,-0.98052204,-0.15629366,0
1.441655,1.9227903,2.0000224,-0.43079033,-0.090858579,0.89786649,0
1.1427755,-3.6364195,-0.45006347,-0.11894876,-0.98052204,-0.15629366,0
-3.3574882,-0.40427017,-1.3772339,-0.89457858,0.17412984,-0.41159201,0
-3.2244782,-2.2376764,-2.4419754,-0.89457858,0.17412984,-0.41159201,0
-2.9652166,-2.9689982,-1.5107653,-0.11894876,-0.98052204,-0.15629366,0
2.1176684,-0.7116673,-0.16972423,0.43079033,0.090858579,-0.89786649,0
0.81754375,-3.7840047,0.72334647,-0.11894876,-0.98052204,-0.15629366,0
1.8539553,-1.6552901,1.8357613,-0.43079033,-0.090858579,0.89786649,0
2.9288871,-2.9053545,0.90859699,0.89457858,-0.17412984,0.41159201,0
-1.0157223,3.6974761,-0.029676437,0.11894876,0.98052204,0.15629366,0
-1.7629651,2.35219,-1.7215831,0.43079033,0.090858579,-0.89786649,0
-1.4369228,0.49421537,0.47433686,-0.43079033,-0.090858579,0.89786649,0
0.99190474,1.7278986,1.7645133,-0.43079033,-0.090858579,0.89786649,0
2.0417805,3.1022241,1.3777492,0.11894876,0.98052204,0.15629366,0
3.134068,-1.552453,1.0350087,0.89457858,-0.17412984,0.41159201,0
1.1787394,-2.2848382,1.4480909,-0.43079033,-0.090858579,0.89786649,0
-3.0659595,1.9289718,-1.0237484,-0.89457858,0.17412984,-0.41159201,0
3.639549,2.5636234,0.89190304,0.43079033,0.090858579,-0.89786649,0
3.5649676,0.31628585,0.88906288,0.89457858,-0.17412984,0.41159201,0
-3.2743199,0.49655437,-1.1768901,-0.89457858,0.17412984,-0.41159201,0
-0.6314913,2.7219355,1.0862092,-0.43079033,-0.090858579,0.89786649,0
2.1480067,-3.7125199,1.768666,-0.43079033,-0.090858579,0.89786649,0
1.6102716,2.5129898,2.1406479,-0.43079033,-0.090858579,0.89786649,0
-1.5577605,-3.1822629,-1.243988,-0.11894876,-0.98052204,-0.15629366,0
-3.5936368,-2.0562303,-1.5628604,-0.89457858,0.17412984,-0.41159201,0
3.2708588,2.4640582,0.70493287,0.43079033,0.090858579,-0.89786649,0
0.15017864,-0.23706692,1.1618162,-0.43079033,-0.090858579,0.89786649,0
0.35926151,3.3327811,1.2118268,0.11894876,0.98052204,0.15629366,0
-2.10324,-2.7795155,-2.4041417,0.43079033,0.090858579,-0.89786649,0
-3.1439018,1.5180725,-1.0281806,-0.89457858,0.17412984,-0.41159201,0
-0.18081212,-3.4873674,-0.37782633,-0.11894876,-0.98052204,-0.15629366,0
0.16405869,-3.5567508,-0.2050097,-0.11894876,-0.98052204,-0.15629366,0
0.24902987,3.3341873,1.2868974,0.11894876,0.98052204,0.15629366,0
3.0784612,2.0450873,2.6778595,0.89457858,-0.17412984,0.41159201,0
-2.1531198,1.9236798,-1.9521389,0.43079033,0.090858579,-0.89786649,0
3.7114632,1.8418404,0.85336721,0.43079033,0.090858579,-0.89786649,0
3.3895738,1.3416076,1.7040514,0.89457858,-0.17412984,0.41159201,0
-3.0824668,-0.44911373,-1.9939536,-0.89457858,0.17412984,-0.41159201,0
3.5862734,1.8314252,1.4837568,0.89457858,-0.17412984,0.41159201,0
2.7277551,-0.84228683,2.2185597,0.89457858,-0.17412984,0.41159201,0
-0.7998929,-3.4478655,-0.15448809,-0.11894876,-0.98052204,-0.15629366,0
-2.6231139,4.0385852,-0.94633245,0.11894876,0.98052204,0.15629366,0
3.1273484,3.0352726,0.97159463,0.11894876,0.98052204,0.15629366,0
2.11555,3.0794783,1.4643047,0.11894876,0.98052204,0.15629366,0
2.9959621,-1.9363675,1.1727552,0.89457858,-0.17412984,0.41159201,0
-1.7966604,-3.2385371,-0.70912915,-0.11894876,-0.98052204,-0.15629366,0
