-1.7620749,-0.61504614,-1.4197282,-0.1306501,0.1841727,-0.97417188,0
1.0357465,1.197053,1.6271704,0.1306501,-0.1841727,0.97417188,0
2.6561384,3.0791583,0.05739522,0.77913702,0.62669742,0.013987541,0
2.6414294,0.056098878,0.34142995,0.61308724,-0.75718606,-0.22537379,0
-3.5575984,-1.0589457,-1.262845,-0.1306501,0.1841727,-0.97417188,0
-3.344002,-2.2146292,-0.47622824,-0.77913702,-0.62669742,-0.013987541,0
-2.4156485,-2.0903592,1.4685471,0.1306501,-0.1841727,0.97417188,0
-1.8737625,-3.0621192,-1.46506,0.61308724,-0.75718606,-0.22537379,0
0.46148056,0.59173137,-1.48979,-0.1306501,0.1841727,-0.97417188,0
-4.0223446,-1.3563209,-1.1466594,-0.77913702,-0.62669742,-0.013987541,0
0.42545557,-0.45487097,1.3967137,0.1306501,-0.1841727,0.97417188,0
1.0236952,2.4748557,1.1256338,-0.61308724,0.75718606,0.22537379,0
-1.8574262,0.39133334,0.28807044,-0.61308724,0.75718606,0.22537379,0
0.51087111,1.0278316,-1.4139668,-0.1306501,0.1841727,-0.97417188,0
0.64823848,2.5537314,-0.16072416,-0.61308724,0.75718606,0.22537379,0
0.26885748,-1.2229761,-1.8070371,-0.1306501,0.1841727,-0.97417188,0
2.4834599,1.4266419,-1.603121,-0.1306501,0.1841727,-0.97417188,0
1.9500421,0.35628533,1.3455989,0.1306501,-0.1841727,0.97417188,0
-1.3830819,-1.1599969,1.5059559,0.1306501,-0.1841727,0.97417188,0
-2.6890063,0.060129672,-0.86134613,-0.61308724,0.75718606,0.22537379,0
-2.3272207,-3.51087,0.96356845,-0.77913702,-0.62669742,-0.013987541,0
-1.707471,-3.2288647,-0.45248294,0.61308724,-0.75718606,-0.22537379,0
3.217648,2.3936119,-0.50471449,0.77913702,0.62669742,0.013987541,0
-3.7931719,-1.6999019,1.4817061,-0.77913702,-0.62669742,-0.013987541,0
0.7376709,1.9615512,-1.2678587,-0.1306501,0.1841727,-0.97417188,0
0.47195566,2.2468491,0.39076126,-0.61308724,0.75718606,0.22537379,0
-2.9933994,-2.6834254,0.99839234,-0.77913702,-0.62669742,-0.013987541,0
-2.9569206,-0.15935436,-0.85275841,-0.61308724,0.75718606,0.22537379,0
-3.0301139,-2.5981083,-0.77909589,-0.77913702,-0.62669742,-0.013987541,0
-0.80780417,0.91653341,1.3788614,-0.61308724,0.75718606,0.22537379,0
1.280327,-0.69952148,-0.8225441,0.61308724,-0.75718606,-0.22537379,0
-3.5446007,-0.80088955,-0.29607296,-0.61308724,0.75718606,0.22537379,0
0.70322526,2.4670048,0.2802316,-0.61308724,0.75718606,0.22537379,0
3.6636875,1.8453279,-0.78479719,0.77913702,0.62669742,0.013987541,0
-2.3140867,-2.3519454,1.405472,0.1306501,-0.1841727,0.97417188,0
-0.23739088,1.3240378,1.561476,-0.61308724,0.75718606,0.22537379,0
0.43474084,2.3543077,-1.152979,-0.1306501,0.1841727,-0.97417188,0
3.1704206,2.4696,-1.2786374,0.77913702,0.62669742,0.013987541,0
-3.3981917,-2.159194,0.058553219,-0.77913702,-0.62669742,-0.013987541,0
-0.55165589,0.58595896,-1.3550055,-0.1306501,0.1841727,-0.97417188,0
-3.7166746,-1.7705917,0.38784647,-0.77913702,-0.62669742,-0.013987541,0
3.8360827,1.6079676,0.24708176,0.77913702,0.62669742,0.013987541,0
0.28668731,-1.7701991,0.071589231,0.61308724,-0.75718606,-0.22537379,0
2.2002563,3.6693211,-0.99060321,0.77913702,0.62669742,0.013987541,0
1.5894561,-0.51961058,-0.58606052,0.61308724,-0.75718606,-0.22537379,0
1.8646419,0.24371505,-1.743768,-0.1306501,0.1841727,-0.97417188,0
2.8404045,0.0053016245,1.0533667,0.61308724,-0.75718606,-0.22537379,0
0.33179188,2.2370653,0.042342305,-0.61308724,0.75718606,0.22537379,0
-0.87866515,-2.684855,-0.025575161,0.61308724,-0.75718606,-0.22537379,0
0.54457963,-0.063538074,-1.6248171,-0.1306501,0.1841727,-0.97417188,0
3.941364,1.4958158,-0.59247875,0.77913702,0.62669742,0.013987541,0
-1.8388884,0.00085330009,1.65039,-0.61308724,0.75718606,0.22537379,0
1.438455,0.47038272,1.4357808,0.1306501,-0.1841727,0.97417188,0
1.5951962,-0.28624886,-1.3544687,0.61308724,-0.75718606,-0.22537379,0
-0.66776359,-2.7718942,1.1052835,0.1306501,-0.1841727,0.97417188,0
2.6276283,3.0901103,1.1547976,0.77913702,0.62669742,0.013987541,0
2.768234,2.903007,1.7056992,0.77913702,0.62669742,0.013987541,0
3.6815464,1.811188,-0.2499795,0.77913702,0.62669742,0.013987541,0
-1.3675859,-2.2126184,1.3048737,0.1306501,-0.1841727,0.97417188,0
1.9827044,3.2441308,-1.1923563,-0.1306501,0.1841727,-0.97417188,0
-0.46006376,1.3362149,-1.2254492,-0.1306501,0.1841727,-0.97417188,0
0.47054863,0.68047297,1.605309,0.1306501,-0.1841727,0.97417188,0
-2.6132202,-0.94182521,-1.367357,-0.1306501,0.1841727,-0.97417188,0
-3.976124,-1.150591,-0.2950635,-0.61308724,0.75718606,0.22537379,0
2.3231964,3.4652705,1.3036442,0.77913702,0.62669742,0.013987541,0
-3.5818887,-1.9463671,0.75540352,-0.77913702,-0.62669742,-0.013987541,0
-2.7775078,-0.26911342,-1.2181439,-0.1306501,0.1841727,-0.97417188,0
1.6045648,1.0819036,-1.5504239,-0.1306501,0.1841727,-0.97417188,0
0.53592259,-1.7224782,1.1422503,0.1306501,-0.1841727,0.97417188,0
3.3114171,2.2626729,0.13872051,0.77913702,0.62669742,0.013987541,0
1.3741045,1.591433,-1.4231864,-0.1306501,0.1841727,-0.97417188,0
-1.8220401,-3.3454516,-0.3724494,0.61308724,-0.75718606,-0.22537379,0
-3.4910278,-2.0218682,-0.92297864,-0.77913702,-0.62669742,-0.013987541,0
-2.2852037,-2.6787388,-1.7397218,-0.1306501,0.1841727,-0.97417188,0
-0.61440992,-2.3848522,-0.31463373,0.61308724,-0.75718606,-0.22537379,0
0.18511117,0.29638398,1.5709761,0.1306501,-0.1841727,0.97417188,0
0.81772995,0.68222952,1.5590792,0.1306501,-0.1841727,0.97417188,0
-3.516542,-2.0048792,-0.26299763,-0.77913702,-0.62669742,-0.013987541,0
-2.4462605,0.052886128,-0.17666578,-0.61308724,0.75718606,0.22537379,0
3.3499255,2.2469361,-1.3012261,0.77913702,0.62669742,0.013987541,0
-0.78824186,-2.8503816,0.77652264,0.61308724,-0.75718606,-0.22537379,0
2.0025096,0.045468926,-1.3609171,0.61308724,-0.75718606,-0.22537379,0
1.1819528,-1.1766416,0.51282251,0.61308724,-0.75718606,-0.22537379,0
-0.021102786,-1.6916969,-1.0294387,0.61308724,-0.75718606,-0.22537379,0
1.939737,1.9701601,1.6520931,0.1306501,-0.1841727,0.97417188,0
-1.1312847,-2.5069172,-1.3105935,0.61308724,-0.75718606,-0.22537379,0
3.2161655,2.3885055,-0.19336176,0.77913702,0.62669742,0.013987541,0
-2.1188593,-1.3606181,-1.5128329,-0.1306501,0.1841727,-0.97417188,0
1.4749033,2.681541,-1.2306139,-0.1306501,0.1841727,-0.97417188,0
1.5409763,1.4458055,1.6064401,0.1306501,-0.1841727,0.97417188,0
1.6710565,2.6476531,1.8162106,0.1306501,-0.1841727,0.97417188,0
3.5410032,1.9825916,-0.10098505,0.77913702,0.62669742,0.013987541,0
1.674135,3.5674067,-1.0898557,-0.1306501,0.1841727,-0.97417188,0
-2.9622149,-2.6691201,-1.379606,-0.77913702,-0.62669742,-0.013987541,0
1.7225554,3.5796804,-0.68511605,-0.61308724,0.75718606,0.22537379,0
1.0826664,2.0345433,1.7792104,0.1306501,-0.1841727,0.97417188,0
-0.22190607,-1.7719896,-1.3059275,0.61308724,-0.75718606,-0.22537379,0
1.5258913,2.7429497,-1.2258425,-0.1306501,0.1841727,-0.97417188,0
2.1822054,3.6884871,-0.8438437,0.77913702,0.62669742,0.013987541,0
-0.10020065,-1.0150976,-1.7182405,-0.1306501,0.1841727,-0.97417188,0
-0.077295661,-0.64399397,1.4283849,0.1306501,-0.1841727,0.97417188,0
-2.2652428,-3.563977,-0.10934663,-0.77913702,-0.62669742,-0.013987541,0
3.6203945,1.5173559,-1.7384503,-0.1306501,0.1841727,-0.97417188,0
3.4611888,0.54706168,0.92194915,0.61308724,-0.75718606,-0.22537379,0
2.4533958,0.13527209,-0.43607736,0.61308724,-0.75718606,-0.22537379,0
2.7953396,0.67562443,-1.3212993,0.61308724,-0.75718606,-0.22537379,0
0.44147635,1.3678528,-1.3403771,-0.1306501,0.1841727,-0.97417188,0
3.8123121,1.6414372,0.071584225,0.77913702,0.62669742,0.013987541,0
-2.692817,-3.0190442,-0.7076664,-0.77913702,-0.62669742,-0.013987541,0
1.0968518,0.32771713,-1.6249156,-0.1306501,0.1841727,-0.97417188,0
-3.03372,-0.45061851,-0.083120346,-0.61308724,0.75718606,0.22537379,0
-0.34331143,1.4888827,0.71951139,-0.61308724,0.75718606,0.22537379,0
1.2786953,-0.69877028,1.2361717,0.1306501,-0.1841727,0.97417188,0
1.9834622,-0.49050516,0.38797283,0.61308724,-0.75718606,-0.22537379,0
-3.6092443,-1.9090927,0.6091361,-0.77913702,-0.62669742,-0.013987541,0
-2.8578858,-2.2593513,1.4959083,0.1306501,-0.1841727,0.97417188,0
-1.4587781,0.41870344,1.2805623,-0.61308724,0.75718606,0.22537379,0
2.8917432,0.28584728,0.25047874,0.61308724,-0.75718606,-0.22537379,0
-0.75895274,0.54177839,-1.3355567,-0.1306501,0.1841727,-0.97417188,0
-2.0920978,-0.81789672,-1.4138174,-0.1306501,0.1841727,-0.97417188,0
3.1265197,0.69521141,1.2518928,0.1306501,-0.1841727,0.97417188,0
-0.85615039,-2.3052874,-1.2395554,0.61308724,-0.75718606,-0.22537379,0
-3.6131668,-0.88155645,-0.21157861,-0.61308724,0.75718606,0.22537379,0
-1.9461037,0.32230866,0.27874124,-0.61308724,0.75718606,0.22537379,0
-2.6856382,-3.0569348,0.59009719,-0.77913702,-0.62669742,-0.013987541,0
-2.2087383,-2.998548,1.2690995,0.1306501,-0.1841727,0.97417188,0
-2.424046,-0.52836269,1.7649777,0.1306501,-0.1841727,0.97417188,0
0.8525759,-0.56253201,-1.7604613,-0.1306501,0.1841727,-0.97417188,0
-2.5815191,-3.1503925,-1.0222943,-0.77913702,-0.62669742,-0.013987541,0
-0.69535744,-2.5924308,0.16256344,0.61308724,-0.75718606,-0.22537379,0
-3.8602862,-1.5871937,0.17035246,-0.77913702,-0.62669742,-0.013987541,0
3.6975498,1.81534,-1.3274403,0.77913702,0.62669742,0.013987541,0
1.2203138,-0.60579073,-1.300705,0.61308724,-0.75718606,-0.22537379,0
2.4068475,3.3733423,0.76284909,0.77913702,0.62669742,0.013987541,0
-3.4588535,-2.0818043,-0.029809475,-0.77913702,-0.62669742,-0.013987541,0
-2.1645212,-3.2616308,-1.585717,0.61308724,-0.75718606,-0.22537379,0
2.3292489,3.4676821,0.85846496,0.77913702,0.62669742,0.013987541,0
2.5726495,2.9505899,1.7525666,0.1306501,-0.1841727,0.97417188,0
2.1629796,0.2911258,1.3047223,0.1306501,-0.1841727,0.97417188,0
2.1561246,3.7174447,-0.68848491,0.77913702,0.62669742,0.013987541,0
-2.8614099,-2.8441434,0.84709692,-0.77913702,-0.62669742,-0.013987541,0
-0.77204788,0.36377203,-1.3674536,-0.1306501,0.1841727,-0.97417188,0
-1.0611002,-1.4143521,-1.6648519,-0.1306501,0.1841727,-0.97417188,0
-2.7679727,-2.9539981,0.56435752,-0.77913702,-0.62669742,-0.013987541,0
-0.97368699,-3.0206394,0.84406781,0.61308724,-0.75718606,-0.22537379,0
-2.6580877,-2.0349569,-1.5680025,-0.1306501,0.1841727,-0.97417188,0
-1.331467,0.49708474,1.3635514,-0.61308724,0.75718606,0.22537379,0
-0.70733863,1.678697,-0.90847361,-0.61308724,0.75718606,0.22537379,0
2.905561,2.7501111,0.90661764,0.77913702,0.62669742,0.013987541,0
-1.9028615,-1.6317507,1.4864776,0.1306501,-0.1841727,0.97417188,0
-0.48178995,-1.0946333,-1.6821008,-0.1306501,0.1841727,-0.97417188,0
0.78462052,1.8302758,-1.2989737,-0.1306501,0.1841727,-0.97417188,0
0.42844892,-0.78301102,1.3342756,0.1306501,-0.1841727,0.97417188,0
2.3511438,0.13978398,-0.72939277,0.61308724,-0.75718606,-0.22537379,0
2.8515518,0.57806891,-0.84062815,0.61308724,-0.75718606,-0.22537379,0
-1.30448,0.43253708,1.6538248,-0.61308724,0.75718606,0.22537379,0
0.038013697,0.69217879,-1.4140069,-0.1306501,0.1841727,-0.97417188,0
-3.289845,-2.2675362,-1.1224401,-0.77913702,-0.62669742,-0.013987541,0
1.2434599,1.381861,1.6342521,0.1306501,-0.1841727,0.97417188,0
-2.1504989,-1.9098196,1.4671192,0.1306501,-0.1841727,0.97417188,0
3.6568196,1.1840502,-0.68595672,0.61308724,-0.75718606,-0.22537379,0
-0.64255518,-2.4708738,-0.10219204,0.61308724,-0.75718606,-0.22537379,0
3.1135592,1.5690305,1.4188313,0.1306501,-0.1841727,0.97417188,0
-0.33213055,1.29667,1.3957014,-0.61308724,0.75718606,0.22537379,0
-0.51751536,-2.4778671,0.26145136,0.61308724,-0.75718606,-0.22537379,0
-3.519495,-2.0022759,-0.21512008,-0.77913702,-0.62669742,-0.013987541,0
0.39250332,2.6197579,-1.078232,-0.61308724,0.75718606,0.22537379,0
1.0406404,0.14875346,-1.6512108,-0.1306501,0.1841727,-0.97417188,0
-2.2631917,-3.583612,0.65612149,-0.77913702,-0.62669742,-0.013987541,0
2.6522729,3.1050596,-0.88777733,0.77913702,0.62669742,0.013987541,0
3.6960452,1.3150151,-1.0192523,0.61308724,-0.75718606,-0.22537379,0
-1.5251923,0.20552957,1.7831751,0.1306501,-0.1841727,0.97417188,0
-2.3545969,-3.3600421,-1.7721498,0.61308724,-0.75718606,-0.22537379,0
-2.5477095,-1.3291615,-1.449371,-0.1306501,0.1841727,-0.97417188,0
-0.41741264,-0.33071893,-1.5463126,-0.1306501,0.1841727,-0.97417188,0
-2.0536261,-3.4175375,-0.7602489,0.61308724,-0.75718606,-0.22537379,0
-3.8135462,-1.6768802,1.5851569,-0.77913702,-0.62669742,-0.013987541,0
3.1248925,0.2264691,1.0842091,0.61308724,-0.75718606,-0.22537379,0
2.1362741,3.5828667,0.42962265,-0.61308724,0.75718606,0.22537379,0
-2.5385704,-3.2082062,-0.82436109,-0.77913702,-0.62669742,-0.013987541,0
1.7541595,-0.8822068,1.080194,0.61308724,-0.75718606,-0.22537379,0
-0.18143034,1.5592687,0.92340291,-0.61308724,0.75718606,0.22537379,0
-0.56491482,1.7096739,-0.62510914,-0.61308724,0.75718606,0.22537379,0
-3.2974229,-2.2982852,1.5474963,0.1306501,-0.1841727,0.97417188,0
-0.1265564,1.6166414,0.87992227,-0.61308724,0.75718606,0.22537379,0
-2.5663257,-0.098446608,0.0051505566,-0.61308724,0.75718606,0.22537379,0
-0.26364395,-2.3553927,0.54058433,0.61308724,-0.75718606,-0.22537379,0
-0.232068,-2.0446155,-0.41763318,0.61308724,-0.75718606,-0.22537379,0
3.6915195,1.7938843,-0.030225754,0.77913702,0.62669742,0.013987541,0
-3.0617867,-2.588738,0.5653348,-0.77913702,-0.62669742,-0.013987541,0
0.96440291,-1.1453118,-0.18423927,0.61308724,-0.75718606,-0.22537379,0
3.656781,1.8440571,-0.34317017,0.77913702,0.62669742,0.013987541,0
1.9683809,-0.67929935,0.98123705,0.61308724,-0.75718606,-0.22537379,0
2.9633822,1.7739259,1.4777088,0.1306501,-0.1841727,0.97417188,0
-1.9467555,-0.81818902,1.646173,0.1306501,-0.1841727,0.97417188,0
-2.370389,-3.4451709,0.42455339,-0.77913702,-0.62669742,-0.013987541,0
-2.9118633,-2.2272003,1.5092263,0.1306501,-0.1841727,0.97417188,0
0.55981123,0.097787261,1.4831778,0.1306501,-0.1841727,0.97417188,0
2.2696242,3.5477695,0.59145951,0.77913702,0.62669742,0.013987541,0
-3.404273,-2.1606801,0.46389008,-0.77913702,-0.62669742,-0.013987541,0
0.80616444,2.37293,-1.1992714,-0.1306501,0.1841727,-0.97417188,0
-2.0134077,0.29982686,0.17118514,-0.61308724,0.75718606,0.22537379,0
-3.3542998,-2.2096548,-0.12547112,-0.77913702,-0.62669742,-0.013987541,0
1.7937558,3.2658339,-1.1629124,-0.1306501,0.1841727,-0.97417188,0
-3.4109263,-0.68614447,-0.31794572,-0.61308724,0.75718606,0.22537379,0
-0.27684128,-1.3099247,-1.7502894,-0.1306501,0.1841727,-0.97417188,0
2.3586421,-0.11389953,0.14330184,0.61308724,-0.75718606,-0.22537379,0
-2.4639192,-0.81306857,1.7164998,0.1306501,-0.1841727,0.97417188,0
0.28061259,1.223918,1.7335236,0.1306501,-0.1841727,0.97417188,0
1.9588724,3.8568647,-0.97351265,-0.61308724,0.75718606,0.22537379,0
-2.7592309,-1.04346,-1.3669894,-0.1306501,0.1841727,-0.97417188,0
2.2924111,-0.34342855,0.73427856,0.61308724,-0.75718606,-0.22537379,0
-0.75843477,-2.2366743,-1.2042584,0.61308724,-0.75718606,-0.22537379,0
-3.1727459,-2.4666018,1.2738333,-0.77913702,-0.62669742,-0.013987541,0
-1.5650626,-3.316926,0.23077178,0.61308724,-0.75718606,-0.22537379,0
-2.3086066,-3.4871566,-1.1357555,-0.77913702,-0.62669742,-0.013987541,0
-1.7660563,0.085434437,1.5643499,-0.61308724,0.75718606,0.22537379,0
2.9757421,2.6764231,0.29889655,0.77913702,0.62669742,0.013987541,0
-0.6902802,1.2038968,0.73311144,-0.61308724,0.75718606,0.22537379,0
-0.55572069,0.6691274,-1.3387369,-0.1306501,0.1841727,-0.97417188,0
-2.6015711,-3.1369803,-0.50627923,-0.77913702,-0.62669742,-0.013987541,0
-2.3543754,-3.4402702,-0.6870141,-0.77913702,-0.62669742,-0.013987541,0
-2.8864877,-2.7586567,-1.5861862,-0.77913702,-0.62669742,-0.013987541,0
-2.6495938,-3.0691183,-0.87178588,-0.77913702,-0.62669742,-0.013987541,0
-1.598788,-3.268024,-0.025267363,0.61308724,-0.75718606,-0.22537379,0
1.3555834,2.6689258,1.3764585,-0.61308724,0.75718606,0.22537379,0
2.0503614,2.8113749,-1.2832451,-0.1306501,0.1841727,-0.97417188,0
-1.6956546,0.28949797,-1.2576268,-0.1306501,0.1841727,-0.97417188,0
2.3993137,-0.16838941,0.43701041,0.61308724,-0.75718606,-0.22537379,0
-1.8698142,-3.5803645,1.1136494,0.1306501,-0.1841727,0.97417188,0
-0.19220334,1.8282446,-0.0095780492,-0.61308724,0.75718606,0.22537379,0
-1.9030569,-0.9343828,-1.4611928,-0.1306501,0.1841727,-0.97417188,0
2.392765,3.4340429,-1.1723661,0.77913702,0.62669742,0.013987541,0
3.7852101,1.6992239,-1.0078406,0.77913702,0.62669742,0.013987541,0
-0.28458649,-2.2556252,1.1514977,0.1306501,-0.1841727,0.97417188,0
-1.0794096,0.8009057,-1.2435895,-0.1306501,0.1841727,-0.97417188,0
1.2678357,1.7897396,-1.3714434,-0.1306501,0.1841727,-0.97417188,0
3.7276745,1.7853951,-1.6638227,0.77913702,0.62669742,0.013987541,0
-1.3207419,-2.4096017,-1.8181878,-0.1306501,0.1841727,-0.97417188,0
-1.4619672,-3.0596399,-0.35317731,0.61308724,-0.75718606,-0.22537379,0
3.5590317,1.9604521,-0.1132741,0.77913702,0.62669742,0.013987541,0
-3.5987811,-1.9240882,0.69817352,-0.77913702,-0.62669742,-0.013987541,0
-2.575743,-0.85682398,1.7232251,0.1306501,-0.1841727,0.97417188,0
2.683413,2.4629352,-1.434021,-0.1306501,0.1841727,-0.97417188,0
1.3062249,3.1927259,-0.51761794,-0.61308724,0.75718606,0.22537379,0
-3.6292388,-1.2405417,-1.2875686,-0.1306501,0.1841727,-0.97417188,0
-1.1345212,0.85238975,0.70559168,-0.61308724,0.75718606,0.22537379,0
3.0175614,2.6286829,0.10842085,0.77913702,0.62669742,0.013987541,0
0.23537254,-1.2763661,-1.7271277,0.61308724,-0.75718606,-0.22537379,0
1.7571177,3.0814581,-1.1928561,-0.1306501,0.1841727,-0.97417188,0
-0.51622552,-0.50795174,1.5129709,0.1306501,-0.1841727,0.97417188,0
0.56902134,2.1349895,1.030623,-0.61308724,0.75718606,0.22537379,0
2.745091,0.22240442,0.064687252,0.61308724,-0.75718606,-0.22537379,0
-0.98175609,-1.0493623,-1.6064897,-0.1306501,0.1841727,-0.97417188,0
-1.5714622,-2.7775271,-1.5988487,0.61308724,-0.75718606,-0.22537379,0
-1.1811634,-1.1847979,1.4741869,0.1306501,-0.1841727,0.97417188,0
1.9892907,-0.33428603,-0.12101877,0.61308724,-0.75718606,-0.22537379,0
-2.5012238,-1.2404197,1.6407099,0.1306501,-0.1841727,0.97417188,0
-1.5012544,-2.7694423,-1.4350233,0.61308724,-0.75718606,-0.22537379,0
-0.99863791,-1.2075628,-1.6341343,-0.1306501,0.1841727,-0.97417188,0
3.4312372,2.1320233,-0.68192244,0.77913702,0.62669742,0.013987541,0
2.6920438,2.8867216,-1.3550589,-0.1306501,0.1841727,-0.97417188,0
2.9194138,2.7394123,0.61433864,0.77913702,0.62669742,0.013987541,0
-1.9012697,-3.4526956,-0.22767186,0.61308724,-0.75718606,-0.22537379,0
2.677459,2.5883818,-1.4095056,-0.1306501,0.1841727,-0.97417188,0
-0.8961792,-0.028820723,-1.4250276,-0.1306501,0.1841727,-0.97417188,0
1.7579097,2.1865339,-1.3621528,-0.1306501,0.1841727,-0.97417188,0
-4.137166,-1.2226228,-0.74104953,-0.77913702,-0.62669742,-0.013987541,0
1.3607877,3.1668928,-0.28239846,-0.61308724,0.75718606,0.22537379,0
-2.7409811,-3.0029435,1.2537937,-0.77913702,-0.62669742,-0.013987541,0
-2.0237088,0.021518052,1.0781938,-0.61308724,0.75718606,0.22537379,0
0.37051773,2.4888377,-0.69818819,-0.61308724,0.75718606,0.22537379,0
-3.7919683,-1.6923403,1.0758867,-0.77913702,-0.62669742,-0.013987541,0
1.0809044,-1.1403301,0.11594355,0.61308724,-0.75718606,-0.22537379,0
-2.2732468,-3.3802888,1.2055809,0.1306501,-0.1841727,0.97417188,0
-0.7513001,0.28956544,-1.3842653,-0.1306501,0.1841727,-0.97417188,0
3.8702288,1.5589521,0.54114676,0.77913702,0.62669742,0.013987541,0
3.3743227,2.2084713,-0.93683147,0.77913702,0.62669742,0.013987541,0
2.9881539,2.6651108,0.11435938,0.77913702,0.62669742,0.013987541,0
-0.76716006,0.43881789,-1.3539212,-0.1306501,0.1841727,-0.97417188,0
0.98789412,1.3136518,-1.4239062,-0.1306501,0.1841727,-0.97417188,0
-2.9414129,-2.7343984,0.38641763,-0.77913702,-0.62669742,-0.013987541,0
0.90120268,2.321074,1.3090737,-0.61308724,0.75718606,0.22537379,0
2.4591916,3.3104789,0.66370368,0.77913702,0.62669742,0.013987541,0
-2.4026937,-3.3797324,-0.70791817,-0.77913702,-0.62669742,-0.013987541,0
2.6039,3.1628246,-0.78141212,0.77913702,0.62669742,0.013987541,0
-0.62580079,1.3286997,0.48921674,-0.61308724,0.75718606,0.22537379,0
-0.075187445,-2.0154836,1.1688144,0.1306501,-0.1841727,0.97417188,0
3.0434468,0.46825641,0.050322056,0.61308724,-0.75718606,-0.22537379,0
-1.8383946,-1.9237549,-1.6569111,-0.1306501,0.1841727,-0.97417188,0
3.3072093,2.2844825,-0.60404873,0.77913702,0.62669742,0.013987541,0
3.6325567,1.6419617,-1.7165236,-0.1306501,0.1841727,-0.97417188,0
-1.39166,-2.6032813,-1.695142,0.61308724,-0.75718606,-0.22537379,0
3.3760943,2.1531801,1.4417856,0.77913702,0.62669742,0.013987541,0
2.4620392,3.3218989,-0.0065834522,0.77913702,0.62669742,0.013987541,0
2.3608789,3.4707706,-1.2002275,-0.1306501,0.1841727,-0.97417188,0
-3.1077743,-2.5353179,0.7335,-0.77913702,-0.62669742,-0.013987541,0
2.9900966,2.638541,1.1966131,0.77913702,0.62669742,0.013987541,0
2.1163216,0.34025896,1.3202686,0.1306501,-0.1841727,0.97417188,0
2.9500945,2.7316048,-0.74483061,0.77913702,0.62669742,0.013987541,0
-1.0992618,-2.9575024,0.29034424,0.61308724,-0.75718606,-0.22537379,0
-3.8021104,-1.6628591,0.31994724,-0.77913702,-0.62669742,-0.013987541,0
-3.0234704,-1.7674726,1.6111081,0.1306501,-0.1841727,0.97417188,0
-1.9622333,-2.8623691,1.261785,0.1306501,-0.1841727,0.97417188,0
2.1308334,-0.28019917,0.082306504,0.61308724,-0.75718606,-0.22537379,0
3.3426883,0.69781721,1.2233939,0.1306501,-0.1841727,0.97417188,0
-1.6712704,-2.7514029,1.2437418,0.1306501,-0.1841727,0.97417188,0
-1.9036764,-0.64412683,1.6733029,0.1306501,-0.1841727,0.97417188,0
-4.0920362,-1.0922308,-0.80645227,-0.61308724,0.75718606,0.22537379,0
3.687079,1.7974677,0.056561947,0.77913702,0.62669742,0.013987541,0
-3.1297793,-1.6652824,1.6446855,0.1306501,-0.1841727,0.97417188,0
-0.76082587,1.2874075,0.26063511,-0.61308724,0.75718606,0.22537379,0
0.39346939,2.519412,-0.73847306,-0.61308724,0.75718606,0.22537379,0
-3.1430051,-2.4820058,0.30736208,-0.77913702,-0.62669742,-0.013987541,0
1.1292135,2.7232287,0.57821977,-0.61308724,0.75718606,0.22537379,0
-2.7314847,-2.9727073,-0.62988615,-0.77913702,-0.62669742,-0.013987541,0
-3.2563968,-2.310015,-1.0823801,-0.77913702,-0.62669742,-0.013987541,0
3.381793,2.1799991,-0.077257633,0.77913702,0.62669742,0.013987541,0
-0.80728364,1.2495929,0.26130092,-0.61308724,0.75718606,0.22537379,0
-2.199579,-3.6545119,0.2893641,-0.77913702,-0.62669742,-0.013987541,0
-2.6425433,-1.6816115,-1.5032852,-0.1306501,0.1841727,-0.97417188,0
1.7394783,-0.45616314,1.2202405,0.1306501,-0.1841727,0.97417188,0
1.0488968,-1.1366149,0.016391158,0.61308724,-0.75718606,-0.22537379,0
3.5023012,0.69753742,1.2019351,0.1306501,-0.1841727,0.97417188,0
2.7586348,2.956111,-0.13884926,0.77913702,0.62669742,0.013987541,0
3.9459782,1.055167,1.2100434,0.1306501,-0.1841727,0.97417188,0
1.595004,2.0707326,1.7173402,0.1306501,-0.1841727,0.97417188,0
-1.1990552,-0.61790621,-1.4957777,-0.1306501,0.1841727,-0.97417188,0
3.9186139,1.4915218,0.86713219,0.77913702,0.62669742,0.013987541,0
-3.2899177,-0.5365653,-0.49130368,-0.61308724,0.75718606,0.22537379,0
1.8741689,-0.63180822,0.56539595,0.61308724,-0.75718606,-0.22537379,0
3.0660436,2.58215,-0.50728607,0.77913702,0.62669742,0.013987541,0
-2.4777734,-3.2812824,-0.93677211,-0.77913702,-0.62669742,-0.013987541,0
3.7581339,1.712079,-0.075600147,0.77913702,0.62669742,0.013987541,0
2.9494429,2.7256525,-0.44185257,0.77913702,0.62669742,0.013987541,0
2.8400345,2.8635614,-0.52641773,0.77913702,0.62669742,0.013987541,0
0.64740181,0.075032294,1.4671288,0.1306501,-0.1841727,0.97417188,0
-1.7167212,-3.0115135,-1.2078773,0.61308724,-0.75718606,-0.22537379,0
2.5460744,3.2255666,-0.3714745,0.77913702,0.62669742,0.013987541,0
2.3401966,3.4418728,1.405009,0.77913702,0.62669742,0.013987541,0
-2.8091478,-0.34096166,0.15937328,-0.61308724,0.75718606,0.22537379,0
1.6840563,2.8434012,1.6838231,-0.61308724,0.75718606,0.22537379,0
-2.8124282,-2.9032621,0.76745272,-0.77913702,-0.62669742,-0.013987541,0
-3.7593226,-0.84565896,-0.72977281,-0.61308724,0.75718606,0.22537379,0
0.66966295,2.3276582,0.65709257,-0.61308724,0.75718606,0.22537379,0
-0.77656198,0.63438421,-1.3156874,-0.1306501,0.1841727,-0.97417188,0
-2.0975544,-3.7906942,0.70787048,-0.77913702,-0.62669742,-0.013987541,0
2.3462758,0.33525094,1.2884818,0.1306501,-0.1841727,0.97417188,0
0.58273929,-1.146782,-1.2175437,0.61308724,-0.75718606,-0.22537379,0
0.83397543,0.50336587,-1.5564528,-0.1306501,0.1841727,-0.97417188,0
-1.5858603,-2.301146,1.3174107,0.1306501,-0.1841727,0.97417188,0
-2.3163412,-0.63849956,-1.3498273,-0.1306501,0.1841727,-0.97417188,0
2.9900327,2.6584966,0.30606198,0.77913702,0.62669742,0.013987541,0
-1.3183274,-1.3825685,1.4551932,0.1306501,-0.1841727,0.97417188,0
0.95311153,0.90136266,1.5823512,0.1306501,-0.1841727,0.97417188,0
3.6325715,1.1978892,-0.79841304,0.61308724,-0.75718606,-0.22537379,0
-3.5287209,-1.0513548,0.58861017,-0.61308724,0.75718606,0.22537379,0
3.7271345,1.7658941,-0.75999928,0.77913702,0.62669742,0.013987541,0
-2.6353557,-3.129653,1.0473166,-0.77913702,-0.62669742,-0.013987541,0
-2.0415721,0.41239327,-0.28361905,-0.61308724,0.75718606,0.22537379,0
2.5575418,3.1133788,-1.2941697,-0.1306501,0.1841727,-0.97417188,0
-2.1898565,-0.059045792,-1.2572417,-0.1306501,0.1841727,-0.97417188,0
1.8324161,0.48515785,-1.6937997,-0.1306501,0.1841727,-0.97417188,0
-0.93301785,-2.8888266,0.51185036,0.61308724,-0.75718606,-0.22537379,0
0.15369785,0.25283465,-1.5125823,-0.1306501,0.1841727,-0.97417188,0
-2.8314898,-0.21623641,-0.32044196,-0.61308724,0.75718606,0.22537379,0
3.3802304,2.1687245,0.51493239,0.77913702,0.62669742,0.013987541,0
-2.3372152,0.34115225,-0.84851241,-0.61308724,0.75718606,0.22537379,0
-3.2330236,-2.3810873,0.80004358,-0.77913702,-0.62669742,-0.013987541,0
2.5377865,3.1898363,1.6910429,0.77913702,0.62669742,0.013987541,0
-0.77292514,-0.020791799,-1.4400399,-0.1306501,0.1841727,-0.97417188,0
-0.52407461,1.7289796,-1.1426101,-0.1306501,0.1841727,-0.97417188,0
-1.2961807,1.1377157,-0.69277889,-0.61308724,0.75718606,0.22537379,0
3.57424,1.9125865,1.1841757,0.77913702,0.62669742,0.013987541,0
-1.2977729,-1.7367218,1.3854817,0.1306501,-0.1841727,0.97417188,0
-2.3703871,-3.412786,-1.0265346,-0.77913702,-0.62669742,-0.013987541,0
-0.62643707,-2.0918591,-1.3317163,0.61308724,-0.75718606,-0.22537379,0
-3.1465726,-0.26111424,-1.1671348,-0.1306501,0.1841727,-0.97417188,0
-1.5866368,0.79736578,-1.1762323,-0.1306501,0.1841727,-0.97417188,0
2.8971682,2.7974336,-0.74611545,0.77913702,0.62669742,0.013987541,0
1.4227234,3.3199325,-0.62808013,-0.61308724,0.75718606,0.22537379,0
3.7710013,1.7255152,-1.3943462,0.77913702,0.62669742,0.013987541,0
1.5013394,1.8125081,1.6810832,0.1306501,-0.1841727,0.97417188,0
-2.3469634,-3.4733307,0.38136315,-0.77913702,-0.62669742,-0.013987541,0
-1.3061988,0.81698966,0.35750794,-0.61308724,0.75718606,0.22537379,0
-2.9126027,-0.68517536,1.034395,-0.61308724,0.75718606,0.22537379,0
2.28282,3.4630976,1.2306595,-0.61308724,0.75718606,0.22537379,0
-2.2684753,-3.4545729,-1.220279,0.61308724,-0.75718606,-0.22537379,0
-3.6637805,-0.94131649,-0.14848876,-0.61308724,0.75718606,0.22537379,0
3.6175363,1.9152346,-1.3461814,0.77913702,0.62669742,0.013987541,0
2.2893863,-0.26758614,0.47124398,0.61308724,-0.75718606,-0.22537379,0
1.3027966,-0.33778417,-1.7783524,-0.1306501,0.1841727,-0.97417188,0
3.7756562,1.6805656,0.36027646,0.77913702,0.62669742,0.013987541,0
-3.3542686,-1.1522032,1.4019935,-0.61308724,0.75718606,0.22537379,0
3.2269342,2.3757405,-0.22126579,0.77913702,0.62669742,0.013987541,0
3.8034394,1.6429999,0.49579453,0.77913702,0.62669742,0.013987541,0
-1.8956931,-3.5542111,1.1220646,0.1306501,-0.1841727,0.97417188,0
-2.6614375,-3.0449617,-1.2943785,-0.77913702,-0.62669742,-0.013987541,0
2.8906667,2.8161693,-1.2234032,0.77913702,0.62669742,0.013987541,0
-0.72126943,-0.80821276,1.4837041,0.1306501,-0.1841727,0.97417188,0
3.3441331,2.218051,0.31559396,0.77913702,0.62669742,0.013987541,0
0.22630405,0.76647776,1.6543255,0.1306501,-0.1841727,0.97417188,0
1.8278177,2.8785486,1.8388389,0.1306501,-0.1841727,0.97417188,0
-4.018364,-1.3875128,0.02913475,-0.77913702,-0.62669742,-0.013987541,0
-0.43031007,1.8873891,-1.125237,-0.1306501,0.1841727,-0.97417188,0
3.6563649,1.8673025,-1.3614779,0.77913702,0.62669742,0.013987541,0
2.8960509,0.24791664,1.1982381,0.1306501,-0.1841727,0.97417188,0
1.685534,-0.10599148,-1.7143303,0.61308724,-0.75718606,-0.22537379,0
1.7129145,-0.91371429,1.0738499,0.61308724,-0.75718606,-0.22537379,0
-3.3311057,-1.7389535,1.6577582,0.1306501,-0.1841727,0.97417188,0
-1.3594214,0.82715774,-1.2010728,-0.1306501,0.1841727,-0.97417188,0
3.3002682,2.2988138,-0.8595233,0.77913702,0.62669742,0.013987541,0
-2.630471,-3.1381404,1.1555119,-0.77913702,-0.62669742,-0.013987541,0
-2.3479722,-0.32791424,1.37008,-0.61308724,0.75718606,0.22537379,0
-1.9838631,-0.46144837,-1.3609447,-0.1306501,0.1841727,-0.97417188,0
-3.5611091,-1.9874589,1.4389987,-0.77913702,-0.62669742,-0.013987541,0
-3.4378996,-0.76511914,-0.12599111,-0.61308724,0.75718606,0.22537379,0
-3.7918477,-1.6891661,0.92694235,-0.77913702,-0.62669742,-0.013987541,0
-1.6367157,-3.0192089,-0.96438193,0.61308724,-0.75718606,-0.22537379,0
-0.76882148,-2.3987751,-0.687904,0.61308724,-0.75718606,-0.22537379,0
2.6690993,3.0860412,-0.97292113,0.77913702,0.62669742,0.013987541,0
-1.702565,-2.8107626,1.2367163,0.1306501,-0.1841727,0.97417188,0
-2.7886448,-0.80756879,-1.3184481,-0.1306501,0.1841727,-0.97417188,0
-0.85874534,-1.5151465,1.3684919,0.1306501,-0.1841727,0.97417188,0
-0.40532613,1.9756372,-1.1119039,-0.1306501,0.1841727,-0.97417188,0
3.6404562,1.8257934,1.384465,0.77913702,0.62669742,0.013987541,0
2.6400912,3.1215219,-0.94678664,0.77913702,0.62669742,0.013987541,0
-0.42736,1.5905679,0.149242,-0.61308724,0.75718606,0.22537379,0
2.5577033,3.2246599,-0.978585,0.77913702,0.62669742,0.013987541,0
-2.5281861,-3.2103031,-1.3088136,-0.77913702,-0.62669742,-0.013987541,0
2.5253434,0.41975573,1.2804426,0.1306501,-0.1841727,0.97417188,0
-0.50051039,1.2300699,1.1614115,-0.61308724,0.75718606,0.22537379,0
1.1706059,2.1811268,-1.2844095,-0.1306501,0.1841727,-0.97417188,0
-1.3966545,0.25095522,1.7745246,0.1306501,-0.1841727,0.97417188,0
0.031024218,-1.4177885,-1.807884,0.61308724,-0.75718606,-0.22537379,0
-0.93647701,-0.24069846,1.6198583,0.1306501,-0.1841727,0.97417188,0
-1.287963,-1.2114226,-1.5960615,-0.1306501,0.1841727,-0.97417188,0
3.8750293,1.5482876,0.75157595,0.77913702,0.62669742,0.013987541,0
-2.7697868,-2.9156272,-1.0537741,-0.77913702,-0.62669742,-0.013987541,0
3.2814176,2.3023338,0.032785892,0.77913702,0.62669742,0.013987541,0
-3.2703514,-2.3217807,0.22208929,-0.77913702,-0.62669742,-0.013987541,0
0.94068795,0.41257787,-1.5879283,-0.1306501,0.1841727,-0.97417188,0
3.6081147,0.68235403,0.86709309,0.61308724,-0.75718606,-0.22537379,0
-2.399579,-3.3811977,-0.81574988,-0.77913702,-0.62669742,-0.013987541,0
1.7087443,3.2677112,0.32543325,-0.61308724,0.75718606,0.22537379,0
-3.1655607,-0.2432982,-1.1382996,-0.61308724,0.75718606,0.22537379,0
1.2250134,2.7555408,-1.1831102,-0.1306501,0.1841727,-0.97417188,0
2.1789825,3.6727772,0.039569378,0.77913702,0.62669742,0.013987541,0
-2.6349001,-3.0896683,-0.76954031,-0.77913702,-0.62669742,-0.013987541,0
-2.4169016,0.3108969,-1.156852,-0.1306501,0.1841727,-0.97417188,0
-2.6220734,-3.1348701,0.54121518,-0.77913702,-0.62669742,-0.013987541,0
0.52881062,-1.6596683,0.35889107,0.61308724,-0.75718606,-0.22537379,0
-0.88760459,1.4398669,-0.5964582,-0.61308724,0.75718606,0.22537379,0
-2.3693268,-1.085155,1.6523745,0.1306501,-0.1841727,0.97417188,0
2.0582423,0.12466598,-1.4753851,0.61308724,-0.75718606,-0.22537379,0
0.16437781,2.376092,-1.1126009,-0.1306501,0.1841727,-0.97417188,0
1.2122047,2.877058,0.28716278,-0.61308724,0.75718606,0.22537379,0
-3.1167176,-2.5188608,0.49431992,-0.77913702,-0.62669742,-0.013987541,0
-1.6235583,-2.5796196,-1.8097186,-0.1306501,0.1841727,-0.97417188,0
-3.6950417,-1.803353,0.65066719,-0.77913702,-0.62669742,-0.013987541,0
-3.2311175,-2.3783214,0.56993103,-0.77913702,-0.62669742,-0.013987541,0
3.331815,2.2533383,-0.57927561,0.77913702,0.62669742,0.013987541,0
-0.022568464,-0.23767394,-1.581676,-0.1306501,0.1841727,-0.97417188,0
0.82399839,0.82123828,-1.4950192,-0.1306501,0.1841727,-0.97417188,0
0.25004876,0.15373474,1.5352983,0.1306501,-0.1841727,0.97417188,0
-0.10736263,0.81712091,1.7086492,0.1306501,-0.1841727,0.97417188,0
-3.1856549,-1.3481299,1.7121384,0.1306501,-0.1841727,0.97417188,0
2.8249569,2.8881924,-0.79013944,0.77913702,0.62669742,0.013987541,0
2.8345175,2.8603406,-0.074802876,0.77913702,0.62669742,0.013987541,0
-2.6046121,-3.163609,0.8561933,-0.77913702,-0.62669742,-0.013987541,0
-4.1576061,-1.0409732,-1.1570334,-0.61308724,0.75718606,0.22537379,0
1.1151021,1.1084819,-1.479755,-0.1306501,0.1841727,-0.97417188,0
0.072201014,-1.7759342,-0.4926118,0.61308724,-0.75718606,-0.22537379,0
2.1352208,2.9279335,1.8069481,0.1306501,-0.1841727,0.97417188,0
-0.19654036,-1.8057188,-1.1236061,0.61308724,-0.75718606,-0.22537379,0
-0.91985583,0.92747307,-1.2410595,-0.1306501,0.1841727,-0.97417188,0
-2.9539557,-2.7226586,0.55907249,-0.77913702,-0.62669742,-0.013987541,0
-1.7350649,0.2479192,1.102758,-0.61308724,0.75718606,0.22537379,0
3.8475928,1.6139897,-0.66387892,0.77913702,0.62669742,0.013987541,0
-3.4313946,-1.1938858,-1.3052816,-0.1306501,0.1841727,-0.97417188,0
-3.8011818,-0.83458865,-0.88083529,-0.61308724,0.75718606,0.22537379,0
-3.0877256,-2.5081866,-1.5988262,-0.77913702,-0.62669742,-0.013987541,0
-1.7848177,-1.9570419,-1.6703897,-0.1306501,0.1841727,-0.97417188,0
-0.94412398,-2.2130389,-1.7887976,0.61308724,-0.75718606,-0.22537379,0
3.8844569,1.583001,-1.3288646,0.77913702,0.62669742,0.013987541,0
-3.6428161,-1.8724328,0.83664846,-0.77913702,-0.62669742,-0.013987541,0
3.1173279,2.4881022,0.84977937,0.77913702,0.62669742,0.013987541,0
0.54007548,1.6289992,-1.3042294,-0.1306501,0.1841727,-0.97417188,0
-0.414473,-1.7465086,1.2651687,0.1306501,-0.1841727,0.97417188,0
-3.1083741,-2.51087,-0.3284409,-0.77913702,-0.62669742,-0.013987541,0
-3.1069562,-2.5448799,1.116358,-0.77913702,-0.62669742,-0.013987541,0
-3.3192985,-2.2456551,-0.46216393,-0.77913702,-0.62669742,-0.013987541,0
2.3712559,3.4539347,-0.86549878,0.77913702,0.62669742,0.013987541,0
-3.0101213,-0.55445015,0.32991815,-0.61308724,0.75718606,0.22537379,0
-4.0295258,-1.0461721,-1.1971385,-0.1306501,0.1841727,-0.97417188,0
-3.6527534,-1.8165948,-1.1115999,-0.77913702,-0.62669742,-0.013987541,0
-0.0038493872,0.43535227,1.6225913,0.1306501,-0.1841727,0.97417188,0
-2.3724844,-3.4484696,0.6890626,-0.77913702,-0.62669742,-0.013987541,0
1.5418019,-0.70419008,-0.095565319,0.61308724,-0.75718606,-0.22537379,0
-1.98561,-1.5468175,-1.5659055,-0.1306501,0.1841727,-0.97417188,0
-2.3094807,0.32494003,-0.71859777,-0.61308724,0.75718606,0.22537379,0
4.0853157,1.2876254,0.71684432,0.77913702,0.62669742,0.013987541,0
1.2332895,2.9075501,-1.1554818,-0.1306501,0.1841727,-0.97417188,0
2.9275591,2.7204566,1.0099254,0.77913702,0.62669742,0.013987541,0
-1.7725898,0.49283671,0.17783201,-0.61308724,0.75718606,0.22537379,0
-0.50517631,-2.2729769,1.1778013,0.1306501,-0.1841727,0.97417188,0
3.2414556,2.3442779,0.37951064,0.77913702,0.62669742,0.013987541,0
3.5726223,1.9313586,0.43321896,0.77913702,0.62669742,0.013987541,0
-3.9693294,-1.4232497,-1.1010313,-0.77913702,-0.62669742,-0.013987541,0
3.392751,2.1922774,-1.2377787,0.77913702,0.62669742,0.013987541,0
-0.32225651,1.4927781,0.76369941,-0.61308724,0.75718606,0.22537379,0
0.93538368,2.123601,-1.2637386,-0.1306501,0.1841727,-0.97417188,0
-2.4797297,-3.2887878,-0.49153423,-0.77913702,-0.62669742,-0.013987541,0
-3.2838202,-1.4216428,1.7114058,0.1306501,-0.1841727,0.97417188,0
-0.24712738,1.8646615,-0.28133762,-0.61308724,0.75718606,0.22537379,0
3.1631093,2.4422717,0.35304928,0.77913702,0.62669742,0.013987541,0
1.9595313,2.4826488,-1.3332112,-0.1306501,0.1841727,-0.97417188,0
-3.8102789,-1.6235156,-0.98781347,-0.77913702,-0.62669742,-0.013987541,0
2.5740409,3.1585894,1.0716028,0.77913702,0.62669742,0.013987541,0
-1.8385395,-3.6359384,0.55861259,0.61308724,-0.75718606,-0.22537379,0
-1.2200943,0.20348203,-1.3376679,-0.1306501,0.1841727,-0.97417188,0
1.5099257,-0.05734311,1.3264259,0.1306501,-0.1841727,0.97417188,0
2.7398257,2.9448869,1.4117362,0.77913702,0.62669742,0.013987541,0
-0.44838211,-2.3849156,0.13722706,0.61308724,-0.75718606,-0.22537379,0
-2.3748484,-3.3961341,-1.5241008,-0.77913702,-0.62669742,-0.013987541,0
0.055954576,-1.5795088,1.23365,0.1306501,-0.1841727,0.97417188,0
2.7152071,-0.10822688,1.0942116,0.61308724,-0.75718606,-0.22537379,0
-2.9536524,-2.6898751,-0.92664456,-0.77913702,-0.62669742,-0.013987541,0
-2.3098433,-3.5223255,0.50887847,-0.77913702,-0.62669742,-0.013987541,0
-2.0225234,-3.203146,1.2054451,0.1306501,-0.1841727,0.97417188,0
-1.4073807,-0.15200138,1.6997818,0.1306501,-0.1841727,0.97417188,0
-3.3689358,-1.2435404,1.6689594,-0.61308724,0.75718606,0.22537379,0
-2.9855747,-0.36191279,-0.25017333,-0.61308724,0.75718606,0.22537379,0
-0.74986464,1.0205826,1.186902,-0.61308724,0.75718606,0.22537379,0
-3.4211969,-2.1098287,-0.8717792,-0.77913702,-0.62669742,-0.013987541,0
2.7840884,2.8843124,1.6601593,0.77913702,0.62669742,0.013987541,0
2.5392065,3.2358708,-0.45057487,0.77913702,0.62669742,0.013987541,0
-3.6131344,-1.8535365,-1.4056187,-0.1306501,0.1841727,-0.97417188,0
-0.687657,-2.7401497,0.67980063,0.61308724,-0.75718606,-0.22537379,0
2.3999472,3.3641157,1.5605884,0.77913702,0.62669742,0.013987541,0
-1.1174588,-3.1330462,0.83061504,0.61308724,-0.75718606,-0.22537379,0
-2.2680752,-1.2881583,-1.479122,-0.1306501,0.1841727,-0.97417188,0
2.0838227,2.0959575,-1.4229863,-0.1306501,0.1841727,-0.97417188,0
-2.004663,-2.9666154,1.2477674,0.1306501,-0.1841727,0.97417188,0
2.0989769,2.1670821,1.6679661,0.1306501,-0.1841727,0.97417188,0
3.1186137,1.120455,1.3333478,0.1306501,-0.1841727,0.97417188,0
-0.17371956,1.8536936,-0.044797242,-0.61308724,0.75718606,0.22537379,0
2.0558934,3.3341775,1.0464809,-0.61308724,0.75718606,0.22537379,0
-2.5531132,-1.8435251,-1.5458897,-0.1306501,0.1841727,-0.97417188,0
-3.7565982,-1.701057,-0.50374889,-0.77913702,-0.62669742,-0.013987541,0
-0.32807693,-2.3483269,1.1398044,0.1306501,-0.1841727,0.97417188,0
3.58814,1.9251299,-0.15210056,0.77913702,0.62669742,0.013987541,0
-1.9093835,-0.69432366,1.6645784,0.1306501,-0.1841727,0.97417188,0
-1.9717203,-3.8544426,1.0755002,0.1306501,-0.1841727,0.97417188,0
-1.589169,-1.064005,1.5517427,0.1306501,-0.1841727,0.97417188,0
-3.830492,-1.6548727,1.543057,-0.77913702,-0.62669742,-0.013987541,0
2.074084,-0.6260227,1.0897896,0.61308724,-0.75718606,-0.22537379,0
4.0227919,1.3674631,0.62250781,0.77913702,0.62669742,0.013987541,0
-0.94212353,1.0277131,0.63994133,-0.61308724,0.75718606,0.22537379,0
-1.4251885,-1.8586829,-1.7000257,-0.1306501,0.1841727,-0.97417188,0
2.5799954,3.151587,1.0536351,0.77913702,0.62669742,0.013987541,0
1.8057566,-0.18010521,1.2635419,0.1306501,-0.1841727,0.97417188,0
3.6826904,1.8127676,-0.38448572,0.77913702,0.62669742,0.013987541,0
3.811254,1.6280355,0.73096657,0.77913702,0.62669742,0.013987541,0
-3.3155413,-0.45119923,-0.84781027,-0.61308724,0.75718606,0.22537379,0
-0.90882629,-2.6373079,-0.26736569,0.61308724,-0.75718606,-0.22537379,0
-0.7457943,-2.6497676,1.1388372,0.1306501,-0.1841727,0.97417188,0
-1.1233196,0.44290018,1.7741547,0.1306501,-0.1841727,0.97417188,0
1.0613104,2.8511076,-1.1430881,-0.1306501,0.1841727,-0.97417188,0
1.8316437,-0.62333155,0.42123497,0.61308724,-0.75718606,-0.22537379,0
2.3019452,1.8853219,-1.4920616,-0.1306501,0.1841727,-0.97417188,0
0.92101467,1.2287248,1.6485455,0.1306501,-0.1841727,0.97417188,0
-1.3678223,-1.2688634,-1.5962107,-0.1306501,0.1841727,-0.97417188,0
3.1119757,2.500773,0.58021903,0.77913702,0.62669742,0.013987541,0
-1.6268588,0.10887456,1.778537,0.1306501,-0.1841727,0.97417188,0
2.9999278,0.29910582,1.1939846,0.1306501,-0.1841727,0.97417188,0
2.4958882,0.042243153,1.2130219,0.1306501,-0.1841727,0.97417188,0
1.9463625,1.0433862,1.4759927,0.1306501,-0.1841727,0.97417188,0
3.3140087,0.41611397,0.96151686,0.61308724,-0.75718606,-0.22537379,0
-3.69309,-1.8218205,1.3693719,-0.77913702,-0.62669742,-0.013987541,0
3.5586555,1.9506589,0.34644246,0.77913702,0.62669742,0.013987541,0
-2.3638256,-3.4191222,-1.1081386,-0.77913702,-0.62669742,-0.013987541,0
-3.01331,-2.6125653,-1.0674043,-0.77913702,-0.62669742,-0.013987541,0
3.0087595,2.0813565,-1.5497937,-0.1306501,0.1841727,-0.97417188,0
1.9826232,3.3899856,0.65966487,-0.61308724,0.75718606,0.22537379,0
3.5590165,0.76974642,0.43991923,0.61308724,-0.75718606,-0.22537379,0
1.129896,2.6070018,0.9705621,-0.61308724,0.75718606,0.22537379,0
-3.4367266,-2.1069953,-0.13366079,-0.77913702,-0.62669742,-0.013987541,0
-3.1908514,-2.4314375,0.70684147,-0.77913702,-0.62669742,-0.013987541,0
0.40132535,-0.29852664,-1.6500306,-0.1306501,0.1841727,-0.97417188,0
3.6184196,1.9165797,-1.4556727,0.77913702,0.62669742,0.013987541,0
1.3734418,-0.16241968,-1.7546732,-0.1306501,0.1841727,-0.97417188,0
0.4532184,-1.3694426,-0.82181108,0.61308724,-0.75718606,-0.22537379,0
-3.2085657,-0.58625549,-0.10305715,-0.61308724,0.75718606,0.22537379,0
-0.28498149,0.94019425,1.755738,0.1306501,-0.1841727,0.97417188,0
2.7199483,0.39938602,1.2504921,0.1306501,-0.1841727,0.97417188,0
-2.7863655,-1.6848328,-1.4846057,-0.1306501,0.1841727,-0.97417188,0
3.2804863,2.326365,-0.99204397,0.77913702,0.62669742,0.013987541,0
1.5087487,3.4801655,-0.93239832,-0.61308724,0.75718606,0.22537379,0
3.3119953,2.2952724,-1.3540907,0.77913702,0.62669742,0.013987541,0
-0.2480588,2.0188706,-1.1248221,-0.1306501,0.1841727,-0.97417188,0
-3.0850797,-2.5236824,-1.0519683,-0.77913702,-0.62669742,-0.013987541,0
-0.67926085,-2.3516111,-0.60272801,0.61308724,-0.75718606,-0.22537379,0
3.6439886,1.8871816,-1.5627613,0.77913702,0.62669742,0.013987541,0
-2.1958091,-3.6575108,0.21373463,-0.77913702,-0.62669742,-0.013987541,0
2.3684015,1.1014659,1.4303714,0.1306501,-0.1841727,0.97417188,0
2.6056082,3.158566,-0.6857326,0.77913702,0.62669742,0.013987541,0
-1.6450459,-2.9178343,-1.3276318,0.61308724,-0.75718606,-0.22537379,0
2.4305425,3.3323803,1.2782559,0.77913702,0.62669742,0.013987541,0
1.9946545,3.8722551,-0.92788124,-0.61308724,0.75718606,0.22537379,0
-1.9663159,-3.6883612,0.38714361,0.61308724,-0.75718606,-0.22537379,0
3.0938144,0.50880426,0.051109552,0.61308724,-0.75718606,-0.22537379,0
3.112865,2.4869921,1.1481171,0.77913702,0.62669742,0.013987541,0
-1.1881586,0.062953696,-1.3685186,-0.1306501,0.1841727,-0.97417188,0
-2.8424726,-2.8325987,-0.72501349,-0.77913702,-0.62669742,-0.013987541,0
-3.5378001,-1.981359,-0.13265038,-0.77913702,-0.62669742,-0.013987541,0
-3.7778697,-1.7061805,0.91066122,-0.77913702,-0.62669742,-0.013987541,0
1.5494494,3.3805833,-1.1084538,-0.1306501,0.1841727,-0.97417188,0
-3.851891,-1.599499,0.25405216,-0.77913702,-0.62669742,-0.013987541,0
2.1527708,3.7207303,-0.64888859,0.77913702,0.62669742,0.013987541,0
-3.673449,-1.7914169,-1.0869145,-0.77913702,-0.62669742,-0.013987541,0
1.3821205,0.33066228,1.416921,0.1306501,-0.1841727,0.97417188,0
2.69083,0.6079405,-1.3782008,0.61308724,-0.75718606,-0.22537379,0
-2.1767802,-1.7772942,1.4956985,0.1306501,-0.1841727,0.97417188,0
2.8480368,0.72848511,1.2955317,0.1306501,-0.1841727,0.97417188,0
-0.96061128,0.036309004,1.675465,0.1306501,-0.1841727,0.97417188,0
3.4972572,2.0267377,0.35783505,0.77913702,0.62669742,0.013987541,0
2.1800537,0.16439253,-1.2774885,0.61308724,-0.75718606,-0.22537379,0
-2.6929591,-0.36614954,0.56006646,-0.61308724,0.75718606,0.22537379,0
2.4730349,3.2711282,1.6556413,0.77913702,0.62669742,0.013987541,0
3.4097731,1.5809534,1.3813591,0.1306501,-0.1841727,0.97417188,0
3.2678549,2.3098454,0.45170951,0.77913702,0.62669742,0.013987541,0
2.8284774,2.8867183,-0.92018986,0.77913702,0.62669742,0.013987541,0
0.90440077,2.8416448,-0.43118143,-0.61308724,0.75718606,0.22537379,0
-0.066172123,1.4613762,1.5658295,-0.61308724,0.75718606,0.22537379,0
2.8252833,0.034032434,0.91570663,0.61308724,-0.75718606,-0.22537379,0
2.4982543,3.2612562,0.69319463,0.77913702,0.62669742,0.013987541,0
1.8863126,3.6019564,-0.31448483,-0.61308724,0.75718606,0.22537379,0
-1.4940879,0.26557493,1.6989727,-0.61308724,0.75718606,0.22537379,0
-0.76397264,0.13564247,-1.4116657,-0.1306501,0.1841727,-0.97417188,0
-1.5381263,-2.8078198,-1.4063913,0.61308724,-0.75718606,-0.22537379,0
0.2037344,-0.53257084,1.41176,0.1306501,-0.1841727,0.97417188,0
-0.40342522,-1.5848413,-1.7852871,-0.1306501,0.1841727,-0.97417188,0
-2.9051332,-1.4227036,1.660418,0.1306501,-0.1841727,0.97417188,0
-3.6743965,-1.8191264,0.20739555,-0.77913702,-0.62669742,-0.013987541,0
-0.54884207,-2.1797848,-0.82523078,0.61308724,-0.75718606,-0.22537379,0
0.056158423,1.7013931,1.0922248,-0.61308724,0.75718606,0.22537379,0
-3.3390763,-2.2310762,-0.013696194,-0.77913702,-0.62669742,-0.013987541,0
2.9530945,2.7087584,0.1116662,0.77913702,0.62669742,0.013987541,0
2.8802371,0.61476725,-0.88588977,0.61308724,-0.75718606,-0.22537379,0
1.8538392,0.0095590353,-1.6447017,0.61308724,-0.75718606,-0.22537379,0
-1.9860572,-0.77939081,1.6587789,0.1306501,-0.1841727,0.97417188,0
-1.27547,-2.202769,-1.7851564,-0.1306501,0.1841727,-0.97417188,0
-1.9037622,0.36103654,-1.216192,-0.1306501,0.1841727,-0.97417188,0
1.241459,2.5294368,1.5346425,-0.61308724,0.75718606,0.22537379,0
0.44774461,-0.84403098,1.3201516,0.1306501,-0.1841727,0.97417188,0
0.65785921,2.0464578,1.5697287,-0.61308724,0.75718606,0.22537379,0
-1.6242158,-1.2645289,-1.5610051,-0.1306501,0.1841727,-0.97417188,0
2.586457,-0.15339613,0.89572608,0.61308724,-0.75718606,-0.22537379,0
0.26276851,-1.0348747,-1.7706587,-0.1306501,0.1841727,-0.97417188,0
0.36827824,-1.8027045,0.40275002,0.61308724,-0.75718606,-0.22537379,0
-0.60044289,1.5356005,-0.13692413,-0.61308724,0.75718606,0.22537379,0
0.26464701,-0.47552055,1.4143764,0.1306501,-0.1841727,0.97417188,0
1.0005239,0.097431839,-1.6555333,-0.1306501,0.1841727,-0.97417188,0
3.6312253,1.8471311,0.94262004,0.77913702,0.62669742,0.013987541,0
-1.5511786,0.78983742,-0.21769017,-0.61308724,0.75718606,0.22537379,0
0.17899466,-0.28483143,1.4619144,0.1306501,-0.1841727,0.97417188,0
-1.4537783,-3.2957373,1.1116638,0.1306501,-0.1841727,0.97417188,0
-1.6076611,-1.9303229,-1.6890976,-0.1306501,0.1841727,-0.97417188,0
-2.9974561,-0.9422279,1.6671841,-0.61308724,0.75718606,0.22537379,0
-1.6738739,0.57210094,-1.2071202,-0.1306501,0.1841727,-0.97417188,0
-1.9888725,-3.3672025,1.1699162,0.1306501,-0.1841727,0.97417188,0
-3.0490289,-2.5658634,-1.1702056,-0.77913702,-0.62669742,-0.013987541,0
3.1376572,2.4502676,1.4125497,0.77913702,0.62669742,0.013987541,0
0.39031547,0.38899836,-1.5185735,-0.1306501,0.1841727,-0.97417188,0
-0.50396812,-2.5571382,1.1239169,0.1306501,-0.1841727,0.97417188,0
3.4609613,2.1019659,-0.99093437,0.77913702,0.62669742,0.013987541,0
2.2325804,-0.19309622,0.066451073,0.61308724,-0.75718606,-0.22537379,0
-0.47009313,0.39353049,1.6772144,0.1306501,-0.1841727,0.97417188,0
3.0621588,2.5896587,-0.62729502,0.77913702,0.62669742,0.013987541,0
-2.9761848,-2.6649854,-0.78669405,-0.77913702,-0.62669742,-0.013987541,0
-0.65392005,0.50689954,1.7233011,0.1306501,-0.1841727,0.97417188,0
-3.2480965,-2.3745725,1.3477373,-0.77913702,-0.62669742,-0.013987541,0
2.9138396,2.7570128,0.13627958,0.77913702,0.62669742,0.013987541,0
2.0879202,3.5899167,0.27439928,-0.61308724,0.75718606,0.22537379,0
4.014627,1.383095,0.37694073,0.77913702,0.62669742,0.013987541,0
1.6110243,1.0667126,1.5253762,0.1306501,-0.1841727,0.97417188,0
-3.3456883,-0.75988871,-1.2347267,-0.1306501,0.1841727,-0.97417188,0
-0.44706821,-2.1378646,1.195552,0.1306501,-0.1841727,0.97417188,0
-4.1183076,-1.2486858,-0.62379169,-0.77913702,-0.62669742,-0.013987541,0
-2.824276,-2.8411131,-1.3571453,-0.77913702,-0.62669742,-0.013987541,0
1.3247178,2.8134372,0.80697978,-0.61308724,0.75718606,0.22537379,0
3.0169311,1.5054965,-1.6597593,-0.1306501,0.1841727,-0.97417188,0
0.11054778,-1.284951,-1.7975221,-0.1306501,0.1841727,-0.97417188,0
-2.3013756,-3.5122373,-0.41480041,-0.77913702,-0.62669742,-0.013987541,0
-1.6225208,-1.3306308,-1.5737298,-0.1306501,0.1841727,-0.97417188,0
3.2608972,2.3612461,-1.4636817,0.77913702,0.62669742,0.013987541,0
0.79392713,2.6283937,-1.1493334,-0.1306501,0.1841727,-0.97417188,0
-3.0144038,-2.6059346,-1.3035219,-0.77913702,-0.62669742,-0.013987541,0
3.1359038,2.4617996,0.99352336,0.77913702,0.62669742,0.013987541,0
0.078491807,-2.238775,1.0795014,0.61308724,-0.75718606,-0.22537379,0
2.1061397,-0.22586954,-0.16739881,0.61308724,-0.75718606,-0.22537379,0
1.2730019,-0.96611595,0.053203821,0.61308724,-0.75718606,-0.22537379,0
