1.0146754,0.37844038,1.9007419,0.9305948,-0.16714311,0.32566369,0
0.4383938,0.28686011,-2.3700278,0.11681145,-0.70755506,-0.69693702,0
-0.7587657,0.046527416,1.9778644,-0.11681145,0.70755506,0.69693702,0
1.5982287,-0.48433009,-1.3926921,0.11681145,-0.70755506,-0.69693702,0
0.33549714,3.4565897,-1.3007441,-0.11681145,0.70755506,0.69693702,0
2.7008712,1.3643482,-2.4116144,0.9305948,-0.16714311,0.32566369,0
0.94572604,2.3954999,-2.390193,0.34691304,0.68660712,-0.63892257,0
-0.65779567,2.9024472,-1.2366595,-0.9305948,0.16714311,-0.32566369,0
1.1497694,2.8211737,-1.8219616,0.34691304,0.68660712,-0.63892257,0
0.29254556,3.3509765,-1.2007208,-0.11681145,0.70755506,0.69693702,0
0.12451878,1.7164047,-3.5658581,0.34691304,0.68660712,-0.63892257,0
-0.018088341,-0.60007346,-1.5460913,0.11681145,-0.70755506,-0.69693702,0
0.1506352,-1.0699526,3.2637761,-0.11681145,0.70755506,0.69693702,0
-2.0858736,-0.77962136,0.95434213,-0.9305948,0.16714311,-0.32566369,0
-2.4898057,-2.2699308,1.6867514,-0.34691304,-0.68660712,0.63892257,0
0.59343362,-3.1331105,1.1280317,0.11681145,-0.70755506,-0.69693702,0
1.4740975,1.0714052,0.94358397,0.9305948,-0.16714311,0.32566369,0
1.0516289,0.91903126,1.3955029,-0.11681145,0.70755506,0.69693702,0
-1.9666255,-1.9081465,0.034384012,-0.9305948,0.16714311,-0.32566369,0
2.382539,2.3310618,-1.0058146,0.9305948,-0.16714311,0.32566369,0
-0.22523391,-1.4979234,3.6352682,-0.11681145,0.70755506,0.69693702,0
0.66399121,3.2725668,-1.6006407,0.34691304,0.68660712,-0.63892257,0
1.8831227,0.49584365,-0.52061963,0.9305948,-0.16714311,0.32566369,0
-1.7759287,-1.1839806,-0.13886958,-0.9305948,0.16714311,-0.32566369,0
-0.84785748,2.0434728,-1.1344112,-0.9305948,0.16714311,-0.32566369,0
1.2896103,2.2706587,0.063170552,-0.11681145,0.70755506,0.69693702,0
0.60723245,2.8738213,-2.0599637,0.34691304,0.68660712,-0.63892257,0
1.9678146,1.5321872,-0.23073792,0.9305948,-0.16714311,0.32566369,0
-2.3935313,-1.8789287,2.1592088,-0.34691304,-0.68660712,0.63892257,0
-1.4175253,-3.2512963,1.2143557,-0.34691304,-0.68660712,0.63892257,0
0.86759591,-0.040051207,-1.9661986,0.11681145,-0.70755506,-0.69693702,0
-1.5632449,-1.8094866,2.6846504,-0.34691304,-0.68660712,0.63892257,0
-2.62708,-1.7499956,2.0028234,-0.9305948,0.16714311,-0.32566369,0
1.7931101,2.6215069,-1.6872177,0.34691304,0.68660712,-0.63892257,0
-2.4223318,-1.0282366,2.7901771,-0.11681145,0.70755506,0.69693702,0
-1.8733368,-1.8525237,-0.20364404,-0.9305948,0.16714311,-0.32566369,0
0.075839996,2.4125879,-2.8441477,0.34691304,0.68660712,-0.63892257,0
-0.96454716,0.58051145,-1.5518144,-0.9305948,0.16714311,-0.32566369,0
-0.96755934,-1.8917725,-0.39385092,0.11681145,-0.70755506,-0.69693702,0
0.22047889,-1.7356657,-0.35321265,0.11681145,-0.70755506,-0.69693702,0
-0.78777599,2.7146611,-0.96161604,-0.9305948,0.16714311,-0.32566369,0
-1.2303481,0.66826773,-0.7472387,-0.9305948,0.16714311,-0.32566369,0
-1.5805089,-0.1142467,2.0033581,-0.11681145,0.70755506,0.69693702,0
2.2619469,1.9996409,-0.83131611,0.9305948,-0.16714311,0.32566369,0
-2.1311116,-1.3673065,2.8514996,-0.34691304,-0.68660712,0.63892257,0
0.051548004,3.4717059,-1.7191751,0.34691304,0.68660712,-0.63892257,0
-0.6379239,-2.1095958,2.8645611,-0.34691304,-0.68660712,0.63892257,0
-1.3289685,-3.0756595,1.4511838,-0.34691304,-0.68660712,0.63892257,0
-0.68005764,-2.6987305,2.2085807,-0.34691304,-0.68660712,0.63892257,0
0.51801795,-0.10539001,-1.9584562,0.11681145,-0.70755506,-0.69693702,0
0.68305695,1.6496522,0.59197563,-0.11681145,0.70755506,0.69693702,0
2.0190234,2.8847742,-1.2816398,0.34691304,0.68660712,-0.63892257,0
-2.5774419,-1.3653803,2.6112273,-0.34691304,-0.68660712,0.63892257,0
-1.2020208,1.9293965,-0.0079827309,-0.11681145,0.70755506,0.69693702,0
1.5778207,-0.31169343,-0.062668085,0.9305948,-0.16714311,0.32566369,0
1.2102664,2.9067757,-1.6971229,0.34691304,0.68660712,-0.63892257,0
-0.66264266,-0.61510277,2.6656854,-0.11681145,0.70755506,0.69693702,0
-1.9699589,0.35162091,1.2037086,-0.9305948,0.16714311,-0.32566369,0
1.7182178,-0.13244134,-1.7298307,0.11681145,-0.70755506,-0.69693702,0
0.79678726,-0.99150229,1.8202575,0.9305948,-0.16714311,0.32566369,0
-1.1873723,0.78028572,-0.81255186,-0.9305948,0.16714311,-0.32566369,0
0.29779088,0.43053031,1.7650976,-0.11681145,0.70755506,0.69693702,0
-0.38851798,-2.1090584,-0.076203585,0.11681145,-0.70755506,-0.69693702,0
2.0501332,1.244082,-3.0278888,0.34691304,0.68660712,-0.63892257,0
0.39630234,1.5487094,0.64639401,-0.11681145,0.70755506,0.69693702,0
-0.31657934,-1.724084,-0.45498568,0.11681145,-0.70755506,-0.69693702,0
-1.9063352,-2.1264989,2.1576924,-0.34691304,-0.68660712,0.63892257,0
0.58934164,3.2686892,-1.6453402,0.34691304,0.68660712,-0.63892257,0
-0.057734966,2.7457094,-0.64494216,-0.11681145,0.70755506,0.69693702,0
-1.3207281,-1.4841182,3.1659801,-0.34691304,-0.68660712,0.63892257,0
-1.8915577,-3.1812201,0.76037288,0.11681145,-0.70755506,-0.69693702,0
1.9202833,1.9852477,-2.3019123,0.34691304,0.68660712,-0.63892257,0
1.7126088,2.1697249,0.2365396,-0.11681145,0.70755506,0.69693702,0
-2.086751,-1.815484,2.3939595,-0.34691304,-0.68660712,0.63892257,0
-2.3441885,-0.26062298,1.9588553,-0.9305948,0.16714311,-0.32566369,0
-1.9691011,-1.6210386,2.6667967,-0.34691304,-0.68660712,0.63892257,0
1.0576327,-2.0082893,0.55302846,0.9305948,-0.16714311,0.32566369,0
0.56926203,-1.6701694,2.1221001,0.9305948,-0.16714311,0.32566369,0
0.11166179,2.3275795,-2.9160509,0.34691304,0.68660712,-0.63892257,0
-0.6854341,2.7481461,-1.2368762,-0.9305948,0.16714311,-0.32566369,0
-1.768489,-1.9247569,2.4493365,-0.34691304,-0.68660712,0.63892257,0
2.6646709,1.2614204,-2.6755836,0.34691304,0.68660712,-0.63892257,0
-1.7955263,-2.8142469,0.4039042,0.11681145,-0.70755506,-0.69693702,0
-2.2198148,-1.3547311,2.8168507,-0.34691304,-0.68660712,0.63892257,0
1.5873626,0.21684825,-2.106374,0.11681145,-0.70755506,-0.69693702,0
-1.0289431,0.098094702,-1.6153951,-0.9305948,0.16714311,-0.32566369,0
0.40233088,2.1094038,0.078168035,-0.11681145,0.70755506,0.69693702,0
-0.37223053,-2.0292008,-0.15454769,0.11681145,-0.70755506,-0.69693702,0
0.85079503,1.9164841,-2.9565032,0.34691304,0.68660712,-0.63892257,0
-1.4521232,-1.8037941,2.7511029,-0.34691304,-0.68660712,0.63892257,0
-2.1411185,-0.40264535,1.3056846,-0.9305948,0.16714311,-0.32566369,0
0.80972064,-0.45882607,2.05669,0.9305948,-0.16714311,0.32566369,0
-0.15246773,-3.3163867,1.8312905,-0.34691304,-0.68660712,0.63892257,0
-0.096674919,-3.1879053,1.0679947,0.11681145,-0.70755506,-0.69693702,0
1.8160481,1.4916757,-2.8889167,0.34691304,0.68660712,-0.63892257,0
1.1678638,-1.127949,-0.8113997,0.11681145,-0.70755506,-0.69693702,0
-2.6238089,-1.0910525,2.8201814,-0.11681145,0.70755506,0.69693702,0
-1.173223,-0.61553526,-1.5693729,-0.9305948,0.16714311,-0.32566369,0
-0.70071411,1.0508846,-2.0643125,-0.9305948,0.16714311,-0.32566369,0
1.1504486,2.3462188,-2.3319945,0.34691304,0.68660712,-0.63892257,0
-1.8313676,-0.64908767,0.29407704,-0.9305948,0.16714311,-0.32566369,0
-2.1178238,-2.0744767,0.38107145,-0.9305948,0.16714311,-0.32566369,0
-0.81656671,-1.6278845,3.2852268,-0.34691304,-0.68660712,0.63892257,0
-1.3764677,0.96082288,-0.17954671,-0.9305948,0.16714311,-0.32566369,0
-1.5952139,-2.5957372,1.8223617,-0.34691304,-0.68660712,0.63892257,0
-0.73529315,2.403667,-1.2712021,-0.9305948,0.16714311,-0.32566369,0
0.36505342,3.2420573,-1.7957402,0.34691304,0.68660712,-0.63892257,0
0.30894971,2.5379119,-0.37251997,-0.11681145,0.70755506,0.69693702,0
-1.5394942,-0.82299483,2.7297783,-0.11681145,0.70755506,0.69693702,0
0.39488673,1.2767997,0.92220896,-0.11681145,0.70755506,0.69693702,0
-2.5351396,-1.6858264,1.7730354,-0.9305948,0.16714311,-0.32566369,0
-1.9185238,-1.8744215,-0.085758924,-0.9305948,0.16714311,-0.32566369,0
-2.2215149,-0.45868641,2.2456083,-0.11681145,0.70755506,0.69693702,0
-0.61376762,2.8987226,-1.3643842,-0.9305948,0.16714311,-0.32566369,0
-0.67746049,-1.5799423,3.4122765,-0.34691304,-0.68660712,0.63892257,0
2.5226982,1.8296833,-2.1419961,0.34691304,0.68660712,-0.63892257,0
-2.2006176,-2.7486486,1.3293247,-0.34691304,-0.68660712,0.63892257,0
1.4129797,1.6718633,-2.9141335,0.34691304,0.68660712,-0.63892257,0
-1.0680729,-2.9006462,0.61354601,0.11681145,-0.70755506,-0.69693702,0
-1.6103311,0.67306495,0.34103721,-0.9305948,0.16714311,-0.32566369,0
2.4111545,2.2401295,-1.7614818,0.34691304,0.68660712,-0.63892257,0
0.59668779,-1.6394688,2.0594873,0.9305948,-0.16714311,0.32566369,0
-1.5446957,-2.8464191,0.47860754,0.11681145,-0.70755506,-0.69693702,0
1.9970241,1.1863662,-3.0220006,0.11681145,-0.70755506,-0.69693702,0
-2.3739879,-2.5590835,1.4389036,-0.34691304,-0.68660712,0.63892257,0
0.95363319,-2.3894689,0.43343282,0.11681145,-0.70755506,-0.69693702,0
0.11041963,-0.94717544,-1.1721624,0.11681145,-0.70755506,-0.69693702,0
0.59477496,3.1709375,-1.7474372,0.34691304,0.68660712,-0.63892257,0
-2.0566974,0.056817532,1.3002615,-0.9305948,0.16714311,-0.32566369,0
0.029740628,-1.147743,3.3224888,-0.11681145,0.70755506,0.69693702,0
0.80043173,3.0900004,-1.7227502,0.34691304,0.68660712,-0.63892257,0
-0.81493199,-2.5641215,0.31432295,0.11681145,-0.70755506,-0.69693702,0
-0.065753698,2.8042083,-2.5001807,0.34691304,0.68660712,-0.63892257,0
-1.1412697,-2.2785306,-0.030315757,0.11681145,-0.70755506,-0.69693702,0
-1.3742549,1.014653,-0.15824258,-0.9305948,0.16714311,-0.32566369,0
1.6473864,-0.95947742,-0.90206665,0.11681145,-0.70755506,-0.69693702,0
-0.077553272,-2.8899274,2.3302531,-0.34691304,-0.68660712,0.63892257,0
0.6504488,3.1612306,-0.94809711,-0.11681145,0.70755506,0.69693702,0
2.2667181,0.8052808,-1.4579418,0.9305948,-0.16714311,0.32566369,0
2.0149536,2.715405,-0.26677883,-0.11681145,0.70755506,0.69693702,0
0.83247614,1.8656704,0.39770985,-0.11681145,0.70755506,0.69693702,0
1.8323796,2.5350468,-1.7588091,0.34691304,0.68660712,-0.63892257,0
2.09478,0.41237801,-2.219836,0.11681145,-0.70755506,-0.69693702,0
-0.57647061,1.538339,0.4938789,-0.11681145,0.70755506,0.69693702,0
-0.018460393,0.15925753,1.9874972,-0.11681145,0.70755506,0.69693702,0
1.4725207,3.0249221,-1.4277638,0.34691304,0.68660712,-0.63892257,0
-1.898175,-2.026319,2.2697797,-0.34691304,-0.68660712,0.63892257,0
-1.8776258,0.35426003,1.4779148,-0.11681145,0.70755506,0.69693702,0
1.4104097,1.0229166,1.100688,0.9305948,-0.16714311,0.32566369,0
-0.99683177,0.27257121,-1.6176069,-0.9305948,0.16714311,-0.32566369,0
0.93920767,1.0426781,-3.0534205,0.11681145,-0.70755506,-0.69693702,0
-0.28812087,1.3199998,0.76387399,-0.11681145,0.70755506,0.69693702,0
-0.4609462,1.9494708,0.095846415,-0.11681145,0.70755506,0.69693702,0
0.95870978,-0.12909019,1.8001814,0.9305948,-0.16714311,0.32566369,0
-0.87324774,0.3906256,-1.9101621,-0.9305948,0.16714311,-0.32566369,0
-1.2568294,-0.71267462,-1.3803202,-0.9305948,0.16714311,-0.32566369,0
2.2804317,2.2278142,-1.8456941,0.34691304,0.68660712,-0.63892257,0
-2.3149984,-2.7916758,0.57641053,-0.9305948,0.16714311,-0.32566369,0
-2.6262667,-2.0373228,1.8530333,-0.9305948,0.16714311,-0.32566369,0
0.60852778,-0.78607845,2.4636469,0.9305948,-0.16714311,0.32566369,0
0.45546478,1.6430184,-3.4650292,0.34691304,0.68660712,-0.63892257,0
-1.3204552,-1.2834104,-1.0706294,0.11681145,-0.70755506,-0.69693702,0
-0.092829227,-3.4127693,1.7600963,-0.34691304,-0.68660712,0.63892257,0
-0.038707197,1.8202465,-3.5428925,0.34691304,0.68660712,-0.63892257,0
0.5548802,-1.393787,2.305047,0.9305948,-0.16714311,0.32566369,0
1.9048443,2.4765179,-1.7823598,0.34691304,0.68660712,-0.63892257,0
-0.92339158,2.2371998,-0.81914127,-0.9305948,0.16714311,-0.32566369,0
2.0253153,2.0659738,-0.1210885,0.9305948,-0.16714311,0.32566369,0
-1.6133356,-1.0413058,-0.53025788,-0.9305948,0.16714311,-0.32566369,0
0.34734237,-0.45034003,2.6676931,-0.11681145,0.70755506,0.69693702,0
0.86633408,-1.0563622,1.5882363,0.9305948,-0.16714311,0.32566369,0
0.95303822,-2.473022,0.61339164,0.9305948,-0.16714311,0.32566369,0
-0.63899708,-3.5288193,1.3388345,-0.34691304,-0.68660712,0.63892257,0
-1.1645077,-2.113878,2.5740421,-0.34691304,-0.68660712,0.63892257,0
-2.3026173,-1.1033102,1.4075644,-0.9305948,0.16714311,-0.32566369,0
0.87353599,2.1576037,0.10821092,-0.11681145,0.70755506,0.69693702,0
1.6789687,0.34432709,-0.015007053,0.9305948,-0.16714311,0.32566369,0
-1.0280956,1.2073061,0.75425959,-0.11681145,0.70755506,0.69693702,0
1.984627,-0.056867361,-1.0943445,0.9305948,-0.16714311,0.32566369,0
2.0497754,1.0624286,-0.70604229,0.9305948,-0.16714311,0.32566369,0
1.7601709,1.4535418,-2.9602361,0.34691304,0.68660712,-0.63892257,0
-1.6885453,-0.3486979,0.040129423,-0.9305948,0.16714311,-0.32566369,0
1.6115658,1.9310719,-2.5277543,0.34691304,0.68660712,-0.63892257,0
-2.4627883,-2.5207324,1.1377834,-0.9305948,0.16714311,-0.32566369,0
0.79925746,1.909049,-2.9924765,0.34691304,0.68660712,-0.63892257,0
-0.60489416,-3.4335201,1.2321703,0.11681145,-0.70755506,-0.69693702,0
-0.76985121,1.3417778,0.66102278,-0.11681145,0.70755506,0.69693702,0
-0.88978934,-1.7003808,3.1675625,-0.34691304,-0.68660712,0.63892257,0
1.1260633,3.0599568,-1.5782291,0.34691304,0.68660712,-0.63892257,0
-0.050101459,1.842006,-3.5174263,-0.9305948,0.16714311,-0.32566369,0
-2.4566209,-1.4069717,1.691784,-0.9305948,0.16714311,-0.32566369,0
-1.200947,0.60496032,-0.86374521,-0.9305948,0.16714311,-0.32566369,0
0.11747515,2.7430539,-2.4664121,0.34691304,0.68660712,-0.63892257,0
2.364825,1.1795617,-2.9263575,0.34691304,0.68660712,-0.63892257,0
1.4239122,3.2042093,-1.2614889,0.34691304,0.68660712,-0.63892257,0
-2.0342941,-1.3138599,2.9615035,-0.34691304,-0.68660712,0.63892257,0
1.1867034,2.9281149,-1.6869854,0.34691304,0.68660712,-0.63892257,0
1.7566352,1.6177436,-2.7856994,0.34691304,0.68660712,-0.63892257,0
-2.0765381,-2.2844963,0.15530574,-0.9305948,0.16714311,-0.32566369,0
-1.2248201,0.086475953,1.8591933,-0.11681145,0.70755506,0.69693702,0
2.6069598,0.90135372,-2.3808854,0.9305948,-0.16714311,0.32566369,0
1.1092308,-0.0032340288,1.4346566,0.9305948,-0.16714311,0.32566369,0
-0.33830762,3.4679897,-1.8593504,-0.9305948,0.16714311,-0.32566369,0
-2.5702403,-2.383965,1.5205334,-0.34691304,-0.68660712,0.63892257,0
0.018567018,1.0984592,-3.2643576,0.11681145,-0.70755506,-0.69693702,0
2.1427112,0.49323678,-2.2938931,0.11681145,-0.70755506,-0.69693702,0
0.91964144,-0.58465791,-1.4045717,0.11681145,-0.70755506,-0.69693702,0
-1.8591884,-3.1306314,1.104218,-0.34691304,-0.68660712,0.63892257,0
2.3822463,0.8112421,-1.7850077,0.9305948,-0.16714311,0.32566369,0
1.4069772,0.53089249,0.85797036,0.9305948,-0.16714311,0.32566369,0
1.6931458,-0.071198344,-0.26878205,0.9305948,-0.16714311,0.32566369,0
0.88355291,0.29867244,1.997142,-0.11681145,0.70755506,0.69693702,0
1.8793383,1.8209401,-2.5007143,0.34691304,0.68660712,-0.63892257,0
-1.6876502,-2.5054004,1.8692511,-0.34691304,-0.68660712,0.63892257,0
0.8931967,2.8574696,-1.9222671,0.34691304,0.68660712,-0.63892257,0
0.70109159,2.186106,-2.7480428,0.34691304,0.68660712,-0.63892257,0
-1.9788496,-1.0405912,2.8770506,-0.11681145,0.70755506,0.69693702,0
0.45164937,-1.7947081,2.3942645,0.9305948,-0.16714311,0.32566369,0
-0.80583715,-1.7869223,3.1201453,-0.34691304,-0.68660712,0.63892257,0
2.483253,1.584136,-2.4272866,0.34691304,0.68660712,-0.63892257,0
-1.361185,0.94035649,0.96944809,-0.11681145,0.70755506,0.69693702,0
-0.15753853,0.85924196,1.253538,-0.11681145,0.70755506,0.69693702,0
0.81972969,0.067483783,-2.0833945,0.11681145,-0.70755506,-0.69693702,0
0.54307187,-1.9844233,2.0356526,0.9305948,-0.16714311,0.32566369,0
0.67265368,2.6865339,-0.46244693,-0.11681145,0.70755506,0.69693702,0
-0.31583428,-2.6037722,0.43822956,0.11681145,-0.70755506,-0.69693702,0
-0.23467076,1.6573308,-3.0847955,-0.9305948,0.16714311,-0.32566369,0
1.0533423,2.592407,-2.1201587,0.34691304,0.68660712,-0.63892257,0
1.0215602,-0.27405918,1.5461806,0.9305948,-0.16714311,0.32566369,0
-1.2660077,1.3308425,-0.30528182,-0.9305948,0.16714311,-0.32566369,0
1.3561946,2.1164865,-2.4671597,0.34691304,0.68660712,-0.63892257,0
0.70324183,3.1353207,-0.91294408,-0.11681145,0.70755506,0.69693702,0
-0.80874598,-3.2403915,1.5566208,-0.34691304,-0.68660712,0.63892257,0
-0.033313751,3.6406322,-1.5837185,0.34691304,0.68660712,-0.63892257,0
-1.70894,-0.26691818,0.14037995,-0.9305948,0.16714311,-0.32566369,0
-0.7719357,1.9677176,-1.3902404,-0.9305948,0.16714311,-0.32566369,0
-0.26969612,2.5044124,-2.5499539,-0.9305948,0.16714311,-0.32566369,0
1.1351994,2.1776729,-2.5213995,0.34691304,0.68660712,-0.63892257,0
-0.60953736,-2.7458487,2.1962357,-0.34691304,-0.68660712,0.63892257,0
2.2886603,2.6235678,-1.4159366,0.34691304,0.68660712,-0.63892257,0
1.2120762,-1.4407068,-0.48646671,0.11681145,-0.70755506,-0.69693702,0
-2.1901221,-3.1591482,0.68792284,0.11681145,-0.70755506,-0.69693702,0
-2.1543949,-2.030972,0.50790203,-0.9305948,0.16714311,-0.32566369,0
-0.12223959,-3.1049938,2.0748725,-0.34691304,-0.68660712,0.63892257,0
0.44031203,1.8728622,0.3246792,-0.11681145,0.70755506,0.69693702,0
1.6588062,2.2195215,-2.1921268,0.34691304,0.68660712,-0.63892257,0
0.16617477,2.9120536,-2.2583575,0.34691304,0.68660712,-0.63892257,0
-1.6293145,-0.04312104,1.9229686,-0.11681145,0.70755506,0.69693702,0
-1.0835322,0.81448662,-1.0917255,-0.9305948,0.16714311,-0.32566369,0
-0.73512852,0.25264114,1.7725724,-0.11681145,0.70755506,0.69693702,0
0.78591073,-1.574087,-0.42248255,0.11681145,-0.70755506,-0.69693702,0
-0.09989804,0.27087241,1.8605322,-0.11681145,0.70755506,0.69693702,0
0.63694906,-0.75281996,-1.2812288,0.11681145,-0.70755506,-0.69693702,0
0.17045546,3.3246059,-1.812691,0.34691304,0.68660712,-0.63892257,0
0.43878627,-2.358227,0.31542301,0.11681145,-0.70755506,-0.69693702,0
1.7630063,1.648753,0.414334,0.9305948,-0.16714311,0.32566369,0
1.102175,-1.0676956,0.90849596,0.9305948,-0.16714311,0.32566369,0
-0.40202165,-1.7638247,3.3642247,-0.34691304,-0.68660712,0.63892257,0
0.68172574,3.2999644,-1.5615693,0.34691304,0.68660712,-0.63892257,0
0.75402999,-2.3815832,1.2289951,0.9305948,-0.16714311,0.32566369,0
-1.6557308,-0.010504723,0.11993435,-0.9305948,0.16714311,-0.32566369,0
2.0212538,0.84171879,-0.73781753,0.9305948,-0.16714311,0.32566369,0
-2.1856568,-1.8030412,0.7142176,-0.9305948,0.16714311,-0.32566369,0
0.24856043,-2.9417005,2.3859181,0.9305948,-0.16714311,0.32566369,0
-0.39399898,-2.5185046,2.5575771,-0.34691304,-0.68660712,0.63892257,0
-0.69449514,-0.8336693,2.8822432,-0.11681145,0.70755506,0.69693702,0
0.14301181,-0.86128855,-1.253895,0.11681145,-0.70755506,-0.69693702,0
1.4118121,2.5474107,-1.9738759,0.34691304,0.68660712,-0.63892257,0
-0.80583096,-1.7137476,3.1987844,-0.34691304,-0.68660712,0.63892257,0
-1.4896038,0.85143036,0.087598622,-0.9305948,0.16714311,-0.32566369,0
0.18809623,-1.1451882,3.3464365,-0.11681145,0.70755506,0.69693702,0
-0.56145179,1.3402115,0.69754219,-0.11681145,0.70755506,0.69693702,0
-2.299542,-1.8303556,2.2624395,-0.34691304,-0.68660712,0.63892257,0
-2.0031109,-1.6032289,0.29513812,-0.9305948,0.16714311,-0.32566369,0
-0.12141204,2.2681079,-0.17073715,-0.11681145,0.70755506,0.69693702,0
-0.77986944,-0.98919821,3.0258324,-0.11681145,0.70755506,0.69693702,0
1.6302297,0.90413582,0.41158172,0.9305948,-0.16714311,0.32566369,0
-2.0775926,-1.1001871,0.76615196,-0.9305948,0.16714311,-0.32566369,0
-0.58338404,-3.0771103,0.8739363,0.11681145,-0.70755506,-0.69693702,0
-2.4087496,-1.216772,2.8625207,-0.34691304,-0.68660712,0.63892257,0
2.2492516,2.0593896,-0.7643733,0.9305948,-0.16714311,0.32566369,0
1.4012154,0.8166728,1.0211086,0.9305948,-0.16714311,0.32566369,0
-1.58899,-0.048899561,1.9355938,-0.11681145,0.70755506,0.69693702,0
-1.4931468,1.0002229,0.17408943,-0.9305948,0.16714311,-0.32566369,0
0.50659794,-0.89862096,2.6971536,0.9305948,-0.16714311,0.32566369,0
0.89435357,1.1267133,1.1582961,-0.11681145,0.70755506,0.69693702,0
-0.79999131,0.09621489,1.9205104,-0.11681145,0.70755506,0.69693702,0
-2.0233126,-2.3247018,1.8811822,-0.34691304,-0.68660712,0.63892257,0
-2.2116632,-0.49571466,1.4595015,-0.9305948,0.16714311,-0.32566369,0
-0.82926828,-0.49685317,2.5177066,-0.11681145,0.70755506,0.69693702,0
0.50264883,3.0413814,-0.85119414,-0.11681145,0.70755506,0.69693702,0
-0.12327376,0.44019437,-2.6198373,0.11681145,-0.70755506,-0.69693702,0
-1.4162207,-2.1024649,2.4496355,-0.34691304,-0.68660712,0.63892257,0
1.597976,1.8713498,-2.5993123,0.34691304,0.68660712,-0.63892257,0
0.31278497,-0.1500057,2.3569911,-0.11681145,0.70755506,0.69693702,0
1.2849164,2.8729353,-1.6929567,0.34691304,0.68660712,-0.63892257,0
2.615299,1.9315318,-1.8759878,0.9305948,-0.16714311,0.32566369,0
-1.1782478,-1.9287107,2.7655687,-0.34691304,-0.68660712,0.63892257,0
0.90906823,-1.8670019,1.0500712,0.9305948,-0.16714311,0.32566369,0
-0.99352622,2.152329,-0.66228855,-0.9305948,0.16714311,-0.32566369,0
0.078201413,-1.9442625,-0.16528475,0.11681145,-0.70755506,-0.69693702,0
0.51603407,-1.255669,2.4869387,0.9305948,-0.16714311,0.32566369,0
-0.7262013,2.1224818,-1.4414974,-0.9305948,0.16714311,-0.32566369,0
0.24532893,-1.4964205,3.1369247,0.9305948,-0.16714311,0.32566369,0
-0.4427731,-2.4453835,2.6096725,-0.34691304,-0.68660712,0.63892257,0
-0.26935422,2.2494869,-2.6817694,-0.9305948,0.16714311,-0.32566369,0
1.458589,3.0562689,-1.4016423,0.34691304,0.68660712,-0.63892257,0
-0.9365747,-2.9405506,0.67609835,0.11681145,-0.70755506,-0.69693702,0
-1.5540973,-1.295684,-0.83009022,-0.9305948,0.16714311,-0.32566369,0
-1.528119,0.067718923,1.8274012,-0.11681145,0.70755506,0.69693702,0
0.043717086,-0.25409937,-1.8869772,0.11681145,-0.70755506,-0.69693702,0
-1.6035728,-0.22862971,-0.14105889,-0.9305948,0.16714311,-0.32566369,0
0.59409666,-3.1033444,1.3155745,0.9305948,-0.16714311,0.32566369,0
2.2083564,1.0438685,-2.8419111,0.11681145,-0.70755506,-0.69693702,0
-1.3356841,-1.9622726,2.6440194,-0.34691304,-0.68660712,0.63892257,0
2.4508612,1.8679773,-1.4387205,0.9305948,-0.16714311,0.32566369,0
-0.82188129,2.1292343,-1.1646224,-0.9305948,0.16714311,-0.32566369,0
0.78373045,-0.01407671,2.297925,-0.11681145,0.70755506,0.69693702,0
-1.7362134,0.16151643,0.43820402,-0.9305948,0.16714311,-0.32566369,0
-1.4654227,-0.44101608,2.3543952,-0.11681145,0.70755506,0.69693702,0
1.3968755,0.53491676,-2.4612153,0.11681145,-0.70755506,-0.69693702,0
1.7525256,2.0616913,-2.3108501,0.34691304,0.68660712,-0.63892257,0
-1.7311094,-0.20407045,0.2359857,-0.9305948,0.16714311,-0.32566369,0
-1.3905522,-2.2256484,2.3311954,-0.34691304,-0.68660712,0.63892257,0
-2.0355809,-0.60267425,0.90144467,-0.9305948,0.16714311,-0.32566369,0
0.31001806,3.4719987,-1.5785203,0.34691304,0.68660712,-0.63892257,0
-1.2074273,-0.26133883,-1.2898459,-0.9305948,0.16714311,-0.32566369,0
1.3847828,0.5759567,0.94452101,0.9305948,-0.16714311,0.32566369,0
-0.51337349,-2.4869711,2.5266476,-0.34691304,-0.68660712,0.63892257,0
0.00039076805,2.8500152,-2.4150407,0.34691304,0.68660712,-0.63892257,0
-0.77585047,-1.5221195,3.4209924,-0.34691304,-0.68660712,0.63892257,0
-1.8415205,-1.3218426,3.0575943,-0.34691304,-0.68660712,0.63892257,0
1.9808052,2.0296953,-2.2212863,0.34691304,0.68660712,-0.63892257,0
2.0078425,2.1032875,-0.052010179,0.9305948,-0.16714311,0.32566369,0
-1.4640911,-0.17354,-0.5113588,-0.9305948,0.16714311,-0.32566369,0
-1.6128783,-0.44137311,-0.22365609,-0.9305948,0.16714311,-0.32566369,0
0.43873739,1.3857522,0.8189463,-0.11681145,0.70755506,0.69693702,0
-0.74112988,-3.369458,1.4546347,-0.34691304,-0.68660712,0.63892257,0
1.8691967,2.8155708,-0.39290023,-0.11681145,0.70755506,0.69693702,0
-1.3775599,0.44780648,-0.43972546,-0.9305948,0.16714311,-0.32566369,0
0.71925676,0.80496573,1.4555981,-0.11681145,0.70755506,0.69693702,0
1.2384481,-0.2336973,0.94713068,0.9305948,-0.16714311,0.32566369,0
-0.53824687,1.6432883,-2.224524,-0.9305948,0.16714311,-0.32566369,0
-1.9074123,-2.1973557,2.0809624,-0.34691304,-0.68660712,0.63892257,0
0.61382437,-2.5267329,1.5551406,0.9305948,-0.16714311,0.32566369,0
1.1866419,1.7925465,-2.9073372,0.34691304,0.68660712,-0.63892257,0
-0.051890612,3.5151882,-1.7286117,0.34691304,0.68660712,-0.63892257,0
2.1858077,1.0503209,-2.852241,0.11681145,-0.70755506,-0.69693702,0
2.1833837,3.2375364,-0.81330764,0.34691304,0.68660712,-0.63892257,0
1.9192312,-0.52294582,-1.1466826,0.9305948,-0.16714311,0.32566369,0
2.328469,0.19337893,-1.9484484,0.9305948,-0.16714311,0.32566369,0
0.3401652,0.59602487,1.6041837,-0.11681145,0.70755506,0.69693702,0
1.8738354,0.31453151,-2.1575305,0.11681145,-0.70755506,-0.69693702,0
-1.6750658,-0.78855169,-0.2241389,-0.9305948,0.16714311,-0.32566369,0
-1.0772715,0.3023833,-1.372447,-0.9305948,0.16714311,-0.32566369,0
-2.1359386,-1.7869525,2.397913,-0.34691304,-0.68660712,0.63892257,0
1.945653,0.95090234,-0.46574849,0.9305948,-0.16714311,0.32566369,0
-0.12067819,3.5589852,-1.718895,0.34691304,0.68660712,-0.63892257,0
0.17327213,3.1582808,-1.0250806,-0.11681145,0.70755506,0.69693702,0
-0.28360808,2.2462034,-2.6427231,-0.9305948,0.16714311,-0.32566369,0
-0.089162827,2.9174497,-2.3911979,0.34691304,0.68660712,-0.63892257,0
-0.062166929,-2.5739918,0.45051181,0.11681145,-0.70755506,-0.69693702,0
-0.39763623,0.43967623,1.6392539,-0.11681145,0.70755506,0.69693702,0
1.9013147,0.60984159,-0.51409578,0.9305948,-0.16714311,0.32566369,0
-2.4830616,-2.8462861,1.0710435,-0.34691304,-0.68660712,0.63892257,0
-0.714131,0.30081928,-2.4109356,-0.9305948,0.16714311,-0.32566369,0
1.9169585,2.1749709,-2.0998349,0.34691304,0.68660712,-0.63892257,0
0.57377493,-1.1401263,2.3812432,0.9305948,-0.16714311,0.32566369,0
0.16548008,1.6544638,-3.6101811,0.34691304,0.68660712,-0.63892257,0
0.058833838,-1.7763398,-0.33901191,0.11681145,-0.70755506,-0.69693702,0
-2.5778921,-2.2764702,1.6318961,-0.34691304,-0.68660712,0.63892257,0
-1.7487013,-1.0733949,-0.15991491,-0.9305948,0.16714311,-0.32566369,0
0.76870644,0.3656885,-2.3946943,0.11681145,-0.70755506,-0.69693702,0
0.72720408,-1.2175767,1.903064,0.9305948,-0.16714311,0.32566369,0
-1.4470109,-1.0573182,-1.0137548,-0.9305948,0.16714311,-0.32566369,0
-1.3693714,-0.77302945,-1.0897043,-0.9305948,0.16714311,-0.32566369,0
2.218884,2.6931353,-0.35233462,0.9305948,-0.16714311,0.32566369,0
-1.0042479,1.1616591,-1.1401005,-0.9305948,0.16714311,-0.32566369,0
1.5939863,1.8618324,0.52924097,-0.11681145,0.70755506,0.69693702,0
0.51585174,-2.0843787,2.0621343,0.9305948,-0.16714311,0.32566369,0
-1.3284001,1.3147583,-0.1352483,-0.9305948,0.16714311,-0.32566369,0
0.35304043,1.8228703,-3.3273675,0.34691304,0.68660712,-0.63892257,0
-0.52423513,-1.485498,-0.73201096,0.11681145,-0.70755506,-0.69693702,0
-1.1236273,-3.3352399,1.0454495,0.11681145,-0.70755506,-0.69693702,0
0.19206214,-3.1969028,1.1255238,0.11681145,-0.70755506,-0.69693702,0
1.9415092,2.7388449,-1.4805472,0.34691304,0.68660712,-0.63892257,0
0.77973104,-2.8026555,0.93944299,0.9305948,-0.16714311,0.32566369,0
0.49613732,0.066936553,-2.1370754,0.11681145,-0.70755506,-0.69693702,0
1.3082103,0.19278295,-2.1287298,0.11681145,-0.70755506,-0.69693702,0
0.88874531,-2.5241458,0.55928612,0.11681145,-0.70755506,-0.69693702,0
0.51662469,-3.2032285,1.4856884,0.9305948,-0.16714311,0.32566369,0
2.1347413,1.4381812,-2.7733645,0.34691304,0.68660712,-0.63892257,0
1.1589977,0.74523848,-2.7146113,0.11681145,-0.70755506,-0.69693702,0
1.1729556,-0.31423414,1.0929438,0.9305948,-0.16714311,0.32566369,0
-1.0684019,-0.41217768,-1.7645315,-0.9305948,0.16714311,-0.32566369,0
-0.76267415,-1.7593653,3.1731949,-0.34691304,-0.68660712,0.63892257,0
0.78696191,-2.1097739,0.1215415,0.11681145,-0.70755506,-0.69693702,0
1.348245,2.8992655,-0.56518519,-0.11681145,0.70755506,0.69693702,0
-0.36318445,-3.2719121,1.7646718,-0.34691304,-0.68660712,0.63892257,0
-2.0492096,-0.44113815,1.0232955,-0.9305948,0.16714311,-0.32566369,0
-0.71081948,-2.6842113,2.2074807,-0.34691304,-0.68660712,0.63892257,0
1.3110625,2.7499955,-1.8108755,0.34691304,0.68660712,-0.63892257,0
0.35841134,1.106468,-3.2155278,0.11681145,-0.70755506,-0.69693702,0
-1.3006822,-2.7638452,1.8016281,-0.34691304,-0.68660712,0.63892257,0
-1.5859786,-1.6012819,2.8960502,-0.34691304,-0.68660712,0.63892257,0
1.3845143,2.3511922,-2.1995606,0.34691304,0.68660712,-0.63892257,0
1.08986,2.0824316,-2.6483667,0.34691304,0.68660712,-0.63892257,0
2.3453608,1.2208838,-1.4693624,0.9305948,-0.16714311,0.32566369,0
2.686254,1.321645,-2.5991457,0.34691304,0.68660712,-0.63892257,0
0.51004243,2.7960725,-2.196286,0.34691304,0.68660712,-0.63892257,0
-0.76436865,-0.70223868,2.7370989,-0.11681145,0.70755506,0.69693702,0
0.4083479,2.0291054,-3.0757103,0.34691304,0.68660712,-0.63892257,0
0.98420542,-0.57863903,-1.3998609,0.11681145,-0.70755506,-0.69693702,0
1.9094849,0.9187361,-2.7649653,0.11681145,-0.70755506,-0.69693702,0
2.0638661,1.4407151,-0.55215585,0.9305948,-0.16714311,0.32566369,0
1.7933663,2.445308,-1.876428,0.34691304,0.68660712,-0.63892257,0
-1.2183875,1.4607033,-0.37470889,-0.9305948,0.16714311,-0.32566369,0
-0.055421948,2.3423517,-2.9908967,0.34691304,0.68660712,-0.63892257,0
0.254215,-1.6162952,3.0500083,0.9305948,-0.16714311,0.32566369,0
0.63686919,2.5354919,-2.4074516,0.34691304,0.68660712,-0.63892257,0
2.3241813,2.1464283,-1.9093996,0.34691304,0.68660712,-0.63892257,0
-1.8420409,0.10477221,0.71148652,-0.9305948,0.16714311,-0.32566369,0
0.24957776,1.8682263,0.29741722,-0.11681145,0.70755506,0.69693702,0
-0.23402211,1.5556703,-3.1388252,-0.9305948,0.16714311,-0.32566369,0
0.37706852,1.2695997,0.92653245,-0.11681145,0.70755506,0.69693702,0
-0.056830168,-3.3361826,1.8619449,-0.34691304,-0.68660712,0.63892257,0
1.5572203,0.96844894,-2.8744774,0.11681145,-0.70755506,-0.69693702,0
1.007355,-1.9112889,0.74648368,0.9305948,-0.16714311,0.32566369,0
-2.4627216,-0.86384737,1.9879698,-0.9305948,0.16714311,-0.32566369,0
-1.107165,0.9546991,-0.95223176,-0.9305948,0.16714311,-0.32566369,0
-0.25833714,-1.5941169,3.6246135,-0.34691304,-0.68660712,0.63892257,0
0.56228518,2.8139055,-0.61025715,-0.11681145,0.70755506,0.69693702,0
1.467257,3.2667112,-1.1707877,0.34691304,0.68660712,-0.63892257,0
-1.4404095,1.2927043,0.59845388,-0.11681145,0.70755506,0.69693702,0
0.084559202,3.437155,-1.7383807,0.34691304,0.68660712,-0.63892257,0
0.12482285,-2.3405077,3.0305605,-0.34691304,-0.68660712,0.63892257,0
-1.7366611,0.067542315,0.39125216,-0.9305948,0.16714311,-0.32566369,0
0.4963659,1.2985556,0.91713041,-0.11681145,0.70755506,0.69693702,0
1.0544274,0.30010891,1.7469462,0.9305948,-0.16714311,0.32566369,0
-0.30108881,2.7779596,-2.3198538,-0.9305948,0.16714311,-0.32566369,0
-2.2914376,-3.187098,0.80884111,-0.34691304,-0.68660712,0.63892257,0
1.3712995,-0.21824622,0.57543385,0.9305948,-0.16714311,0.32566369,0
1.4344974,2.129216,-2.4109645,0.34691304,0.68660712,-0.63892257,0
-1.049396,-1.5838873,3.206089,-0.34691304,-0.68660712,0.63892257,0
0.047491312,-2.124835,0.012891889,0.11681145,-0.70755506,-0.69693702,0
0.028952122,2.3637037,-2.9221392,0.34691304,0.68660712,-0.63892257,0
1.6669023,0.33963156,0.017063215,0.9305948,-0.16714311,0.32566369,0
-0.028573871,2.8227329,-2.4600859,0.34691304,0.68660712,-0.63892257,0
-0.22989148,0.94454408,-3.1497409,0.11681145,-0.70755506,-0.69693702,0
-1.3856677,0.12486243,-0.58230436,-0.9305948,0.16714311,-0.32566369,0
1.4300712,-0.025116801,0.50661361,0.9305948,-0.16714311,0.32566369,0
0.21371901,-1.8528943,3.0442953,0.9305948,-0.16714311,0.32566369,0
-0.89097261,-1.1990203,-1.0843209,0.11681145,-0.70755506,-0.69693702,0
-1.6730126,-1.0113229,-0.34434062,-0.9305948,0.16714311,-0.32566369,0
-1.6971033,-3.0027809,1.3296169,-0.34691304,-0.68660712,0.63892257,0
-2.5404129,-0.77292991,2.2566373,-0.9305948,0.16714311,-0.32566369,0
-1.6014062,-1.8868822,2.5807586,-0.34691304,-0.68660712,0.63892257,0
-0.52808082,-1.7483461,3.3124127,-0.34691304,-0.68660712,0.63892257,0
2.0905638,2.4657819,-1.6930583,0.34691304,0.68660712,-0.63892257,0
-1.6419401,-1.7944889,2.6580386,-0.34691304,-0.68660712,0.63892257,0
-1.6670905,-2.4243031,0.029546618,0.11681145,-0.70755506,-0.69693702,0
-0.35184121,3.3933702,-1.3517637,-0.11681145,0.70755506,0.69693702,0
2.0402484,1.0388341,-0.69092882,0.9305948,-0.16714311,0.32566369,0
0.21234202,-2.5916476,2.6690738,0.9305948,-0.16714311,0.32566369,0
0.48246896,-0.97352636,2.7276587,0.9305948,-0.16714311,0.32566369,0
-2.3399005,-1.4409041,1.3408366,-0.9305948,0.16714311,-0.32566369,0
1.8869383,0.39892048,-2.2410092,0.11681145,-0.70755506,-0.69693702,0
-0.84313345,1.0967548,-1.6338019,-0.9305948,0.16714311,-0.32566369,0
-0.47233772,-1.8794507,-0.32335806,0.11681145,-0.70755506,-0.69693702,0
2.3481188,2.427295,-1.594574,0.34691304,0.68660712,-0.63892257,0
-0.15594649,1.6938941,-3.290987,-0.9305948,0.16714311,-0.32566369,0
-2.2340019,-2.8509738,1.2012365,-0.34691304,-0.68660712,0.63892257,0
0.16943669,0.52132994,1.6514014,-0.11681145,0.70755506,0.69693702,0
0.22563589,1.0755818,-3.2064252,0.11681145,-0.70755506,-0.69693702,0
0.25384113,0.46908033,-2.5859563,0.11681145,-0.70755506,-0.69693702,0
1.1080835,-1.2905983,0.77721077,0.9305948,-0.16714311,0.32566369,0
-1.1544293,-3.3814316,1.21736,-0.34691304,-0.68660712,0.63892257,0
1.7164458,1.0183443,-2.8984456,0.11681145,-0.70755506,-0.69693702,0
-1.4559627,1.1300607,0.13447207,-0.9305948,0.16714311,-0.32566369,0
-0.82531071,-2.7844818,0.53630054,0.11681145,-0.70755506,-0.69693702,0
-2.0580595,-0.069476247,1.2393358,-0.9305948,0.16714311,-0.32566369,0
0.20958626,0.84391612,1.3306301,-0.11681145,0.70755506,0.69693702,0
1.9570608,1.5984926,-0.16597915,0.9305948,-0.16714311,0.32566369,0
0.75690508,3.418324,-1.3935566,0.34691304,0.68660712,-0.63892257,0
1.115708,-1.7727363,0.50797129,0.9305948,-0.16714311,0.32566369,0
0.47342247,-0.23381656,-1.8355474,0.11681145,-0.70755506,-0.69693702,0
1.9337327,-0.33756083,-1.4854645,0.11681145,-0.70755506,-0.69693702,0
2.5470951,1.922796,-2.0286877,0.34691304,0.68660712,-0.63892257,0
0.14224219,2.4687123,-2.7477808,0.34691304,0.68660712,-0.63892257,0
-1.2153233,0.90403283,1.0307726,-0.11681145,0.70755506,0.69693702,0
-1.8357947,-1.2606018,-0.0071243048,-0.9305948,0.16714311,-0.32566369,0
-1.6252152,-1.94133,2.5093193,-0.34691304,-0.68660712,0.63892257,0
1.2910635,-1.8439065,-0.029640436,0.9305948,-0.16714311,0.32566369,0
-1.2264394,0.40523013,1.5353115,-0.11681145,0.70755506,0.69693702,0
-1.3631978,-0.039155364,-0.73069358,-0.9305948,0.16714311,-0.32566369,0
0.15849352,-1.8366923,3.2104197,0.9305948,-0.16714311,0.32566369,0
-1.1199299,-3.0448041,0.75120878,0.11681145,-0.70755506,-0.69693702,0
1.1765984,3.2822194,-1.3119396,0.34691304,0.68660712,-0.63892257,0
0.20619822,1.9669521,-3.2522626,0.34691304,0.68660712,-0.63892257,0
-1.6380525,-3.3495071,0.9890765,-0.34691304,-0.68660712,0.63892257,0
-2.7283418,-1.2170119,2.6887352,-0.34691304,-0.68660712,0.63892257,0
1.5434028,-0.38960382,-1.4980506,0.11681145,-0.70755506,-0.69693702,0
0.57997918,3.2424514,-1.678619,0.34691304,0.68660712,-0.63892257,0
1.5056255,1.9618218,-2.5522313,0.34691304,0.68660712,-0.63892257,0
1.2309448,0.28722847,-2.2375646,0.11681145,-0.70755506,-0.69693702,0
-0.70884454,1.6807492,0.32711256,-0.11681145,0.70755506,0.69693702,0
-1.5316445,-2.3480058,-0.025211811,0.11681145,-0.70755506,-0.69693702,0
2.2360871,2.4551332,-1.6254872,0.34691304,0.68660712,-0.63892257,0
-0.68312395,-2.6654863,2.2426405,-0.34691304,-0.68660712,0.63892257,0
-1.6896149,-1.4142817,-0.50371349,-0.9305948,0.16714311,-0.32566369,0
0.91997755,-1.9083996,0.99764991,0.9305948,-0.16714311,0.32566369,0
-1.0743144,-2.0935347,2.6448755,-0.34691304,-0.68660712,0.63892257,0
0.79469717,-0.86961913,1.8887851,0.9305948,-0.16714311,0.32566369,0
-1.3433276,-3.1444817,1.3694292,-0.34691304,-0.68660712,0.63892257,0
-2.6640542,-1.3317895,2.6002975,-0.34691304,-0.68660712,0.63892257,0
1.7435167,-0.043285251,-1.8161048,0.11681145,-0.70755506,-0.69693702,0
0.19842792,1.4920325,0.67076933,-0.11681145,0.70755506,0.69693702,0
-1.4265519,-2.2975163,-0.05885613,0.11681145,-0.70755506,-0.69693702,0
0.058564067,-0.36803919,-1.7688133,0.11681145,-0.70755506,-0.69693702,0
1.0890044,0.050859228,-2.0213845,0.11681145,-0.70755506,-0.69693702,0
-2.6957731,-1.4579108,2.4475412,-0.34691304,-0.68660712,0.63892257,0
1.848087,-0.027102232,-0.68889993,0.9305948,-0.16714311,0.32566369,0
-0.76206517,-2.7551506,2.1034224,-0.34691304,-0.68660712,0.63892257,0
1.0885209,-1.3125854,-0.63724893,0.11681145,-0.70755506,-0.69693702,0
1.6037935,2.060395,-2.3929994,0.34691304,0.68660712,-0.63892257,0
-1.2551613,-2.6631699,1.9345336,-0.34691304,-0.68660712,0.63892257,0
-0.2907393,3.6469457,-1.7167068,0.34691304,0.68660712,-0.63892257,0
-2.1485248,-1.6767066,2.5095534,-0.34691304,-0.68660712,0.63892257,0
-1.574034,0.43145192,0.11331171,-0.9305948,0.16714311,-0.32566369,0
-0.19640274,0.77958417,-2.9766548,0.11681145,-0.70755506,-0.69693702,0
-1.6797818,-2.3419077,2.0492179,-0.34691304,-0.68660712,0.63892257,0
-2.3502054,-2.5737491,1.4360564,-0.34691304,-0.68660712,0.63892257,0
-0.67781967,-2.3417342,2.5934353,-0.34691304,-0.68660712,0.63892257,0
1.4249293,-1.2725919,-0.11894488,0.9305948,-0.16714311,0.32566369,0
-2.0316739,-2.7717364,1.3962448,-0.34691304,-0.68660712,0.63892257,0
-0.50603229,-0.48131543,2.556109,-0.11681145,0.70755506,0.69693702,0
2.2476168,1.6068578,-2.5308113,0.34691304,0.68660712,-0.63892257,0
0.82256371,1.1199007,-3.1513703,0.11681145,-0.70755506,-0.69693702,0
-1.5019686,-2.7542038,1.7026976,-0.34691304,-0.68660712,0.63892257,0
0.063841343,-0.75241458,-1.3776972,0.11681145,-0.70755506,-0.69693702,0
-2.5428565,-1.6964191,1.7896502,-0.9305948,0.16714311,-0.32566369,0
-1.7760389,-0.13328552,0.40070289,-0.9305948,0.16714311,-0.32566369,0
0.059372544,2.1960366,-3.0858021,0.34691304,0.68660712,-0.63892257,0
-0.75526482,-1.163933,3.2073531,-0.11681145,0.70755506,0.69693702,0
0.80870807,-0.49158919,2.042768,0.9305948,-0.16714311,0.32566369,0
-1.7291483,-1.8779533,2.5209939,-0.34691304,-0.68660712,0.63892257,0
-0.38599008,1.190529,-2.8919761,-0.9305948,0.16714311,-0.32566369,0
-1.2509162,-2.3602495,2.2623668,-0.34691304,-0.68660712,0.63892257,0
-0.00083136559,2.6834612,-0.57220781,-0.11681145,0.70755506,0.69693702,0
1.5333756,2.0576777,-2.434154,0.34691304,0.68660712,-0.63892257,0
-2.3140888,-1.081892,2.8627925,-0.11681145,0.70755506,0.69693702,0
1.9278109,-0.59655219,-1.22352,0.11681145,-0.70755506,-0.69693702,0
2.4172847,0.88174105,-2.6422958,0.11681145,-0.70755506,-0.69693702,0
-0.65009862,-0.065832615,2.1101496,-0.11681145,0.70755506,0.69693702,0
-0.62168723,-0.97719461,3.0401583,-0.11681145,0.70755506,0.69693702,0
-0.81842923,2.723063,-0.86971152,-0.9305948,0.16714311,-0.32566369,0
2.3241489,2.5162539,-0.74391544,0.9305948,-0.16714311,0.32566369,0
-1.2945527,0.98719233,0.9330669,-0.11681145,0.70755506,0.69693702,0
-0.37495568,-1.8974936,3.2352757,-0.34691304,-0.68660712,0.63892257,0
0.12431204,1.109796,1.0464069,-0.11681145,0.70755506,0.69693702,0
1.05163,-0.7749294,1.2031889,0.9305948,-0.16714311,0.32566369,0
0.98875701,-0.36328292,1.5941235,0.9305948,-0.16714311,0.32566369,0
0.27463377,0.73931569,1.4477265,-0.11681145,0.70755506,0.69693702,0
0.39136285,1.1169257,-3.2206221,0.11681145,-0.70755506,-0.69693702,0
2.0212479,1.923867,-2.3130536,0.34691304,0.68660712,-0.63892257,0
-0.27751184,-3.2091455,1.8786405,-0.34691304,-0.68660712,0.63892257,0
2.4460926,2.5960746,-1.3600012,0.34691304,0.68660712,-0.63892257,0
-2.1501074,-3.1135938,0.96456826,-0.34691304,-0.68660712,0.63892257,0
-0.94660556,2.2874005,-0.32863152,-0.11681145,0.70755506,0.69693702,0
-1.1885269,-2.8235829,0.51511955,0.11681145,-0.70755506,-0.69693702,0
-1.0661564,1.6281461,-0.72377622,-0.9305948,0.16714311,-0.32566369,0
1.3079292,3.1632049,-1.3685282,0.34691304,0.68660712,-0.63892257,0
-0.052835941,2.1817827,-0.071602583,-0.11681145,0.70755506,0.69693702,0
0.23118377,1.0321798,1.1431179,-0.11681145,0.70755506,0.69693702,0
2.2900777,1.0865026,-1.3803587,0.9305948,-0.16714311,0.32566369,0
0.29571247,-2.6338596,2.4091747,0.9305948,-0.16714311,0.32566369,0
0.92238355,2.1093259,0.16541123,-0.11681145,0.70755506,0.69693702,0
-0.51101947,0.95950532,-2.6532705,-0.9305948,0.16714311,-0.32566369,0
1.1221349,0.1720711,-2.13889,0.11681145,-0.70755506,-0.69693702,0
-0.89624643,-1.2717022,-1.0114157,0.11681145,-0.70755506,-0.69693702,0
-1.6761128,-0.34386334,2.2204492,-0.11681145,0.70755506,0.69693702,0
0.47299457,-3.2916985,1.5649576,0.9305948,-0.16714311,0.32566369,0
-0.36715257,2.1623592,-0.10456538,-0.11681145,0.70755506,0.69693702,0
-2.2826655,-0.83980823,2.6222873,-0.11681145,0.70755506,0.69693702,0
-1.7615024,0.73936266,0.80704093,-0.9305948,0.16714311,-0.32566369,0
-2.059618,-2.8371265,1.3108016,-0.34691304,-0.68660712,0.63892257,0
0.47923511,-1.4903264,2.4716578,0.9305948,-0.16714311,0.32566369,0
-0.50895882,-3.0941353,1.8765666,-0.34691304,-0.68660712,0.63892257,0
0.21952355,-0.14940757,-1.9637977,0.11681145,-0.70755506,-0.69693702,0
-1.5036318,0.7554912,0.0784446,-0.9305948,0.16714311,-0.32566369,0
-2.1695671,0.10019529,1.6450548,-0.9305948,0.16714311,-0.32566369,0
1.5744265,3.1592629,-1.2280657,0.34691304,0.68660712,-0.63892257,0
2.5200634,1.6038886,-2.3860731,0.34691304,0.68660712,-0.63892257,0
-2.3715401,-2.6667573,1.3245231,-0.34691304,-0.68660712,0.63892257,0
0.17633849,0.89777046,-3.0341675,0.11681145,-0.70755506,-0.69693702,0
-0.052553654,-3.1734209,1.0606848,0.11681145,-0.70755506,-0.69693702,0
0.43970352,0.42903477,-2.5141487,0.11681145,-0.70755506,-0.69693702,0
-2.68012,-1.3503444,2.3595042,-0.9305948,0.16714311,-0.32566369,0
1.6633781,1.1758599,0.4563185,0.9305948,-0.16714311,0.32566369,0
-0.99076271,-2.297348,2.4712167,-0.34691304,-0.68660712,0.63892257,0
-0.75187397,-1.4119809,-0.84480226,0.11681145,-0.70755506,-0.69693702,0
0.44926137,-0.09999752,2.3290954,-0.11681145,0.70755506,0.69693702,0
0.19318342,-0.92977405,-1.1759571,0.11681145,-0.70755506,-0.69693702,0
-2.0894172,-1.9718413,2.2244852,-0.34691304,-0.68660712,0.63892257,0
-1.6638746,-1.6728015,2.7768981,-0.34691304,-0.68660712,0.63892257,0
0.91807735,2.6780126,-0.41266084,-0.11681145,0.70755506,0.69693702,0
-1.1136435,1.2627641,0.68361831,-0.11681145,0.70755506,0.69693702,0
-0.0058752298,-1.8660747,-0.25875551,0.11681145,-0.70755506,-0.69693702,0
0.64033282,-2.3316774,1.5795019,0.9305948,-0.16714311,0.32566369,0
1.8367562,1.5615495,0.15883499,0.9305948,-0.16714311,0.32566369,0
1.1524361,3.1715789,-1.4439569,0.34691304,0.68660712,-0.63892257,0
-1.0846957,-0.10812545,-1.5619209,-0.9305948,0.16714311,-0.32566369,0
2.2558322,2.7536333,-1.2939888,0.34691304,0.68660712,-0.63892257,0
0.60275632,2.3786237,-2.5945494,0.34691304,0.68660712,-0.63892257,0
1.1792536,1.0411789,1.2928849,-0.11681145,0.70755506,0.69693702,0
-0.062015295,2.720232,-2.5883946,0.34691304,0.68660712,-0.63892257,0
2.2404938,0.35860813,-1.6122543,0.9305948,-0.16714311,0.32566369,0
-2.0762007,-1.106254,0.75906068,-0.9305948,0.16714311,-0.32566369,0
-1.2338614,1.3111795,0.61431587,-0.11681145,0.70755506,0.69693702,0
-1.7744458,0.53633028,1.3103644,-0.11681145,0.70755506,0.69693702,0
-0.23782015,-2.4929543,0.33879912,0.11681145,-0.70755506,-0.69693702,0
0.52284348,-1.8228745,-0.21399689,0.11681145,-0.70755506,-0.69693702,0
-2.2723329,-1.7071465,1.0111141,-0.9305948,0.16714311,-0.32566369,0
1.1773653,1.6017185,-3.117444,0.34691304,0.68660712,-0.63892257,0
0.19741476,-0.46615154,-1.6459337,0.11681145,-0.70755506,-0.69693702,0
0.49392772,-1.4818861,2.434005,0.9305948,-0.16714311,0.32566369,0
-0.6511153,-2.1998291,2.7604306,-0.34691304,-0.68660712,0.63892257,0
1.5973773,2.1899915,0.19665039,-0.11681145,0.70755506,0.69693702,0
0.61202669,3.3409665,-1.5553516,0.34691304,0.68660712,-0.63892257,0
-0.57734025,-0.38517177,-1.8580016,0.11681145,-0.70755506,-0.69693702,0
-2.6228974,-2.0495322,1.8371387,-0.9305948,0.16714311,-0.32566369,0
-2.049598,-0.45813954,1.0156796,-0.9305948,0.16714311,-0.32566369,0
0.41052282,1.9077303,0.2842868,-0.11681145,0.70755506,0.69693702,0
1.4845263,0.21973449,-2.1265402,0.11681145,-0.70755506,-0.69693702,0
0.98550349,-0.09332943,1.7419714,0.9305948,-0.16714311,0.32566369,0
0.21246265,-1.3296833,3.3164172,0.9305948,-0.16714311,0.32566369,0
-1.6693072,-3.3417583,0.98043346,-0.34691304,-0.68660712,0.63892257,0
-0.36130142,2.826663,-0.77800882,-0.11681145,0.70755506,0.69693702,0
-2.0133247,-1.3888621,2.8922892,-0.34691304,-0.68660712,0.63892257,0
1.6195269,0.1999445,0.080747381,0.9305948,-0.16714311,0.32566369,0
0.5421226,-2.1431615,1.9568948,0.9305948,-0.16714311,0.32566369,0
0.83062726,0.63348162,-2.656189,0.11681145,-0.70755506,-0.69693702,0
0.52301204,-0.1449151,2.3870583,-0.11681145,0.70755506,0.69693702,0
0.92978513,2.8719144,-1.8868781,0.34691304,0.68660712,-0.63892257,0
-1.4773927,0.87957114,1.0116824,-0.11681145,0.70755506,0.69693702,0
-1.7856731,0.06061554,0.52775049,-0.9305948,0.16714311,-0.32566369,0
-0.922508,-2.1005168,2.7197981,-0.34691304,-0.68660712,0.63892257,0
0.58863962,-0.67114377,2.5794666,0.9305948,-0.16714311,0.32566369,0
2.0354228,3.1613591,-0.97550786,0.34691304,0.68660712,-0.63892257,0
0.74130118,2.7487602,-2.1215639,0.34691304,0.68660712,-0.63892257,0
0.23370287,-1.3776629,3.2310979,0.9305948,-0.16714311,0.32566369,0
1.8564582,-0.16171694,-0.78191054,0.9305948,-0.16714311,0.32566369,0
-1.914134,-1.7418139,2.5668528,-0.34691304,-0.68660712,0.63892257,0
1.0307401,0.41684461,1.8745464,0.9305948,-0.16714311,0.32566369,0
-0.53760123,-3.520503,1.4028258,-0.34691304,-0.68660712,0.63892257,0
0.14057398,-2.8111305,2.5333662,-0.34691304,-0.68660712,0.63892257,0
-1.0577335,2.0492756,-0.53170526,-0.9305948,0.16714311,-0.32566369,0
-0.97858918,-0.029781818,-1.8249145,-0.9305948,0.16714311,-0.32566369,0
-1.2425398,-3.1320477,1.4375154,-0.34691304,-0.68660712,0.63892257,0
-0.46972716,-1.685513,3.4116192,-0.34691304,-0.68660712,0.63892257,0
-0.01338172,-3.081192,2.1595569,-0.34691304,-0.68660712,0.63892257,0
-1.4161613,0.26708978,1.6437578,-0.11681145,0.70755506,0.69693702,0
2.5583594,1.3825144,-2.6031754,0.34691304,0.68660712,-0.63892257,0
-1.6241199,-3.0465283,0.66845322,0.11681145,-0.70755506,-0.69693702,0
-0.19839936,-1.601609,3.6491067,-0.34691304,-0.68660712,0.63892257,0
-0.15399826,-1.0219526,-1.1405642,0.11681145,-0.70755506,-0.69693702,0
-0.4117732,-1.4947137,-0.70380545,0.11681145,-0.70755506,-0.69693702,0
1.2285864,0.83200312,1.5135162,-0.11681145,0.70755506,0.69693702,0
-1.6655177,-2.0976627,2.3194366,-0.34691304,-0.68660712,0.63892257,0
1.0894458,2.1527994,-2.5729723,0.34691304,0.68660712,-0.63892257,0
-0.6760025,2.4633002,-1.4100212,-0.9305948,0.16714311,-0.32566369,0
0.97939175,1.9785757,-2.8199542,0.34691304,0.68660712,-0.63892257,0
-0.79710811,1.1952922,-1.7147477,-0.9305948,0.16714311,-0.32566369,0
1.3053066,1.9209574,-2.7049119,0.34691304,0.68660712,-0.63892257,0
1.3125427,-0.26365256,0.72002941,0.9305948,-0.16714311,0.32566369,0
-0.2051549,-1.0925708,3.2271056,-0.11681145,0.70755506,0.69693702,0
-1.8942,-1.7131585,2.6084707,-0.34691304,-0.68660712,0.63892257,0
0.76971078,1.6509011,-3.2859333,0.34691304,0.68660712,-0.63892257,0
1.043206,-2.1668105,0.2223953,0.11681145,-0.70755506,-0.69693702,0
1.8409939,0.69195914,-0.29958114,0.9305948,-0.16714311,0.32566369,0
-1.3706946,-0.56186008,-0.97754282,-0.9305948,0.16714311,-0.32566369,0
0.38283443,3.5074458,-1.5008907,0.34691304,0.68660712,-0.63892257,0
0.62096453,-2.954319,0.95113134,0.11681145,-0.70755506,-0.69693702,0
1.3327678,-1.2728479,0.14427727,0.9305948,-0.16714311,0.32566369,0
-0.090478063,2.3964334,-2.9518135,0.34691304,0.68660712,-0.63892257,0
0.45190364,-1.6663949,2.459393,0.9305948,-0.16714311,0.32566369,0
1.3534961,0.8772018,-2.8159857,0.11681145,-0.70755506,-0.69693702,0
2.5557137,2.3803194,-1.5323385,0.34691304,0.68660712,-0.63892257,0
2.5813732,1.7074339,-2.2415109,0.34691304,0.68660712,-0.63892257,0
1.5039217,0.25878775,0.44129342,0.9305948,-0.16714311,0.32566369,0
-1.9180654,-2.2976384,1.9674113,-0.34691304,-0.68660712,0.63892257,0
-1.7190559,-2.9066951,1.4209541,-0.34691304,-0.68660712,0.63892257,0
2.0029626,1.0794828,-0.56352079,0.9305948,-0.16714311,0.32566369,0
2.4195328,2.0967402,-1.2317877,0.9305948,-0.16714311,0.32566369,0
0.63845932,-2.0829999,0.06946969,0.11681145,-0.70755506,-0.69693702,0
2.1377923,1.1115223,-2.9224224,0.11681145,-0.70755506,-0.69693702,0
0.063439965,0.58032906,1.5737377,-0.11681145,0.70755506,0.69693702,0
-0.081806183,-3.5192957,1.4069257,0.11681145,-0.70755506,-0.69693702,0
-1.9498942,-0.22267628,0.85162169,-0.9305948,0.16714311,-0.32566369,0
-0.43290937,2.3954225,-2.1395049,-0.9305948,0.16714311,-0.32566369,0
