0.92452234,2.8011165,0.5282011,0.62154019,0.73728454,-0.26476252,0
-0.86637604,0.058876991,-1.2789065,-0.35470599,-0.036477923,-0.93426597,0
-1.0977123,-2.5833812,-0.328444,-0.62154019,-0.73728454,0.26476252,0
2.7322111,0.78306878,0.53764534,0.35470599,0.036477923,0.93426597,0
1.1307007,-0.36411107,-1.9451901,0.69847792,-0.67459673,-0.23884675,0
0.61392176,-2.0799131,1.4536642,0.35470599,0.036477923,0.93426597,0
2.3373089,0.19128084,0.014742613,0.69847792,-0.67459673,-0.23884675,0
0.19264472,0.83579171,-1.7113115,-0.35470599,-0.036477923,-0.93426597,0
-1.3733534,-1.7514799,1.3410758,-0.62154019,-0.73728454,0.26476252,0
-1.0529721,-1.9972745,1.4087182,-0.62154019,-0.73728454,0.26476252,0
-2.3021193,-0.84010386,1.6986717,-0.62154019,-0.73728454,0.26476252,0
1.0687246,-0.53747058,-1.6367965,0.69847792,-0.67459673,-0.23884675,0
0.56057441,-1.0897465,-1.5629759,0.69847792,-0.67459673,-0.23884675,0
0.85074508,-1.3385453,-0.011702001,0.69847792,-0.67459673,-0.23884675,0
2.017211,1.5258878,-0.45780087,0.62154019,0.73728454,-0.26476252,0
0.79138136,-1.4408841,0.10374105,0.69847792,-0.67459673,-0.23884675,0
-1.9758614,-1.5460982,0.49859118,-0.62154019,-0.73728454,0.26476252,0
-2.8417964,-0.55198729,-0.47127748,-0.69847792,0.67459673,0.23884675,0
-0.66374052,0.45786774,-1.371418,-0.35470599,-0.036477923,-0.93426597,0
-1.1502454,-1.8022288,-1.0984659,-0.35470599,-0.036477923,-0.93426597,0
-2.1165919,-0.21882021,0.70849907,-0.69847792,0.67459673,0.23884675,0
2.0918252,1.827378,0.55691886,0.62154019,0.73728454,-0.26476252,0
2.0793412,0.77764225,-2.3955884,0.62154019,0.73728454,-0.26476252,0
1.0873054,2.3960779,-0.21757102,0.62154019,0.73728454,-0.26476252,0
-2.2575018,-0.54998147,1.231755,-0.69847792,0.67459673,0.23884675,0
-0.87885296,0.91039497,1.1387678,-0.69847792,0.67459673,0.23884675,0
-0.023493484,1.5449467,-1.6569405,-0.35470599,-0.036477923,-0.93426597,0
0.71207333,1.9013337,1.2609541,0.35470599,0.036477923,0.93426597,0
-0.69413471,-2.2798476,1.4642206,-0.62154019,-0.73728454,0.26476252,0
1.9124954,1.2542371,0.83046412,0.35470599,0.036477923,0.93426597,0
0.61134952,-0.61719155,1.3975297,0.35470599,0.036477923,0.93426597,0
-0.19954292,2.5898216,-1.6180321,-0.69847792,0.67459673,0.23884675,0
2.8769097,0.75107223,0.48395777,0.35470599,0.036477923,0.93426597,0
-1.7103043,-1.0941489,-0.91347933,-0.35470599,-0.036477923,-0.93426597,0
-0.77663624,0.61243033,-1.3345906,-0.35470599,-0.036477923,-0.93426597,0
-1.7912666,-1.9580647,-0.21526885,-0.62154019,-0.73728454,0.26476252,0
-2.5162911,-0.93598151,-0.61365151,-0.35470599,-0.036477923,-0.93426597,0
1.6504948,2.0688074,0.193187,0.62154019,0.73728454,-0.26476252,0
1.348702,1.1651671,-2.1630836,-0.35470599,-0.036477923,-0.93426597,0
-0.15862668,-0.073409915,-1.5424476,-0.35470599,-0.036477923,-0.93426597,0
-1.1268033,-1.346282,-1.1251683,-0.35470599,-0.036477923,-0.93426597,0
-2.2727187,-0.066948116,-0.17702115,-0.69847792,0.67459673,0.23884675,0
0.50213003,-2.1474655,1.2535228,0.69847792,-0.67459673,-0.23884675,0
1.0678253,2.1989667,-0.81219697,0.62154019,0.73728454,-0.26476252,0
-0.97876102,-2.8394756,-0.7623477,-0.62154019,-0.73728454,0.26476252,0
0.72098553,-0.60895073,1.3555832,0.35470599,0.036477923,0.93426597,0
0.95125788,-0.68002462,-1.5776846,0.69847792,-0.67459673,-0.23884675,0
-1.2524858,-2.6680079,-1.0258453,-0.35470599,-0.036477923,-0.93426597,0
1.6536752,0.50586617,0.95794833,0.35470599,0.036477923,0.93426597,0
-1.0526105,-2.136054,1.0231068,-0.62154019,-0.73728454,0.26476252,0
2.4920335,0.69135487,-0.94518924,0.69847792,-0.67459673,-0.23884675,0
-0.41273224,2.0415676,-0.69299293,-0.69847792,0.67459673,0.23884675,0
1.7165167,0.2783711,-2.046665,0.69847792,-0.67459673,-0.23884675,0
-2.1264839,-0.92809284,1.8659593,-0.62154019,-0.73728454,0.26476252,0
-1.9916718,-0.25372612,1.1724007,-0.69847792,0.67459673,0.23884675,0
1.0875425,1.8576062,1.1201098,0.35470599,0.036477923,0.93426597,0
1.0880946,-0.035009146,-2.0172806,-0.35470599,-0.036477923,-0.93426597,0
0.23745066,0.050920844,-1.6976777,-0.35470599,-0.036477923,-0.93426597,0
0.30492485,-0.91688442,1.5255691,0.35470599,0.036477923,0.93426597,0
1.2287486,1.6162287,-2.0571744,0.62154019,0.73728454,-0.26476252,0
1.4046028,-1.0862459,0.89539385,0.69847792,-0.67459673,-0.23884675,0
-0.87507641,-1.6842813,-1.2075427,-0.35470599,-0.036477923,-0.93426597,0
-2.3764029,-0.34406585,0.3024565,-0.69847792,0.67459673,0.23884675,0
-2.279866,-0.11517306,-0.061716199,-0.69847792,0.67459673,0.23884675,0
1.4502766,1.8564337,-0.86822987,0.62154019,0.73728454,-0.26476252,0
0.646649,2.1019349,1.2779608,0.35470599,0.036477923,0.93426597,0
0.43483204,1.7836254,1.3708081,0.35470599,0.036477923,0.93426597,0
0.72884238,-0.64716625,1.3540924,0.35470599,0.036477923,0.93426597,0
1.6433501,2.2353148,0.6400888,0.62154019,0.73728454,-0.26476252,0
1.3708144,-0.42107457,-1.0821198,0.69847792,-0.67459673,-0.23884675,0
1.920532,-0.13462463,-0.28358549,0.69847792,-0.67459673,-0.23884675,0
1.5874617,-0.93942428,1.015461,0.69847792,-0.67459673,-0.23884675,0
-1.9270405,-0.1020323,0.93296361,-0.69847792,0.67459673,0.23884675,0
2.5299344,1.3767002,0.59126401,0.35470599,0.036477923,0.93426597,0
1.2825413,-1.0701495,0.49297825,0.69847792,-0.67459673,-0.23884675,0
2.2033982,1.1570995,-1.0476846,0.62154019,0.73728454,-0.26476252,0
1.6887106,-0.46549687,-0.02700603,0.69847792,-0.67459673,-0.23884675,0
-1.33255,-1.8865085,1.0608485,-0.62154019,-0.73728454,0.26476252,0
0.81950647,0.97509414,1.2563303,0.35470599,0.036477923,0.93426597,0
-0.89544272,-0.64563042,-1.2403638,-0.35470599,-0.036477923,-0.93426597,0
1.5514338,-0.21250927,-1.1429905,0.69847792,-0.67459673,-0.23884675,0
-2.2553906,-1.4266779,0.1749351,-0.62154019,-0.73728454,0.26476252,0
1.0589135,2.6986814,0.55843735,0.62154019,0.73728454,-0.26476252,0
0.17755061,2.7170608,-1.459414,0.62154019,0.73728454,-0.26476252,0
-1.7641008,-1.1947312,1.9741589,-0.62154019,-0.73728454,0.26476252,0
1.7531618,0.71120739,-2.2989173,-0.35470599,-0.036477923,-0.93426597,0
1.7778342,1.9010084,0.024850845,0.62154019,0.73728454,-0.26476252,0
-0.45155701,2.0443373,-0.81435442,-0.69847792,0.67459673,0.23884675,0
-2.1079571,-0.24201125,0.79925025,-0.69847792,0.67459673,0.23884675,0
-2.1733546,-1.4670974,0.25496197,-0.62154019,-0.73728454,0.26476252,0
-0.3697322,-1.0775225,-1.4230936,-0.35470599,-0.036477923,-0.93426597,0
-0.73240912,-2.8097322,-0.10120082,-0.62154019,-0.73728454,0.26476252,0
0.60221028,0.50516915,-1.8538992,-0.35470599,-0.036477923,-0.93426597,0
1.603302,0.98684198,0.95829356,0.35470599,0.036477923,0.93426597,0
1.9905205,1.9554632,0.77346206,0.35470599,0.036477923,0.93426597,0
1.4726306,0.85892153,-2.1981773,-0.35470599,-0.036477923,-0.93426597,0
-0.30910885,-0.86801445,-1.4542902,-0.35470599,-0.036477923,-0.93426597,0
-1.7855214,-0.098508596,1.3368664,-0.69847792,0.67459673,0.23884675,0
-0.12264037,1.7669373,0.9310081,-0.69847792,0.67459673,0.23884675,0
1.6267442,1.2014835,-2.2700636,-0.35470599,-0.036477923,-0.93426597,0
-1.3484019,-2.3476536,-0.26051569,-0.62154019,-0.73728454,0.26476252,0
1.068042,1.1317844,1.1558527,0.35470599,0.036477923,0.93426597,0
-0.83412844,-2.4390109,0.69235802,-0.62154019,-0.73728454,0.26476252,0
1.7632294,2.1276693,0.85303211,0.35470599,0.036477923,0.93426597,0
1.067203,-0.79718065,1.2314867,0.35470599,0.036477923,0.93426597,0
-0.37049526,-0.58079422,1.7688785,0.35470599,0.036477923,0.93426597,0
-1.1595236,-2.7014322,-1.0598347,-0.35470599,-0.036477923,-0.93426597,0
0.24411911,-1.7355208,-0.66449046,0.69847792,-0.67459673,-0.23884675,0
-2.0599506,-1.368854,0.79476094,-0.62154019,-0.73728454,0.26476252,0
0.94482356,-1.6680956,1.311954,0.35470599,0.036477923,0.93426597,0
-0.29812169,-2.7101173,0.50243521,0.69847792,-0.67459673,-0.23884675,0
-0.27957767,0.42967355,1.6949073,0.35470599,0.036477923,0.93426597,0
0.076742411,-1.9939419,-0.42408109,0.69847792,-0.67459673,-0.23884675,0
2.1547742,1.1466753,-1.1908597,0.62154019,0.73728454,-0.26476252,0
-0.80210316,-2.4917383,0.62070918,-0.62154019,-0.73728454,0.26476252,0
1.1480422,0.56534672,-2.0634809,-0.35470599,-0.036477923,-0.93426597,0
-1.3856711,-2.2981355,-0.21011353,-0.62154019,-0.73728454,0.26476252,0
-2.4967062,-0.8829993,1.1224204,-0.62154019,-0.73728454,0.26476252,0
0.23458737,0.68495417,-1.7213461,-0.35470599,-0.036477923,-0.93426597,0
0.63658339,0.23400211,-1.8563619,-0.35470599,-0.036477923,-0.93426597,0
-0.59930682,-2.4483168,-1.1177714,0.69847792,-0.67459673,-0.23884675,0
0.059831142,-1.6958959,-1.315334,0.69847792,-0.67459673,-0.23884675,0
0.28133941,2.7453117,-0.65091586,-0.69847792,0.67459673,0.23884675,0
0.98857194,0.56931949,-2.0030911,-0.35470599,-0.036477923,-0.93426597,0
-0.91403341,-2.6169951,0.0091454983,-0.62154019,-0.73728454,0.26476252,0
0.22063595,-0.03577435,1.523168,0.35470599,0.036477923,0.93426597,0
-1.6533251,-1.3518304,1.7967354,-0.62154019,-0.73728454,0.26476252,0
1.1134914,2.6320996,0.5011518,0.62154019,0.73728454,-0.26476252,0
-0.14553869,1.8383508,0.66234457,-0.69847792,0.67459673,0.23884675,0
-0.54376906,-2.7747524,0.43904757,-0.62154019,-0.73728454,0.26476252,0
2.5677977,0.96624202,-0.72372389,0.62154019,0.73728454,-0.26476252,0
0.95813626,-1.4723229,1.2992558,0.35470599,0.036477923,0.93426597,0
0.51481169,2.7525201,0.011485815,-0.69847792,0.67459673,0.23884675,0
0.10457516,1.9077547,1.1977482,-0.69847792,0.67459673,0.23884675,0
0.61560142,0.68174613,1.3451991,0.35470599,0.036477923,0.93426597,0
-2.7743402,-0.93898988,-0.51556253,-0.35470599,-0.036477923,-0.93426597,0
-0.74597728,-1.0521839,-1.2812365,-0.35470599,-0.036477923,-0.93426597,0
1.376224,-1.112077,1.1264579,0.35470599,0.036477923,0.93426597,0
1.511924,-0.16948509,-1.380049,0.69847792,-0.67459673,-0.23884675,0
-0.16150939,1.7710695,0.80566895,-0.69847792,0.67459673,0.23884675,0
1.5231565,-0.50305045,-0.40508235,0.69847792,-0.67459673,-0.23884675,0
1.0196915,-0.72076845,-1.2624831,0.69847792,-0.67459673,-0.23884675,0
0.53965795,2.8229015,-0.11463857,-0.69847792,0.67459673,0.23884675,0
-1.6757178,-0.61625242,2.2658074,0.35470599,0.036477923,0.93426597,0
1.6162808,1.8241131,-0.56853199,0.62154019,0.73728454,-0.26476252,0
-0.92778683,1.2599968,0.0082548857,-0.69847792,0.67459673,0.23884675,0
0.63507742,-1.9467081,1.0752941,0.69847792,-0.67459673,-0.23884675,0
2.4597919,1.291479,-0.071584225,0.62154019,0.73728454,-0.26476252,0
2.2877421,1.49454,0.67861438,0.35470599,0.036477923,0.93426597,0
0.46680054,-2.0295365,0.81712914,0.69847792,-0.67459673,-0.23884675,0
1.8360983,-0.36631504,0.12388283,0.69847792,-0.67459673,-0.23884675,0
-1.0960712,-2.2273796,0.66676736,-0.62154019,-0.73728454,0.26476252,0
1.6697631,1.5414519,0.91140652,0.35470599,0.036477923,0.93426597,0
1.3494956,2.3057437,1.0031586,0.35470599,0.036477923,0.93426597,0
0.83090246,-0.46111524,1.3080796,0.35470599,0.036477923,0.93426597,0
-1.3278953,-2.243247,-1.0137997,-0.35470599,-0.036477923,-0.93426597,0
-0.40177357,-2.2668128,-1.0527472,0.69847792,-0.67459673,-0.23884675,0
0.75015134,2.0968595,-1.8422874,0.62154019,0.73728454,-0.26476252,0
-0.75089651,0.83936965,-1.3532238,-0.35470599,-0.036477923,-0.93426597,0
1.2382114,0.35625196,-2.089551,-0.35470599,-0.036477923,-0.93426597,0
-2.5028172,-1.0546708,-0.61413312,-0.35470599,-0.036477923,-0.93426597,0
-2.5230227,-1.201092,0.17484879,-0.62154019,-0.73728454,0.26476252,0
-2.1285388,-0.014879704,0.097553611,-0.69847792,0.67459673,0.23884675,0
-0.13764101,0.32628846,1.6450558,0.35470599,0.036477923,0.93426597,0
-0.49208874,-2.3927608,-0.96113682,0.69847792,-0.67459673,-0.23884675,0
1.8270891,0.45831633,-2.231545,0.69847792,-0.67459673,-0.23884675,0
1.8906019,0.13798118,-1.141058,0.69847792,-0.67459673,-0.23884675,0
-1.5254353,-1.3317072,-0.97439158,-0.35470599,-0.036477923,-0.93426597,0
0.52270836,-0.53971672,1.4281585,0.35470599,0.036477923,0.93426597,0
-0.77137911,-1.2661053,-1.2632401,-0.35470599,-0.036477923,-0.93426597,0
-1.6155148,0.9118889,-1.0197277,-0.69847792,0.67459673,0.23884675,0
1.9755731,-0.29360497,0.86695057,0.35470599,0.036477923,0.93426597,0
0.81125897,-1.4474789,0.18049693,0.69847792,-0.67459673,-0.23884675,0
-0.77898216,1.5157962,-0.27906203,-0.69847792,0.67459673,0.23884675,0
0.41491675,-0.78169632,-1.7325459,-0.35470599,-0.036477923,-0.93426597,0
-1.1775142,1.0032825,0.0030196011,-0.69847792,0.67459673,0.23884675,0
0.0094124079,-2.3592038,0.41066384,0.69847792,-0.67459673,-0.23884675,0
1.6896044,-0.42936391,-0.12644571,0.69847792,-0.67459673,-0.23884675,0
-1.4562379,0.23852205,1.347909,-0.69847792,0.67459673,0.23884675,0
-1.5366116,-2.4153163,-0.89076591,-0.62154019,-0.73728454,0.26476252,0
3.0046606,0.82544363,0.17520618,0.69847792,-0.67459673,-0.23884675,0
1.845387,1.748395,0.83664846,0.35470599,0.036477923,0.93426597,0
-0.88009596,-1.0001299,-1.2323494,-0.35470599,-0.036477923,-0.93426597,0
3.0253205,0.78301215,0.42636466,0.35470599,0.036477923,0.93426597,0
1.8917131,0.35184741,-1.7418498,0.69847792,-0.67459673,-0.23884675,0
2.1171632,1.2930667,-0.87149715,0.62154019,0.73728454,-0.26476252,0
0.060495257,2.4895658,-0.57442045,-0.69847792,0.67459673,0.23884675,0
-1.6498512,-1.4660512,1.4868196,-0.62154019,-0.73728454,0.26476252,0
0.88075548,2.4939997,-0.42977142,0.62154019,0.73728454,-0.26476252,0
-0.35399169,-0.72366834,1.7681911,0.35470599,0.036477923,0.93426597,0
0.021426797,-1.6702752,-1.500006,0.69847792,-0.67459673,-0.23884675,0
0.21841045,2.7853725,-1.1732662,0.62154019,0.73728454,-0.26476252,0
0.72964752,-0.6458075,1.3537335,0.35470599,0.036477923,0.93426597,0
0.5011636,-1.3436973,-1.0194584,0.69847792,-0.67459673,-0.23884675,0
-0.33385462,-0.89698505,1.7673128,0.35470599,0.036477923,0.93426597,0
-0.72721428,-2.8637085,-0.31859136,0.69847792,-0.67459673,-0.23884675,0
1.3112192,1.9119058,-1.0401993,0.62154019,0.73728454,-0.26476252,0
1.6407949,2.1460695,0.89879727,0.35470599,0.036477923,0.93426597,0
-2.5049186,-0.31201711,-0.16388941,-0.69847792,0.67459673,0.23884675,0
1.7859694,1.515749,-1.0288837,0.62154019,0.73728454,-0.26476252,0
-0.39887205,0.32313991,-1.4667184,-0.35470599,-0.036477923,-0.93426597,0
-2.2160699,-1.310141,0.59176302,-0.62154019,-0.73728454,0.26476252,0
-0.19768739,-1.7086588,-1.46377,-0.35470599,-0.036477923,-0.93426597,0
3.024538,0.90548158,0.17929077,0.62154019,0.73728454,-0.26476252,0
-0.59630513,-2.8348982,0.14822865,-0.62154019,-0.73728454,0.26476252,0
-0.55023909,-2.5610039,1.019084,-0.62154019,-0.73728454,0.26476252,0
-2.3261547,-1.3668358,0.17545605,-0.62154019,-0.73728454,0.26476252,0
-0.73211145,-1.6342489,1.9473021,0.35470599,0.036477923,0.93426597,0
0.68950653,2.5908124,0.97908521,-0.69847792,0.67459673,0.23884675,0
0.68329144,2.6012256,-0.59473372,0.62154019,0.73728454,-0.26476252,0
-2.1859353,-1.6405615,-0.71156526,-0.35470599,-0.036477923,-0.93426597,0
-2.239819,-0.04005444,-0.75359881,-0.35470599,-0.036477923,-0.93426597,0
1.8288226,1.9070764,0.16144633,0.62154019,0.73728454,-0.26476252,0
-1.8250881,-0.089521766,1.195776,-0.69847792,0.67459673,0.23884675,0
-0.066951156,-2.1923258,-0.28398108,0.69847792,-0.67459673,-0.23884675,0
-2.6968257,-0.9729836,-0.54366469,-0.35470599,-0.036477923,-0.93426597,0
-1.0296406,-2.1241961,1.1100514,-0.62154019,-0.73728454,0.26476252,0
1.7858635,0.2217679,-1.6839991,0.69847792,-0.67459673,-0.23884675,0
1.898459,0.50964522,-2.1678052,0.69847792,-0.67459673,-0.23884675,0
-1.6389217,-1.2464192,2.1240857,-0.62154019,-0.73728454,0.26476252,0
-0.73965728,0.92257905,1.5114162,-0.69847792,0.67459673,0.23884675,0
-0.37612295,-0.12788236,-1.4577454,-0.35470599,-0.036477923,-0.93426597,0
1.2413762,1.5813223,-2.1247349,0.62154019,0.73728454,-0.26476252,0
2.6646512,0.95213819,-0.53563237,0.62154019,0.73728454,-0.26476252,0
2.6246123,0.70973819,-0.60940075,0.69847792,-0.67459673,-0.23884675,0
-0.045549154,-2.4799149,0.59087014,0.69847792,-0.67459673,-0.23884675,0
0.46802926,0.6307795,-1.8078601,-0.35470599,-0.036477923,-0.93426597,0
-0.12785226,-0.060491323,-1.5546358,-0.35470599,-0.036477923,-0.93426597,0
0.87388498,-1.0232089,-0.83466607,0.69847792,-0.67459673,-0.23884675,0
1.6114711,-0.17438936,-1.0750848,0.69847792,-0.67459673,-0.23884675,0
2.4181883,0.26393303,0.046066284,0.69847792,-0.67459673,-0.23884675,0
0.77089196,-0.88269675,1.3473239,0.35470599,0.036477923,0.93426597,0
2.2868409,1.6833072,0.67158651,0.35470599,0.036477923,0.93426597,0
2.283834,0.6163851,-1.3422987,0.69847792,-0.67459673,-0.23884675,0
0.076730728,-1.7289032,-1.1726881,0.69847792,-0.67459673,-0.23884675,0
1.7862661,-0.36955565,-0.012692511,0.69847792,-0.67459673,-0.23884675,0
2.3490751,1.3261623,-0.23491359,0.62154019,0.73728454,-0.26476252,0
0.75300288,1.2916725,-1.9418583,-0.35470599,-0.036477923,-0.93426597,0
0.77220082,2.5345144,-0.5717864,0.62154019,0.73728454,-0.26476252,0
-1.0437938,-1.5511889,-1.1486834,-0.35470599,-0.036477923,-0.93426597,0
1.2141745,2.2862763,-0.22550607,0.62154019,0.73728454,-0.26476252,0
-1.9042218,-0.18867695,1.2444134,-0.69847792,0.67459673,0.23884675,0
2.1148391,0.99434173,-1.7088127,0.62154019,0.73728454,-0.26476252,0
0.18163049,-0.20527089,1.5445948,0.35470599,0.036477923,0.93426597,0
-1.6081169,-1.5493455,1.3528426,-0.62154019,-0.73728454,0.26476252,0
-0.83337641,0.8042109,-1.3205364,-0.35470599,-0.036477923,-0.93426597,0
-1.6371372,0.025027156,-0.98495555,-0.35470599,-0.036477923,-0.93426597,0
1.8397862,0.38870144,-1.997794,0.69847792,-0.67459673,-0.23884675,0
1.3351738,2.5693314,0.84676886,0.62154019,0.73728454,-0.26476252,0
-0.74932051,1.8655403,-1.1801341,-0.69847792,0.67459673,0.23884675,0
-1.1957636,-1.6556908,2.0247188,-0.62154019,-0.73728454,0.26476252,0
0.69456267,-0.96580613,1.3795482,0.35470599,0.036477923,0.93426597,0
-0.1655044,-0.77153397,1.6984984,0.35470599,0.036477923,0.93426597,0
-2.3818645,-1.3177831,0.18127251,-0.62154019,-0.73728454,0.26476252,0
-0.29629821,-2.6113915,1.4749062,-0.62154019,-0.73728454,0.26476252,0
-0.56193548,-2.6166861,0.83656931,-0.62154019,-0.73728454,0.26476252,0
-1.0090154,1.1147038,0.18107599,-0.69847792,0.67459673,0.23884675,0
1.6019633,1.8771909,-0.45433712,0.62154019,0.73728454,-0.26476252,0
1.0580566,2.2140806,-0.79304266,0.62154019,0.73728454,-0.26476252,0
-1.1639683,1.0954967,-0.21781591,-0.69847792,0.67459673,0.23884675,0
-2.5159771,-1.4383125,-0.46920061,-0.62154019,-0.73728454,0.26476252,0
0.7991991,2.3103518,-1.1326327,0.62154019,0.73728454,-0.26476252,0
0.30609781,-1.9976387,0.25708175,0.69847792,-0.67459673,-0.23884675,0
1.2418399,2.1932209,-0.41969132,0.62154019,0.73728454,-0.26476252,0
2.0427666,1.5324848,-0.3794384,0.62154019,0.73728454,-0.26476252,0
-0.70752519,-0.42693806,1.8908288,0.35470599,0.036477923,0.93426597,0
1.9906063,0.089483619,-0.71163142,0.69847792,-0.67459673,-0.23884675,0
0.86811161,-1.7530172,1.2097147,0.69847792,-0.67459673,-0.23884675,0
1.3591663,-0.65337634,-0.46007252,0.69847792,-0.67459673,-0.23884675,0
0.89565235,-1.7068713,1.3321364,0.35470599,0.036477923,0.93426597,0
-0.90596414,0.73512805,-1.2902803,-0.35470599,-0.036477923,-0.93426597,0
-1.9001577,-1.8735889,-0.23565531,-0.62154019,-0.73728454,0.26476252,0
0.58852851,-1.9719558,1.0104771,0.69847792,-0.67459673,-0.23884675,0
-1.2783535,1.0555608,-1.1614091,-0.35470599,-0.036477923,-0.93426597,0
-0.95039517,-1.5269337,-1.1850905,-0.35470599,-0.036477923,-0.93426597,0
1.5177212,1.8778908,-0.65014982,0.62154019,0.73728454,-0.26476252,0
2.4634774,0.76781952,-1.2446642,0.69847792,-0.67459673,-0.23884675,0
1.4712244,2.4605517,0.86323404,0.62154019,0.73728454,-0.26476252,0
-0.93079031,0.44956267,-1.2697049,-0.35470599,-0.036477923,-0.93426597,0
-1.5042224,0.97878397,-0.88320518,-0.69847792,0.67459673,0.23884675,0
0.52707434,2.5726519,-1.041029,0.62154019,0.73728454,-0.26476252,0
1.3700342,2.3297572,0.26146197,0.62154019,0.73728454,-0.26476252,0
-2.1433918,-1.123684,1.2816037,-0.62154019,-0.73728454,0.26476252,0
-0.2050643,0.26799917,1.6729299,0.35470599,0.036477923,0.93426597,0
0.096345879,-1.9195865,1.6439087,0.35470599,0.036477923,0.93426597,0
1.9357744,1.3325118,-1.1874704,0.62154019,0.73728454,-0.26476252,0
-0.29183829,-2.1201942,-1.1453636,0.69847792,-0.67459673,-0.23884675,0
0.067661047,-1.0870111,-1.5887851,-0.35470599,-0.036477923,-0.93426597,0
0.5737769,2.5446723,-1.0093083,0.62154019,0.73728454,-0.26476252,0
2.0532,-0.36750275,0.8403638,0.35470599,0.036477923,0.93426597,0
0.48700792,2.5510349,-1.1952827,0.62154019,0.73728454,-0.26476252,0
-0.12902579,-2.2633891,1.7428976,0.35470599,0.036477923,0.93426597,0
-0.65095001,-0.74539554,1.8817835,0.35470599,0.036477923,0.93426597,0
-2.3139145,-1.0731126,1.0221219,-0.62154019,-0.73728454,0.26476252,0
-0.25331998,-0.58102059,1.7244003,0.35470599,0.036477923,0.93426597,0
-0.082667172,-2.7377298,1.6245993,-0.62154019,-0.73728454,0.26476252,0
2.9907188,0.71711034,0.44207478,0.35470599,0.036477923,0.93426597,0
-2.9263496,-0.9051643,0.052093506,-0.62154019,-0.73728454,0.26476252,0
1.1170485,2.7167506,1.0753622,0.35470599,0.036477923,0.93426597,0
0.29743916,2.7538159,-0.62785268,-0.69847792,0.67459673,0.23884675,0
-2.4627476,-0.44264603,0.32838202,-0.69847792,0.67459673,0.23884675,0
0.8545413,1.6247071,-1.9934118,-0.35470599,-0.036477923,-0.93426597,0
-1.3207515,-1.8609134,1.1598206,-0.62154019,-0.73728454,0.26476252,0
0.41813767,-1.2827476,-1.4344037,0.69847792,-0.67459673,-0.23884675,0
1.1149397,0.85028195,-2.0620384,-0.35470599,-0.036477923,-0.93426597,0
1.5986149,1.4131161,-1.7545068,0.62154019,0.73728454,-0.26476252,0
-2.375845,-1.4360317,-0.13388348,-0.62154019,-0.73728454,0.26476252,0
2.6092572,0.35444489,0.34918284,0.69847792,-0.67459673,-0.23884675,0
-2.4033887,-1.502247,-0.3829329,-0.62154019,-0.73728454,0.26476252,0
-0.63560504,1.2177711,0.98196679,-0.69847792,0.67459673,0.23884675,0
-0.58332121,-1.7249202,-1.3167244,-0.35470599,-0.036477923,-0.93426597,0
0.72418731,1.4420526,1.2742873,0.35470599,0.036477923,0.93426597,0
-0.90575826,-1.3403715,-1.2093216,-0.35470599,-0.036477923,-0.93426597,0
-0.83863944,-0.85078382,1.9571569,0.35470599,0.036477923,0.93426597,0
2.3288119,0.46395117,-0.78023374,0.69847792,-0.67459673,-0.23884675,0
0.54438257,-0.47009468,-1.7938657,-0.35470599,-0.036477923,-0.93426597,0
1.3283138,1.7853249,1.0315201,0.35470599,0.036477923,0.93426597,0
2.208056,0.62990475,-1.6020868,0.69847792,-0.67459673,-0.23884675,0
0.78541839,-1.7889342,1.3771923,0.35470599,0.036477923,0.93426597,0
0.91569412,2.4419742,-0.49262738,0.62154019,0.73728454,-0.26476252,0
0.74954998,-1.4723357,0.07024169,0.69847792,-0.67459673,-0.23884675,0
1.168855,-0.61145079,-1.135028,0.69847792,-0.67459673,-0.23884675,0
0.94229007,-1.6654313,1.3128119,0.35470599,0.036477923,0.93426597,0
1.5567224,1.6786491,-1.113421,0.62154019,0.73728454,-0.26476252,0
2.1774969,1.6909047,0.37799811,0.62154019,0.73728454,-0.26476252,0
2.0073628,1.8369551,0.77169418,0.35470599,0.036477923,0.93426597,0
1.1937956,2.4124508,0.078012228,0.62154019,0.73728454,-0.26476252,0
-0.41886091,-2.4110875,1.7449725,-0.62154019,-0.73728454,0.26476252,0
-2.2913301,-0.76268589,1.7335887,-0.69847792,0.67459673,0.23884675,0
2.0603585,1.6790123,0.069895506,0.62154019,0.73728454,-0.26476252,0
-0.1511324,0.3907243,-1.5634147,-0.35470599,-0.036477923,-0.93426597,0
0.36073303,-0.8209672,1.5006357,0.35470599,0.036477923,0.93426597,0
-1.5986159,0.39530316,0.48873144,-0.69847792,0.67459673,0.23884675,0
-1.6338099,-2.2291667,-0.60057163,-0.62154019,-0.73728454,0.26476252,0
0.46936595,-0.9953692,-1.7448754,-0.35470599,-0.036477923,-0.93426597,0
0.84255487,2.8790202,0.61264491,-0.69847792,0.67459673,0.23884675,0
2.831193,0.92102903,-0.23129797,0.62154019,0.73728454,-0.26476252,0
-2.6518457,-0.72939813,0.58528709,-0.69847792,0.67459673,0.23884675,0
0.59279788,-1.8259139,0.61048329,0.69847792,-0.67459673,-0.23884675,0
0.9335224,2.1328468,1.1678391,0.35470599,0.036477923,0.93426597,0
-1.3255661,-1.9160082,0.99509525,-0.62154019,-0.73728454,0.26476252,0
-0.24791747,-2.7637308,0.80067611,0.69847792,-0.67459673,-0.23884675,0
1.1091473,-0.15983784,1.1906772,0.35470599,0.036477923,0.93426597,0
0.29737318,-2.0319681,0.32852781,0.69847792,-0.67459673,-0.23884675,0
0.030249059,-1.5207223,1.6534296,0.35470599,0.036477923,0.93426597,0
-1.6765149,0.15810096,-0.97520125,-0.35470599,-0.036477923,-0.93426597,0
-1.6240736,0.40393281,0.38990963,-0.69847792,0.67459673,0.23884675,0
2.7595754,0.77070135,-0.38690138,0.69847792,-0.67459673,-0.23884675,0
-2.2414231,-0.88253272,1.723006,-0.62154019,-0.73728454,0.26476252,0
0.81023145,-0.99020207,1.3365858,0.35470599,0.036477923,0.93426597,0
2.0716379,0.53078294,-1.7210658,0.69847792,-0.67459673,-0.23884675,0
1.5908835,2.1025476,0.1472044,0.62154019,0.73728454,-0.26476252,0
2.5940096,0.62811518,-0.46835947,0.69847792,-0.67459673,-0.23884675,0
1.9700676,1.6378261,-0.25675726,0.62154019,0.73728454,-0.26476252,0
-0.4458065,-2.3953626,1.7255056,-0.62154019,-0.73728454,0.26476252,0
-0.43699443,-1.0409424,1.8120921,0.35470599,0.036477923,0.93426597,0
0.59513283,2.4713097,-1.1634672,0.62154019,0.73728454,-0.26476252,0
0.076526999,-2.6377764,1.3937292,0.69847792,-0.67459673,-0.23884675,0
-1.7298567,-0.52837944,2.2829309,0.35470599,0.036477923,0.93426597,0
2.5271878,0.45687491,-0.18012154,0.69847792,-0.67459673,-0.23884675,0
0.7381773,1.0303037,1.2850522,0.35470599,0.036477923,0.93426597,0
-0.627931,-2.6604762,-0.60225749,0.69847792,-0.67459673,-0.23884675,0
-1.347074,0.017131329,-1.0947735,-0.35470599,-0.036477923,-0.93426597,0
-1.4362458,-1.3622677,2.2040164,0.35470599,0.036477923,0.93426597,0
-0.15718955,2.1180408,-0.16168046,-0.69847792,0.67459673,0.23884675,0
-2.2149715,0.18279749,-0.71352583,-0.69847792,0.67459673,0.23884675,0
-0.039581656,-0.76524138,-1.5606321,-0.35470599,-0.036477923,-0.93426597,0
0.53508031,-0.72511923,-1.7803766,-0.35470599,-0.036477923,-0.93426597,0
-2.5930896,-0.93976629,0.7380774,-0.62154019,-0.73728454,0.26476252,0
0.10711467,2.2750554,0.16777349,-0.69847792,0.67459673,0.23884675,0
-1.6765924,-0.13763523,1.7659252,-0.69847792,0.67459673,0.23884675,0
-1.3867246,-2.5412874,-0.88969302,-0.62154019,-0.73728454,0.26476252,0
0.000628829,-1.9895487,-0.65907335,0.69847792,-0.67459673,-0.23884675,0
1.6792954,1.6787717,-0.82533526,0.62154019,0.73728454,-0.26476252,0
-0.57152843,-2.3157525,1.6520592,-0.62154019,-0.73728454,0.26476252,0
-0.81815523,-2.6746874,-1.118407,0.69847792,-0.67459673,-0.23884675,0
0.15221125,2.3144579,0.18836498,-0.69847792,0.67459673,0.23884675,0
0.49354112,0.82474554,-1.8251193,-0.35470599,-0.036477923,-0.93426597,0
1.7480019,0.16588998,-1.6368989,0.69847792,-0.67459673,-0.23884675,0
-2.1627221,-0.24638093,-0.77481353,-0.35470599,-0.036477923,-0.93426597,0
-1.207938,0.61096692,1.0221016,-0.69847792,0.67459673,0.23884675,0
-1.8766408,-1.1962517,1.7057331,-0.62154019,-0.73728454,0.26476252,0
-2.7770247,-1.1560662,-0.29604769,-0.62154019,-0.73728454,0.26476252,0
1.121736,-0.95785332,-0.29444569,0.69847792,-0.67459673,-0.23884675,0
0.46317279,-1.4174504,1.4850326,0.35470599,0.036477923,0.93426597,0
2.7598732,0.96558011,-0.27466297,0.62154019,0.73728454,-0.26476252,0
-1.9661843,-1.6072276,0.35108113,-0.62154019,-0.73728454,0.26476252,0
-1.7373729,-1.3446466,1.6194351,-0.62154019,-0.73728454,0.26476252,0
-0.67848748,-2.8104954,-0.32639074,0.69847792,-0.67459673,-0.23884675,0
-0.084739953,-1.8102633,1.7083917,0.35470599,0.036477923,0.93426597,0
-0.42498702,-0.49818146,-1.4247354,-0.35470599,-0.036477923,-0.93426597,0
1.3600419,0.22756618,1.080296,0.35470599,0.036477923,0.93426597,0
1.8378594,0.68209684,0.88113952,0.35470599,0.036477923,0.93426597,0
-2.3160789,0.050176919,-0.63462973,-0.69847792,0.67459673,0.23884675,0
-1.3178201,-2.2288563,-1.0181868,-0.35470599,-0.036477923,-0.93426597,0
2.4144709,1.5706487,0.59942675,0.62154019,0.73728454,-0.26476252,0
0.57133031,-1.4499861,-0.51406354,0.69847792,-0.67459673,-0.23884675,0
-1.9070418,-1.6764903,0.29704499,-0.62154019,-0.73728454,0.26476252,0
-0.39210743,-2.8167181,0.67821741,-0.62154019,-0.73728454,0.26476252,0
-0.86604089,-1.1315594,1.978523,0.35470599,0.036477923,0.93426597,0
-0.73112524,1.7909664,-1.3978847,-0.35470599,-0.036477923,-0.93426597,0
-1.6667469,0.550955,-0.99424839,-0.35470599,-0.036477923,-0.93426597,0
0.11263382,-2.3501861,0.68705225,0.69847792,-0.67459673,-0.23884675,0
-1.8320136,-1.4613892,-0.85293174,-0.35470599,-0.036477923,-0.93426597,0
0.97657186,2.1492221,1.1508553,0.35470599,0.036477923,0.93426597,0
1.5881954,-0.82630008,0.69809949,0.69847792,-0.67459673,-0.23884675,0
-1.9314137,-0.26146162,1.3704655,-0.69847792,0.67459673,0.23884675,0
-1.0904956,0.8732754,-1.2256144,-0.35470599,-0.036477923,-0.93426597,0
-0.59267515,1.2142597,1.1174273,-0.69847792,0.67459673,0.23884675,0
0.39122373,2.0062413,-1.8324041,-0.35470599,-0.036477923,-0.93426597,0
2.5427125,0.75738353,-0.98347569,0.69847792,-0.67459673,-0.23884675,0
-2.0894947,-0.62026763,1.9215866,-0.69847792,0.67459673,0.23884675,0
-1.4735018,-1.7483492,1.1146905,-0.62154019,-0.73728454,0.26476252,0
1.9849662,0.15622652,-0.91663295,0.69847792,-0.67459673,-0.23884675,0
-1.2386384,-2.6830041,-0.93669248,-0.62154019,-0.73728454,0.26476252,0
-2.2875619,-1.1972739,-0.69028926,-0.35470599,-0.036477923,-0.93426597,0
-1.0024416,-2.2397523,0.85211253,-0.62154019,-0.73728454,0.26476252,0
-0.95913768,1.1142794,0.32813573,-0.69847792,0.67459673,0.23884675,0
1.3032,-0.1943388,-1.9202403,0.69847792,-0.67459673,-0.23884675,0
-0.49017036,-2.325665,1.8154474,-0.62154019,-0.73728454,0.26476252,0
-1.2100332,1.053421,-0.2336892,-0.69847792,0.67459673,0.23884675,0
-0.39053202,1.6634949,0.43975317,-0.69847792,0.67459673,0.23884675,0
-0.59942502,-1.2949696,1.8836794,0.35470599,0.036477923,0.93426597,0
1.8726264,1.3264869,-1.3524915,0.62154019,0.73728454,-0.26476252,0
0.61910462,2.6628034,-0.57393909,0.62154019,0.73728454,-0.26476252,0
-2.3314981,-1.5069219,-0.22718501,-0.62154019,-0.73728454,0.26476252,0
-0.38761401,1.3058503,1.4584161,-0.69847792,0.67459673,0.23884675,0
-0.86566198,-2.6429963,-1.1736841,-0.35470599,-0.036477923,-0.93426597,0
-1.0820798,-1.6560556,2.0810235,0.35470599,0.036477923,0.93426597,0
-0.15944993,2.0304561,0.079082727,-0.69847792,0.67459673,0.23884675,0
-1.6863887,-1.6906781,0.775527,-0.62154019,-0.73728454,0.26476252,0
0.24110812,2.3815143,0.2589395,-0.69847792,0.67459673,0.23884675,0
-0.19947302,-0.11425114,1.6857316,0.35470599,0.036477923,0.93426597,0
2.3339682,1.5281594,0.29212379,0.62154019,0.73728454,-0.26476252,0
0.30079561,-1.6911527,1.5573676,0.35470599,0.036477923,0.93426597,0
1.5296307,-0.77725321,1.055142,0.35470599,0.036477923,0.93426597,0
-2.4031792,-1.131442,0.65014029,-0.62154019,-0.73728454,0.26476252,0
-1.0278411,1.2888205,-0.36575109,-0.69847792,0.67459673,0.23884675,0
2.726254,1.2380667,0.40520811,0.62154019,0.73728454,-0.26476252,0
-1.2031319,1.015949,-0.10767189,-0.69847792,0.67459673,0.23884675,0
0.85922337,1.4890404,-1.9898922,-0.35470599,-0.036477923,-0.93426597,0
-0.020444632,-1.8165132,-1.2094203,0.69847792,-0.67459673,-0.23884675,0
1.9104037,-0.34902048,0.89385664,0.35470599,0.036477923,0.93426597,0
0.85877478,-1.6535109,0.90136611,0.69847792,-0.67459673,-0.23884675,0
0.45800674,-2.2794619,1.4972996,0.69847792,-0.67459673,-0.23884675,0
-1.2210026,-1.6966602,1.8513803,-0.62154019,-0.73728454,0.26476252,0
-2.1555412,-0.0057779253,-0.0071184635,-0.69847792,0.67459673,0.23884675,0
2.2104299,1.4521849,0.70962071,0.35470599,0.036477923,0.93426597,0
0.4723528,0.81715918,-1.8167787,-0.35470599,-0.036477923,-0.93426597,0
0.83507764,-1.239655,-0.33682424,0.69847792,-0.67459673,-0.23884675,0
1.4391736,2.2716827,0.97044086,0.35470599,0.036477923,0.93426597,0
1.5598313,1.4940202,0.95499539,0.35470599,0.036477923,0.93426597,0
-0.090749323,2.173362,-0.12363315,-0.69847792,0.67459673,0.23884675,0
2.9130077,0.788831,0.46877837,0.35470599,0.036477923,0.93426597,0
-2.0050452,-1.9315395,-0.64325786,-0.62154019,-0.73728454,0.26476252,0
-1.0905163,0.70689869,1.0945381,-0.69847792,0.67459673,0.23884675,0
2.0327873,1.7583413,0.2260778,0.62154019,0.73728454,-0.26476252,0
2.0467544,0.099106491,-0.57461202,0.69847792,-0.67459673,-0.23884675,0
-0.59187859,-2.6248457,0.74355435,-0.62154019,-0.73728454,0.26476252,0
1.5124536,1.7266127,0.96390128,0.35470599,0.036477923,0.93426597,0
-2.0507128,-0.30815291,1.1534653,-0.69847792,0.67459673,0.23884675,0
0.43085718,0.75265992,1.4125708,0.35470599,0.036477923,0.93426597,0
-2.2984605,-0.42120814,0.74826956,-0.69847792,0.67459673,0.23884675,0
1.8117263,2.0762315,0.59235859,0.62154019,0.73728454,-0.26476252,0
1.0087743,0.22827363,1.2136315,0.35470599,0.036477923,0.93426597,0
2.549226,0.60960901,0.61389041,0.35470599,0.036477923,0.93426597,0
-1.8679699,-1.4649712,0.97778535,-0.62154019,-0.73728454,0.26476252,0
1.5758197,0.38339949,-2.2187879,-0.35470599,-0.036477923,-0.93426597,0
1.4532017,0.92495865,1.0176973,0.35470599,0.036477923,0.93426597,0
-2.5779805,-0.32289788,-0.34681916,-0.69847792,0.67459673,0.23884675,0
1.1152236,-0.25913954,1.1922475,0.35470599,0.036477923,0.93426597,0
-1.9498417,-1.8654684,-0.32967687,-0.62154019,-0.73728454,0.26476252,0
1.1361164,-1.3403457,0.82791603,0.69847792,-0.67459673,-0.23884675,0
1.3780297,1.6633097,-1.5756251,0.62154019,0.73728454,-0.26476252,0
0.13312757,-1.4031202,-1.6012981,-0.35470599,-0.036477923,-0.93426597,0
-0.42560375,-0.34447813,1.7805742,0.35470599,0.036477923,0.93426597,0
1.8315964,-0.53172207,0.57789189,0.69847792,-0.67459673,-0.23884675,0
-0.17231274,1.2433095,1.6224148,0.35470599,0.036477923,0.93426597,0
2.5639894,1.2936716,0.17912936,0.62154019,0.73728454,-0.26476252,0
-0.046995249,-2.4485865,1.7189846,0.35470599,0.036477923,0.93426597,0
2.1212192,0.99380517,-1.6953286,0.62154019,0.73728454,-0.26476252,0
0.86236,2.7875862,0.34459519,0.62154019,0.73728454,-0.26476252,0
-0.32072282,-1.0549103,-1.4425836,-0.35470599,-0.036477923,-0.93426597,0
2.327652,0.64568174,-1.2969044,0.69847792,-0.67459673,-0.23884675,0
1.1837261,1.7148509,-1.8882334,0.62154019,0.73728454,-0.26476252,0
-2.2358093,-0.91601062,1.6429595,-0.62154019,-0.73728454,0.26476252,0
-1.5385754,-1.7144235,1.0564008,-0.62154019,-0.73728454,0.26476252,0
-1.255908,0.14217651,-1.134268,-0.35470599,-0.036477923,-0.93426597,0
-2.4160862,-0.082625031,-0.55200326,-0.69847792,0.67459673,0.23884675,0
-1.3283871,-1.6282852,1.7896954,-0.62154019,-0.73728454,0.26476252,0
-1.9492941,-0.72625923,2.3739691,0.35470599,0.036477923,0.93426597,0
-1.8021888,-1.1159732,2.104064,-0.62154019,-0.73728454,0.26476252,0
-2.6309695,-1.1995553,-0.074282408,-0.62154019,-0.73728454,0.26476252,0
1.7163161,1.720853,-0.62124372,0.62154019,0.73728454,-0.26476252,0
2.6382484,1.3531711,0.51914358,0.62154019,0.73728454,-0.26476252,0
-1.0943699,-1.2866359,2.0712657,0.35470599,0.036477923,0.93426597,0
-0.98446697,0.43403804,-1.2487197,-0.35470599,-0.036477923,-0.93426597,0
1.8792593,1.2177143,-1.6398194,0.62154019,0.73728454,-0.26476252,0
2.075119,0.11768478,0.81309807,0.35470599,0.036477923,0.93426597,0
-1.9846798,-1.0252669,1.9282495,-0.62154019,-0.73728454,0.26476252,0
-1.4510081,-1.5639579,1.6809701,-0.62154019,-0.73728454,0.26476252,0
0.61785322,-1.6253748,0.11735284,0.69847792,-0.67459673,-0.23884675,0
-0.13756889,-0.47576654,-1.5347325,-0.35470599,-0.036477923,-0.93426597,0
-1.1301059,-1.3085938,2.085691,0.35470599,0.036477923,0.93426597,0
2.5602248,0.26780933,0.62306011,0.35470599,0.036477923,0.93426597,0
0.061030269,-2.142364,-0.050827503,0.69847792,-0.67459673,-0.23884675,0
-0.95548701,0.13339698,-1.2479839,-0.35470599,-0.036477923,-0.93426597,0
0.27074021,-1.8956194,-0.13445985,0.69847792,-0.67459673,-0.23884675,0
-1.9311374,-1.0844492,1.8891366,-0.62154019,-0.73728454,0.26476252,0
-0.31921357,-2.7719712,0.97394514,-0.62154019,-0.73728454,0.26476252,0
1.8696239,-0.24626738,0.9053272,0.35470599,0.036477923,0.93426597,0
-0.74055564,-2.6828573,-0.86840153,0.69847792,-0.67459673,-0.23884675,0
2.1915212,0.93683767,-1.6889305,0.62154019,0.73728454,-0.26476252,0
2.641293,1.224448,0.167835,0.62154019,0.73728454,-0.26476252,0
1.3186764,2.5174685,0.6636169,0.62154019,0.73728454,-0.26476252,0
-1.5789447,-1.9798535,0.22248936,-0.62154019,-0.73728454,0.26476252,0
2.0254109,0.74142981,-2.4034603,-0.35470599,-0.036477923,-0.93426597,0
0.64535749,-0.9816103,-1.6204575,0.69847792,-0.67459673,-0.23884675,0
1.3763362,0.34358573,1.0695797,0.35470599,0.036477923,0.93426597,0
1.8892481,-0.46552667,0.55952549,0.69847792,-0.67459673,-0.23884675,0
0.068263829,-0.26553643,-1.6210879,-0.35470599,-0.036477923,-0.93426597,0
0.91289723,-1.2082685,-0.19789839,0.69847792,-0.67459673,-0.23884675,0
0.6072287,-1.46176,-0.37582922,0.69847792,-0.67459673,-0.23884675,0
0.50503492,-2.0572116,1.0071064,0.69847792,-0.67459673,-0.23884675,0
0.40347815,-1.4343694,-1.049034,0.69847792,-0.67459673,-0.23884675,0
2.7078781,0.68759358,-0.30335474,0.69847792,-0.67459673,-0.23884675,0
1.9896111,0.60092974,-2.1590657,0.69847792,-0.67459673,-0.23884675,0
0.2177403,2.6895275,-1.4417386,0.62154019,0.73728454,-0.26476252,0
0.58414245,0.32926273,1.3709054,0.35470599,0.036477923,0.93426597,0
2.4310076,0.81795371,-1.4577823,0.62154019,0.73728454,-0.26476252,0
-0.31025475,-1.1967041,-1.4410214,-0.35470599,-0.036477923,-0.93426597,0
0.72781175,2.2661271,-1.4233699,0.62154019,0.73728454,-0.26476252,0
-0.82540548,-2.4247103,0.75265765,-0.62154019,-0.73728454,0.26476252,0
-2.5051546,-0.97486258,0.84677553,-0.62154019,-0.73728454,0.26476252,0
-1.5047419,0.42881072,0.6686157,-0.69847792,0.67459673,0.23884675,0
-1.2132609,1.3541732,-1.0925698,-0.69847792,0.67459673,0.23884675,0
0.70080626,2.6255264,-0.48594642,0.62154019,0.73728454,-0.26476252,0
0.29798561,0.93116933,1.4560473,0.35470599,0.036477923,0.93426597,0
-0.7740134,-2.7140911,-0.87802839,0.69847792,-0.67459673,-0.23884675,0
-2.1505857,-0.62265444,1.7496741,-0.69847792,0.67459673,0.23884675,0
0.48481837,2.4665504,-1.4356878,0.62154019,0.73728454,-0.26476252,0
-0.28787553,-2.3848984,-0.38614678,0.69847792,-0.67459673,-0.23884675,0
1.3934129,1.5135847,-1.9564515,0.62154019,0.73728454,-0.26476252,0
-1.0823491,-2.8611028,-1.0657492,-0.62154019,-0.73728454,0.26476252,0
-1.4711888,-1.8765786,0.76304102,-0.62154019,-0.73728454,0.26476252,0
-1.2290473,0.74535239,0.58081263,-0.69847792,0.67459673,0.23884675,0
0.32719529,0.50561607,1.461573,0.35470599,0.036477923,0.93426597,0
0.75252426,1.7271165,1.2523986,0.35470599,0.036477923,0.93426597,0
1.9683112,-0.12956917,0.86330295,0.35470599,0.036477923,0.93426597,0
-2.6072555,-1.27707,-0.23446703,-0.62154019,-0.73728454,0.26476252,0
1.2483859,2.627948,0.80626082,0.62154019,0.73728454,-0.26476252,0
1.1779392,1.1205806,1.1145663,0.35470599,0.036477923,0.93426597,0
0.32617059,-0.46551895,1.4998795,0.35470599,0.036477923,0.93426597,0
1.0849316,-1.4501524,0.98836988,0.69847792,-0.67459673,-0.23884675,0
0.40036386,2.5167308,-1.4942104,0.62154019,0.73728454,-0.26476252,0
0.15180618,-0.62958443,1.572485,0.35470599,0.036477923,0.93426597,0
1.2529846,0.62169176,1.1055532,0.35470599,0.036477923,0.93426597,0
0.8889336,2.2247818,1.1811781,0.35470599,0.036477923,0.93426597,0
0.12493682,2.1246676,0.64464593,-0.69847792,0.67459673,0.23884675,0
0.53412294,2.8360722,-0.1680243,-0.69847792,0.67459673,0.23884675,0
-0.7422142,-2.2052331,1.5591314,-0.62154019,-0.73728454,0.26476252,0
-1.1757128,1.2093613,-0.57375968,-0.69847792,0.67459673,0.23884675,0
-2.1173434,-0.87114334,2.0460043,-0.62154019,-0.73728454,0.26476252,0
-1.0056632,-0.43090463,2.0041757,0.35470599,0.036477923,0.93426597,0
-1.284569,-0.32059371,-1.1053181,-0.35470599,-0.036477923,-0.93426597,0
2.1262493,0.83176804,-2.1347458,0.62154019,0.73728454,-0.26476252,0
-1.6370571,0.79318136,-1.0149782,-0.35470599,-0.036477923,-0.93426597,0
-0.069180071,0.032297969,-1.5805342,-0.35470599,-0.036477923,-0.93426597,0
2.5594893,0.36040097,0.61972404,0.35470599,0.036477923,0.93426597,0
-1.1406586,0.28707409,2.0273955,0.35470599,0.036477923,0.93426597,0
2.1001563,0.75323892,-2.26597,0.69847792,-0.67459673,-0.23884675,0
2.4074192,0.21715078,0.68305266,0.35470599,0.036477923,0.93426597,0
-0.23929849,2.2233794,-0.69931567,-0.69847792,0.67459673,0.23884675,0
-0.78423005,-2.7546759,-0.79327846,0.69847792,-0.67459673,-0.23884675,0
-1.2500792,0.65215915,0.78252238,-0.69847792,0.67459673,0.23884675,0
0.79297483,-1.0178596,1.3442172,0.35470599,0.036477923,0.93426597,0
0.34175059,-0.43961465,1.4929531,0.35470599,0.036477923,0.93426597,0
-3.1271191,-0.88517505,-0.3837266,-0.35470599,-0.036477923,-0.93426597,0
2.6898532,0.72795105,-0.470052,0.69847792,-0.67459673,-0.23884675,0
1.8662663,1.9432789,0.82111239,0.35470599,0.036477923,0.93426597,0
-1.9239454,-1.967092,-0.55187607,-0.62154019,-0.73728454,0.26476252,0
-0.15608841,2.3848753,-0.91210544,-0.69847792,0.67459673,0.23884675,0
1.5971576,1.6881199,-0.9921248,0.62154019,0.73728454,-0.26476252,0
-0.63156235,-0.14008629,-1.3602881,-0.35470599,-0.036477923,-0.93426597,0
1.4117299,1.5608065,-1.7819529,0.62154019,0.73728454,-0.26476252,0
0.23517227,1.51538,1.4570849,0.35470599,0.036477923,0.93426597,0
-0.33375764,-0.88074529,1.7666419,0.35470599,0.036477923,0.93426597,0
-0.64563799,-0.56935239,1.8728931,0.35470599,0.036477923,0.93426597,0
0.18158811,-0.36870682,-1.6600846,-0.35470599,-0.036477923,-0.93426597,0
0.97556782,2.8639088,1.0443048,-0.69847792,0.67459673,0.23884675,0
-0.27118188,-0.12877476,-1.4975528,-0.35470599,-0.036477923,-0.93426597,0
-1.9126328,-0.058205068,-0.87711042,-0.35470599,-0.036477923,-0.93426597,0
1.1278486,1.8323545,-1.6921952,0.62154019,0.73728454,-0.26476252,0
-0.60212672,-0.89584804,-1.3419554,-0.35470599,-0.036477923,-0.93426597,0
0.041286886,2.752418,-1.3729904,-0.69847792,0.67459673,0.23884675,0
2.0193071,1.869359,0.50358391,0.62154019,0.73728454,-0.26476252,0
-1.6035087,-1.8650494,0.48451996,-0.62154019,-0.73728454,0.26476252,0
1.5260963,0.56559157,-2.2070234,-0.35470599,-0.036477923,-0.93426597,0
-0.37840611,1.576763,0.72017908,-0.69847792,0.67459673,0.23884675,0
1.4128468,0.35396361,1.0553129,0.35470599,0.036477923,0.93426597,0
-2.3256779,0.052348316,-0.72460914,-0.35470599,-0.036477923,-0.93426597,0
0.96829963,-1.3749332,0.43484545,0.69847792,-0.67459673,-0.23884675,0
1.5234888,1.6377854,0.96318007,0.35470599,0.036477923,0.93426597,0
-1.1115923,0.82586741,-1.2157538,-0.35470599,-0.036477923,-0.93426597,0
0.99338502,-1.228894,0.095732331,0.69847792,-0.67459673,-0.23884675,0
0.75646675,1.6896691,-1.9587131,-0.35470599,-0.036477923,-0.93426597,0
1.2123034,-1.1485679,0.50906032,0.69847792,-0.67459673,-0.23884675,0
-0.52215666,0.12471592,1.7989124,0.35470599,0.036477923,0.93426597,0
-0.16449019,0.65709066,-1.5687432,-0.35470599,-0.036477923,-0.93426597,0
-1.3011404,0.39612639,1.3563368,-0.69847792,0.67459673,0.23884675,0
1.046387,-1.5867879,1.2615628,0.69847792,-0.67459673,-0.23884675,0
-0.54195088,1.387457,0.77658659,-0.69847792,0.67459673,0.23884675,0
-0.1727913,-2.6151094,1.75449,-0.62154019,-0.73728454,0.26476252,0
0.11053699,-2.2593343,0.42431927,0.69847792,-0.67459673,-0.23884675,0
0.026541829,0.71545434,1.5675271,0.35470599,0.036477923,0.93426597,0
0.086499326,2.7169242,-1.6735407,0.62154019,0.73728454,-0.26476252,0
-0.39030218,-2.2034626,-1.198127,0.69847792,-0.67459673,-0.23884675,0
-1.2726396,0.64256305,0.74364984,-0.69847792,0.67459673,0.23884675,0
1.8088429,0.19768202,-1.5487709,0.69847792,-0.67459673,-0.23884675,0
-1.3288982,-2.2100911,-1.0147135,-0.35470599,-0.036477923,-0.93426597,0
-2.337435,-0.58415914,1.0945305,-0.69847792,0.67459673,0.23884675,0
0.78013885,-1.4747348,0.16647071,0.69847792,-0.67459673,-0.23884675,0
-0.80094135,-1.2741461,-1.2517025,-0.35470599,-0.036477923,-0.93426597,0
1.8821986,-0.17187226,0.89764845,0.35470599,0.036477923,0.93426597,0
2.051331,1.1394466,0.78223538,0.35470599,0.036477923,0.93426597,0
-1.2716537,-2.5979555,-0.77736187,-0.62154019,-0.73728454,0.26476252,0
-0.41666964,2.3228364,-1.4989213,-0.69847792,0.67459673,0.23884675,0
1.9543703,1.7052397,-0.10588098,0.62154019,0.73728454,-0.26476252,0
-1.0082808,-1.8552314,1.9091802,-0.62154019,-0.73728454,0.26476252,0
-2.6432726,-1.149894,0.035128117,-0.62154019,-0.73728454,0.26476252,0
0.74832517,-1.8568507,1.1526809,0.69847792,-0.67459673,-0.23884675,0
1.6291398,-0.50758237,-0.082347721,0.69847792,-0.67459673,-0.23884675,0
-0.62089026,0.042783499,1.8395967,0.35470599,0.036477923,0.93426597,0
0.69327295,-1.9334116,1.2079248,0.69847792,-0.67459673,-0.23884675,0
-2.8356802,-1.0557822,-0.15448284,-0.62154019,-0.73728454,0.26476252,0
-1.523756,-2.1522839,-0.12811995,-0.62154019,-0.73728454,0.26476252,0
0.033739686,1.9111166,0.98110306,-0.69847792,0.67459673,0.23884675,0
-2.035337,0.28429332,-0.4748705,-0.69847792,0.67459673,0.23884675,0
0.55478942,2.3365049,1.3033853,-0.69847792,0.67459673,0.23884675,0
-1.1244788,-2.8092406,-1.0202298,-0.62154019,-0.73728454,0.26476252,0
-0.1116533,-2.7357025,1.5621977,-0.62154019,-0.73728454,0.26476252,0
-2.4024577,-0.90894377,1.2714251,-0.62154019,-0.73728454,0.26476252,0
-0.23945647,0.3215549,-1.5271807,-0.35470599,-0.036477923,-0.93426597,0
1.8527503,-0.37734202,0.20372427,0.69847792,-0.67459673,-0.23884675,0
0.48947209,0.65318906,-1.8168763,-0.35470599,-0.036477923,-0.93426597,0
2.4704568,1.0798764,-0.63579822,0.62154019,0.73728454,-0.26476252,0
-0.16518092,1.1294671,1.6241521,0.35470599,0.036477923,0.93426597,0
-2.2421751,-1.115977,1.0711681,-0.62154019,-0.73728454,0.26476252,0
-1.5161315,-1.8173008,0.82260656,-0.62154019,-0.73728454,0.26476252,0
0.31692374,-1.4361911,-1.2970066,0.69847792,-0.67459673,-0.23884675,0
-1.8161073,0.25644374,-0.92604285,-0.35470599,-0.036477923,-0.93426597,0
0.36376965,-0.41873515,1.483778,0.35470599,0.036477923,0.93426597,0
1.4656607,1.4752997,-1.8934593,0.62154019,0.73728454,-0.26476252,0
-1.7923352,-0.3423357,2.005604,-0.69847792,0.67459673,0.23884675,0
-1.2564842,-2.3945189,-0.17524147,-0.62154019,-0.73728454,0.26476252,0
-0.54182786,0.72535753,-1.4281477,-0.35470599,-0.036477923,-0.93426597,0
1.505074,-0.31343037,-0.99352354,0.69847792,-0.67459673,-0.23884675,0
0.89303899,0.82346737,-1.9767437,-0.35470599,-0.036477923,-0.93426597,0
-0.97059441,0.35081673,1.9603394,0.35470599,0.036477923,0.93426597,0
1.3215486,2.3960071,0.33212709,0.62154019,0.73728454,-0.26476252,0
1.6167948,2.004843,-0.064047098,0.62154019,0.73728454,-0.26476252,0
1.9920386,0.31454217,-1.3430961,0.69847792,-0.67459673,-0.23884675,0
0.24690008,0.49984264,1.4922836,0.35470599,0.036477923,0.93426597,0
-0.76131243,1.4348216,0.0013148785,-0.69847792,0.67459673,0.23884675,0
-0.95305401,-0.47258162,-1.2252476,-0.35470599,-0.036477923,-0.93426597,0
0.41345394,1.5146356,1.3894271,0.35470599,0.036477923,0.93426597,0
1.1012952,2.4663019,0.010823488,0.62154019,0.73728454,-0.26476252,0
2.7322915,1.254813,0.46601534,0.62154019,0.73728454,-0.26476252,0
-2.830832,-0.66762483,-0.11260772,-0.69847792,0.67459673,0.23884675,0
1.5258015,2.0999067,-0.012932777,0.62154019,0.73728454,-0.26476252,0
-2.2445564,-1.4363065,0.17355585,-0.62154019,-0.73728454,0.26476252,0
0.35035491,-0.38696861,1.4876307,0.35470599,0.036477923,0.93426597,0
0.6696651,1.4867455,1.2932423,0.35470599,0.036477923,0.93426597,0
-0.74921358,-2.3999014,1.0006075,-0.62154019,-0.73728454,0.26476252,0
0.30659378,1.0619051,-1.7634021,-0.35470599,-0.036477923,-0.93426597,0
1.6368023,0.74727464,-2.2561481,-0.35470599,-0.036477923,-0.93426597,0
-2.6398695,-0.38379997,-0.35579431,-0.69847792,0.67459673,0.23884675,0
1.4008434,1.4781566,-2.0376654,0.62154019,0.73728454,-0.26476252,0
2.3660693,0.2309058,-0.013067722,0.69847792,-0.67459673,-0.23884675,0
-2.2323723,-0.3323499,-0.74501359,-0.35470599,-0.036477923,-0.93426597,0
1.3459924,-0.98287612,0.43203872,0.69847792,-0.67459673,-0.23884675,0
-2.5819998,-0.66211623,0.59951258,-0.69847792,0.67459673,0.23884675,0
-0.41368294,-1.7186745,-1.3813736,-0.35470599,-0.036477923,-0.93426597,0
2.4456234,1.4892795,0.44596982,0.62154019,0.73728454,-0.26476252,0
-1.2559063,0.8238765,-1.1608855,-0.35470599,-0.036477923,-0.93426597,0
2.4928012,1.0278862,-0.72812033,0.62154019,0.73728454,-0.26476252,0
0.67808855,-1.5646555,0.12200892,0.69847792,-0.67459673,-0.23884675,0
-0.21013784,-2.8142023,1.05371,0.69847792,-0.67459673,-0.23884675,0
-2.2731071,-0.21492255,-0.73413277,-0.35470599,-0.036477923,-0.93426597,0
-0.027320266,-1.6195385,-1.5319316,-0.35470599,-0.036477923,-0.93426597,0
-1.0246758,0.80341721,-1.2478762,-0.35470599,-0.036477923,-0.93426597,0
