-1.1126446,0.99998784,-1.4022031,-0.51250327,-0.23021024,-0.82725072,0
4.3492899,1.4078016,-2.4016743,0.84596753,0.029828615,-0.53239977,0
0.82030666,-1.7491436,-1.7950461,0.1472396,-0.97268379,0.17946309,0
-2.1339195,-0.40051377,-0.37976003,-0.51250327,-0.23021024,-0.82725072,0
-2.7843964,-1.6428634,1.7384474,0.1472396,-0.97268379,0.17946309,0
1.7095263,0.70446146,-3.0683715,-0.51250327,-0.23021024,-0.82725072,0
3.8865895,-1.4554768,-3.2973118,0.84596753,0.029828615,-0.53239977,0
0.089721084,-0.3141827,1.8450828,0.51250327,0.23021024,0.82725072,0
3.8592994,1.36564,-0.95773625,0.51250327,0.23021024,0.82725072,0
-2.3896074,0.56990045,-0.49140501,-0.51250327,-0.23021024,-0.82725072,0
-0.27618134,-0.44914347,2.1093261,0.51250327,0.23021024,0.82725072,0
-4.4022861,-1.5249655,1.3384686,-0.51250327,-0.23021024,-0.82725072,0
4.4827151,1.6255604,-2.1774645,0.84596753,0.029828615,-0.53239977,0
0.86999321,-1.3954329,0.081285954,0.1472396,-0.97268379,0.17946309,0
4.1113186,1.8546213,-1.6793942,-0.1472396,0.97268379,-0.17946309,0
-2.5268579,0.46837795,3.248348,0.51250327,0.23021024,0.82725072,0
-1.3969121,1.0403876,2.3891358,0.51250327,0.23021024,0.82725072,0
3.4085975,-1.2890735,-3.5662231,-0.51250327,-0.23021024,-0.82725072,0
-2.0760486,0.24485579,3.0312624,0.51250327,0.23021024,0.82725072,0
-0.82083398,-1.3395798,1.7712387,0.1472396,-0.97268379,0.17946309,0
3.482944,1.0897918,-3.7960896,0.84596753,0.029828615,-0.53239977,0
2.8112364,1.2488954,-3.8957615,-0.1472396,0.97268379,-0.17946309,0
5.0813622,-0.21339402,-1.3292627,0.84596753,0.029828615,-0.53239977,0
-0.84098482,-0.087579548,2.3586197,0.51250327,0.23021024,0.82725072,0
-1.8509302,-0.069106102,2.9791665,0.51250327,0.23021024,0.82725072,0
1.0480309,1.6681772,-0.17665529,-0.1472396,0.97268379,-0.17946309,0
2.9897003,1.7103176,-1.5412896,-0.1472396,0.97268379,-0.17946309,0
4.540309,-0.37205866,-2.1978703,0.84596753,0.029828615,-0.53239977,0
-3.6290252,1.0181439,3.6820722,-0.84596753,-0.029828615,0.53239977,0
-4.5082226,-1.699788,2.1327748,-0.84596753,-0.029828615,0.53239977,0
-3.3458412,1.4934628,2.4813285,-0.1472396,0.97268379,-0.17946309,0
-4.1701937,-0.84652996,1.0058837,-0.51250327,-0.23021024,-0.82725072,0
-4.2871332,1.145601,2.6434989,-0.84596753,-0.029828615,0.53239977,0
2.1072071,-1.327814,-0.56728649,0.1472396,-0.97268379,0.17946309,0
-1.8361416,-1.7326839,0.47363305,0.1472396,-0.97268379,0.17946309,0
4.3624272,1.5406115,-2.3733587,0.84596753,0.029828615,-0.53239977,0
1.6143503,0.18238193,-2.8641214,-0.51250327,-0.23021024,-0.82725072,0
-1.467728,0.37447709,-1.0081502,-0.51250327,-0.23021024,-0.82725072,0
-1.7485266,0.7405144,-0.93605042,-0.51250327,-0.23021024,-0.82725072,0
0.46362197,-1.6708812,-1.0782282,0.1472396,-0.97268379,0.17946309,0
-1.2782445,-1.4982021,1.2867925,0.1472396,-0.97268379,0.17946309,0
-3.2937975,-1.1275299,4.0945225,-0.84596753,-0.029828615,0.53239977,0
-4.388618,-0.32430947,2.399888,-0.84596753,-0.029828615,0.53239977,0
-4.3395252,0.93914896,2.5486813,-0.84596753,-0.029828615,0.53239977,0
-0.56826627,-1.1795121,2.4315825,0.1472396,-0.97268379,0.17946309,0
-4.7103248,-0.8272655,1.3351479,-0.51250327,-0.23021024,-0.82725072,0
-0.2777288,-1.2513493,1.8038565,0.1472396,-0.97268379,0.17946309,0
1.9239388,-1.1246438,0.68425041,0.1472396,-0.97268379,0.17946309,0
-3.784858,-0.70053935,3.3381653,-0.84596753,-0.029828615,0.53239977,0
4.2057924,-0.18271837,-0.74151516,0.51250327,0.23021024,0.82725072,0
4.4694157,0.51783293,-2.2606597,0.84596753,0.029828615,-0.53239977,0
-1.5473042,-1.0409799,-0.56495261,-0.51250327,-0.23021024,-0.82725072,0
3.180871,-1.121217,-0.32842135,0.1472396,-0.97268379,0.17946309,0
3.5063949,0.39524788,-3.7977405,0.84596753,0.029828615,-0.53239977,0
-2.6834338,1.0483154,-0.44250703,-0.51250327,-0.23021024,-0.82725072,0
3.3391976,-1.517066,-2.603807,0.1472396,-0.97268379,0.17946309,0
-4.0445971,-0.90903401,2.913765,-0.84596753,-0.029828615,0.53239977,0
2.1400485,-1.3028424,-0.45888638,0.1472396,-0.97268379,0.17946309,0
-0.040783286,1.2965209,1.4777012,0.51250327,0.23021024,0.82725072,0
-3.8600173,1.0742968,0.6313169,-0.1472396,0.97268379,-0.17946309,0
3.5536287,0.092020638,-0.41393781,0.51250327,0.23021024,0.82725072,0
0.59056705,-1.4705462,-0.096571922,0.1472396,-0.97268379,0.17946309,0
-0.038630247,1.0447637,1.5464275,0.51250327,0.23021024,0.82725072,0
-0.10766155,1.5111617,-0.079491779,-0.1472396,0.97268379,-0.17946309,0
-0.48174858,-1.7801092,-0.89461523,0.1472396,-0.97268379,0.17946309,0
2.2690535,1.7454602,-0.75956678,-0.1472396,0.97268379,-0.17946309,0
4.3139453,0.87142837,-2.487886,0.84596753,0.029828615,-0.53239977,0
-3.5829649,-1.1657428,3.6329017,-0.84596753,-0.029828615,0.53239977,0
-3.1235714,-1.5097325,2.7382865,0.1472396,-0.97268379,0.17946309,0
-3.6078241,0.5752548,0.26182175,-0.51250327,-0.23021024,-0.82725072,0
2.9222949,-1.3044174,-1.1092117,0.1472396,-0.97268379,0.17946309,0
-2.7887597,-0.27186373,-0.0098707676,-0.51250327,-0.23021024,-0.82725072,0
4.5506802,0.2444391,-2.1468492,0.84596753,0.029828615,-0.53239977,0
-4.0399733,1.209793,3.039824,-0.84596753,-0.029828615,0.53239977,0
-2.5766487,1.4172826,3.0151305,0.51250327,0.23021024,0.82725072,0
-3.6558306,-1.2558477,3.512074,-0.84596753,-0.029828615,0.53239977,0
-0.37863982,0.20444453,-1.6355517,-0.51250327,-0.23021024,-0.82725072,0
-1.9183705,-0.84808946,-0.38874543,-0.51250327,-0.23021024,-0.82725072,0
4.7403121,-1.0597969,-1.9186034,0.84596753,0.029828615,-0.53239977,0
-4.1866364,0.52270126,0.63503599,-0.51250327,-0.23021024,-0.82725072,0
2.6376872,-0.37995529,0.28485453,0.51250327,0.23021024,0.82725072,0
-2.2613127,1.1206683,2.9023142,0.51250327,0.23021024,0.82725072,0
-4.5627003,-1.4258877,2.0615578,-0.84596753,-0.029828615,0.53239977,0
-4.0654893,-0.39507353,2.9093642,-0.84596753,-0.029828615,0.53239977,0
1.8486581,-1.4176217,-0.8419168,0.1472396,-0.97268379,0.17946309,0
0.46464354,-0.76227236,1.7375045,0.51250327,0.23021024,0.82725072,0
-4.8667741,-1.2511955,1.5881801,-0.84596753,-0.029828615,0.53239977,0
-1.4827654,-0.15779282,-0.8507123,-0.51250327,-0.23021024,-0.82725072,0
-3.9924426,1.1454513,3.1117449,-0.84596753,-0.029828615,0.53239977,0
-2.5494483,1.1769586,0.11249042,-0.1472396,0.97268379,-0.17946309,0
-4.4344006,-1.3260615,1.3030124,-0.51250327,-0.23021024,-0.82725072,0
-2.7945821,1.1754969,0.30568695,-0.1472396,0.97268379,-0.17946309,0
-1.1950395,-1.4390783,-0.67240542,-0.51250327,-0.23021024,-0.82725072,0
-3.591887,1.4999404,3.6210938,0.51250327,0.23021024,0.82725072,0
-0.98950887,0.1408819,-1.2394139,-0.51250327,-0.23021024,-0.82725072,0
-0.63109678,-1.3395396,1.6157876,0.1472396,-0.97268379,0.17946309,0
-1.9967917,1.1266496,-0.61360747,-0.1472396,0.97268379,-0.17946309,0
1.9324143,-1.6375916,-2.5547016,-0.51250327,-0.23021024,-0.82725072,0
-0.14756304,1.287033,-1.2615255,-0.1472396,0.97268379,-0.17946309,0
1.2715738,-0.097069204,-2.5739958,-0.51250327,-0.23021024,-0.82725072,0
-0.35802042,-1.1161368,-1.2808299,-0.51250327,-0.23021024,-0.82725072,0
-3.6626899,-0.61634982,3.5370049,-0.84596753,-0.029828615,0.53239977,0
5.033989,0.20066349,-1.3813386,0.84596753,0.029828615,-0.53239977,0
0.32927346,1.0184437,-2.3006449,-0.51250327,-0.23021024,-0.82725072,0
4.7589202,-1.1246659,-1.8926687,0.84596753,0.029828615,-0.53239977,0
-4.8119245,-1.0960529,1.6840272,-0.84596753,-0.029828615,0.53239977,0
3.2732012,-1.124715,-0.4231317,0.1472396,-0.97268379,0.17946309,0
4.2194948,-0.69397318,-2.7256708,0.84596753,0.029828615,-0.53239977,0
-4.1725135,-1.6652132,2.6681437,-0.84596753,-0.029828615,0.53239977,0
0.21275759,0.34585667,1.5851802,0.51250327,0.23021024,0.82725072,0
-2.1656518,1.6278137,2.2412245,-0.1472396,0.97268379,-0.17946309,0
-3.5082169,0.76853287,3.7727971,0.51250327,0.23021024,0.82725072,0
5.1983299,-0.97130561,-1.1858673,0.84596753,0.029828615,-0.53239977,0
3.4135652,1.1928596,-3.9005551,0.84596753,0.029828615,-0.53239977,0
1.9233745,-1.57749,-1.7696981,0.1472396,-0.97268379,0.17946309,0
2.0000322,-1.1942255,-2.7199743,-0.51250327,-0.23021024,-0.82725072,0
1.622952,1.7037373,-0.45561182,-0.1472396,0.97268379,-0.17946309,0
-4.4723492,0.67062628,0.77087736,-0.51250327,-0.23021024,-0.82725072,0
-0.3814781,-1.6517173,-0.28100219,0.1472396,-0.97268379,0.17946309,0
-3.3906319,-1.2397095,3.9343715,-0.84596753,-0.029828615,0.53239977,0
4.1277227,-0.96834743,-2.8868656,0.84596753,0.029828615,-0.53239977,0
-2.2986174,0.84257209,3.0028152,0.51250327,0.23021024,0.82725072,0
4.8128271,1.549448,-1.6571903,0.84596753,0.029828615,-0.53239977,0
3.7647736,0.76979697,-3.366199,0.84596753,0.029828615,-0.53239977,0
0.24919581,1.1564982,1.3370178,0.51250327,0.23021024,0.82725072,0
-4.8738523,0.25966513,1.6615825,-0.84596753,-0.029828615,0.53239977,0
-2.8376627,-0.64336598,3.7502794,0.51250327,0.23021024,0.82725072,0
-4.7796278,0.64001071,1.8326116,-0.84596753,-0.029828615,0.53239977,0
-0.11455142,0.45722792,1.7569641,0.51250327,0.23021024,0.82725072,0
-1.1528614,-1.4060985,1.6831213,0.1472396,-0.97268379,0.17946309,0
-4.4709759,-0.7045598,2.2477183,-0.84596753,-0.029828615,0.53239977,0
2.9339905,1.3455747,-3.472476,-0.1472396,0.97268379,-0.17946309,0
4.1060352,1.9276302,-1.2793546,-0.1472396,0.97268379,-0.17946309,0
-1.826544,-1.3114281,2.7489505,0.1472396,-0.97268379,0.17946309,0
-1.402632,-1.0763073,-0.6447497,-0.51250327,-0.23021024,-0.82725072,0
-4.3733859,-0.39420283,2.4201736,-0.84596753,-0.029828615,0.53239977,0
4.7006745,0.82307673,-1.8760939,0.84596753,0.029828615,-0.53239977,0
0.19830251,-1.7028553,-1.4622124,-0.51250327,-0.23021024,-0.82725072,0
-4.920846,0.97160923,1.6267991,-0.84596753,-0.029828615,0.53239977,0
-3.5750771,-0.47849047,3.6839423,-0.84596753,-0.029828615,0.53239977,0
-4.4111238,1.3214272,2.4563303,-0.84596753,-0.029828615,0.53239977,0
-2.4105182,1.6243352,2.854589,0.51250327,0.23021024,0.82725072,0
-2.9510243,1.4738971,2.0513587,-0.1472396,0.97268379,-0.17946309,0
3.3655105,-0.076793432,-3.8768859,-0.51250327,-0.23021024,-0.82725072,0
4.2948494,-0.54606307,-2.5976462,0.84596753,0.029828615,-0.53239977,0
4.7490921,1.5590572,-1.757925,0.84596753,0.029828615,-0.53239977,0
4.7345881,-1.0929135,-1.9295521,0.84596753,0.029828615,-0.53239977,0
3.0005841,-0.20637074,-3.6147466,-0.51250327,-0.23021024,-0.82725072,0
-2.9700031,-1.5902905,2.1756713,0.1472396,-0.97268379,0.17946309,0
3.5826733,-1.1929833,-3.700808,-0.51250327,-0.23021024,-0.82725072,0
0.4363226,-1.4382943,0.20478253,0.1472396,-0.97268379,0.17946309,0
4.7789474,0.24770071,-1.7839575,0.84596753,0.029828615,-0.53239977,0
-4.9622903,0.38776278,1.528234,-0.84596753,-0.029828615,0.53239977,0
1.4150186,-1.554003,-1.22532,0.1472396,-0.97268379,0.17946309,0
4.3253155,1.2646867,-2.4477863,0.84596753,0.029828615,-0.53239977,0
3.9768875,1.2758515,-3.000803,0.84596753,0.029828615,-0.53239977,0
1.8569959,-1.1228579,-2.6512201,-0.51250327,-0.23021024,-0.82725072,0
-0.98596954,0.29811031,2.3411105,0.51250327,0.23021024,0.82725072,0
3.1217442,-0.40176386,-0.0089621544,0.51250327,0.23021024,0.82725072,0
0.067097425,1.2220337,-1.7899358,-0.1472396,0.97268379,-0.17946309,0
-4.9482026,0.69605541,1.5678911,-0.84596753,-0.029828615,0.53239977,0
-4.5283036,-1.7440393,2.0983872,-0.84596753,-0.029828615,0.53239977,0
-4.4538078,-0.037923932,0.95656872,-0.51250327,-0.23021024,-0.82725072,0
-1.1615403,1.5379815,0.93052018,-0.1472396,0.97268379,-0.17946309,0
-3.1017227,-1.2628576,4.0584159,0.1472396,-0.97268379,0.17946309,0
-1.200902,1.1322941,-1.2359979,-0.1472396,0.97268379,-0.17946309,0
-2.6586187,1.1897358,0.27131033,-0.1472396,0.97268379,-0.17946309,0
2.8970735,0.84794986,-0.21754766,0.51250327,0.23021024,0.82725072,0
-4.3000379,-0.31199187,2.5413299,-0.84596753,-0.029828615,0.53239977,0
1.7654836,-1.3037546,-0.15652096,0.1472396,-0.97268379,0.17946309,0
2.8388608,1.8030957,-0.91467834,-0.1472396,0.97268379,-0.17946309,0
4.5977192,-1.1361457,-2.1494546,0.84596753,0.029828615,-0.53239977,0
-1.1785165,1.6718764,1.670154,-0.1472396,0.97268379,-0.17946309,0
3.3501744,0.11788344,-3.9215608,-0.51250327,-0.23021024,-0.82725072,0
4.5609021,-1.2132261,-2.2122765,0.84596753,0.029828615,-0.53239977,0
-4.5966721,-1.7013975,1.5079937,-0.51250327,-0.23021024,-0.82725072,0
3.8963799,0.81679893,-3.1544461,0.84596753,0.029828615,-0.53239977,0
0.70397675,1.5524778,-0.52146506,-0.1472396,0.97268379,-0.17946309,0
-4.8747997,0.60835421,1.0375357,-0.51250327,-0.23021024,-0.82725072,0
0.82461154,-0.051215678,-2.3098512,-0.51250327,-0.23021024,-0.82725072,0
0.4781394,-1.5665141,-0.5244717,0.1472396,-0.97268379,0.17946309,0
-3.2648017,1.2499057,1.0947702,-0.1472396,0.97268379,-0.17946309,0
-3.7871008,-1.7072592,2.2120891,0.1472396,-0.97268379,0.17946309,0
-0.37557539,-1.5461544,0.28630269,0.1472396,-0.97268379,0.17946309,0
-3.9524419,1.4576586,3.1927958,-0.84596753,-0.029828615,0.53239977,0
4.3885636,1.1895126,-1.2366161,0.51250327,0.23021024,0.82725072,0
-2.6174381,0.58102119,-0.35335267,-0.51250327,-0.23021024,-0.82725072,0
-4.3130407,-1.4166495,2.458777,-0.84596753,-0.029828615,0.53239977,0
-4.2030611,-1.7663872,2.2328906,0.1472396,-0.97268379,0.17946309,0
-3.8970087,0.18988238,3.2098484,-0.84596753,-0.029828615,0.53239977,0
2.9396462,-1.1343435,-0.2016542,0.1472396,-0.97268379,0.17946309,0
-3.2082438,1.5314887,2.5745368,-0.1472396,0.97268379,-0.17946309,0
-0.57596266,1.5512885,0.52220863,-0.1472396,0.97268379,-0.17946309,0
3.527,-1.109339,-0.54802132,0.1472396,-0.97268379,0.17946309,0
-4.8431878,-0.86500078,1.6472955,-0.84596753,-0.029828615,0.53239977,0
3.1792221,-1.520474,-2.4910269,0.1472396,-0.97268379,0.17946309,0
-2.986073,0.37608555,3.558527,0.51250327,0.23021024,0.82725072,0
0.022105098,-0.81609535,2.0266466,0.51250327,0.23021024,0.82725072,0
2.1688874,-1.1221452,0.49682391,0.1472396,-0.97268379,0.17946309,0
0.023723841,-1.154079,2.083734,0.1472396,-0.97268379,0.17946309,0
-3.9550834,0.76221716,3.1496348,-0.84596753,-0.029828615,0.53239977,0
-4.4359188,-1.8928779,1.7383618,0.1472396,-0.97268379,0.17946309,0
-4.0369954,-0.65834206,2.9398904,-0.84596753,-0.029828615,0.53239977,0
1.0877584,1.4670467,0.73108572,0.51250327,0.23021024,0.82725072,0
0.19398344,1.2323245,-1.8382633,-0.1472396,0.97268379,-0.17946309,0
2.0985527,0.79857826,-3.3355749,-0.51250327,-0.23021024,-0.82725072,0
-2.0564656,-1.7882159,0.35341561,0.1472396,-0.97268379,0.17946309,0
3.8962128,0.96912205,-3.1461763,0.84596753,0.029828615,-0.53239977,0
-4.0527039,-0.55097657,0.8508482,-0.51250327,-0.23021024,-0.82725072,0
-2.8389657,-1.4338139,2.9162598,0.1472396,-0.97268379,0.17946309,0
-4.3407621,-1.2948197,2.4215541,-0.84596753,-0.029828615,0.53239977,0
-3.73245,-1.2593368,3.390132,-0.84596753,-0.029828615,0.53239977,0
-0.92768884,0.61605287,-1.4099454,-0.51250327,-0.23021024,-0.82725072,0
0.57133448,-1.7214061,-1.4404438,0.1472396,-0.97268379,0.17946309,0
2.933217,-0.43049282,0.11582971,0.51250327,0.23021024,0.82725072,0
2.5059533,1.3349265,-3.1790087,-0.1472396,0.97268379,-0.17946309,0
4.2695961,-1.3707283,-2.5740018,0.1472396,-0.97268379,0.17946309,0
-0.25674498,-0.37725329,2.0772789,0.51250327,0.23021024,0.82725072,0
-4.138845,-1.3461155,2.7395215,-0.84596753,-0.029828615,0.53239977,0
1.5968046,-1.2133211,0.47201836,0.1472396,-0.97268379,0.17946309,0
4.5168724,-1.0718752,-2.2743192,0.84596753,0.029828615,-0.53239977,0
1.0054681,1.5416015,-0.82777226,-0.1472396,0.97268379,-0.17946309,0
3.3802726,0.17949182,-0.3308816,0.51250327,0.23021024,0.82725072,0
2.2957306,0.33419627,-3.3285019,-0.51250327,-0.23021024,-0.82725072,0
-4.034935,-0.56922436,2.9481568,-0.84596753,-0.029828615,0.53239977,0
-4.131886,-1.0924875,2.7647872,-0.84596753,-0.029828615,0.53239977,0
-1.6272464,1.0737215,2.522558,0.51250327,0.23021024,0.82725072,0
4.6049981,1.1406323,-1.3571,0.51250327,0.23021024,0.82725072,0
-4.2450094,0.12361421,2.653172,-0.84596753,-0.029828615,0.53239977,0
-2.9742126,-1.4997685,0.44672799,-0.51250327,-0.23021024,-0.82725072,0
-4.384284,-1.0985311,2.3633966,-0.84596753,-0.029828615,0.53239977,0
-4.111917,0.38942444,2.8795452,-0.84596753,-0.029828615,0.53239977,0
4.4181094,-1.0867417,-1.1566525,0.1472396,-0.97268379,0.17946309,0
4.2395849,0.97221673,-2.6003957,0.84596753,0.029828615,-0.53239977,0
5.0327816,-0.47894132,-1.4213333,0.84596753,0.029828615,-0.53239977,0
-2.7572114,0.98962772,-0.38046789,-0.51250327,-0.23021024,-0.82725072,0
0.65094137,1.805584,0.89387399,-0.1472396,0.97268379,-0.17946309,0
3.4096828,-0.92740631,-0.041070223,0.51250327,0.23021024,0.82725072,0
-0.97895277,0.86607927,2.1787064,0.51250327,0.23021024,0.82725072,0
4.1375732,1.1336726,-2.7534442,0.84596753,0.029828615,-0.53239977,0
-0.064129978,-1.5492635,0.013927046,0.1472396,-0.97268379,0.17946309,0
-4.0578003,1.0988221,0.92651391,-0.1472396,0.97268379,-0.17946309,0
3.7781641,1.6337081,-2.6034007,-0.1472396,0.97268379,-0.17946309,0
1.2650132,-0.40976423,1.1435573,0.51250327,0.23021024,0.82725072,0
4.7515283,0.45828202,-1.8157272,0.84596753,0.029828615,-0.53239977,0
4.3698974,0.2212514,-2.4354076,0.84596753,0.029828615,-0.53239977,0
-0.80881226,1.2184095,-1.090943,-0.1472396,0.97268379,-0.17946309,0
4.9009237,0.57875454,-1.5715923,0.84596753,0.029828615,-0.53239977,0
2.7420969,-1.2381922,-0.60243297,0.1472396,-0.97268379,0.17946309,0
-0.79976153,-0.81484687,2.5354671,0.51250327,0.23021024,0.82725072,0
2.0944571,1.0783482,0.21557808,0.51250327,0.23021024,0.82725072,0
4.2736964,-0.81445616,-2.6462941,0.84596753,0.029828615,-0.53239977,0
4.8695688,0.84651947,-1.6064119,0.84596753,0.029828615,-0.53239977,0
3.9164815,1.1559087,-3.1035061,0.84596753,0.029828615,-0.53239977,0
3.0926409,1.0013222,-4.0078578,-0.51250327,-0.23021024,-0.82725072,0
-0.13735199,-0.58720177,-1.5647336,-0.51250327,-0.23021024,-0.82725072,0
1.078032,0.064018071,-2.4989192,-0.51250327,-0.23021024,-0.82725072,0
-3.8642566,-0.52321315,3.2219372,-0.84596753,-0.029828615,0.53239977,0
-1.6593032,-1.2025528,-0.45060319,-0.51250327,-0.23021024,-0.82725072,0
-4.8314314,0.3390218,1.7334332,-0.84596753,-0.029828615,0.53239977,0
-0.46772254,-1.0579941,-1.2290467,-0.51250327,-0.23021024,-0.82725072,0
-3.5594716,-1.2834375,3.6636391,-0.84596753,-0.029828615,0.53239977,0
4.4833093,-0.9068712,-0.71192455,0.51250327,0.23021024,0.82725072,0
-0.95965898,1.4508219,2.0040293,0.51250327,0.23021024,0.82725072,0
0.078029871,-0.49516964,1.9026914,0.51250327,0.23021024,0.82725072,0
5.0599546,-1.014735,-1.2929769,0.1472396,-0.97268379,0.17946309,0
-4.163115,0.26561105,2.791256,-0.84596753,-0.029828615,0.53239977,0
-3.1219492,-1.4362305,3.1353335,0.1472396,-0.97268379,0.17946309,0
2.4342039,1.4393903,-2.5539508,-0.1472396,0.97268379,-0.17946309,0
-3.9586518,1.4439683,2.715848,-0.1472396,0.97268379,-0.17946309,0
2.9937396,0.89393884,-0.29023314,0.51250327,0.23021024,0.82725072,0
-0.060896754,-0.80427957,-1.5516903,-0.51250327,-0.23021024,-0.82725072,0
4.7204175,0.22444625,-1.8782616,0.84596753,0.029828615,-0.53239977,0
1.9469055,0.92992353,0.34829414,0.51250327,0.23021024,0.82725072,0
-3.5611515,0.37831658,3.7540731,-0.84596753,-0.029828615,0.53239977,0
-0.87267435,-1.4499731,1.2154441,0.1472396,-0.97268379,0.17946309,0
4.3147888,-1.1468478,-1.397656,0.1472396,-0.97268379,0.17946309,0
2.1753592,-0.12443361,0.50017142,0.51250327,0.23021024,0.82725072,0
4.7169266,1.1795582,-1.4372749,0.51250327,0.23021024,0.82725072,0
3.8852015,-0.51209664,-3.2466621,0.84596753,0.029828615,-0.53239977,0
-3.4634423,0.33721977,3.8650856,0.51250327,0.23021024,0.82725072,0
2.0494363,1.278384,0.18780291,0.51250327,0.23021024,0.82725072,0
0.16999459,1.7295157,0.87617671,-0.1472396,0.97268379,-0.17946309,0
4.3936477,-0.67411423,-2.4478331,0.84596753,0.029828615,-0.53239977,0
1.7798791,1.5046351,-1.6634891,-0.1472396,0.97268379,-0.17946309,0
-3.846334,0.58896577,3.3127279,-0.84596753,-0.029828615,0.53239977,0
-4.9737029,0.81897008,1.5342588,-0.84596753,-0.029828615,0.53239977,0
2.947515,-1.1417844,-0.2484405,0.1472396,-0.97268379,0.17946309,0
-4.2513347,1.3300843,2.7107158,-0.84596753,-0.029828615,0.53239977,0
-1.4466937,1.014325,2.4272301,0.51250327,0.23021024,0.82725072,0
4.9226546,-0.17324969,-1.579195,0.84596753,0.029828615,-0.53239977,0
-4.3442907,-1.4491333,2.4073019,-0.84596753,-0.029828615,0.53239977,0
2.4909337,-1.5038645,-1.8363006,0.1472396,-0.97268379,0.17946309,0
-2.0731263,-1.3994163,-0.13944495,-0.51250327,-0.23021024,-0.82725072,0
3.0044298,1.7958034,-0.54782987,0.51250327,0.23021024,0.82725072,0
4.4978261,-0.011841208,-2.2451911,0.84596753,0.029828615,-0.53239977,0
1.2011672,-0.63208622,-2.3814907,-0.51250327,-0.23021024,-0.82725072,0
4.3093948,-0.045529269,-2.5464911,0.84596753,0.029828615,-0.53239977,0
-3.4026284,1.0901098,0.34176064,-0.1472396,0.97268379,-0.17946309,0
4.4224448,0.41476792,-2.3410692,0.84596753,0.029828615,-0.53239977,0
-1.0816909,1.6510781,1.4779874,-0.1472396,0.97268379,-0.17946309,0
0.26484859,0.9837538,-2.2510784,-0.51250327,-0.23021024,-0.82725072,0
4.2483091,1.8943913,-1.5762348,-0.1472396,0.97268379,-0.17946309,0
4.0307884,-0.85215056,-3.03438,0.84596753,0.029828615,-0.53239977,0
3.4850044,0.66332561,-0.53040838,0.51250327,0.23021024,0.82725072,0
-0.74471205,1.31686,-0.60993499,-0.1472396,0.97268379,-0.17946309,0
-3.6400542,1.3419454,1.9014955,-0.1472396,0.97268379,-0.17946309,0
0.41849983,-1.1466804,-1.7534046,-0.51250327,-0.23021024,-0.82725072,0
2.6035888,-1.1659005,-0.096976042,0.1472396,-0.97268379,0.17946309,0
4.7722926,0.81750715,-1.7626071,0.84596753,0.029828615,-0.53239977,0
-3.3246198,0.42478848,0.12824178,-0.51250327,-0.23021024,-0.82725072,0
3.7063808,0.62280905,-3.4672174,0.84596753,0.029828615,-0.53239977,0
-4.9062719,0.45376527,1.6209431,-0.84596753,-0.029828615,0.53239977,0
-0.64481723,-1.4157999,-1.0197606,-0.51250327,-0.23021024,-0.82725072,0
2.9665227,-1.436981,-3.2511849,-0.51250327,-0.23021024,-0.82725072,0
-3.9570217,0.82917106,3.1503062,-0.84596753,-0.029828615,0.53239977,0
1.2493479,1.3109821,-2.2778094,-0.1472396,0.97268379,-0.17946309,0
0.85385197,0.81170762,1.0583669,0.51250327,0.23021024,0.82725072,0
-0.71559823,1.5483068,1.8256989,0.51250327,0.23021024,0.82725072,0
-1.6623886,1.7259889,2.360431,-0.1472396,0.97268379,-0.17946309,0
-4.455081,-0.080840021,2.3079195,-0.84596753,-0.029828615,0.53239977,0
0.56599116,1.2154241,-2.235076,-0.1472396,0.97268379,-0.17946309,0
2.7604852,-1.4182708,-1.5935376,0.1472396,-0.97268379,0.17946309,0
2.0893903,-1.25186,-0.1410017,0.1472396,-0.97268379,0.17946309,0
4.7545609,0.080847234,-1.8320546,0.84596753,0.029828615,-0.53239977,0
-0.36601651,-0.36813235,2.1424375,0.51250327,0.23021024,0.82725072,0
3.6620245,-0.22994918,-3.5854769,0.84596753,0.029828615,-0.53239977,0
2.5073495,-0.53428084,-3.2179224,-0.51250327,-0.23021024,-0.82725072,0
4.3894701,-1.1760669,-1.6172957,0.1472396,-0.97268379,0.17946309,0
3.6835918,1.6256286,-2.5696006,-0.1472396,0.97268379,-0.17946309,0
-0.91106039,-1.3455652,1.8128247,0.1472396,-0.97268379,0.17946309,0
-1.8029966,0.64583814,-0.87595803,-0.51250327,-0.23021024,-0.82725072,0
3.6167178,-0.52527207,-0.28124094,0.51250327,0.23021024,0.82725072,0
-3.8712883,-0.11699635,3.2335243,-0.84596753,-0.029828615,0.53239977,0
-0.63462508,1.4482695,1.8033726,0.51250327,0.23021024,0.82725072,0
-4.547626,1.004003,2.2216496,-0.84596753,-0.029828615,0.53239977,0
-3.6785078,1.022736,3.6037025,-0.84596753,-0.029828615,0.53239977,0
3.2377834,1.2958174,-0.55326056,0.51250327,0.23021024,0.82725072,0
0.70282167,1.8008088,0.82542765,-0.1472396,0.97268379,-0.17946309,0
-4.0428371,-1.8556949,1.6173902,0.1472396,-0.97268379,0.17946309,0
1.8218709,-0.19195466,-2.8885143,-0.51250327,-0.23021024,-0.82725072,0
3.7650549,-1.4674525,-2.6842947,0.1472396,-0.97268379,0.17946309,0
-3.6837287,-0.8014971,3.4932008,-0.84596753,-0.029828615,0.53239977,0
-0.80497426,1.1638896,-1.3895891,-0.1472396,0.97268379,-0.17946309,0
0.016111612,1.0162134,-2.1060123,-0.51250327,-0.23021024,-0.82725072,0
-4.0190573,1.4012005,2.5336075,-0.1472396,0.97268379,-0.17946309,0
-3.9475329,-1.496668,3.0350757,-0.84596753,-0.029828615,0.53239977,0
-3.7003679,0.97229159,0.20866609,-0.51250327,-0.23021024,-0.82725072,0
-3.6654367,-0.05256623,0.47222686,-0.51250327,-0.23021024,-0.82725072,0
4.3915629,0.9150219,-2.3621116,0.84596753,0.029828615,-0.53239977,0
-3.4614902,-0.60312927,3.8574448,-0.84596753,-0.029828615,0.53239977,0
-3.6045582,-1.5904469,2.6954422,0.1472396,-0.97268379,0.17946309,0
2.4504936,1.5410284,-2.0164413,-0.1472396,0.97268379,-0.17946309,0
-4.4034863,-1.4359338,2.313982,-0.84596753,-0.029828615,0.53239977,0
4.0573821,-1.2526209,-1.7597556,0.1472396,-0.97268379,0.17946309,0
1.1279211,0.93729007,0.85362643,0.51250327,0.23021024,0.82725072,0
3.4037092,1.0231905,-3.9257226,0.84596753,0.029828615,-0.53239977,0
-4.151495,1.0377645,0.67245507,-0.1472396,0.97268379,-0.17946309,0
0.58920783,-1.2287326,1.2151668,0.1472396,-0.97268379,0.17946309,0
-4.9254837,0.62734407,1.600141,-0.84596753,-0.029828615,0.53239977,0
-2.8035173,0.15843165,3.5059986,0.51250327,0.23021024,0.82725072,0
4.575036,0.048386008,-2.119133,0.84596753,0.029828615,-0.53239977,0
-3.3983946,1.5621902,2.8969464,-0.1472396,0.97268379,-0.17946309,0
-0.48064125,-0.47145122,2.2422023,0.51250327,0.23021024,0.82725072,0
4.4449511,1.3608795,-1.3192382,0.51250327,0.23021024,0.82725072,0
-2.2556555,-1.7060065,0.96241164,0.1472396,-0.97268379,0.17946309,0
-0.74197996,0.79210353,2.0524821,0.51250327,0.23021024,0.82725072,0
-1.7834215,-0.037966281,-0.69779384,-0.51250327,-0.23021024,-0.82725072,0
4.2867684,1.0235906,-2.5225453,0.84596753,0.029828615,-0.53239977,0
-5.0348887,-0.12292917,1.384264,-0.84596753,-0.029828615,0.53239977,0
3.4187417,1.7060918,-1.916199,-0.1472396,0.97268379,-0.17946309,0
0.013661265,1.2238047,-1.7364948,-0.1472396,0.97268379,-0.17946309,0
-4.1122112,0.10500074,2.8631425,-0.84596753,-0.029828615,0.53239977,0
-3.1436353,-1.5789572,0.57372642,-0.51250327,-0.23021024,-0.82725072,0
-0.2911694,1.5495785,1.5624003,0.51250327,0.23021024,0.82725072,0
0.54436618,1.2917311,-1.8037506,-0.1472396,0.97268379,-0.17946309,0
4.805191,-1.0647852,-1.355227,0.1472396,-0.97268379,0.17946309,0
-4.0821695,0.35811618,2.9250584,-0.84596753,-0.029828615,0.53239977,0
4.2659326,-1.3011278,-2.1937642,0.1472396,-0.97268379,0.17946309,0
5.0483904,-0.99760175,-1.42559,0.84596753,0.029828615,-0.53239977,0
0.6518234,-0.03748858,-2.2066245,-0.51250327,-0.23021024,-0.82725072,0
1.4755225,1.2058194,-3.0333538,-0.1472396,0.97268379,-0.17946309,0
-4.7630424,-0.030192267,1.8214159,-0.84596753,-0.029828615,0.53239977,0
-1.777866,-1.5757838,1.2762148,0.1472396,-0.97268379,0.17946309,0
-5.0526619,-0.062837102,1.3593903,-0.84596753,-0.029828615,0.53239977,0
-4.1519022,-0.2651118,2.7793384,-0.84596753,-0.029828615,0.53239977,0
-0.78477871,-1.6093367,0.27958459,0.1472396,-0.97268379,0.17946309,0
-3.062655,0.4079057,3.5971165,0.51250327,0.23021024,0.82725072,0
-3.5328913,-0.068598926,3.7739391,-0.84596753,-0.029828615,0.53239977,0
0.18901399,-1.3591338,0.83673233,0.1472396,-0.97268379,0.17946309,0
4.7989888,-0.7779994,-1.8095775,0.84596753,0.029828615,-0.53239977,0
3.9001126,-1.1639048,-1.1498854,0.1472396,-0.97268379,0.17946309,0
-4.6396356,0.99460644,2.0749216,-0.84596753,-0.029828615,0.53239977,0
-4.4026217,-0.23051885,2.3828897,-0.84596753,-0.029828615,0.53239977,0
-0.64860237,-0.68571436,-1.2205863,-0.51250327,-0.23021024,-0.82725072,0
-3.1946108,0.95513946,3.5265808,0.51250327,0.23021024,0.82725072,0
-0.89968556,-1.4874376,1.0345471,0.1472396,-0.97268379,0.17946309,0
-3.6898804,-0.83215284,3.481708,-0.84596753,-0.029828615,0.53239977,0
1.9612875,-1.4786042,-1.2648463,0.1472396,-0.97268379,0.17946309,0
-0.032900453,-1.1793236,1.9933684,0.1472396,-0.97268379,0.17946309,0
4.1057878,1.1881981,-2.8008947,0.84596753,0.029828615,-0.53239977,0
4.076292,-1.1579719,-1.2622752,0.1472396,-0.97268379,0.17946309,0
-1.3280445,-1.3299981,2.2393098,0.1472396,-0.97268379,0.17946309,0
0.38354886,0.56763291,-2.208817,-0.51250327,-0.23021024,-0.82725072,0
4.7332048,1.0944828,-1.8091989,0.84596753,0.029828615,-0.53239977,0
4.9100127,0.41195887,-1.5664945,0.84596753,0.029828615,-0.53239977,0
-4.1385722,1.3410312,2.3055487,-0.1472396,0.97268379,-0.17946309,0
4.4206514,-0.69076514,-2.4058585,0.84596753,0.029828615,-0.53239977,0
-3.5193377,-0.72544748,0.56896639,-0.51250327,-0.23021024,-0.82725072,0
-2.5371466,1.0241508,3.1000595,0.51250327,0.23021024,0.82725072,0
1.1722736,-1.5345573,-0.92076755,0.1472396,-0.97268379,0.17946309,0
-0.89466155,-1.6206301,0.30852926,0.1472396,-0.97268379,0.17946309,0
-1.983766,1.2021859,2.7076817,0.51250327,0.23021024,0.82725072,0
-1.8330468,0.74449623,-0.88479602,-0.51250327,-0.23021024,-0.82725072,0
-2.5370741,-0.57726854,-0.080807447,-0.51250327,-0.23021024,-0.82725072,0
-1.5422665,0.24042788,2.7018027,0.51250327,0.23021024,0.82725072,0
4.3484082,-0.60181224,-2.5156665,0.84596753,0.029828615,-0.53239977,0
-3.7624514,0.69397241,3.4518991,-0.84596753,-0.029828615,0.53239977,0
-4.7960548,-1.6293373,1.6793647,-0.84596753,-0.029828615,0.53239977,0
-3.7756541,1.2322221,3.4610758,-0.84596753,-0.029828615,0.53239977,0
3.7110734,0.069382548,-3.4907689,0.84596753,0.029828615,-0.53239977,0
3.0006418,0.13586728,-0.083550215,0.51250327,0.23021024,0.82725072,0
5.0798655,-0.82011378,-1.3656335,0.84596753,0.029828615,-0.53239977,0
4.0658817,1.4802505,-2.8479419,0.84596753,0.029828615,-0.53239977,0
-3.7687237,-0.2756682,3.3876066,-0.84596753,-0.029828615,0.53239977,0
-2.5830207,0.85887051,3.1744745,0.51250327,0.23021024,0.82725072,0
0.49136013,1.3656795,-1.3594658,-0.1472396,0.97268379,-0.17946309,0
-0.99031389,0.015867144,-1.2041256,-0.51250327,-0.23021024,-0.82725072,0
-0.89492244,0.43767697,-1.3806057,-0.51250327,-0.23021024,-0.82725072,0
-4.6435714,-0.032810897,2.0111055,-0.84596753,-0.029828615,0.53239977,0
0.31447709,1.4201903,-0.9188956,-0.1472396,0.97268379,-0.17946309,0
-3.400907,1.1581929,0.70935607,-0.1472396,0.97268379,-0.17946309,0
-3.7041504,1.2730182,1.5804987,-0.1472396,0.97268379,-0.17946309,0
0.45174623,-1.1517045,-1.7726035,-0.51250327,-0.23021024,-0.82725072,0
-0.96947777,1.4788582,0.45249665,-0.1472396,0.97268379,-0.17946309,0
2.3800204,-0.019380599,0.34414399,0.51250327,0.23021024,0.82725072,0
5.1275339,-0.99597049,-1.2997422,0.84596753,0.029828615,-0.53239977,0
-0.10647237,-1.1545044,2.1882463,0.1472396,-0.97268379,0.17946309,0
4.0429406,-0.25464541,-2.9815955,0.84596753,0.029828615,-0.53239977,0
3.4236133,-1.2858695,-1.4199889,0.1472396,-0.97268379,0.17946309,0
-0.96665835,-1.0727639,2.710638,0.51250327,0.23021024,0.82725072,0
0.67471534,-0.48306942,1.5296618,0.51250327,0.23021024,0.82725072,0
2.3404493,0.17895526,-3.3130054,-0.51250327,-0.23021024,-0.82725072,0
0.78578162,-1.374778,-1.9174697,-0.51250327,-0.23021024,-0.82725072,0
-3.023829,-0.21886826,0.12101316,-0.51250327,-0.23021024,-0.82725072,0
4.5472426,-0.89497072,-2.2161493,0.84596753,0.029828615,-0.53239977,0
3.6595495,-0.66558236,-0.26873016,0.51250327,0.23021024,0.82725072,0
3.5869823,-0.37568408,-0.30444694,0.51250327,0.23021024,0.82725072,0
-2.1941891,1.2373083,2.8282704,0.51250327,0.23021024,0.82725072,0
2.783134,1.7654654,-0.40228891,0.51250327,0.23021024,0.82725072,0
1.8491638,-1.5142941,-1.3662908,0.1472396,-0.97268379,0.17946309,0
-0.21270037,-1.6744461,-0.54266393,0.1472396,-0.97268379,0.17946309,0
-4.4899216,-1.4021159,2.1785321,-0.84596753,-0.029828615,0.53239977,0
-4.3217163,-0.92018032,2.4728069,-0.84596753,-0.029828615,0.53239977,0
-3.7666116,0.57872629,0.35922861,-0.51250327,-0.23021024,-0.82725072,0
2.1571951,-1.5032003,-1.5588868,0.1472396,-0.97268379,0.17946309,0
1.8148785,1.3192165,0.3217544,0.51250327,0.23021024,0.82725072,0
-4.9805732,-0.2369884,1.4641795,-0.84596753,-0.029828615,0.53239977,0
1.3420886,1.0699848,0.68401736,0.51250327,0.23021024,0.82725072,0
3.6490531,-0.48704898,-3.6204915,0.84596753,0.029828615,-0.53239977,0
-3.6083508,-1.2517334,3.5877485,-0.84596753,-0.029828615,0.53239977,0
-3.803535,-1.14679,0.86228633,-0.51250327,-0.23021024,-0.82725072,0
-0.60323608,1.2626443,1.8355826,0.51250327,0.23021024,0.82725072,0
2.1184254,-1.4049635,-0.99463964,0.1472396,-0.97268379,0.17946309,0
3.3379891,-1.3788526,-1.853703,0.1472396,-0.97268379,0.17946309,0
-1.694492,-0.22216725,2.9248428,0.51250327,0.23021024,0.82725072,0
4.5695448,0.67301476,-2.0928631,0.84596753,0.029828615,-0.53239977,0
-1.4085778,-0.86195594,-0.7007165,-0.51250327,-0.23021024,-0.82725072,0
0.67135513,-0.0017655492,-2.2286661,-0.51250327,-0.23021024,-0.82725072,0
1.6965832,1.3990169,-2.1675966,-0.1472396,0.97268379,-0.17946309,0
-3.503592,0.052609414,3.8272858,-0.84596753,-0.029828615,0.53239977,0
-2.3455272,1.2866985,0.53997183,-0.1472396,0.97268379,-0.17946309,0
0.20913088,1.0915523,1.3799124,0.51250327,0.23021024,0.82725072,0
3.0648773,-1.6635352,-3.2490726,-0.51250327,-0.23021024,-0.82725072,0
-1.7852033,-0.34042162,-0.61252153,-0.51250327,-0.23021024,-0.82725072,0
-4.1856384,-1.8430232,1.8032312,0.1472396,-0.97268379,0.17946309,0
4.4489036,-0.68608755,-2.3607044,0.84596753,0.029828615,-0.53239977,0
-0.98981369,-0.6828531,-1.0099931,-0.51250327,-0.23021024,-0.82725072,0
2.1642857,0.96566999,-3.4227972,-0.51250327,-0.23021024,-0.82725072,0
-2.199553,1.2831154,2.8188462,0.51250327,0.23021024,0.82725072,0
-3.7691092,-1.3938553,0.90971303,-0.51250327,-0.23021024,-0.82725072,0
4.1289754,0.18021417,-2.8205242,0.84596753,0.029828615,-0.53239977,0
0.90819287,0.62198937,-2.5489738,-0.51250327,-0.23021024,-0.82725072,0
-4.4532399,-0.90338343,2.2647614,-0.84596753,-0.029828615,0.53239977,0
-3.3675992,1.110299,0.42244506,-0.1472396,0.97268379,-0.17946309,0
4.6732578,0.85725498,-1.9177437,0.84596753,0.029828615,-0.53239977,0
-3.680244,-1.1273822,3.4804788,-0.84596753,-0.029828615,0.53239977,0
-0.88982844,1.1392391,-1.4535747,-0.1472396,0.97268379,-0.17946309,0
0.94268572,1.6529353,-0.17283648,-0.1472396,0.97268379,-0.17946309,0
1.2147931,1.2686394,-2.4789553,-0.1472396,0.97268379,-0.17946309,0
-0.36568785,0.35685694,-1.6859896,-0.51250327,-0.23021024,-0.82725072,0
-4.7887325,-1.8060603,1.6561065,-0.51250327,-0.23021024,-0.82725072,0
-1.7557843,-1.2675331,2.9288054,0.1472396,-0.97268379,0.17946309,0
-0.61660433,1.3296727,-0.64559633,-0.1472396,0.97268379,-0.17946309,0
0.25162351,-0.76182395,-1.7571197,-0.51250327,-0.23021024,-0.82725072,0
-4.4521489,-0.086576685,2.3122578,-0.84596753,-0.029828615,0.53239977,0
-3.5339746,0.63989979,0.19808078,-0.51250327,-0.23021024,-0.82725072,0
-2.9939809,-0.98426586,0.31551909,-0.51250327,-0.23021024,-0.82725072,0
4.8180113,-0.15491551,-1.1285381,0.51250327,0.23021024,0.82725072,0
-4.2339935,1.1313645,2.727139,-0.84596753,-0.029828615,0.53239977,0
4.4413652,0.69913775,-2.295073,0.84596753,0.029828615,-0.53239977,0
-0.72817743,-0.79901731,2.4867134,0.51250327,0.23021024,0.82725072,0
-3.170269,-0.54773754,0.30325556,-0.51250327,-0.23021024,-0.82725072,0
1.2320547,-0.87804973,1.2942921,0.51250327,0.23021024,0.82725072,0
-5.1140471,0.42931467,1.2894239,-0.84596753,-0.029828615,0.53239977,0
-0.038737655,1.3401018,-1.0631793,-0.1472396,0.97268379,-0.17946309,0
2.0296595,1.8107264,-0.20941532,-0.1472396,0.97268379,-0.17946309,0
-0.2761234,0.46706378,1.8543249,0.51250327,0.23021024,0.82725072,0
4.005517,1.2996588,-2.9539771,0.84596753,0.029828615,-0.53239977,0
2.3967047,1.614761,-0.12094712,0.51250327,0.23021024,0.82725072,0
-1.6947354,-0.21006645,-0.70484447,-0.51250327,-0.23021024,-0.82725072,0
-4.5508037,0.43714309,2.1848407,-0.84596753,-0.029828615,0.53239977,0
2.0208552,1.3953356,-2.4535961,-0.1472396,0.97268379,-0.17946309,0
1.1118994,0.059460402,-2.5186327,-0.51250327,-0.23021024,-0.82725072,0
3.0156288,-1.055192,0.16500497,0.1472396,-0.97268379,0.17946309,0
-3.2081385,1.1223191,3.4884381,0.51250327,0.23021024,0.82725072,0
4.9314761,-0.51373047,-1.0989804,0.51250327,0.23021024,0.82725072,0
-0.60342336,1.5669525,0.62963688,-0.1472396,0.97268379,-0.17946309,0
2.6441259,-1.0043976,-3.171833,-0.51250327,-0.23021024,-0.82725072,0
4.2825809,1.8137047,-2.0416718,-0.1472396,0.97268379,-0.17946309,0
0.21113992,-1.1803437,1.7876151,0.1472396,-0.97268379,0.17946309,0
-4.2254338,-1.0127625,2.6206107,-0.84596753,-0.029828615,0.53239977,0
-4.4421477,1.1264689,1.3916941,-0.1472396,0.97268379,-0.17946309,0
3.7621791,0.13198239,-3.406054,0.84596753,0.029828615,-0.53239977,0
-3.8839111,0.26240814,3.2347231,-0.84596753,-0.029828615,0.53239977,0
1.0650302,-1.4480113,-0.36370361,0.1472396,-0.97268379,0.17946309,0
-0.27668744,1.616029,0.62756222,-0.1472396,0.97268379,-0.17946309,0
-2.9425471,1.5013528,2.1932113,-0.1472396,0.97268379,-0.17946309,0
2.9723408,-1.6394135,-2.9659395,0.1472396,-0.97268379,0.17946309,0
1.0311061,-0.30951342,-2.3658998,-0.51250327,-0.23021024,-0.82725072,0
4.5558572,-0.17404786,-2.1620698,0.84596753,0.029828615,-0.53239977,0
-4.4975557,0.33992362,0.8785224,-0.51250327,-0.23021024,-0.82725072,0
-1.2524545,1.6233214,2.1374202,0.51250327,0.23021024,0.82725072,0
-3.9778252,-0.031921744,3.069006,-0.84596753,-0.029828615,0.53239977,0
3.3753371,0.55279326,-3.997159,0.84596753,0.029828615,-0.53239977,0
-4.7293134,-1.0524323,1.8177371,-0.84596753,-0.029828615,0.53239977,0
-0.87203258,1.2798265,-0.70619535,-0.1472396,0.97268379,-0.17946309,0
-3.4911823,-0.061750367,0.36682701,-0.51250327,-0.23021024,-0.82725072,0
-2.7119184,-1.6073428,0.31416583,-0.51250327,-0.23021024,-0.82725072,0
4.0866604,-0.72074151,-2.9382391,0.84596753,0.029828615,-0.53239977,0
0.25693321,-0.36152506,1.7546649,0.51250327,0.23021024,0.82725072,0
-4.0777774,-0.54469812,2.8814549,-0.84596753,-0.029828615,0.53239977,0
0.84715593,1.2772683,-2.1305609,-0.1472396,0.97268379,-0.17946309,0
4.6382408,0.79012924,-1.9771452,0.84596753,0.029828615,-0.53239977,0
4.7850823,0.80365157,-1.7430606,0.84596753,0.029828615,-0.53239977,0
-0.069697887,-1.5284883,0.13109624,0.1472396,-0.97268379,0.17946309,0
2.7833581,0.35600835,-0.010198832,0.51250327,0.23021024,0.82725072,0
-3.740376,-1.8646013,1.320966,0.1472396,-0.97268379,0.17946309,0
-3.4516191,-1.4086714,3.5551801,0.1472396,-0.97268379,0.17946309,0
-2.1116147,-0.062505722,-0.48764062,-0.51250327,-0.23021024,-0.82725072,0
-2.6775901,-0.37639374,3.5768161,0.51250327,0.23021024,0.82725072,0
4.5559206,-0.1346776,-2.1597629,0.84596753,0.029828615,-0.53239977,0
4.688437,-0.55893487,-1.9729686,0.84596753,0.029828615,-0.53239977,0
3.5683098,-0.46311331,-3.7474484,0.84596753,0.029828615,-0.53239977,0
4.7925158,0.40317738,-1.7536869,0.84596753,0.029828615,-0.53239977,0
3.8929813,1.8833359,-1.3446279,-0.1472396,0.97268379,-0.17946309,0
4.5502782,0.52024668,-2.1320353,0.84596753,0.029828615,-0.53239977,0
1.0627635,-1.0746464,1.453882,0.51250327,0.23021024,0.82725072,0
-4.4282951,0.41029367,2.3779984,-0.84596753,-0.029828615,0.53239977,0
2.1193738,1.499143,0.083041072,0.51250327,0.23021024,0.82725072,0
-4.1679144,0.24039057,2.782218,-0.84596753,-0.029828615,0.53239977,0
-3.005765,0.35433829,3.5767784,0.51250327,0.23021024,0.82725072,0
3.2434697,-1.0480272,0.016906023,0.1472396,-0.97268379,0.17946309,0
3.8967912,-0.96984452,-3.2538924,0.84596753,0.029828615,-0.53239977,0
2.1236026,-1.2246238,-0.021452665,0.1472396,-0.97268379,0.17946309,0
0.30114102,-0.89954388,-1.7494719,-0.51250327,-0.23021024,-0.82725072,0
-4.8774571,0.042099029,1.6436639,-0.84596753,-0.029828615,0.53239977,0
-1.5286953,-1.6596109,0.61744297,0.1472396,-0.97268379,0.17946309,0
4.4199982,-0.58683717,-2.4010749,0.84596753,0.029828615,-0.53239977,0
2.646008,-1.1891648,-3.1215818,-0.51250327,-0.23021024,-0.82725072,0
-0.18338764,-1.5009253,0.37376347,0.1472396,-0.97268379,0.17946309,0
2.5664444,0.75104845,-3.6122193,-0.51250327,-0.23021024,-0.82725072,0
4.4239988,-0.97907484,-2.4166923,0.84596753,0.029828615,-0.53239977,0
4.2850475,1.4703133,-2.5002508,0.84596753,0.029828615,-0.53239977,0
2.9984164,-1.4261922,-1.831681,0.1472396,-0.97268379,0.17946309,0
0.84747648,-1.3480991,0.35630834,0.1472396,-0.97268379,0.17946309,0
4.7485833,-0.15367609,-1.8546925,0.84596753,0.029828615,-0.53239977,0
3.849086,-1.4179531,-2.4849539,0.1472396,-0.97268379,0.17946309,0
4.1511388,0.10865521,-2.7893167,0.84596753,0.029828615,-0.53239977,0
-0.71466208,-1.2851467,1.9791565,0.1472396,-0.97268379,0.17946309,0
2.7921457,1.807799,-0.85086131,-0.1472396,0.97268379,-0.17946309,0
2.986659,0.31199783,-3.7503729,-0.51250327,-0.23021024,-0.82725072,0
-3.7561755,0.16490832,3.4322286,-0.84596753,-0.029828615,0.53239977,0
3.4238243,0.96226442,-3.8971739,0.84596753,0.029828615,-0.53239977,0
3.7190342,-0.1445653,-3.4901056,0.84596753,0.029828615,-0.53239977,0
-3.7391999,1.1302156,3.5132861,-0.84596753,-0.029828615,0.53239977,0
4.1011786,-1.3054457,-2.9479303,0.84596753,0.029828615,-0.53239977,0
-5.0761237,0.057485074,1.3288517,-0.84596753,-0.029828615,0.53239977,0
1.2336586,1.0377028,-2.8662946,-0.51250327,-0.23021024,-0.82725072,0
0.11251497,-1.3854955,-1.4973807,-0.51250327,-0.23021024,-0.82725072,0
4.3135934,0.29210129,-2.5209031,0.84596753,0.029828615,-0.53239977,0
2.9944692,-1.2191054,-0.70604134,0.1472396,-0.97268379,0.17946309,0
0.24675095,-1.1723371,-1.6398619,-0.51250327,-0.23021024,-0.82725072,0
1.7681431,1.6913929,-0.64163983,-0.1472396,0.97268379,-0.17946309,0
4.8455839,-0.66700888,-1.729322,0.84596753,0.029828615,-0.53239977,0
1.5776793,-0.82436025,-2.5612431,-0.51250327,-0.23021024,-0.82725072,0
3.4673557,1.1937147,-3.8150368,0.84596753,0.029828615,-0.53239977,0
-4.817903,0.96235067,1.7898536,-0.84596753,-0.029828615,0.53239977,0
-4.6930599,0.85440564,1.9821773,-0.84596753,-0.029828615,0.53239977,0
-3.4380167,-1.2780977,3.8569269,-0.84596753,-0.029828615,0.53239977,0
1.2339538,-0.4485606,1.1735958,0.51250327,0.23021024,0.82725072,0
4.0658345,0.81131756,-2.8854947,0.84596753,0.029828615,-0.53239977,0
-4.6848688,0.69183922,0.89663553,-0.51250327,-0.23021024,-0.82725072,0
-4.5450025,-1.2659208,2.0986414,-0.84596753,-0.029828615,0.53239977,0
-4.2819233,-0.5236693,2.5582523,-0.84596753,-0.029828615,0.53239977,0
-4.8037119,0.20338979,1.7698803,-0.84596753,-0.029828615,0.53239977,0
-1.3878881,1.158519,-0.94044751,-0.1472396,0.97268379,-0.17946309,0
1.9977775,1.823727,-0.11279571,-0.1472396,0.97268379,-0.17946309,0
4.7532387,1.6020184,-1.5773354,0.51250327,0.23021024,0.82725072,0
3.6993408,-1.2391381,-3.5827246,0.84596753,0.029828615,-0.53239977,0
1.5468953,-1.3718603,-0.34631038,0.1472396,-0.97268379,0.17946309,0
4.1239867,1.3283172,-2.7641268,0.84596753,0.029828615,-0.53239977,0
-1.8032978,0.80537862,2.7063022,0.51250327,0.23021024,0.82725072,0
-0.69038916,1.5601863,0.6643151,-0.1472396,0.97268379,-0.17946309,0
3.793119,-0.27105612,-0.46127033,0.51250327,0.23021024,0.82725072,0
-3.5312696,-1.4904022,3.1775517,0.1472396,-0.97268379,0.17946309,0
-3.6834798,1.2338797,1.3514113,-0.1472396,0.97268379,-0.17946309,0
-4.5931106,0.7740103,0.81692171,-0.51250327,-0.23021024,-0.82725072,0
-1.694289,-0.81373012,3.0893393,0.51250327,0.23021024,0.82725072,0
-3.9305749,0.79956555,3.1906714,-0.84596753,-0.029828615,0.53239977,0
3.3917611,-0.0031518936,-0.28717208,0.51250327,0.23021024,0.82725072,0
-0.71949089,1.5499519,1.8276527,0.51250327,0.23021024,0.82725072,0
2.2247467,-0.35593736,0.53399813,0.51250327,0.23021024,0.82725072,0
-2.0913403,-0.39077303,-0.40884972,-0.51250327,-0.23021024,-0.82725072,0
-4.4323716,0.82926798,0.70196247,-0.51250327,-0.23021024,-0.82725072,0
3.9157019,-0.76707852,-3.2124834,0.84596753,0.029828615,-0.53239977,0
-3.4135475,1.4718568,2.4197741,-0.1472396,0.97268379,-0.17946309,0
-2.06689,-0.06556797,3.1119742,0.51250327,0.23021024,0.82725072,0
-4.9081497,1.0272465,1.6500897,-0.84596753,-0.029828615,0.53239977,0
3.3815603,-0.37107903,-0.17846417,0.51250327,0.23021024,0.82725072,0
-0.66937619,-1.6655228,-0.1196239,0.1472396,-0.97268379,0.17946309,0
-0.71105051,0.18679094,-1.4247019,-0.51250327,-0.23021024,-0.82725072,0
-1.6702497,-1.5128862,1.5288248,0.1472396,-0.97268379,0.17946309,0
5.006278,-0.35099611,-1.4562783,0.84596753,0.029828615,-0.53239977,0
-3.7094741,-0.93752289,3.4446702,-0.84596753,-0.029828615,0.53239977,0
-3.7113533,-1.6572853,2.4207983,0.1472396,-0.97268379,0.17946309,0
-4.7407455,-1.1554227,1.7938018,-0.84596753,-0.029828615,0.53239977,0
-1.8141347,-1.5731627,-0.25154626,-0.51250327,-0.23021024,-0.82725072,0
1.0887295,-1.2463365,0.70992333,0.1472396,-0.97268379,0.17946309,0
-0.54433084,-0.74540067,2.3578954,0.51250327,0.23021024,0.82725072,0
3.7367556,-0.23143291,-3.4668126,0.84596753,0.029828615,-0.53239977,0
3.0087538,-1.5036256,-2.2598491,0.1472396,-0.97268379,0.17946309,0
4.5393157,0.6293987,-2.1433401,0.84596753,0.029828615,-0.53239977,0
4.6853008,0.92328179,-1.8949089,0.84596753,0.029828615,-0.53239977,0
-4.7181091,0.99821055,1.9504318,-0.84596753,-0.029828615,0.53239977,0
-0.88292933,-1.4002526,-0.8765704,-0.51250327,-0.23021024,-0.82725072,0
-0.37984633,0.67533708,-1.7658458,-0.51250327,-0.23021024,-0.82725072,0
0.53246856,0.21354802,1.4239303,0.51250327,0.23021024,0.82725072,0
-2.4789252,-1.8172741,0.54252529,0.1472396,-0.97268379,0.17946309,0
-2.4446704,-0.22566009,3.3905702,0.51250327,0.23021024,0.82725072,0
3.3928864,0.46930468,-3.9739523,0.84596753,0.029828615,-0.53239977,0
4.7577653,0.22392499,-1.8189464,0.84596753,0.029828615,-0.53239977,0
-2.1324821,-1.7626909,0.55412674,0.1472396,-0.97268379,0.17946309,0
-2.9349556,1.5229845,2.3042271,-0.1472396,0.97268379,-0.17946309,0
-1.4269254,0.74362957,-1.1361578,-0.51250327,-0.23021024,-0.82725072,0
-1.0012877,0.81419522,2.2069821,0.51250327,0.23021024,0.82725072,0
-1.1021428,-0.55978996,-0.97464883,-0.51250327,-0.23021024,-0.82725072,0
4.1064296,1.6552378,-2.7560339,-0.1472396,0.97268379,-0.17946309,0
4.6975918,1.6503329,-1.8346443,0.84596753,0.029828615,-0.53239977,0
-3.61795,-0.62763894,3.6074619,-0.84596753,-0.029828615,0.53239977,0
1.2495002,1.0166558,-2.8702521,-0.51250327,-0.23021024,-0.82725072,0
1.0666804,1.7224066,0.10196549,-0.1472396,0.97268379,-0.17946309,0
-4.1295018,-0.86194408,2.7814937,-0.84596753,-0.029828615,0.53239977,0
-4.1728468,-0.10500485,2.7550278,-0.84596753,-0.029828615,0.53239977,0
1.9175892,-0.78587651,0.84393525,0.51250327,0.23021024,0.82725072,0
3.1748552,1.4651543,-3.021976,-0.1472396,0.97268379,-0.17946309,0
-0.19797647,-1.657473,-0.46274966,0.1472396,-0.97268379,0.17946309,0
-4.1651592,1.2153009,2.8412166,-0.84596753,-0.029828615,0.53239977,0
4.1011624,1.6679515,-2.6828046,-0.1472396,0.97268379,-0.17946309,0
3.6221683,-0.34167337,-0.33571005,0.51250327,0.23021024,0.82725072,0
2.786906,-1.648496,-2.863028,0.1472396,-0.97268379,0.17946309,0
1.1980553,-0.65264153,-2.3738425,-0.51250327,-0.23021024,-0.82725072,0
-1.7553581,-1.3703808,2.3710248,0.1472396,-0.97268379,0.17946309,0
3.8126764,-0.84838879,-3.3807445,0.84596753,0.029828615,-0.53239977,0
2.2020502,-0.16971409,0.49623644,0.51250327,0.23021024,0.82725072,0
4.9133096,-0.017756939,-1.2257466,0.51250327,0.23021024,0.82725072,0
-1.6837378,-1.2368728,3.0358725,0.1472396,-0.97268379,0.17946309,0
-3.7758622,-1.0590912,3.3323703,-0.84596753,-0.029828615,0.53239977,0
0.28290844,0.534603,1.4891951,0.51250327,0.23021024,0.82725072,0
-4.7365184,0.51233965,1.8939576,-0.84596753,-0.029828615,0.53239977,0
-1.6384132,1.6107383,1.7161076,-0.1472396,0.97268379,-0.17946309,0
2.4847708,0.81676924,-3.5799088,-0.51250327,-0.23021024,-0.82725072,0
0.82874894,-1.7182634,-1.6346045,0.1472396,-0.97268379,0.17946309,0
1.9163027,-0.89066595,-2.7525773,-0.51250327,-0.23021024,-0.82725072,0
4.8003435,0.40917552,-1.740912,0.84596753,0.029828615,-0.53239977,0
4.299737,1.201597,-2.4919648,0.84596753,0.029828615,-0.53239977,0
-3.1784894,-1.6796842,1.8622127,0.1472396,-0.97268379,0.17946309,0
2.5539663,1.5865148,-1.8548005,-0.1472396,0.97268379,-0.17946309,0
-3.8439181,0.80589139,3.328722,-0.84596753,-0.029828615,0.53239977,0
3.6067595,-0.13569131,-3.6680088,0.84596753,0.029828615,-0.53239977,0
-1.7929411,-1.7280864,0.46310759,0.1472396,-0.97268379,0.17946309,0
0.29570758,1.3067718,1.2663836,0.51250327,0.23021024,0.82725072,0
-0.4320507,-1.4193118,-1.1505976,-0.51250327,-0.23021024,-0.82725072,0
-1.311983,-0.59316194,2.7911108,0.51250327,0.23021024,0.82725072,0
-4.4334497,0.97466701,2.4014277,-0.84596753,-0.029828615,0.53239977,0
2.8303635,-1.161027,-0.25661659,0.1472396,-0.97268379,0.17946309,0
3.5089917,1.0991876,-3.7541733,0.84596753,0.029828615,-0.53239977,0
0.4705689,-0.78788149,-1.8855106,-0.51250327,-0.23021024,-0.82725072,0
