1.522362,1.6990826,-0.10413861,0.61928421,0.37038922,0.69231415,0
2.2672524,-1.6168141,1.003557,0.61928421,0.37038922,0.69231415,0
1.8037453,-2.9775476,1.0236099,0.25412869,-0.92883331,0.2696059,0
3.8752761,-0.30247021,-1.6789087,0.74290359,0.0089741945,-0.66933835,0
1.2539895,-3.1360755,0.99565262,0.25412869,-0.92883331,0.2696059,0
-4.0629463,1.7352977,1.4898232,-0.74290359,-0.0089741945,0.66933835,0
3.8994308,-0.017412901,-1.6482778,0.74290359,0.0089741945,-0.66933835,0
2.8838813,2.0723977,-2.7474241,0.74290359,0.0089741945,-0.66933835,0
1.4084314,3.5766184,-1.9874958,-0.25412869,0.92883331,-0.2696059,0
2.0212708,-0.14403865,-3.7345588,0.74290359,0.0089741945,-0.66933835,0
-2.7417104,-1.9552325,2.9067917,-0.74290359,-0.0089741945,0.66933835,0
3.1801829,-2.9293878,-0.10789311,0.25412869,-0.92883331,0.2696059,0
-2.7833571,2.7518029,2.9236774,-0.74290359,-0.0089741945,0.66933835,0
-0.68109918,3.5707207,-0.038237453,-0.25412869,0.92883331,-0.2696059,0
1.5408509,2.5588622,-4.2315407,0.74290359,0.0089741945,-0.66933835,0
-3.6092637,1.0075531,1.9836116,-0.74290359,-0.0089741945,0.66933835,0
3.2103865,2.4620574,-2.3798094,0.74290359,0.0089741945,-0.66933835,0
3.2426164,-3.0924847,-0.72863597,0.25412869,-0.92883331,0.2696059,0
-3.5945313,0.14147377,0.97302091,-0.61928421,-0.37038922,-0.69231415,0
-4.0469089,2.8173397,1.5221307,-0.74290359,-0.0089741945,0.66933835,0
-2.9034235,-3.1647234,2.7110884,-0.74290359,-0.0089741945,0.66933835,0
-2.8444381,2.7031748,2.8552313,-0.74290359,-0.0089741945,0.66933835,0
2.5879793,-2.1026483,-3.1318252,0.74290359,0.0089741945,-0.66933835,0
-2.4131973,3.5353153,1.4724494,-0.25412869,0.92883331,-0.2696059,0
-1.1357861,-3.080389,3.4400883,0.25412869,-0.92883331,0.2696059,0
-4.3130255,2.5630338,1.2233565,-0.74290359,-0.0089741945,0.66933835,0
-0.12290952,-1.4665504,-1.2720954,-0.61928421,-0.37038922,-0.69231415,0
3.1307583,2.837554,-2.1519549,0.61928421,0.37038922,0.69231415,0
1.2331827,1.3124945,0.36136138,0.61928421,0.37038922,0.69231415,0
-0.022036552,3.602941,-0.54846108,-0.25412869,0.92883331,-0.2696059,0
2.3416352,1.319599,-3.3593602,0.74290359,0.0089741945,-0.66933835,0
0.052963495,-3.6847742,0.2373811,0.25412869,-0.92883331,0.2696059,0
-0.19976163,2.8672767,-2.915415,-0.25412869,0.92883331,-0.2696059,0
2.9106627,3.1298304,-2.1114447,0.61928421,0.37038922,0.69231415,0
-2.3081656,-0.65417588,3.4054303,-0.74290359,-0.0089741945,0.66933835,0
-1.1096386,-3.4745533,2.0574844,0.25412869,-0.92883331,0.2696059,0
-3.4107199,0.93868566,2.2030535,-0.74290359,-0.0089741945,0.66933835,0
0.026277542,-3.5077517,0.87240469,0.25412869,-0.92883331,0.2696059,0
-2.113081,-3.4480357,3.0946803,0.25412869,-0.92883331,0.2696059,0
3.2041717,1.3409046,-2.4017391,0.74290359,0.0089741945,-0.66933835,0
2.0877104,-1.8449353,-3.0470877,-0.61928421,-0.37038922,-0.69231415,0
0.52725375,1.444128,-3.410893,-0.61928421,-0.37038922,-0.69231415,0
2.2619097,-0.044991136,0.16740835,0.61928421,0.37038922,0.69231415,0
0.63592112,3.5213521,-0.2861228,0.61928421,0.37038922,0.69231415,0
1.5013142,3.1038864,-3.7036796,-0.25412869,0.92883331,-0.2696059,0
-0.027654409,3.2926664,-1.6121089,-0.25412869,0.92883331,-0.2696059,0
0.49811339,-2.238806,2.9188423,0.61928421,0.37038922,0.69231415,0
-1.6762785,-1.0238677,4.1018095,-0.74290359,-0.0089741945,0.66933835,0
-3.1795206,-0.64772749,2.4383934,-0.74290359,-0.0089741945,0.66933835,0
3.8433971,-1.7890474,-1.7342231,0.74290359,0.0089741945,-0.66933835,0
1.6439295,-3.233161,0.29362398,0.25412869,-0.92883331,0.2696059,0
0.60611987,-3.1707201,1.486975,0.25412869,-0.92883331,0.2696059,0
0.47145462,2.902359,-3.4272339,-0.25412869,0.92883331,-0.2696059,0
1.5881779,2.8090229,-4.1756582,0.74290359,0.0089741945,-0.66933835,0
-0.3789587,3.7284913,0.22051102,-0.25412869,0.92883331,-0.2696059,0
3.5609686,0.12735415,-1.086822,0.61928421,0.37038922,0.69231415,0
2.9200563,-3.6804972,-2.7844057,0.74290359,0.0089741945,-0.66933835,0
-1.9516397,-1.8769943,3.7847462,-0.74290359,-0.0089741945,0.66933835,0
1.5671287,-3.5309107,-0.65977645,0.25412869,-0.92883331,0.2696059,0
3.3836374,-3.105762,-0.90730381,0.25412869,-0.92883331,0.2696059,0
-1.207348,-2.1814804,0.080438018,-0.61928421,-0.37038922,-0.69231415,0
1.6570574,-3.427628,-1.8151195,-0.61928421,-0.37038922,-0.69231415,0
2.3706913,1.1485362,-3.3294044,0.74290359,0.0089741945,-0.66933835,0
3.5973346,-3.1443784,-2.025501,0.74290359,0.0089741945,-0.66933835,0
-4.1115322,2.7077127,1.4489348,-0.74290359,-0.0089741945,0.66933835,0
-2.8298271,2.5311177,2.8691411,-0.74290359,-0.0089741945,0.66933835,0
-1.056361,-3.0996025,3.2990294,0.25412869,-0.92883331,0.2696059,0
-1.4377513,3.625016,0.86203367,-0.25412869,0.92883331,-0.2696059,0
-4.3917789,2.5797107,0.38170856,-0.61928421,-0.37038922,-0.69231415,0
0.6808393,0.53549176,1.2711377,0.61928421,0.37038922,0.69231415,0
0.65692735,3.4487755,-1.7195709,-0.25412869,0.92883331,-0.2696059,0
0.10820699,1.4004593,-3.012687,-0.61928421,-0.37038922,-0.69231415,0
-1.4882767,3.0381732,-1.1121039,-0.25412869,0.92883331,-0.2696059,0
1.0142901,-0.0084757805,1.2638851,0.61928421,0.37038922,0.69231415,0
-2.0322366,2.7722771,-1.5154239,-0.25412869,0.92883331,-0.2696059,0
-1.208413,-3.7020309,1.3668942,0.25412869,-0.92883331,0.2696059,0
-3.6662211,1.6440225,1.9289279,-0.74290359,-0.0089741945,0.66933835,0
2.1370213,-3.4067917,-0.76934505,0.25412869,-0.92883331,0.2696059,0
0.0027282238,1.4014392,-2.918859,-0.61928421,-0.37038922,-0.69231415,0
-0.88872361,-3.4208031,2.0344305,0.25412869,-0.92883331,0.2696059,0
-2.8707995,-1.0273392,2.7759554,-0.74290359,-0.0089741945,0.66933835,0
3.2639358,-0.058853626,-2.3541737,0.74290359,0.0089741945,-0.66933835,0
-1.4213111,-0.32313228,3.6109047,0.61928421,0.37038922,0.69231415,0
-3.665483,2.6668215,1.9434602,-0.74290359,-0.0089741945,0.66933835,0
3.9157653,-2.6711185,-1.6657275,0.74290359,0.0089741945,-0.66933835,0
-0.99501443,3.1619604,1.365046,0.61928421,0.37038922,0.69231415,0
-2.2899179,-3.6684122,2.5021362,0.25412869,-0.92883331,0.2696059,0
-4.1400642,2.4102511,1.4132793,-0.74290359,-0.0089741945,0.66933835,0
-0.31026435,3.4956851,-0.64629269,-0.25412869,0.92883331,-0.2696059,0
-3.2688441,2.9928358,0.41005212,-0.25412869,0.92883331,-0.2696059,0
2.7495689,0.63821518,-2.9157276,0.74290359,0.0089741945,-0.66933835,0
4.3933053,-1.4089791,-1.0094178,0.61928421,0.37038922,0.69231415,0
-1.8139753,3.1838224,-0.30331922,-0.25412869,0.92883331,-0.2696059,0
-0.18886793,-0.31533849,2.504298,0.61928421,0.37038922,0.69231415,0
-2.9844909,1.2742711,2.6806276,-0.74290359,-0.0089741945,0.66933835,0
-2.3540821,-0.26427352,3.3596945,-0.74290359,-0.0089741945,0.66933835,0
-1.4217405,-3.2103245,3.2619791,0.25412869,-0.92883331,0.2696059,0
-3.0786836,-3.4398062,2.4275789,-0.61928421,-0.37038922,-0.69231415,0
-0.26505017,-3.2056434,2.1878176,0.25412869,-0.92883331,0.2696059,0
3.7627668,1.0817482,-1.7779354,0.61928421,0.37038922,0.69231415,0
-3.9490719,2.7737558,1.630136,-0.74290359,-0.0089741945,0.66933835,0
-4.2212944,2.2482626,1.3209493,-0.74290359,-0.0089741945,0.66933835,0
-1.3966475,-2.3255692,0.32685661,-0.61928421,-0.37038922,-0.69231415,0
-3.5801537,0.53759634,2.0096202,-0.74290359,-0.0089741945,0.66933835,0
-1.6187131,-0.58224571,-0.40718359,-0.61928421,-0.37038922,-0.69231415,0
0.40445566,2.9656932,-3.1458859,-0.25412869,0.92883331,-0.2696059,0
-2.1535771,3.3963213,0.74887818,-0.25412869,0.92883331,-0.2696059,0
-1.2145066,-3.8050961,0.95547843,-0.61928421,-0.37038922,-0.69231415,0
0.80498719,3.3984745,-2.0324259,-0.25412869,0.92883331,-0.2696059,0
-2.2770269,-1.184113,3.4328861,-0.74290359,-0.0089741945,0.66933835,0
-0.21809363,-3.1215429,2.4332957,0.25412869,-0.92883331,0.2696059,0
2.7407575,3.4606795,-2.887665,0.74290359,0.0089741945,-0.66933835,0
0.19376111,-3.3287849,1.3311043,0.25412869,-0.92883331,0.2696059,0
-2.1230481,0.60166663,3.6277313,-0.74290359,-0.0089741945,0.66933835,0
2.4945061,1.5901809,-3.18606,0.74290359,0.0089741945,-0.66933835,0
-2.2613389,-1.0541686,3.4520402,-0.74290359,-0.0089741945,0.66933835,0
0.72686219,3.6856518,-0.9694159,-0.25412869,0.92883331,-0.2696059,0
-2.404963,-3.3327816,3.2620802,-0.74290359,-0.0089741945,0.66933835,0
-4.4326115,2.1901236,0.62666345,-0.61928421,-0.37038922,-0.69231415,0
-1.1911461,3.6565363,0.73817778,-0.25412869,0.92883331,-0.2696059,0
0.58322799,-1.7103879,-1.7732912,-0.61928421,-0.37038922,-0.69231415,0
0.77925849,-3.0607069,-1.2262205,-0.61928421,-0.37038922,-0.69231415,0
-2.847796,0.68955648,0.011831284,-0.61928421,-0.37038922,-0.69231415,0
0.39507532,3.1397133,-2.537518,-0.25412869,0.92883331,-0.2696059,0
1.3527793,-1.0879614,1.5386286,0.61928421,0.37038922,0.69231415,0
3.1453192,-2.9637165,-0.19329824,0.25412869,-0.92883331,0.2696059,0
2.9330926,-3.170083,-2.7630932,0.74290359,0.0089741945,-0.66933835,0
4.2048063,-1.7628539,-0.65147901,0.61928421,0.37038922,0.69231415,0
1.2710619,-0.52404237,-3.0232646,-0.61928421,-0.37038922,-0.69231415,0
1.8543938,0.21211031,-3.9150014,0.74290359,0.0089741945,-0.66933835,0
0.63414884,-2.4064159,2.8868282,0.61928421,0.37038922,0.69231415,0
-1.8118689,1.0907661,-1.1294672,-0.61928421,-0.37038922,-0.69231415,0
-2.5091274,1.2613397,3.2080636,-0.74290359,-0.0089741945,0.66933835,0
1.5278203,-3.6990278,-1.2019145,0.25412869,-0.92883331,0.2696059,0
4.2782345,-2.9152055,-1.0940493,0.25412869,-0.92883331,0.2696059,0
-1.5839493,3.7174215,1.3181908,-0.25412869,0.92883331,-0.2696059,0
-1.3632541,3.5732388,0.61343354,-0.25412869,0.92883331,-0.2696059,0
-3.7709713,3.1653337,1.8330615,-0.74290359,-0.0089741945,0.66933835,0
3.7870691,-3.1386862,-1.4010046,0.25412869,-0.92883331,0.2696059,0
0.58486056,-3.7012148,-0.32062083,0.25412869,-0.92883331,0.2696059,0
-3.5978808,1.2774984,1.9998648,-0.74290359,-0.0089741945,0.66933835,0
-1.1282344,3.534807,0.25950158,-0.25412869,0.92883331,-0.2696059,0
-1.8629371,-3.1988218,3.7174761,0.25412869,-0.92883331,0.2696059,0
-4.3807645,1.7084718,1.1367145,-0.74290359,-0.0089741945,0.66933835,0
-0.22803235,-2.736187,3.7702732,0.25412869,-0.92883331,0.2696059,0
3.1580076,1.5345728,-2.4503798,0.74290359,0.0089741945,-0.66933835,0
-2.2176974,-2.1814477,3.4853644,-0.74290359,-0.0089741945,0.66933835,0
0.249259,-3.3172638,1.3184844,0.25412869,-0.92883331,0.2696059,0
0.38868427,2.8375511,-3.5724881,-0.25412869,0.92883331,-0.2696059,0
3.1091733,-1.9995036,0.45518738,0.61928421,0.37038922,0.69231415,0
1.0990216,-0.68714786,1.5511823,0.61928421,0.37038922,0.69231415,0
1.5809212,2.7079165,-0.69624829,0.61928421,0.37038922,0.69231415,0
3.1690016,2.2403097,-2.4287157,0.74290359,0.0089741945,-0.66933835,0
3.1190023,2.830524,-2.1376772,0.61928421,0.37038922,0.69231415,0
3.4985604,-3.3847704,-1.9768559,0.25412869,-0.92883331,0.2696059,0
2.7545207,-0.51262766,-2.9256613,0.74290359,0.0089741945,-0.66933835,0
2.3928142,-0.4296841,-3.3260102,0.74290359,0.0089741945,-0.66933835,0
-3.3719554,2.3716471,2.2652912,-0.74290359,-0.0089741945,0.66933835,0
-0.78627467,-3.4672627,1.7778019,0.25412869,-0.92883331,0.2696059,0
-1.5657499,3.2691402,-0.24336141,-0.25412869,0.92883331,-0.2696059,0
-3.940263,2.020514,1.6298143,-0.74290359,-0.0089741945,0.66933835,0
-1.4310915,2.8693438,-1.7476494,-0.25412869,0.92883331,-0.2696059,0
-1.5999749,3.5493124,0.75413424,-0.25412869,0.92883331,-0.2696059,0
-3.2400999,3.109302,0.78420281,-0.25412869,0.92883331,-0.2696059,0
0.039060354,2.202457,-3.3799045,-0.61928421,-0.37038922,-0.69231415,0
-0.50524402,-3.1570663,2.5815783,0.25412869,-0.92883331,0.2696059,0
1.1483679,3.7112899,-1.2783976,-0.25412869,0.92883331,-0.2696059,0
-0.036005378,-2.3453155,-0.87969166,-0.61928421,-0.37038922,-0.69231415,0
2.9824913,1.989319,-2.6390901,0.74290359,0.0089741945,-0.66933835,0
2.9073362,-2.8224649,0.51765692,0.25412869,-0.92883331,0.2696059,0
3.2849655,-1.6773963,-2.3525333,0.74290359,0.0089741945,-0.66933835,0
2.5218349,2.3407807,-3.1456642,0.74290359,0.0089741945,-0.66933835,0
2.3574922,-2.8409457,0.97226626,0.25412869,-0.92883331,0.2696059,0
-2.6064653,-0.1259625,0.2322619,-0.61928421,-0.37038922,-0.69231415,0
-1.9312738,3.5861597,1.9755952,0.61928421,0.37038922,0.69231415,0
-0.33203578,-1.4794717,-1.0781162,-0.61928421,-0.37038922,-0.69231415,0
2.8311648,-0.69498253,-2.8430381,0.74290359,0.0089741945,-0.66933835,0
-3.3216462,-1.770609,2.2655919,-0.74290359,-0.0089741945,0.66933835,0
-0.21575439,-0.13753068,-1.9000721,-0.61928421,-0.37038922,-0.69231415,0
3.1832838,-2.85251,-2.4811463,0.74290359,0.0089741945,-0.66933835,0
-1.0907102,-2.750999,4.5323973,0.25412869,-0.92883331,0.2696059,0
2.088459,0.44597954,-3.6520758,0.74290359,0.0089741945,-0.66933835,0
3.4416871,2.1888981,-2.0830529,0.61928421,0.37038922,0.69231415,0
0.13084579,3.6336865,-0.5866437,-0.25412869,0.92883331,-0.2696059,0
0.76311433,1.9283805,0.45234376,0.61928421,0.37038922,0.69231415,0
3.0418625,-3.321816,-2.6444025,0.74290359,0.0089741945,-0.66933835,0
-0.4391593,1.3484913,1.8380352,0.61928421,0.37038922,0.69231415,0
-1.0416522,2.1520998,-2.3862517,-0.61928421,-0.37038922,-0.69231415,0
-2.842618,2.1151576,2.8493676,-0.74290359,-0.0089741945,0.66933835,0
-3.2207735,2.6953402,2.4374287,-0.74290359,-0.0089741945,0.66933835,0
-2.5611942,0.79969233,-0.30346081,-0.61928421,-0.37038922,-0.69231415,0
2.2813706,3.7108264,-2.3479552,-0.25412869,0.92883331,-0.2696059,0
-0.75559211,2.2585454,-2.6990845,-0.61928421,-0.37038922,-0.69231415,0
1.2160258,3.4028752,-2.4047074,-0.25412869,0.92883331,-0.2696059,0
-0.0021826029,-3.31758,-0.38978326,-0.61928421,-0.37038922,-0.69231415,0
-1.2141137,2.2157383,-2.2660294,-0.61928421,-0.37038922,-0.69231415,0
-2.124507,-0.78856355,3.6074724,-0.74290359,-0.0089741945,0.66933835,0
-1.1579169,-0.12713763,3.2704377,0.61928421,0.37038922,0.69231415,0
3.5095816,-3.0519423,-0.84060121,0.25412869,-0.92883331,0.2696059,0
1.7856281,3.385335,-1.2417811,0.61928421,0.37038922,0.69231415,0
1.2167424,-0.83867633,1.5269474,0.61928421,0.37038922,0.69231415,0
1.1769936,-3.4169307,0.10064089,0.25412869,-0.92883331,0.2696059,0
-1.4324622,2.8282092,-1.8880723,-0.25412869,0.92883331,-0.2696059,0
4.0711002,-2.7825856,-0.44190878,0.25412869,-0.92883331,0.2696059,0
1.3675061,2.052489,-4.430727,0.74290359,0.0089741945,-0.66933835,0
3.8822985,-1.2565081,-0.63388753,0.61928421,0.37038922,0.69231415,0
-2.2755756,3.3075666,0.55809969,-0.25412869,0.92883331,-0.2696059,0
0.98005795,3.5267744,-0.59685838,0.61928421,0.37038922,0.69231415,0
2.7999127,-3.2179272,-2.911552,0.74290359,0.0089741945,-0.66933835,0
-3.5443139,-1.2883837,2.0249166,-0.74290359,-0.0089741945,0.66933835,0
2.7193825,3.2559421,-2.9141343,0.74290359,0.0089741945,-0.66933835,0
-4.1827469,1.5080445,1.3538084,-0.74290359,-0.0089741945,0.66933835,0
0.42105001,-0.10519946,-2.4869995,-0.61928421,-0.37038922,-0.69231415,0
1.4430125,2.8399668,-4.3363638,0.74290359,0.0089741945,-0.66933835,0
2.842392,-2.9380767,0.18057153,0.25412869,-0.92883331,0.2696059,0
2.9917483,-3.690536,-2.7049685,0.74290359,0.0089741945,-0.66933835,0
3.4217401,-0.77869004,-2.1886768,0.74290359,0.0089741945,-0.66933835,0
-0.69223166,3.2173657,1.0645609,0.61928421,0.37038922,0.69231415,0
-1.4721022,-0.013939857,-0.84237373,-0.61928421,-0.37038922,-0.69231415,0
-2.9311438,-2.66085,2.6870773,-0.74290359,-0.0089741945,0.66933835,0
2.4490523,-3.2202911,-0.42094022,0.25412869,-0.92883331,0.2696059,0
-0.24617791,-1.7685437,-1.0002632,-0.61928421,-0.37038922,-0.69231415,0
3.2522912,1.9700609,-2.3398955,0.74290359,0.0089741945,-0.66933835,0
-2.5839727,1.5747559,3.1291947,-0.74290359,-0.0089741945,0.66933835,0
-1.8537121,3.1925259,-0.23587888,-0.25412869,0.92883331,-0.2696059,0
-2.5110781,-0.58958304,3.1810818,-0.74290359,-0.0089741945,0.66933835,0
1.0313659,3.6551342,-1.3615762,-0.25412869,0.92883331,-0.2696059,0
-2.5904648,-2.4154053,3.0684905,-0.74290359,-0.0089741945,0.66933835,0
-3.202755,1.4104035,-0.056307614,-0.61928421,-0.37038922,-0.69231415,0
-2.614929,-0.2232852,3.0707283,-0.74290359,-0.0089741945,0.66933835,0
3.8648565,-2.5929666,0.096722186,0.61928421,0.37038922,0.69231415,0
-3.4372239,2.908848,0.27941537,-0.25412869,0.92883331,-0.2696059,0
1.5928504,3.3628044,-2.8979478,-0.25412869,0.92883331,-0.2696059,0
0.83028501,2.5810802,0.043063164,0.61928421,0.37038922,0.69231415,0
-0.53469419,-2.776881,3.9191341,0.25412869,-0.92883331,0.2696059,0
3.7852383,-3.0148301,-1.8152087,0.74290359,0.0089741945,-0.66933835,0
0.95021796,-3.7710364,-0.90555048,0.25412869,-0.92883331,0.2696059,0
2.7076933,-1.4895375,-2.9907336,0.74290359,0.0089741945,-0.66933835,0
-2.3248296,-3.3537831,3.3507397,-0.74290359,-0.0089741945,0.66933835,0
-2.8488593,-2.9585986,1.9645519,-0.61928421,-0.37038922,-0.69231415,0
-2.5952806,3.6946301,2.1929431,-0.25412869,0.92883331,-0.2696059,0
1.8105253,1.3909525,-3.9478865,0.74290359,0.0089741945,-0.66933835,0
0.5220623,-2.7405014,3.0483747,0.25412869,-0.92883331,0.2696059,0
-2.0680034,-0.18616164,3.6782629,-0.74290359,-0.0089741945,0.66933835,0
-1.8764846,3.1777287,2.1450968,0.61928421,0.37038922,0.69231415,0
-2.8381541,1.9867303,2.8526001,-0.74290359,-0.0089741945,0.66933835,0
-1.9120922,3.5445859,1.980679,0.61928421,0.37038922,0.69231415,0
0.056915045,-3.6789715,0.2536478,0.25412869,-0.92883331,0.2696059,0
3.115566,-0.41334546,-2.523603,0.74290359,0.0089741945,-0.66933835,0
3.3016984,-2.1618075,-2.3404562,0.74290359,0.0089741945,-0.66933835,0
2.9642532,-1.509376,-2.7062418,0.74290359,0.0089741945,-0.66933835,0
-2.4836094,-1.5813895,3.1982722,-0.74290359,-0.0089741945,0.66933835,0
-0.68204427,3.3855348,-0.67533946,-0.25412869,0.92883331,-0.2696059,0
3.4968009,-3.1043544,-1.0091219,0.25412869,-0.92883331,0.2696059,0
0.065104961,2.6291387,-3.6314776,-0.61928421,-0.37038922,-0.69231415,0
2.4905,1.2442524,-3.1951447,0.74290359,0.0089741945,-0.66933835,0
-3.7782001,2.6507456,1.8181386,-0.74290359,-0.0089741945,0.66933835,0
-0.1606524,-3.5899601,0.76538301,0.25412869,-0.92883331,0.2696059,0
-3.6074264,-0.44800735,1.9661351,-0.74290359,-0.0089741945,0.66933835,0
3.289402,2.5906141,-2.2903852,0.74290359,0.0089741945,-0.66933835,0
-1.3606184,3.5750456,0.61717272,-0.25412869,0.92883331,-0.2696059,0
-3.4129474,0.91998905,2.2003303,-0.74290359,-0.0089741945,0.66933835,0
2.7219868,-3.7633328,-2.5490689,0.25412869,-0.92883331,0.2696059,0
3.0412474,0.9181447,-2.5882378,0.74290359,0.0089741945,-0.66933835,0
-1.566592,-1.6575017,0.1214571,-0.61928421,-0.37038922,-0.69231415,0
-1.5895735,-1.4544467,4.1922712,-0.74290359,-0.0089741945,0.66933835,0
2.291501,3.554415,-2.8963652,-0.25412869,0.92883331,-0.2696059,0
2.4828107,-3.1995549,-0.38132137,0.25412869,-0.92883331,0.2696059,0
-1.9188486,-1.9452201,3.8202262,-0.74290359,-0.0089741945,0.66933835,0
4.0450077,-0.4676367,-1.4927371,0.74290359,0.0089741945,-0.66933835,0
-1.6554618,3.6137674,1.0284928,-0.25412869,0.92883331,-0.2696059,0
3.1083879,-3.4057322,-1.6812987,0.25412869,-0.92883331,0.2696059,0
1.9393946,0.51767844,-3.8165617,0.74290359,0.0089741945,-0.66933835,0
1.7676873,-1.9085633,1.6065111,0.61928421,0.37038922,0.69231415,0
3.0248418,-3.2270789,-0.98706013,0.25412869,-0.92883331,0.2696059,0
-3.8736308,0.68561935,0.93156028,-0.61928421,-0.37038922,-0.69231415,0
-0.10679913,-3.2186081,1.9939853,0.25412869,-0.92883331,0.2696059,0
2.1384151,-3.5144339,-1.1415027,0.25412869,-0.92883331,0.2696059,0
1.8267844,-0.72095656,-3.4150164,-0.61928421,-0.37038922,-0.69231415,0
0.59372902,-2.7421901,2.9750059,0.25412869,-0.92883331,0.2696059,0
-1.3402035,3.115869,-0.98400313,-0.25412869,0.92883331,-0.2696059,0
-2.3424864,0.60255539,3.3841867,-0.74290359,-0.0089741945,0.66933835,0
3.3841732,-2.4583094,0.45465848,0.61928421,0.37038922,0.69231415,0
3.2821631,0.54514074,-1.0609434,0.61928421,0.37038922,0.69231415,0
0.62269688,-3.0481336,1.8936787,0.25412869,-0.92883331,0.2696059,0
-1.4815292,-3.2469232,3.1922474,0.25412869,-0.92883331,0.2696059,0
-0.90149927,3.0662172,-1.5685806,-0.25412869,0.92883331,-0.2696059,0
-0.80261934,2.6750755,1.4534304,0.61928421,0.37038922,0.69231415,0
2.0211987,1.3255777,-3.7149351,0.74290359,0.0089741945,-0.66933835,0
0.15223861,2.8086941,-3.4490328,-0.25412869,0.92883331,-0.2696059,0
1.0801671,-2.8752913,2.0579386,0.25412869,-0.92883331,0.2696059,0
1.5431564,3.1053071,-3.7382269,-0.25412869,0.92883331,-0.2696059,0
4.5813522,-2.7597995,-0.8443681,0.25412869,-0.92883331,0.2696059,0
-0.89127189,-0.97589314,-0.84728742,-0.61928421,-0.37038922,-0.69231415,0
1.1812968,-1.77783,-2.2721901,-0.61928421,-0.37038922,-0.69231415,0
0.36089468,-2.7584643,3.138407,0.25412869,-0.92883331,0.2696059,0
2.9269085,2.7846992,-1.9413311,0.61928421,0.37038922,0.69231415,0
-0.15855598,2.4143648,-3.3165054,-0.61928421,-0.37038922,-0.69231415,0
0.35455513,2.8959899,0.30013293,0.61928421,0.37038922,0.69231415,0
-1.7220163,3.0009265,-1.0201029,-0.25412869,0.92883331,-0.2696059,0
0.75626671,3.0589025,-0.14636207,0.61928421,0.37038922,0.69231415,0
-2.4121809,3.2225852,0.39408919,-0.25412869,0.92883331,-0.2696059,0
0.359267,-2.998611,2.3125985,0.25412869,-0.92883331,0.2696059,0
2.0312781,2.4547036,-0.96362948,0.61928421,0.37038922,0.69231415,0
-1.0635009,-2.9587431,3.7910404,0.25412869,-0.92883331,0.2696059,0
4.5146046,-2.6212459,-1.0004026,0.74290359,0.0089741945,-0.66933835,0
1.3414922,2.3547609,-4.4555473,0.74290359,0.0089741945,-0.66933835,0
3.5789497,-0.098251343,-0.98220706,0.61928421,0.37038922,0.69231415,0
1.3699207,3.6470382,-1.7085882,-0.25412869,0.92883331,-0.2696059,0
2.6186731,1.3682511,-3.0512216,0.74290359,0.0089741945,-0.66933835,0
-1.950457,-2.8097951,3.7735522,-0.74290359,-0.0089741945,0.66933835,0
2.6536868,2.7041426,-1.6538322,0.61928421,0.37038922,0.69231415,0
-2.4271669,0.7380712,3.2920165,-0.74290359,-0.0089741945,0.66933835,0
-3.4058876,-1.9197516,2.1700923,-0.74290359,-0.0089741945,0.66933835,0
-2.9710608,3.2274714,0.93772012,-0.25412869,0.92883331,-0.2696059,0
3.5567689,0.4566468,-2.0222445,0.74290359,0.0089741945,-0.66933835,0
-1.8928981,2.4009199,2.5753729,0.61928421,0.37038922,0.69231415,0
0.069096804,3.8022711,0.052359343,-0.25412869,0.92883331,-0.2696059,0
0.98259878,-3.7786784,-0.96240056,0.25412869,-0.92883331,0.2696059,0
3.2486744,0.038339853,-2.3698094,0.74290359,0.0089741945,-0.66933835,0
-1.1540744,3.3567452,-0.32959151,-0.25412869,0.92883331,-0.2696059,0
-3.2321644,2.8890915,2.4273839,-0.74290359,-0.0089741945,0.66933835,0
2.1096787,0.73991048,-3.6245823,0.74290359,0.0089741945,-0.66933835,0
-3.7840455,1.0517544,0.65554214,-0.61928421,-0.37038922,-0.69231415,0
-3.3482192,0.60279346,2.26792,-0.74290359,-0.0089741945,0.66933835,0
-1.5343175,0.90045434,3.0573695,0.61928421,0.37038922,0.69231415,0
2.9833536,-3.3597727,-1.4051049,0.25412869,-0.92883331,0.2696059,0
1.9715976,0.56942493,-3.7801259,0.74290359,0.0089741945,-0.66933835,0
3.0315957,1.1703445,-1.1712923,0.61928421,0.37038922,0.69231415,0
0.41454697,-3.0447659,2.1014819,0.25412869,-0.92883331,0.2696059,0
2.4421287,0.67205226,-0.37741923,0.61928421,0.37038922,0.69231415,0
0.83579123,3.7035117,-1.0105622,-0.25412869,0.92883331,-0.2696059,0
-2.7928324,0.67360389,2.8852971,-0.74290359,-0.0089741945,0.66933835,0
-2.8442998,3.5473158,1.9201478,-0.25412869,0.92883331,-0.2696059,0
-0.26306367,1.225374,-2.5869098,-0.61928421,-0.37038922,-0.69231415,0
3.4581199,0.22669089,-2.134819,0.74290359,0.0089741945,-0.66933835,0
2.4940698,-1.174132,-3.2236068,0.74290359,0.0089741945,-0.66933835,0
1.2520967,-3.1162298,1.0658088,0.25412869,-0.92883331,0.2696059,0
-2.1278374,-3.711,2.2026386,0.25412869,-0.92883331,0.2696059,0
-2.0487013,-2.7717075,3.6650205,-0.74290359,-0.0089741945,0.66933835,0
3.3090172,1.3234198,-1.5013454,0.61928421,0.37038922,0.69231415,0
-3.8275955,-0.033963919,1.2753594,-0.61928421,-0.37038922,-0.69231415,0
-3.7372098,1.8342263,1.8526868,-0.74290359,-0.0089741945,0.66933835,0
2.1811562,-3.6051297,-1.4942515,0.25412869,-0.92883331,0.2696059,0
-3.9786925,2.8918858,1.5988443,-0.74290359,-0.0089741945,0.66933835,0
-1.9416188,-3.4885669,2.7934246,0.25412869,-0.92883331,0.2696059,0
0.63265347,-3.2647762,1.1379266,0.25412869,-0.92883331,0.2696059,0
1.6456753,3.5823271,-2.1914525,-0.25412869,0.92883331,-0.2696059,0
-3.9893258,1.8719447,1.5733671,-0.74290359,-0.0089741945,0.66933835,0
2.7400503,-1.4466758,-2.9542453,0.74290359,0.0089741945,-0.66933835,0
3.7271271,-1.9988691,-1.8660851,0.74290359,0.0089741945,-0.66933835,0
1.5236318,2.9758441,-4.1658425,-0.25412869,0.92883331,-0.2696059,0
-2.7373085,-3.2712486,2.8940327,-0.74290359,-0.0089741945,0.66933835,0
-3.5102255,0.82052904,2.0910273,-0.74290359,-0.0089741945,0.66933835,0
-2.880903,-1.2156273,2.7622168,-0.74290359,-0.0089741945,0.66933835,0
-2.9653704,1.5673059,2.7057781,-0.74290359,-0.0089741945,0.66933835,0
2.697087,-1.3635498,-3.0008161,0.74290359,0.0089741945,-0.66933835,0
3.2509866,2.7457454,-2.3309433,0.74290359,0.0089741945,-0.66933835,0
-4.2799697,1.8980513,1.2511295,-0.74290359,-0.0089741945,0.66933835,0
-1.8385849,3.7574396,1.8010486,0.61928421,0.37038922,0.69231415,0
3.1497788,0.53738046,-2.4728832,0.74290359,0.0089741945,-0.66933835,0
-0.43907118,-2.7692256,3.8553743,0.25412869,-0.92883331,0.2696059,0
-2.8797028,3.1492887,0.58225507,-0.25412869,0.92883331,-0.2696059,0
-3.9954908,0.99472177,1.5547634,-0.74290359,-0.0089741945,0.66933835,0
-1.3585843,-3.4812102,2.2692056,0.25412869,-0.92883331,0.2696059,0
2.6866906,-2.016042,-3.0211039,0.74290359,0.0089741945,-0.66933835,0
-3.2523961,2.0132983,-0.33445269,-0.61928421,-0.37038922,-0.69231415,0
-2.6374283,-3.8067389,2.2291799,-0.61928421,-0.37038922,-0.69231415,0
0.78751826,2.7794626,-4.148551,-0.25412869,0.92883331,-0.2696059,0
3.1935847,1.4166898,-1.4479889,0.61928421,0.37038922,0.69231415,0
-0.38446033,-3.1666591,-0.12857366,-0.61928421,-0.37038922,-0.69231415,0
-1.6935236,2.5512364,-2.0166829,-0.61928421,-0.37038922,-0.69231415,0
-4.0026469,2.8322482,0.54848188,-0.25412869,0.92883331,-0.2696059,0
2.6865978,0.72952604,-0.6268487,0.61928421,0.37038922,0.69231415,0
-1.5799942,2.8750563,-1.5876142,-0.25412869,0.92883331,-0.2696059,0
1.8982723,2.2572868,-0.73903561,0.61928421,0.37038922,0.69231415,0
0.90893245,3.6525259,-0.60051286,0.61928421,0.37038922,0.69231415,0
1.8251303,3.0922217,-3.9088664,0.74290359,0.0089741945,-0.66933835,0
2.3054767,-2.7354298,1.3848139,0.25412869,-0.92883331,0.2696059,0
-1.5936035,-3.7711763,1.4917564,0.25412869,-0.92883331,0.2696059,0
0.6821723,-2.7538886,2.8513365,0.25412869,-0.92883331,0.2696059,0
-2.5742712,0.097077012,3.1201501,-0.74290359,-0.0089741945,0.66933835,0
-0.38052964,-2.2998106,3.7374377,0.61928421,0.37038922,0.69231415,0
-3.8808155,1.9218845,1.6944733,-0.74290359,-0.0089741945,0.66933835,0
1.0629427,-3.1832316,1.0132725,0.25412869,-0.92883331,0.2696059,0
0.022694826,-2.9662817,2.7412291,0.25412869,-0.92883331,0.2696059,0
-1.3917421,-3.7244313,1.462527,0.25412869,-0.92883331,0.2696059,0
-3.0529494,2.3251581,2.6187348,-0.74290359,-0.0089741945,0.66933835,0
-0.8912338,2.4363573,1.6604118,0.61928421,0.37038922,0.69231415,0
-2.8603439,0.64889765,0.044807911,-0.61928421,-0.37038922,-0.69231415,0
-2.2488558,3.2300787,0.26595697,-0.25412869,0.92883331,-0.2696059,0
0.090227127,1.3576009,-2.9736745,-0.61928421,-0.37038922,-0.69231415,0
-3.7380035,0.20982969,1.8300265,-0.74290359,-0.0089741945,0.66933835,0
2.7204254,-0.26323056,-2.96016,0.74290359,0.0089741945,-0.66933835,0
-0.91218543,-2.9137571,3.8033962,0.25412869,-0.92883331,0.2696059,0
3.5683491,-0.74458015,-2.0254972,0.74290359,0.0089741945,-0.66933835,0
-0.27322984,-3.0141771,2.8551583,0.25412869,-0.92883331,0.2696059,0
3.2218812,2.6700678,-2.3642621,0.74290359,0.0089741945,-0.66933835,0
3.1701589,-3.3964469,-2.5030069,0.74290359,0.0089741945,-0.66933835,0
-1.3160653,2.8886046,-1.7897155,-0.25412869,0.92883331,-0.2696059,0
-2.5225449,-3.6714859,2.7108192,0.25412869,-0.92883331,0.2696059,0
1.6243205,3.6182222,-2.0476601,-0.25412869,0.92883331,-0.2696059,0
-0.20702696,-3.625592,0.68633854,0.25412869,-0.92883331,0.2696059,0
-3.932493,0.31859195,1.6156195,-0.74290359,-0.0089741945,0.66933835,0
-2.7492487,-3.2753339,2.0449021,-0.61928421,-0.37038922,-0.69231415,0
1.2282591,-2.7682562,2.2871001,0.25412869,-0.92883331,0.2696059,0
2.9689415,-1.4497221,-2.7002382,0.74290359,0.0089741945,-0.66933835,0
0.51522422,2.4520304,0.39393097,0.61928421,0.37038922,0.69231415,0
-0.67391789,-0.4355318,-1.3308078,-0.61928421,-0.37038922,-0.69231415,0
-1.6717103,3.2137842,-0.33419472,-0.25412869,0.92883331,-0.2696059,0
-3.0162365,2.9374952,-0.018709734,-0.25412869,0.92883331,-0.2696059,0
-0.97617412,3.4941003,-0.024070323,-0.25412869,0.92883331,-0.2696059,0
-2.5834675,0.54248977,3.1159148,-0.74290359,-0.0089741945,0.66933835,0
-3.9068851,0.45833838,1.6459155,-0.74290359,-0.0089741945,0.66933835,0
2.3248377,-1.2073488,-3.4118838,0.74290359,0.0089741945,-0.66933835,0
-1.5905862,-1.2666594,4.1936646,-0.74290359,-0.0089741945,0.66933835,0
-1.7542844,3.3577833,0.23973873,-0.25412869,0.92883331,-0.2696059,0
-1.9512014,-3.5995507,2.4201028,0.25412869,-0.92883331,0.2696059,0
2.1537809,-2.9482455,0.79461771,0.25412869,-0.92883331,0.2696059,0
-2.3779075,0.51508641,3.3436999,-0.74290359,-0.0089741945,0.66933835,0
1.8397899,-1.5232896,-2.9974005,-0.61928421,-0.37038922,-0.69231415,0
4.0672884,-1.5634937,-1.4827003,0.74290359,0.0089741945,-0.66933835,0
1.8407001,2.2622361,-3.9027133,0.74290359,0.0089741945,-0.66933835,0
-2.4993198,2.7038422,-1.3109227,-0.25412869,0.92883331,-0.2696059,0
1.5773946,-3.7708507,-1.4960828,0.25412869,-0.92883331,0.2696059,0
4.6646271,-2.297646,-0.77668011,0.61928421,0.37038922,0.69231415,0
0.13768435,-3.3098502,1.449194,0.25412869,-0.92883331,0.2696059,0
3.172081,1.8591433,-2.430408,0.74290359,0.0089741945,-0.66933835,0
0.54772568,0.042968154,1.6537105,0.61928421,0.37038922,0.69231415,0
-4.0839338,0.56522226,1.4508411,-0.74290359,-0.0089741945,0.66933835,0
-2.1967177,-1.1690427,3.5222239,-0.74290359,-0.0089741945,0.66933835,0
-0.3577224,-2.9276066,-0.28038478,-0.61928421,-0.37038922,-0.69231415,0
0.3119688,-3.1457033,1.8504262,0.25412869,-0.92883331,0.2696059,0
-2.5111678,2.0727658,-1.0293067,-0.61928421,-0.37038922,-0.69231415,0
0.36345732,-0.85499662,2.2989535,0.61928421,0.37038922,0.69231415,0
2.9505863,0.93342149,-2.6886587,0.74290359,0.0089741945,-0.66933835,0
0.85878277,2.7573702,-4.2918348,-0.25412869,0.92883331,-0.2696059,0
1.6622069,1.516543,-0.13157284,0.61928421,0.37038922,0.69231415,0
-1.3906953,0.080511898,3.367568,0.61928421,0.37038922,0.69231415,0
-0.021677732,1.7202718,-3.0676036,-0.61928421,-0.37038922,-0.69231415,0
-1.9824535,-0.060343742,3.7749021,-0.74290359,-0.0089741945,0.66933835,0
-3.5476203,2.7725697,-0.086025417,-0.25412869,0.92883331,-0.2696059,0
1.2192883,1.1903151,0.43915626,0.61928421,0.37038922,0.69231415,0
3.8469095,-3.0342093,-1.7470193,0.74290359,0.0089741945,-0.66933835,0
1.9305779,2.7457619,-1.0292681,0.61928421,0.37038922,0.69231415,0
-1.3836772,3.3427258,-0.16146898,-0.25412869,0.92883331,-0.2696059,0
-0.75181603,3.6799359,0.8703841,0.61928421,0.37038922,0.69231415,0
-2.784301,3.3924754,2.8422611,0.61928421,0.37038922,0.69231415,0
-0.46846867,3.7154608,0.25999099,-0.25412869,0.92883331,-0.2696059,0
3.143497,1.0977229,-2.4723425,0.74290359,0.0089741945,-0.66933835,0
-2.6651864,-2.7732134,2.9807589,-0.74290359,-0.0089741945,0.66933835,0
0.85285449,-3.6717796,-0.47182178,0.25412869,-0.92883331,0.2696059,0
-1.9461616,3.6243224,1.3388687,-0.25412869,0.92883331,-0.2696059,0
-2.971076,2.0454845,2.705857,-0.74290359,-0.0089741945,0.66933835,0
3.3074203,2.204406,-2.2755651,0.74290359,0.0089741945,-0.66933835,0
1.5498393,-2.1406231,1.9255316,0.61928421,0.37038922,0.69231415,0
-3.4482598,2.002691,2.175653,-0.74290359,-0.0089741945,0.66933835,0
3.2017248,-0.048507452,-2.4230838,0.74290359,0.0089741945,-0.66933835,0
0.28740501,2.5129519,0.56512558,0.61928421,0.37038922,0.69231415,0
4.1943288,-1.343451,-1.338747,0.74290359,0.0089741945,-0.66933835,0
3.6688597,-0.32344878,-1.9082931,0.74290359,0.0089741945,-0.66933835,0
-1.6552762,-3.4115281,2.7889328,0.25412869,-0.92883331,0.2696059,0
-1.6651394,-2.8705323,4.0894136,-0.74290359,-0.0089741945,0.66933835,0
-2.7618463,3.7697849,2.6088679,-0.25412869,0.92883331,-0.2696059,0
2.4925618,-0.50110418,-3.2162569,0.74290359,0.0089741945,-0.66933835,0
0.96890426,3.0560348,-3.3666902,-0.25412869,0.92883331,-0.2696059,0
0.52583313,3.4627719,-1.5477839,-0.25412869,0.92883331,-0.2696059,0
3.9650297,-0.85211313,-1.5866605,0.74290359,0.0089741945,-0.66933835,0
3.9933403,-0.7477932,-1.0053788,0.61928421,0.37038922,0.69231415,0
3.1769311,1.8523766,-2.4251156,0.74290359,0.0089741945,-0.66933835,0
1.4332311,-3.1782737,0.68132305,0.25412869,-0.92883331,0.2696059,0
-1.6099801,-3.6724463,1.8473325,0.25412869,-0.92883331,0.2696059,0
-1.472759,3.0976441,1.8268044,0.61928421,0.37038922,0.69231415,0
-1.9057535,3.6304219,1.3217944,-0.25412869,0.92883331,-0.2696059,0
1.7518661,-3.3738601,-0.29284549,0.25412869,-0.92883331,0.2696059,0
0.81170487,-1.5654627,2.2780907,0.61928421,0.37038922,0.69231415,0
2.6450346,-2.911869,0.45688963,0.25412869,-0.92883331,0.2696059,0
-2.411397,-3.5123849,3.1541793,0.25412869,-0.92883331,0.2696059,0
-2.2848921,0.10157406,-0.17712235,-0.61928421,-0.37038922,-0.69231415,0
-2.8254161,-3.8240318,2.4707582,0.25412869,-0.92883331,0.2696059,0
0.7312932,-3.2268243,1.1756997,0.25412869,-0.92883331,0.2696059,0
0.44250798,-1.4725289,2.5586224,0.61928421,0.37038922,0.69231415,0
4.3590631,-2.8188283,-1.1756878,0.74290359,0.0089741945,-0.66933835,0
0.82340026,-2.1175511,2.5629973,0.61928421,0.37038922,0.69231415,0
2.6143227,-2.4678905,-3.1074836,0.74290359,0.0089741945,-0.66933835,0
-0.38568139,-2.1103513,3.6406851,0.61928421,0.37038922,0.69231415,0
-2.3688209,2.8353453,-0.98088205,-0.25412869,0.92883331,-0.2696059,0
-1.8486087,-0.73336041,3.9144344,-0.74290359,-0.0089741945,0.66933835,0
-0.6635313,2.2242818,-2.7631035,-0.61928421,-0.37038922,-0.69231415,0
1.8877372,0.47829854,0.22214985,0.61928421,0.37038922,0.69231415,0
-2.6138055,-2.3878419,1.4489369,-0.61928421,-0.37038922,-0.69231415,0
3.2452841,0.43132651,-2.3683033,0.74290359,0.0089741945,-0.66933835,0
0.79100442,-2.5066147,2.8001256,0.61928421,0.37038922,0.69231415,0
-1.7796104,2.9735351,-1.0601823,-0.25412869,0.92883331,-0.2696059,0
-3.5143018,0.96712703,2.0884686,-0.74290359,-0.0089741945,0.66933835,0
2.5981724,-0.79773933,0.26933852,0.61928421,0.37038922,0.69231415,0
3.1970568,-1.4449817,-2.4469881,0.74290359,0.0089741945,-0.66933835,0
0.59491062,2.7380161,-4.1097903,-0.25412869,0.92883331,-0.2696059,0
2.5269365,1.8595126,-1.0885742,0.61928421,0.37038922,0.69231415,0
-0.60316086,-3.4965293,1.5043716,0.25412869,-0.92883331,0.2696059,0
-1.1530778,1.0578985,-1.7011803,-0.61928421,-0.37038922,-0.69231415,0
4.2163873,-1.0929135,-1.3109047,0.74290359,0.0089741945,-0.66933835,0
-0.72446752,-2.8157706,3.9640326,0.25412869,-0.92883331,0.2696059,0
3.6106515,-2.8173094,-0.12752217,0.25412869,-0.92883331,0.2696059,0
0.96447825,0.82402229,0.86305451,0.61928421,0.37038922,0.69231415,0
0.13079929,2.2778313,-3.5022919,-0.61928421,-0.37038922,-0.69231415,0
-3.3068774,-0.70887518,1.1706488,-0.61928421,-0.37038922,-0.69231415,0
-1.400687,-3.1639302,3.4019692,0.25412869,-0.92883331,0.2696059,0
0.94558346,-1.3334236,-2.2990997,-0.61928421,-0.37038922,-0.69231415,0
1.685981,-2.7317104,1.9815595,0.25412869,-0.92883331,0.2696059,0
-2.1715412,3.4054329,0.79720175,-0.25412869,0.92883331,-0.2696059,0
-1.5153818,1.3233792,-1.5191274,-0.61928421,-0.37038922,-0.69231415,0
1.1997762,-3.3100557,0.4473657,0.25412869,-0.92883331,0.2696059,0
-0.016786337,0.51721203,-2.4283402,-0.61928421,-0.37038922,-0.69231415,0
-0.053458214,-1.4488442,2.9895995,0.61928421,0.37038922,0.69231415,0
-0.73256028,-0.44026318,3.0574729,0.61928421,0.37038922,0.69231415,0
2.3325207,-2.9331384,0.67818594,0.25412869,-0.92883331,0.2696059,0
3.4833553,1.7112074,-2.0869064,0.74290359,0.0089741945,-0.66933835,0
1.3226054,-2.4404039,2.2891786,0.61928421,0.37038922,0.69231415,0
-0.67776841,-2.3344624,-0.31143236,-0.61928421,-0.37038922,-0.69231415,0
2.3323631,2.059082,-1.0212954,0.61928421,0.37038922,0.69231415,0
-3.6173308,1.5855983,1.982408,-0.74290359,-0.0089741945,0.66933835,0
2.961513,2.8286004,-2.6511211,0.74290359,0.0089741945,-0.66933835,0
3.5557995,-2.2021654,0.16409853,0.61928421,0.37038922,0.69231415,0
-1.3209984,-2.8613443,4.3693099,0.25412869,-0.92883331,0.2696059,0
-0.23159176,1.723562,1.4516999,0.61928421,0.37038922,0.69231415,0
2.2147646,-2.7476702,1.4281486,0.25412869,-0.92883331,0.2696059,0
-2.5651779,0.34275663,3.1335368,-0.74290359,-0.0089741945,0.66933835,0
-1.3197368,-3.3972206,0.83139443,-0.61928421,-0.37038922,-0.69231415,0
3.1081197,-0.70729256,-2.5358095,0.74290359,0.0089741945,-0.66933835,0
3.9453058,-1.6170225,-1.6188074,0.74290359,0.0089741945,-0.66933835,0
-3.3186207,-2.1918318,1.9745378,-0.61928421,-0.37038922,-0.69231415,0
2.6918645,-3.5454161,-1.7699193,0.25412869,-0.92883331,0.2696059,0
1.3975695,2.1031823,-4.3966799,0.74290359,0.0089741945,-0.66933835,0
-1.966905,-3.5108335,2.7405484,0.25412869,-0.92883331,0.2696059,0
0.2048831,2.9814043,-2.9036427,-0.25412869,0.92883331,-0.2696059,0
1.5131094,2.8557258,-4.2583513,0.74290359,0.0089741945,-0.66933835,0
-0.71089399,2.9682877,1.2145119,0.61928421,0.37038922,0.69231415,0
2.6061268,2.1554923,-3.0545919,0.74290359,0.0089741945,-0.66933835,0
3.0098686,-2.409517,-2.6676815,0.74290359,0.0089741945,-0.66933835,0
1.1334374,2.732121,-4.6377101,-0.25412869,0.92883331,-0.2696059,0
-2.614387,3.0901606,0.12846437,-0.25412869,0.92883331,-0.2696059,0
-4.2738557,2.8272989,0.78706938,-0.25412869,0.92883331,-0.2696059,0
2.2237494,3.5870447,-2.720089,-0.25412869,0.92883331,-0.2696059,0
0.086608276,-1.1038532,-1.6535554,-0.61928421,-0.37038922,-0.69231415,0
0.16613251,1.2697213,1.3387357,0.61928421,0.37038922,0.69231415,0
0.88507104,-1.6193674,2.241303,0.61928421,0.37038922,0.69231415,0
-0.11739898,-0.72551543,2.6598134,0.61928421,0.37038922,0.69231415,0
-2.0250278,-3.5131297,2.7874231,0.25412869,-0.92883331,0.2696059,0
3.5890245,-0.23385966,-1.9957019,0.74290359,0.0089741945,-0.66933835,0
-2.6752026,3.0622454,0.089616641,-0.25412869,0.92883331,-0.2696059,0
2.8952346,-2.6561341,-2.7982211,0.74290359,0.0089741945,-0.66933835,0
1.9240322,-3.4247224,-0.6303575,0.25412869,-0.92883331,0.2696059,0
4.352932,-2.7584572,-0.6244368,0.25412869,-0.92883331,0.2696059,0
-2.6676252,-0.099603415,3.0138988,-0.74290359,-0.0089741945,0.66933835,0
1.3124778,2.3203928,-4.4882112,0.74290359,0.0089741945,-0.66933835,0
-2.4409976,-2.7658083,1.4965703,-0.61928421,-0.37038922,-0.69231415,0
3.574672,-1.7775711,-2.0323293,0.74290359,0.0089741945,-0.66933835,0
-2.5107279,0.97352141,3.2024283,-0.74290359,-0.0089741945,0.66933835,0
1.5517657,-3.1146064,0.78893572,0.25412869,-0.92883331,0.2696059,0
2.6601071,3.323029,-2.9790244,0.74290359,0.0089741945,-0.66933835,0
0.10599065,-3.2956495,1.5279924,0.25412869,-0.92883331,0.2696059,0
-1.8776877,-0.47390801,3.8856378,-0.74290359,-0.0089741945,0.66933835,0
-1.7951372,-1.4559703,3.9640937,-0.74290359,-0.0089741945,0.66933835,0
2.3934703,-2.5508664,1.3903729,0.61928421,0.37038922,0.69231415,0
-0.65697777,-0.76094508,-1.1718642,-0.61928421,-0.37038922,-0.69231415,0
2.413877,-3.0363059,0.24607304,0.25412869,-0.92883331,0.2696059,0
3.2676864,1.0040727,-1.293523,0.61928421,0.37038922,0.69231415,0
1.7375681,-2.7777381,1.7743621,0.25412869,-0.92883331,0.2696059,0
2.9216046,-3.4005189,-1.4872781,0.25412869,-0.92883331,0.2696059,0
1.2085552,3.2831495,-2.8101397,-0.25412869,0.92883331,-0.2696059,0
-1.7549949,-0.07699132,-0.5555898,-0.61928421,-0.37038922,-0.69231415,0
2.2504754,-3.2694736,-0.40320456,0.25412869,-0.92883331,0.2696059,0
4.1565132,-1.2517503,-0.88172126,0.61928421,0.37038922,0.69231415,0
1.2886621,1.7880423,-4.2759771,-0.61928421,-0.37038922,-0.69231415,0
-1.8830862,1.7865515,-1.4380089,-0.61928421,-0.37038922,-0.69231415,0
1.9038666,2.8165221,-1.0432318,0.61928421,0.37038922,0.69231415,0
2.4415631,3.3033428,-3.2218525,0.74290359,0.0089741945,-0.66933835,0
0.27813408,0.89550906,1.4387529,0.61928421,0.37038922,0.69231415,0
-1.2778108,-0.82846355,3.7528949,0.61928421,0.37038922,0.69231415,0
-0.72763562,3.1384249,-1.4836974,-0.25412869,0.92883331,-0.2696059,0
-0.62299705,-2.8842175,3.6325769,0.25412869,-0.92883331,0.2696059,0
0.83642209,-3.3654454,-1.1143181,-0.61928421,-0.37038922,-0.69231415,0
2.257216,3.7951856,-2.0345588,-0.25412869,0.92883331,-0.2696059,0
1.2021997,3.6686296,-1.4761102,-0.25412869,0.92883331,-0.2696059,0
0.90609401,2.8198547,-0.15249372,0.61928421,0.37038922,0.69231415,0
1.3288465,-2.1080101,2.1057644,0.61928421,0.37038922,0.69231415,0
-0.50899029,3.7618775,0.45809948,-0.25412869,0.92883331,-0.2696059,0
2.9666522,-3.6522336,-2.3969343,0.25412869,-0.92883331,0.2696059,0
-1.9022408,-2.1446686,0.68233454,-0.61928421,-0.37038922,-0.69231415,0
3.0513866,-3.2429552,-1.066777,0.25412869,-0.92883331,0.2696059,0
-4.0335865,0.23001146,1.3183942,-0.61928421,-0.37038922,-0.69231415,0
-2.6698124,3.6440997,2.0891123,-0.25412869,0.92883331,-0.2696059,0
-2.8927851,3.3888431,1.419888,-0.25412869,0.92883331,-0.2696059,0
-2.4171031,3.1873684,0.2774024,-0.25412869,0.92883331,-0.2696059,0
-3.6637535,0.7890178,0.68850386,-0.61928421,-0.37038922,-0.69231415,0
-0.58448625,-0.58207583,3.0008888,0.61928421,0.37038922,0.69231415,0
-2.9188318,0.80895436,0.011495531,-0.61928421,-0.37038922,-0.69231415,0
-3.0577354,-1.0445455,1.1273721,-0.61928421,-0.37038922,-0.69231415,0
0.073066711,-3.3169188,1.4857497,0.25412869,-0.92883331,0.2696059,0
-4.1341977,1.0887914,1.4020728,-0.74290359,-0.0089741945,0.66933835,0
-0.74177957,3.2639787,-1.0378129,-0.25412869,0.92883331,-0.2696059,0
2.9348543,-0.94160628,-2.7312593,0.74290359,0.0089741945,-0.66933835,0
3.0959487,3.3535159,-2.3968575,0.61928421,0.37038922,0.69231415,0
3.1586106,-0.91004705,-2.4824872,0.74290359,0.0089741945,-0.66933835,0
3.3846829,0.54574406,-2.2120495,0.74290359,0.0089741945,-0.66933835,0
1.6763768,-3.0338402,0.94973028,0.25412869,-0.92883331,0.2696059,0
-2.2539747,-0.3836627,0.054823875,-0.61928421,-0.37038922,-0.69231415,0
3.1653674,-2.3684015,-2.4945412,0.74290359,0.0089741945,-0.66933835,0
-0.95308506,2.339329,1.7676487,0.61928421,0.37038922,0.69231415,0
-2.3220379,-3.4539046,3.2714226,0.25412869,-0.92883331,0.2696059,0
1.0968125,-0.13597196,1.2582784,0.61928421,0.37038922,0.69231415,0
1.956993,3.664264,-2.2026134,-0.25412869,0.92883331,-0.2696059,0
-0.049897432,2.6614804,-3.5459094,-0.61928421,-0.37038922,-0.69231415,0
-3.7700052,2.7288914,-0.026884258,-0.25412869,0.92883331,-0.2696059,0
2.6511323,-2.8588314,0.63386363,0.25412869,-0.92883331,0.2696059,0
-3.8536229,-0.75740647,1.6887318,-0.74290359,-0.0089741945,0.66933835,0
0.23622108,3.6999321,-0.02412653,0.61928421,0.37038922,0.69231415,0
-0.14133692,3.0192008,-2.447083,-0.25412869,0.92883331,-0.2696059,0
0.62063581,1.0705957,1.0387089,0.61928421,0.37038922,0.69231415,0
-3.7198958,2.8719659,0.41879517,-0.25412869,0.92883331,-0.2696059,0
-1.6304986,2.3664596,-1.9742035,-0.61928421,-0.37038922,-0.69231415,0
1.7454278,1.2400858,-0.058110118,0.61928421,0.37038922,0.69231415,0
-0.68732071,2.0456765,-2.6462693,-0.61928421,-0.37038922,-0.69231415,0
0.26968658,-2.5958776,-1.0190858,-0.61928421,-0.37038922,-0.69231415,0
3.3953302,-2.6441548,0.54410541,0.61928421,0.37038922,0.69231415,0
0.15691471,-2.2637017,3.2373681,0.61928421,0.37038922,0.69231415,0
-1.0757285,1.8775953,2.1243832,0.61928421,0.37038922,0.69231415,0
1.9139684,0.38060579,-3.8466206,0.74290359,0.0089741945,-0.66933835,0
3.340085,-1.5093616,-2.289103,0.74290359,0.0089741945,-0.66933835,0
-1.2827427,-2.7105346,0.43092442,-0.61928421,-0.37038922,-0.69231415,0
-1.3525882,3.7017438,1.0460988,-0.25412869,0.92883331,-0.2696059,0
3.2951357,0.50368261,-1.0503677,0.61928421,0.37038922,0.69231415,0
0.35874295,2.9778314,-3.0609784,-0.25412869,0.92883331,-0.2696059,0
1.4849874,1.6943481,-4.3051348,0.74290359,0.0089741945,-0.66933835,0
2.7154598,-3.3558044,-2.8003004,-0.61928421,-0.37038922,-0.69231415,0
-2.9951935,3.5906727,2.699806,-0.74290359,-0.0089741945,0.66933835,0
-0.10122275,2.0488272,-3.1722271,-0.61928421,-0.37038922,-0.69231415,0
0.54068077,-0.47764111,1.9385391,0.61928421,0.37038922,0.69231415,0
0.01909405,-0.66188842,-1.829615,-0.61928421,-0.37038922,-0.69231415,0
3.580153,-2.0641439,0.068472207,0.61928421,0.37038922,0.69231415,0
0.9097259,2.9157817,-3.7941027,-0.25412869,0.92883331,-0.2696059,0
-2.0227365,-2.6574044,3.6953714,-0.74290359,-0.0089741945,0.66933835,0
-2.0702569,-3.8283539,1.7440612,0.25412869,-0.92883331,0.2696059,0
1.9059967,3.2014406,-3.749042,-0.25412869,0.92883331,-0.2696059,0
-4.0030832,2.9272118,0.87605655,-0.25412869,0.92883331,-0.2696059,0
-4.0277176,2.977946,1.0740643,-0.25412869,0.92883331,-0.2696059,0
0.94662166,2.8264992,-4.1364722,-0.25412869,0.92883331,-0.2696059,0
-1.8822184,3.4251301,0.59234786,-0.25412869,0.92883331,-0.2696059,0
0.30516672,3.0548556,-2.7451186,-0.25412869,0.92883331,-0.2696059,0
2.8910606,1.1196117,-1.01844,0.61928421,0.37038922,0.69231415,0
1.4561336,2.6109765,-0.53276134,0.61928421,0.37038922,0.69231415,0
-3.165905,-1.3898017,2.4435558,-0.74290359,-0.0089741945,0.66933835,0
1.9569917,-3.5136325,-0.9677335,0.25412869,-0.92883331,0.2696059,0
2.4547408,3.2270846,-3.2082489,0.74290359,0.0089741945,-0.66933835,0
-2.6953747,-2.8605876,1.7748213,-0.61928421,-0.37038922,-0.69231415,0
-3.2343943,-1.5557492,2.365314,-0.74290359,-0.0089741945,0.66933835,0
0.36479735,3.2205677,-2.230423,-0.25412869,0.92883331,-0.2696059,0
-2.1804335,0.60379845,3.5640674,-0.74290359,-0.0089741945,0.66933835,0
1.700151,3.1070497,-1.0164381,0.61928421,0.37038922,0.69231415,0
-3.3863943,2.8293939,2.2554021,-0.74290359,-0.0089741945,0.66933835,0
-1.6492249,2.2056985,2.4618478,0.61928421,0.37038922,0.69231415,0
-1.0267694,3.2392988,-0.85420942,-0.25412869,0.92883331,-0.2696059,0
-2.7618845,3.0612664,0.1679495,-0.25412869,0.92883331,-0.2696059,0
-1.6902448,3.4935272,1.80955,0.61928421,0.37038922,0.69231415,0
-1.3457308,3.5161796,0.40033755,-0.25412869,0.92883331,-0.2696059,0
1.7238888,1.2540919,-0.046336174,0.61928421,0.37038922,0.69231415,0
-3.3158958,3.536329,2.3431273,-0.74290359,-0.0089741945,0.66933835,0
0.78782058,3.4559326,-1.818293,-0.25412869,0.92883331,-0.2696059,0
0.85138857,3.4296384,-0.42979431,0.61928421,0.37038922,0.69231415,0
1.4428402,-0.6607396,1.2295034,0.61928421,0.37038922,0.69231415,0
-0.40048513,0.79650903,2.098752,0.61928421,0.37038922,0.69231415,0
0.92858094,-0.86633551,-2.5337834,-0.61928421,-0.37038922,-0.69231415,0
-0.47601485,3.6699858,0.11043471,-0.25412869,0.92883331,-0.2696059,0
-2.8842645,0.38839179,2.7799921,-0.74290359,-0.0089741945,0.66933835,0
-2.9325943,-1.4205638,2.7020965,-0.74290359,-0.0089741945,0.66933835,0
-1.6984069,3.5932188,0.99817872,-0.25412869,0.92883331,-0.2696059,0
-1.1129347,2.8352048,1.6453421,0.61928421,0.37038922,0.69231415,0
-2.7057309,-1.7383534,2.9496331,-0.74290359,-0.0089741945,0.66933835,0
0.75664002,1.9087501,0.46863726,0.61928421,0.37038922,0.69231415,0
0.40771174,2.8224335,-3.6425066,-0.25412869,0.92883331,-0.2696059,0
-2.6469345,-0.31533921,3.0339708,-0.74290359,-0.0089741945,0.66933835,0
1.7501705,-3.0661016,-2.0918279,-0.61928421,-0.37038922,-0.69231415,0
2.2482479,3.5471437,-2.8806474,-0.25412869,0.92883331,-0.2696059,0
2.7025456,0.9960351,-2.9631212,0.74290359,0.0089741945,-0.66933835,0
1.4967853,3.5745895,-2.0777688,-0.25412869,0.92883331,-0.2696059,0
-3.2758656,-2.8230133,2.3022938,-0.74290359,-0.0089741945,0.66933835,0
-4.0560551,1.1882063,1.4901366,-0.74290359,-0.0089741945,0.66933835,0
-2.3124938,0.71041894,3.4189217,-0.74290359,-0.0089741945,0.66933835,0
1.6605988,-3.2985234,-1.8873587,-0.61928421,-0.37038922,-0.69231415,0
2.6923146,-2.926229,0.36285123,0.25412869,-0.92883331,0.2696059,0
2.9047055,3.0161815,-2.7116573,0.74290359,0.0089741945,-0.66933835,0
-2.9806085,1.7989582,-0.46289781,-0.61928421,-0.37038922,-0.69231415,0
-0.99718076,0.27551818,-1.4220577,-0.61928421,-0.37038922,-0.69231415,0
2.9690759,2.6142621,-2.6456008,0.74290359,0.0089741945,-0.66933835,0
0.42916739,0.29092801,1.6271036,0.61928421,0.37038922,0.69231415,0
0.86237586,2.1001954,0.27163172,0.61928421,0.37038922,0.69231415,0
-1.6765555,-2.0241795,0.41599405,-0.61928421,-0.37038922,-0.69231415,0
-2.8777697,-3.1742573,2.7394342,-0.74290359,-0.0089741945,0.66933835,0
