-1.9994965,-3.4652643,0.97896194,-0.24149778,-0.019430161,0.97020686,0
1.0912387,-0.40122354,-1.2824731,0.24149778,0.019430161,-0.97020686,0
2.8754168,0.84769106,2.2787695,-0.24149778,-0.019430161,0.97020686,0
-0.1055398,3.2584708,1.3295522,-0.58436185,0.80110788,-0.12941206,0
-4.1398211,-3.1281826,0.38335466,-0.77472579,-0.59820461,-0.20482004,0
4.6159072,0.61583281,2.2871797,0.58436185,-0.80110788,0.12941206,0
0.16797709,-2.8781252,0.74299145,0.58436185,-0.80110788,0.12941206,0
3.6495764,1.5300459,-0.60699058,0.24149778,0.019430161,-0.97020686,0
2.2386305,-1.4474483,0.24934059,0.58436185,-0.80110788,0.12941206,0
1.0499502,1.1572908,1.8305861,-0.24149778,-0.019430161,0.97020686,0
4.3891072,0.17363682,-0.45007563,0.24149778,0.019430161,-0.97020686,0
-2.3299241,-1.550251,-2.1570587,0.24149778,0.019430161,-0.97020686,0
3.3943763,3.5674474,1.153336,0.77472579,0.59820461,0.20482004,0
-3.8473096,-3.0208097,-1.0366578,-0.77472579,-0.59820461,-0.20482004,0
-4.9762249,-0.9761138,-2.7383788,-0.77472579,-0.59820461,-0.20482004,0
-1.7125429,-4.3234572,0.28737402,0.58436185,-0.80110788,0.12941206,0
-0.51689297,-0.93768573,-1.6935028,0.24149778,0.019430161,-0.97020686,0
1.5920513,0.67033076,1.9557703,-0.24149778,-0.019430161,0.97020686,0
-0.42505467,-3.2600453,1.0566096,0.58436185,-0.80110788,0.12941206,0
-4.4259639,-1.9088778,-2.0954618,-0.77472579,-0.59820461,-0.20482004,0
3.9087014,-0.0078094006,1.6200036,0.58436185,-0.80110788,0.12941206,0
2.4286149,4.8829265,0.96426678,0.77472579,0.59820461,0.20482004,0
-2.8649685,-3.8983579,0.7548604,-0.24149778,-0.019430161,0.97020686,0
1.6727314,-1.7028954,1.2233557,0.58436185,-0.80110788,0.12941206,0
2.1865323,-1.6826456,-0.97136706,0.58436185,-0.80110788,0.12941206,0
3.3444376,4.0214834,0.016154289,0.77472579,0.59820461,0.20482004,0
-3.9658823,-3.1336839,-0.25849581,-0.77472579,-0.59820461,-0.20482004,0
-0.54335356,2.6915922,-0.20268106,-0.58436185,0.80110788,-0.12941206,0
2.1302161,1.2202739,-0.99138403,0.24149778,0.019430161,-0.97020686,0
-1.2189592,1.9210665,-1.8110051,0.24149778,0.019430161,-0.97020686,0
4.919168,1.8458738,0.41394377,0.77472579,0.59820461,0.20482004,0
3.2085953,-0.53518069,1.5167215,0.58436185,-0.80110788,0.12941206,0
4.857512,0.61937881,1.2181621,0.58436185,-0.80110788,0.12941206,0
-4.2915049,-0.013101578,-0.020894289,-0.58436185,0.80110788,-0.12941206,0
-1.4100361,-4.1330342,0.10018587,0.58436185,-0.80110788,0.12941206,0
-3.5034144,-3.0794127,-2.1662731,-0.77472579,-0.59820461,-0.20482004,0
-2.3257275,1.2189757,-1.2703826,-0.58436185,0.80110788,-0.12941206,0
3.9161334,1.8971786,-0.53328848,0.24149778,0.019430161,-0.97020686,0
0.65626717,-2.7203598,-0.48526418,0.58436185,-0.80110788,0.12941206,0
-0.79625255,-1.5044954,1.3177336,-0.24149778,-0.019430161,0.97020686,0
2.3057632,-1.4770386,-0.23697355,0.58436185,-0.80110788,0.12941206,0
3.8248048,0.061555147,2.4282315,0.58436185,-0.80110788,0.12941206,0
-4.591176,-2.1641977,-0.72485399,-0.77472579,-0.59820461,-0.20482004,0
-3.7319419,-3.1726191,-1.0296535,-0.77472579,-0.59820461,-0.20482004,0
4.2733517,0.041993141,0.28171635,0.58436185,-0.80110788,0.12941206,0
-2.1169317,-0.75356191,1.0040371,-0.24149778,-0.019430161,0.97020686,0
-3.4399509,-4.0660934,0.47541142,-0.77472579,-0.59820461,-0.20482004,0
0.43469012,-2.6046696,1.2314349,0.58436185,-0.80110788,0.12941206,0
-3.8377752,-1.9848094,0.55103731,-0.24149778,-0.019430161,0.97020686,0
1.0272737,-2.5031543,-0.81596816,0.58436185,-0.80110788,0.12941206,0
-3.0326784,-1.916616,0.75280333,-0.24149778,-0.019430161,0.97020686,0
-3.5078712,0.16815472,-2.4158518,0.24149778,0.019430161,-0.97020686,0
3.5386157,1.2211792,2.451329,-0.24149778,-0.019430161,0.97020686,0
0.22378099,-2.8959632,0.38058472,0.58436185,-0.80110788,0.12941206,0
-4.3756933,-0.34811997,-1.714627,-0.58436185,0.80110788,-0.12941206,0
2.1975746,-0.12244344,2.0906165,-0.24149778,-0.019430161,0.97020686,0
-3.6614132,-2.8150816,-2.3406622,-0.77472579,-0.59820461,-0.20482004,0
-2.350965,-3.4921942,-2.2011874,0.24149778,0.019430161,-0.97020686,0
3.1556036,-0.90113175,-0.50936484,0.58436185,-0.80110788,0.12941206,0
-1.0667081,2.0907645,-1.5588094,-0.58436185,0.80110788,-0.12941206,0
-3.6996067,-3.714998,0.43213129,-0.77472579,-0.59820461,-0.20482004,0
-3.6404123,-3.7967334,0.44695044,-0.77472579,-0.59820461,-0.20482004,0
-1.1822959,-2.9483731,1.1927257,-0.24149778,-0.019430161,0.97020686,0
-3.2371972,-3.7240462,-1.290493,-0.77472579,-0.59820461,-0.20482004,0
5.192122,1.0075243,1.8300161,0.77472579,0.59820461,0.20482004,0
-0.45933092,0.13868463,1.4345058,-0.24149778,-0.019430161,0.97020686,0
3.8854399,2.4906714,2.4407718,0.77472579,0.59820461,0.20482004,0
-3.3315558,-3.9320872,-0.32597256,-0.77472579,-0.59820461,-0.20482004,0
-1.9369533,-1.3899088,-2.0560322,0.24149778,0.019430161,-0.97020686,0
2.3355618,4.7383599,1.7384634,0.77472579,0.59820461,0.20482004,0
-1.4239248,1.9117078,-1.0542184,-0.58436185,0.80110788,-0.12941206,0
3.4921739,3.8168278,0.055069447,0.77472579,0.59820461,0.20482004,0
2.0722618,4.5534706,-0.48781872,-0.58436185,0.80110788,-0.12941206,0
2.5046682,4.5922623,1.5255198,0.77472579,0.59820461,0.20482004,0
-0.65396237,-3.5380259,0.36944366,0.58436185,-0.80110788,0.12941206,0
-4.5777516,-1.727073,-2.0523133,-0.77472579,-0.59820461,-0.20482004,0
-1.4732327,-4.0296369,1.0256219,0.58436185,-0.80110788,0.12941206,0
-2.9862242,-4.27738,-0.62370634,-0.77472579,-0.59820461,-0.20482004,0
4.4548554,2.5624669,-0.3858695,0.24149778,0.019430161,-0.97020686,0
4.2911034,1.8111932,-0.44167519,0.24149778,0.019430161,-0.97020686,0
3.3811123,3.8454342,0.39160728,0.77472579,0.59820461,0.20482004,0
0.36744624,-2.0963347,-1.4965827,0.24149778,0.019430161,-0.97020686,0
-2.910243,-1.0772958,0.80008769,-0.24149778,-0.019430161,0.97020686,0
3.9264927,2.5295451,2.1719551,0.77472579,0.59820461,0.20482004,0
-1.6434374,0.64824504,1.1499703,-0.24149778,-0.019430161,0.97020686,0
-0.52182353,-3.5211172,-0.12256193,0.58436185,-0.80110788,0.12941206,0
-0.1861614,-3.3675466,-0.68758821,0.58436185,-0.80110788,0.12941206,0
1.3883054,-2.2772546,-1.0478097,0.58436185,-0.80110788,0.12941206,0
2.353518,2.05493,2.173039,-0.24149778,-0.019430161,0.97020686,0
-3.4981902,-3.8738694,0.13428402,-0.77472579,-0.59820461,-0.20482004,0
-2.8173196,-4.0598426,-1.8979282,-0.77472579,-0.59820461,-0.20482004,0
3.0775504,3.5783057,2.3200083,0.77472579,0.59820461,0.20482004,0
-0.13827962,2.4436843,1.5605819,-0.24149778,-0.019430161,0.97020686,0
-2.3402157,-4.6625099,0.87017441,-0.24149778,-0.019430161,0.97020686,0
3.881351,-0.072989702,1.3400149,0.58436185,-0.80110788,0.12941206,0
0.2618106,-3.1784749,-1.5399884,0.58436185,-0.80110788,0.12941206,0
2.2194612,4.8934383,0.9520216,-0.58436185,0.80110788,-0.12941206,0
2.2366719,4.4334478,-0.90053606,0.24149778,0.019430161,-0.97020686,0
1.1701034,-2.4656563,-1.2287905,0.58436185,-0.80110788,0.12941206,0
0.44942784,3.2425487,-1.2749779,-0.58436185,0.80110788,-0.12941206,0
-4.7162132,-1.383147,-2.5330696,-0.77472579,-0.59820461,-0.20482004,0
0.31560379,0.43927729,1.6334176,-0.24149778,-0.019430161,0.97020686,0
-1.8659618,1.7101988,-0.30560884,-0.58436185,0.80110788,-0.12941206,0
-4.3578167,-2.3741064,-0.99446392,-0.77472579,-0.59820461,-0.20482004,0
2.7141249,4.931849,-0.2585516,0.77472579,0.59820461,0.20482004,0
-4.3330274,-2.0115309,-2.1471786,-0.77472579,-0.59820461,-0.20482004,0
-3.3352799,0.43212175,-1.5826478,-0.58436185,0.80110788,-0.12941206,0
-2.6909425,-4.9201798,0.13678455,-0.77472579,-0.59820461,-0.20482004,0
-3.546473,-0.92870253,0.64469719,-0.24149778,-0.019430161,0.97020686,0
-1.3586923,-4.0922899,0.12056446,0.58436185,-0.80110788,0.12941206,0
-2.3695188,-4.7354965,0.7032814,0.58436185,-0.80110788,0.12941206,0
-4.2483425,-2.4365551,-1.2261553,-0.77472579,-0.59820461,-0.20482004,0
4.9792461,1.9994699,-0.26189852,0.77472579,0.59820461,0.20482004,0
0.76580226,0.96694136,1.7560456,-0.24149778,-0.019430161,0.97020686,0
-4.8069139,-1.5719194,-1.6386623,-0.77472579,-0.59820461,-0.20482004,0
0.11710906,-2.7940829,1.4929404,0.58436185,-0.80110788,0.12941206,0
3.7046578,2.8216765,2.1578283,0.77472579,0.59820461,0.20482004,0
2.4385734,4.5811691,1.8079219,0.77472579,0.59820461,0.20482004,0
4.8541508,2.0572073,0.04264307,0.77472579,0.59820461,0.20482004,0
-1.0784147,-3.7320635,1.0849004,0.58436185,-0.80110788,0.12941206,0
-3.2565141,0.60736918,-0.85347009,-0.58436185,0.80110788,-0.12941206,0
1.9823718,4.4469967,-0.74103737,-0.58436185,0.80110788,-0.12941206,0
-3.5865378,-0.37467432,-2.4463043,0.24149778,0.019430161,-0.97020686,0
-0.2423743,3.009629,0.40700626,-0.58436185,0.80110788,-0.12941206,0
0.48071492,-0.82035601,1.6492896,-0.24149778,-0.019430161,0.97020686,0
-2.4054747,-4.9717035,-0.79250717,-0.77472579,-0.59820461,-0.20482004,0
3.9739547,3.2751505,-0.49129963,0.24149778,0.019430161,-0.97020686,0
-3.2245007,-3.4645896,-2.0962954,-0.77472579,-0.59820461,-0.20482004,0
-1.2778144,-4.060483,-0.047742844,0.58436185,-0.80110788,0.12941206,0
-2.2305777,-1.4754739,-2.1308327,0.24149778,0.019430161,-0.97020686,0
0.49783754,3.3022289,-1.1241307,-0.58436185,0.80110788,-0.12941206,0
1.9869273,0.14484394,-1.0485878,0.24149778,0.019430161,-0.97020686,0
0.86065054,-0.65014648,1.7472695,-0.24149778,-0.019430161,0.97020686,0
3.9178443,1.2744505,2.5467904,-0.24149778,-0.019430161,0.97020686,0
-4.8608565,-1.9513724,-0.32638168,-0.77472579,-0.59820461,-0.20482004,0
-4.0376902,0.13977794,0.54382491,-0.24149778,-0.019430161,0.97020686,0
3.8745522,3.2838745,0.16529608,0.77472579,0.59820461,0.20482004,0
4.2771702,2.0757923,2.1707735,0.77472579,0.59820461,0.20482004,0
1.5148008,-1.7733741,1.500205,0.58436185,-0.80110788,0.12941206,0
-4.129745,-0.24055648,-2.1593523,-0.58436185,0.80110788,-0.12941206,0
2.6135197,4.2416096,2.1379213,0.77472579,0.59820461,0.20482004,0
0.078393459,-2.8396826,1.3854814,0.58436185,-0.80110788,0.12941206,0
-0.8155309,2.668817,0.88535357,-0.58436185,0.80110788,-0.12941206,0
3.7030988,-0.24158823,1.1012274,0.58436185,-0.80110788,0.12941206,0
1.1542624,-0.078938365,-1.2603313,0.24149778,0.019430161,-0.97020686,0
-4.8728981,-1.5799993,-1.3654814,-0.77472579,-0.59820461,-0.20482004,0
-4.2440295,-0.32100677,-2.1413159,-0.58436185,0.80110788,-0.12941206,0
2.7978103,4.3445954,1.1400623,0.77472579,0.59820461,0.20482004,0
3.2194586,3.8982918,0.84868097,0.77472579,0.59820461,0.20482004,0
2.9929593,4.0661545,1.2151418,0.77472579,0.59820461,0.20482004,0
-1.3064498,-3.8301191,1.1441636,-0.24149778,-0.019430161,0.97020686,0
-0.27351594,-3.5733519,-1.567148,0.58436185,-0.80110788,0.12941206,0
-4.1081204,-2.7765341,-0.763587,-0.77472579,-0.59820461,-0.20482004,0
4.2381239,0.035435796,0.40019369,0.58436185,-0.80110788,0.12941206,0
-3.3833094,0.36762452,-1.7650316,-0.58436185,0.80110788,-0.12941206,0
-2.9871781,-4.6527114,0.47610855,-0.77472579,-0.59820461,-0.20482004,0
1.8896961,4.5455813,0.28772116,-0.58436185,0.80110788,-0.12941206,0
2.9971352,4.4700212,0.019799709,0.77472579,0.59820461,0.20482004,0
0.15180862,-0.89701068,1.5658851,-0.24149778,-0.019430161,0.97020686,0
4.3644218,2.0662644,1.8685741,0.77472579,0.59820461,0.20482004,0
-3.6566553,-3.5305097,-0.26915455,-0.77472579,-0.59820461,-0.20482004,0
-1.7506716,-1.5324519,-2.0125184,0.24149778,0.019430161,-0.97020686,0
-2.2584436,-4.9040341,-1.5462861,-0.77472579,-0.59820461,-0.20482004,0
1.4025522,-1.4222724,-1.2254312,0.24149778,0.019430161,-0.97020686,0
-0.62139821,-3.0057092,1.3311927,-0.24149778,-0.019430161,0.97020686,0
-1.3033249,-0.55449206,1.2105421,-0.24149778,-0.019430161,0.97020686,0
2.2852042,4.8718696,0.52164412,-0.58436185,0.80110788,-0.12941206,0
3.6276822,3.6905034,-0.088537693,0.77472579,0.59820461,0.20482004,0
-1.4633445,-3.4024887,-1.9784496,0.24149778,0.019430161,-0.97020686,0
0.59781158,-1.7019383,-1.431343,0.24149778,0.019430161,-0.97020686,0
0.80060792,3.7058043,0.0069856644,-0.58436185,0.80110788,-0.12941206,0
-0.9890306,-2.5732441,1.2483449,-0.24149778,-0.019430161,0.97020686,0
-2.5125494,0.86969399,-2.154053,0.24149778,0.019430161,-0.97020686,0
0.86209297,-1.4335886,-1.3601856,0.24149778,0.019430161,-0.97020686,0
4.5836067,2.0279715,1.1513524,0.77472579,0.59820461,0.20482004,0
3.431232,3.1158268,2.3329487,0.77472579,0.59820461,0.20482004,0
2.7935932,4.5649471,0.51244831,0.77472579,0.59820461,0.20482004,0
-1.2693503,-2.7979102,1.1740704,-0.24149778,-0.019430161,0.97020686,0
0.70475084,-1.5126972,-1.4009345,0.24149778,0.019430161,-0.97020686,0
3.2561419,3.9741404,0.48840094,0.77472579,0.59820461,0.20482004,0
-4.1844573,-2.863431,-0.22105217,-0.77472579,-0.59820461,-0.20482004,0
-1.5240498,-0.31107354,1.1604754,-0.24149778,-0.019430161,0.97020686,0
0.78292644,-2.7227018,-1.0716926,0.58436185,-0.80110788,0.12941206,0
-5.1949844,-1.0948224,-1.5642228,-0.77472579,-0.59820461,-0.20482004,0
2.1231108,2.2089155,2.1187711,-0.24149778,-0.019430161,0.97020686,0
-1.1011519,-1.0443435,1.2510556,-0.24149778,-0.019430161,0.97020686,0
-3.1035235,0.63535666,-1.3710474,-0.58436185,0.80110788,-0.12941206,0
1.3124025,-2.3407085,-1.0978727,0.58436185,-0.80110788,0.12941206,0
5.3327932,1.1490946,0.88445616,0.77472579,0.59820461,0.20482004,0
0.20630608,-1.5129552,-1.5250094,0.24149778,0.019430161,-0.97020686,0
2.4590318,4.2976408,-0.84790707,0.24149778,0.019430161,-0.97020686,0
0.27568573,-0.43100584,1.6060524,-0.24149778,-0.019430161,0.97020686,0
-2.7222056,-4.6531706,-0.52480125,-0.77472579,-0.59820461,-0.20482004,0
-0.10826874,-2.1592963,1.4758689,-0.24149778,-0.019430161,0.97020686,0
2.7123842,3.1210785,2.2837172,-0.24149778,-0.019430161,0.97020686,0
3.403893,3.5010302,1.3113198,0.77472579,0.59820461,0.20482004,0
-4.7001176,-2.3098288,0.11254692,-0.77472579,-0.59820461,-0.20482004,0
-3.5644655,-3.6778266,0.58516216,-0.24149778,-0.019430161,0.97020686,0
-2.2087379,-4.6891379,0.26425076,0.58436185,-0.80110788,0.12941206,0
0.14468598,-3.037117,-0.13605499,0.58436185,-0.80110788,0.12941206,0
-2.2869084,-1.5435014,0.94590783,-0.24149778,-0.019430161,0.97020686,0
-4.2960243,-2.2994218,-1.4463196,-0.77472579,-0.59820461,-0.20482004,0
-0.15684354,3.1430986,0.84701705,-0.58436185,0.80110788,-0.12941206,0
5.0640764,1.6973047,0.2997489,0.77472579,0.59820461,0.20482004,0
1.1786368,-2.3166676,-0.34502792,0.58436185,-0.80110788,0.12941206,0
-5.0803146,-0.56675029,0.11369801,-0.58436185,0.80110788,-0.12941206,0
0.69322252,3.5219653,-0.64614391,-0.58436185,0.80110788,-0.12941206,0
-4.6308494,-0.59225893,-2.073777,-0.58436185,0.80110788,-0.12941206,0
-0.51188195,-3.3956056,0.60951233,0.58436185,-0.80110788,0.12941206,0
-3.1730275,-3.6300633,-1.8077021,-0.77472579,-0.59820461,-0.20482004,0
-2.856853,0.089583218,0.83674634,-0.24149778,-0.019430161,0.97020686,0
4.7591715,1.8424331,-0.32454062,0.24149778,0.019430161,-0.97020686,0
-3.2002444,-4.2232351,0.027682781,-0.77472579,-0.59820461,-0.20482004,0
-1.4981253,-0.49064296,1.1633321,-0.24149778,-0.019430161,0.97020686,0
-3.1942258,-3.2881193,0.68512487,-0.24149778,-0.019430161,0.97020686,0
-1.816487,-4.3002634,0.90031147,0.58436185,-0.80110788,0.12941206,0
-2.448329,-4.5159178,-1.9615965,-0.77472579,-0.59820461,-0.20482004,0
1.8980827,0.2275126,2.0230775,-0.24149778,-0.019430161,0.97020686,0
1.9087716,4.6412597,0.79386759,-0.58436185,0.80110788,-0.12941206,0
-1.7843336,-0.71736646,-2.0045738,0.24149778,0.019430161,-0.97020686,0
4.4906163,1.7291868,2.3757267,0.77472579,0.59820461,0.20482004,0
-2.9302893,1.0301608,0.83730376,-0.24149778,-0.019430161,0.97020686,0
-3.5112977,-3.4368467,-1.0925217,-0.77472579,-0.59820461,-0.20482004,0
-1.5355873,-4.3081694,-0.41703749,0.58436185,-0.80110788,0.12941206,0
4.1236644,2.588871,1.2528892,0.77472579,0.59820461,0.20482004,0
3.0890212,4.0438242,0.91700888,0.77472579,0.59820461,0.20482004,0
-2.932791,-4.1844497,-1.097229,-0.77472579,-0.59820461,-0.20482004,0
2.7026277,1.6451688,2.2517309,-0.24149778,-0.019430161,0.97020686,0
-0.1340723,-3.3052442,-0.53712487,0.58436185,-0.80110788,0.12941206,0
1.5983748,4.5337386,1.5298753,-0.58436185,0.80110788,-0.12941206,0
-1.5121799,-4.2937784,-0.43364811,0.58436185,-0.80110788,0.12941206,0
-2.325897,-3.9291127,0.88842678,-0.24149778,-0.019430161,0.97020686,0
-1.3714451,1.961503,-0.98294169,-0.58436185,0.80110788,-0.12941206,0
3.2330434,2.9169362,2.4092283,-0.24149778,-0.019430161,0.97020686,0
-4.5853152,-2.1470838,-0.79700708,-0.77472579,-0.59820461,-0.20482004,0
-3.927413,-0.13615108,-2.4266765,-0.58436185,0.80110788,-0.12941206,0
4.2140627,2.3546143,1.5951395,0.77472579,0.59820461,0.20482004,0
3.3198884,-0.63111025,0.42033553,0.58436185,-0.80110788,0.12941206,0
3.4487405,3.4363532,1.3305826,0.77472579,0.59820461,0.20482004,0
-1.1770627,2.2015376,-0.37477612,-0.58436185,0.80110788,-0.12941206,0
2.8092749,3.9491515,2.251647,0.77472579,0.59820461,0.20482004,0
4.9123459,1.1914847,2.350982,0.77472579,0.59820461,0.20482004,0
4.4309926,0.18159246,0.43405676,0.58436185,-0.80110788,0.12941206,0
-5.2021446,-1.2852235,-0.9810462,-0.77472579,-0.59820461,-0.20482004,0
4.3098106,1.9752893,2.3408444,0.77472579,0.59820461,0.20482004,0
-2.214324,-4.6002936,0.83945227,0.58436185,-0.80110788,0.12941206,0
-2.2965748,1.4742502,0.17822258,-0.58436185,0.80110788,-0.12941206,0
-2.7637794,-4.355195,0.7708993,-0.24149778,-0.019430161,0.97020686,0
-0.036407888,2.0846391,1.5787485,-0.24149778,-0.019430161,0.97020686,0
-4.8847809,-1.9256091,-0.31113529,-0.77472579,-0.59820461,-0.20482004,0
5.0009747,0.64559102,0.73261285,0.58436185,-0.80110788,0.12941206,0
5.4462814,0.98115957,0.79911804,0.58436185,-0.80110788,0.12941206,0
0.40594086,2.4789031,1.6967509,-0.24149778,-0.019430161,0.97020686,0
2.4999447,-1.1585029,0.85804993,0.58436185,-0.80110788,0.12941206,0
-2.1300473,-4.9668674,-1.8484268,-0.77472579,-0.59820461,-0.20482004,0
2.8286424,4.8595843,-0.48065281,0.77472579,0.59820461,0.20482004,0
-1.325714,-3.9328694,0.95852327,0.58436185,-0.80110788,0.12941206,0
-0.19437754,-3.2777827,-0.094816446,0.58436185,-0.80110788,0.12941206,0
-4.043735,-1.8836565,0.50179672,-0.24149778,-0.019430161,0.97020686,0
4.0122066,0.91511589,-0.52904201,0.24149778,0.019430161,-0.97020686,0
1.4757954,-1.8699069,1.0787599,0.58436185,-0.80110788,0.12941206,0
-3.6382823,-3.6176429,-0.084166527,-0.77472579,-0.59820461,-0.20482004,0
-5.146596,-0.88351059,-1.5478711,-0.58436185,0.80110788,-0.12941206,0
3.3096707,3.6936772,1.105062,0.77472579,0.59820461,0.20482004,0
-2.2171504,1.5880115,0.52380556,-0.58436185,0.80110788,-0.12941206,0
3.0634327,3.9907084,1.1689301,0.77472579,0.59820461,0.20482004,0
0.25438222,-0.61599278,-1.4950793,0.24149778,0.019430161,-0.97020686,0
4.9043026,0.66439486,1.2855427,0.58436185,-0.80110788,0.12941206,0
3.663779,3.3878915,0.65874434,0.77472579,0.59820461,0.20482004,0
3.6510737,-0.24448371,1.3182243,0.58436185,-0.80110788,0.12941206,0
4.0483432,2.2815347,2.4354081,0.77472579,0.59820461,0.20482004,0
-2.4221489,1.3939401,0.24810426,-0.58436185,0.80110788,-0.12941206,0
5.2881474,1.5580225,-0.1410017,0.77472579,0.59820461,0.20482004,0
0.12626278,1.9207346,1.6159569,-0.24149778,-0.019430161,0.97020686,0
0.66395164,3.8895149,1.7612929,-0.58436185,0.80110788,-0.12941206,0
1.9049443,-0.90201461,-1.0899599,0.24149778,0.019430161,-0.97020686,0
5.0181437,1.9283679,-0.20136452,0.77472579,0.59820461,0.20482004,0
1.171715,-2.2140393,0.32153368,0.58436185,-0.80110788,0.12941206,0
-5.2045603,-0.64295363,0.20300388,-0.58436185,0.80110788,-0.12941206,0
-1.2982814,0.066873193,1.2242414,-0.24149778,-0.019430161,0.97020686,0
3.1725593,-0.48319244,2.0012662,0.58436185,-0.80110788,0.12941206,0
4.6042638,1.3255146,2.7186723,-0.24149778,-0.019430161,0.97020686,0
-4.4862452,-0.23986876,-0.54531431,-0.58436185,0.80110788,-0.12941206,0
1.4972872,4.2668171,0.33399343,-0.58436185,0.80110788,-0.12941206,0
4.2423563,0.29546213,1.9907434,0.58436185,-0.80110788,0.12941206,0
4.1510282,2.1356308,2.4731367,0.77472579,0.59820461,0.20482004,0
2.8906457,4.1029253,1.4947462,0.77472579,0.59820461,0.20482004,0
3.4106171,3.8906054,0.14807796,0.77472579,0.59820461,0.20482004,0
1.3632588,1.9732571,1.924914,-0.24149778,-0.019430161,0.97020686,0
4.9744,1.3703408,1.5938878,0.77472579,0.59820461,0.20482004,0
-0.026350141,-0.50807488,1.5293281,-0.24149778,-0.019430161,0.97020686,0
-4.442832,-2.1026144,-1.4658241,-0.77472579,-0.59820461,-0.20482004,0
-3.4530649,-3.1296785,-2.2099109,-0.77472579,-0.59820461,-0.20482004,0
4.7779517,1.705645,1.3576479,0.77472579,0.59820461,0.20482004,0
0.67873716,1.1373118,1.7377859,-0.24149778,-0.019430161,0.97020686,0
-4.2969933,-1.938256,-2.4974859,-0.77472579,-0.59820461,-0.20482004,0
-3.7827826,-2.8736272,-1.7105942,-0.77472579,-0.59820461,-0.20482004,0
0.63366616,-1.1563796,-1.4114925,0.24149778,0.019430161,-0.97020686,0
-4.8898849,-0.6415863,-1.2094524,-0.58436185,0.80110788,-0.12941206,0
-3.8301425,-1.0037718,0.57258463,-0.24149778,-0.019430161,0.97020686,0
-3.7858019,-3.0724759,-1.118412,-0.77472579,-0.59820461,-0.20482004,0
-3.0190673,0.57706785,-2.1132402,-0.58436185,0.80110788,-0.12941206,0
-3.4268646,-3.3756719,-1.5905557,-0.77472579,-0.59820461,-0.20482004,0
1.9610492,4.4022732,-0.92160654,-0.58436185,0.80110788,-0.12941206,0
-0.55873477,-0.51827359,1.3966061,-0.24149778,-0.019430161,0.97020686,0
-3.4659576,-0.57900393,0.67174196,-0.24149778,-0.019430161,0.97020686,0
-2.8020091,-4.2113681,-1.5132895,-0.77472579,-0.59820461,-0.20482004,0
2.4556804,4.423624,2.2033477,0.77472579,0.59820461,0.20482004,0
1.0326183,-0.77173305,-1.3044846,0.24149778,0.019430161,-0.97020686,0
-3.1887228,0.68005407,-0.70963562,-0.58436185,0.80110788,-0.12941206,0
0.22008085,3.5218208,1.489439,-0.58436185,0.80110788,-0.12941206,0
5.0739832,1.5582337,0.66845179,0.77472579,0.59820461,0.20482004,0
-5.1038599,-1.7217425,-0.077894688,-0.77472579,-0.59820461,-0.20482004,0
-3.9457011,-3.3258519,0.22642183,-0.77472579,-0.59820461,-0.20482004,0
3.9601028,2.9079347,0.9396863,0.77472579,0.59820461,0.20482004,0
-0.0634422,-2.2323022,-1.6065599,0.24149778,0.019430161,-0.97020686,0
-1.234948,1.5081925,1.2688709,-0.24149778,-0.019430161,0.97020686,0
-2.5345078,1.3015625,0.18361157,-0.58436185,0.80110788,-0.12941206,0
2.919688,-0.5764218,-0.83085561,0.24149778,0.019430161,-0.97020686,0
-3.7627723,-0.095127106,-2.4845734,0.24149778,0.019430161,-0.97020686,0
-1.2728388,-3.5832281,1.1574748,-0.24149778,-0.019430161,0.97020686,0
-4.3842587,-2.448616,-0.67683125,-0.77472579,-0.59820461,-0.20482004,0
3.6720657,2.9232502,1.9844499,0.77472579,0.59820461,0.20482004,0
2.400444,-1.1850141,-0.97229075,0.24149778,0.019430161,-0.97020686,0
-4.7486763,-0.54493618,-1.2487817,-0.58436185,0.80110788,-0.12941206,0
-3.3260479,0.5948267,-0.61713076,-0.58436185,0.80110788,-0.12941206,0
3.4104004,3.2248142,2.0934329,0.77472579,0.59820461,0.20482004,0
3.9829569,2.6975334,1.4677472,0.77472579,0.59820461,0.20482004,0
4.4014788,2.2162247,1.2904291,0.77472579,0.59820461,0.20482004,0
1.1371897,-2.3494194,-0.36062014,0.58436185,-0.80110788,0.12941206,0
-0.063849449,-0.68954575,1.5163598,-0.24149778,-0.019430161,0.97020686,0
-4.9674602,-1.8884664,-0.10688257,-0.77472579,-0.59820461,-0.20482004,0
-4.9803653,-1.3578053,-1.6079369,-0.77472579,-0.59820461,-0.20482004,0
5.0605469,1.5374222,0.78005791,0.77472579,0.59820461,0.20482004,0
3.7875891,2.7757752,1.9782057,0.77472579,0.59820461,0.20482004,0
4.5418181,2.1999249,0.8072052,0.77472579,0.59820461,0.20482004,0
-2.7597649,-2.0099535,0.81886578,-0.24149778,-0.019430161,0.97020686,0
4.8940787,1.7092642,0.90782928,0.77472579,0.59820461,0.20482004,0
4.2994814,1.5835314,-0.44414902,0.24149778,0.019430161,-0.97020686,0
-2.3953862,-4.900136,-1.0396891,-0.77472579,-0.59820461,-0.20482004,0
2.0101175,4.5120835,2.1367707,-0.24149778,-0.019430161,0.97020686,0
2.8777986,-0.31756639,2.2560258,-0.24149778,-0.019430161,0.97020686,0
-0.2310679,2.9392667,-0.07961607,-0.58436185,0.80110788,-0.12941206,0
3.4767756,-0.28120923,1.877924,0.58436185,-0.80110788,0.12941206,0
-3.5255847,0.45340466,-0.59157252,-0.58436185,0.80110788,-0.12941206,0
0.037839532,1.1818256,-1.5129752,0.24149778,0.019430161,-0.97020686,0
-3.4902458,-3.6779561,0.60363436,-0.24149778,-0.019430161,0.97020686,0
-2.6307476,-5.0100079,0.171453,-0.77472579,-0.59820461,-0.20482004,0
0.85663164,-2.249388,1.5254757,0.58436185,-0.80110788,0.12941206,0
0.030892551,0.23116326,-1.5337431,0.24149778,0.019430161,-0.97020686,0
-1.0754604,-0.42098504,1.2699344,-0.24149778,-0.019430161,0.97020686,0
2.5019867,4.8418765,0.80663204,0.77472579,0.59820461,0.20482004,0
-3.5771985,-2.8736634,-2.4881055,-0.77472579,-0.59820461,-0.20482004,0
3.0729351,3.7404623,1.8638649,0.77472579,0.59820461,0.20482004,0
-0.82739127,2.4784844,-0.23932004,-0.58436185,0.80110788,-0.12941206,0
3.6000023,3.1593661,1.5674186,0.77472579,0.59820461,0.20482004,0
2.1160929,-0.60942429,-1.0315425,0.24149778,0.019430161,-0.97020686,0
1.9211659,-1.3885092,1.9964595,-0.24149778,-0.019430161,0.97020686,0
-0.21057904,3.0021069,0.21687007,-0.58436185,0.80110788,-0.12941206,0
-4.8856554,-1.876135,-0.45232201,-0.77472579,-0.59820461,-0.20482004,0
0.98859715,2.5388253,1.8429818,-0.24149778,-0.019430161,0.97020686,0
1.6245173,2.0956411,-1.0997286,0.24149778,0.019430161,-0.97020686,0
-3.4967411,0.50327826,-0.41308177,-0.58436185,0.80110788,-0.12941206,0
2.5042748,3.3905954,2.2373135,-0.24149778,-0.019430161,0.97020686,0
1.4572073,-2.1664603,-0.67307979,0.58436185,-0.80110788,0.12941206,0
-2.5249693,-4.9256682,0.2279892,0.58436185,-0.80110788,0.12941206,0
4.8107939,1.3867445,2.164814,0.77472579,0.59820461,0.20482004,0
-2.7448487,-4.856595,0.15497446,-0.77472579,-0.59820461,-0.20482004,0
2.2303042,-1.2451758,1.5390768,0.58436185,-0.80110788,0.12941206,0
0.97557878,-2.5137508,-0.64813471,0.58436185,-0.80110788,0.12941206,0
-4.06809,-0.66901243,0.5200603,-0.24149778,-0.019430161,0.97020686,0
-3.2117083,-3.5516334,-1.8904576,-0.77472579,-0.59820461,-0.20482004,0
4.1493177,2.2820659,2.0519214,0.77472579,0.59820461,0.20482004,0
3.8797803,1.4804742,-0.55068231,0.24149778,0.019430161,-0.97020686,0
2.0857635,0.9671396,-1.0075183,0.24149778,0.019430161,-0.97020686,0
1.3104836,4.3151979,1.4770021,-0.58436185,0.80110788,-0.12941206,0
4.4054022,1.6336918,2.6753452,-0.24149778,-0.019430161,0.97020686,0
2.641257,4.1888919,2.1869745,0.77472579,0.59820461,0.20482004,0
-4.069705,0.21853015,0.41145134,-0.58436185,0.80110788,-0.12941206,0
5.485837,0.88291025,0.01230669,0.58436185,-0.80110788,0.12941206,0
3.4238956,0.30692792,2.4044638,-0.24149778,-0.019430161,0.97020686,0
-0.59573835,-3.8395841,-1.7602224,0.58436185,-0.80110788,0.12941206,0
-4.2560587,-2.4502425,-1.1569934,-0.77472579,-0.59820461,-0.20482004,0
4.0311742,3.1049139,0.095557213,0.77472579,0.59820461,0.20482004,0
-3.4947414,0.50469476,-0.41334283,-0.58436185,0.80110788,-0.12941206,0
-0.8185358,0.099738836,-1.7478094,0.24149778,0.019430161,-0.97020686,0
-0.4647429,2.5351522,-1.5260673,-0.58436185,0.80110788,-0.12941206,0
0.59929073,-2.6602182,0.14431119,0.58436185,-0.80110788,0.12941206,0
0.72283137,-1.61092,-1.3984011,0.24149778,0.019430161,-0.97020686,0
-0.70686018,-0.5915916,-1.733857,0.24149778,0.019430161,-0.97020686,0
-1.9188066,1.7575808,0.22632384,-0.58436185,0.80110788,-0.12941206,0
4.7480049,1.7477014,1.3480883,0.77472579,0.59820461,0.20482004,0
-4.0423117,-0.70099258,-2.566288,0.24149778,0.019430161,-0.97020686,0
-0.47897887,2.0601907,1.468097,-0.24149778,-0.019430161,0.97020686,0
-3.9626307,-2.3728843,-2.4928133,-0.77472579,-0.59820461,-0.20482004,0
-0.7205103,2.7520399,0.97146535,-0.58436185,0.80110788,-0.12941206,0
1.047999,0.77003908,-1.2697794,0.24149778,0.019430161,-0.97020686,0
-5.3884401,-1.3501074,-0.086888313,-0.77472579,-0.59820461,-0.20482004,0
-3.5371873,-3.6844265,-0.27150345,-0.77472579,-0.59820461,-0.20482004,0
4.2038498,-0.11067295,-0.34950614,0.58436185,-0.80110788,0.12941206,0
-4.3109589,-2.8166795,0.12089252,-0.77472579,-0.59820461,-0.20482004,0
0.15027207,-3.2557998,-1.5150056,0.58436185,-0.80110788,0.12941206,0
3.3712358,3.3773365,1.7961092,0.77472579,0.59820461,0.20482004,0
-4.4570012,-1.7132363,0.40234232,-0.24149778,-0.019430161,0.97020686,0
3.2057416,-0.74823248,0.21073616,0.58436185,-0.80110788,0.12941206,0
-4.7426972,-1.4278343,-2.3023791,-0.77472579,-0.59820461,-0.20482004,0
3.8156164,2.9520731,1.3572917,0.77472579,0.59820461,0.20482004,0
-2.4233561,-0.47405505,0.93336177,-0.24149778,-0.019430161,0.97020686,0
2.0814602,-0.11761707,-1.0303136,0.24149778,0.019430161,-0.97020686,0
1.6633458,-0.36258996,-1.1392939,0.24149778,0.019430161,-0.97020686,0
-3.6820579,-1.5670979,0.59816337,-0.24149778,-0.019430161,0.97020686,0
-2.6605947,-2.2319415,-2.2530196,0.24149778,0.019430161,-0.97020686,0
0.43329597,3.3064666,-0.80646014,-0.58436185,0.80110788,-0.12941206,0
0.81438637,-1.4069889,-1.3715277,0.24149778,0.019430161,-0.97020686,0
-1.6663911,-3.2349439,-2.0256352,0.24149778,0.019430161,-0.97020686,0
-2.5150023,-3.9790487,-2.2517681,0.24149778,0.019430161,-0.97020686,0
1.7995249,-1.9062762,-0.60818523,0.58436185,-0.80110788,0.12941206,0
4.9829292,1.1506507,2.2032623,0.77472579,0.59820461,0.20482004,0
-1.8775517,1.7580683,0.043055624,-0.58436185,0.80110788,-0.12941206,0
3.6108079,-0.55664057,-0.43232083,0.58436185,-0.80110788,0.12941206,0
0.12586021,-1.2846375,-1.5404611,0.24149778,0.019430161,-0.97020686,0
2.6637034,3.7311902,-0.80830574,0.24149778,0.019430161,-0.97020686,0
-3.944639,-2.6517067,-1.7465272,-0.77472579,-0.59820461,-0.20482004,0
2.8875408,2.904038,2.3229697,-0.24149778,-0.019430161,0.97020686,0
3.3028712,3.4305649,1.8992348,0.77472579,0.59820461,0.20482004,0
4.1751261,2.4605255,1.4330878,0.77472579,0.59820461,0.20482004,0
2.2741511,4.8869972,1.5366311,0.77472579,0.59820461,0.20482004,0
-2.858011,0.50457144,-2.2473555,0.24149778,0.019430161,-0.97020686,0
-0.78146398,2.6418393,0.56452215,-0.58436185,0.80110788,-0.12941206,0
-2.9808576,-4.1771502,-0.93673849,-0.77472579,-0.59820461,-0.20482004,0
2.4749656,3.0312357,-0.86930323,0.24149778,0.019430161,-0.97020686,0
-0.29632688,2.968287,0.39470887,-0.58436185,0.80110788,-0.12941206,0
-1.2662225,-3.0392976,1.1700144,-0.24149778,-0.019430161,0.97020686,0
3.7821512,3.4442344,0.046448708,0.77472579,0.59820461,0.20482004,0
-1.0428097,-0.32101899,1.2800635,-0.24149778,-0.019430161,0.97020686,0
0.90151441,3.7758436,-0.015090942,-0.58436185,0.80110788,-0.12941206,0
0.78879547,3.6459093,-0.31044722,-0.58436185,0.80110788,-0.12941206,0
2.892334,0.64299619,-0.81324339,0.24149778,0.019430161,-0.97020686,0
-2.9977686,-4.6990809,0.65159655,-0.77472579,-0.59820461,-0.20482004,0
4.1513124,2.3168421,1.9428074,0.77472579,0.59820461,0.20482004,0
4.6933799,2.3296585,-0.14497852,0.77472579,0.59820461,0.20482004,0
-1.7793522,-0.2308023,-1.9935896,0.24149778,0.019430161,-0.97020686,0
5.2030921,1.1035197,1.508153,0.77472579,0.59820461,0.20482004,0
-2.9364595,-4.7522764,0.5750618,-0.77472579,-0.59820461,-0.20482004,0
-2.4952316,-4.7921758,-0.97733974,-0.77472579,-0.59820461,-0.20482004,0
-1.1846972,-3.8978443,0.53857803,0.58436185,-0.80110788,0.12941206,0
1.614422,4.2521629,-0.28564262,-0.58436185,0.80110788,-0.12941206,0
-2.310699,-1.957664,-2.1604326,0.24149778,0.019430161,-0.97020686,0
-1.7598389,-1.3746972,-2.0116413,0.24149778,0.019430161,-0.97020686,0
-1.1101615,2.438108,0.78758955,-0.58436185,0.80110788,-0.12941206,0
4.628664,2.3812301,-0.050815582,0.77472579,0.59820461,0.20482004,0
-3.3938813,-3.5151343,-1.3079948,-0.77472579,-0.59820461,-0.20482004,0
-2.4611266,-4.7626543,-1.1925626,-0.77472579,-0.59820461,-0.20482004,0
-0.054612458,3.2615466,1.5977867,-0.24149778,-0.019430161,0.97020686,0
0.81959713,3.647639,-0.43882465,-0.58436185,0.80110788,-0.12941206,0
2.16675,4.4386883,2.1742887,-0.24149778,-0.019430161,0.97020686,0
3.49177,-0.61865896,-0.27872014,0.58436185,-0.80110788,0.12941206,0
-2.6842585,-1.1607332,0.85466766,-0.24149778,-0.019430161,0.97020686,0
3.7110949,0.047120139,-0.6213758,0.24149778,0.019430161,-0.97020686,0
5.0083132,0.69040143,0.97687078,0.58436185,-0.80110788,0.12941206,0
-3.4826117,-3.7466359,-0.29624319,-0.77472579,-0.59820461,-0.20482004,0
3.034307,-1.0268379,-0.73981649,0.58436185,-0.80110788,0.12941206,0
-5.0242481,-1.1886883,-1.9358804,-0.77472579,-0.59820461,-0.20482004,0
-3.3042011,-3.5597591,-1.5168743,-0.77472579,-0.59820461,-0.20482004,0
-1.0627967,0.87098885,-1.7931638,0.24149778,0.019430161,-0.97020686,0
0.43346786,-2.9712191,-1.0321207,0.58436185,-0.80110788,0.12941206,0
-4.07828,0.19484982,0.30357909,-0.58436185,0.80110788,-0.12941206,0
0.68529433,3.8234656,1.2560513,-0.58436185,0.80110788,-0.12941206,0
4.3594437,2.7429335,-0.088898182,0.77472579,0.59820461,0.20482004,0
2.6062937,4.717031,0.77672195,0.77472579,0.59820461,0.20482004,0
4.1578975,-0.13441208,-0.51379633,0.24149778,0.019430161,-0.97020686,0
3.9848442,-0.2969743,-0.51385736,0.58436185,-0.80110788,0.12941206,0
1.8562627,1.7543733,-1.0488782,0.24149778,0.019430161,-0.97020686,0
-5.2112803,-1.5963807,-0.037715435,-0.77472579,-0.59820461,-0.20482004,0
2.4074373,3.7424507,-0.87186861,0.24149778,0.019430161,-0.97020686,0
1.2198572,1.819291,1.8861359,-0.24149778,-0.019430161,0.97020686,0
3.2915776,1.2723016,-0.70126295,0.24149778,0.019430161,-0.97020686,0
3.3456903,4.2305155,-0.59909058,0.77472579,0.59820461,0.20482004,0
-3.951278,-2.9658,-0.80406332,-0.77472579,-0.59820461,-0.20482004,0
-2.238337,1.1568549,-2.0495441,-0.58436185,0.80110788,-0.12941206,0
-3.7479031,-3.3109777,-0.56518507,-0.77472579,-0.59820461,-0.20482004,0
0.00061106682,-2.9526286,1.0375307,0.58436185,-0.80110788,0.12941206,0
3.6605523,2.7456486,-0.57991409,0.24149778,0.019430161,-0.97020686,0
1.5275049,2.1985984,1.97031,-0.24149778,-0.019430161,0.97020686,0
-3.5446587,-3.3042221,-1.353683,-0.77472579,-0.59820461,-0.20482004,0
-3.4350455,0.40321851,-1.3110753,-0.58436185,0.80110788,-0.12941206,0
-1.1370771,2.3956363,0.64621091,-0.58436185,0.80110788,-0.12941206,0
2.3722279,4.9134116,1.088511,0.77472579,0.59820461,0.20482004,0
1.5096457,4.2683315,0.28756762,-0.58436185,0.80110788,-0.12941206,0
5.5196409,1.1217741,0.25750494,0.77472579,0.59820461,0.20482004,0
-3.4140449,0.67596292,0.70979691,-0.24149778,-0.019430161,0.97020686,0
-0.87519467,0.66075492,-1.7506773,0.24149778,0.019430161,-0.97020686,0
4.5379839,1.9912008,-0.37661839,0.24149778,0.019430161,-0.97020686,0
3.7293284,3.278975,0.72891235,0.77472579,0.59820461,0.20482004,0
-5.4347854,-1.2833457,0.16756821,-0.24149778,-0.019430161,0.97020686,0
4.9438429,1.6875888,0.78290462,0.77472579,0.59820461,0.20482004,0
3.4990511,0.83217716,2.4336901,-0.24149778,-0.019430161,0.97020686,0
2.7638764,4.8830743,-0.30428219,0.77472579,0.59820461,0.20482004,0
-1.8396161,0.48022246,1.0977738,-0.24149778,-0.019430161,0.97020686,0
-5.3295279,-1.061713,-1.152019,-0.77472579,-0.59820461,-0.20482004,0
-1.1006113,-0.25206524,1.2670568,-0.24149778,-0.019430161,0.97020686,0
-2.0888734,-1.9389226,-2.1048419,0.24149778,0.019430161,-0.97020686,0
-4.6645861,-1.9303646,-1.1301265,-0.77472579,-0.59820461,-0.20482004,0
-4.6151772,-0.67247057,-2.6410851,-0.58436185,0.80110788,-0.12941206,0
2.6222229,4.7898378,-0.79742956,0.24149778,0.019430161,-0.97020686,0
-2.7217433,-1.6258059,-2.2561014,0.24149778,0.019430161,-0.97020686,0
3.7877991,2.9058256,1.59758,0.77472579,0.59820461,0.20482004,0
0.013415694,-3.3286798,-1.3481815,0.58436185,-0.80110788,0.12941206,0
2.8951964,3.8463941,2.2267666,0.77472579,0.59820461,0.20482004,0
-3.794888,-3.2857888,0.53565788,-0.24149778,-0.019430161,0.97020686,0
-0.37779999,2.3032501,-1.5939751,0.24149778,0.019430161,-0.97020686,0
-3.8823016,-1.3938332,-2.5403345,0.24149778,0.019430161,-0.97020686,0
0.7786839,3.9456744,1.590868,-0.58436185,0.80110788,-0.12941206,0
3.706342,-0.17589784,1.4932293,0.58436185,-0.80110788,0.12941206,0
3.4379983,-0.29603863,1.9612238,0.58436185,-0.80110788,0.12941206,0
-1.8560573,1.4608902,-1.8936458,-0.58436185,0.80110788,-0.12941206,0
3.4721012,2.1803143,-0.63814402,0.24149778,0.019430161,-0.97020686,0
1.0462639,3.0519056,1.8676116,-0.24149778,-0.019430161,0.97020686,0
5.2652884,1.106472,1.2642765,0.77472579,0.59820461,0.20482004,0
-3.9999738,-2.3705602,-2.3583512,-0.77472579,-0.59820461,-0.20482004,0
1.9814003,3.0634892,2.1006119,-0.24149778,-0.019430161,0.97020686,0
-2.8307199,-4.2357469,-1.3334923,-0.77472579,-0.59820461,-0.20482004,0
1.2812415,2.914983,-1.1687655,0.24149778,0.019430161,-0.97020686,0
-1.5648448,-4.5826011,-1.9837551,0.58436185,-0.80110788,0.12941206,0
-3.9869757,0.21644282,0.024963617,-0.58436185,0.80110788,-0.12941206,0
-3.6173503,-3.6819558,0.024493694,-0.77472579,-0.59820461,-0.20482004,0
-4.1766524,-2.4314494,-1.5122347,-0.77472579,-0.59820461,-0.20482004,0
4.5709972,1.9881583,1.3153291,0.77472579,0.59820461,0.20482004,0
-1.8427052,1.8897938,0.70113385,-0.58436185,0.80110788,-0.12941206,0
-1.9225405,-3.9773688,0.98786116,-0.24149778,-0.019430161,0.97020686,0
4.4233146,0.077836007,-0.44347954,0.24149778,0.019430161,-0.97020686,0
-5.1209931,-0.83738613,-1.3779521,-0.58436185,0.80110788,-0.12941206,0
-2.4723659,-4.5203447,-1.8577485,-0.77472579,-0.59820461,-0.20482004,0
-3.6914701,-2.8638859,-2.0844331,-0.77472579,-0.59820461,-0.20482004,0
-4.9167714,-0.78969407,-2.0048871,-0.58436185,0.80110788,-0.12941206,0
-2.3360171,1.1981444,-1.3528719,-0.58436185,0.80110788,-0.12941206,0
-5.5669489,-1.0032462,-0.39096642,-0.58436185,0.80110788,-0.12941206,0
-0.48815048,-3.4940662,-0.10715485,0.58436185,-0.80110788,0.12941206,0
0.64890075,-2.6676064,-0.12543774,0.58436185,-0.80110788,0.12941206,0
0.12546909,-1.5280883,1.5466905,-0.24149778,-0.019430161,0.97020686,0
-1.6125547,1.7600082,-1.1415352,-0.58436185,0.80110788,-0.12941206,0
5.1574774,1.7409078,-0.1808877,0.77472579,0.59820461,0.20482004,0
-2.8560669,-3.2892399,0.76927471,-0.24149778,-0.019430161,0.97020686,0
-0.75723404,2.7252085,0.97119546,-0.58436185,0.80110788,-0.12941206,0
0.15003657,-2.7956328,1.3346608,0.58436185,-0.80110788,0.12941206,0
4.5203643,1.7142546,2.306819,0.77472579,0.59820461,0.20482004,0
-3.0131273,0.8102361,-0.69666541,-0.58436185,0.80110788,-0.12941206,0
2.6960008,1.3705405,-0.847543,0.24149778,0.019430161,-0.97020686,0
-2.3985121,1.1182654,-1.5651562,-0.58436185,0.80110788,-0.12941206,0
3.3283668,3.7905684,0.75135994,0.77472579,0.59820461,0.20482004,0
-2.8556588,0.82017195,-1.3462114,-0.58436185,0.80110788,-0.12941206,0
3.6817899,3.2341452,1.0396562,0.77472579,0.59820461,0.20482004,0
2.6250792,1.3762062,-0.86508274,0.24149778,0.019430161,-0.97020686,0
4.4126606,0.43493223,2.0851026,0.58436185,-0.80110788,0.12941206,0
2.4550991,3.9604096,2.2364841,-0.24149778,-0.019430161,0.97020686,0
-2.7849388,-2.3599095,0.80559087,-0.24149778,-0.019430161,0.97020686,0
2.5507727,-1.1242993,0.84026694,0.58436185,-0.80110788,0.12941206,0
-3.4486041,-2.8707078,0.63016605,-0.24149778,-0.019430161,0.97020686,0
2.172092,3.0437841,2.1476831,-0.24149778,-0.019430161,0.97020686,0
-3.2737513,-3.7153633,-1.1775885,-0.77472579,-0.59820461,-0.20482004,0
-1.6097696,-1.5724286,1.1138778,-0.24149778,-0.019430161,0.97020686,0
1.8638377,4.0307951,-1.0014033,0.24149778,0.019430161,-0.97020686,0
-1.8605077,-1.2774919,1.0573723,-0.24149778,-0.019430161,0.97020686,0
1.3705797,-1.6054745,-1.2370585,0.24149778,0.019430161,-0.97020686,0
-0.99904591,-1.8481064,-1.83175,0.24149778,0.019430161,-0.97020686,0
2.5781088,4.9784737,0.11975098,0.77472579,0.59820461,0.20482004,0
-3.9720082,-1.2673414,0.53199363,-0.24149778,-0.019430161,0.97020686,0
-0.82601088,1.5056564,1.3706102,-0.24149778,-0.019430161,0.97020686,0
-2.0929351,-1.0482094,-2.0880148,0.24149778,0.019430161,-0.97020686,0
2.0729921,-1.6845554,-0.47049695,0.58436185,-0.80110788,0.12941206,0
2.1093378,4.7419763,0.51168013,-0.58436185,0.80110788,-0.12941206,0
2.6437919,2.6814349,2.2578387,-0.24149778,-0.019430161,0.97020686,0
-2.693331,-4.7175546,-0.4459753,-0.77472579,-0.59820461,-0.20482004,0
-3.4174347,-3.604367,-0.95828962,-0.77472579,-0.59820461,-0.20482004,0
-3.6966541,-2.8345602,-2.1504755,-0.77472579,-0.59820461,-0.20482004,0
1.9610269,2.9750893,2.0937703,-0.24149778,-0.019430161,0.97020686,0
5.3847322,1.0458006,0.98968267,0.77472579,0.59820461,0.20482004,0
-5.3308411,-1.0748323,-1.1087337,-0.77472579,-0.59820461,-0.20482004,0
-2.4226241,-4.623033,0.8504529,-0.24149778,-0.019430161,0.97020686,0
4.5901461,0.18512768,-0.26271987,0.58436185,-0.80110788,0.12941206,0
3.8448272,2.9215069,1.3360753,0.77472579,0.59820461,0.20482004,0
4.7414675,2.2834492,-0.19190693,0.77472579,0.59820461,0.20482004,0
-1.8673173,-4.7342257,-2.1056747,0.24149778,0.019430161,-0.97020686,0
-2.5403035,-4.9495835,-0.34712505,-0.77472579,-0.59820461,-0.20482004,0
1.7069671,4.4507046,0.52551365,-0.58436185,0.80110788,-0.12941206,0
1.1502053,-0.40009809,1.8243515,-0.24149778,-0.019430161,0.97020686,0
-4.4133272,-2.1300545,-1.4972844,-0.77472579,-0.59820461,-0.20482004,0
4.5276065,2.1940284,0.87818193,0.77472579,0.59820461,0.20482004,0
-3.6154597,-3.2239332,-1.320374,-0.77472579,-0.59820461,-0.20482004,0
-0.68590546,2.4442871,-1.089897,-0.58436185,0.80110788,-0.12941206,0
-4.5005975,-1.7456011,0.39084244,-0.24149778,-0.019430161,0.97020686,0
-0.97405243,-0.27091265,-1.7939427,0.24149778,0.019430161,-0.97020686,0
-0.25661564,-1.0184847,-1.6303344,0.24149778,0.019430161,-0.97020686,0
-0.70932966,-0.18457901,-1.7263207,0.24149778,0.019430161,-0.97020686,0
1.4527174,4.3535104,1.0719128,-0.58436185,0.80110788,-0.12941206,0
-3.4615061,-0.55344987,-2.4187622,0.24149778,0.019430161,-0.97020686,0
1.2248298,4.1611161,0.90995121,-0.58436185,0.80110788,-0.12941206,0
-3.8386087,-3.3943396,0.02137661,-0.77472579,-0.59820461,-0.20482004,0
-0.73763436,2.1835413,1.4061842,-0.24149778,-0.019430161,0.97020686,0
0.76775777,-2.5120649,0.30071998,0.58436185,-0.80110788,0.12941206,0
-4.1082702,-0.67872226,0.50986457,-0.24149778,-0.019430161,0.97020686,0
3.5875859,3.6654174,0.13639164,0.77472579,0.59820461,0.20482004,0
-2.654546,-2.242126,0.84040642,-0.24149778,-0.019430161,0.97020686,0
3.3053603,0.56752801,-0.71194696,0.24149778,0.019430161,-0.97020686,0
-2.6247683,-2.9500222,-2.2584829,0.24149778,0.019430161,-0.97020686,0
4.2851934,2.9025128,-0.27412271,0.77472579,0.59820461,0.20482004,0
-0.2987096,-2.6563735,-1.6736138,0.24149778,0.019430161,-0.97020686,0
-0.042075396,3.1238363,0.20953918,-0.58436185,0.80110788,-0.12941206,0
2.0235322,-1.4882631,0.96796137,0.58436185,-0.80110788,0.12941206,0
-4.2458925,-1.3597844,-2.6301556,0.24149778,0.019430161,-0.97020686,0
-4.8252811,-1.2720504,-2.4449961,-0.77472579,-0.59820461,-0.20482004,0
2.1148264,-1.4021204,-1.0477327,0.24149778,0.019430161,-0.97020686,0
3.2448153,3.1241043,2.4163074,-0.24149778,-0.019430161,0.97020686,0
-0.8171401,-3.7357321,-0.11759806,0.58436185,-0.80110788,0.12941206,0
-0.48908198,2.6349065,-0.79865146,-0.58436185,0.80110788,-0.12941206,0
-4.4524312,-0.5170269,-2.4137115,-0.58436185,0.80110788,-0.12941206,0
-1.7469106,-2.6582928,1.0579948,-0.24149778,-0.019430161,0.97020686,0
1.1639905,0.80712366,1.8519596,-0.24149778,-0.019430161,0.97020686,0
-4.9871516,-0.87132478,-2.1924107,-0.58436185,0.80110788,-0.12941206,0
1.5405937,4.1896935,-0.33897877,-0.58436185,0.80110788,-0.12941206,0
-2.5996311,-4.4363518,-1.6216836,-0.77472579,-0.59820461,-0.20482004,0
1.8156638,2.659286,2.0512629,-0.24149778,-0.019430161,0.97020686,0
2.4721622,4.807724,1.0191889,0.77472579,0.59820461,0.20482004,0
4.108408,0.078262806,1.2510443,0.58436185,-0.80110788,0.12941206,0
-0.67981493,2.5188282,-0.65596092,-0.58436185,0.80110788,-0.12941206,0
-1.0568789,2.0312333,-1.7684548,0.24149778,0.019430161,-0.97020686,0
2.2850919,0.56327772,2.1261334,-0.24149778,-0.019430161,0.97020686,0
2.7057006,4.2762995,1.6879325,0.77472579,0.59820461,0.20482004,0
-2.9790711,-4.7415085,0.70478868,-0.77472579,-0.59820461,-0.20482004,0
-4.860465,-1.3623219,-2.0482643,-0.77472579,-0.59820461,-0.20482004,0
2.6480372,3.4922552,-0.81699038,0.24149778,0.019430161,-0.97020686,0
1.9354553,-1.6532071,0.34460968,0.58436185,-0.80110788,0.12941206,0
-1.1024927,2.1018159,-1.3288116,-0.58436185,0.80110788,-0.12941206,0
-2.5713241,-4.3139753,-2.0861707,-0.77472579,-0.59820461,-0.20482004,0
3.4215899,3.7300439,0.5755167,0.77472579,0.59820461,0.20482004,0
-0.41726026,1.8428622,1.4791073,-0.24149778,-0.019430161,0.97020686,0
4.0046897,0.23291111,2.5475488,-0.24149778,-0.019430161,0.97020686,0
2.9708562,-0.80090392,0.94531173,0.58436185,-0.80110788,0.12941206,0
3.5883944,-0.37483418,0.79433501,0.58436185,-0.80110788,0.12941206,0
0.55995023,1.6061879,1.7176082,-0.24149778,-0.019430161,0.97020686,0
1.1343428,-2.3192637,-0.16108954,0.58436185,-0.80110788,0.12941206,0
4.3814697,2.4800396,-0.40578699,0.24149778,0.019430161,-0.97020686,0
4.3970232,0.044724226,-0.45068693,0.24149778,0.019430161,-0.97020686,0
2.0410371,4.9500256,2.1079936,-0.58436185,0.80110788,-0.12941206,0
2.9146304,4.4952707,0.25812721,0.77472579,0.59820461,0.20482004,0
0.067632556,-0.85072803,1.5458596,-0.24149778,-0.019430161,0.97020686,0
-3.1860981,-3.944761,-0.83914661,-0.77472579,-0.59820461,-0.20482004,0
-4.9226937,-1.1137369,-2.5389106,-0.77472579,-0.59820461,-0.20482004,0
2.7754154,4.4410024,0.94320202,0.77472579,0.59820461,0.20482004,0
-4.2757688,-1.3949178,0.45382929,-0.24149778,-0.019430161,0.97020686,0
3.1366391,-0.67302942,0.9883064,0.58436185,-0.80110788,0.12941206,0
-4.7470722,-0.34742913,0.35749269,-0.24149778,-0.019430161,0.97020686,0
-1.7373227,-4.2765188,0.68983078,0.58436185,-0.80110788,0.12941206,0
-4.0874767,-0.14657617,-1.7684447,-0.58436185,0.80110788,-0.12941206,0
-3.6058965,-3.6968381,0.57446909,-0.24149778,-0.019430161,0.97020686,0
-3.9990392,-3.0009634,-0.52070761,-0.77472579,-0.59820461,-0.20482004,0
1.654263,-0.26291323,-1.1395587,0.24149778,0.019430161,-0.97020686,0
-5.1930561,-1.1278579,-1.4750345,-0.77472579,-0.59820461,-0.20482004,0
-0.54692614,-1.1963398,1.3859658,-0.24149778,-0.019430161,0.97020686,0
-2.791806,-2.029161,0.81050563,-0.24149778,-0.019430161,0.97020686,0
1.7829306,-0.13459694,-1.1049619,0.24149778,0.019430161,-0.97020686,0
0.20780125,0.80529034,1.6139143,-0.24149778,-0.019430161,0.97020686,0
3.1270635,4.2318273,0.22402668,0.77472579,0.59820461,0.20482004,0
-1.5803182,1.7178034,-1.5483624,-0.58436185,0.80110788,-0.12941206,0
1.0547997,3.4439859,-1.2145357,0.24149778,0.019430161,-0.97020686,0
-4.6751285,-2.1415532,-0.47344398,-0.77472579,-0.59820461,-0.20482004,0
-1.2567518,2.1423497,1.2761439,-0.24149778,-0.019430161,0.97020686,0
3.3396888,3.7454317,0.84036207,0.77472579,0.59820461,0.20482004,0
4.6103048,2.3572245,0.088740349,0.77472579,0.59820461,0.20482004,0
-2.765928,1.0290492,-0.45836449,-0.58436185,0.80110788,-0.12941206,0
-4.1326928,-2.4922929,-1.5008106,-0.77472579,-0.59820461,-0.20482004,0
-3.7629399,0.20731974,-1.0431494,-0.58436185,0.80110788,-0.12941206,0
-4.4294834,-2.7481506,0.36906004,-0.77472579,-0.59820461,-0.20482004,0
1.7297084,4.3543682,-0.17353344,-0.58436185,0.80110788,-0.12941206,0
0.90807146,4.0736928,1.7990975,-0.58436185,0.80110788,-0.12941206,0
-3.3083525,-3.6961317,-1.1028771,-0.77472579,-0.59820461,-0.20482004,0
-1.5106376,1.9356073,1.2088077,-0.24149778,-0.019430161,0.97020686,0
-1.007928,-3.7471519,0.67321587,0.58436185,-0.80110788,0.12941206,0
2.1596785,-1.6887408,-0.8878386,0.58436185,-0.80110788,0.12941206,0
5.1423621,1.4513046,-0.23699284,0.24149778,0.019430161,-0.97020686,0
2.2609847,-1.3870982,0.52198869,0.58436185,-0.80110788,0.12941206,0
-4.0717287,-3.0993927,0.041713238,-0.77472579,-0.59820461,-0.20482004,0
-2.4078262,-4.7833891,-1.3336105,-0.77472579,-0.59820461,-0.20482004,0
-2.1278028,1.574255,0.03519503,-0.58436185,0.80110788,-0.12941206,0
1.259751,-2.069612,-1.2739406,0.24149778,0.019430161,-0.97020686,0
1.6074514,1.7649366,1.9815249,-0.24149778,-0.019430161,0.97020686,0
4.6334572,2.1871011,0.49803591,0.77472579,0.59820461,0.20482004,0
2.4518955,2.8032515,2.212513,-0.24149778,-0.019430161,0.97020686,0
-3.4307446,-3.2269888,-2.010128,-0.77472579,-0.59820461,-0.20482004,0
5.32689,1.5146765,-0.16094637,0.77472579,0.59820461,0.20482004,0
4.8910942,1.5907884,1.265142,0.77472579,0.59820461,0.20482004,0
3.3010869,4.2733803,-0.55557299,0.77472579,0.59820461,0.20482004,0
-4.7323732,-2.3157406,0.25182104,-0.77472579,-0.59820461,-0.20482004,0
-0.92758441,-0.69076574,-1.7907846,0.24149778,0.019430161,-0.97020686,0
4.3782344,2.1986074,1.4298029,0.77472579,0.59820461,0.20482004,0
