-1.0002725,0.23984599,-2.7273369,-0.9587658,0.22079492,-0.17893502,0
-0.52033043,-3.3853948,-3.9629836,-0.095600963,-0.84349006,-0.52856886,0
0.07683897,-3.8964057,-3.2555218,-0.095600963,-0.84349006,-0.52856886,0
-2.4120872,0.50854385,5.1689749,-0.9587658,0.22079492,-0.17893502,0
0.54024029,0.37657404,-5.6289687,0.26763523,0.48966739,-0.82981765,0
-1.3445821,1.8104168,6.6600723,-0.26763523,-0.48966739,0.82981765,0
-0.41154838,-6.3823118,0.79982138,-0.095600963,-0.84349006,-0.52856886,0
-0.23081401,-4.6072969,3.2322564,-0.26763523,-0.48966739,0.82981765,0
1.1646914,6.7107601,-1.4601784,0.095600963,0.84349006,0.52856886,0
0.25261003,-2.903542,3.4466076,0.9587658,-0.22079492,0.17893502,0
0.52708983,0.81437504,-5.3748665,0.26763523,0.48966739,-0.82981765,0
1.4948039,2.6847327,3.6863022,0.9587658,-0.22079492,0.17893502,0
-1.6331725,1.4178414,6.33534,-0.26763523,-0.48966739,0.82981765,0
-0.025355071,4.2731881,-2.9742198,-0.9587658,0.22079492,-0.17893502,0
1.0371213,-3.3757088,-4.2601323,-0.095600963,-0.84349006,-0.52856886,0
1.1413476,6.5470176,-1.7939777,0.26763523,0.48966739,-0.82981765,0
-2.7792318,-6.3565102,1.37814,-0.26763523,-0.48966739,0.82981765,0
-0.69474745,4.8081808,1.912269,0.095600963,0.84349006,0.52856886,0
-1.4902997,3.3858397,4.3259311,0.095600963,0.84349006,0.52856886,0
2.4704061,2.6512842,-1.5824208,0.9587658,-0.22079492,0.17893502,0
0.85844088,-0.80471873,-6.2234106,0.26763523,0.48966739,-0.82981765,0
0.79560471,-3.9482579,-3.3027766,-0.095600963,-0.84349006,-0.52856886,0
2.1664414,4.7282519,1.5223241,0.095600963,0.84349006,0.52856886,0
-0.2628274,2.0876875,-4.3985767,-0.9587658,0.22079492,-0.17893502,0
-0.26116872,-6.28299,0.6141243,-0.095600963,-0.84349006,-0.52856886,0
-0.18718648,-0.98867249,5.3816433,-0.26763523,-0.48966739,0.82981765,0
-0.486269,-6.1122403,0.38235617,-0.095600963,-0.84349006,-0.52856886,0
0.071944237,0.04096961,6.0727997,-0.26763523,-0.48966739,0.82981765,0
2.809396,4.6292505,-2.38765,0.26763523,0.48966739,-0.82981765,0
1.0627012,3.6508946,3.4412024,0.095600963,0.84349006,0.52856886,0
0.49559736,3.1674571,4.3152423,0.095600963,0.84349006,0.52856886,0
1.4619484,3.7836795,3.1570935,0.095600963,0.84349006,0.52856886,0
-1.2197053,-0.69367135,5.2227092,-0.26763523,-0.48966739,0.82981765,0
-0.76213312,-6.4335465,0.94499111,-0.095600963,-0.84349006,-0.52856886,0
-0.17655349,-6.102994,0.31158304,-0.095600963,-0.84349006,-0.52856886,0
-0.11540222,4.1958923,2.784575,0.095600963,0.84349006,0.52856886,0
-1.4987259,-3.0866387,-4.1612167,-0.9587658,0.22079492,-0.17893502,0
0.72877622,5.6366372,-2.4642482,0.26763523,0.48966739,-0.82981765,0
2.324214,-0.88774896,-5.7996602,0.26763523,0.48966739,-0.82981765,0
0.47747087,-4.345439,0.46254778,0.9587658,-0.22079492,0.17893502,0
1.5126967,-1.1514026,-1.1431298,0.9587658,-0.22079492,0.17893502,0
1.513658,-3.4440825,-3.977308,0.9587658,-0.22079492,0.17893502,0
-0.5010314,-0.86254835,-6.6959963,0.26763523,0.48966739,-0.82981765,0
2.1349602,1.9197683,-4.20401,0.26763523,0.48966739,-0.82981765,0
2.2923512,5.6174006,-1.9713111,0.26763523,0.48966739,-0.82981765,0
-0.094490528,-1.6705122,-6.7766142,-0.095600963,-0.84349006,-0.52856886,0
-0.19382715,1.238957,-5.3568382,0.26763523,0.48966739,-0.82981765,0
0.22595128,-3.9230089,2.3314891,0.9587658,-0.22079492,0.17893502,0
-3.05092,-5.0687232,2.0504246,-0.26763523,-0.48966739,0.82981765,0
2.6920681,4.7949586,-0.12496185,0.9587658,-0.22079492,0.17893502,0
1.2361708,0.51435959,-5.3232088,0.26763523,0.48966739,-0.82981765,0
-1.7591841,-1.5009872,-0.80903757,-0.9587658,0.22079492,-0.17893502,0
1.4858646,2.3727121,3.349189,0.9587658,-0.22079492,0.17893502,0
1.910851,-2.4636986,-5.8735476,-0.095600963,-0.84349006,-0.52856886,0
-2.3177903,1.4351554,5.8070984,-0.9587658,0.22079492,-0.17893502,0
0.99967194,-2.6954422,-5.3389292,-0.095600963,-0.84349006,-0.52856886,0
-0.84874964,4.6238527,2.2342744,0.095600963,0.84349006,0.52856886,0
-0.36216927,-1.0292078,5.3012877,-0.26763523,-0.48966739,0.82981765,0
-2.5553157,-1.5172544,3.436708,-0.9587658,0.22079492,-0.17893502,0
-1.9053769,-5.8262863,0.18270063,-0.095600963,-0.84349006,-0.52856886,0
-2.0616026,0.92644364,5.9071922,-0.26763523,-0.48966739,0.82981765,0
-1.1963253,0.38913119,5.8692012,-0.26763523,-0.48966739,0.82981765,0
-2.2171535,-5.7888975,1.8943658,-0.26763523,-0.48966739,0.82981765,0
-0.28912544,-3.0047984,-4.6121573,-0.095600963,-0.84349006,-0.52856886,0
0.11612034,-2.5790215,-5.3649073,-0.095600963,-0.84349006,-0.52856886,0
-1.5048203,2.5933962,5.5931387,0.095600963,0.84349006,0.52856886,0
-2.086946,2.0770628,5.3622665,-0.9587658,0.22079492,-0.17893502,0
-0.017655373,-4.8144083,-1.7734811,-0.095600963,-0.84349006,-0.52856886,0
0.33262587,-2.2998006,-5.8496466,-0.095600963,-0.84349006,-0.52856886,0
-1.654856,-2.5342026,-2.642972,-0.9587658,0.22079492,-0.17893502,0
1.4593959,-3.517735,-3.7774482,0.9587658,-0.22079492,0.17893502,0
-0.55844879,1.5671326,-3.456917,-0.9587658,0.22079492,-0.17893502,0
2.0561268,0.29218477,-2.2736256,0.9587658,-0.22079492,0.17893502,0
-2.1471958,-4.1345005,-1.9795979,-0.9587658,0.22079492,-0.17893502,0
2.4137769,6.5139341,-1.3720021,0.095600963,0.84349006,0.52856886,0
2.2100482,0.1977545,-3.2148848,0.9587658,-0.22079492,0.17893502,0
-2.7783384,-4.8188725,2.2857733,-0.26763523,-0.48966739,0.82981765,0
-1.4344451,-5.9045911,0.22248316,-0.095600963,-0.84349006,-0.52856886,0
1.2798314,5.2862124,0.7922895,0.095600963,0.84349006,0.52856886,0
-0.0096964836,-3.7925584,-3.4055891,-0.095600963,-0.84349006,-0.52856886,0
1.0438784,1.9105353,-4.561358,0.26763523,0.48966739,-0.82981765,0
-0.37184727,-3.428637,3.8822865,-0.26763523,-0.48966739,0.82981765,0
-1.625263,0.508237,5.8011417,-0.26763523,-0.48966739,0.82981765,0
0.88903946,3.2955928,-3.7939868,0.26763523,0.48966739,-0.82981765,0
-2.5978909,-1.2055892,4.4761348,-0.26763523,-0.48966739,0.82981765,0
-1.346534,0.25556433,5.7419395,-0.26763523,-0.48966739,0.82981765,0
-1.2807796,3.2380266,2.4752429,-0.9587658,0.22079492,-0.17893502,0
-2.2193964,0.96008706,5.876153,-0.26763523,-0.48966739,0.82981765,0
1.6751622,1.8346195,-4.4025507,0.26763523,0.48966739,-0.82981765,0
0.14650679,-0.53107262,-6.2915497,0.26763523,0.48966739,-0.82981765,0
-2.0449512,-2.3895416,-0.37426782,-0.9587658,0.22079492,-0.17893502,0
2.8386276,3.661253,-2.3091769,0.9587658,-0.22079492,0.17893502,0
2.2795267,0.67403114,-4.8924823,0.26763523,0.48966739,-0.82981765,0
-1.7329675,-5.2293482,2.3807116,-0.26763523,-0.48966739,0.82981765,0
2.6609566,2.6546237,-2.5993056,0.9587658,-0.22079492,0.17893502,0
-1.8502975,2.5744267,5.6858959,0.095600963,0.84349006,0.52856886,0
-0.3510375,-1.212236,5.1968746,-0.26763523,-0.48966739,0.82981765,0
-0.27992582,3.5244768,3.8857765,0.095600963,0.84349006,0.52856886,0
1.8781939,-2.5295849,-5.7624998,-0.095600963,-0.84349006,-0.52856886,0
2.0202765,5.4088483,0.46266603,0.095600963,0.84349006,0.52856886,0
1.0279741,-4.3510652,-2.4940867,0.9587658,-0.22079492,0.17893502,0
0.61404216,4.0669532,-3.4275084,0.26763523,0.48966739,-0.82981765,0
-1.7684655,-2.3486536,-1.8052766,-0.9587658,0.22079492,-0.17893502,0
0.47704673,-5.4286914,-0.87184548,0.9587658,-0.22079492,0.17893502,0
-2.2912307,-5.4583669,2.0655169,-0.26763523,-0.48966739,0.82981765,0
0.69795775,0.67961645,-5.3992786,0.26763523,0.48966739,-0.82981765,0
-2.4091101,0.59979784,5.6023626,-0.26763523,-0.48966739,0.82981765,0
2.0316215,4.3944569,2.07938,0.095600963,0.84349006,0.52856886,0
-1.3630686,-1.8941278,-3.4166093,-0.9587658,0.22079492,-0.17893502,0
0.70764804,6.7573566,-1.8097372,0.26763523,0.48966739,-0.82981765,0
-0.17361403,-1.3042152,-6.8510203,0.26763523,0.48966739,-0.82981765,0
0.83894348,-0.010041952,3.8753316,0.9587658,-0.22079492,0.17893502,0
-1.9283381,-6.5803409,1.3901739,-0.095600963,-0.84349006,-0.52856886,0
-0.27704048,-6.2976103,2.0964947,0.9587658,-0.22079492,0.17893502,0
2.1544759,-1.1866232,-4.6253576,0.9587658,-0.22079492,0.17893502,0
-0.60552216,-3.6104963,-3.5883574,-0.095600963,-0.84349006,-0.52856886,0
0.089104652,-2.7984326,-5.0098848,-0.095600963,-0.84349006,-0.52856886,0
-0.7428813,0.2665174,-4.073575,-0.9587658,0.22079492,-0.17893502,0
1.1149387,5.2854633,-2.5469275,0.26763523,0.48966739,-0.82981765,0
-0.10859108,-3.180589,-4.3642831,-0.095600963,-0.84349006,-0.52856886,0
0.30753183,5.2341609,1.0512111,0.095600963,0.84349006,0.52856886,0
-2.5894635,-1.3723702,4.3804369,-0.26763523,-0.48966739,0.82981765,0
-1.7833369,-2.9828742,-2.5081828,-0.9587658,0.22079492,-0.17893502,0
1.1541185,-0.80636501,-6.1290193,0.26763523,0.48966739,-0.82981765,0
-0.19615698,-5.5980358,-0.49068356,-0.095600963,-0.84349006,-0.52856886,0
2.4593697,5.983839,-0.53432322,0.095600963,0.84349006,0.52856886,0
1.0247045,-3.3716063,-1.2679774,0.9587658,-0.22079492,0.17893502,0
2.3167052,2.4232273,-3.8483076,0.26763523,0.48966739,-0.82981765,0
0.82506883,-2.8510032,0.44410038,0.9587658,-0.22079492,0.17893502,0
-2.5989876,-2.985903,3.4252353,-0.26763523,-0.48966739,0.82981765,0
0.27095222,-3.6688612,-3.6537452,-0.095600963,-0.84349006,-0.52856886,0
-3.1337755,-6.1430993,0.91044807,-0.095600963,-0.84349006,-0.52856886,0
-0.24503231,-0.036777496,-6.126152,0.26763523,0.48966739,-0.82981765,0
-0.74308681,0.43803048,-3.8608382,-0.9587658,0.22079492,-0.17893502,0
2.7427378,1.8700395,-4.037333,0.26763523,0.48966739,-0.82981765,0
-0.64536309,-5.8980064,0.069256783,-0.095600963,-0.84349006,-0.52856886,0
0.073208332,-3.5732718,3.5814691,0.9587658,-0.22079492,0.17893502,0
1.0935652,0.46345162,-5.3992429,0.26763523,0.48966739,-0.82981765,0
1.9726328,0.644907,-5.0086484,0.26763523,0.48966739,-0.82981765,0
-2.0730689,-0.82263684,4.8713789,-0.26763523,-0.48966739,0.82981765,0
-0.90253496,2.7312067,5.264287,0.095600963,0.84349006,0.52856886,0
-2.5149951,-2.9528022,1.4492817,-0.9587658,0.22079492,-0.17893502,0
-0.2825501,1.2230957,-5.3597522,-0.9587658,0.22079492,-0.17893502,0
1.1479824,5.2314062,-2.5681672,0.26763523,0.48966739,-0.82981765,0
0.99908352,1.3956957,4.7518711,0.9587658,-0.22079492,0.17893502,0
-0.046513557,-4.4888287,-2.2878225,-0.095600963,-0.84349006,-0.52856886,0
-2.4885755,-1.0793438,3.6194568,-0.9587658,0.22079492,-0.17893502,0
-1.0642409,-2.2850306,-5.5001287,-0.9587658,0.22079492,-0.17893502,0
-1.6390769,-1.582404,-1.553056,-0.9587658,0.22079492,-0.17893502,0
-2.6145687,-4.8760519,2.3048515,-0.26763523,-0.48966739,0.82981765,0
-1.3137107,-3.9439101,-2.9282079,-0.095600963,-0.84349006,-0.52856886,0
0.73714054,-1.1110212,3.062269,0.9587658,-0.22079492,0.17893502,0
-2.0749674,1.3119321,6.1303544,-0.26763523,-0.48966739,0.82981765,0
2.3749781,0.59554803,-4.9080091,0.26763523,0.48966739,-0.82981765,0
-0.099648476,0.64398026,6.3732886,-0.26763523,-0.48966739,0.82981765,0
0.43122149,4.3388138,2.4576344,0.095600963,0.84349006,0.52856886,0
2.961576,4.8076434,-1.5533824,0.9587658,-0.22079492,0.17893502,0
-0.14604807,-1.8835359,-6.4273453,-0.095600963,-0.84349006,-0.52856886,0
-1.296205,-3.1003773,-4.277483,-0.095600963,-0.84349006,-0.52856886,0
-1.1042719,-0.82974458,5.1796436,-0.26763523,-0.48966739,0.82981765,0
-1.0009871,-5.270514,-0.86777449,-0.095600963,-0.84349006,-0.52856886,0
0.085993767,5.4761777,0.70506978,0.095600963,0.84349006,0.52856886,0
1.7014663,5.5735564,0.25748682,0.095600963,0.84349006,0.52856886,0
-1.6405811,-5.5442381,2.2246943,-0.26763523,-0.48966739,0.82981765,0
-0.75980449,4.5693245,1.3265071,-0.9587658,0.22079492,-0.17893502,0
-0.21013999,-2.1756535,4.6738143,-0.26763523,-0.48966739,0.82981765,0
-0.49852371,-0.85900569,5.3577447,-0.26763523,-0.48966739,0.82981765,0
-2.336134,0.49490806,4.7451792,-0.9587658,0.22079492,-0.17893502,0
-0.3359158,-6.7966051,1.7962298,0.9587658,-0.22079492,0.17893502,0
2.1154056,4.5122242,-2.6805344,0.26763523,0.48966739,-0.82981765,0
-0.48258701,3.1531754,-1.9063168,-0.9587658,0.22079492,-0.17893502,0
-1.4235792,-3.2654946,-3.9909515,-0.095600963,-0.84349006,-0.52856886,0
0.020905972,-1.6626508,-6.8100295,-0.095600963,-0.84349006,-0.52856886,0
0.33563602,2.7168524,-4.313982,0.26763523,0.48966739,-0.82981765,0
-2.2945507,-0.42542821,5.0343351,-0.26763523,-0.48966739,0.82981765,0
-1.6620806,1.3462296,2.18396,-0.9587658,0.22079492,-0.17893502,0
-2.0131278,-4.9079146,2.4800277,-0.26763523,-0.48966739,0.82981765,0
2.6408994,3.4675803,-1.4886956,0.9587658,-0.22079492,0.17893502,0
-0.66337132,0.6991744,-3.9657319,-0.9587658,0.22079492,-0.17893502,0
-0.36032954,-4.5902748,3.2005291,-0.26763523,-0.48966739,0.82981765,0
0.94438982,3.7011654,3.3823781,0.095600963,0.84349006,0.52856886,0
1.2936702,3.3597701,3.8640027,0.095600963,0.84349006,0.52856886,0
-2.5030336,-2.6188462,1.7972713,-0.9587658,0.22079492,-0.17893502,0
-0.53622127,5.2850485,1.1226119,0.095600963,0.84349006,0.52856886,0
2.3173769,-0.86541033,-5.1018515,0.9587658,-0.22079492,0.17893502,0
0.50017786,2.7233052,5.0231915,0.095600963,0.84349006,0.52856886,0
-0.26914144,-5.20187,2.8690429,-0.26763523,-0.48966739,0.82981765,0
-1.3626847,-5.1549377,-0.9867928,-0.095600963,-0.84349006,-0.52856886,0
1.6587996,6.4262624,-1.0955448,0.095600963,0.84349006,0.52856886,0
-0.89378667,1.925324,-1.2181301,-0.9587658,0.22079492,-0.17893502,0
0.32985926,-1.9762247,-6.3655081,-0.095600963,-0.84349006,-0.52856886,0
-0.1658529,-3.9884572,3.6183796,-0.26763523,-0.48966739,0.82981765,0
1.5771751,5.03093,1.145891,0.095600963,0.84349006,0.52856886,0
-1.3522534,-2.4082673,-4.1089725,-0.9587658,0.22079492,-0.17893502,0
-1.2815601,-1.7570571,4.5752659,-0.26763523,-0.48966739,0.82981765,0
0.33161354,0.034065008,-5.898366,0.26763523,0.48966739,-0.82981765,0
-1.4791507,-2.7018027,3.9540529,-0.26763523,-0.48966739,0.82981765,0
0.13220978,-5.3586493,1.0622807,0.9587658,-0.22079492,0.17893502,0
-1.4385886,0.86248076,6.070385,-0.26763523,-0.48966739,0.82981765,0
0.21972895,1.9156923,6.3627043,0.095600963,0.84349006,0.52856886,0
1.4494748,5.099102,1.0601983,0.095600963,0.84349006,0.52856886,0
0.61616254,-4.7246747,-0.74853981,0.9587658,-0.22079492,0.17893502,0
1.4498219,-2.9445474,-3.0188661,0.9587658,-0.22079492,0.17893502,0
1.5796611,6.6199389,-1.6095824,0.26763523,0.48966739,-0.82981765,0
-0.35940266,0.41249752,-5.8979254,0.26763523,0.48966739,-0.82981765,0
-0.6204778,1.8794177,-2.7392139,-0.9587658,0.22079492,-0.17893502,0
-0.72743225,-5.0654459,-1.2444999,-0.095600963,-0.84349006,-0.52856886,0
-0.934057,-5.5990224,-0.35564709,-0.095600963,-0.84349006,-0.52856886,0
1.6014912,0.87832403,-4.9906125,0.26763523,0.48966739,-0.82981765,0
0.84416533,-0.8230195,-6.2388139,0.26763523,0.48966739,-0.82981765,0
0.72002602,6.3149319,-0.74808979,0.095600963,0.84349006,0.52856886,0
-0.67729139,1.0030875,-3.5161345,-0.9587658,0.22079492,-0.17893502,0
0.16044092,-3.1690183,-4.431406,-0.095600963,-0.84349006,-0.52856886,0
1.1157761,6.4345207,-1.868609,0.26763523,0.48966739,-0.82981765,0
1.655098,1.4178369,1.2641466,0.9587658,-0.22079492,0.17893502,0
-2.3506155,1.6199415,6.2109976,-0.9587658,0.22079492,-0.17893502,0
-1.2137207,-3.0451627,3.8370476,-0.26763523,-0.48966739,0.82981765,0
-0.62820649,1.0656985,-3.701884,-0.9587658,0.22079492,-0.17893502,0
-0.37091923,4.5064039,2.3352749,0.095600963,0.84349006,0.52856886,0
-1.237432,-3.9534233,3.2934437,-0.26763523,-0.48966739,0.82981765,0
2.1388001,1.3706535,-4.5267992,0.26763523,0.48966739,-0.82981765,0
-0.39580059,4.0052624,-1.3199098,-0.9587658,0.22079492,-0.17893502,0
-0.41859055,-0.19741893,5.773921,-0.26763523,-0.48966739,0.82981765,0
-0.98208237,3.5625546,3.9520097,0.095600963,0.84349006,0.52856886,0
-1.2412095,1.4794891,6.4981346,-0.26763523,-0.48966739,0.82981765,0
0.72847891,-3.5276439,-3.9618509,-0.095600963,-0.84349006,-0.52856886,0
0.98743224,0.53667545,3.7543211,0.9587658,-0.22079492,0.17893502,0
-0.57536316,1.3374327,-3.6497226,-0.9587658,0.22079492,-0.17893502,0
1.1969479,5.4694347,-2.4119177,0.26763523,0.48966739,-0.82981765,0
2.2195003,5.9299064,-1.810401,0.26763523,0.48966739,-0.82981765,0
-0.29917932,2.1767988,-4.0938368,-0.9587658,0.22079492,-0.17893502,0
-2.465189,-5.5570202,-0.14574242,-0.095600963,-0.84349006,-0.52856886,0
0.48532724,-5.0486493,-1.4906523,-0.095600963,-0.84349006,-0.52856886,0
1.6815176,-1.5580279,-6.4024696,0.26763523,0.48966739,-0.82981765,0
-2.1150439,-1.4001045,1.2222071,-0.9587658,0.22079492,-0.17893502,0
-0.058193684,4.4361792,2.3907785,0.095600963,0.84349006,0.52856886,0
-0.72686958,-2.7040036,-5.0129914,-0.095600963,-0.84349006,-0.52856886,0
-0.5839057,-5.0215068,-1.3405783,-0.095600963,-0.84349006,-0.52856886,0
-1.3412814,-3.9942145,-2.8429458,-0.095600963,-0.84349006,-0.52856886,0
-1.4458811,-1.2104838,-2.1293073,-0.9587658,0.22079492,-0.17893502,0
-0.24671912,-6.3967509,0.79305124,-0.095600963,-0.84349006,-0.52856886,0
2.69398,1.4403973,-4.3065863,0.26763523,0.48966739,-0.82981765,0
2.2141378,-1.1727178,-6.0033197,0.26763523,0.48966739,-0.82981765,0
-0.76800346,1.8465815,6.6516395,0.095600963,0.84349006,0.52856886,0
0.070995331,-3.8387928,-3.3464022,-0.095600963,-0.84349006,-0.52856886,0
-1.1495399,-6.1453023,2.0283847,-0.26763523,-0.48966739,0.82981765,0
0.094530582,0.46396041,6.3296871,-0.26763523,-0.48966739,0.82981765,0
-1.4422911,-0.14324725,-0.83163595,-0.9587658,0.22079492,-0.17893502,0
-1.1935183,-5.6599183,2.300621,-0.26763523,-0.48966739,0.82981765,0
-2.9401274,-4.6129174,1.6787333,-0.9587658,0.22079492,-0.17893502,0
-2.1048148,1.6198859,4.8938856,-0.9587658,0.22079492,-0.17893502,0
-1.7712069,-1.1321373,4.7861032,-0.26763523,-0.48966739,0.82981765,0
-1.4473319,-1.4780332,-2.4516728,-0.9587658,0.22079492,-0.17893502,0
-0.84467554,2.1897573,6.117867,0.095600963,0.84349006,0.52856886,0
-1.6048905,-0.60327947,-0.52805221,-0.9587658,0.22079492,-0.17893502,0
-1.4097966,-5.8547797,2.1158805,-0.26763523,-0.48966739,0.82981765,0
1.2839001,-2.0448594,-1.0196671,0.9587658,-0.22079492,0.17893502,0
0.53150773,-0.63178277,4.7554364,0.9587658,-0.22079492,0.17893502,0
-2.3906846,0.13672605,5.3350506,-0.26763523,-0.48966739,0.82981765,0
-0.83602667,0.32141733,-3.5067434,-0.9587658,0.22079492,-0.17893502,0
1.0499809,6.3414912,-0.85015202,0.095600963,0.84349006,0.52856886,0
-1.0382543,3.2910271,4.3954725,0.095600963,0.84349006,0.52856886,0
-0.42987204,-6.4983177,2.0521822,-0.26763523,-0.48966739,0.82981765,0
1.7894759,4.482861,1.9821001,0.095600963,0.84349006,0.52856886,0
-0.8681438,-5.7976866,-0.050540924,-0.095600963,-0.84349006,-0.52856886,0
-0.58862066,-6.4382572,0.92112589,-0.095600963,-0.84349006,-0.52856886,0
0.68653691,4.6841741,-3.0399113,0.26763523,0.48966739,-0.82981765,0
-2.4850588,-1.484581,3.100574,-0.9587658,0.22079492,-0.17893502,0
2.0727499,4.5764732,-2.6563797,0.26763523,0.48966739,-0.82981765,0
0.077552408,4.3632445,-3.4144931,-0.9587658,0.22079492,-0.17893502,0
-0.90127671,1.6814278,-1.47895,-0.9587658,0.22079492,-0.17893502,0
-1.5039878,-4.0988126,3.1216798,-0.26763523,-0.48966739,0.82981765,0
-1.0577087,-4.4336772,-2.1929405,-0.095600963,-0.84349006,-0.52856886,0
0.64030886,-4.0539246,-3.1060655,-0.095600963,-0.84349006,-0.52856886,0
-2.8611913,-4.6850896,2.3379951,-0.26763523,-0.48966739,0.82981765,0
-0.52732313,-5.9843636,2.3240318,-0.26763523,-0.48966739,0.82981765,0
-0.50512934,-5.0465255,-1.3149006,-0.095600963,-0.84349006,-0.52856886,0
1.7482557,5.7639303,-0.054773808,0.095600963,0.84349006,0.52856886,0
-0.055645943,-2.3780107,4.6042323,-0.26763523,-0.48966739,0.82981765,0
-0.99510008,-2.5500898,4.1996951,-0.26763523,-0.48966739,0.82981765,0
0.87490892,-2.738323,-5.2479343,-0.095600963,-0.84349006,-0.52856886,0
1.9022794,3.3910341,2.3745105,0.9587658,-0.22079492,0.17893502,0
-0.16563869,-6.1503763,0.38522148,-0.095600963,-0.84349006,-0.52856886,0
0.19634724,-5.2289157,-1.1507168,-0.095600963,-0.84349006,-0.52856886,0
-2.2017243,-5.7850161,0.17044163,-0.095600963,-0.84349006,-0.52856886,0
-2.0547495,-6.4419699,1.1922255,-0.095600963,-0.84349006,-0.52856886,0
1.1224152,-1.2279657,0.85359567,0.9587658,-0.22079492,0.17893502,0
1.7969415,5.3903036,0.53265333,0.095600963,0.84349006,0.52856886,0
1.0506525,1.3860662,4.4636717,0.9587658,-0.22079492,0.17893502,0
-0.65182358,2.997493,-1.1916196,-0.9587658,0.22079492,-0.17893502,0
-0.06779635,-2.6952455,4.4131165,-0.26763523,-0.48966739,0.82981765,0
2.5409524,3.4349098,-3.178998,0.26763523,0.48966739,-0.82981765,0
1.9820147,0.51633584,-5.0814915,0.26763523,0.48966739,-0.82981765,0
0.034691334,3.3751755,4.0671272,0.095600963,0.84349006,0.52856886,0
0.014080524,-5.3419437,1.7158523,0.9587658,-0.22079492,0.17893502,0
-1.6061456,0.60006499,5.8614941,-0.26763523,-0.48966739,0.82981765,0
-0.28988457,3.0468516,4.6497722,0.095600963,0.84349006,0.52856886,0
0.2996726,-4.1415377,-2.9046428,-0.095600963,-0.84349006,-0.52856886,0
-1.2718344,-1.6333642,-3.5836906,-0.9587658,0.22079492,-0.17893502,0
-0.075986028,2.9959743,-4.278935,-0.9587658,0.22079492,-0.17893502,0
0.49519825,4.1829972,2.6947148,0.095600963,0.84349006,0.52856886,0
-2.1764245,-0.76985329,4.8691912,-0.26763523,-0.48966739,0.82981765,0
-0.87209558,-3.8258562,-3.1964726,-0.095600963,-0.84349006,-0.52856886,0
0.23574114,-0.29772234,5.9257698,-0.26763523,-0.48966739,0.82981765,0
0.56674933,6.294054,-2.128571,0.26763523,0.48966739,-0.82981765,0
-0.45531487,-6.62644,1.1973162,-0.095600963,-0.84349006,-0.52856886,0
-1.2796187,0.76437485,6.0637646,-0.26763523,-0.48966739,0.82981765,0
0.3356452,-2.3308303,-5.8006754,-0.095600963,-0.84349006,-0.52856886,0
-2.2210057,-4.6245251,2.5802083,-0.26763523,-0.48966739,0.82981765,0
0.88669205,0.61030054,4.3849506,0.9587658,-0.22079492,0.17893502,0
-0.8356545,2.3038085,-1.0625858,-0.9587658,0.22079492,-0.17893502,0
0.031241477,-3.516834,3.8759751,0.9587658,-0.22079492,0.17893502,0
0.35396767,-1.163244,-6.5976772,0.26763523,0.48966739,-0.82981765,0
-2.504401,-2.2067823,3.9154935,-0.26763523,-0.48966739,0.82981765,0
2.0764477,6.4989934,-1.2871475,0.095600963,0.84349006,0.52856886,0
-0.32485437,2.015327,6.3022051,0.095600963,0.84349006,0.52856886,0
2.6297023,5.8822632,-1.7062149,0.26763523,0.48966739,-0.82981765,0
1.0478594,6.6946869,-1.7369914,0.26763523,0.48966739,-0.82981765,0
1.2225161,2.3747344,-4.2298236,0.26763523,0.48966739,-0.82981765,0
0.4534533,1.0126348,-5.2816262,0.26763523,0.48966739,-0.82981765,0
-2.565448,-5.8622069,0.35940886,-0.095600963,-0.84349006,-0.52856886,0
0.91682529,5.2517052,0.9130125,0.095600963,0.84349006,0.52856886,0
-0.61725712,4.7776399,0.81976163,-0.9587658,0.22079492,-0.17893502,0
-2.0188732,1.7111473,4.5460062,-0.9587658,0.22079492,-0.17893502,0
1.2887139,4.2733216,2.4070535,0.095600963,0.84349006,0.52856886,0
-0.11508897,4.1388421,-2.6591849,-0.9587658,0.22079492,-0.17893502,0
-2.6399016,-1.1965041,4.4679461,-0.26763523,-0.48966739,0.82981765,0
0.50768232,0.70099878,6.5276709,0.9587658,-0.22079492,0.17893502,0
1.3250592,-1.6624595,-0.76834655,0.9587658,-0.22079492,0.17893502,0
-1.6312504,3.0891879,4.8248215,0.095600963,0.84349006,0.52856886,0
0.35277748,-1.9385568,4.100626,0.9587658,-0.22079492,0.17893502,0
0.91240764,1.6419218,-4.7622662,0.26763523,0.48966739,-0.82981765,0
-0.79940748,-3.1903739,-4.223722,-0.095600963,-0.84349006,-0.52856886,0
-2.3523121,-3.3873692,3.2678933,-0.26763523,-0.48966739,0.82981765,0
2.6776006,2.9813118,-3.4025898,0.26763523,0.48966739,-0.82981765,0
1.105824,3.2965589,3.9988518,0.095600963,0.84349006,0.52856886,0
0.17628527,-1.3142576,-6.7440963,0.26763523,0.48966739,-0.82981765,0
1.8946028,-2.6708264,-5.0643263,0.9587658,-0.22079492,0.17893502,0
1.0794785,0.38308811,-5.4512076,0.26763523,0.48966739,-0.82981765,0
0.72682333,-4.6644115,-2.1474986,-0.095600963,-0.84349006,-0.52856886,0
0.044685841,5.690752,-1.6003232,-0.9587658,0.22079492,-0.17893502,0
1.7036929,1.6906717,1.3404279,0.9587658,-0.22079492,0.17893502,0
-0.39146662,0.42963123,6.1526856,-0.26763523,-0.48966739,0.82981765,0
-0.041439533,1.3489702,-5.2427716,0.26763523,0.48966739,-0.82981765,0
-0.47144365,-5.1671329,-1.1285279,-0.095600963,-0.84349006,-0.52856886,0
1.3279817,-0.90478158,0.15092248,0.9587658,-0.22079492,0.17893502,0
1.1039026,-2.2387803,-0.29449522,0.9587658,-0.22079492,0.17893502,0
-1.41286,-5.2110558,2.4947472,-0.26763523,-0.48966739,0.82981765,0
-1.7273822,2.8768759,5.181016,0.095600963,0.84349006,0.52856886,0
-1.5401518,-5.5318141,-0.3532753,-0.095600963,-0.84349006,-0.52856886,0
0.99374777,-0.90880668,1.9368421,0.9587658,-0.22079492,0.17893502,0
-1.5038753,-1.5243187,4.640902,-0.26763523,-0.48966739,0.82981765,0
-2.4352829,-6.0368733,1.6776862,-0.26763523,-0.48966739,0.82981765,0
0.21782732,-4.9419632,-1.6125196,-0.095600963,-0.84349006,-0.52856886,0
-0.51140523,4.1031561,-0.5796845,-0.9587658,0.22079492,-0.17893502,0
-0.4122777,-5.3849225,-0.7916801,-0.095600963,-0.84349006,-0.52856886,0
0.14344549,-1.6876876,-6.7922401,-0.095600963,-0.84349006,-0.52856886,0
1.839711,-2.5159392,-4.5790858,0.9587658,-0.22079492,0.17893502,0
1.6787109,-3.089757,-4.4244766,0.9587658,-0.22079492,0.17893502,0
-0.91622925,-4.8501077,-1.5539901,-0.095600963,-0.84349006,-0.52856886,0
1.227999,5.8735027,-0.13553333,0.095600963,0.84349006,0.52856886,0
-0.18856525,2.8789523,4.8993807,0.095600963,0.84349006,0.52856886,0
-2.5869067,-5.5335779,-0.16113663,-0.095600963,-0.84349006,-0.52856886,0
1.6492107,0.92252642,-4.9491386,0.26763523,0.48966739,-0.82981765,0
1.4254217,3.8808546,-3.2756348,0.26763523,0.48966739,-0.82981765,0
2.4306986,2.6592765,-1.3597994,0.9587658,-0.22079492,0.17893502,0
-1.604811,-1.9474202,-2.1870658,-0.9587658,0.22079492,-0.17893502,0
-1.693279,-1.5425481,-1.2134515,-0.9587658,0.22079492,-0.17893502,0
1.6753902,3.7116785,3.2333865,0.095600963,0.84349006,0.52856886,0
-2.7805142,-2.4973121,3.6550016,-0.26763523,-0.48966739,0.82981765,0
-1.1161497,2.522171,0.70980388,-0.9587658,0.22079492,-0.17893502,0
-1.1963952,-6.7277226,1.4929805,-0.095600963,-0.84349006,-0.52856886,0
-0.65923929,-1.102083,-6.2105122,-0.9587658,0.22079492,-0.17893502,0
1.2166802,4.2867513,-3.1034436,0.26763523,0.48966739,-0.82981765,0
0.17848682,6.2858038,-1.5829959,-0.9587658,0.22079492,-0.17893502,0
0.77200866,-1.8711523,1.9374835,0.9587658,-0.22079492,0.17893502,0
0.074879646,-1.3482134,5.254003,-0.26763523,-0.48966739,0.82981765,0
2.3403728,5.2986217,0.58066988,0.095600963,0.84349006,0.52856886,0
2.1140184,-0.33472469,-3.3573878,0.9587658,-0.22079492,0.17893502,0
-1.3505716,3.6713581,3.3839056,-0.9587658,0.22079492,-0.17893502,0
-1.3283999,-1.0070751,-2.5077999,-0.9587658,0.22079492,-0.17893502,0
1.3178244,-2.3078728,-6.0149555,-0.095600963,-0.84349006,-0.52856886,0
0.77944422,6.6045818,-1.8767328,0.26763523,0.48966739,-0.82981765,0
0.02012229,-6.099658,0.74850464,0.9587658,-0.22079492,0.17893502,0
2.4636731,4.345552,-2.6665621,0.26763523,0.48966739,-0.82981765,0
2.5071738,4.6172075,0.64640427,0.9587658,-0.22079492,0.17893502,0
-2.7309573,-3.1177261,2.4029398,-0.9587658,0.22079492,-0.17893502,0
-2.5896919,-3.8811419,0.70400572,-0.9587658,0.22079492,-0.17893502,0
-2.3457236,-1.7628049,4.2286568,-0.26763523,-0.48966739,0.82981765,0
-0.42566621,1.9258039,-3.7258112,-0.9587658,0.22079492,-0.17893502,0
1.6541903,-0.71378869,-1.3612883,0.9587658,-0.22079492,0.17893502,0
0.47555655,4.9937382,-2.9252863,0.26763523,0.48966739,-0.82981765,0
2.2343881,-1.2546951,-5.137537,0.9587658,-0.22079492,0.17893502,0
2.5770011,2.2409043,-2.6599617,0.9587658,-0.22079492,0.17893502,0
0.3973662,-2.968349,2.5910101,0.9587658,-0.22079492,0.17893502,0
1.9674933,0.2587356,-5.2381816,0.26763523,0.48966739,-0.82981765,0
0.64167678,5.8014402,-2.3950915,0.26763523,0.48966739,-0.82981765,0
0.70156193,5.1565204,1.1038427,0.095600963,0.84349006,0.52856886,0
2.102674,-0.51217318,-5.6494884,0.26763523,0.48966739,-0.82981765,0
0.50480509,-0.58597445,-6.2083879,0.26763523,0.48966739,-0.82981765,0
2.168654,4.1038604,-2.9043322,0.26763523,0.48966739,-0.82981765,0
1.636232,1.2097303,1.1084424,0.9587658,-0.22079492,0.17893502,0
-1.5857141,1.5171971,1.985738,-0.9587658,0.22079492,-0.17893502,0
0.8848033,6.1043968,-2.1379056,0.26763523,0.48966739,-0.82981765,0
1.6230736,3.1039386,3.5162849,0.9587658,-0.22079492,0.17893502,0
2.6842227,4.9470544,-2.240489,0.26763523,0.48966739,-0.82981765,0
1.2519174,2.3118682,4.5276413,0.9587658,-0.22079492,0.17893502,0
-1.9034462,1.9506718,6.5625877,-0.26763523,-0.48966739,0.82981765,0
1.0390491,-3.5624862,-3.9624221,-0.095600963,-0.84349006,-0.52856886,0
1.6458697,4.2513342,2.3775444,0.095600963,0.84349006,0.52856886,0
0.79536533,6.553215,-1.9019084,0.26763523,0.48966739,-0.82981765,0
-0.43044007,-3.1553636,4.0246444,-0.26763523,-0.48966739,0.82981765,0
-1.6316786,-6.4047627,1.7197785,-0.26763523,-0.48966739,0.82981765,0
1.4253678,4.1851344,-3.0960999,0.26763523,0.48966739,-0.82981765,0
1.6088376,-0.20956779,-0.49610114,0.9587658,-0.22079492,0.17893502,0
-2.4479179,-5.7439756,1.846447,-0.26763523,-0.48966739,0.82981765,0
0.34838724,-2.7364402,-5.1557078,-0.095600963,-0.84349006,-0.52856886,0
1.843189,-2.5586352,-4.6504073,0.9587658,-0.22079492,0.17893502,0
0.17991614,6.1470585,-1.7618561,-0.9587658,0.22079492,-0.17893502,0
-0.015924692,-1.2736079,5.2687416,-0.26763523,-0.48966739,0.82981765,0
0.22307205,2.2764127,5.7864618,0.095600963,0.84349006,0.52856886,0
0.17184544,-3.2931449,-4.2353883,-0.095600963,-0.84349006,-0.52856886,0
2.1805789,3.229517,0.68402934,0.9587658,-0.22079492,0.17893502,0
0.26063734,4.8349276,-3.0883155,0.26763523,0.48966739,-0.82981765,0
0.54887724,-4.5351553,-2.3215809,-0.095600963,-0.84349006,-0.52856886,0
1.7252877,3.1444864,-3.6134453,0.26763523,0.48966739,-0.82981765,0
2.1681869,-1.1960707,-4.7104807,0.9587658,-0.22079492,0.17893502,0
-0.56244838,1.7995796,-3.1486611,-0.9587658,0.22079492,-0.17893502,0
-2.0997663,1.4370862,6.196209,-0.26763523,-0.48966739,0.82981765,0
-0.39326596,-0.97691631,5.3221149,-0.26763523,-0.48966739,0.82981765,0
-0.91329288,0.97393429,6.3055725,-0.26763523,-0.48966739,0.82981765,0
0.064843178,-1.9013453,-6.437068,-0.095600963,-0.84349006,-0.52856886,0
-2.4906113,-1.7184629,2.8417296,-0.9587658,0.22079492,-0.17893502,0
-1.5875077,-4.6989827,-1.6737422,-0.095600963,-0.84349006,-0.52856886,0
-0.60856438,-4.2117252,-2.6283665,-0.095600963,-0.84349006,-0.52856886,0
0.42485499,6.4616442,-0.92882729,0.095600963,0.84349006,0.52856886,0
0.18853521,-1.6018057,-6.9098234,0.26763523,0.48966739,-0.82981765,0
-2.4837511,-4.2899375,-0.36807299,-0.9587658,0.22079492,-0.17893502,0
-0.95199156,-3.5889063,3.6006031,-0.26763523,-0.48966739,0.82981765,0
1.4305596,4.715888,1.6751516,0.095600963,0.84349006,0.52856886,0
2.461185,4.5120683,0.76308179,0.9587658,-0.22079492,0.17893502,0
-1.9389286,-4.1744757,-2.4471898,-0.095600963,-0.84349006,-0.52856886,0
-2.7301569,-2.6127355,3.6031332,-0.26763523,-0.48966739,0.82981765,0
-0.77283096,-2.8999329,-4.6920137,-0.095600963,-0.84349006,-0.52856886,0
1.215888,2.7682319,4.8220482,0.095600963,0.84349006,0.52856886,0
-1.0762992,2.7182677,5.3163633,0.095600963,0.84349006,0.52856886,0
-2.3093698,-5.6608777,-0.0081887245,-0.095600963,-0.84349006,-0.52856886,0
2.2906868,-0.43000007,-5.5403605,0.26763523,0.48966739,-0.82981765,0
-0.33915567,-3.2116838,-4.2729611,-0.095600963,-0.84349006,-0.52856886,0
1.2223978,-1.9726493,-6.5326457,-0.095600963,-0.84349006,-0.52856886,0
-2.5110722,-0.40869299,4.5675387,-0.9587658,0.22079492,-0.17893502,0
2.4993129,-0.17997503,-5.2309113,0.9587658,-0.22079492,0.17893502,0
-1.1529474,0.4405427,5.9135294,-0.26763523,-0.48966739,0.82981765,0
-0.37619019,3.6511207,3.7010891,0.095600963,0.84349006,0.52856886,0
1.1018561,-1.2232592,0.96956199,0.9587658,-0.22079492,0.17893502,0
-2.68536,-5.8257098,0.32285547,-0.095600963,-0.84349006,-0.52856886,0
0.036292911,5.1426458,-2.2316818,-0.9587658,0.22079492,-0.17893502,0
2.0216515,5.2137308,0.77378488,0.095600963,0.84349006,0.52856886,0
-0.68552971,-4.874927,-1.5561093,-0.095600963,-0.84349006,-0.52856886,0
1.4492736,-3.416095,-4.2702293,-0.095600963,-0.84349006,-0.52856886,0
-2.4294422,0.14014366,4.8073821,-0.9587658,0.22079492,-0.17893502,0
2.558404,3.7376418,-0.71342945,0.9587658,-0.22079492,0.17893502,0
1.4954631,6.5852036,-1.3196406,0.095600963,0.84349006,0.52856886,0
-0.40726805,5.194118,1.2443951,0.095600963,0.84349006,0.52856886,0
0.038828373,1.4092333,6.8695188,-0.26763523,-0.48966739,0.82981765,0
2.6413836,3.3161685,-3.2166753,0.26763523,0.48966739,-0.82981765,0
-2.3977828,-3.9356725,-0.39156651,-0.9587658,0.22079492,-0.17893502,0
-1.5719655,-0.23323357,-0.24785608,-0.9587658,0.22079492,-0.17893502,0
0.33345795,4.5254579,-3.2474442,0.26763523,0.48966739,-0.82981765,0
0.13861418,-1.8218222,-6.5773134,-0.095600963,-0.84349006,-0.52856886,0
-1.8300085,2.1594503,4.0872126,-0.9587658,0.22079492,-0.17893502,0
-1.1512593,-2.9973519,3.8854046,-0.26763523,-0.48966739,0.82981765,0
2.3051753,-2.013226,-6.4699349,0.26763523,0.48966739,-0.82981765,0
-3.0501413,-6.1153288,1.433085,-0.26763523,-0.48966739,0.82981765,0
1.2904377,-2.1058314,-6.3324194,-0.095600963,-0.84349006,-0.52856886,0
1.4009109,2.6727529,4.1746168,0.9587658,-0.22079492,0.17893502,0
1.838366,-1.0144817,-6.0311408,0.26763523,0.48966739,-0.82981765,0
1.9312623,-0.57251376,-2.6715639,0.9587658,-0.22079492,0.17893502,0
0.087188244,1.7278492,6.6864367,0.095600963,0.84349006,0.52856886,0
2.2811401,5.1584587,0.81505489,0.095600963,0.84349006,0.52856886,0
-0.16010714,-2.2766473,-5.7974758,-0.095600963,-0.84349006,-0.52856886,0
0.56248665,3.7777884,3.3291767,0.095600963,0.84349006,0.52856886,0
1.2229171,-0.82013595,-6.1149569,0.26763523,0.48966739,-0.82981765,0
-1.592905,1.1599745,1.5834767,-0.9587658,0.22079492,-0.17893502,0
0.24912548,-3.3204989,-4.2057133,-0.095600963,-0.84349006,-0.52856886,0
1.8705651,-0.88779688,-2.7353785,0.9587658,-0.22079492,0.17893502,0
1.0864239,-3.9141791,-3.4097586,-0.095600963,-0.84349006,-0.52856886,0
-2.1973898,-2.4632423,0.35158372,-0.9587658,0.22079492,-0.17893502,0
1.1111107,-3.0648313,-1.3524141,0.9587658,-0.22079492,0.17893502,0
0.73467779,-0.43113613,-6.0428791,0.26763523,0.48966739,-0.82981765,0
0.64171243,-4.0509644,-0.054123402,0.9587658,-0.22079492,0.17893502,0
2.3815837,5.0085263,1.0361502,0.095600963,0.84349006,0.52856886,0
-1.3217072,-0.58262467,-2.019913,-0.9587658,0.22079492,-0.17893502,0
0.27852702,4.488965,-3.286694,0.26763523,0.48966739,-0.82981765,0
-2.1413579,-3.3324275,-1.0211689,-0.9587658,0.22079492,-0.17893502,0
-1.2820058,-6.4258499,1.0267377,-0.095600963,-0.84349006,-0.52856886,0
0.31080246,2.2377784,5.8322458,0.095600963,0.84349006,0.52856886,0
2.0979135,5.7415419,-0.082288742,0.095600963,0.84349006,0.52856886,0
1.3058994,6.4210515,-1.815238,0.26763523,0.48966739,-0.82981765,0
-0.52120066,4.5150824,2.3486073,0.095600963,0.84349006,0.52856886,0
-0.65255356,-5.0005183,-1.3616543,-0.095600963,-0.84349006,-0.52856886,0
-0.8060751,3.9417932,3.3149867,0.095600963,0.84349006,0.52856886,0
0.080527395,-4.165925,2.8109531,0.9587658,-0.22079492,0.17893502,0
-1.3748603,-6.487196,1.7539654,-0.26763523,-0.48966739,0.82981765,0
0.55879587,-2.7154224,2.0381374,0.9587658,-0.22079492,0.17893502,0
1.2374806,-3.7563498,-2.8828189,0.9587658,-0.22079492,0.17893502,0
-1.7710166,1.6985614,6.456532,-0.26763523,-0.48966739,0.82981765,0
0.050630331,-4.3924441,2.6916347,0.9587658,-0.22079492,0.17893502,0
-0.40643483,-4.5193925,3.2274861,-0.26763523,-0.48966739,0.82981765,0
0.29820597,5.3437314,-2.7759581,0.26763523,0.48966739,-0.82981765,0
1.3551614,1.0835626,2.4587853,0.9587658,-0.22079492,0.17893502,0
0.57527357,-2.9898741,1.6111896,0.9587658,-0.22079492,0.17893502,0
-0.18778563,0.3729825,-5.8658924,0.26763523,0.48966739,-0.82981765,0
-2.5057867,-2.2050409,3.9160743,-0.26763523,-0.48966739,0.82981765,0
1.5035424,4.0966697,2.6500995,0.095600963,0.84349006,0.52856886,0
0.36382818,-4.5308313,-2.2950122,-0.095600963,-0.84349006,-0.52856886,0
1.6798022,1.6004932,1.3571645,0.9587658,-0.22079492,0.17893502,0
-0.58701921,-2.6315937,4.283216,-0.26763523,-0.48966739,0.82981765,0
0.53494883,-1.9536147,-6.4386835,-0.095600963,-0.84349006,-0.52856886,0
0.10351372,2.3525681,5.6865568,0.095600963,0.84349006,0.52856886,0
-1.1271718,-2.8841286,3.9599862,-0.26763523,-0.48966739,0.82981765,0
-2.2352669,1.2846497,5.1792088,-0.9587658,0.22079492,-0.17893502,0
2.4884562,5.7043543,-0.0935812,0.095600963,0.84349006,0.52856886,0
-1.5215435,2.2785301,2.5813408,-0.9587658,0.22079492,-0.17893502,0
1.1872089,1.6260566,-4.6829987,0.26763523,0.48966739,-0.82981765,0
1.0064878,4.9049129,-2.8064637,0.26763523,0.48966739,-0.82981765,0
0.0042165518,3.2802873,-4.0883951,0.26763523,0.48966739,-0.82981765,0
-1.2567928,-2.1178889,4.3703308,-0.26763523,-0.48966739,0.82981765,0
-1.7938383,-6.3710032,1.031786,-0.095600963,-0.84349006,-0.52856886,0
-1.5292058,-4.7731423,-1.565943,-0.095600963,-0.84349006,-0.52856886,0
-0.73305798,-0.93506551,-5.6088915,-0.9587658,0.22079492,-0.17893502,0
-1.478549,-6.5269732,1.2236586,-0.095600963,-0.84349006,-0.52856886,0
-0.47480106,-6.0407171,0.26614475,-0.095600963,-0.84349006,-0.52856886,0
-2.2084472,-3.7573338,-1.1859982,-0.9587658,0.22079492,-0.17893502,0
1.6504662,6.4522734,-1.1355462,0.095600963,0.84349006,0.52856886,0
2.1166263,0.96670371,-4.7723184,0.26763523,0.48966739,-0.82981765,0
-0.8949393,2.9020004,-0.0067937374,-0.9587658,0.22079492,-0.17893502,0
2.6575072,3.1095273,-3.3334122,0.26763523,0.48966739,-0.82981765,0
0.079562187,4.9775085,1.5020087,0.095600963,0.84349006,0.52856886,0
-0.49874544,1.1052153,6.5167408,-0.26763523,-0.48966739,0.82981765,0
-2.1766789,-1.2135477,1.7826581,-0.9587658,0.22079492,-0.17893502,0
0.21321201,-3.5300486,-3.864819,-0.095600963,-0.84349006,-0.52856886,0
1.833806,5.8063345,-0.13791656,0.095600963,0.84349006,0.52856886,0
2.4298711,3.8225162,0.080002308,0.9587658,-0.22079492,0.17893502,0
2.2106063,3.9145696,-3.0025005,0.26763523,0.48966739,-0.82981765,0
0.18571615,6.5515995,-1.0291252,0.095600963,0.84349006,0.52856886,0
-0.96666622,-5.8949184,0.12244081,-0.095600963,-0.84349006,-0.52856886,0
-1.4922709,-1.3407582,-2.0414915,-0.9587658,0.22079492,-0.17893502,0
-0.8904593,-3.3119478,3.7838788,-0.26763523,-0.48966739,0.82981765,0
-0.99452746,-2.4831269,4.2393947,-0.26763523,-0.48966739,0.82981765,0
-0.11727858,-2.0337253,-6.1928768,-0.095600963,-0.84349006,-0.52856886,0
-2.3376887,-4.1193337,-0.94018769,-0.9587658,0.22079492,-0.17893502,0
1.2308569,5.7522984,-2.2340651,0.26763523,0.48966739,-0.82981765,0
-2.2319782,-2.1745059,4.0224018,-0.26763523,-0.48966739,0.82981765,0
-0.6833539,-6.2610383,0.65545321,-0.095600963,-0.84349006,-0.52856886,0
-2.6834936,-5.8874402,0.42102528,-0.095600963,-0.84349006,-0.52856886,0
-1.7589672,-1.9889975,-1.4123745,-0.9587658,0.22079492,-0.17893502,0
2.4285467,4.4648905,-2.6074705,0.26763523,0.48966739,-0.82981765,0
-2.4713073,-4.7416854,2.4303446,-0.26763523,-0.48966739,0.82981765,0
-2.450845,-4.6871586,-1.0345347,-0.9587658,0.22079492,-0.17893502,0
0.22451937,-2.5774765,3.9994669,0.9587658,-0.22079492,0.17893502,0
0.034010649,4.5714426,-2.924284,-0.9587658,0.22079492,-0.17893502,0
-0.33345866,-4.2981462,3.3815789,-0.26763523,-0.48966739,0.82981765,0
-1.6525888,-3.0709476,-3.3174293,-0.9587658,0.22079492,-0.17893502,0
0.03890419,-1.224565,-6.7354779,0.26763523,0.48966739,-0.82981765,0
-0.64757347,3.5935159,-0.47893572,-0.9587658,0.22079492,-0.17893502,0
1.5470526,3.1875243,-3.6455336,0.26763523,0.48966739,-0.82981765,0
1.7083371,-1.608526,-2.7554684,0.9587658,-0.22079492,0.17893502,0
1.1881998,0.88375872,-5.1207018,0.26763523,0.48966739,-0.82981765,0
-1.9351637,-3.3839567,-2.1895788,-0.9587658,0.22079492,-0.17893502,0
0.6688447,-1.9011174,-6.5466766,-0.095600963,-0.84349006,-0.52856886,0
0.068217278,-5.7947588,-0.22457051,-0.095600963,-0.84349006,-0.52856886,0
2.1828809,-1.6907922,-5.399672,0.9587658,-0.22079492,0.17893502,0
0.34647769,3.4344659,-3.8870287,0.26763523,0.48966739,-0.82981765,0
-2.5163934,-4.177197,2.7489033,-0.26763523,-0.48966739,0.82981765,0
-2.2974794,0.96198845,5.1144104,-0.9587658,0.22079492,-0.17893502,0
-0.21953487,4.2140818,2.7743826,0.095600963,0.84349006,0.52856886,0
0.50785971,-3.5837255,1.2396283,0.9587658,-0.22079492,0.17893502,0
0.28768826,6.5767612,-1.0877218,0.095600963,0.84349006,0.52856886,0
-0.94352579,-2.2376344,-5.7180376,-0.095600963,-0.84349006,-0.52856886,0
0.7526412,3.4731994,3.7808475,0.095600963,0.84349006,0.52856886,0
-1.7370998,-1.2130512,-0.57207263,-0.9587658,0.22079492,-0.17893502,0
1.3180213,-1.6683233,-6.5847912,0.26763523,0.48966739,-0.82981765,0
-1.9859178,-1.3619938,4.5812178,-0.26763523,-0.48966739,0.82981765,0
-1.3516608,1.2385771,0.3878375,-0.9587658,0.22079492,-0.17893502,0
-0.69977856,3.7991209,0.054493904,-0.9587658,0.22079492,-0.17893502,0
1.5208519,0.87311041,-5.0196967,0.26763523,0.48966739,-0.82981765,0
-2.6060984,-2.6650629,2.2924829,-0.9587658,0.22079492,-0.17893502,0
-2.3837862,0.10171523,4.5153313,-0.9587658,0.22079492,-0.17893502,0
2.7315257,2.8780065,-3.4461575,0.26763523,0.48966739,-0.82981765,0
-0.39718962,1.5307305,6.8005877,-0.26763523,-0.48966739,0.82981765,0
-0.22657537,1.978075,-4.7280765,-0.9587658,0.22079492,-0.17893502,0
1.062077,-2.0399218,-6.3962955,-0.095600963,-0.84349006,-0.52856886,0
2.127677,5.5349913,-2.073051,0.26763523,0.48966739,-0.82981765,0
0.43410158,0.69474208,-5.4754529,0.26763523,0.48966739,-0.82981765,0
1.6193819,-2.3720994,-5.9670038,-0.095600963,-0.84349006,-0.52856886,0
1.5494046,-1.2115116,-1.4139874,0.9587658,-0.22079492,0.17893502,0
-0.62585449,2.9722042,4.8296604,0.095600963,0.84349006,0.52856886,0
1.1278622,-3.1354661,-1.5293314,0.9587658,-0.22079492,0.17893502,0
2.1155696,-2.1562457,-5.6133466,0.9587658,-0.22079492,0.17893502,0
-2.9842227,-5.7204628,1.6873512,-0.26763523,-0.48966739,0.82981765,0
1.2093353,4.1443715,2.6271892,0.095600963,0.84349006,0.52856886,0
0.59761357,6.5709062,-1.9552484,0.26763523,0.48966739,-0.82981765,0
-2.3797841,0.7900694,5.3432755,-0.9587658,0.22079492,-0.17893502,0
-0.33123183,5.2636275,-0.11313415,-0.9587658,0.22079492,-0.17893502,0
-2.5033009,-1.7380884,4.19242,-0.26763523,-0.48966739,0.82981765,0
1.1003989,2.5420918,-4.1704535,0.26763523,0.48966739,-0.82981765,0
-1.4921856,3.0992181,4.7836628,0.095600963,0.84349006,0.52856886,0
-1.5498006,-6.4548316,1.1214213,-0.095600963,-0.84349006,-0.52856886,0
3.1808739,5.8882613,-1.52491,0.26763523,0.48966739,-0.82981765,0
-0.47775865,0.76388478,-4.8804302,-0.9587658,0.22079492,-0.17893502,0
0.44344291,-3.3321528,1.8952103,0.9587658,-0.22079492,0.17893502,0
-1.5856242,-5.4243102,-0.51660633,-0.095600963,-0.84349006,-0.52856886,0
0.062434673,3.8087213,3.3702567,0.095600963,0.84349006,0.52856886,0
1.0971179,-0.36424911,-5.8865156,0.26763523,0.48966739,-0.82981765,0
-0.63443804,-0.48750758,-5.5850544,-0.9587658,0.22079492,-0.17893502,0
-1.4903355,-4.4358335,-2.1112518,-0.095600963,-0.84349006,-0.52856886,0
0.59436893,3.2962332,4.0918775,0.095600963,0.84349006,0.52856886,0
-0.24741435,5.3884425,-0.4082303,-0.9587658,0.22079492,-0.17893502,0
-2.1705911,-0.81852597,4.842351,-0.26763523,-0.48966739,0.82981765,0
-0.40704727,-3.9982159,-3.0055332,-0.095600963,-0.84349006,-0.52856886,0
-0.65378672,-3.7172942,3.6210208,-0.26763523,-0.48966739,0.82981765,0
2.1285443,5.8094649,-0.19622087,0.095600963,0.84349006,0.52856886,0
-1.3853384,-5.0241098,2.6139393,-0.26763523,-0.48966739,0.82981765,0
2.1857207,3.3756728,-3.3285246,0.26763523,0.48966739,-0.82981765,0
-2.7244325,-3.3594775,2.0696726,-0.9587658,0.22079492,-0.17893502,0
1.9873576,-2.3468571,-5.1615677,0.9587658,-0.22079492,0.17893502,0
-2.1748953,-5.6174612,-0.10179567,-0.095600963,-0.84349006,-0.52856886,0
-0.92719114,-5.4727283,2.4969769,-0.26763523,-0.48966739,0.82981765,0
0.69315577,-1.1999781,-6.5099583,0.26763523,0.48966739,-0.82981765,0
-0.26179218,-6.5080853,0.97344494,-0.095600963,-0.84349006,-0.52856886,0
1.3120661,-3.4061277,-4.2613182,-0.095600963,-0.84349006,-0.52856886,0
0.027695041,4.2624536,-3.2717166,-0.9587658,0.22079492,-0.17893502,0
-0.95402551,-0.63454676,-4.0540857,-0.9587658,0.22079492,-0.17893502,0
-2.5172265,-2.6408021,1.8462276,-0.9587658,0.22079492,-0.17893502,0
1.9018211,-2.7936029,-5.2545009,0.9587658,-0.22079492,0.17893502,0
2.4720206,3.1398137,-0.98825598,0.9587658,-0.22079492,0.17893502,0
-1.533731,-3.4802439,-3.6283324,-0.095600963,-0.84349006,-0.52856886,0
1.090941,-1.6047337,-6.6205053,0.26763523,0.48966739,-0.82981765,0
-0.71376562,3.7576168,3.5921996,0.095600963,0.84349006,0.52856886,0
-1.6226006,0.32411152,0.71118641,-0.9587658,0.22079492,-0.17893502,0
1.1983781,1.1520905,-4.9590797,0.26763523,0.48966739,-0.82981765,0
2.5298138,5.4579554,0.29214096,0.095600963,0.84349006,0.52856886,0
-1.4524136,-1.1737748,4.8643513,-0.26763523,-0.48966739,0.82981765,0
-1.7148654,2.814476,4.2785177,-0.9587658,0.22079492,-0.17893502,0
0.24464774,-5.8467455,-0.14246368,0.9587658,-0.22079492,0.17893502,0
0.84917402,-4.5460396,-2.358525,-0.095600963,-0.84349006,-0.52856886,0
-2.0003362,-3.6233683,-2.1357913,-0.9587658,0.22079492,-0.17893502,0
2.0279543,6.4807172,-1.5471511,0.26763523,0.48966739,-0.82981765,0
0.8205843,-0.38105702,3.5158932,0.9587658,-0.22079492,0.17893502,0
-1.5555782,-0.14460397,5.4383817,-0.26763523,-0.48966739,0.82981765,0
0.74875402,3.1385956,4.3155103,0.095600963,0.84349006,0.52856886,0
-1.1096964,3.9843123,3.3020499,0.095600963,0.84349006,0.52856886,0
-2.1910863,-3.5373492,3.2313895,-0.26763523,-0.48966739,0.82981765,0
0.8328793,5.8024611,-2.3328223,0.26763523,0.48966739,-0.82981765,0
1.9944258,-1.0077393,-3.5470488,0.9587658,-0.22079492,0.17893502,0
2.1429837,5.6702924,0.023258209,0.095600963,0.84349006,0.52856886,0
0.54934704,2.5380793,-4.3505478,0.26763523,0.48966739,-0.82981765,0
-0.55654049,2.7478347,-2.0102272,-0.9587658,0.22079492,-0.17893502,0
-1.0352058,2.4981494,5.6601949,0.095600963,0.84349006,0.52856886,0
-1.6488774,1.0073084,1.6950052,-0.9587658,0.22079492,-0.17893502,0
-1.5447965,-1.6974599,4.5255337,-0.26763523,-0.48966739,0.82981765,0
0.72285843,-1.6844075,-6.7862349,0.26763523,0.48966739,-0.82981765,0
2.3209617,3.2630923,-3.3513384,0.26763523,0.48966739,-0.82981765,0
1.9841371,3.5700178,-3.2788582,0.26763523,0.48966739,-0.82981765,0
-1.7913399,-6.2435436,0.82793379,-0.095600963,-0.84349006,-0.52856886,0
-1.4779358,3.5608385,3.9299738,-0.9587658,0.22079492,-0.17893502,0
-0.005053997,-1.0881295,-6.6691456,0.26763523,0.48966739,-0.82981765,0
-2.0798676,0.3010118,3.1328011,-0.9587658,0.22079492,-0.17893502,0
1.5798435,-2.6173201,-5.5685301,-0.095600963,-0.84349006,-0.52856886,0
-0.23293614,-5.8317976,-0.11099434,-0.095600963,-0.84349006,-0.52856886,0
-2.0464575,-5.1520624,2.3252091,-0.26763523,-0.48966739,0.82981765,0
-1.4020452,-1.7838449,-3.0716822,-0.9587658,0.22079492,-0.17893502,0
0.34671497,-0.34901381,5.9312944,-0.26763523,-0.48966739,0.82981765,0
1.8794403,3.6551185,-3.2624083,0.26763523,0.48966739,-0.82981765,0
1.2971287,-2.2747016,-6.064147,-0.095600963,-0.84349006,-0.52856886,0
0.18647099,6.5684509,-1.2770057,-0.9587658,0.22079492,-0.17893502,0
-2.4956737,-2.8455524,3.5413766,-0.26763523,-0.48966739,0.82981765,0
-2.6197166,-4.5880466,-0.0073943138,-0.9587658,0.22079492,-0.17893502,0
1.3894825,3.1279101,4.2166758,0.095600963,0.84349006,0.52856886,0
1.5689521,4.2838955,-2.9915123,0.26763523,0.48966739,-0.82981765,0
-2.082005,-4.8209476,-1.3896711,-0.095600963,-0.84349006,-0.52856886,0
0.047821999,0.66005731,6.4303379,-0.26763523,-0.48966739,0.82981765,0
0.72155499,-4.0777721,-0.51501298,0.9587658,-0.22079492,0.17893502,0
0.10744667,5.4524722,0.73901892,0.095600963,0.84349006,0.52856886,0
0.24562168,6.0481782,-2.23593,-0.9587658,0.22079492,-0.17893502,0
-2.7437761,-1.831314,4.0598493,-0.26763523,-0.48966739,0.82981765,0
1.7323027,4.3511167,2.2026777,0.095600963,0.84349006,0.52856886,0
1.2513789,1.3979843,-4.7968855,0.26763523,0.48966739,-0.82981765,0
1.0844913,4.208528,2.547389,0.095600963,0.84349006,0.52856886,0
-0.97900057,-1.3356593,-4.7853966,-0.9587658,0.22079492,-0.17893502,0
-1.0549333,-0.011494875,-2.7445943,-0.9587658,0.22079492,-0.17893502,0
-1.8017144,1.3502865,6.2411175,-0.26763523,-0.48966739,0.82981765,0
-1.4565988,0.86109161,6.063756,-0.26763523,-0.48966739,0.82981765,0
1.6746538,5.1590314,-2.4410119,0.26763523,0.48966739,-0.82981765,0
0.45278883,4.7512298,1.7956003,0.095600963,0.84349006,0.52856886,0
-0.50289941,-6.4873943,2.0350757,-0.26763523,-0.48966739,0.82981765,0
-0.49365759,-5.8836846,0.018963337,-0.095600963,-0.84349006,-0.52856886,0
0.5305329,3.6754985,-3.6854353,0.26763523,0.48966739,-0.82981765,0
