-0.96449542,3.4966905,2.0263748,0.71340418,0.46488461,0.52434391,0
3.2281814,-3.612474,-1.2428548,0.65570146,-0.70681345,-0.26546234,0
-4.0502615,1.5589994,0.31414342,-0.71340418,-0.46488461,-0.52434391,0
2.5542784,-3.8801236,-2.1947823,0.65570146,-0.70681345,-0.26546234,0
-0.19480026,2.8451922,-0.65644884,0.24720398,0.53319502,-0.80906928,0
2.5233769,-3.4787724,-3.3397391,0.65570146,-0.70681345,-0.26546234,0
1.7121698,-5.1594219,-0.86859202,0.65570146,-0.70681345,-0.26546234,0
3.9050369,-3.6198053,0.44852495,0.65570146,-0.70681345,-0.26546234,0
0.81092423,-3.7217567,0.2670238,-0.24720398,-0.53319502,0.80906928,0
-1.1920362,2.9778032,-0.87375188,0.24720398,0.53319502,-0.80906928,0
2.8382254,-0.92962301,0.77690411,0.71340418,0.46488461,0.52434391,0
-0.63861704,2.3254933,2.6213825,0.71340418,0.46488461,0.52434391,0
2.5734472,0.89729309,-0.48259652,0.71340418,0.46488461,0.52434391,0
2.5335827,-1.4043734,-2.6233761,0.24720398,0.53319502,-0.80906928,0
-0.32008711,-1.4621024,1.4106174,-0.24720398,-0.53319502,0.80906928,0
-0.01970911,-2.4905877,0.8246001,-0.24720398,-0.53319502,0.80906928,0
2.6618447,-1.5973132,1.6088564,0.71340418,0.46488461,0.52434391,0
2.3661246,-4.0105915,-2.3121471,0.65570146,-0.70681345,-0.26546234,0
0.88474679,-2.8667877,-2.4763453,-0.71340418,-0.46488461,-0.52434391,0
0.50229144,2.2164793,1.1657535,0.71340418,0.46488461,0.52434391,0
3.1838217,-0.36416742,-0.19463658,0.71340418,0.46488461,0.52434391,0
4.9895592,-1.566327,-1.5856237,0.71340418,0.46488461,0.52434391,0
2.1905398,-3.3567755,0.9290843,-0.24720398,-0.53319502,0.80906928,0
2.9113524,-4.0695276,-0.80849361,0.65570146,-0.70681345,-0.26546234,0
2.1814113,-2.2587774,1.6499009,-0.24720398,-0.53319502,0.80906928,0
-4.1716881,2.1854634,-0.076072693,-0.71340418,-0.46488461,-0.52434391,0
-4.6515989,2.1930354,1.5063241,-0.65570146,0.70681345,0.26546234,0
3.961525,-3.3078258,-0.24261761,0.65570146,-0.70681345,-0.26546234,0
-4.4076853,2.6864319,-0.19914198,-0.71340418,-0.46488461,-0.52434391,0
-3.8167677,3.3576016,0.46764183,-0.65570146,0.70681345,0.26546234,0
-2.7733445,-0.33637512,1.402926,-0.24720398,-0.53319502,0.80906928,0
-2.9723237,1.5702631,-1.1624482,-0.71340418,-0.46488461,-0.52434391,0
2.0554512,-3.3437514,0.89639235,-0.24720398,-0.53319502,0.80906928,0
-4.777359,2.2412348,1.0673571,-0.65570146,0.70681345,0.26546234,0
-4.1112361,2.4413555,2.1798685,-0.65570146,0.70681345,0.26546234,0
2.2754102,-1.0435848,1.6436905,0.71340418,0.46488461,0.52434391,0
1.9275849,-2.9135911,1.1408093,-0.24720398,-0.53319502,0.80906928,0
2.4131,1.0984044,-0.44273961,0.71340418,0.46488461,0.52434391,0
3.5558164,-3.7726166,-0.007191658,0.65570146,-0.70681345,-0.26546234,0
2.7850509,-3.8718138,-1.6468925,0.65570146,-0.70681345,-0.26546234,0
2.8804398,-3.5861211,-2.1719568,0.65570146,-0.70681345,-0.26546234,0
-2.4815805,-1.2278017,0.90460169,-0.24720398,-0.53319502,0.80906928,0
4.9077234,-2.0729761,-1.0250845,0.71340418,0.46488461,0.52434391,0
-4.3242869,2.1736927,2.3662992,-0.65570146,0.70681345,0.26546234,0
-1.2908754,1.2625301,-2.0343552,0.24720398,0.53319502,-0.80906928,0
-0.84039414,-0.7079438,-2.0432138,-0.71340418,-0.46488461,-0.52434391,0
-1.5667374,3.0815082,-0.91989446,0.24720398,0.53319502,-0.80906928,0
-3.6190672,1.5587776,2.3934717,-0.24720398,-0.53319502,0.80906928,0
0.52654934,-2.7355268,-2.10537,-0.71340418,-0.46488461,-0.52434391,0
-2.619621,3.3898044,3.3388963,-0.65570146,0.70681345,0.26546234,0
0.73448038,2.0524769,-0.89493287,0.24720398,0.53319502,-0.80906928,0
-1.2484719,0.30042458,-2.3820195,-0.71340418,-0.46488461,-0.52434391,0
-0.71297419,2.795377,2.3059502,0.71340418,0.46488461,0.52434391,0
-2.9301789,3.7402616,1.6386876,-0.65570146,0.70681345,0.26546234,0
-4.0593524,3.2274518,0.21498203,-0.65570146,0.70681345,0.26546234,0
1.1477199,2.3888769,0.1347571,0.71340418,0.46488461,0.52434391,0
1.0854825,-4.1304073,0.08160305,-0.24720398,-0.53319502,0.80906928,0
-3.8832076,2.7089715,2.0305593,-0.65570146,0.70681345,0.26546234,0
1.475606,-1.7435415,-3.170151,0.24720398,0.53319502,-0.80906928,0
-0.47384751,-2.9649014,0.37325823,-0.24720398,-0.53319502,0.80906928,0
0.99041986,1.6682646,0.98767102,0.71340418,0.46488461,0.52434391,0
-2.8775978,3.5951266,2.1549971,-0.65570146,0.70681345,0.26546234,0
-3.9367993,3.443923,-0.05867815,-0.65570146,0.70681345,0.26546234,0
-2.1933599,0.50204635,-1.2751957,-0.71340418,-0.46488461,-0.52434391,0
-0.048352301,0.32896352,-2.2699552,0.24720398,0.53319502,-0.80906928,0
2.1908965,-4.3976803,-1.7143166,0.65570146,-0.70681345,-0.26546234,0
0.65604997,-1.6798604,1.5653598,-0.24720398,-0.53319502,0.80906928,0
-4.2787085,2.0400817,2.5091147,-0.24720398,-0.53319502,0.80906928,0
-3.9989409,0.57821047,1.6311886,-0.24720398,-0.53319502,0.80906928,0
-2.7971029,0.91995215,-0.82427931,-0.71340418,-0.46488461,-0.52434391,0
2.2085745,-1.8683109,-3.0284247,0.24720398,0.53319502,-0.80906928,0
0.41407892,0.51094079,-2.0087361,0.24720398,0.53319502,-0.80906928,0
3.2330143,0.18819284,-1.3601336,0.24720398,0.53319502,-0.80906928,0
-0.5215106,-0.22321224,2.1655309,-0.24720398,-0.53319502,0.80906928,0
2.8418989,0.67001021,-0.64633274,0.71340418,0.46488461,0.52434391,0
3.7258375,-0.70947546,-0.62593436,0.71340418,0.46488461,0.52434391,0
-4.6760054,2.5311677,0.54573536,-0.65570146,0.70681345,0.26546234,0
2.6725338,-1.4937549,1.5024996,0.71340418,0.46488461,0.52434391,0
1.538432,-3.2431605,0.80471325,-0.24720398,-0.53319502,0.80906928,0
1.0828023,1.7736483,0.76854557,0.71340418,0.46488461,0.52434391,0
-0.1206727,-2.4611099,-1.4680806,-0.71340418,-0.46488461,-0.52434391,0
-1.7341428,4.4348698,-0.079147816,0.24720398,0.53319502,-0.80906928,0
3.1576543,-2.8132598,-3.3611848,0.24720398,0.53319502,-0.80906928,0
3.7880061,-2.9638536,-1.5870676,0.65570146,-0.70681345,-0.26546234,0
-3.7795279,3.2905045,0.73827744,-0.65570146,0.70681345,0.26546234,0
-3.3985715,3.1849446,1.9603148,-0.65570146,0.70681345,0.26546234,0
2.0820918,-4.5373392,-1.6112132,0.65570146,-0.70681345,-0.26546234,0
-3.6525264,3.3080411,1.0052824,-0.65570146,0.70681345,0.26546234,0
-2.3858719,4.6917038,-0.10901833,0.24720398,0.53319502,-0.80906928,0
0.13434207,-1.0141355,-3.0979362,-0.71340418,-0.46488461,-0.52434391,0
3.3847053,-4.0242853,0.24024487,0.65570146,-0.70681345,-0.26546234,0
3.2203805,-1.9874066,1.1947904,0.71340418,0.46488461,0.52434391,0
2.2185521,-4.7970448,-0.5826664,0.65570146,-0.70681345,-0.26546234,0
-4.2812486,3.235796,-0.3553257,-0.65570146,0.70681345,0.26546234,0
-1.7684712,3.7157059,2.9260569,0.71340418,0.46488461,0.52434391,0
-4.1318316,3.0743396,0.44362736,-0.65570146,0.70681345,0.26546234,0
1.8679732,-1.7670739,1.8781765,-0.24720398,-0.53319502,0.80906928,0
-4.7696824,1.1112045,1.7469504,-0.24720398,-0.53319502,0.80906928,0
1.6955837,-1.5422711,1.9736545,-0.24720398,-0.53319502,0.80906928,0
2.5896022,-0.11561507,0.39347112,0.71340418,0.46488461,0.52434391,0
3.610249,-3.5635118,-0.42949867,0.65570146,-0.70681345,-0.26546234,0
-0.35219163,-1.2846344,1.5177636,-0.24720398,-0.53319502,0.80906928,0
1.0456854,-3.3425972,0.58862829,-0.24720398,-0.53319502,0.80906928,0
2.9409006,-3.225491,-2.9828203,0.65570146,-0.70681345,-0.26546234,0
-0.94308066,4.1071224,-0.053438663,0.24720398,0.53319502,-0.80906928,0
4.2535148,-3.1549826,0.071650982,0.65570146,-0.70681345,-0.26546234,0
-0.70785105,2.65042,2.4274993,0.71340418,0.46488461,0.52434391,0
-4.748775,2.1432598,1.3988268,-0.65570146,0.70681345,0.26546234,0
2.487186,-4.6582518,-0.28867674,0.65570146,-0.70681345,-0.26546234,0
-2.6730275,4.1611204,1.1532917,-0.65570146,0.70681345,0.26546234,0
0.42293549,2.3780489,1.1304741,0.71340418,0.46488461,0.52434391,0
0.84121788,-2.7507172,-2.5200295,-0.71340418,-0.46488461,-0.52434391,0
3.2462111,-4.0140533,-0.12908316,0.65570146,-0.70681345,-0.26546234,0
1.2111888,1.5189606,0.81967396,0.71340418,0.46488461,0.52434391,0
-0.32888162,2.3941941,2.1390564,0.71340418,0.46488461,0.52434391,0
-1.1752132,2.6615033,3.0535493,0.71340418,0.46488461,0.52434391,0
1.2725286,1.1843309,1.0329005,0.71340418,0.46488461,0.52434391,0
3.587353,-3.2467501,-1.3294559,0.65570146,-0.70681345,-0.26546234,0
1.5502229,-3.4635184,-2.852706,-0.71340418,-0.46488461,-0.52434391,0
1.9547642,0.36662769,0.82965219,0.71340418,0.46488461,0.52434391,0
-0.12001991,4.0689702,0.37002635,0.71340418,0.46488461,0.52434391,0
2.7841866,-3.350033,1.1149113,-0.24720398,-0.53319502,0.80906928,0
-1.8065413,-1.7544261,0.76379645,-0.24720398,-0.53319502,0.80906928,0
1.977734,-4.9818263,-0.68550158,0.65570146,-0.70681345,-0.26546234,0
2.2398572,-4.2660189,-1.943939,0.65570146,-0.70681345,-0.26546234,0
2.0284526,-0.4764806,1.476896,0.71340418,0.46488461,0.52434391,0
-0.63199639,3.8054385,1.3002515,0.71340418,0.46488461,0.52434391,0
0.019063234,-2.9710281,-1.2061059,-0.71340418,-0.46488461,-0.52434391,0
-4.1732006,2.883168,0.85045481,-0.65570146,0.70681345,0.26546234,0
2.4776745,-2.815675,-3.570538,0.24720398,0.53319502,-0.80906928,0
4.4014564,-1.4862158,-0.85649753,0.71340418,0.46488461,0.52434391,0
2.7152388,0.10809863,0.024188757,0.71340418,0.46488461,0.52434391,0
0.88711572,-2.9308174,0.81155062,-0.24720398,-0.53319502,0.80906928,0
3.3084223,-2.8780386,-3.0001469,0.65570146,-0.70681345,-0.26546234,0
-1.1019033,4.4581652,1.3608813,0.71340418,0.46488461,0.52434391,0
-0.86547637,1.998971,-1.419047,0.24720398,0.53319502,-0.80906928,0
-1.8674638,3.4788408,3.2707481,0.71340418,0.46488461,0.52434391,0
0.68571138,1.5810492,1.4795728,0.71340418,0.46488461,0.52434391,0
0.49399829,-0.024961948,-2.3374896,0.24720398,0.53319502,-0.80906928,0
2.5501578,-1.7976153,1.9384038,0.71340418,0.46488461,0.52434391,0
2.8498325,-3.8283536,-1.6025939,0.65570146,-0.70681345,-0.26546234,0
-1.6050425,1.9832246,3.2885594,-0.24720398,-0.53319502,0.80906928,0
-1.0389178,-2.0288243,-0.60201317,-0.71340418,-0.46488461,-0.52434391,0
4.0885,-2.9495382,0.86668491,0.71340418,0.46488461,0.52434391,0
-0.072358847,-3.1101522,0.40020645,-0.24720398,-0.53319502,0.80906928,0
-3.2925031,2.9242306,2.9164784,-0.65570146,0.70681345,0.26546234,0
0.22178912,2.9301198,0.91467953,0.71340418,0.46488461,0.52434391,0
0.58086634,-1.626771,-3.1622977,-0.71340418,-0.46488461,-0.52434391,0
-1.3116287,5.2933941,0.90571046,0.71340418,0.46488461,0.52434391,0
-3.8463593,1.9467254,2.5796914,-0.24720398,-0.53319502,0.80906928,0
-1.8467785,0.39212394,-1.6492845,-0.71340418,-0.46488461,-0.52434391,0
-0.49328589,1.6607161,3.0130432,0.71340418,0.46488461,0.52434391,0
-4.4747224,2.840013,0.22058821,-0.65570146,0.70681345,0.26546234,0
-2.2287107,4.5777802,1.141382,-0.65570146,0.70681345,0.26546234,0
3.0611022,-2.0208721,-2.868484,0.24720398,0.53319502,-0.80906928,0
-0.11041546,0.052503347,-2.4711113,0.24720398,0.53319502,-0.80906928,0
-1.759784,2.1613579,-1.585278,0.24720398,0.53319502,-0.80906928,0
-3.3369229,0.62196302,0.17437863,-0.71340418,-0.46488461,-0.52434391,0
-0.36773157,3.9748602,0.79049158,0.71340418,0.46488461,0.52434391,0
-1.9447376,4.4811487,2.100095,-0.65570146,0.70681345,0.26546234,0
0.56421518,2.8002999,0.56388497,0.71340418,0.46488461,0.52434391,0
-4.4309168,2.6425169,0.85464048,-0.65570146,0.70681345,0.26546234,0
-0.34061196,-0.58576393,1.981873,-0.24720398,-0.53319502,0.80906928,0
-0.50070024,3.2461617,-0.4856658,0.24720398,0.53319502,-0.80906928,0
4.2360187,-2.6337361,-1.3594232,0.65570146,-0.70681345,-0.26546234,0
-2.8698721,4.3185682,0.24786234,-0.65570146,0.70681345,0.26546234,0
-1.4704971,3.6381087,2.5894418,0.71340418,0.46488461,0.52434391,0
-1.0213182,-0.49230361,1.8354819,-0.24720398,-0.53319502,0.80906928,0
-3.0883446,0.44280946,-0.0049901009,-0.71340418,-0.46488461,-0.52434391,0
-4.2648244,2.4680061,1.7295413,-0.65570146,0.70681345,0.26546234,0
-3.6384666,3.9340219,-0.99106693,0.24720398,0.53319502,-0.80906928,0
-3.6392994,2.7609851,2.4945319,-0.65570146,0.70681345,0.26546234,0
2.3737035,-3.7225003,-3.060493,0.65570146,-0.70681345,-0.26546234,0
-1.2834165,-1.5106667,1.0842755,-0.24720398,-0.53319502,0.80906928,0
-4.5740786,2.3400974,1.3062387,-0.65570146,0.70681345,0.26546234,0
-1.7475195,4.9597883,1.3128159,-0.65570146,0.70681345,0.26546234,0
-3.8667035,1.0636059,0.50361872,-0.71340418,-0.46488461,-0.52434391,0
2.9044127,0.74109221,-0.79440832,0.71340418,0.46488461,0.52434391,0
-2.703748,2.8431888,3.5195956,-0.24720398,-0.53319502,0.80906928,0
0.070667624,3.2712173,-0.294577,0.24720398,0.53319502,-0.80906928,0
1.1136799,1.110953,1.3140817,0.71340418,0.46488461,0.52434391,0
2.1467037,-4.5443277,0.13306618,-0.24720398,-0.53319502,0.80906928,0
-1.34071,4.5487518,1.6054788,0.71340418,0.46488461,0.52434391,0
3.0431104,-4.0065489,-0.65073299,0.65570146,-0.70681345,-0.26546234,0
-0.9635058,-0.38572347,1.9233844,-0.24720398,-0.53319502,0.80906928,0
0.20990193,1.4892163,2.2083621,0.71340418,0.46488461,0.52434391,0
-0.099358559,-1.2657429,-2.5568953,-0.71340418,-0.46488461,-0.52434391,0
3.3602095,-3.3471799,-1.623106,0.65570146,-0.70681345,-0.26546234,0
-2.0155375,-0.065405577,-1.0140305,-0.71340418,-0.46488461,-0.52434391,0
-2.6348958,1.6918217,-1.7293139,-0.71340418,-0.46488461,-0.52434391,0
0.75828314,-2.5712993,1.0091177,-0.24720398,-0.53319502,0.80906928,0
-4.661705,1.0685443,1.5808921,-0.71340418,-0.46488461,-0.52434391,0
1.9947248,-2.5698035,1.3878872,-0.24720398,-0.53319502,0.80906928,0
-2.838635,0.044115067,1.6337289,-0.24720398,-0.53319502,0.80906928,0
1.5693598,-1.667623,-3.0914733,0.24720398,0.53319502,-0.80906928,0
-4.3471146,1.942122,0.3783536,-0.71340418,-0.46488461,-0.52434391,0
2.0057955,-4.086462,0.39175749,-0.24720398,-0.53319502,0.80906928,0
0.93138838,1.8237475,0.93013573,0.71340418,0.46488461,0.52434391,0
4.5201893,-2.5645156,-0.062017918,0.71340418,0.46488461,0.52434391,0
2.5378261,-2.0449872,-3.0442586,0.24720398,0.53319502,-0.80906928,0
-2.3784873,-0.022331201,-0.55840337,-0.71340418,-0.46488461,-0.52434391,0
1.9467242,-4.5581703,-1.8901124,0.65570146,-0.70681345,-0.26546234,0
-1.5204706,3.9036665,-0.36393738,0.24720398,0.53319502,-0.80906928,0
-2.678932,-0.38646406,0.17321289,-0.71340418,-0.46488461,-0.52434391,0
2.2976069,-4.1317444,-2.1588106,0.65570146,-0.70681345,-0.26546234,0
2.282207,-4.2651172,0.35847473,-0.24720398,-0.53319502,0.80906928,0
-4.4859095,2.5623341,0.93229723,-0.65570146,0.70681345,0.26546234,0
2.514271,-4.6433382,0.18012285,-0.24720398,-0.53319502,0.80906928,0
-1.9947422,-0.84659505,-0.34971917,-0.71340418,-0.46488461,-0.52434391,0
1.5612421,-2.6099441,1.2289867,-0.24720398,-0.53319502,0.80906928,0
-4.4388041,2.357038,1.5952661,-0.65570146,0.70681345,0.26546234,0
-2.0310373,0.34932208,2.0816216,-0.24720398,-0.53319502,0.80906928,0
4.517066,-2.0993321,-2.0881181,0.65570146,-0.70681345,-0.26546234,0
4.0937419,-3.4946494,0.58139467,0.65570146,-0.70681345,-0.26546234,0
0.0036811829,1.7595983,2.2492175,0.71340418,0.46488461,0.52434391,0
3.1893978,-1.0907111,0.44193172,0.71340418,0.46488461,0.52434391,0
4.2231956,-1.4049892,-0.6859777,0.71340418,0.46488461,0.52434391,0
-2.1940088,1.0889277,-1.7946433,-0.71340418,-0.46488461,-0.52434391,0
3.2672684,-3.301126,-1.9752958,0.65570146,-0.70681345,-0.26546234,0
-2.2721148,1.5391636,-2.0875554,-0.71340418,-0.46488461,-0.52434391,0
0.21025229,1.0056007,-1.7450213,0.24720398,0.53319502,-0.80906928,0
4.0414085,-2.7692468,0.77090931,0.71340418,0.46488461,0.52434391,0
0.77001745,-2.8302062,0.84207726,-0.24720398,-0.53319502,0.80906928,0
2.5126507,0.54912573,-0.091192603,0.71340418,0.46488461,0.52434391,0
-3.0970945,4.2598577,-0.15706444,-0.65570146,0.70681345,0.26546234,0
-0.98602366,0.081583858,2.2244706,-0.24720398,-0.53319502,0.80906928,0
3.6363757,-3.9215472,0.58833218,0.65570146,-0.70681345,-0.26546234,0
4.2065597,-2.7372894,0.51787758,0.71340418,0.46488461,0.52434391,0
-2.5282729,3.8676782,2.2921543,-0.65570146,0.70681345,0.26546234,0
-0.56146419,0.22051573,2.4457502,-0.24720398,-0.53319502,0.80906928,0
-3.1238909,4.0936975,0.21916246,-0.65570146,0.70681345,0.26546234,0
-4.1232157,2.2885127,2.557235,-0.65570146,0.70681345,0.26546234,0
-1.6726395,-0.43721169,-1.150921,-0.71340418,-0.46488461,-0.52434391,0
-3.20645,1.6224252,-0.89015102,-0.71340418,-0.46488461,-0.52434391,0
2.7083178,1.1308538,-0.87317234,0.71340418,0.46488461,0.52434391,0
-2.9856629,1.0943699,-0.72237086,-0.71340418,-0.46488461,-0.52434391,0
-2.3454349,3.4216413,3.9313774,-0.65570146,0.70681345,0.26546234,0
2.4488187,-4.36303,-1.1694963,0.65570146,-0.70681345,-0.26546234,0
-0.99506009,4.5714006,0.23664927,0.24720398,0.53319502,-0.80906928,0
-3.9162147,3.6416216,-0.53422117,-0.65570146,0.70681345,0.26546234,0
-0.19049716,2.9017949,-0.61783159,0.24720398,0.53319502,-0.80906928,0
-2.3199687,4.4037147,1.3794358,-0.65570146,0.70681345,0.26546234,0
-2.8868048,1.525911,-1.2394788,-0.71340418,-0.46488461,-0.52434391,0
3.7096243,-2.6072817,-2.7300737,0.65570146,-0.70681345,-0.26546234,0
4.3155313,-1.3048871,-2.0133538,0.24720398,0.53319502,-0.80906928,0
1.2836386,-0.14520586,2.1965551,0.71340418,0.46488461,0.52434391,0
0.41482592,-0.82349396,2.0560207,-0.24720398,-0.53319502,0.80906928,0
3.4044001,-1.3206588,0.35327911,0.71340418,0.46488461,0.52434391,0
-0.52995086,-3.0686836,-0.37255442,-0.71340418,-0.46488461,-0.52434391,0
0.55029714,-4.0209532,-0.99801826,-0.71340418,-0.46488461,-0.52434391,0
-0.82669389,-1.1003959,-1.7139049,-0.71340418,-0.46488461,-0.52434391,0
0.83133483,2.8709574,0.1378063,0.71340418,0.46488461,0.52434391,0
-1.3411657,2.9426918,3.0300362,0.71340418,0.46488461,0.52434391,0
2.6758378,0.98622108,-0.70074981,0.71340418,0.46488461,0.52434391,0
1.6606269,1.8911535,-0.12180343,0.71340418,0.46488461,0.52434391,0
1.9856824,0.13851658,0.98982966,0.71340418,0.46488461,0.52434391,0
-2.2481694,-0.41652071,1.5105708,-0.24720398,-0.53319502,0.80906928,0
2.35936,-3.6793156,-3.2109051,0.65570146,-0.70681345,-0.26546234,0
-3.6948071,3.9152784,-0.71596813,-0.65570146,0.70681345,0.26546234,0
2.742486,-4.4217796,-0.28770208,0.65570146,-0.70681345,-0.26546234,0
0.48007715,-2.9077098,-1.8894839,-0.71340418,-0.46488461,-0.52434391,0
4.6391478,-2.3596177,-1.0935397,0.65570146,-0.70681345,-0.26546234,0
-1.5803905,5.2208977,1.0304084,-0.65570146,0.70681345,0.26546234,0
3.3290405,-1.9334517,0.99911427,0.71340418,0.46488461,0.52434391,0
-3.1707201,3.9135642,0.58310986,-0.65570146,0.70681345,0.26546234,0
-1.4826667,3.7615952,-0.4460144,0.24720398,0.53319502,-0.80906928,0
2.6031744,-4.1268711,-1.4170229,0.65570146,-0.70681345,-0.26546234,0
-1.6115324,-0.6847595,-1.0145848,-0.71340418,-0.46488461,-0.52434391,0
0.73813987,-2.2124555,1.2394493,-0.24720398,-0.53319502,0.80906928,0
-3.7643199,1.2327601,2.134238,-0.24720398,-0.53319502,0.80906928,0
4.304224,-2.6667538,-1.1030421,0.65570146,-0.70681345,-0.26546234,0
2.1504307,1.5688986,-0.50250196,0.71340418,0.46488461,0.52434391,0
-0.69406074,-1.2354867,1.4456978,-0.24720398,-0.53319502,0.80906928,0
-0.26219249,-3.7070055,-0.17091942,-0.71340418,-0.46488461,-0.52434391,0
2.2853432,-4.6052527,-0.92834949,0.65570146,-0.70681345,-0.26546234,0
3.9543839,-0.41479445,-1.5371078,0.24720398,0.53319502,-0.80906928,0
-4.3463254,2.2849979,2.0155041,-0.65570146,0.70681345,0.26546234,0
2.7533305,0.76509678,-0.61013412,0.71340418,0.46488461,0.52434391,0
-3.6842802,0.99616069,0.31521726,-0.71340418,-0.46488461,-0.52434391,0
-2.7029512,3.8068902,2.0225441,-0.65570146,0.70681345,0.26546234,0
-4.2505531,2.5202746,1.6256227,-0.65570146,0.70681345,0.26546234,0
-1.3865187,3.3777008,-0.66963267,0.24720398,0.53319502,-0.80906928,0
-2.997041,3.8815904,1.0972369,-0.65570146,0.70681345,0.26546234,0
-0.5912528,-1.9800986,-1.2542917,-0.71340418,-0.46488461,-0.52434391,0
2.7302957,-3.3180289,-3.2566328,0.65570146,-0.70681345,-0.26546234,0
-2.6464946,4.4530554,0.4415307,-0.65570146,0.70681345,0.26546234,0
1.9684635,-4.9900813,-0.68641901,0.65570146,-0.70681345,-0.26546234,0
1.7433921,-5.1751585,-0.40589333,-0.24720398,-0.53319502,0.80906928,0
-3.1560538,3.3641248,2.0822599,-0.65570146,0.70681345,0.26546234,0
-1.7844369,4.5974221,0.012610912,0.24720398,0.53319502,-0.80906928,0
4.3526278,-3.123441,0.23248196,0.65570146,-0.70681345,-0.26546234,0
4.5034847,-2.1953487,-1.8660126,0.65570146,-0.70681345,-0.26546234,0
2.3656154,-4.242743,-1.6952856,0.65570146,-0.70681345,-0.26546234,0
0.87214589,-4.4487438,-0.19337106,-0.24720398,-0.53319502,0.80906928,0
3.6026239,-3.9908786,0.68956375,0.65570146,-0.70681345,-0.26546234,0
3.8313837,-2.9436743,-1.5336521,0.65570146,-0.70681345,-0.26546234,0
0.61713576,-3.6427135,-1.4243047,-0.71340418,-0.46488461,-0.52434391,0
1.4724847,-5.1123624,-1.285069,-0.71340418,-0.46488461,-0.52434391,0
-2.7843852,3.9945788,1.3216631,-0.65570146,0.70681345,0.26546234,0
-2.8731976,-0.035950065,0.12675762,-0.71340418,-0.46488461,-0.52434391,0
-3.8796027,2.7770205,1.8582778,-0.65570146,0.70681345,0.26546234,0
-2.8183341,2.4320765,3.2136526,-0.24720398,-0.53319502,0.80906928,0
-0.39745891,1.9886191,2.5919442,0.71340418,0.46488461,0.52434391,0
-0.75961244,1.635812,-1.626031,0.24720398,0.53319502,-0.80906928,0
-1.2832289,2.5754528,3.2768042,0.71340418,0.46488461,0.52434391,0
2.0897527,-2.6374011,1.3723736,-0.24720398,-0.53319502,0.80906928,0
-4.1334944,1.1296602,0.80804157,-0.71340418,-0.46488461,-0.52434391,0
0.056233525,3.0816379,-0.4239248,0.24720398,0.53319502,-0.80906928,0
-3.1752238,4.2533531,-0.33272648,-0.65570146,0.70681345,0.26546234,0
-4.1492152,2.5648572,1.7572272,-0.65570146,0.70681345,0.26546234,0
-0.98900366,-2.2009172,-0.51734656,-0.71340418,-0.46488461,-0.52434391,0
-0.72960567,2.4721057,-1.0657265,0.24720398,0.53319502,-0.80906928,0
1.0606356,1.1862019,-1.3661737,0.24720398,0.53319502,-0.80906928,0
0.66167438,-4.1344309,-1.0489447,-0.71340418,-0.46488461,-0.52434391,0
4.6048727,-2.0715239,-0.61432314,0.71340418,0.46488461,0.52434391,0
-4.1696968,3.2670233,-0.1629343,-0.65570146,0.70681345,0.26546234,0
4.081924,-2.7280507,0.67925978,0.71340418,0.46488461,0.52434391,0
2.7417879,-3.5041888,-2.7325821,0.65570146,-0.70681345,-0.26546234,0
-4.0995097,0.95282823,0.9185822,-0.71340418,-0.46488461,-0.52434391,0
-2.6499832,3.8363006,2.0750694,-0.65570146,0.70681345,0.26546234,0
-2.778841,4.1246481,0.98903847,-0.65570146,0.70681345,0.26546234,0
-0.82835448,3.6576495,-0.31459761,0.24720398,0.53319502,-0.80906928,0
4.0909662,-0.6088025,-1.2119715,0.71340418,0.46488461,0.52434391,0
-2.880003,4.0231476,-0.70058966,0.24720398,0.53319502,-0.80906928,0
0.76362348,-0.77806997,-2.7514234,0.24720398,0.53319502,-0.80906928,0
2.5833189,-3.5513084,-2.9985471,0.65570146,-0.70681345,-0.26546234,0
-2.5543318,3.3272545,3.6667068,-0.65570146,0.70681345,0.26546234,0
-2.6580596,1.3452363,-1.3905156,-0.71340418,-0.46488461,-0.52434391,0
0.57702553,0.13762736,2.7389803,-0.24720398,-0.53319502,0.80906928,0
-3.6055026,0.30128706,1.5689014,-0.24720398,-0.53319502,0.80906928,0
2.4034212,-1.2512908,-2.5622609,0.24720398,0.53319502,-0.80906928,0
-3.5099301,3.4579408,0.9583807,-0.65570146,0.70681345,0.26546234,0
0.73853022,1.5998526,-1.1919851,0.24720398,0.53319502,-0.80906928,0
2.4902329,-1.3650659,-2.6107168,0.24720398,0.53319502,-0.80906928,0
-3.8652682,3.7352633,-1.1913509,0.24720398,0.53319502,-0.80906928,0
-3.0391064,3.1975501,2.8146436,-0.65570146,0.70681345,0.26546234,0
-1.7966807,2.8669057,3.7169859,0.71340418,0.46488461,0.52434391,0
1.358073,-4.1368895,0.16061807,-0.24720398,-0.53319502,0.80906928,0
0.70476425,-3.8649664,-1.3464792,-0.71340418,-0.46488461,-0.52434391,0
3.6075158,-2.6457601,-2.8798349,0.65570146,-0.70681345,-0.26546234,0
-1.4618111,0.92439389,-2.3094225,0.24720398,0.53319502,-0.80906928,0
0.36075521,-3.4721262,-1.226725,-0.71340418,-0.46488461,-0.52434391,0
1.4481585,1.7598584,0.28368029,0.71340418,0.46488461,0.52434391,0
0.94052613,-4.7390909,-0.36382341,-0.24720398,-0.53319502,0.80906928,0
3.5316367,-2.6325457,-3.1024425,0.65570146,-0.70681345,-0.26546234,0
1.6008511,-0.40619457,-2.2505414,0.24720398,0.53319502,-0.80906928,0
2.8100514,-3.5227222,-2.5146215,0.65570146,-0.70681345,-0.26546234,0
2.6979709,-3.1753168,-3.7164588,0.65570146,-0.70681345,-0.26546234,0
-2.5308323,-0.078699112,1.6468377,-0.24720398,-0.53319502,0.80906928,0
3.1353467,-0.096705198,-1.5777291,0.24720398,0.53319502,-0.80906928,0
3.5088251,-0.90652066,-0.1559732,0.71340418,0.46488461,0.52434391,0
-4.4442978,2.1877704,2.0323844,-0.65570146,0.70681345,0.26546234,0
3.3007474,-2.9650087,-2.787539,0.65570146,-0.70681345,-0.26546234,0
5.1317482,-1.6687489,-1.7162907,0.65570146,-0.70681345,-0.26546234,0
-3.580389,3.1276014,1.6638989,-0.65570146,0.70681345,0.26546234,0
3.6297026,-0.31971085,-1.5736492,0.24720398,0.53319502,-0.80906928,0
-1.3952415,4.0802331,2.0950632,0.71340418,0.46488461,0.52434391,0
-2.2700758,2.7866125,-1.3291359,0.24720398,0.53319502,-0.80906928,0
4.1736631,-3.0328665,-0.45072937,0.65570146,-0.70681345,-0.26546234,0
-1.5482684,2.1626914,-1.5197728,0.24720398,0.53319502,-0.80906928,0
-2.3789406,4.7357588,0.34967947,-0.65570146,0.70681345,0.26546234,0
-3.808742,1.5355337,0.0063457489,-0.71340418,-0.46488461,-0.52434391,0
-0.61210203,0.11573195,-2.5827284,0.24720398,0.53319502,-0.80906928,0
-1.4516689,-1.878139,0.79069495,-0.24720398,-0.53319502,0.80906928,0
2.572979,-3.3097181,-3.6673393,0.65570146,-0.70681345,-0.26546234,0
0.51726842,-4.4475217,-0.5748837,-0.71340418,-0.46488461,-0.52434391,0
-0.56560802,0.0503968,2.3323722,-0.24720398,-0.53319502,0.80906928,0
2.217056,-4.0141044,-2.6709991,0.65570146,-0.70681345,-0.26546234,0
-3.4687662,3.3728859,1.2865236,-0.65570146,0.70681345,0.26546234,0
1.001956,-1.4494631,-3.1210661,0.24720398,0.53319502,-0.80906928,0
-3.3131983,3.3967745,1.6071758,-0.65570146,0.70681345,0.26546234,0
4.2141013,-1.3510597,-0.7214191,0.71340418,0.46488461,0.52434391,0
1.198442,-5.1425266,-0.55089283,-0.24720398,-0.53319502,0.80906928,0
2.1073773,-4.9176755,-0.53608227,0.65570146,-0.70681345,-0.26546234,0
-3.6794593,1.0701102,0.24309421,-0.71340418,-0.46488461,-0.52434391,0
-1.2320762,1.4917722,3.0786376,-0.24720398,-0.53319502,0.80906928,0
2.7195299,-3.2392943,-3.4928622,0.65570146,-0.70681345,-0.26546234,0
-1.7019558,4.3301992,2.2907474,0.71340418,0.46488461,0.52434391,0
-2.000217,-1.6338655,0.78407264,-0.24720398,-0.53319502,0.80906928,0
2.0538428,-4.2359161,-2.4835529,0.65570146,-0.70681345,-0.26546234,0
-2.7595088,3.7186005,-0.86447668,0.24720398,0.53319502,-0.80906928,0
2.5498481,-1.0580921,-2.3901992,0.24720398,0.53319502,-0.80906928,0
-1.9291979,4.9332275,0.9347837,-0.65570146,0.70681345,0.26546234,0
-3.9558101,2.4533377,-0.60728598,-0.71340418,-0.46488461,-0.52434391,0
2.0172441,-4.4312549,-2.0538473,0.65570146,-0.70681345,-0.26546234,0
-3.7399435,2.9455328,1.754565,-0.65570146,0.70681345,0.26546234,0
-0.49296618,-0.58123517,1.938307,-0.24720398,-0.53319502,0.80906928,0
-3.7042062,3.9502521,-0.83230495,-0.65570146,0.70681345,0.26546234,0
-3.8495214,2.1666856,2.7236834,-0.24720398,-0.53319502,0.80906928,0
-4.6081495,1.3167737,1.2879453,-0.71340418,-0.46488461,-0.52434391,0
0.8414402,1.8459914,1.0327951,0.71340418,0.46488461,0.52434391,0
4.1242924,-2.0705533,0.038676739,0.71340418,0.46488461,0.52434391,0
2.9279909,-1.5075618,1.1671741,0.71340418,0.46488461,0.52434391,0
0.67928767,0.0052204132,2.6829665,-0.24720398,-0.53319502,0.80906928,0
4.1430178,-2.8985405,-0.8840785,0.65570146,-0.70681345,-0.26546234,0
4.5133715,-2.0539293,-2.2181308,0.65570146,-0.70681345,-0.26546234,0
-0.59182513,-0.24050152,-2.7958441,-0.71340418,-0.46488461,-0.52434391,0
2.6768632,-1.5019932,1.5039122,0.71340418,0.46488461,0.52434391,0
-0.92761779,2.9773881,2.4366155,0.71340418,0.46488461,0.52434391,0
-0.42824173,1.3098576,3.2043562,-0.24720398,-0.53319502,0.80906928,0
0.80040896,-4.2590904,-1.1271789,-0.71340418,-0.46488461,-0.52434391,0
0.47547674,1.9639621,1.4261191,0.71340418,0.46488461,0.52434391,0
2.1721601,0.44985932,0.46007693,0.71340418,0.46488461,0.52434391,0
-0.90719175,-1.3335804,-1.3976405,-0.71340418,-0.46488461,-0.52434391,0
-0.20845962,2.2184894,-1.073634,0.24720398,0.53319502,-0.80906928,0
-1.4109383,2.5825238,3.4442921,0.71340418,0.46488461,0.52434391,0
3.9045444,-3.6762528,0.59760237,0.65570146,-0.70681345,-0.26546234,0
-4.6494937,2.3302124,1.1462808,-0.65570146,0.70681345,0.26546234,0
2.1369014,-0.4683485,1.3221344,0.71340418,0.46488461,0.52434391,0
1.4722732,0.18363822,-1.901114,0.24720398,0.53319502,-0.80906928,0
2.723532,-2.867908,1.4141102,-0.24720398,-0.53319502,0.80906928,0
0.45786834,2.0963354,1.3327136,0.71340418,0.46488461,0.52434391,0
2.7346056,-3.2222464,-3.5010157,0.65570146,-0.70681345,-0.26546234,0
-1.4122859,-0.82395393,-1.1622624,-0.71340418,-0.46488461,-0.52434391,0
-4.3085346,1.8394688,0.41687608,-0.71340418,-0.46488461,-0.52434391,0
-3.5120163,2.2767179,-1.0545053,-0.71340418,-0.46488461,-0.52434391,0
2.6955459,-2.9910808,-3.619566,0.24720398,0.53319502,-0.80906928,0
-4.6316233,1.1493888,1.4682858,-0.71340418,-0.46488461,-0.52434391,0
-2.7622571,3.6893268,2.1890779,-0.65570146,0.70681345,0.26546234,0
4.1746883,-1.9036324,-0.17788172,0.71340418,0.46488461,0.52434391,0
-2.5977621,4.3509841,0.83367348,-0.65570146,0.70681345,0.26546234,0
-0.47115821,2.8303218,-0.75068796,0.24720398,0.53319502,-0.80906928,0
-1.3084254,0.52875304,-2.5028851,-0.71340418,-0.46488461,-0.52434391,0
4.9159989,-1.5101581,-1.9651644,0.24720398,0.53319502,-0.80906928,0
-3.5059419,3.2010839,1.652133,-0.65570146,0.70681345,0.26546234,0
-4.0530071,2.5465052,2.0437269,-0.65570146,0.70681345,0.26546234,0
2.692852,-4.1624274,-1.1008441,0.65570146,-0.70681345,-0.26546234,0
-0.15128276,1.7317979,-1.3769047,0.24720398,0.53319502,-0.80906928,0
-1.7202052,2.3614933,3.5026603,-0.24720398,-0.53319502,0.80906928,0
2.0250535,-1.3246386,2.217746,-0.24720398,-0.53319502,0.80906928,0
-2.8777609,3.5260782,2.3384414,-0.65570146,0.70681345,0.26546234,0
-3.5257342,4.0661087,-0.69994879,-0.65570146,0.70681345,0.26546234,0
1.5258029,-4.9844966,-0.34672546,-0.24720398,-0.53319502,0.80906928,0
4.5687189,-0.88851142,-1.613996,0.71340418,0.46488461,0.52434391,0
-3.8940177,2.9372983,1.395921,-0.65570146,0.70681345,0.26546234,0
3.0437584,-0.027140081,-0.30288088,0.71340418,0.46488461,0.52434391,0
-3.9432511,1.6564413,2.3587828,-0.24720398,-0.53319502,0.80906928,0
0.82677126,-0.83534527,2.1740768,-0.24720398,-0.53319502,0.80906928,0
0.23133461,1.0951736,-1.6795492,0.24720398,0.53319502,-0.80906928,0
0.19298948,1.0936053,-1.6922988,0.24720398,0.53319502,-0.80906928,0
-3.6572056,0.97549194,0.29670501,-0.71340418,-0.46488461,-0.52434391,0
-1.357065,0.59159493,-2.4924235,-0.71340418,-0.46488461,-0.52434391,0
2.407619,1.2902765,-0.60539627,0.71340418,0.46488461,0.52434391,0
-3.6895468,3.3750396,0.73545218,-0.65570146,0.70681345,0.26546234,0
3.7053177,-1.4113417,-2.2699547,0.24720398,0.53319502,-0.80906928,0
-0.50723219,-2.1009374,-1.2614714,-0.71340418,-0.46488461,-0.52434391,0
-3.2249105,4.2345557,-0.405406,-0.65570146,0.70681345,0.26546234,0
0.54251802,-2.6746624,-2.1810591,-0.71340418,-0.46488461,-0.52434391,0
-4.181807,2.5448978,1.7298667,-0.65570146,0.70681345,0.26546234,0
0.36461139,-0.95272923,-2.9884422,0.24720398,0.53319502,-0.80906928,0
-3.7129769,2.528435,2.9317274,-0.65570146,0.70681345,0.26546234,0
-1.9709357,3.9159424,3.023993,0.71340418,0.46488461,0.52434391,0
2.1402509,-3.0432858,-3.8236356,0.24720398,0.53319502,-0.80906928,0
-2.595643,1.0550803,-1.218184,-0.71340418,-0.46488461,-0.52434391,0
2.2173896,-4.8203602,-0.027246952,-0.24720398,-0.53319502,0.80906928,0
-3.9028704,3.0238819,1.1435187,-0.65570146,0.70681345,0.26546234,0
0.98660886,-1.9691495,-3.4107835,-0.71340418,-0.46488461,-0.52434391,0
-0.40207669,-0.014722824,2.3394222,-0.24720398,-0.53319502,0.80906928,0
0.40470874,-1.1386333,-3.0987058,0.24720398,0.53319502,-0.80906928,0
-2.1265976,4.6595378,1.1759205,-0.65570146,0.70681345,0.26546234,0
-3.3652925,-0.18542683,0.92881143,-0.71340418,-0.46488461,-0.52434391,0
3.4079332,-3.3659046,-1.4553704,0.65570146,-0.70681345,-0.26546234,0
-0.97318745,-1.7142694,-0.97032928,-0.71340418,-0.46488461,-0.52434391,0
0.30876756,3.1031523,-0.33258629,0.24720398,0.53319502,-0.80906928,0
1.6021121,-1.3039811,2.1021338,-0.24720398,-0.53319502,0.80906928,0
3.434175,-3.572041,1.1672015,-0.24720398,-0.53319502,0.80906928,0
-3.0204868,4.3497434,-0.20716763,-0.65570146,0.70681345,0.26546234,0
1.967841,-1.3704901,2.1700482,-0.24720398,-0.53319502,0.80906928,0
0.24517733,-2.8746753,0.65241098,-0.24720398,-0.53319502,0.80906928,0
1.5993413,1.5783526,-0.9431408,0.24720398,0.53319502,-0.80906928,0
-0.10425162,-0.43266392,-2.7889645,0.24720398,0.53319502,-0.80906928,0
2.3372841,-4.7076182,-0.5274992,0.65570146,-0.70681345,-0.26546234,0
3.4502103,-3.3756878,-1.3248961,0.65570146,-0.70681345,-0.26546234,0
1.0453274,2.1568172,0.47981367,0.71340418,0.46488461,0.52434391,0
-4.1814928,2.6674666,1.4042943,-0.65570146,0.70681345,0.26546234,0
3.597563,-3.8270817,0.24094343,0.65570146,-0.70681345,-0.26546234,0
0.57871759,-1.5365853,1.636153,-0.24720398,-0.53319502,0.80906928,0
2.9123197,-3.6547024,-1.9106076,0.65570146,-0.70681345,-0.26546234,0
-3.0170493,4.2617431,0.035629272,-0.65570146,0.70681345,0.26546234,0
2.8358555,-3.495851,-2.5224319,0.65570146,-0.70681345,-0.26546234,0
3.2980387,-0.33881199,-1.6875741,0.24720398,0.53319502,-0.80906928,0
-1.782939,4.2822523,-0.19463491,0.24720398,0.53319502,-0.80906928,0
0.058135033,-0.74815035,-2.9472613,0.24720398,0.53319502,-0.80906928,0
0.21406138,0.64754486,2.9489307,0.71340418,0.46488461,0.52434391,0
-0.73862433,-2.3790977,-0.70002925,-0.71340418,-0.46488461,-0.52434391,0
-4.2778687,2.6844854,1.1209278,-0.65570146,0.70681345,0.26546234,0
1.5337023,-5.4065723,-0.6513567,0.65570146,-0.70681345,-0.26546234,0
-2.0553684,0.89506042,-1.8113889,-0.71340418,-0.46488461,-0.52434391,0
0.44632149,-3.5059893,-1.3131206,-0.71340418,-0.46488461,-0.52434391,0
-3.7074594,2.6305399,2.6734951,-0.65570146,0.70681345,0.26546234,0
0.93688619,-4.4935789,-1.1049669,-0.71340418,-0.46488461,-0.52434391,0
-1.0485756,-1.4409604,-1.1100748,-0.71340418,-0.46488461,-0.52434391,0
4.4514518,-2.6214271,-0.86006832,0.65570146,-0.70681345,-0.26546234,0
-0.44027734,-0.98046732,-2.3459792,-0.71340418,-0.46488461,-0.52434391,0
3.5923285,-2.4918923,1.1360092,0.71340418,0.46488461,0.52434391,0
-3.88411,2.7318683,-0.95178461,-0.71340418,-0.46488461,-0.52434391,0
-2.482789,1.7513986,2.8675933,-0.24720398,-0.53319502,0.80906928,0
2.512696,-3.2949038,-3.8556848,0.65570146,-0.70681345,-0.26546234,0
-0.17457032,1.2555459,2.9386344,0.71340418,0.46488461,0.52434391,0
2.8353169,-2.4888804,1.6980529,-0.24720398,-0.53319502,0.80906928,0
3.8728545,-2.4037979,-2.8686802,0.65570146,-0.70681345,-0.26546234,0
4.4345398,-2.830142,-0.34612322,0.65570146,-0.70681345,-0.26546234,0
0.28429794,1.7886717,1.8416431,0.71340418,0.46488461,0.52434391,0
-1.7773156,3.4426763,-0.74621677,0.24720398,0.53319502,-0.80906928,0
4.4619966,-3.0307667,0.25587511,0.65570146,-0.70681345,-0.26546234,0
-4.7586818,2.0286748,1.6794484,-0.65570146,0.70681345,0.26546234,0
3.3215566,-0.77984518,-0.013493776,0.71340418,0.46488461,0.52434391,0
-4.0714021,3.5131059,-0.57535744,-0.65570146,0.70681345,0.26546234,0
1.6190957,-2.7434008,-3.5848701,-0.71340418,-0.46488461,-0.52434391,0
3.7412324,-1.1679845,-0.24036407,0.71340418,0.46488461,0.52434391,0
-1.721905,-0.38696945,1.6908412,-0.24720398,-0.53319502,0.80906928,0
-4.8500533,2.1917124,1.0196567,-0.65570146,0.70681345,0.26546234,0
-0.12459207,-2.7495627,0.62188327,-0.24720398,-0.53319502,0.80906928,0
-4.8874125,1.9720873,1.5121481,-0.65570146,0.70681345,0.26546234,0
-3.8645496,1.6162868,0.01067996,-0.71340418,-0.46488461,-0.52434391,0
3.8045712,-3.5793138,0.092556477,0.65570146,-0.70681345,-0.26546234,0
0.76500607,-4.1395035,-0.022310019,-0.24720398,-0.53319502,0.80906928,0
-2.3556767,4.8053274,0.22190809,-0.65570146,0.70681345,0.26546234,0
3.7942262,-2.6508601,1.0022554,0.71340418,0.46488461,0.52434391,0
1.9169182,-4.3711963,-2.4615674,0.65570146,-0.70681345,-0.26546234,0
4.1358557,-2.3751678,-2.2952886,0.65570146,-0.70681345,-0.26546234,0
3.156466,-2.9785895,-3.10776,0.65570146,-0.70681345,-0.26546234,0
-1.9074988,3.2848864,-0.88997984,0.24720398,0.53319502,-0.80906928,0
-2.8694603,1.8527869,-1.5528855,-0.71340418,-0.46488461,-0.52434391,0
1.7904751,-0.31833732,-2.1347036,0.24720398,0.53319502,-0.80906928,0
-0.85042036,-0.97245288,1.5712687,-0.24720398,-0.53319502,0.80906928,0
-3.1086092,3.8288653,0.96204329,-0.65570146,0.70681345,0.26546234,0
-3.8692749,2.838181,1.720943,-0.65570146,0.70681345,0.26546234,0
-2.0745292,-1.6802769,0.49798059,-0.71340418,-0.46488461,-0.52434391,0
1.4229202,1.3307673,0.698452,0.71340418,0.46488461,0.52434391,0
-4.9592562,1.9050835,1.5130939,-0.65570146,0.70681345,0.26546234,0
1.4167707,1.9515063,0.15647033,0.71340418,0.46488461,0.52434391,0
-1.8140934,5.0475636,0.91466737,-0.65570146,0.70681345,0.26546234,0
0.39267588,-2.5085244,-2.1244872,-0.71340418,-0.46488461,-0.52434391,0
-2.0233543,0.63692367,2.273505,-0.24720398,-0.53319502,0.80906928,0
-2.9781268,4.0323076,0.74265814,-0.65570146,0.70681345,0.26546234,0
-2.7056947,3.4904535,2.8583055,-0.65570146,0.70681345,0.26546234,0
-0.46810508,-0.67071676,-2.5827432,-0.71340418,-0.46488461,-0.52434391,0
-1.8337317,4.6725574,1.8646429,-0.65570146,0.70681345,0.26546234,0
4.2542601,-3.2607803,0.35518551,0.65570146,-0.70681345,-0.26546234,0
-0.01235342,2.2442091,1.8413764,0.71340418,0.46488461,0.52434391,0
-2.1283121,2.3176417,3.3490672,-0.24720398,-0.53319502,0.80906928,0
4.3065271,-3.2675118,0.85196114,0.71340418,0.46488461,0.52434391,0
0.66872108,-1.5595167,1.6485406,-0.24720398,-0.53319502,0.80906928,0
-2.352474,3.5038459,-0.88163877,0.24720398,0.53319502,-0.80906928,0
4.2509985,-2.6676574,-1.2321048,0.65570146,-0.70681345,-0.26546234,0
3.7251523,-3.3113031,-0.81720781,0.65570146,-0.70681345,-0.26546234,0
-4.3264899,2.6400824,1.1190586,-0.65570146,0.70681345,0.26546234,0
-2.1390381,1.3812671,-2.128623,-0.71340418,-0.46488461,-0.52434391,0
-1.8839334,2.4089601,-1.4600356,0.24720398,0.53319502,-0.80906928,0
-0.79099154,-3.1977892,0.12287939,-0.24720398,-0.53319502,0.80906928,0
0.63239813,-0.32853913,2.4486845,-0.24720398,-0.53319502,0.80906928,0
-0.64957118,-2.6036801,-0.62207651,-0.71340418,-0.46488461,-0.52434391,0
-3.586045,3.0539453,1.8460433,-0.65570146,0.70681345,0.26546234,0
-0.28303957,-2.368902,-1.3289218,-0.71340418,-0.46488461,-0.52434391,0
3.7509208,-3.2697194,-0.86427879,0.65570146,-0.70681345,-0.26546234,0
-3.6486728,1.8460991,-0.48678732,-0.71340418,-0.46488461,-0.52434391,0
0.15319932,2.8277416,-0.56162131,0.24720398,0.53319502,-0.80906928,0
-1.6679996,0.35126817,2.1938269,-0.24720398,-0.53319502,0.80906928,0
-0.6252054,-0.47649014,-2.5411997,-0.71340418,-0.46488461,-0.52434391,0
-0.96161938,-1.2738533,-1.3765424,-0.71340418,-0.46488461,-0.52434391,0
0.16423951,1.3148556,-1.555274,0.24720398,0.53319502,-0.80906928,0
2.7381802,-0.43586603,0.47525597,0.71340418,0.46488461,0.52434391,0
-2.6348426,1.450506,2.6228395,-0.24720398,-0.53319502,0.80906928,0
0.17616844,-0.16866493,-2.5293031,0.24720398,0.53319502,-0.80906928,0
0.21628118,3.5356271,-0.075834036,0.24720398,0.53319502,-0.80906928,0
1.6190094,-4.0593715,0.29143167,-0.24720398,-0.53319502,0.80906928,0
0.80895782,-0.63040447,-2.6402566,0.24720398,0.53319502,-0.80906928,0
-2.6052265,0.97621679,2.3193209,-0.24720398,-0.53319502,0.80906928,0
-2.2386196,3.6318913,3.6354089,-0.65570146,0.70681345,0.26546234,0
-2.2905116,4.4155159,1.4207745,-0.65570146,0.70681345,0.26546234,0
-4.0451474,1.1035964,0.71094704,-0.71340418,-0.46488461,-0.52434391,0
-3.9394665,3.3309019,0.23566151,-0.65570146,0.70681345,0.26546234,0
3.9345074,-3.5600452,0.36220026,0.65570146,-0.70681345,-0.26546234,0
-1.9778825,0.520123,-1.5843934,-0.71340418,-0.46488461,-0.52434391,0
-2.0379152,0.02412045,1.8652047,-0.24720398,-0.53319502,0.80906928,0
-0.33877277,-2.1957283,-1.4066292,-0.71340418,-0.46488461,-0.52434391,0
4.2172604,-1.434836,-0.65144038,0.71340418,0.46488461,0.52434391,0
2.4333234,-4.3109488,-1.3464398,0.65570146,-0.70681345,-0.26546234,0
-2.8033245,-0.66351318,0.58808947,-0.71340418,-0.46488461,-0.52434391,0
-3.5151205,2.8416309,2.5865331,-0.65570146,0.70681345,0.26546234,0
3.2540255,-3.7112331,-0.91606569,0.65570146,-0.70681345,-0.26546234,0
-1.8181887,4.6450748,1.9762094,-0.65570146,0.70681345,0.26546234,0
-2.1812217,-1.3382854,0.3399322,-0.71340418,-0.46488461,-0.52434391,0
-1.6445285,2.960171,-1.0236266,0.24720398,0.53319502,-0.80906928,0
1.8506997,-0.14878523,1.428205,0.71340418,0.46488461,0.52434391,0
-4.3186255,2.0629396,0.23247623,-0.71340418,-0.46488461,-0.52434391,0
3.546706,-2.9634085,-2.1842735,0.65570146,-0.70681345,-0.26546234,0
-1.9910485,3.6872692,3.2541003,0.71340418,0.46488461,0.52434391,0
1.8322533,-5.0096674,-0.97071457,0.65570146,-0.70681345,-0.26546234,0
0.66000354,-0.91455555,-2.8730307,0.24720398,0.53319502,-0.80906928,0
-0.14567757,3.6226821,0.80061483,0.71340418,0.46488461,0.52434391,0
-0.49490488,3.4074817,1.4665587,0.71340418,0.46488461,0.52434391,0
-0.24699438,1.4382584,2.8751786,0.71340418,0.46488461,0.52434391,0
2.6891553,-0.025301695,-1.6670024,0.24720398,0.53319502,-0.80906928,0
-1.3742001,4.8991632,1.3403687,0.71340418,0.46488461,0.52434391,0
2.2718978,-4.2062383,-2.0239682,0.65570146,-0.70681345,-0.26546234,0
4.324791,-3.2325068,0.79607677,0.71340418,0.46488461,0.52434391,0
1.827153,-4.9245973,-1.2098188,0.65570146,-0.70681345,-0.26546234,0
2.7069292,-4.176693,-1.0280902,0.65570146,-0.70681345,-0.26546234,0
1.5514245,2.284816,-0.49220595,0.24720398,0.53319502,-0.80906928,0
-0.38498068,3.155551,-0.51002359,0.24720398,0.53319502,-0.80906928,0
3.1517119,-3.1388936,1.3663511,-0.24720398,-0.53319502,0.80906928,0
3.0670843,-4.2702851,0.59488106,-0.24720398,-0.53319502,0.80906928,0
4.4442987,-2.4092779,-1.442601,0.65570146,-0.70681345,-0.26546234,0
-0.0029783249,0.2624104,-2.2999513,0.24720398,0.53319502,-0.80906928,0
-0.0046508312,-2.9399045,0.53309083,-0.24720398,-0.53319502,0.80906928,0
3.047008,-3.1361294,-2.9586632,0.65570146,-0.70681345,-0.26546234,0
4.0920339,-3.1560426,1.0449643,0.71340418,0.46488461,0.52434391,0
-0.28398347,1.0412897,3.0714407,-0.24720398,-0.53319502,0.80906928,0
-2.1398494,3.9842823,2.941107,-0.65570146,0.70681345,0.26546234,0
-2.1393218,4.6215515,-0.079919338,0.24720398,0.53319502,-0.80906928,0
-2.7676988,4.4795723,0.071547985,-0.65570146,0.70681345,0.26546234,0
-2.9092536,3.8346782,1.438982,-0.65570146,0.70681345,0.26546234,0
0.039874196,0.8264643,3.027293,0.71340418,0.46488461,0.52434391,0
2.2498941,-4.066958,-2.449163,0.65570146,-0.70681345,-0.26546234,0
0.86789572,-3.804167,0.23012114,-0.24720398,-0.53319502,0.80906928,0
3.9415336,-3.6813116,0.7024374,0.65570146,-0.70681345,-0.26546234,0
-3.593781,2.9291716,2.1591549,-0.65570146,0.70681345,0.26546234,0
-4.144165,2.5303214,1.861655,-0.65570146,0.70681345,0.26546234,0
-0.7919687,3.1103065,2.1342101,0.71340418,0.46488461,0.52434391,0
3.0308132,-2.3274298,1.7541749,0.71340418,0.46488461,0.52434391,0
0.8348248,2.7699132,0.22264373,0.71340418,0.46488461,0.52434391,0
-2.468359,4.7592926,0.066151619,-0.65570146,0.70681345,0.26546234,0
1.5031717,-4.5535588,-1.822257,-0.71340418,-0.46488461,-0.52434391,0
-2.7479568,3.2492142,3.396234,-0.65570146,0.70681345,0.26546234,0
4.1077886,-3.2628188,-0.0011768341,0.65570146,-0.70681345,-0.26546234,0
-3.4167984,1.430119,-0.43345857,-0.71340418,-0.46488461,-0.52434391,0
2.4459877,-3.8251834,-2.6085458,0.65570146,-0.70681345,-0.26546234,0
4.121613,-1.8763295,-2.4491971,0.24720398,0.53319502,-0.80906928,0
-0.94253117,-0.24549437,2.0222073,-0.24720398,-0.53319502,0.80906928,0
-0.29312032,-0.074663162,2.3332107,-0.24720398,-0.53319502,0.80906928,0
-2.2874107,1.4582057,-1.9949665,-0.71340418,-0.46488461,-0.52434391,0
-4.0609336,3.6515353,-0.91807795,-0.65570146,0.70681345,0.26546234,0
3.7512894,-3.5594354,-0.09197855,0.65570146,-0.70681345,-0.26546234,0
-3.7249479,2.4133422,-0.88592958,-0.71340418,-0.46488461,-0.52434391,0
3.2106521,-2.4026618,-3.074398,0.24720398,0.53319502,-0.80906928,0
0.63740253,-0.6589458,2.2324681,-0.24720398,-0.53319502,0.80906928,0
2.4807162,-0.59041858,0.96257985,0.71340418,0.46488461,0.52434391,0
2.1893561,-4.4301419,-1.6316888,0.65570146,-0.70681345,-0.26546234,0
1.1317095,-4.8132548,-1.0866113,-0.71340418,-0.46488461,-0.52434391,0
-3.6457171,3.5748315,0.31175137,-0.65570146,0.70681345,0.26546234,0
-0.1712718,-2.4966774,0.77427793,-0.24720398,-0.53319502,0.80906928,0
3.8100526,-2.8536115,-1.8261399,0.65570146,-0.70681345,-0.26546234,0
1.4378247,2.0468111,-0.68376595,0.24720398,0.53319502,-0.80906928,0
-2.1632597,2.3008471,-1.6166298,0.24720398,0.53319502,-0.80906928,0
-3.1197596,3.8292465,0.93348742,-0.65570146,0.70681345,0.26546234,0
-1.7035733,-1.3843534,1.0391436,-0.24720398,-0.53319502,0.80906928,0
3.1699166,-2.4897797,1.7088563,0.71340418,0.46488461,0.52434391,0
2.881727,-4.5365777,0.36188602,0.65570146,-0.70681345,-0.26546234,0
-5.002224,1.8873423,1.4541979,-0.65570146,0.70681345,0.26546234,0
1.5267954,2.1122077,-0.13570389,0.71340418,0.46488461,0.52434391,0
2.6921473,-3.5660801,-2.6904063,0.65570146,-0.70681345,-0.26546234,0
-0.59874195,0.63821101,2.709631,-0.24720398,-0.53319502,0.80906928,0
-0.36775637,2.3959918,2.1903546,0.71340418,0.46488461,0.52434391,0
-2.2996814,-1.0744123,0.26715398,-0.71340418,-0.46488461,-0.52434391,0
-4.0632663,3.6612973,-0.94983196,-0.65570146,0.70681345,0.26546234,0
-2.3780046,3.5263133,3.5722318,-0.65570146,0.70681345,0.26546234,0
2.5043151,-4.6057758,-0.38608837,0.65570146,-0.70681345,-0.26546234,0
3.276777,-3.307363,-1.9352026,0.65570146,-0.70681345,-0.26546234,0
2.7757013,0.61491132,-1.2186441,0.24720398,0.53319502,-0.80906928,0
-1.1273792,-1.8588747,-0.63233405,-0.71340418,-0.46488461,-0.52434391,0
0.36019039,-3.1686709,-1.495001,-0.71340418,-0.46488461,-0.52434391,0
-0.80488098,-2.5145388,0.56891328,-0.24720398,-0.53319502,0.80906928,0
4.5644197,-2.1333652,-0.50445557,0.71340418,0.46488461,0.52434391,0
2.9880388,-4.2828579,-0.051067829,0.65570146,-0.70681345,-0.26546234,0
-1.9005281,1.4148955,2.8237345,-0.24720398,-0.53319502,0.80906928,0
-3.70122,1.4951024,-0.10409832,-0.71340418,-0.46488461,-0.52434391,0
-2.5611095,4.0240979,1.7945671,-0.65570146,0.70681345,0.26546234,0
4.4882975,-1.5648673,-2.1318991,0.24720398,0.53319502,-0.80906928,0
4.8764,-1.944674,-1.6123381,0.65570146,-0.70681345,-0.26546234,0
-3.8560429,0.64551127,0.85979772,-0.71340418,-0.46488461,-0.52434391,0
2.3233876,1.1459664,-0.36284822,0.71340418,0.46488461,0.52434391,0
2.6708598,-1.0482819,1.1098192,0.71340418,0.46488461,0.52434391,0
-1.8999979,1.553061,-2.0290008,0.24720398,0.53319502,-0.80906928,0
3.3118212,-2.385303,1.4231548,0.71340418,0.46488461,0.52434391,0
3.4361024,-3.366468,-1.3842912,0.65570146,-0.70681345,-0.26546234,0
-1.2149415,5.0902672,0.95425367,0.71340418,0.46488461,0.52434391,0
3.2179558,-3.1547289,-2.4868929,0.65570146,-0.70681345,-0.26546234,0
2.6289284,1.0904251,-0.95011491,0.24720398,0.53319502,-0.80906928,0
0.024669111,0.16066194,-2.3585584,0.24720398,0.53319502,-0.80906928,0
0.91829854,-1.2284057,-3.0009451,0.24720398,0.53319502,-0.80906928,0
1.4566758,0.59974349,-1.6316566,0.24720398,0.53319502,-0.80906928,0
4.4183111,-1.0446553,-1.2709179,0.71340418,0.46488461,0.52434391,0
1.9471782,-3.6839981,-3.1973124,-0.71340418,-0.46488461,-0.52434391,0
-3.3464873,2.852427,2.9743173,-0.65570146,0.70681345,0.26546234,0
2.2567935,0.34607577,0.43694186,0.71340418,0.46488461,0.52434391,0
4.0719671,-2.9837554,-0.83268547,0.65570146,-0.70681345,-0.26546234,0
1.004451,-4.6672058,-0.29691768,-0.24720398,-0.53319502,0.80906928,0
1.4655027,-2.6387594,-3.468672,-0.71340418,-0.46488461,-0.52434391,0
-2.9874587,3.1113629,3.1716957,-0.65570146,0.70681345,0.26546234,0
-0.51610363,2.7584844,2.0708039,0.71340418,0.46488461,0.52434391,0
2.0083349,-1.71033,-2.9854932,0.24720398,0.53319502,-0.80906928,0
2.525769,-0.1355077,-1.789552,0.24720398,0.53319502,-0.80906928,0
4.2816267,-2.8823631,-0.58478212,0.65570146,-0.70681345,-0.26546234,0
-4.0719848,1.3565083,0.52322865,-0.71340418,-0.46488461,-0.52434391,0
1.3582146,-2.3593056,1.3321302,-0.24720398,-0.53319502,0.80906928,0
-3.2716813,3.5247698,1.3689275,-0.65570146,0.70681345,0.26546234,0
-3.4656267,3.5439475,0.8388133,-0.65570146,0.70681345,0.26546234,0
-4.4390717,2.8209362,0.35943985,-0.65570146,0.70681345,0.26546234,0
-1.3235071,2.4500358,-1.2617323,0.24720398,0.53319502,-0.80906928,0
