-2.8461609,0.64837265,1.5270283,-0.5982064,0.14478673,0.78815353,0
2.7404296,-1.3004912,2.9768114,0.79536545,-0.012620866,0.60599887,0
-0.034608126,-1.7727818,2.2550311,-0.097687766,-0.98938251,0.10760847,0
-1.9404926,-0.098803103,2.351687,-0.5982064,0.14478673,0.78815353,0
-1.7397722,1.8195655,-3.4356863,0.097687766,0.98938251,-0.10760847,0
3.6175857,-0.44724017,1.8433259,0.79536545,-0.012620866,0.60599887,0
-1.9815964,1.8416362,-3.4522882,0.097687766,0.98938251,-0.10760847,0
2.8180676,-1.4261748,2.8722951,0.79536545,-0.012620866,0.60599887,0
0.24529433,1.3442309,3.7456033,-0.5982064,0.14478673,0.78815353,0
2.8323979,-1.713891,2.8474939,0.79536545,-0.012620866,0.60599887,0
-0.85880136,2.2683866,2.7378268,-0.5982064,0.14478673,0.78815353,0
-0.17229605,-1.3051343,-3.6973794,0.5982064,-0.14478673,-0.78815353,0
4.3380418,1.5406151,0.93913698,0.79536545,-0.012620866,0.60599887,0
0.52591705,-2.0948634,-3.0223613,0.5982064,-0.14478673,-0.78815353,0
1.8749802,-2.3464518,-1.2859139,-0.097687766,-0.98938251,0.10760847,0
1.0932693,-0.22538179,4.6775579,-0.5982064,0.14478673,0.78815353,0
0.072425842,-1.8627354,-3.4092031,0.5982064,-0.14478673,-0.78815353,0
2.0269375,-2.0650373,1.43944,-0.097687766,-0.98938251,0.10760847,0
1.9555428,1.6268995,-1.8524748,0.097687766,0.98938251,-0.10760847,0
-4.322298,0.53425789,0.4276073,-0.5982064,0.14478673,0.78815353,0
-2.1468639,-2.1277301,-2.925987,-0.097687766,-0.98938251,0.10760847,0
-0.36337227,1.8847716,-1.5866508,0.097687766,0.98938251,-0.10760847,0
0.15396351,2.0877175,0.74892622,0.097687766,0.98938251,-0.10760847,0
3.0093915,0.57767051,2.6629181,0.79536545,-0.012620866,0.60599887,0
-4.8112431,1.3861092,-0.25711274,-0.79536545,0.012620866,-0.60599887,0
-0.91051912,-0.55422568,-4.3956337,0.5982064,-0.14478673,-0.78815353,0
-1.5611483,-2.0653534,-1.8207605,-0.097687766,-0.98938251,0.10760847,0
1.804062,1.8013684,-0.38587314,0.097687766,0.98938251,-0.10760847,0
3.6446121,0.84331053,1.8347311,0.79536545,-0.012620866,0.60599887,0
3.8461142,-1.1703912,1.5283241,0.79536545,-0.012620866,0.60599887,0
-2.2634473,-0.0028603971,-3.6299882,-0.79536545,0.012620866,-0.60599887,0
1.2716166,-1.7366688,3.7728643,-0.097687766,-0.98938251,0.10760847,0
-3.5570397,0.33736801,-1.9250798,-0.79536545,0.012620866,-0.60599887,0
-4.3198271,-0.10172272,0.54631472,-0.5982064,0.14478673,0.78815353,0
-2.5296197,-2.0017715,-2.1153514,-0.097687766,-0.98938251,0.10760847,0
1.9548577,-2.0615439,-1.9439201,0.5982064,-0.14478673,-0.78815353,0
2.5634217,1.78879,3.2734718,0.79536545,-0.012620866,0.60599887,0
0.11390162,-0.023414731,-3.7156134,0.5982064,-0.14478673,-0.78815353,0
3.9847395,0.27332154,1.3764477,0.79536545,-0.012620866,0.60599887,0
4.461216,-0.33863747,-0.35810471,0.5982064,-0.14478673,-0.78815353,0
-3.3004274,2.3438041,-0.032459974,0.097687766,0.98938251,-0.10760847,0
4.105629,1.7219957,1.2479534,0.79536545,-0.012620866,0.60599887,0
2.0662172,-2.3786025,-1.4079096,-0.097687766,-0.98938251,0.10760847,0
4.6550813,-0.97161323,-0.09468174,0.5982064,-0.14478673,-0.78815353,0
-2.5983963,-0.16764706,1.8649867,-0.5982064,0.14478673,0.78815353,0
1.4475558,-2.2277427,-2.2984297,0.5982064,-0.14478673,-0.78815353,0
-4.4680328,-0.89056623,-0.75498676,-0.79536545,0.012620866,-0.60599887,0
0.90155113,2.2221043,2.6631849,0.097687766,0.98938251,-0.10760847,0
-2.3090692,1.977613,-2.4993646,0.097687766,0.98938251,-0.10760847,0
2.0270238,0.68604589,3.9545202,0.79536545,-0.012620866,0.60599887,0
-3.117481,0.011334285,-2.5087848,-0.79536545,0.012620866,-0.60599887,0
-3.681159,1.3477862,-1.7411313,-0.79536545,0.012620866,-0.60599887,0
0.99321699,-1.7743313,3.173851,-0.097687766,-0.98938251,0.10760847,0
-3.0321429,-1.1288642,-2.6445365,-0.79536545,0.012620866,-0.60599887,0
1.308264,-2.2523575,-0.93525338,-0.097687766,-0.98938251,0.10760847,0
-1.5182018,0.08934921,-4.6061926,-0.79536545,0.012620866,-0.60599887,0
3.3174067,-0.35187078,2.2392933,0.79536545,-0.012620866,0.60599887,0
2.0836449,-0.8086946,3.8490744,0.79536545,-0.012620866,0.60599887,0
-2.5004425,0.68365967,-3.3046381,-0.79536545,0.012620866,-0.60599887,0
0.34527436,1.9868889,-0.0044434965,0.097687766,0.98938251,-0.10760847,0
2.5920925,-1.8836639,3.1593564,0.79536545,-0.012620866,0.60599887,0
1.9070356,1.0004017,4.1185503,0.79536545,-0.012620866,0.60599887,0
0.86175942,-2.2946482,-1.7294272,-0.097687766,-0.98938251,0.10760847,0
0.49975634,-1.5915594,4.406342,-0.097687766,-0.98938251,0.10760847,0
1.915524,-1.4527112,4.0563183,0.79536545,-0.012620866,0.60599887,0
-0.79776239,-2.3700414,-3.9291353,-0.097687766,-0.98938251,0.10760847,0
-3.7918868,0.52930343,-1.6128488,-0.79536545,0.012620866,-0.60599887,0
-3.3891449,-0.46630773,-2.1621771,-0.79536545,0.012620866,-0.60599887,0
4.3541512,0.44271284,0.89512777,0.79536545,-0.012620866,0.60599887,0
1.5454478,-0.85111034,4.5545673,0.79536545,-0.012620866,0.60599887,0
2.6540973,-2.2139499,0.63963699,-0.097687766,-0.98938251,0.10760847,0
-1.6800253,0.46035838,-4.3860736,-0.79536545,0.012620866,-0.60599887,0
2.484607,1.4244421,3.3693256,0.79536545,-0.012620866,0.60599887,0
-1.9752188,1.0266219,-3.9868445,-0.79536545,0.012620866,-0.60599887,0
1.8477528,0.7575376,4.1912999,0.79536545,-0.012620866,0.60599887,0
2.310452,1.6481149,-1.3352244,0.097687766,0.98938251,-0.10760847,0
-5.0248928,-0.29378867,-0.011686325,-0.79536545,0.012620866,-0.60599887,0
-2.2719741,1.2386937,-3.5929401,-0.79536545,0.012620866,-0.60599887,0
-4.2737741,-1.6511681,-0.47516608,-0.097687766,-0.98938251,0.10760847,0
4.3444114,-2.4078436,0.39140248,-0.097687766,-0.98938251,0.10760847,0
0.2131474,0.88827622,-3.8077669,0.5982064,-0.14478673,-0.78815353,0
-2.8102784,0.87433547,1.5127525,-0.5982064,0.14478673,0.78815353,0
-1.8078768,-2.0525069,-4.2706065,-0.79536545,0.012620866,-0.60599887,0
-3.1232131,2.4009604,0.99478942,-0.5982064,0.14478673,0.78815353,0
-4.3891521,-1.0929666,-0.86273193,-0.79536545,0.012620866,-0.60599887,0
-3.1247437,1.1820486,1.217546,-0.5982064,0.14478673,0.78815353,0
-2.3474476,-1.7859094,0.03471899,-0.097687766,-0.98938251,0.10760847,0
-2.4035325,0.091170937,-3.4441702,-0.79536545,0.012620866,-0.60599887,0
-2.6562493,-0.56915724,1.8948352,-0.5982064,0.14478673,0.78815353,0
1.7616522,0.052112311,4.2896142,0.79536545,-0.012620866,0.60599887,0
-2.5321074,-1.7472534,0.2224946,-0.097687766,-0.98938251,0.10760847,0
2.5277262,-2.0984809,1.5865664,-0.097687766,-0.98938251,0.10760847,0
-3.9510946,2.0380707,-1.3724685,-0.79536545,0.012620866,-0.60599887,0
0.98745656,-1.6385231,4.4172797,-0.097687766,-0.98938251,0.10760847,0
1.7125809,1.2502627,4.3789725,0.79536545,-0.012620866,0.60599887,0
-3.3819206,-0.23904352,-2.1669264,-0.79536545,0.012620866,-0.60599887,0
-4.1515956,1.6008599,0.36123133,-0.5982064,0.14478673,0.78815353,0
3.760761,-0.58984411,1.6524398,0.79536545,-0.012620866,0.60599887,0
0.33309758,2.153913,1.5201683,0.097687766,0.98938251,-0.10760847,0
-1.9146111,-0.11849165,-4.0902395,-0.79536545,0.012620866,-0.60599887,0
2.9192395,-0.90487349,2.7503645,0.79536545,-0.012620866,0.60599887,0
2.8090589,-1.7291247,-1.3566504,0.5982064,-0.14478673,-0.78815353,0
-2.3038442,-0.98359156,2.2384429,-0.5982064,0.14478673,0.78815353,0
0.92810607,-1.7440621,-2.7815447,0.5982064,-0.14478673,-0.78815353,0
-2.9648852,0.26681215,1.5070107,-0.5982064,0.14478673,0.78815353,0
-4.4227676,1.8329055,-0.75767636,-0.79536545,0.012620866,-0.60599887,0
0.41117638,-1.9088616,1.408563,-0.097687766,-0.98938251,0.10760847,0
-3.290055,2.0155635,-2.2405422,-0.79536545,0.012620866,-0.60599887,0
-0.68885493,-1.0766131,3.4813042,-0.5982064,0.14478673,0.78815353,0
3.6518223,-2.4096088,-0.2535677,-0.097687766,-0.98938251,0.10760847,0
-0.1293087,1.9077694,-1.1627212,0.097687766,0.98938251,-0.10760847,0
1.9382024,-2.3894408,-1.6237729,-0.097687766,-0.98938251,0.10760847,0
1.410784,1.9921204,1.0109327,0.097687766,0.98938251,-0.10760847,0
0.85635638,2.3653562,3.9392552,0.097687766,0.98938251,-0.10760847,0
-2.7926183,-0.72093701,-2.9504132,-0.79536545,0.012620866,-0.60599887,0
-3.589231,0.42734781,1.0036427,-0.5982064,0.14478673,0.78815353,0
0.033574104,-1.4766231,4.1031094,-0.5982064,0.14478673,0.78815353,0
-1.0637498,2.1379137,0.10499734,0.097687766,0.98938251,-0.10760847,0
2.4034123,0.22717606,3.4509587,0.79536545,-0.012620866,0.60599887,0
3.5240967,0.13606569,1.9781771,0.79536545,-0.012620866,0.60599887,0
4.8564248,0.065447122,-0.13237429,0.5982064,-0.14478673,-0.78815353,0
-1.4740441,-1.8157256,-4.5916052,0.5982064,-0.14478673,-0.78815353,0
1.159588,1.8154914,-0.84108126,0.097687766,0.98938251,-0.10760847,0
-1.3821076,2.1682045,2.3590422,-0.5982064,0.14478673,0.78815353,0
4.5856948,1.2842847,-0.56176257,0.5982064,-0.14478673,-0.78815353,0
0.011089325,-2.1692197,-1.3484495,-0.097687766,-0.98938251,0.10760847,0
-2.2711217,0.28258294,2.0306783,-0.5982064,0.14478673,0.78815353,0
-2.031703,-2.1113515,-2.6708531,-0.097687766,-0.98938251,0.10760847,0
3.1924191,-2.3408215,-0.038166761,-0.097687766,-0.98938251,0.10760847,0
-2.4037268,-1.8328589,-0.44803882,-0.097687766,-0.98938251,0.10760847,0
4.3314986,1.5077293,-0.79124713,0.097687766,0.98938251,-0.10760847,0
-1.2421112,0.64704716,-4.8679895,0.5982064,-0.14478673,-0.78815353,0
-1.7935905,-0.99676687,-4.2673688,-0.79536545,0.012620866,-0.60599887,0
-0.4131,-2.2663662,-2.6267195,-0.097687766,-0.98938251,0.10760847,0
-0.23007011,-2.1125815,-3.5928991,0.5982064,-0.14478673,-0.78815353,0
3.7886767,-0.28775051,1.622092,0.79536545,-0.012620866,0.60599887,0
-4.1116886,2.0484924,-1.1614735,-0.79536545,0.012620866,-0.60599887,0
4.5088472,-1.4322351,0.65304303,0.79536545,-0.012620866,0.60599887,0
-1.7651886,2.2496619,0.49567199,0.097687766,0.98938251,-0.10760847,0
1.1644719,-1.5502951,4.9749918,-0.5982064,0.14478673,0.78815353,0
-4.0408592,2.2669699,-1.2498858,-0.79536545,0.012620866,-0.60599887,0
1.6528462,1.9948901,1.2561431,0.097687766,0.98938251,-0.10760847,0
0.36233997,-0.34580201,4.144906,-0.5982064,0.14478673,0.78815353,0
2.4901969,-1.9207399,3.1867006,-0.097687766,-0.98938251,0.10760847,0
-1.0120454,-0.49284163,-4.4839687,0.5982064,-0.14478673,-0.78815353,0
-2.6049628,-0.60167694,1.9397357,-0.5982064,0.14478673,0.78815353,0
-1.3787978,1.9218554,-2.167505,0.097687766,0.98938251,-0.10760847,0
0.69703078,1.5270717,-3.5578494,0.5982064,-0.14478673,-0.78815353,0
2.373404,-1.5050336,3.4542673,0.79536545,-0.012620866,0.60599887,0
-1.6006116,-2.208648,-3.1740746,-0.097687766,-0.98938251,0.10760847,0
1.187768,2.3103383,3.7342641,0.097687766,0.98938251,-0.10760847,0
-3.327234,-0.13439481,-2.2365217,-0.79536545,0.012620866,-0.60599887,0
4.544487,0.66294271,0.64990044,0.79536545,-0.012620866,0.60599887,0
0.53516221,-2.3261778,-2.3158064,-0.097687766,-0.98938251,0.10760847,0
0.38428092,-0.44103634,4.1790533,-0.5982064,0.14478673,0.78815353,0
-0.73156786,0.38947773,-4.4331722,0.5982064,-0.14478673,-0.78815353,0
-0.56542027,-1.9036446,0.56996781,-0.097687766,-0.98938251,0.10760847,0
0.0016083717,-2.0546269,-0.30345431,-0.097687766,-0.98938251,0.10760847,0
-2.2569287,-1.9673376,-1.5512104,-0.097687766,-0.98938251,0.10760847,0
-2.5909083,2.0152917,1.4696561,-0.5982064,0.14478673,0.78815353,0
-0.54199135,1.8383551,-2.1755753,0.097687766,0.98938251,-0.10760847,0
0.98851395,-1.8147109,2.7983193,-0.097687766,-0.98938251,0.10760847,0
1.3255818,-1.6829097,4.3161297,-0.097687766,-0.98938251,0.10760847,0
-4.5109205,2.1172085,-0.0063505173,-0.5982064,0.14478673,0.78815353,0
1.5911214,-0.33184916,4.5054369,0.79536545,-0.012620866,0.60599887,0
-4.5586896,2.4577975,-0.12663293,0.097687766,0.98938251,-0.10760847,0
2.5329335,-0.61225688,-1.7714016,0.5982064,-0.14478673,-0.78815353,0
-1.8092206,-2.2659569,-3.8903668,-0.097687766,-0.98938251,0.10760847,0
4.730794,-0.41419047,0.38294268,0.79536545,-0.012620866,0.60599887,0
-2.5910816,-1.077487,2.0376794,-0.5982064,0.14478673,0.78815353,0
-0.54304862,-0.5127964,3.4883955,-0.5982064,0.14478673,0.78815353,0
-2.5388675,-0.36316007,-3.2760072,-0.79536545,0.012620866,-0.60599887,0
-1.9875211,2.2631645,0.41798282,0.097687766,0.98938251,-0.10760847,0
-1.6978478,-1.3452179,-4.4002876,-0.79536545,0.012620866,-0.60599887,0
2.3653748,-1.1927367,3.4713099,0.79536545,-0.012620866,0.60599887,0
-0.77572,1.7339342,-3.3478262,0.097687766,0.98938251,-0.10760847,0
2.6884911,0.57527089,-1.871487,0.5982064,-0.14478673,-0.78815353,0
-4.262145,1.2816589,-0.97997189,-0.79536545,0.012620866,-0.60599887,0
3.7454176,1.0607797,1.7069545,0.79536545,-0.012620866,0.60599887,0
3.9809899,-2.3803983,0.31382298,-0.097687766,-0.98938251,0.10760847,0
-0.51735139,1.7042542,-3.3861635,0.097687766,0.98938251,-0.10760847,0
-3.1347234,0.052973881,-2.4852877,-0.79536545,0.012620866,-0.60599887,0
-2.9420156,1.0071263,1.3883702,-0.5982064,0.14478673,0.78815353,0
-1.9344712,-1.7450945,0.78488374,-0.097687766,-0.98938251,0.10760847,0
1.5186574,-1.4258623,4.5777602,0.79536545,-0.012620866,0.60599887,0
-1.1414869,1.9291372,-1.8851227,0.097687766,0.98938251,-0.10760847,0
-4.5774422,2.4102271,-0.54264402,-0.79536545,0.012620866,-0.60599887,0
0.12110376,-1.2116995,4.1208763,-0.5982064,0.14478673,0.78815353,0
-2.4740767,-1.3262019,-3.3811016,-0.79536545,0.012620866,-0.60599887,0
0.63086414,1.3735384,-3.5798652,0.5982064,-0.14478673,-0.78815353,0
1.4803042,1.5775127,-2.7379742,0.097687766,0.98938251,-0.10760847,0
4.6220517,0.79414856,-0.44412804,0.5982064,-0.14478673,-0.78815353,0
4.8290434,-0.18773067,0.25870848,0.79536545,-0.012620866,0.60599887,0
-2.9090135,0.86910647,1.4387736,-0.5982064,0.14478673,0.78815353,0
-3.5242171,0.091694415,1.1146491,-0.5982064,0.14478673,0.78815353,0
-2.6841016,0.52431309,-3.0669065,-0.79536545,0.012620866,-0.60599887,0
0.71459866,1.9824657,0.29016286,0.097687766,0.98938251,-0.10760847,0
1.7661902,-2.191206,0.042696357,-0.097687766,-0.98938251,0.10760847,0
2.0792933,2.1744285,3.2940028,0.097687766,0.98938251,-0.10760847,0
4.8217554,1.190637,0.2969799,0.79536545,-0.012620866,0.60599887,0
3.2209997,-2.1795192,1.4708357,-0.097687766,-0.98938251,0.10760847,0
-0.069222927,1.3635032,3.5033445,-0.5982064,0.14478673,0.78815353,0
1.1432494,-1.8647926,2.4783251,-0.097687766,-0.98938251,0.10760847,0
-2.212667,2.0379765,1.752573,-0.5982064,0.14478673,0.78815353,0
1.7837659,-2.0027733,1.7911577,-0.097687766,-0.98938251,0.10760847,0
-0.98429298,-2.2287867,-2.7997389,-0.097687766,-0.98938251,0.10760847,0
-0.63158345,-1.230144,3.5529768,-0.5982064,0.14478673,0.78815353,0
1.1248813,-1.6004634,4.8919644,-0.097687766,-0.98938251,0.10760847,0
-0.034587145,1.2984538,3.5415828,-0.5982064,0.14478673,0.78815353,0
4.0831604,0.16656882,-0.73785663,0.5982064,-0.14478673,-0.78815353,0
-3.7482414,1.994849,0.59499884,-0.5982064,0.14478673,0.78815353,0
4.4260268,-0.28483981,-0.39469624,0.5982064,-0.14478673,-0.78815353,0
-1.8422234,0.038990259,-4.1819673,-0.79536545,0.012620866,-0.60599887,0
-2.0048165,-0.40724576,2.3595276,-0.5982064,0.14478673,0.78815353,0
1.4182611,1.4012218,4.625412,-0.5982064,0.14478673,0.78815353,0
-2.1809733,-1.9791952,-1.5912778,-0.097687766,-0.98938251,0.10760847,0
0.32847834,0.82228208,-3.7081075,0.5982064,-0.14478673,-0.78815353,0
-2.3472929,2.2233305,-0.27486455,0.097687766,0.98938251,-0.10760847,0
3.8153629,1.6898342,1.6282535,0.79536545,-0.012620866,0.60599887,0
-0.99453223,-1.6009707,2.9632821,-0.097687766,-0.98938251,0.10760847,0
1.8560947,-0.71457654,-2.266324,0.5982064,-0.14478673,-0.78815353,0
1.774225,-1.4837155,4.2411261,0.79536545,-0.012620866,0.60599887,0
-1.5611053,-1.5673873,-4.5843863,-0.79536545,0.012620866,-0.60599887,0
1.8869627,1.511023,-2.6517463,0.5982064,-0.14478673,-0.78815353,0
-3.4900787,-0.029178768,1.1627648,-0.5982064,0.14478673,0.78815353,0
3.1089351,-0.14782083,-1.4195364,0.5982064,-0.14478673,-0.78815353,0
-1.8085059,-1.5696781,2.5120628,-0.097687766,-0.98938251,0.10760847,0
0.13052344,-2.0903149,-3.3232999,0.5982064,-0.14478673,-0.78815353,0
-1.0428652,-0.91082585,3.1821558,-0.5982064,0.14478673,0.78815353,0
-1.4042652,-0.020730078,-4.7580256,-0.79536545,0.012620866,-0.60599887,0
-4.1419935,-1.6696243,-1.1991339,-0.79536545,0.012620866,-0.60599887,0
0.54546261,0.73447227,4.0854445,-0.5982064,0.14478673,0.78815353,0
2.6932471,-2.1337025,1.4129903,-0.097687766,-0.98938251,0.10760847,0
1.7440051,2.1354389,2.631146,0.097687766,0.98938251,-0.10760847,0
-2.0330877,-1.9000806,-0.7296257,-0.097687766,-0.98938251,0.10760847,0
2.2631302,-2.1087701,1.2517617,-0.097687766,-0.98938251,0.10760847,0
3.7256684,1.015453,1.7319312,0.79536545,-0.012620866,0.60599887,0
4.2043829,0.017620206,-0.61848664,0.5982064,-0.14478673,-0.78815353,0
4.4027071,-2.2312675,0.77570939,0.79536545,-0.012620866,0.60599887,0
-3.5796545,-1.6795954,-1.9374042,-0.79536545,0.012620866,-0.60599887,0
2.7723916,1.1199515,2.985271,0.79536545,-0.012620866,0.60599887,0
0.17942131,1.766037,-2.1855798,0.097687766,0.98938251,-0.10760847,0
-4.5142727,1.2446594,-0.64982796,-0.79536545,0.012620866,-0.60599887,0
-1.4826354,-1.7558923,1.0957868,-0.097687766,-0.98938251,0.10760847,0
-1.5089188,1.6692038,-4.5854735,-0.79536545,0.012620866,-0.60599887,0
-1.1266265,2.1365292,0.035187602,0.097687766,0.98938251,-0.10760847,0
0.28292942,2.3430181,3.2133086,0.097687766,0.98938251,-0.10760847,0
2.2585855,-0.26670235,3.6307554,0.79536545,-0.012620866,0.60599887,0
-1.6716306,1.6402867,2.2362754,-0.5982064,0.14478673,0.78815353,0
-2.5991073,2.0255067,-2.3223135,0.097687766,0.98938251,-0.10760847,0
3.2137797,0.6916343,-1.4941707,0.5982064,-0.14478673,-0.78815353,0
-1.5536404,1.4510679,-4.5313215,-0.79536545,0.012620866,-0.60599887,0
-2.195869,1.1800343,-3.6940489,-0.79536545,0.012620866,-0.60599887,0
2.2731967,-1.2037914,-1.8598741,0.5982064,-0.14478673,-0.78815353,0
2.3064556,1.7202172,-0.67592245,0.097687766,0.98938251,-0.10760847,0
-0.76988238,-2.0643559,-1.0932701,-0.097687766,-0.98938251,0.10760847,0
-2.7846303,-0.87897038,-2.9641891,-0.79536545,0.012620866,-0.60599887,0
4.2709961,-2.1796145,0.94965363,0.79536545,-0.012620866,0.60599887,0
1.3215628,2.2017694,2.8575099,0.097687766,0.98938251,-0.10760847,0
0.81610322,-0.49060571,-3.0968189,0.5982064,-0.14478673,-0.78815353,0
-2.3050542,-1.6322126,-3.609314,-0.79536545,0.012620866,-0.60599887,0
-2.283567,2.19275,-0.49818087,0.097687766,0.98938251,-0.10760847,0
2.9512627,-0.019365087,2.7267771,0.79536545,-0.012620866,0.60599887,0
4.6385126,0.81949151,0.52975416,0.79536545,-0.012620866,0.60599887,0
-4.9653172,-0.98708761,0.21903396,-0.5982064,0.14478673,0.78815353,0
1.0634924,-1.8898699,-2.6520011,0.5982064,-0.14478673,-0.78815353,0
1.8786057,1.96693,1.2040188,0.097687766,0.98938251,-0.10760847,0
1.8579254,-1.8695948,3.0829611,-0.097687766,-0.98938251,0.10760847,0
2.1875308,-2.241894,-0.040843368,-0.097687766,-0.98938251,0.10760847,0
-0.20492864,-1.3108571,-3.7210963,0.5982064,-0.14478673,-0.78815353,0
-2.7899129,-0.38411403,-2.9469495,-0.79536545,0.012620866,-0.60599887,0
-0.6695354,-1.5925579,-4.0219822,0.5982064,-0.14478673,-0.78815353,0
3.2124057,1.3544353,-1.6169726,0.5982064,-0.14478673,-0.78815353,0
3.8622441,-0.25461879,-0.82815754,0.5982064,-0.14478673,-0.78815353,0
-3.8572054,2.0388982,-1.4956789,-0.79536545,0.012620866,-0.60599887,0
-4.4280243,0.85811567,0.28786707,-0.5982064,0.14478673,0.78815353,0
-0.64276111,-1.7286768,2.1084573,-0.097687766,-0.98938251,0.10760847,0
-0.90879011,-2.1325345,-1.8462244,-0.097687766,-0.98938251,0.10760847,0
1.9824991,0.22186549,4.0032897,0.79536545,-0.012620866,0.60599887,0
3.3786881,-1.5896631,-0.9499228,0.5982064,-0.14478673,-0.78815353,0
-4.0254393,-1.5579635,0.60722303,-0.097687766,-0.98938251,0.10760847,0
-2.6525373,1.6736761,1.485636,-0.5982064,0.14478673,0.78815353,0
-2.9077554,-1.6055636,1.1842151,-0.097687766,-0.98938251,0.10760847,0
-3.0353746,1.4607943,-2.5863614,-0.79536545,0.012620866,-0.60599887,0
-4.5491247,0.76267695,-0.61412311,-0.79536545,0.012620866,-0.60599887,0
-1.0885673,1.8440325,-2.6195598,0.097687766,0.98938251,-0.10760847,0
1.1788714,-1.0619851,4.8962173,-0.5982064,0.14478673,0.78815353,0
-4.1074471,-0.59094167,-1.2220106,-0.79536545,0.012620866,-0.60599887,0
3.9077487,-1.7662303,1.4350204,0.79536545,-0.012620866,0.60599887,0
-1.231041,-1.9657863,-0.60563827,-0.097687766,-0.98938251,0.10760847,0
0.55422091,1.3096786,-3.6263063,0.5982064,-0.14478673,-0.78815353,0
-4.3053684,1.6255018,0.23999143,-0.5982064,0.14478673,0.78815353,0
-3.9831333,2.2474382,-1.3260577,-0.79536545,0.012620866,-0.60599887,0
1.7302926,-0.59731394,-2.3833492,0.5982064,-0.14478673,-0.78815353,0
-2.3540878,2.2734981,1.6019688,-0.5982064,0.14478673,0.78815353,0
2.9872746,-0.78932393,-1.3940299,0.5982064,-0.14478673,-0.78815353,0
0.66506839,2.3357189,3.4931073,0.097687766,0.98938251,-0.10760847,0
-1.565231,-1.2295698,2.8442357,-0.5982064,0.14478673,0.78815353,0
3.3541467,1.1964877,2.2233191,0.79536545,-0.012620866,0.60599887,0
-0.58563983,1.8998294,-1.649982,0.097687766,0.98938251,-0.10760847,0
4.6807499,-1.4311473,0.4274447,0.79536545,-0.012620866,0.60599887,0
-4.0663795,2.3472507,-0.69610691,0.097687766,0.98938251,-0.10760847,0
3.8869338,1.5406789,-0.89188159,0.097687766,0.98938251,-0.10760847,0
-3.2603831,-0.84180427,-2.3389955,-0.79536545,0.012620866,-0.60599887,0
-3.0158641,-1.6748253,0.44926178,-0.097687766,-0.98938251,0.10760847,0
-0.071804047,-1.7898521,2.0643106,-0.097687766,-0.98938251,0.10760847,0
-1.0187953,1.7753316,2.7069676,-0.5982064,0.14478673,0.78815353,0
3.1241951,1.2785405,-1.669982,0.5982064,-0.14478673,-0.78815353,0
-0.38439155,-1.1136024,-3.8935447,0.5982064,-0.14478673,-0.78815353,0
-0.60454965,2.2531059,1.5809714,0.097687766,0.98938251,-0.10760847,0
-1.0257531,1.0546076,2.8340859,-0.5982064,0.14478673,0.78815353,0
2.1867483,0.11596057,3.7330108,0.79536545,-0.012620866,0.60599887,0
1.4702725,0.42102635,4.6797295,0.79536545,-0.012620866,0.60599887,0
4.1544766,-2.2648182,1.1008098,0.79536545,-0.012620866,0.60599887,0
0.59805632,-1.694557,3.5485873,-0.097687766,-0.98938251,0.10760847,0
-4.732091,0.69351566,-0.37542295,-0.79536545,0.012620866,-0.60599887,0
-3.9550345,-0.13715711,-1.4125996,-0.79536545,0.012620866,-0.60599887,0
-2.8598149,-0.34650922,1.6994283,-0.5982064,0.14478673,0.78815353,0
-0.76365042,0.23481345,3.1836205,-0.5982064,0.14478673,0.78815353,0
0.3762598,1.9165423,-0.62310177,0.097687766,0.98938251,-0.10760847,0
2.2761269,-1.2627944,3.5869875,0.79536545,-0.012620866,0.60599887,0
3.3881607,-2.2389789,1.0758994,-0.097687766,-0.98938251,0.10760847,0
1.5769873,2.2202597,3.2593915,0.097687766,0.98938251,-0.10760847,0
-1.4834847,1.7748268,-3.6143627,0.097687766,0.98938251,-0.10760847,0
1.9811404,2.0292175,4.0427146,0.79536545,-0.012620866,0.60599887,0
2.3042111,1.7047149,3.6119299,0.79536545,-0.012620866,0.60599887,0
0.92283076,-2.1253431,-0.117347,-0.097687766,-0.98938251,0.10760847,0
2.2623193,-2.0196462,2.0704594,-0.097687766,-0.98938251,0.10760847,0
0.70444179,-1.0664675,-3.0757818,0.5982064,-0.14478673,-0.78815353,0
-0.16579199,-0.21280283,3.7196224,-0.5982064,0.14478673,0.78815353,0
-1.7853005,-1.6236057,2.0373051,-0.097687766,-0.98938251,0.10760847,0
3.1568911,1.5913634,-1.0886081,0.097687766,0.98938251,-0.10760847,0
2.3533211,0.3662889,3.519599,0.79536545,-0.012620866,0.60599887,0
0.078058481,2.016201,3.4952283,-0.5982064,0.14478673,0.78815353,0
-1.6443138,0.2936908,-4.4364176,-0.79536545,0.012620866,-0.60599887,0
1.2422463,-2.0075607,-2.4947076,0.5982064,-0.14478673,-0.78815353,0
0.050744295,1.1169095,3.6396999,-0.5982064,0.14478673,0.78815353,0
-2.2113891,-1.8122084,-0.083567858,-0.097687766,-0.98938251,0.10760847,0
-0.88249946,2.3894911,2.6975923,-0.5982064,0.14478673,0.78815353,0
0.93747783,-1.5966139,4.7572346,-0.097687766,-0.98938251,0.10760847,0
0.50271773,0.30315995,4.1322355,-0.5982064,0.14478673,0.78815353,0
4.0385814,-2.3657634,0.50066423,-0.097687766,-0.98938251,0.10760847,0
0.38161534,-1.8597894,1.8329082,-0.097687766,-0.98938251,0.10760847,0
1.754081,-2.3264189,-1.2114789,-0.097687766,-0.98938251,0.10760847,0
-3.6077008,0.8609705,-1.847683,-0.79536545,0.012620866,-0.60599887,0
-1.6640551,0.79935646,-4.3999748,-0.79536545,0.012620866,-0.60599887,0
-2.0973718,0.27048123,2.1647773,-0.5982064,0.14478673,0.78815353,0
-4.2488904,0.052663893,0.57179379,-0.5982064,0.14478673,0.78815353,0
-1.2150967,1.7700012,-3.4150884,0.097687766,0.98938251,-0.10760847,0
-2.8862627,-1.5987777,-2.8457894,-0.79536545,0.012620866,-0.60599887,0
1.461098,1.7972072,-0.73547733,0.097687766,0.98938251,-0.10760847,0
3.1015997,0.36220551,-1.5187976,0.5982064,-0.14478673,-0.78815353,0
-1.9763794,2.2893856,0.66918123,0.097687766,0.98938251,-0.10760847,0
-0.54619503,-1.9508073,0.15379187,-0.097687766,-0.98938251,0.10760847,0
-4.0996752,2.440068,0.12705445,0.097687766,0.98938251,-0.10760847,0
-0.60861135,-2.3026953,-3.1382275,-0.097687766,-0.98938251,0.10760847,0
-3.6172431,0.81583226,-1.8360991,-0.79536545,0.012620866,-0.60599887,0
-4.291975,2.4269507,-0.16812181,0.097687766,0.98938251,-0.10760847,0
-1.4935269,2.0594003,-1.0070305,0.097687766,0.98938251,-0.10760847,0
-0.74724483,1.5318558,2.9578009,-0.5982064,0.14478673,0.78815353,0
1.7346416,2.1167781,4.3680658,0.79536545,-0.012620866,0.60599887,0
-4.862823,1.083987,-0.19570708,-0.79536545,0.012620866,-0.60599887,0
-1.4951456,2.3804755,1.9435555,0.097687766,0.98938251,-0.10760847,0
-3.6580591,-1.8279762,-1.5418375,-0.097687766,-0.98938251,0.10760847,0
1.6943855,-1.6893961,4.3416305,0.79536545,-0.012620866,0.60599887,0
-0.64460969,0.70513272,-4.4251575,0.5982064,-0.14478673,-0.78815353,0
-0.28717351,0.29257318,3.5346546,-0.5982064,0.14478673,0.78815353,0
2.837862,0.85579294,2.8938408,0.79536545,-0.012620866,0.60599887,0
-2.6578541,2.3375683,0.49353433,0.097687766,0.98938251,-0.10760847,0
-2.2381353,-2.131171,-3.0404816,-0.097687766,-0.98938251,0.10760847,0
-3.9361405,2.2627175,-1.355098,0.097687766,0.98938251,-0.10760847,0
5.0357132,0.91127992,-0.15167737,0.5982064,-0.14478673,-0.78815353,0
2.8954201,1.8403374,2.8388014,0.79536545,-0.012620866,0.60599887,0
2.3246017,0.56953371,-2.1466243,0.5982064,-0.14478673,-0.78815353,0
-2.3128569,-0.18141538,2.0842397,-0.5982064,0.14478673,0.78815353,0
-1.6020186,-1.5233742,-4.5297718,-0.79536545,0.012620866,-0.60599887,0
-0.18630719,2.3247113,2.6190162,0.097687766,0.98938251,-0.10760847,0
-1.0157471,1.9755123,-1.3445868,0.097687766,0.98938251,-0.10760847,0
-0.40284896,-2.0537186,-3.7348511,0.5982064,-0.14478673,-0.78815353,0
-2.1659229,-1.5700412,2.1842599,-0.097687766,-0.98938251,0.10760847,0
-1.9473927,-1.9553103,-1.1596286,-0.097687766,-0.98938251,0.10760847,0
1.3182609,-1.3253349,4.8428717,0.79536545,-0.012620866,0.60599887,0
2.930408,-2.0162342,-1.2118034,0.5982064,-0.14478673,-0.78815353,0
-1.9700428,1.3606901,2.0611444,-0.5982064,0.14478673,0.78815353,0
3.7191076,1.0378338,1.7410088,0.79536545,-0.012620866,0.60599887,0
-1.4005682,0.95109296,-4.7426381,-0.79536545,0.012620866,-0.60599887,0
-0.10523939,1.5802449,3.436192,-0.5982064,0.14478673,0.78815353,0
-0.07092762,-1.2337844,-3.6335483,0.5982064,-0.14478673,-0.78815353,0
-1.4136554,-1.9683868,-0.79532719,-0.097687766,-0.98938251,0.10760847,0
0.49231672,1.3959283,-3.6891356,0.5982064,-0.14478673,-0.78815353,0
-0.13782954,0.30758953,3.6452479,-0.5982064,0.14478673,0.78815353,0
-0.10787368,2.3704443,3.2890303,-0.5982064,0.14478673,0.78815353,0
3.9602568,-0.45492315,-0.71696973,0.5982064,-0.14478673,-0.78815353,0
-1.3857284,-1.5854068,2.7512534,-0.097687766,-0.98938251,0.10760847,0
4.8868132,1.4458467,-0.36289406,0.5982064,-0.14478673,-0.78815353,0
1.3360684,0.14837345,4.7931805,-0.5982064,0.14478673,0.78815353,0
3.4933341,-2.0469313,-0.77890503,0.5982064,-0.14478673,-0.78815353,0
3.248868,-1.7590228,2.2999425,0.79536545,-0.012620866,0.60599887,0
4.7685575,-0.14548144,0.33897495,0.79536545,-0.012620866,0.60599887,0
2.1189444,1.0496345,-2.390914,0.5982064,-0.14478673,-0.78815353,0
-2.077951,-2.232326,-3.9198823,-0.79536545,0.012620866,-0.60599887,0
1.4204957,0.86980319,4.7247329,-0.5982064,0.14478673,0.78815353,0
4.3263469,-0.32258493,0.91568255,0.79536545,-0.012620866,0.60599887,0
-2.9890616,-0.14788955,-2.6806498,-0.79536545,0.012620866,-0.60599887,0
-1.9866798,-0.44426519,-4.0024357,-0.79536545,0.012620866,-0.60599887,0
0.7556479,1.1136014,4.1753273,-0.5982064,0.14478673,0.78815353,0
4.9970808,1.5211878,-0.063286543,0.097687766,0.98938251,-0.10760847,0
4.4942389,-0.67061138,0.68807817,0.79536545,-0.012620866,0.60599887,0
1.7143307,-0.66410041,-2.3831949,0.5982064,-0.14478673,-0.78815353,0
-1.6529622,-0.85980344,-4.4490891,-0.79536545,0.012620866,-0.60599887,0
-4.7760839,0.45688701,-0.32261086,-0.79536545,0.012620866,-0.60599887,0
-0.53788567,-0.032811046,-4.2085919,0.5982064,-0.14478673,-0.78815353,0
-4.9566574,-0.29408544,-0.10125113,-0.79536545,0.012620866,-0.60599887,0
2.886095,1.6890846,-0.43596303,0.097687766,0.98938251,-0.10760847,0
1.581037,2.0097728,4.567441,0.79536545,-0.012620866,0.60599887,0
-0.072492957,2.1794767,1.3870112,0.097687766,0.98938251,-0.10760847,0
1.0281315,1.9565195,0.33623421,0.097687766,0.98938251,-0.10760847,0
3.2052288,-2.3305221,-0.94547927,0.5982064,-0.14478673,-0.78815353,0
-0.10450745,0.18259472,-3.9192295,0.5982064,-0.14478673,-0.78815353,0
-4.4993277,-0.63519657,-0.70859432,-0.79536545,0.012620866,-0.60599887,0
-2.340121,-1.8958545,-0.96949577,-0.097687766,-0.98938251,0.10760847,0
2.8129995,1.7609072,0.15803647,0.097687766,0.98938251,-0.10760847,0
3.2592478,-2.436928,-0.86112893,-0.097687766,-0.98938251,0.10760847,0
4.3487182,1.5244683,0.924788,0.79536545,-0.012620866,0.60599887,0
1.1958086,-1.6689913,4.3262897,-0.097687766,-0.98938251,0.10760847,0
-1.4634733,0.40965176,-4.6713533,-0.79536545,0.012620866,-0.60599887,0
-0.27932167,1.633337,-3.8221109,0.097687766,0.98938251,-0.10760847,0
-3.8213863,-1.2068183,1.1276401,-0.5982064,0.14478673,0.78815353,0
-3.0994763,1.4709404,-2.502017,-0.79536545,0.012620866,-0.60599887,0
-0.57143211,0.19628111,3.3365927,-0.5982064,0.14478673,0.78815353,0
-2.6120515,-1.7452172,0.16864443,-0.097687766,-0.98938251,0.10760847,0
3.0488923,0.13813257,2.6019197,0.79536545,-0.012620866,0.60599887,0
3.3069165,0.088351682,2.2622299,0.79536545,-0.012620866,0.60599887,0
-3.8202357,1.2847737,-1.559907,-0.79536545,0.012620866,-0.60599887,0
2.5478506,0.81299978,3.2735848,0.79536545,-0.012620866,0.60599887,0
-0.37325263,0.79664052,3.3767219,-0.5982064,0.14478673,0.78815353,0
3.4338362,-2.0736551,-0.8191545,0.5982064,-0.14478673,-0.78815353,0
3.5172629,1.6934727,0.17736149,0.097687766,0.98938251,-0.10760847,0
-1.7392254,-0.79980725,-4.3346205,-0.79536545,0.012620866,-0.60599887,0
3.1100729,-2.3166533,0.10928798,-0.097687766,-0.98938251,0.10760847,0
0.71617818,1.941363,-0.086311638,0.097687766,0.98938251,-0.10760847,0
1.315129,-1.2084939,4.8494163,0.79536545,-0.012620866,0.60599887,0
1.4516579,1.7787979,-0.91330594,0.097687766,0.98938251,-0.10760847,0
-1.0337915,-2.0934262,-1.6001296,-0.097687766,-0.98938251,0.10760847,0
4.7637239,-1.0169797,-0.0038881302,0.5982064,-0.14478673,-0.78815353,0
2.189002,-1.0880073,-1.9450474,0.5982064,-0.14478673,-0.78815353,0
3.0397594,1.5265541,-1.7796296,0.5982064,-0.14478673,-0.78815353,0
-4.2641549,1.8462081,-0.96557617,-0.79536545,0.012620866,-0.60599887,0
1.3064113,1.9445175,4.4407129,-0.5982064,0.14478673,0.78815353,0
-4.4078813,-1.2266204,-0.84093332,-0.79536545,0.012620866,-0.60599887,0
-1.3517426,0.035040587,2.7739592,-0.5982064,0.14478673,0.78815353,0
1.395714,1.7636671,-1.1032102,0.097687766,0.98938251,-0.10760847,0
-3.6070795,1.4932622,-1.8353298,-0.79536545,0.012620866,-0.60599887,0
-0.24996638,-0.035584509,-3.9895523,0.5982064,-0.14478673,-0.78815353,0
0.775383,-2.1591883,-0.56238508,-0.097687766,-0.98938251,0.10760847,0
1.9460784,2.0940661,2.4341938,0.097687766,0.98938251,-0.10760847,0
2.3470445,1.6680384,3.5549483,0.79536545,-0.012620866,0.60599887,0
-3.6450634,1.0424865,-1.7948644,-0.79536545,0.012620866,-0.60599887,0
-2.7536228,0.39480609,-2.9783578,-0.79536545,0.012620866,-0.60599887,0
-0.80136132,-1.9617057,-0.17805177,-0.097687766,-0.98938251,0.10760847,0
0.16318011,0.19181262,3.8949819,-0.5982064,0.14478673,0.78815353,0
-4.9495087,-1.2662067,-0.13087988,-0.79536545,0.012620866,-0.60599887,0
-3.2645729,0.97839499,-2.2955878,-0.79536545,0.012620866,-0.60599887,0
-2.8758929,1.3302855,1.3791918,-0.5982064,0.14478673,0.78815353,0
-1.2014714,-0.8625828,3.0529115,-0.5982064,0.14478673,0.78815353,0
0.49522281,-0.003241241,-3.4298973,0.5982064,-0.14478673,-0.78815353,0
-3.3513701,-1.844288,-1.4134007,-0.097687766,-0.98938251,0.10760847,0
4.0934305,0.6018182,1.2406335,0.79536545,-0.012620866,0.60599887,0
-3.8122163,-1.6670761,-0.2024231,-0.097687766,-0.98938251,0.10760847,0
-2.4907804,0.35924703,-3.3240757,-0.79536545,0.012620866,-0.60599887,0
-4.9275465,-1.2932197,-0.1602664,-0.79536545,0.012620866,-0.60599887,0
-1.9984097,-2.2477727,-3.8949213,-0.097687766,-0.98938251,0.10760847,0
-1.2810521,1.9329419,2.4789617,-0.5982064,0.14478673,0.78815353,0
-3.1153321,-0.86075121,-2.529768,-0.79536545,0.012620866,-0.60599887,0
0.95259142,1.7296438,-1.8183014,0.097687766,0.98938251,-0.10760847,0
-3.3406062,-1.7028121,-2.2516356,-0.79536545,0.012620866,-0.60599887,0
0.26311159,-1.8569283,1.7516359,-0.097687766,-0.98938251,0.10760847,0
1.0253816,1.16717,4.3702135,-0.5982064,0.14478673,0.78815353,0
1.5377864,-2.0465255,1.1655861,-0.097687766,-0.98938251,0.10760847,0
-4.4827619,-1.398175,-0.74622726,-0.79536545,0.012620866,-0.60599887,0
2.6649814,-1.936183,3.0625966,0.79536545,-0.012620866,0.60599887,0
-0.64090419,-1.6817728,-3.9838622,0.5982064,-0.14478673,-0.78815353,0
-4.4536772,-1.6427718,-0.56128597,-0.097687766,-0.98938251,0.10760847,0
4.2131567,-0.40226117,1.0625832,0.79536545,-0.012620866,0.60599887,0
-0.097115755,2.3125126,2.5878279,0.097687766,0.98938251,-0.10760847,0
-1.2125292,-2.1946349,-2.6929286,-0.097687766,-0.98938251,0.10760847,0
0.47794724,1.6365232,3.8684909,-0.5982064,0.14478673,0.78815353,0
0.50868231,1.9520668,-0.17626618,0.097687766,0.98938251,-0.10760847,0
1.4251032,1.7687235,4.5630941,-0.5982064,0.14478673,0.78815353,0
3.8939838,0.99156296,1.5105219,0.79536545,-0.012620866,0.60599887,0
-2.5220573,0.1928101,1.8567104,-0.5982064,0.14478673,0.78815353,0
-0.14800584,-1.8964884,1.0146923,-0.097687766,-0.98938251,0.10760847,0
-1.4662726,2.2309957,0.59540516,0.097687766,0.98938251,-0.10760847,0
2.4711955,-0.39926785,-1.8573873,0.5982064,-0.14478673,-0.78815353,0
1.8742357,-0.34066311,-2.3212442,0.5982064,-0.14478673,-0.78815353,0
-0.52310133,-1.575316,3.6271286,-0.097687766,-0.98938251,0.10760847,0
0.38077486,1.9880317,0.038293123,0.097687766,0.98938251,-0.10760847,0
-1.2391212,0.41151512,-4.8224525,0.5982064,-0.14478673,-0.78815353,0
0.95413816,-1.7383575,3.4691269,-0.097687766,-0.98938251,0.10760847,0
-3.6679831,1.1791345,0.8057642,-0.5982064,0.14478673,0.78815353,0
-0.92151332,0.84437406,2.9518247,-0.5982064,0.14478673,0.78815353,0
-3.4793947,0.60879529,1.0536758,-0.5982064,0.14478673,0.78815353,0
-1.2748475,0.029533565,-4.779397,0.5982064,-0.14478673,-0.78815353,0
-0.73096383,-1.8164229,1.2216249,-0.097687766,-0.98938251,0.10760847,0
-1.788465,1.8065701,-3.599369,0.097687766,0.98938251,-0.10760847,0
-1.1529722,-0.42166898,-4.6040068,0.5982064,-0.14478673,-0.78815353,0
2.2887824,1.1933489,-2.288408,0.5982064,-0.14478673,-0.78815353,0
0.098447323,-1.708223,-3.4178371,0.5982064,-0.14478673,-0.78815353,0
1.3446851,-1.3393875,4.8078976,0.79536545,-0.012620866,0.60599887,0
2.4077542,1.1603559,3.464694,0.79536545,-0.012620866,0.60599887,0
-0.054721355,1.8371639,-1.7441779,0.097687766,0.98938251,-0.10760847,0
3.0907881,-2.2030985,1.1358347,-0.097687766,-0.98938251,0.10760847,0
2.0326777,0.2338423,3.9376817,0.79536545,-0.012620866,0.60599887,0
-4.1936917,-0.95635211,-1.116426,-0.79536545,0.012620866,-0.60599887,0
3.9399641,-0.47652924,1.4195983,0.79536545,-0.012620866,0.60599887,0
-2.3917964,1.6081066,-3.4279814,-0.79536545,0.012620866,-0.60599887,0
4.7623405,0.96160233,0.3701911,0.79536545,-0.012620866,0.60599887,0
-2.9327869,-2.0126963,-2.5817995,-0.097687766,-0.98938251,0.10760847,0
1.3544254,1.2691615,4.601222,-0.5982064,0.14478673,0.78815353,0
0.17898464,2.3054619,2.7736454,0.097687766,0.98938251,-0.10760847,0
-1.1886215,-1.2766845,-4.4739943,0.5982064,-0.14478673,-0.78815353,0
0.64475155,-1.2896502,-3.0800872,0.5982064,-0.14478673,-0.78815353,0
-3.9957271,0.53515542,0.6753087,-0.5982064,0.14478673,0.78815353,0
4.4524012,0.57300782,-0.53226805,0.5982064,-0.14478673,-0.78815353,0
-0.20468712,-0.26118696,-3.9137418,0.5982064,-0.14478673,-0.78815353,0
0.39852518,-2.1072969,-0.42739686,-0.097687766,-0.98938251,0.10760847,0
1.9275246,1.7143595,-1.0737755,0.097687766,0.98938251,-0.10760847,0
-3.7860084,-1.7794722,-1.6686478,-0.79536545,0.012620866,-0.60599887,0
-0.38363171,-0.47546029,3.6025336,-0.5982064,0.14478673,0.78815353,0
-1.1106999,-1.5223143,3.2430019,-0.5982064,0.14478673,0.78815353,0
0.83234072,0.37157971,4.3698492,-0.5982064,0.14478673,0.78815353,0
-0.22267652,-1.0373304,-3.7848144,0.5982064,-0.14478673,-0.78815353,0
2.6383963,-2.3632691,-0.74749988,-0.097687766,-0.98938251,0.10760847,0
0.26785141,-2.128006,-0.73642814,-0.097687766,-0.98938251,0.10760847,0
2.0576401,-1.7644629,3.8633008,0.79536545,-0.012620866,0.60599887,0
-1.1579267,2.1093888,-0.24276096,0.097687766,0.98938251,-0.10760847,0
0.47105104,-2.0374506,0.28063333,-0.097687766,-0.98938251,0.10760847,0
-1.8366337,-1.5447749,-4.2222886,-0.79536545,0.012620866,-0.60599887,0
1.6583158,0.58923721,-2.6559529,0.5982064,-0.14478673,-0.78815353,0
-0.034920692,-2.0581155,-0.36869285,-0.097687766,-0.98938251,0.10760847,0
1.2822096,1.4848275,4.5067911,-0.5982064,0.14478673,0.78815353,0
0.060545564,1.7326868,-2.6001287,0.097687766,0.98938251,-0.10760847,0
1.5443389,-0.10784942,4.5715027,0.79536545,-0.012620866,0.60599887,0
-0.082756758,-1.6991186,2.8886023,-0.097687766,-0.98938251,0.10760847,0
1.6818795,0.16551894,-2.5602295,0.5982064,-0.14478673,-0.78815353,0
-3.8326149,-1.382467,-1.5992088,-0.79536545,0.012620866,-0.60599887,0
-1.6296946,-1.0068916,2.7544012,-0.5982064,0.14478673,0.78815353,0
-2.2045829,0.37895119,-3.6992958,-0.79536545,0.012620866,-0.60599887,0
1.0856951,-0.97307682,-2.8035679,0.5982064,-0.14478673,-0.78815353,0
3.6079845,-1.5928257,-0.77530658,0.5982064,-0.14478673,-0.78815353,0
-3.8909702,0.54568559,-1.482461,-0.79536545,0.012620866,-0.60599887,0
-0.20286441,-1.133094,3.8605456,-0.5982064,0.14478673,0.78815353,0
3.2630396,0.36789411,-1.3973103,0.5982064,-0.14478673,-0.78815353,0
2.0166788,-2.3601027,-1.8421519,0.5982064,-0.14478673,-0.78815353,0
-4.3550949,-0.81799322,-0.90170431,-0.79536545,0.012620866,-0.60599887,0
4.0826726,-0.12628362,-0.68442845,0.5982064,-0.14478673,-0.78815353,0
1.4256589,1.338151,4.6426134,-0.5982064,0.14478673,0.78815353,0
0.090888977,-0.54116225,-3.6379673,0.5982064,-0.14478673,-0.78815353,0
2.3550997,-0.92602277,-1.8487368,0.5982064,-0.14478673,-0.78815353,0
0.28026843,1.4039645,3.7611749,-0.5982064,0.14478673,0.78815353,0
-0.44478875,-1.8940415,0.76777184,-0.097687766,-0.98938251,0.10760847,0
0.93185925,-2.0676107,0.42165804,-0.097687766,-0.98938251,0.10760847,0
-3.3603771,-0.57024837,-2.2020993,-0.79536545,0.012620866,-0.60599887,0
0.66770291,-2.2418418,-2.8877459,0.5982064,-0.14478673,-0.78815353,0
-1.5796293,-2.1514421,-2.6290584,-0.097687766,-0.98938251,0.10760847,0
3.4614406,1.3386434,-1.4250548,0.5982064,-0.14478673,-0.78815353,0
1.735182,0.57816851,-2.5955784,0.5982064,-0.14478673,-0.78815353,0
4.4218354,1.5907675,0.054238081,0.097687766,0.98938251,-0.10760847,0
0.48678899,-2.0248642,-3.064919,0.5982064,-0.14478673,-0.78815353,0
3.0880952,-1.7607695,2.5109186,0.79536545,-0.012620866,0.60599887,0
2.9536576,0.21277213,-1.603634,0.5982064,-0.14478673,-0.78815353,0
-3.1147816,-1.6495833,-2.5469193,-0.79536545,0.012620866,-0.60599887,0
-1.171978,-1.5748286,3.0425527,-0.097687766,-0.98938251,0.10760847,0
2.6846864,-1.483692,-1.4961355,0.5982064,-0.14478673,-0.78815353,0
4.0180531,-2.399693,0.1700666,-0.097687766,-0.98938251,0.10760847,0
-1.6169238,1.171598,-4.4540825,-0.79536545,0.012620866,-0.60599887,0
-0.7989521,2.3997953,2.7531958,0.097687766,0.98938251,-0.10760847,0
-0.18065977,1.9361905,3.31356,-0.5982064,0.14478673,0.78815353,0
0.070586205,-1.554111,4.1454363,-0.5982064,0.14478673,0.78815353,0
-1.8546269,2.1913536,-0.12162685,0.097687766,0.98938251,-0.10760847,0
4.0944486,1.7126381,0.87754512,0.097687766,0.98938251,-0.10760847,0
0.35079461,1.8073499,-1.6501656,0.097687766,0.98938251,-0.10760847,0
-2.1955452,2.3927288,1.4203857,0.097687766,0.98938251,-0.10760847,0
-0.81936407,2.2845592,2.7647882,-0.5982064,0.14478673,0.78815353,0
2.0054224,1.8114983,-0.10993993,0.097687766,0.98938251,-0.10760847,0
-4.2701263,1.4995933,-0.964957,-0.79536545,0.012620866,-0.60599887,0
-0.10385704,-1.2767179,3.9620762,-0.5982064,0.14478673,0.78815353,0
0.28185451,2.2127957,2.0150332,0.097687766,0.98938251,-0.10760847,0
1.5530128,1.9134785,0.41699243,0.097687766,0.98938251,-0.10760847,0
3.4254303,-0.4953683,2.0945251,0.79536545,-0.012620866,0.60599887,0
2.7572813,-0.57029212,-1.6088314,0.5982064,-0.14478673,-0.78815353,0
4.5049477,-1.7088901,-0.073192358,0.5982064,-0.14478673,-0.78815353,0
-4.7931385,2.0948548,-0.26611328,-0.79536545,0.012620866,-0.60599887,0
-2.7250319,1.4755195,-2.993376,-0.79536545,0.012620866,-0.60599887,0
-2.017972,-1.9574568,-1.2434356,-0.097687766,-0.98938251,0.10760847,0
-3.0405159,-1.9471731,-2.0771589,-0.097687766,-0.98938251,0.10760847,0
-1.6795807,1.8835919,-2.7923644,0.097687766,0.98938251,-0.10760847,0
4.52455,0.84719157,-0.52787614,0.5982064,-0.14478673,-0.78815353,0
0.48623848,-2.3529475,-2.6063483,-0.097687766,-0.98938251,0.10760847,0
3.3939519,-2.0690613,-0.85027039,0.5982064,-0.14478673,-0.78815353,0
0.15343714,-0.65192199,-3.5701463,0.5982064,-0.14478673,-0.78815353,0
-2.1080434,1.4458854,1.9407514,-0.5982064,0.14478673,0.78815353,0
-0.17395559,1.9654393,-0.67302072,0.097687766,0.98938251,-0.10760847,0
-3.3502097,1.4800286,-2.1727431,-0.79536545,0.012620866,-0.60599887,0
3.774416,-0.86934996,1.6286967,0.79536545,-0.012620866,0.60599887,0
1.3588284,2.1528332,2.4414034,0.097687766,0.98938251,-0.10760847,0
-0.17537403,1.3817188,-4.1933012,0.5982064,-0.14478673,-0.78815353,0
-4.6211448,2.412796,-0.48523164,-0.79536545,0.012620866,-0.60599887,0
-3.5555849,-1.8139766,-1.3200955,-0.097687766,-0.98938251,0.10760847,0
4.8281608,-1.8942099,0.22432613,0.79536545,-0.012620866,0.60599887,0
2.2363453,0.51011705,3.6761241,0.79536545,-0.012620866,0.60599887,0
0.24464345,1.7305951,-2.4522333,0.097687766,0.98938251,-0.10760847,0
0.21662259,0.65333372,3.8507617,-0.5982064,0.14478673,0.78815353,0
-4.4407959,-0.064002633,-0.77352095,-0.79536545,0.012620866,-0.60599887,0
-0.24482489,2.3711896,3.1849473,-0.5982064,0.14478673,0.78815353,0
1.4233619,-0.9899075,-2.5441875,0.5982064,-0.14478673,-0.78815353,0
-4.1725373,-0.11226214,-1.1266112,-0.79536545,0.012620866,-0.60599887,0
3.8760777,-0.80268997,1.4966555,0.79536545,-0.012620866,0.60599887,0
2.1359103,-1.833302,3.669003,-0.097687766,-0.98938251,0.10760847,0
1.3637991,0.43724412,4.7611618,-0.5982064,0.14478673,0.78815353,0
-0.25546956,-1.2617081,3.8442452,-0.5982064,0.14478673,0.78815353,0
1.3546877,-1.6875823,4.2995934,-0.097687766,-0.98938251,0.10760847,0
1.6734197,1.6589262,-1.8141249,0.097687766,0.98938251,-0.10760847,0
2.0185742,-0.31227189,3.9448185,0.79536545,-0.012620866,0.60599887,0
3.7493706,-0.75208366,1.6640108,0.79536545,-0.012620866,0.60599887,0
-0.52643871,-0.86536944,3.5657716,-0.5982064,0.14478673,0.78815353,0
-1.530373,-1.6780417,1.7682334,-0.097687766,-0.98938251,0.10760847,0
3.6139286,0.22761488,-1.1052166,0.5982064,-0.14478673,-0.78815353,0
3.1771002,-0.049491793,2.4297404,0.79536545,-0.012620866,0.60599887,0
-2.85218,-2.0360465,-2.723314,-0.097687766,-0.98938251,0.10760847,0
-0.84405971,-0.80018371,-4.3000078,0.5982064,-0.14478673,-0.78815353,0
1.5793791,2.2848125,4.5753436,0.79536545,-0.012620866,0.60599887,0
-0.48146081,1.3301622,-4.4161491,0.5982064,-0.14478673,-0.78815353,0
1.8420205,-1.8604066,3.1530015,-0.097687766,-0.98938251,0.10760847,0
-3.2460101,1.7722787,1.0170777,-0.5982064,0.14478673,0.78815353,0
2.4680281,-0.16672981,3.3579476,0.79536545,-0.012620866,0.60599887,0
0.54369378,1.567872,-3.6768749,0.097687766,0.98938251,-0.10760847,0
2.599272,1.9031345,3.2287993,0.79536545,-0.012620866,0.60599887,0
-1.5169954,-1.732909,1.2759097,-0.097687766,-0.98938251,0.10760847,0
4.0007658,0.86374807,-0.92846811,0.5982064,-0.14478673,-0.78815353,0
-4.6936674,-0.70509762,-0.4549818,-0.79536545,0.012620866,-0.60599887,0
-3.4806564,1.3086791,0.92414713,-0.5982064,0.14478673,0.78815353,0
3.0495372,-1.4045943,2.568943,0.79536545,-0.012620866,0.60599887,0
2.1975241,1.5798664,3.7493548,0.79536545,-0.012620866,0.60599887,0
2.905968,-0.49362755,-1.510062,0.5982064,-0.14478673,-0.78815353,0
3.0278969,-0.55502939,2.6150393,0.79536545,-0.012620866,0.60599887,0
-0.27421379,-2.1511528,-1.441334,-0.097687766,-0.98938251,0.10760847,0
-2.9833939,-1.9114666,-1.6970079,-0.097687766,-0.98938251,0.10760847,0
3.1552744,1.3938968,2.4884477,0.79536545,-0.012620866,0.60599887,0
-1.5398366,0.42798078,-4.5707445,-0.79536545,0.012620866,-0.60599887,0
0.38117212,2.0523748,0.63023883,0.097687766,0.98938251,-0.10760847,0
4.1183176,-1.1029361,1.1724656,0.79536545,-0.012620866,0.60599887,0
0.53820443,-1.7307138,3.1618152,-0.097687766,-0.98938251,0.10760847,0
0.34897465,-1.9561241,0.91755003,-0.097687766,-0.98938251,0.10760847,0
-2.1978712,-1.8214607,-3.753932,-0.79536545,0.012620866,-0.60599887,0
2.4248269,-2.1205306,-1.5763788,0.5982064,-0.14478673,-0.78815353,0
3.6978679,1.4903915,1.7783103,0.79536545,-0.012620866,0.60599887,0
-1.975834,2.4172306,1.8451177,0.097687766,0.98938251,-0.10760847,0
4.8998384,-0.31770781,-0.029036283,0.5982064,-0.14478673,-0.78815353,0
-1.0622427,-0.25192451,-4.5663252,0.5982064,-0.14478673,-0.78815353,0
1.2420431,-2.1205928,0.21610904,-0.097687766,-0.98938251,0.10760847,0
-2.6653018,1.3843064,-3.0736704,-0.79536545,0.012620866,-0.60599887,0
2.6800797,0.7998721,3.0997629,0.79536545,-0.012620866,0.60599887,0
-0.48344374,-2.3142314,-3.1306663,-0.097687766,-0.98938251,0.10760847,0
-2.6694887,-0.47660434,-3.1069317,-0.79536545,0.012620866,-0.60599887,0
1.5691205,-1.2740872,-2.3813524,0.5982064,-0.14478673,-0.78815353,0
2.9909868,1.5293652,2.7068944,0.79536545,-0.012620866,0.60599887,0
3.4209042,1.7394605,0.51271105,0.097687766,0.98938251,-0.10760847,0
4.8719416,-0.79165471,0.1898272,0.79536545,-0.012620866,0.60599887,0
4.7243681,0.021828294,-0.22459221,0.5982064,-0.14478673,-0.78815353,0
-2.9541264,-1.5901827,1.2835369,-0.097687766,-0.98938251,0.10760847,0
2.1650863,1.011688,3.7800956,0.79536545,-0.012620866,0.60599887,0
1.0964519,1.48593,-3.2471323,0.5982064,-0.14478673,-0.78815353,0
1.6017563,1.368178,-2.8419759,0.5982064,-0.14478673,-0.78815353,0
3.6424081,-0.33055145,-0.9810636,0.5982064,-0.14478673,-0.78815353,0
-4.6084924,-0.67058933,0.43172121,-0.5982064,0.14478673,0.78815353,0
2.8798454,-0.40652794,-1.5458894,0.5982064,-0.14478673,-0.78815353,0
-3.8138013,1.9788125,-1.5538976,-0.79536545,0.012620866,-0.60599887,0
-2.5569727,1.7560396,-3.2081089,-0.79536545,0.012620866,-0.60599887,0
-1.4437546,-1.5001044,2.9861341,-0.5982064,0.14478673,0.78815353,0
-0.84994912,-1.8062506,1.2071357,-0.097687766,-0.98938251,0.10760847,0
-3.1564043,-1.409833,1.6696543,-0.5982064,0.14478673,0.78815353,0
-0.089951515,1.7550557,-2.5310855,0.097687766,0.98938251,-0.10760847,0
-0.30496621,-2.3112271,-2.9410169,-0.097687766,-0.98938251,0.10760847,0
-0.11323333,-0.87574244,3.881299,-0.5982064,0.14478673,0.78815353,0
1.4136367,1.0359442,4.6890049,-0.5982064,0.14478673,0.78815353,0
1.880463,0.082135201,-2.3941875,0.5982064,-0.14478673,-0.78815353,0
-1.4377543,1.9845386,-1.6447017,0.097687766,0.98938251,-0.10760847,0
-1.2438307,-0.77963018,3.005522,-0.5982064,0.14478673,0.78815353,0
-1.1045635,-0.23165488,3.0105605,-0.5982064,0.14478673,0.78815353,0
-1.0864763,-2.0245392,-1.0145925,-0.097687766,-0.98938251,0.10760847,0
1.9601279,-0.37241173,4.0202751,0.79536545,-0.012620866,0.60599887,0
-1.289421,-1.6183543,2.535753,-0.097687766,-0.98938251,0.10760847,0
3.6647191,0.45959494,1.8003497,0.79536545,-0.012620866,0.60599887,0
3.0778315,1.7573799,0.36602044,0.097687766,0.98938251,-0.10760847,0
-1.6378375,2.3082213,2.1392221,-0.5982064,0.14478673,0.78815353,0
