0.25586414,0.51481152,-5.1701531,0.2863239,0.23067425,-0.92995071,0
-1.8015145,1.7049617,3.8489304,0.41094244,0.84721577,0.33667758,0
0.52764857,-2.2697108,-0.87293661,-0.41094244,-0.84721577,-0.33667758,0
2.2993529,-3.4518709,-0.060657144,-0.41094244,-0.84721577,-0.33667758,0
-2.5541792,2.886431,-2.760524,-0.8655318,0.47855496,-0.14778429,0
-4.4084764,1.1935198,2.6175976,-0.8655318,0.47855496,-0.14778429,0
4.2771459,-0.68699718,-4.2301431,0.2863239,0.23067425,-0.92995071,0
3.9861119,-2.4918642,-4.3482232,0.8655318,-0.47855496,0.14778429,0
-0.84446597,-1.46576,4.7530451,-0.2863239,-0.23067425,0.92995071,0
4.4280968,1.3465831,-3.6792374,0.2863239,0.23067425,-0.92995071,0
-0.1177175,-1.7548648,4.9050927,-0.2863239,-0.23067425,0.92995071,0
-4.2508144,1.1697577,1.6172705,-0.8655318,0.47855496,-0.14778429,0
-3.8685565,0.79529762,-1.8340853,-0.8655318,0.47855496,-0.14778429,0
-2.9745998,0.23267066,4.5184908,-0.2863239,-0.23067425,0.92995071,0
0.52879572,0.8474679,3.1623945,0.41094244,0.84721577,0.33667758,0
-0.62964714,-0.78621626,-3.1934316,-0.41094244,-0.84721577,-0.33667758,0
4.1986108,-1.600974,-2.7078905,0.8655318,-0.47855496,0.14778429,0
3.8022728,-2.4746914,-3.2159181,0.8655318,-0.47855496,0.14778429,0
2.7626324,-2.5174279,2.7345786,0.8655318,-0.47855496,0.14778429,0
-3.3373449,2.4010458,0.25448382,-0.8655318,0.47855496,-0.14778429,0
-2.4305334,3.1300232,-2.6958828,-0.8655318,0.47855496,-0.14778429,0
-4.5948181,-0.69164795,3.7903624,-0.2863239,-0.23067425,0.92995071,0
2.4699168,-3.3021319,1.907904,0.8655318,-0.47855496,0.14778429,0
-5.3721733,-0.475061,2.8585067,-0.8655318,0.47855496,-0.14778429,0
-1.0992001,-1.3179933,4.7112689,-0.2863239,-0.23067425,0.92995071,0
-0.83991039,0.99719214,4.4562459,0.41094244,0.84721577,0.33667758,0
-3.8784561,-0.02021651,4.1774726,-0.2863239,-0.23067425,0.92995071,0
1.1441128,1.5043362,-4.6512184,0.2863239,0.23067425,-0.92995071,0
2.5624547,-1.511294,-4.9625497,0.2863239,0.23067425,-0.92995071,0
-3.0198579,2.0615726,-2.7042289,-0.8655318,0.47855496,-0.14778429,0
3.1792517,-2.1338561,1.5366364,0.8655318,-0.47855496,0.14778429,0
-4.6733398,0.1916405,0.92454267,-0.8655318,0.47855496,-0.14778429,0
-4.2401309,0.31182063,-1.2234731,-0.8655318,0.47855496,-0.14778429,0
1.6119647,1.4302676,-4.5255427,0.2863239,0.23067425,-0.92995071,0
0.080682993,-0.073709249,-5.3700733,0.2863239,0.23067425,-0.92995071,0
-2.4633188,3.5818338,-1.0408144,-0.8655318,0.47855496,-0.14778429,0
1.8745055,-3.1957095,5.1610789,-0.2863239,-0.23067425,0.92995071,0
-2.4229412,1.1453702,-5.8385258,0.2863239,0.23067425,-0.92995071,0
-0.52214646,1.0572437,-5.2751465,0.2863239,0.23067425,-0.92995071,0
4.2518539,-0.73586231,-0.21831751,0.8655318,-0.47855496,0.14778429,0
-0.11234856,-3.5295947,3.0786054,-0.41094244,-0.84721577,-0.33667758,0
-1.3427366,-2.3113837,1.5148864,-0.41094244,-0.84721577,-0.33667758,0
3.5557842,-0.98323357,3.057332,0.8655318,-0.47855496,0.14778429,0
0.49552429,3.0012593,-2.216799,0.41094244,0.84721577,0.33667758,0
3.087554,-2.2392058,1.7325399,0.8655318,-0.47855496,0.14778429,0
-1.0894792,1.6602687,-5.3002434,0.2863239,0.23067425,-0.92995071,0
3.007241,-0.55888349,-4.5893579,0.2863239,0.23067425,-0.92995071,0
1.3100305,-3.8736176,2.2081754,-0.41094244,-0.84721577,-0.33667758,0
2.2068033,2.7179873,-3.5927277,0.41094244,0.84721577,0.33667758,0
-1.4497535,3.8161931,-1.8931297,0.41094244,0.84721577,0.33667758,0
5.2276063,1.0603746,-3.5040693,0.2863239,0.23067425,-0.92995071,0
-1.6971004,-1.4215852,-0.29167426,-0.41094244,-0.84721577,-0.33667758,0
2.9465351,-2.474169,1.7975917,0.8655318,-0.47855496,0.14778429,0
-3.9457479,-1.8071332,3.4231772,-0.41094244,-0.84721577,-0.33667758,0
-3.1395988,2.5224988,-0.51036996,-0.8655318,0.47855496,-0.14778429,0
0.30424416,1.0497659,-5.022562,0.2863239,0.23067425,-0.92995071,0
-3.8164353,0.97933793,-1.543391,-0.8655318,0.47855496,-0.14778429,0
3.7548423,0.48171559,-4.1010575,0.2863239,0.23067425,-0.92995071,0
-0.051237822,-3.4947004,4.4939952,-0.2863239,-0.23067425,0.92995071,0
-1.7897141,-2.8984365,3.5377197,-0.41094244,-0.84721577,-0.33667758,0
2.0675731,-3.4064896,3.9263895,0.8655318,-0.47855496,0.14778429,0
2.717721,1.4998326,-1.1509783,0.41094244,0.84721577,0.33667758,0
2.5896287,-2.4522498,3.9588706,0.8655318,-0.47855496,0.14778429,0
-2.8982677,1.6202849,-4.8453283,-0.8655318,0.47855496,-0.14778429,0
-0.50617707,-1.5821034,-1.3413649,-0.41094244,-0.84721577,-0.33667758,0
1.9756367,-0.1243813,3.8419709,0.41094244,0.84721577,0.33667758,0
2.3920467,0.36670637,2.0979342,0.41094244,0.84721577,0.33667758,0
3.7660425,-1.5760181,-0.093644738,0.8655318,-0.47855496,0.14778429,0
1.759449,-1.6556586,5.5076652,-0.2863239,-0.23067425,0.92995071,0
-3.9642885,1.7831918,1.9255896,-0.8655318,0.47855496,-0.14778429,0
4.284873,-0.46954679,0.45068479,0.8655318,-0.47855496,0.14778429,0
-3.0256667,1.4226985,-4.7390103,-0.8655318,0.47855496,-0.14778429,0
-0.35595036,1.9988545,-4.9904079,0.2863239,0.23067425,-0.92995071,0
-0.25984359,2.5370784,-4.8273129,0.2863239,0.23067425,-0.92995071,0
2.8036008,-1.7947466,4.8348246,0.8655318,-0.47855496,0.14778429,0
-0.54685909,-2.6357467,1.3596805,-0.41094244,-0.84721577,-0.33667758,0
3.0679903,0.34093493,-4.3474541,0.2863239,0.23067425,-0.92995071,0
2.5798483,-2.1749115,4.9142323,0.8655318,-0.47855496,0.14778429,0
-4.1104603,-1.0665926,3.846487,-0.2863239,-0.23067425,0.92995071,0
4.9271288,0.62288129,-1.6409788,0.41094244,0.84721577,0.33667758,0
-3.2363977,1.708042,-2.5808167,-0.8655318,0.47855496,-0.14778429,0
4.5962186,-0.57713228,-1.7211649,0.8655318,-0.47855496,0.14778429,0
-2.9388859,-0.41262257,-1.314929,-0.41094244,-0.84721577,-0.33667758,0
1.5105972,-3.7710948,1.7053788,-0.41094244,-0.84721577,-0.33667758,0
-4.9885139,0.16086042,2.6707616,-0.8655318,0.47855496,-0.14778429,0
-1.9588423,2.9802167,-5.240499,0.2863239,0.23067425,-0.92995071,0
-3.9444439,1.3433421,4.4953861,-0.2863239,-0.23067425,0.92995071,0
2.5319357,0.65433705,1.2033942,0.41094244,0.84721577,0.33667758,0
2.2597156,-3.6219034,2.1035113,0.8655318,-0.47855496,0.14778429,0
-1.1826005,1.8253567,-5.2879639,0.2863239,0.23067425,-0.92995071,0
-2.3556945,-0.33257866,-2.2281835,-0.41094244,-0.84721577,-0.33667758,0
-0.22706485,-2.5191426,4.6818466,-0.2863239,-0.23067425,0.92995071,0
2.7785492,-2.0819025,4.0516787,0.8655318,-0.47855496,0.14778429,0
-1.9320385,-2.1144469,1.7386053,-0.41094244,-0.84721577,-0.33667758,0
2.4483819,-3.5780575,0.07497701,-0.41094244,-0.84721577,-0.33667758,0
-2.0263362,-0.9637689,4.5136771,-0.2863239,-0.23067425,0.92995071,0
-3.8810818,1.4400442,0.32708812,-0.8655318,0.47855496,-0.14778429,0
-0.94536781,3.1953321,-0.94643682,0.41094244,0.84721577,0.33667758,0
-3.0730147,1.7212636,-3.4948907,-0.8655318,0.47855496,-0.14778429,0
-1.4487417,3.3837724,-0.8062197,0.41094244,0.84721577,0.33667758,0
2.8141551,-2.8461812,1.3682537,0.8655318,-0.47855496,0.14778429,0
2.3039284,1.4234526,-4.3141832,0.2863239,0.23067425,-0.92995071,0
1.7517574,0.63803697,2.1966829,0.41094244,0.84721577,0.33667758,0
0.41197348,3.519881,-3.4198782,0.41094244,0.84721577,0.33667758,0
-0.36308801,0.10688329,5.2913527,-0.2863239,-0.23067425,0.92995071,0
0.11183596,-1.9684813,4.9227819,-0.2863239,-0.23067425,0.92995071,0
1.401382,3.0961242,-3.5611901,0.41094244,0.84721577,0.33667758,0
4.4796057,-0.72863567,-1.5287962,0.8655318,-0.47855496,0.14778429,0
-0.37526703,-3.8505106,4.3059697,-0.2863239,-0.23067425,0.92995071,0
2.1759348,-1.5046664,5.6733503,-0.2863239,-0.23067425,0.92995071,0
2.7893536,-0.95617062,-4.7549915,0.2863239,0.23067425,-0.92995071,0
4.4299035,0.086202502,0.31642461,0.41094244,0.84721577,0.33667758,0
4.4232159,1.2882121,-2.7001519,0.41094244,0.84721577,0.33667758,0
1.6874912,1.7472812,-0.51617861,0.41094244,0.84721577,0.33667758,0
-5.222177,-0.84302866,3.5596533,-0.2863239,-0.23067425,0.92995071,0
-3.1178966,3.113843,1.2774189,-0.8655318,0.47855496,-0.14778429,0
1.1118054,-0.9620415,-4.8765697,-0.41094244,-0.84721577,-0.33667758,0
2.8201344,1.1355233,-0.35923433,0.41094244,0.84721577,0.33667758,0
0.075026989,3.5507689,-3.0863342,0.41094244,0.84721577,0.33667758,0
2.5482526,-1.4592543,5.7992482,-0.2863239,-0.23067425,0.92995071,0
-3.7339084,2.5417504,3.0326786,-0.8655318,0.47855496,-0.14778429,0
2.0441523,-3.721776,3.042599,0.8655318,-0.47855496,0.14778429,0
0.9287343,-3.1541455,4.8801937,-0.2863239,-0.23067425,0.92995071,0
-2.8148651,2.2790954,-3.2004333,-0.8655318,0.47855496,-0.14778429,0
4.3153868,-0.94055355,-1.2532399,0.8655318,-0.47855496,0.14778429,0
4.401516,-0.57139516,-0.56227064,0.8655318,-0.47855496,0.14778429,0
2.1500649,-3.0993903,4.4377027,0.8655318,-0.47855496,0.14778429,0
2.2588215,-3.8441696,1.3890011,0.8655318,-0.47855496,0.14778429,0
-1.1490321,-3.0378547,3.1065469,-0.41094244,-0.84721577,-0.33667758,0
-4.0975523,1.9059957,3.1037416,-0.8655318,0.47855496,-0.14778429,0
-5.4750738,-0.87980849,2.9563236,-0.41094244,-0.84721577,-0.33667758,0
-1.2596339,-2.4267592,4.3868423,-0.2863239,-0.23067425,0.92995071,0
2.9149084,-2.4904366,1.9301404,0.8655318,-0.47855496,0.14778429,0
-2.9069467,2.0853925,-3.2883859,-0.8655318,0.47855496,-0.14778429,0
-4.09161,-0.23931468,-0.34404719,-0.41094244,-0.84721577,-0.33667758,0
-2.3078363,-2.0663848,2.0763538,-0.41094244,-0.84721577,-0.33667758,0
4.0092764,-1.2576902,-0.48738861,0.8655318,-0.47855496,0.14778429,0
1.11991,2.0385795,-4.5261502,0.2863239,0.23067425,-0.92995071,0
-0.062157869,-3.8607264,3.850605,-0.41094244,-0.84721577,-0.33667758,0
0.55967641,2.9035058,-4.4840965,0.2863239,0.23067425,-0.92995071,0
1.6038275,-1.627618,5.4667053,-0.2863239,-0.23067425,0.92995071,0
-3.3013005,-1.528473,1.9353557,-0.41094244,-0.84721577,-0.33667758,0
1.0294642,2.0646403,-0.51160634,0.41094244,0.84721577,0.33667758,0
1.1800586,3.4060912,-4.0710478,0.41094244,0.84721577,0.33667758,0
0.046596646,-0.51886261,-4.6916113,-0.41094244,-0.84721577,-0.33667758,0
-3.9690385,0.82102048,-1.1622972,-0.8655318,0.47855496,-0.14778429,0
1.1417191,-0.32861614,-5.1066189,0.2863239,0.23067425,-0.92995071,0
-0.75508118,3.3531203,-1.5757565,0.41094244,0.84721577,0.33667758,0
1.9727712,2.6029563,-4.1235681,0.2863239,0.23067425,-0.92995071,0
3.4832377,-2.24068,-0.58964372,0.8655318,-0.47855496,0.14778429,0
1.3155175,-1.9776144,-2.5696273,-0.41094244,-0.84721577,-0.33667758,0
-0.028220177,-2.09693,4.8477979,-0.2863239,-0.23067425,0.92995071,0
-2.0555506,3.0786216,-5.0585012,-0.8655318,0.47855496,-0.14778429,0
4.0531902,0.42852187,-0.08517909,0.41094244,0.84721577,0.33667758,0
-4.4758701,0.95904493,2.2530274,-0.8655318,0.47855496,-0.14778429,0
2.5252037,-3.3162813,1.5382857,0.8655318,-0.47855496,0.14778429,0
3.7294044,-2.4561005,-2.7289486,0.8655318,-0.47855496,0.14778429,0
-2.7036731,0.045426309,4.5554614,-0.2863239,-0.23067425,0.92995071,0
-5.1827631,-0.6534605,3.6188111,-0.2863239,-0.23067425,0.92995071,0
2.4624388,0.66044307,1.2728553,0.41094244,0.84721577,0.33667758,0
0.098169327,-0.90666485,5.1819587,-0.2863239,-0.23067425,0.92995071,0
-0.12039161,-3.8627639,3.9268103,-0.41094244,-0.84721577,-0.33667758,0
0.25766706,-1.8407359,4.9993691,-0.2863239,-0.23067425,0.92995071,0
-2.2966537,3.7916806,-1.3374009,-0.8655318,0.47855496,-0.14778429,0
-3.0268312,-2.0806599,3.9285874,-0.2863239,-0.23067425,0.92995071,0
2.3501554,-3.3634458,2.4107695,0.8655318,-0.47855496,0.14778429,0
-4.003726,1.1617501,0.14420807,-0.8655318,0.47855496,-0.14778429,0
2.4759169,-2.544292,4.3268003,0.8655318,-0.47855496,0.14778429,0
-2.2491045,-2.5725145,4.0460391,-0.2863239,-0.23067425,0.92995071,0
2.6945262,-2.8285577,2.1259565,0.8655318,-0.47855496,0.14778429,0
-3.2668037,0.5215044,4.5001688,-0.2863239,-0.23067425,0.92995071,0
5.2862401,0.54089546,-2.1420341,0.8655318,-0.47855496,0.14778429,0
-2.8261721,-1.960907,4.0200739,-0.2863239,-0.23067425,0.92995071,0
-0.26564264,-3.5718474,4.4088454,-0.2863239,-0.23067425,0.92995071,0
-0.98314691,-0.46568799,4.9584146,-0.2863239,-0.23067425,0.92995071,0
-1.476583,4.3905687,-4.2010131,-0.8655318,0.47855496,-0.14778429,0
-1.2502462,2.0487335,2.3109941,0.41094244,0.84721577,0.33667758,0
4.2261901,-1.6919272,-3.1639395,0.8655318,-0.47855496,0.14778429,0
0.37664956,1.5162739,1.6651171,0.41094244,0.84721577,0.33667758,0
-0.67216754,3.3805776,-4.7450333,0.2863239,0.23067425,-0.92995071,0
0.31175637,1.9834876,-4.78864,0.2863239,0.23067425,-0.92995071,0
0.42339468,-2.0653942,4.9946699,-0.2863239,-0.23067425,0.92995071,0
-2.6003637,2.1887579,3.606565,0.41094244,0.84721577,0.33667758,0
2.2971849,-3.8637652,1.1008666,0.8655318,-0.47855496,0.14778429,0
-3.0608525,1.2997063,4.7566128,-0.2863239,-0.23067425,0.92995071,0
-2.4212978,0.62224364,4.7854824,-0.2863239,-0.23067425,0.92995071,0
-1.7099581,3.0980289,0.2316615,0.41094244,0.84721577,0.33667758,0
2.2643845,2.1045716,-2.1194103,0.41094244,0.84721577,0.33667758,0
2.2904611,-3.717226,1.6147702,0.8655318,-0.47855496,0.14778429,0
-3.8658988,-1.2084038,1.8190711,-0.41094244,-0.84721577,-0.33667758,0
-1.8315845,3.9608414,-3.5134048,-0.8655318,0.47855496,-0.14778429,0
-2.3109467,-2.4113908,2.9483237,-0.41094244,-0.84721577,-0.33667758,0
3.1617544,-2.1478505,-4.3947272,-0.41094244,-0.84721577,-0.33667758,0
5.2765923,0.17239201,-3.2788229,0.8655318,-0.47855496,0.14778429,0
-0.58440471,-0.73265696,-3.3834302,-0.41094244,-0.84721577,-0.33667758,0
2.0705378,-3.3255863,-0.099152744,-0.41094244,-0.84721577,-0.33667758,0
-1.4057546,-1.9245956,0.61849058,-0.41094244,-0.84721577,-0.33667758,0
3.4897072,1.2097685,-4.0020967,0.2863239,0.23067425,-0.92995071,0
5.1360846,0.23576349,-2.2506895,0.8655318,-0.47855496,0.14778429,0
4.6158214,-0.16206181,-0.49189353,0.8655318,-0.47855496,0.14778429,0
-3.1214614,2.5115433,-0.65206814,-0.8655318,0.47855496,-0.14778429,0
3.0227079,-1.3115681,5.1162014,0.8655318,-0.47855496,0.14778429,0
-3.8586113,2.2075524,2.6808288,-0.8655318,0.47855496,-0.14778429,0
-1.6031179,3.9711258,-4.8181682,-0.8655318,0.47855496,-0.14778429,0
3.0528402,-3.0301533,-0.62539709,0.8655318,-0.47855496,0.14778429,0
-3.301147,1.6902919,-2.2590761,-0.8655318,0.47855496,-0.14778429,0
-0.73931968,-2.9110212,4.4269214,-0.2863239,-0.23067425,0.92995071,0
-3.0819869,2.8819408,0.31616056,-0.8655318,0.47855496,-0.14778429,0
0.8819418,-3.1331236,4.8710027,-0.2863239,-0.23067425,0.92995071,0
3.1380715,-1.6309944,3.4061837,0.8655318,-0.47855496,0.14778429,0
-1.4270711,0.52819192,5.0682664,-0.2863239,-0.23067425,0.92995071,0
3.3155837,1.697432,-2.3779583,0.41094244,0.84721577,0.33667758,0
4.1296148,0.45691955,-0.24992156,0.41094244,0.84721577,0.33667758,0
-1.0026,2.1678305,-5.1475921,0.2863239,0.23067425,-0.92995071,0
-1.6483984,-0.85266441,4.6576009,-0.2863239,-0.23067425,0.92995071,0
2.4297991,-1.6947675,5.7043581,-0.2863239,-0.23067425,0.92995071,0
-5.1392241,-0.44604981,1.5881281,-0.8655318,0.47855496,-0.14778429,0
0.47323418,0.0016515255,5.3586268,0.41094244,0.84721577,0.33667758,0
2.3832803,-2.8525479,3.8711524,0.8655318,-0.47855496,0.14778429,0
4.5342331,-1.1642672,-3.259397,0.8655318,-0.47855496,0.14778429,0
1.3532033,-2.6997957,5.1235862,-0.2863239,-0.23067425,0.92995071,0
1.523545,-1.8818709,-3.0644705,-0.41094244,-0.84721577,-0.33667758,0
-0.04862988,-0.68135083,-4.1664944,-0.41094244,-0.84721577,-0.33667758,0
-1.6603665,3.7379367,-4.9606485,0.2863239,0.23067425,-0.92995071,0
2.6364393,-2.699069,2.8854637,0.8655318,-0.47855496,0.14778429,0
-1.2223138,-2.3472619,1.4581842,-0.41094244,-0.84721577,-0.33667758,0
0.69423318,-3.2464573,4.7850962,-0.2863239,-0.23067425,0.92995071,0
4.6741371,0.094064832,-0.0040419102,0.8655318,-0.47855496,0.14778429,0
-0.74182618,-3.2414804,4.3441796,-0.2863239,-0.23067425,0.92995071,0
-4.4649768,0.72906458,4.1827483,-0.2863239,-0.23067425,0.92995071,0
4.4173861,-0.46703863,-0.31728458,0.8655318,-0.47855496,0.14778429,0
4.839788,-0.60027528,-3.2226257,0.8655318,-0.47855496,0.14778429,0
2.630506,0.56174648,1.3160764,0.41094244,0.84721577,0.33667758,0
-3.5702341,1.8324453,-0.22278869,-0.8655318,0.47855496,-0.14778429,0
-2.7964096,1.8380805,-4.7366199,-0.8655318,0.47855496,-0.14778429,0
1.5867523,0.49905032,-4.7642937,0.2863239,0.23067425,-0.92995071,0
3.5891285,-1.6883613,0.57870078,0.8655318,-0.47855496,0.14778429,0
-3.3444891,-0.26161027,-1.1998649,-0.41094244,-0.84721577,-0.33667758,0
1.2192974,-1.2614595,5.4391379,-0.2863239,-0.23067425,0.92995071,0
-2.4421616,3.0629125,-2.8450952,-0.8655318,0.47855496,-0.14778429,0
4.3393583,0.11332881,0.3586818,0.41094244,0.84721577,0.33667758,0
3.2410502,-1.263572,3.9928527,0.8655318,-0.47855496,0.14778429,0
3.3188434,-1.9112382,1.439966,0.8655318,-0.47855496,0.14778429,0
-2.9450784,1.4711888,-5.0539742,-0.8655318,0.47855496,-0.14778429,0
-4.8482103,0.4125711,2.6641316,-0.8655318,0.47855496,-0.14778429,0
-0.97655797,2.9577425,-0.31049609,0.41094244,0.84721577,0.33667758,0
2.4628568,-2.6400828,4.0931015,0.8655318,-0.47855496,0.14778429,0
-1.1324629,0.81864738,5.2310209,-0.2863239,-0.23067425,0.92995071,0
-0.19533753,-3.1714151,4.5298185,-0.2863239,-0.23067425,0.92995071,0
3.674866,-2.7265975,-3.2854581,0.8655318,-0.47855496,0.14778429,0
0.2498343,-0.45624983,5.3403792,-0.2863239,-0.23067425,0.92995071,0
3.1675012,1.3967209,-4.0549269,0.2863239,0.23067425,-0.92995071,0
0.31649566,-2.8191378,4.7747912,-0.2863239,-0.23067425,0.92995071,0
-1.5187502,-1.6166189,-0.018582225,-0.41094244,-0.84721577,-0.33667758,0
2.5942619,1.5183131,-4.201262,0.2863239,0.23067425,-0.92995071,0
3.5850604,0.25539672,0.92186368,0.41094244,0.84721577,0.33667758,0
1.6378205,-0.46368456,5.1081266,0.41094244,0.84721577,0.33667758,0
-0.4291997,2.7668371,-4.822464,0.2863239,0.23067425,-0.92995071,0
-0.78443766,4.0279732,-4.6190143,0.2863239,0.23067425,-0.92995071,0
-1.9903147,0.53581786,-4.8593941,-0.41094244,-0.84721577,-0.33667758,0
2.8054194,-2.38451,2.9144006,0.8655318,-0.47855496,0.14778429,0
4.1776991,-0.69091165,0.36154795,0.8655318,-0.47855496,0.14778429,0
0.47793198,-1.0102282,5.2731962,-0.2863239,-0.23067425,0.92995071,0
2.5054522,-3.3360515,1.5899467,0.8655318,-0.47855496,0.14778429,0
-1.9574013,4.1439867,-2.0983634,0.41094244,0.84721577,0.33667758,0
-1.0144153,3.9887519,-4.6995502,0.2863239,0.23067425,-0.92995071,0
-4.8596163,0.66664732,3.5536823,-0.8655318,0.47855496,-0.14778429,0
4.7512903,0.87081712,-2.0502601,0.41094244,0.84721577,0.33667758,0
0.11934686,3.0862093,-1.9714119,0.41094244,0.84721577,0.33667758,0
3.7834067,-1.5938395,-0.25305128,0.8655318,-0.47855496,0.14778429,0
1.8901148,-3.8014021,3.6869087,0.8655318,-0.47855496,0.14778429,0
0.43646145,3.5810828,-4.353961,0.2863239,0.23067425,-0.92995071,0
3.9230967,-1.396131,-4.5150533,0.2863239,0.23067425,-0.92995071,0
-2.7411413,-0.97580308,-0.13910437,-0.41094244,-0.84721577,-0.33667758,0
-1.6992385,2.7397184,1.1202312,0.41094244,0.84721577,0.33667758,0
0.15432477,1.1957651,-5.032505,0.2863239,0.23067425,-0.92995071,0
-4.3629103,1.6990436,4.4547758,-0.2863239,-0.23067425,0.92995071,0
-2.5949373,2.3983822,-4.1022172,-0.8655318,0.47855496,-0.14778429,0
-0.18261713,-1.7731384,-1.2555757,-0.41094244,-0.84721577,-0.33667758,0
-4.8339415,0.52293336,2.9379392,-0.8655318,0.47855496,-0.14778429,0
2.384654,-3.4156051,2.0398154,0.8655318,-0.47855496,0.14778429,0
2.2151914,-1.2257671,-4.9986444,0.2863239,0.23067425,-0.92995071,0
-3.2741477,2.4913864,3.6674385,0.41094244,0.84721577,0.33667758,0
1.1143045,-1.3512526,-3.9002085,-0.41094244,-0.84721577,-0.33667758,0
3.7718711,0.80428302,-0.68737221,0.41094244,0.84721577,0.33667758,0
-0.81466943,1.9701898,1.9769849,0.41094244,0.84721577,0.33667758,0
4.397109,-1.2183989,-4.3250222,0.2863239,0.23067425,-0.92995071,0
1.8916876,1.9810913,-1.3537774,0.41094244,0.84721577,0.33667758,0
-3.1256778,-1.7329301,2.2354898,-0.41094244,-0.84721577,-0.33667758,0
-2.8150845,-0.28501818,4.4391913,-0.2863239,-0.23067425,0.92995071,0
1.095787,-1.9094299,-2.4730086,-0.41094244,-0.84721577,-0.33667758,0
5.4063749,1.0902071,-3.4416275,0.2863239,0.23067425,-0.92995071,0
0.67623782,3.4283934,-4.3180099,0.2863239,0.23067425,-0.92995071,0
-0.4822408,1.6485513,2.3805997,0.41094244,0.84721577,0.33667758,0
-4.3704686,0.28054306,4.1005898,-0.2863239,-0.23067425,0.92995071,0
-4.3198872,1.4942808,3.0726819,-0.8655318,0.47855496,-0.14778429,0
-3.3418572,-1.5742348,3.9572129,-0.2863239,-0.23067425,0.92995071,0
3.8067153,-1.5460584,-0.23484111,0.8655318,-0.47855496,0.14778429,0
0.26215935,-3.1169567,1.5831254,-0.41094244,-0.84721577,-0.33667758,0
0.32464623,-0.40717614,-5.3120422,-0.41094244,-0.84721577,-0.33667758,0
-4.2957115,-0.52524114,0.62458038,-0.41094244,-0.84721577,-0.33667758,0
-2.402401,-1.258383,4.324811,-0.2863239,-0.23067425,0.92995071,0
1.9377189,-3.4831562,4.4386473,0.8655318,-0.47855496,0.14778429,0
1.0084414,-1.7754246,5.2467275,-0.2863239,-0.23067425,0.92995071,0
4.3640876,-0.35338032,0.36291373,0.8655318,-0.47855496,0.14778429,0
-0.59104371,-2.8456926,4.4887791,-0.2863239,-0.23067425,0.92995071,0
2.3157372,-1.4690089,5.7252393,-0.2863239,-0.23067425,0.92995071,0
1.0489388,-2.7289598,5.0226712,-0.2863239,-0.23067425,0.92995071,0
-3.2087557,0.43611622,-3.1212986,-0.41094244,-0.84721577,-0.33667758,0
3.3856111,-1.1624813,3.4735513,0.8655318,-0.47855496,0.14778429,0
-0.94661421,-2.9133875,2.5462706,-0.41094244,-0.84721577,-0.33667758,0
-1.5740857,0.10147727,4.9171543,-0.2863239,-0.23067425,0.92995071,0
-2.2835693,1.8888755,3.9745169,0.41094244,0.84721577,0.33667758,0
-1.8106642,2.0707881,-5.4204597,0.2863239,0.23067425,-0.92995071,0
0.96104681,0.45205808,3.6298075,0.41094244,0.84721577,0.33667758,0
0.33389735,-2.0814486,4.9631314,-0.2863239,-0.23067425,0.92995071,0
2.6451967,0.94696426,0.32878226,0.41094244,0.84721577,0.33667758,0
2.1896396,1.5830247,-4.3097906,0.2863239,0.23067425,-0.92995071,0
-3.5784025,1.2127439,-2.1816616,-0.8655318,0.47855496,-0.14778429,0
0.25185061,-1.9880202,4.9610462,-0.2863239,-0.23067425,0.92995071,0
4.3094215,-1.6183832,-3.4132552,0.8655318,-0.47855496,0.14778429,0
0.23685336,1.7667333,-4.8654671,0.2863239,0.23067425,-0.92995071,0
1.0249975,0.70942056,2.9041233,0.41094244,0.84721577,0.33667758,0
0.50382137,-3.53193,4.6556573,-0.2863239,-0.23067425,0.92995071,0
-3.1703448,2.3303537,-0.95250177,-0.8655318,0.47855496,-0.14778429,0
-1.7030925,0.28276837,4.9224048,-0.2863239,-0.23067425,0.92995071,0
-4.475121,-1.3719763,2.9742904,-0.41094244,-0.84721577,-0.33667758,0
-4.2306609,0.19431484,-1.2655103,-0.41094244,-0.84721577,-0.33667758,0
-0.85898066,-0.87012482,-2.7023635,-0.41094244,-0.84721577,-0.33667758,0
5.4576159,0.51376176,-3.2336006,0.8655318,-0.47855496,0.14778429,0
-1.1080579,-2.3861971,1.4167027,-0.41094244,-0.84721577,-0.33667758,0
4.217977,-1.9793497,-4.0465698,0.8655318,-0.47855496,0.14778429,0
-0.84181058,1.9503623,2.0600066,0.41094244,0.84721577,0.33667758,0
0.093165874,-2.093019,4.8861432,-0.2863239,-0.23067425,0.92995071,0
-5.2402911,-0.18816435,3.0151367,-0.8655318,0.47855496,-0.14778429,0
2.8679636,1.2456911,-0.694839,0.41094244,0.84721577,0.33667758,0
-1.8120704,3.2387524,0.002181083,0.41094244,0.84721577,0.33667758,0
4.4381199,-0.44297937,-4.1200523,0.2863239,0.23067425,-0.92995071,0
-2.3083673,1.5285709,-5.7081957,0.2863239,0.23067425,-0.92995071,0
-0.26889431,0.36617911,5.3471575,0.41094244,0.84721577,0.33667758,0
1.4940197,0.9231503,-4.6876478,0.2863239,0.23067425,-0.92995071,0
3.6832252,-1.9185846,-0.71790648,0.8655318,-0.47855496,0.14778429,0
-1.2001951,1.7388933,-5.3148289,0.2863239,0.23067425,-0.92995071,0
0.83352637,1.9684961,-0.030510604,0.41094244,0.84721577,0.33667758,0
-0.46897233,-0.62118614,5.0781536,-0.2863239,-0.23067425,0.92995071,0
-4.2262869,2.0479462,4.317368,-0.8655318,0.47855496,-0.14778429,0
4.0002661,-2.2953658,-3.7948217,0.8655318,-0.47855496,0.14778429,0
-2.2220669,2.7304451,-5.2107277,-0.8655318,0.47855496,-0.14778429,0
-2.6919732,1.9535921,-4.9742193,-0.8655318,0.47855496,-0.14778429,0
-2.7658052,-1.0755875,0.14209819,-0.41094244,-0.84721577,-0.33667758,0
-2.8916473,1.7850577,-4.3505354,-0.8655318,0.47855496,-0.14778429,0
-3.3204479,3.0170133,2.1501527,-0.8655318,0.47855496,-0.14778429,0
-0.56057,0.56422698,-5.4092703,0.2863239,0.23067425,-0.92995071,0
4.241003,-0.79307592,-0.34003711,0.8655318,-0.47855496,0.14778429,0
1.7944469,-3.7503617,4.412488,0.8655318,-0.47855496,0.14778429,0
-0.39886522,3.9933624,-3.6216528,0.41094244,0.84721577,0.33667758,0
2.1428623,-0.89183521,5.5690804,0.41094244,0.84721577,0.33667758,0
-4.2923174,0.14611214,4.0913062,-0.2863239,-0.23067425,0.92995071,0
-3.5199714,1.2451876,-2.418818,-0.8655318,0.47855496,-0.14778429,0
-3.6173401,2.0072656,0.61920273,-0.8655318,0.47855496,-0.14778429,0
-3.9710732,0.50543261,-2.1723115,-0.8655318,0.47855496,-0.14778429,0
-3.2364063,-0.052776575,-1.8572983,-0.41094244,-0.84721577,-0.33667758,0
-0.60122579,-2.6987963,1.5846975,-0.41094244,-0.84721577,-0.33667758,0
1.5149975,-4.1745033,4.6756911,0.8655318,-0.47855496,0.14778429,0
2.8598256,-2.3420351,2.7333026,0.8655318,-0.47855496,0.14778429,0
-2.8599572,-2.0355511,2.6726723,-0.41094244,-0.84721577,-0.33667758,0
-3.7617121,-1.0058993,3.9689198,-0.2863239,-0.23067425,0.92995071,0
-1.4109943,1.1439326,-5.5273123,0.2863239,0.23067425,-0.92995071,0
-2.133836,2.6697929,1.8266532,0.41094244,0.84721577,0.33667758,0
-1.7956114,0.54089999,-5.1098347,-0.41094244,-0.84721577,-0.33667758,0
4.2119918,-1.9955393,-4.06394,0.8655318,-0.47855496,0.14778429,0
-0.037744045,-0.48948252,5.2435946,-0.2863239,-0.23067425,0.92995071,0
-4.4210525,-0.75487316,3.8281803,-0.2863239,-0.23067425,0.92995071,0
0.78014547,1.2240793,1.9078966,0.41094244,0.84721577,0.33667758,0
-2.0151525,0.89248717,4.9775643,-0.2863239,-0.23067425,0.92995071,0
-2.2500212,3.5455656,-0.23532879,0.41094244,0.84721577,0.33667758,0
2.3634334,-3.5059116,1.8716663,0.8655318,-0.47855496,0.14778429,0
1.6739812,-0.5452733,-4.9964809,0.2863239,0.23067425,-0.92995071,0
-2.8177271,1.4706632,-5.8015347,-0.8655318,0.47855496,-0.14778429,0
1.1726228,-1.576647,-3.4042075,-0.41094244,-0.84721577,-0.33667758,0
3.7783456,-2.3638701,-4.6037359,-0.41094244,-0.84721577,-0.33667758,0
2.3921509,0.019396186,-4.6352968,0.2863239,0.23067425,-0.92995071,0
3.052633,-0.9369536,-4.6691628,0.2863239,0.23067425,-0.92995071,0
2.3979194,1.5066257,-0.77772808,0.41094244,0.84721577,0.33667758,0
0.39034078,1.3697717,2.0170641,0.41094244,0.84721577,0.33667758,0
-1.8740911,2.1863341,-5.4113278,0.2863239,0.23067425,-0.92995071,0
0.83288252,1.582742,0.94098735,0.41094244,0.84721577,0.33667758,0
-2.8251023,1.9637444,-4.1616488,-0.8655318,0.47855496,-0.14778429,0
-2.8595834,1.7714627,-4.5823455,-0.8655318,0.47855496,-0.14778429,0
-1.2347705,-2.5287476,1.9300804,-0.41094244,-0.84721577,-0.33667758,0
-3.9244506,1.8181244,1.8053856,-0.8655318,0.47855496,-0.14778429,0
-2.7557564,3.0480685,-1.0565288,-0.8655318,0.47855496,-0.14778429,0
4.6973829,-0.40902066,-1.7692766,0.8655318,-0.47855496,0.14778429,0
-3.8035905,2.5241117,3.3836722,-0.8655318,0.47855496,-0.14778429,0
1.3292384,1.9472116,-0.58200765,0.41094244,0.84721577,0.33667758,0
4.3861589,-0.26312649,0.52590978,0.8655318,-0.47855496,0.14778429,0
-3.4502506,2.3364007,4.2723927,0.41094244,0.84721577,0.33667758,0
2.1318324,0.32133889,2.5297098,0.41094244,0.84721577,0.33667758,0
0.19472432,1.9615871,-4.8301048,0.2863239,0.23067425,-0.92995071,0
4.2023969,-2.098413,-4.3408728,0.8655318,-0.47855496,0.14778429,0
3.5653241,-2.0951183,-0.59904099,0.8655318,-0.47855496,0.14778429,0
0.51861179,1.1554039,-4.9303575,0.2863239,0.23067425,-0.92995071,0
-5.0214529,0.029871166,2.4395027,-0.8655318,0.47855496,-0.14778429,0
2.953793,-1.2008688,5.3569269,0.41094244,0.84721577,0.33667758,0
0.9478842,1.7886285,0.28252548,0.41094244,0.84721577,0.33667758,0
-0.38228965,-1.8140249,4.8089581,-0.2863239,-0.23067425,0.92995071,0
3.2262573,-2.0962586,1.3830851,0.8655318,-0.47855496,0.14778429,0
3.7885456,0.66581368,-0.35928059,0.41094244,0.84721577,0.33667758,0
-2.1079535,-1.5950567,0.64632928,-0.41094244,-0.84721577,-0.33667758,0
-2.0190759,2.9093897,-5.2766137,0.2863239,0.23067425,-0.92995071,0
-1.4737916,0.31728721,5.0015664,-0.2863239,-0.23067425,0.92995071,0
1.0417063,1.3428285,1.2898194,0.41094244,0.84721577,0.33667758,0
-1.4957774,3.5073481,-1.0597758,0.41094244,0.84721577,0.33667758,0
4.2462769,0.22573373,-4.0132451,0.2863239,0.23067425,-0.92995071,0
-0.1924684,0.87626624,3.9702883,0.41094244,0.84721577,0.33667758,0
0.73179865,1.7033812,0.76079166,0.41094244,0.84721577,0.33667758,0
5.0950789,1.2481723,-3.4982905,0.2863239,0.23067425,-0.92995071,0
-3.5993745,-1.5452135,3.8851242,-0.2863239,-0.23067425,0.92995071,0
-2.3739386,0.44485927,4.7560625,-0.2863239,-0.23067425,0.92995071,0
3.9397409,0.80069268,-3.9650073,0.2863239,0.23067425,-0.92995071,0
-0.029071093,1.2159698,-5.0839605,0.2863239,0.23067425,-0.92995071,0
-2.2699928,3.3993969,-2.7638397,-0.8655318,0.47855496,-0.14778429,0
-3.456975,1.3434813,-2.4694757,-0.8655318,0.47855496,-0.14778429,0
-2.2005479,0.19544959,-3.7462842,-0.41094244,-0.84721577,-0.33667758,0
1.2583905,0.34570873,-4.90343,0.2863239,0.23067425,-0.92995071,0
-1.1678498,-0.34221697,-3.6537912,-0.41094244,-0.84721577,-0.33667758,0
1.3032103,-1.3659927,-4.0936913,-0.41094244,-0.84721577,-0.33667758,0
-3.2279816,1.9951918,-1.7002602,-0.8655318,0.47855496,-0.14778429,0
0.32868314,-2.9547858,4.7448955,-0.2863239,-0.23067425,0.92995071,0
-3.7928562,1.2244518,-0.88775653,-0.8655318,0.47855496,-0.14778429,0
-2.5722272,2.2951927,3.3043895,0.41094244,0.84721577,0.33667758,0
4.2728987,-1.7753034,-3.7074862,0.8655318,-0.47855496,0.14778429,0
3.7045145,-1.6173346,-4.6372232,0.2863239,0.23067425,-0.92995071,0
0.085315704,-0.38066673,-5.0866275,-0.41094244,-0.84721577,-0.33667758,0
-3.3294644,2.3969984,0.19522607,-0.8655318,0.47855496,-0.14778429,0
-3.8280916,2.5436206,3.5903373,-0.8655318,0.47855496,-0.14778429,0
-0.024733543,1.8214861,-4.9324274,0.2863239,0.23067425,-0.92995071,0
4.5728836,-1.120087,-3.3426929,0.8655318,-0.47855496,0.14778429,0
0.90222478,0.15624499,4.4459891,0.41094244,0.84721577,0.33667758,0
-2.6089058,3.2449069,0.95929658,0.41094244,0.84721577,0.33667758,0
2.2350104,-0.29867893,-4.762578,0.2863239,0.23067425,-0.92995071,0
4.7503242,-0.61108392,-4.0656257,0.2863239,0.23067425,-0.92995071,0
-1.199931,-0.83229744,4.8007312,-0.2863239,-0.23067425,0.92995071,0
0.054178715,0.48158503,-5.2404923,0.2863239,0.23067425,-0.92995071,0
-2.4016075,2.8471653,-3.7812455,-0.8655318,0.47855496,-0.14778429,0
-2.6489201,0.79272002,4.7576857,-0.2863239,-0.23067425,0.92995071,0
-0.31949115,2.1171267,-4.9498463,0.2863239,0.23067425,-0.92995071,0
4.9905405,-0.38211042,-3.3990746,0.8655318,-0.47855496,0.14778429,0
-4.6673155,0.22152817,0.98604465,-0.8655318,0.47855496,-0.14778429,0
-3.4508963,2.8780582,2.4641867,-0.8655318,0.47855496,-0.14778429,0
2.5590324,0.99352002,0.31679958,0.41094244,0.84721577,0.33667758,0
-0.73746347,2.9118731,-0.48690486,0.41094244,0.84721577,0.33667758,0
2.9933186,-1.5035968,-4.8279805,0.2863239,0.23067425,-0.92995071,0
-2.4953384,3.1793756,-2.1565256,-0.8655318,0.47855496,-0.14778429,0
2.650496,-0.6358732,-4.7182941,0.2863239,0.23067425,-0.92995071,0
4.0777664,1.7870612,-3.5338068,0.41094244,0.84721577,0.33667758,0
-3.0814676,1.8385855,-3.0654736,-0.8655318,0.47855496,-0.14778429,0
-4.1601996,-0.13926435,4.0611959,-0.2863239,-0.23067425,0.92995071,0
2.6348972,0.63998634,-4.4066191,0.2863239,0.23067425,-0.92995071,0
-3.7257142,-0.097414136,-1.1477321,-0.41094244,-0.84721577,-0.33667758,0
4.9274592,0.11951566,-1.4052632,0.8655318,-0.47855496,0.14778429,0
3.7537169,0.030609459,-4.2132998,0.2863239,0.23067425,-0.92995071,0
4.8117313,0.10259736,-0.78226137,0.8655318,-0.47855496,0.14778429,0
0.19770813,-2.4588237,0.0056663156,-0.41094244,-0.84721577,-0.33667758,0
-1.1995513,3.6319807,-1.7349687,0.41094244,0.84721577,0.33667758,0
0.85031605,-0.51642036,5.5103378,-0.2863239,-0.23067425,0.92995071,0
-1.6084492,-2.1016471,4.3600893,-0.2863239,-0.23067425,0.92995071,0
1.8234267,-3.9381073,3.6348016,0.8655318,-0.47855496,0.14778429,0
-3.0246687,-0.64002514,-0.63798732,-0.41094244,-0.84721577,-0.33667758,0
-3.4508646,2.381834,0.85712814,-0.8655318,0.47855496,-0.14778429,0
-4.0682993,-0.71756411,0.83096743,-0.41094244,-0.84721577,-0.33667758,0
-0.033915579,2.0245776,0.88714933,0.41094244,0.84721577,0.33667758,0
-4.0210338,-0.26226163,-0.37244809,-0.41094244,-0.84721577,-0.33667758,0
3.8784959,-1.9364412,-1.9193742,0.8655318,-0.47855496,0.14778429,0
-0.74126047,-1.0022936,4.8997836,-0.2863239,-0.23067425,0.92995071,0
-1.5701859,0.27246571,-4.7094965,-0.41094244,-0.84721577,-0.33667758,0
1.0971403,-3.1229362,4.9397864,-0.2863239,-0.23067425,0.92995071,0
-3.9253507,0.86497355,-1.2758362,-0.8655318,0.47855496,-0.14778429,0
0.26925433,1.0523276,-5.0327005,0.2863239,0.23067425,-0.92995071,0
-4.5620098,1.2683787,3.7592101,-0.8655318,0.47855496,-0.14778429,0
4.8835192,1.0968159,-3.6009712,0.2863239,0.23067425,-0.92995071,0
2.4261742,0.7724632,-4.4380231,0.2863239,0.23067425,-0.92995071,0
3.0420678,0.33289254,1.3896198,0.41094244,0.84721577,0.33667758,0
-2.1796114,0.51647562,4.8336592,-0.2863239,-0.23067425,0.92995071,0
-2.574223,-1.8067715,1.748209,-0.41094244,-0.84721577,-0.33667758,0
-2.3571224,2.4114199,-5.4528117,-0.8655318,0.47855496,-0.14778429,0
-5.019949,-0.89510363,3.6090016,-0.2863239,-0.23067425,0.92995071,0
-3.8353219,-0.80853742,3.9952097,-0.2863239,-0.23067425,0.92995071,0
5.0712118,-0.027396321,-2.7229161,0.8655318,-0.47855496,0.14778429,0
1.0384088,-2.6678982,-0.49436262,-0.41094244,-0.84721577,-0.33667758,0
-3.839788,0.71147752,-2.2740026,-0.8655318,0.47855496,-0.14778429,0
1.5645108,-0.73139119,5.6769094,-0.2863239,-0.23067425,0.92995071,0
-3.6461949,-1.4991337,2.2824984,-0.41094244,-0.84721577,-0.33667758,0
4.817894,-0.29212183,-2.0965362,0.8655318,-0.47855496,0.14778429,0
1.4041564,1.0151746,-4.6924887,0.2863239,0.23067425,-0.92995071,0
4.8354816,-0.068003535,-1.4738045,0.8655318,-0.47855496,0.14778429,0
4.3833523,0.36731482,-3.9359217,0.2863239,0.23067425,-0.92995071,0
-3.1769753,-0.23296916,4.3406796,-0.2863239,-0.23067425,0.92995071,0
-3.4388936,2.7690229,2.0408118,-0.8655318,0.47855496,-0.14778429,0
3.3135512,-2.266629,0.3201347,0.8655318,-0.47855496,0.14778429,0
-1.8546891,3.4762776,-0.54350799,0.41094244,0.84721577,0.33667758,0
2.3899412,1.837796,-1.6013482,0.41094244,0.84721577,0.33667758,0
3.3331811,-2.2605643,0.22480816,0.8655318,-0.47855496,0.14778429,0
3.4042788,-1.238781,3.117146,0.8655318,-0.47855496,0.14778429,0
1.7255273,-1.7191945,5.4814596,-0.2863239,-0.23067425,0.92995071,0
-2.9326382,2.5281296,-1.7042447,-0.8655318,0.47855496,-0.14778429,0
4.5419521,0.62279439,-1.1706204,0.41094244,0.84721577,0.33667758,0
-1.8015833,-1.1415703,-0.86877406,-0.41094244,-0.84721577,-0.33667758,0
-1.5060569,-1.5082824,4.5387998,-0.2863239,-0.23067425,0.92995071,0
1.8729117,-2.0363994,-3.1020455,-0.41094244,-0.84721577,-0.33667758,0
4.0594296,-1.451587,-1.4089999,0.8655318,-0.47855496,0.14778429,0
0.5817945,0.25071788,4.599369,0.41094244,0.84721577,0.33667758,0
2.9480376,-2.8923988,0.43447718,0.8655318,-0.47855496,0.14778429,0
0.1168592,-2.7529681,4.7297373,-0.2863239,-0.23067425,0.92995071,0
1.4412103,-3.0158422,5.0722876,-0.2863239,-0.23067425,0.92995071,0
-1.2688198,-3.2873526,3.8805947,-0.41094244,-0.84721577,-0.33667758,0
0.063286901,0.53631508,4.5135717,0.41094244,0.84721577,0.33667758,0
3.4977005,1.1373249,-1.1907921,0.41094244,0.84721577,0.33667758,0
0.23824263,0.95128679,3.2557886,0.41094244,0.84721577,0.33667758,0
-4.3920021,0.14514494,-0.87373912,-0.8655318,0.47855496,-0.14778429,0
5.1994858,1.0238841,-2.9824972,0.41094244,0.84721577,0.33667758,0
-2.9737098,-1.0874931,4.191298,-0.2863239,-0.23067425,0.92995071,0
2.8714433,-3.2893496,-0.4023329,0.8655318,-0.47855496,0.14778429,0
-4.2412357,1.5993823,4.4675183,-0.2863239,-0.23067425,0.92995071,0
1.5060279,-1.2775972,5.523416,-0.2863239,-0.23067425,0.92995071,0
3.6012893,-1.2583413,-4.5799561,0.2863239,0.23067425,-0.92995071,0
-1.843585,-0.50784814,-2.4122074,-0.41094244,-0.84721577,-0.33667758,0
2.2196846,-1.575878,5.6691561,-0.2863239,-0.23067425,0.92995071,0
-1.6728806,2.1926165,-5.3478174,0.2863239,0.23067425,-0.92995071,0
1.0368676,-3.3118272,1.1279026,-0.41094244,-0.84721577,-0.33667758,0
0.82354593,-2.9845922,0.56482464,-0.41094244,-0.84721577,-0.33667758,0
-5.5039186,-0.70055646,3.5082483,-0.2863239,-0.23067425,0.92995071,0
-4.4393768,-1.0122085,3.758707,-0.2863239,-0.23067425,0.92995071,0
1.8571534,-3.8490067,3.7258017,0.8655318,-0.47855496,0.14778429,0
-4.2572064,-0.55159813,3.9290485,-0.2863239,-0.23067425,0.92995071,0
-3.00793,3.223855,0.98961782,-0.8655318,0.47855496,-0.14778429,0
-5.2594876,-0.38823766,2.4796877,-0.8655318,0.47855496,-0.14778429,0
-0.44661093,-3.1828103,2.6139514,-0.41094244,-0.84721577,-0.33667758,0
1.8866386,-3.6578341,4.1721668,0.8655318,-0.47855496,0.14778429,0
2.6768966,-2.6359107,2.8530364,0.8655318,-0.47855496,0.14778429,0
1.8529673,-3.2805181,0.053000361,-0.41094244,-0.84721577,-0.33667758,0
-3.2483535,2.4944243,0.035666466,-0.8655318,0.47855496,-0.14778429,0
0.36119807,0.93523538,-5.0334358,0.2863239,0.23067425,-0.92995071,0
1.5757265,-2.8131649,5.1639781,-0.2863239,-0.23067425,0.92995071,0
-4.2025504,0.90663993,0.48256969,-0.8655318,0.47855496,-0.14778429,0
1.0823821,0.82225406,2.5501459,0.41094244,0.84721577,0.33667758,0
-0.76238859,2.1773303,1.391923,0.41094244,0.84721577,0.33667758,0
-1.2555431,-0.64326942,-2.789186,-0.41094244,-0.84721577,-0.33667758,0
2.3162951,2.7307866,-3.7585797,0.41094244,0.84721577,0.33667758,0
-0.4555701,2.1506124,1.0846592,0.41094244,0.84721577,0.33667758,0
-3.8759961,0.92429769,-1.3727854,-0.8655318,0.47855496,-0.14778429,0
2.7767794,-0.41485357,3.5950556,0.41094244,0.84721577,0.33667758,0
1.7942252,-1.4522496,5.5688272,-0.2863239,-0.23067425,0.92995071,0
0.83832264,-0.64075089,5.4758058,-0.2863239,-0.23067425,0.92995071,0
-4.2180967,1.3906655,2.1409934,-0.8655318,0.47855496,-0.14778429,0
4.4337378,-0.08887209,-4.033566,0.2863239,0.23067425,-0.92995071,0
4.3048792,-1.362734,-4.3892207,0.2863239,0.23067425,-0.92995071,0
3.2710702,-2.2728374,-4.2136402,-0.41094244,-0.84721577,-0.33667758,0
2.5882022,0.14970797,-4.5426106,0.2863239,0.23067425,-0.92995071,0
-2.959821,-2.1428552,3.9337926,-0.2863239,-0.23067425,0.92995071,0
0.40649009,-3.221827,4.7026124,-0.2863239,-0.23067425,0.92995071,0
3.2435563,-0.43496311,-4.4858603,0.2863239,0.23067425,-0.92995071,0
-0.59792292,2.4003441,0.62998688,0.41094244,0.84721577,0.33667758,0
-1.0138364,-0.31216896,4.9870453,-0.2863239,-0.23067425,0.92995071,0
-1.0020685,1.6002563,-5.2882156,0.2863239,0.23067425,-0.92995071,0
-3.869559,1.5043868,0.46795487,-0.8655318,0.47855496,-0.14778429,0
1.0475013,1.2359533,1.5516875,0.41094244,0.84721577,0.33667758,0
3.9653668,-0.88456285,0.9780373,0.8655318,-0.47855496,0.14778429,0
-0.69114971,3.6809659,-4.6763673,0.2863239,0.23067425,-0.92995071,0
3.9962616,-0.57713032,1.7926226,0.8655318,-0.47855496,0.14778429,0
1.6048756,1.6926113,-0.27776837,0.41094244,0.84721577,0.33667758,0
-2.6138835,2.5238891,-3.5848358,-0.8655318,0.47855496,-0.14778429,0
-3.0123005,-0.2218653,4.3941355,-0.2863239,-0.23067425,0.92995071,0
2.6312613,-1.873207,5.5900955,0.8655318,-0.47855496,0.14778429,0
-3.4635592,1.3200423,4.6376672,-0.2863239,-0.23067425,0.92995071,0
0.93878222,-3.432719,4.8141875,-0.2863239,-0.23067425,0.92995071,0
4.7725668,0.044712186,-0.74033689,0.8655318,-0.47855496,0.14778429,0
4.5276775,-0.52028346,-4.1116533,0.2863239,0.23067425,-0.92995071,0
2.4994793,-3.5041189,1.0806885,0.8655318,-0.47855496,0.14778429,0
-0.16089532,1.5743636,2.1750579,0.41094244,0.84721577,0.33667758,0
4.5602136,0.55037236,-3.8360605,0.2863239,0.23067425,-0.92995071,0
-2.7627869,2.6124814,2.7385576,0.41094244,0.84721577,0.33667758,0
2.3517876,-1.2771094,5.7839398,-0.2863239,-0.23067425,0.92995071,0
-1.3398306,-0.23320138,-3.7182021,-0.41094244,-0.84721577,-0.33667758,0
4.5739365,0.14681002,-3.9319386,0.2863239,0.23067425,-0.92995071,0
0.05224371,3.0944991,-4.5929542,0.2863239,0.23067425,-0.92995071,0
-0.45310712,3.1051693,-4.7459021,0.2863239,0.23067425,-0.92995071,0
3.0063396,1.5238768,-1.563766,0.41094244,0.84721577,0.33667758,0
-2.7755976,1.9910334,-4.3632121,-0.8655318,0.47855496,-0.14778429,0
1.5302649,-3.0333183,5.0953722,-0.2863239,-0.23067425,0.92995071,0
0.83663535,-2.4012692,-0.91902673,-0.41094244,-0.84721577,-0.33667758,0
4.0114288,-0.45082521,-4.2533741,0.2863239,0.23067425,-0.92995071,0
-3.2607694,-0.052034885,4.3597603,-0.2863239,-0.23067425,0.92995071,0
-4.627317,-0.6770823,1.4114254,-0.41094244,-0.84721577,-0.33667758,0
3.8064096,-0.98829353,-4.4498162,0.2863239,0.23067425,-0.92995071,0
2.3468657,-0.81554675,5.1281052,0.41094244,0.84721577,0.33667758,0
1.2167827,-1.2892619,-4.1812849,-0.41094244,-0.84721577,-0.33667758,0
-0.61151314,-3.0215635,2.409466,-0.41094244,-0.84721577,-0.33667758,0
3.8715997,-0.91910064,1.4153636,0.8655318,-0.47855496,0.14778429,0
-2.7454877,-0.35433981,4.4434252,-0.2863239,-0.23067425,0.92995071,0
-1.0532906,3.897038,-2.5804825,0.41094244,0.84721577,0.33667758,0
5.2453241,0.26134872,-2.8076339,0.8655318,-0.47855496,0.14778429,0
4.4884005,0.39245462,-0.52562952,0.41094244,0.84721577,0.33667758,0
3.3061261,-2.6692114,-0.94001913,0.8655318,-0.47855496,0.14778429,0
1.4086738,-1.7277014,5.3817935,-0.2863239,-0.23067425,0.92995071,0
-0.05239749,3.4783573,-2.7485855,0.41094244,0.84721577,0.33667758,0
0.69241309,-3.6876957,2.4941738,-0.41094244,-0.84721577,-0.33667758,0
-3.7248979,1.2152672,-1.3155107,-0.8655318,0.47855496,-0.14778429,0
3.7301216,-0.69367677,-4.4002247,0.2863239,0.23067425,-0.92995071,0
2.8271327,-1.6398835,5.1984787,0.8655318,-0.47855496,0.14778429,0
5.1648436,1.0422759,-3.5278835,0.2863239,0.23067425,-0.92995071,0
-2.05688,3.6880493,-3.0772674,-0.8655318,0.47855496,-0.14778429,0
3.6897683,-2.7392998,-3.413866,0.8655318,-0.47855496,0.14778429,0
2.5716314,-2.1502037,5.0423646,0.8655318,-0.47855496,0.14778429,0
-0.27667356,0.80833352,-5.2613096,0.2863239,0.23067425,-0.92995071,0
-2.4345708,1.0038981,-5.4950223,-0.41094244,-0.84721577,-0.33667758,0
-0.14250016,-3.5370159,3.134083,-0.41094244,-0.84721577,-0.33667758,0
-0.87475455,-2.1052606,0.42498767,-0.41094244,-0.84721577,-0.33667758,0
-2.7968664,3.2027049,-0.31501502,-0.8655318,0.47855496,-0.14778429,0
-3.3659337,2.4586451,0.6084398,-0.8655318,0.47855496,-0.14778429,0
4.1234083,-0.45317692,-4.2194791,0.2863239,0.23067425,-0.92995071,0
2.5780673,-0.4118067,-4.6850147,0.2863239,0.23067425,-0.92995071,0
-4.2491732,1.0294333,1.1532574,-0.8655318,0.47855496,-0.14778429,0
0.17688894,-4.0825639,4.1170602,-0.41094244,-0.84721577,-0.33667758,0
-0.67629182,-0.98333168,-2.6404757,-0.41094244,-0.84721577,-0.33667758,0
-0.17731714,2.7466059,-0.75473058,0.41094244,0.84721577,0.33667758,0
0.74398589,3.1938782,-3.0047731,0.41094244,0.84721577,0.33667758,0
-4.0395412,-0.4194468,4.0288472,-0.2863239,-0.23067425,0.92995071,0
-0.40271214,1.2036054,3.4031916,0.41094244,0.84721577,0.33667758,0
-1.658007,0.8022579,5.0651455,-0.2863239,-0.23067425,0.92995071,0
-4.1045032,-1.692718,3.6930099,-0.2863239,-0.23067425,0.92995071,0
-4.2986712,-0.3691639,3.9615359,-0.2863239,-0.23067425,0.92995071,0
-0.54852939,3.1997204,-1.4418534,0.41094244,0.84721577,0.33667758,0
-2.3782458,2.8801177,-3.8113642,-0.8655318,0.47855496,-0.14778429,0
1.4984925,0.99321496,1.6120429,0.41094244,0.84721577,0.33667758,0
-4.7499475,0.64974707,2.8566561,-0.8655318,0.47855496,-0.14778429,0
-0.12133098,-0.67704964,5.1713319,-0.2863239,-0.23067425,0.92995071,0
-1.1493646,-0.80690539,4.822598,-0.2863239,-0.23067425,0.92995071,0
-2.4611273,1.8858496,-5.6666069,0.2863239,0.23067425,-0.92995071,0
5.3674417,0.28131741,-3.6542611,0.2863239,0.23067425,-0.92995071,0
1.5491066,1.5958655,0.033753455,0.41094244,0.84721577,0.33667758,0
1.8957646,0.89779782,1.3672476,0.41094244,0.84721577,0.33667758,0
2.6799116,-2.5387309,3.1500669,0.8655318,-0.47855496,0.14778429,0
-4.2903957,1.5881485,4.4495945,-0.2863239,-0.23067425,0.92995071,0
-1.7157826,-2.6097543,2.7210395,-0.41094244,-0.84721577,-0.33667758,0
-0.37993693,2.4666817,0.19698492,0.41094244,0.84721577,0.33667758,0
1.9636704,2.5989065,-4.1273746,0.2863239,0.23067425,-0.92995071,0
2.3961632,0.40310431,2.0013175,0.41094244,0.84721577,0.33667758,0
-0.056061745,-2.4487433,4.7519598,-0.2863239,-0.23067425,0.92995071,0
0.3689304,1.474896,1.7786622,0.41094244,0.84721577,0.33667758,0
4.6436152,-0.58036631,-2.0092301,0.8655318,-0.47855496,0.14778429,0
-4.5494003,-1.0736442,2.3142309,-0.41094244,-0.84721577,-0.33667758,0
-0.51486385,-1.0907595,4.947546,-0.2863239,-0.23067425,0.92995071,0
3.9483693,-1.3055449,-0.28563654,0.8655318,-0.47855496,0.14778429,0
2.5539961,-2.3075173,4.6362343,0.8655318,-0.47855496,0.14778429,0
3.6519096,-2.5075111,-2.4415612,0.8655318,-0.47855496,0.14778429,0
-3.3409207,-0.98720193,4.1031146,-0.2863239,-0.23067425,0.92995071,0
3.6927714,0.18852651,0.95866549,0.41094244,0.84721577,0.33667758,0
4.5792799,0.75563127,-1.5504529,0.41094244,0.84721577,0.33667758,0
0.10603476,-2.8279071,4.7078161,-0.2863239,-0.23067425,0.92995071,0
1.5268431,-0.66943812,5.6806784,-0.2863239,-0.23067425,0.92995071,0
-1.2982094,0.041003227,-4.459013,-0.41094244,-0.84721577,-0.33667758,0
3.1679111,-1.7206278,2.9411681,0.8655318,-0.47855496,0.14778429,0
-0.8276577,4.0467358,-4.627666,0.2863239,0.23067425,-0.92995071,0
4.2456541,-0.46591675,0.69213134,0.8655318,-0.47855496,0.14778429,0
5.1145887,-0.087762684,-3.8236613,0.2863239,0.23067425,-0.92995071,0
-0.51137716,2.0878699,1.310661,0.41094244,0.84721577,0.33667758,0
-3.9311328,0.92688322,-1.0414919,-0.8655318,0.47855496,-0.14778429,0
-3.8043284,0.90635037,-1.8506433,-0.8655318,0.47855496,-0.14778429,0
-2.619278,2.5137475,-3.5860841,-0.8655318,0.47855496,-0.14778429,0
1.4844055,-4.2161202,4.7200947,0.8655318,-0.47855496,0.14778429,0
0.714625,2.5450671,-4.5252991,0.2863239,0.23067425,-0.92995071,0
0.46078587,-2.6363966,0.13140273,-0.41094244,-0.84721577,-0.33667758,0
-2.0402212,-1.4303098,4.3936758,-0.2863239,-0.23067425,0.92995071,0
1.5276041,0.038841844,-4.8966603,0.2863239,0.23067425,-0.92995071,0
-1.0544553,-2.3716645,4.4636822,-0.2863239,-0.23067425,0.92995071,0
4.0525761,-2.2111437,-3.8284583,0.8655318,-0.47855496,0.14778429,0
1.8234534,-3.9470325,3.6057432,0.8655318,-0.47855496,0.14778429,0
3.1437049,-1.7479001,2.9946251,0.8655318,-0.47855496,0.14778429,0
4.9471445,0.20969144,-3.8014336,0.2863239,0.23067425,-0.92995071,0
-2.0207386,3.4851341,-3.9460199,-0.8655318,0.47855496,-0.14778429,0
-3.5834656,1.4913781,-1.249741,-0.8655318,0.47855496,-0.14778429,0
5.0301185,0.10277939,-2.0607085,0.8655318,-0.47855496,0.14778429,0
-2.7525878,-0.88698256,4.3091159,-0.2863239,-0.23067425,0.92995071,0
1.1470995,-1.5401053,-3.4650078,-0.41094244,-0.84721577,-0.33667758,0
0.42161167,0.46246517,-5.1321054,0.2863239,0.23067425,-0.92995071,0
-1.6401354,-1.7468766,4.438334,-0.2863239,-0.23067425,0.92995071,0
-3.0437253,-0.50523424,-0.9539156,-0.41094244,-0.84721577,-0.33667758,0
-2.9590671,-1.6208462,4.063509,-0.2863239,-0.23067425,0.92995071,0
1.4617059,-3.959645,2.2395232,-0.41094244,-0.84721577,-0.33667758,0
1.8552079,-1.4604383,-4.5297866,-0.41094244,-0.84721577,-0.33667758,0
-1.6771573,-2.0647929,1.3025527,-0.41094244,-0.84721577,-0.33667758,0
2.4613013,-2.7128108,3.8667018,0.8655318,-0.47855496,0.14778429,0
-2.7893314,0.61266971,-4.0775194,-0.41094244,-0.84721577,-0.33667758,0
-1.4016449,1.6060731,3.6097002,0.41094244,0.84721577,0.33667758,0
0.10946631,3.014447,-1.7787688,0.41094244,0.84721577,0.33667758,0
-4.9676189,-0.45620024,1.2709644,-0.41094244,-0.84721577,-0.33667758,0
-0.053177118,-3.8677392,4.4008656,-0.2863239,-0.23067425,0.92995071,0
-2.8653631,2.4473152,-2.359951,-0.8655318,0.47855496,-0.14778429,0
4.4251823,0.60486752,-3.8641176,0.2863239,0.23067425,-0.92995071,0
-4.7993321,0.76455414,3.5176563,-0.8655318,0.47855496,-0.14778429,0
-0.24886346,2.6247611,-0.36079198,0.41094244,0.84721577,0.33667758,0
1.0062494,-0.37045002,-5.1587052,0.2863239,0.23067425,-0.92995071,0
0.68994188,-4.4560518,4.4837341,-0.2863239,-0.23067425,0.92995071,0
1.7835197,-2.1337917,5.3964739,-0.2863239,-0.23067425,0.92995071,0
-1.5448103,2.3127263,-5.2785935,0.2863239,0.23067425,-0.92995071,0
-1.7923307,2.3923597,-5.3350492,0.2863239,0.23067425,-0.92995071,0
2.9035337,0.62584919,-4.3274155,0.2863239,0.23067425,-0.92995071,0
