0.54987299,1.2340724,-3.1493285,-0.54107618,0.159913,-0.82562965,0
2.4852772,-0.072216511,1.3852789,0.54107618,-0.159913,0.82562965,0
1.3402333,3.9544075,2.2995141,-0.44497335,0.77862763,0.44242248,0
1.7780192,-1.3158554,1.6079046,0.54107618,-0.159913,0.82562965,0
-5.2910175,-0.91021931,0.49123144,-0.71360719,-0.60676748,0.35013986,0
2.8365612,0.094942212,1.1874413,0.54107618,-0.159913,0.82562965,0
-0.1957438,-4.7129049,0.18646765,0.44497335,-0.77862763,-0.44242248,0
0.019937247,-4.4054856,2.1616447,0.54107618,-0.159913,0.82562965,0
0.19910014,4.9986286,-2.1903071,-0.54107618,0.159913,-0.82562965,0
-0.40770149,-0.33253288,3.2307718,0.54107618,-0.159913,0.82562965,0
-4.993114,-1.2503353,0.50898123,-0.71360719,-0.60676748,0.35013986,0
-1.56188,2.6879423,1.6095444,-0.44497335,0.77862763,0.44242248,0
1.1442431,1.5762141,2.5834031,0.54107618,-0.159913,0.82562965,0
-3.7379141,1.5611726,1.4039874,-0.44497335,0.77862763,0.44242248,0
1.4635562,-0.79226685,1.9153996,0.54107618,-0.159913,0.82562965,0
-2.0257559,-3.1634727,3.2413144,-0.71360719,-0.60676748,0.35013986,0
-1.7809193,2.2207634,2.2114396,-0.44497335,0.77862763,0.44242248,0
1.1306243,-4.238987,0.68642664,0.44497335,-0.77862763,-0.44242248,0
-3.704355,2.3812475,-0.13912928,-0.54107618,0.159913,-0.82562965,0
0.022751808,3.5762842,1.6399026,-0.44497335,0.77862763,0.44242248,0
1.6642673,3.5936403,-3.2325995,0.71360719,0.60676748,-0.35013986,0
2.0198803,-3.17221,-0.29663193,0.44497335,-0.77862763,-0.44242248,0
-0.82722604,3.9220452,0.17651367,-0.44497335,0.77862763,0.44242248,0
-0.14406061,-2.8511202,-3.0381408,0.44497335,-0.77862763,-0.44242248,0
4.1836729,-0.0083577633,-3.6884871,0.44497335,-0.77862763,-0.44242248,0
1.9220128,-2.8851724,-0.90022641,0.44497335,-0.77862763,-0.44242248,0
0.34596694,5.0436287,-0.61742544,-0.44497335,0.77862763,0.44242248,0
-0.88213789,-5.534956,0.94285917,0.44497335,-0.77862763,-0.44242248,0
5.7950625,0.063629061,-0.93103743,0.71360719,0.60676748,-0.35013986,0
-2.4357519,2.0265355,1.8946565,-0.44497335,0.77862763,0.44242248,0
2.9355376,1.508934,1.3964477,0.54107618,-0.159913,0.82562965,0
-2.5421455,-1.7820108,4.3488355,0.54107618,-0.159913,0.82562965,0
-3.4651489,-3.0530076,0.49916887,-0.71360719,-0.60676748,0.35013986,0
-3.5065584,-2.6897137,1.0443349,-0.71360719,-0.60676748,0.35013986,0
0.50337952,-2.6366572,2.1874185,0.54107618,-0.159913,0.82562965,0
-4.0119019,-1.8229371,1.5164762,-0.71360719,-0.60676748,0.35013986,0
2.3664021,4.7939663,0.27847385,0.71360719,0.60676748,-0.35013986,0
-1.3376884,2.277359,-1.7102454,-0.54107618,0.159913,-0.82562965,0
3.7949376,1.5746987,-2.3888431,0.71360719,0.60676748,-0.35013986,0
4.5435209,2.1708508,0.16990709,0.71360719,0.60676748,-0.35013986,0
1.8172839,5.2475357,-0.054660797,0.71360719,0.60676748,-0.35013986,0
0.20925951,1.7071061,-2.834487,-0.54107618,0.159913,-0.82562965,0
3.4466186,2.9884753,-0.64876413,0.71360719,0.60676748,-0.35013986,0
-5.5490651,0.02264297,1.5818985,-0.71360719,-0.60676748,0.35013986,0
-4.6038256,-0.40001464,2.7759211,-0.71360719,-0.60676748,0.35013986,0
-0.21888232,4.7436223,-1.9657731,-0.54107618,0.159913,-0.82562965,0
1.9755739,2.5666144,-3.8255656,-0.54107618,0.159913,-0.82562965,0
-1.337878,-3.7221115,-2.7059686,0.44497335,-0.77862763,-0.44242248,0
1.746349,5.1730547,0.5632515,-0.44497335,0.77862763,0.44242248,0
-0.33417869,-1.3502514,-3.0705128,-0.54107618,0.159913,-0.82562965,0
2.0039134,-0.91800284,1.5369234,0.54107618,-0.159913,0.82562965,0
-3.7607348,-0.010461569,4.1469831,-0.44497335,0.77862763,0.44242248,0
0.48139071,-2.6467001,-2.7688463,0.44497335,-0.77862763,-0.44242248,0
-4.4466333,-0.61676049,2.7206838,-0.71360719,-0.60676748,0.35013986,0
-4.9195852,-0.089736223,2.670074,-0.71360719,-0.60676748,0.35013986,0
-1.1245395,2.8609488,-1.7368991,-0.54107618,0.159913,-0.82562965,0
2.4370456,5.0562763,0.87701464,0.71360719,0.60676748,-0.35013986,0
0.59312916,-4.4585648,0.53227162,0.44497335,-0.77862763,-0.44242248,0
-2.1752696,3.7113359,-0.80847108,-0.44497335,0.77862763,0.44242248,0
1.6522045,-3.2521205,-0.52579153,0.44497335,-0.77862763,-0.44242248,0
-4.8142672,0.48334539,2.218317,-0.44497335,0.77862763,0.44242248,0
0.032227755,-1.6557667,2.686172,0.54107618,-0.159913,0.82562965,0
0.1020391,-5.1879959,1.3220892,0.44497335,-0.77862763,-0.44242248,0
-4.6319947,1.4768472,0.29362917,-0.54107618,0.159913,-0.82562965,0
-1.6587644,-4.4609408,1.7408471,-0.71360719,-0.60676748,0.35013986,0
2.5358541,-3.2393038,0.34039652,0.44497335,-0.77862763,-0.44242248,0
-4.070612,-1.2522572,2.3857691,-0.71360719,-0.60676748,0.35013986,0
2.2401783,3.5962286,-2.0543723,0.71360719,0.60676748,-0.35013986,0
-2.9316492,-4.0042748,-0.062004089,-0.71360719,-0.60676748,0.35013986,0
-3.7158651,-0.29110384,4.6860199,-0.44497335,0.77862763,0.44242248,0
1.3816965,-1.3959465,-4.0645742,0.44497335,-0.77862763,-0.44242248,0
3.6517305,3.1792378,0.099844456,0.71360719,0.60676748,-0.35013986,0
-1.6992328,-4.5686288,1.4717541,-0.71360719,-0.60676748,0.35013986,0
-1.8722911,-1.7391816,-2.1378417,-0.54107618,0.159913,-0.82562965,0
-3.2948148,-1.0033436,4.3982425,-0.71360719,-0.60676748,0.35013986,0
0.40726089,-4.8581491,1.0485671,0.44497335,-0.77862763,-0.44242248,0
1.6105011,-2.6258173,1.4639661,0.54107618,-0.159913,0.82562965,0
3.7758837,-0.19898432,0.51492691,0.54107618,-0.159913,0.82562965,0
4.3260989,0.6658957,-2.8811927,0.71360719,0.60676748,-0.35013986,0
2.1134486,-1.8009355,-2.6158562,0.44497335,-0.77862763,-0.44242248,0
3.9337072,0.9747355,-3.1457143,0.71360719,0.60676748,-0.35013986,0
-5.8025703,-0.15189108,0.762784,-0.71360719,-0.60676748,0.35013986,0
2.8417008,2.1800027,-3.2826495,0.71360719,0.60676748,-0.35013986,0
-0.92305541,2.6393635,2.3375471,-0.44497335,0.77862763,0.44242248,0
0.21654129,3.2163899,2.468194,-0.44497335,0.77862763,0.44242248,0
0.70222616,4.0104361,1.5592232,-0.44497335,0.77862763,0.44242248,0
-2.172483,3.4024007,-0.26196742,-0.44497335,0.77862763,0.44242248,0
-4.1765079,2.0048888,0.18195999,-0.44497335,0.77862763,0.44242248,0
-1.4211612,-4.6036305,1.9778252,-0.71360719,-0.60676748,0.35013986,0
-4.6937723,-1.4173176,0.82968998,-0.71360719,-0.60676748,0.35013986,0
3.4171495,-1.2392077,0.54854667,0.54107618,-0.159913,0.82562965,0
1.5263331,3.7364616,2.7514105,0.54107618,-0.159913,0.82562965,0
0.42510962,-0.25430655,2.7001407,0.54107618,-0.159913,0.82562965,0
-1.3863918,3.962683,-1.3519038,-0.54107618,0.159913,-0.82562965,0
-5.6583629,0.049853086,1.4062958,-0.71360719,-0.60676748,0.35013986,0
-1.8667574,-0.16839838,4.2187538,0.54107618,-0.159913,0.82562965,0
-0.9335916,-5.1999264,0.30148363,0.44497335,-0.77862763,-0.44242248,0
-0.063464224,-5.5598431,1.8100529,0.44497335,-0.77862763,-0.44242248,0
-4.3312402,-2.1336632,0.32717752,-0.71360719,-0.60676748,0.35013986,0
-2.6426468,-2.3612554,3.3742375,-0.71360719,-0.60676748,0.35013986,0
3.3296492,0.23679399,-4.9788809,0.44497335,-0.77862763,-0.44242248,0
0.91993976,4.8466635,-2.5781875,0.71360719,0.60676748,-0.35013986,0
-2.5496356,0.25380921,-1.3079295,-0.54107618,0.159913,-0.82562965,0
-2.1420097,0.48463142,-1.53036,-0.54107618,0.159913,-0.82562965,0
2.5030143,-2.9427626,0.81767011,0.54107618,-0.159913,0.82562965,0
1.6928968,4.9872241,-0.75927067,0.71360719,0.60676748,-0.35013986,0
3.0213718,4.8064613,1.9788818,0.54107618,-0.159913,0.82562965,0
-1.6303588,-5.3390698,-0.15441942,0.44497335,-0.77862763,-0.44242248,0
1.7566257,-3.0923333,-0.70198083,0.44497335,-0.77862763,-0.44242248,0
4.2718477,-1.0289671,-1.803614,0.44497335,-0.77862763,-0.44242248,0
2.1030316,3.4457345,2.3171613,0.54107618,-0.159913,0.82562965,0
1.4045129,5.4647884,-0.29398251,-0.44497335,0.77862763,0.44242248,0
-0.014296055,-3.1173646,-2.4390593,0.44497335,-0.77862763,-0.44242248,0
2.2683346,3.2384362,-2.6170175,0.71360719,0.60676748,-0.35013986,0
-2.8731041,-4.2073779,-0.29464865,-0.71360719,-0.60676748,0.35013986,0
1.7791417,4.1371474,2.4193459,-0.44497335,0.77862763,0.44242248,0
3.9849455,-0.80649054,-2.4837117,0.44497335,-0.77862763,-0.44242248,0
-0.315166,-2.9857411,-2.9733109,0.44497335,-0.77862763,-0.44242248,0
3.0662889,-1.5792935,-2.0475938,0.44497335,-0.77862763,-0.44242248,0
-2.4206371,-5.0895886,-1.3883209,0.44497335,-0.77862763,-0.44242248,0
-3.5852339,0.5494349,3.3381238,-0.44497335,0.77862763,0.44242248,0
-1.2674537,4.0688844,-0.52467728,-0.44497335,0.77862763,0.44242248,0
-3.7229428,-1.8304536,2.0923672,-0.71360719,-0.60676748,0.35013986,0
-5.4164615,-0.63510972,0.71231461,-0.71360719,-0.60676748,0.35013986,0
0.19676781,4.0626569,0.95894623,-0.44497335,0.77862763,0.44242248,0
4.2812157,-1.3778147,-1.1802483,0.44497335,-0.77862763,-0.44242248,0
-3.2629504,1.3569958,2.2410243,-0.44497335,0.77862763,0.44242248,0
-2.3425317,-3.2925842,-2.1305418,-0.54107618,0.159913,-0.82562965,0
-4.5176511,-0.95964789,1.9817448,-0.71360719,-0.60676748,0.35013986,0
2.6327953,-3.3182569,0.65989012,0.54107618,-0.159913,0.82562965,0
-3.6403694,-3.2137837,-0.13655472,-0.71360719,-0.60676748,0.35013986,0
1.4605573,5.1342907,-0.97793722,0.71360719,0.60676748,-0.35013986,0
-4.8175607,0.026416779,3.0191624,-0.44497335,0.77862763,0.44242248,0
-1.1546506,-1.2950988,3.533849,0.54107618,-0.159913,0.82562965,0
4.2854795,0.32370734,-3.5569649,0.71360719,0.60676748,-0.35013986,0
2.7948439,2.4450772,1.6699691,0.54107618,-0.159913,0.82562965,0
-2.9090636,-2.660882,2.3120315,-0.71360719,-0.60676748,0.35013986,0
-3.4520278,1.0768225,2.5439394,-0.44497335,0.77862763,0.44242248,0
4.744318,0.4639467,-2.3787994,0.71360719,0.60676748,-0.35013986,0
-3.5326595,2.3604815,-0.2556721,-0.54107618,0.159913,-0.82562965,0
-3.7418628,-0.13443995,4.3841558,-0.44497335,0.77862763,0.44242248,0
-1.3341496,-2.2571058,3.4651563,0.54107618,-0.159913,0.82562965,0
2.5831892,3.3145235,-1.8434687,0.71360719,0.60676748,-0.35013986,0
3.6121886,0.18646193,-4.606132,0.44497335,-0.77862763,-0.44242248,0
3.512821,3.1579843,1.3375235,0.54107618,-0.159913,0.82562965,0
0.01578784,-4.1862845,-0.52759004,0.44497335,-0.77862763,-0.44242248,0
2.3715978,3.3952041,-2.134892,0.71360719,0.60676748,-0.35013986,0
4.3864193,1.8842895,-0.6468668,0.71360719,0.60676748,-0.35013986,0
-5.4916525,0.89081961,0.81990457,-0.44497335,0.77862763,0.44242248,0
-2.2125764,-4.3944578,-2.4024348,0.44497335,-0.77862763,-0.44242248,0
-0.056465387,-1.2996826,2.8132658,0.54107618,-0.159913,0.82562965,0
2.4740462,-1.1880088,-3.3318801,0.44497335,-0.77862763,-0.44242248,0
-4.2787466,1.0107353,1.8287616,-0.44497335,0.77862763,0.44242248,0
4.9240847,1.5690534,-0.097351074,0.71360719,0.60676748,-0.35013986,0
4.5665264,1.0636011,-1.7019911,0.71360719,0.60676748,-0.35013986,0
0.54765308,1.6235809,-3.0724311,-0.54107618,0.159913,-0.82562965,0
-3.4719729,-1.0169511,4.0136023,-0.71360719,-0.60676748,0.35013986,0
1.1075706,5.2682886,-1.465138,0.71360719,0.60676748,-0.35013986,0
-4.8503613,-0.95583457,1.3102689,-0.71360719,-0.60676748,0.35013986,0
-3.1800771,-3.861208,-0.3203907,-0.71360719,-0.60676748,0.35013986,0
4.4498763,1.5988989,-1.0120993,0.71360719,0.60676748,-0.35013986,0
2.0928991,2.4057245,-3.9336171,-0.54107618,0.159913,-0.82562965,0
-0.88649392,3.8114069,0.31161785,-0.44497335,0.77862763,0.44242248,0
0.80311453,-3.8329153,-0.35762501,0.44497335,-0.77862763,-0.44242248,0
-2.7478502,0.074598312,4.8432431,0.54107618,-0.159913,0.82562965,0
-0.059848666,0.59455609,-2.8736126,-0.54107618,0.159913,-0.82562965,0
2.2882917,3.2206974,-2.6070831,0.71360719,0.60676748,-0.35013986,0
3.7768545,0.31300974,-4.612114,0.71360719,0.60676748,-0.35013986,0
-3.3338892,-3.179518,-1.4589567,-0.54107618,0.159913,-0.82562965,0
3.6430693,1.0305123,0.84010315,0.54107618,-0.159913,0.82562965,0
1.4809477,-2.7420716,-1.5956802,0.44497335,-0.77862763,-0.44242248,0
-0.33297032,-3.9845424,2.4744532,0.54107618,-0.159913,0.82562965,0
1.2283967,0.47681546,-3.7406685,-0.54107618,0.159913,-0.82562965,0
-1.9761887,-4.4432096,-2.0788846,0.44497335,-0.77862763,-0.44242248,0
0.29354608,-5.0336657,1.2430913,0.44497335,-0.77862763,-0.44242248,0
0.577232,1.1513364,-3.1832829,-0.54107618,0.159913,-0.82562965,0
-4.5444345,1.3945848,0.88599753,-0.44497335,0.77862763,0.44242248,0
-2.8535686,-2.1602266,3.2927339,-0.71360719,-0.60676748,0.35013986,0
2.3659525,2.5179844,-3.6665573,0.71360719,0.60676748,-0.35013986,0
-0.98358905,-0.34960294,-2.4511101,-0.54107618,0.159913,-0.82562965,0
-2.0891931,-2.7633417,3.8054245,-0.71360719,-0.60676748,0.35013986,0
2.3848948,3.094523,-2.6288517,0.71360719,0.60676748,-0.35013986,0
-1.1366394,0.63044143,-2.1609879,-0.54107618,0.159913,-0.82562965,0
-2.6317563,1.8276509,-0.94928062,-0.54107618,0.159913,-0.82562965,0
-0.41275144,2.7802782,2.6027951,-0.44497335,0.77862763,0.44242248,0
-1.3801796,-1.2407181,3.6921821,0.54107618,-0.159913,0.82562965,0
-5.5382957,0.26528937,0.65291119,-0.54107618,0.159913,-0.82562965,0
1.1210558,-1.595306,1.9843194,0.54107618,-0.159913,0.82562965,0
-3.2755721,-0.54729986,5.0686321,0.54107618,-0.159913,0.82562965,0
2.2959213,0.24537504,1.5708863,0.54107618,-0.159913,0.82562965,0
5.4047928,0.57788479,-0.83526182,0.71360719,0.60676748,-0.35013986,0
-1.6451812,3.0827885,0.8308655,-0.44497335,0.77862763,0.44242248,0
4.6304984,2.0596743,0.15451145,0.71360719,0.60676748,-0.35013986,0
-2.6144314,1.0409279,3.4495356,-0.44497335,0.77862763,0.44242248,0
2.3077173,-3.4438622,0.47095048,0.44497335,-0.77862763,-0.44242248,0
1.4395578,3.6128342,2.7843337,0.54107618,-0.159913,0.82562965,0
1.4056115,1.0264952,-3.7503407,-0.54107618,0.159913,-0.82562965,0
-2.1769543,2.5393023,1.2525184,-0.44497335,0.77862763,0.44242248,0
0.89167404,-2.6597195,-2.3332846,0.44497335,-0.77862763,-0.44242248,0
5.2681904,1.092309,-0.22220707,0.71360719,0.60676748,-0.35013986,0
-0.0045779496,3.6118119,-2.325434,-0.54107618,0.159913,-0.82562965,0
0.64904094,-2.6551189,-2.5854127,0.44497335,-0.77862763,-0.44242248,0
-5.7089596,0.14926137,0.74228287,-0.54107618,0.159913,-0.82562965,0
1.1912706,-3.8724875,1.4972459,0.54107618,-0.159913,0.82562965,0
1.3210095,-3.8512609,0.19554257,0.44497335,-0.77862763,-0.44242248,0
-3.7265687,2.068068,-0.18523026,-0.54107618,0.159913,-0.82562965,0
-3.4277093,-0.6337409,4.76789,-0.71360719,-0.60676748,0.35013986,0
3.7227747,-2.0896261,-0.48917902,0.44497335,-0.77862763,-0.44242248,0
0.56478047,-3.3365684,-1.4708637,0.44497335,-0.77862763,-0.44242248,0
-2.6040823,-0.080812931,4.718924,0.54107618,-0.159913,0.82562965,0
-3.8852324,-0.95863032,3.2724183,-0.71360719,-0.60676748,0.35013986,0
-4.3089652,-0.7531085,-0.3499794,-0.54107618,0.159913,-0.82562965,0
-1.9900444,0.35224819,4.4003921,0.54107618,-0.159913,0.82562965,0
-2.8834963,-3.4909153,-1.814435,-0.54107618,0.159913,-0.82562965,0
-1.6132318,-2.3473818,-2.4254155,-0.54107618,0.159913,-0.82562965,0
-0.41237736,0.23353314,3.3434753,0.54107618,-0.159913,0.82562965,0
3.1916351,3.1415558,-0.90315819,0.71360719,0.60676748,-0.35013986,0
-1.2186162,2.7377355,1.8671557,-0.44497335,0.77862763,0.44242248,0
-2.0516844,-4.6731181,-1.7501945,0.44497335,-0.77862763,-0.44242248,0
-4.6938748,0.97024107,1.4825068,-0.44497335,0.77862763,0.44242248,0
-2.0005829,-2.0002375,-2.1043284,-0.54107618,0.159913,-0.82562965,0
2.3410997,-2.0710194,-1.911566,0.44497335,-0.77862763,-0.44242248,0
-1.0642235,3.8787909,0.014273643,-0.44497335,0.77862763,0.44242248,0
-4.7392521,-0.041924715,3.1204572,-0.71360719,-0.60676748,0.35013986,0
-2.9268281,1.7177229,1.9442339,-0.44497335,0.77862763,0.44242248,0
1.4289908,0.21133757,2.1324363,0.54107618,-0.159913,0.82562965,0
4.0322504,-0.10741639,-3.6664467,0.44497335,-0.77862763,-0.44242248,0
5.0124326,0.10495496,-2.4544709,0.71360719,0.60676748,-0.35013986,0
-4.473948,1.5840349,0.62347424,-0.44497335,0.77862763,0.44242248,0
-5.1121001,-1.0044276,0.12767839,-0.54107618,0.159913,-0.82562965,0
2.5426714,-1.1744316,-3.2867541,0.44497335,-0.77862763,-0.44242248,0
-2.4292755,-3.1008587,2.527421,-0.71360719,-0.60676748,0.35013986,0
1.7565124,3.3747492,-3.423923,0.71360719,0.60676748,-0.35013986,0
-4.3191986,-2.7172236,-0.65954876,-0.71360719,-0.60676748,0.35013986,0
-2.4079347,-4.2935777,0.50401831,-0.71360719,-0.60676748,0.35013986,0
5.068295,-0.28507531,-2.311763,0.44497335,-0.77862763,-0.44242248,0
0.11865163,3.2470193,2.315835,-0.44497335,0.77862763,0.44242248,0
1.9884466,0.16276968,1.7563902,0.54107618,-0.159913,0.82562965,0
-0.81321192,2.7419543,2.2674718,-0.44497335,0.77862763,0.44242248,0
1.4221874,4.637949,-1.9162631,0.71360719,0.60676748,-0.35013986,0
0.76026344,1.319313,2.7852859,0.54107618,-0.159913,0.82562965,0
-1.262023,-2.9780624,3.2782485,0.54107618,-0.159913,0.82562965,0
1.4542484,-0.17174101,2.0416868,0.54107618,-0.159913,0.82562965,0
3.05755,4.5980492,1.3475671,0.71360719,0.60676748,-0.35013986,0
4.8252602,-0.84798676,-1.565521,0.44497335,-0.77862763,-0.44242248,0
-0.10556316,-2.6828694,2.577538,0.54107618,-0.159913,0.82562965,0
3.7197561,2.1589916,-1.5295286,0.71360719,0.60676748,-0.35013986,0
1.0835098,5.0087442,0.18576384,-0.44497335,0.77862763,0.44242248,0
-4.1764488,1.4213822,1.2089442,-0.44497335,0.77862763,0.44242248,0
0.20732546,0.15615034,2.9223652,0.54107618,-0.159913,0.82562965,0
3.9146852,0.95339012,-3.2214715,0.71360719,0.60676748,-0.35013986,0
-3.4989171,-0.97847438,4.0253658,-0.71360719,-0.60676748,0.35013986,0
-0.94030809,3.7581964,0.35114002,-0.44497335,0.77862763,0.44242248,0
2.0417728,2.7845187,2.229239,0.54107618,-0.159913,0.82562965,0
4.0923686,-9.3221664e-05,-3.7948627,0.44497335,-0.77862763,-0.44242248,0
0.0068786144,-0.29401207,-3.0894456,-0.54107618,0.159913,-0.82562965,0
-4.1878576,1.2499669,1.4991469,-0.44497335,0.77862763,0.44242248,0
0.034328461,3.7719026,1.3072739,-0.44497335,0.77862763,0.44242248,0
1.8664315,-1.2328401,1.5660427,0.54107618,-0.159913,0.82562965,0
3.2038765,1.6220791,1.2425065,0.54107618,-0.159913,0.82562965,0
3.8294744,-2.2085047,-0.17264712,0.44497335,-0.77862763,-0.44242248,0
1.1847003,4.0743952,1.9319165,-0.44497335,0.77862763,0.44242248,0
-1.5449498,2.4082754,2.1187634,-0.44497335,0.77862763,0.44242248,0
0.3211863,3.17524,2.6458638,-0.44497335,0.77862763,0.44242248,0
-1.0763109,-3.083467,-2.9198563,-0.54107618,0.159913,-0.82562965,0
-4.9278722,0.40074718,2.2494233,-0.44497335,0.77862763,0.44242248,0
0.060987115,4.4133511,0.20518875,-0.44497335,0.77862763,0.44242248,0
-1.6045258,-4.0318923,-2.4289625,0.44497335,-0.77862763,-0.44242248,0
1.346359,4.6077833,-2.1230812,0.71360719,0.60676748,-0.35013986,0
-3.3656101,1.7653695,1.419068,-0.44497335,0.77862763,0.44242248,0
-2.1323552,-0.90078557,-1.8050233,-0.54107618,0.159913,-0.82562965,0
-0.35107279,2.5417356,3.0846446,-0.44497335,0.77862763,0.44242248,0
-3.3332198,-4.1610398,-1.1520929,-0.71360719,-0.60676748,0.35013986,0
-5.1829915,-0.4498702,0.28154707,-0.54107618,0.159913,-0.82562965,0
-2.2982683,-2.2461216,4.0991182,0.54107618,-0.159913,0.82562965,0
2.8349869,-1.766994,-1.949892,0.44497335,-0.77862763,-0.44242248,0
2.783828,4.3353071,0.33439064,0.71360719,0.60676748,-0.35013986,0
-4.4005919,1.1901548,0.086451292,-0.54107618,0.159913,-0.82562965,0
1.5512867,-1.8295853,1.6569912,0.54107618,-0.159913,0.82562965,0
-1.2020717,-4.7571144,2.1583676,-0.71360719,-0.60676748,0.35013986,0
3.4185135,-0.67034876,0.65783286,0.54107618,-0.159913,0.82562965,0
2.8643835,2.1349828,1.5643353,0.54107618,-0.159913,0.82562965,0
1.7830408,-1.8060042,-2.9392478,0.44497335,-0.77862763,-0.44242248,0
3.5010757,-0.82153201,-2.9438994,0.44497335,-0.77862763,-0.44242248,0
-2.4237287,0.63673425,4.3526864,-0.44497335,0.77862763,0.44242248,0
-1.6511573,3.7838187,-0.40890121,-0.44497335,0.77862763,0.44242248,0
4.0504246,0.11795336,0.39639306,0.54107618,-0.159913,0.82562965,0
3.4785967,2.4948461,1.2315111,0.54107618,-0.159913,0.82562965,0
2.0478649,4.3982887,-1.0564055,0.71360719,0.60676748,-0.35013986,0
-0.1090703,-2.8963461,-2.9233553,0.44497335,-0.77862763,-0.44242248,0
5.35496,0.3165558,-1.3896904,0.71360719,0.60676748,-0.35013986,0
-2.1730721,1.9328569,-1.2295022,-0.54107618,0.159913,-0.82562965,0
2.6040161,4.814054,0.79755592,0.71360719,0.60676748,-0.35013986,0
3.439815,1.0657854,-3.9945149,0.71360719,0.60676748,-0.35013986,0
3.5635533,-0.48228717,-3.4781041,0.44497335,-0.77862763,-0.44242248,0
0.062462807,4.105113,0.74914765,-0.44497335,0.77862763,0.44242248,0
-0.35452318,2.1178186,3.6705203,0.54107618,-0.159913,0.82562965,0
-0.20360708,4.8098927,-0.75881147,-0.44497335,0.77862763,0.44242248,0
-3.274631,-3.8291254,-1.6236115,-0.54107618,0.159913,-0.82562965,0
-5.1227465,-1.1453221,0.42676306,-0.71360719,-0.60676748,0.35013986,0
-0.32078826,4.8638744,-0.97167206,-0.44497335,0.77862763,0.44242248,0
-2.6040502,-0.74265575,4.5907135,0.54107618,-0.159913,0.82562965,0
3.2800531,4.0087004,0.77974176,0.71360719,0.60676748,-0.35013986,0
-3.2051489,-4.6967998,-1.81951,-0.71360719,-0.60676748,0.35013986,0
-0.43846893,3.6480985,1.0496359,-0.44497335,0.77862763,0.44242248,0
0.17783213,-4.7372899,0.60511303,0.44497335,-0.77862763,-0.44242248,0
-3.897655,1.0699168,2.1078959,-0.44497335,0.77862763,0.44242248,0
-3.5807214,-3.981262,-1.344974,-0.71360719,-0.60676748,0.35013986,0
1.8014607,-0.065824509,-4.2213273,-0.54107618,0.159913,-0.82562965,0
-1.3474909,-4.9765134,-0.50799036,0.44497335,-0.77862763,-0.44242248,0
3.8681097,-0.25746632,-3.5674582,0.44497335,-0.77862763,-0.44242248,0
-2.4204643,-4.8238878,-1.8557582,0.44497335,-0.77862763,-0.44242248,0
-2.0496454,-3.8517678,1.9998589,-0.71360719,-0.60676748,0.35013986,0
-1.8760407,-3.8946657,2.2793379,-0.71360719,-0.60676748,0.35013986,0
-0.29019642,3.7700851,0.98407674,-0.44497335,0.77862763,0.44242248,0
1.9808881,4.7864881,1.4794679,-0.44497335,0.77862763,0.44242248,0
3.6029284,1.926468,-2.1705787,0.71360719,0.60676748,-0.35013986,0
3.9233978,2.1516566,-1.1272063,0.71360719,0.60676748,-0.35013986,0
-0.92432511,-1.1076307,3.4192154,0.54107618,-0.159913,0.82562965,0
4.3348732,-1.4152364,-1.0604225,0.44497335,-0.77862763,-0.44242248,0
-0.35272551,-2.1547213,-3.2141731,-0.54107618,0.159913,-0.82562965,0
-2.4737241,2.0091214,1.8871131,-0.44497335,0.77862763,0.44242248,0
-3.67503,-0.051418781,4.3052635,-0.44497335,0.77862763,0.44242248,0
1.5203402,-1.1617253,-4.2493563,-0.54107618,0.159913,-0.82562965,0
-4.3170571,1.3112204,1.2614007,-0.44497335,0.77862763,0.44242248,0
-2.7427449,1.0194826,-1.0330753,-0.54107618,0.159913,-0.82562965,0
-0.25472376,-5.2121849,2.1853971,0.54107618,-0.159913,0.82562965,0
0.24066067,-0.30604625,-3.2449856,-0.54107618,0.159913,-0.82562965,0
1.8899026,2.6250689,-3.7580996,-0.54107618,0.159913,-0.82562965,0
0.072342992,-4.981349,0.92854023,0.44497335,-0.77862763,-0.44242248,0
-0.85012925,-5.107934,2.2677031,-0.71360719,-0.60676748,0.35013986,0
-3.4433279,-2.6174996,1.2983451,-0.71360719,-0.60676748,0.35013986,0
1.0174036,3.8750303,2.1145213,-0.44497335,0.77862763,0.44242248,0
1.7621034,3.126955,2.4788451,0.54107618,-0.159913,0.82562965,0
2.5797899,-2.6232653,-0.69959205,0.44497335,-0.77862763,-0.44242248,0
4.8011045,-1.2373061,-0.90464592,0.44497335,-0.77862763,-0.44242248,0
-2.817946,-4.4333315,-0.57379436,-0.71360719,-0.60676748,0.35013986,0
2.0578218,4.7001848,-0.51294899,0.71360719,0.60676748,-0.35013986,0
-4.9736061,0.6293636,1.801079,-0.44497335,0.77862763,0.44242248,0
-3.3864813,1.4814551,1.8977426,-0.44497335,0.77862763,0.44242248,0
3.3744035,3.9072056,0.79615116,0.71360719,0.60676748,-0.35013986,0
2.8314762,-2.2293816,-1.1396579,0.44497335,-0.77862763,-0.44242248,0
-3.1760814,-3.9062421,-0.39028931,-0.71360719,-0.60676748,0.35013986,0
1.3496313,4.4506216,-2.388761,0.71360719,0.60676748,-0.35013986,0
-1.1454241,-1.986963,3.3937979,0.54107618,-0.159913,0.82562965,0
-1.027627,-3.9228034,-2.0407267,0.44497335,-0.77862763,-0.44242248,0
4.6588702,1.8351843,-0.17668962,0.71360719,0.60676748,-0.35013986,0
-0.016994238,-4.2900515,-0.37793946,0.44497335,-0.77862763,-0.44242248,0
-3.3536592,-4.389689,-1.5899811,-0.71360719,-0.60676748,0.35013986,0
-4.0744863,-1.5565075,1.8506277,-0.71360719,-0.60676748,0.35013986,0
-0.48720086,4.7279468,-0.89982224,-0.44497335,0.77862763,0.44242248,0
-0.7444582,-4.8000746,-0.21199894,0.44497335,-0.77862763,-0.44242248,0
4.2667732,0.89480138,0.40507412,0.54107618,-0.159913,0.82562965,0
-1.0965549,-4.7034531,-0.73617172,0.44497335,-0.77862763,-0.44242248,0
2.3918967,3.9347818,-1.1584725,0.71360719,0.60676748,-0.35013986,0
-2.4305737,2.1076725,1.7570701,-0.44497335,0.77862763,0.44242248,0
2.1478901,2.3602057,-3.9784715,-0.54107618,0.159913,-0.82562965,0
-3.0691729,-2.6298454,2.0395021,-0.71360719,-0.60676748,0.35013986,0
4.7968955,0.7945025,-1.6988127,0.71360719,0.60676748,-0.35013986,0
2.7533712,-2.4605417,-0.81138986,0.44497335,-0.77862763,-0.44242248,0
-0.063081026,-2.7134714,-3.198945,0.44497335,-0.77862763,-0.44242248,0
-3.4561336,-3.8700182,-0.89827967,-0.71360719,-0.60676748,0.35013986,0
2.6413145,-2.7169018,-0.47291982,0.44497335,-0.77862763,-0.44242248,0
3.9709291,2.8393128,0.16132641,0.71360719,0.60676748,-0.35013986,0
-2.1613483,2.3300154,1.6365417,-0.44497335,0.77862763,0.44242248,0
2.8734877,1.5024195,-4.3920717,0.71360719,0.60676748,-0.35013986,0
-4.1292224,-1.4695588,1.8897483,-0.71360719,-0.60676748,0.35013986,0
5.5131207,0.44815502,-0.83929682,0.71360719,0.60676748,-0.35013986,0
2.6494193,2.2175083,-3.6095376,0.71360719,0.60676748,-0.35013986,0
-2.4450188,-2.6452661,3.2848449,-0.71360719,-0.60676748,0.35013986,0
-1.1623603,-4.6861796,2.3622265,-0.71360719,-0.60676748,0.35013986,0
2.5283101,-0.4115181,-4.6438646,0.44497335,-0.77862763,-0.44242248,0
-4.8479519,-0.85244238,-0.015994072,-0.54107618,0.159913,-0.82562965,0
1.1892803,-0.36163545,2.1785536,0.54107618,-0.159913,0.82562965,0
-0.7953856,-4.6008778,2.6581213,0.54107618,-0.159913,0.82562965,0
-3.5485635,-3.3853087,-0.24669027,-0.71360719,-0.60676748,0.35013986,0
5.6099839,0.11462349,-1.2198687,0.71360719,0.60676748,-0.35013986,0
0.4877038,4.7218189,-2.4330573,-0.54107618,0.159913,-0.82562965,0
-1.7422086,3.5271816,-0.048816562,-0.44497335,0.77862763,0.44242248,0
5.2417789,1.0156465,-0.40888691,0.71360719,0.60676748,-0.35013986,0
2.7508755,2.678159,1.7439287,0.54107618,-0.159913,0.82562965,0
1.5102534,4.4837275,-2.0040331,0.71360719,0.60676748,-0.35013986,0
0.11621654,-5.2535896,1.451787,0.44497335,-0.77862763,-0.44242248,0
-3.4807391,-2.5605433,1.3207998,-0.71360719,-0.60676748,0.35013986,0
2.0523505,5.2702327,0.46375275,0.71360719,0.60676748,-0.35013986,0
-0.48750135,-5.67276,2.0279589,-0.71360719,-0.60676748,0.35013986,0
5.5085807,-0.033368781,-0.58851767,0.54107618,-0.159913,0.82562965,0
-0.62689495,-4.8983002,0.079111099,0.44497335,-0.77862763,-0.44242248,0
3.0473635,-0.027784348,-4.7971597,0.44497335,-0.77862763,-0.44242248,0
-0.5407387,1.8589301,-2.31357,-0.54107618,0.159913,-0.82562965,0
2.9826818,0.14797401,-4.9540305,-0.54107618,0.159913,-0.82562965,0
-4.1355753,1.0081549,1.9773,-0.44497335,0.77862763,0.44242248,0
-3.5318427,-1.1575408,3.6479518,-0.71360719,-0.60676748,0.35013986,0
2.3047891,-1.3058915,-3.2946494,0.44497335,-0.77862763,-0.44242248,0
1.1626198,-0.03032732,-3.7957885,-0.54107618,0.159913,-0.82562965,0
-1.3062502,4.1937532,-0.78345704,-0.44497335,0.77862763,0.44242248,0
1.3683341,-1.9281138,-3.1414418,0.44497335,-0.77862763,-0.44242248,0
2.8202269,1.4280124,-4.5996408,-0.54107618,0.159913,-0.82562965,0
2.4289591,1.469346,-4.3352175,-0.54107618,0.159913,-0.82562965,0
-3.4066701,-1.858862,2.6877205,-0.71360719,-0.60676748,0.35013986,0
-0.50049257,-3.2087576,-2.7672153,0.44497335,-0.77862763,-0.44242248,0
4.0131302,3.2751265,1.0025678,0.71360719,0.60676748,-0.35013986,0
-2.1632731,-3.2996838,2.7250009,-0.71360719,-0.60676748,0.35013986,0
-3.177141,-4.487607,-1.3999109,-0.71360719,-0.60676748,0.35013986,0
3.8551939,-0.62673789,0.38010144,0.54107618,-0.159913,0.82562965,0
0.98572969,2.8054526,2.9253712,0.54107618,-0.159913,0.82562965,0
-1.4659383,2.4220595,2.1739712,-0.44497335,0.77862763,0.44242248,0
4.2782745,1.7539525,-1.0931373,0.71360719,0.60676748,-0.35013986,0
-0.13922203,-5.6192966,1.838491,0.44497335,-0.77862763,-0.44242248,0
-0.039372921,-0.31965518,2.9918818,0.54107618,-0.159913,0.82562965,0
-0.67498994,-0.73581219,3.3278298,0.54107618,-0.159913,0.82562965,0
-1.5145719,2.2668681,-1.5963567,-0.54107618,0.159913,-0.82562965,0
-2.7701731,-2.1335905,3.508858,-0.71360719,-0.60676748,0.35013986,0
-1.8688574,-5.1138005,-0.7907486,0.44497335,-0.77862763,-0.44242248,0
-3.4088464,-3.6773956,-0.46810436,-0.71360719,-0.60676748,0.35013986,0
-4.2391949,-2.4829571,-0.090528965,-0.71360719,-0.60676748,0.35013986,0
1.407945,-4.3632698,1.1840734,0.44497335,-0.77862763,-0.44242248,0
0.12366565,4.7859111,-2.1820714,-0.54107618,0.159913,-0.82562965,0
0.63819271,4.4160032,-2.5909128,-0.54107618,0.159913,-0.82562965,0
-3.3883185,0.50636113,-0.70938325,-0.54107618,0.159913,-0.82562965,0
3.5003729,1.7457434,-2.6927752,0.71360719,0.60676748,-0.35013986,0
2.1228666,3.1628385,-3.0444949,0.71360719,0.60676748,-0.35013986,0
-1.2419205,-0.64204049,3.7175293,0.54107618,-0.159913,0.82562965,0
4.7791524,-0.85978591,-1.5911293,0.44497335,-0.77862763,-0.44242248,0
0.81127357,2.2978981,2.9413943,0.54107618,-0.159913,0.82562965,0
5.0276217,1.057989,-0.77197599,0.71360719,0.60676748,-0.35013986,0
-3.627512,-0.54557943,4.5134573,-0.71360719,-0.60676748,0.35013986,0
4.8447833,0.88221085,-1.4492221,0.71360719,0.60676748,-0.35013986,0
4.3623886,0.88782513,-2.4226441,0.71360719,0.60676748,-0.35013986,0
-1.1670492,4.2986069,-0.82798696,-0.44497335,0.77862763,0.44242248,0
-3.5514214,-1.8519145,2.4047487,-0.71360719,-0.60676748,0.35013986,0
5.4386106,-0.90246075,-0.85276484,0.44497335,-0.77862763,-0.44242248,0
-0.11457837,-4.7252522,0.28983068,0.44497335,-0.77862763,-0.44242248,0
-2.0882351,-4.2199616,1.2831573,-0.71360719,-0.60676748,0.35013986,0
0.45945573,0.98279452,2.9172413,0.54107618,-0.159913,0.82562965,0
-0.18064117,-2.0601962,2.7473435,0.54107618,-0.159913,0.82562965,0
4.5625143,1.2129104,-1.451426,0.71360719,0.60676748,-0.35013986,0
-2.174001,-1.1393919,4.232038,0.54107618,-0.159913,0.82562965,0
1.6816673,2.0676248,-3.7296016,-0.54107618,0.159913,-0.82562965,0
2.3754349,-0.62436891,-4.4230213,0.44497335,-0.77862763,-0.44242248,0
4.4386702,1.9731456,-0.38639498,0.71360719,0.60676748,-0.35013986,0
-1.4888269,-4.2534628,-1.9226513,0.44497335,-0.77862763,-0.44242248,0
0.011434078,-2.2643552,-3.4740591,-0.54107618,0.159913,-0.82562965,0
-0.89886308,-0.8191483,3.4584036,0.54107618,-0.159913,0.82562965,0
-1.3874362,0.034171343,-2.1121175,-0.54107618,0.159913,-0.82562965,0
-2.3060174,-2.4200246,3.9584658,-0.71360719,-0.60676748,0.35013986,0
-4.4879994,-1.5403187,1.0359159,-0.71360719,-0.60676748,0.35013986,0
1.8410455,5.3003311,0.43449831,-0.44497335,0.77862763,0.44242248,0
-1.5157959,3.4417987,0.3291682,-0.44497335,0.77862763,0.44242248,0
1.9010208,-2.4413092,-1.7025025,0.44497335,-0.77862763,-0.44242248,0
-5.2118936,1.1322905,0.60693002,-0.54107618,0.159913,-0.82562965,0
0.34956652,5.7088943,-1.7846184,-0.44497335,0.77862763,0.44242248,0
0.6074186,5.4278736,-1.0307064,-0.44497335,0.77862763,0.44242248,0
-1.7227631,-4.4285216,1.6665931,-0.71360719,-0.60676748,0.35013986,0
1.3696811,4.1494431,1.9858856,-0.44497335,0.77862763,0.44242248,0
-2.3039229,0.61669874,4.5084438,-0.44497335,0.77862763,0.44242248,0
-2.4712648,2.4250636,-0.938748,-0.54107618,0.159913,-0.82562965,0
4.0167332,1.6618692,0.71750832,0.54107618,-0.159913,0.82562965,0
1.335022,5.5320597,-0.5444808,0.71360719,0.60676748,-0.35013986,0
3.9303813,2.9683294,0.30226183,0.71360719,0.60676748,-0.35013986,0
-0.70178342,-3.0823178,2.890903,0.54107618,-0.159913,0.82562965,0
-2.5364957,-4.7272983,-2.1424489,0.44497335,-0.77862763,-0.44242248,0
3.5733061,1.4187202,0.96101356,0.54107618,-0.159913,0.82562965,0
-0.85463643,3.3956978,1.0752732,-0.44497335,0.77862763,0.44242248,0
3.3289208,1.4390011,-3.5737679,0.71360719,0.60676748,-0.35013986,0
2.4162915,2.9392323,-2.8339715,0.71360719,0.60676748,-0.35013986,0
5.0074334,-0.55851734,-1.8917408,0.44497335,-0.77862763,-0.44242248,0
1.9085877,-2.0720029,1.3758813,0.54107618,-0.159913,0.82562965,0
-3.8453326,-1.4715524,2.4648793,-0.71360719,-0.60676748,0.35013986,0
-4.6248016,-1.683599,0.50881052,-0.71360719,-0.60676748,0.35013986,0
-0.31032729,2.1451602,3.6468525,0.54107618,-0.159913,0.82562965,0
0.45626283,-2.7293749,-2.648618,0.44497335,-0.77862763,-0.44242248,0
4.340765,-0.13461924,-3.3082795,0.44497335,-0.77862763,-0.44242248,0
2.6162655,3.8213491,-0.89776516,0.71360719,0.60676748,-0.35013986,0
-2.5091202,1.2753515,3.1428883,-0.44497335,0.77862763,0.44242248,0
1.2327179,5.1281133,-1.4529939,0.71360719,0.60676748,-0.35013986,0
3.2233014,4.5853682,1.663403,0.71360719,0.60676748,-0.35013986,0
2.6928754,2.5043497,-3.0238953,0.71360719,0.60676748,-0.35013986,0
-0.031774044,-5.4673219,1.989871,0.54107618,-0.159913,0.82562965,0
2.346693,-3.598763,0.79305696,0.54107618,-0.159913,0.82562965,0
-1.0678053,2.0194468,3.2829657,-0.44497335,0.77862763,0.44242248,0
0.056046247,-4.3092675,-0.27065969,0.44497335,-0.77862763,-0.44242248,0
3.1159501,1.7298901,-3.5037262,0.71360719,0.60676748,-0.35013986,0
-0.8844018,-5.2073336,2.0256009,-0.71360719,-0.60676748,0.35013986,0
-2.769484,2.2593863,1.149202,-0.44497335,0.77862763,0.44242248,0
0.48109484,0.92173052,2.8912325,0.54107618,-0.159913,0.82562965,0
-0.51546788,0.22945261,-2.6457381,-0.54107618,0.159913,-0.82562965,0
0.44028306,-4.4598293,1.8756456,0.54107618,-0.159913,0.82562965,0
-4.2925372,0.89623177,2.016408,-0.44497335,0.77862763,0.44242248,0
-2.4843643,-3.6154544,-2.1001282,-0.54107618,0.159913,-0.82562965,0
-1.3506467,-3.2941661,-2.7808797,-0.54107618,0.159913,-0.82562965,0
2.6748791,-1.7322001,-2.1721568,0.44497335,-0.77862763,-0.44242248,0
0.88782024,-3.2123227,-1.3646237,0.44497335,-0.77862763,-0.44242248,0
-2.6155593,-0.69858181,-1.4491913,-0.54107618,0.159913,-0.82562965,0
-3.066622,-4.8881121,-1.8687143,-0.71360719,-0.60676748,0.35013986,0
0.22382548,-2.9430044,2.3112888,0.54107618,-0.159913,0.82562965,0
-0.13076411,3.9116678,-2.18466,-0.54107618,0.159913,-0.82562965,0
-3.1951013,-3.7181325,-0.10307169,-0.71360719,-0.60676748,0.35013986,0
-0.73563504,1.6527073,3.8301961,0.54107618,-0.159913,0.82562965,0
-2.9642458,-2.3012002,2.8228698,-0.71360719,-0.60676748,0.35013986,0
-4.0874987,0.79955232,-0.19438887,-0.54107618,0.159913,-0.82562965,0
0.4300673,3.9863043,1.3279655,-0.44497335,0.77862763,0.44242248,0
-1.724388,-4.4575939,1.6128998,-0.71360719,-0.60676748,0.35013986,0
-5.5170455,0.19977999,1.9541216,-0.71360719,-0.60676748,0.35013986,0
1.9729714,3.9229279,-2.0328102,0.71360719,0.60676748,-0.35013986,0
-3.2144542,2.7079499,-0.39690813,-0.54107618,0.159913,-0.82562965,0
-4.4893632,-1.0360821,1.9069431,-0.71360719,-0.60676748,0.35013986,0
5.088861,0.01626873,-2.4523931,0.71360719,0.60676748,-0.35013986,0
-1.6299276,-5.033618,0.80720854,-0.71360719,-0.60676748,0.35013986,0
2.0129704,-0.86386156,-4.366087,0.44497335,-0.77862763,-0.44242248,0
1.0591519,4.7857723,-2.3999844,0.71360719,0.60676748,-0.35013986,0
-3.3434422,1.7548678,1.4598458,-0.44497335,0.77862763,0.44242248,0
5.4261241,0.50450146,-0.91895628,0.71360719,0.60676748,-0.35013986,0
-1.5547144,-2.254894,3.6101317,0.54107618,-0.159913,0.82562965,0
1.4606302,-3.4192874,-0.42427051,0.44497335,-0.77862763,-0.44242248,0
1.9569813,-3.4221966,0.080062628,0.44497335,-0.77862763,-0.44242248,0
2.103555,4.1545668,-1.3652592,0.71360719,0.60676748,-0.35013986,0
-4.4717479,-0.94713545,2.0969825,-0.71360719,-0.60676748,0.35013986,0
2.5647566,-2.3098402,0.89979541,0.54107618,-0.159913,0.82562965,0
-2.8287253,3.0134912,-0.23754463,-0.44497335,0.77862763,0.44242248,0
3.2173774,-1.929441,-1.2794026,0.44497335,-0.77862763,-0.44242248,0
1.641113,-3.3813324,1.2975718,0.54107618,-0.159913,0.82562965,0
3.2375932,3.8702812,0.45333624,0.71360719,0.60676748,-0.35013986,0
3.2992358,-1.7622111,0.52452284,0.54107618,-0.159913,0.82562965,0
-5.0486236,-1.1875314,0.50468397,-0.71360719,-0.60676748,0.35013986,0
-0.89239991,-5.014143,0.015949726,0.44497335,-0.77862763,-0.44242248,0
2.1604044,5.1654463,0.50238609,0.71360719,0.60676748,-0.35013986,0
-0.68728733,2.7404428,2.3967838,-0.44497335,0.77862763,0.44242248,0
4.5911798,0.7087822,-2.2666228,0.71360719,0.60676748,-0.35013986,0
4.6620274,0.81412554,-1.9396782,0.71360719,0.60676748,-0.35013986,0
2.283092,-1.8857719,-2.295929,0.44497335,-0.77862763,-0.44242248,0
2.3193712,4.1272449,-0.97275877,0.71360719,0.60676748,-0.35013986,0
-4.8497791,-0.99751723,1.239222,-0.71360719,-0.60676748,0.35013986,0
2.0893192,4.0606561,-1.5570126,0.71360719,0.60676748,-0.35013986,0
1.7681758,3.5238638,-3.1417472,0.71360719,0.60676748,-0.35013986,0
-0.49880338,-3.0468283,-3.050499,0.44497335,-0.77862763,-0.44242248,0
2.0578604,-3.2246568,1.0548024,0.54107618,-0.159913,0.82562965,0
-0.20445418,1.2457643,-2.6527154,-0.54107618,0.159913,-0.82562965,0
-2.6099424,-3.8898115,0.79201174,-0.71360719,-0.60676748,0.35013986,0
-3.0388758,-2.4640729,2.3885229,-0.71360719,-0.60676748,0.35013986,0
1.8011303,2.0179789,-3.817507,-0.54107618,0.159913,-0.82562965,0
-0.53587842,-4.4819384,-0.5621109,0.44497335,-0.77862763,-0.44242248,0
-2.8262277,2.3757493,0.88734138,-0.44497335,0.77862763,0.44242248,0
-1.2433034,3.2326148,-1.5870807,-0.54107618,0.159913,-0.82562965,0
-3.3425066,0.30990076,4.0038109,-0.44497335,0.77862763,0.44242248,0
3.4172926,4.0996389,1.2170358,0.71360719,0.60676748,-0.35013986,0
-5.3012505,-0.97430819,0.35931492,-0.71360719,-0.60676748,0.35013986,0
1.1157966,-2.6000023,-2.2129676,0.44497335,-0.77862763,-0.44242248,0
-0.12447667,-2.557796,2.6141579,0.54107618,-0.159913,0.82562965,0
-2.1690426,-5.1282682,-0.45556355,-0.71360719,-0.60676748,0.35013986,0
-3.4023633,1.6311738,1.6182766,-0.44497335,0.77862763,0.44242248,0
-2.4609952,-5.1633868,-1.1114397,-0.71360719,-0.60676748,0.35013986,0
4.2933478,0.75822186,-2.7879472,0.71360719,0.60676748,-0.35013986,0
2.8122051,2.7137666,-2.4177887,0.71360719,0.60676748,-0.35013986,0
3.1144481,-0.29917264,-4.2520657,0.44497335,-0.77862763,-0.44242248,0
3.1779575,4.4549198,1.3449316,0.71360719,0.60676748,-0.35013986,0
-1.6621057,-1.9782957,-2.3218997,-0.54107618,0.159913,-0.82562965,0
0.74172091,5.6272535,-1.2465229,-0.44497335,0.77862763,0.44242248,0
2.0476413,0.021720648,1.6902778,0.54107618,-0.159913,0.82562965,0
-2.5510697,-4.1193461,0.51423073,-0.71360719,-0.60676748,0.35013986,0
0.085101128,-4.4054809,-0.072110176,0.44497335,-0.77862763,-0.44242248,0
-4.5279131,1.4004483,0.89229536,-0.44497335,0.77862763,0.44242248,0
-3.8621998,-2.4652517,-0.97438526,-0.54107618,0.159913,-0.82562965,0
1.6420228,-2.0497017,-2.6521909,0.44497335,-0.77862763,-0.44242248,0
-1.7308538,0.23851633,-1.8474799,-0.54107618,0.159913,-0.82562965,0
2.5979731,3.519506,-1.4581189,0.71360719,0.60676748,-0.35013986,0
-3.0093064,0.51553869,-0.95599103,-0.54107618,0.159913,-0.82562965,0
3.3812242,3.8537683,0.71744919,0.71360719,0.60676748,-0.35013986,0
-0.98924279,3.7332587,0.34581137,-0.44497335,0.77862763,0.44242248,0
-1.5458891,2.1576457,2.5589063,-0.44497335,0.77862763,0.44242248,0
2.7640557,2.391089,-3.0750988,0.71360719,0.60676748,-0.35013986,0
1.7216733,4.6579437,-1.2712417,0.71360719,0.60676748,-0.35013986,0
-0.030399323,-4.0010028,-0.90012455,0.44497335,-0.77862763,-0.44242248,0
4.7767739,-0.30942678,-2.5621092,0.44497335,-0.77862763,-0.44242248,0
-0.060350418,-2.7049923,-3.2111223,0.44497335,-0.77862763,-0.44242248,0
-4.3550868,-1.9233685,0.64300203,-0.71360719,-0.60676748,0.35013986,0
-2.517323,-3.9851489,-2.1501327,-0.54107618,0.159913,-0.82562965,0
1.2615294,-2.6398375,1.689949,0.54107618,-0.159913,0.82562965,0
4.8108931,1.7975836,0.067983627,0.71360719,0.60676748,-0.35013986,0
-4.2276964,-0.31998205,3.6811874,-0.71360719,-0.60676748,0.35013986,0
0.019894838,5.404079,-1.9943352,-0.54107618,0.159913,-0.82562965,0
-1.9574492,-1.0338309,4.1105671,0.54107618,-0.159913,0.82562965,0
-1.0317624,3.5937595,0.54855394,-0.44497335,0.77862763,0.44242248,0
-3.4773831,-0.12643337,4.6360703,-0.44497335,0.77862763,0.44242248,0
2.4473121,5.1155324,1.3694906,-0.44497335,0.77862763,0.44242248,0
-2.302793,-3.856236,1.4761858,-0.71360719,-0.60676748,0.35013986,0
-1.8074164,-4.4049783,1.5348639,-0.71360719,-0.60676748,0.35013986,0
-0.4043287,-5.3224626,1.0494523,0.44497335,-0.77862763,-0.44242248,0
-1.173418,3.861644,-0.065373659,-0.44497335,0.77862763,0.44242248,0
1.4594562,-1.1137903,-4.2001715,-0.54107618,0.159913,-0.82562965,0
2.6943791,-1.3668884,-2.7954633,0.44497335,-0.77862763,-0.44242248,0
0.22398093,5.33922,-2.140645,-0.54107618,0.159913,-0.82562965,0
-1.7963296,2.7961001,-1.309202,-0.54107618,0.159913,-0.82562965,0
2.7306836,0.59123051,1.3529522,0.54107618,-0.159913,0.82562965,0
3.0422587,-0.39430022,-4.1572552,0.44497335,-0.77862763,-0.44242248,0
3.3599567,2.2120037,-2.1709569,0.71360719,0.60676748,-0.35013986,0
1.4505595,-3.8438094,0.31272531,0.44497335,-0.77862763,-0.44242248,0
0.89939404,-2.207365,-3.1216269,0.44497335,-0.77862763,-0.44242248,0
-3.8443165,1.9677074,0.58150351,-0.44497335,0.77862763,0.44242248,0
5.1694036,0.14063287,-2.0727265,0.71360719,0.60676748,-0.35013986,0
0.81944233,3.5067573,-2.8858027,-0.54107618,0.159913,-0.82562965,0
4.9535041,1.1363598,0.0018115044,0.54107618,-0.159913,0.82562965,0
-3.2996895,-1.1075242,4.2077689,-0.71360719,-0.60676748,0.35013986,0
0.088331938,3.336416,2.1280103,-0.44497335,0.77862763,0.44242248,0
-1.2710438,2.5948822,2.0658355,-0.44497335,0.77862763,0.44242248,0
-2.1291237,-3.0444655,3.2368748,-0.71360719,-0.60676748,0.35013986,0
-1.7007692,1.0522718,4.3464003,0.54107618,-0.159913,0.82562965,0
5.1972623,0.7718246,-0.92213964,0.71360719,0.60676748,-0.35013986,0
-4.0158029,-3.2797775,-1.0160766,-0.71360719,-0.60676748,0.35013986,0
-5.2945199,-0.82178336,0.63734627,-0.71360719,-0.60676748,0.35013986,0
-2.8230255,1.5232269,2.3909326,-0.44497335,0.77862763,0.44242248,0
1.6654155,5.262413,0.3245883,-0.44497335,0.77862763,0.44242248,0
-0.52203047,-4.8945408,0.17796373,0.44497335,-0.77862763,-0.44242248,0
-3.5006881,2.3241611,0.29978335,-0.44497335,0.77862763,0.44242248,0
4.1155591,-1.6644883,-0.84233809,0.44497335,-0.77862763,-0.44242248,0
0.58983982,-4.3114204,0.27000093,0.44497335,-0.77862763,-0.44242248,0
-1.1760796,-5.2912145,1.2857833,-0.71360719,-0.60676748,0.35013986,0
-2.8347659,-4.5459161,-2.0507092,-0.54107618,0.159913,-0.82562965,0
2.6769378,2.7907758,-2.5600212,0.71360719,0.60676748,-0.35013986,0
-4.7256436,-1.7992835,0.10281563,-0.71360719,-0.60676748,0.35013986,0
-1.8560133,-0.45169628,-1.8991413,-0.54107618,0.159913,-0.82562965,0
3.8663199,0.72509265,0.63464046,0.54107618,-0.159913,0.82562965,0
-1.8829331,-3.8796227,2.2913589,-0.71360719,-0.60676748,0.35013986,0
5.3261437,0.5838927,-0.98514414,0.71360719,0.60676748,-0.35013986,0
4.3792048,1.6881276,-1.0015039,0.71360719,0.60676748,-0.35013986,0
-2.8226829,3.092993,-0.37138385,-0.44497335,0.77862763,0.44242248,0
-1.6607764,2.2530742,2.2754111,-0.44497335,0.77862763,0.44242248,0
-4.29597,-0.38681221,3.4262288,-0.71360719,-0.60676748,0.35013986,0
-3.2404065,-4.2858238,-1.1791749,-0.71360719,-0.60676748,0.35013986,0
-3.1961086,1.7490678,1.6182367,-0.44497335,0.77862763,0.44242248,0
0.50039595,3.0659747,-2.7620897,-0.54107618,0.159913,-0.82562965,0
0.84907663,0.12818575,2.4963775,0.54107618,-0.159913,0.82562965,0
-2.6495879,-2.3199518,3.4316671,-0.71360719,-0.60676748,0.35013986,0
4.6914258,-0.10617399,-3.0056579,0.44497335,-0.77862763,-0.44242248,0
0.96754336,-1.3948908,-3.9322419,-0.54107618,0.159913,-0.82562965,0
-4.4447331,-0.97082961,2.1109805,-0.71360719,-0.60676748,0.35013986,0
-3.9905696,-3.2450707,-0.90450335,-0.71360719,-0.60676748,0.35013986,0
-1.1383972,-5.3812923,0.41468668,0.44497335,-0.77862763,-0.44242248,0
-0.029764161,4.3649311,-2.1630595,-0.54107618,0.159913,-0.82562965,0
1.2517896,-2.5563908,-2.1529427,0.44497335,-0.77862763,-0.44242248,0
-5.5861273,-0.054163933,1.3732629,-0.71360719,-0.60676748,0.35013986,0
-1.704165,-3.0272744,-2.4975088,-0.54107618,0.159913,-0.82562965,0
2.313848,0.10060465,1.531098,0.54107618,-0.159913,0.82562965,0
-2.5044303,-2.4560888,3.491591,-0.71360719,-0.60676748,0.35013986,0
-0.73384726,-5.1306906,0.38052988,0.44497335,-0.77862763,-0.44242248,0
0.073558688,-1.9500325,2.6020908,0.54107618,-0.159913,0.82562965,0
1.2827204,4.3833904,-2.6416359,0.71360719,0.60676748,-0.35013986,0
-2.431978,1.6604707,2.5426965,-0.44497335,0.77862763,0.44242248,0
-1.8246129,-5.0367703,0.4049654,-0.71360719,-0.60676748,0.35013986,0
-0.55374157,-4.9876513,0.30993748,0.44497335,-0.77862763,-0.44242248,0
-4.7639337,0.89004308,0.26643991,-0.54107618,0.159913,-0.82562965,0
-4.8476133,0.44609451,2.2503374,-0.44497335,0.77862763,0.44242248,0
3.6708174,1.5434965,-2.6958785,0.71360719,0.60676748,-0.35013986,0
5.882493,-0.13353136,-0.85296154,0.54107618,-0.159913,0.82562965,0
-3.497021,1.5317008,-0.439551,-0.54107618,0.159913,-0.82562965,0
2.8746796,-0.16934681,-4.7216997,0.44497335,-0.77862763,-0.44242248,0
-2.628998,-2.4160337,3.3071275,-0.71360719,-0.60676748,0.35013986,0
-0.050364971,-0.91799331,-3.1727872,-0.54107618,0.159913,-0.82562965,0
-2.3243346,1.7029474,-1.1749027,-0.54107618,0.159913,-0.82562965,0
3.6010985,1.1006181,0.88118744,0.54107618,-0.159913,0.82562965,0
3.5763831,2.5019464,1.1688023,0.54107618,-0.159913,0.82562965,0
0.50616121,2.3179085,3.1452255,0.54107618,-0.159913,0.82562965,0
-1.3445418,1.0817301,4.1186528,0.54107618,-0.159913,0.82562965,0
-3.5033412,1.4516132,1.8327289,-0.44497335,0.77862763,0.44242248,0
2.9890914,3.5759673,-0.56315136,0.71360719,0.60676748,-0.35013986,0
-4.0002127,-0.74818206,3.4027724,-0.71360719,-0.60676748,0.35013986,0
1.8735356,2.6911149,2.3214025,0.54107618,-0.159913,0.82562965,0
-4.3455939,-0.89938748,2.4368358,-0.71360719,-0.60676748,0.35013986,0
3.0851884,1.1808054,1.2348199,0.54107618,-0.159913,0.82562965,0
-0.46503139,-0.10824847,3.3117838,0.54107618,-0.159913,0.82562965,0
-4.7942152,-0.75587654,1.7712121,-0.71360719,-0.60676748,0.35013986,0
1.6297803,4.4050689,-1.896739,0.71360719,0.60676748,-0.35013986,0
0.20563686,2.8766623,-2.6055863,-0.54107618,0.159913,-0.82562965,0
-0.37809634,1.5354159,3.5731654,0.54107618,-0.159913,0.82562965,0
3.9457095,-0.55589134,0.33450389,0.54107618,-0.159913,0.82562965,0
-0.079189777,5.0570455,-1.068645,-0.44497335,0.77862763,0.44242248,0
-0.60068893,-4.508471,2.5484252,0.54107618,-0.159913,0.82562965,0
-4.4948621,1.5258858,0.70477772,-0.44497335,0.77862763,0.44242248,0
2.9640028,0.21716523,1.1275952,0.54107618,-0.159913,0.82562965,0
-3.7489324,-3.6739542,-1.1552567,-0.71360719,-0.60676748,0.35013986,0
-1.307056,-4.4813128,-1.3388362,0.44497335,-0.77862763,-0.44242248,0
0.89793307,-1.6109179,2.1275191,0.54107618,-0.159913,0.82562965,0
-5.2293835,-0.13382721,1.9622772,-0.71360719,-0.60676748,0.35013986,0
4.3886108,-0.41954756,0.070656538,0.54107618,-0.159913,0.82562965,0
3.9541113,1.0038636,-3.0536518,0.71360719,0.60676748,-0.35013986,0
0.2181592,0.83760595,3.0472538,0.54107618,-0.159913,0.82562965,0
1.2607105,-4.289176,1.3710318,0.54107618,-0.159913,0.82562965,0
-0.39374018,-4.5307446,-0.33325768,0.44497335,-0.77862763,-0.44242248,0
0.24239349,4.1749172,0.80726528,-0.44497335,0.77862763,0.44242248,0
2.2569685,-2.8388669,-0.64483333,0.44497335,-0.77862763,-0.44242248,0
-0.69382596,-1.2966871,3.2315402,0.54107618,-0.159913,0.82562965,0
4.451015,-1.1250874,-1.4542495,0.44497335,-0.77862763,-0.44242248,0
2.1834106,0.75974894,-4.3117361,-0.54107618,0.159913,-0.82562965,0
-4.5895319,-1.1577286,1.4919887,-0.71360719,-0.60676748,0.35013986,0
-4.6026993,-0.47643065,2.6457925,-0.71360719,-0.60676748,0.35013986,0
-3.3109856,-3.6341553,-0.19372511,-0.71360719,-0.60676748,0.35013986,0
0.83876133,3.8173418,2.036375,-0.44497335,0.77862763,0.44242248,0
-4.1324182,1.2591957,1.538664,-0.44497335,0.77862763,0.44242248,0
2.6829717,-1.7967502,-2.050415,0.44497335,-0.77862763,-0.44242248,0
3.1732683,0.055927277,-4.8178525,0.44497335,-0.77862763,-0.44242248,0
-2.3121824,1.7612469,2.4858246,-0.44497335,0.77862763,0.44242248,0
3.254818,-2.7064884,0.37073895,0.54107618,-0.159913,0.82562965,0
-0.66175675,-2.6798117,-3.1133516,-0.54107618,0.159913,-0.82562965,0
2.686399,-0.55069411,1.1607991,0.54107618,-0.159913,0.82562965,0
1.7985293,2.5591078,2.3449895,0.54107618,-0.159913,0.82562965,0
0.31920958,0.23827052,2.8649476,0.54107618,-0.159913,0.82562965,0
-1.834682,3.7268634,-0.49324679,-0.44497335,0.77862763,0.44242248,0
