0.12951422,-3.098156,-3.9582496,-0.14813372,-0.95113081,-0.27093613,0
-2.6738265,0.85631657,-1.1132615,-0.9782486,0.1006968,0.1813553,0
0.75261223,3.4272149,-2.230746,-0.14521015,0.29190782,-0.94535899,0
0.3133831,-3.087605,-4.0958185,-0.14813372,-0.95113081,-0.27093613,0
0.95945168,-3.4291387,-3.2500889,-0.14813372,-0.95113081,-0.27093613,0
-2.4762781,1.5084813,-2.327244,-0.14521015,0.29190782,-0.94535899,0
1.3838644,-4.038835,-1.3417759,-0.14813372,-0.95113081,-0.27093613,0
-3.2987716,-2.8457513,-2.9699192,-0.14813372,-0.95113081,-0.27093613,0
2.7796888,-0.48126149,1.4760454,0.9782486,-0.1006968,-0.1813553,0
-2.5244224,3.0464029,-1.5233989,-0.9782486,0.1006968,0.1813553,0
2.8519726,1.8694077,0.56074953,0.9782486,-0.1006968,-0.1813553,0
2.7570403,4.0033398,-0.79764581,0.14813372,0.95113081,0.27093613,0
-0.72043777,-0.23032904,-3.1338563,-0.14521015,0.29190782,-0.94535899,0
1.6252105,2.9823778,3.4053009,0.14813372,0.95113081,0.27093613,0
2.3392518,0.39744854,-1.3876177,0.9782486,-0.1006968,-0.1813553,0
-0.9057951,-0.93845344,3.0227544,0.14521015,-0.29190782,0.94535899,0
-2.1327169,4.5444727,-0.24229813,-0.9782486,0.1006968,0.1813553,0
-3.1657236,-2.4643087,-1.9228379,-0.9782486,0.1006968,0.1813553,0
1.5411139,2.1533637,3.6015923,0.14521015,-0.29190782,0.94535899,0
-3.0249736,-3.1799464,-1.946413,-0.14813372,-0.95113081,-0.27093613,0
-0.49921674,-4.2124672,0.2973361,-0.14813372,-0.95113081,-0.27093613,0
-1.9359541,-3.6218519,-0.99050832,-0.14813372,-0.95113081,-0.27093613,0
-1.7647262,-0.59129286,-3.0849087,-0.14521015,0.29190782,-0.94535899,0
1.0356462,-4.4964037,0.45492125,-0.14813372,-0.95113081,-0.27093613,0
-2.7117438,1.2060139,-1.5119603,-0.9782486,0.1006968,0.1813553,0
-0.20433497,-2.279335,2.5009708,0.14521015,-0.29190782,0.94535899,0
0.67284918,3.6520543,1.5750802,0.14813372,0.95113081,0.27093613,0
-1.9981713,1.7436919,2.0385787,-0.9782486,0.1006968,0.1813553,0
2.7260492,3.1368866,2.2610116,0.14813372,0.95113081,0.27093613,0
-2.6710339,-0.4275825,-0.38531792,-0.9782486,0.1006968,0.1813553,0
-2.639971,-3.0906861,1.2609187,-0.9782486,0.1006968,0.1813553,0
0.51363325,3.0334496,3.8337636,0.14813372,0.95113081,0.27093613,0
1.9417028,-1.025978,-2.7416825,0.9782486,-0.1006968,-0.1813553,0
-1.0422251,-3.5329103,2.2425947,0.14521015,-0.29190782,0.94535899,0
-2.6010509,-1.6929318,0.69476068,-0.9782486,0.1006968,0.1813553,0
2.5112884,3.2019196,-2.0168076,0.9782486,-0.1006968,-0.1813553,0
1.849673,0.22033638,-3.3894773,-0.14521015,0.29190782,-0.94535899,0
-3.0443594,-1.6879268,-3.2269711,-0.14521015,0.29190782,-0.94535899,0
3.3180652,2.0236022,2.989285,0.9782486,-0.1006968,-0.1813553,0
0.71229738,-4.5497437,0.81896496,-0.14813372,-0.95113081,-0.27093613,0
-1.2294822,-3.9215221,2.1513627,0.14521015,-0.29190782,0.94535899,0
1.6899405,-4.4624944,1.5358887,0.14521015,-0.29190782,0.94535899,0
1.7997634,4.0114498,-0.3027277,0.14813372,0.95113081,0.27093613,0
-1.7084932,3.0840523,2.8569016,-0.9782486,0.1006968,0.1813553,0
0.80047393,-0.44426644,2.9132612,0.14521015,-0.29190782,0.94535899,0
-2.1279531,1.0908502,1.7010107,-0.9782486,0.1006968,0.1813553,0
-0.49104261,4.4200821,-0.48475266,0.14813372,0.95113081,0.27093613,0
1.8940547,-0.15922713,2.8332977,0.14521015,-0.29190782,0.94535899,0
2.0838544,1.118428,-3.1481357,-0.14521015,0.29190782,-0.94535899,0
-2.1908765,-0.9341203,2.4859552,-0.9782486,0.1006968,0.1813553,0
-3.1353695,-1.6371698,-2.2183697,-0.9782486,0.1006968,0.1813553,0
-0.91209602,-0.56447279,-3.2075937,-0.14521015,0.29190782,-0.94535899,0
-2.276701,0.99189019,0.95359743,-0.9782486,0.1006968,0.1813553,0
-1.5034306,-1.7058433,2.8775988,0.14521015,-0.29190782,0.94535899,0
-2.2522478,-3.3313324,-1.8374546,-0.14813372,-0.95113081,-0.27093613,0
2.6209288,-1.3298631,2.3601792,0.14521015,-0.29190782,0.94535899,0
-0.01645565,0.46227768,3.3186665,0.14521015,-0.29190782,0.94535899,0
0.095869541,2.2210338,3.8444815,0.14521015,-0.29190782,0.94535899,0
-1.0587742,3.4234731,3.3242836,0.14813372,0.95113081,0.27093613,0
-1.6164948,-4.3655481,1.4455998,-0.14813372,-0.95113081,-0.27093613,0
2.0800924,2.3181872,3.5696974,0.14521015,-0.29190782,0.94535899,0
0.8548975,3.4099164,2.3255794,0.14813372,0.95113081,0.27093613,0
1.6530473,-3.3278575,-3.0206118,0.9782486,-0.1006968,-0.1813553,0
-1.5846515,2.4857492,3.8571241,-0.9782486,0.1006968,0.1813553,0
-1.2757816,-1.2420877,-3.3609643,-0.14521015,0.29190782,-0.94535899,0
0.85358751,-4.4811506,0.50091362,-0.14813372,-0.95113081,-0.27093613,0
-0.8513304,3.9631329,-1.8188944,-0.14521015,0.29190782,-0.94535899,0
1.0495031,1.180795,-2.9699984,-0.14521015,0.29190782,-0.94535899,0
1.024616,-1.7803656,2.4662716,0.14521015,-0.29190782,0.94535899,0
1.467489,-0.92928332,-3.6857522,-0.14521015,0.29190782,-0.94535899,0
0.032858595,4.3599949,-0.560256,0.14813372,0.95113081,0.27093613,0
0.1165247,-2.5261633,2.3754704,0.14521015,-0.29190782,0.94535899,0
2.1347265,0.45568967,-2.5231864,0.9782486,-0.1006968,-0.1813553,0
-2.6193879,0.16837597,-0.43763667,-0.9782486,0.1006968,0.1813553,0
-3.1773791,-2.2484977,-3.379632,-0.14521015,0.29190782,-0.94535899,0
-2.562726,-3.3608112,-1.564214,-0.14813372,-0.95113081,-0.27093613,0
-1.1113803,-3.2968278,-2.5823488,-0.14813372,-0.95113081,-0.27093613,0
-1.6727659,-4.1341405,0.66400194,-0.14813372,-0.95113081,-0.27093613,0
2.183749,4.1393423,-0.96164036,0.14813372,0.95113081,0.27093613,0
0.99152881,-4.0195994,-1.1947961,-0.14813372,-0.95113081,-0.27093613,0
1.2940822,3.4939494,1.7904549,0.14813372,0.95113081,0.27093613,0
-1.1715307,3.6693838,2.5226545,0.14813372,0.95113081,0.27093613,0
1.6436617,-3.3700066,-3.0478344,0.9782486,-0.1006968,-0.1813553,0
1.4019663,3.2407928,2.6201844,0.14813372,0.95113081,0.27093613,0
0.59000731,-0.46838358,-3.4086514,-0.14521015,0.29190782,-0.94535899,0
-2.3019857,2.5740404,-2.0249929,-0.14521015,0.29190782,-0.94535899,0
-1.6264508,2.8158391,3.4483721,-0.9782486,0.1006968,0.1813553,0
-1.332446,-4.0590172,0.21420884,-0.14813372,-0.95113081,-0.27093613,0
2.89816,1.8601243,3.3025987,0.14521015,-0.29190782,0.94535899,0
-2.3538535,0.43900037,-2.6762831,-0.14521015,0.29190782,-0.94535899,0
-2.2667925,-3.9883194,2.2900712,0.14521015,-0.29190782,0.94535899,0
-0.53432441,2.8341291,-2.2162013,-0.14521015,0.29190782,-0.94535899,0
3.0078397,3.3691542,0.56878376,0.9782486,-0.1006968,-0.1813553,0
3.1286416,1.0191131,2.525254,0.9782486,-0.1006968,-0.1813553,0
3.2261355,3.0245533,2.3819413,0.14813372,0.95113081,0.27093613,0
-2.5526814,-4.0145721,0.72534466,-0.14813372,-0.95113081,-0.27093613,0
2.8730361,2.0049191,0.59912527,0.9782486,-0.1006968,-0.1813553,0
-0.26015037,-4.5737977,1.4350898,-0.14813372,-0.95113081,-0.27093613,0
-2.6862183,1.7451563,-1.6736287,-0.9782486,0.1006968,0.1813553,0
0.59358752,4.0509,0.21825552,0.14813372,0.95113081,0.27093613,0
-2.280674,-0.88312495,1.9732625,-0.9782486,0.1006968,0.1813553,0
-0.78101516,-4.609539,1.8700309,0.14521015,-0.29190782,0.94535899,0
0.46643496,4.0642209,0.24101067,0.14813372,0.95113081,0.27093613,0
-0.56454849,-3.1457138,-3.4118195,-0.14813372,-0.95113081,-0.27093613,0
0.52488828,-1.3137844,-3.6596918,-0.14521015,0.29190782,-0.94535899,0
-0.91756058,4.6161165,-1.6070933,-0.14521015,0.29190782,-0.94535899,0
-2.2674048,1.4027996,-2.3919599,-0.14521015,0.29190782,-0.94535899,0
-0.1086657,-4.647778,1.611975,-0.14813372,-0.95113081,-0.27093613,0
-2.1361642,0.35416007,2.0657649,-0.9782486,0.1006968,0.1813553,0
-2.735029,-3.4548621,-1.1398394,-0.14813372,-0.95113081,-0.27093613,0
-2.176275,1.9369743,0.97055101,-0.9782486,0.1006968,0.1813553,0
1.4546638,3.4646251,1.8056023,0.14813372,0.95113081,0.27093613,0
2.7272863,1.2022321,0.2586264,0.9782486,-0.1006968,-0.1813553,0
1.1827383,1.3976729,3.4232974,0.14521015,-0.29190782,0.94535899,0
1.5180542,-2.9619875,-3.9519234,0.9782486,-0.1006968,-0.1813553,0
2.9336922,1.3279922,1.3021741,0.9782486,-0.1006968,-0.1813553,0
-1.4499371,-3.4002557,-2.0341573,-0.14813372,-0.95113081,-0.27093613,0
-2.1130791,0.77114856,1.9587563,-0.9782486,0.1006968,0.1813553,0
-2.4704399,-0.94283187,0.98279691,-0.9782486,0.1006968,0.1813553,0
-2.342521,-3.064307,-2.7254982,-0.14813372,-0.95113081,-0.27093613,0
1.002883,-0.78950733,-3.5712268,-0.14521015,0.29190782,-0.94535899,0
-2.7536297,-3.7039585,-0.2552073,-0.14813372,-0.95113081,-0.27093613,0
-2.0156736,-0.58099681,3.2349458,-0.9782486,0.1006968,0.1813553,0
-1.5907755,2.7703261,3.6660795,-0.9782486,0.1006968,0.1813553,0
2.264842,2.6642809,3.648186,0.14521015,-0.29190782,0.94535899,0
-1.945012,1.1818424,2.6372924,-0.9782486,0.1006968,0.1813553,0
1.710182,-3.8030176,-2.348033,-0.14813372,-0.95113081,-0.27093613,0
2.6633391,1.5447642,-0.27650058,0.9782486,-0.1006968,-0.1813553,0
2.6173031,-2.1475284,2.1082575,0.14521015,-0.29190782,0.94535899,0
1.2156479,0.91836649,-3.0765514,-0.14521015,0.29190782,-0.94535899,0
-2.4508774,2.1192541,-0.61189365,-0.9782486,0.1006968,0.1813553,0
2.4191341,-2.941489,1.893538,0.14521015,-0.29190782,0.94535899,0
1.8701782,-1.608914,-2.8038223,0.9782486,-0.1006968,-0.1813553,0
2.3249798,-3.7549305,1.6568258,0.14521015,-0.29190782,0.94535899,0
0.076184332,-4.1748414,-0.14935064,-0.14813372,-0.95113081,-0.27093613,0
1.9892892,-2.2662635,-1.7963336,0.9782486,-0.1006968,-0.1813553,0
-0.61704785,-4.3431163,0.82040644,-0.14813372,-0.95113081,-0.27093613,0
2.2270391,-4.7205601,0.84885263,0.9782486,-0.1006968,-0.1813553,0
-2.8913155,-3.5492668,0.15976691,-0.9782486,0.1006968,0.1813553,0
2.2513471,3.278338,2.0239842,0.14813372,0.95113081,0.27093613,0
-0.98420262,0.46933806,-2.8772981,-0.14521015,0.29190782,-0.94535899,0
0.95706511,3.2931232,2.6797254,0.14813372,0.95113081,0.27093613,0
-1.4684663,0.54205543,3.566334,0.14521015,-0.29190782,0.94535899,0
-0.5710578,2.3402128,-2.3630702,-0.14521015,0.29190782,-0.94535899,0
2.0276556,-2.051975,2.228334,0.14521015,-0.29190782,0.94535899,0
-1.6184406,-4.0224333,0.24214721,-0.14813372,-0.95113081,-0.27093613,0
-0.55147099,-4.540566,1.4777079,-0.14813372,-0.95113081,-0.27093613,0
1.9382122,-1.1281619,2.5273275,0.14521015,-0.29190782,0.94535899,0
0.99560237,-3.4074888,-3.3458586,-0.14813372,-0.95113081,-0.27093613,0
-1.0170803,3.9698679,1.3833504,0.14813372,0.95113081,0.27093613,0
1.0081184,-1.5008242,2.5551224,0.14521015,-0.29190782,0.94535899,0
1.1789889,-4.6782961,1.0150895,-0.14813372,-0.95113081,-0.27093613,0
1.36775,-4.3821049,-0.12790537,-0.14813372,-0.95113081,-0.27093613,0
2.9455914,0.86789727,1.6218264,0.9782486,-0.1006968,-0.1813553,0
3.298806,1.5844934,3.1292119,0.9782486,-0.1006968,-0.1813553,0
-0.87794805,1.3087569,-2.6344237,-0.14521015,0.29190782,-0.94535899,0
-0.035628319,0.76116896,-2.9328909,-0.14521015,0.29190782,-0.94535899,0
-0.78038836,0.64293653,3.4917934,0.14521015,-0.29190782,0.94535899,0
2.4199853,1.5713508,3.2868805,0.14521015,-0.29190782,0.94535899,0
-0.20221472,-2.0226533,2.5799034,0.14521015,-0.29190782,0.94535899,0
1.2474986,2.3133578,-2.6506989,-0.14521015,0.29190782,-0.94535899,0
0.88342834,1.702015,-2.7835464,-0.14521015,0.29190782,-0.94535899,0
-2.3692882,-1.3945416,1.7792308,-0.9782486,0.1006968,0.1813553,0
-3.2120616,-1.6588733,-3.1922402,-0.14521015,0.29190782,-0.94535899,0
-2.6106894,-1.7533453,-3.3137841,-0.14521015,0.29190782,-0.94535899,0
2.6671562,0.70013571,2.9799008,0.14521015,-0.29190782,0.94535899,0
-3.2183664,-1.6971257,-2.6327732,-0.9782486,0.1006968,0.1813553,0
-1.7919418,3.351362,2.2583499,-0.9782486,0.1006968,0.1813553,0
-1.847188,-1.9233714,-3.4835608,-0.14521015,0.29190782,-0.94535899,0
-0.12990665,3.2832346,3.3087387,0.14813372,0.95113081,0.27093613,0
-2.332021,-4.2065821,1.2787564,-0.14813372,-0.95113081,-0.27093613,0
1.9631972,4.0494366,-0.52543736,0.14813372,0.95113081,0.27093613,0
-1.8246188,4.6463852,-1.4584203,-0.14521015,0.29190782,-0.94535899,0
0.14968967,2.6209331,3.9596953,0.14521015,-0.29190782,0.94535899,0
1.6400405,3.0104122,-2.4957581,-0.14521015,0.29190782,-0.94535899,0
-2.5806601,-3.577913,-0.79226589,-0.14813372,-0.95113081,-0.27093613,0
-1.969609,4.2302589,0.81198883,-0.9782486,0.1006968,0.1813553,0
-1.5014715,2.0939078,-2.2962096,-0.14521015,0.29190782,-0.94535899,0
1.6476636,3.1789749,2.7028642,0.14813372,0.95113081,0.27093613,0
2.2541096,3.2804356,2.0151107,0.14813372,0.95113081,0.27093613,0
2.3079333,-4.4926567,1.1586623,0.9782486,-0.1006968,-0.1813553,0
-2.3070867,-1.8696241,2.3785396,-0.9782486,0.1006968,0.1813553,0
-2.7966094,-1.9080456,-0.24066162,-0.9782486,0.1006968,0.1813553,0
2.8224232,2.7908447,-0.11026764,0.9782486,-0.1006968,-0.1813553,0
-0.015575886,-4.4662218,1.7967105,0.14521015,-0.29190782,0.94535899,0
-2.2760789,0.074278355,1.466454,-0.9782486,0.1006968,0.1813553,0
-1.8953654,3.0503168,1.8676243,-0.9782486,0.1006968,0.1813553,0
-0.26056361,0.30501759,3.3076036,0.14521015,-0.29190782,0.94535899,0
-0.19943893,-4.1706023,-0.013535023,-0.14813372,-0.95113081,-0.27093613,0
2.3419375,-3.3705003,0.71901131,0.9782486,-0.1006968,-0.1813553,0
-1.778758,-1.8930395,-3.4847059,-0.14521015,0.29190782,-0.94535899,0
1.6447141,-3.9533362,-1.7845421,-0.14813372,-0.95113081,-0.27093613,0
0.093967199,0.98429251,-2.8839011,-0.14521015,0.29190782,-0.94535899,0
-1.7051181,4.3535419,0.41263056,0.14813372,0.95113081,0.27093613,0
2.0616214,-0.33387506,-2.4791188,0.9782486,-0.1006968,-0.1813553,0
-2.6022809,-2.0951347,-3.4206133,-0.14521015,0.29190782,-0.94535899,0
-2.2988176,1.8236542,0.37246346,-0.9782486,0.1006968,0.1813553,0
0.49087477,-4.7132797,1.5141246,-0.14813372,-0.95113081,-0.27093613,0
-3.2385151,-2.5515037,-2.2670679,-0.9782486,0.1006968,0.1813553,0
-1.1283913,3.9918861,-1.7674587,-0.14521015,0.29190782,-0.94535899,0
-2.3681707,0.86880684,0.52854121,-0.9782486,0.1006968,0.1813553,0
0.090405464,-2.8250704,-4.0596085,-0.14521015,0.29190782,-0.94535899,0
-0.32381821,-3.6463974,-1.7857704,-0.14813372,-0.95113081,-0.27093613,0
-1.1888829,2.786201,-2.1304584,-0.14521015,0.29190782,-0.94535899,0
3.2961938,2.1609938,2.795023,0.9782486,-0.1006968,-0.1813553,0
2.4418545,2.3085032,-1.895275,0.9782486,-0.1006968,-0.1813553,0
-2.490447,-2.9571261,1.9933085,-0.9782486,0.1006968,0.1813553,0
-2.8278291,-2.4812055,-0.090819716,-0.9782486,0.1006968,0.1813553,0
2.5340993,-2.0469432,1.0206509,0.9782486,-0.1006968,-0.1813553,0
2.7227254,3.4854963,1.0390229,0.14813372,0.95113081,0.27093613,0
0.27434242,3.8949053,0.94042635,0.14813372,0.95113081,0.27093613,0
0.86150122,1.6861603,3.5617197,0.14521015,-0.29190782,0.94535899,0
-2.7209239,-1.9399872,0.18532944,-0.9782486,0.1006968,0.1813553,0
1.8331064,4.0182486,-2.2142141,-0.14521015,0.29190782,-0.94535899,0
-2.1713028,-3.9119658,0.15662384,-0.14813372,-0.95113081,-0.27093613,0
-1.7675787,3.8855183,2.0897961,0.14813372,0.95113081,0.27093613,0
0.32305765,2.2092414,3.8059435,0.14521015,-0.29190782,0.94535899,0
0.75820994,4.0731683,0.050074577,0.14813372,0.95113081,0.27093613,0
2.0714746,-1.9251757,-1.5424063,0.9782486,-0.1006968,-0.1813553,0
2.8506789,2.1038656,0.42359018,0.9782486,-0.1006968,-0.1813553,0
-2.6511512,-1.5073757,0.32148504,-0.9782486,0.1006968,0.1813553,0
2.4094205,1.0639608,3.1318316,0.14521015,-0.29190782,0.94535899,0
1.6576898,3.2034578,2.6114345,0.14813372,0.95113081,0.27093613,0
2.7257495,-1.0459175,1.4986149,0.9782486,-0.1006968,-0.1813553,0
2.1465459,-3.2541435,-0.39955759,0.9782486,-0.1006968,-0.1813553,0
-1.8776491,-3.4300718,-1.6956348,-0.14813372,-0.95113081,-0.27093613,0
1.5722697,3.1773651,2.749737,0.14813372,0.95113081,0.27093613,0
-2.2718005,1.7425871,0.5632081,-0.9782486,0.1006968,0.1813553,0
1.2604622,-4.1693106,1.6923871,0.14521015,-0.29190782,0.94535899,0
-2.4354074,1.413553,-0.13660908,-0.9782486,0.1006968,0.1813553,0
2.1042142,-2.7810032,-0.89060855,0.9782486,-0.1006968,-0.1813553,0
2.0837967,-1.1051801,-1.9312384,0.9782486,-0.1006968,-0.1813553,0
1.5211463,-4.671804,0.80522394,-0.14813372,-0.95113081,-0.27093613,0
-0.86823797,4.7121849,-1.5850055,-0.14521015,0.29190782,-0.94535899,0
-0.078038454,1.9042195,-2.5734255,-0.14521015,0.29190782,-0.94535899,0
-3.3783669,-2.7948685,-3.1050265,-0.14813372,-0.95113081,-0.27093613,0
-0.89910138,3.3106501,-2.0130301,-0.14521015,0.29190782,-0.94535899,0
0.88314104,-1.1327718,-3.6588278,-0.14521015,0.29190782,-0.94535899,0
2.0916901,0.34555244,-2.6941769,0.9782486,-0.1006968,-0.1813553,0
1.7955873,1.6076928,3.394012,0.14521015,-0.29190782,0.94535899,0
-0.1912446,-3.5405607,-2.2297976,-0.14813372,-0.95113081,-0.27093613,0
-2.1294942,1.4661365,1.4843221,-0.9782486,0.1006968,0.1813553,0
-0.36868644,-0.20441389,3.1669095,0.14521015,-0.29190782,0.94535899,0
-3.059803,-0.6776731,-2.3435147,-0.9782486,0.1006968,0.1813553,0
-2.4620597,2.9682312,-1.8786864,-0.14521015,0.29190782,-0.94535899,0
3.243844,1.2276242,3.0308917,0.9782486,-0.1006968,-0.1813553,0
-2.2482862,-0.3624078,1.8588382,-0.9782486,0.1006968,0.1813553,0
-1.0017695,-4.3805389,1.162127,-0.14813372,-0.95113081,-0.27093613,0
-1.7106575,-3.9753294,0.12720752,-0.14813372,-0.95113081,-0.27093613,0
-0.36091852,-4.1689515,1.9415472,0.14521015,-0.29190782,0.94535899,0
0.79789865,4.5138264,-1.5185711,0.14813372,0.95113081,0.27093613,0
-1.0376282,4.7314601,-1.5530348,-0.14521015,0.29190782,-0.94535899,0
-0.025470972,3.4273014,2.745888,0.14813372,0.95113081,0.27093613,0
-1.5090388,-4.4182634,1.5719061,-0.14813372,-0.95113081,-0.27093613,0
1.9117963,2.4633636,-2.7064183,-0.14521015,0.29190782,-0.94535899,0
-1.8502506,1.3823045,3.037138,-0.9782486,0.1006968,0.1813553,0
-0.29962468,-0.8847717,2.9462206,0.14521015,-0.29190782,0.94535899,0
-2.8389306,-0.34621572,-1.3361478,-0.9782486,0.1006968,0.1813553,0
1.3300629,-3.3133347,-3.8592536,-0.14813372,-0.95113081,-0.27093613,0
-1.1017393,-3.621835,-1.4466708,-0.14813372,-0.95113081,-0.27093613,0
-1.2443645,-3.8989854,-0.39574552,-0.14813372,-0.95113081,-0.27093613,0
1.109489,-0.11400458,-3.3790202,-0.14521015,0.29190782,-0.94535899,0
-0.37191391,-1.776123,-3.6647005,-0.14521015,0.29190782,-0.94535899,0
1.7140038,-2.93803,-2.9082558,0.9782486,-0.1006968,-0.1813553,0
0.91731811,-3.6803091,-2.3453112,-0.14813372,-0.95113081,-0.27093613,0
0.56544352,-2.8775935,-4.1487937,-0.14521015,0.29190782,-0.94535899,0
-1.8848701,2.3817525,-2.148438,-0.14521015,0.29190782,-0.94535899,0
-2.1994214,-4.4283361,1.9847317,-0.14813372,-0.95113081,-0.27093613,0
-1.6181092,3.5984104,3.015975,0.14813372,0.95113081,0.27093613,0
2.1820698,-0.52073848,-1.7256534,0.9782486,-0.1006968,-0.1813553,0
2.2350867,-4.6516075,0.85397768,0.9782486,-0.1006968,-0.1813553,0
2.4123225,-3.4285452,1.1309047,0.9782486,-0.1006968,-0.1813553,0
-2.0182424,0.1860826,2.7951713,-0.9782486,0.1006968,0.1813553,0
-2.0527368,2.5154264,1.3157456,-0.9782486,0.1006968,0.1813553,0
-2.4822285,-3.2981384,2.2269864,-0.9782486,0.1006968,0.1813553,0
-3.006083,-0.43726063,-2.187233,-0.9782486,0.1006968,0.1813553,0
-3.2361465,-1.4870446,-3.1354835,-0.14521015,0.29190782,-0.94535899,0
2.2740045,3.8572888,-0.020830154,0.14813372,0.95113081,0.27093613,0
-2.3286476,3.9430654,-0.96523952,-0.9782486,0.1006968,0.1813553,0
-1.7228446,-2.9787369,2.5182576,0.14521015,-0.29190782,0.94535899,0
0.4411726,-2.1972351,-3.9196241,-0.14521015,0.29190782,-0.94535899,0
2.7228458,4.0228,-0.84726477,0.14813372,0.95113081,0.27093613,0
3.040545,2.5495486,1.2002821,0.9782486,-0.1006968,-0.1813553,0
0.96255374,0.23176005,-3.2496855,-0.14521015,0.29190782,-0.94535899,0
2.6093862,-1.7140791,1.2419333,0.9782486,-0.1006968,-0.1813553,0
-0.41766977,-4.0673199,-0.25679445,-0.14813372,-0.95113081,-0.27093613,0
0.50852728,-1.0381166,2.7747359,0.14521015,-0.29190782,0.94535899,0
-2.4181528,3.7397037,-1.6472161,-0.14521015,0.29190782,-0.94535899,0
1.4005871,2.4558282,3.7165723,0.14521015,-0.29190782,0.94535899,0
-1.831876,-4.2257338,1.0725362,-0.14813372,-0.95113081,-0.27093613,0
1.8084044,-4.3346567,-0.53540039,-0.14813372,-0.95113081,-0.27093613,0
0.035257578,-2.5650449,2.3759472,0.14521015,-0.29190782,0.94535899,0
2.9897435,2.7990537,0.78771687,0.9782486,-0.1006968,-0.1813553,0
1.5798341,-3.9831257,1.7008204,0.14521015,-0.29190782,0.94535899,0
0.53485537,2.6356905,3.9050894,0.14521015,-0.29190782,0.94535899,0
-2.6329563,1.6557395,-1.3366803,-0.9782486,0.1006968,0.1813553,0
1.5319612,-2.5807211,-4.0886078,0.9782486,-0.1006968,-0.1813553,0
2.2941165,4.3790975,-1.8636527,0.14813372,0.95113081,0.27093613,0
-2.7185316,0.62042069,-1.2234229,-0.9782486,0.1006968,0.1813553,0
1.3543739,-2.4219334,2.2175167,0.14521015,-0.29190782,0.94535899,0
0.031902671,4.5580359,-1.7708678,-0.14521015,0.29190782,-0.94535899,0
-1.4607303,-0.60205507,3.2118673,0.14521015,-0.29190782,0.94535899,0
0.14817715,-2.5053039,-3.9697449,-0.14521015,0.29190782,-0.94535899,0
-0.17749,-2.8008788,2.3358052,0.14521015,-0.29190782,0.94535899,0
2.652663,2.6581514,-0.95229292,0.9782486,-0.1006968,-0.1813553,0
1.5244226,2.7077541,3.7753408,0.14521015,-0.29190782,0.94535899,0
3.4626808,2.6638782,3.4138451,0.9782486,-0.1006968,-0.1813553,0
1.5329113,-2.9602048,-3.8727741,0.9782486,-0.1006968,-0.1813553,0
-2.2682557,-2.4795737,2.7561662,0.14521015,-0.29190782,0.94535899,0
2.7872124,-0.70647383,1.6416767,0.9782486,-0.1006968,-0.1813553,0
2.8546071,3.5062582,0.89403129,0.14813372,0.95113081,0.27093613,0
-1.744796,4.4477425,0.10362959,0.14813372,0.95113081,0.27093613,0
1.3054345,-3.1974421,1.9855725,0.14521015,-0.29190782,0.94535899,0
1.544928,2.7925494,-2.54842,-0.14521015,0.29190782,-0.94535899,0
2.4736974,4.1357312,-1.1074929,0.14813372,0.95113081,0.27093613,0
-2.7963033,0.48069239,-1.5653505,-0.9782486,0.1006968,0.1813553,0
2.5917373,-1.1005418,0.80606878,0.9782486,-0.1006968,-0.1813553,0
-2.5081639,0.5310123,-0.039036512,-0.9782486,0.1006968,0.1813553,0
2.1921625,-0.98553538,2.5323601,0.14521015,-0.29190782,0.94535899,0
0.090332747,-0.18598694,-3.2447014,-0.14521015,0.29190782,-0.94535899,0
-1.8629233,4.1849279,-1.5950251,-0.14521015,0.29190782,-0.94535899,0
0.51293659,-3.4600463,2.0262163,0.14521015,-0.29190782,0.94535899,0
-0.26052499,-3.7159743,-1.5761232,-0.14813372,-0.95113081,-0.27093613,0
-2.3334126,0.8305583,0.73726749,-0.9782486,0.1006968,0.1813553,0
-1.8595364,3.0684714,-1.9402838,-0.14521015,0.29190782,-0.94535899,0
-1.910531,4.8530235,-1.2285061,0.14813372,0.95113081,0.27093613,0
-2.5305483,2.1234283,-1.0439632,-0.9782486,0.1006968,0.1813553,0
2.4969935,3.9171124,-0.35276103,0.14813372,0.95113081,0.27093613,0
2.1170948,-2.382257,-1.0425322,0.9782486,-0.1006968,-0.1813553,0
-1.9586321,0.08763051,3.1713805,-0.9782486,0.1006968,0.1813553,0
-1.633579,-0.87559831,3.1539531,0.14521015,-0.29190782,0.94535899,0
-2.0572445,-4.3670912,1.6919954,-0.14813372,-0.95113081,-0.27093613,0
-2.5135219,-0.44060993,-2.9233632,-0.14521015,0.29190782,-0.94535899,0
-1.3837717,4.7794647,-1.2582793,0.14813372,0.95113081,0.27093613,0
-1.0477403,-4.5368743,1.7360816,-0.14813372,-0.95113081,-0.27093613,0
3.0852895,0.46745324,2.5977163,0.9782486,-0.1006968,-0.1813553,0
-1.3072551,4.1564522,0.88699055,0.14813372,0.95113081,0.27093613,0
0.76510382,-3.6036456,-2.5312171,-0.14813372,-0.95113081,-0.27093613,0
-1.1877408,2.4127498,-2.2459476,-0.14521015,0.29190782,-0.94535899,0
-2.1848748,1.0945429,1.3919197,-0.9782486,0.1006968,0.1813553,0
0.67785883,3.1368074,3.3811336,0.14813372,0.95113081,0.27093613,0
1.5543232,0.53523833,-3.2468753,-0.14521015,0.29190782,-0.94535899,0
-2.6576099,-0.72771883,-0.14625792,-0.9782486,0.1006968,0.1813553,0
1.6507659,-1.8122079,2.360261,0.14521015,-0.29190782,0.94535899,0
-1.0113802,-0.11681581,-3.054116,-0.14521015,0.29190782,-0.94535899,0
0.44382989,-4.2568917,-0.062320232,-0.14813372,-0.95113081,-0.27093613,0
2.9444842,1.0541437,1.5124409,0.9782486,-0.1006968,-0.1813553,0
2.8920314,3.603101,0.53360057,0.14813372,0.95113081,0.27093613,0
0.92334211,2.47998,-2.5494578,-0.14521015,0.29190782,-0.94535899,0
1.2029371,4.0814581,-0.2221818,0.14813372,0.95113081,0.27093613,0
-2.4144418,-2.4555261,2.1247749,-0.9782486,0.1006968,0.1813553,0
-2.9357231,-0.22588611,-2.7922096,-0.14521015,0.29190782,-0.94535899,0
-1.5607387,-4.3981562,1.5295861,-0.14813372,-0.95113081,-0.27093613,0
-2.1345911,4.6370654,-0.34787226,0.14813372,0.95113081,0.27093613,0
1.8058693,-0.37393641,2.7805457,0.14521015,-0.29190782,0.94535899,0
-3.0733044,-0.46719575,-2.845588,-0.14521015,0.29190782,-0.94535899,0
0.20487094,-4.3351755,1.8033135,0.14521015,-0.29190782,0.94535899,0
-0.50491065,-4.2439556,0.41098833,-0.14813372,-0.95113081,-0.27093613,0
-2.2885206,-3.2409673,-2.1348517,-0.14813372,-0.95113081,-0.27093613,0
2.5127616,3.6706126,0.50396371,0.14813372,0.95113081,0.27093613,0
-2.0366974,4.3893204,0.36178923,-0.9782486,0.1006968,0.1813553,0
-2.7099452,-3.8854873,0.35817051,-0.14813372,-0.95113081,-0.27093613,0
-1.2347624,3.912766,1.7028241,0.14813372,0.95113081,0.27093613,0
2.1524944,-4.1578422,0.13430452,0.9782486,-0.1006968,-0.1813553,0
2.1080449,-1.670522,-1.4865384,0.9782486,-0.1006968,-0.1813553,0
0.38907838,-3.7137258,-1.939187,-0.14813372,-0.95113081,-0.27093613,0
-2.0177865,1.5574671,2.0361736,-0.9782486,0.1006968,0.1813553,0
-2.2661488,-0.35107803,1.7561967,-0.9782486,0.1006968,0.1813553,0
3.0001955,1.0483289,1.8161807,0.9782486,-0.1006968,-0.1813553,0
2.1326189,3.4761779,1.3943748,0.14813372,0.95113081,0.27093613,0
-2.2434855,-0.17954934,1.7832032,-0.9782486,0.1006968,0.1813553,0
1.8254364,4.3358011,-1.4554088,0.14813372,0.95113081,0.27093613,0
-1.6195296,2.7404513,-2.0784359,-0.14521015,0.29190782,-0.94535899,0
-2.652113,0.67659855,-0.89634848,-0.9782486,0.1006968,0.1813553,0
-2.3482831,-3.9978142,0.55476069,-0.14813372,-0.95113081,-0.27093613,0
-2.4654036,-1.8705626,1.5250834,-0.9782486,0.1006968,0.1813553,0
-3.2797875,-2.8787599,-2.8644192,-0.14813372,-0.95113081,-0.27093613,0
-2.1893871,1.9223464,0.9079442,-0.9782486,0.1006968,0.1813553,0
0.026483297,1.0332134,-2.8584294,-0.14521015,0.29190782,-0.94535899,0
-3.205899,-1.9295542,-2.4364705,-0.9782486,0.1006968,0.1813553,0
-1.6190665,2.2281497,3.8145146,-0.9782486,0.1006968,0.1813553,0
-1.4607646,3.5657914,3.0444555,0.14813372,0.95113081,0.27093613,0
2.8056734,1.6691806,0.42218328,0.9782486,-0.1006968,-0.1813553,0
1.4781685,-3.5485921,-3.1143517,-0.14813372,-0.95113081,-0.27093613,0
-0.26069021,3.1739657,3.7638357,0.14813372,0.95113081,0.27093613,0
0.86038208,3.050823,3.5831904,0.14813372,0.95113081,0.27093613,0
-1.4839385,-3.2480907,-2.5497472,-0.14813372,-0.95113081,-0.27093613,0
-3.1287825,-2.0819221,-1.9358954,-0.9782486,0.1006968,0.1813553,0
-2.2259185,0.21901226,1.6566613,-0.9782486,0.1006968,0.1813553,0
-1.3846602,0.65163362,3.5872965,0.14521015,-0.29190782,0.94535899,0
-0.17108709,4.1570959,0.26353502,0.14813372,0.95113081,0.27093613,0
2.109617,-0.59936464,-2.0728145,0.9782486,-0.1006968,-0.1813553,0
-2.9287176,-3.3139493,-1.52862,-0.14813372,-0.95113081,-0.27093613,0
1.6529686,-3.5635724,1.8191361,0.14521015,-0.29190782,0.94535899,0
1.9665781,-3.2768755,-1.3576999,0.9782486,-0.1006968,-0.1813553,0
-1.1609709,-4.2846265,2.0287199,0.14521015,-0.29190782,0.94535899,0
0.65036821,-1.1056103,-3.6146855,-0.14521015,0.29190782,-0.94535899,0
0.87446475,3.4362674,2.2223744,0.14813372,0.95113081,0.27093613,0
-2.475328,-2.9335194,2.061754,-0.9782486,0.1006968,0.1813553,0
-1.5958142,-2.1794667,-3.6012502,-0.14521015,0.29190782,-0.94535899,0
0.95873773,3.7727027,0.99523187,0.14813372,0.95113081,0.27093613,0
-2.4790611,2.0986693,-0.75248933,-0.9782486,0.1006968,0.1813553,0
-3.0020449,-2.5120561,-3.4879456,-0.14521015,0.29190782,-0.94535899,0
-2.9198709,-1.8079374,-0.96113122,-0.9782486,0.1006968,0.1813553,0
2.9756594,0.59643579,1.9347445,0.9782486,-0.1006968,-0.1813553,0
-0.49745417,-3.1184649,-3.5441613,-0.14813372,-0.95113081,-0.27093613,0
-2.0027933,0.61399364,2.6409085,-0.9782486,0.1006968,0.1813553,0
2.0054383,-1.0704396,-2.3732004,0.9782486,-0.1006968,-0.1813553,0
2.3472488,-2.6801412,0.36434174,0.9782486,-0.1006968,-0.1813553,0
3.1542423,2.0691388,2.0803213,0.9782486,-0.1006968,-0.1813553,0
2.3241649,-1.2931888,-0.53027725,0.9782486,-0.1006968,-0.1813553,0
-2.2579451,1.7642417,-2.2818069,-0.14521015,0.29190782,-0.94535899,0
-0.46538508,-4.0686331,-0.22609663,-0.14813372,-0.95113081,-0.27093613,0
-2.5098622,-3.3718536,-1.554353,-0.14813372,-0.95113081,-0.27093613,0
-1.8737366,-3.2310746,-2.3963623,-0.14813372,-0.95113081,-0.27093613,0
1.3285699,2.9814758,-2.4568501,-0.14521015,0.29190782,-0.94535899,0
-2.5264077,1.7492316,-0.81385827,-0.9782486,0.1006968,0.1813553,0
-2.0201678,2.9965219,1.2242973,-0.9782486,0.1006968,0.1813553,0
1.7845023,-0.20341134,2.8364825,0.14521015,-0.29190782,0.94535899,0
1.9103706,-1.7359264,2.3439388,0.14521015,-0.29190782,0.94535899,0
2.4667912,2.3476446,3.5193949,0.14521015,-0.29190782,0.94535899,0
-1.9287357,2.5949063,1.9404871,-0.9782486,0.1006968,0.1813553,0
-0.80666208,-0.82844985,3.0414944,0.14521015,-0.29190782,0.94535899,0
-1.6867325,2.2028975,3.4635398,-0.9782486,0.1006968,0.1813553,0
1.7261367,-2.9792733,-2.81991,0.9782486,-0.1006968,-0.1813553,0
0.22588062,-3.5209327,-2.5267649,-0.14813372,-0.95113081,-0.27093613,0
-0.62236357,-0.62169492,3.0770273,0.14521015,-0.29190782,0.94535899,0
-2.4187021,-2.6542721,-3.6214619,-0.14521015,0.29190782,-0.94535899,0
1.4598918,4.2379313,-0.911973,0.14813372,0.95113081,0.27093613,0
-2.23473,-0.74233866,2.1429181,-0.9782486,0.1006968,0.1813553,0
0.56230855,1.8185604,-2.6982348,-0.14521015,0.29190782,-0.94535899,0
-2.9738989,-1.0036721,-1.6991327,-0.9782486,0.1006968,0.1813553,0
2.0332232,-4.2233772,-0.47266865,0.9782486,-0.1006968,-0.1813553,0
-1.3156803,3.7480533,2.3252964,0.14813372,0.95113081,0.27093613,0
-2.8568583,-2.3220873,-0.33575583,-0.9782486,0.1006968,0.1813553,0
-2.9157879,0.5804379,-2.2652469,-0.9782486,0.1006968,0.1813553,0
-2.9423385,-2.1552501,-0.88947904,-0.9782486,0.1006968,0.1813553,0
1.5708594,2.4675348,3.6940327,0.14521015,-0.29190782,0.94535899,0
1.766341,-2.5528154,-2.8398323,0.9782486,-0.1006968,-0.1813553,0
0.15240288,2.6532054,3.9692438,0.14521015,-0.29190782,0.94535899,0
0.49747133,-3.9566674,-1.1455951,-0.14813372,-0.95113081,-0.27093613,0
1.2830126,-1.0358191,2.6564822,0.14521015,-0.29190782,0.94535899,0
1.4215167,-4.7819405,1.2463341,-0.14813372,-0.95113081,-0.27093613,0
-1.342685,4.6818113,-0.93792915,0.14813372,0.95113081,0.27093613,0
1.1268235,4.4666648,-1.5328472,0.14813372,0.95113081,0.27093613,0
1.9527413,-0.67793179,-2.8753924,0.9782486,-0.1006968,-0.1813553,0
-0.035602808,2.7802696,-2.3094373,-0.14521015,0.29190782,-0.94535899,0
2.2812579,3.8800211,-0.10459876,0.14813372,0.95113081,0.27093613,0
0.66651917,-0.41653618,-3.4043946,-0.14521015,0.29190782,-0.94535899,0
-0.4826622,-2.868155,-3.9848866,-0.14521015,0.29190782,-0.94535899,0
-2.7833996,1.4200187,-2.3073847,-0.14521015,0.29190782,-0.94535899,0
2.2259872,1.7511104,3.3721855,0.14521015,-0.29190782,0.94535899,0
-0.26614666,1.7248621,3.7468801,0.14521015,-0.29190782,0.94535899,0
-2.1731129,3.8901734,-0.096900463,-0.9782486,0.1006968,0.1813553,0
-0.73977566,4.6754012,-1.6160958,-0.14521015,0.29190782,-0.94535899,0
1.068053,-3.9201324,1.7988825,0.14521015,-0.29190782,0.94535899,0
2.3936119,0.79022193,-1.3124793,0.9782486,-0.1006968,-0.1813553,0
-2.7569194,-3.5936937,-0.64049697,-0.14813372,-0.95113081,-0.27093613,0
1.095329,-4.226316,-0.52586222,-0.14813372,-0.95113081,-0.27093613,0
-0.58301497,-4.5106936,1.3900857,-0.14813372,-0.95113081,-0.27093613,0
-1.2043526,-3.163497,-2.9995785,-0.14813372,-0.95113081,-0.27093613,0
-1.8468654,-3.9435587,0.090146542,-0.14813372,-0.95113081,-0.27093613,0
2.5953939,-0.47388911,0.47784674,0.9782486,-0.1006968,-0.1813553,0
-1.5301237,-4.2592707,1.0252845,-0.14813372,-0.95113081,-0.27093613,0
-1.237045,-1.2365497,2.9815896,0.14521015,-0.29190782,0.94535899,0
-1.9318345,-3.0563011,-2.9781446,-0.14813372,-0.95113081,-0.27093613,0
-1.5910482,-4.3696465,2.0685287,0.14521015,-0.29190782,0.94535899,0
0.20642659,4.3168697,-0.50376368,0.14813372,0.95113081,0.27093613,0
-2.0939267,-1.446453,-3.2983985,-0.14521015,0.29190782,-0.94535899,0
2.1078067,-3.5500748,-0.44420671,0.9782486,-0.1006968,-0.1813553,0
-0.15750098,-2.7160385,2.358932,0.14521015,-0.29190782,0.94535899,0
2.45946,3.7893836,-2.381093,-0.14521015,0.29190782,-0.94535899,0
-1.1244235,-3.4497514,-2.0383747,-0.14813372,-0.95113081,-0.27093613,0
2.2996712,-0.8744061,-0.8949275,0.9782486,-0.1006968,-0.1813553,0
-2.7492185,-1.7998029,-0.045131087,-0.9782486,0.1006968,0.1813553,0
-0.0068836212,-1.8639102,2.5989165,0.14521015,-0.29190782,0.94535899,0
1.236925,-4.3532133,-0.15780163,-0.14813372,-0.95113081,-0.27093613,0
2.2770562,-1.1098161,-0.88620365,0.9782486,-0.1006968,-0.1813553,0
0.87175584,-3.4000015,-3.3044281,-0.14813372,-0.95113081,-0.27093613,0
-2.4322176,-2.8570111,-3.404175,-0.14813372,-0.95113081,-0.27093613,0
0.28849125,-1.9697648,2.5208602,0.14521015,-0.29190782,0.94535899,0
2.2946825,-1.294287,-0.68869925,0.9782486,-0.1006968,-0.1813553,0
0.71336317,2.1856985,-2.6080725,-0.14521015,0.29190782,-0.94535899,0
-0.56396592,-3.5410457,2.1666207,0.14521015,-0.29190782,0.94535899,0
-1.2013676,-4.0345678,0.056713104,-0.14813372,-0.95113081,-0.27093613,0
-3.0758677,-1.3395801,-2.0626473,-0.9782486,0.1006968,0.1813553,0
-1.6332796,4.260097,0.70139408,0.14813372,0.95113081,0.27093613,0
1.1525214,3.6093056,1.4628909,0.14813372,0.95113081,0.27093613,0
0.1210953,4.1353307,0.18019152,0.14813372,0.95113081,0.27093613,0
0.89283395,1.5886071,-2.8200092,-0.14521015,0.29190782,-0.94535899,0
0.16363955,-2.2380214,-3.8895881,-0.14521015,0.29190782,-0.94535899,0
-2.2544601,1.0185857,1.0587442,-0.9782486,0.1006968,0.1813553,0
-1.7162426,3.0324674,2.8437414,-0.9782486,0.1006968,0.1813553,0
2.523957,0.017164946,-0.18014741,0.9782486,-0.1006968,-0.1813553,0
-2.5932102,-2.2609034,1.0524172,-0.9782486,0.1006968,0.1813553,0
1.9845619,-0.47826636,-2.8146133,0.9782486,-0.1006968,-0.1813553,0
-1.2701066,1.2193758,3.7450075,0.14521015,-0.29190782,0.94535899,0
2.5543408,-2.1580708,1.1915379,0.9782486,-0.1006968,-0.1813553,0
1.3185761,1.9414597,-2.7764511,-0.14521015,0.29190782,-0.94535899,0
-1.8239368,3.160738,2.1916075,-0.9782486,0.1006968,0.1813553,0
-1.9237834,-2.9671125,2.5527122,0.14521015,-0.29190782,0.94535899,0
-0.65890193,3.8875132,1.4766259,0.14813372,0.95113081,0.27093613,0
-0.67938495,-3.814229,-1.0021873,-0.14813372,-0.95113081,-0.27093613,0
1.635112,-3.1023328,-3.2425759,0.9782486,-0.1006968,-0.1813553,0
-2.5183115,3.1363115,-1.8181465,-0.14521015,0.29190782,-0.94535899,0
1.1155267,2.0887392,3.6470087,0.14521015,-0.29190782,0.94535899,0
2.5722892,1.2344027,3.1594436,0.14521015,-0.29190782,0.94535899,0
-1.1400231,-4.1587391,0.4590795,-0.14813372,-0.95113081,-0.27093613,0
-0.82770443,3.5216317,2.8533568,0.14813372,0.95113081,0.27093613,0
-0.65639877,-3.5245526,-2.0316737,-0.14813372,-0.95113081,-0.27093613,0
-0.67322087,0.072746754,-3.0475254,-0.14521015,0.29190782,-0.94535899,0
-0.60687256,2.4828753,4.0332766,0.14521015,-0.29190782,0.94535899,0
1.1202276,3.3802514,2.2846515,0.14813372,0.95113081,0.27093613,0
-2.2654619,1.0023696,1.0084035,-0.9782486,0.1006968,0.1813553,0
0.47223902,3.1013069,3.6181808,0.14813372,0.95113081,0.27093613,0
-0.21012425,-4.231051,1.8992097,0.14521015,-0.29190782,0.94535899,0
0.90928245,-3.9649456,-1.3416905,-0.14813372,-0.95113081,-0.27093613,0
2.2759278,2.3415477,3.5468295,0.14521015,-0.29190782,0.94535899,0
1.705276,0.53100729,3.0754251,0.14521015,-0.29190782,0.94535899,0
1.4650371,-2.9330719,-4.2539597,0.9782486,-0.1006968,-0.1813553,0
2.638118,-0.06934762,0.48368347,0.9782486,-0.1006968,-0.1813553,0
-2.61731,-0.68186712,0.045666568,-0.9782486,0.1006968,0.1813553,0
-3.2994337,-2.0819535,-2.8563862,-0.9782486,0.1006968,0.1813553,0
2.1515982,0.10676336,2.8758712,0.14521015,-0.29190782,0.94535899,0
2.4114759,0.62177515,-1.1225897,0.9782486,-0.1006968,-0.1813553,0
1.0359569,-3.9886181,1.7826657,0.14521015,-0.29190782,0.94535899,0
-2.6611557,1.7726066,-1.5536817,-0.9782486,0.1006968,0.1813553,0
-2.0530934,-4.0344925,0.52212596,-0.14813372,-0.95113081,-0.27093613,0
1.9844822,4.4769917,-2.0380208,0.14813372,0.95113081,0.27093613,0
0.86235929,-3.3323014,-3.5369549,-0.14813372,-0.95113081,-0.27093613,0
-0.57667756,3.5492132,2.6192825,0.14813372,0.95113081,0.27093613,0
-2.5432348,-1.9865624,1.1696618,-0.9782486,0.1006968,0.1813553,0
-2.5336733,-1.2925423,0.83588701,-0.9782486,0.1006968,0.1813553,0
-1.8911865,-0.53398329,3.2990062,0.14521015,-0.29190782,0.94535899,0
-1.9953798,-4.3845458,1.7194457,-0.14813372,-0.95113081,-0.27093613,0
0.04430902,-3.5714102,2.0638113,0.14521015,-0.29190782,0.94535899,0
0.28722,-3.2469602,-3.5220935,-0.14813372,-0.95113081,-0.27093613,0
3.3791945,2.6626375,2.9642,0.9782486,-0.1006968,-0.1813553,0
3.1721306,3.1698685,1.565639,0.9782486,-0.1006968,-0.1813553,0
1.655812,-2.5172842,-3.455766,0.9782486,-0.1006968,-0.1813553,0
2.9372058,2.1611369,0.8585242,0.9782486,-0.1006968,-0.1813553,0
0.42322874,3.5870488,1.9397635,0.14813372,0.95113081,0.27093613,0
2.2557435,-3.4360378,1.765928,0.14521015,-0.29190782,0.94535899,0
2.2495379,3.5337241,1.1284323,0.14813372,0.95113081,0.27093613,0
-1.9619262,-1.9984041,-3.4891052,-0.14521015,0.29190782,-0.94535899,0
2.5269237,0.60567927,-0.49091616,0.9782486,-0.1006968,-0.1813553,0
0.80883777,2.3877923,-2.5603352,-0.14521015,0.29190782,-0.94535899,0
-1.495152,2.0009103,-2.3258963,-0.14521015,0.29190782,-0.94535899,0
-0.018930912,-3.098027,-3.8775389,-0.14813372,-0.95113081,-0.27093613,0
2.3128467,-0.79691148,-0.86688471,0.9782486,-0.1006968,-0.1813553,0
1.3780875,-3.0223801,-4.3183255,-0.14521015,0.29190782,-0.94535899,0
0.50432348,2.0259149,-2.6253011,-0.14521015,0.29190782,-0.94535899,0
3.0811615,0.61688137,2.49248,0.9782486,-0.1006968,-0.1813553,0
-1.5690049,-2.4078848,2.6708951,0.14521015,-0.29190782,0.94535899,0
1.1910937,4.5133042,-1.9627359,-0.14521015,0.29190782,-0.94535899,0
2.4540629,-0.80308628,-0.10172296,0.9782486,-0.1006968,-0.1813553,0
-2.5715184,2.9376116,-1.7170329,-0.9782486,0.1006968,0.1813553,0
-2.2662287,-0.18930852,1.665942,-0.9782486,0.1006968,0.1813553,0
2.3858929,0.18076181,-1.0157168,0.9782486,-0.1006968,-0.1813553,0
2.3473632,4.3730531,-2.1836491,-0.14521015,0.29190782,-0.94535899,0
-2.6133261,-2.7477837,-3.6204419,-0.14521015,0.29190782,-0.94535899,0
-2.6765182,-0.79063129,-0.21331814,-0.9782486,0.1006968,0.1813553,0
-0.38140559,-2.4422891,2.4778526,0.14521015,-0.29190782,0.94535899,0
1.5806248,-4.8318505,1.3345551,-0.14813372,-0.95113081,-0.27093613,0
0.23416543,-1.4076478,2.702775,0.14521015,-0.29190782,0.94535899,0
1.5803318,-3.3985567,-3.3735895,0.9782486,-0.1006968,-0.1813553,0
2.79808,3.7064419,0.22218728,0.14813372,0.95113081,0.27093613,0
-0.74086821,4.1330285,0.65955019,0.14813372,0.95113081,0.27093613,0
1.5805197,-4.8239498,1.3068757,-0.14813372,-0.95113081,-0.27093613,0
-2.628968,-1.2902651,-3.1679866,-0.14521015,0.29190782,-0.94535899,0
1.3931324,-4.7217555,1.5014243,0.14521015,-0.29190782,0.94535899,0
0.82842314,3.7468965,1.157074,0.14813372,0.95113081,0.27093613,0
1.9495625,-3.5442417,-1.3010302,0.9782486,-0.1006968,-0.1813553,0
1.2574261,-4.4063487,1.6196609,0.14521015,-0.29190782,0.94535899,0
2.2842214,0.85331988,-1.9375787,0.9782486,-0.1006968,-0.1813553,0
1.4008545,2.6208119,-2.579319,-0.14521015,0.29190782,-0.94535899,0
-0.48227286,-3.3125317,2.2246327,0.14521015,-0.29190782,0.94535899,0
-0.63413543,-4.2572384,0.52827311,-0.14813372,-0.95113081,-0.27093613,0
-2.4603741,0.64453459,0.15571415,-0.9782486,0.1006968,0.1813553,0
-0.04377389,-4.0662818,-0.46486664,-0.14813372,-0.95113081,-0.27093613,0
-0.93119669,0.011864915,3.3200953,0.14521015,-0.29190782,0.94535899,0
-3.2596238,-1.7970772,-3.2276096,-0.14521015,0.29190782,-0.94535899,0
-0.35502601,1.882515,-2.5375812,-0.14521015,0.29190782,-0.94535899,0
0.80386734,3.4949014,-2.2177186,-0.14521015,0.29190782,-0.94535899,0
-3.1439304,-2.7029686,-1.6727693,-0.9782486,0.1006968,0.1813553,0
1.977046,3.3636374,1.8745115,0.14813372,0.95113081,0.27093613,0
2.9221437,1.6302943,3.2279482,0.14521015,-0.29190782,0.94535899,0
-0.33809781,1.8882298,-2.5384166,-0.14521015,0.29190782,-0.94535899,0
-2.787447,-3.3983724,0.63626027,-0.9782486,0.1006968,0.1813553,0
2.9826517,0.32653141,2.8160784,0.14521015,-0.29190782,0.94535899,0
0.21697402,-0.91294873,2.8581691,0.14521015,-0.29190782,0.94535899,0
2.0484617,0.31442153,-2.9100695,0.9782486,-0.1006968,-0.1813553,0
2.2798471,4.400568,-2.1647825,-0.14521015,0.29190782,-0.94535899,0
-2.981761,-0.42136812,-2.0648625,-0.9782486,0.1006968,0.1813553,0
2.3539767,1.0976039,-1.6969488,0.9782486,-0.1006968,-0.1813553,0
-2.7683463,-0.46002579,-2.8902168,-0.14521015,0.29190782,-0.94535899,0
0.056042194,-0.14620847,-3.2271514,-0.14521015,0.29190782,-0.94535899,0
3.3245404,1.8427262,3.1246445,0.9782486,-0.1006968,-0.1813553,0
-2.6462171,1.5001507,-1.3218205,-0.9782486,0.1006968,0.1813553,0
2.891633,-0.051757574,1.8414032,0.9782486,-0.1006968,-0.1813553,0
-2.4388077,-3.2330964,2.4250867,-0.9782486,0.1006968,0.1813553,0
-1.7099376,-1.0932114,-3.2483065,-0.14521015,0.29190782,-0.94535899,0
-2.6692116,-1.3729086,0.14940166,-0.9782486,0.1006968,0.1813553,0
0.24646497,-4.7019196,1.6078742,-0.14813372,-0.95113081,-0.27093613,0
-0.31831098,4.2212143,0.11893845,0.14813372,0.95113081,0.27093613,0
0.3684423,3.5167494,2.2165058,0.14813372,0.95113081,0.27093613,0
-2.9437819,-3.2589989,-1.7132883,-0.14813372,-0.95113081,-0.27093613,0
-1.6688254,2.9994543,3.1178463,-0.9782486,0.1006968,0.1813553,0
-3.003864,-2.0605054,-3.3482361,-0.14521015,0.29190782,-0.94535899,0
-1.9412295,4.7126069,-0.71878529,0.14813372,0.95113081,0.27093613,0
-1.5140955,2.6654899,4.1379066,-0.9782486,0.1006968,0.1813553,0
-2.4270198,1.4504652,-0.11186028,-0.9782486,0.1006968,0.1813553,0
0.85830402,-3.450773,-3.1188395,-0.14813372,-0.95113081,-0.27093613,0
0.77407646,-3.1700273,-4.0583553,-0.14813372,-0.95113081,-0.27093613,0
-0.58072186,-3.2981677,-2.86778,-0.14813372,-0.95113081,-0.27093613,0
1.6275011,-4.8177361,1.2593737,-0.14813372,-0.95113081,-0.27093613,0
2.59409,-1.5030355,2.3108294,0.14521015,-0.29190782,0.94535899,0
-2.7439609,-1.6210899,-0.11600077,-0.9782486,0.1006968,0.1813553,0
-2.5415659,-2.7796619,1.6190312,-0.9782486,0.1006968,0.1813553,0
0.66156924,-4.3458052,0.13076544,-0.14813372,-0.95113081,-0.27093613,0
1.5064712,4.0809832,-0.38647079,0.14813372,0.95113081,0.27093613,0
-2.5287669,2.0691605,-2.1460552,-0.14521015,0.29190782,-0.94535899,0
-0.66996145,3.3221183,3.4675102,0.14813372,0.95113081,0.27093613,0
2.4950991,3.2184911,-2.1133356,0.9782486,-0.1006968,-0.1813553,0
2.9488833,3.2486386,1.7468691,0.14813372,0.95113081,0.27093613,0
2.2805171,-4.6752911,1.1121845,0.9782486,-0.1006968,-0.1813553,0
1.7773439,-4.5575576,0.26408243,-0.14813372,-0.95113081,-0.27093613,0
0.0079808235,-0.33507806,3.068706,0.14521015,-0.29190782,0.94535899,0
1.1358242,-1.774585,2.4509747,0.14521015,-0.29190782,0.94535899,0
-3.1803408,-1.8571818,-2.3387914,-0.9782486,0.1006968,0.1813553,0
1.348037,3.0496325,3.3207448,0.14813372,0.95113081,0.27093613,0
0.096838117,-4.0401082,-0.63362741,-0.14813372,-0.95113081,-0.27093613,0
-2.7644045,-0.85437632,-3.0125899,-0.14521015,0.29190782,-0.94535899,0
-2.7689333,-0.9364078,-0.63087273,-0.9782486,0.1006968,0.1813553,0
2.2779627,-4.8645511,1.2034898,0.9782486,-0.1006968,-0.1813553,0
2.5814652,4.0958958,-2.1346433,0.9782486,-0.1006968,-0.1813553,0
2.5050495,2.3147371,-1.5578568,0.9782486,-0.1006968,-0.1813553,0
-2.1812789,0.064473391,-2.8184376,-0.14521015,0.29190782,-0.94535899,0
2.8615935,0.93789101,1.1298678,0.9782486,-0.1006968,-0.1813553,0
-1.2696933,3.6492307,-1.8515592,-0.14521015,0.29190782,-0.94535899,0
2.7157917,0.86188412,3.0223746,0.14521015,-0.29190782,0.94535899,0
0.30361909,-4.2456679,-0.025060654,-0.14813372,-0.95113081,-0.27093613,0
-2.3271494,-2.2987933,2.5086155,-0.9782486,0.1006968,0.1813553,0
-2.6928382,2.2244861,-1.9754851,-0.9782486,0.1006968,0.1813553,0
-2.4210539,2.0783627,-2.1597586,-0.14521015,0.29190782,-0.94535899,0
2.9884784,0.21558952,2.2153533,0.9782486,-0.1006968,-0.1813553,0
-2.0093818,3.8096938,-1.6883929,-0.14521015,0.29190782,-0.94535899,0
0.10571766,3.0629582,3.9531989,0.14813372,0.95113081,0.27093613,0
1.2444293,3.5572314,1.5954485,0.14813372,0.95113081,0.27093613,0
1.280787,-4.2192221,-0.65216303,-0.14813372,-0.95113081,-0.27093613,0
-1.3425999,-2.730381,2.5365381,0.14521015,-0.29190782,0.94535899,0
-2.8769698,-3.3766026,-1.3369656,-0.14813372,-0.95113081,-0.27093613,0
0.79314864,3.8196795,-2.1157877,-0.14521015,0.29190782,-0.94535899,0
-1.9121478,3.300806,1.6380172,-0.9782486,0.1006968,0.1813553,0
2.0650697,3.321887,-2.4648669,-0.14521015,0.29190782,-0.94535899,0
-1.7797689,-3.848989,-0.27852845,-0.14813372,-0.95113081,-0.27093613,0
-1.7777557,-3.0005441,-3.2581255,-0.14813372,-0.95113081,-0.27093613,0
-2.4057105,1.6264467,-0.094629288,-0.9782486,0.1006968,0.1813553,0
-2.1923604,-2.5066416,2.7361505,0.14521015,-0.29190782,0.94535899,0
0.95098329,3.7292695,-2.167948,-0.14521015,0.29190782,-0.94535899,0
-2.2317455,1.6927663,0.80693173,-0.9782486,0.1006968,0.1813553,0
-3.0179682,-2.8814263,-0.89422894,-0.9782486,0.1006968,0.1813553,0
-1.5909429,0.34725237,-2.8217983,-0.14521015,0.29190782,-0.94535899,0
-1.8908135,4.4354849,0.22649622,0.14813372,0.95113081,0.27093613,0
-0.88211727,-2.6272676,-3.849148,-0.14521015,0.29190782,-0.94535899,0
-2.4393165,1.6503167,-0.28915644,-0.9782486,0.1006968,0.1813553,0
-0.26987576,3.3845246,3.0296845,0.14813372,0.95113081,0.27093613,0
1.1687529,-3.4137852,-3.4184246,-0.14813372,-0.95113081,-0.27093613,0
-3.2417562,-2.5811038,-2.268115,-0.9782486,0.1006968,0.1813553,0
-2.5079439,-0.95482039,0.78715432,-0.9782486,0.1006968,0.1813553,0
1.5992022,3.4298983,-2.3599565,-0.14521015,0.29190782,-0.94535899,0
-2.1089616,-2.2858374,2.7915199,0.14521015,-0.29190782,0.94535899,0
-1.6692865,3.68313,2.7357512,-0.9782486,0.1006968,0.1813553,0
1.5703489,3.94942,0.040462017,0.14813372,0.95113081,0.27093613,0
-0.29569435,3.2220733,3.6140909,0.14813372,0.95113081,0.27093613,0
0.86141872,-4.2520537,1.728132,0.14521015,-0.29190782,0.94535899,0
-1.2665263,4.0422616,1.2655935,0.14813372,0.95113081,0.27093613,0
1.7196802,-3.4796233,-2.5769196,0.9782486,-0.1006968,-0.1813553,0
-2.5298669,-2.370209,1.4547893,-0.9782486,0.1006968,0.1813553,0
-0.12120736,3.3977518,-2.1056221,-0.14521015,0.29190782,-0.94535899,0
1.5308721,-3.4178863,-3.6020145,-0.14813372,-0.95113081,-0.27093613,0
0.39832234,4.4144664,-1.8714828,-0.14521015,0.29190782,-0.94535899,0
-1.9517318,1.0602586,2.6685534,-0.9782486,0.1006968,0.1813553,0
-2.898154,-3.5092237,0.10064387,-0.9782486,0.1006968,0.1813553,0
-1.6557255,4.2374673,0.79310942,0.14813372,0.95113081,0.27093613,0
1.6908628,-2.9642825,1.9983647,0.14521015,-0.29190782,0.94535899,0
-0.36678314,3.6931429,1.9992537,0.14813372,0.95113081,0.27093613,0
-2.4763665,-2.5977249,-3.595144,-0.14521015,0.29190782,-0.94535899,0
2.4221635,2.8612025,-2.3083756,0.9782486,-0.1006968,-0.1813553,0
2.1185954,-1.3666546,-1.5983491,0.9782486,-0.1006968,-0.1813553,0
2.6224167,-1.4223087,2.3314047,0.14521015,-0.29190782,0.94535899,0
-0.33756948,3.969703,-1.895781,-0.14521015,0.29190782,-0.94535899,0
-2.2723613,2.1329811,0.34341955,-0.9782486,0.1006968,0.1813553,0
-0.05791831,-3.3827734,-2.8566113,-0.14813372,-0.95113081,-0.27093613,0
2.5341084,1.7517345,-1.0885046,0.9782486,-0.1006968,-0.1813553,0
2.622211,1.993871,3.3862841,0.14521015,-0.29190782,0.94535899,0
-1.1029997,-3.027837,-3.5312333,-0.14813372,-0.95113081,-0.27093613,0
-1.4972695,-2.0024331,2.7850716,0.14521015,-0.29190782,0.94535899,0
-1.4234047,0.082437277,-2.9293025,-0.14521015,0.29190782,-0.94535899,0
-1.6290083,-4.0547752,0.36146235,-0.14813372,-0.95113081,-0.27093613,0
2.8678739,1.8269652,0.67008889,0.9782486,-0.1006968,-0.1813553,0
-0.38597751,-0.13257647,-3.1550465,-0.14521015,0.29190782,-0.94535899,0
1.7307973,1.0441693,3.229959,0.14521015,-0.29190782,0.94535899,0
-0.56714487,2.9280951,4.164649,0.14521015,-0.29190782,0.94535899,0
1.5436696,3.9144192,0.17792058,0.14813372,0.95113081,0.27093613,0
1.2389245,3.1281807,3.1046557,0.14813372,0.95113081,0.27093613,0
-0.08359623,-0.84201789,2.9262395,0.14521015,-0.29190782,0.94535899,0
1.5265236,-0.47758436,-3.5553446,-0.14521015,0.29190782,-0.94535899,0
2.9539151,3.4891167,0.89991164,0.14813372,0.95113081,0.27093613,0
-0.89991951,1.1154524,3.6560569,0.14521015,-0.29190782,0.94535899,0
-2.703052,-0.97048688,-0.25658083,-0.9782486,0.1006968,0.1813553,0
2.7912445,1.8938636,0.21959734,0.9782486,-0.1006968,-0.1813553,0
