-2.2004333,4.9014912,2.2483046,-0.88743514,-0.095217109,0.45099065,0
1.140008,-3.8421428,0.94441819,0.31602252,-0.83795041,0.44493684,0
1.9230825,-1.8395288,-2.1475916,0.88743514,0.095217109,-0.45099065,0
-2.1328206,-3.4968283,-1.816215,-0.33554217,-0.53737581,-0.7737174,0
-1.3374733,-2.5015516,-2.8523955,-0.33554217,-0.53737581,-0.7737174,0
0.69092143,-1.0086813,-4.3967552,0.88743514,0.095217109,-0.45099065,0
-2.1850426,-1.6594282,-3.0697117,-0.33554217,-0.53737581,-0.7737174,0
-0.9643966,-1.7581255,-3.5305266,-0.33554217,-0.53737581,-0.7737174,0
2.1195576,5.0217552,-0.31236339,0.88743514,0.095217109,-0.45099065,0
1.6123514,-2.1794667,3.7402508,0.31602252,-0.83795041,0.44493684,0
-2.2913048,4.4757075,1.0664999,-0.31602252,0.83795041,-0.44493684,0
1.263018,0.074031353,-3.0424228,0.88743514,0.095217109,-0.45099065,0
2.6934657,-1.5422826,4.1723833,0.31602252,-0.83795041,0.44493684,0
2.990289,-0.7360239,0.18538207,0.88743514,0.095217109,-0.45099065,0
-3.4765625,-0.96158493,-1.500658,-0.88743514,-0.095217109,0.45099065,0
0.32515979,4.4438066,1.942441,0.33554217,0.53737581,0.7737174,0
1.4049373,-1.5331923,5.1046987,0.31602252,-0.83795041,0.44493684,0
2.8273041,-0.55615103,4.3299818,0.33554217,0.53737581,0.7737174,0
2.0444911,0.011193037,-1.5179493,0.88743514,0.095217109,-0.45099065,0
-0.8583622,-5.455101,-0.67389822,0.31602252,-0.83795041,0.44493684,0
4.111578,0.35655403,2.6224675,0.88743514,0.095217109,-0.45099065,0
2.503829,-2.5394921,-1.1526122,0.88743514,0.095217109,-0.45099065,0
-2.2746158,2.771723,1.6526763,-0.88743514,-0.095217109,0.45099065,0
2.4774351,-0.32387275,4.3203845,0.33554217,0.53737581,0.7737174,0
0.46454144,4.8852463,-0.11959267,-0.31602252,0.83795041,-0.44493684,0
-4.0712719,-0.92966318,-2.7585497,-0.33554217,-0.53737581,-0.7737174,0
-2.9051938,-0.84213805,-3.3250382,-0.33554217,-0.53737581,-0.7737174,0
-0.28990412,-2.9468896,3.6460648,0.31602252,-0.83795041,0.44493684,0
-2.0014777,-4.9501286,0.55983758,-0.88743514,-0.095217109,0.45099065,0
0.38033485,-2.110424,4.7453356,0.31602252,-0.83795041,0.44493684,0
-1.5161769,-2.9619694,-2.4551187,-0.33554217,-0.53737581,-0.7737174,0
0.10188746,3.1167588,-3.1926091,-0.31602252,0.83795041,-0.44493684,0
-2.8106329,3.653558,-0.11299586,-0.31602252,0.83795041,-0.44493684,0
2.4826667,-0.59142137,-0.7829597,0.88743514,0.095217109,-0.45099065,0
1.031251,-0.72803617,5.2282662,0.33554217,0.53737581,0.7737174,0
-3.7267213,-0.97092855,-1.9948804,-0.88743514,-0.095217109,0.45099065,0
1.7594938,-3.8038158,0.57660037,0.31602252,-0.83795041,0.44493684,0
-3.4088228,0.75441432,-1.0050682,-0.88743514,-0.095217109,0.45099065,0
-0.2492929,-2.3672044,-3.4176211,-0.33554217,-0.53737581,-0.7737174,0
-1.2545056,2.0764065,-4.188509,-0.31602252,0.83795041,-0.44493684,0
1.9881275,4.2236209,-0.73949444,0.88743514,0.095217109,-0.45099065,0
0.27968287,-0.29920244,5.2563624,0.33554217,0.53737581,0.7737174,0
-1.8871393,-4.9798794,-0.89272642,-0.33554217,-0.53737581,-0.7737174,0
-1.7778668,-1.7979031,1.6653724,-0.88743514,-0.095217109,0.45099065,0
0.43303537,-5.3080535,-1.6709995,-0.33554217,-0.53737581,-0.7737174,0
-0.66836834,4.8236847,2.1094704,0.33554217,0.53737581,0.7737174,0
2.628937,4.5009108,0.90368891,0.33554217,0.53737581,0.7737174,0
-1.5107551,1.2401377,-5.3759909,-0.33554217,-0.53737581,-0.7737174,0
3.0006819,1.6765342,0.71519327,0.88743514,0.095217109,-0.45099065,0
2.0271893,5.0710373,0.76867771,0.33554217,0.53737581,0.7737174,0
2.7233224,2.062139,2.5565751,0.33554217,0.53737581,0.7737174,0
0.88901371,-2.4676309,-3.841527,-0.33554217,-0.53737581,-0.7737174,0
4.5267558,-1.2364233,3.4462893,0.31602252,-0.83795041,0.44493684,0
-2.8285763,3.1013513,0.63221562,-0.88743514,-0.095217109,0.45099065,0
2.9617648,-0.23710942,0.23458928,0.88743514,0.095217109,-0.45099065,0
1.5704417,4.4301128,-1.5177972,0.88743514,0.095217109,-0.45099065,0
-1.253243,1.7612374,3.449136,-0.88743514,-0.095217109,0.45099065,0
2.755249,3.5044596,0.61817098,0.88743514,0.095217109,-0.45099065,0
1.6922867,0.41718364,-2.1252818,0.88743514,0.095217109,-0.45099065,0
-0.17271471,-3.5656145,2.3975837,0.31602252,-0.83795041,0.44493684,0
0.55603343,-1.2933052,-4.5127349,-0.33554217,-0.53737581,-0.7737174,0
3.2262979,-1.3056102,0.52953184,0.88743514,0.095217109,-0.45099065,0
-2.8535728,2.9273899,0.54630065,-0.88743514,-0.095217109,0.45099065,0
2.269501,2.7102118,-0.50534642,0.88743514,0.095217109,-0.45099065,0
-0.86869597,-4.0489373,1.9816716,0.31602252,-0.83795041,0.44493684,0
-0.85823774,-3.9932876,2.0790484,0.31602252,-0.83795041,0.44493684,0
-0.91557139,0.35627484,3.8169599,-0.88743514,-0.095217109,0.45099065,0
0.75720978,-4.886898,-0.75128317,0.31602252,-0.83795041,0.44493684,0
2.0684681,1.0446664,-1.2525727,0.88743514,0.095217109,-0.45099065,0
1.3022081,4.0843263,1.7683921,0.33554217,0.53737581,0.7737174,0
-2.4025502,3.1843576,1.4880521,-0.88743514,-0.095217109,0.45099065,0
0.5979448,3.5022087,2.4781165,0.33554217,0.53737581,0.7737174,0
-1.8410306,0.60730195,2.0488899,-0.88743514,-0.095217109,0.45099065,0
-0.35284448,1.2649922,4.4442806,0.33554217,0.53737581,0.7737174,0
-1.5973921,2.1041775,2.8443422,-0.88743514,-0.095217109,0.45099065,0
3.6377852,-0.4958427,1.5101994,0.88743514,0.095217109,-0.45099065,0
2.9756224,-2.8637483,-0.29270196,0.88743514,0.095217109,-0.45099065,0
4.0778232,-1.3234723,2.2013464,0.88743514,0.095217109,-0.45099065,0
2.3015075,-3.4335263,-1.739485,0.88743514,0.095217109,-0.45099065,0
-3.245991,1.5688059,-0.51271456,-0.88743514,-0.095217109,0.45099065,0
3.6538737,-2.72333,1.0715711,0.88743514,0.095217109,-0.45099065,0
-1.6872542,4.7847309,1.2194486,-0.31602252,0.83795041,-0.44493684,0
-1.3010073,-0.37574047,-4.3446646,-0.33554217,-0.53737581,-0.7737174,0
-1.5141637,2.9965482,3.1965199,-0.88743514,-0.095217109,0.45099065,0
0.075275898,2.780025,-3.807879,-0.31602252,0.83795041,-0.44493684,0
-1.2678494,1.7520212,-4.7899466,-0.31602252,0.83795041,-0.44493684,0
-1.5172462,-5.6457825,-0.56502819,0.31602252,-0.83795041,0.44493684,0
3.5276222,-1.4057848,3.8369796,0.31602252,-0.83795041,0.44493684,0
-0.71652126,-1.0420772,3.9134078,-0.88743514,-0.095217109,0.45099065,0
0.2887063,-0.65605652,5.5002971,0.33554217,0.53737581,0.7737174,0
-1.0838141,3.1156085,3.4759622,0.33554217,0.53737581,0.7737174,0
1.8893003,-2.2222221,3.463022,0.31602252,-0.83795041,0.44493684,0
0.23309064,-0.343014,-5.0326958,-0.33554217,-0.53737581,-0.7737174,0
-2.5267911,2.4755681,-2.5331089,-0.31602252,0.83795041,-0.44493684,0
0.751194,3.0506575,-3.4211116,0.88743514,0.095217109,-0.45099065,0
-2.7922781,-0.3264184,-3.7321939,-0.33554217,-0.53737581,-0.7737174,0
0.5682013,4.3117166,1.9287815,0.33554217,0.53737581,0.7737174,0
-1.4690859,0.489115,2.7558298,-0.88743514,-0.095217109,0.45099065,0
2.8341055,-0.98000407,-0.17345868,0.88743514,0.095217109,-0.45099065,0
-3.5305409,2.3535779,-0.90694815,-0.88743514,-0.095217109,0.45099065,0
1.1127534,-0.25931543,4.8673763,0.33554217,0.53737581,0.7737174,0
-3.6207201,0.80620313,-1.4110935,-0.88743514,-0.095217109,0.45099065,0
-0.80284262,3.5258329,-1.7796017,-0.31602252,0.83795041,-0.44493684,0
-1.7953279,-4.7408385,1.0096748,-0.88743514,-0.095217109,0.45099065,0
1.4662242,-0.92073917,-2.8525896,0.88743514,0.095217109,-0.45099065,0
-1.5029589,-0.98960036,-3.8307352,-0.33554217,-0.53737581,-0.7737174,0
1.9492571,2.3012855,-1.2218412,0.88743514,0.095217109,-0.45099065,0
-0.87193966,2.0388668,-4.5309305,-0.31602252,0.83795041,-0.44493684,0
-1.3711512,4.8497591,2.3961406,0.33554217,0.53737581,0.7737174,0
1.4732456,-1.6018181,4.926939,0.31602252,-0.83795041,0.44493684,0
-1.9595566,2.1865075,2.1490762,-0.88743514,-0.095217109,0.45099065,0
-0.057710409,-0.64098382,5.2944627,-0.88743514,-0.095217109,0.45099065,0
-1.6491313,0.11615223,-4.5353298,-0.33554217,-0.53737581,-0.7737174,0
1.9308766,2.262939,2.7607765,0.33554217,0.53737581,0.7737174,0
2.2477987,4.2583294,-0.22119904,0.88743514,0.095217109,-0.45099065,0
-0.64787102,2.1751337,-4.4334464,-0.31602252,0.83795041,-0.44493684,0
-0.19055557,-4.6908288,-1.8292494,-0.33554217,-0.53737581,-0.7737174,0
-0.4498651,4.87637,1.9781194,0.33554217,0.53737581,0.7737174,0
1.6365602,4.4816461,-1.3768122,0.88743514,0.095217109,-0.45099065,0
2.0642285,0.075904846,-1.4654483,0.88743514,0.095217109,-0.45099065,0
2.4679222,-2.1675775,3.1549606,0.31602252,-0.83795041,0.44493684,0
1.3588848,3.9145808,-2.0429316,0.88743514,0.095217109,-0.45099065,0
-2.4218009,4.4020457,1.0204597,-0.31602252,0.83795041,-0.44493684,0
1.2337992,-4.2149954,0.17560792,0.31602252,-0.83795041,0.44493684,0
3.1681979,-3.4841778,0.17802489,0.31602252,-0.83795041,0.44493684,0
-0.21143532,-3.1501729,3.2074881,0.31602252,-0.83795041,0.44493684,0
-1.9916306,-0.082332447,-4.2489414,-0.33554217,-0.53737581,-0.7737174,0
-2.5428278,0.38179839,-4.3322582,-0.33554217,-0.53737581,-0.7737174,0
-2.7693634,2.043643,0.52541971,-0.88743514,-0.095217109,0.45099065,0
-0.92598534,1.6393859,-5.2448864,-0.31602252,0.83795041,-0.44493684,0
-3.4980588,2.6048317,-0.78998482,-0.88743514,-0.095217109,0.45099065,0
0.31666279,-3.526135,2.1243491,0.31602252,-0.83795041,0.44493684,0
1.2591909,3.3496766,2.2972894,0.33554217,0.53737581,0.7737174,0
2.5916448,2.6402516,0.1137805,0.88743514,0.095217109,-0.45099065,0
-0.85939938,-0.22120428,3.8055696,-0.88743514,-0.095217109,0.45099065,0
-2.6179771,4.0246859,0.44911301,-0.31602252,0.83795041,-0.44493684,0
-3.4949622,-1.3086176,-2.7452826,-0.33554217,-0.53737581,-0.7737174,0
1.1977592,-5.2993398,-1.8409419,0.31602252,-0.83795041,0.44493684,0
2.1388533,-2.7244878,-1.9098487,0.88743514,0.095217109,-0.45099065,0
-3.6943195,2.3282468,-1.2345719,-0.88743514,-0.095217109,0.45099065,0
2.3467262,0.37849349,3.8892498,0.33554217,0.53737581,0.7737174,0
0.6182698,0.2530961,-4.2733183,0.88743514,0.095217109,-0.45099065,0
1.2162528,3.0184195,2.5459809,0.33554217,0.53737581,0.7737174,0
2.4355087,2.9559822,-0.12679648,0.88743514,0.095217109,-0.45099065,0
-2.3200788,-0.090819597,0.95885116,-0.88743514,-0.095217109,0.45099065,0
0.64210343,5.0114479,1.4107428,0.33554217,0.53737581,0.7737174,0
-2.074857,2.3967917,1.9665921,-0.88743514,-0.095217109,0.45099065,0
0.21384692,-1.1341143,5.7247038,-0.88743514,-0.095217109,0.45099065,0
-2.3861403,3.0614858,1.494401,-0.88743514,-0.095217109,0.45099065,0
1.217891,-1.0909094,5.399354,0.33554217,0.53737581,0.7737174,0
-0.80078614,-4.3316493,-1.8140712,-0.33554217,-0.53737581,-0.7737174,0
-1.0147178,4.4665022,2.5077505,0.33554217,0.53737581,0.7737174,0
-3.9640179,1.8376424,-2.7137048,-0.31602252,0.83795041,-0.44493684,0
1.2291578,2.5676761,-2.5825708,0.88743514,0.095217109,-0.45099065,0
-1.5313554,4.3158407,2.8364429,0.33554217,0.53737581,0.7737174,0
2.1340597,-4.9680777,-2.3929687,0.88743514,0.095217109,-0.45099065,0
2.2313204,2.2313321,2.6524329,0.33554217,0.53737581,0.7737174,0
-3.852582,2.0566912,-2.3803186,-0.31602252,0.83795041,-0.44493684,0
1.5932636,-3.6592801,0.96687245,0.31602252,-0.83795041,0.44493684,0
0.72480392,5.2896338,1.1816669,0.33554217,0.53737581,0.7737174,0
1.640155,5.0514731,0.95011282,0.33554217,0.53737581,0.7737174,0
0.52437854,-4.1132536,0.87109411,0.31602252,-0.83795041,0.44493684,0
2.0727329,-4.2527781,-0.49141359,0.31602252,-0.83795041,0.44493684,0
-1.5353653,-0.287164,-4.3045502,-0.33554217,-0.53737581,-0.7737174,0
-2.5596747,0.65132946,-4.5121508,-0.33554217,-0.53737581,-0.7737174,0
2.0305667,0.81085432,-1.3765178,0.88743514,0.095217109,-0.45099065,0
-4.3582578,-0.17645168,-3.0698473,-0.88743514,-0.095217109,0.45099065,0
-0.95976758,5.1427412,1.3769839,-0.31602252,0.83795041,-0.44493684,0
0.96711326,1.4155276,-3.34146,0.88743514,0.095217109,-0.45099065,0
-1.4892149,2.7371302,-2.7774615,-0.31602252,0.83795041,-0.44493684,0
-1.0542088,-2.1944451,-3.1885371,-0.33554217,-0.53737581,-0.7737174,0
-0.06781888,0.65079427,-5.5394015,0.88743514,0.095217109,-0.45099065,0
1.4759799,-1.515769,-2.9590201,0.88743514,0.095217109,-0.45099065,0
1.1482804,1.9792144,-2.8659587,0.88743514,0.095217109,-0.45099065,0
-2.8210707,1.1726904,0.23978969,-0.88743514,-0.095217109,0.45099065,0
3.1210113,-1.5386899,3.8754797,0.31602252,-0.83795041,0.44493684,0
-3.6166267,-1.3495255,-1.8581755,-0.88743514,-0.095217109,0.45099065,0
3.6282928,-0.36532688,1.5190767,0.88743514,0.095217109,-0.45099065,0
0.53827214,5.4650531,0.91998959,-0.31602252,0.83795041,-0.44493684,0
-1.0480089,3.135617,-2.3403633,-0.31602252,0.83795041,-0.44493684,0
-0.18770599,-0.47188926,5.0743647,-0.88743514,-0.095217109,0.45099065,0
0.89763367,-1.1427023,-4.0182939,0.88743514,0.095217109,-0.45099065,0
0.45747805,2.9680064,2.9100571,0.33554217,0.53737581,0.7737174,0
0.14794183,1.6017725,3.993196,0.33554217,0.53737581,0.7737174,0
-4.2469893,0.37370467,-2.7347455,-0.88743514,-0.095217109,0.45099065,0
1.13802,3.8243065,2.0201898,0.33554217,0.53737581,0.7737174,0
-2.1336169,4.4720187,0.94755316,-0.31602252,0.83795041,-0.44493684,0
1.4052706,-3.0613911,2.226403,0.31602252,-0.83795041,0.44493684,0
4.3464694,-1.2081153,3.6276524,0.31602252,-0.83795041,0.44493684,0
3.0258822,-3.4187028,-0.31097007,0.88743514,0.095217109,-0.45099065,0
-0.73750257,2.1706362,-4.3782549,-0.31602252,0.83795041,-0.44493684,0
-2.5766368,3.7047081,-0.18286371,-0.31602252,0.83795041,-0.44493684,0
-0.71251357,1.5731232,4.3862524,0.33554217,0.53737581,0.7737174,0
1.8229256,-3.0820889,1.8907769,0.31602252,-0.83795041,0.44493684,0
1.0539703,-2.5990839,3.3465819,0.31602252,-0.83795041,0.44493684,0
-1.2469134,2.3232884,3.580256,-0.88743514,-0.095217109,0.45099065,0
1.9669133,4.661665,-0.68875384,0.88743514,0.095217109,-0.45099065,0
-0.38308787,-4.175436,1.3985258,0.31602252,-0.83795041,0.44493684,0
-0.4683547,3.1062326,-2.80741,-0.31602252,0.83795041,-0.44493684,0
-2.6858459,2.7091656,-1.980203,-0.31602252,0.83795041,-0.44493684,0
0.73724651,-3.117677,2.5948727,0.31602252,-0.83795041,0.44493684,0
-2.2968574,-0.68423438,0.87925828,-0.88743514,-0.095217109,0.45099065,0
-0.97058684,2.0900106,4.0747447,-0.88743514,-0.095217109,0.45099065,0
-3.6674514,2.4558747,-1.1547558,-0.88743514,-0.095217109,0.45099065,0
-3.6389811,-1.4523648,-1.9238758,-0.88743514,-0.095217109,0.45099065,0
2.3629515,-0.19312516,4.2792249,0.33554217,0.53737581,0.7737174,0
1.7761468,0.73713481,3.8876066,0.33554217,0.53737581,0.7737174,0
1.3379788,0.23290801,-2.8613758,0.88743514,0.095217109,-0.45099065,0
-1.386041,-2.8383801,-2.5973926,-0.33554217,-0.53737581,-0.7737174,0
-2.017482,-2.9144537,0.95813471,-0.88743514,-0.095217109,0.45099065,0
3.3071156,-1.2279788,4.3284588,0.31602252,-0.83795041,0.44493684,0
-2.4596062,0.75604993,-4.6282806,-0.33554217,-0.53737581,-0.7737174,0
2.8528438,-1.2798979,4.5533323,0.31602252,-0.83795041,0.44493684,0
-2.8236306,-4.253931,-0.91096354,-0.88743514,-0.095217109,0.45099065,0
2.4556699,-1.4284105,-1.012795,0.88743514,0.095217109,-0.45099065,0
1.0464985,0.61350584,-3.3545799,0.88743514,0.095217109,-0.45099065,0
0.11888289,-0.35838652,5.3672013,0.33554217,0.53737581,0.7737174,0
1.3479795,4.1031008,1.7355027,0.33554217,0.53737581,0.7737174,0
4.4995689,-0.81822848,3.1379049,0.88743514,0.095217109,-0.45099065,0
1.7202573,4.026618,-1.3081877,0.88743514,0.095217109,-0.45099065,0
-3.2262688,-2.7842147,-1.3929534,-0.88743514,-0.095217109,0.45099065,0
3.5123081,1.179528,2.8274176,0.33554217,0.53737581,0.7737174,0
-2.2664819,-0.16270563,-4.0739231,-0.33554217,-0.53737581,-0.7737174,0
-0.20594716,-4.2263899,1.1767476,0.31602252,-0.83795041,0.44493684,0
1.1913824,-2.888237,-3.6805296,-0.33554217,-0.53737581,-0.7737174,0
0.15444541,-4.264729,0.8485707,0.31602252,-0.83795041,0.44493684,0
0.21328115,1.4774133,-4.8117447,0.88743514,0.095217109,-0.45099065,0
0.30603981,2.9700339,-3.6139383,-0.31602252,0.83795041,-0.44493684,0
1.4602785,-4.1297827,0.17522836,0.31602252,-0.83795041,0.44493684,0
2.376689,-3.7369132,0.26422668,0.31602252,-0.83795041,0.44493684,0
-3.8340499,-1.1846691,-2.6843159,-0.33554217,-0.53737581,-0.7737174,0
2.4460783,1.1576486,-0.48567736,0.88743514,0.095217109,-0.45099065,0
4.03369,-1.7137041,2.8976331,0.31602252,-0.83795041,0.44493684,0
-1.9165933,3.5123959,-1.0138503,-0.31602252,0.83795041,-0.44493684,0
-0.54409766,-0.62232625,-4.5016556,-0.33554217,-0.53737581,-0.7737174,0
-1.7959257,2.439836,2.5245452,-0.88743514,-0.095217109,0.45099065,0
-2.9598112,-2.9867678,-1.8118258,-0.33554217,-0.53737581,-0.7737174,0
-1.5067523,5.2588019,1.9840631,-0.31602252,0.83795041,-0.44493684,0
1.567318,-0.12199378,-2.4850245,0.88743514,0.095217109,-0.45099065,0
-0.82045507,-3.6140897,2.7663572,0.31602252,-0.83795041,0.44493684,0
-2.1158462,3.0710158,2.0282836,-0.88743514,-0.095217109,0.45099065,0
-2.8722341,-1.221289,-0.36632478,-0.88743514,-0.095217109,0.45099065,0
0.35266018,-4.6864252,-2.0678868,-0.33554217,-0.53737581,-0.7737174,0
4.2809248,0.20905733,3.1681163,0.33554217,0.53737581,0.7737174,0
0.65664697,2.2708468,-3.7717962,0.88743514,0.095217109,-0.45099065,0
-2.2642312,1.3579805,1.3746283,-0.88743514,-0.095217109,0.45099065,0
0.92584705,-4.7889338,-2.2452683,-0.33554217,-0.53737581,-0.7737174,0
0.87836277,-2.7808049,-3.6193967,-0.33554217,-0.53737581,-0.7737174,0
2.7403083,-1.0645325,-0.37587416,0.88743514,0.095217109,-0.45099065,0
-3.3737907,2.4944329,-0.56876612,-0.88743514,-0.095217109,0.45099065,0
3.514626,-1.1594834,1.1277399,0.88743514,0.095217109,-0.45099065,0
0.193956,-2.2157891,-3.7150106,-0.33554217,-0.53737581,-0.7737174,0
-2.4408147,-4.6438208,-0.23999572,-0.88743514,-0.095217109,0.45099065,0
2.1280725,4.8836536,-0.32476568,0.88743514,0.095217109,-0.45099065,0
-2.66926,-4.3131289,-1.0166235,-0.33554217,-0.53737581,-0.7737174,0
0.080606341,-3.5835435,-2.7158976,-0.33554217,-0.53737581,-0.7737174,0
-2.0003195,2.1588626,-3.5034943,-0.31602252,0.83795041,-0.44493684,0
-2.0782952,3.3509352,2.1612728,-0.88743514,-0.095217109,0.45099065,0
3.2472506,-1.9666905,0.43118823,0.88743514,0.095217109,-0.45099065,0
-2.4809437,3.7009964,-0.25782043,-0.31602252,0.83795041,-0.44493684,0
1.8851655,-3.5153198,1.0306661,0.31602252,-0.83795041,0.44493684,0
2.0187526,-1.3625911,4.9900217,0.31602252,-0.83795041,0.44493684,0
-2.101315,3.4742007,2.1420014,-0.88743514,-0.095217109,0.45099065,0
-4.2426081,0.5605073,-3.7192245,-0.33554217,-0.53737581,-0.7737174,0
3.968679,-2.1572638,1.8105398,0.88743514,0.095217109,-0.45099065,0
0.95901084,4.0940661,1.9104633,0.33554217,0.53737581,0.7737174,0
4.2766743,-1.3357153,3.4369173,0.31602252,-0.83795041,0.44493684,0
0.31447101,0.82491839,-4.7503881,0.88743514,0.095217109,-0.45099065,0
-1.4244002,2.9925585,3.3723092,-0.88743514,-0.095217109,0.45099065,0
-0.15973711,-2.1120694,4.7831116,-0.88743514,-0.095217109,0.45099065,0
0.27731299,1.2679085,-4.7299786,0.88743514,0.095217109,-0.45099065,0
1.2830803,-0.84083074,5.1973944,0.33554217,0.53737581,0.7737174,0
-2.2022915,-5.1241207,-0.65587234,-0.33554217,-0.53737581,-0.7737174,0
4.7162724,-0.72039557,3.5849798,0.88743514,0.095217109,-0.45099065,0
-2.4716303,-5.0253806,-0.60764456,-0.33554217,-0.53737581,-0.7737174,0
0.75228906,-3.9679971,-2.7401719,-0.33554217,-0.53737581,-0.7737174,0
3.6209259,-1.0927473,4.3584938,0.33554217,0.53737581,0.7737174,0
1.4599392,2.6563714,2.6917562,0.33554217,0.53737581,0.7737174,0
-1.0259242,-0.53574789,3.4114819,-0.88743514,-0.095217109,0.45099065,0
0.3823902,1.8560708,3.7149024,0.33554217,0.53737581,0.7737174,0
-1.6961641,-5.4579697,-0.64349604,-0.33554217,-0.53737581,-0.7737174,0
-0.58831477,-1.4239018,4.0850706,-0.88743514,-0.095217109,0.45099065,0
-1.1752372,-0.85809577,3.0496149,-0.88743514,-0.095217109,0.45099065,0
2.4304399,1.3792074,-0.4696731,0.88743514,0.095217109,-0.45099065,0
-3.2514048,3.0040565,-0.22034499,-0.88743514,-0.095217109,0.45099065,0
1.4455185,-3.9859462,0.45659983,0.31602252,-0.83795041,0.44493684,0
0.070635319,2.8410075,-3.689734,-0.31602252,0.83795041,-0.44493684,0
3.5968363,-0.37861443,1.454373,0.88743514,0.095217109,-0.45099065,0
1.5546548,1.9360157,3.150995,0.33554217,0.53737581,0.7737174,0
-4.1301184,-0.86218548,-2.7798953,-0.33554217,-0.53737581,-0.7737174,0
-2.5947883,-4.5524321,-0.88271523,-0.33554217,-0.53737581,-0.7737174,0
3.1231978,1.5009815,0.91920924,0.88743514,0.095217109,-0.45099065,0
3.4884119,-2.7432353,0.74178141,0.88743514,0.095217109,-0.45099065,0
-1.0877774,2.9712148,3.5779676,0.33554217,0.53737581,0.7737174,0
-2.9957957,-3.8415091,-1.1626666,-0.88743514,-0.095217109,0.45099065,0
0.77629375,2.5141363,-3.4849968,0.88743514,0.095217109,-0.45099065,0
2.4342268,-0.73397398,-0.90837467,0.88743514,0.095217109,-0.45099065,0
-1.7415857,2.2078676,-3.5949717,-0.31602252,0.83795041,-0.44493684,0
0.67803562,0.70994759,4.3827133,0.33554217,0.53737581,0.7737174,0
3.9167283,1.027487,2.7576289,0.33554217,0.53737581,0.7737174,0
-0.41206616,2.4033017,3.6793661,0.33554217,0.53737581,0.7737174,0
-2.0084901,1.1288421,-5.0828362,-0.33554217,-0.53737581,-0.7737174,0
-1.1426077,2.7347751,-3.0280786,-0.31602252,0.83795041,-0.44493684,0
-2.3686337,-1.7258232,-2.9439785,-0.33554217,-0.53737581,-0.7737174,0
0.17930245,3.1340237,-3.2150786,-0.31602252,0.83795041,-0.44493684,0
-2.6305971,0.63286757,0.50062066,-0.88743514,-0.095217109,0.45099065,0
-1.7262371,-5.2645674,0.30135393,0.31602252,-0.83795041,0.44493684,0
-0.15214849,-3.3195934,2.846308,0.31602252,-0.83795041,0.44493684,0
-2.8447387,-1.5222421,-0.37576079,-0.88743514,-0.095217109,0.45099065,0
1.6675572,-1.5334058,4.9177675,0.31602252,-0.83795041,0.44493684,0
0.018485308,-4.2784228,-2.206337,-0.33554217,-0.53737581,-0.7737174,0
-1.3696282,-3.643163,2.0790949,-0.88743514,-0.095217109,0.45099065,0
-0.51357603,-1.602192,4.1944962,-0.88743514,-0.095217109,0.45099065,0
-3.3973918,-0.53770113,-1.2553771,-0.88743514,-0.095217109,0.45099065,0
-3.0070066,2.4366875,-2.2652531,-0.31602252,0.83795041,-0.44493684,0
2.9902143,-2.4602232,2.2328553,0.31602252,-0.83795041,0.44493684,0
-3.1459689,3.4760065,0.08676815,-0.88743514,-0.095217109,0.45099065,0
-1.7061985,-0.656452,-3.973979,-0.33554217,-0.53737581,-0.7737174,0
-1.1733835,5.2990637,1.8231101,-0.31602252,0.83795041,-0.44493684,0
1.2740612,4.2653294,-1.8620566,-0.31602252,0.83795041,-0.44493684,0
-0.46560812,3.3813949,-2.2911475,-0.31602252,0.83795041,-0.44493684,0
1.5496899,2.4666052,2.7846336,0.33554217,0.53737581,0.7737174,0
-1.3776071,-4.3974743,1.6867321,0.31602252,-0.83795041,0.44493684,0
-1.1874648,-4.5459867,-1.4975128,-0.33554217,-0.53737581,-0.7737174,0
1.5640376,-3.539268,1.2136495,0.31602252,-0.83795041,0.44493684,0
2.3236732,-2.585268,2.470778,0.31602252,-0.83795041,0.44493684,0
-0.97736037,-1.4830673,3.3070366,-0.88743514,-0.095217109,0.45099065,0
3.1865258,-1.3022286,4.2742758,0.31602252,-0.83795041,0.44493684,0
-0.35367036,4.3774395,-0.49480033,-0.31602252,0.83795041,-0.44493684,0
0.76716995,-2.3781319,3.9664063,0.31602252,-0.83795041,0.44493684,0
2.13767,-4.9922948,-1.93027,0.31602252,-0.83795041,0.44493684,0
2.7806957,-0.96287942,-0.27493995,0.88743514,0.095217109,-0.45099065,0
1.9440908,0.48307166,3.9912298,0.33554217,0.53737581,0.7737174,0
-0.48840383,-2.5981326,-3.1535368,-0.33554217,-0.53737581,-0.7737174,0
0.49823534,1.3147223,4.0406499,0.33554217,0.53737581,0.7737174,0
-4.3255515,1.4616911,-3.1649504,-0.31602252,0.83795041,-0.44493684,0
0.24614096,-1.8112079,5.4041634,0.31602252,-0.83795041,0.44493684,0
-2.4158454,2.2498913,-3.0369277,-0.31602252,0.83795041,-0.44493684,0
0.87722969,-2.6277418,3.4181428,0.31602252,-0.83795041,0.44493684,0
-1.633316,-2.2722201,1.8496695,-0.88743514,-0.095217109,0.45099065,0
1.3702935,2.0833795,3.128598,0.33554217,0.53737581,0.7737174,0
-0.57367659,-4.7734623,0.40763092,0.31602252,-0.83795041,0.44493684,0
2.993361,-1.3897986,4.2465525,0.31602252,-0.83795041,0.44493684,0
-0.48576641,3.5169463,-2.0215456,-0.31602252,0.83795041,-0.44493684,0
-4.2967572,1.5305316,-3.0557539,-0.31602252,0.83795041,-0.44493684,0
-0.68843412,1.2404447,-5.7328243,-0.33554217,-0.53737581,-0.7737174,0
3.9353254,0.66322577,3.002557,0.33554217,0.53737581,0.7737174,0
1.8229237,3.2478213,-1.2705925,0.88743514,0.095217109,-0.45099065,0
-2.4827218,-0.97171926,0.45282766,-0.88743514,-0.095217109,0.45099065,0
-2.8325465,-2.5974376,-0.57877445,-0.88743514,-0.095217109,0.45099065,0
-2.0977201,-2.112802,-2.7926958,-0.33554217,-0.53737581,-0.7737174,0
-2.7514188,-0.079358816,0.11250311,-0.88743514,-0.095217109,0.45099065,0
-1.6379486,-4.6503873,-1.2296395,-0.33554217,-0.53737581,-0.7737174,0
-1.1616459,-5.1953464,0.030708551,0.31602252,-0.83795041,0.44493684,0
-4.368526,0.47485375,-2.9525433,-0.88743514,-0.095217109,0.45099065,0
1.6198134,-4.9695826,-1.51968,0.31602252,-0.83795041,0.44493684,0
2.7203243,2.7907982,0.39877343,0.88743514,0.095217109,-0.45099065,0
0.66722965,-1.3421319,-4.5137758,0.88743514,0.095217109,-0.45099065,0
2.9330378,-1.3118558,-0.048848577,0.88743514,0.095217109,-0.45099065,0
0.87263525,-3.837512,-2.8829904,-0.33554217,-0.53737581,-0.7737174,0
0.10695207,3.6953542,2.556901,0.33554217,0.53737581,0.7737174,0
1.1934674,-5.1757421,-1.6051223,0.31602252,-0.83795041,0.44493684,0
-0.64194453,2.4996839,3.7121172,0.33554217,0.53737581,0.7737174,0
-2.1699157,-2.5137036,-2.4829452,-0.33554217,-0.53737581,-0.7737174,0
1.0213675,4.8906651,-0.50488091,-0.31602252,0.83795041,-0.44493684,0
0.28821445,-1.0859776,5.7991066,0.33554217,0.53737581,0.7737174,0
2.5122807,-2.4825003,-1.123948,0.88743514,0.095217109,-0.45099065,0
3.3981609,-0.083330631,1.1257726,0.88743514,0.095217109,-0.45099065,0
1.6681359,1.6560936,-1.9112351,0.88743514,0.095217109,-0.45099065,0
-3.4840112,0.51941252,-1.2026348,-0.88743514,-0.095217109,0.45099065,0
-2.5205789,0.92592597,0.77898264,-0.88743514,-0.095217109,0.45099065,0
-2.4617925,3.5324266,1.4449658,-0.88743514,-0.095217109,0.45099065,0
1.4623947,-4.5617094,-0.63972259,0.31602252,-0.83795041,0.44493684,0
3.2439671,-2.2066951,2.5300937,0.31602252,-0.83795041,0.44493684,0
-1.18478,3.7992916,3.0449047,0.33554217,0.53737581,0.7737174,0
2.7250428,3.0078979,0.45389438,0.88743514,0.095217109,-0.45099065,0
2.63552,0.92492568,-0.16203898,0.88743514,0.095217109,-0.45099065,0
0.81207967,-3.9515059,0.97137004,0.31602252,-0.83795041,0.44493684,0
-1.7169347,0.12956285,2.1922145,-0.88743514,-0.095217109,0.45099065,0
-1.4176183,4.6956286,2.5233417,0.33554217,0.53737581,0.7737174,0
-2.1606412,-3.3993149,0.57406521,-0.88743514,-0.095217109,0.45099065,0
2.3956668,-3.8333387,0.069149494,0.31602252,-0.83795041,0.44493684,0
0.94583374,1.74014,3.5510688,0.33554217,0.53737581,0.7737174,0
-1.8436644,-4.6606383,-1.1333055,-0.33554217,-0.53737581,-0.7737174,0
4.3034363,-0.051208496,3.339118,0.33554217,0.53737581,0.7737174,0
2.3188651,-1.6697266,-1.3329412,0.88743514,0.095217109,-0.45099065,0
-0.38482356,4.8676534,0.45054746,-0.31602252,0.83795041,-0.44493684,0
0.16904593,-3.9781435,1.3779268,0.31602252,-0.83795041,0.44493684,0
2.0654726,-1.6066061,4.4972839,0.31602252,-0.83795041,0.44493684,0
2.0262139,-5.0357227,-2.5510659,-0.33554217,-0.53737581,-0.7737174,0
0.31083202,1.1039413,4.2683177,0.33554217,0.53737581,0.7737174,0
-0.13106227,-0.48913527,5.1821842,-0.88743514,-0.095217109,0.45099065,0
2.0530849,0.075533226,4.2270126,0.33554217,0.53737581,0.7737174,0
-3.7282848,2.5569377,-1.5264872,-0.31602252,0.83795041,-0.44493684,0
2.4385426,-3.4411511,-1.4714444,0.88743514,0.095217109,-0.45099065,0
3.8221908,0.79448879,2.145489,0.88743514,0.095217109,-0.45099065,0
1.2646211,3.1211483,2.4536557,0.33554217,0.53737581,0.7737174,0
0.87716401,-3.2289596,-3.3076167,-0.33554217,-0.53737581,-0.7737174,0
-2.4291925,-1.4353141,-3.1194856,-0.33554217,-0.53737581,-0.7737174,0
0.66407156,-2.8436887,3.1628489,0.31602252,-0.83795041,0.44493684,0
-3.8691411,2.1769195,-2.1421318,-0.31602252,0.83795041,-0.44493684,0
0.57903123,-4.9854016,-0.8102417,0.31602252,-0.83795041,0.44493684,0
1.0338428,5.2802863,0.22003222,-0.31602252,0.83795041,-0.44493684,0
-2.6590652,-3.4890685,-1.5933855,-0.33554217,-0.53737581,-0.7737174,0
1.2116609,-0.80480444,5.2033453,0.33554217,0.53737581,0.7737174,0
2.4361041,-3.3997283,0.85704827,0.31602252,-0.83795041,0.44493684,0
-1.8503094,-4.6729016,-1.1219063,-0.33554217,-0.53737581,-0.7737174,0
1.859812,1.2476263,-1.6203043,0.88743514,0.095217109,-0.45099065,0
2.5582163,3.7441916,0.28107476,0.88743514,0.095217109,-0.45099065,0
-0.37386894,5.3829737,1.5933065,0.33554217,0.53737581,0.7737174,0
3.1413205,-1.5280819,0.31534705,0.88743514,0.095217109,-0.45099065,0
-1.0292395,2.5774608,3.8260579,0.33554217,0.53737581,0.7737174,0
3.7858241,-0.83496368,4.1079407,0.33554217,0.53737581,0.7737174,0
-2.3339152,4.4779286,1.8962181,-0.88743514,-0.095217109,0.45099065,0
-2.731595,-2.2339082,-2.433687,-0.33554217,-0.53737581,-0.7737174,0
-4.3580275,-0.073525906,-3.0476632,-0.88743514,-0.095217109,0.45099065,0
0.35756898,0.21266079,4.8670759,0.33554217,0.53737581,0.7737174,0
0.63130903,-4.0055609,-2.6616163,-0.33554217,-0.53737581,-0.7737174,0
-0.81653023,-3.7809415,2.4493375,0.31602252,-0.83795041,0.44493684,0
-1.68141,-2.1341455,1.7841847,-0.88743514,-0.095217109,0.45099065,0
-0.99288368,-0.14217275,-4.6405125,-0.33554217,-0.53737581,-0.7737174,0
-0.32110095,-2.8699811,3.8130655,0.31602252,-0.83795041,0.44493684,0
1.5443051,0.046507031,4.4678173,0.33554217,0.53737581,0.7737174,0
1.402555,-2.6460934,3.0104628,0.31602252,-0.83795041,0.44493684,0
1.5306196,-4.6750393,-0.90161514,0.31602252,-0.83795041,0.44493684,0
-2.2510982,-2.1039522,0.66955745,-0.88743514,-0.095217109,0.45099065,0
3.3012474,1.9548805,2.3804381,0.33554217,0.53737581,0.7737174,0
3.3546576,-1.5711511,3.6483948,0.31602252,-0.83795041,0.44493684,0
-0.27506042,4.7649841,0.17923021,-0.31602252,0.83795041,-0.44493684,0
1.1702633,-3.0320842,2.4485128,0.31602252,-0.83795041,0.44493684,0
2.4547281,3.0346019,-0.072378635,0.88743514,0.095217109,-0.45099065,0
-0.7511797,4.4311414,-0.11132622,-0.31602252,0.83795041,-0.44493684,0
-0.89693034,-4.0645084,-1.9579153,-0.33554217,-0.53737581,-0.7737174,0
0.57205796,0.41385746,-4.3303099,0.88743514,0.095217109,-0.45099065,0
-1.9782,2.7498555,-2.4061875,-0.31602252,0.83795041,-0.44493684,0
1.2977414,-3.4903479,-3.3084664,-0.33554217,-0.53737581,-0.7737174,0
-0.26044917,-3.1312902,3.2778628,0.31602252,-0.83795041,0.44493684,0
4.2998128,-1.1778684,2.668906,0.88743514,0.095217109,-0.45099065,0
1.0285484,1.4936811,-3.2040708,0.88743514,0.095217109,-0.45099065,0
-0.073645353,-1.3076684,5.1223502,-0.88743514,-0.095217109,0.45099065,0
1.728967,5.0464725,0.91507101,0.33554217,0.53737581,0.7737174,0
-0.77805352,4.2802138,-0.37648094,-0.31602252,0.83795041,-0.44493684,0
0.7438159,-3.4081349,2.0431867,0.31602252,-0.83795041,0.44493684,0
-0.12030959,3.1104116,3.0617232,0.33554217,0.53737581,0.7737174,0
2.7338624,0.66298336,3.5237701,0.33554217,0.53737581,0.7737174,0
-1.5428257,1.5283251,-5.0159292,-0.31602252,0.83795041,-0.44493684,0
-1.4852128,4.0845308,2.9770865,0.33554217,0.53737581,0.7737174,0
-2.0216751,3.7610188,2.3592675,-0.88743514,-0.095217109,0.45099065,0
-0.053814411,1.7195086,-5.2862072,0.88743514,0.095217109,-0.45099065,0
-3.5084085,1.1895051,-4.257946,-0.31602252,0.83795041,-0.44493684,0
2.4157486,-4.7195549,-1.7862055,0.88743514,0.095217109,-0.45099065,0
1.0277133,4.1358776,-1.9308814,-0.31602252,0.83795041,-0.44493684,0
2.5479636,-3.4740453,-1.2630765,0.88743514,0.095217109,-0.45099065,0
-2.2926795,-0.74421936,-3.6586792,-0.33554217,-0.53737581,-0.7737174,0
-0.5639987,-4.2473779,1.3915327,0.31602252,-0.83795041,0.44493684,0
-1.4011405,-1.059284,2.562618,-0.88743514,-0.095217109,0.45099065,0
-1.0990579,0.18419743,3.4195743,-0.88743514,-0.095217109,0.45099065,0
1.4972441,5.4707079,0.24951649,-0.31602252,0.83795041,-0.44493684,0
-3.3702598,-2.6254449,-1.8847773,-0.33554217,-0.53737581,-0.7737174,0
-0.13852811,3.6988721,2.6609163,0.33554217,0.53737581,0.7737174,0
0.084048271,-2.7380371,3.7737923,0.31602252,-0.83795041,0.44493684,0
-1.9938407,-3.472851,-1.8931408,-0.33554217,-0.53737581,-0.7737174,0
-0.052554131,4.0904679,2.3516541,0.33554217,0.53737581,0.7737174,0
-3.9449506,-0.4806639,-3.1251786,-0.33554217,-0.53737581,-0.7737174,0
-0.23514533,-2.5743046,4.3088627,0.31602252,-0.83795041,0.44493684,0
-3.5180941,2.4322033,-0.86585611,-0.88743514,-0.095217109,0.45099065,0
2.511879,4.4396734,0.99698544,0.33554217,0.53737581,0.7737174,0
-0.63236046,-0.50772893,-4.5429697,-0.33554217,-0.53737581,-0.7737174,0
3.0092521,-2.1651134,2.7751133,0.31602252,-0.83795041,0.44493684,0
0.63739514,-5.4074435,-1.6465282,0.31602252,-0.83795041,0.44493684,0
-1.3295949,1.7644866,3.2995808,-0.88743514,-0.095217109,0.45099065,0
2.7948704,-0.5869472,-0.16767752,0.88743514,0.095217109,-0.45099065,0
1.9087505,-2.2323699,3.4300964,0.31602252,-0.83795041,0.44493684,0
3.8047295,1.5413364,2.2688105,0.88743514,0.095217109,-0.45099065,0
3.3558912,-1.2744733,4.2062521,0.31602252,-0.83795041,0.44493684,0
0.74490619,-5.3325276,-1.5818009,0.31602252,-0.83795041,0.44493684,0
-1.8267491,-4.5911555,0.97944832,-0.88743514,-0.095217109,0.45099065,0
1.682621,-3.3660748,1.4555988,0.31602252,-0.83795041,0.44493684,0
-1.8759184,4.2595568,0.36439037,-0.31602252,0.83795041,-0.44493684,0
-4.2180042,0.31437087,-2.6902378,-0.88743514,-0.095217109,0.45099065,0
-2.8679295,1.828366,0.28601575,-0.88743514,-0.095217109,0.45099065,0
-1.8905756,-4.6155939,0.84869456,-0.88743514,-0.095217109,0.45099065,0
2.6450508,1.457585,-0.030825734,0.88743514,0.095217109,-0.45099065,0
-0.32559162,-2.6526225,-3.1862993,-0.33554217,-0.53737581,-0.7737174,0
2.9512486,-0.23253059,0.21486241,0.88743514,0.095217109,-0.45099065,0
2.7002878,-1.3702681,4.4914932,0.31602252,-0.83795041,0.44493684,0
-0.95226693,5.0651202,1.2254732,-0.31602252,0.83795041,-0.44493684,0
-3.8614526,2.3333514,-1.852983,-0.31602252,0.83795041,-0.44493684,0
-3.350718,-1.7997577,-1.4299908,-0.88743514,-0.095217109,0.45099065,0
0.34028471,-3.5636175,-2.8423524,-0.33554217,-0.53737581,-0.7737174,0
-0.98894477,-3.7451622,2.6391797,0.31602252,-0.83795041,0.44493684,0
-1.9321103,0.416453,-4.6211791,-0.33554217,-0.53737581,-0.7737174,0
-1.7076855,4.7813406,1.227576,-0.31602252,0.83795041,-0.44493684,0
-1.692362,-0.68284798,-3.9616466,-0.33554217,-0.53737581,-0.7737174,0
-3.3275232,1.5618351,-3.6852136,-0.31602252,0.83795041,-0.44493684,0
0.52105522,3.7875462,-2.2270336,-0.31602252,0.83795041,-0.44493684,0
-0.052823752,-2.4341769,-3.4563103,-0.33554217,-0.53737581,-0.7737174,0
-3.7435293,0.58323669,-1.6998255,-0.88743514,-0.095217109,0.45099065,0
0.018457651,3.279846,2.8838649,0.33554217,0.53737581,0.7737174,0
-3.2308643,1.5670843,-0.48331195,-0.88743514,-0.095217109,0.45099065,0
0.13427806,3.132443,-3.1860771,-0.31602252,0.83795041,-0.44493684,0
-1.656307,3.4338295,-1.3466867,-0.31602252,0.83795041,-0.44493684,0
1.2642139,1.0984328,-2.8237891,0.88743514,0.095217109,-0.45099065,0
-1.4576194,-0.67980719,2.5316005,-0.88743514,-0.095217109,0.45099065,0
-0.96542025,2.8483496,-2.9400337,-0.31602252,0.83795041,-0.44493684,0
0.47537756,-3.4323759,2.1881957,0.31602252,-0.83795041,0.44493684,0
4.4511671,-0.72821116,3.7452543,0.33554217,0.53737581,0.7737174,0
2.1178753,-4.2302604,-0.48106813,0.31602252,-0.83795041,0.44493684,0
-1.228923,-3.3767805,-2.2915912,-0.33554217,-0.53737581,-0.7737174,0
-3.0026655,-0.89359069,-3.2470319,-0.33554217,-0.53737581,-0.7737174,0
-1.2255888,4.2302399,2.7632928,0.33554217,0.53737581,0.7737174,0
-1.2472491,3.3268323,-1.8387334,-0.31602252,0.83795041,-0.44493684,0
-0.51752198,3.7611771,2.7820039,0.33554217,0.53737581,0.7737174,0
-1.5164074,-2.9494812,1.9367268,-0.88743514,-0.095217109,0.45099065,0
-2.4237139,4.340457,0.90582848,-0.31602252,0.83795041,-0.44493684,0
0.34515643,3.3474555,-2.9309227,-0.31602252,0.83795041,-0.44493684,0
-3.0547814,2.8238628,-1.5021517,-0.31602252,0.83795041,-0.44493684,0
-0.82875645,-4.4601727,-1.712677,-0.33554217,-0.53737581,-0.7737174,0
0.40675783,2.247968,-4.2683449,0.88743514,0.095217109,-0.45099065,0
-0.9688096,-2.9851353,3.0067325,-0.88743514,-0.095217109,0.45099065,0
2.1881521,2.7370677,-0.6597507,0.88743514,0.095217109,-0.45099065,0
-1.7152874,-4.858767,1.057821,0.31602252,-0.83795041,0.44493684,0
0.9639231,3.8341284,2.0888696,0.33554217,0.53737581,0.7737174,0
-0.89672208,-4.381568,1.3751336,0.31602252,-0.83795041,0.44493684,0
-3.9066975,1.1588862,-1.8993633,-0.88743514,-0.095217109,0.45099065,0
-0.21527338,-4.1486015,1.3298712,0.31602252,-0.83795041,0.44493684,0
-3.6686158,1.8657876,-2.8705125,-0.31602252,0.83795041,-0.44493684,0
-0.46705627,1.5642626,-5.712327,-0.31602252,0.83795041,-0.44493684,0
0.22774792,-5.1627197,-0.89468145,0.31602252,-0.83795041,0.44493684,0
0.90477496,-1.7827127,-4.1393661,0.88743514,0.095217109,-0.45099065,0
-0.96574926,-0.46569371,-4.4275827,-0.33554217,-0.53737581,-0.7737174,0
2.6787603,-3.5702989,-1.0260236,0.88743514,0.095217109,-0.45099065,0
-2.5333512,0.69128436,-4.5513163,-0.33554217,-0.53737581,-0.7737174,0
0.39149809,-5.4314728,-1.5672665,-0.33554217,-0.53737581,-0.7737174,0
1.8584492,1.3212309,-1.6074458,0.88743514,0.095217109,-0.45099065,0
2.3866146,2.4600809,2.4262109,0.33554217,0.53737581,0.7737174,0
2.1859815,-4.8368912,-1.6719112,0.31602252,-0.83795041,0.44493684,0
-0.89204884,1.0277976,-5.49683,-0.33554217,-0.53737581,-0.7737174,0
-1.5541897,-3.0580773,-2.371882,-0.33554217,-0.53737581,-0.7737174,0
0.27118012,-1.6825211,-4.1188755,-0.33554217,-0.53737581,-0.7737174,0
-0.56810808,-4.0426435,1.7800285,0.31602252,-0.83795041,0.44493684,0
-1.6679142,-3.987278,1.4194914,-0.88743514,-0.095217109,0.45099065,0
1.1899112,1.5257845,-2.8797717,0.88743514,0.095217109,-0.45099065,0
-3.6851974,2.5749869,-1.5230987,-0.31602252,0.83795041,-0.44493684,0
-2.8772836,3.982691,0.72244811,-0.88743514,-0.095217109,0.45099065,0
1.3974562,-4.5879021,-0.64292932,0.31602252,-0.83795041,0.44493684,0
2.5216506,-3.5158591,-1.3236818,0.88743514,0.095217109,-0.45099065,0
2.1710129,-1.9994402,-1.6934896,0.88743514,0.095217109,-0.45099065,0
2.2105355,-1.5657603,4.4711761,0.31602252,-0.83795041,0.44493684,0
1.7813525,0.0026807785,-2.0375359,0.88743514,0.095217109,-0.45099065,0
-1.5405755,2.1838489,-3.7829769,-0.31602252,0.83795041,-0.44493684,0
3.1753669,1.6110131,2.6738586,0.33554217,0.53737581,0.7737174,0
-1.8105493,0.63565361,-4.8261404,-0.33554217,-0.53737581,-0.7737174,0
2.5804162,-3.8459375,-0.085797668,0.31602252,-0.83795041,0.44493684,0
1.8541937,-0.497401,-1.9997848,0.88743514,0.095217109,-0.45099065,0
-2.0354459,0.78674912,1.7042162,-0.88743514,-0.095217109,0.45099065,0
2.5381796,-0.30619717,-0.61350542,0.88743514,0.095217109,-0.45099065,0
0.80098033,-4.497086,-2.3938155,-0.33554217,-0.53737581,-0.7737174,0
-0.39496922,3.470902,2.9304628,0.33554217,0.53737581,0.7737174,0
1.3325942,-4.4471045,-0.33169484,0.31602252,-0.83795041,0.44493684,0
-1.9439375,-1.9704546,-2.9582529,-0.33554217,-0.53737581,-0.7737174,0
1.1306951,-5.2925682,-1.984313,-0.33554217,-0.53737581,-0.7737174,0
2.95298,0.14786363,3.786514,0.33554217,0.53737581,0.7737174,0
3.2348704,-3.4527407,0.18987423,0.31602252,-0.83795041,0.44493684,0
-0.39934355,1.4270002,4.3519258,0.33554217,0.53737581,0.7737174,0
-3.2222466,2.613091,-1.7801538,-0.31602252,0.83795041,-0.44493684,0
-3.8299074,-1.2628783,-2.6317928,-0.33554217,-0.53737581,-0.7737174,0
1.6379273,5.0107517,-0.71664214,-0.31602252,0.83795041,-0.44493684,0
2.2100196,-4.7752972,-1.5729845,0.31602252,-0.83795041,0.44493684,0
3.2768345,-3.2752252,0.2131319,0.88743514,0.095217109,-0.45099065,0
-1.6680428,2.9044623,2.8742826,-0.88743514,-0.095217109,0.45099065,0
0.93433475,-1.81572,4.9068666,0.31602252,-0.83795041,0.44493684,0
2.7140088,1.2482406,0.06066823,0.88743514,0.095217109,-0.45099065,0
2.8447397,1.0012771,0.26577234,0.88743514,0.095217109,-0.45099065,0
3.3053083,-0.47382843,4.0655069,0.33554217,0.53737581,0.7737174,0
1.6380392,-2.2109768,-2.786907,0.88743514,0.095217109,-0.45099065,0
0.93662572,3.4690323,-2.9678979,0.88743514,0.095217109,-0.45099065,0
-0.42887592,-3.3950901,2.9006748,0.31602252,-0.83795041,0.44493684,0
1.0939636,3.9710224,-2.2884083,-0.31602252,0.83795041,-0.44493684,0
-0.63242269,-4.9576254,-1.452322,-0.33554217,-0.53737581,-0.7737174,0
2.0070019,4.9707546,-0.54461241,0.88743514,0.095217109,-0.45099065,0
-1.4719205,-3.9689965,-1.7748933,-0.33554217,-0.53737581,-0.7737174,0
-2.6082075,-3.1256835,-0.24885988,-0.88743514,-0.095217109,0.45099065,0
-2.8995512,3.893719,0.40245545,-0.31602252,0.83795041,-0.44493684,0
-1.3025225,-3.2972147,-2.3149343,-0.33554217,-0.53737581,-0.7737174,0
-1.0655503,2.2759452,-3.9469254,-0.31602252,0.83795041,-0.44493684,0
-3.4794712,0.080246449,-1.2864218,-0.88743514,-0.095217109,0.45099065,0
-1.0918465,1.9160782,-4.6059861,-0.31602252,0.83795041,-0.44493684,0
2.4088683,-4.5877008,-1.3609192,0.31602252,-0.83795041,0.44493684,0
4.3719387,-0.67867827,3.7452114,0.33554217,0.53737581,0.7737174,0
-3.7765727,-0.638129,-2.0227125,-0.88743514,-0.095217109,0.45099065,0
3.345355,1.3829433,1.3314364,0.88743514,0.095217109,-0.45099065,0
1.5496799,0.71175051,4.0034499,0.33554217,0.53737581,0.7737174,0
1.2773259,1.7181138,3.4226069,0.33554217,0.53737581,0.7737174,0
-3.934052,1.0505109,-1.9760709,-0.88743514,-0.095217109,0.45099065,0
2.5307426,-1.0537112,4.8041668,0.33554217,0.53737581,0.7737174,0
-2.6287565,4.3558035,1.0803645,-0.31602252,0.83795041,-0.44493684,0
-3.5599868,-2.0623133,-1.897212,-0.88743514,-0.095217109,0.45099065,0
1.0355901,-1.5830197,-3.8397944,0.88743514,0.095217109,-0.45099065,0
-4.5045624,0.31851435,-3.2532363,-0.88743514,-0.095217109,0.45099065,0
-3.2044125,0.3549788,-0.68717277,-0.88743514,-0.095217109,0.45099065,0
2.9450259,-1.6299026,3.8286948,0.31602252,-0.83795041,0.44493684,0
-0.11987615,4.8797102,1.8326907,0.33554217,0.53737581,0.7737174,0
1.3918552,-5.1695638,-2.1830025,-0.33554217,-0.53737581,-0.7737174,0
1.7342012,-0.99880338,-2.3417604,0.88743514,0.095217109,-0.45099065,0
0.23263288,-3.3467956,-2.9462581,-0.33554217,-0.53737581,-0.7737174,0
-1.2521911,0.82205212,-5.1977472,-0.33554217,-0.53737581,-0.7737174,0
-1.1812673,-0.61807132,3.0884252,-0.88743514,-0.095217109,0.45099065,0
2.522624,2.6821744,2.2129748,0.33554217,0.53737581,0.7737174,0
1.8250141,3.2127934,2.1469765,0.33554217,0.53737581,0.7737174,0
-2.3295736,1.2729237,1.2280924,-0.88743514,-0.095217109,0.45099065,0
-3.551167,-1.9263339,-2.2918804,-0.33554217,-0.53737581,-0.7737174,0
3.0697308,3.1224914,1.6698916,0.33554217,0.53737581,0.7737174,0
-2.4601858,-5.0617876,-0.3663578,-0.88743514,-0.095217109,0.45099065,0
2.2894816,-1.1488978,4.9749069,0.33554217,0.53737581,0.7737174,0
1.61079,-4.2766938,-0.20835209,0.31602252,-0.83795041,0.44493684,0
0.98569894,5.1086383,1.1942315,0.33554217,0.53737581,0.7737174,0
1.1447313,-2.9329536,-3.629241,-0.33554217,-0.53737581,-0.7737174,0
1.522464,1.7084324,-2.18683,0.88743514,0.095217109,-0.45099065,0
1.0109339,-0.91517156,5.3670492,0.33554217,0.53737581,0.7737174,0
3.1491029,1.4586647,2.79106,0.33554217,0.53737581,0.7737174,0
2.8444722,-0.29049444,-0.007484138,0.88743514,0.095217109,-0.45099065,0
2.3816442,-1.2819741,4.884099,0.31602252,-0.83795041,0.44493684,0
2.1153438,5.0644798,-0.31163502,0.88743514,0.095217109,-0.45099065,0
-0.71713924,0.19042635,4.1724081,-0.88743514,-0.095217109,0.45099065,0
-0.13292432,-4.8533926,-0.055953026,0.31602252,-0.83795041,0.44493684,0
-2.1891544,-3.3613617,0.52597213,-0.88743514,-0.095217109,0.45099065,0
1.0241675,5.1369052,-0.043126106,-0.31602252,0.83795041,-0.44493684,0
-3.5656524,-0.73729646,-1.6286113,-0.88743514,-0.095217109,0.45099065,0
1.5296484,-2.7564178,-3.1153512,0.88743514,0.095217109,-0.45099065,0
-2.1384642,1.8847437,1.7333207,-0.88743514,-0.095217109,0.45099065,0
2.1723778,1.822058,2.9622517,0.33554217,0.53737581,0.7737174,0
-2.3985467,-4.1123743,-1.2734561,-0.33554217,-0.53737581,-0.7737174,0
-4.4488583,0.8864162,-3.8561344,-0.33554217,-0.53737581,-0.7737174,0
0.3291502,3.5049202,2.5928025,0.33554217,0.53737581,0.7737174,0
0.52430463,1.5301006,-4.1886058,0.88743514,0.095217109,-0.45099065,0
-4.2169628,-0.48171949,-2.8562646,-0.88743514,-0.095217109,0.45099065,0
-2.5410357,-2.4537108,0.025190115,-0.88743514,-0.095217109,0.45099065,0
0.031381369,4.6845784,1.9026213,0.33554217,0.53737581,0.7737174,0
-1.4032125,1.0395681,-5.2833261,-0.33554217,-0.53737581,-0.7737174,0
-1.3065001,-1.8890557,2.5736575,-0.88743514,-0.095217109,0.45099065,0
3.5082011,0.97298729,2.9726491,0.33554217,0.53737581,0.7737174,0
-1.1215761,3.8822582,2.9598713,0.33554217,0.53737581,0.7737174,0
-2.6225281,-3.7619758,-1.4196863,-0.33554217,-0.53737581,-0.7737174,0
0.42013049,1.5719322,-4.3847618,0.88743514,0.095217109,-0.45099065,0
-1.2454572,2.658396,-3.0988736,-0.31602252,0.83795041,-0.44493684,0
-0.091513157,-3.2901101,2.8587677,0.31602252,-0.83795041,0.44493684,0
-2.9578371,-1.5924044,-0.6131227,-0.88743514,-0.095217109,0.45099065,0
-1.6352334,0.75692332,-4.9863968,-0.33554217,-0.53737581,-0.7737174,0
2.6492453,0.3009184,3.8119342,0.33554217,0.53737581,0.7737174,0
0.037100554,-4.8580656,-0.18551636,0.31602252,-0.83795041,0.44493684,0
-2.3721097,4.2708945,1.7773519,-0.88743514,-0.095217109,0.45099065,0
4.2314062,-0.28384471,3.5319297,0.33554217,0.53737581,0.7737174,0
-1.0241404,4.5184603,0.24699473,-0.31602252,0.83795041,-0.44493684,0
-0.98706985,3.5205102,3.1527872,0.33554217,0.53737581,0.7737174,0
-1.9603677,2.4084747,-3.0617762,-0.31602252,0.83795041,-0.44493684,0
-0.055220604,1.9310331,-5.2443156,0.88743514,0.095217109,-0.45099065,0
-1.8625438,0.37106085,1.9566798,-0.88743514,-0.095217109,0.45099065,0
-3.0035219,-0.37425047,-3.6073613,-0.33554217,-0.53737581,-0.7737174,0
-1.3541956,3.3420458,-1.7341219,-0.31602252,0.83795041,-0.44493684,0
-0.52755976,1.7027886,-5.4084682,-0.31602252,0.83795041,-0.44493684,0
-0.46141458,0.081566334,-5.0263929,-0.33554217,-0.53737581,-0.7737174,0
3.3213513,2.7739658,1.802834,0.33554217,0.53737581,0.7737174,0
2.7927337,0.2945087,0.014218628,0.88743514,0.095217109,-0.45099065,0
3.6334424,1.1204858,1.8429074,0.88743514,0.095217109,-0.45099065,0
-0.58825636,-3.8240745,2.2059698,0.31602252,-0.83795041,0.44493684,0
1.5020679,2.5128074,2.7731967,0.33554217,0.53737581,0.7737174,0
2.0858798,-1.5305995,4.6259336,0.31602252,-0.83795041,0.44493684,0
2.3251886,-4.0177102,-1.8162246,0.88743514,0.095217109,-0.45099065,0
1.4017167,-2.6460001,3.011234,0.31602252,-0.83795041,0.44493684,0
0.51163507,1.3444655,4.0141802,0.33554217,0.53737581,0.7737174,0
-1.3687296,5.1027451,1.5921307,-0.31602252,0.83795041,-0.44493684,0
-0.54547215,-4.0262699,1.7947865,0.31602252,-0.83795041,0.44493684,0
-2.0439124,5.1152511,2.0952406,-0.31602252,0.83795041,-0.44493684,0
3.3624516,-1.7768416,0.69795734,0.88743514,0.095217109,-0.45099065,0
-2.0389936,3.129818,-1.6474236,-0.31602252,0.83795041,-0.44493684,0
0.086645126,0.38910425,4.8620219,0.33554217,0.53737581,0.7737174,0
3.2907691,-2.6969335,0.36264595,0.88743514,0.095217109,-0.45099065,0
2.4481106,0.39702964,3.8324087,0.33554217,0.53737581,0.7737174,0
-1.231858,3.1377151,3.5248117,0.33554217,0.53737581,0.7737174,0
-2.0255561,-1.3101873,-3.3814375,-0.33554217,-0.53737581,-0.7737174,0
-2.5991228,-0.72660053,0.27553207,-0.88743514,-0.095217109,0.45099065,0
0.56531179,-3.5862668,-2.9242101,-0.33554217,-0.53737581,-0.7737174,0
-4.3937001,1.6310875,-2.7579637,-0.88743514,-0.095217109,0.45099065,0
4.5182991,-0.35098648,3.454144,0.33554217,0.53737581,0.7737174,0
0.75127888,-2.724956,3.324518,0.31602252,-0.83795041,0.44493684,0
3.1246099,-3.2708519,-0.085482836,0.88743514,0.095217109,-0.45099065,0
0.20269012,-4.1245742,1.0782573,0.31602252,-0.83795041,0.44493684,0
2.4683886,4.0109358,1.3136206,0.33554217,0.53737581,0.7737174,0
3.2172859,-3.452208,0.20336837,0.31602252,-0.83795041,0.44493684,0
2.2785044,-2.0722642,3.4690008,0.31602252,-0.83795041,0.44493684,0
-0.043886781,-2.9065573,-3.1321001,-0.33554217,-0.53737581,-0.7737174,0
1.5472844,-3.5080283,-3.2393346,0.88743514,0.095217109,-0.45099065,0
2.8444359,4.0645394,1.1133089,0.33554217,0.53737581,0.7737174,0
3.8897452,0.66494703,2.2510686,0.88743514,0.095217109,-0.45099065,0
-1.3259485,-3.9545445,-1.8482351,-0.33554217,-0.53737581,-0.7737174,0
0.30459869,3.6126559,2.5286236,0.33554217,0.53737581,0.7737174,0
-2.8591743,2.1580367,-2.8950369,-0.31602252,0.83795041,-0.44493684,0
1.6861818,1.2925093,3.5408938,0.33554217,0.53737581,0.7737174,0
3.3910723,-2.7732291,0.54390854,0.88743514,0.095217109,-0.45099065,0
-1.6049161,3.3465631,3.0918407,-0.88743514,-0.095217109,0.45099065,0
