-4.3349051,-0.0012745857,0.47300506,-0.79385018,-0.59563315,0.12256867,0
0.58194208,4.7862964,0.59887362,-0.59790957,0.80127907,0.021357417,0
4.5644112,0.19900906,1.9743649,0.79385018,0.59563315,-0.12256867,0
-1.930023,-0.89916015,2.7864032,0.11093286,0.056330323,0.9922303,0
-0.090759277,4.3423204,-1.5767794,-0.59790957,0.80127907,0.021357417,0
-2.4565277,-2.196104,1.9728767,-0.79385018,-0.59563315,0.12256867,0
-3.146342,2.0191472,0.040834188,-0.59790957,0.80127907,0.021357417,0
0.39043093,4.6665082,-0.26840401,-0.59790957,0.80127907,0.021357417,0
-2.0605171,-1.321913,2.8249927,0.11093286,0.056330323,0.9922303,0
3.4008703,-1.8742659,1.6491973,0.59790957,-0.80127907,-0.021357417,0
0.99320465,-3.613188,-0.51419377,0.59790957,-0.80127907,-0.021357417,0
-0.48282707,1.0867798,-2.5272942,-0.11093286,-0.056330323,-0.9922303,0
-1.3747566,3.3650188,-0.85678649,-0.59790957,0.80127907,0.021357417,0
-0.60025126,3.9251766,-0.18996572,-0.59790957,0.80127907,0.021357417,0
-3.2658074,-1.4041642,0.5798499,-0.79385018,-0.59563315,0.12256867,0
-0.00062024593,4.4155655,-1.8012652,-0.59790957,0.80127907,0.021357417,0
0.12224042,-0.03289938,2.5077779,0.11093286,0.056330323,0.9922303,0
-0.61861837,-4.8324165,0.10469246,0.59790957,-0.80127907,-0.021357417,0
2.7103534,-2.3486984,0.1174674,0.59790957,-0.80127907,-0.021357417,0
-3.9561591,-0.78248715,-0.87031037,-0.79385018,-0.59563315,0.12256867,0
-2.6317425,-2.5400002,-0.83314502,-0.79385018,-0.59563315,0.12256867,0
-2.3345346,1.3737632,-2.3365629,-0.11093286,-0.056330323,-0.9922303,0
-0.017253876,-2.669085,2.6730335,0.11093286,0.056330323,0.9922303,0
2.3084869,1.2293661,-2.8474622,-0.11093286,-0.056330323,-0.9922303,0
0.81431484,4.2433901,-2.6601651,0.79385018,0.59563315,-0.12256867,0
1.7787452,-3.1071694,2.4927218,0.59790957,-0.80127907,-0.021357417,0
-3.3064904,1.8982817,0.091993093,-0.59790957,0.80127907,0.021357417,0
2.7838628,2.2181542,0.25435513,0.79385018,0.59563315,-0.12256867,0
-4.5018678,0.22229528,0.4780823,-0.79385018,-0.59563315,0.12256867,0
3.7954533,-1.5025609,-1.2497773,0.59790957,-0.80127907,-0.021357417,0
-2.7573662,-2.5916276,-1.8976712,-0.79385018,-0.59563315,0.12256867,0
4.7707295,-0.46124238,0.10209274,0.79385018,0.59563315,-0.12256867,0
-1.9853464,2.9275062,-1.5360699,-0.59790957,0.80127907,0.021357417,0
0.37277842,3.7089005,2.2673397,0.11093286,0.056330323,0.9922303,0
-1.8559844,3.0307231,-1.7869902,-0.59790957,0.80127907,0.021357417,0
1.0749891,0.59359169,-2.6734612,-0.11093286,-0.056330323,-0.9922303,0
-4.4061146,1.0260503,2.0315979,-0.59790957,0.80127907,0.021357417,0
2.8038747,2.4518762,1.5197622,0.79385018,0.59563315,-0.12256867,0
4.4933691,-0.53797555,-2.067203,0.79385018,0.59563315,-0.12256867,0
-1.882049,-3.7653589,-1.9322855,-0.79385018,-0.59563315,0.12256867,0
-1.0079635,-3.3942528,-2.2141881,-0.11093286,-0.056330323,-0.9922303,0
-0.4231692,4.0665312,-0.53576803,-0.59790957,0.80127907,0.021357417,0
-1.1054201,3.4805326,2.3495774,-0.59790957,0.80127907,0.021357417,0
-1.666446,-3.8334875,-0.86694741,-0.79385018,-0.59563315,0.12256867,0
-1.1717131,0.25717425,-2.4031777,-0.11093286,-0.056330323,-0.9922303,0
-4.3505669,0.23355436,1.5127385,-0.79385018,-0.59563315,0.12256867,0
0.38366079,4.7097044,-2.078546,-0.59790957,0.80127907,0.021357417,0
0.97810328,4.7242727,0.73755455,0.79385018,0.59563315,-0.12256867,0
-3.687139,-0.41084599,2.6780977,-0.79385018,-0.59563315,0.12256867,0
-2.0912323,0.49598145,2.7252226,0.11093286,0.056330323,0.9922303,0
4.1937914,-1.2134583,-0.94457269,0.59790957,-0.80127907,-0.021357417,0
-4.2657022,-0.51455241,-1.573102,-0.79385018,-0.59563315,0.12256867,0
-1.5424562,-4.0016341,-0.88101625,-0.79385018,-0.59563315,0.12256867,0
-1.8359442,3.054039,-2.1007133,-0.59790957,0.80127907,0.021357417,0
2.5515265,1.9085512,-2.7549796,0.79385018,0.59563315,-0.12256867,0
-0.29268211,2.2138476,2.4266157,0.11093286,0.056330323,0.9922303,0
0.2561186,2.7948666,2.3322735,0.11093286,0.056330323,0.9922303,0
3.1921506,-2.0355129,1.8555954,0.59790957,-0.80127907,-0.021357417,0
-0.25870132,-4.6173239,2.1109476,0.59790957,-0.80127907,-0.021357417,0
-2.0030439,1.7679064,2.6431537,0.11093286,0.056330323,0.9922303,0
1.7601311,-2.987726,-2.5096245,0.59790957,-0.80127907,-0.021357417,0
-4.5240302,0.16319335,0.04733026,-0.79385018,-0.59563315,0.12256867,0
-3.2999706,-1.1167929,1.7550875,-0.79385018,-0.59563315,0.12256867,0
-0.73169887,-4.2356777,-2.1973062,-0.11093286,-0.056330323,-0.9922303,0
-3.3555443,1.7950013,2.5935473,-0.59790957,0.80127907,0.021357417,0
1.8965786,0.71575952,2.2669017,0.11093286,0.056330323,0.9922303,0
-1.4364464,0.61204624,2.6454272,0.11093286,0.056330323,0.9922303,0
-1.094766,-4.7526345,-1.6309795,-0.79385018,-0.59563315,0.12256867,0
5.0745907,-0.58785695,1.454839,0.79385018,0.59563315,-0.12256867,0
0.14181721,4.4980879,-0.9097147,-0.59790957,0.80127907,0.021357417,0
0.57742763,-3.9901662,1.9892712,0.59790957,-0.80127907,-0.021357417,0
3.9643602,-1.369669,-1.5069385,0.59790957,-0.80127907,-0.021357417,0
-1.0882523,3.6205308,-2.422183,-0.59790957,0.80127907,0.021357417,0
-2.7212701,2.3824728,-1.6902061,-0.59790957,0.80127907,0.021357417,0
-3.5414796,-1.3726072,-1.0522635,-0.79385018,-0.59563315,0.12256867,0
-2.0957539,2.0458646,-2.4014149,-0.11093286,-0.056330323,-0.9922303,0
2.6473207,2.4703863,2.0833547,0.11093286,0.056330323,0.9922303,0
-1.1600854,3.4994395,0.1098752,-0.59790957,0.80127907,0.021357417,0
-3.1979318,-1.7575746,-0.69796324,-0.79385018,-0.59563315,0.12256867,0
-3.2953427,-1.1477443,1.6346512,-0.79385018,-0.59563315,0.12256867,0
1.1370385,-3.526355,0.2547195,0.59790957,-0.80127907,-0.021357417,0
2.5727787,2.788692,1.65979,0.79385018,0.59563315,-0.12256867,0
-1.7125748,3.1404505,-1.8888826,-0.59790957,0.80127907,0.021357417,0
-1.31744,3.3799272,0.18848133,-0.59790957,0.80127907,0.021357417,0
1.2568568,-1.1192627,-2.5965533,-0.11093286,-0.056330323,-0.9922303,0
-1.3798525,1.4655007,-2.4485054,-0.11093286,-0.056330323,-0.9922303,0
-0.84028125,-4.9641886,-1.1570992,0.59790957,-0.80127907,-0.021357417,0
2.8591316,-0.93804526,-2.7859778,-0.11093286,-0.056330323,-0.9922303,0
1.2551944,4.1664495,-0.17858028,0.79385018,0.59563315,-0.12256867,0
0.60990334,-2.8396847,2.6126018,0.11093286,0.056330323,0.9922303,0
1.4392713,3.7743959,-0.89157271,0.79385018,0.59563315,-0.12256867,0
1.0835528,4.2289209,-0.98667765,0.79385018,0.59563315,-0.12256867,0
1.8976218,-0.54697263,2.3384724,0.11093286,0.056330323,0.9922303,0
1.4141721,2.4192371,-2.8150268,-0.11093286,-0.056330323,-0.9922303,0
4.5500121,-0.45913887,-1.3172232,0.79385018,0.59563315,-0.12256867,0
2.3798733,2.2202513,-2.3520048,0.79385018,0.59563315,-0.12256867,0
-2.6833439,-1.7182814,2.8258619,-0.79385018,-0.59563315,0.12256867,0
-3.3988614,1.8577894,-0.97479486,-0.59790957,0.80127907,0.021357417,0
3.7946332,0.34675074,-2.2933559,0.79385018,0.59563315,-0.12256867,0
-2.8492699,2.2942126,-1.962316,-0.59790957,0.80127907,0.021357417,0
2.3924639,2.1149809,-2.7820287,0.79385018,0.59563315,-0.12256867,0
-1.5056317,-4.1192584,-1.2141187,-0.79385018,-0.59563315,0.12256867,0
3.3518229,-1.8562813,-0.3986578,0.59790957,-0.80127907,-0.021357417,0
-2.7006245,2.3631487,-0.38722634,-0.59790957,0.80127907,0.021357417,0
2.8854856,-2.2397945,0.93453932,0.59790957,-0.80127907,-0.021357417,0
4.2275624,0.22718078,-0.07042861,0.79385018,0.59563315,-0.12256867,0
-0.43678048,4.0042467,1.4199169,-0.59790957,0.80127907,0.021357417,0
-3.8893318,0.58846861,-2.1181517,-0.11093286,-0.056330323,-0.9922303,0
-2.8708358,2.2556124,-1.117871,-0.59790957,0.80127907,0.021357417,0
2.3157437,0.38999617,2.2385323,0.11093286,0.056330323,0.9922303,0
4.946466,-0.68628037,0.34841061,0.59790957,-0.80127907,-0.021357417,0
-2.2876852,2.6110294,1.8732768,-0.59790957,0.80127907,0.021357417,0
0.590343,4.8068748,0.061988831,-0.59790957,0.80127907,0.021357417,0
-3.2850897,1.8450809,2.6870952,-0.59790957,0.80127907,0.021357417,0
3.3984461,1.6150362,1.3039725,0.79385018,0.59563315,-0.12256867,0
1.4313421,-3.2581539,-1.5683875,0.59790957,-0.80127907,-0.021357417,0
1.9480392,-2.9735563,2.2193258,0.59790957,-0.80127907,-0.021357417,0
4.1159496,-1.2320855,-2.4249332,0.59790957,-0.80127907,-0.021357417,0
0.38056695,0.50896668,-2.5910194,-0.11093286,-0.056330323,-0.9922303,0
-3.3117666,-0.13194525,-2.1418252,-0.11093286,-0.056330323,-0.9922303,0
-3.7519758,-0.53125429,1.6730282,-0.79385018,-0.59563315,0.12256867,0
3.6392486,1.2443974,1.0624459,0.79385018,0.59563315,-0.12256867,0
1.5038226,-0.029708862,-2.6860199,-0.11093286,-0.056330323,-0.9922303,0
-0.37218428,-3.6488504,2.7683382,0.11093286,0.056330323,0.9922303,0
-1.6100541,-3.2687674,2.2425978,-0.79385018,-0.59563315,0.12256867,0
1.2096967,4.0542316,-1.0185935,0.79385018,0.59563315,-0.12256867,0
-2.3667479,-2.4278219,1.4283074,-0.79385018,-0.59563315,0.12256867,0
2.8735015,2.320189,1.330775,0.79385018,0.59563315,-0.12256867,0
-4.6363068,0.0065896511,-1.4408919,-0.79385018,-0.59563315,0.12256867,0
2.5612512,-2.4203963,-1.3667729,0.59790957,-0.80127907,-0.021357417,0
-4.7267957,0.78453159,1.7535115,-0.79385018,-0.59563315,0.12256867,0
4.0990829,0.38318747,-0.14443219,0.79385018,0.59563315,-0.12256867,0
-1.1227856,-1.1000067,2.7075553,0.11093286,0.056330323,0.9922303,0
0.65018535,-0.63447571,2.4829051,0.11093286,0.056330323,0.9922303,0
2.8615508,2.1804616,0.57435346,0.79385018,0.59563315,-0.12256867,0
-1.7287066,3.028681,1.852826,-0.59790957,0.80127907,0.021357417,0
0.22673315,-0.34911156,-2.5251064,-0.11093286,-0.056330323,-0.9922303,0
-0.045716703,0.58952093,2.49122,0.11093286,0.056330323,0.9922303,0
2.4368558,-2.5505838,0.035039186,0.59790957,-0.80127907,-0.021357417,0
-3.4590273,0.48077488,2.8790071,0.11093286,0.056330323,0.9922303,0
4.4026141,-1.1241357,1.550334,0.59790957,-0.80127907,-0.021357417,0
2.2740092,1.9952954,2.1520631,0.11093286,0.056330323,0.9922303,0
0.90326256,-0.92552066,-2.5680199,-0.11093286,-0.056330323,-0.9922303,0
1.0369775,3.6225226,2.1979852,0.11093286,0.056330323,0.9922303,0
4.0928445,-0.10361195,-2.5504849,0.79385018,0.59563315,-0.12256867,0
2.0813928,2.5161076,-2.8474586,0.79385018,0.59563315,-0.12256867,0
-4.1957011,1.1675529,2.6133657,-0.59790957,0.80127907,0.021357417,0
2.6481202,2.4823074,0.65885669,0.79385018,0.59563315,-0.12256867,0
0.034196347,4.3332043,2.2634418,-0.59790957,0.80127907,0.021357417,0
-3.876332,0.5505302,2.9217021,0.11093286,0.056330323,0.9922303,0
2.4674842,-2.358285,2.3775916,0.11093286,0.056330323,0.9922303,0
-0.86838889,-3.8986912,2.8379984,0.11093286,0.056330323,0.9922303,0
0.99553269,-3.6185443,-0.24806547,0.59790957,-0.80127907,-0.021357417,0
-4.3025336,1.1706929,-0.4952538,-0.59790957,0.80127907,0.021357417,0
2.3275077,-2.6152315,-0.60077429,0.59790957,-0.80127907,-0.021357417,0
-0.21919942,0.53459191,2.5137341,0.11093286,0.056330323,0.9922303,0
-1.0711076,-0.7849946,2.6838937,0.11093286,0.056330323,0.9922303,0
2.5967786,-2.3869221,-1.6280365,0.59790957,-0.80127907,-0.021357417,0
-2.9250543,2.2417378,-2.1152034,-0.59790957,0.80127907,0.021357417,0
3.0054796,-2.0653443,-2.2511177,0.59790957,-0.80127907,-0.021357417,0
0.24275351,-4.2105513,0.88825083,0.59790957,-0.80127907,-0.021357417,0
2.1535518,-2.779563,0.69458961,0.59790957,-0.80127907,-0.021357417,0
4.6062202,-0.57310939,-1.5070271,0.79385018,0.59563315,-0.12256867,0
-4.3594699,0.32997131,1.9236232,-0.79385018,-0.59563315,0.12256867,0
-2.2383776,-2.861829,0.15063691,-0.79385018,-0.59563315,0.12256867,0
-4.1357999,0.22266507,2.8508205,-0.79385018,-0.59563315,0.12256867,0
2.0056069,2.5111845,2.1527832,0.11093286,0.056330323,0.9922303,0
3.8636122,-1.5426129,2.1610162,0.59790957,-0.80127907,-0.021357417,0
-2.5326934,-1.0335889,2.8614142,0.11093286,0.056330323,0.9922303,0
1.1979311,-3.4217105,-1.9665747,0.59790957,-0.80127907,-0.021357417,0
3.5136223,-1.7049015,-1.5484245,0.59790957,-0.80127907,-0.021357417,0
0.31447577,-4.1719112,1.4464631,0.59790957,-0.80127907,-0.021357417,0
0.80967772,4.6141381,-0.8885107,0.79385018,0.59563315,-0.12256867,0
3.9279742,0.097341776,-2.6417618,0.79385018,0.59563315,-0.12256867,0
-4.693881,0.88231164,-0.6318152,-0.59790957,0.80127907,0.021357417,0
-1.5915542,1.0000398,-2.3984122,-0.11093286,-0.056330323,-0.9922303,0
1.2191746,3.9199753,-1.6096377,0.79385018,0.59563315,-0.12256867,0
4.6018066,-0.31045973,-0.25924397,0.79385018,0.59563315,-0.12256867,0
-4.2978058,1.046663,2.9406576,0.11093286,0.056330323,0.9922303,0
-0.24479395,0.90505159,-2.5435896,-0.11093286,-0.056330323,-0.9922303,0
-3.1622322,0.63643366,-2.2021654,-0.11093286,-0.056330323,-0.9922303,0
-3.5307853,-1.0676849,0.49879846,-0.79385018,-0.59563315,0.12256867,0
0.26545453,-1.594852,-2.4587128,-0.11093286,-0.056330323,-0.9922303,0
-0.064209133,-2.402137,-2.3760254,-0.11093286,-0.056330323,-0.9922303,0
1.2001449,-3.5186222,1.731288,0.59790957,-0.80127907,-0.021357417,0
1.1171659,2.8552623,-2.8065751,-0.11093286,-0.056330323,-0.9922303,0
-2.5776403,-2.2065241,1.1378196,-0.79385018,-0.59563315,0.12256867,0
-0.96083647,3.7107356,-2.2393897,-0.59790957,0.80127907,0.021357417,0
0.077935934,3.3957021,-2.7210696,-0.11093286,-0.056330323,-0.9922303,0
-0.25597885,-2.0500476,-2.3745737,-0.11093286,-0.056330323,-0.9922303,0
0.54071087,4.7192469,1.9601107,-0.59790957,0.80127907,0.021357417,0
-0.61027092,3.9217539,-0.34207249,-0.59790957,0.80127907,0.021357417,0
0.61653566,-2.9716907,-2.4197993,-0.11093286,-0.056330323,-0.9922303,0
-3.6350384,-0.43244982,2.9105558,-0.79385018,-0.59563315,0.12256867,0
1.8747427,-2.9729125,0.14321637,0.59790957,-0.80127907,-0.021357417,0
-3.7699907,1.5519886,0.10820508,-0.59790957,0.80127907,0.021357417,0
0.93678308,4.2504711,-1.8325512,0.79385018,0.59563315,-0.12256867,0
4.1492958,0.11205781,-1.136795,0.79385018,0.59563315,-0.12256867,0
-2.2101698,2.6907024,1.0542121,-0.59790957,0.80127907,0.021357417,0
-1.9387232,2.7371049,-2.458214,-0.11093286,-0.056330323,-0.9922303,0
-1.1227279,-4.779675,-1.9434869,-0.79385018,-0.59563315,0.12256867,0
3.8304033,0.85827196,0.42410237,0.79385018,0.59563315,-0.12256867,0
-4.4284577,0.27118111,1.1911087,-0.79385018,-0.59563315,0.12256867,0
0.91507852,4.3935981,-1.2775884,0.79385018,0.59563315,-0.12256867,0
1.3642628,0.77356887,-2.7160203,-0.11093286,-0.056330323,-0.9922303,0
-0.27277744,-4.6114388,1.4960866,0.59790957,-0.80127907,-0.021357417,0
4.6973596,-0.37408769,0.050426006,0.79385018,0.59563315,-0.12256867,0
-1.0942427,3.5789561,-1.0301001,-0.59790957,0.80127907,0.021357417,0
4.1160345,0.66430783,1.3314852,0.79385018,0.59563315,-0.12256867,0
-4.1118908,1.3126445,-0.48381615,-0.59790957,0.80127907,0.021357417,0
-3.5373714,-1.4113605,-1.2139817,-0.79385018,-0.59563315,0.12256867,0
0.65588689,4.5497293,-2.197582,0.79385018,0.59563315,-0.12256867,0
0.80836403,-0.92822027,-2.5572567,-0.11093286,-0.056330323,-0.9922303,0
0.32616276,4.5521851,2.2215014,-0.59790957,0.80127907,0.021357417,0
1.9272985,-2.964546,1.3006353,0.59790957,-0.80127907,-0.021357417,0
4.1303687,0.31211627,-0.28718042,0.79385018,0.59563315,-0.12256867,0
-2.8677416,-1.4541153,-2.1164067,-0.11093286,-0.056330323,-0.9922303,0
0.031405374,3.2247322,2.3329928,0.11093286,0.056330323,0.9922303,0
-0.87899005,-4.9058337,-0.97792935,-0.79385018,-0.59563315,0.12256867,0
-2.2386343,1.5083314,-2.354924,-0.11093286,-0.056330323,-0.9922303,0
0.1897441,1.7547772,2.398742,0.11093286,0.056330323,0.9922303,0
-2.8731909,-1.6511996,1.9222522,-0.79385018,-0.59563315,0.12256867,0
4.9603515,-0.63733405,0.47449613,0.79385018,0.59563315,-0.12256867,0
2.8819127,-1.235231,2.2675002,0.11093286,0.056330323,0.9922303,0
3.3629298,-1.8277477,-1.15821,0.59790957,-0.80127907,-0.021357417,0
0.38632816,-2.8131175,-2.4030643,-0.11093286,-0.056330323,-0.9922303,0
-0.79013538,-4.5589266,1.2833874,-0.79385018,-0.59563315,0.12256867,0
3.8235674,1.1648239,1.8695436,0.79385018,0.59563315,-0.12256867,0
4.5663123,-0.24588382,-0.17531979,0.79385018,0.59563315,-0.12256867,0
2.3239605,3.1345761,1.7291044,0.79385018,0.59563315,-0.12256867,0
2.3495786,-2.222919,-2.656065,-0.11093286,-0.056330323,-0.9922303,0
2.3797724,-0.57718098,2.2862821,0.11093286,0.056330323,0.9922303,0
1.6610503,1.5342804,2.2467656,0.11093286,0.056330323,0.9922303,0
-1.4361703,2.1270216,-2.4797647,-0.11093286,-0.056330323,-0.9922303,0
1.4344119,-3.3505168,1.9827893,0.59790957,-0.80127907,-0.021357417,0
1.8827103,3.6865883,1.5537747,0.79385018,0.59563315,-0.12256867,0
0.98289096,-3.693644,2.2155735,0.59790957,-0.80127907,-0.021357417,0
-1.1335254,-4.1851649,-2.1552491,-0.11093286,-0.056330323,-0.9922303,0
0.51609838,4.76825,-0.5673914,-0.59790957,0.80127907,0.021357417,0
1.9241555,2.4037719,2.1679876,0.11093286,0.056330323,0.9922303,0
0.071355581,4.4945736,-2.7504702,-0.59790957,0.80127907,0.021357417,0
-0.047333121,-1.7400918,2.6236563,0.11093286,0.056330323,0.9922303,0
-0.14696109,-4.4804268,0.1031127,0.59790957,-0.80127907,-0.021357417,0
-0.055929184,4.1526575,-2.7490764,-0.11093286,-0.056330323,-0.9922303,0
-0.42420369,0.87658501,-2.5219152,-0.11093286,-0.056330323,-0.9922303,0
-1.8335454,3.0308228,-1.1625383,-0.59790957,0.80127907,0.021357417,0
1.7283682,-3.0806699,0.088203192,0.59790957,-0.80127907,-0.021357417,0
-3.4696894,1.7613131,0.66189814,-0.59790957,0.80127907,0.021357417,0
3.1168783,1.8821362,0.77831483,0.79385018,0.59563315,-0.12256867,0
-2.4265883,-1.1689837,-2.1819155,-0.11093286,-0.056330323,-0.9922303,0
-3.0835052,-1.248836,2.5154166,-0.79385018,-0.59563315,0.12256867,0
1.1843281,-0.55359912,-2.6205578,-0.11093286,-0.056330323,-0.9922303,0
0.087083459,-4.3459954,1.611733,0.59790957,-0.80127907,-0.021357417,0
-2.3251097,-3.1535149,-1.8285809,-0.79385018,-0.59563315,0.12256867,0
1.4789487,3.4465933,-2.2275772,0.79385018,0.59563315,-0.12256867,0
-1.7092657,-3.930954,-1.6179266,-0.79385018,-0.59563315,0.12256867,0
1.5833768,3.4791873,-1.3928273,0.79385018,0.59563315,-0.12256867,0
-0.23126233,-0.11856103,2.5521631,0.11093286,0.056330323,0.9922303,0
1.5482509,-3.1767628,-1.3490763,0.59790957,-0.80127907,-0.021357417,0
0.023513436,4.406486,-0.78500223,-0.59790957,0.80127907,0.021357417,0
-0.88373548,3.7369747,-1.0653608,-0.59790957,0.80127907,0.021357417,0
2.0699308,-2.2658021,-2.6223657,-0.11093286,-0.056330323,-0.9922303,0
-4.4147286,1.121948,-1.8074031,-0.59790957,0.80127907,0.021357417,0
-4.3574624,1.1581879,-1.5638478,-0.59790957,0.80127907,0.021357417,0
-4.0706253,-0.69607908,-1.1917753,-0.79385018,-0.59563315,0.12256867,0
-3.4413474,-1.124593,0.80151969,-0.79385018,-0.59563315,0.12256867,0
-0.63617826,-1.684317,2.6863236,0.11093286,0.056330323,0.9922303,0
-2.5744975,2.0792165,-2.3497841,-0.11093286,-0.056330323,-0.9922303,0
2.5144987,2.1196263,-1.9690615,0.79385018,0.59563315,-0.12256867,0
2.2324338,2.8166308,-0.40877748,0.79385018,0.59563315,-0.12256867,0
-3.3460779,1.0044932,-2.2025065,-0.11093286,-0.056330323,-0.9922303,0
0.3154248,-1.5261481,2.5709534,0.11093286,0.056330323,0.9922303,0
-0.88333893,-3.3974414,-2.2279403,-0.11093286,-0.056330323,-0.9922303,0
4.7875719,-0.39105672,0.55224967,0.79385018,0.59563315,-0.12256867,0
-4.1353698,0.18574357,2.6741843,-0.79385018,-0.59563315,0.12256867,0
3.5124326,1.0080864,-0.90728986,0.79385018,0.59563315,-0.12256867,0
4.6601524,-0.24596882,0.43204904,0.79385018,0.59563315,-0.12256867,0
-3.8161917,1.5313576,-0.41118288,-0.59790957,0.80127907,0.021357417,0
-2.7728159,-2.3904545,-1.0201176,-0.79385018,-0.59563315,0.12256867,0
0.82252228,4.6489105,-0.63634157,0.79385018,0.59563315,-0.12256867,0
-0.39425313,-4.6414752,-0.77778482,0.59790957,-0.80127907,-0.021357417,0
-4.7089977,0.82185864,1.2130485,-0.59790957,0.80127907,0.021357417,0
4.4765711,-1.0555401,1.0472538,0.59790957,-0.80127907,-0.021357417,0
-0.19737339,4.2256498,-0.18428278,-0.59790957,0.80127907,0.021357417,0
4.2159896,-1.2043023,-0.66662621,0.59790957,-0.80127907,-0.021357417,0
-3.729301,1.5284951,2.1287379,-0.59790957,0.80127907,0.021357417,0
3.1175473,1.9221591,0.97714216,0.79385018,0.59563315,-0.12256867,0
-1.2971653,-3.2103508,2.8468583,0.11093286,0.056330323,0.9922303,0
1.3697462,-3.4083929,2.3438127,0.59790957,-0.80127907,-0.021357417,0
-3.4145412,-1.6455361,-1.5564333,-0.79385018,-0.59563315,0.12256867,0
-1.2764086,-0.80988503,2.7082596,0.11093286,0.056330323,0.9922303,0
2.0144758,-2.8618217,-0.11276054,0.59790957,-0.80127907,-0.021357417,0
-0.5808652,0.46285248,2.5582416,0.11093286,0.056330323,0.9922303,0
-3.125793,0.084221959,-2.1748896,-0.11093286,-0.056330323,-0.9922303,0
0.9252528,3.9750984,2.1904597,0.11093286,0.056330323,0.9922303,0
0.14466405,2.0378075,-2.6514397,-0.11093286,-0.056330323,-0.9922303,0
-2.8756366,1.5205607,2.7547531,0.11093286,0.056330323,0.9922303,0
1.2220389,4.3742356,0.61643219,0.79385018,0.59563315,-0.12256867,0
2.0149877,-2.8528271,-0.43588233,0.59790957,-0.80127907,-0.021357417,0
3.0562482,2.0486314,1.1947254,0.79385018,0.59563315,-0.12256867,0
-3.6001084,1.6382232,1.6288153,-0.59790957,0.80127907,0.021357417,0
1.9275191,3.595984,1.4036919,0.79385018,0.59563315,-0.12256867,0
-3.84707,1.4642745,1.2411604,-0.59790957,0.80127907,0.021357417,0
-3.1855965,1.9349232,2.1017613,-0.59790957,0.80127907,0.021357417,0
4.3181109,-1.1714445,0.95955491,0.59790957,-0.80127907,-0.021357417,0
4.4737334,-1.0191977,-0.39566493,0.59790957,-0.80127907,-0.021357417,0
4.1220245,-1.317395,0.94573283,0.59790957,-0.80127907,-0.021357417,0
-3.261591,1.9324105,0.068549156,-0.59790957,0.80127907,0.021357417,0
4.6864228,-0.47641969,-0.51769876,0.79385018,0.59563315,-0.12256867,0
4.0549884,0.53341711,0.3000294,0.79385018,0.59563315,-0.12256867,0
-0.89745569,-4.8959999,-1.0497389,-0.79385018,-0.59563315,0.12256867,0
0.91431123,-3.7355428,1.8675997,0.59790957,-0.80127907,-0.021357417,0
-0.75118113,3.7435713,-2.6481216,-0.11093286,-0.056330323,-0.9922303,0
0.4534564,2.180588,2.3450844,0.11093286,0.056330323,0.9922303,0
0.73524034,3.5012078,2.2386074,0.11093286,0.056330323,0.9922303,0
-4.7435656,0.14453882,-1.4652052,-0.79385018,-0.59563315,0.12256867,0
3.1951697,-2.0339785,1.8825552,0.59790957,-0.80127907,-0.021357417,0
0.70609462,-3.8064961,-1.2994943,0.59790957,-0.80127907,-0.021357417,0
3.3851655,0.76260161,-2.9245272,0.79385018,0.59563315,-0.12256867,0
0.094729662,-4.2855735,-0.44107437,0.59790957,-0.80127907,-0.021357417,0
1.8877534,0.75830841,-2.7736809,-0.11093286,-0.056330323,-0.9922303,0
-0.19145446,-3.0164371,-2.3269243,-0.11093286,-0.056330323,-0.9922303,0
4.6368341,-0.91114783,0.11662483,0.59790957,-0.80127907,-0.021357417,0
-3.2660747,1.9494051,-0.69456959,-0.59790957,0.80127907,0.021357417,0
1.3500071,4.0371971,-0.19261312,0.79385018,0.59563315,-0.12256867,0
-2.0049241,2.9026899,-1.1531143,-0.59790957,0.80127907,0.021357417,0
-4.3534927,1.0522501,2.5218084,-0.59790957,0.80127907,0.021357417,0
-4.1520209,-0.42047656,-0.3796438,-0.79385018,-0.59563315,0.12256867,0
-4.2827415,-0.51265633,-1.6742461,-0.79385018,-0.59563315,0.12256867,0
-0.71609181,3.8572841,-0.88581276,-0.59790957,0.80127907,0.021357417,0
0.4834986,-3.9686775,-1.4465232,0.59790957,-0.80127907,-0.021357417,0
2.6490238,2.4728217,0.61861229,0.79385018,0.59563315,-0.12256867,0
-3.3865459,-1.4902693,-2.0563507,-0.11093286,-0.056330323,-0.9922303,0
-2.0410385,-3.2202868,-0.31319821,-0.79385018,-0.59563315,0.12256867,0
-3.6379044,-0.4518466,2.7977319,-0.79385018,-0.59563315,0.12256867,0
3.5645893,-1.736716,1.072036,0.59790957,-0.80127907,-0.021357417,0
1.5716268,-1.5876355,-2.6051548,-0.11093286,-0.056330323,-0.9922303,0
1.1291683,-3.4805627,-1.6836369,0.59790957,-0.80127907,-0.021357417,0
-3.0884187,2.0952089,-1.1912396,-0.59790957,0.80127907,0.021357417,0
-0.77958041,-4.7278619,-2.1640108,-0.11093286,-0.056330323,-0.9922303,0
-4.1503596,-0.64413393,-1.4557662,-0.79385018,-0.59563315,0.12256867,0
3.53054,-1.2072395,2.1933935,0.11093286,0.056330323,0.9922303,0
0.91747022,-3.7478862,2.4191487,0.59790957,-0.80127907,-0.021357417,0
-1.931471,0.24117672,-2.3173275,-0.11093286,-0.056330323,-0.9922303,0
-3.542686,-0.80125761,1.7164484,-0.79385018,-0.59563315,0.12256867,0
0.81430793,-3.6992979,-2.2918487,0.59790957,-0.80127907,-0.021357417,0
-1.8060244,-2.2532015,-2.1897428,-0.11093286,-0.056330323,-0.9922303,0
4.3721805,-0.91390848,2.0826442,0.11093286,0.056330323,0.9922303,0
-3.3540115,-0.98947465,2.0237932,-0.79385018,-0.59563315,0.12256867,0
-3.0830712,-1.2168384,2.6737206,-0.79385018,-0.59563315,0.12256867,0
2.6555865,2.1804085,-0.75989169,0.79385018,0.59563315,-0.12256867,0
-4.095787,-0.73358315,-1.5369989,-0.79385018,-0.59563315,0.12256867,0
-3.0217104,-2.0658929,-1.0549154,-0.79385018,-0.59563315,0.12256867,0
4.23981,0.32356477,0.47728205,0.79385018,0.59563315,-0.12256867,0
2.1537366,1.0126207,-2.8178561,-0.11093286,-0.056330323,-0.9922303,0
0.81384504,-2.9069033,2.5936165,0.11093286,0.056330323,0.9922303,0
-2.3967946,2.6386957,-2.2192469,-0.59790957,0.80127907,0.021357417,0
-1.0258355,-4.4257636,0.4039278,-0.79385018,-0.59563315,0.12256867,0
2.2296503,-0.43997788,2.2952766,0.11093286,0.056330323,0.9922303,0
-1.3958471,-2.7094369,2.829453,0.11093286,0.056330323,0.9922303,0
-1.7276139,2.0052245,2.5988872,0.11093286,0.056330323,0.9922303,0
-3.5978169,-0.23664665,2.9352531,0.11093286,0.056330323,0.9922303,0
-0.40038532,0.54410172,-2.5057025,-0.11093286,-0.056330323,-0.9922303,0
-4.563314,0.11165899,-2.0157301,-0.11093286,-0.056330323,-0.9922303,0
4.1628237,-1.3162496,2.0449591,0.59790957,-0.80127907,-0.021357417,0
-3.4624839,-0.75276184,2.4715669,-0.79385018,-0.59563315,0.12256867,0
-1.9029016,-3.7627625,-2.0547259,-0.79385018,-0.59563315,0.12256867,0
0.58985054,2.2827744,2.324034,0.11093286,0.056330323,0.9922303,0
1.1081495,-3.1016002,-2.4673874,-0.11093286,-0.056330323,-0.9922303,0
-4.8422356,0.58883345,0.054818869,-0.79385018,-0.59563315,0.12256867,0
1.6323497,1.6122699,2.2455468,0.11093286,0.056330323,0.9922303,0
-2.8352952,-1.869728,1.105737,-0.79385018,-0.59563315,0.12256867,0
0.86696672,4.8788037,0.76870131,0.79385018,0.59563315,-0.12256867,0
0.72437549,-3.7693226,-2.1823769,0.59790957,-0.80127907,-0.021357417,0
-0.80026191,3.7251196,1.7163177,-0.59790957,0.80127907,0.021357417,0
1.7936847,-0.94905186,-2.6662345,-0.11093286,-0.056330323,-0.9922303,0
1.6442012,-1.2625507,2.4074295,0.11093286,0.056330323,0.9922303,0
-0.061078072,-0.096109867,2.5318618,0.11093286,0.056330323,0.9922303,0
0.64156759,-3.1120062,2.6245215,0.11093286,0.056330323,0.9922303,0
-0.4334209,4.0745783,-1.1246881,-0.59790957,0.80127907,0.021357417,0
-4.4419222,0.26837665,-2.0381989,-0.11093286,-0.056330323,-0.9922303,0
3.6961586,0.75986242,-0.92360222,0.79385018,0.59563315,-0.12256867,0
2.8649449,2.451195,1.9119895,0.79385018,0.59563315,-0.12256867,0
-1.4520994,-3.406028,2.5986068,-0.79385018,-0.59563315,0.12256867,0
-3.2351205,-1.9614879,-1.9297615,-0.79385018,-0.59563315,0.12256867,0
-4.1617918,0.23931485,-2.0678682,-0.11093286,-0.056330323,-0.9922303,0
3.4100022,1.1655024,-0.80573046,0.79385018,0.59563315,-0.12256867,0
-4.422534,0.1673727,0.72501183,-0.79385018,-0.59563315,0.12256867,0
2.4532628,2.9801178,1.8159622,0.79385018,0.59563315,-0.12256867,0
-2.1377079,1.1274741,2.6945677,0.11093286,0.056330323,0.9922303,0
0.18529651,2.3911705,2.3631101,0.11093286,0.056330323,0.9922303,0
0.36167598,-0.90538168,-2.5086131,-0.11093286,-0.056330323,-0.9922303,0
3.4175932,1.5369105,1.0483253,0.79385018,0.59563315,-0.12256867,0
-4.2406421,1.185057,0.69851565,-0.59790957,0.80127907,0.021357417,0
1.8860239,-2.9704387,0.36622572,0.59790957,-0.80127907,-0.021357417,0
1.3415499,-0.3754766,-2.6482477,-0.11093286,-0.056330323,-0.9922303,0
-0.59509265,3.0336964,2.4138818,0.11093286,0.056330323,0.9922303,0
0.36020112,-1.0409944,2.5384047,0.11093286,0.056330323,0.9922303,0
3.0616038,-2.0896685,0.23267269,0.59790957,-0.80127907,-0.021357417,0
-0.93664765,-4.2190332,1.9862018,-0.79385018,-0.59563315,0.12256867,0
-0.50231171,-1.1439487,2.6406798,0.11093286,0.056330323,0.9922303,0
-4.2985606,0.3307848,2.3220718,-0.79385018,-0.59563315,0.12256867,0
4.2240338,-0.19034362,-2.1222794,0.79385018,0.59563315,-0.12256867,0
5.0960364,-0.58042759,1.6298409,0.79385018,0.59563315,-0.12256867,0
-0.77259457,-0.087816954,-2.4282141,-0.11093286,-0.056330323,-0.9922303,0
-1.7715636,1.9454679,2.6071935,0.11093286,0.056330323,0.9922303,0
2.3180754,-2.6712008,1.2349925,0.59790957,-0.80127907,-0.021357417,0
0.62982816,-3.8582499,-1.4929349,0.59790957,-0.80127907,-0.021357417,0
-3.9857361,1.3384247,2.0807343,-0.59790957,0.80127907,0.021357417,0
3.3844962,1.1131785,-1.2252021,0.79385018,0.59563315,-0.12256867,0
4.8592443,-0.45403543,0.71040559,0.79385018,0.59563315,-0.12256867,0
0.99601793,-2.2423947,2.5355241,0.11093286,0.056330323,0.9922303,0
-1.4955746,3.2809289,-2.5386322,-0.11093286,-0.056330323,-0.9922303,0
-1.6123872,3.1064131,2.1929059,-0.59790957,0.80127907,0.021357417,0
4.7501001,-0.79469585,-1.0814569,0.59790957,-0.80127907,-0.021357417,0
-4.6042676,0.87954807,1.980638,-0.59790957,0.80127907,0.021357417,0
3.1660538,-1.9742006,-1.1752737,0.59790957,-0.80127907,-0.021357417,0
0.073477805,-0.61291504,-2.4929957,-0.11093286,-0.056330323,-0.9922303,0
3.8938625,1.0308924,1.6739773,0.79385018,0.59563315,-0.12256867,0
0.91745341,4.5234675,2.1602006,0.11093286,0.056330323,0.9922303,0
3.573252,0.0095475912,2.1195395,0.11093286,0.056330323,0.9922303,0
-1.8218334,1.4057772,2.6434526,0.11093286,0.056330323,0.9922303,0
4.7893682,-0.82544202,1.1714122,0.59790957,-0.80127907,-0.021357417,0
2.2044058,2.7793665,-0.77139878,0.79385018,0.59563315,-0.12256867,0
1.9170237,2.5740819,2.1591163,0.11093286,0.056330323,0.9922303,0
2.4567332,2.8455122,1.1843115,0.79385018,0.59563315,-0.12256867,0
1.2726026,4.4744191,1.4307749,0.79385018,0.59563315,-0.12256867,0
1.6069016,0.33359742,2.3209839,0.11093286,0.056330323,0.9922303,0
-1.2378082,3.4429131,0.054730177,-0.59790957,0.80127907,0.021357417,0
2.6517045,2.2267585,-0.55978978,0.79385018,0.59563315,-0.12256867,0
2.3730421,3.0989671,1.8739505,0.79385018,0.59563315,-0.12256867,0
1.7135292,-3.1170692,1.0383995,0.59790957,-0.80127907,-0.021357417,0
-1.994158,-2.9344969,1.3792602,-0.79385018,-0.59563315,0.12256867,0
-4.2309742,0.36030912,2.9032946,-0.79385018,-0.59563315,0.12256867,0
0.15367717,-4.0795107,-2.3051581,-0.11093286,-0.056330323,-0.9922303,0
4.0244508,-1.3965822,1.1850383,0.59790957,-0.80127907,-0.021357417,0
-2.2147503,-3.1233082,-0.96701646,-0.79385018,-0.59563315,0.12256867,0
2.3612659,3.100467,1.8049655,0.79385018,0.59563315,-0.12256867,0
4.7034907,-0.74999404,-1.7366133,0.79385018,0.59563315,-0.12256867,0
2.5055587,2.2111702,-1.5820984,0.79385018,0.59563315,-0.12256867,0
1.1386092,-3.5102618,-0.30508137,0.59790957,-0.80127907,-0.021357417,0
-3.5585225,1.6594348,1.9972198,-0.59790957,0.80127907,0.021357417,0
-3.491884,1.7502731,0.45475054,-0.59790957,0.80127907,0.021357417,0
-2.328625,-1.8446333,-2.1545103,-0.11093286,-0.056330323,-0.9922303,0
-0.089846954,-2.0080101,-2.395534,-0.11093286,-0.056330323,-0.9922303,0
3.0696225,1.8307778,2.0724523,0.11093286,0.056330323,0.9922303,0
3.3805504,0.24072528,-2.9111938,-0.11093286,-0.056330323,-0.9922303,0
-1.9633589,-3.2920823,-2.113174,-0.11093286,-0.056330323,-0.9922303,0
3.4940648,-1.8158092,2.0650549,0.59790957,-0.80127907,-0.021357417,0
1.3795367,3.3003235,2.1779783,0.11093286,0.056330323,0.9922303,0
3.1046493,1.7152529,-0.11187285,0.79385018,0.59563315,-0.12256867,0
-1.5244907,3.1942277,1.3590124,-0.59790957,0.80127907,0.021357417,0
-3.509922,1.806106,-2.1449482,-0.59790957,0.80127907,0.021357417,0
1.3402896,4.1890216,0.48225546,0.79385018,0.59563315,-0.12256867,0
2.5556521,2.0149331,-2.2112856,0.79385018,0.59563315,-0.12256867,0
-1.5821569,3.1926408,-0.19583178,-0.59790957,0.80127907,0.021357417,0
-2.9271445,-1.5170327,2.2248015,-0.79385018,-0.59563315,0.12256867,0
1.7093992,1.6435266,2.235158,0.11093286,0.056330323,0.9922303,0
-3.5439711,0.2777884,2.900028,0.11093286,0.056330323,0.9922303,0
-3.2269394,2.0131888,-1.9919946,-0.59790957,0.80127907,0.021357417,0
-1.5733441,-2.3133066,2.8268092,0.11093286,0.056330323,0.9922303,0
-4.1938081,-0.45917183,-0.83833265,-0.79385018,-0.59563315,0.12256867,0
-1.8098242,-1.2039748,-2.2488842,-0.11093286,-0.056330323,-0.9922303,0
3.3528588,-1.8135853,-1.9714842,0.59790957,-0.80127907,-0.021357417,0
-3.4308729,-0.89470267,1.986533,-0.79385018,-0.59563315,0.12256867,0
1.8653347,-2.0238447,-2.6132278,-0.11093286,-0.056330323,-0.9922303,0
4.5058384,-1.0286288,0.85694027,0.59790957,-0.80127907,-0.021357417,0
-2.8328948,-2.5223126,-2.050009,-0.79385018,-0.59563315,0.12256867,0
-0.29598373,4.1358833,0.42290854,-0.59790957,0.80127907,0.021357417,0
-0.78754735,-4.6638021,0.79050064,-0.79385018,-0.59563315,0.12256867,0
-4.6528668,0.52578759,0.97494185,-0.79385018,-0.59563315,0.12256867,0
-4.0254765,1.3845736,-0.76322341,-0.59790957,0.80127907,0.021357417,0
-0.11110747,-0.073083639,-2.503006,-0.11093286,-0.056330323,-0.9922303,0
0.92656898,2.8014734,-2.7822123,-0.11093286,-0.056330323,-0.9922303,0
-2.6517115,1.7963378,-2.3250923,-0.11093286,-0.056330323,-0.9922303,0
3.3862152,1.1553626,-1.0090699,0.79385018,0.59563315,-0.12256867,0
4.0476284,-1.3468814,-0.030758858,0.59790957,-0.80127907,-0.021357417,0
1.788373,0.65827453,2.2822626,0.11093286,0.056330323,0.9922303,0
-0.50803769,-4.7398672,-0.27179241,0.59790957,-0.80127907,-0.021357417,0
4.7523732,-0.53450549,-0.37282705,0.79385018,0.59563315,-0.12256867,0
-1.8824689,-2.0432706,2.8460393,0.11093286,0.056330323,0.9922303,0
-0.8215912,-2.6409137,-2.2777929,-0.11093286,-0.056330323,-0.9922303,0
-0.83090788,1.5079303,-2.5122876,-0.11093286,-0.056330323,-0.9922303,0
1.481009,-3.2171822,-1.7151117,0.59790957,-0.80127907,-0.021357417,0
-2.6100807,-2.3789301,0.089887142,-0.79385018,-0.59563315,0.12256867,0
3.469564,-1.2874048,2.2047617,0.11093286,0.056330323,0.9922303,0
0.60037696,4.7871766,1.0819278,-0.59790957,0.80127907,0.021357417,0
3.0182528,2.20011,1.6847618,0.79385018,0.59563315,-0.12256867,0
-2.6200619,-2.3496017,0.16776705,-0.79385018,-0.59563315,0.12256867,0
-1.801841,3.0805304,-2.1398702,-0.59790957,0.80127907,0.021357417,0
3.0337253,-2.0490224,-2.0727313,0.59790957,-0.80127907,-0.021357417,0
1.0943588,2.157964,-2.7644389,-0.11093286,-0.056330323,-0.9922303,0
-1.0877873,-4.574821,-0.72167659,-0.79385018,-0.59563315,0.12256867,0
-3.535568,-1.3646884,-0.97549319,-0.79385018,-0.59563315,0.12256867,0
0.44344488,-2.1401529,-2.4476552,-0.11093286,-0.056330323,-0.9922303,0
0.89687049,0.42829847,-2.6441636,-0.11093286,-0.056330323,-0.9922303,0
2.7436495,-2.3149927,-0.2149601,0.59790957,-0.80127907,-0.021357417,0
-2.1769834,-0.98514438,2.8188953,0.11093286,0.056330323,0.9922303,0
-3.5986562,1.6251752,2.1589904,-0.59790957,0.80127907,0.021357417,0
2.8841367,-2.2055516,-0.38791347,0.59790957,-0.80127907,-0.021357417,0
-4.0652785,-0.079496384,-2.0605593,-0.11093286,-0.056330323,-0.9922303,0
0.54047894,4.6275911,-2.5666771,0.79385018,0.59563315,-0.12256867,0
0.46605921,2.1196005,-2.6920156,-0.11093286,-0.056330323,-0.9922303,0
-0.58232206,3.9352942,-0.067626476,-0.59790957,0.80127907,0.021357417,0
4.641839,-0.94953489,1.696923,0.59790957,-0.80127907,-0.021357417,0
-2.2419543,-2.690043,0.96228015,-0.79385018,-0.59563315,0.12256867,0
0.51509267,-3.9520288,-1.1866381,0.59790957,-0.80127907,-0.021357417,0
-0.02776444,1.3470025,-2.5929441,-0.11093286,-0.056330323,-0.9922303,0
-1.6702776,3.1155305,0.23018098,-0.59790957,0.80127907,0.021357417,0
1.2205966,3.6918499,-2.709022,0.79385018,0.59563315,-0.12256867,0
1.8000895,3.4579856,-0.092257023,0.79385018,0.59563315,-0.12256867,0
-2.5993567,-0.24682939,-2.2149515,-0.11093286,-0.056330323,-0.9922303,0
0.42394277,-4.0018449,-1.8694532,0.59790957,-0.80127907,-0.021357417,0
0.078437209,-3.187331,2.691757,0.11093286,0.056330323,0.9922303,0
2.2364986,-2.7341342,1.3123324,0.59790957,-0.80127907,-0.021357417,0
-3.1850758,-1.4416364,0.92063254,-0.79385018,-0.59563315,0.12256867,0
-2.3717196,-2.9073701,-0.93430054,-0.79385018,-0.59563315,0.12256867,0
-1.4088309,0.71354556,2.6365774,0.11093286,0.056330323,0.9922303,0
3.4508319,-0.50720835,-2.8765905,-0.11093286,-0.056330323,-0.9922303,0
0.86081147,-2.8569601,2.5855308,0.11093286,0.056330323,0.9922303,0
-1.6848429,-0.92245007,2.760314,0.11093286,0.056330323,0.9922303,0
-2.1943793,-3.1512964,-0.97108626,-0.79385018,-0.59563315,0.12256867,0
1.1478059,-3.5694602,2.1733541,0.59790957,-0.80127907,-0.021357417,0
-4.3346887,0.16385818,1.2768834,-0.79385018,-0.59563315,0.12256867,0
3.2448583,1.5086337,-0.20785341,0.79385018,0.59563315,-0.12256867,0
-4.1049757,-0.44493628,-0.19380522,-0.79385018,-0.59563315,0.12256867,0
1.6333101,1.7697142,2.236501,0.11093286,0.056330323,0.9922303,0
3.948251,0.4753195,-0.6736151,0.79385018,0.59563315,-0.12256867,0
3.5314336,1.0482333,-0.58912617,0.79385018,0.59563315,-0.12256867,0
-0.82173324,-4.8600416,-2.1517937,-0.11093286,-0.056330323,-0.9922303,0
-0.090463281,2.8446462,-2.6709576,-0.11093286,-0.056330323,-0.9922303,0
3.6163678,-1.6475081,-0.82526422,0.59790957,-0.80127907,-0.021357417,0
-0.009010911,-4.4064569,1.1899166,0.59790957,-0.80127907,-0.021357417,0
-2.0932078,2.8248856,-0.70561647,-0.59790957,0.80127907,0.021357417,0
3.9268084,-1.4811945,1.6259501,0.59790957,-0.80127907,-0.021357417,0
0.63231003,2.6541948,-2.7409523,-0.11093286,-0.056330323,-0.9922303,0
-2.7488573,1.7618835,2.7268784,0.11093286,0.056330323,0.9922303,0
1.3693464,-3.3491509,0.11001635,0.59790957,-0.80127907,-0.021357417,0
3.6316752,-1.6096777,2.2049332,0.11093286,0.056330323,0.9922303,0
4.4139609,-0.99805379,-2.862294,0.59790957,-0.80127907,-0.021357417,0
3.7939563,0.30146766,-2.5177975,0.79385018,0.59563315,-0.12256867,0
-1.1397493,3.5084927,0.3395474,-0.59790957,0.80127907,0.021357417,0
2.8023529,0.55287504,-2.8642721,-0.11093286,-0.056330323,-0.9922303,0
-4.5750442,0.98227245,-1.0552163,-0.59790957,0.80127907,0.021357417,0
-0.80201113,-4.8784528,-0.34629202,-0.79385018,-0.59563315,0.12256867,0
0.23512805,-2.8352304,2.6542494,0.11093286,0.056330323,0.9922303,0
-2.8375168,1.2020559,-2.2705805,-0.11093286,-0.056330323,-0.9922303,0
3.9331417,-1.4229382,-0.38238883,0.59790957,-0.80127907,-0.021357417,0
-3.4679127,-0.18670857,-2.1212587,-0.11093286,-0.056330323,-0.9922303,0
-3.7236938,-0.079120517,-2.0987701,-0.11093286,-0.056330323,-0.9922303,0
-3.9098403,-0.99884695,-1.6217339,-0.79385018,-0.59563315,0.12256867,0
0.085796088,-3.7938247,-2.3137879,-0.11093286,-0.056330323,-0.9922303,0
2.7594557,-1.0441015,-2.7688129,-0.11093286,-0.056330323,-0.9922303,0
-1.1630747,-4.7152905,-2.1218493,-0.11093286,-0.056330323,-0.9922303,0
-3.5480907,-0.97048074,0.85908794,-0.79385018,-0.59563315,0.12256867,0
-2.0336373,-1.9810996,2.8594108,0.11093286,0.056330323,0.9922303,0
3.3546829,-0.74011385,2.1865349,0.11093286,0.056330323,0.9922303,0
2.5507345,-2.4871964,0.84498143,0.59790957,-0.80127907,-0.021357417,0
3.0855999,-0.45430994,-2.8387599,-0.11093286,-0.056330323,-0.9922303,0
-1.1665001,-4.6069522,-1.3876278,-0.79385018,-0.59563315,0.12256867,0
-4.8473878,0.6380837,0.26078606,-0.79385018,-0.59563315,0.12256867,0
-0.51726353,1.82341,2.4738901,0.11093286,0.056330323,0.9922303,0
-4.9665122,0.57754755,-0.80493808,-0.79385018,-0.59563315,0.12256867,0
-1.7786814,3.1051617,-2.4156046,-0.59790957,0.80127907,0.021357417,0
0.33035612,-4.1398134,0.68679714,0.59790957,-0.80127907,-0.021357417,0
-0.71853375,3.815644,0.60806084,-0.59790957,0.80127907,0.021357417,0
-2.0934277,-0.99836516,2.8103039,0.11093286,0.056330323,0.9922303,0
2.6130607,-2.2569611,-2.6835902,-0.11093286,-0.056330323,-0.9922303,0
2.6870053,-1.1196549,2.2827301,0.11093286,0.056330323,0.9922303,0
0.5134055,4.6929188,2.1834602,-0.59790957,0.80127907,0.021357417,0
-1.2325867,-0.41094863,-2.3584416,-0.11093286,-0.056330323,-0.9922303,0
-4.5966368,0.99270964,-2.0512884,-0.59790957,0.80127907,0.021357417,0
1.8403599,3.6292276,1.0007313,0.79385018,0.59563315,-0.12256867,0
4.1192346,0.10874057,-1.3476144,0.79385018,0.59563315,-0.12256867,0
-0.53889132,3.8915184,-2.6802549,-0.11093286,-0.056330323,-0.9922303,0
1.9545832,-0.78132331,2.3454082,0.11093286,0.056330323,0.9922303,0
4.6118555,0.09474355,1.7749625,0.79385018,0.59563315,-0.12256867,0
-2.0359631,-1.7136083,-2.194669,-0.11093286,-0.056330323,-0.9922303,0
1.2745069,3.6534271,-2.546576,0.79385018,0.59563315,-0.12256867,0
0.2926257,3.4967537,2.2883449,0.11093286,0.056330323,0.9922303,0
-2.8724184,-2.0109055,0.17923152,-0.79385018,-0.59563315,0.12256867,0
2.9166064,1.5099375,-2.327534,0.79385018,0.59563315,-0.12256867,0
-3.609642,-1.4525551,-1.8822511,-0.79385018,-0.59563315,0.12256867,0
-1.7370321,-3.016747,2.6449065,-0.79385018,-0.59563315,0.12256867,0
-2.5372996,-2.0073438,2.3670337,-0.79385018,-0.59563315,0.12256867,0
1.4721975,-3.2189083,-1.8970153,0.59790957,-0.80127907,-0.021357417,0
-1.7199227,3.1412568,-2.1248305,-0.59790957,0.80127907,0.021357417,0
-2.3808794,0.44486642,2.7605076,0.11093286,0.056330323,0.9922303,0
1.2203692,2.5862737,2.2363112,0.11093286,0.056330323,0.9922303,0
0.58729827,-3.8791013,-1.9012792,0.59790957,-0.80127907,-0.021357417,0
3.3263612,-1.8843801,-0.057248592,0.59790957,-0.80127907,-0.021357417,0
3.5162325,1.2138125,0.11706758,0.79385018,0.59563315,-0.12256867,0
2.2768836,-2.6919713,0.86107659,0.59790957,-0.80127907,-0.021357417,0
1.7219043,-0.030040264,2.3287706,0.11093286,0.056330323,0.9922303,0
0.60680187,0.2230556,-2.6000814,-0.11093286,-0.056330323,-0.9922303,0
2.3801999,-2.1759498,-2.6621549,-0.11093286,-0.056330323,-0.9922303,0
-2.5529876,-2.5112333,-0.18327355,-0.79385018,-0.59563315,0.12256867,0
-0.50488067,-4.7923908,1.7871518,0.59790957,-0.80127907,-0.021357417,0
-2.5131686,-2.7912381,-1.2860792,-0.79385018,-0.59563315,0.12256867,0
-1.1884381,-4.2054095,0.42161846,-0.79385018,-0.59563315,0.12256867,0
3.3485508,1.6010435,2.0543098,0.11093286,0.056330323,0.9922303,0
-3.745425,-0.34363341,2.6272182,-0.79385018,-0.59563315,0.12256867,0
0.51164466,-1.5216186,-2.4903951,-0.11093286,-0.056330323,-0.9922303,0
-0.93802363,0.30140138,2.6073382,0.11093286,0.056330323,0.9922303,0
-4.56885,0.79016924,2.8038869,-0.79385018,-0.59563315,0.12256867,0
3.1293912,1.1635828,-2.6325169,0.79385018,0.59563315,-0.12256867,0
-3.5262308,1.613852,-2.2169592,-0.11093286,-0.056330323,-0.9922303,0
0.82599699,4.7709193,-0.020923138,0.79385018,0.59563315,-0.12256867,0
-4.332696,-0.41502535,-1.5233446,-0.79385018,-0.59563315,0.12256867,0
-1.737922,-3.0412915,2.5198643,-0.79385018,-0.59563315,0.12256867,0
4.1308126,-1.2983878,0.47866702,0.59790957,-0.80127907,-0.021357417,0
-0.87015623,-1.5165656,-2.3361943,-0.11093286,-0.056330323,-0.9922303,0
-2.6721015,2.4264257,-1.9627223,-0.59790957,0.80127907,0.021357417,0
0.69625771,-3.8457944,-0.10052967,0.59790957,-0.80127907,-0.021357417,0
-0.95793712,3.66717,-0.5237453,-0.59790957,0.80127907,0.021357417,0
-2.76366,-1.8935286,1.454041,-0.79385018,-0.59563315,0.12256867,0
3.1203508,-2.0673733,1.040869,0.59790957,-0.80127907,-0.021357417,0
-3.9509923,1.434327,-0.54464078,-0.59790957,0.80127907,0.021357417,0
2.028791,-2.8412931,-0.48218822,0.59790957,-0.80127907,-0.021357417,0
1.5550491,-3.1869578,-0.77627254,0.59790957,-0.80127907,-0.021357417,0
-2.5622282,0.68623829,2.7670791,0.11093286,0.056330323,0.9922303,0
-1.4415219,3.2920635,0.011204004,-0.59790957,0.80127907,0.021357417,0
-1.0680279,-4.658885,-1.0022149,-0.79385018,-0.59563315,0.12256867,0
-4.0072494,-0.37763047,0.76622432,-0.79385018,-0.59563315,0.12256867,0
0.1670507,-3.4049459,-2.3449497,-0.11093286,-0.056330323,-0.9922303,0
-2.015326,-2.6027372,2.8543761,-0.79385018,-0.59563315,0.12256867,0
-2.007935,0.51341105,-2.3242338,-0.11093286,-0.056330323,-0.9922303,0
-0.77119607,3.8013377,-0.32950926,-0.59790957,0.80127907,0.021357417,0
-0.30162901,-4.1581888,-2.249788,-0.11093286,-0.056330323,-0.9922303,0
2.3936579,2.8495293,0.79530776,0.79385018,0.59563315,-0.12256867,0
-2.5089021,-2.6482508,-2.0887325,-0.11093286,-0.056330323,-0.9922303,0
-3.7177124,-0.33157969,2.8652806,-0.79385018,-0.59563315,0.12256867,0
2.5377607,2.452883,-0.19890809,0.79385018,0.59563315,-0.12256867,0
4.6776066,-0.78313446,-2.0653102,0.79385018,0.59563315,-0.12256867,0
0.72863978,-3.7964218,-1.0462942,0.59790957,-0.80127907,-0.021357417,0
0.85917842,2.6932616,2.2706189,0.11093286,0.056330323,0.9922303,0
-0.51728469,3.9710658,0.41106176,-0.59790957,0.80127907,0.021357417,0
-3.3732514,-1.2776717,0.49866071,-0.79385018,-0.59563315,0.12256867,0
2.849442,2.0591297,-0.093695402,0.79385018,0.59563315,-0.12256867,0
-0.58362103,-4.7790384,-0.91817069,0.59790957,-0.80127907,-0.021357417,0
2.0495586,3.4338379,1.4061514,0.79385018,0.59563315,-0.12256867,0
0.8153069,2.7780061,-2.7684407,-0.11093286,-0.056330323,-0.9922303,0
0.98944986,-1.9895341,2.5219038,0.11093286,0.056330323,0.9922303,0
5.0305343,-0.55888712,1.3102767,0.79385018,0.59563315,-0.12256867,0
-2.0520515,2.8662283,-1.1045096,-0.59790957,0.80127907,0.021357417,0
-3.7721515,1.0008976,2.8844872,0.11093286,0.056330323,0.9922303,0
-3.0212557,2.0638449,1.8657241,-0.59790957,0.80127907,0.021357417,0
1.0952499,2.1877561,2.2729242,0.11093286,0.056330323,0.9922303,0
2.5313807,-1.5682325,-2.7135582,-0.11093286,-0.056330323,-0.9922303,0
2.834281,-2.3082125,2.0679331,0.59790957,-0.80127907,-0.021357417,0
0.037355661,4.3609028,1.3126802,-0.59790957,0.80127907,0.021357417,0
3.3696198,-1.8716387,0.67574573,0.59790957,-0.80127907,-0.021357417,0
-0.44390428,3.3517046,-2.660229,-0.11093286,-0.056330323,-0.9922303,0
-3.0177994,2.0495691,2.4980745,-0.59790957,0.80127907,0.021357417,0
1.26536,1.1708331,-2.7275159,-0.11093286,-0.056330323,-0.9922303,0
2.4706936,-2.5328581,0.31731606,0.59790957,-0.80127907,-0.021357417,0
-1.4014168,3.2707372,1.9340684,-0.59790957,0.80127907,0.021357417,0
-3.5223334,1.7102565,1.1036372,-0.59790957,0.80127907,0.021357417,0
-1.8337605,-0.22945428,2.7376204,0.11093286,0.056330323,0.9922303,0
3.4413509,-1.4231644,2.2156234,0.11093286,0.056330323,0.9922303,0
2.189218,-2.7727261,1.4365716,0.59790957,-0.80127907,-0.021357417,0
2.8468623,2.0153108,-0.32334656,0.79385018,0.59563315,-0.12256867,0
3.7366197,-1.5434263,-1.3636682,0.59790957,-0.80127907,-0.021357417,0
2.3801367,1.1241279,-2.8494983,-0.11093286,-0.056330323,-0.9922303,0
-3.0037534,-1.2203765,2.9246838,0.11093286,0.056330323,0.9922303,0
1.5589805,-3.2632084,2.1945262,0.59790957,-0.80127907,-0.021357417,0
3.0079093,2.0555654,0.91534251,0.79385018,0.59563315,-0.12256867,0
3.5338743,0.56895185,-2.9024305,0.79385018,0.59563315,-0.12256867,0
-0.76503921,-4.6986094,0.7671299,-0.79385018,-0.59563315,0.12256867,0
-2.1833065,-3.3334928,-1.7847698,-0.79385018,-0.59563315,0.12256867,0
-1.1153818,1.8280566,2.5404968,0.11093286,0.056330323,0.9922303,0
3.4301469,-1.8291363,0.77566147,0.59790957,-0.80127907,-0.021357417,0
-2.5916066,-2.1888216,1.1333897,-0.79385018,-0.59563315,0.12256867,0
2.616838,2.4574084,0.33524948,0.79385018,0.59563315,-0.12256867,0
-2.9435363,-1.7470174,1.0010048,-0.79385018,-0.59563315,0.12256867,0
-1.4551439,-3.7036297,-2.1466291,-0.11093286,-0.056330323,-0.9922303,0
-2.6802535,-2.6361423,-1.6145509,-0.79385018,-0.59563315,0.12256867,0
2.8707476,1.4619086,-2.857954,0.79385018,0.59563315,-0.12256867,0
-4.1111164,-0.20068514,0.95338327,-0.79385018,-0.59563315,0.12256867,0
1.6651543,3.6174214,-0.19141126,0.79385018,0.59563315,-0.12256867,0
0.24755207,-1.6132901,-2.4556646,-0.11093286,-0.056330323,-0.9922303,0
-3.2635906,-1.8135353,-1.3951656,-0.79385018,-0.59563315,0.12256867,0
0.91463208,4.4187851,-1.158082,0.79385018,0.59563315,-0.12256867,0
4.1370301,-1.3012702,0.76087475,0.59790957,-0.80127907,-0.021357417,0
4.4127526,-1.0424232,-1.2314917,0.59790957,-0.80127907,-0.021357417,0
-1.2789146,-0.010352135,-2.3760045,-0.11093286,-0.056330323,-0.9922303,0
-2.6602588,-1.9444765,1.8761611,-0.79385018,-0.59563315,0.12256867,0
0.87803471,0.70294452,-2.6576498,-0.11093286,-0.056330323,-0.9922303,0
1.0231776,4.2997427,-1.0335555,0.79385018,0.59563315,-0.12256867,0
3.6131814,1.4356668,2.0341125,0.11093286,0.056330323,0.9922303,0
0.89447677,-3.6459112,-2.0504112,0.59790957,-0.80127907,-0.021357417,0
-3.8332908,-0.31685138,2.1882792,-0.79385018,-0.59563315,0.12256867,0
-2.4693019,-2.1566954,-2.1210661,-0.11093286,-0.056330323,-0.9922303,0
1.0706328,1.8544345,-2.7445545,-0.11093286,-0.056330323,-0.9922303,0
-4.8474474,0.76165068,-0.40405703,-0.59790957,0.80127907,0.021357417,0
1.5321074,-0.67769718,-2.652395,-0.11093286,-0.056330323,-0.9922303,0
