3.6572254,3.6763842,-0.35721064,0.076491207,0.52134275,-0.84991217,0
-4.5364318,3.0917749,-0.063160658,-0.9955467,-0.0071695447,-0.093995929,0
1.0596888,-3.6300471,0.81015158,-0.076491207,-0.52134275,0.84991217,0
4.6102304,1.3102329,-1.0542321,0.9955467,0.0071695447,0.093995929,0
-0.7621479,-1.6864009,-4.0445242,0.076491207,0.52134275,-0.84991217,0
4.6128554,-1.7854097,-0.84591627,0.9955467,0.0071695447,0.093995929,0
-4.5236378,-2.2251551,0.20688581,-0.9955467,-0.0071695447,-0.093995929,0
-0.34928846,-3.2874064,0.89352393,-0.076491207,-0.52134275,0.84991217,0
-0.0060811043,4.070406,-0.44520795,0.076491207,0.52134275,-0.84991217,0
-4.3483934,0.20170641,-1.8343029,-0.9955467,-0.0071695447,-0.093995929,0
0.86249828,4.0768228,1.0968721,-0.055097699,0.85331714,0.51847267,0
0.066010118,-1.3327813,-3.7530782,0.076491207,0.52134275,-0.84991217,0
1.1642191,3.5952799,-0.63132882,0.076491207,0.52134275,-0.84991217,0
4.4806457,-2.8381701,0.63466454,0.9955467,0.0071695447,0.093995929,0
-2.2121379,-3.3984506,-2.3567815,0.055097699,-0.85331714,-0.51847267,0
-4.3369207,-2.6659856,-1.7370787,-0.9955467,-0.0071695447,-0.093995929,0
-4.5173149,2.7483945,-0.23944116,-0.9955467,-0.0071695447,-0.093995929,0
3.8815846,0.56824541,3.6393845,-0.076491207,-0.52134275,0.84991217,0
4.811357,-1.9169412,-2.9382873,0.9955467,0.0071695447,0.093995929,0
-1.625508,2.4747894,-1.5697188,0.076491207,0.52134275,-0.84991217,0
-3.5932832,-1.5030003,-4.1868248,0.076491207,0.52134275,-0.84991217,0
-3.0955014,-1.8946645,1.5006864,-0.076491207,-0.52134275,0.84991217,0
-4.2016926,-3.4357593,-2.5068069,0.055097699,-0.85331714,-0.51847267,0
-4.4631128,-2.7340515,-0.3953352,-0.9955467,-0.0071695447,-0.093995929,0
1.6995611,0.8256495,3.6008987,-0.076491207,-0.52134275,0.84991217,0
3.5450518,-2.6652012,-2.9517729,0.055097699,-0.85331714,-0.51847267,0
1.7952871,-0.22426391,-2.9174714,0.076491207,0.52134275,-0.84991217,0
-4.695446,2.7734816,1.645299,-0.9955467,-0.0071695447,-0.093995929,0
-0.30105758,2.2748694,3.9389286,-0.055097699,0.85331714,0.51847267,0
-3.1141653,-0.032192826,2.6414614,-0.076491207,-0.52134275,0.84991217,0
-2.0123308,-4.1735129,0.20030689,-0.076491207,-0.52134275,0.84991217,0
4.7368951,-2.3036447,-2.1201363,0.9955467,0.0071695447,0.093995929,0
-2.5541203,1.6515512,-2.1582737,0.076491207,0.52134275,-0.84991217,0
4.3799596,0.8110702,1.422718,0.9955467,0.0071695447,0.093995929,0
-2.1371,-2.367938,-4.0448546,0.055097699,-0.85331714,-0.51847267,0
4.6954288,0.62103695,-2.1379476,0.076491207,0.52134275,-0.84991217,0
-2.3251352,2.9650202,2.5879617,-0.055097699,0.85331714,0.51847267,0
4.5749869,-3.9387703,-0.28058624,0.9955467,0.0071695447,0.093995929,0
-1.7656691,-2.9210827,-3.0950012,0.055097699,-0.85331714,-0.51847267,0
3.7918885,2.7443578,3.6011848,-0.055097699,0.85331714,0.51847267,0
-4.117382,-4.2321773,-0.025130272,-0.076491207,-0.52134275,0.84991217,0
-2.9559264,-2.1961687,-4.4145737,0.055097699,-0.85331714,-0.51847267,0
-4.2126112,-2.6455159,-3.0552435,-0.9955467,-0.0071695447,-0.093995929,0
-1.4666634,-4.3947082,-0.63789105,0.055097699,-0.85331714,-0.51847267,0
4.4138432,-1.1994274,1.2171993,0.9955467,0.0071695447,0.093995929,0
0.92940569,3.2642746,2.4412975,-0.055097699,0.85331714,0.51847267,0
4.3133655,-3.8581233,-0.90678,0.055097699,-0.85331714,-0.51847267,0
-4.451189,3.7424591,-1.0156238,-0.9955467,-0.0071695447,-0.093995929,0
1.3512821,1.0837111,3.7278514,-0.076491207,-0.52134275,0.84991217,0
3.6534243,-2.3588791,1.8233297,-0.076491207,-0.52134275,0.84991217,0
-4.0775738,-2.0282128,-4.5325584,-0.9955467,-0.0071695447,-0.093995929,0
4.2198429,4.5475245,0.22778893,0.076491207,0.52134275,-0.84991217,0
-4.1463394,2.0656023,-2.0475898,0.076491207,0.52134275,-0.84991217,0
-2.9373415,-3.545768,-2.1913881,0.055097699,-0.85331714,-0.51847267,0
0.34301943,0.12964392,3.0518763,-0.076491207,-0.52134275,0.84991217,0
-4.2965846,-4.2787204,-1.1295199,0.055097699,-0.85331714,-0.51847267,0
-1.8035094,-0.30030179,2.5949588,-0.076491207,-0.52134275,0.84991217,0
-2.5250726,0.52701759,-2.8454568,0.076491207,0.52134275,-0.84991217,0
-4.5842385,-2.3472383,0.8580451,-0.9955467,-0.0071695447,-0.093995929,0
-1.2844172,-0.93919921,2.2497718,-0.076491207,-0.52134275,0.84991217,0
-0.59907866,-2.8166864,-3.1428471,0.055097699,-0.85331714,-0.51847267,0
-4.7278934,2.6937654,1.9950423,-0.9955467,-0.0071695447,-0.093995929,0
4.757288,-0.12062395,-2.5026379,0.9955467,0.0071695447,0.093995929,0
-0.35730648,-3.9012163,-1.3322041,0.055097699,-0.85331714,-0.51847267,0
-3.375139,-0.20726359,2.5105841,-0.076491207,-0.52134275,0.84991217,0
4.526648,-2.116653,0.092403412,0.9955467,0.0071695447,0.093995929,0
4.1375227,-1.5102696,2.3874416,-0.076491207,-0.52134275,0.84991217,0
-1.4148977,-0.3162384,2.6201577,-0.076491207,-0.52134275,0.84991217,0
1.7609172,4.2641134,0.88409805,-0.055097699,0.85331714,0.51847267,0
-2.4066648,-0.049060583,2.6947889,-0.076491207,-0.52134275,0.84991217,0
4.1884804,3.3721073,2.6101627,-0.055097699,0.85331714,0.51847267,0
3.6500683,2.8021479,3.4910011,-0.055097699,0.85331714,0.51847267,0
-4.3654714,-4.0690298,-1.3276725,-0.9955467,-0.0071695447,-0.093995929,0
4.3721337,2.1187739,1.4058599,0.9955467,0.0071695447,0.093995929,0
4.2760239,0.73988414,2.5289669,0.9955467,0.0071695447,0.093995929,0
-0.23361254,-4.1725688,-0.87245941,0.055097699,-0.85331714,-0.51847267,0
4.5482388,2.6159182,-0.49725246,0.9955467,0.0071695447,0.093995929,0
0.82103968,1.6401827,-1.8614866,0.076491207,0.52134275,-0.84991217,0
-1.1736451,-0.81036019,2.3387718,-0.076491207,-0.52134275,0.84991217,0
-3.931628,3.7434404,1.1360954,-0.055097699,0.85331714,0.51847267,0
-4.2756577,-2.7532816,-2.3792772,-0.9955467,-0.0071695447,-0.093995929,0
4.4099817,3.7308986,0.88202763,0.9955467,0.0071695447,0.093995929,0
-4.1990423,-1.6827805,-3.2723923,-0.9955467,-0.0071695447,-0.093995929,0
-4.3678708,-0.88495946,-1.5451207,-0.9955467,-0.0071695447,-0.093995929,0
-4.7603259,2.7481918,2.3343968,-0.9955467,-0.0071695447,-0.093995929,0
0.56241345,-2.7036219,-3.2055018,0.055097699,-0.85331714,-0.51847267,0
-2.6781754,1.4023701,3.5606723,-0.076491207,-0.52134275,0.84991217,0
2.6306205,-4.6472592,0.32756782,-0.076491207,-0.52134275,0.84991217,0
4.4338093,-0.413661,0.9457984,0.9955467,0.0071695447,0.093995929,0
-4.3562531,2.4540372,-1.8282123,0.076491207,0.52134275,-0.84991217,0
-4.4729118,-3.7021708,-0.21771002,-0.9955467,-0.0071695447,-0.093995929,0
-4.6964264,-0.88244045,1.9345348,-0.9955467,-0.0071695447,-0.093995929,0
-3.2330134,4.5577168,-0.12982321,-0.055097699,0.85331714,0.51847267,0
-0.39802048,-0.84930921,2.3846858,-0.076491207,-0.52134275,0.84991217,0
-0.29367661,2.9007473,-1.1885698,0.076491207,0.52134275,-0.84991217,0
-2.7959285,2.3916292,3.4816341,-0.055097699,0.85331714,0.51847267,0
-4.8237038,2.1164384,3.0538402,-0.9955467,-0.0071695447,-0.093995929,0
-3.5593774,0.21491349,2.7529697,-0.076491207,-0.52134275,0.84991217,0
1.0910354,-4.2479148,0.43396801,-0.076491207,-0.52134275,0.84991217,0
-4.6919298,1.502898,1.704972,-0.9955467,-0.0071695447,-0.093995929,0
-0.98795426,-0.49859262,2.5467246,-0.076491207,-0.52134275,0.84991217,0
4.7116838,-2.1149509,-3.7334142,0.055097699,-0.85331714,-0.51847267,0
3.9283991,-4.2713304,-0.26762176,0.055097699,-0.85331714,-0.51847267,0
4.6319761,-2.3643131,-1.0042751,0.9955467,0.0071695447,0.093995929,0
-4.6914148,0.93480396,1.7428505,-0.9955467,-0.0071695447,-0.093995929,0
-4.6083164,0.62691689,0.88620973,-0.9955467,-0.0071695447,-0.093995929,0
-1.4116617,-1.4831553,-3.978307,0.076491207,0.52134275,-0.84991217,0
-4.1675777,3.1391797,-1.3909602,0.076491207,0.52134275,-0.84991217,0
-3.9517999,2.7192829,2.8195391,-0.055097699,0.85331714,0.51847267,0
3.1807168,2.3392792,4.2029271,-0.055097699,0.85331714,0.51847267,0
0.083533287,4.4921374,0.33055496,-0.055097699,0.85331714,0.51847267,0
0.36901689,-2.5493331,-3.4799867,0.055097699,-0.85331714,-0.51847267,0
-4.5308347,2.1431808,-0.050086498,-0.9955467,-0.0071695447,-0.093995929,0
3.1540744,-2.5421963,-3.1957672,0.055097699,-0.85331714,-0.51847267,0
-4.403142,-0.72327542,-1.1838832,-0.9955467,-0.0071695447,-0.093995929,0
-2.3155971,0.49243665,-2.8478172,0.076491207,0.52134275,-0.84991217,0
-1.892884,3.7146351,1.4001596,-0.055097699,0.85331714,0.51847267,0
-4.8535824,2.1851726,3.3650496,-0.9955467,-0.0071695447,-0.093995929,0
-1.7485702,-1.4236637,1.9108241,-0.076491207,-0.52134275,0.84991217,0
-0.7193594,2.0159295,-1.7696348,0.076491207,0.52134275,-0.84991217,0
-1.6019521,-4.671936,-0.19599915,0.055097699,-0.85331714,-0.51847267,0
-3.1155813,3.7038791,-0.94989038,0.076491207,0.52134275,-0.84991217,0
3.3627536,-0.12506151,3.1674111,-0.076491207,-0.52134275,0.84991217,0
-4.3522158,-0.037189722,-1.7755957,-0.9955467,-0.0071695447,-0.093995929,0
-3.7704945,-0.31741226,2.4074364,-0.076491207,-0.52134275,0.84991217,0
-0.0011138916,-4.4179516,-0.44389439,0.055097699,-0.85331714,-0.51847267,0
-3.0925384,-2.3287237,-4.210927,0.055097699,-0.85331714,-0.51847267,0
-3.6011958,-4.4856052,-0.13412905,-0.076491207,-0.52134275,0.84991217,0
4.6533661,-1.964947,-1.261281,0.9955467,0.0071695447,0.093995929,0
-2.5825791,0.66913748,-2.7634554,0.076491207,0.52134275,-0.84991217,0
-2.8286059,-1.0416105,2.0479767,-0.076491207,-0.52134275,0.84991217,0
-4.5098925,-3.2993562,0.14324331,-0.9955467,-0.0071695447,-0.093995929,0
2.3360255,0.2135942,-2.6002197,0.076491207,0.52134275,-0.84991217,0
-3.2417431,-3.711628,0.37298536,-0.076491207,-0.52134275,0.84991217,0
2.9288607,-2.673733,-3.0032134,0.055097699,-0.85331714,-0.51847267,0
3.587049,4.6408315,0.45814562,-0.055097699,0.85331714,0.51847267,0
-4.2915869,-0.12686801,-2.4109001,-0.9955467,-0.0071695447,-0.093995929,0
2.9164228,2.3079791,4.2263541,-0.055097699,0.85331714,0.51847267,0
-4.8106151,1.209296,2.9844058,-0.9955467,-0.0071695447,-0.093995929,0
-0.000831604,-2.1919978,-4.1074023,0.055097699,-0.85331714,-0.51847267,0
4.6754208,1.239104,-1.7392647,0.9955467,0.0071695447,0.093995929,0
-3.1127672,2.928694,2.5640478,-0.055097699,0.85331714,0.51847267,0
0.48296529,-0.02658534,-2.9143214,0.076491207,0.52134275,-0.84991217,0
1.6580985,-4.2023945,-0.62234116,0.055097699,-0.85331714,-0.51847267,0
-0.77619404,0.82568097,3.3781025,-0.076491207,-0.52134275,0.84991217,0
-0.62389433,1.5674922,-2.036118,0.076491207,0.52134275,-0.84991217,0
2.7451046,-2.7221179,-2.9431078,0.055097699,-0.85331714,-0.51847267,0
-4.1698675,-1.9550035,-3.5606265,-0.9955467,-0.0071695447,-0.093995929,0
1.9142528,1.4324864,-1.890501,0.076491207,0.52134275,-0.84991217,0
4.5309896,0.63029891,-0.16310501,0.9955467,0.0071695447,0.093995929,0
-3.424006,0.1746285,2.7404418,-0.076491207,-0.52134275,0.84991217,0
-0.17585754,-4.4008269,-0.49064851,0.055097699,-0.85331714,-0.51847267,0
2.6339235,1.9117953,-1.5317194,0.076491207,0.52134275,-0.84991217,0
-4.4248238,3.1216631,-1.2475207,-0.9955467,-0.0071695447,-0.093995929,0
4.7549348,-1.8191777,-2.3481576,0.9955467,0.0071695447,0.093995929,0
-1.9132344,2.7499442,2.9857125,-0.055097699,0.85331714,0.51847267,0
4.4145489,-2.5357349,1.3116541,0.9955467,0.0071695447,0.093995929,0
4.5082064,-3.2234282,0.37214541,0.9955467,0.0071695447,0.093995929,0
4.3825707,3.1330829,1.2179513,0.9955467,0.0071695447,0.093995929,0
-2.2968144,-3.0099797,-3.0051374,0.055097699,-0.85331714,-0.51847267,0
-4.4893012,3.7970455,-0.61613035,-0.9955467,-0.0071695447,-0.093995929,0
-3.9202828,-4.4155903,-0.86426783,0.055097699,-0.85331714,-0.51847267,0
-4.4447403,0.61920094,-0.8456974,-0.9955467,-0.0071695447,-0.093995929,0
-0.49068952,1.1627774,-2.2723851,0.076491207,0.52134275,-0.84991217,0
0.017289162,2.35253,3.8449433,-0.055097699,0.85331714,0.51847267,0
2.9769888,-1.0402319,-3.3116407,0.076491207,0.52134275,-0.84991217,0
-3.645596,2.1418498,-1.9557528,0.076491207,0.52134275,-0.84991217,0
-2.4157803,3.8147488,-0.81890088,0.076491207,0.52134275,-0.84991217,0
4.1317701,2.0998471,3.9530869,0.9955467,0.0071695447,0.093995929,0
2.7443147,-2.8062906,-2.8046577,0.055097699,-0.85331714,-0.51847267,0
4.6926479,-1.8283569,-1.6877503,0.9955467,0.0071695447,0.093995929,0
2.9554696,-2.7414155,-2.8889914,0.055097699,-0.85331714,-0.51847267,0
-1.7933609,0.79913759,3.270277,-0.076491207,-0.52134275,0.84991217,0
2.5809176,-0.28965569,2.9960833,-0.076491207,-0.52134275,0.84991217,0
3.8731549,0.9974407,-1.9810629,0.076491207,0.52134275,-0.84991217,0
4.5156627,-4.2529111,0.37169576,0.9955467,0.0071695447,0.093995929,0
4.3543849,3.5915773,1.4815116,0.9955467,0.0071695447,0.093995929,0
0.48276806,4.5616426,0.25858831,-0.055097699,0.85331714,0.51847267,0
-0.27125907,2.367722,3.7892754,-0.055097699,0.85331714,0.51847267,0
-2.3561816,4.323339,-0.50156367,0.076491207,0.52134275,-0.84991217,0
-0.85794687,-4.7144976,-0.046885252,0.055097699,-0.85331714,-0.51847267,0
-2.715142,-2.1489966,-4.4666224,0.055097699,-0.85331714,-0.51847267,0
3.7318823,2.2382169,4.4278293,-0.055097699,0.85331714,0.51847267,0
0.81739902,3.9996278,1.2191293,-0.055097699,0.85331714,0.51847267,0
-4.0576,4.244215,0.29851985,-0.055097699,0.85331714,0.51847267,0
-4.6257424,-1.2119174,1.2110286,-0.9955467,-0.0071695447,-0.093995929,0
-4.1239285,4.4952707,-0.12172556,-0.055097699,0.85331714,0.51847267,0
4.6877532,0.95284039,-1.8480515,0.9955467,0.0071695447,0.093995929,0
-3.4055138,-0.77077246,-3.7207711,0.076491207,0.52134275,-0.84991217,0
4.4932857,-4.1943588,0.60423684,0.9955467,0.0071695447,0.093995929,0
-3.8991661,-2.9388456,-3.292491,0.055097699,-0.85331714,-0.51847267,0
-4.6597447,2.0409725,3.7740564,-0.076491207,-0.52134275,0.84991217,0
-4.2890859,2.3156965,3.4479303,-0.055097699,0.85331714,0.51847267,0
2.7417803,1.4687924,-1.7937541,0.076491207,0.52134275,-0.84991217,0
-4.5547609,2.1109247,0.20578933,-0.9955467,-0.0071695447,-0.093995929,0
-3.6723478,4.4996233,-0.080899239,-0.055097699,0.85331714,0.51847267,0
-4.3105745,-3.7502766,0.25308371,-0.076491207,-0.52134275,0.84991217,0
-0.19709635,-4.5759025,-0.20476031,0.055097699,-0.85331714,-0.51847267,0
-4.4241204,0.57447052,-1.060678,-0.9955467,-0.0071695447,-0.093995929,0
1.8982363,-1.2692139,2.3337736,-0.076491207,-0.52134275,0.84991217,0
-4.6049514,1.2801926,0.80073738,-0.9955467,-0.0071695447,-0.093995929,0
4.5211043,-1.2761697,0.087010384,0.9955467,0.0071695447,0.093995929,0
0.16953945,-4.4346571,-0.39826429,0.055097699,-0.85331714,-0.51847267,0
-4.5282326,0.97554433,3.1323507,-0.076491207,-0.52134275,0.84991217,0
-4.2209992,-1.4628925,-3.056612,-0.9955467,-0.0071695447,-0.093995929,0
1.8597496,3.6086664,1.9733546,-0.055097699,0.85331714,0.51847267,0
-4.1427784,-2.0532677,-3.8400402,-0.9955467,-0.0071695447,-0.093995929,0
4.0001793,2.0011454,-1.35395,0.076491207,0.52134275,-0.84991217,0
-0.78702784,2.4219148,3.6452739,-0.055097699,0.85331714,0.51847267,0
-4.4058857,2.7079442,-1.4165421,-0.9955467,-0.0071695447,-0.093995929,0
4.6077995,-0.44721001,-0.89443803,0.9955467,0.0071695447,0.093995929,0
4.5014615,-4.4439077,0.53667521,0.9955467,0.0071695447,0.093995929,0
-3.6745996,0.19147313,2.7282212,-0.076491207,-0.52134275,0.84991217,0
4.3376112,-3.4390035,-1.5940024,0.055097699,-0.85331714,-0.51847267,0
-2.8646333,-1.992557,-4.4215441,0.076491207,0.52134275,-0.84991217,0
-4.2597551,-1.6970417,-2.6282687,-0.9955467,-0.0071695447,-0.093995929,0
2.5982974,0.8552866,-2.1829967,0.076491207,0.52134275,-0.84991217,0
-1.3641083,3.9481132,1.0720867,-0.055097699,0.85331714,0.51847267,0
0.069268227,1.0134313,-2.3135996,0.076491207,0.52134275,-0.84991217,0
-4.7574201,1.8055689,2.3755174,-0.9955467,-0.0071695447,-0.093995929,0
-4.2462702,-3.0178654,-2.6703491,-0.9955467,-0.0071695447,-0.093995929,0
0.75636387,3.7228284,1.6682076,-0.055097699,0.85331714,0.51847267,0
4.3610187,0.39525008,1.6550455,0.9955467,0.0071695447,0.093995929,0
2.816009,-4.348525,-0.25878567,0.055097699,-0.85331714,-0.51847267,0
-4.4348612,2.0497541,-1.0594501,-0.9955467,-0.0071695447,-0.093995929,0
-4.0460601,-1.9381852,-4.4945197,0.076491207,0.52134275,-0.84991217,0
-4.3318887,-2.8730371,-1.7745857,-0.9955467,-0.0071695447,-0.093995929,0
-4.422987,-3.9481215,-0.72771835,-0.9955467,-0.0071695447,-0.093995929,0
0.52656698,1.7472706,4.0606604,-0.076491207,-0.52134275,0.84991217,0
-0.029777527,-3.981185,-1.1657833,0.055097699,-0.85331714,-0.51847267,0
0.29831064,1.8164566,-1.8004038,0.076491207,0.52134275,-0.84991217,0
-4.639874,-0.69617546,1.3213613,-0.9955467,-0.0071695447,-0.093995929,0
2.0481319,-1.1101089,2.4448605,-0.076491207,-0.52134275,0.84991217,0
-4.3903813,1.8632472,-1.5163221,-0.9955467,-0.0071695447,-0.093995929,0
0.44032812,3.9281597,1.2966826,-0.055097699,0.85331714,0.51847267,0
0.78443623,4.4528794,0.46965218,-0.055097699,0.85331714,0.51847267,0
1.5000213,0.76910639,3.5482564,-0.076491207,-0.52134275,0.84991217,0
4.5938764,0.53502047,-0.82189512,0.9955467,0.0071695447,0.093995929,0
-4.4016929,0.56124711,-1.2972083,-0.9955467,-0.0071695447,-0.093995929,0
-4.0812678,-1.9907711,-4.4962916,-0.9955467,-0.0071695447,-0.093995929,0
0.93852234,-2.7458992,-3.0959511,0.055097699,-0.85331714,-0.51847267,0
-3.4674494,-4.342073,-0.03404808,-0.076491207,-0.52134275,0.84991217,0
1.6404372,-2.1874928,-3.9404006,0.055097699,-0.85331714,-0.51847267,0
-2.1270456,-3.3546922,0.69225359,-0.076491207,-0.52134275,0.84991217,0
-4.188282,-0.58164167,-3.4703481,-0.9955467,-0.0071695447,-0.093995929,0
3.3107724,-4.411582,-0.10242617,0.055097699,-0.85331714,-0.51847267,0
1.8664916,-2.156199,-3.9678824,0.055097699,-0.85331714,-0.51847267,0
-4.5242314,-2.4560564,0.23078299,-0.9955467,-0.0071695447,-0.093995929,0
-4.5291553,1.9372953,-0.052167177,-0.9955467,-0.0071695447,-0.093995929,0
1.5516284,3.2720056,-0.79476142,0.076491207,0.52134275,-0.84991217,0
4.5285635,-1.400777,0.017510891,0.9955467,0.0071695447,0.093995929,0
-0.019550323,-3.7537897,-1.5389494,0.055097699,-0.85331714,-0.51847267,0
-0.68843603,3.5428934,1.8108113,-0.055097699,0.85331714,0.51847267,0
1.5335827,-3.4468746,-1.8790293,0.055097699,-0.85331714,-0.51847267,0
3.1902657,2.9188919,3.2499971,-0.055097699,0.85331714,0.51847267,0
4.5893173,2.579987,-0.92958927,0.9955467,0.0071695447,0.093995929,0
-4.3691778,2.3074436,-1.7747796,-0.9955467,-0.0071695447,-0.093995929,0
4.4573693,-1.668663,0.79199076,0.9955467,0.0071695447,0.093995929,0
-4.4187822,3.2342951,-1.3201001,-0.9955467,-0.0071695447,-0.093995929,0
2.9083538,-2.225332,-3.7433834,0.055097699,-0.85331714,-0.51847267,0
-3.2049699,-1.4396255,-4.1130018,0.076491207,0.52134275,-0.84991217,0
4.3259654,2.1721468,1.8907728,0.9955467,0.0071695447,0.093995929,0
-4.7329683,-0.18823141,2.2686157,-0.9955467,-0.0071695447,-0.093995929,0
0.13212442,-4.368988,-0.51031995,0.055097699,-0.85331714,-0.51847267,0
2.3893304,1.2843091,3.9443226,-0.076491207,-0.52134275,0.84991217,0
0.063192844,1.8780737,-1.7837677,0.076491207,0.52134275,-0.84991217,0
4.498991,-3.2390087,0.47093701,0.9955467,0.0071695447,0.093995929,0
-0.19800091,-2.0743625,1.65123,-0.076491207,-0.52134275,0.84991217,0
-1.6211679,-2.7608151,-3.3434191,0.055097699,-0.85331714,-0.51847267,0
-4.699482,1.084285,1.8168852,-0.9955467,-0.0071695447,-0.093995929,0
-1.6504196,-1.7111506,1.7433109,-0.076491207,-0.52134275,0.84991217,0
4.3326263,-0.59704447,2.0314524,0.9955467,0.0071695447,0.093995929,0
2.9240773,-4.4009805,-0.1609686,0.055097699,-0.85331714,-0.51847267,0
3.6848249,2.4880078,4.0117145,-0.055097699,0.85331714,0.51847267,0
4.4722419,2.9465885,0.28243637,0.9955467,0.0071695447,0.093995929,0
-0.62268353,-3.7867782,-1.5487511,0.055097699,-0.85331714,-0.51847267,0
0.60023737,4.128469,-0.3550241,0.076491207,0.52134275,-0.84991217,0
4.2582712,-3.5326674,-1.4482791,0.055097699,-0.85331714,-0.51847267,0
-4.2821331,-1.3154597,-2.4203663,-0.9955467,-0.0071695447,-0.093995929,0
-0.19312477,-4.6773863,-0.0373137,0.055097699,-0.85331714,-0.51847267,0
3.886487,1.8756168,-1.4411826,0.076491207,0.52134275,-0.84991217,0
-4.385179,-1.8884143,-1.285265,-0.9955467,-0.0071695447,-0.093995929,0
-4.4022026,-0.65907705,-1.1987286,-0.9955467,-0.0071695447,-0.093995929,0
1.9789485,1.5998356,-1.7820252,0.076491207,0.52134275,-0.84991217,0
0.13831758,-4.1780572,-0.82390237,0.055097699,-0.85331714,-0.51847267,0
4.5400314,2.1919761,-0.37798548,0.9955467,0.0071695447,0.093995929,0
2.3011956,3.7944574,1.7144856,-0.055097699,0.85331714,0.51847267,0
4.2612782,1.0175343,2.6639714,0.9955467,0.0071695447,0.093995929,0
4.5237474,-1.0657682,0.042966366,0.9955467,0.0071695447,0.093995929,0
-4.3815417,-1.842603,-1.3272839,-0.9955467,-0.0071695447,-0.093995929,0
4.363935,-2.0403957,1.8099434,0.9955467,0.0071695447,0.093995929,0
-1.9609389,4.249311,0.5129419,-0.055097699,0.85331714,0.51847267,0
1.7582405,-3.5561683,-1.6752768,0.055097699,-0.85331714,-0.51847267,0
-2.9035685,1.2322563,3.436038,-0.076491207,-0.52134275,0.84991217,0
-0.78192377,-2.9545445,1.0587668,-0.076491207,-0.52134275,0.84991217,0
-3.7602611,-1.5254989,1.6673079,-0.076491207,-0.52134275,0.84991217,0
2.1344376,-4.0489068,0.64994597,-0.076491207,-0.52134275,0.84991217,0
-0.17296505,-2.7659223,1.2292747,-0.076491207,-0.52134275,0.84991217,0
2.9710283,-1.7640328,2.1267979,-0.076491207,-0.52134275,0.84991217,0
-4.5376849,-2.5752566,0.38236856,-0.9955467,-0.0071695447,-0.093995929,0
-0.4776814,3.6926322,1.5867642,-0.055097699,0.85331714,0.51847267,0
-1.5040681,-2.5117011,-3.7409732,0.055097699,-0.85331714,-0.51847267,0
2.2613077,1.649413,-1.7262021,0.076491207,0.52134275,-0.84991217,0
4.3828316,2.4538817,1.2669964,0.9955467,0.0071695447,0.093995929,0
2.9681067,0.63458538,3.5978665,-0.076491207,-0.52134275,0.84991217,0
-1.5360003,-3.0167954,0.95271564,-0.076491207,-0.52134275,0.84991217,0
-0.3465364,-3.2014439,-2.482765,0.055097699,-0.85331714,-0.51847267,0
2.2557564,-2.9018512,-2.6993001,0.055097699,-0.85331714,-0.51847267,0
-3.1160975,-4.694787,-0.31929588,0.055097699,-0.85331714,-0.51847267,0
-0.29807425,-2.6509824,-3.3835802,0.055097699,-0.85331714,-0.51847267,0
-4.0997109,-4.6481271,-0.50061989,0.055097699,-0.85331714,-0.51847267,0
3.3663304,-2.4549966,1.7385323,-0.076491207,-0.52134275,0.84991217,0
-0.93561244,1.4870892,3.7694678,-0.076491207,-0.52134275,0.84991217,0
4.5321755,-2.9026814,0.093815327,0.9955467,0.0071695447,0.093995929,0
-3.9281423,-3.0868413,-3.0519953,0.055097699,-0.85331714,-0.51847267,0
-2.1647451,3.4790015,1.7590814,-0.055097699,0.85331714,0.51847267,0
-4.3513861,1.0865073,-1.8700888,-0.9955467,-0.0071695447,-0.093995929,0
0.18333507,2.7869802,3.1475582,-0.055097699,0.85331714,0.51847267,0
0.42254925,3.3751402,2.2049685,-0.055097699,0.85331714,0.51847267,0
-0.95228863,-3.2700579,-2.4342105,0.055097699,-0.85331714,-0.51847267,0
-1.149539,0.26036167,2.997731,-0.076491207,-0.52134275,0.84991217,0
1.8078318,3.0851197,2.8295047,-0.055097699,0.85331714,0.51847267,0
1.4100749,-3.9272428,-1.1015515,0.055097699,-0.85331714,-0.51847267,0
4.3928261,3.9969921,1.0434394,0.9955467,0.0071695447,0.093995929,0
4.574852,-1.9199165,-0.43315005,0.9955467,0.0071695447,0.093995929,0
4.4942241,0.47353101,-2.246537,0.076491207,0.52134275,-0.84991217,0
0.34267259,-2.5011892,-3.5620227,0.055097699,-0.85331714,-0.51847267,0
2.3804491,3.0885856,-0.83267951,0.076491207,0.52134275,-0.84991217,0
-2.5871773,3.102649,2.3336015,-0.055097699,0.85331714,0.51847267,0
2.3290994,2.5558329,3.7560153,-0.055097699,0.85331714,0.51847267,0
0.42920351,-3.7511787,-1.4955587,0.055097699,-0.85331714,-0.51847267,0
3.8229342,-3.0925145,-2.2189579,0.055097699,-0.85331714,-0.51847267,0
4.255765,0.9161942,2.7300892,0.9955467,0.0071695447,0.093995929,0
-2.894434,-3.9186239,-1.5731721,0.055097699,-0.85331714,-0.51847267,0
-4.3586493,-2.7989411,-1.4968047,-0.9955467,-0.0071695447,-0.093995929,0
2.8240981,-2.1302037,-3.9089022,0.055097699,-0.85331714,-0.51847267,0
4.6940269,-2.2611928,-1.6693423,0.9955467,0.0071695447,0.093995929,0
4.6030502,-2.9072134,-0.65649986,0.9955467,0.0071695447,0.093995929,0
2.5015922,2.4700317,-1.2012026,0.076491207,0.52134275,-0.84991217,0
-4.4449825,3.0922484,-1.03177,-0.9955467,-0.0071695447,-0.093995929,0
4.4978528,-1.9554296,0.38508654,0.9955467,0.0071695447,0.093995929,0
-4.1817784,-1.1301863,-3.497386,-0.9955467,-0.0071695447,-0.093995929,0
-4.556056,2.4942245,0.19026875,-0.9955467,-0.0071695447,-0.093995929,0
-4.1137714,-1.6725562,-4.1763039,-0.9955467,-0.0071695447,-0.093995929,0
-3.4323554,-4.3369613,-0.94182587,0.055097699,-0.85331714,-0.51847267,0
-3.80404,3.8429267,0.98591578,-0.055097699,0.85331714,0.51847267,0
-4.4444237,-3.0489664,-0.56926966,-0.9955467,-0.0071695447,-0.093995929,0
-1.2136559,-1.0234292,-3.6784873,0.076491207,0.52134275,-0.84991217,0
4.37078,4.5144053,0.7495079,-0.055097699,0.85331714,0.51847267,0
4.413887,3.5163007,0.85703897,0.9955467,0.0071695447,0.093995929,0
-4.7263021,0.1481998,2.1723499,-0.9955467,-0.0071695447,-0.093995929,0
-4.3561544,-4.0354753,-1.4289074,-0.9955467,-0.0071695447,-0.093995929,0
-3.7814398,-4.1659899,-1.2603121,0.055097699,-0.85331714,-0.51847267,0
-3.3545671,3.738626,1.2053427,-0.055097699,0.85331714,0.51847267,0
-4.4266925,-2.5643039,-0.79402351,-0.9955467,-0.0071695447,-0.093995929,0
-4.1543756,-1.0248046,-3.7956605,-0.9955467,-0.0071695447,-0.093995929,0
-2.8185651,-2.3649809,-4.1221399,0.055097699,-0.85331714,-0.51847267,0
-1.62359,-4.0295,-1.2556374,0.055097699,-0.85331714,-0.51847267,0
-4.3709698,-4.1576385,-1.2626739,-0.9955467,-0.0071695447,-0.093995929,0
-3.266366,1.3282249,-2.4207058,0.076491207,0.52134275,-0.84991217,0
4.402318,3.8245149,0.95606852,0.9955467,0.0071695447,0.093995929,0
2.6277549,3.8799422,1.6084957,-0.055097699,0.85331714,0.51847267,0
-4.0382719,-3.9236534,-1.6864486,0.055097699,-0.85331714,-0.51847267,0
1.2455912,-0.48548913,2.7557793,-0.076491207,-0.52134275,0.84991217,0
4.4487677,3.6857967,0.47467661,0.9955467,0.0071695447,0.093995929,0
-4.1690297,-2.8664076,0.80799532,-0.076491207,-0.52134275,0.84991217,0
-4.4157529,2.8627486,-1.3238444,-0.9955467,-0.0071695447,-0.093995929,0
4.4030075,-1.1266322,1.3264081,0.9955467,0.0071695447,0.093995929,0
-2.6666646,3.2588956,2.0679996,-0.055097699,0.85331714,0.51847267,0
1.881233,3.3096623,2.4677474,-0.055097699,0.85331714,0.51847267,0
1.4967859,-2.9999912,1.2359715,-0.076491207,-0.52134275,0.84991217,0
-1.7331103,2.4104965,3.5635269,-0.055097699,0.85331714,0.51847267,0
1.383955,-3.0414383,1.2003927,-0.076491207,-0.52134275,0.84991217,0
-1.7379057,0.83763027,-2.5840812,0.076491207,0.52134275,-0.84991217,0
-3.0323696,4.0917439,0.65841103,-0.055097699,0.85331714,0.51847267,0
-0.21351483,0.63587213,-2.5706472,0.076491207,0.52134275,-0.84991217,0
-2.2814913,-2.0484242,-4.4033313,0.076491207,0.52134275,-0.84991217,0
1.094543,4.1109028,1.0654414,-0.055097699,0.85331714,0.51847267,0
-4.780859,1.0705152,2.6798308,-0.9955467,-0.0071695447,-0.093995929,0
0.32352757,-4.0891938,0.46225381,-0.076491207,-0.52134275,0.84991217,0
2.3919179,-1.4432869,2.2714267,-0.076491207,-0.52134275,0.84991217,0
-4.3975945,2.1573684,-1.4623649,-0.9955467,-0.0071695447,-0.093995929,0
-3.2923732,3.8208764,1.0765818,-0.055097699,0.85331714,0.51847267,0
1.0478315,-2.8943443,-2.8400197,0.055097699,-0.85331714,-0.51847267,0
-4.4902377,-1.133204,-0.23015738,-0.9955467,-0.0071695447,-0.093995929,0
2.6826992,-2.1847932,-3.8340836,0.055097699,-0.85331714,-0.51847267,0
2.5466528,1.8652006,-1.5681555,0.076491207,0.52134275,-0.84991217,0
-4.3140497,-2.3366199,-2.0044365,-0.9955467,-0.0071695447,-0.093995929,0
-1.3324444,4.3369436,-0.40108365,0.076491207,0.52134275,-0.84991217,0
-0.10660529,-2.1912174,-4.1199274,0.055097699,-0.85331714,-0.51847267,0
3.854495,2.9083724,-0.81056118,0.076491207,0.52134275,-0.84991217,0
0.72423959,-3.5631204,0.82101524,-0.076491207,-0.52134275,0.84991217,0
-2.240381,4.3770413,-0.45820057,0.076491207,0.52134275,-0.84991217,0
-4.2647052,0.45433331,-2.7399461,-0.9955467,-0.0071695447,-0.093995929,0
-4.3766255,-2.9717627,-1.2932229,-0.9955467,-0.0071695447,-0.093995929,0
-4.347621,-3.7198453,-1.5433669,-0.9955467,-0.0071695447,-0.093995929,0
4.6780763,0.27147272,-1.6935863,0.9955467,0.0071695447,0.093995929,0
-4.1883788,4.532577,-0.18997312,-0.055097699,0.85331714,0.51847267,0
4.828135,-1.2306492,-3.1683345,0.9955467,0.0071695447,0.093995929,0
-4.263195,0.48589468,-2.7583451,-0.9955467,-0.0071695447,-0.093995929,0
-4.2821131,-1.5144603,-2.4054017,-0.9955467,-0.0071695447,-0.093995929,0
3.2234876,3.4345903,-0.5445652,0.076491207,0.52134275,-0.84991217,0
2.4514556,2.9426994,3.1323018,-0.055097699,0.85331714,0.51847267,0
-4.7971954,2.3772302,2.7531838,-0.9955467,-0.0071695447,-0.093995929,0
-1.8052069,2.6261795,3.2008879,-0.055097699,0.85331714,0.51847267,0
-4.6585441,1.615927,1.3427463,-0.9955467,-0.0071695447,-0.093995929,0
2.2626693,-3.7731509,0.83063745,-0.076491207,-0.52134275,0.84991217,0
2.0659177,-0.41163564,-3.0080502,0.076491207,0.52134275,-0.84991217,0
2.5664659,1.3741443,4.0153704,-0.076491207,-0.52134275,0.84991217,0
-2.4988501,4.3947468,0.21641627,-0.055097699,0.85331714,0.51847267,0
-4.4233556,-1.408705,-0.91751432,-0.9955467,-0.0071695447,-0.093995929,0
-2.3897429,3.8624187,1.1041325,-0.055097699,0.85331714,0.51847267,0
-4.5099964,0.9631604,-0.18077898,-0.9955467,-0.0071695447,-0.093995929,0
-0.087060571,0.85935545,3.4607801,-0.076491207,-0.52134275,0.84991217,0
1.6611459,1.8441222,4.2221808,-0.076491207,-0.52134275,0.84991217,0
0.38529444,-3.5572464,-1.8194036,0.055097699,-0.85331714,-0.51847267,0
1.709769,-0.47797561,-3.0807967,0.076491207,0.52134275,-0.84991217,0
-4.5101795,3.8774824,-0.4011333,-0.9955467,-0.0071695447,-0.093995929,0
2.7521973,2.2646921,-1.3046055,0.076491207,0.52134275,-0.84991217,0
1.7352703,-3.8149195,-1.2518576,0.055097699,-0.85331714,-0.51847267,0
4.4199018,4.7470665,0.37180901,-0.055097699,0.85331714,0.51847267,0
4.6162658,-0.58545583,-0.97356319,0.9955467,0.0071695447,0.093995929,0
-2.0262296,-1.0463842,2.1172612,-0.076491207,-0.52134275,0.84991217,0
-4.6465197,-0.74784106,1.3956885,-0.9955467,-0.0071695447,-0.093995929,0
-4.7546339,0.57596028,2.4397917,-0.9955467,-0.0071695447,-0.093995929,0
0.048868895,-2.6829162,1.3001562,-0.076491207,-0.52134275,0.84991217,0
2.2152638,-3.2517247,1.1462179,-0.076491207,-0.52134275,0.84991217,0
-4.5823956,3.0305572,0.42832994,-0.9955467,-0.0071695447,-0.093995929,0
-4.4418826,-2.2329688,-0.65841818,-0.9955467,-0.0071695447,-0.093995929,0
1.1263292,3.2767155,2.4417489,-0.055097699,0.85331714,0.51847267,0
1.2827711,4.3804641,0.64179254,-0.055097699,0.85331714,0.51847267,0
4.5218458,2.9198856,-0.74343777,0.076491207,0.52134275,-0.84991217,0
4.3400278,2.4921305,1.7174339,0.9955467,0.0071695447,0.093995929,0
4.3073769,-0.90305376,2.3222189,0.9955467,0.0071695447,0.093995929,0
4.504971,2.4538229,-0.026622772,0.9955467,0.0071695447,0.093995929,0
4.2655773,0.17126942,2.6829872,0.9955467,0.0071695447,0.093995929,0
4.5871425,-2.9990067,-0.48101664,0.9955467,0.0071695447,0.093995929,0
-2.1816521,-0.56807113,-3.4862857,0.076491207,0.52134275,-0.84991217,0
0.049564958,-0.4520731,-3.2143245,0.076491207,0.52134275,-0.84991217,0
4.8370166,-1.9543633,-3.2072003,0.9955467,0.0071695447,0.093995929,0
2.7091146,1.5499668,-1.7469012,0.076491207,0.52134275,-0.84991217,0
-4.2596951,-3.3174546,-2.5053096,-0.9955467,-0.0071695447,-0.093995929,0
4.5735993,-2.5948901,-0.36839604,0.9955467,0.0071695447,0.093995929,0
3.7294955,-3.076267,-2.2556288,0.055097699,-0.85331714,-0.51847267,0
1.1350646,-4.2261906,-0.63875902,0.055097699,-0.85331714,-0.51847267,0
-2.0831783,4.2420993,0.51182133,-0.055097699,0.85331714,0.51847267,0
-0.53170896,-2.1727951,-4.1954231,0.055097699,-0.85331714,-0.51847267,0
-4.6034651,2.9392886,0.65844893,-0.9955467,-0.0071695447,-0.093995929,0
3.4995763,-3.4666934,-1.6374868,0.055097699,-0.85331714,-0.51847267,0
3.9102092,-3.7406526,-1.1429594,0.055097699,-0.85331714,-0.51847267,0
-0.061053991,-2.3465581,-3.8594229,0.055097699,-0.85331714,-0.51847267,0
-0.69088173,2.3914032,3.7057078,-0.055097699,0.85331714,0.51847267,0
1.0789663,-2.6460078,1.4155041,-0.076491207,-0.52134275,0.84991217,0
-2.6246865,2.171,3.8629498,-0.055097699,0.85331714,0.51847267,0
-0.21609163,-2.5464592,-3.5468953,0.055097699,-0.85331714,-0.51847267,0
-2.3232262,-1.5379667,1.7889913,-0.076491207,-0.52134275,0.84991217,0
-2.4108167,-3.171845,0.77887464,-0.076491207,-0.52134275,0.84991217,0
-3.0769184,0.11096382,-3.1503329,0.076491207,0.52134275,-0.84991217,0
0.70856142,3.8125477,1.5154648,-0.055097699,0.85331714,0.51847267,0
-4.2789445,0.7895155,-2.6146917,-0.9955467,-0.0071695447,-0.093995929,0
3.2924581,-3.647661,1.0002942,-0.076491207,-0.52134275,0.84991217,0
-4.3598771,2.2075856,-1.8656702,-0.9955467,-0.0071695447,-0.093995929,0
-1.669023,-3.0339811,-2.8989198,0.055097699,-0.85331714,-0.51847267,0
-1.6455755,-4.6786795,-0.18953562,0.055097699,-0.85331714,-0.51847267,0
-3.0346584,-4.0250506,-1.4129133,0.055097699,-0.85331714,-0.51847267,0
1.3716362,-1.1165605,-3.5029414,0.076491207,0.52134275,-0.84991217,0
3.3557627,-0.086930871,-2.6927893,0.076491207,0.52134275,-0.84991217,0
-2.5906193,-2.5549364,-3.7852826,0.055097699,-0.85331714,-0.51847267,0
4.8211751,-2.5002131,-2.9977851,0.9955467,0.0071695447,0.093995929,0
-1.6955879,-1.8416433,-4.2237601,0.076491207,0.52134275,-0.84991217,0
4.2312441,3.2012715,2.8155055,0.9955467,0.0071695447,0.093995929,0
-4.1608057,3.1222839,2.1340578,-0.055097699,0.85331714,0.51847267,0
1.8411876,-2.8752987,1.3434545,-0.076491207,-0.52134275,0.84991217,0
2.4250779,-2.6988385,-3.0154305,0.055097699,-0.85331714,-0.51847267,0
-4.602582,-1.1945872,1.7944834,-0.076491207,-0.52134275,0.84991217,0
-3.3919275,0.10724342,2.7019942,-0.076491207,-0.52134275,0.84991217,0
4.6093726,-2.4308932,-0.75979352,0.9955467,0.0071695447,0.093995929,0
-1.5852528,-2.518888,-3.7377725,0.055097699,-0.85331714,-0.51847267,0
-2.0443571,3.8272686,1.198687,-0.055097699,0.85331714,0.51847267,0
-1.5195608,-4.2029438,0.22660279,-0.076491207,-0.52134275,0.84991217,0
-1.7311372,-1.6492958,1.7739887,-0.076491207,-0.52134275,0.84991217,0
4.4792013,1.9621661,0.28381586,0.9955467,0.0071695447,0.093995929,0
4.035543,1.6182346,4.2973123,-0.076491207,-0.52134275,0.84991217,0
2.0908289,3.2541111,2.5814483,-0.055097699,0.85331714,0.51847267,0
-2.2730527,2.7577019,2.9347069,-0.055097699,0.85331714,0.51847267,0
4.7905369,-0.58677858,-2.8192308,0.9955467,0.0071695447,0.093995929,0
-3.4517088,0.74764931,3.0894442,-0.076491207,-0.52134275,0.84991217,0
4.7905445,-0.51707047,-2.8246269,0.9955467,0.0071695447,0.093995929,0
1.8102887,-2.553694,-3.3196464,0.055097699,-0.85331714,-0.51847267,0
2.4573784,-0.42017543,-2.9780579,0.076491207,0.52134275,-0.84991217,0
-2.8206873,4.5185652,-0.02156949,-0.055097699,0.85331714,0.51847267,0
3.5219269,-4.5925159,0.21779907,0.055097699,-0.85331714,-0.51847267,0
2.7282786,-3.2706831,1.1807598,-0.076491207,-0.52134275,0.84991217,0
-4.3994122,-3.4633694,-1.0143924,-0.9955467,-0.0071695447,-0.093995929,0
-0.30504361,0.17117739,3.0190282,-0.076491207,-0.52134275,0.84991217,0
2.1292012,-3.8016503,-1.2318337,0.055097699,-0.85331714,-0.51847267,0
-0.15314031,2.445662,3.6735518,-0.055097699,0.85331714,0.51847267,0
-4.3205199,-0.35059977,-2.0873909,-0.9955467,-0.0071695447,-0.093995929,0
-4.613061,2.6933618,0.77883625,-0.9955467,-0.0071695447,-0.093995929,0
2.6283901,-0.11231899,3.1091349,-0.076491207,-0.52134275,0.84991217,0
1.9575207,0.78993392,3.6022067,-0.076491207,-0.52134275,0.84991217,0
-4.2634149,-0.88852406,-2.6511831,-0.9955467,-0.0071695447,-0.093995929,0
-4.7061148,3.2408106,1.8810335,-0.055097699,0.85331714,0.51847267,0
-3.8577747,-0.49549627,2.2903435,-0.076491207,-0.52134275,0.84991217,0
2.5855608,-0.88067412,2.6339657,-0.076491207,-0.52134275,0.84991217,0
-2.7344589,-2.7127838,-3.5407772,0.055097699,-0.85331714,-0.51847267,0
-1.9352953,4.6122146,-0.28648591,0.076491207,0.52134275,-0.84991217,0
1.5459337,0.27029276,-2.636548,0.076491207,0.52134275,-0.84991217,0
0.2182374,2.7201028,-1.2533069,0.076491207,0.52134275,-0.84991217,0
-2.5168841,-2.8313327,-3.3225455,0.055097699,-0.85331714,-0.51847267,0
-4.290822,1.2084985,-2.5208542,-0.9955467,-0.0071695447,-0.093995929,0
-2.3947227,-1.6574881,1.7092414,-0.076491207,-0.52134275,0.84991217,0
1.9140103,-3.9373288,-1.0313985,0.055097699,-0.85331714,-0.51847267,0
-1.2209241,-2.2540314,-4.134964,0.055097699,-0.85331714,-0.51847267,0
-4.488554,3.3330431,-0.58865428,-0.9955467,-0.0071695447,-0.093995929,0
4.6519222,-1.2994093,-1.2967598,0.9955467,0.0071695447,0.093995929,0
1.4473269,-3.7638156,-1.3665657,0.055097699,-0.85331714,-0.51847267,0
4.8023257,-2.0644362,-3.7756176,0.076491207,0.52134275,-0.84991217,0
1.9499602,-3.6762121,-1.4573313,0.055097699,-0.85331714,-0.51847267,0
-0.47123814,-3.7715528,-1.5577152,0.055097699,-0.85331714,-0.51847267,0
-4.1669655,-1.2657421,-3.6439409,-0.9955467,-0.0071695447,-0.093995929,0
-0.82858062,-2.8856564,-3.0537238,0.055097699,-0.85331714,-0.51847267,0
1.8984007,-1.7829953,-3.8643296,0.076491207,0.52134275,-0.84991217,0
-4.3860216,-0.48585463,-1.3833256,-0.9955467,-0.0071695447,-0.093995929,0
0.038177729,-2.5605931,-3.4966125,0.055097699,-0.85331714,-0.51847267,0
1.509367,2.3320522,4.0372081,-0.055097699,0.85331714,0.51847267,0
-4.0502195,3.3607357,1.7533591,-0.055097699,0.85331714,0.51847267,0
-3.478991,-0.85772705,-3.7807224,0.076491207,0.52134275,-0.84991217,0
-4.504138,0.079775453,-0.17545033,-0.9955467,-0.0071695447,-0.093995929,0
3.163938,-3.6991014,-1.2906508,0.055097699,-0.85331714,-0.51847267,0
4.5901289,-3.5884047,-1.3212788,0.055097699,-0.85331714,-0.51847267,0
4.5780334,0.19040018,-0.62781096,0.9955467,0.0071695447,0.093995929,0
4.4727325,2.2161677,0.33295822,0.9955467,0.0071695447,0.093995929,0
-4.7107811,0.40042359,1.9887264,-0.9955467,-0.0071695447,-0.093995929,0
4.1466951,-4.6808996,0.44337797,-0.076491207,-0.52134275,0.84991217,0
-4.4692931,2.540709,3.0584481,-0.055097699,0.85331714,0.51847267,0
-4.2518559,-3.3090234,-2.588975,-0.9955467,-0.0071695447,-0.093995929,0
4.5705128,0.48470756,-0.57060528,0.9955467,0.0071695447,0.093995929,0
-2.328306,4.5648842,-0.045477718,-0.055097699,0.85331714,0.51847267,0
4.7004957,-2.2939463,-1.7353594,0.9955467,0.0071695447,0.093995929,0
-4.7414961,0.16577131,2.3319314,-0.9955467,-0.0071695447,-0.093995929,0
-0.09789753,-3.2413607,0.94439328,-0.076491207,-0.52134275,0.84991217,0
-4.4115429,-3.4494305,-0.88696718,-0.9955467,-0.0071695447,-0.093995929,0
4.1141119,-2.9633641,-2.4005742,0.055097699,-0.85331714,-0.51847267,0
4.1887889,-2.5086324,-3.1410494,0.055097699,-0.85331714,-0.51847267,0
-4.6206026,-1.2216525,1.1573362,-0.9955467,-0.0071695447,-0.093995929,0
-4.7720833,1.1972106,2.5772214,-0.9955467,-0.0071695447,-0.093995929,0
0.99439979,-4.0544276,-0.93639982,0.055097699,-0.85331714,-0.51847267,0
0.10212696,0.41078329,3.2026489,-0.076491207,-0.52134275,0.84991217,0
4.4429426,1.9323944,0.67011547,0.9955467,0.0071695447,0.093995929,0
-1.4815017,-1.170728,2.0900128,-0.076491207,-0.52134275,0.84991217,0
-4.3698611,-1.113367,-1.5066166,-0.9955467,-0.0071695447,-0.093995929,0
1.271108,0.77807212,3.5331542,-0.076491207,-0.52134275,0.84991217,0
-4.3364234,-3.6189203,-1.6696615,-0.9955467,-0.0071695447,-0.093995929,0
-4.5594525,-1.5600028,0.53548145,-0.9955467,-0.0071695447,-0.093995929,0
1.2366967,4.0053968,1.2541919,-0.055097699,0.85331714,0.51847267,0
-0.11079788,-4.4920983,-0.33351684,0.055097699,-0.85331714,-0.51847267,0
2.0612531,4.5941715,0.062131405,0.076491207,0.52134275,-0.84991217,0
-0.33815527,3.6482699,1.6746042,-0.055097699,0.85331714,0.51847267,0
-2.8384254,-1.6851226,1.6523576,-0.076491207,-0.52134275,0.84991217,0
1.996829,4.2594004,-0.14901781,0.076491207,0.52134275,-0.84991217,0
-3.9462781,1.0229211,-2.6691732,0.076491207,0.52134275,-0.84991217,0
3.2377901,1.2716024,-1.8700719,0.076491207,0.52134275,-0.84991217,0
4.5156789,2.6801958,-0.15729856,0.9955467,0.0071695447,0.093995929,0
-1.6332645,-2.3207362,-4.0689983,0.055097699,-0.85331714,-0.51847267,0
4.8762531,-1.8543268,-3.6304011,0.9955467,0.0071695447,0.093995929,0
-3.7984626,-3.0558996,0.72511005,-0.076491207,-0.52134275,0.84991217,0
-4.0908461,3.5801675,1.3878944,-0.055097699,0.85331714,0.51847267,0
1.2014706,-1.2975197,2.2537024,-0.076491207,-0.52134275,0.84991217,0
-3.1635811,-2.2162607,-4.4035721,0.055097699,-0.85331714,-0.51847267,0
-4.1947217,-4.103303,0.046961308,-0.076491207,-0.52134275,0.84991217,0
0.12632382,1.8252451,-1.8104913,0.076491207,0.52134275,-0.84991217,0
4.5114288,2.2350883,-1.1644354,0.076491207,0.52134275,-0.84991217,0
4.6285043,-0.2787382,-1.126586,0.9955467,0.0071695447,0.093995929,0
4.5672421,0.027690947,-0.50110197,0.9955467,0.0071695447,0.093995929,0
1.8216596,2.6075056,-1.1780685,0.076491207,0.52134275,-0.84991217,0
3.7437148,3.6827669,2.0516047,-0.055097699,0.85331714,0.51847267,0
-0.28232217,1.9504383,4.1124854,-0.076491207,-0.52134275,0.84991217,0
-4.7426381,2.3204002,3.3919899,-0.055097699,0.85331714,0.51847267,0
4.1691427,3.9451032,1.6650548,-0.055097699,0.85331714,0.51847267,0
-3.5814919,-3.4580216,-2.4042583,0.055097699,-0.85331714,-0.51847267,0
0.96089745,2.1647775,4.2542276,-0.055097699,0.85331714,0.51847267,0
-2.1232245,3.6017256,1.5615108,-0.055097699,0.85331714,0.51847267,0
1.3219295,4.5735855,-0.017034769,0.076491207,0.52134275,-0.84991217,0
-3.9999769,2.7426305,2.7759936,-0.055097699,0.85331714,0.51847267,0
4.45263,2.8264081,0.49931812,0.9955467,0.0071695447,0.093995929,0
-1.4375641,3.0185735,2.5941436,-0.055097699,0.85331714,0.51847267,0
-1.4056807,4.6686354,-0.11818752,-0.055097699,0.85331714,0.51847267,0
-0.24865174,-2.9380486,-2.9058664,0.055097699,-0.85331714,-0.51847267,0
-3.2855096,-4.4835525,-0.10445881,-0.076491207,-0.52134275,0.84991217,0
4.5306134,0.31602508,-0.13514709,0.9955467,0.0071695447,0.093995929,0
0.87270355,2.0036626,4.2490849,-0.076491207,-0.52134275,0.84991217,0
-2.1077378,-2.2089088,-4.3034687,0.055097699,-0.85331714,-0.51847267,0
4.1689005,2.2717993,3.5467067,0.9955467,0.0071695447,0.093995929,0
-0.3173033,2.3325477,-1.5392339,0.076491207,0.52134275,-0.84991217,0
-2.6105797,2.1381555,3.9185057,-0.055097699,0.85331714,0.51847267,0
1.3256296,-1.5985792,-3.8027558,0.076491207,0.52134275,-0.84991217,0
4.7045918,-2.6702502,-1.7500355,0.9955467,0.0071695447,0.093995929,0
-1.7673352,-3.2242455,-2.5962243,0.055097699,-0.85331714,-0.51847267,0
-2.0540781,2.3571208,3.617265,-0.055097699,0.85331714,0.51847267,0
2.8894396,2.0233548,-1.4402921,0.076491207,0.52134275,-0.84991217,0
-4.2289963,-1.45151,-2.9727802,-0.9955467,-0.0071695447,-0.093995929,0
2.0600863,3.2035286,2.6614313,-0.055097699,0.85331714,0.51847267,0
1.4268582,1.6380317,4.0746775,-0.076491207,-0.52134275,0.84991217,0
-4.3574667,-3.1839147,-1.4799628,-0.9955467,-0.0071695447,-0.093995929,0
-1.4443676,3.0105124,2.606688,-0.055097699,0.85331714,0.51847267,0
4.5109501,-0.92744291,0.16795588,0.9955467,0.0071695447,0.093995929,0
-0.19869447,0.63314891,3.3119764,-0.076491207,-0.52134275,0.84991217,0
-3.8686438,-1.1030923,1.9166608,-0.076491207,-0.52134275,0.84991217,0
-3.0608358,0.19665873,2.7866404,-0.076491207,-0.52134275,0.84991217,0
2.6735694,-4.5829558,0.11191094,0.055097699,-0.85331714,-0.51847267,0
-4.5145884,4.5548735,-0.40610909,-0.9955467,-0.0071695447,-0.093995929,0
-4.5579195,0.22013414,0.38346434,-0.9955467,-0.0071695447,-0.093995929,0
-1.4616301,-3.7144871,-1.7568846,0.055097699,-0.85331714,-0.51847267,0
-4.4679685,-0.97291148,-0.47824144,-0.9955467,-0.0071695447,-0.093995929,0
-4.5363512,3.0606663,-0.061639786,-0.9955467,-0.0071695447,-0.093995929,0
-3.4111156,3.5602744,1.4928693,-0.055097699,0.85331714,0.51847267,0
3.445024,1.3351405,4.0705147,-0.076491207,-0.52134275,0.84991217,0
-0.69701767,0.67859721,3.2950063,-0.076491207,-0.52134275,0.84991217,0
-2.8802233,4.5170641,-0.42989451,0.076491207,0.52134275,-0.84991217,0
-2.6458917,-1.5308012,1.7643471,-0.076491207,-0.52134275,0.84991217,0
-4.7083445,1.0750194,1.9114642,-0.9955467,-0.0071695447,-0.093995929,0
2.5600452,4.3757682,0.78525591,-0.055097699,0.85331714,0.51847267,0
-2.5315869,-2.8833079,-3.2385652,0.055097699,-0.85331714,-0.51847267,0
0.4040134,2.7980731,3.1527522,-0.055097699,0.85331714,0.51847267,0
4.6018457,-2.4221492,-0.68073869,0.9955467,0.0071695447,0.093995929,0
4.6668057,-3.5388041,-1.3947649,0.055097699,-0.85331714,-0.51847267,0
4.777029,-1.3158098,-2.6205554,0.9955467,0.0071695447,0.093995929,0
1.7824837,0.54612708,-2.4460597,0.076491207,0.52134275,-0.84991217,0
4.4435339,1.840479,0.67086601,0.9955467,0.0071695447,0.093995929,0
-3.7752399,2.6627526,2.9313412,-0.055097699,0.85331714,0.51847267,0
3.6903181,-3.3172171,-1.8632296,0.055097699,-0.85331714,-0.51847267,0
2.2780051,3.4210238,-0.63797951,0.076491207,0.52134275,-0.84991217,0
-0.54661787,-1.4665153,1.9927131,-0.076491207,-0.52134275,0.84991217,0
-4.3786631,0.28572154,-1.5201106,-0.9955467,-0.0071695447,-0.093995929,0
3.5006237,3.7807198,-0.30730486,0.076491207,0.52134275,-0.84991217,0
-1.9596277,2.1419415,3.9814503,-0.055097699,0.85331714,0.51847267,0
0.0012259483,-3.8965206,-1.3018306,0.055097699,-0.85331714,-0.51847267,0
3.4975221,1.5874836,-1.6529322,0.076491207,0.52134275,-0.84991217,0
0.83039284,-4.1404319,-0.81228083,0.055097699,-0.85331714,-0.51847267,0
2.696734,-4.1475267,0.64005738,-0.076491207,-0.52134275,0.84991217,0
-1.8803229,2.5328848,3.3464522,-0.055097699,0.85331714,0.51847267,0
-3.4308417,-1.5478001,1.6832755,-0.076491207,-0.52134275,0.84991217,0
-4.4646621,0.69746876,-0.64067078,-0.9955467,-0.0071695447,-0.093995929,0
-3.7641757,3.6206446,-1.0593197,0.076491207,0.52134275,-0.84991217,0
4.5566607,2.552212,-0.58159351,0.9955467,0.0071695447,0.093995929,0
4.453557,-2.0901644,-3.8016391,0.055097699,-0.85331714,-0.51847267,0
4.4838042,-2.0208118,0.53886747,0.9955467,0.0071695447,0.093995929,0
2.5529997,-1.5437193,2.2243176,-0.076491207,-0.52134275,0.84991217,0
-4.5773163,-2.5892992,0.80318832,-0.9955467,-0.0071695447,-0.093995929,0
-3.6544642,4.166388,0.46944892,-0.055097699,0.85331714,0.51847267,0
-1.8235011,0.64123917,-2.7122524,0.076491207,0.52134275,-0.84991217,0
2.1492665,4.033937,-0.27359986,0.076491207,0.52134275,-0.84991217,0
-1.4259126,-1.1782024,-3.7925296,0.076491207,0.52134275,-0.84991217,0
4.1952105,1.4157634,3.3333445,0.9955467,0.0071695447,0.093995929,0
2.8086305,2.8078921,3.3921282,-0.055097699,0.85331714,0.51847267,0
4.5822096,1.3893847,-0.76349545,0.9955467,0.0071695447,0.093995929,0
-3.1798091,-4.2145205,-1.1165037,0.055097699,-0.85331714,-0.51847267,0
-4.3640833,-1.0152209,-1.575305,-0.9955467,-0.0071695447,-0.093995929,0
-4.2416086,-0.28998566,-2.927793,-0.9955467,-0.0071695447,-0.093995929,0
1.8281777,3.8931377,-0.38886523,0.076491207,0.52134275,-0.84991217,0
-3.6064174,-3.0484672,0.74695301,-0.076491207,-0.52134275,0.84991217,0
-4.0508261,-2.2783034,-4.3957477,0.055097699,-0.85331714,-0.51847267,0
-3.13676,3.2197423,-1.2487702,0.076491207,0.52134275,-0.84991217,0
4.7811146,-0.53151375,-2.7236524,0.9955467,0.0071695447,0.093995929,0
-4.6936493,1.0580292,1.757118,-0.9955467,-0.0071695447,-0.093995929,0
4.7212577,-1.086159,-2.0473816,0.9955467,0.0071695447,0.093995929,0
-4.5727167,3.7206717,1.1054409,-0.055097699,0.85331714,0.51847267,0
-4.4607644,-1.7935851,-0.49194813,-0.9955467,-0.0071695447,-0.093995929,0
1.2902942,3.2875853,-0.8087244,0.076491207,0.52134275,-0.84991217,0
-4.3839631,-1.3964548,-1.3356709,-0.9955467,-0.0071695447,-0.093995929,0
4.402277,3.4740677,0.98323107,0.9955467,0.0071695447,0.093995929,0
2.2116084,-2.6601222,-3.1018357,0.055097699,-0.85331714,-0.51847267,0
-0.30973077,3.1563573,2.4872289,-0.055097699,0.85331714,0.51847267,0
1.7548835,2.9618263,3.0267982,-0.055097699,0.85331714,0.51847267,0
4.5253191,-0.77985787,0.00451231,0.9955467,0.0071695447,0.093995929,0
1.7438732,-2.6617837,1.4656677,-0.076491207,-0.52134275,0.84991217,0
-1.8576883,2.2477341,3.8181672,-0.055097699,0.85331714,0.51847267,0
1.6793238,-2.2360902,-3.8562856,0.055097699,-0.85331714,-0.51847267,0
-4.4765992,-0.65519607,-0.41106939,-0.9955467,-0.0071695447,-0.093995929,0
2.3846042,-2.5562966,-3.2543311,0.055097699,-0.85331714,-0.51847267,0
1.1892505,4.1325717,-0.29949713,0.076491207,0.52134275,-0.84991217,0
-1.127315,2.3904722,3.6608605,-0.055097699,0.85331714,0.51847267,0
3.1152959,0.029747486,-2.6428595,0.076491207,0.52134275,-0.84991217,0
-4.6860814,0.073814958,1.7520289,-0.9955467,-0.0071695447,-0.093995929,0
4.2786522,3.3558695,2.3016,0.9955467,0.0071695447,0.093995929,0
