1.2103848,-4.0922003,4.0328407,0.054842234,-0.99780566,-0.037095688,0
0.81195736,-4.0515656,2.3508022,0.054842234,-0.99780566,-0.037095688,0
2.854986,-3.6833782,-4.5323372,0.054842234,-0.99780566,-0.037095688,0
3.227562,0.6181426,-3.4768708,0.97908121,0.04644835,0.19809692,0
3.2765763,1.4348055,-4.3801708,0.19593918,0.047183782,-0.97948021,0
-0.020111084,3.8257811,4.893043,-0.054842234,0.99780566,0.037095688,0
1.1197729,-2.1879756,-4.9861445,0.19593918,0.047183782,-0.97948021,0
2.7252915,3.8250332,-1.7463617,0.97908121,0.04644835,0.19809692,0
0.95347726,0.76634604,5.3324022,-0.19593918,-0.047183782,0.97948021,0
-2.753747,1.7724347,0.57454503,-0.97908121,-0.04644835,-0.19809692,0
-0.76491356,3.8732378,2.5154209,-0.054842234,0.99780566,0.037095688,0
3.4752293,-1.5512111,-4.192296,0.97908121,0.04644835,0.19809692,0
2.9039559,3.2534447,-2.4953763,0.97908121,0.04644835,0.19809692,0
1.9456505,1.2250273,2.7165971,0.97908121,0.04644835,0.19809692,0
-0.82944822,-3.9873168,-1.8040063,0.054842234,-0.99780566,-0.037095688,0
2.0054343,3.3621023,1.9200321,0.97908121,0.04644835,0.19809692,0
-3.0430746,-1.1753919,2.6957145,-0.97908121,-0.04644835,-0.19809692,0
1.8431131,1.0198109,3.2714992,0.97908121,0.04644835,0.19809692,0
0.31084538,4.0568094,-0.83190727,-0.054842234,0.99780566,0.037095688,0
-0.80843496,-3.902029,-4.0670304,0.054842234,-0.99780566,-0.037095688,0
0.14709806,1.9861031,-4.9796472,0.19593918,0.047183782,-0.97948021,0
1.6457224,-0.22135019,4.5381083,0.97908121,0.04644835,0.19809692,0
-3.104064,3.7454014,2.495796,-0.054842234,0.99780566,0.037095688,0
-0.67712587,-0.35238516,4.9523182,-0.19593918,-0.047183782,0.97948021,0
2.3722014,4.2238207,-2.2766943,-0.054842234,0.99780566,0.037095688,0
-1.8042928,1.719888,-4.105751,-0.97908121,-0.04644835,-0.19809692,0
1.0134605,-1.4363706,-4.9712048,0.19593918,0.047183782,-0.97948021,0
1.1072962,4.1899605,-3.2359521,-0.054842234,0.99780566,0.037095688,0
-0.96520519,-4.0762086,0.38630849,0.054842234,-0.99780566,-0.037095688,0
-2.1583204,-2.9130163,-1.2697017,-0.97908121,-0.04644835,-0.19809692,0
0.84755659,-2.6985474,5.1443014,-0.19593918,-0.047183782,0.97948021,0
0.10484672,3.8794637,-4.8968916,0.19593918,0.047183782,-0.97948021,0
2.1114583,2.2029233,1.6678128,0.97908121,0.04644835,0.19809692,0
-0.25512314,-3.8603792,-4.3693223,0.054842234,-0.99780566,-0.037095688,0
3.0836637,0.042958975,-2.6307981,0.97908121,0.04644835,0.19809692,0
-1.1954703,3.7973254,3.920784,-0.054842234,0.99780566,0.037095688,0
0.69556367,-2.1745381,5.1391397,-0.19593918,-0.047183782,0.97948021,0
-1.3618613,1.9981941,4.9285731,-0.19593918,-0.047183782,0.97948021,0
0.35152364,-3.4180725,5.0104122,-0.19593918,-0.047183782,0.97948021,0
-2.4033413,2.328043,-1.2875882,-0.97908121,-0.04644835,-0.19809692,0
-0.66053677,-4.0676169,0.60562658,0.054842234,-0.99780566,-0.037095688,0
-1.073812,-3.1580811,4.7378068,-0.19593918,-0.047183782,0.97948021,0
-0.06739521,4.0666623,-1.6561224,-0.054842234,0.99780566,0.037095688,0
-0.10211754,-3.8469069,-4.5054984,0.054842234,-0.99780566,-0.037095688,0
0.33156252,3.9980865,0.77825236,-0.054842234,0.99780566,0.037095688,0
3.0925336,-1.9803574,-4.5815039,0.19593918,0.047183782,-0.97948021,0
2.8977156,-2.3710144,-1.1457505,0.97908121,0.04644835,0.19809692,0
0.7929554,1.1245806,5.3175478,-0.19593918,-0.047183782,0.97948021,0
2.4555793,-1.4431477,-4.683044,0.19593918,0.047183782,-0.97948021,0
3.3992548,0.17868972,-4.2224121,0.97908121,0.04644835,0.19809692,0
2.3015981,-3.0812933,1.9670627,0.97908121,0.04644835,0.19809692,0
-0.64975643,3.311398,-5.0752106,0.19593918,0.047183782,-0.97948021,0
-2.0508204,-1.5064127,-2.1308236,-0.97908121,-0.04644835,-0.19809692,0
3.136626,-0.86035657,-4.5187302,0.19593918,0.047183782,-0.97948021,0
-0.67655122,-0.38617486,4.9508052,-0.19593918,-0.047183782,0.97948021,0
-1.9354219,3.8528001,1.3346863,-0.054842234,0.99780566,0.037095688,0
-3.3087668,3.6457121,2.8784611,-0.97908121,-0.04644835,-0.19809692,0
2.5255003,-0.90398097,0.34992075,0.97908121,0.04644835,0.19809692,0
-2.2184882,-1.8535559,4.5716629,-0.19593918,-0.047183782,0.97948021,0
2.936276,0.26039219,-1.9533267,0.97908121,0.04644835,0.19809692,0
1.8407555,-2.8336906,-4.8730216,0.19593918,0.047183782,-0.97948021,0
1.1907296,4.1517491,-2.0847991,-0.054842234,0.99780566,0.037095688,0
0.83313775,-3.2742279,-5.0958109,0.19593918,0.047183782,-0.97948021,0
1.7866764,-3.0064499,4.4944825,0.97908121,0.04644835,0.19809692,0
2.7407904,-1.5620272,-0.55984223,0.97908121,0.04644835,0.19809692,0
0.32933331,3.706455,5.3491778,-0.19593918,-0.047183782,0.97948021,0
-0.96398187,4.0771813,-3.2645707,-0.054842234,0.99780566,0.037095688,0
-2.7318244,3.1947069,0.13271093,-0.97908121,-0.04644835,-0.19809692,0
1.8896829,-2.6146681,3.893517,0.97908121,0.04644835,0.19809692,0
-0.28101921,-3.9619043,-1.6767657,0.054842234,-0.99780566,-0.037095688,0
-0.68857503,-2.9710498,4.8238807,-0.19593918,-0.047183782,0.97948021,0
1.975137,-1.4786842,3.2048087,0.97908121,0.04644835,0.19809692,0
-3.0238347,-2.0762444,2.8118463,-0.97908121,-0.04644835,-0.19809692,0
-1.0664225,-4.2333546,4.4636025,0.054842234,-0.99780566,-0.037095688,0
-1.4710426,-3.9811904,-2.9173336,0.054842234,-0.99780566,-0.037095688,0
2.8343995,2.2301097,-1.9116539,0.97908121,0.04644835,0.19809692,0
3.5020649,-1.9790323,-4.224618,0.97908121,0.04644835,0.19809692,0
-3.3185983,-0.33517528,3.8604631,-0.97908121,-0.04644835,-0.19809692,0
0.96013635,-1.9271801,5.2039809,-0.19593918,-0.047183782,0.97948021,0
-2.5031371,2.3010488,4.7148571,-0.19593918,-0.047183782,0.97948021,0
-3.3616443,0.67301488,3.8368227,-0.97908121,-0.04644835,-0.19809692,0
-2.0923526,2.2541356,-2.8073003,-0.97908121,-0.04644835,-0.19809692,0
0.96653247,-2.221314,-5.018405,0.19593918,0.047183782,-0.97948021,0
1.1146693,-2.7553034,5.1950021,-0.19593918,-0.047183782,0.97948021,0
3.4089947,-3.0747478,-4.5709167,0.19593918,0.047183782,-0.97948021,0
-2.9627337,-1.2923111,2.3260477,-0.97908121,-0.04644835,-0.19809692,0
-0.5518074,-3.8389528,-5.3842649,0.054842234,-0.99780566,-0.037095688,0
-2.4590275,0.075703144,-0.48425066,-0.97908121,-0.04644835,-0.19809692,0
1.7974243,1.9210804,3.285989,0.97908121,0.04644835,0.19809692,0
2.1053472,2.6029894,1.6042107,0.97908121,0.04644835,0.19809692,0
1.5231342,4.1768026,-2.267266,-0.054842234,0.99780566,0.037095688,0
2.4074552,4.3011723,-4.305192,-0.054842234,0.99780566,0.037095688,0
2.2766447,3.0809503,-4.5009027,0.19593918,0.047183782,-0.97948021,0
0.60549164,4.0770755,-0.94142306,-0.054842234,0.99780566,0.037095688,0
-2.5190179,3.0371776,-0.88213587,-0.97908121,-0.04644835,-0.19809692,0
-3.1442244,1.0505822,2.6737094,-0.97908121,-0.04644835,-0.19809692,0
2.0226631,1.5074742,2.2697411,0.97908121,0.04644835,0.19809692,0
-0.32437706,-3.9032121,-3.3195844,0.054842234,-0.99780566,-0.037095688,0
1.483676,1.6847624,4.8920808,0.97908121,0.04644835,0.19809692,0
1.790458,2.6892772,3.1402986,0.97908121,0.04644835,0.19809692,0
3.2627861,2.2230067,-4.3449597,0.19593918,0.047183782,-0.97948021,0
-1.8354338,0.59987116,-3.6892245,-0.97908121,-0.04644835,-0.19809692,0
1.3014326,1.1626692,5.4211006,-0.19593918,-0.047183782,0.97948021,0
1.562589,-1.4782203,-4.8633709,0.19593918,0.047183782,-0.97948021,0
2.2130201,-3.6671724,-4.8387027,0.19593918,0.047183782,-0.97948021,0
-3.4623132,1.8214152,4.0651035,-0.97908121,-0.04644835,-0.19809692,0
0.35154724,3.9644701,1.7120162,-0.054842234,0.99780566,0.037095688,0
-2.3684521,3.0152049,-1.621146,-0.97908121,-0.04644835,-0.19809692,0
2.7626801,3.8697531,-4.3656759,0.19593918,0.047183782,-0.97948021,0
-1.2664068,2.3681226,-5.2440076,0.19593918,0.047183782,-0.97948021,0
0.2778511,-2.0416331,-5.1475163,0.19593918,0.047183782,-0.97948021,0
0.12886429,2.9203939,5.2712088,-0.19593918,-0.047183782,0.97948021,0
-1.0079331,0.67689097,-5.2737718,0.19593918,0.047183782,-0.97948021,0
2.5565281,-0.090615273,-4.5976949,0.19593918,0.047183782,-0.97948021,0
-0.63249707,4.0900655,-3.1210761,-0.054842234,0.99780566,0.037095688,0
-1.2221906,-0.52643621,-5.3745995,0.19593918,0.047183782,-0.97948021,0
-1.5333028,-3.9924021,-2.7078021,0.054842234,-0.99780566,-0.037095688,0
2.7576396,-2.5048385,-4.6737628,0.19593918,0.047183782,-0.97948021,0
3.1865852,0.69054747,-3.2913229,0.97908121,0.04644835,0.19809692,0
-3.3876185,2.8376839,3.4576416,-0.97908121,-0.04644835,-0.19809692,0
2.9913118,4.2681766,-3.1650541,0.97908121,0.04644835,0.19809692,0
-3.2532606,-3.4351442,4.2884741,-0.19593918,-0.047183782,0.97948021,0
0.56952453,-3.9995897,0.59434378,0.054842234,-0.99780566,-0.037095688,0
-0.29867864,4.1709228,-4.8024678,-0.054842234,0.99780566,0.037095688,0
-2.0467834,-0.93983763,4.6500273,-0.19593918,-0.047183782,0.97948021,0
3.182498,-0.36077476,-3.0246158,0.97908121,0.04644835,0.19809692,0
1.0924621,-1.1191019,5.2693791,-0.19593918,-0.047183782,0.97948021,0
-1.5991764,-3.9769821,-3.2199583,0.054842234,-0.99780566,-0.037095688,0
1.6937337,3.5851462,3.4082959,0.97908121,0.04644835,0.19809692,0
2.3111641,-3.7902877,2.0860231,0.97908121,0.04644835,0.19809692,0
0.33604765,-3.5996797,-5.2109284,0.19593918,0.047183782,-0.97948021,0
-0.51556146,1.737931,-5.1241632,0.19593918,0.047183782,-0.97948021,0
-0.13711452,4.1126118,-2.9951591,-0.054842234,0.99780566,0.037095688,0
-3.1953785,-0.95851517,3.3976145,-0.97908121,-0.04644835,-0.19809692,0
1.9081404,-0.42995822,-4.7437482,0.19593918,0.047183782,-0.97948021,0
-2.9532769,0.50522304,1.8578353,-0.97908121,-0.04644835,-0.19809692,0
-0.58866453,4.1196413,-3.8518236,-0.054842234,0.99780566,0.037095688,0
3.3993151,-2.4774981,-3.5999069,0.97908121,0.04644835,0.19809692,0
3.2358489,2.253818,-3.9013495,0.97908121,0.04644835,0.19809692,0
3.3253863,-0.13677335,-3.7833543,0.97908121,0.04644835,0.19809692,0
3.4556437,-3.3938513,-3.663445,0.97908121,0.04644835,0.19809692,0
-1.9580274,3.8003731,2.7114515,-0.054842234,0.99780566,0.037095688,0
0.7006197,-3.9279745,-1.1381532,0.054842234,-0.99780566,-0.037095688,0
-1.8773222,3.7945714,2.9868329,-0.054842234,0.99780566,0.037095688,0
-2.1210358,4.0060587,-3.0621066,-0.054842234,0.99780566,0.037095688,0
2.0461879,-3.9425707,3.4313588,0.97908121,0.04644835,0.19809692,0
1.3391533,4.0484095,0.91428667,-0.054842234,0.99780566,0.037095688,0
-1.8938307,-1.036065,4.6759892,-0.19593918,-0.047183782,0.97948021,0
2.4055727,3.1928194,-0.017934412,0.97908121,0.04644835,0.19809692,0
-3.032372,-3.1557117,3.1071484,-0.97908121,-0.04644835,-0.19809692,0
-2.8247187,-3.6971216,4.3615813,-0.19593918,-0.047183782,0.97948021,0
0.13608503,1.7118589,-4.9950609,0.19593918,0.047183782,-0.97948021,0
3.1197996,-2.9582932,-4.6231585,0.19593918,0.047183782,-0.97948021,0
-0.63391697,1.5750979,-5.1556835,0.19593918,0.047183782,-0.97948021,0
-2.914634,-2.9339459,2.4732375,-0.97908121,-0.04644835,-0.19809692,0
-3.2885311,3.5023813,2.812058,-0.97908121,-0.04644835,-0.19809692,0
-1.4131277,0.25672638,-5.3750691,0.19593918,0.047183782,-0.97948021,0
2.0158424,-3.8653526,-0.87815374,0.054842234,-0.99780566,-0.037095688,0
1.8965855,3.7018218,-4.5470223,0.19593918,0.047183782,-0.97948021,0
-0.66625702,1.5646459,5.0468402,-0.19593918,-0.047183782,0.97948021,0
-0.61739254,3.9744468,0.011174977,-0.054842234,0.99780566,0.037095688,0
2.5126832,0.57610369,-4.5743484,0.19593918,0.047183782,-0.97948021,0
2.1967771,-1.5525252,-4.7400846,0.19593918,0.047183782,-0.97948021,0
-0.16366053,-4.1794939,4.3494911,0.054842234,-0.99780566,-0.037095688,0
3.2736678,-0.98544979,-3.3287463,0.97908121,0.04644835,0.19809692,0
3.0009344,0.35265231,-4.4874411,0.19593918,0.047183782,-0.97948021,0
2.2530923,-0.087639093,1.5048695,0.97908121,0.04644835,0.19809692,0
-0.17107391,-3.7978141,-5.3219199,0.19593918,0.047183782,-0.97948021,0
2.1643524,-2.2149482,2.4422567,0.97908121,0.04644835,0.19809692,0
-1.4735618,-4.0451584,-1.2004467,0.054842234,-0.99780566,-0.037095688,0
1.4412469,-0.87504125,5.3509083,-0.19593918,-0.047183782,0.97948021,0
0.59332156,3.0392542,-4.8396497,0.19593918,0.047183782,-0.97948021,0
-2.6269555,-4.2462273,2.5027735,0.054842234,-0.99780566,-0.037095688,0
-1.7389829,-2.7232883,-3.3867371,-0.97908121,-0.04644835,-0.19809692,0
1.2788229,4.0416827,1.0060239,-0.054842234,0.99780566,0.037095688,0
-1.3607969,-3.8902507,-4.9822736,-0.97908121,-0.04644835,-0.19809692,0
-1.0429871,3.9378972,0.36510247,-0.054842234,0.99780566,0.037095688,0
0.87276316,-1.42865,-4.9989786,0.19593918,0.047183782,-0.97948021,0
2.0138326,-1.4051135,2.9963074,0.97908121,0.04644835,0.19809692,0
-0.68711615,-4.0851259,1.0372998,0.054842234,-0.99780566,-0.037095688,0
3.4128461,-0.83278441,-4.0524225,0.97908121,0.04644835,0.19809692,0
-0.9738282,0.71087122,-5.2653122,0.19593918,0.047183782,-0.97948021,0
-3.3353455,3.4857912,3.0473228,-0.97908121,-0.04644835,-0.19809692,0
3.3446569,1.5058494,-4.3631296,0.19593918,0.047183782,-0.97948021,0
0.70827609,-2.0245674,5.1489067,-0.19593918,-0.047183782,0.97948021,0
2.7784071,-3.6578724,-4.725152,0.19593918,0.047183782,-0.97948021,0
-2.4625025,3.7596552,3.0608792,-0.054842234,0.99780566,0.037095688,0
2.1679921,-3.7559266,-3.5965736,0.054842234,-0.99780566,-0.037095688,0
-0.70631701,-0.54833609,4.9370389,-0.19593918,-0.047183782,0.97948021,0
1.2264361,4.2192464,-3.8475575,-0.054842234,0.99780566,0.037095688,0
-0.74770617,1.5134542,5.0280805,-0.19593918,-0.047183782,0.97948021,0
3.6057858,-3.0405185,-4.4883604,0.97908121,0.04644835,0.19809692,0
-3.5199413,3.489913,4.5687218,-0.19593918,-0.047183782,0.97948021,0
-2.77268,1.444315,0.74505526,-0.97908121,-0.04644835,-0.19809692,0
1.6280895,1.0495694,4.327261,0.97908121,0.04644835,0.19809692,0
0.82114601,3.8928947,4.3315172,-0.054842234,0.99780566,0.037095688,0
-1.0849676,-4.1348672,1.7870617,0.054842234,-0.99780566,-0.037095688,0
-3.4828434,1.7885771,4.1742721,-0.97908121,-0.04644835,-0.19809692,0
0.88428497,-3.9324019,-0.74753553,0.054842234,-0.99780566,-0.037095688,0
-1.7428751,-4.1983929,2.5231268,0.054842234,-0.99780566,-0.037095688,0
-2.6160588,2.2858648,-0.22635666,-0.97908121,-0.04644835,-0.19809692,0
-2.1835601,3.8625991,0.70425963,-0.054842234,0.99780566,0.037095688,0
0.47711802,2.7594311,-4.8763757,0.19593918,0.047183782,-0.97948021,0
-0.37021089,4.068655,-2.1574066,-0.054842234,0.99780566,0.037095688,0
-2.9864333,-0.92342937,4.4628468,-0.19593918,-0.047183782,0.97948021,0
-1.5216357,-0.63778603,-4.9499545,-0.97908121,-0.04644835,-0.19809692,0
-2.9239366,0.31109738,1.7583395,-0.97908121,-0.04644835,-0.19809692,0
0.98255348,0.68733245,-4.8750839,0.19593918,0.047183782,-0.97948021,0
-1.8043911,3.7692664,3.775295,-0.054842234,0.99780566,0.037095688,0
0.77928162,3.975071,2.059238,-0.054842234,0.99780566,0.037095688,0
0.96664238,3.1824512,-4.7580714,0.19593918,0.047183782,-0.97948021,0
1.601629,3.7927866,-4.601645,0.19593918,0.047183782,-0.97948021,0
3.3418467,-3.5726347,-3.0590911,0.97908121,0.04644835,0.19809692,0
-2.7917082,-3.6792388,2.0404348,-0.97908121,-0.04644835,-0.19809692,0
-1.9622211,1.9628828,-3.3821754,-0.97908121,-0.04644835,-0.19809692,0
2.3269868,-1.5105817,1.4732924,0.97908121,0.04644835,0.19809692,0
-0.81274486,4.0870285,-3.3058586,-0.054842234,0.99780566,0.037095688,0
1.8153217,3.3418467,2.8644021,0.97908121,0.04644835,0.19809692,0
-0.28355217,-3.7898643,4.865459,-0.19593918,-0.047183782,0.97948021,0
-2.7462692,0.73385406,0.781106,-0.97908121,-0.04644835,-0.19809692,0
-2.1073179,-4.0997458,-0.66908407,0.054842234,-0.99780566,-0.037095688,0
1.1363633,3.114965,-4.7273707,0.19593918,0.047183782,-0.97948021,0
1.1242511,-3.9305425,-0.44279444,0.054842234,-0.99780566,-0.037095688,0
0.30787802,4.0075784,0.48793128,-0.054842234,0.99780566,0.037095688,0
2.8155413,1.8962141,-1.7401563,0.97908121,0.04644835,0.19809692,0
-2.7789359,3.4573159,0.30398059,-0.97908121,-0.04644835,-0.19809692,0
1.8339503,-3.846453,-1.6554245,0.054842234,-0.99780566,-0.037095688,0
1.4656324,4.1705337,-2.1836414,-0.054842234,0.99780566,0.037095688,0
1.8899322,2.4697111,-4.607707,0.19593918,0.047183782,-0.97948021,0
-2.8120203,-2.9318647,4.4009857,-0.19593918,-0.047183782,0.97948021,0
-3.0805385,-2.3554888,3.157577,-0.97908121,-0.04644835,-0.19809692,0
1.8556454,2.2349565,2.9246387,0.97908121,0.04644835,0.19809692,0
-0.12126589,4.1574821,-4.1786609,-0.054842234,0.99780566,0.037095688,0
-2.4388289,1.2893693,-0.86865199,-0.97908121,-0.04644835,-0.19809692,0
-1.7788599,-0.21182323,-3.778517,-0.97908121,-0.04644835,-0.19809692,0
3.2144544,-0.01541853,-3.263535,0.97908121,0.04644835,0.19809692,0
1.8601515,-3.2485409,-4.8891253,0.19593918,0.047183782,-0.97948021,0
-1.7142609,2.3761673,4.8762856,-0.19593918,-0.047183782,0.97948021,0
-2.1662335,-1.4128957,-1.5823286,-0.97908121,-0.04644835,-0.19809692,0
0.96983004,4.0218258,1.0833333,-0.054842234,0.99780566,0.037095688,0
-0.65033162,2.2009017,-5.1288209,0.19593918,0.047183782,-0.97948021,0
-1.5397449,1.943694,4.8903637,-0.19593918,-0.047183782,0.97948021,0
2.3682449,-1.8432747,-4.7197895,0.19593918,0.047183782,-0.97948021,0
1.163712,-4.1032367,4.2607012,0.054842234,-0.99780566,-0.037095688,0
-2.2491262,0.52819204,-1.6277701,-0.97908121,-0.04644835,-0.19809692,0
-3.019618,-2.1019559,2.7970362,-0.97908121,-0.04644835,-0.19809692,0
-3.2525649,-0.009333849,3.4576962,-0.97908121,-0.04644835,-0.19809692,0
2.1562581,-3.004086,2.667295,0.97908121,0.04644835,0.19809692,0
-1.7901605,3.6523752,-4.6287141,-0.97908121,-0.04644835,-0.19809692,0
2.7796645,-3.791816,-1.7269163,0.054842234,-0.99780566,-0.037095688,0
3.3713493,-3.0452948,-4.5770283,0.19593918,0.047183782,-0.97948021,0
1.603096,3.7391171,3.8201661,0.97908121,0.04644835,0.19809692,0
3.0996556,1.2160202,-4.4261017,0.19593918,0.047183782,-0.97948021,0
3.1172833,-1.1771038,-2.5108881,0.97908121,0.04644835,0.19809692,0
-0.68957782,3.8657506,2.8281918,-0.054842234,0.99780566,0.037095688,0
1.1133673,2.4221747,5.4441524,-0.19593918,-0.047183782,0.97948021,0
-1.2750108,-2.0922542,4.7489014,-0.19593918,-0.047183782,0.97948021,0
-1.7931702,-3.6397138,4.5707021,-0.19593918,-0.047183782,0.97948021,0
-2.7462556,-0.10996723,0.97889137,-0.97908121,-0.04644835,-0.19809692,0
2.1099856,-1.308604,2.4984493,0.97908121,0.04644835,0.19809692,0
-1.4475975,-4.1784334,2.422801,0.054842234,-0.99780566,-0.037095688,0
-2.8248563,3.7696841,2.2554133,-0.054842234,0.99780566,0.037095688,0
-2.286737,1.7097807,-1.718931,-0.97908121,-0.04644835,-0.19809692,0
1.9670408,2.0508723,2.4172394,0.97908121,0.04644835,0.19809692,0
2.4799695,1.9074889,-4.516757,0.19593918,0.047183782,-0.97948021,0
-3.1977074,-4.1142344,4.2668738,-0.19593918,-0.047183782,0.97948021,0
1.708508,4.171669,-1.8551152,-0.054842234,0.99780566,0.037095688,0
1.1900196,4.1169424,-1.1496031,-0.054842234,0.99780566,0.037095688,0
1.5736656,-4.061214,3.73645,0.054842234,-0.99780566,-0.037095688,0
-1.8274283,4.0330672,-3.3545034,-0.054842234,0.99780566,0.037095688,0
1.2709229,-4.0983829,4.2886438,0.054842234,-0.99780566,-0.037095688,0
-0.62828279,-1.1627446,-5.2864447,0.19593918,0.047183782,-0.97948021,0
0.71992147,-0.77383459,-4.9980097,0.19593918,0.047183782,-0.97948021,0
0.26953268,4.0834661,-1.6100019,-0.054842234,0.99780566,0.037095688,0
3.2745142,2.493464,-4.1486425,0.97908121,0.04644835,0.19809692,0
-0.98422217,4.1268444,-4.6303549,-0.054842234,0.99780566,0.037095688,0
2.0233264,3.8881617,-4.5126925,0.19593918,0.047183782,-0.97948021,0
-0.96216869,3.948123,0.20952362,-0.054842234,0.99780566,0.037095688,0
2.268101,-3.9327848,1.3085835,0.054842234,-0.99780566,-0.037095688,0
2.1279159,-3.9217329,0.80406106,0.054842234,-0.99780566,-0.037095688,0
-2.9415872,2.5535724,1.3197775,-0.97908121,-0.04644835,-0.19809692,0
1.4704274,-1.0236034,5.3495893,-0.19593918,-0.047183782,0.97948021,0
1.4602697,1.7617874,-4.7277608,0.19593918,0.047183782,-0.97948021,0
-0.71045339,-0.98927921,-5.2945261,0.19593918,0.047183782,-0.97948021,0
-1.080791,-4.1011686,0.88680506,0.054842234,-0.99780566,-0.037095688,0
-0.69886923,-2.2403605,4.8570204,-0.19593918,-0.047183782,0.97948021,0
2.492182,2.3631592,-0.25145966,0.97908121,0.04644835,0.19809692,0
0.73993659,-3.7993703,-4.5392451,0.054842234,-0.99780566,-0.037095688,0
-1.7542675,1.7384512,-4.3573503,-0.97908121,-0.04644835,-0.19809692,0
2.4222856,1.9159093,-4.5278912,0.19593918,0.047183782,-0.97948021,0
-0.73517084,-3.8592091,-5.1104832,0.054842234,-0.99780566,-0.037095688,0
1.1661065,4.0679526,-4.6755133,0.19593918,0.047183782,-0.97948021,0
2.7213132,3.6511011,-4.3844838,0.19593918,0.047183782,-0.97948021,0
2.5539341,-0.51076007,0.11718895,0.97908121,0.04644835,0.19809692,0
0.70850074,-2.2365499,5.1387401,-0.19593918,-0.047183782,0.97948021,0
2.7770138,-3.214324,-0.3514567,0.97908121,0.04644835,0.19809692,0
2.2313015,4.0016952,-4.4656186,0.19593918,0.047183782,-0.97948021,0
1.6705377,-4.0258398,2.9281623,0.054842234,-0.99780566,-0.037095688,0
2.3755133,2.0897987,0.38926351,0.97908121,0.04644835,0.19809692,0
0.79094791,-4.1506362,5.0630269,-0.19593918,-0.047183782,0.97948021,0
-0.4471879,-3.8581696,-4.7126994,0.054842234,-0.99780566,-0.037095688,0
1.3472128,-1.7682906,5.2890677,-0.19593918,-0.047183782,0.97948021,0
-2.5343399,3.7073131,4.3625803,-0.054842234,0.99780566,0.037095688,0
-0.36669493,-3.9731059,-1.502121,0.054842234,-0.99780566,-0.037095688,0
0.010215282,3.9570963,1.405735,-0.054842234,0.99780566,0.037095688,0
-1.9288383,3.8353925,1.8126481,-0.054842234,0.99780566,0.037095688,0
-1.0240316,3.8922939,1.6197745,-0.054842234,0.99780566,0.037095688,0
1.7972093,2.754034,3.0917466,0.97908121,0.04644835,0.19809692,0
-0.82987165,-3.0326841,4.7926464,-0.19593918,-0.047183782,0.97948021,0
0.95069951,0.66014737,-4.8827658,0.19593918,0.047183782,-0.97948021,0
1.8933196,4.1629534,-1.347458,-0.054842234,0.99780566,0.037095688,0
-1.7332606,3.8792343,0.92252904,-0.054842234,0.99780566,0.037095688,0
-1.5251677,3.9690571,-1.1858982,-0.054842234,0.99780566,0.037095688,0
3.1027315,3.9752419,-3.6470535,0.97908121,0.04644835,0.19809692,0
-0.06382513,-3.9928257,-0.52393138,0.054842234,-0.99780566,-0.037095688,0
3.0198174,-0.86623478,-2.1020594,0.97908121,0.04644835,0.19809692,0
-2.6749473,0.31591606,4.5848594,-0.19593918,-0.047183782,0.97948021,0
-0.14369631,4.1787834,-4.9321923,0.19593918,0.047183782,-0.97948021,0
-2.9680772,-2.7268755,2.6888232,-0.97908121,-0.04644835,-0.19809692,0
2.5066314,3.1052108,-0.49686822,0.97908121,0.04644835,0.19809692,0
-2.6086524,1.6730642,-0.11927691,-0.97908121,-0.04644835,-0.19809692,0
-2.1182117,1.172904,-2.4259737,-0.97908121,-0.04644835,-0.19809692,0
-1.7288687,0.99676156,-4.3089762,-0.97908121,-0.04644835,-0.19809692,0
3.2819722,0.65910101,-3.755394,0.97908121,0.04644835,0.19809692,0
0.166008,2.9760284,-4.9281774,0.19593918,0.047183782,-0.97948021,0
-3.5296526,1.8113382,4.4859185,-0.19593918,-0.047183782,0.97948021,0
0.16177225,3.9806578,0.99603385,-0.054842234,0.99780566,0.037095688,0
2.2249095,1.4633048,1.2805068,0.97908121,0.04644835,0.19809692,0
-1.767554,3.8163762,2.5625966,-0.054842234,0.99780566,0.037095688,0
2.2938225,-1.9764011,1.7464266,0.97908121,0.04644835,0.19809692,0
1.1107335,4.1068201,-0.99456131,-0.054842234,0.99780566,0.037095688,0
-1.5478907,1.1756349,-5.2453899,-0.97908121,-0.04644835,-0.19809692,0
0.31834662,0.90967274,-4.9972439,0.19593918,0.047183782,-0.97948021,0
-1.7173865,4.0453782,-3.5229774,-0.054842234,0.99780566,0.037095688,0
3.4107513,-0.83561754,-4.4627013,0.19593918,0.047183782,-0.97948021,0
2.0009172,-2.1438246,3.2333498,0.97908121,0.04644835,0.19809692,0
2.612294,-0.84634471,-4.6229444,0.19593918,0.047183782,-0.97948021,0
-0.0073051453,3.8676558,3.7856174,-0.054842234,0.99780566,0.037095688,0
0.47493768,3.8988271,-4.8219242,0.19593918,0.047183782,-0.97948021,0
-0.52954531,3.85993,3.2213449,-0.054842234,0.99780566,0.037095688,0
3.0642974,-1.2073002,-4.5499125,0.19593918,0.047183782,-0.97948021,0
-1.2284846,-4.1449165,1.8451949,0.054842234,-0.99780566,-0.037095688,0
-0.01906392,-0.96706533,5.0543489,-0.19593918,-0.047183782,0.97948021,0
2.328367,-2.0445814,-4.7374644,0.19593918,0.047183782,-0.97948021,0
-2.462399,-3.5496716,0.38246727,-0.97908121,-0.04644835,-0.19809692,0
-1.2694252,3.813972,3.3636963,-0.054842234,0.99780566,0.037095688,0
2.4391358,4.2342525,-2.4583416,-0.054842234,0.99780566,0.037095688,0
-2.3106768,-2.860472,-0.52900827,-0.97908121,-0.04644835,-0.19809692,0
2.376133,2.5876677,0.26946086,0.97908121,0.04644835,0.19809692,0
1.7686201,-2.260046,4.4087129,0.97908121,0.04644835,0.19809692,0
1.8515773,-3.8058639,-2.7211308,0.054842234,-0.99780566,-0.037095688,0
-1.1678662,1.7042969,-5.2562728,0.19593918,0.047183782,-0.97948021,0
1.9718461,4.1618385,-1.2013714,-0.054842234,0.99780566,0.037095688,0
-0.99013567,-2.8244374,4.770618,-0.19593918,-0.047183782,0.97948021,0
2.2818866,-0.73313761,1.5139074,0.97908121,0.04644835,0.19809692,0
2.9997778,1.3808676,-2.529901,0.97908121,0.04644835,0.19809692,0
-0.1449666,-3.9203596,-2.5931015,0.054842234,-0.99780566,-0.037095688,0
-2.4630842,2.910315,-1.128839,-0.97908121,-0.04644835,-0.19809692,0
2.1026742,3.7660408,-4.5027022,0.19593918,0.047183782,-0.97948021,0
1.1602082,0.6929704,-4.8392739,0.19593918,0.047183782,-0.97948021,0
1.7670617,3.8776541,2.9772911,0.97908121,0.04644835,0.19809692,0
-0.66368115,-0.17232414,4.9636817,-0.19593918,-0.047183782,0.97948021,0
-1.123313,-4.0767889,0.16817373,0.054842234,-0.99780566,-0.037095688,0
0.25776005,3.9250677,2.6332083,-0.054842234,0.99780566,0.037095688,0
2.8105984,-3.7297289,-3.3512135,0.054842234,-0.99780566,-0.037095688,0
1.8981891,0.20897484,3.189409,0.97908121,0.04644835,0.19809692,0
-1.4513276,3.9548435,-0.69441676,-0.054842234,0.99780566,0.037095688,0
0.044775844,-2.4799979,4.9942384,-0.19593918,-0.047183782,0.97948021,0
2.3766625,-3.7944732,-2.2512443,0.054842234,-0.99780566,-0.037095688,0
-0.73535895,-4.1527829,2.7858241,0.054842234,-0.99780566,-0.037095688,0
-0.62326503,3.306613,-5.0701418,0.19593918,0.047183782,-0.97948021,0
0.52193069,4.1028199,-1.7574403,-0.054842234,0.99780566,0.037095688,0
3.0157335,3.4261503,-4.3364229,0.19593918,0.047183782,-0.97948021,0
-0.76313376,4.0191565,-1.4068922,-0.054842234,0.99780566,0.037095688,0
0.89017367,4.0751667,-4.7303643,0.19593918,0.047183782,-0.97948021,0
-0.76356745,-3.8495824,-5.4114146,0.054842234,-0.99780566,-0.037095688,0
-2.1241584,-4.2436504,4.4753966,-0.19593918,-0.047183782,0.97948021,0
-1.3740437,-0.83841646,-5.4200058,0.19593918,0.047183782,-0.97948021,0
2.4833069,-3.7514532,-3.2507424,0.054842234,-0.99780566,-0.037095688,0
0.017487288,-2.15711,-5.2051625,0.19593918,0.047183782,-0.97948021,0
2.1351991,1.6109875,1.6892667,0.97908121,0.04644835,0.19809692,0
-0.94709444,-3.8742957,-5.0179996,0.054842234,-0.99780566,-0.037095688,0
-3.3295944,0.32899475,3.7590814,-0.97908121,-0.04644835,-0.19809692,0
-1.599503,2.1359825,4.8876719,-0.19593918,-0.047183782,0.97948021,0
2.1799669,2.0990596,1.353565,0.97908121,0.04644835,0.19809692,0
-2.5572047,2.6116662,-0.59362978,-0.97908121,-0.04644835,-0.19809692,0
-0.74198103,-4.0313964,-0.48903894,0.054842234,-0.99780566,-0.037095688,0
-0.59199476,-3.7964482,-5.4060564,0.19593918,0.047183782,-0.97948021,0
0.50223064,-3.8045576,-4.7511501,0.054842234,-0.99780566,-0.037095688,0
-1.9549301,-0.031213284,-2.9506493,-0.97908121,-0.04644835,-0.19809692,0
-1.0484128,-2.4750733,-5.4337068,0.19593918,0.047183782,-0.97948021,0
-3.2232993,0.85329795,3.1107891,-0.97908121,-0.04644835,-0.19809692,0
1.2874684,-0.46265173,-4.8694849,0.19593918,0.047183782,-0.97948021,0
1.6101518,4.174572,-2.078613,-0.054842234,0.99780566,0.037095688,0
-3.3818786,-1.1187086,4.3569403,-0.97908121,-0.04644835,-0.19809692,0
-2.4429588,-3.8693695,4.4296522,-0.19593918,-0.047183782,0.97948021,0
-2.6194239,1.529604,-0.032401115,-0.97908121,-0.04644835,-0.19809692,0
-2.3809345,-3.0072918,-0.14733993,-0.97908121,-0.04644835,-0.19809692,0
3.0629539,0.78274751,-2.7019014,0.97908121,0.04644835,0.19809692,0
2.2782545,-2.8502083,2.0282545,0.97908121,0.04644835,0.19809692,0
1.8084013,-0.56094742,3.8137045,0.97908121,0.04644835,0.19809692,0
-0.83341312,-1.4424794,4.8685412,-0.19593918,-0.047183782,0.97948021,0
-3.1360927,-1.8448291,3.3124135,-0.97908121,-0.04644835,-0.19809692,0
0.99940205,-2.566783,5.181025,-0.19593918,-0.047183782,0.97948021,0
-0.7485342,-4.0472689,-0.071792066,0.054842234,-0.99780566,-0.037095688,0
-1.1980968,-4.0893126,0.39447865,0.054842234,-0.99780566,-0.037095688,0
1.1391115,4.1352367,-1.7169554,-0.054842234,0.99780566,0.037095688,0
-2.2422118,-1.3461772,-1.2224551,-0.97908121,-0.04644835,-0.19809692,0
-1.3288124,-1.9350731,-5.4637861,0.19593918,0.047183782,-0.97948021,0
3.3047676,-2.2188802,-3.1932492,0.97908121,0.04644835,0.19809692,0
2.3672082,-0.88520408,1.1278661,0.97908121,0.04644835,0.19809692,0
-3.2706332,-0.1932025,3.5901096,-0.97908121,-0.04644835,-0.19809692,0
2.9830115,0.36775875,-2.2094872,0.97908121,0.04644835,0.19809692,0
-0.79220533,3.4584298,5.1128726,-0.19593918,-0.047183782,0.97948021,0
0.24946547,-3.8410635,-4.1428919,0.054842234,-0.99780566,-0.037095688,0
0.28985023,-4.1259489,3.5797079,0.054842234,-0.99780566,-0.037095688,0
2.4292827,3.2445703,-4.4624863,0.19593918,0.047183782,-0.97948021,0
-1.2334208,3.2403412,5.0141044,-0.19593918,-0.047183782,0.97948021,0
1.9254067,0.4011687,3.0098231,0.97908121,0.04644835,0.19809692,0
-0.28728199,3.8209236,4.6287127,-0.054842234,0.99780566,0.037095688,0
-0.85373116,-3.9737685,-2.2043302,0.054842234,-0.99780566,-0.037095688,0
-2.9216607,-3.5768425,2.6587086,-0.97908121,-0.04644835,-0.19809692,0
-1.2717566,-4.005022,-1.9816909,0.054842234,-0.99780566,-0.037095688,0
0.40589166,-3.9104648,-2.044867,0.054842234,-0.99780566,-0.037095688,0
1.6169674,-1.427737,4.9630923,0.97908121,0.04644835,0.19809692,0
-0.59580016,4.0487909,-1.9566077,-0.054842234,0.99780566,0.037095688,0
0.13346291,4.1336517,-3.1610718,-0.054842234,0.99780566,0.037095688,0
-1.7838229,2.1048517,-4.2971864,-0.97908121,-0.04644835,-0.19809692,0
2.1970327,-0.91880226,1.9768257,0.97908121,0.04644835,0.19809692,0
-3.6259401,3.6430938,4.4761353,-0.054842234,0.99780566,0.037095688,0
1.7816367,1.9866729,3.3486373,0.97908121,0.04644835,0.19809692,0
-2.6027751,-3.7412019,4.4038563,-0.19593918,-0.047183782,0.97948021,0
-0.085334778,-1.3447063,-5.1865964,0.19593918,0.047183782,-0.97948021,0
1.9749399,2.4391546,-4.5921736,0.19593918,0.047183782,-0.97948021,0
-0.72539711,-4.0763593,0.7448945,0.054842234,-0.99780566,-0.037095688,0
0.0040245056,-3.9116371,-2.6074505,0.054842234,-0.99780566,-0.037095688,0
-3.0783045,-0.33491015,2.6727648,-0.97908121,-0.04644835,-0.19809692,0
-1.3709109,-0.1299485,4.8242455,-0.19593918,-0.047183782,0.97948021,0
1.0755248,3.8791146,5.0782442,-0.054842234,0.99780566,0.037095688,0
-3.2744069,-1.5773343,3.9333041,-0.97908121,-0.04644835,-0.19809692,0
-0.072026566,0.79998916,-5.0806198,0.19593918,0.047183782,-0.97948021,0
-2.8328018,-3.2091749,2.1333225,-0.97908121,-0.04644835,-0.19809692,0
0.50917149,4.1817265,-3.8987448,-0.054842234,0.99780566,0.037095688,0
-0.6633451,-1.8228521,-5.3252578,0.19593918,0.047183782,-0.97948021,0
1.0275587,-1.3681597,-4.9650984,0.19593918,0.047183782,-0.97948021,0
3.2238011,-1.2559092,-3.0188704,0.97908121,0.04644835,0.19809692,0
-0.6211834,-4.0836844,1.0959997,0.054842234,-0.99780566,-0.037095688,0
0.89083028,-3.4020658,5.1190681,-0.19593918,-0.047183782,0.97948021,0
-1.9492408,1.4159203,-3.3180821,-0.97908121,-0.04644835,-0.19809692,0
0.55243492,3.5031073,-4.8254843,0.19593918,0.047183782,-0.97948021,0
3.3364868,-2.5877402,-3.2635324,0.97908121,0.04644835,0.19809692,0
2.4034724,-3.7952447,-2.1908586,0.054842234,-0.99780566,-0.037095688,0
-0.14788008,-3.5507634,-5.3053789,0.19593918,0.047183782,-0.97948021,0
3.2408271,1.5465291,-4.3819404,0.19593918,0.047183782,-0.97948021,0
-0.068842888,4.0650759,-1.6155901,-0.054842234,0.99780566,0.037095688,0
-2.5009477,-3.8858337,0.65181202,-0.97908121,-0.04644835,-0.19809692,0
2.0874989,2.6435494,-4.5598106,0.19593918,0.047183782,-0.97948021,0
-0.14546341,-1.1830345,5.0186601,-0.19593918,-0.047183782,0.97948021,0
-1.5143548,0.41342092,-5.23242,-0.97908121,-0.04644835,-0.19809692,0
-1.3823049,-4.2286043,3.8688297,0.054842234,-0.99780566,-0.037095688,0
3.1975892,2.1774743,-3.6943529,0.97908121,0.04644835,0.19809692,0
0.69451952,-3.8613193,-2.9400773,0.054842234,-0.99780566,-0.037095688,0
2.3272843,4.2066917,-1.8823574,-0.054842234,0.99780566,0.037095688,0
1.5612803,1.7760237,4.4871278,0.97908121,0.04644835,0.19809692,0
2.678272,-1.9209816,-0.16668379,0.97908121,0.04644835,0.19809692,0
-2.2945371,-2.0273879,-0.80411577,-0.97908121,-0.04644835,-0.19809692,0
1.0417178,-3.8650773,-2.3256986,0.054842234,-0.99780566,-0.037095688,0
2.2796106,-2.126076,1.8517629,0.97908121,0.04644835,0.19809692,0
1.936841,4.2130804,-2.631458,-0.054842234,0.99780566,0.037095688,0
0.28318334,-4.1174335,3.3408041,0.054842234,-0.99780566,-0.037095688,0
0.8098352,-3.2496765,-5.0992894,0.19593918,0.047183782,-0.97948021,0
-0.97318602,-3.8924551,-4.5681171,0.054842234,-0.99780566,-0.037095688,0
3.3114076,-3.6701081,-2.885797,0.97908121,0.04644835,0.19809692,0
-3.399487,2.7018697,3.5481472,-0.97908121,-0.04644835,-0.19809692,0
-1.866871,2.2235053,-3.9145472,-0.97908121,-0.04644835,-0.19809692,0
-2.4312069,3.9234977,-1.2999229,-0.054842234,0.99780566,0.037095688,0
-3.2360041,2.4557729,2.7978466,-0.97908121,-0.04644835,-0.19809692,0
-1.7657772,3.5997336,-4.7368851,-0.97908121,-0.04644835,-0.19809692,0
-1.8834991,-0.97168148,-3.0831785,-0.97908121,-0.04644835,-0.19809692,0
2.1262877,2.7153974,1.4743565,0.97908121,0.04644835,0.19809692,0
-2.6251919,-2.5008531,0.94114023,-0.97908121,-0.04644835,-0.19809692,0
-2.6394765,1.0926261,0.16916665,-0.97908121,-0.04644835,-0.19809692,0
0.5431118,4.0011415,1.0088366,-0.054842234,0.99780566,0.037095688,0
-0.5962348,-2.3942769,4.8701372,-0.19593918,-0.047183782,0.97948021,0
3.2019901,-3.4219,-2.403203,0.97908121,0.04644835,0.19809692,0
1.805407,-3.8057785,-2.7916932,0.054842234,-0.99780566,-0.037095688,0
-1.3567791,-3.7315021,-5.0393534,-0.97908121,-0.04644835,-0.19809692,0
1.6993501,-3.9574108,5.1490617,0.97908121,0.04644835,0.19809692,0
-0.40101147,1.1000124,5.0775185,-0.19593918,-0.047183782,0.97948021,0
0.40758204,4.1353588,-2.8017299,-0.054842234,0.99780566,0.037095688,0
2.0475788,-3.8698299,-0.71080256,0.054842234,-0.99780566,-0.037095688,0
1.0899134,4.2186518,-4.0334072,-0.054842234,0.99780566,0.037095688,0
-0.72669744,-3.9907093,-1.5608552,0.054842234,-0.99780566,-0.037095688,0
1.2555861,-3.9830694,1.1642523,0.054842234,-0.99780566,-0.037095688,0
-1.2453227,3.8863492,1.4525195,-0.054842234,0.99780566,0.037095688,0
-3.1788657,-2.7342873,3.7323732,-0.97908121,-0.04644835,-0.19809692,0
-3.1969852,-3.1458156,3.9184194,-0.97908121,-0.04644835,-0.19809692,0
-3.2316678,3.6664827,4.4299045,-0.054842234,0.99780566,0.037095688,0
-1.7925105,1.7456126,4.8302574,-0.19593918,-0.047183782,0.97948021,0
-0.63956976,-3.8941298,-4.0298471,0.054842234,-0.99780566,-0.037095688,0
0.27328396,4.0906167,-1.796793,-0.054842234,0.99780566,0.037095688,0
-2.0618188,3.8255608,1.8805044,-0.054842234,0.99780566,0.037095688,0
-0.79887819,1.1399987,4.9998541,-0.19593918,-0.047183782,0.97948021,0
-1.7554376,-3.335618,4.5928993,-0.19593918,-0.047183782,0.97948021,0
0.0041270256,-4.1125851,4.9074612,-0.19593918,-0.047183782,0.97948021,0
-2.3615005,-3.1665087,-0.20605867,-0.97908121,-0.04644835,-0.19809692,0
-1.8773533,-0.75921762,4.6926217,-0.19593918,-0.047183782,0.97948021,0
-1.9572594,3.866344,0.93810529,-0.054842234,0.99780566,0.037095688,0
2.0998638,-3.8506351,-1.1498187,0.054842234,-0.99780566,-0.037095688,0
2.3451402,3.4798808,-4.4679828,0.19593918,0.047183782,-0.97948021,0
-1.6825571,-4.1440234,1.1498753,0.054842234,-0.99780566,-0.037095688,0
1.5447822,4.0905085,0.085890681,-0.054842234,0.99780566,0.037095688,0
-1.7455841,0.48543882,-4.1064696,-0.97908121,-0.04644835,-0.19809692,0
1.5423245,-3.832598,-2.4592426,0.054842234,-0.99780566,-0.037095688,0
-0.80413723,4.0556374,-2.4487715,-0.054842234,0.99780566,0.037095688,0
2.5785093,2.1771076,-0.63450438,0.97908121,0.04644835,0.19809692,0
-1.9458888,3.7892127,3.0295935,-0.054842234,0.99780566,0.037095688,0
-1.673311,1.027498,4.8195095,-0.19593918,-0.047183782,0.97948021,0
-2.4693947,0.31818032,4.6260881,-0.19593918,-0.047183782,0.97948021,0
1.1736841,3.9836004,2.4128969,-0.054842234,0.99780566,0.037095688,0
-1.4453239,-4.0766215,-0.31238979,0.054842234,-0.99780566,-0.037095688,0
-2.9308395,2.4229562,1.2972844,-0.97908121,-0.04644835,-0.19809692,0
0.17009068,4.1133113,-2.5597944,-0.054842234,0.99780566,0.037095688,0
-1.3401016,1.1814804,4.8935833,-0.19593918,-0.047183782,0.97948021,0
0.11552203,-0.013164163,5.1272235,-0.19593918,-0.047183782,0.97948021,0
3.2872939,1.9877534,-4.0932279,0.97908121,0.04644835,0.19809692,0
-0.38094091,3.8884232,2.6746316,-0.054842234,0.99780566,0.037095688,0
2.4656439,2.9298558,-0.25317442,0.97908121,0.04644835,0.19809692,0
-3.574193,2.6391094,4.4263349,-0.97908121,-0.04644835,-0.19809692,0
0.94087797,-2.0221038,5.1955557,-0.19593918,-0.047183782,0.97948021,0
-2.3607662,-4.2886572,4.0375867,0.054842234,-0.99780566,-0.037095688,0
-0.25882435,-3.1520669,-5.3083668,0.19593918,0.047183782,-0.97948021,0
-0.22431231,2.0786486,5.1600089,-0.19593918,-0.047183782,0.97948021,0
-1.7615154,3.7288418,4.9260406,-0.054842234,0.99780566,0.037095688,0
0.7936157,1.7678292,-4.8608303,0.19593918,0.047183782,-0.97948021,0
-1.7054462,-3.7657299,-3.308064,-0.97908121,-0.04644835,-0.19809692,0
2.030478,1.9396412,2.1297832,0.97908121,0.04644835,0.19809692,0
1.3507345,-3.9402103,0.15209678,0.054842234,-0.99780566,-0.037095688,0
-0.36373129,-0.83532077,4.9917469,-0.19593918,-0.047183782,0.97948021,0
0.54818535,-4.0311856,1.4126695,0.054842234,-0.99780566,-0.037095688,0
-2.2157574,-3.9315324,-0.74700886,-0.97908121,-0.04644835,-0.19809692,0
0.7612071,-2.2911024,-5.0628409,0.19593918,0.047183782,-0.97948021,0
-1.9591961,-3.8582025,-2.0322394,-0.97908121,-0.04644835,-0.19809692,0
-3.1121986,-3.6458988,4.3065405,-0.19593918,-0.047183782,0.97948021,0
-1.1220412,-4.117444,1.2635964,0.054842234,-0.99780566,-0.037095688,0
-0.66369295,-4.105804,1.6281199,0.054842234,-0.99780566,-0.037095688,0
-0.20201826,4.018671,-0.56427014,-0.054842234,0.99780566,0.037095688,0
-2.6982825,-2.6299186,1.332648,-0.97908121,-0.04644835,-0.19809692,0
2.0374746,-3.7599578,-3.681092,0.054842234,-0.99780566,-0.037095688,0
-2.3685818,-1.2449795,-0.62160796,-0.97908121,-0.04644835,-0.19809692,0
-2.5003693,0.38113451,-0.3515363,-0.97908121,-0.04644835,-0.19809692,0
-0.09200418,2.0257282,-5.0255694,0.19593918,0.047183782,-0.97948021,0
-1.1302958,-4.1390219,1.8318033,0.054842234,-0.99780566,-0.037095688,0
1.6410294,3.6796045,3.6466353,0.97908121,0.04644835,0.19809692,0
1.0160198,4.0439329,0.55696964,-0.054842234,0.99780566,0.037095688,0
3.3961756,-3.3842289,-3.3717871,0.97908121,0.04644835,0.19809692,0
1.6347485,4.0247202,1.9884779,-0.054842234,0.99780566,0.037095688,0
-2.7549772,1.6656792,4.6338711,-0.19593918,-0.047183782,0.97948021,0
-1.6309273,4.0673971,-3.9874148,-0.054842234,0.99780566,0.037095688,0
0.19828224,-3.9847512,-0.35362747,0.054842234,-0.99780566,-0.037095688,0
1.1543379,1.7180179,5.4184275,-0.19593918,-0.047183782,0.97948021,0
-0.33178467,-0.309834,-5.1860452,0.19593918,0.047183782,-0.97948021,0
-2.467083,1.6625257,-0.81650281,-0.97908121,-0.04644835,-0.19809692,0
-0.55124199,-1.3446236,4.9297023,-0.19593918,-0.047183782,0.97948021,0
-0.041781902,3.9492862,-4.9228601,0.19593918,0.047183782,-0.97948021,0
0.084900379,-1.8367593,-5.1762457,0.19593918,0.047183782,-0.97948021,0
-2.8499668,-2.5224569,2.0571413,-0.97908121,-0.04644835,-0.19809692,0
-0.36452723,-4.0255017,-0.08957018,0.054842234,-0.99780566,-0.037095688,0
-2.4536703,1.5485699,-0.85607529,-0.97908121,-0.04644835,-0.19809692,0
-3.5498176,2.9906788,4.2234273,-0.97908121,-0.04644835,-0.19809692,0
-0.75757647,-4.1135788,1.6984465,0.054842234,-0.99780566,-0.037095688,0
2.5943868,2.9885261,-4.4417925,0.19593918,0.047183782,-0.97948021,0
-2.1390111,3.7634974,3.4357777,-0.054842234,0.99780566,0.037095688,0
3.0487492,-0.6913569,-2.2860579,0.97908121,0.04644835,0.19809692,0
-1.1995118,4.0623112,-3.212811,-0.054842234,0.99780566,0.037095688,0
-1.0365005,-4.0265427,-1.0550076,0.054842234,-0.99780566,-0.037095688,0
0.085731268,3.0671844,-4.9398451,0.19593918,0.047183782,-0.97948021,0
-2.0178218,0.63205934,-2.7953317,-0.97908121,-0.04644835,-0.19809692,0
0.62082434,3.8534789,5.0955758,-0.054842234,0.99780566,0.037095688,0
1.5498357,2.5204756,4.3691378,0.97908121,0.04644835,0.19809692,0
-2.177021,-4.1067872,-0.58272827,0.054842234,-0.99780566,-0.037095688,0
2.8966174,-2.2475595,-1.1692698,0.97908121,0.04644835,0.19809692,0
-1.4958687,-2.5190539,-4.6362,-0.97908121,-0.04644835,-0.19809692,0
1.0791281,1.1630902,-4.8328466,0.19593918,0.047183782,-0.97948021,0
2.8600428,0.06235075,-1.5301136,0.97908121,0.04644835,0.19809692,0
2.9934676,4.3043022,-3.523037,-0.054842234,0.99780566,0.037095688,0
-3.000206,-2.322238,4.3927073,-0.19593918,-0.047183782,0.97948021,0
0.93450785,4.0403824,0.53196895,-0.054842234,0.99780566,0.037095688,0
-1.908762,3.8521669,1.3911233,-0.054842234,0.99780566,0.037095688,0
0.96418703,2.3500686,-4.7986603,0.19593918,0.047183782,-0.97948021,0
2.4181023,1.8459948,0.23593591,0.97908121,0.04644835,0.19809692,0
2.1902773,-1.0306416,2.036437,0.97908121,0.04644835,0.19809692,0
-0.51465011,-2.5785236,-5.3319144,0.19593918,0.047183782,-0.97948021,0
-1.1987123,-4.0400224,-0.93225265,0.054842234,-0.99780566,-0.037095688,0
-1.2159754,1.5787488,-5.271945,0.19593918,0.047183782,-0.97948021,0
-3.2679641,1.5927548,4.5277381,-0.19593918,-0.047183782,0.97948021,0
2.5772371,-1.7748876,-4.6746874,0.19593918,0.047183782,-0.97948021,0
0.42143106,4.0385094,-0.17619452,-0.054842234,0.99780566,0.037095688,0
0.17099309,2.1985066,5.2448611,-0.19593918,-0.047183782,0.97948021,0
1.5974509,-2.7024684,5.2941251,-0.19593918,-0.047183782,0.97948021,0
2.0476246,-0.45425773,2.6063433,0.97908121,0.04644835,0.19809692,0
3.1468592,-1.9725454,-4.5702596,0.19593918,0.047183782,-0.97948021,0
0.37004632,-1.6097009,5.1012311,-0.19593918,-0.047183782,0.97948021,0
1.0207865,-3.782546,-4.5765929,0.054842234,-0.99780566,-0.037095688,0
-2.7596569,-2.7619622,1.6669472,-0.97908121,-0.04644835,-0.19809692,0
-0.6874795,-3.0908957,4.818327,-0.19593918,-0.047183782,0.97948021,0
1.3863165,-4.016077,2.2453728,0.054842234,-0.99780566,-0.037095688,0
2.2938566,4.2625141,-3.4333019,-0.054842234,0.99780566,0.037095688,0
-1.0170286,1.2004491,-5.2503705,0.19593918,0.047183782,-0.97948021,0
2.9525113,2.5138781,-4.3930168,0.19593918,0.047183782,-0.97948021,0
-2.428066,-0.97680712,-0.39048913,-0.97908121,-0.04644835,-0.19809692,0
-0.11374259,0.024679422,-5.1263132,0.19593918,0.047183782,-0.97948021,0
-1.4380622,-2.0682209,-5.0276136,-0.97908121,-0.04644835,-0.19809692,0
2.1887424,2.5858247,1.1960617,0.97908121,0.04644835,0.19809692,0
-0.36890459,2.9632649,-5.0357985,0.19593918,0.047183782,-0.97948021,0
-3.3425615,2.2306931,3.3772752,-0.97908121,-0.04644835,-0.19809692,0
3.0195422,2.1779487,-4.3957901,0.19593918,0.047183782,-0.97948021,0
-1.3220472,4.0488234,-3.0311599,-0.054842234,0.99780566,0.037095688,0
-2.6146379,-1.0531141,4.5309744,-0.19593918,-0.047183782,0.97948021,0
-2.5470984,-2.4685895,0.54760283,-0.97908121,-0.04644835,-0.19809692,0
3.6223025,-3.4900098,-4.4645991,0.97908121,0.04644835,0.19809692,0
2.4515591,0.46927595,0.39337853,0.97908121,0.04644835,0.19809692,0
-2.7195587,-3.0034053,1.5253783,-0.97908121,-0.04644835,-0.19809692,0
0.61423516,4.2127295,-4.7789378,0.19593918,0.047183782,-0.97948021,0
-1.9231822,3.9563508,-1.4325478,-0.054842234,0.99780566,0.037095688,0
3.0335898,0.45537567,-2.4800119,0.97908121,0.04644835,0.19809692,0
-3.3372996,0.67939639,3.7150044,-0.97908121,-0.04644835,-0.19809692,0
-2.9440017,-0.74599409,2.1053698,-0.97908121,-0.04644835,-0.19809692,0
3.1513534,-0.94694591,-2.7332439,0.97908121,0.04644835,0.19809692,0
-2.074852,-2.8220358,-1.7035713,-0.97908121,-0.04644835,-0.19809692,0
-0.31628156,-3.937012,4.8518233,-0.19593918,-0.047183782,0.97948021,0
-0.74257064,3.795969,4.626843,-0.054842234,0.99780566,0.037095688,0
3.209785,0.66512394,-3.4000254,0.97908121,0.04644835,0.19809692,0
0.88671136,1.5255971,5.3556209,-0.19593918,-0.047183782,0.97948021,0
-1.4228356,-0.39867663,-5.4085832,0.19593918,0.047183782,-0.97948021,0
-1.8050489,-4.0952587,-0.34290618,0.054842234,-0.99780566,-0.037095688,0
3.2462947,-1.6246967,-3.04357,0.97908121,0.04644835,0.19809692,0
-2.6888053,1.2780044,0.36950552,-0.97908121,-0.04644835,-0.19809692,0
-0.12291479,3.8327043,4.5548272,-0.054842234,0.99780566,0.037095688,0
-1.7564573,2.304656,-4.4792867,-0.97908121,-0.04644835,-0.19809692,0
2.687691,3.2351644,-4.4112468,0.19593918,0.047183782,-0.97948021,0
-1.4025004,3.4153569,4.9887118,-0.19593918,-0.047183782,0.97948021,0
0.82059097,-3.8075264,-4.2006292,0.054842234,-0.99780566,-0.037095688,0
-2.5950994,2.4114339,4.7017779,-0.19593918,-0.047183782,0.97948021,0
-0.52895045,4.0771561,-2.6207528,-0.054842234,0.99780566,0.037095688,0
-1.9069576,3.0666115,-3.9141061,-0.97908121,-0.04644835,-0.19809692,0
-2.1565795,-1.819073,-1.5348063,-0.97908121,-0.04644835,-0.19809692,0
1.0277553,0.74141794,5.3460608,-0.19593918,-0.047183782,0.97948021,0
2.576189,1.8219037,-0.53975153,0.97908121,0.04644835,0.19809692,0
2.8904862,4.0964351,-2.6264601,0.97908121,0.04644835,0.19809692,0
0.023674965,4.180294,-4.5779834,-0.054842234,0.99780566,0.037095688,0
1.3981988,1.5065546,5.3563309,0.97908121,0.04644835,0.19809692,0
-2.6046822,1.6112094,-0.12439552,-0.97908121,-0.04644835,-0.19809692,0
-2.3427882,2.6126859,-1.653607,-0.97908121,-0.04644835,-0.19809692,0
2.8812025,4.3121691,-3.9005992,-0.054842234,0.99780566,0.037095688,0
1.7316076,-1.9737694,4.5245218,0.97908121,0.04644835,0.19809692,0
-2.0764878,3.9903748,-3.2928128,-0.97908121,-0.04644835,-0.19809692,0
-2.660198,2.6964185,4.7024841,-0.19593918,-0.047183782,0.97948021,0
2.4858112,-1.1778035,0.61028475,0.97908121,0.04644835,0.19809692,0
0.89967966,2.087913,-4.824193,0.19593918,0.047183782,-0.97948021,0
1.9200568,4.2315903,-3.1541355,-0.054842234,0.99780566,0.037095688,0
-3.2415004,2.1668525,2.8927541,-0.97908121,-0.04644835,-0.19809692,0
-1.4445739,3.3224695,4.975821,-0.19593918,-0.047183782,0.97948021,0
2.0066023,-3.8644278,-0.9166826,0.054842234,-0.99780566,-0.037095688,0
1.403172,-2.0594027,-4.9232578,0.19593918,0.047183782,-0.97948021,0
2.0615156,-0.16678834,2.4702847,0.97908121,0.04644835,0.19809692,0
-2.1215277,2.7660699,4.8135972,-0.19593918,-0.047183782,0.97948021,0
-2.6777532,1.3467493,0.29876173,-0.97908121,-0.04644835,-0.19809692,0
-1.3914826,3.7786596,4.1330843,-0.054842234,0.99780566,0.037095688,0
0.11177111,2.9765682,-4.9390011,0.19593918,0.047183782,-0.97948021,0
0.558393,-4.1099529,3.5464466,0.054842234,-0.99780566,-0.037095688,0
2.0165558,2.1190875,2.1565182,0.97908121,0.04644835,0.19809692,0
2.3555872,-2.1483376,1.4814731,0.97908121,0.04644835,0.19809692,0
-2.2669711,-2.567467,4.5275736,-0.19593918,-0.047183782,0.97948021,0
-1.5959899,3.736825,4.9560227,-0.054842234,0.99780566,0.037095688,0
-1.0742011,3.6631274,5.0663218,-0.19593918,-0.047183782,0.97948021,0
0.97740459,4.102006,-1.0621724,-0.054842234,0.99780566,0.037095688,0
-0.53802586,-3.8548279,-4.936883,0.054842234,-0.99780566,-0.037095688,0
-2.5358994,-2.8024817,0.57054281,-0.97908121,-0.04644835,-0.19809692,0
2.7237997,-3.6928627,0.0237571,0.97908121,0.04644835,0.19809692,0
-2.8883247,-1.2998772,1.9600612,-0.97908121,-0.04644835,-0.19809692,0
-1.9436793,3.9036641,-0.045676887,-0.054842234,0.99780566,0.037095688,0
2.1296663,-2.6928818,2.725754,0.97908121,0.04644835,0.19809692,0
1.7624857,-3.8255906,4.8061094,0.97908121,0.04644835,0.19809692,0
0.72365761,4.0224276,0.70319402,-0.054842234,0.99780566,0.037095688,0
-2.2376242,-4.116673,-0.40641537,0.054842234,-0.99780566,-0.037095688,0
-0.36036682,3.8572121,3.54457,-0.054842234,0.99780566,0.037095688,0
-2.784153,-0.23666048,1.1959027,-0.97908121,-0.04644835,-0.19809692,0
-2.516047,-2.9394417,4.4598284,-0.19593918,-0.047183782,0.97948021,0
-2.8771353,1.7689788,4.6144104,-0.19593918,-0.047183782,0.97948021,0
-1.6929946,-3.9799881,-3.2777998,0.054842234,-0.99780566,-0.037095688,0
3.2297664,-2.9325318,-4.5999193,0.19593918,0.047183782,-0.97948021,0
0.14563036,2.5777693,5.2580576,-0.19593918,-0.047183782,0.97948021,0
