1.0328283,-4.4707131,-1.267633,-0.020226598,-0.99884129,-0.043670863,0
4.6572142,-3.7233074,2.0826578,0.98968995,-0.026197731,0.14081043,0
-4.5346522,3.7044487,-2.9475965,-0.98968995,0.026197731,-0.14081043,0
4.601923,1.8305155,3.2620602,-0.14179137,-0.040372431,0.98907298,0
3.8615184,4.4868555,-1.3684573,0.020226598,0.99884129,0.043670863,0
-4.9204617,2.843472,1.9382992,-0.14179137,-0.040372431,0.98907298,0
-3.1633704,-0.93341529,-3.0192139,0.14179137,0.040372431,-0.98907298,0
-4.3179293,4.653718,-1.3965403,0.020226598,0.99884129,0.043670863,0
-2.7144747,3.3416753,-2.7803586,0.14179137,0.040372431,-0.98907298,0
5.269805,1.0287762,-1.3388267,0.98968995,-0.026197731,0.14081043,0
1.9376504,-3.1532402,-2.3785529,0.14179137,0.040372431,-0.98907298,0
0.24045908,0.33752441,2.5758684,-0.14179137,-0.040372431,0.98907298,0
2.1150541,4.5396485,-1.7670426,0.020226598,0.99884129,0.043670863,0
4.6550555,-4.2605782,-2.0341916,0.14179137,0.040372431,-0.98907298,0
3.8956299,-0.90040874,-2.005904,0.14179137,0.040372431,-0.98907298,0
-4.1504054,-0.22938412,-3.1319757,0.14179137,0.040372431,-0.98907298,0
1.3459561,0.20843124,2.7290807,-0.14179137,-0.040372431,0.98907298,0
-1.7041492,-4.5305219,1.3679843,-0.020226598,-0.99884129,-0.043670863,0
0.37430716,-4.3958201,-2.6533904,0.14179137,0.040372431,-0.98907298,0
3.9202938,-4.5589733,-0.58628905,-0.020226598,-0.99884129,-0.043670863,0
2.1320119,1.018105,2.8748176,-0.14179137,-0.040372431,0.98907298,0
-2.7938313,4.60254,-0.93189585,0.020226598,0.99884129,0.043670863,0
-3.888484,-4.4811225,1.2498178,-0.020226598,-0.99884129,-0.043670863,0
-3.6630886,4.6062379,-0.61386371,0.020226598,0.99884129,0.043670863,0
2.4174924,-4.4509258,-2.3615289,-0.020226598,-0.99884129,-0.043670863,0
-2.5352757,-4.4751096,0.48553038,-0.020226598,-0.99884129,-0.043670863,0
2.4385531,4.4602141,-0.1000514,0.020226598,0.99884129,0.043670863,0
4.1160307,3.5914834,-1.7909555,0.14179137,0.040372431,-0.98907298,0
3.3119478,-1.2551936,2.9511781,-0.14179137,-0.040372431,0.98907298,0
0.58489084,4.4414873,1.1868155,0.020226598,0.99884129,0.043670863,0
4.5421386,-3.9711156,-2.0385637,0.14179137,0.040372431,-0.98907298,0
5.0497737,2.3139939,0.44678354,0.98968995,-0.026197731,0.14081043,0
1.3895562,-4.6270566,2.1430457,-0.020226598,-0.99884129,-0.043670863,0
-2.4656792,4.584331,-0.6674068,0.020226598,0.99884129,0.043670863,0
-5.0573101,4.0027561,0.7814157,-0.98968995,0.026197731,-0.14081043,0
4.990428,0.88894939,0.59876585,0.98968995,-0.026197731,0.14081043,0
-3.1392255,4.6369591,-1.5591563,0.020226598,0.99884129,0.043670863,0
4.7213407,-2.8551021,1.7934732,0.98968995,-0.026197731,0.14081043,0
4.1064525,2.6933014,-1.8289914,0.14179137,0.040372431,-0.98907298,0
4.7996449,3.2665992,2.3820515,0.98968995,-0.026197731,0.14081043,0
-3.4375627,-4.3132763,-2.7980189,-0.020226598,-0.99884129,-0.043670863,0
-5.0423808,0.31827974,-0.0090112686,-0.98968995,0.026197731,-0.14081043,0
-0.90417051,2.3488984,2.4938781,-0.14179137,-0.040372431,0.98907298,0
-4.7399492,4.5403557,1.3917505,0.020226598,0.99884129,0.043670863,0
-4.1028481,4.526679,1.4094887,0.020226598,0.99884129,0.043670863,0
-5.0241299,-3.2287674,-0.79721689,-0.98968995,0.026197731,-0.14081043,0
-2.3402424,-4.3528962,-2.4000635,-0.020226598,-0.99884129,-0.043670863,0
-4.536675,-4.3547645,-1.3400245,-0.020226598,-0.99884129,-0.043670863,0
4.8214073,2.4962831,2.0857739,0.98968995,-0.026197731,0.14081043,0
-1.7778418,-1.6405351,2.2057879,-0.14179137,-0.040372431,0.98907298,0
-1.9304352,4.5949993,-1.1593127,0.020226598,0.99884129,0.043670863,0
2.1528044,-1.7794666,2.7636056,-0.14179137,-0.040372431,0.98907298,0
5.2141185,2.4880064,-1.6785784,0.14179137,0.040372431,-0.98907298,0
-3.7825835,4.5843458,-0.057806611,0.020226598,0.99884129,0.043670863,0
-2.2424703,-4.350327,-2.5041192,-0.020226598,-0.99884129,-0.043670863,0
4.6687732,-0.98291957,2.5112643,0.98968995,-0.026197731,0.14081043,0
-5.3580375,-2.7244995,1.6434803,-0.98968995,0.026197731,-0.14081043,0
0.87694216,4.4037514,1.9146562,0.020226598,0.99884129,0.043670863,0
-4.7897501,-2.6211705,-2.3315134,-0.98968995,0.026197731,-0.14081043,0
4.9671226,1.5020281,0.87663174,0.98968995,-0.026197731,0.14081043,0
-3.3090138,4.4775763,2.1648927,0.020226598,0.99884129,0.043670863,0
5.1488748,-3.1301098,-1.2626278,0.98968995,-0.026197731,0.14081043,0
-4.4731369,-4.4822245,1.5458088,-0.020226598,-0.99884129,-0.043670863,0
4.9420242,-1.5618279,0.48300385,0.98968995,-0.026197731,0.14081043,0
-1.0294302,1.4712564,2.4400973,-0.14179137,-0.040372431,0.98907298,0
4.6780944,3.3990502,3.2610154,0.98968995,-0.026197731,0.14081043,0
2.8535075,1.1199417,2.9824069,-0.14179137,-0.040372431,0.98907298,0
-5.3371453,-3.1999273,1.6318822,-0.14179137,-0.040372431,0.98907298,0
-4.7074242,1.0294745,-2.2309432,-0.98968995,0.026197731,-0.14081043,0
-3.2129049,2.8992805,-2.8698702,0.14179137,0.040372431,-0.98907298,0
4.726079,1.1373321,2.5029602,0.98968995,-0.026197731,0.14081043,0
4.9595213,-4.5659885,-0.90716934,-0.020226598,-0.99884129,-0.043670863,0
-5.1790395,-4.2193012,1.6129384,-0.14179137,-0.040372431,0.98907298,0
5.1411257,3.0805299,-0.052670956,0.98968995,-0.026197731,0.14081043,0
-4.5001159,0.81973124,-3.139286,0.14179137,0.040372431,-0.98907298,0
-5.315371,-4.2289715,1.063693,-0.98968995,0.026197731,-0.14081043,0
-0.20633698,4.5347753,-0.5804069,0.020226598,0.99884129,0.043670863,0
4.8534417,1.4866683,1.6727853,0.98968995,-0.026197731,0.14081043,0
2.2073953,-4.5360789,-0.31659788,-0.020226598,-0.99884129,-0.043670863,0
4.5331817,-1.4976261,-1.9388835,0.14179137,0.040372431,-0.98907298,0
-2.5180154,2.4582362,2.2669842,-0.14179137,-0.040372431,0.98907298,0
-4.7995052,-4.2062216,1.6678815,-0.14179137,-0.040372431,0.98907298,0
4.6004,-1.0138108,2.9860778,0.98968995,-0.026197731,0.14081043,0
-3.418009,-4.4515781,0.35617161,-0.020226598,-0.99884129,-0.043670863,0
5.0215464,-0.44664812,0.1315608,0.98968995,-0.026197731,0.14081043,0
5.0647674,2.5187018,0.37948847,0.98968995,-0.026197731,0.14081043,0
-2.3447382,-3.3522937,-3.0005915,0.14179137,0.040372431,-0.98907298,0
0.16345191,0.80301118,2.5838296,-0.14179137,-0.040372431,0.98907298,0
4.6184244,-3.8646297,2.3290019,0.98968995,-0.026197731,0.14081043,0
2.7328696,-4.6285305,1.5545862,-0.020226598,-0.99884129,-0.043670863,0
-4.642828,-4.3319349,-1.8130336,-0.020226598,-0.99884129,-0.043670863,0
4.8560739,4.3244123,1.8863192,0.020226598,0.99884129,0.043670863,0
1.0170193,-4.4365277,-2.0421972,-0.020226598,-0.99884129,-0.043670863,0
4.1143298,-0.13984728,-1.9435067,0.14179137,0.040372431,-0.98907298,0
-0.68050194,-4.4095736,-1.8724794,-0.020226598,-0.99884129,-0.043670863,0
-4.7912474,3.540154,-1.1746767,-0.98968995,0.026197731,-0.14081043,0
-4.9430456,-0.19235921,-0.8021946,-0.98968995,0.026197731,-0.14081043,0
4.1327939,4.3676429,1.2325292,0.020226598,0.99884129,0.043670863,0
3.524683,-0.87967491,-2.0582361,0.14179137,0.040372431,-0.98907298,0
-5.2671299,-0.10833359,1.491272,-0.98968995,0.026197731,-0.14081043,0
2.4331586,4.401639,1.2421749,0.020226598,0.99884129,0.043670863,0
-4.5978069,-4.3804979,-0.72314978,-0.020226598,-0.99884129,-0.043670863,0
4.4058352,-4.5795636,-0.34024072,-0.020226598,-0.99884129,-0.043670863,0
-0.23862028,-4.410387,-2.0585241,-0.020226598,-0.99884129,-0.043670863,0
-1.832736,2.3823578,-2.6931124,0.14179137,0.040372431,-0.98907298,0
-4.9758754,2.3261747,-0.1028769,-0.98968995,0.026197731,-0.14081043,0
4.451231,-4.5393143,-1.28185,-0.020226598,-0.99884129,-0.043670863,0
-1.5259733,-4.4199018,-1.2446477,-0.020226598,-0.99884129,-0.043670863,0
-4.551168,4.3393345,-2.7133927,-0.98968995,0.026197731,-0.14081043,0
-0.27202177,4.5166225,-0.13478529,0.020226598,0.99884129,0.043670863,0
-4.7908769,-3.1625342,-2.4243178,-0.98968995,0.026197731,-0.14081043,0
-2.1332407,4.4914322,1.3034101,0.020226598,0.99884129,0.043670863,0
4.095767,-0.74213344,3.0844867,-0.14179137,-0.040372431,0.98907298,0
5.1754503,0.094825506,-0.84941196,0.98968995,-0.026197731,0.14081043,0
-4.5148268,-4.4249144,0.25431395,-0.020226598,-0.99884129,-0.043670863,0
-1.4099319,0.07807672,-2.7265573,0.14179137,0.040372431,-0.98907298,0
-2.9344354,1.4956179,-2.8872449,0.14179137,0.040372431,-0.98907298,0
3.5341945,4.4518404,-0.41598415,0.020226598,0.99884129,0.043670863,0
4.1455703,4.4971619,-1.7357473,0.020226598,0.99884129,0.043670863,0
-1.0738568,-4.5574274,1.6914344,-0.020226598,-0.99884129,-0.043670863,0
-2.2594163,2.1634643,2.2920239,-0.14179137,-0.040372431,0.98907298,0
0.054515839,4.4199238,1.9256715,0.020226598,0.99884129,0.043670863,0
4.7219687,3.3347476,2.9406805,0.98968995,-0.026197731,0.14081043,0
1.0479591,4.579103,-2.1752071,0.020226598,0.99884129,0.043670863,0
3.2355783,-4.6164026,1.0443561,-0.020226598,-0.99884129,-0.043670863,0
-1.1691475,-4.1153841,-2.8632097,0.14179137,0.040372431,-0.98907298,0
2.5152597,4.5401888,-1.9647584,0.020226598,0.99884129,0.043670863,0
-5.0823364,-3.9685516,-0.52574778,-0.98968995,0.026197731,-0.14081043,0
-1.006242,-4.5245671,0.9085443,-0.020226598,-0.99884129,-0.043670863,0
-4.9317575,0.14712167,-0.81837273,-0.98968995,0.026197731,-0.14081043,0
2.4419553,2.5090306,2.9801078,-0.14179137,-0.040372431,0.98907298,0
4.5379386,4.4261913,-0.29422283,0.020226598,0.99884129,0.043670863,0
-4.4496784,4.6236129,-0.64696038,0.020226598,0.99884129,0.043670863,0
-4.6445923,4.5774164,0.49992764,0.020226598,0.99884129,0.043670863,0
4.7948527,-3.6527698,1.1283844,0.98968995,-0.026197731,0.14081043,0
-1.0728184,-0.22352934,-2.6905406,0.14179137,0.040372431,-0.98907298,0
4.841938,-0.27991819,1.4249632,0.98968995,-0.026197731,0.14081043,0
-5.1124034,-1.2677388,0.18806696,-0.98968995,0.026197731,-0.14081043,0
0.95378423,-1.0080476,-2.4320343,0.14179137,0.040372431,-0.98907298,0
4.6438003,0.087470919,2.8859315,0.98968995,-0.026197731,0.14081043,0
4.7368793,-2.3331575,1.7813661,0.98968995,-0.026197731,0.14081043,0
4.7681975,4.3304791,1.7882538,0.020226598,0.99884129,0.043670863,0
4.9817038,0.64565158,0.61481905,0.98968995,-0.026197731,0.14081043,0
5.1667032,-0.88228536,-0.96972466,0.98968995,-0.026197731,0.14081043,0
1.857561,1.379015,2.8502047,-0.14179137,-0.040372431,0.98907298,0
-2.1665363,-4.3485255,-2.5804911,-0.020226598,-0.99884129,-0.043670863,0
2.8705029,-4.4951601,-1.5596156,-0.020226598,-0.99884129,-0.043670863,0
4.8949127,-0.17042899,1.0730014,0.98968995,-0.026197731,0.14081043,0
-4.3386688,4.6296096,-0.83552516,0.020226598,0.99884129,0.043670863,0
0.55499935,3.8588748,-2.2905426,0.14179137,0.040372431,-0.98907298,0
-5.0525393,3.6157203,0.67587972,-0.98968995,0.026197731,-0.14081043,0
-4.9742398,-3.5323942,-1.2043576,-0.98968995,0.026197731,-0.14081043,0
4.7899976,-4.5920653,-0.23222589,-0.020226598,-0.99884129,-0.043670863,0
0.39103568,0.61030185,2.6085892,-0.14179137,-0.040372431,0.98907298,0
5.2834935,2.3941901,-1.1810026,0.98968995,-0.026197731,0.14081043,0
3.1691329,4.3958378,1.0339999,0.020226598,0.99884129,0.043670863,0
1.9277582,-4.4445214,-2.2811766,-0.020226598,-0.99884129,-0.043670863,0
-3.0631099,-4.3339491,-2.4986291,-0.020226598,-0.99884129,-0.043670863,0
2.2219162,3.5872455,2.9925747,-0.14179137,-0.040372431,0.98907298,0
5.1207676,-3.2558343,-1.0884678,0.98968995,-0.026197731,0.14081043,0
5.2266507,-1.7443953,-1.551465,0.98968995,-0.026197731,0.14081043,0
3.0581505,-2.7704515,2.8529437,-0.14179137,-0.040372431,0.98907298,0
0.1196146,-4.418757,-2.0330024,-0.020226598,-0.99884129,-0.043670863,0
4.1678662,4.3819828,0.88832903,0.020226598,0.99884129,0.043670863,0
-5.2784162,-3.6904697,0.90414333,-0.98968995,0.026197731,-0.14081043,0
1.0499778,3.8906028,-2.2182887,0.14179137,0.040372431,-0.98907298,0
-0.032076359,-0.080822945,2.5197222,-0.14179137,-0.040372431,0.98907298,0
-0.71458435,4.5582333,-0.88153392,0.020226598,0.99884129,0.043670863,0
-0.16933966,4.4598036,1.1172159,0.020226598,0.99884129,0.043670863,0
-1.1311052,4.6322002,-2.380404,0.020226598,0.99884129,0.043670863,0
-4.7876549,4.5477591,1.2445129,0.020226598,0.99884129,0.043670863,0
3.4914203,-0.75154686,-2.0577741,0.14179137,0.040372431,-0.98907298,0
1.8338628,-4.526989,-0.35148773,-0.020226598,-0.99884129,-0.043670863,0
-3.3463709,-4.3937798,-0.99897718,-0.020226598,-0.99884129,-0.043670863,0
-5.1752954,3.433006,1.5046804,-0.98968995,0.026197731,-0.14081043,0
-5.2045116,-0.6765852,0.94543362,-0.98968995,0.026197731,-0.14081043,0
1.1316451,-3.3580935,2.5527773,-0.14179137,-0.040372431,0.98907298,0
-5.1117234,-2.6292708,-0.070024967,-0.98968995,0.026197731,-0.14081043,0
1.9529843,4.5387182,-1.6707001,0.020226598,0.99884129,0.043670863,0
1.4443693,-4.4705524,-1.4619164,-0.020226598,-0.99884129,-0.043670863,0
2.767503,-4.5704918,0.21107593,-0.020226598,-0.99884129,-0.043670863,0
-1.402657,4.4563608,1.7671806,0.020226598,0.99884129,0.043670863,0
4.8746986,-1.3097131,-1.8822544,0.14179137,0.040372431,-0.98907298,0
0.59320402,-1.1216224,-2.4883623,0.14179137,0.040372431,-0.98907298,0
-4.8495116,-0.20217741,-1.4614263,-0.98968995,0.026197731,-0.14081043,0
-2.4981401,4.5825825,-0.61238045,0.020226598,0.99884129,0.043670863,0
4.7129221,2.5131907,2.8514113,0.98968995,-0.026197731,0.14081043,0
3.8711975,4.3590956,1.549191,0.020226598,0.99884129,0.043670863,0
2.7032204,-3.6476092,2.7662573,-0.14179137,-0.040372431,0.98907298,0
1.477946,4.5506063,-1.7225816,0.020226598,0.99884129,0.043670863,0
-4.177938,1.8360806,2.0036259,-0.14179137,-0.040372431,0.98907298,0
-5.1582117,-1.7534878,0.41966009,-0.98968995,0.026197731,-0.14081043,0
3.5266354,-4.0799422,2.8666532,-0.14179137,-0.040372431,0.98907298,0
-0.068106651,-3.222146,2.386333,-0.14179137,-0.040372431,0.98907298,0
-5.3270855,-3.7989705,1.2260327,-0.98968995,0.026197731,-0.14081043,0
2.0421469,3.7222104,-2.082927,0.14179137,0.040372431,-0.98907298,0
3.4099429,-4.6057444,0.71982306,-0.020226598,-0.99884129,-0.043670863,0
4.7529564,0.71997279,2.236403,0.98968995,-0.026197731,0.14081043,0
-4.5177031,-2.0384562,1.7967649,-0.14179137,-0.040372431,0.98907298,0
-4.8582435,-4.321238,-1.9579177,-0.020226598,-0.99884129,-0.043670863,0
-2.315522,1.4288466,2.2539947,-0.14179137,-0.040372431,0.98907298,0
-5.3455119,-2.1770101,1.6573062,-0.98968995,0.026197731,-0.14081043,0
4.2249985,-4.6024446,0.26686013,-0.020226598,-0.99884129,-0.043670863,0
2.5208697,-4.6138935,1.3179936,-0.020226598,-0.99884129,-0.043670863,0
5.0877848,-0.48256207,-0.34067965,0.98968995,-0.026197731,0.14081043,0
3.0364618,4.4088688,0.79740286,0.020226598,0.99884129,0.043670863,0
-3.1733742,-1.0723522,2.0289199,-0.14179137,-0.040372431,0.98907298,0
1.4920013,4.5368004,-1.4133301,0.020226598,0.99884129,0.043670863,0
-5.1493473,-4.3438177,-0.12457657,-0.98968995,0.026197731,-0.14081043,0
-4.0993295,-3.7931287,-3.2701206,0.14179137,0.040372431,-0.98907298,0
-1.135715,-4.4653821,-0.38517714,-0.020226598,-0.99884129,-0.043670863,0
4.7511415,2.6753392,2.6129551,0.98968995,-0.026197731,0.14081043,0
5.1398354,3.4264421,0.020755291,0.98968995,-0.026197731,0.14081043,0
-4.7139616,-3.7035728,-3.0655799,-0.98968995,0.026197731,-0.14081043,0
0.25829434,1.9002821,-2.4130247,0.14179137,0.040372431,-0.98907298,0
4.538228,-4.5644422,-0.74742198,-0.020226598,-0.99884129,-0.043670863,0
0.24509776,-3.1945107,2.4323611,-0.14179137,-0.040372431,0.98907298,0
-0.43155289,4.5757666,-1.4136558,0.020226598,0.99884129,0.043670863,0
-5.0900054,-4.0629187,-0.48939896,-0.98968995,0.026197731,-0.14081043,0
-1.6266286,-4.5184216,1.0553198,-0.020226598,-0.99884129,-0.043670863,0
-4.675447,0.60672283,-2.5343485,-0.98968995,0.026197731,-0.14081043,0
4.722621,4.2633953,3.1088691,0.98968995,-0.026197731,0.14081043,0
-5.1975374,-0.38505578,0.95065737,-0.98968995,0.026197731,-0.14081043,0
-5.1483727,4.2531347,1.4680345,-0.98968995,0.026197731,-0.14081043,0
-1.3249459,1.7669885,2.4098041,-0.14179137,-0.040372431,0.98907298,0
4.7343626,1.9020623,2.587018,0.98968995,-0.026197731,0.14081043,0
5.3731694,4.1331501,-1.4877596,0.98968995,-0.026197731,0.14081043,0
-4.6602592,4.4631648,-1.9236054,-0.98968995,0.026197731,-0.14081043,0
2.087709,-1.3203511,2.7730141,-0.14179137,-0.040372431,0.98907298,0
4.1620655,-0.90265775,3.0874388,-0.14179137,-0.040372431,0.98907298,0
-0.71002436,4.5339675,-0.32863843,0.020226598,0.99884129,0.043670863,0
-1.2895746,-4.4024596,2.1630473,-0.14179137,-0.040372431,0.98907298,0
4.9446483,-0.20016575,-1.826936,0.14179137,0.040372431,-0.98907298,0
-4.6379399,-1.8206778,-3.2495847,-0.98968995,0.026197731,-0.14081043,0
-1.7754111,-3.2549269,-2.915,0.14179137,0.040372431,-0.98907298,0
0.92025852,-0.067852974,-2.398463,0.14179137,0.040372431,-0.98907298,0
1.3558145,3.6235752,-2.1853442,0.14179137,0.040372431,-0.98907298,0
5.0759692,2.0451603,0.21265221,0.98968995,-0.026197731,0.14081043,0
-5.1900754,-2.9870074,0.41411591,-0.98968995,0.026197731,-0.14081043,0
3.526051,4.4791799,-1.0375214,0.020226598,0.99884129,0.043670863,0
-1.0654759,4.4608307,1.5087817,0.020226598,0.99884129,0.043670863,0
-1.0836806,4.514173,0.29716158,0.020226598,0.99884129,0.043670863,0
4.3197904,-2.1617575,-1.9965838,0.14179137,0.040372431,-0.98907298,0
1.1938376,4.3981476,1.8960497,0.020226598,0.99884129,0.043670863,0
0.39160514,4.5412474,-1.0053738,0.020226598,0.99884129,0.043670863,0
4.5792065,-1.9984264,2.9518485,0.98968995,-0.026197731,0.14081043,0
-5.2590561,-2.509768,0.98774195,-0.98968995,0.026197731,-0.14081043,0
-0.87139082,-4.3960252,-2.0939374,-0.020226598,-0.99884129,-0.043670863,0
-2.5477483,-4.384119,-1.5898235,-0.020226598,-0.99884129,-0.043670863,0
-4.3996229,-4.4229178,0.15529537,-0.020226598,-0.99884129,-0.043670863,0
-2.5425441,-3.3575997,2.0260739,-0.14179137,-0.040372431,0.98907298,0
5.0512142,-3.153579,-0.5805831,0.98968995,-0.026197731,0.14081043,0
0.13193321,2.5464642,-2.4047632,0.14179137,0.040372431,-0.98907298,0
1.6169214,-4.522295,-0.3583692,-0.020226598,-0.99884129,-0.043670863,0
-0.64368773,-4.3856635,-2.4363909,-0.020226598,-0.99884129,-0.043670863,0
-3.511251,-0.40941322,-3.0476966,0.14179137,0.040372431,-0.98907298,0
4.2005391,4.4445648,-0.55820513,0.020226598,0.99884129,0.043670863,0
2.1116467,-0.67582238,2.8027544,-0.14179137,-0.040372431,0.98907298,0
-0.003330946,4.6001582,-2.1698751,0.020226598,0.99884129,0.043670863,0
2.6272173,-4.5396709,-0.4288877,-0.020226598,-0.99884129,-0.043670863,0
1.7569669,3.6460977,-2.1269169,0.14179137,0.040372431,-0.98907298,0
0.027112007,-4.2514277,-2.6972699,0.14179137,0.040372431,-0.98907298,0
2.4243305,2.2667742,-2.0875468,0.14179137,0.040372431,-0.98907298,0
-2.2727053,-4.4532661,-0.13568306,-0.020226598,-0.99884129,-0.043670863,0
4.7936506,2.2105565,2.227704,0.98968995,-0.026197731,0.14081043,0
-4.7586136,-0.28365135,-2.1154652,-0.98968995,0.026197731,-0.14081043,0
0.034225941,-3.7233515,2.3805444,-0.14179137,-0.040372431,0.98907298,0
-5.208919,1.0760465,1.3024905,-0.98968995,0.026197731,-0.14081043,0
-4.5714941,2.1142917,1.9585629,-0.14179137,-0.040372431,0.98907298,0
1.5698681,0.8984102,2.7893443,-0.14179137,-0.040372431,0.98907298,0
-4.7543325,-0.5170064,-2.1889691,-0.98968995,0.026197731,-0.14081043,0
2.5389223,4.3328748,2.7659848,0.020226598,0.99884129,0.043670863,0
-4.2362528,2.2586999,-3.0427227,0.14179137,0.040372431,-0.98907298,0
0.0054900646,4.5985188,-2.1364608,0.020226598,0.99884129,0.043670863,0
2.2837405,1.7314875,-2.1295507,0.14179137,0.040372431,-0.98907298,0
-2.1032314,3.9468665,-2.6680291,0.14179137,0.040372431,-0.98907298,0
4.613976,-4.3098536,2.2774327,0.98968995,-0.026197731,0.14081043,0
0.38405085,-4.4565339,-1.291446,-0.020226598,-0.99884129,-0.043670863,0
2.6801512,-4.6223984,1.438758,-0.020226598,-0.99884129,-0.043670863,0
-3.4376018,-4.4647017,0.66540527,-0.020226598,-0.99884129,-0.043670863,0
2.1264687,-4.4971328,2.6488991,-0.14179137,-0.040372431,0.98907298,0
2.8313112,1.0515966,2.9764347,-0.14179137,-0.040372431,0.98907298,0
-4.3182573,-4.444809,0.61830711,-0.020226598,-0.99884129,-0.043670863,0
4.580349,-2.7455015,2.8048258,0.98968995,-0.026197731,0.14081043,0
-0.99560225,-1.0063709,-2.7114255,0.14179137,0.040372431,-0.98907298,0
-0.92717975,-1.7630908,2.3227346,-0.14179137,-0.040372431,0.98907298,0
-0.85508823,4.5258131,-0.074946046,0.020226598,0.99884129,0.043670863,0
-3.2489762,4.6746297,-2.3699346,0.020226598,0.99884129,0.043670863,0
-0.74749327,0.98424435,-2.5946033,0.14179137,0.040372431,-0.98907298,0
1.4746966,-4.1134329,-2.4841146,0.14179137,0.040372431,-0.98907298,0
-4.8238969,2.6889389,-1.1035695,-0.98968995,0.026197731,-0.14081043,0
4.2974381,1.8959464,3.2210803,-0.14179137,-0.040372431,0.98907298,0
-5.0970469,3.7559102,1.0147858,-0.98968995,0.026197731,-0.14081043,0
4.8834925,-4.0400534,-1.9924419,0.14179137,0.040372431,-0.98907298,0
-4.8393993,2.2815695,-1.0703998,-0.98968995,0.026197731,-0.14081043,0
-5.062994,2.152787,0.47718215,-0.98968995,0.026197731,-0.14081043,0
-4.7350211,0.00080925226,-2.2283599,-0.98968995,0.026197731,-0.14081043,0
1.7561185,-3.917552,2.6194644,-0.14179137,-0.040372431,0.98907298,0
-4.1191206,-3.1167455,1.8098907,-0.14179137,-0.040372431,0.98907298,0
-4.0852203,-4.3731146,-1.129426,-0.020226598,-0.99884129,-0.043670863,0
-1.9960845,-4.4489942,-0.361516,-0.020226598,-0.99884129,-0.043670863,0
0.43564272,3.0689378,2.7153418,-0.14179137,-0.040372431,0.98907298,0
1.7970152,4.4785023,-0.22120142,0.020226598,0.99884129,0.043670863,0
0.79235744,-4.5822644,1.3951607,-0.020226598,-0.99884129,-0.043670863,0
3.9832048,-3.0620551,-2.0815847,0.14179137,0.040372431,-0.98907298,0
-3.2396581,-2.8476417,-3.1082861,0.14179137,0.040372431,-0.98907298,0
-4.7920785,2.1294541,-1.4312983,-0.98968995,0.026197731,-0.14081043,0
5.0749092,3.2403531,0.4424696,0.98968995,-0.026197731,0.14081043,0
-1.0743396,-4.555882,1.6563203,-0.020226598,-0.99884129,-0.043670863,0
-4.5768013,0.49870527,-3.1633832,0.14179137,0.040372431,-0.98907298,0
4.9421806,0.24958277,0.81891918,0.98968995,-0.026197731,0.14081043,0
1.0113931,4.3705592,2.6115515,0.020226598,0.99884129,0.043670863,0
4.756886,-1.1080798,1.8686745,0.98968995,-0.026197731,0.14081043,0
-0.35810757,4.4722815,0.91925383,0.020226598,0.99884129,0.043670863,0
-2.1851053,3.987339,2.377125,-0.14179137,-0.040372431,0.98907298,0
-5.1727972,1.4031596,1.1094646,-0.98968995,0.026197731,-0.14081043,0
-0.33131671,4.6007447,-2.0313878,0.020226598,0.99884129,0.043670863,0
0.91640216,1.7482362,-2.3248858,0.14179137,0.040372431,-0.98907298,0
1.2282399,0.56094563,2.7265942,-0.14179137,-0.040372431,0.98907298,0
-4.0565972,-1.3907282,1.8893075,-0.14179137,-0.040372431,0.98907298,0
4.9223828,-4.4113641,0.090899229,0.98968995,-0.026197731,0.14081043,0
1.654125,-0.93075681,-2.32848,0.14179137,0.040372431,-0.98907298,0
4.70399,-3.0337434,1.8821859,0.98968995,-0.026197731,0.14081043,0
0.4102402,-1.7950056,2.5131612,-0.14179137,-0.040372431,0.98907298,0
5.1026411,2.9045897,0.18508053,0.98968995,-0.026197731,0.14081043,0
5.2870455,-0.18991375,-1.6867387,0.98968995,-0.026197731,0.14081043,0
5.3290277,4.3340778,-1.1401243,0.98968995,-0.026197731,0.14081043,0
-2.2891891,3.1197152,-2.7284505,0.14179137,0.040372431,-0.98907298,0
1.7497692,-3.6624198,-2.426271,0.14179137,0.040372431,-0.98907298,0
-2.2296937,3.6778688,2.3581004,-0.14179137,-0.040372431,0.98907298,0
-2.4304571,-4.4863253,0.69351459,-0.020226598,-0.99884129,-0.043670863,0
-4.7452965,-3.4766335,-2.8031187,-0.98968995,0.026197731,-0.14081043,0
5.1533117,2.7161138,-0.20612431,0.98968995,-0.026197731,0.14081043,0
4.833529,-2.1491711,1.1362917,0.98968995,-0.026197731,0.14081043,0
0.20106262,-2.1132469,2.4701838,-0.14179137,-0.040372431,0.98907298,0
-5.1621404,4.2814674,1.5700754,-0.98968995,0.026197731,-0.14081043,0
-3.9789302,4.5982633,-0.28518033,0.020226598,0.99884129,0.043670863,0
4.8055696,1.0872158,1.9349356,0.98968995,-0.026197731,0.14081043,0
-2.899123,-2.4300523,-3.0424225,0.14179137,0.040372431,-0.98907298,0
-2.7794199,-3.4660728,1.9876883,-0.14179137,-0.040372431,0.98907298,0
0.62177515,3.6884871,-2.2879248,0.14179137,0.040372431,-0.98907298,0
-0.41439962,-3.5251305,-2.7309175,0.14179137,0.040372431,-0.98907298,0
0.83927226,1.2721215,2.699862,-0.14179137,-0.040372431,0.98907298,0
4.9225311,4.1622229,1.6849747,0.98968995,-0.026197731,0.14081043,0
-4.6484246,2.0408144,1.9445345,-0.14179137,-0.040372431,0.98907298,0
-4.1985931,4.5337062,1.2930944,0.020226598,0.99884129,0.043670863,0
0.28419924,-4.6081834,2.2233391,-0.020226598,-0.99884129,-0.043670863,0
4.574358,4.4449415,-0.73995066,0.020226598,0.99884129,0.043670863,0
2.5111444,4.5012751,-1.072818,0.020226598,0.99884129,0.043670863,0
5.0257397,0.10399342,0.20453358,0.98968995,-0.026197731,0.14081043,0
1.6688014,0.42596483,2.7842426,-0.14179137,-0.040372431,0.98907298,0
1.290992,4.5017943,-0.51956415,0.020226598,0.99884129,0.043670863,0
4.77667,-2.7852035,-1.9565346,0.14179137,0.040372431,-0.98907298,0
-4.6414018,-1.1118888,-3.093385,-0.98968995,0.026197731,-0.14081043,0
-2.333703,-4.3505321,-2.4571767,-0.020226598,-0.99884129,-0.043670863,0
-5.0468988,-1.5138023,-0.31811476,-0.98968995,0.026197731,-0.14081043,0
4.8949938,-0.63441551,0.98610497,0.98968995,-0.026197731,0.14081043,0
-2.3640542,4.5638552,-0.24614774,0.020226598,0.99884129,0.043670863,0
-4.1694002,-4.3328447,-2.0114861,-0.020226598,-0.99884129,-0.043670863,0
5.0456333,3.0476108,0.6123724,0.98968995,-0.026197731,0.14081043,0
5.2333441,-2.8405015,-1.8024414,0.98968995,-0.026197731,0.14081043,0
1.1164396,-4.6070137,2.4996185,-0.14179137,-0.040372431,0.98907298,0
-0.71484977,-1.0884776,2.3807106,-0.14179137,-0.040372431,0.98907298,0
-4.2324562,-3.0815537,1.7950797,-0.14179137,-0.040372431,0.98907298,0
5.3107986,0.7375598,-1.7361693,0.14179137,0.040372431,-0.98907298,0
1.5103149,3.9111183,2.9037812,-0.14179137,-0.040372431,0.98907298,0
-2.3406441,4.6194,-1.5274202,0.020226598,0.99884129,0.043670863,0
2.9392061,3.9073572,-1.946769,0.14179137,0.040372431,-0.98907298,0
-0.074212074,4.4541454,1.2025781,0.020226598,0.99884129,0.043670863,0
1.1665478,-4.5844717,1.2723249,-0.020226598,-0.99884129,-0.043670863,0
-0.11889935,4.5655794,-1.3254558,0.020226598,0.99884129,0.043670863,0
-4.8989987,4.1648707,-0.30111527,-0.98968995,0.026197731,-0.14081043,0
-4.1018224,-4.2973957,-2.8535757,-0.020226598,-0.99884129,-0.043670863,0
4.3499389,-2.0660102,-1.9883535,0.14179137,0.040372431,-0.98907298,0
4.8197036,-0.31228685,1.5752158,0.98968995,-0.026197731,0.14081043,0
-0.93107986,-0.30609715,-2.6735916,0.14179137,0.040372431,-0.98907298,0
4.6070108,-4.6029997,2.2718465,0.98968995,-0.026197731,0.14081043,0
-5.2188187,-3.2398758,0.56909084,-0.98968995,0.026197731,-0.14081043,0
-0.35370922,-4.5820303,2.2898812,-0.14179137,-0.040372431,0.98907298,0
-4.7137156,2.894645,-1.8397083,-0.98968995,0.026197731,-0.14081043,0
0.05253768,-4.1131368,2.3672595,-0.14179137,-0.040372431,0.98907298,0
4.9874411,-1.6707437,0.14352894,0.98968995,-0.026197731,0.14081043,0
-0.14559078,3.8518424,2.6639748,-0.14179137,-0.040372431,0.98907298,0
-2.9811418,-3.7365253,1.9477305,-0.14179137,-0.040372431,0.98907298,0
-4.8341742,-3.2187634,-2.1304603,-0.98968995,0.026197731,-0.14081043,0
-1.5711949,4.6147137,-1.7766055,0.020226598,0.99884129,0.043670863,0
-1.9264581,4.5459776,-0.039937198,0.020226598,0.99884129,0.043670863,0
-2.933409,1.3523138,-2.8929472,0.14179137,0.040372431,-0.98907298,0
-2.884481,4.6446505,-2.751545,0.14179137,0.040372431,-0.98907298,0
-0.946244,3.4084885,-2.5241418,0.14179137,0.040372431,-0.98907298,0
-2.3421755,-3.7648253,2.0381763,-0.14179137,-0.040372431,0.98907298,0
4.4126329,-4.691679,2.2209167,-0.020226598,-0.99884129,-0.043670863,0
4.5611348,-3.2524638,2.8455529,0.98968995,-0.026197731,0.14081043,0
-4.6444783,-0.59595114,-2.9757695,-0.98968995,0.026197731,-0.14081043,0
-4.6691442,2.4176857,-2.2417173,-0.98968995,0.026197731,-0.14081043,0
1.4519744,-4.5935135,1.3469448,-0.020226598,-0.99884129,-0.043670863,0
-3.6901147,-0.8512361,1.9638667,-0.14179137,-0.040372431,0.98907298,0
-0.031027317,-4.5861897,1.8662982,-0.020226598,-0.99884129,-0.043670863,0
0.69055271,-2.6588845,-2.5371552,0.14179137,0.040372431,-0.98907298,0
1.4700828,4.0958509,2.9055543,-0.14179137,-0.040372431,0.98907298,0
-4.7951164,4.6092544,-0.94857764,-0.98968995,0.026197731,-0.14081043,0
1.9838449,-0.42317188,2.7947459,-0.14179137,-0.040372431,0.98907298,0
0.34704441,-1.5011234,2.5160975,-0.14179137,-0.040372431,0.98907298,0
-2.9257004,2.065021,-2.8627505,0.14179137,0.040372431,-0.98907298,0
-0.95588923,4.4499412,1.7070946,0.020226598,0.99884129,0.043670863,0
5.0023203,-2.8804779,-0.1861217,0.98968995,-0.026197731,0.14081043,0
4.723845,-2.4735742,1.8468542,0.98968995,-0.026197731,0.14081043,0
-1.304132,-4.3291173,-2.8912852,0.14179137,0.040372431,-0.98907298,0
-3.4656847,4.5680385,0.16840142,0.020226598,0.99884129,0.043670863,0
-2.9444609,-4.1000938,-3.1170907,0.14179137,0.040372431,-0.98907298,0
-2.7924097,4.661602,-2.2834332,0.020226598,0.99884129,0.043670863,0
1.9037914,4.3696413,2.2192209,0.020226598,0.99884129,0.043670863,0
-1.5501828,-4.4846916,0.24844217,-0.020226598,-0.99884129,-0.043670863,0
1.5173903,-4.5083971,-0.63014913,-0.020226598,-0.99884129,-0.043670863,0
2.7919469,-3.2783549,2.7940495,-0.14179137,-0.040372431,0.98907298,0
1.6061127,-3.4156528,-2.4367926,0.14179137,0.040372431,-0.98907298,0
-1.4767892,-1.018122,2.2743521,-0.14179137,-0.040372431,0.98907298,0
-1.0462523,4.5222282,0.095577598,0.020226598,0.99884129,0.043670863,0
2.4540544,-3.8254061,2.72328,-0.14179137,-0.040372431,0.98907298,0
-4.8245659,-3.0807405,-2.1723166,-0.98968995,0.026197731,-0.14081043,0
5.0754156,-0.062975883,-0.17567587,0.98968995,-0.026197731,0.14081043,0
-4.7553611,-1.7665509,-2.414216,-0.98968995,0.026197731,-0.14081043,0
-5.1940246,-1.5234251,0.71417332,-0.98968995,0.026197731,-0.14081043,0
2.9684007,2.4211676,3.0519912,-0.14179137,-0.040372431,0.98907298,0
2.1058247,4.5312638,-1.5709932,0.020226598,0.99884129,0.043670863,0
-4.8177032,4.4395199,-0.82140374,-0.98968995,0.026197731,-0.14081043,0
4.6591015,-2.8281577,2.2359354,0.98968995,-0.026197731,0.14081043,0
1.831028,-2.7413292,-2.3770247,0.14179137,0.040372431,-0.98907298,0
0.2778945,-4.5768461,1.5095115,-0.020226598,-0.99884129,-0.043670863,0
-0.71489716,-4.4384718,-1.1955907,-0.020226598,-0.99884129,-0.043670863,0
3.9738953,-4.6324129,1.0685942,-0.020226598,-0.99884129,-0.043670863,0
1.0702798,2.3196237,2.7757363,-0.14179137,-0.040372431,0.98907298,0
-2.2275829,-2.7288902,2.0968893,-0.14179137,-0.040372431,0.98907298,0
4.9249377,-2.1980009,0.48473811,0.98968995,-0.026197731,0.14081043,0
-0.88327289,-4.514308,0.6169467,-0.020226598,-0.99884129,-0.043670863,0
-0.19165897,4.5522738,-0.98742425,0.020226598,0.99884129,0.043670863,0
-2.395721,-4.3741145,-1.8890741,-0.020226598,-0.99884129,-0.043670863,0
-4.6607904,2.6866844,1.9691256,-0.14179137,-0.040372431,0.98907298,0
-5.0514421,4.3827181,0.81086731,-0.98968995,0.026197731,-0.14081043,0
3.7005727,-1.3822684,3.0017037,-0.14179137,-0.040372431,0.98907298,0
4.879221,4.2461171,2.0049906,0.98968995,-0.026197731,0.14081043,0
0.46084714,4.0217352,-2.2973924,0.14179137,0.040372431,-0.98907298,0
-2.4113016,-4.0753284,2.0155919,-0.14179137,-0.040372431,0.98907298,0
-4.2024937,4.4379625,-2.9489288,0.14179137,0.040372431,-0.98907298,0
-1.9458075,-4.0605907,2.0829258,-0.14179137,-0.040372431,0.98907298,0
-4.2832575,-4.3765244,-0.95971155,-0.020226598,-0.99884129,-0.043670863,0
-4.737525,-1.4434223,-2.4794641,-0.98968995,0.026197731,-0.14081043,0
-5.3604169,-4.4524269,1.3387284,-0.98968995,0.026197731,-0.14081043,0
-4.029973,-4.2865067,-3.135922,-0.020226598,-0.99884129,-0.043670863,0
2.0608726,4.4435096,0.45695066,0.020226598,0.99884129,0.043670863,0
1.9278014,-4.5569477,0.29022193,-0.020226598,-0.99884129,-0.043670863,0
3.0620444,1.4910941,-2.0277872,0.14179137,0.040372431,-0.98907298,0
2.4527752,-3.1333594,-2.3038943,0.14179137,0.040372431,-0.98907298,0
2.0833366,-1.83455,2.7513986,-0.14179137,-0.040372431,0.98907298,0
1.6550517,3.9495468,2.9260988,-0.14179137,-0.040372431,0.98907298,0
-5.2024908,-2.9357688,0.51091433,-0.98968995,0.026197731,-0.14081043,0
5.3157058,3.7139108,-1.1618748,0.98968995,-0.026197731,0.14081043,0
4.0229845,-4.5869732,0.0065546036,-0.020226598,-0.99884129,-0.043670863,0
4.1995544,3.3324335,-1.789556,0.14179137,0.040372431,-0.98907298,0
-0.92888832,-4.3810911,-2.4088759,-0.020226598,-0.99884129,-0.043670863,0
5.173368,-1.0707843,-1.0516372,0.98968995,-0.026197731,0.14081043,0
-5.1884212,-0.70482039,0.82709122,-0.98968995,0.026197731,-0.14081043,0
-4.8018799,4.5277014,1.7098678,0.020226598,0.99884129,0.043670863,0
2.3517389,-4.4846888,-1.5588474,-0.020226598,-0.99884129,-0.043670863,0
2.2544036,-1.4873859,2.7900929,-0.14179137,-0.040372431,0.98907298,0
4.9654064,-2.820781,0.084434271,0.98968995,-0.026197731,0.14081043,0
5.163537,4.1260805,-0.015667439,0.98968995,-0.026197731,0.14081043,0
-2.5788302,4.4781075,1.8145545,0.020226598,0.99884129,0.043670863,0
4.9191375,2.3200507,1.3660893,0.98968995,-0.026197731,0.14081043,0
-1.9218209,4.5290508,0.34506726,0.020226598,0.99884129,0.043670863,0
3.8765621,-4.6435947,1.3694217,-0.020226598,-0.99884129,-0.043670863,0
-5.0198622,-3.4295745,-0.86456728,-0.98968995,0.026197731,-0.14081043,0
0.36446476,-4.5595198,1.0731275,-0.020226598,-0.99884129,-0.043670863,0
-1.1711869,-4.5004129,0.43248844,-0.020226598,-0.99884129,-0.043670863,0
-4.6061306,4.5481434,1.1516593,0.020226598,0.99884129,0.043670863,0
5.1589704,-1.9151933,-1.1075525,0.98968995,-0.026197731,0.14081043,0
3.8296502,4.3874536,0.91982841,0.020226598,0.99884129,0.043670863,0
4.6231666,4.2928271,2.7166114,0.020226598,0.99884129,0.043670863,0
-2.639838,4.6122909,-1.2262483,0.020226598,0.99884129,0.043670863,0
0.88950086,-4.5950451,1.6424797,-0.020226598,-0.99884129,-0.043670863,0
4.6478643,4.4205484,-1.6808715,0.14179137,0.040372431,-0.98907298,0
5.1400361,-1.8379815,-0.96010351,0.98968995,-0.026197731,0.14081043,0
-5.2575932,-0.58836842,1.3349338,-0.98968995,0.026197731,-0.14081043,0
-1.0737228,0.087550163,2.3772669,-0.14179137,-0.040372431,0.98907298,0
1.4665196,3.5412283,-2.1728349,0.14179137,0.040372431,-0.98907298,0
-1.9459548,-4.4426823,-0.52909303,-0.020226598,-0.99884129,-0.043670863,0
3.0603848,-0.099405289,-2.0929472,0.14179137,0.040372431,-0.98907298,0
3.6738694,-4.6611056,1.8638182,-0.020226598,-0.99884129,-0.043670863,0
0.89481544,4.3940825,2.1275187,0.020226598,0.99884129,0.043670863,0
-4.75144,0.45393497,-2.0286574,-0.98968995,0.026197731,-0.14081043,0
3.1714246,3.596431,-1.9261703,0.14179137,0.040372431,-0.98907298,0
-0.23705578,-4.4575777,-0.97988999,-0.020226598,-0.99884129,-0.043670863,0
-4.8934498,-1.7809303,1.7534103,-0.14179137,-0.040372431,0.98907298,0
0.035367966,-4.539546,0.7687031,-0.020226598,-0.99884129,-0.043670863,0
5.0796251,1.4579265,0.077702522,0.98968995,-0.026197731,0.14081043,0
-3.5935128,-4.4265723,-0.13448668,-0.020226598,-0.99884129,-0.043670863,0
1.6165514,4.410594,1.4155817,0.020226598,0.99884129,0.043670863,0
4.0528049,3.6512892,-1.7975783,0.14179137,0.040372431,-0.98907298,0
-4.5321569,4.6992149,-2.3379202,0.020226598,0.99884129,0.043670863,0
0.055291176,-3.1182566,-2.6469758,0.14179137,0.040372431,-0.98907298,0
1.1464276,0.35981274,-2.3485835,0.14179137,0.040372431,-0.98907298,0
-2.2217121,4.6327934,-2.6570156,0.14179137,0.040372431,-0.98907298,0
3.9338102,1.050055,3.1344235,-0.14179137,-0.040372431,0.98907298,0
-5.184752,-2.5924194,0.4501133,-0.98968995,0.026197731,-0.14081043,0
0.71063471,-4.4802799,-0.89959455,-0.020226598,-0.99884129,-0.043670863,0
4.3663912,4.3004098,2.6621008,0.020226598,0.99884129,0.043670863,0
-2.098145,-3.5538595,-2.9734683,0.14179137,0.040372431,-0.98907298,0
4.8507371,0.1196295,1.4374547,0.98968995,-0.026197731,0.14081043,0
-2.4999352,-4.3369904,-2.6899006,-0.020226598,-0.99884129,-0.043670863,0
-4.5523701,-4.4018812,1.6953235,-0.14179137,-0.040372431,0.98907298,0
0.85343432,4.5463314,-1.3355565,0.020226598,0.99884129,0.043670863,0
5.0006652,0.4469564,0.44458103,0.98968995,-0.026197731,0.14081043,0
3.7671649,-0.41973692,3.0505388,-0.14179137,-0.040372431,0.98907298,0
-4.8248439,-1.2163558,-1.8234935,-0.98968995,0.026197731,-0.14081043,0
-1.2693138,4.4893761,0.9502871,0.020226598,0.99884129,0.043670863,0
0.065784931,-4.4745984,-0.73086691,-0.020226598,-0.99884129,-0.043670863,0
-1.1781509,-4.5625544,1.8570058,-0.020226598,-0.99884129,-0.043670863,0
-4.6139793,3.0606654,-2.5098193,-0.98968995,0.026197731,-0.14081043,0
2.8384063,2.7867095,3.0482767,-0.14179137,-0.040372431,0.98907298,0
2.746032,2.8529072,3.0377364,-0.14179137,-0.040372431,0.98907298,0
1.4925582,4.486753,-0.26890135,0.020226598,0.99884129,0.043670863,0
-5.2867389,-1.5783787,1.3555946,-0.98968995,0.026197731,-0.14081043,0
1.1861572,-4.0564656,-2.5231535,0.14179137,0.040372431,-0.98907298,0
-2.8272965,-4.4952102,1.0805321,-0.020226598,-0.99884129,-0.043670863,0
4.968245,-1.2227921,0.36178994,0.98968995,-0.026197731,0.14081043,0
-3.2564197,-4.3789616,-1.3795662,-0.020226598,-0.99884129,-0.043670863,0
-2.6524265,-4.3991933,-1.196558,-0.020226598,-0.99884129,-0.043670863,0
-1.262076,-3.3734379,2.2089927,-0.14179137,-0.040372431,0.98907298,0
5.0154767,0.23454714,0.30095673,0.98968995,-0.026197731,0.14081043,0
2.3815858,4.3860631,1.6223209,0.020226598,0.99884129,0.043670863,0
-0.78813589,2.9402018,-2.5205905,0.14179137,0.040372431,-0.98907298,0
-4.166461,4.6399374,-1.1515043,0.020226598,0.99884129,0.043670863,0
-5.1442127,-1.448998,1.7310109,-0.14179137,-0.040372431,0.98907298,0
-3.1013017,-4.3935366,-1.1180372,-0.020226598,-0.99884129,-0.043670863,0
-4.6812077,2.4810672,-2.1451352,-0.98968995,0.026197731,-0.14081043,0
-4.9370885,2.1952143,-0.39985633,-0.98968995,0.026197731,-0.14081043,0
-5.2990727,-2.6607008,1.2409153,-0.98968995,0.026197731,-0.14081043,0
4.5358772,-4.5611234,-0.82224321,-0.020226598,-0.99884129,-0.043670863,0
-5.0297408,-0.76871896,-0.30008507,-0.98968995,0.026197731,-0.14081043,0
1.6432619,-4.5940342,1.2702464,-0.020226598,-0.99884129,-0.043670863,0
-4.7199154,-1.8190695,-2.6731186,-0.98968995,0.026197731,-0.14081043,0
0.56593108,-2.826673,-2.5618694,0.14179137,0.040372431,-0.98907298,0
-2.6141582,4.6752634,-2.6784468,0.020226598,0.99884129,0.043670863,0
-4.789855,-2.0987558,-2.233582,-0.98968995,0.026197731,-0.14081043,0
-5.3262119,-2.3252208,1.4940825,-0.98968995,0.026197731,-0.14081043,0
-1.5540841,1.6761801,-2.6819906,0.14179137,0.040372431,-0.98907298,0
-4.122427,4.510994,1.7773013,0.020226598,0.99884129,0.043670863,0
3.2893054,3.9618559,3.1608841,-0.14179137,-0.040372431,0.98907298,0
-0.75853848,0.6091578,2.4437423,-0.14179137,-0.040372431,0.98907298,0
2.511714,1.0197289,-2.1259222,0.14179137,0.040372431,-0.98907298,0
-0.76660442,4.4309597,2.0535645,0.020226598,0.99884129,0.043670863,0
-1.9042683,2.832674,-2.6849859,0.14179137,0.040372431,-0.98907298,0
-2.5697856,-4.4606481,0.17076111,-0.020226598,-0.99884129,-0.043670863,0
-5.2984009,-0.243752,1.6858687,-0.98968995,0.026197731,-0.14081043,0
3.1117973,4.501545,-1.3571873,0.020226598,0.99884129,0.043670863,0
-3.450752,4.0964928,-2.8550992,0.14179137,0.040372431,-0.98907298,0
-3.6021011,-1.7930868,1.9380391,-0.14179137,-0.040372431,0.98907298,0
-3.1780796,0.77263355,2.103555,-0.14179137,-0.040372431,0.98907298,0
0.94604897,-4.6162333,2.100914,-0.020226598,-0.99884129,-0.043670863,0
-5.2197118,3.2064559,1.7747104,-0.98968995,0.026197731,-0.14081043,0
-4.0458288,-3.7188823,1.7958193,-0.14179137,-0.040372431,0.98907298,0
-1.6568043,-4.4402761,-0.71805191,-0.020226598,-0.99884129,-0.043670863,0
-4.8526387,-1.9210081,-1.759232,-0.98968995,0.026197731,-0.14081043,0
-2.9095502,4.4853859,1.8012588,0.020226598,0.99884129,0.043670863,0
-3.3737006,2.437413,-2.9117742,0.14179137,0.040372431,-0.98907298,0
4.7366071,0.34816116,2.2821403,0.98968995,-0.026197731,0.14081043,0
5.1415901,-3.9381659,-1.3617654,0.98968995,-0.026197731,0.14081043,0
4.7973828,-0.44046712,1.7082524,0.98968995,-0.026197731,0.14081043,0
-1.7442617,-4.4459939,2.0960877,-0.14179137,-0.040372431,0.98907298,0
-5.0104842,-3.4821618,-0.94027138,-0.98968995,0.026197731,-0.14081043,0
-0.58896589,4.5201459,-0.06858027,0.020226598,0.99884129,0.043670863,0
5.2752223,-0.98428106,-1.7514319,0.98968995,-0.026197731,0.14081043,0
5.0239954,-4.0841579,-0.56241131,0.98968995,-0.026197731,0.14081043,0
3.0882704,-4.5693913,0.037342668,-0.020226598,-0.99884129,-0.043670863,0
-4.55408,3.1027532,2.0014067,-0.14179137,-0.040372431,0.98907298,0
0.2126112,4.5017419,-0.018900633,0.020226598,0.99884129,0.043670863,0
-0.99749207,-4.5714836,1.9775611,-0.020226598,-0.99884129,-0.043670863,0
-4.6540198,-1.7210344,-3.1180286,-0.98968995,0.026197731,-0.14081043,0
4.6974702,4.3954954,0.3339572,0.020226598,0.99884129,0.043670863,0
3.2805412,3.1847718,3.1279085,-0.14179137,-0.040372431,0.98907298,0
-0.83862615,4.5573764,-0.80448592,0.020226598,0.99884129,0.043670863,0
4.6165738,1.0722712,3.2332103,-0.14179137,-0.040372431,0.98907298,0
-4.6107359,1.3420421,-2.8523638,-0.98968995,0.026197731,-0.14081043,0
5.0142231,3.5480587,0.92624569,0.98968995,-0.026197731,0.14081043,0
-4.7611909,4.3731818,-1.2309456,-0.98968995,0.026197731,-0.14081043,0
4.8030787,3.4839425,2.3983545,0.98968995,-0.026197731,0.14081043,0
-2.9619982,1.4414718,2.1618328,-0.14179137,-0.040372431,0.98907298,0
4.3387752,-4.6197996,0.61110985,-0.020226598,-0.99884129,-0.043670863,0
0.88825607,4.5593047,-1.6484195,0.020226598,0.99884129,0.043670863,0
5.0410171,-1.712115,-0.24073148,0.98968995,-0.026197731,0.14081043,0
4.7526011,-4.5431509,1.2596952,0.98968995,-0.026197731,0.14081043,0
-4.8446922,-1.8404669,-1.8001032,-0.98968995,0.026197731,-0.14081043,0
-4.1111426,4.5946474,-0.14124548,0.020226598,0.99884129,0.043670863,0
-3.6964605,-3.5542374,1.8526244,-0.14179137,-0.040372431,0.98907298,0
4.7987909,2.8899374,2.3179765,0.98968995,-0.026197731,0.14081043,0
-2.1585946,-4.4422541,-0.44040871,-0.020226598,-0.99884129,-0.043670863,0
-4.8270936,1.6686983,-1.2709153,-0.98968995,0.026197731,-0.14081043,0
-3.6959984,-0.82354128,-3.0910854,0.14179137,0.040372431,-0.98907298,0
-4.6745749,-3.0846186,-3.2272496,-0.98968995,0.026197731,-0.14081043,0
2.0220966,3.8308856,-2.0813656,0.14179137,0.040372431,-0.98907298,0
5.1167455,3.0213842,0.10768223,0.98968995,-0.026197731,0.14081043,0
4.8361592,-1.2234775,1.2900319,0.98968995,-0.026197731,0.14081043,0
-4.6455255,3.93293,-2.1258121,-0.98968995,0.026197731,-0.14081043,0
-4.7954588,0.22633255,-1.7616134,-0.98968995,0.026197731,-0.14081043,0
-4.6653366,1.1790071,-2.4989364,-0.98968995,0.026197731,-0.14081043,0
-0.9718399,4.6184759,-2.1402655,0.020226598,0.99884129,0.043670863,0
2.238625,-1.4272871,-2.264955,0.14179137,0.040372431,-0.98907298,0
-1.898638,-4.4184456,-1.1053541,-0.020226598,-0.99884129,-0.043670863,0
-5.1857347,-0.33003068,0.87793732,-0.98968995,0.026197731,-0.14081043,0
-2.8421552,-4.5297027,1.8763268,-0.020226598,-0.99884129,-0.043670863,0
-4.9498844,3.2047019,-0.12210345,-0.98968995,0.026197731,-0.14081043,0
-4.3409176,-1.1180657,-3.1955616,0.14179137,0.040372431,-0.98907298,0
-4.2517529,-3.1141589,1.7909827,-0.14179137,-0.040372431,0.98907298,0
-4.8040581,3.5441785,-1.0838902,-0.98968995,0.026197731,-0.14081043,0
5.2894306,-0.64623451,-1.7884042,0.98968995,-0.026197731,0.14081043,0
3.979177,-4.6653619,1.8197554,-0.020226598,-0.99884129,-0.043670863,0
0.65890646,2.9871159,2.7440085,-0.14179137,-0.040372431,0.98907298,0
-2.472949,4.6112309,-1.2792946,0.020226598,0.99884129,0.043670863,0
2.6696563,4.39994,1.1715155,0.020226598,0.99884129,0.043670863,0
-4.6619172,4.5049939,-1.9041691,-0.98968995,0.026197731,-0.14081043,0
4.7110162,1.5976419,-1.7870455,0.14179137,0.040372431,-0.98907298,0
0.78149796,4.4257641,1.4553795,0.020226598,0.99884129,0.043670863,0
-5.0127673,-0.70343113,-0.40723848,-0.98968995,0.026197731,-0.14081043,0
0.62295151,-4.462245,-1.2714758,-0.020226598,-0.99884129,-0.043670863,0
-3.3835044,-0.60334998,-3.0372989,0.14179137,0.040372431,-0.98907298,0
-5.0291734,1.7436144,0.16334486,-0.98968995,0.026197731,-0.14081043,0
-0.40832376,0.74347234,2.4994307,-0.14179137,-0.040372431,0.98907298,0
-3.1519129,-4.4823871,0.93758726,-0.020226598,-0.99884129,-0.043670863,0
0.66823483,-4.5634794,1.0229951,-0.020226598,-0.99884129,-0.043670863,0
0.74773705,-0.55401134,2.6121995,-0.14179137,-0.040372431,0.98907298,0
4.7179379,3.8393157,-1.6945515,0.14179137,0.040372431,-0.98907298,0
-3.1987576,4.472784,2.2234354,0.020226598,0.99884129,0.043670863,0
5.0719271,-4.2782063,-0.93540287,0.98968995,-0.026197731,0.14081043,0
-4.8457608,4.2456632,-0.66026855,-0.98968995,0.026197731,-0.14081043,0
4.6358671,-2.2278299,2.5109291,0.98968995,-0.026197731,0.14081043,0
4.9188042,0.71012282,1.0689049,0.98968995,-0.026197731,0.14081043,0
3.8079109,4.3546219,-1.8039765,0.14179137,0.040372431,-0.98907298,0
-4.9657302,2.4955313,1.9176073,-0.14179137,-0.040372431,0.98907298,0
-5.1128078,-1.3283451,0.17963409,-0.98968995,0.026197731,-0.14081043,0
3.6865714,-4.5152731,-1.4775681,-0.020226598,-0.99884129,-0.043670863,0
4.5219002,-3.0993505,-2.0058808,0.14179137,0.040372431,-0.98907298,0
-4.6894741,-2.1513722,-2.9489012,-0.98968995,0.026197731,-0.14081043,0
3.8958161,4.3433084,1.8988724,0.020226598,0.99884129,0.043670863,0
4.0909948,2.3991241,3.212024,-0.14179137,-0.040372431,0.98907298,0
1.9847996,-1.7719977,-2.3154135,0.14179137,0.040372431,-0.98907298,0
-4.4391322,-4.4189911,0.083778381,-0.020226598,-0.99884129,-0.043670863,0
-5.1987367,2.0310853,1.4086089,-0.98968995,0.026197731,-0.14081043,0
-1.5160637,-1.9168538,-2.8232021,0.14179137,0.040372431,-0.98907298,0
-4.5934925,1.1861079,-3.0025737,-0.98968995,0.026197731,-0.14081043,0
2.9203434,-1.5292484,2.883852,-0.14179137,-0.040372431,0.98907298,0
1.3959148,-0.30293131,2.7153697,-0.14179137,-0.040372431,0.98907298,0
-0.6236434,4.4736505,1.0109247,0.020226598,0.99884129,0.043670863,0
2.0507202,4.4037781,1.3703978,0.020226598,0.99884129,0.043670863,0
5.3149543,3.3597093,-1.2224903,0.98968995,-0.026197731,0.14081043,0
1.5825393,0.54437327,-2.2785296,0.14179137,0.040372431,-0.98907298,0
4.5891981,-4.5326667,-1.4977876,-0.020226598,-0.99884129,-0.043670863,0
-5.1923194,-2.3189945,0.55417395,-0.98968995,0.026197731,-0.14081043,0
-4.6232977,0.37619388,-2.9437709,-0.98968995,0.026197731,-0.14081043,0
-1.1053234,2.5814562,-2.5807052,0.14179137,0.040372431,-0.98907298,0
5.3094873,1.9229283,-1.6879721,0.14179137,0.040372431,-0.98907298,0
0.54866803,2.8565016,-2.3323655,0.14179137,0.040372431,-0.98907298,0
5.269568,4.1550879,-0.75551033,0.98968995,-0.026197731,0.14081043,0
4.6490612,-2.9089909,2.2914658,0.98968995,-0.026197731,0.14081043,0
-2.3253863,-4.4416413,-0.37716913,-0.020226598,-0.99884129,-0.043670863,0
5.1817102,3.6164448,-0.23821545,0.98968995,-0.026197731,0.14081043,0
-4.8449636,1.3047655,-1.2130251,-0.98968995,0.026197731,-0.14081043,0
4.8212547,-2.2158105,1.210166,0.98968995,-0.026197731,0.14081043,0
3.9996171,2.9116287,-1.8353951,0.14179137,0.040372431,-0.98907298,0
-4.4835539,-3.9453123,1.7238255,-0.14179137,-0.040372431,0.98907298,0
-1.6361989,-1.6467104,2.2258415,-0.14179137,-0.040372431,0.98907298,0
0.35285807,2.1709414,2.6668191,-0.14179137,-0.040372431,0.98907298,0
0.86808777,-4.5218925,-0.0207479,-0.020226598,-0.99884129,-0.043670863,0
-1.3200564,-4.5328798,1.2440052,-0.020226598,-0.99884129,-0.043670863,0
4.0174136,-0.70004392,-1.980267,0.14179137,0.040372431,-0.98907298,0
4.7395535,-4.5352097,-1.5092621,-0.020226598,-0.99884129,-0.043670863,0
-1.3356717,4.6070175,-1.7096688,0.020226598,0.99884129,0.043670863,0
-4.2784214,-4.3345938,-1.9209876,-0.020226598,-0.99884129,-0.043670863,0
4.7016134,-3.1885254,1.8700898,0.98968995,-0.026197731,0.14081043,0
-3.6215932,-3.603544,1.8613443,-0.14179137,-0.040372431,0.98907298,0
5.2329521,1.6361194,-0.96680975,0.98968995,-0.026197731,0.14081043,0
-3.7294686,4.6445279,-1.4588964,0.020226598,0.99884129,0.043670863,0
0.5140931,-1.4127212,2.5436535,-0.14179137,-0.040372431,0.98907298,0
3.0478573,0.94091749,-2.052279,0.14179137,0.040372431,-0.98907298,0
-1.5431476,4.4959345,0.92712426,0.020226598,0.99884129,0.043670863,0
-2.1695251,0.2056427,-2.8302438,0.14179137,0.040372431,-0.98907298,0
-5.2273345,0.89443207,1.3981366,-0.98968995,0.026197731,-0.14081043,0
3.4242282,4.5011377,-1.492579,0.020226598,0.99884129,0.043670863,0
1.7144535,4.5248737,-1.2435727,0.020226598,0.99884129,0.043670863,0
0.5484972,4.5038486,-0.22265911,0.020226598,0.99884129,0.043670863,0
