4.0368724,-1.6529059,0.11736035,0.72036421,-0.10433459,-0.68570364,0
-0.78312802,4.6977768,2.8375554,-0.72036421,0.10433459,0.68570364,0
-2.418658,4.4033899,0.012584925,-0.13484192,0.9486922,-0.28600794,0
1.728873,1.8813941,4.8737292,0.68036222,0.29849166,0.66933542,0
-5.0190001,-2.8958371,-1.0770059,-0.68036222,-0.29849166,-0.66933542,0
-4.1436653,3.3386962,-0.48605609,-0.72036421,0.10433459,0.68570364,0
-1.9280905,-0.15816578,-5.4397073,-0.68036222,-0.29849166,-0.66933542,0
5.4068928,1.0638449,1.4997041,0.68036222,0.29849166,0.66933542,0
3.9604301,0.49153852,-0.28923774,0.72036421,-0.10433459,-0.68570364,0
3.2613816,4.7171297,-1.6246616,-0.13484192,0.9486922,-0.28600794,0
5.0251369,4.5011706,0.35486579,0.68036222,0.29849166,0.66933542,0
3.3064938,-2.9439225,4.4099064,0.13484192,-0.9486922,0.28600794,0
2.0890436,5.0723534,0.10633463,-0.13484192,0.9486922,-0.28600794,0
-2.529377,-2.2156305,-3.910984,-0.68036222,-0.29849166,-0.66933542,0
-4.3179584,1.3089128,-3.6647143,-0.68036222,-0.29849166,-0.66933542,0
3.6354156,-1.694487,4.5304489,0.68036222,0.29849166,0.66933542,0
-3.4376483,-4.0847764,1.3851807,-0.72036421,0.10433459,0.68570364,0
3.1366158,4.0302801,-1.6931378,0.72036421,-0.10433459,-0.68570364,0
-3.4533973,-4.7295914,1.4667482,-0.72036421,0.10433459,0.68570364,0
4.091444,4.7762136,1.1812847,0.68036222,0.29849166,0.66933542,0
-5.3024473,2.822762,-1.6249087,-0.72036421,0.10433459,0.68570364,0
3.095938,1.7825276,-1.3938609,0.72036421,-0.10433459,-0.68570364,0
-5.0862379,-3.5114174,-0.43398166,-0.72036421,0.10433459,0.68570364,0
2.1500461,-2.8428597,-1.6837809,0.72036421,-0.10433459,-0.68570364,0
4.883924,-2.020891,3.4069338,0.68036222,0.29849166,0.66933542,0
-3.1590056,4.2051816,-0.29582763,-0.13484192,0.9486922,-0.28600794,0
2.5276906,-4.5347004,-1.0296223,0.72036421,-0.10433459,-0.68570364,0
4.1740284,-0.94274616,3.6477227,0.68036222,0.29849166,0.66933542,0
3.8469708,1.1622796,3.0414276,0.68036222,0.29849166,0.66933542,0
-0.59161186,-4.8477225,-0.067213386,0.13484192,-0.9486922,0.28600794,0
-1.2740788,3.3302176,-4.0867667,-0.13484192,0.9486922,-0.28600794,0
5.5551453,-3.2984819,2.1736734,0.13484192,-0.9486922,0.28600794,0
4.6496868,3.2906218,1.2763481,0.68036222,0.29849166,0.66933542,0
1.5562097,-2.847568,-2.3069181,0.72036421,-0.10433459,-0.68570364,0
1.0128412,3.9233942,-3.1973896,-0.13484192,0.9486922,-0.28600794,0
3.8322606,1.7223893,2.8065979,0.68036222,0.29849166,0.66933542,0
-2.8399947,0.38262105,1.3332996,-0.72036421,0.10433459,0.68570364,0
-4.3054175,1.0047908,-3.5418382,-0.68036222,-0.29849166,-0.66933542,0
-4.4054279,3.2225699,-2.9675233,-0.13484192,0.9486922,-0.28600794,0
2.1615057,3.5939167,-2.6511416,0.72036421,-0.10433459,-0.68570364,0
2.2562952,5.1277618,0.21127063,-0.13484192,0.9486922,-0.28600794,0
0.14484501,5.5292745,2.5385618,-0.13484192,0.9486922,-0.28600794,0
3.037329,-4.2977419,0.046171665,0.13484192,-0.9486922,0.28600794,0
-4.5703154,-3.138097,-1.4250462,-0.68036222,-0.29849166,-0.66933542,0
1.4735208,-2.756896,5.894453,0.13484192,-0.9486922,0.28600794,0
-2.6173656,4.3516746,-0.065272093,-0.13484192,0.9486922,-0.28600794,0
5.8366776,-1.3589163,1.9634094,0.72036421,-0.10433459,-0.68570364,0
0.29304934,-3.1479669,5.1538148,0.13484192,-0.9486922,0.28600794,0
0.84456253,4.1254225,-2.4479222,-0.13484192,0.9486922,-0.28600794,0
-0.99556255,-4.2456617,2.1202779,0.13484192,-0.9486922,0.28600794,0
-0.42676044,2.8517139,3.4928274,-0.72036421,0.10433459,0.68570364,0
0.20366526,-3.5804424,3.7614291,0.13484192,-0.9486922,0.28600794,0
-4.8767014,2.1941383,-3.4915345,-0.68036222,-0.29849166,-0.66933542,0
-5.0649519,-4.2963085,-0.29219294,-0.72036421,0.10433459,0.68570364,0
1.1673694,3.6203425,4.6689959,0.68036222,0.29849166,0.66933542,0
0.52630424,5.4503293,2.0968568,-0.13484192,0.9486922,-0.28600794,0
5.7082143,-1.2057524,2.2055497,0.68036222,0.29849166,0.66933542,0
-0.91362357,-5.4420571,-4.1145239,-0.68036222,-0.29849166,-0.66933542,0
-2.3236427,-1.1978183,-4.5740032,-0.68036222,-0.29849166,-0.66933542,0
5.9047751,-1.9235616,2.3258593,0.68036222,0.29849166,0.66933542,0
-4.0986176,-3.125149,-1.9102893,-0.68036222,-0.29849166,-0.66933542,0
0.80775785,4.3127098,-1.8093357,-0.13484192,0.9486922,-0.28600794,0
3.9893727,-1.9828248,4.2992458,0.68036222,0.29849166,0.66933542,0
2.9262924,1.5563858,3.8015211,0.68036222,0.29849166,0.66933542,0
-2.8089364,3.8969929,-1.4831376,-0.13484192,0.9486922,-0.28600794,0
-5.0077085,3.3071427,-2.4030418,-0.13484192,0.9486922,-0.28600794,0
-2.575768,-1.778039,-4.0589738,-0.68036222,-0.29849166,-0.66933542,0
1.9092844,-4.376781,-1.7033163,0.72036421,-0.10433459,-0.68570364,0
0.92491984,0.93320453,5.2047467,-0.72036421,0.10433459,0.68570364,0
-2.6008985,2.8666215,-4.9989753,-0.13484192,0.9486922,-0.28600794,0
-0.77540159,-4.5981574,0.84724718,0.13484192,-0.9486922,0.28600794,0
-4.2637706,0.46368623,-3.3428643,-0.68036222,-0.29849166,-0.66933542,0
2.412817,1.5250355,4.3374367,0.68036222,0.29849166,0.66933542,0
-0.24417973,2.9781332,-5.0847335,0.72036421,-0.10433459,-0.68570364,0
1.4066703,1.6072788,5.323482,0.68036222,0.29849166,0.66933542,0
1.116055,-2.9470668,5.4321861,0.13484192,-0.9486922,0.28600794,0
-2.9793475,-2.4877031,1.6236421,-0.72036421,0.10433459,0.68570364,0
-1.6255493,4.0032868,-1.6884819,-0.13484192,0.9486922,-0.28600794,0
-0.44171762,5.4958363,2.7041898,-0.13484192,0.9486922,-0.28600794,0
5.0098486,1.9193082,1.5217929,0.68036222,0.29849166,0.66933542,0
-3.9989386,-3.717603,-1.747404,-0.68036222,-0.29849166,-0.66933542,0
3.5773938,2.200171,2.852596,0.68036222,0.29849166,0.66933542,0
3.4126611,-3.0019069,4.1675177,0.13484192,-0.9486922,0.28600794,0
1.161526,5.320169,3.9168932,0.68036222,0.29849166,0.66933542,0
-3.4089007,2.1351933,-4.9572296,-0.68036222,-0.29849166,-0.66933542,0
0.32632446,-4.9612451,-0.87654233,0.13484192,-0.9486922,0.28600794,0
2.2182226,1.6371845,-2.2938275,0.72036421,-0.10433459,-0.68570364,0
5.0956197,0.95070624,1.8665595,0.68036222,0.29849166,0.66933542,0
-1.6918859,-0.88616824,-5.3551488,-0.68036222,-0.29849166,-0.66933542,0
-1.3262422,2.3014402,2.6316066,-0.72036421,0.10433459,0.68570364,0
-5.4363184,1.5582142,-2.6391065,-0.68036222,-0.29849166,-0.66933542,0
-2.2077785,-1.0952636,2.222343,-0.72036421,0.10433459,0.68570364,0
1.3234099,1.8133545,5.3162146,0.68036222,0.29849166,0.66933542,0
5.0097404,-0.058437347,0.89679503,0.72036421,-0.10433459,-0.68570364,0
-4.85255,-1.1976073,-2.0035276,-0.68036222,-0.29849166,-0.66933542,0
-2.4869409,-5.3806572,-0.94138819,0.13484192,-0.9486922,0.28600794,0
1.9771898,2.002311,4.5673985,0.68036222,0.29849166,0.66933542,0
3.963125,3.977375,1.6679612,0.68036222,0.29849166,0.66933542,0
4.8202324,0.61174631,0.59573531,0.72036421,-0.10433459,-0.68570364,0
-2.2713089,4.3898807,1.3209989,-0.72036421,0.10433459,0.68570364,0
-1.5063777,3.9805007,-1.8202499,-0.13484192,0.9486922,-0.28600794,0
0.75832462,-3.3322554,4.3231659,0.13484192,-0.9486922,0.28600794,0
-2.3953345,-0.94524652,-4.6137648,-0.68036222,-0.29849166,-0.66933542,0
-3.6687644,-3.6097553,-2.1311121,-0.68036222,-0.29849166,-0.66933542,0
4.5725355,3.8500297,1.1053014,0.68036222,0.29849166,0.66933542,0
-0.81032276,3.1015029,3.0518699,-0.72036421,0.10433459,0.68570364,0
0.047127724,3.2714367,-4.823329,0.72036421,-0.10433459,-0.68570364,0
-5.3482256,1.6268506,-1.4910345,-0.72036421,0.10433459,0.68570364,0
0.057859421,-3.9584551,2.5762959,0.13484192,-0.9486922,0.28600794,0
3.085866,3.327867,2.8493233,0.68036222,0.29849166,0.66933542,0
-1.313615,-2.9323885,-4.8271356,-0.68036222,-0.29849166,-0.66933542,0
4.4076004,4.229394,-0.38820481,0.72036421,-0.10433459,-0.68570364,0
-2.3912697,4.4600968,0.1877681,-0.13484192,0.9486922,-0.28600794,0
3.2559462,3.4355516,-1.4772838,0.72036421,-0.10433459,-0.68570364,0
-3.8037207,0.51942992,-3.8353522,-0.68036222,-0.29849166,-0.66933542,0
-2.3323278,-2.1512184,-4.1400037,-0.68036222,-0.29849166,-0.66933542,0
-3.4473698,-2.491323,1.1325128,-0.72036421,0.10433459,0.68570364,0
-1.2605696,1.684989,-5.9557385,0.72036421,-0.10433459,-0.68570364,0
1.8049213,4.2529984,3.738806,0.68036222,0.29849166,0.66933542,0
0.14212942,-4.2075682,1.7102549,0.13484192,-0.9486922,0.28600794,0
-0.18432426,5.6472816,3.0851853,-0.13484192,0.9486922,-0.28600794,0
2.0158525,3.6592298,3.7891924,0.68036222,0.29849166,0.66933542,0
3.1104169,-0.6497798,4.598208,0.68036222,0.29849166,0.66933542,0
-2.7015042,4.5767517,0.720981,-0.13484192,0.9486922,-0.28600794,0
-0.62783241,-5.1436462,-1.031719,0.13484192,-0.9486922,0.28600794,0
0.090642452,-3.5017674,4.0756793,0.13484192,-0.9486922,0.28600794,0
3.7638435,5.3333693,0.18252134,-0.13484192,0.9486922,-0.28600794,0
0.62796116,5.3340154,1.6631151,-0.13484192,0.9486922,-0.28600794,0
2.0941103,-4.0251203,1.3951535,0.13484192,-0.9486922,0.28600794,0
4.5753884,1.5470409,2.1294246,0.68036222,0.29849166,0.66933542,0
-0.30343771,-5.352778,-1.8783526,0.13484192,-0.9486922,0.28600794,0
4.4902701,5.1133533,-0.43585658,0.72036421,-0.10433459,-0.68570364,0
-3.4837348,3.3666072,-2.924293,-0.13484192,0.9486922,-0.28600794,0
4.5540137,3.6890931,1.1958978,0.68036222,0.29849166,0.66933542,0
2.1319447,1.0153648,-2.2898521,0.72036421,-0.10433459,-0.68570364,0
-2.1742477,-3.8610075,2.678395,-0.72036421,0.10433459,0.68570364,0
2.4446652,1.648762,-2.0577011,0.72036421,-0.10433459,-0.68570364,0
-2.6365032,3.7104166,-2.1833105,-0.13484192,0.9486922,-0.28600794,0
-1.475841,1.7603536,2.5567763,-0.72036421,0.10433459,0.68570364,0
-0.10507344,-2.1613436,-4.156589,0.72036421,-0.10433459,-0.68570364,0
-3.1010556,0.0010477304,-4.3184195,-0.68036222,-0.29849166,-0.66933542,0
-1.7175918,-4.4709053,1.7135522,0.13484192,-0.9486922,0.28600794,0
-1.4595115,0.089087754,-5.9219098,0.72036421,-0.10433459,-0.68570364,0
2.4469161,-0.41504896,5.1679611,0.68036222,0.29849166,0.66933542,0
1.987716,-2.2727048,-1.9410694,0.72036421,-0.10433459,-0.68570364,0
-2.3888252,0.79371667,1.7447232,-0.72036421,0.10433459,0.68570364,0
-1.6106997,-5.2164378,-0.80978554,0.13484192,-0.9486922,0.28600794,0
3.2323818,-3.4104552,2.8973529,0.13484192,-0.9486922,0.28600794,0
0.83053446,3.8166447,-3.4655273,-0.13484192,0.9486922,-0.28600794,0
0.33535612,0.25787818,4.6881371,-0.72036421,0.10433459,0.68570364,0
2.7988899,4.8970742,2.4412355,0.68036222,0.29849166,0.66933542,0
-0.89029455,-4.6382442,0.76844698,0.13484192,-0.9486922,0.28600794,0
-2.483988,2.8411582,-5.138557,-0.13484192,0.9486922,-0.28600794,0
1.5020187,-4.462254,-2.1181626,0.72036421,-0.10433459,-0.68570364,0
3.5296545,-3.8618107,-0.079396248,0.72036421,-0.10433459,-0.68570364,0
-0.03156054,-0.97763968,-4.259469,0.72036421,-0.10433459,-0.68570364,0
3.5528483,-0.2548728,-0.60385025,0.72036421,-0.10433459,-0.68570364,0
-5.3110104,3.2727184,-2.3742318,-0.13484192,0.9486922,-0.28600794,0
-3.8338213,3.3390703,-2.8505814,-0.13484192,0.9486922,-0.28600794,0
-1.5134354,-3.1652727,3.2667491,-0.72036421,0.10433459,0.68570364,0
-3.2022276,-0.45128655,-4.0138617,-0.68036222,-0.29849166,-0.66933542,0
-5.4056253,-0.6612587,-1.2031848,-0.72036421,0.10433459,0.68570364,0
-3.9811122,2.5573955,-0.19640589,-0.72036421,0.10433459,0.68570364,0
-2.6165555,-3.2575512,2.1219096,-0.72036421,0.10433459,0.68570364,0
4.1444726,-1.0323732,3.7177351,0.68036222,0.29849166,0.66933542,0
0.56661463,3.6046803,4.4218464,-0.72036421,0.10433459,0.68570364,0
-3.1662009,0.38782334,-4.4246845,-0.68036222,-0.29849166,-0.66933542,0
-2.4846883,-4.5978479,1.6541386,0.13484192,-0.9486922,0.28600794,0
0.77074552,5.2011762,4.367177,0.68036222,0.29849166,0.66933542,0
-2.7011554,2.9137139,-4.7955027,-0.13484192,0.9486922,-0.28600794,0
-0.85275054,1.7960848,3.2059257,-0.72036421,0.10433459,0.68570364,0
-0.60298014,-5.0479684,-0.7260716,0.13484192,-0.9486922,0.28600794,0
-2.3872991,-5.4427958,-1.1944809,0.13484192,-0.9486922,0.28600794,0
-0.060941935,1.2624228,-4.631176,0.72036421,-0.10433459,-0.68570364,0
3.8863108,0.034714699,3.5042794,0.68036222,0.29849166,0.66933542,0
-0.1229741,-1.2557281,-4.31319,0.72036421,-0.10433459,-0.68570364,0
0.50928164,5.6732941,2.8444595,-0.13484192,0.9486922,-0.28600794,0
-5.2065678,2.2169704,-3.1664157,-0.68036222,-0.29849166,-0.66933542,0
4.0787163,-3.6488006,0.46500826,0.72036421,-0.10433459,-0.68570364,0
-1.812891,-5.7980824,-2.6437821,0.13484192,-0.9486922,0.28600794,0
3.1507664,-4.1339216,0.53608298,0.13484192,-0.9486922,0.28600794,0
-1.8465176,-5.7858338,-2.5873001,0.13484192,-0.9486922,0.28600794,0
-1.676836,1.175343,2.4346347,-0.72036421,0.10433459,0.68570364,0
4.4578328,-1.9199541,3.7950306,0.68036222,0.29849166,0.66933542,0
-3.6748443,-5.5038729,-1.2802463,-0.68036222,-0.29849166,-0.66933542,0
0.36496857,-2.640605,-3.5898645,0.72036421,-0.10433459,-0.68570364,0
-1.6416506,-1.0192645,-5.3468575,-0.68036222,-0.29849166,-0.66933542,0
-5.1455827,-3.5388565,-0.66158175,-0.68036222,-0.29849166,-0.66933542,0
-0.70028496,-4.5841064,-4.4132471,0.72036421,-0.10433459,-0.68570364,0
-2.8079405,-3.535785,1.9631864,-0.72036421,0.10433459,0.68570364,0
2.2438195,-3.6452165,-1.4631836,0.72036421,-0.10433459,-0.68570364,0
-0.3189106,5.3046298,2.0120566,-0.13484192,0.9486922,-0.28600794,0
-3.1502643,1.4148338,-4.8988814,-0.68036222,-0.29849166,-0.66933542,0
-3.0119972,3.9191658,0.61449289,-0.72036421,0.10433459,0.68570364,0
2.2532308,-2.5495181,-1.6200144,0.72036421,-0.10433459,-0.68570364,0
1.5101562,5.8952246,3.3060727,0.68036222,0.29849166,0.66933542,0
3.4038846,4.8700376,1.8383304,0.68036222,0.29849166,0.66933542,0
-1.657654,2.4252968,2.2645974,-0.72036421,0.10433459,0.68570364,0
-4.3818378,-2.8984621,-1.7234945,-0.68036222,-0.29849166,-0.66933542,0
-5.2156568,-0.21808147,-2.07126,-0.68036222,-0.29849166,-0.66933542,0
-4.6584821,-5.4347887,-0.097141743,0.13484192,-0.9486922,0.28600794,0
-0.11258411,4.9603028,3.502048,-0.72036421,0.10433459,0.68570364,0
-4.8692164,2.0761285,-3.446516,-0.68036222,-0.29849166,-0.66933542,0
2.7186618,1.3684623,4.0963769,0.68036222,0.29849166,0.66933542,0
2.6004062,5.4503746,1.1191485,-0.13484192,0.9486922,-0.28600794,0
5.488668,-2.9640493,1.8420405,0.72036421,-0.10433459,-0.68570364,0
-0.50900364,4.564784,3.1457715,-0.72036421,0.10433459,0.68570364,0
-0.54551792,-4.0200219,2.656549,0.13484192,-0.9486922,0.28600794,0
0.85445547,5.3899007,1.7417034,-0.13484192,0.9486922,-0.28600794,0
3.4665577,2.3303039,2.9072247,0.68036222,0.29849166,0.66933542,0
1.1291552,2.3841262,-3.5515978,0.72036421,-0.10433459,-0.68570364,0
0.91297662,-0.50570714,-3.3389952,0.72036421,-0.10433459,-0.68570364,0
5.1950388,-2.9292338,3.4957705,0.68036222,0.29849166,0.66933542,0
-0.59151101,5.0537958,1.3085587,-0.13484192,0.9486922,-0.28600794,0
0.023133755,-5.1715293,-3.5638809,0.72036421,-0.10433459,-0.68570364,0
-0.54214549,1.1847961,-5.1248927,0.72036421,-0.10433459,-0.68570364,0
-0.72462302,-3.1844895,-4.6517768,0.72036421,-0.10433459,-0.68570364,0
2.2373314,-0.54455221,5.4387503,0.68036222,0.29849166,0.66933542,0
-3.8636556,0.75425363,-3.8791499,-0.68036222,-0.29849166,-0.66933542,0
5.5088577,-2.4603362,2.9676759,0.68036222,0.29849166,0.66933542,0
4.9568563,-2.9845259,3.4971397,0.13484192,-0.9486922,0.28600794,0
3.363121,1.1285088,3.5483086,0.68036222,0.29849166,0.66933542,0
-2.0410891,0.67202973,2.1285522,-0.72036421,0.10433459,0.68570364,0
-2.480242,-2.9759059,-3.621882,-0.68036222,-0.29849166,-0.66933542,0
-3.2171123,2.6516316,0.59187353,-0.72036421,0.10433459,0.68570364,0
5.0884495,-1.3128083,2.8832672,0.68036222,0.29849166,0.66933542,0
3.336657,1.3919556,3.4577236,0.68036222,0.29849166,0.66933542,0
-0.53793329,1.8608539,3.5268011,-0.72036421,0.10433459,0.68570364,0
-1.7123663,-2.0469565,2.8876038,-0.72036421,0.10433459,0.68570364,0
-1.83839,2.0846021,2.1265645,-0.72036421,0.10433459,0.68570364,0
-0.020163951,2.1399159,4.0282812,-0.72036421,0.10433459,0.68570364,0
-4.1212053,3.3196888,-0.45956898,-0.72036421,0.10433459,0.68570364,0
1.9163611,2.3618081,4.4689107,0.68036222,0.29849166,0.66933542,0
-2.7237556,3.2269385,-3.7458777,-0.13484192,0.9486922,-0.28600794,0
1.6013908,-2.2991953,6.4072428,-0.72036421,0.10433459,0.68570364,0
-2.6101146,-5.1414461,-0.089851797,0.13484192,-0.9486922,0.28600794,0
2.6903009,2.0371714,3.8269928,0.68036222,0.29849166,0.66933542,0
0.48265156,-1.6279392,-3.620317,0.72036421,-0.10433459,-0.68570364,0
3.9833629,-1.4091318,4.0495148,0.68036222,0.29849166,0.66933542,0
-1.5141745,-5.3922405,-1.4384313,0.13484192,-0.9486922,0.28600794,0
-4.8161101,1.3813226,-3.1906469,-0.68036222,-0.29849166,-0.66933542,0
-0.67825961,-1.7856338,3.9342198,-0.72036421,0.10433459,0.68570364,0
-3.4253857,-3.9059498,1.3708534,-0.72036421,0.10433459,0.68570364,0
-0.84256816,1.0620786,3.3283072,-0.72036421,0.10433459,0.68570364,0
-0.34075975,-0.9410969,4.1602778,-0.72036421,0.10433459,0.68570364,0
-0.69980717,4.047884,-1.9770048,-0.13484192,0.9486922,-0.28600794,0
1.5462711,5.9174261,3.1653469,-0.13484192,0.9486922,-0.28600794,0
-3.2788687,-0.27012599,-4.0167465,-0.68036222,-0.29849166,-0.66933542,0
3.0698667,-1.9769394,-0.84922099,0.72036421,-0.10433459,-0.68570364,0
-1.0213642,-2.5021558,-5.0673394,0.72036421,-0.10433459,-0.68570364,0
3.2682614,5.0411243,-0.55321038,-0.13484192,0.9486922,-0.28600794,0
-4.5797296,2.9892807,-3.6591699,-0.13484192,0.9486922,-0.28600794,0
-1.8253169,-1.526992,-4.933743,-0.68036222,-0.29849166,-0.66933542,0
3.5479915,-2.567034,-0.25714135,0.72036421,-0.10433459,-0.68570364,0
1.3045182,-2.647886,6.1484199,-0.72036421,0.10433459,0.68570364,0
-3.5435579,2.3974285,0.28760552,-0.72036421,0.10433459,0.68570364,0
-3.0011492,-5.2206507,-0.16821456,0.13484192,-0.9486922,0.28600794,0
1.9100676,5.0044441,-0.034542382,-0.13484192,0.9486922,-0.28600794,0
-2.3704908,2.7364209,-5.5394816,-0.13484192,0.9486922,-0.28600794,0
0.33011818,-4.3790956,1.0526683,0.13484192,-0.9486922,0.28600794,0
-2.0655401,4.4337821,1.5304888,-0.72036421,0.10433459,0.68570364,0
0.68435216,-5.1621723,-1.7118156,0.13484192,-0.9486922,0.28600794,0
-0.62910628,5.4676971,2.6992006,-0.13484192,0.9486922,-0.28600794,0
1.8278687,-1.8934327,6.4564953,0.68036222,0.29849166,0.66933542,0
5.0753832,4.1744351,0.3216958,0.72036421,-0.10433459,-0.68570364,0
4.2828569,-0.58974171,0.21401119,0.72036421,-0.10433459,-0.68570364,0
-1.6822627,-1.1018833,2.7754292,-0.72036421,0.10433459,0.68570364,0
4.2753954,-3.2433977,2.9597425,0.13484192,-0.9486922,0.28600794,0
-1.8126467,-0.50045419,-5.4044085,-0.68036222,-0.29849166,-0.66933542,0
2.846004,2.5494127,3.44029,0.68036222,0.29849166,0.66933542,0
-0.74696922,4.4700065,-0.55458546,-0.13484192,0.9486922,-0.28600794,0
-0.86210775,0.22165382,3.4356561,-0.72036421,0.10433459,0.68570364,0
3.4927895,-1.6980953,-0.44734848,0.72036421,-0.10433459,-0.68570364,0
3.9731674,-1.6276045,0.046585798,0.72036421,-0.10433459,-0.68570364,0
-0.58511591,-3.784343,3.4569674,0.13484192,-0.9486922,0.28600794,0
1.5335439,1.3688891,5.3008289,0.68036222,0.29849166,0.66933542,0
0.74619555,-2.2405355,-3.2502408,0.72036421,-0.10433459,-0.68570364,0
0.11583471,4.3029547,-1.5154767,-0.13484192,0.9486922,-0.28600794,0
0.35925138,-3.8561668,-3.4109144,0.72036421,-0.10433459,-0.68570364,0
3.342854,4.8794298,-1.1247216,-0.13484192,0.9486922,-0.28600794,0
1.6441526,-1.6681392,-2.3939881,0.72036421,-0.10433459,-0.68570364,0
0.33108068,-0.49392819,4.798038,-0.72036421,0.10433459,0.68570364,0
-3.1755877,3.0999708,-3.9540081,-0.13484192,0.9486922,-0.28600794,0
1.3672596,-0.86853456,-2.8065426,0.72036421,-0.10433459,-0.68570364,0
4.4108119,0.98260021,2.5484262,0.68036222,0.29849166,0.66933542,0
3.8252406,-0.24228024,-0.31960511,0.72036421,-0.10433459,-0.68570364,0
-0.84304571,-5.6966324,-2.7645159,0.13484192,-0.9486922,0.28600794,0
-3.2750347,-1.6483569,-3.4060185,-0.68036222,-0.29849166,-0.66933542,0
2.4491525,3.0776744,3.6080995,0.68036222,0.29849166,0.66933542,0
1.8708103,5.5096064,3.1114445,0.68036222,0.29849166,0.66933542,0
-0.94514775,1.321785,-5.569109,0.72036421,-0.10433459,-0.68570364,0
0.94752312,-4.7437315,-0.44791615,0.13484192,-0.9486922,0.28600794,0
3.8033624,-3.238543,3.1983907,0.13484192,-0.9486922,0.28600794,0
-2.6852002,-3.4581578,2.0803196,-0.72036421,0.10433459,0.68570364,0
-4.8519826,-0.51749492,-2.3074014,-0.68036222,-0.29849166,-0.66933542,0
-4.1339064,0.82590961,-0.093465805,-0.72036421,0.10433459,0.68570364,0
3.5413899,2.7930498,2.6247973,0.68036222,0.29849166,0.66933542,0
-5.6827197,2.4359665,-2.7800817,-0.68036222,-0.29849166,-0.66933542,0
2.7679563,3.5700784,3.0644548,0.68036222,0.29849166,0.66933542,0
2.981647,3.4407678,2.9049101,0.68036222,0.29849166,0.66933542,0
1.2236364,-0.6177628,-2.9955823,0.72036421,-0.10433459,-0.68570364,0
2.7139714,1.7401841,-1.7886924,0.72036421,-0.10433459,-0.68570364,0
1.6517363,5.8058395,2.7454908,-0.13484192,0.9486922,-0.28600794,0
-1.1216998,1.3764683,-5.7629061,0.72036421,-0.10433459,-0.68570364,0
-0.82249737,-0.43396306,3.5770257,-0.72036421,0.10433459,0.68570364,0
4.6065516,-1.6963668,3.5441527,0.68036222,0.29849166,0.66933542,0
-5.669785,0.15565729,-1.7763205,-0.68036222,-0.29849166,-0.66933542,0
4.422555,-3.1912231,3.0634258,0.13484192,-0.9486922,0.28600794,0
-0.96470881,-0.57035446,3.4483786,-0.72036421,0.10433459,0.68570364,0
-2.3683572,-5.0065136,-2.8300557,-0.68036222,-0.29849166,-0.66933542,0
1.6412376,2.3947001,4.7338986,0.68036222,0.29849166,0.66933542,0
3.154083,-2.9658501,-0.61027861,0.72036421,-0.10433459,-0.68570364,0
4.7027578,-1.7524161,3.4713566,0.68036222,0.29849166,0.66933542,0
-5.1544385,3.40517,-1.5580356,-0.72036421,0.10433459,0.68570364,0
0.72940063,4.0738945,-2.5645471,-0.13484192,0.9486922,-0.28600794,0
-0.85603166,-1.7946196,3.7488294,-0.72036421,0.10433459,0.68570364,0
0.83279252,-1.2948567,-3.3031578,0.72036421,-0.10433459,-0.68570364,0
3.0210581,-3.2842331,-0.7015835,0.72036421,-0.10433459,-0.68570364,0
2.4454222,-2.92625,4.8744879,0.13484192,-0.9486922,0.28600794,0
-4.3926263,-5.5183544,-0.49967194,0.13484192,-0.9486922,0.28600794,0
-3.8340294,-0.84546673,-3.1958656,-0.68036222,-0.29849166,-0.66933542,0
-4.5961065,-0.23441911,-2.6937318,-0.68036222,-0.29849166,-0.66933542,0
0.62094259,-0.22168326,5.0611277,-0.72036421,0.10433459,0.68570364,0
-0.26068902,5.2528176,3.3019495,-0.72036421,0.10433459,0.68570364,0
-3.2220416,-5.5002184,-0.99140239,0.13484192,-0.9486922,0.28600794,0
-0.4323678,3.2702127,-4.6826396,-0.13484192,0.9486922,-0.28600794,0
-0.43412495,5.0809412,1.3243985,-0.13484192,0.9486922,-0.28600794,0
2.9722366,-3.2554018,3.5343146,0.13484192,-0.9486922,0.28600794,0
-1.3065934,-2.9424651,3.4501448,-0.72036421,0.10433459,0.68570364,0
-2.9196138,-2.7561877,-3.2732553,-0.68036222,-0.29849166,-0.66933542,0
0.65471268,5.9758453,4.1396561,0.68036222,0.29849166,0.66933542,0
-1.2957907,0.74231195,2.9008298,-0.72036421,0.10433459,0.68570364,0
3.0988646,-2.9043446,4.6390753,0.13484192,-0.9486922,0.28600794,0
1.0671101,-2.7027555,5.9073596,-0.72036421,0.10433459,0.68570364,0
3.0448763,2.0611534,3.4558811,0.68036222,0.29849166,0.66933542,0
1.0680919,-3.784652,2.6765175,0.13484192,-0.9486922,0.28600794,0
1.9310216,-2.2193608,-2.0087464,0.72036421,-0.10433459,-0.68570364,0
4.3926711,-3.1453879,3.2295516,0.13484192,-0.9486922,0.28600794,0
5.0676913,4.0408621,0.516886,0.68036222,0.29849166,0.66933542,0
-0.50871277,3.7710862,-2.9852417,-0.13484192,0.9486922,-0.28600794,0
-3.1173282,0.47631562,-4.5138259,-0.68036222,-0.29849166,-0.66933542,0
1.9476767,-2.9856858,4.9120073,0.13484192,-0.9486922,0.28600794,0
-2.3601949,0.68589377,1.7912067,-0.72036421,0.10433459,0.68570364,0
2.4647865,-2.8985837,-1.3446522,0.72036421,-0.10433459,-0.68570364,0
-4.5550547,3.0662138,-3.4156144,-0.13484192,0.9486922,-0.28600794,0
1.5100994,4.6169477,-1.1313025,-0.13484192,0.9486922,-0.28600794,0
-4.9105668,-4.7502017,-0.3602674,-0.68036222,-0.29849166,-0.66933542,0
-2.7627499,3.5998907,-2.4904056,-0.13484192,0.9486922,-0.28600794,0
-2.1926029,2.3186092,-6.2753606,-0.68036222,-0.29849166,-0.66933542,0
-3.5156429,3.3277445,0.17537785,-0.72036421,0.10433459,0.68570364,0
-0.94050026,-5.5845642,-2.3468385,0.13484192,-0.9486922,0.28600794,0
4.683641,1.662024,0.29243255,0.72036421,-0.10433459,-0.68570364,0
3.5798802,2.0689023,2.9086077,0.68036222,0.29849166,0.66933542,0
-3.9812315,-1.5510619,-2.7315764,-0.68036222,-0.29849166,-0.66933542,0
0.52295256,-4.8577032,-0.62579572,0.13484192,-0.9486922,0.28600794,0
2.7145023,2.8021827,3.4612346,0.68036222,0.29849166,0.66933542,0
2.3472974,2.8749363,3.8020442,0.68036222,0.29849166,0.66933542,0
-2.9280453,-3.8324571,1.8821507,-0.72036421,0.10433459,0.68570364,0
4.3933911,0.79889846,2.6480556,0.68036222,0.29849166,0.66933542,0
-4.6664906,2.019419,-0.83457136,-0.72036421,0.10433459,0.68570364,0
-2.6824069,0.65131879,1.4579686,-0.72036421,0.10433459,0.68570364,0
-1.2562391,-0.15765828,-5.6708179,0.72036421,-0.10433459,-0.68570364,0
2.7480175,3.0462806,3.3183112,0.68036222,0.29849166,0.66933542,0
-1.1799064,-4.7717052,-4.1427989,-0.68036222,-0.29849166,-0.66933542,0
1.386548,-4.9122734,-1.2139572,0.13484192,-0.9486922,0.28600794,0
-0.71012092,-4.9705386,-4.3647819,0.72036421,-0.10433459,-0.68570364,0
2.8659275,2.7741876,-1.786386,0.72036421,-0.10433459,-0.68570364,0
2.4289775,1.2395524,4.4483218,0.68036222,0.29849166,0.66933542,0
4.9963436,0.026813507,2.379483,0.68036222,0.29849166,0.66933542,0
5.6357412,-0.25633526,1.5845501,0.72036421,-0.10433459,-0.68570364,0
-2.0970576,2.118047,1.8497331,-0.72036421,0.10433459,0.68570364,0
0.19208908,-5.2938666,-1.9165654,0.13484192,-0.9486922,0.28600794,0
4.8623905,1.0865417,0.56778073,0.72036421,-0.10433459,-0.68570364,0
-1.2280147,-3.3124733,-4.7446461,-0.68036222,-0.29849166,-0.66933542,0
-4.8046503,1.4682317,-0.89584875,-0.72036421,0.10433459,0.68570364,0
-3.6892273,-0.0025091171,0.49974012,-0.72036421,0.10433459,0.68570364,0
-5.4955864,2.8540573,-1.8325729,-0.72036421,0.10433459,0.68570364,0
2.8499463,-4.4290795,-0.30113435,0.13484192,-0.9486922,0.28600794,0
0.56278765,1.1792336,4.7868743,-0.72036421,0.10433459,0.68570364,0
0.20963097,-5.2753248,-1.8633323,0.13484192,-0.9486922,0.28600794,0
4.1917686,5.2733316,-0.21837604,-0.13484192,0.9486922,-0.28600794,0
5.2892385,0.31032181,1.955332,0.68036222,0.29849166,0.66933542,0
2.5913811,3.6957407,3.1878998,0.68036222,0.29849166,0.66933542,0
0.56070286,3.4103124,4.44521,-0.72036421,0.10433459,0.68570364,0
-0.39976025,5.0042024,1.0536528,-0.13484192,0.9486922,-0.28600794,0
-0.99419498,3.2604866,-4.4500208,-0.13484192,0.9486922,-0.28600794,0
-3.2220411,3.3505812,-3.1008306,-0.13484192,0.9486922,-0.28600794,0
-2.3990407,-0.19777727,-4.9433331,-0.68036222,-0.29849166,-0.66933542,0
0.67578268,4.8115044,-0.09260577,-0.13484192,0.9486922,-0.28600794,0
0.2634306,1.2338262,4.4640784,-0.72036421,0.10433459,0.68570364,0
0.72666973,1.2025123,4.9554982,-0.72036421,0.10433459,0.68570364,0
-2.7583208,-4.5426373,1.9662802,0.13484192,-0.9486922,0.28600794,0
-1.1171596,0.263832,-5.588841,0.72036421,-0.10433459,-0.68570364,0
1.7815061,4.9856839,-0.03615725,-0.13484192,0.9486922,-0.28600794,0
-2.9707901,-5.2109947,-2.1265092,-0.68036222,-0.29849166,-0.66933542,0
-1.3670859,4.4155846,2.2670171,-0.72036421,0.10433459,0.68570364,0
-1.9070482,-5.494194,-3.0814826,-0.68036222,-0.29849166,-0.66933542,0
4.6883478,-3.0599394,3.3735852,0.13484192,-0.9486922,0.28600794,0
4.2044535,-2.5283327,4.3238926,0.68036222,0.29849166,0.66933542,0
2.7060552,-2.8673339,4.9470353,0.13484192,-0.9486922,0.28600794,0
-0.50171232,-4.5530992,0.86767244,0.13484192,-0.9486922,0.28600794,0
4.109652,0.5353775,3.0539873,0.68036222,0.29849166,0.66933542,0
-0.41675538,-3.1744082,-4.3298807,0.72036421,-0.10433459,-0.68570364,0
-3.6208932,1.3667175,-4.3990412,-0.68036222,-0.29849166,-0.66933542,0
3.5589292,-0.1653831,3.9262886,0.68036222,0.29849166,0.66933542,0
-3.0655296,-1.8461211,-3.5307817,-0.68036222,-0.29849166,-0.66933542,0
-1.0625792,-4.1075749,2.6099093,0.13484192,-0.9486922,0.28600794,0
2.654562,-3.5761442,2.6201801,0.13484192,-0.9486922,0.28600794,0
2.6006408,4.9254928,-0.62200391,-0.13484192,0.9486922,-0.28600794,0
-3.4905739,-0.062094212,-3.894326,-0.68036222,-0.29849166,-0.66933542,0
-1.4739442,2.5389717,-6.3098373,0.72036421,-0.10433459,-0.68570364,0
2.1576552,-2.781868,-1.6850675,0.72036421,-0.10433459,-0.68570364,0
-0.72340345,3.429882,3.0932176,-0.72036421,0.10433459,0.68570364,0
2.9780684,-1.0614531,-1.0849574,0.72036421,-0.10433459,-0.68570364,0
1.0553875,5.6275644,2.4353054,-0.13484192,0.9486922,-0.28600794,0
-2.1386609,3.960227,-1.5894003,-0.13484192,0.9486922,-0.28600794,0
-0.12210846,-5.2723107,-1.6969308,0.13484192,-0.9486922,0.28600794,0
-0.72238159,-2.7261202,4.0309691,-0.72036421,0.10433459,0.68570364,0
-0.076808453,5.5486827,2.7074416,-0.13484192,0.9486922,-0.28600794,0
-1.6974025,-2.3835983,2.954546,-0.72036421,0.10433459,0.68570364,0
-0.057639599,4.1949782,-1.7918503,-0.13484192,0.9486922,-0.28600794,0
-4.9488115,2.5609939,-3.581836,-0.68036222,-0.29849166,-0.66933542,0
-3.9089699,1.9735546,-4.3768392,-0.68036222,-0.29849166,-0.66933542,0
-5.5849156,2.5076437,-2.9114614,-0.68036222,-0.29849166,-0.66933542,0
0.58126736,4.6166191,-0.69448233,-0.13484192,0.9486922,-0.28600794,0
-2.3562059,-2.1434288,-4.1192064,-0.68036222,-0.29849166,-0.66933542,0
-1.0170455,-4.0184245,2.8841536,0.13484192,-0.9486922,0.28600794,0
-1.2419395,4.7552304,0.62486613,-0.13484192,0.9486922,-0.28600794,0
-0.39569283,4.2956839,-1.2984297,-0.13484192,0.9486922,-0.28600794,0
2.9677062,3.9117637,-1.8525524,0.72036421,-0.10433459,-0.68570364,0
-3.8444777,-5.3325887,-0.14191735,0.13484192,-0.9486922,0.28600794,0
-5.7770081,1.7350106,-1.9579489,-0.72036421,0.10433459,0.68570364,0
-4.9857335,-3.2560141,-0.95019865,-0.68036222,-0.29849166,-0.66933542,0
-4.9595332,-1.6691363,-1.6845028,-0.68036222,-0.29849166,-0.66933542,0
-2.2441053,-3.8308451,-3.4806466,-0.68036222,-0.29849166,-0.66933542,0
-4.9859786,2.3473718,-3.4487927,-0.68036222,-0.29849166,-0.66933542,0
2.2583978,5.7504129,2.6100831,0.68036222,0.29849166,0.66933542,0
3.9847159,-0.5342164,3.6579695,0.68036222,0.29849166,0.66933542,0
0.97048759,-1.1667325,5.5721374,-0.72036421,0.10433459,0.68570364,0
-5.3717246,2.5114117,-3.1298449,-0.68036222,-0.29849166,-0.66933542,0
1.8734407,4.6385884,-1.2308223,-0.13484192,0.9486922,-0.28600794,0
2.745312,5.6586342,2.1560762,0.68036222,0.29849166,0.66933542,0
2.2197442,1.5627532,4.5168695,0.68036222,0.29849166,0.66933542,0
-1.2059975,-5.0834312,-0.55940157,0.13484192,-0.9486922,0.28600794,0
2.0990548,-1.4432068,-1.9503165,0.72036421,-0.10433459,-0.68570364,0
-2.9889607,4.2207947,-0.32420993,-0.13484192,0.9486922,-0.28600794,0
-3.1544342,0.034295201,-4.2789884,-0.68036222,-0.29849166,-0.66933542,0
-1.6166258,5.0428543,1.7555684,-0.13484192,0.9486922,-0.28600794,0
1.4595785,4.9284573,3.7886157,0.68036222,0.29849166,0.66933542,0
-4.3879504,-3.1353076,-1.611659,-0.68036222,-0.29849166,-0.66933542,0
-2.2994785,-5.8207016,-2.4894018,0.13484192,-0.9486922,0.28600794,0
1.0950816,2.3222921,5.1721506,-0.72036421,0.10433459,0.68570364,0
-0.69024467,-4.1688156,2.2312315,0.13484192,-0.9486922,0.28600794,0
0.8830421,5.2031159,4.2521653,0.68036222,0.29849166,0.66933542,0
0.63643694,2.725656,-4.1211872,0.72036421,-0.10433459,-0.68570364,0
-1.9585208,-4.0228033,-3.6853321,-0.68036222,-0.29849166,-0.66933542,0
1.8048165,-0.104424,5.6821146,0.68036222,0.29849166,0.66933542,0
1.0481668,5.7427206,3.8436825,0.68036222,0.29849166,0.66933542,0
4.6426802,-2.9981287,0.95847559,0.72036421,-0.10433459,-0.68570364,0
-0.56204414,-5.7792811,-3.171145,0.13484192,-0.9486922,0.28600794,0
1.3854966,3.4839306,-3.4496412,0.72036421,-0.10433459,-0.68570364,0
5.4379659,1.123812,1.4413762,0.68036222,0.29849166,0.66933542,0
4.1297956,0.92673707,-0.17752981,0.72036421,-0.10433459,-0.68570364,0
2.7104099,0.49380362,4.4948211,0.68036222,0.29849166,0.66933542,0
0.43791103,4.537077,-0.89073884,-0.13484192,0.9486922,-0.28600794,0
-5.3652172,2.5519509,-3.1545377,-0.68036222,-0.29849166,-0.66933542,0
-5.2745152,2.3546629,-1.5243399,-0.72036421,0.10433459,0.68570364,0
-0.3438369,-4.2056308,-4.0963688,0.72036421,-0.10433459,-0.68570364,0
-0.25884581,-5.4903302,-2.3556366,0.13484192,-0.9486922,0.28600794,0
3.8281245,5.4799595,1.135105,0.68036222,0.29849166,0.66933542,0
-1.6775656,-5.0439253,-0.20603415,0.13484192,-0.9486922,0.28600794,0
-0.34901333,-1.6197591,4.2548704,-0.72036421,0.10433459,0.68570364,0
-4.195879,2.1270792,-0.35655284,-0.72036421,0.10433459,0.68570364,0
-1.394541,4.8705997,1.079494,-0.13484192,0.9486922,-0.28600794,0
4.8452168,4.8206325,0.39528561,0.68036222,0.29849166,0.66933542,0
1.473353,0.26065868,5.8562298,0.68036222,0.29849166,0.66933542,0
1.2336383,5.6500573,3.6964793,0.68036222,0.29849166,0.66933542,0
-1.5573214,-1.5019057,-5.2173405,-0.68036222,-0.29849166,-0.66933542,0
0.91908646,-5.2544575,-2.6100214,0.72036421,-0.10433459,-0.68570364,0
-1.6380992,3.2877736,-4.055933,-0.13484192,0.9486922,-0.28600794,0
1.9092478,2.8988504,4.2366462,0.68036222,0.29849166,0.66933542,0
-1.1626785,-2.1186137,-5.2741551,0.72036421,-0.10433459,-0.68570364,0
3.479223,-3.4819379,2.5438659,0.13484192,-0.9486922,0.28600794,0
-4.7317185,2.5466242,-3.7960982,-0.68036222,-0.29849166,-0.66933542,0
-1.2328472,-1.0545375,3.2403579,-0.72036421,0.10433459,0.68570364,0
4.5318918,-3.1667717,3.092984,0.13484192,-0.9486922,0.28600794,0
2.3250165,-2.2627473,6.1158533,0.68036222,0.29849166,0.66933542,0
3.2760065,5.0202231,1.9013395,0.68036222,0.29849166,0.66933542,0
-1.5523081,-4.2479448,2.3751893,0.13484192,-0.9486922,0.28600794,0
4.2324858,-3.8574109,0.65829206,0.72036421,-0.10433459,-0.68570364,0
-2.671423,-2.4380684,-3.6674011,-0.68036222,-0.29849166,-0.66933542,0
4.9011002,-3.6169524,1.4256604,0.13484192,-0.9486922,0.28600794,0
-2.3938122,3.072304,-4.4143572,-0.13484192,0.9486922,-0.28600794,0
-2.1480544,1.7982461,-6.0885859,-0.68036222,-0.29849166,-0.66933542,0
1.9298843,-3.8896909,-1.7557884,0.72036421,-0.10433459,-0.68570364,0
2.907769,0.4417274,4.3174338,0.68036222,0.29849166,0.66933542,0
1.3780608,-3.649168,2.9797816,0.13484192,-0.9486922,0.28600794,0
-4.1303382,0.53692865,-3.5111573,-0.68036222,-0.29849166,-0.66933542,0
2.9527628,5.0118961,2.2336226,0.68036222,0.29849166,0.66933542,0
2.3502731,-1.7983215,-1.6323664,0.72036421,-0.10433459,-0.68570364,0
-0.016988039,5.3928442,3.5366626,-0.72036421,0.10433459,0.68570364,0
-5.0334935,-2.1683617,-1.386693,-0.68036222,-0.29849166,-0.66933542,0
-4.300209,2.3691177,-0.50298452,-0.72036421,0.10433459,0.68570364,0
-1.4120839,-5.3562713,-3.6461082,-0.68036222,-0.29849166,-0.66933542,0
0.042389393,3.2314858,-4.8222284,0.72036421,-0.10433459,-0.68570364,0
-4.0360756,-1.2701749,-2.8010914,-0.68036222,-0.29849166,-0.66933542,0
-2.8953288,2.270736,-5.5397081,-0.68036222,-0.29849166,-0.66933542,0
5.7185135,-0.725842,1.7429459,0.72036421,-0.10433459,-0.68570364,0
4.1814175,5.1524096,-0.61459434,-0.13484192,0.9486922,-0.28600794,0
0.11889505,-5.2932825,-1.8801184,0.13484192,-0.9486922,0.28600794,0
-1.4837799,-5.4733582,-3.5210159,-0.68036222,-0.29849166,-0.66933542,0
3.3419249,-0.21525455,4.1691084,0.68036222,0.29849166,0.66933542,0
1.6698995,-1.8597097,-2.3377907,0.72036421,-0.10433459,-0.68570364,0
-0.9783082,4.2198753,-1.2752064,-0.13484192,0.9486922,-0.28600794,0
-2.2569807,4.3782368,-0.14707434,-0.13484192,0.9486922,-0.28600794,0
5.4304471,1.2408624,1.1410708,0.72036421,-0.10433459,-0.68570364,0
1.0704842,4.7405777,4.2679057,0.68036222,0.29849166,0.66933542,0
-4.4839025,2.6245096,-0.73482275,-0.72036421,0.10433459,0.68570364,0
4.5312304,1.2476285,2.3078334,0.68036222,0.29849166,0.66933542,0
3.6236486,2.307404,2.7577581,0.68036222,0.29849166,0.66933542,0
-2.9513466,-3.9889083,-2.6912651,-0.68036222,-0.29849166,-0.66933542,0
3.7533221,2.3247166,-0.78574514,0.72036421,-0.10433459,-0.68570364,0
-4.2563848,-3.9946771,0.51134944,-0.72036421,0.10433459,0.68570364,0
-4.4828901,1.0355196,-3.3751454,-0.68036222,-0.29849166,-0.66933542,0
-2.2775066,1.1727684,1.8039935,-0.72036421,0.10433459,0.68570364,0
-1.5363562,-0.14176875,-5.8452077,-0.68036222,-0.29849166,-0.66933542,0
0.38735688,0.79255295,4.6614118,-0.72036421,0.10433459,0.68570364,0
-0.50388634,0.30884397,3.7987182,-0.72036421,0.10433459,0.68570364,0
0.38212907,-2.0619633,-3.6598809,0.72036421,-0.10433459,-0.68570364,0
4.6296787,-1.368679,0.69688487,0.72036421,-0.10433459,-0.68570364,0
-1.2000266,-2.9866848,-4.9183812,-0.68036222,-0.29849166,-0.66933542,0
2.1837726,2.7999601,4.001699,0.68036222,0.29849166,0.66933542,0
3.2014244,-3.1748013,3.6936145,0.13484192,-0.9486922,0.28600794,0
-4.3476863,0.58016205,-3.3095088,-0.68036222,-0.29849166,-0.66933542,0
-2.2844033,-2.0353906,-4.2403717,-0.68036222,-0.29849166,-0.66933542,0
5.0341825,2.2598052,0.56973648,0.72036421,-0.10433459,-0.68570364,0
-2.8124874,4.1030116,-0.79809904,-0.13484192,0.9486922,-0.28600794,0
-0.66481876,4.8934364,2.9320741,-0.72036421,0.10433459,0.68570364,0
5.0176444,-0.65253258,2.6607871,0.68036222,0.29849166,0.66933542,0
-2.4366107,4.3536215,-0.14403439,-0.13484192,0.9486922,-0.28600794,0
1.6171398,4.6972179,3.73158,0.68036222,0.29849166,0.66933542,0
-0.21850204,4.0113535,-2.3250947,-0.13484192,0.9486922,-0.28600794,0
-5.3656292,-0.5359273,-1.7770729,-0.68036222,-0.29849166,-0.66933542,0
2.1429434,5.4870319,2.8448951,0.68036222,0.29849166,0.66933542,0
-1.0549541,2.8161118,-5.8953729,-0.13484192,0.9486922,-0.28600794,0
0.96778345,5.0827227,0.66936141,-0.13484192,0.9486922,-0.28600794,0
3.1804686,-3.4081197,-0.51526475,0.72036421,-0.10433459,-0.68570364,0
0.5541873,-4.2107921,1.5052915,0.13484192,-0.9486922,0.28600794,0
1.949585,3.2437487,4.0418358,0.68036222,0.29849166,0.66933542,0
3.4524827,-4.1411495,0.36986041,0.13484192,-0.9486922,0.28600794,0
3.7579262,-0.6663959,3.9474413,0.68036222,0.29849166,0.66933542,0
1.6893487,5.2016087,0.72351623,-0.13484192,0.9486922,-0.28600794,0
-2.8881459,-2.0982749,-3.5986395,-0.68036222,-0.29849166,-0.66933542,0
-2.4989085,-3.5226388,-3.3590908,-0.68036222,-0.29849166,-0.66933542,0
-2.7186544,4.0062671,-1.16324,-0.13484192,0.9486922,-0.28600794,0
2.1185966,5.4841309,1.4582719,-0.13484192,0.9486922,-0.28600794,0
-5.0976839,-3.6939459,-0.41823316,-0.72036421,0.10433459,0.68570364,0
3.4762237,-0.436553,4.1312857,0.68036222,0.29849166,0.66933542,0
-1.8018548,-4.7511663,-3.5197637,-0.68036222,-0.29849166,-0.66933542,0
-2.1128798,-4.2233515,-3.4389949,-0.68036222,-0.29849166,-0.66933542,0
-3.8064871,0.30572844,-3.7372396,-0.68036222,-0.29849166,-0.66933542,0
6.1041899,-2.7935858,2.5111489,0.68036222,0.29849166,0.66933542,0
3.2766452,4.1009603,2.3106375,0.68036222,0.29849166,0.66933542,0
2.4525077,1.7724881,4.1867399,0.68036222,0.29849166,0.66933542,0
-2.7812827,3.5565562,0.91204298,-0.72036421,0.10433459,0.68570364,0
4.44767,-2.8972661,4.0266438,0.13484192,-0.9486922,0.28600794,0
-3.2899373,3.4107561,-2.86922,-0.13484192,0.9486922,-0.28600794,0
-0.71727991,4.1125669,-1.7542138,-0.13484192,0.9486922,-0.28600794,0
-4.1754484,1.1340115,-3.7315745,-0.68036222,-0.29849166,-0.66933542,0
3.6163912,4.2118893,-1.2167442,0.72036421,-0.10433459,-0.68570364,0
-3.6280193,0.1482532,-3.8484209,-0.68036222,-0.29849166,-0.66933542,0
2.7214346,5.3078194,2.3367937,0.68036222,0.29849166,0.66933542,0
-2.6452231,-4.2961621,2.2498248,-0.72036421,0.10433459,0.68570364,0
-4.9372163,-1.3947928,-1.829531,-0.68036222,-0.29849166,-0.66933542,0
4.0725131,-1.1999133,0.085876942,0.72036421,-0.10433459,-0.68570364,0
-1.7609048,-1.803594,-4.875865,-0.68036222,-0.29849166,-0.66933542,0
0.75121307,5.0618958,0.70238173,-0.13484192,0.9486922,-0.28600794,0
4.45261,2.8447289,1.6755188,0.68036222,0.29849166,0.66933542,0
-1.0635405,-3.2619183,-4.9343753,-0.68036222,-0.29849166,-0.66933542,0
-4.9314442,-3.7013817,-0.80676961,-0.68036222,-0.29849166,-0.66933542,0
2.9987152,0.5224936,4.1889715,0.68036222,0.29849166,0.66933542,0
2.9140632,-4.3164158,0.042344332,0.13484192,-0.9486922,0.28600794,0
-1.9154866,3.03616,1.900785,-0.72036421,0.10433459,0.68570364,0
-5.601294,2.7833757,-1.9328685,-0.72036421,0.10433459,0.68570364,0
-3.2623937,1.0294994,-4.6130638,-0.68036222,-0.29849166,-0.66933542,0
5.1310568,-2.2098804,1.3516009,0.72036421,-0.10433459,-0.68570364,0
3.6395617,1.2581598,3.2094958,0.68036222,0.29849166,0.66933542,0
4.3983164,5.4532423,0.56743467,0.68036222,0.29849166,0.66933542,0
3.0115216,5.4144144,1.9943917,0.68036222,0.29849166,0.66933542,0
0.42732811,4.793787,-0.034237444,-0.13484192,0.9486922,-0.28600794,0
-1.3880899,1.6163988,-6.079268,0.72036421,-0.10433459,-0.68570364,0
4.7247901,3.2990758,1.1962376,0.68036222,0.29849166,0.66933542,0
-4.742487,-4.4245772,-0.67632866,-0.68036222,-0.29849166,-0.66933542,0
-0.18503046,4.4066567,3.510181,-0.72036421,0.10433459,0.68570364,0
-4.0171752,-1.8654828,-2.5548241,-0.68036222,-0.29849166,-0.66933542,0
0.25566959,5.3556194,1.9102987,-0.13484192,0.9486922,-0.28600794,0
-3.3335648,-2.5635295,1.2630575,-0.72036421,0.10433459,0.68570364,0
-0.71731281,-4.9821091,-0.45371222,0.13484192,-0.9486922,0.28600794,0
-4.4078407,2.6113636,-0.65291595,-0.72036421,0.10433459,0.68570364,0
2.1147842,4.9171181,-0.42071915,-0.13484192,0.9486922,-0.28600794,0
0.99876833,-3.7427788,2.8480947,0.13484192,-0.9486922,0.28600794,0
-1.9250281,4.0067086,-1.5359391,-0.13484192,0.9486922,-0.28600794,0
2.0614762,-4.4322796,0.059986472,0.13484192,-0.9486922,0.28600794,0
4.1837888,-0.068926334,3.2481198,0.68036222,0.29849166,0.66933542,0
1.3287406,5.2292514,0.98522073,-0.13484192,0.9486922,-0.28600794,0
2.7814193,-4.2141027,0.44425559,0.13484192,-0.9486922,0.28600794,0
-4.9817405,-0.28764391,-2.2780087,-0.68036222,-0.29849166,-0.66933542,0
-2.2805121,3.6396642,-2.5858326,-0.13484192,0.9486922,-0.28600794,0
4.8281908,2.1057472,1.6233006,0.68036222,0.29849166,0.66933542,0
0.55351686,3.8071704,-3.3663504,-0.13484192,0.9486922,-0.28600794,0
-2.7000508,2.851053,-5.00387,-0.13484192,0.9486922,-0.28600794,0
1.7572136,-3.6744924,2.7170224,0.13484192,-0.9486922,0.28600794,0
0.22532558,5.6335492,2.8465009,-0.13484192,0.9486922,-0.28600794,0
0.52386212,-4.006947,-3.2150407,0.72036421,-0.10433459,-0.68570364,0
-0.25448036,-0.65039456,4.206686,-0.72036421,0.10433459,0.68570364,0
3.8117385,5.1712012,-0.37797225,-0.13484192,0.9486922,-0.28600794,0
-2.3469009,1.8797979,1.6235119,-0.72036421,0.10433459,0.68570364,0
-1.5098951,-1.3017662,-5.3548012,-0.68036222,-0.29849166,-0.66933542,0
2.5317311,3.303838,3.4233019,0.68036222,0.29849166,0.66933542,0
2.7865899,-1.915122,5.4916525,0.68036222,0.29849166,0.66933542,0
-4.8094606,-3.3462973,-0.1683383,-0.72036421,0.10433459,0.68570364,0
-0.90990496,-3.5432026,3.958292,-0.72036421,0.10433459,0.68570364,0
3.8063216,-1.1597195,4.1182466,0.68036222,0.29849166,0.66933542,0
2.2288339,4.8176994,3.0560799,0.68036222,0.29849166,0.66933542,0
1.9148445,-2.6043768,6.1922932,0.13484192,-0.9486922,0.28600794,0
-1.2232409,0.92431647,-5.8007812,0.72036421,-0.10433459,-0.68570364,0
2.0446992,4.8292975,-0.67897779,-0.13484192,0.9486922,-0.28600794,0
-2.5748832,-1.1568544,-4.3368912,-0.68036222,-0.29849166,-0.66933542,0
4.3665466,5.5138206,0.49692988,-0.13484192,0.9486922,-0.28600794,0
-1.1367862,1.3681052,-5.7774825,0.72036421,-0.10433459,-0.68570364,0
-3.1349957,2.5434856,-5.417726,-0.68036222,-0.29849166,-0.66933542,0
1.2767316,-3.4573522,-2.50774,0.72036421,-0.10433459,-0.68570364,0
-2.9369066,-4.9320941,-2.2853277,-0.68036222,-0.29849166,-0.66933542,0
-3.0079546,4.1523209,-0.54238391,-0.13484192,0.9486922,-0.28600794,0
3.7784269,4.3382053,1.6947898,0.68036222,0.29849166,0.66933542,0
4.9818568,1.8249872,1.5923088,0.68036222,0.29849166,0.66933542,0
-0.046072006,3.6974781,-3.4475179,-0.13484192,0.9486922,-0.28600794,0
-5.0090847,-3.0188317,-1.0322347,-0.68036222,-0.29849166,-0.66933542,0
-2.1755962,-5.6156397,-1.867614,0.13484192,-0.9486922,0.28600794,0
4.4143853,-3.2157962,2.9857686,0.13484192,-0.9486922,0.28600794,0
1.3212609,4.4719028,4.1328135,0.68036222,0.29849166,0.66933542,0
-1.5546762,-2.2046518,-4.9066386,-0.68036222,-0.29849166,-0.66933542,0
-2.2787833,-5.1046038,-0.12385315,0.13484192,-0.9486922,0.28600794,0
-1.9323182,-5.6655407,-2.1478338,0.13484192,-0.9486922,0.28600794,0
4.5707941,3.2004836,-0.06020546,0.72036421,-0.10433459,-0.68570364,0
-1.9073954,-3.0171976,2.8303456,-0.72036421,0.10433459,0.68570364,0
0.26829529,4.7198291,-0.20457998,-0.13484192,0.9486922,-0.28600794,0
0.59248012,3.0648129,4.5311637,-0.72036421,0.10433459,0.68570364,0
4.3746095,-1.9324572,3.885201,0.68036222,0.29849166,0.66933542,0
-1.2528642,1.0680931,2.8963563,-0.72036421,0.10433459,0.68570364,0
4.119801,-2.3902802,4.3483748,0.68036222,0.29849166,0.66933542,0
4.4991961,3.9637237,-0.25155544,0.72036421,-0.10433459,-0.68570364,0
-0.95481825,-3.7322273,3.8041372,0.13484192,-0.9486922,0.28600794,0
5.1923676,2.0712636,0.76460528,0.72036421,-0.10433459,-0.68570364,0
0.44000387,5.0587378,0.8386308,-0.13484192,0.9486922,-0.28600794,0
1.2962403,5.6542487,3.6309764,0.68036222,0.29849166,0.66933542,0
-2.8365297,-0.82673621,1.5209516,-0.72036421,0.10433459,0.68570364,0
-1.2553906,-5.7688589,-2.8096869,0.13484192,-0.9486922,0.28600794,0
-0.72669697,2.7968757,-5.5640612,0.72036421,-0.10433459,-0.68570364,0
-1.1521174,3.4323964,2.6424506,-0.72036421,0.10433459,0.68570364,0
-4.4927249,-1.2352142,-2.3525097,-0.68036222,-0.29849166,-0.66933542,0
-3.4052515,-4.6690083,-1.9265904,-0.68036222,-0.29849166,-0.66933542,0
-1.3463781,4.7413321,0.62800431,-0.13484192,0.9486922,-0.28600794,0
4.4252367,2.9828601,1.6417427,0.68036222,0.29849166,0.66933542,0
-0.013272077,2.4498639,3.9883609,-0.72036421,0.10433459,0.68570364,0
2.1399915,1.4236767,4.6599579,0.68036222,0.29849166,0.66933542,0
-4.4888887,1.8111939,-0.6163094,-0.72036421,0.10433459,0.68570364,0
-2.0359907,4.2248306,-0.76011145,-0.13484192,0.9486922,-0.28600794,0
-2.8554881,1.0913959,1.2091777,-0.72036421,0.10433459,0.68570364,0
-4.5815449,2.8154476,-0.86645317,-0.72036421,0.10433459,0.68570364,0
-0.39477682,5.136497,1.4901252,-0.13484192,0.9486922,-0.28600794,0
4.9031906,-1.9959803,1.0796704,0.72036421,-0.10433459,-0.68570364,0
3.3076913,-0.13439393,-0.87973106,0.72036421,-0.10433459,-0.68570364,0
-2.5759814,-3.0763922,-3.4797533,-0.68036222,-0.29849166,-0.66933542,0
4.2304549,5.5131474,0.55885959,-0.13484192,0.9486922,-0.28600794,0
-1.8137207,4.2839732,-0.66872716,-0.13484192,0.9486922,-0.28600794,0
0.38751316,-5.2796755,-1.9616266,0.13484192,-0.9486922,0.28600794,0
0.66485524,5.9450812,3.6726339,-0.13484192,0.9486922,-0.28600794,0
-0.10646105,-3.8167682,3.1237454,0.13484192,-0.9486922,0.28600794,0
-2.1423275,4.4155531,-0.077349186,-0.13484192,0.9486922,-0.28600794,0
-2.5430453,-1.2168161,-4.342514,-0.68036222,-0.29849166,-0.66933542,0
2.5380437,-4.505302,-1.0232189,0.72036421,-0.10433459,-0.68570364,0
5.6003704,-2.4432178,1.8801413,0.72036421,-0.10433459,-0.68570364,0
-2.6871047,0.66172111,-5.0338187,-0.68036222,-0.29849166,-0.66933542,0
-3.1969333,-0.27318013,-4.09867,-0.68036222,-0.29849166,-0.66933542,0
-2.5770648,3.0715241,-4.3305478,-0.13484192,0.9486922,-0.28600794,0
-2.8511212,1.6627152,-5.3134966,-0.68036222,-0.29849166,-0.66933542,0
-2.2738581,-0.70935875,-4.8424377,-0.68036222,-0.29849166,-0.66933542,0
-1.503428,0.58487391,-6.0434828,0.72036421,-0.10433459,-0.68570364,0
2.1220767,0.49465439,5.0924673,0.68036222,0.29849166,0.66933542,0
1.3057358,-4.8323092,-0.9106161,0.13484192,-0.9486922,0.28600794,0
-2.0343087,4.0916686,-1.2026048,-0.13484192,0.9486922,-0.28600794,0
3.9426985,-2.3736281,4.5209684,0.68036222,0.29849166,0.66933542,0
-3.2004514,-3.9680634,1.6166093,-0.72036421,0.10433459,0.68570364,0
5.0671778,0.66852856,0.84652328,0.72036421,-0.10433459,-0.68570364,0
-3.5394042,3.8571987,-1.2707491,-0.13484192,0.9486922,-0.28600794,0
-4.5900087,0.93130255,-0.58865952,-0.72036421,0.10433459,0.68570364,0
0.22914457,5.2966213,1.7271056,-0.13484192,0.9486922,-0.28600794,0
2.7462733,4.1531086,2.8264914,0.68036222,0.29849166,0.66933542,0
5.1194282,0.43670368,0.93668818,0.72036421,-0.10433459,-0.68570364,0
-1.6474572,-1.3017973,-5.2149587,-0.68036222,-0.29849166,-0.66933542,0
3.3586736,4.3367,-1.5064794,0.72036421,-0.10433459,-0.68570364,0
3.8351011,3.3775349,-0.86002564,0.72036421,-0.10433459,-0.68570364,0
-5.2140074,-0.13404179,-2.110415,-0.68036222,-0.29849166,-0.66933542,0
-2.4694936,3.9438674,-1.487689,-0.13484192,0.9486922,-0.28600794,0
-3.822299,-3.4117627,0.87868309,-0.72036421,0.10433459,0.68570364,0
