-0.96743047,1.2984719,3.5057774,-0.7837072,0.056435227,0.61856139,0
-4.1430578,-3.0986991,-0.38642308,-0.23661762,-0.94789869,-0.21330799,0
-0.22182333,3.2561765,4.2718358,-0.7837072,0.056435227,0.61856139,0
1.4024221,-0.64040327,-3.0146894,0.7837072,-0.056435227,-0.61856139,0
-4.3643403,-2.4710324,-2.9301856,-0.23661762,-0.94789869,-0.21330799,0
0.29038215,-3.7500272,4.175293,0.5742954,-0.31353354,0.75622851,0
1.1817322,-5.1022816,2.6104343,-0.23661762,-0.94789869,-0.21330799,0
3.4363594,-1.1956052,2.8452411,0.5742954,-0.31353354,0.75622851,0
-3.125725,2.1706388,0.69168025,-0.7837072,0.056435227,0.61856139,0
2.4832752,1.3497535,-1.8268409,0.7837072,-0.056435227,-0.61856139,0
0.61713862,0.49191761,-4.1129398,0.7837072,-0.056435227,-0.61856139,0
-0.69028807,2.2643819,-4.4875474,-0.5742954,0.31353354,-0.75622851,0
0.56232655,1.0880321,-4.2367725,0.7837072,-0.056435227,-0.61856139,0
1.8913437,-3.6654394,2.9945607,0.5742954,-0.31353354,0.75622851,0
3.3543568,-2.6995034,2.2839968,0.5742954,-0.31353354,0.75622851,0
-3.0241063,-1.2919918,1.1363469,-0.7837072,0.056435227,0.61856139,0
3.9622154,-5.2049322,0.78362226,0.5742954,-0.31353354,0.75622851,0
3.1487553,1.8115293,4.3104162,0.5742954,-0.31353354,0.75622851,0
2.9829926,-4.9277458,1.6421862,0.5742954,-0.31353354,0.75622851,0
4.372551,2.5209849,2.6990969,0.23661762,0.94789869,0.21330799,0
-0.40792966,4.1711783,0.66884291,0.23661762,0.94789869,0.21330799,0
0.23472095,3.3671083,-4.7328262,-0.5742954,0.31353354,-0.75622851,0
-2.6658041,-2.1658509,1.6700375,-0.7837072,0.056435227,0.61856139,0
2.8363366,3.050087,2.0519593,0.23661762,0.94789869,0.21330799,0
-3.7474396,4.2830153,-0.28874779,-0.7837072,0.056435227,0.61856139,0
-2.0550685,1.1374704,-3.9183245,-0.5742954,0.31353354,-0.75622851,0
2.5874302,3.2115128,-1.8647382,0.7837072,-0.056435227,-0.61856139,0
-1.0232537,-3.3432894,-2.7602377,-0.23661762,-0.94789869,-0.21330799,0
2.3772736,-4.7833834,2.162034,0.5742954,-0.31353354,0.75622851,0
1.342149,-4.503582,3.0641351,0.5742954,-0.31353354,0.75622851,0
-3.4563103,1.3957212,0.34353465,-0.7837072,0.056435227,0.61856139,0
-5.2362919,-0.5520072,-1.7339694,-0.7837072,0.056435227,0.61856139,0
2.9029922,-4.9578829,1.6904449,0.5742954,-0.31353354,0.75622851,0
2.9663615,2.3864098,4.6872759,0.5742954,-0.31353354,0.75622851,0
2.340162,-0.38165927,-1.8501952,0.7837072,-0.056435227,-0.61856139,0
4.2958188,-3.5938377,0.92065692,0.7837072,-0.056435227,-0.61856139,0
-0.50937486,-1.4873937,4.3402982,-0.7837072,0.056435227,0.61856139,0
-0.92141926,2.351505,-4.2758999,-0.5742954,0.31353354,-0.75622851,0
0.18890929,4.4270849,-1.130415,0.23661762,0.94789869,0.21330799,0
-3.3185225,-0.19168568,0.66293848,-0.7837072,0.056435227,0.61856139,0
-0.52255869,-2.4559848,4.4119649,-0.7837072,0.056435227,0.61856139,0
-0.75972736,2.1317871,-4.4897876,-0.5742954,0.31353354,-0.75622851,0
4.7956257,1.693049,3.0106268,0.5742954,-0.31353354,0.75622851,0
-3.8408818,-2.836972,-1.8846823,-0.23661762,-0.94789869,-0.21330799,0
-3.6000109,0.60277438,-2.9667492,-0.5742954,0.31353354,-0.75622851,0
-5.243701,-1.6523172,-2.6534619,-0.5742954,0.31353354,-0.75622851,0
1.6815786,4.178978,-1.6836607,0.23661762,0.94789869,0.21330799,0
4.9252138,-0.62385917,1.4471203,0.7837072,-0.056435227,-0.61856139,0
0.71190882,4.1562405,-0.50698864,0.23661762,0.94789869,0.21330799,0
3.7529955,-0.54930758,-0.044862628,0.7837072,-0.056435227,-0.61856139,0
4.2347045,-3.1212902,1.4405696,0.5742954,-0.31353354,0.75622851,0
-1.8128133,-1.8252568,2.7196882,-0.7837072,0.056435227,0.61856139,0
1.8357217,-2.5085013,3.516469,0.5742954,-0.31353354,0.75622851,0
2.0093398,1.2881727,-2.4216907,0.7837072,-0.056435227,-0.61856139,0
0.1335578,-4.5202193,1.1865819,-0.23661762,-0.94789869,-0.21330799,0
0.44709146,2.9847121,4.9928088,0.23661762,0.94789869,0.21330799,0
0.058210373,-2.1313028,5.0227346,0.5742954,-0.31353354,0.75622851,0
-1.5177535,1.1432457,2.8226891,-0.7837072,0.056435227,0.61856139,0
4.2440505,-4.216795,0.9119041,0.7837072,-0.056435227,-0.61856139,0
3.3053069,2.7342019,-0.91165167,0.7837072,-0.056435227,-0.61856139,0
5.009212,2.6470304,1.2551215,0.7837072,-0.056435227,-0.61856139,0
-5.151123,-2.4721751,-1.4508741,-0.7837072,0.056435227,0.61856139,0
2.3184261,3.7262411,-0.37822795,0.23661762,0.94789869,0.21330799,0
4.4392223,-1.0016003,2.1640816,0.5742954,-0.31353354,0.75622851,0
3.6402254,3.1169853,0.86294299,0.23661762,0.94789869,0.21330799,0
3.0675573,-1.5485559,-0.82213408,0.7837072,-0.056435227,-0.61856139,0
4.6806183,-1.3791323,1.8242348,0.5742954,-0.31353354,0.75622851,0
-2.02771,-4.2760515,2.4989934,-0.23661762,-0.94789869,-0.21330799,0
-0.58046603,-1.6722283,4.2670898,-0.7837072,0.056435227,0.61856139,0
3.164237,-3.4333656,-0.52767956,0.7837072,-0.056435227,-0.61856139,0
-0.56095302,0.93078136,4.0543242,-0.7837072,0.056435227,0.61856139,0
3.4577575,-2.5234067,-0.23881519,0.7837072,-0.056435227,-0.61856139,0
4.9705095,-1.0094631,1.5396906,0.7837072,-0.056435227,-0.61856139,0
1.5015163,3.6241584,0.98158574,0.23661762,0.94789869,0.21330799,0
2.0272698,0.093727797,4.449892,0.5742954,-0.31353354,0.75622851,0
-2.1920419,5.0460334,-1.2397661,0.23661762,0.94789869,0.21330799,0
1.1714067,3.5210445,1.805987,0.23661762,0.94789869,0.21330799,0
1.7827802,3.520462,1.1303923,0.23661762,0.94789869,0.21330799,0
-4.1667089,4.3638992,-0.97701931,-0.5742954,0.31353354,-0.75622851,0
-4.476316,-0.28085423,-0.79583138,-0.7837072,0.056435227,0.61856139,0
3.8237257,-2.7181747,0.24263084,0.7837072,-0.056435227,-0.61856139,0
-0.15618128,-2.1198165,-4.8544388,0.7837072,-0.056435227,-0.61856139,0
4.1399527,3.0118291,0.77589971,0.23661762,0.94789869,0.21330799,0
0.6251049,0.83082139,-4.1337667,0.7837072,-0.056435227,-0.61856139,0
-5.0413413,-1.6567298,-2.8089676,-0.5742954,0.31353354,-0.75622851,0
0.070567846,-4.0100689,-1.010551,-0.23661762,-0.94789869,-0.21330799,0
-0.042098045,4.7799444,-2.4422021,0.23661762,0.94789869,0.21330799,0
-2.4875903,-1.3743458,1.8236175,-0.7837072,0.056435227,0.61856139,0
2.573236,3.894547,-1.4088019,0.23661762,0.94789869,0.21330799,0
-0.86001956,0.8900342,3.6791291,-0.7837072,0.056435227,0.61856139,0
-5.6267567,-1.6774113,-2.1260047,-0.7837072,0.056435227,0.61856139,0
-1.3425705,-0.60374939,-5.1813221,-0.5742954,0.31353354,-0.75622851,0
3.4344447,-3.6988168,1.8088593,0.5742954,-0.31353354,0.75622851,0
2.7809474,-3.3835371,-1.0178473,0.7837072,-0.056435227,-0.61856139,0
1.5049179,-0.1837306,4.7315416,0.5742954,-0.31353354,0.75622851,0
-0.24325514,3.854861,-4.1676178,-0.5742954,0.31353354,-0.75622851,0
0.57087946,-3.7466822,-2.7359746,-0.23661762,-0.94789869,-0.21330799,0
-0.1509949,3.1184587,4.3741388,-0.7837072,0.056435227,0.61856139,0
-0.88814616,-1.1352634,3.8282743,-0.7837072,0.056435227,0.61856139,0
3.3955421,1.506479,3.996527,0.5742954,-0.31353354,0.75622851,0
2.640732,-0.43971586,-1.4640813,0.7837072,-0.056435227,-0.61856139,0
1.9671445,2.0881605,5.3224473,0.5742954,-0.31353354,0.75622851,0
-1.8204119,5.159409,-2.1558256,0.23661762,0.94789869,0.21330799,0
-3.2530458,4.151763,0.349617,-0.7837072,0.056435227,0.61856139,0
-4.2886386,0.83596182,-2.3471117,-0.5742954,0.31353354,-0.75622851,0
0.53872108,3.4180024,2.965708,0.23661762,0.94789869,0.21330799,0
1.4869802,3.0848403,3.3943338,0.23661762,0.94789869,0.21330799,0
1.19102,3.1510739,3.4283051,0.23661762,0.94789869,0.21330799,0
-1.638997,-2.9960222,-3.6203942,-0.23661762,-0.94789869,-0.21330799,0
-4.8799152,-0.10476875,-1.3232508,-0.7837072,0.056435227,0.61856139,0
3.524509,3.4392774,-0.44089806,0.23661762,0.94789869,0.21330799,0
-1.7674768,2.1413581,2.4152298,-0.7837072,0.056435227,0.61856139,0
-3.7808282,-2.5577106,-3.1922808,-0.23661762,-0.94789869,-0.21330799,0
-4.4494567,3.2327807,-1.2312584,-0.5742954,0.31353354,-0.75622851,0
-2.885582,0.515733,1.1469251,-0.7837072,0.056435227,0.61856139,0
-1.7823235,-1.8615178,-5.3688378,-0.5742954,0.31353354,-0.75622851,0
1.3307836,2.915071,4.3220196,0.23661762,0.94789869,0.21330799,0
3.5890484,3.0480952,-0.58079427,0.7837072,-0.056435227,-0.61856139,0
-3.7330189,4.2244387,-1.3641922,-0.5742954,0.31353354,-0.75622851,0
-2.8078749,-2.9096003,-2.7078276,-0.23661762,-0.94789869,-0.21330799,0
-1.667197,4.6627679,-0.1188066,0.23661762,0.94789869,0.21330799,0
4.8671865,-1.5487707,1.4579866,0.7837072,-0.056435227,-0.61856139,0
2.1796687,-3.8611751,-1.7360797,0.7837072,-0.056435227,-0.61856139,0
1.8313326,1.3637867,-2.6541216,0.7837072,-0.056435227,-0.61856139,0
0.74890006,-2.0007942,4.55232,0.5742954,-0.31353354,0.75622851,0
0.83877385,2.6844108,5.6677608,-0.7837072,0.056435227,0.61856139,0
-4.172019,-0.43525648,-2.962724,-0.5742954,0.31353354,-0.75622851,0
1.2698385,-3.0863426,3.7066388,0.5742954,-0.31353354,0.75622851,0
-3.6295731,-1.9902967,-4.0193906,-0.5742954,0.31353354,-0.75622851,0
-5.3129392,-2.3136086,-1.6703584,-0.7837072,0.056435227,0.61856139,0
0.1403017,-4.4786711,3.9871705,0.5742954,-0.31353354,0.75622851,0
1.9605336,1.7969412,-2.5299454,0.7837072,-0.056435227,-0.61856139,0
-1.1268327,4.1598859,1.5164857,0.23661762,0.94789869,0.21330799,0
-5.478231,-1.9020969,-1.917326,-0.7837072,0.056435227,0.61856139,0
-0.037315607,-3.7641072,-1.9838847,-0.23661762,-0.94789869,-0.21330799,0
-0.98613048,4.0384169,1.9001913,0.23661762,0.94789869,0.21330799,0
1.4162085,3.2627366,2.6823034,0.23661762,0.94789869,0.21330799,0
-0.4217608,-3.2251024,4.6098461,-0.7837072,0.056435227,0.61856139,0
-0.5120824,0.55463982,-5.3317418,-0.5742954,0.31353354,-0.75622851,0
-3.1732316,-2.5206501,-4.0309634,-0.23661762,-0.94789869,-0.21330799,0
-0.37966609,3.0790815,-4.385664,-0.5742954,0.31353354,-0.75622851,0
3.9712448,2.7657442,2.0565979,0.23661762,0.94789869,0.21330799,0
-3.0377402,2.9026654,-2.4402108,-0.5742954,0.31353354,-0.75622851,0
-3.1423895,3.6622279,-2.0458224,-0.5742954,0.31353354,-0.75622851,0
-5.4411607,-0.46618176,-2.0117335,-0.5742954,0.31353354,-0.75622851,0
-4.234365,1.735204,-2.015501,-0.5742954,0.31353354,-0.75622851,0
-2.2491627,-3.6582375,-0.00079929829,-0.23661762,-0.94789869,-0.21330799,0
-3.1515656,3.2069235,-2.2276237,-0.5742954,0.31353354,-0.75622851,0
-4.5343351,0.35036564,-0.92693168,-0.7837072,0.056435227,0.61856139,0
2.9956856,0.15947318,-1.0690285,0.7837072,-0.056435227,-0.61856139,0
2.1978152,3.1588144,-2.3535657,0.7837072,-0.056435227,-0.61856139,0
1.5562079,-4.0986094,-2.2650824,-0.23661762,-0.94789869,-0.21330799,0
-2.3931479,-3.0524278,-2.5331769,-0.23661762,-0.94789869,-0.21330799,0
-1.1745403,5.1024685,-2.6192439,0.23661762,0.94789869,0.21330799,0
3.5275149,-2.2844961,2.3245602,0.5742954,-0.31353354,0.75622851,0
0.90067518,3.0991516,3.9811122,0.23661762,0.94789869,0.21330799,0
0.20972514,3.7385526,1.9061958,0.23661762,0.94789869,0.21330799,0
-3.9363227,-0.78571892,-0.065606982,-0.7837072,0.056435227,0.61856139,0
0.1124146,3.4759696,3.1810069,0.23661762,0.94789869,0.21330799,0
-0.087075949,4.5216293,-1.2444079,0.23661762,0.94789869,0.21330799,0
3.5751812,-4.9413862,1.1868103,0.5742954,-0.31353354,0.75622851,0
-2.3798478,4.9287648,-0.51031971,0.23661762,0.94789869,0.21330799,0
-3.5327849,0.6081723,-3.0155644,-0.5742954,0.31353354,-0.75622851,0
-0.37615037,2.3499618,-4.6906281,-0.5742954,0.31353354,-0.75622851,0
2.5133402,0.87362766,-1.7453086,0.7837072,-0.056435227,-0.61856139,0
-0.62129998,4.3816099,-0.029589415,0.23661762,0.94789869,0.21330799,0
-4.945087,1.3177903,-1.5356114,-0.7837072,0.056435227,0.61856139,0
-1.0631642,3.635807,-3.6357827,-0.5742954,0.31353354,-0.75622851,0
-2.5291629,4.9134636,-0.27669191,0.23661762,0.94789869,0.21330799,0
-2.9098163,-3.7112136,1.501871,-0.7837072,0.056435227,0.61856139,0
3.5030475,1.5819739,-0.55599284,0.7837072,-0.056435227,-0.61856139,0
-1.1773387,4.1250625,1.7272605,0.23661762,0.94789869,0.21330799,0
-0.69905126,-0.58758545,4.0178862,-0.7837072,0.056435227,0.61856139,0
2.6104617,-2.1554408,3.0744953,0.5742954,-0.31353354,0.75622851,0
-0.12795633,-0.38435602,-4.9770145,0.7837072,-0.056435227,-0.61856139,0
3.3978598,-0.83083248,-0.46912876,0.7837072,-0.056435227,-0.61856139,0
-0.47396922,4.6893187,-1.5604146,0.23661762,0.94789869,0.21330799,0
1.3274069,2.5940163,5.7524695,0.23661762,0.94789869,0.21330799,0
-0.26750565,-4.6384025,2.1566541,-0.23661762,-0.94789869,-0.21330799,0
-4.8708849,-1.2296517,-2.7613482,-0.5742954,0.31353354,-0.75622851,0
-1.7185259,-4.020669,1.0211532,-0.23661762,-0.94789869,-0.21330799,0
0.61459088,3.8476775,0.97215831,0.23661762,0.94789869,0.21330799,0
4.8308215,-1.9284985,1.4823993,0.5742954,-0.31353354,0.75622851,0
-3.7606914,-3.3009307,0.38639373,-0.7837072,0.056435227,0.61856139,0
1.807469,-0.19963449,4.4951849,0.5742954,-0.31353354,0.75622851,0
-0.7242949,3.3972406,-3.9920368,-0.5742954,0.31353354,-0.75622851,0
1.2726285,-3.5945158,3.4938302,0.5742954,-0.31353354,0.75622851,0
3.1635454,0.63342381,-0.89959431,0.7837072,-0.056435227,-0.61856139,0
-1.950073,0.45908755,-4.2793188,-0.5742954,0.31353354,-0.75622851,0
-2.8154719,-0.38814938,-3.9733827,-0.5742954,0.31353354,-0.75622851,0
-0.98148751,2.968847,-3.9743323,-0.5742954,0.31353354,-0.75622851,0
1.144377,3.0362551,3.9902785,0.23661762,0.94789869,0.21330799,0
3.3329251,-3.0825086,2.1414781,0.5742954,-0.31353354,0.75622851,0
-1.2797849,2.1189559,-4.1001649,-0.5742954,0.31353354,-0.75622851,0
3.6834936,2.5802269,3.2001936,0.23661762,0.94789869,0.21330799,0
1.1844087,-3.4001145,3.6414256,0.5742954,-0.31353354,0.75622851,0
1.2858021,0.93511295,5.3618174,0.5742954,-0.31353354,0.75622851,0
-2.7081368,1.6484199,-3.2105308,-0.5742954,0.31353354,-0.75622851,0
4.043972,-3.2897038,0.57382298,0.7837072,-0.056435227,-0.61856139,0
1.2684634,2.8892343,-3.506444,0.7837072,-0.056435227,-0.61856139,0
-5.1059003,-0.97361636,-2.4767203,-0.5742954,0.31353354,-0.75622851,0
3.5186083,3.1338823,0.92276281,0.23661762,0.94789869,0.21330799,0
-4.5744057,2.706795,-1.3544436,-0.5742954,0.31353354,-0.75622851,0
2.11534,-3.1658552,-1.8810217,0.7837072,-0.056435227,-0.61856139,0
3.8456998,-5.0111585,0.47967434,0.7837072,-0.056435227,-0.61856139,0
-3.6648674,2.2110322,0.0049108267,-0.7837072,0.056435227,0.61856139,0
3.4828992,2.4298923,4.090765,0.23661762,0.94789869,0.21330799,0
3.4524064,2.2763827,4.2725463,0.5742954,-0.31353354,0.75622851,0
4.2163668,2.928885,1.0597228,0.23661762,0.94789869,0.21330799,0
-2.1238427,0.081752777,2.1516306,-0.7837072,0.056435227,0.61856139,0
-1.4987458,-1.3569064,3.0748761,-0.7837072,0.056435227,0.61856139,0
2.9039865,2.7319891,3.3904815,0.23661762,0.94789869,0.21330799,0
-2.8548937,0.79347879,-3.4535403,-0.5742954,0.31353354,-0.75622851,0
-0.56018901,-4.2153239,0.60124397,-0.23661762,-0.94789869,-0.21330799,0
-2.2210445,-3.8833559,2.3902392,-0.7837072,0.056435227,0.61856139,0
-1.2348359,-3.3987663,-2.279006,-0.23661762,-0.94789869,-0.21330799,0
0.88162935,-1.7548929,4.5534735,0.5742954,-0.31353354,0.75622851,0
3.1906829,2.8374746,2.6036992,0.23661762,0.94789869,0.21330799,0
1.3923311,2.7561462,4.9599781,0.23661762,0.94789869,0.21330799,0
-2.6461029,-0.48890495,-4.1437783,-0.5742954,0.31353354,-0.75622851,0
1.8550382,1.2422714,5.0568762,0.5742954,-0.31353354,0.75622851,0
3.2523782,-2.8261342,2.3089402,0.5742954,-0.31353354,0.75622851,0
-3.5408096,1.4935939,-2.6423731,-0.5742954,0.31353354,-0.75622851,0
1.6259598,1.6397578,-2.9395046,0.7837072,-0.056435227,-0.61856139,0
1.347599,-0.36733079,-3.1090639,0.7837072,-0.056435227,-0.61856139,0
2.0243223,-4.5736356,-0.67342973,-0.23661762,-0.94789869,-0.21330799,0
-4.9532652,-2.5255604,-1.1953198,-0.7837072,0.056435227,0.61856139,0
-1.3308382,3.0842516,2.8824179,-0.7837072,0.056435227,0.61856139,0
-3.2300739,-1.1221156,0.8598901,-0.7837072,0.056435227,0.61856139,0
1.7289803,-1.7971117,3.8924739,0.5742954,-0.31353354,0.75622851,0
1.6309071,-2.9473202,-2.5147283,0.7837072,-0.056435227,-0.61856139,0
-4.0207901,1.7609353,-2.1670256,-0.5742954,0.31353354,-0.75622851,0
4.0111237,0.85577524,3.259259,0.5742954,-0.31353354,0.75622851,0
1.0562098,-5.1217546,2.8362107,-0.23661762,-0.94789869,-0.21330799,0
2.246707,-4.7275519,2.2843368,0.5742954,-0.31353354,0.75622851,0
2.3581886,3.6391907,-0.035501242,0.23661762,0.94789869,0.21330799,0
0.10647821,3.7465208,1.9853166,0.23661762,0.94789869,0.21330799,0
-3.4492714,-2.9601655,0.74986726,-0.7837072,0.056435227,0.61856139,0
-1.6155691,-2.5416379,3.0349531,-0.7837072,0.056435227,0.61856139,0
0.34324935,-0.74186277,-4.3473873,0.7837072,-0.056435227,-0.61856139,0
-1.3975983,4.4149837,0.68323517,0.23661762,0.94789869,0.21330799,0
3.3338647,-4.3815908,-0.22625136,0.7837072,-0.056435227,-0.61856139,0
-3.0422032,2.516438,-2.596952,-0.5742954,0.31353354,-0.75622851,0
-2.820375,3.9462793,0.9165504,-0.7837072,0.056435227,0.61856139,0
-1.7379141,-3.3102615,-2.1142507,-0.23661762,-0.94789869,-0.21330799,0
2.3878708,-1.1824689,-1.716686,0.7837072,-0.056435227,-0.61856139,0
-4.4143567,-2.8100104,-0.48657966,-0.7837072,0.056435227,0.61856139,0
-3.3296194,-3.2343094,-0.68612504,-0.23661762,-0.94789869,-0.21330799,0
-2.545413,-2.362864,1.8405457,-0.7837072,0.056435227,0.61856139,0
-3.5062239,5.0214577,-1.2059801,-0.5742954,0.31353354,-0.75622851,0
-1.6661083,-1.213092,2.8497095,-0.7837072,0.056435227,0.61856139,0
1.0400856,-2.8261399,3.9889982,0.5742954,-0.31353354,0.75622851,0
-3.8022673,-3.0029707,0.30653286,-0.7837072,0.056435227,0.61856139,0
-2.3883052,-1.7090057,-4.8454113,-0.5742954,0.31353354,-0.75622851,0
4.0587726,2.8956692,1.3821418,0.23661762,0.94789869,0.21330799,0
-0.83119464,1.894963,-4.5337014,-0.5742954,0.31353354,-0.75622851,0
-1.0170922,1.6010973,-4.5143642,-0.5742954,0.31353354,-0.75622851,0
-1.015094,-2.2732167,-5.9286714,0.7837072,-0.056435227,-0.61856139,0
1.7837062,4.378757,-2.9895382,0.7837072,-0.056435227,-0.61856139,0
-3.7170472,2.4803355,-0.08577168,-0.7837072,0.056435227,0.61856139,0
-2.7275879,1.8373489,-3.1174288,-0.5742954,0.31353354,-0.75622851,0
4.6384339,0.65488625,0.96710765,0.7837072,-0.056435227,-0.61856139,0
1.2480309,0.79744768,5.3334255,0.5742954,-0.31353354,0.75622851,0
0.19502664,-1.5480175,5.1606646,0.5742954,-0.31353354,0.75622851,0
-2.4080505,-2.78385,-3.7101536,-0.23661762,-0.94789869,-0.21330799,0
-3.2368283,2.8360996,-2.3166175,-0.5742954,0.31353354,-0.75622851,0
1.05942,0.54050815,-3.5570097,0.7837072,-0.056435227,-0.61856139,0
-3.2386689,1.4970794,0.6100353,-0.7837072,0.056435227,0.61856139,0
2.0053282,4.2436862,-2.3303404,0.23661762,0.94789869,0.21330799,0
-0.45453453,-4.6491318,4.368228,0.5742954,-0.31353354,0.75622851,0
-2.947798,-3.6961856,0.94281578,-0.23661762,-0.94789869,-0.21330799,0
3.7450953,-1.3542793,2.5449944,0.5742954,-0.31353354,0.75622851,0
5.4144363,0.99188662,2.2499864,0.5742954,-0.31353354,0.75622851,0
0.70437169,3.8236871,0.97917396,0.23661762,0.94789869,0.21330799,0
0.89225841,-4.903533,2.0483398,-0.23661762,-0.94789869,-0.21330799,0
1.886922,-2.7011678,3.397707,0.5742954,-0.31353354,0.75622851,0
-2.0092435,-2.6836455,-4.5978293,-0.23661762,-0.94789869,-0.21330799,0
2.412607,3.2529159,1.6206623,0.23661762,0.94789869,0.21330799,0
1.9699962,3.1923385,2.3808336,0.23661762,0.94789869,0.21330799,0
2.0189371,1.4385513,5.0137858,0.5742954,-0.31353354,0.75622851,0
2.623682,3.1461658,1.8608963,0.23661762,0.94789869,0.21330799,0
-0.18208408,4.5285211,-1.1696436,0.23661762,0.94789869,0.21330799,0
-2.5448952,-2.6231697,-4.2723851,-0.23661762,-0.94789869,-0.21330799,0
-3.7245588,-0.95335972,-3.5173407,-0.5742954,0.31353354,-0.75622851,0
-4.9944992,-2.6755948,-1.3221312,-0.23661762,-0.94789869,-0.21330799,0
-1.1297314,3.9661727,2.3805239,0.23661762,0.94789869,0.21330799,0
-0.89164513,0.0644629,3.7143822,-0.7837072,0.056435227,0.61856139,0
-0.84444189,4.8134222,-1.7009511,0.23661762,0.94789869,0.21330799,0
2.1884246,-0.050220419,4.2678266,0.5742954,-0.31353354,0.75622851,0
-3.330652,-1.243019,-3.9365749,-0.5742954,0.31353354,-0.75622851,0
-0.12906957,-0.25200629,4.7094264,-0.7837072,0.056435227,0.61856139,0
-1.7385852,1.770137,-3.8963637,-0.5742954,0.31353354,-0.75622851,0
0.72394633,3.2948427,3.3075395,0.23661762,0.94789869,0.21330799,0
-1.2040372,-4.468204,3.7321303,-0.7837072,0.056435227,0.61856139,0
1.5850264,2.8066208,4.5219254,0.23661762,0.94789869,0.21330799,0
2.8660297,2.885149,2.7519746,0.23661762,0.94789869,0.21330799,0
3.397119,-0.18916011,3.2923145,0.5742954,-0.31353354,0.75622851,0
5.1824045,2.370537,1.4997792,0.7837072,-0.056435227,-0.61856139,0
3.2340679,2.0875216,4.360055,0.5742954,-0.31353354,0.75622851,0
1.963743,-0.13955198,4.4014177,0.5742954,-0.31353354,0.75622851,0
-2.2960429,-1.5026264,-4.8299117,-0.5742954,0.31353354,-0.75622851,0
-0.94967985,-2.2691207,3.8537612,-0.7837072,0.056435227,0.61856139,0
2.4355197,0.28794453,4.2203813,0.5742954,-0.31353354,0.75622851,0
-3.874115,-0.79997349,-3.3401704,-0.5742954,0.31353354,-0.75622851,0
2.4880714,-2.9527941,2.8368571,0.5742954,-0.31353354,0.75622851,0
2.6060688,2.7505572,3.6384423,0.23661762,0.94789869,0.21330799,0
2.0299006,-2.8257298,3.2374823,0.5742954,-0.31353354,0.75622851,0
3.0320108,2.1773806,-1.2071111,0.7837072,-0.056435227,-0.61856139,0
2.614466,-1.7610044,3.2349882,0.5742954,-0.31353354,0.75622851,0
-2.109776,4.907372,-0.7148397,0.23661762,0.94789869,0.21330799,0
-2.4647758,-3.0934145,-2.2715852,-0.23661762,-0.94789869,-0.21330799,0
1.8328925,-3.166697,3.2457285,0.5742954,-0.31353354,0.75622851,0
3.2483299,-2.8909156,2.2851565,0.5742954,-0.31353354,0.75622851,0
-3.3257475,-1.8340266,-4.1853323,-0.5742954,0.31353354,-0.75622851,0
-0.45498207,1.0591669,4.1768742,-0.7837072,0.056435227,0.61856139,0
1.0939088,-1.5731926,-3.320467,0.7837072,-0.056435227,-0.61856139,0
3.3622079,0.18370271,-0.60686123,0.7837072,-0.056435227,-0.61856139,0
1.526571,3.8168483,0.097518206,0.23661762,0.94789869,0.21330799,0
5.4360037,2.1292362,1.8431014,0.7837072,-0.056435227,-0.61856139,0
1.726522,-4.4142361,-1.0514271,-0.23661762,-0.94789869,-0.21330799,0
-4.5905533,-2.8782353,-0.8697229,-0.23661762,-0.94789869,-0.21330799,0
1.6478605,-2.9820158,-2.4900832,0.7837072,-0.056435227,-0.61856139,0
4.3698463,2.7752254,1.5723047,0.23661762,0.94789869,0.21330799,0
1.886398,2.7759023,4.3241282,0.23661762,0.94789869,0.21330799,0
-2.1802642,5.1469183,-2.1609244,-0.5742954,0.31353354,-0.75622851,0
0.062800407,-4.7653141,2.3542244,-0.23661762,-0.94789869,-0.21330799,0
2.272429,-3.180789,2.9060936,0.5742954,-0.31353354,0.75622851,0
1.2311721,-4.7308569,0.90505409,-0.23661762,-0.94789869,-0.21330799,0
0.35968304,-4.9223585,3.6366136,0.5742954,-0.31353354,0.75622851,0
2.8637943,-5.061007,0.5611465,-0.23661762,-0.94789869,-0.21330799,0
0.53210855,-2.1712875,4.6462688,0.5742954,-0.31353354,0.75622851,0
-4.107233,4.4724979,-0.76188827,-0.7837072,0.056435227,0.61856139,0
5.167778,1.9489691,2.8341119,0.5742954,-0.31353354,0.75622851,0
0.53592587,-2.6941876,4.4265747,0.5742954,-0.31353354,0.75622851,0
-4.8761039,-1.0824252,-2.6963449,-0.5742954,0.31353354,-0.75622851,0
3.0828848,1.8579985,-1.1135151,0.7837072,-0.056435227,-0.61856139,0
1.6236912,0.61330318,4.9717946,0.5742954,-0.31353354,0.75622851,0
3.7987721,-2.4090419,2.0669246,0.5742954,-0.31353354,0.75622851,0
0.86533546,0.49911237,-3.799135,0.7837072,-0.056435227,-0.61856139,0
0.13759351,4.2055473,-0.089022636,0.23661762,0.94789869,0.21330799,0
-4.235178,-0.65497553,-3.0058556,-0.5742954,0.31353354,-0.75622851,0
-3.8249533,-1.1566412,-3.5253797,-0.5742954,0.31353354,-0.75622851,0
0.93967438,3.584779,1.7798188,0.23661762,0.94789869,0.21330799,0
-3.8042564,4.1804123,-1.3283472,-0.5742954,0.31353354,-0.75622851,0
5.5997019,2.1337757,2.5827215,0.5742954,-0.31353354,0.75622851,0
-0.16172901,1.0217929,4.5518308,-0.7837072,0.056435227,0.61856139,0
1.8891003,-2.4737914,3.4903235,0.5742954,-0.31353354,0.75622851,0
1.7421856,-5.1410251,2.1609058,-0.23661762,-0.94789869,-0.21330799,0
2.5245419,-2.5080829,2.9935389,0.5742954,-0.31353354,0.75622851,0
3.5896683,-5.2638764,0.6574645,-0.23661762,-0.94789869,-0.21330799,0
-1.3778222,4.7314191,-0.74487853,0.23661762,0.94789869,0.21330799,0
1.8381307,4.1181335,-1.586941,0.23661762,0.94789869,0.21330799,0
4.8651767,-0.33132076,1.3443642,0.7837072,-0.056435227,-0.61856139,0
-4.3256845,-0.15087128,-2.7281206,-0.5742954,0.31353354,-0.75622851,0
-0.42090479,1.5574985,4.1745839,-0.7837072,0.056435227,0.61856139,0
1.8573685,-4.1829948,2.8057828,0.5742954,-0.31353354,0.75622851,0
3.1721992,-4.977716,-0.15108919,-0.23661762,-0.94789869,-0.21330799,0
1.7829223,2.0248904,-2.7757735,0.7837072,-0.056435227,-0.61856139,0
3.4208128,0.17965555,-0.53224039,0.7837072,-0.056435227,-0.61856139,0
1.0484371,3.2534277,3.1316302,0.23661762,0.94789869,0.21330799,0
1.752398,4.0657816,-1.2591985,0.23661762,0.94789869,0.21330799,0
1.5091202,3.7525091,0.40278506,0.23661762,0.94789869,0.21330799,0
-4.7704668,-1.050427,-1.0983031,-0.7837072,0.056435227,0.61856139,0
-1.9963254,2.258137,-3.4983048,-0.5742954,0.31353354,-0.75622851,0
-4.4691067,-2.8146737,-1.2868979,-0.23661762,-0.94789869,-0.21330799,0
-2.2262726,-0.24468082,-4.3613501,-0.5742954,0.31353354,-0.75622851,0
-1.9554863,1.2860961,-3.9323287,-0.5742954,0.31353354,-0.75622851,0
-1.0288018,-0.39680922,-5.3338065,-0.5742954,0.31353354,-0.75622851,0
4.0733609,3.1033521,0.44305849,0.23661762,0.94789869,0.21330799,0
1.5841713,3.9770441,-0.67825615,0.23661762,0.94789869,0.21330799,0
2.6886401,-0.81892848,-1.3687843,0.7837072,-0.056435227,-0.61856139,0
-4.171515,3.9652276,-1.1386592,-0.5742954,0.31353354,-0.75622851,0
-4.0066214,1.3028848,-0.34523034,-0.7837072,0.056435227,0.61856139,0
-1.4976547,-3.121196,3.2372255,-0.7837072,0.056435227,0.61856139,0
-0.332762,-4.3496561,0.94590998,-0.23661762,-0.94789869,-0.21330799,0
0.7895546,1.018947,5.7573519,-0.7837072,0.056435227,0.61856139,0
-2.4067497,0.22062111,1.7805221,-0.7837072,0.056435227,0.61856139,0
2.9266441,-4.1852231,-0.76010966,0.7837072,-0.056435227,-0.61856139,0
0.10761237,2.6903222,4.7408519,-0.7837072,0.056435227,0.61856139,0
-0.58411336,1.2176454,-5.0021572,-0.5742954,0.31353354,-0.75622851,0
-2.0549972,-3.7559886,0.21820557,-0.23661762,-0.94789869,-0.21330799,0
-3.4319091,-0.25804329,0.52533317,-0.7837072,0.056435227,0.61856139,0
-4.2663784,1.5913212,-2.0508432,-0.5742954,0.31353354,-0.75622851,0
0.1290257,3.3255472,-4.6697898,-0.5742954,0.31353354,-0.75622851,0
1.8835202,-1.6666015,3.8292227,0.5742954,-0.31353354,0.75622851,0
1.2836444,3.9371524,-0.16761672,0.23661762,0.94789869,0.21330799,0
4.7461929,-0.76433635,1.2331207,0.7837072,-0.056435227,-0.61856139,0
4.3046041,-4.0403442,1.0064452,0.5742954,-0.31353354,0.75622851,0
5.3470988,1.2015705,1.8150965,0.7837072,-0.056435227,-0.61856139,0
0.12854171,-3.7354565,-2.2951865,-0.23661762,-0.94789869,-0.21330799,0
4.8977242,2.1243181,3.111896,0.5742954,-0.31353354,0.75622851,0
-3.2912657,0.17036402,-3.3804951,-0.5742954,0.31353354,-0.75622851,0
-0.37440944,2.4147053,-4.6651077,-0.5742954,0.31353354,-0.75622851,0
4.5276284,2.6420257,1.989193,0.23661762,0.94789869,0.21330799,0
-3.4263334,-0.0054397583,0.50935102,-0.7837072,0.056435227,0.61856139,0
2.35482,3.2579784,1.662268,0.23661762,0.94789869,0.21330799,0
-1.6079707,-3.1539261,-2.9531178,-0.23661762,-0.94789869,-0.21330799,0
3.5465505,1.1888198,3.7501462,0.5742954,-0.31353354,0.75622851,0
2.8155205,-4.6368189,1.8899863,0.5742954,-0.31353354,0.75622851,0
-3.0696161,-2.5897448,1.1970892,-0.7837072,0.056435227,0.61856139,0
2.2431509,-3.2672212,2.892493,0.5742954,-0.31353354,0.75622851,0
-3.2782488,4.5214014,-1.5864332,-0.5742954,0.31353354,-0.75622851,0
-1.0147724,4.0361385,1.9420897,0.23661762,0.94789869,0.21330799,0
3.2387202,1.1193496,-0.84868306,0.7837072,-0.056435227,-0.61856139,0
-0.13080049,1.8043681,-5.1031556,-0.5742954,0.31353354,-0.75622851,0
2.2388251,-4.6668491,2.31549,0.5742954,-0.31353354,0.75622851,0
-4.8265767,-2.2348995,-3.2117743,-0.5742954,0.31353354,-0.75622851,0
-1.0063317,2.6379359,3.3342824,-0.7837072,0.056435227,0.61856139,0
-0.9987638,-4.2981219,1.4556818,-0.23661762,-0.94789869,-0.21330799,0
0.54046488,-4.737885,1.7024744,-0.23661762,-0.94789869,-0.21330799,0
5.0874925,0.92611361,2.471005,0.5742954,-0.31353354,0.75622851,0
4.4809079,2.32353,3.4563513,0.23661762,0.94789869,0.21330799,0
3.9457664,-2.3953545,0.36780131,0.7837072,-0.056435227,-0.61856139,0
1.3973975,3.5829339,1.2802767,0.23661762,0.94789869,0.21330799,0
-0.82627058,4.7869406,-1.6034274,0.23661762,0.94789869,0.21330799,0
4.4963818,0.89450812,2.9068027,0.5742954,-0.31353354,0.75622851,0
1.5521286,3.039356,-3.1607418,0.7837072,-0.056435227,-0.61856139,0
-0.50344551,-2.1767766,-5.2892199,0.7837072,-0.056435227,-0.61856139,0
-0.53303385,-4.65271,2.5147786,-0.23661762,-0.94789869,-0.21330799,0
-2.3628988,2.481132,1.6298399,-0.7837072,0.056435227,0.61856139,0
-1.7779585,-0.61628473,-4.8558769,-0.5742954,0.31353354,-0.75622851,0
-2.8283827,-2.1831162,1.4656284,-0.7837072,0.056435227,0.61856139,0
1.7475967,2.1676016,5.5221128,0.5742954,-0.31353354,0.75622851,0
2.6953995,-3.9463,2.267499,0.5742954,-0.31353354,0.75622851,0
0.28561485,2.9156518,4.9458199,-0.7837072,0.056435227,0.61856139,0
-1.0014757,2.0772228,3.391592,-0.7837072,0.056435227,0.61856139,0
-3.3342543,-2.1596472,-4.3138747,-0.5742954,0.31353354,-0.75622851,0
1.5454366,-4.1097517,-2.203618,-0.23661762,-0.94789869,-0.21330799,0
-2.5082867,-3.2914662,-1.3432159,-0.23661762,-0.94789869,-0.21330799,0
-5.281239,-2.5223789,-1.6849174,-0.23661762,-0.94789869,-0.21330799,0
1.7484961,4.0909591,-1.3667518,0.23661762,0.94789869,0.21330799,0
-0.42407393,-3.9540579,-0.71076155,-0.23661762,-0.94789869,-0.21330799,0
-1.9073551,1.7887907,2.2701731,-0.7837072,0.056435227,0.61856139,0
0.21183777,3.4052281,3.3850784,0.23661762,0.94789869,0.21330799,0
1.9263222,-0.88075233,4.1225324,0.5742954,-0.31353354,0.75622851,0
-2.6090083,0.77598321,-3.6475241,-0.5742954,0.31353354,-0.75622851,0
-0.90189028,-3.8009629,-0.86105299,-0.23661762,-0.94789869,-0.21330799,0
2.9820952,0.85022569,4.0384231,0.5742954,-0.31353354,0.75622851,0
0.1950655,-1.5837653,-4.458322,0.7837072,-0.056435227,-0.61856139,0
3.9523997,-1.9630523,2.1351643,0.5742954,-0.31353354,0.75622851,0
0.81014872,-2.921448,-3.5569763,0.7837072,-0.056435227,-0.61856139,0
-3.1399293,4.9287267,-1.522598,-0.5742954,0.31353354,-0.75622851,0
-2.966536,0.1786297,-3.6236742,-0.5742954,0.31353354,-0.75622851,0
3.3606296,-0.8145138,3.0607529,0.5742954,-0.31353354,0.75622851,0
3.9693558,-3.8378997,0.52930117,0.7837072,-0.056435227,-0.61856139,0
-0.31029439,4.2520242,0.2012738,0.23661762,0.94789869,0.21330799,0
-0.2517707,0.52665544,4.482924,-0.7837072,0.056435227,0.61856139,0
-3.7709131,-0.67928141,-3.3685052,-0.5742954,0.31353354,-0.75622851,0
-0.94708276,-2.1613953,3.8472226,-0.7837072,0.056435227,0.61856139,0
-1.0536838,3.3117759,-3.7773256,-0.5742954,0.31353354,-0.75622851,0
2.8755779,-2.8841403,2.5710406,0.5742954,-0.31353354,0.75622851,0
0.84893239,-1.7839692,-3.6116176,0.7837072,-0.056435227,-0.61856139,0
-2.9587469,2.7807529,-2.5507448,-0.5742954,0.31353354,-0.75622851,0
-1.0728142,4.5882215,-0.44687438,0.23661762,0.94789869,0.21330799,0
2.5863292,-3.1109464,2.6966681,0.5742954,-0.31353354,0.75622851,0
5.0436683,-0.91271567,1.7419046,0.5742954,-0.31353354,0.75622851,0
0.64286208,-4.3633523,-0.075464249,-0.23661762,-0.94789869,-0.21330799,0
-4.2051287,2.6813383,-1.6454346,-0.5742954,0.31353354,-0.75622851,0
3.8219597,-1.7584784,2.3190401,0.5742954,-0.31353354,0.75622851,0
0.1053896,-1.3735163,5.1088052,-0.7837072,0.056435227,0.61856139,0
3.8706446,-0.17525625,2.9384744,0.5742954,-0.31353354,0.75622851,0
1.8930964,-2.3134882,-2.2403674,0.7837072,-0.056435227,-0.61856139,0
-3.8325787,1.5961483,-0.15147793,-0.7837072,0.056435227,0.61856139,0
1.0265427,-4.7281351,1.1199505,-0.23661762,-0.94789869,-0.21330799,0
4.769578,-0.24820948,2.2255595,0.5742954,-0.31353354,0.75622851,0
3.9784913,1.8422946,0.022636205,0.7837072,-0.056435227,-0.61856139,0
-4.9133625,0.28522968,-1.4012107,-0.7837072,0.056435227,0.61856139,0
1.0451689,3.2743397,3.0423265,0.23661762,0.94789869,0.21330799,0
-0.66959667,2.8449106,-4.2625728,-0.5742954,0.31353354,-0.75622851,0
3.2043891,-0.31241274,-0.76155162,0.7837072,-0.056435227,-0.61856139,0
-2.5674429,-3.2423534,-1.4958442,-0.23661762,-0.94789869,-0.21330799,0
-2.8232236,-2.7941644,1.5279145,-0.7837072,0.056435227,0.61856139,0
5.1685653,1.6029984,2.6900737,0.5742954,-0.31353354,0.75622851,0
0.026988029,-3.9944687,-1.0315347,-0.23661762,-0.94789869,-0.21330799,0
1.7609444,4.4060831,-2.7809103,0.23661762,0.94789869,0.21330799,0
3.9026682,-4.5330768,1.1073956,0.5742954,-0.31353354,0.75622851,0
1.3389187,-2.1745229,-2.9551802,0.7837072,-0.056435227,-0.61856139,0
5.2857485,2.1396632,2.8235846,0.5742954,-0.31353354,0.75622851,0
-0.078350067,-4.6488371,1.9931982,-0.23661762,-0.94789869,-0.21330799,0
-2.0466785,-3.3740427,-1.4883138,-0.23661762,-0.94789869,-0.21330799,0
-4.9157872,1.3641627,-1.5027199,-0.7837072,0.056435227,0.61856139,0
-3.904552,2.4468806,-0.32028425,-0.7837072,0.056435227,0.61856139,0
-2.6386154,-2.5753267,-4.3810282,-0.23661762,-0.94789869,-0.21330799,0
-3.2947483,-1.3942738,0.80277973,-0.7837072,0.056435227,0.61856139,0
-1.362174,4.9746408,-2.8536258,-0.5742954,0.31353354,-0.75622851,0
3.101181,1.9327132,-1.0971514,0.7837072,-0.056435227,-0.61856139,0
1.0728488,-2.8345215,3.9606419,0.5742954,-0.31353354,0.75622851,0
2.2194154,1.4738491,4.876173,0.5742954,-0.31353354,0.75622851,0
1.1598189,-2.5574865,-3.1471567,0.7837072,-0.056435227,-0.61856139,0
1.0722625,-5.1147943,2.7874711,-0.23661762,-0.94789869,-0.21330799,0
-1.9989575,2.931304,-3.2172101,-0.5742954,0.31353354,-0.75622851,0
-5.0024033,-1.5794601,-1.3438953,-0.7837072,0.056435227,0.61856139,0
0.88532162,-3.9030914,-2.3897271,-0.23661762,-0.94789869,-0.21330799,0
-1.6420817,-2.8820231,3.0324178,-0.7837072,0.056435227,0.61856139,0
-3.0019207,4.023344,-2.0027781,-0.5742954,0.31353354,-0.75622851,0
2.8991718,0.13698173,3.805685,0.5742954,-0.31353354,0.75622851,0
4.2405667,-0.044920206,0.52686393,0.7837072,-0.056435227,-0.61856139,0
-2.2277684,-4.1567183,2.1906199,-0.23661762,-0.94789869,-0.21330799,0
2.9454274,2.8292835,2.9121556,0.23661762,0.94789869,0.21330799,0
-1.8334905,3.1394646,-3.2565653,-0.5742954,0.31353354,-0.75622851,0
4.0732737,-2.4319053,1.8489834,0.5742954,-0.31353354,0.75622851,0
2.8288999,-4.9419837,1.753304,0.5742954,-0.31353354,0.75622851,0
2.3152173,2.8383985,-2.1755853,0.7837072,-0.056435227,-0.61856139,0
2.6992455,0.13966948,3.9586272,0.5742954,-0.31353354,0.75622851,0
2.6658912,3.6472738,-1.8050864,0.7837072,-0.056435227,-0.61856139,0
-0.38697338,2.444092,-4.6433825,-0.5742954,0.31353354,-0.75622851,0
-0.44037813,2.436424,4.0697217,-0.7837072,0.056435227,0.61856139,0
-2.8833284,4.17694,-2.0291581,-0.5742954,0.31353354,-0.75622851,0
0.63736641,1.2277706,-4.1544476,0.7837072,-0.056435227,-0.61856139,0
4.5982976,-0.10155034,0.98527002,0.7837072,-0.056435227,-0.61856139,0
-3.2508216,-3.0411129,-1.6320609,-0.23661762,-0.94789869,-0.21330799,0
-3.8026695,-1.0866914,0.13118927,-0.7837072,0.056435227,0.61856139,0
-4.7133322,-2.6703598,-1.6572851,-0.23661762,-0.94789869,-0.21330799,0
3.3693948,-4.4411764,-0.17579937,0.7837072,-0.056435227,-0.61856139,0
0.17795432,2.8232176,4.8178492,-0.7837072,0.056435227,0.61856139,0
-1.5192206,-3.6821632,-0.70418471,-0.23661762,-0.94789869,-0.21330799,0
-0.87345052,4.2745652,0.72580242,0.23661762,0.94789869,0.21330799,0
-0.88217378,2.7045553,-4.1593289,-0.5742954,0.31353354,-0.75622851,0
3.1434789,2.9832106,2.0084412,0.23661762,0.94789869,0.21330799,0
-1.6205142,3.654758,-3.2046626,-0.5742954,0.31353354,-0.75622851,0
-1.8750665,4.8682542,-0.80136418,0.23661762,0.94789869,0.21330799,0
2.3410883,2.0094666,-2.0671794,0.7837072,-0.056435227,-0.61856139,0
-2.5939097,-1.9763759,-4.8001232,-0.5742954,0.31353354,-0.75622851,0
2.2506421,1.9195948,-2.1735735,0.7837072,-0.056435227,-0.61856139,0
-3.8579378,-3.2447402,-0.053720653,-0.23661762,-0.94789869,-0.21330799,0
-4.5447221,2.254806,-1.5643816,-0.5742954,0.31353354,-0.75622851,0
2.9338193,-2.132844,-0.93826944,0.7837072,-0.056435227,-0.61856139,0
3.6984541,0.4853003,3.3431072,0.5742954,-0.31353354,0.75622851,0
-0.59009391,2.738363,3.8524861,-0.7837072,0.056435227,0.61856139,0
2.2495284,3.7214713,-0.28060675,0.23661762,0.94789869,0.21330799,0
-0.11629105,4.606895,-1.5909042,0.23661762,0.94789869,0.21330799,0
1.1054295,1.305904,5.6525264,0.5742954,-0.31353354,0.75622851,0
-0.0058832169,1.8758353,-5.0285616,0.7837072,-0.056435227,-0.61856139,0
1.4018195,-1.3960919,4.3071899,0.5742954,-0.31353354,0.75622851,0
-1.7120807,-2.3448114,2.8947167,-0.7837072,0.056435227,0.61856139,0
-1.5778718,4.4468803,0.74146783,0.23661762,0.94789869,0.21330799,0
-1.0483708,2.6650202,3.2785485,-0.7837072,0.056435227,0.61856139,0
-2.4047649,-0.32862577,-4.2606039,-0.5742954,0.31353354,-0.75622851,0
4.3544583,1.4903922,3.2616367,0.5742954,-0.31353354,0.75622851,0
1.977845,3.7326384,-0.028858542,0.23661762,0.94789869,0.21330799,0
3.0780559,-5.0324812,0.19670963,-0.23661762,-0.94789869,-0.21330799,0
2.5211506,-4.5958972,-1.1256227,-0.23661762,-0.94789869,-0.21330799,0
-3.5798569,-0.38661504,0.34961653,-0.7837072,0.056435227,0.61856139,0
-1.6643248,-4.2623434,3.1301713,-0.7837072,0.056435227,0.61856139,0
-0.72089791,-1.9829339,-5.5824137,0.7837072,-0.056435227,-0.61856139,0
0.90155482,-4.8515525,1.8070385,-0.23661762,-0.94789869,-0.21330799,0
0.33958066,3.2215233,4.0597258,0.23661762,0.94789869,0.21330799,0
0.79306602,4.7201405,-4.2758093,0.7837072,-0.056435227,-0.61856139,0
0.42194939,-2.0340321,4.7868323,0.5742954,-0.31353354,0.75622851,0
4.0658741,-1.3620865,2.2981515,0.5742954,-0.31353354,0.75622851,0
-0.43385243,-3.2502375,-3.8275511,-0.23661762,-0.94789869,-0.21330799,0
-4.1825638,-3.0082648,-0.74447161,-0.23661762,-0.94789869,-0.21330799,0
-2.8278904,2.9852734,-2.5653257,-0.5742954,0.31353354,-0.75622851,0
3.139859,-0.82542658,-0.79650474,0.7837072,-0.056435227,-0.61856139,0
-0.046776652,3.2334144,4.4354596,0.23661762,0.94789869,0.21330799,0
1.0815227,4.3208666,-1.6485592,0.23661762,0.94789869,0.21330799,0
-3.4677219,3.1204743,0.17171609,-0.7837072,0.056435227,0.61856139,0
-4.7602549,-2.6673617,-1.6185575,-0.23661762,-0.94789869,-0.21330799,0
2.2621741,-1.699038,3.5282173,0.5742954,-0.31353354,0.75622851,0
-4.9945917,-0.36056423,-1.4452057,-0.7837072,0.056435227,0.61856139,0
-2.8347104,-2.9303448,-2.5858746,-0.23661762,-0.94789869,-0.21330799,0
4.7628083,0.51239443,2.5460477,0.5742954,-0.31353354,0.75622851,0
4.5021601,0.28684616,0.82802927,0.7837072,-0.056435227,-0.61856139,0
2.2258277,3.5473549,-2.3535237,0.7837072,-0.056435227,-0.61856139,0
4.3328395,2.0362914,3.5043855,0.5742954,-0.31353354,0.75622851,0
-3.6305866,-1.9385047,-3.997148,-0.5742954,0.31353354,-0.75622851,0
-4.1969957,-2.8881459,-0.20405829,-0.7837072,0.056435227,0.61856139,0
-1.5476325,4.5946741,0.051156759,0.23661762,0.94789869,0.21330799,0
-1.2908671,-0.40990376,3.2518542,-0.7837072,0.056435227,0.61856139,0
4.9662986,2.33571,2.8637929,0.23661762,0.94789869,0.21330799,0
-3.7196095,-2.1345744,-4.0108328,-0.5742954,0.31353354,-0.75622851,0
0.77797472,-2.2775464,-3.6564875,0.7837072,-0.056435227,-0.61856139,0
-0.06945014,1.6393903,-5.0875278,0.7837072,-0.056435227,-0.61856139,0
-4.4557109,2.2435915,-1.6366282,-0.5742954,0.31353354,-0.75622851,0
-0.70213199,-2.5708907,4.194932,-0.7837072,0.056435227,0.61856139,0
0.90495574,0.55951059,5.4953146,0.5742954,-0.31353354,0.75622851,0
0.26702631,-1.4550078,5.1445489,0.5742954,-0.31353354,0.75622851,0
0.77127981,-4.4846892,0.32128215,-0.23661762,-0.94789869,-0.21330799,0
-0.25275779,4.5334606,-1.1131961,0.23661762,0.94789869,0.21330799,0
0.49820983,-3.6529274,-3.0719926,-0.23661762,-0.94789869,-0.21330799,0
-1.7314732,3.5051825,-3.1824119,-0.5742954,0.31353354,-0.75622851,0
0.55493903,3.6074095,2.1060319,0.23661762,0.94789869,0.21330799,0
4.6841502,0.15986252,2.4596221,0.5742954,-0.31353354,0.75622851,0
-0.27692318,-4.4121652,1.1617484,-0.23661762,-0.94789869,-0.21330799,0
0.4888413,3.6607928,-4.5646067,0.7837072,-0.056435227,-0.61856139,0
2.9797313,3.0090055,2.0754547,0.23661762,0.94789869,0.21330799,0
-1.9701233,-3.0623028,-2.9585457,-0.23661762,-0.94789869,-0.21330799,0
3.5707755,1.8328719,-0.49307352,0.7837072,-0.056435227,-0.61856139,0
-0.73691463,0.82421464,-5.0492339,-0.5742954,0.31353354,-0.75622851,0
-3.5444083,3.2159753,0.065842509,-0.7837072,0.056435227,0.61856139,0
-5.4586959,-1.5403156,-2.4437544,-0.5742954,0.31353354,-0.75622851,0
-0.8409909,3.2746,3.4856796,-0.7837072,0.056435227,0.61856139,0
-2.5463686,-1.347711,-4.5755811,-0.5742954,0.31353354,-0.75622851,0
0.10767388,-2.4606807,4.8486109,0.5742954,-0.31353354,0.75622851,0
2.5671167,2.9665654,2.7217534,0.23661762,0.94789869,0.21330799,0
-4.1952314,1.1994174,-0.5747565,-0.7837072,0.056435227,0.61856139,0
-2.0381572,-0.12375045,2.2789423,-0.7837072,0.056435227,0.61856139,0
1.6137633,-0.19123983,-2.7879035,0.7837072,-0.056435227,-0.61856139,0
-4.7392621,-1.150429,-2.8284595,-0.5742954,0.31353354,-0.75622851,0
-2.6613007,-3.298758,1.7791052,-0.7837072,0.056435227,0.61856139,0
0.44218206,-4.3459201,0.069680691,-0.23661762,-0.94789869,-0.21330799,0
-2.2437146,-2.7303967,2.2563245,-0.7837072,0.056435227,0.61856139,0
3.8571949,-0.83029938,0.11279321,0.7837072,-0.056435227,-0.61856139,0
-5.213913,-2.4865999,-1.5291113,-0.7837072,0.056435227,0.61856139,0
-3.5483766,-0.55986387,-3.487993,-0.5742954,0.31353354,-0.75622851,0
-0.74537492,1.1329967,-4.9147873,-0.5742954,0.31353354,-0.75622851,0
1.4613371,3.5410309,1.3955575,0.23661762,0.94789869,0.21330799,0
-4.3874512,-2.4118159,-3.1676955,-0.23661762,-0.94789869,-0.21330799,0
4.2197528,-0.88085985,2.38081,0.5742954,-0.31353354,0.75622851,0
-1.421877,1.5392854,-4.2325897,-0.5742954,0.31353354,-0.75622851,0
1.1869428,3.3519719,2.5400786,0.23661762,0.94789869,0.21330799,0
1.3436458,0.19008076,5.0089984,0.5742954,-0.31353354,0.75622851,0
-2.1626883,0.44206142,-4.1249132,-0.5742954,0.31353354,-0.75622851,0
3.0154753,-2.1425195,2.7722771,0.5742954,-0.31353354,0.75622851,0
2.7225327,-1.2103286,-1.2901331,0.7837072,-0.056435227,-0.61856139,0
0.29987431,4.8458233,-3.1142962,0.23661762,0.94789869,0.21330799,0
3.1667755,3.4481268,-0.083397388,0.23661762,0.94789869,0.21330799,0
1.5018221,1.1628579,-3.0532744,0.7837072,-0.056435227,-0.61856139,0
-0.43604183,-1.1625481,4.4035726,-0.7837072,0.056435227,0.61856139,0
-3.4791939,-2.2361298,0.64589775,-0.7837072,0.056435227,0.61856139,0
-2.9346213,-2.5424809,-4.1986365,-0.23661762,-0.94789869,-0.21330799,0
3.4043021,-1.6990023,-0.38175738,0.7837072,-0.056435227,-0.61856139,0
-5.2162805,-2.5600572,-1.5895394,-0.23661762,-0.94789869,-0.21330799,0
-2.4088035,-0.81502628,1.8724087,-0.7837072,0.056435227,0.61856139,0
1.3301054,2.6990461,5.2827449,0.23661762,0.94789869,0.21330799,0
1.2913404,4.6974163,-3.554615,0.23661762,0.94789869,0.21330799,0
3.3286142,-3.6014748,1.9295878,0.5742954,-0.31353354,0.75622851,0
-1.5401411,-4.3711543,3.2974372,-0.7837072,0.056435227,0.61856139,0
-3.7011023,-3.0980194,-0.87969339,-0.23661762,-0.94789869,-0.21330799,0
-3.0473235,-3.5109811,0.23020446,-0.23661762,-0.94789869,-0.21330799,0
3.6728857,-3.6677492,0.13815451,0.7837072,-0.056435227,-0.61856139,0
1.418169,4.3383017,-2.0994716,0.23661762,0.94789869,0.21330799,0
-2.3969314,4.6292248,0.83972621,0.23661762,0.94789869,0.21330799,0
1.6093256,-4.3147845,-1.3633653,-0.23661762,-0.94789869,-0.21330799,0
0.43989277,3.7430294,1.6309805,0.23661762,0.94789869,0.21330799,0
2.9286277,0.80771899,4.0614042,0.5742954,-0.31353354,0.75622851,0
2.8297799,-4.5323029,-0.85116816,0.7837072,-0.056435227,-0.61856139,0
4.4861917,1.5282865,0.69453353,0.7837072,-0.056435227,-0.61856139,0
2.6872556,1.9733905,4.7279963,0.5742954,-0.31353354,0.75622851,0
-1.3127849,3.3001168,2.8855963,-0.7837072,0.056435227,0.61856139,0
-1.5300317,-1.7518773,3.0712729,-0.7837072,0.056435227,0.61856139,0
-3.7545922,3.6374116,-1.5911915,-0.5742954,0.31353354,-0.75622851,0
-1.5877886,-4.4895597,2.9597859,-0.23661762,-0.94789869,-0.21330799,0
2.1922181,-5.0279217,1.1590853,-0.23661762,-0.94789869,-0.21330799,0
-2.7435231,-2.7750242,1.6271473,-0.7837072,0.056435227,0.61856139,0
-2.344893,3.7482026,1.5370501,-0.7837072,0.056435227,0.61856139,0
-1.2062447,4.2578907,1.1690617,0.23661762,0.94789869,0.21330799,0
-4.5898361,-2.8071332,-1.1864812,-0.23661762,-0.94789869,-0.21330799,0
-4.7326827,-2.6483231,-1.7337466,-0.23661762,-0.94789869,-0.21330799,0
-0.46530646,-1.4226408,-5.3097029,0.7837072,-0.056435227,-0.61856139,0
-1.365791,4.1962504,1.6199605,0.23661762,0.94789869,0.21330799,0
-2.4456482,-2.9004774,-3.1501775,-0.23661762,-0.94789869,-0.21330799,0
-1.2955314,-0.12638175,-5.0191274,-0.5742954,0.31353354,-0.75622851,0
-0.87382817,-3.6411548,-1.6023377,-0.23661762,-0.94789869,-0.21330799,0
1.0371716,-4.1056285,-1.6581354,-0.23661762,-0.94789869,-0.21330799,0
-0.69137764,-3.7747564,-1.211026,-0.23661762,-0.94789869,-0.21330799,0
-2.137223,-0.56113827,-4.5601807,-0.5742954,0.31353354,-0.75622851,0
4.3715148,1.0418614,3.0627222,0.5742954,-0.31353354,0.75622851,0
3.5942929,-3.7107809,1.6825073,0.5742954,-0.31353354,0.75622851,0
1.0654318,-1.6770673,-3.3470695,0.7837072,-0.056435227,-0.61856139,0
-1.9505011,4.6614909,0.20112824,0.23661762,0.94789869,0.21330799,0
3.7698035,3.1046219,0.77414566,0.23661762,0.94789869,0.21330799,0
-0.52391291,5.0969877,-3.316613,0.23661762,0.94789869,0.21330799,0
2.4373016,-3.4376428,2.6743937,0.5742954,-0.31353354,0.75622851,0
2.0265927,-3.3513668,-1.9765376,0.7837072,-0.056435227,-0.61856139,0
-0.10129142,1.5361239,-5.1184483,0.7837072,-0.056435227,-0.61856139,0
0.77028978,-0.82382083,-3.7988567,0.7837072,-0.056435227,-0.61856139,0
-1.0541117,4.9325018,-1.9975331,0.23661762,0.94789869,0.21330799,0
1.9800227,2.9425495,-2.6097739,0.7837072,-0.056435227,-0.61856139,0
-2.4021232,-1.1668324,1.9129699,-0.7837072,0.056435227,0.61856139,0
-3.6041028,-3.2755384,-0.19843304,-0.23661762,-0.94789869,-0.21330799,0
3.4165618,1.6174698,4.0265808,0.5742954,-0.31353354,0.75622851,0
0.53758049,-4.6529398,3.6132169,0.5742954,-0.31353354,0.75622851,0
4.665947,-2.5327282,1.2927916,0.7837072,-0.056435227,-0.61856139,0
-1.2039047,-2.804831,-4.9526477,-0.23661762,-0.94789869,-0.21330799,0
-3.3941088,0.99116278,-2.9620895,-0.5742954,0.31353354,-0.75622851,0
-0.12053418,-3.2117031,4.7105417,0.5742954,-0.31353354,0.75622851,0
-2.6324439,0.24610144,-3.8494165,-0.5742954,0.31353354,-0.75622851,0
-1.1842365,2.9341207,-3.8347578,-0.5742954,0.31353354,-0.75622851,0
2.828445,3.3409429,0.76820803,0.23661762,0.94789869,0.21330799,0
2.9955745,3.5261166,-0.24005914,0.23661762,0.94789869,0.21330799,0
-3.1428957,-1.7839217,1.0307245,-0.7837072,0.056435227,0.61856139,0
3.2196646,3.605535,-0.84155738,0.23661762,0.94789869,0.21330799,0
0.26511115,1.6739953,5.0331259,-0.7837072,0.056435227,0.61856139,0
0.35014582,5.054944,-4.0993547,0.23661762,0.94789869,0.21330799,0
3.6204627,1.5867612,3.8590026,0.5742954,-0.31353354,0.75622851,0
0.81770539,3.3566206,2.9290073,0.23661762,0.94789869,0.21330799,0
-4.185709,3.8775144,-0.80703139,-0.7837072,0.056435227,0.61856139,0
2.3901081,2.4208822,5.1391869,0.5742954,-0.31353354,0.75622851,0
3.5316539,2.4257708,4.0549984,0.23661762,0.94789869,0.21330799,0
-3.0801427,-2.6549587,-3.5373836,-0.23661762,-0.94789869,-0.21330799,0
-2.489608,3.8055553,1.3484664,-0.7837072,0.056435227,0.61856139,0
-1.2372901,4.3200221,0.92739987,0.23661762,0.94789869,0.21330799,0
3.9356713,-1.963686,2.1476061,0.5742954,-0.31353354,0.75622851,0
-0.1644094,-3.2797475,-3.9953008,-0.23661762,-0.94789869,-0.21330799,0
-4.1829982,-2.7404797,-1.9339732,-0.23661762,-0.94789869,-0.21330799,0
-4.9783478,-0.64779186,-2.4384992,-0.5742954,0.31353354,-0.75622851,0
-3.4210696,2.0262232,-2.5124769,-0.5742954,0.31353354,-0.75622851,0
-3.7547314,0.5853467,-2.856477,-0.5742954,0.31353354,-0.75622851,0
-0.60495281,4.6846881,-1.3945417,0.23661762,0.94789869,0.21330799,0
2.7940626,-2.9518874,-1.0406127,0.7837072,-0.056435227,-0.61856139,0
2.864162,-0.62955523,-1.1636786,0.7837072,-0.056435227,-0.61856139,0
2.4666066,-3.7085917,2.5398028,0.5742954,-0.31353354,0.75622851,0
3.0508118,2.7930629,2.9562118,0.23661762,0.94789869,0.21330799,0
-0.071155071,-0.68466568,4.822278,-0.7837072,0.056435227,0.61856139,0
-0.42852354,-4.4308147,1.4127902,-0.23661762,-0.94789869,-0.21330799,0
4.1710563,-3.6237178,0.76531124,0.7837072,-0.056435227,-0.61856139,0
