0.68628597,-5.7108574,2.0992234,0.75604177,-0.61986303,0.21016818,0
-2.6483157,4.4274054,1.1734514,-0.75604177,0.61986303,-0.21016818,0
3.8163118,0.41145986,3.1484025,0.52073991,0.76418471,0.3805939,0
1.1747274,-3.6311989,-3.5124605,-0.52073991,-0.76418471,-0.3805939,0
1.7324069,3.0854506,0.6306265,0.52073991,0.76418471,0.3805939,0
4.1617417,-0.76240414,4.1917052,0.75604177,-0.61986303,0.21016818,0
-5.1944013,-0.9649539,-0.15151262,-0.52073991,-0.76418471,-0.3805939,0
1.1373434,2.7854538,2.0471647,0.52073991,0.76418471,0.3805939,0
-3.4139845,3.333252,0.70074463,-0.75604177,0.61986303,-0.21016818,0
1.9489057,-4.9057713,-0.068328381,0.75604177,-0.61986303,0.21016818,0
-2.9700809,-2.7719142,0.43325472,-0.52073991,-0.76418471,-0.3805939,0
3.3953326,2.5058866,-0.48094654,0.52073991,0.76418471,0.3805939,0
4.8957162,0.65906477,1.1743708,0.52073991,0.76418471,0.3805939,0
4.1547766,-1.186919,-1.7369123,0.39652339,0.17830193,-0.90054297,0
-1.9250212,-2.7357094,-1.0693222,-0.52073991,-0.76418471,-0.3805939,0
-3.2586598,2.8850718,-1.1798537,-0.75604177,0.61986303,-0.21016818,0
2.2570629,-4.9499192,-1.3070774,0.75604177,-0.61986303,0.21016818,0
-0.51640224,5.5194702,-1.1796923,0.52073991,0.76418471,0.3805939,0
-1.9283509,-0.076782465,2.4670377,-0.39652339,-0.17830193,0.90054297,0
-2.688478,4.3326879,1.0385711,-0.75604177,0.61986303,-0.21016818,0
0.19644547,-0.1678884,-3.2780664,0.39652339,0.17830193,-0.90054297,0
-2.9273634,3.9158785,0.66859579,-0.75604177,0.61986303,-0.21016818,0
6.0015903,-0.1599431,-0.64993668,0.75604177,-0.61986303,0.21016818,0
-1.7013297,-1.7939136,-3.2663906,-0.52073991,-0.76418471,-0.3805939,0
0.14868021,-4.8664255,0.37158728,-0.52073991,-0.76418471,-0.3805939,0
3.980438,-1.5725795,2.4544094,0.75604177,-0.61986303,0.21016818,0
3.6422455,-1.9321524,2.610482,0.75604177,-0.61986303,0.21016818,0
-4.2866387,2.4638734,1.2758441,-0.75604177,0.61986303,-0.21016818,0
3.3848715,1.948952,-1.4550304,0.39652339,0.17830193,-0.90054297,0
-0.95879292,5.6808653,-1.2073849,-0.75604177,0.61986303,-0.21016818,0
-1.083515,0.10919762,2.8758552,-0.39652339,-0.17830193,0.90054297,0
-1.9956101,4.3146343,-1.5071418,-0.75604177,0.61986303,-0.21016818,0
2.6697598,-2.411551,-2.6332583,0.39652339,0.17830193,-0.90054297,0
3.8750825,2.0886414,-1.2115252,0.39652339,0.17830193,-0.90054297,0
-1.5047562,4.4531097,-2.8644843,-0.75604177,0.61986303,-0.21016818,0
0.94891,4.7741179,-1.9682578,0.39652339,0.17830193,-0.90054297,0
-2.6529193,3.8817041,-0.4194603,-0.75604177,0.61986303,-0.21016818,0
0.93411779,-5.6119776,0.79390466,-0.52073991,-0.76418471,-0.3805939,0
-5.0234799,-0.64189148,-1.0340409,-0.52073991,-0.76418471,-0.3805939,0
-2.2817461,1.4350924,-4.0518732,0.39652339,0.17830193,-0.90054297,0
1.5283053,0.60889363,-2.5378294,0.39652339,0.17830193,-0.90054297,0
4.0907183,1.2191106,1.1512904,0.52073991,0.76418471,0.3805939,0
-2.0751572,4.7503796,0.064188957,-0.75604177,0.61986303,-0.21016818,0
-1.2373338,-2.7913494,-1.8985188,-0.52073991,-0.76418471,-0.3805939,0
-2.6733866,3.070637,-2.7379682,-0.75604177,0.61986303,-0.21016818,0
1.9996842,-1.1582367,3.9824927,-0.39652339,-0.17830193,0.90054297,0
3.0575371,-2.4164958,3.2853587,0.75604177,-0.61986303,0.21016818,0
-0.29860616,-0.2942332,-3.5210609,0.39652339,0.17830193,-0.90054297,0
-0.98238778,-4.1721883,0.52520865,-0.52073991,-0.76418471,-0.3805939,0
-2.5524402,-2.5749753,-0.53360307,-0.52073991,-0.76418471,-0.3805939,0
0.29933739,-5.2474704,0.93054509,-0.52073991,-0.76418471,-0.3805939,0
-1.2025754,-1.2086685,2.5625017,-0.39652339,-0.17830193,0.90054297,0
-0.24953938,-3.4734311,-1.8805141,-0.52073991,-0.76418471,-0.3805939,0
0.59578896,3.8975186,0.5552507,0.52073991,0.76418471,0.3805939,0
5.4649115,-0.50600982,0.25999022,0.75604177,-0.61986303,0.21016818,0
-2.3317213,2.0871611,-3.9447727,0.39652339,0.17830193,-0.90054297,0
-3.1793168,3.2956879,-0.25421834,-0.75604177,0.61986303,-0.21016818,0
-0.11588526,4.6384816,0.041223407,0.52073991,0.76418471,0.3805939,0
-1.6644464,-1.7744303,-3.3559761,-0.52073991,-0.76418471,-0.3805939,0
-1.5799007,4.8850584,-1.3201909,-0.75604177,0.61986303,-0.21016818,0
-2.6136317,2.8251984,-3.6768131,-0.75604177,0.61986303,-0.21016818,0
-1.4129205,-2.8806272,-1.4790169,-0.52073991,-0.76418471,-0.3805939,0
-2.4007742,2.2369776,2.7171323,-0.39652339,-0.17830193,0.90054297,0
3.7836056,1.1414427,1.7274375,0.52073991,0.76418471,0.3805939,0
-1.7123506,4.2663794,-2.6684384,-0.75604177,0.61986303,-0.21016818,0
3.3130999,2.7037942,-0.76580739,0.52073991,0.76418471,0.3805939,0
2.4739447,-2.392318,3.9469767,-0.39652339,-0.17830193,0.90054297,0
3.4922938,2.6587336,-0.92051053,0.52073991,0.76418471,0.3805939,0
-1.2388,-1.8050897,-3.8767972,-0.52073991,-0.76418471,-0.3805939,0
-3.7881641,2.0153399,-1.8402166,-0.75604177,0.61986303,-0.21016818,0
0.3683157,4.8570862,-1.0602047,0.52073991,0.76418471,0.3805939,0
0.59460163,-3.4420855,-3.0984304,-0.52073991,-0.76418471,-0.3805939,0
2.1488252,-3.4211004,3.5913367,0.75604177,-0.61986303,0.21016818,0
2.3376389,-4.4146066,-0.0181005,0.75604177,-0.61986303,0.21016818,0
3.8350289,0.70531964,2.5327594,0.52073991,0.76418471,0.3805939,0
-0.55382156,-3.4458282,2.4052145,-0.39652339,-0.17830193,0.90054297,0
-1.4359736,4.5827217,1.9593676,0.52073991,0.76418471,0.3805939,0
-0.48668432,4.9627237,-2.56303,0.39652339,0.17830193,-0.90054297,0
-3.443464,3.8800955,2.5833466,-0.39652339,-0.17830193,0.90054297,0
3.3173976,1.9156723,0.81076217,0.52073991,0.76418471,0.3805939,0
2.6245594,3.0916207,-0.60243201,0.52073991,0.76418471,0.3805939,0
-3.6752267,-2.6052337,1.0633819,-0.52073991,-0.76418471,-0.3805939,0
5.1851239,0.6112895,0.87432003,0.52073991,0.76418471,0.3805939,0
-3.4070766,2.2424097,-2.5413973,-0.75604177,0.61986303,-0.21016818,0
-3.7429454,3.2163572,1.5393596,-0.75604177,0.61986303,-0.21016818,0
5.6514707,0.90830946,-0.36012793,0.52073991,0.76418471,0.3805939,0
-2.9190438,4.3435631,1.9000661,-0.75604177,0.61986303,-0.21016818,0
0.4921723,2.8614182,-2.5480695,0.39652339,0.17830193,-0.90054297,0
-1.7373538,5.2884979,0.43611288,-0.75604177,0.61986303,-0.21016818,0
-2.5918288,3.144815,2.8127542,-0.39652339,-0.17830193,0.90054297,0
2.8612413,-4.5933199,-2.9809227,0.39652339,0.17830193,-0.90054297,0
-0.63502598,5.8265986,-1.6340621,0.52073991,0.76418471,0.3805939,0
2.739393,-0.87642145,-2.2986512,0.39652339,0.17830193,-0.90054297,0
0.21863127,2.9585896,2.9565406,0.52073991,0.76418471,0.3805939,0
-0.68928909,-4.1282001,0.035859302,-0.52073991,-0.76418471,-0.3805939,0
0.67846274,-0.62301683,3.5067081,-0.39652339,-0.17830193,0.90054297,0
5.7185602,-0.1685338,0.34287739,0.75604177,-0.61986303,0.21016818,0
-5.8998599,0.066044807,0.0070400238,-0.75604177,0.61986303,-0.21016818,0
-3.4551229,-0.29191357,-3.8826261,-0.52073991,-0.76418471,-0.3805939,0
2.0491722,-4.3771963,1.1299427,0.75604177,-0.61986303,0.21016818,0
0.29076961,2.5400321,-2.7003825,0.39652339,0.17830193,-0.90054297,0
-0.83210111,2.8153465,-3.14029,0.39652339,0.17830193,-0.90054297,0
3.9929743,2.0979645,-0.4796021,0.52073991,0.76418471,0.3805939,0
4.9908018,-1.2774458,-0.30973434,0.75604177,-0.61986303,0.21016818,0
-0.70800048,2.9682462,-3.0553732,0.39652339,0.17830193,-0.90054297,0
-1.6900167,-1.1389182,2.3616836,-0.39652339,-0.17830193,0.90054297,0
-0.77338839,-2.7727096,-2.5707283,-0.52073991,-0.76418471,-0.3805939,0
2.8696632,3.0428843,-1.4652929,0.39652339,0.17830193,-0.90054297,0
-4.1418023,2.0841787,-0.36503696,-0.75604177,0.61986303,-0.21016818,0
-2.0086658,1.9584904,-3.8280022,0.39652339,0.17830193,-0.90054297,0
-2.6573248,-1.9865746,1.7679317,-0.39652339,-0.17830193,0.90054297,0
-4.2481875,0.62726915,-4.279295,-0.75604177,0.61986303,-0.21016818,0
-1.4611473,4.9637289,-1.5153565,-0.75604177,0.61986303,-0.21016818,0
-2.5381532,4.2812161,3.061389,-0.39652339,-0.17830193,0.90054297,0
3.8697703,-2.0018892,1.5863235,0.75604177,-0.61986303,0.21016818,0
-3.5423856,2.5522256,2.2768795,-0.39652339,-0.17830193,0.90054297,0
-0.61036229,-4.9987764,1.6758761,-0.52073991,-0.76418471,-0.3805939,0
1.0119958,-3.002887,3.1823685,-0.39652339,-0.17830193,0.90054297,0
-2.4262109,4.3025556,0.0062420368,-0.75604177,0.61986303,-0.21016818,0
-6.0810127,-0.19817638,-0.1205821,-0.75604177,0.61986303,-0.21016818,0
3.2353885,-0.71463627,4.6144233,-0.39652339,-0.17830193,0.90054297,0
1.6707742,-2.7028122,3.5318522,-0.39652339,-0.17830193,0.90054297,0
-2.4968815,4.4231453,3.1076622,-0.39652339,-0.17830193,0.90054297,0
-1.3595634,4.5853367,1.8495698,0.52073991,0.76418471,0.3805939,0
3.8769932,-1.9899095,1.5956731,0.75604177,-0.61986303,0.21016818,0
3.8685703,-2.8767076,-0.98952031,0.75604177,-0.61986303,0.21016818,0
2.0781093,-1.6271291,3.9241867,-0.39652339,-0.17830193,0.90054297,0
-3.8863249,2.1811357,-0.99810743,-0.75604177,0.61986303,-0.21016818,0
2.7249074,1.6271399,2.2007611,0.52073991,0.76418471,0.3805939,0
2.9159069,1.8809042,1.4299045,0.52073991,0.76418471,0.3805939,0
2.9527636,-4.0185599,-1.0628123,0.75604177,-0.61986303,0.21016818,0
-0.66384238,2.2666543,-3.1748405,0.39652339,0.17830193,-0.90054297,0
1.1055386,4.3354392,-1.9861472,0.39652339,0.17830193,-0.90054297,0
1.7190888,2.4838271,1.8568325,0.52073991,0.76418471,0.3805939,0
2.4336045,-3.2233758,-2.8979774,0.39652339,0.17830193,-0.90054297,0
-2.3577044,-1.2970271,2.0363855,-0.39652339,-0.17830193,0.90054297,0
0.25834846,-3.8856246,-1.7477887,-0.52073991,-0.76418471,-0.3805939,0
0.71751928,3.4409425,1.3054423,0.52073991,0.76418471,0.3805939,0
1.9471297,0.14771402,4.2179227,-0.39652339,-0.17830193,0.90054297,0
0.70865858,3.1618433,-2.3932648,0.39652339,0.17830193,-0.90054297,0
-4.8811579,-0.27241373,-1.9706352,-0.52073991,-0.76418471,-0.3805939,0
3.0288861,-3.4274232,0.40682793,0.75604177,-0.61986303,0.21016818,0
-1.2985128,-2.0909739,2.3455679,-0.39652339,-0.17830193,0.90054297,0
-3.4051542,1.5780363,-4.5077953,-0.75604177,0.61986303,-0.21016818,0
-1.0502021,5.449419,-1.5611778,-0.75604177,0.61986303,-0.21016818,0
2.6847577,2.7762063,-0.051485538,0.52073991,0.76418471,0.3805939,0
3.461843,-1.9682326,3.153034,0.75604177,-0.61986303,0.21016818,0
-0.8285228,-2.3520236,2.5008259,-0.39652339,-0.17830193,0.90054297,0
0.44893157,-2.1846528,3.0964475,-0.39652339,-0.17830193,0.90054297,0
6.148664,0.14366817,-0.59552336,0.39652339,0.17830193,-0.90054297,0
4.2837329,-1.3935543,1.8913724,0.75604177,-0.61986303,0.21016818,0
-2.6940713,3.7235751,2.8823256,-0.39652339,-0.17830193,0.90054297,0
4.9558125,-1.1920254,0.068070889,0.75604177,-0.61986303,0.21016818,0
3.1990852,-3.3489854,0.025908947,0.75604177,-0.61986303,0.21016818,0
2.3464386,-0.50835967,-2.3988013,0.39652339,0.17830193,-0.90054297,0
-2.787451,-2.6227148,-0.11619806,-0.52073991,-0.76418471,-0.3805939,0
-0.4072547,-4.0222187,-0.56282669,-0.52073991,-0.76418471,-0.3805939,0
3.6695516,-2.1841788,1.7689354,0.75604177,-0.61986303,0.21016818,0
1.5986509,-5.0135856,-1.3168272,-0.52073991,-0.76418471,-0.3805939,0
-1.069315,5.6232157,-0.63148761,0.52073991,0.76418471,0.3805939,0
-2.2521753,5.1096363,1.7605581,-0.75604177,0.61986303,-0.21016818,0
3.4734383,-2.3844573,1.8837223,0.75604177,-0.61986303,0.21016818,0
2.747426,0.73975635,-1.9751211,0.39652339,0.17830193,-0.90054297,0
1.611006,-4.8366089,1.3511894,0.75604177,-0.61986303,0.21016818,0
-2.1938589,3.9056234,-2.0002999,-0.75604177,0.61986303,-0.21016818,0
-5.1967678,1.3022394,1.1237841,-0.75604177,0.61986303,-0.21016818,0
-1.6278439,-0.62743807,2.4903293,-0.39652339,-0.17830193,0.90054297,0
-3.0528979,2.4933896,-3.0752602,-0.75604177,0.61986303,-0.21016818,0
1.3636618,2.5701246,2.1698632,0.52073991,0.76418471,0.3805939,0
1.4729846,-4.8441973,1.8253161,0.75604177,-0.61986303,0.21016818,0
-0.75844431,4.1623135,1.8764772,0.52073991,0.76418471,0.3805939,0
-2.1664507,4.3777909,-0.70630169,-0.75604177,0.61986303,-0.21016818,0
4.9772429,-0.36853409,-1.2127318,0.39652339,0.17830193,-0.90054297,0
5.7024727,-0.018806934,0.84234905,0.75604177,-0.61986303,0.21016818,0
-4.1320124,2.6979885,1.4100957,-0.75604177,0.61986303,-0.21016818,0
-2.7987988,2.9997439,-2.4959083,-0.75604177,0.61986303,-0.21016818,0
4.6799994,-0.50975847,3.0725138,0.75604177,-0.61986303,0.21016818,0
2.6575167,-1.9725096,4.1109257,-0.39652339,-0.17830193,0.90054297,0
-1.875555,-0.78678,-4.3129382,0.39652339,0.17830193,-0.90054297,0
2.2166982,-3.5990434,2.8223569,0.75604177,-0.61986303,0.21016818,0
-0.71319032,1.5982599,3.3337402,-0.39652339,-0.17830193,0.90054297,0
-1.9909396,-3.8690903,1.2965567,-0.52073991,-0.76418471,-0.3805939,0
-1.7904298,4.269762,-2.3775849,-0.75604177,0.61986303,-0.21016818,0
2.7266781,-0.97383118,4.3391113,-0.39652339,-0.17830193,0.90054297,0
-3.0642319,3.6882024,0.48945427,-0.75604177,0.61986303,-0.21016818,0
2.2817323,-0.88923216,4.1599441,-0.39652339,-0.17830193,0.90054297,0
3.5999482,0.10047892,4.0688486,0.52073991,0.76418471,0.3805939,0
2.5648928,-3.2544346,2.5861681,0.75604177,-0.61986303,0.21016818,0
-3.6430004,-0.42268044,-3.3630033,-0.52073991,-0.76418471,-0.3805939,0
-0.40975094,-3.9320116,-0.74053508,-0.52073991,-0.76418471,-0.3805939,0
4.8943634,-1.6079986,-0.93773556,0.75604177,-0.61986303,0.21016818,0
1.2948613,-5.3783588,-0.16875386,-0.52073991,-0.76418471,-0.3805939,0
-4.2507133,-1.793442,0.22080517,-0.52073991,-0.76418471,-0.3805939,0
-4.3831367,1.4971994,-1.228097,-0.75604177,0.61986303,-0.21016818,0
5.5135837,-0.26688766,0.79015923,0.75604177,-0.61986303,0.21016818,0
1.2076283,-5.1044159,-0.59944153,-0.52073991,-0.76418471,-0.3805939,0
1.5062156,-4.5285277,2.6367984,0.75604177,-0.61986303,0.21016818,0
-1.682183,-3.4155409,-0.036564231,-0.52073991,-0.76418471,-0.3805939,0
-3.3475571,-1.2817366,1.6035652,-0.39652339,-0.17830193,0.90054297,0
2.9220152,-1.7746251,-2.3960788,0.39652339,0.17830193,-0.90054297,0
2.5269566,-3.2847514,2.6332219,0.75604177,-0.61986303,0.21016818,0
-4.402287,1.0184665,-2.571167,-0.75604177,0.61986303,-0.21016818,0
-3.934227,1.3841319,-3.176445,-0.75604177,0.61986303,-0.21016818,0
2.8694055,-3.5404291,0.64723611,0.75604177,-0.61986303,0.21016818,0
4.0671239,-1.9668465,0.97973442,0.75604177,-0.61986303,0.21016818,0
-4.0830555,2.8039331,1.546452,-0.75604177,0.61986303,-0.21016818,0
3.5700009,0.69314444,2.9198248,0.52073991,0.76418471,0.3805939,0
-0.033897877,4.7603359,-2.4037323,0.39652339,0.17830193,-0.90054297,0
-0.93291283,5.4082627,-2.1044898,-0.75604177,0.61986303,-0.21016818,0
-2.347168,-3.0968201,0.23333776,-0.52073991,-0.76418471,-0.3805939,0
-0.2802279,5.3973379,-2.3860731,0.39652339,0.17830193,-0.90054297,0
3.194824,-4.074688,-2.0991251,0.75604177,-0.61986303,0.21016818,0
3.7181997,-2.856885,-0.3901248,0.75604177,-0.61986303,0.21016818,0
1.0017581,3.5387919,0.72006929,0.52073991,0.76418471,0.3805939,0
2.1256161,0.94388688,4.3926158,0.52073991,0.76418471,0.3805939,0
-3.164258,4.0352807,1.8729408,-0.75604177,0.61986303,-0.21016818,0
-2.614701,-2.581461,-0.43539357,-0.52073991,-0.76418471,-0.3805939,0
2.2598181,2.3398838,1.4060105,0.52073991,0.76418471,0.3805939,0
2.384093,1.5888736,2.7439082,0.52073991,0.76418471,0.3805939,0
4.5713573,-1.9762735,-0.8619585,0.75604177,-0.61986303,0.21016818,0
0.80739069,-5.2420468,0.22452152,-0.52073991,-0.76418471,-0.3805939,0
-2.719409,3.1728899,-2.2708287,-0.75604177,0.61986303,-0.21016818,0
-0.12321568,3.4246366,2.4885006,0.52073991,0.76418471,0.3805939,0
0.56592822,-3.7981391,2.8285029,-0.39652339,-0.17830193,0.90054297,0
3.5707729,-3.4728847,-1.6765916,0.75604177,-0.61986303,0.21016818,0
-1.6382284,4.7686057,1.8628663,0.52073991,0.76418471,0.3805939,0
-0.93778753,-0.92610931,-3.9276104,0.39652339,0.17830193,-0.90054297,0
0.51511812,-5.0886822,0.3164804,-0.52073991,-0.76418471,-0.3805939,0
-5.5858636,0.32565355,-0.3568244,-0.75604177,0.61986303,-0.21016818,0
2.3267968,1.89393,2.2097883,0.52073991,0.76418471,0.3805939,0
4.8041186,-0.13548172,2.8950455,0.52073991,0.76418471,0.3805939,0
-1.2019117,0.071270466,2.8162141,-0.39652339,-0.17830193,0.90054297,0
-2.5481,3.6068339,-1.6072218,-0.75604177,0.61986303,-0.21016818,0
-2.029104,5.0495205,0.78079605,-0.75604177,0.61986303,-0.21016818,0
-1.854795,4.4468684,2.8051872,0.52073991,0.76418471,0.3805939,0
1.6506801,3.8303335,-0.75318372,0.52073991,0.76418471,0.3805939,0
-3.7239664,-0.23358297,1.6453538,-0.39652339,-0.17830193,0.90054297,0
-1.5355182,5.3422527,-0.13141274,-0.75604177,0.61986303,-0.21016818,0
-5.0067153,0.4919138,-1.9498425,-0.75604177,0.61986303,-0.21016818,0
3.7264721,-1.2639947,-1.9407616,0.39652339,0.17830193,-0.90054297,0
1.3814425,-5.110013,1.3706349,0.75604177,-0.61986303,0.21016818,0
3.2815087,1.0797756,-1.6726341,0.39652339,0.17830193,-0.90054297,0
-1.6684942,5.0316854,1.3760445,0.52073991,0.76418471,0.3805939,0
-2.4195261,1.4227604,-4.1149821,0.39652339,0.17830193,-0.90054297,0
4.3469839,-0.65512115,3.8417482,0.75604177,-0.61986303,0.21016818,0
-0.98724353,4.6997609,-2.8354993,0.39652339,0.17830193,-0.90054297,0
3.3793697,1.2994168,1.9633338,0.52073991,0.76418471,0.3805939,0
2.7968833,0.70781112,3.9481797,0.52073991,0.76418471,0.3805939,0
-0.058434963,-3.63643,-1.8147072,-0.52073991,-0.76418471,-0.3805939,0
-3.0802932,1.8350368,2.3383472,-0.39652339,-0.17830193,0.90054297,0
1.3855724,-4.659121,2.6856232,0.75604177,-0.61986303,0.21016818,0
4.3420553,-0.87490118,3.2112644,0.75604177,-0.61986303,0.21016818,0
-0.12000513,-2.8740053,-3.2613175,-0.52073991,-0.76418471,-0.3805939,0
-3.2772627,3.3114688,0.14466953,-0.75604177,0.61986303,-0.21016818,0
1.4108198,2.4257979,-2.2298243,0.39652339,0.17830193,-0.90054297,0
4.6503925,-1.2334919,1.0444651,0.75604177,-0.61986303,0.21016818,0
-1.9141124,2.4988172,-3.6793873,0.39652339,0.17830193,-0.90054297,0
-4.7364736,-1.345607,-0.013759613,-0.52073991,-0.76418471,-0.3805939,0
4.313653,-0.40446234,-1.5120349,0.39652339,0.17830193,-0.90054297,0
-2.4361112,-0.84788525,-4.1605468,-0.52073991,-0.76418471,-0.3805939,0
-1.8325151,3.630971,-3.4192996,0.39652339,0.17830193,-0.90054297,0
-2.529573,3.505842,2.9116473,-0.39652339,-0.17830193,0.90054297,0
2.1250558,-3.4774671,3.5105977,0.75604177,-0.61986303,0.21016818,0
-5.3521285,0.20726132,-1.5468268,-0.75604177,0.61986303,-0.21016818,0
-0.23174256,-1.2472245,2.9823411,-0.39652339,-0.17830193,0.90054297,0
4.7358494,0.011459351,-1.2437849,0.39652339,0.17830193,-0.90054297,0
-0.92623949,-1.5995994,-4.055872,0.39652339,0.17830193,-0.90054297,0
1.9462471,0.29581428,-2.4157906,0.39652339,0.17830193,-0.90054297,0
5.0213623,0.72525454,0.86955643,0.52073991,0.76418471,0.3805939,0
0.88899851,-4.3098221,-1.7589271,-0.52073991,-0.76418471,-0.3805939,0
-5.2065248,0.73170543,-0.52382946,-0.75604177,0.61986303,-0.21016818,0
4.8958693,-0.36353779,2.7272189,0.75604177,-0.61986303,0.21016818,0
4.4442735,-2.3113165,-1.3929634,0.75604177,-0.61986303,0.21016818,0
1.0453453,-4.7861924,-1.0163544,-0.52073991,-0.76418471,-0.3805939,0
2.1512263,3.7364919,-1.6443024,0.39652339,0.17830193,-0.90054297,0
-0.28533649,-2.8389261,-3.1055405,-0.52073991,-0.76418471,-0.3805939,0
-0.097723722,0.085458279,3.3052144,-0.39652339,-0.17830193,0.90054297,0
-0.61746359,5.7467175,-1.4977008,0.52073991,0.76418471,0.3805939,0
2.511708,-1.2640991,-2.4756622,0.39652339,0.17830193,-0.90054297,0
1.9435937,2.6543298,-1.9499876,0.39652339,0.17830193,-0.90054297,0
4.6279335,-0.4356848,3.4782803,0.75604177,-0.61986303,0.21016818,0
1.335336,4.2001719,-1.0643103,0.52073991,0.76418471,0.3805939,0
-0.43833399,-4.0314393,2.3401182,-0.39652339,-0.17830193,0.90054297,0
-3.237819,-1.593353,1.5901866,-0.39652339,-0.17830193,0.90054297,0
-2.5400724,4.3055534,0.42468071,-0.75604177,0.61986303,-0.21016818,0
-2.8792546,4.1398244,1.1560307,-0.75604177,0.61986303,-0.21016818,0
5.1504312,-0.41142964,1.670228,0.75604177,-0.61986303,0.21016818,0
3.6777606,-2.2208598,1.6312196,0.75604177,-0.61986303,0.21016818,0
-1.2740531,4.4217939,-3.0168219,0.39652339,0.17830193,-0.90054297,0
4.2524881,-0.79001963,3.7838144,0.75604177,-0.61986303,0.21016818,0
-3.8709023,0.14016056,1.6546545,-0.39652339,-0.17830193,0.90054297,0
-0.92143393,5.0981016,0.22054052,0.52073991,0.76418471,0.3805939,0
0.45877671,-4.6856651,2.6055977,-0.39652339,-0.17830193,0.90054297,0
2.1620362,0.48542684,4.3794141,-0.39652339,-0.17830193,0.90054297,0
-1.07955,5.1171231,-2.4356673,-0.75604177,0.61986303,-0.21016818,0
-1.750298,1.7352319,-3.7584426,0.39652339,0.17830193,-0.90054297,0
-3.9748855,-0.21215057,1.5391142,-0.39652339,-0.17830193,0.90054297,0
2.2156093,2.0150883,2.1186469,0.52073991,0.76418471,0.3805939,0
-0.33493781,-5.2268987,1.7570733,-0.52073991,-0.76418471,-0.3805939,0
-2.2514162,3.4197669,-3.2262168,-0.75604177,0.61986303,-0.21016818,0
-1.4473147,-3.5404041,-0.10720861,-0.52073991,-0.76418471,-0.3805939,0
2.8831532,-2.7695279,2.8714514,0.75604177,-0.61986303,0.21016818,0
-5.7656455,0.32956314,0.85786915,-0.39652339,-0.17830193,0.90054297,0
-5.8649135,-0.70050287,0.23491669,-0.52073991,-0.76418471,-0.3805939,0
0.22045755,4.4148235,0.030107558,0.52073991,0.76418471,0.3805939,0
3.1944952,-2.1303189,-2.3465264,0.39652339,0.17830193,-0.90054297,0
-4.4982686,0.94973814,-2.4285965,-0.75604177,0.61986303,-0.21016818,0
-2.9108255,2.3389697,-4.0417795,-0.75604177,0.61986303,-0.21016818,0
-3.4943814,0.78044486,-4.7154317,0.39652339,0.17830193,-0.90054297,0
1.189857,2.2851501,2.9798625,0.52073991,0.76418471,0.3805939,0
2.8445685,-2.1318567,-2.5009091,0.39652339,0.17830193,-0.90054297,0
-3.8928804,-1.5248163,-0.80816007,-0.52073991,-0.76418471,-0.3805939,0
-2.7259564,4.7372532,2.3666053,-0.75604177,0.61986303,-0.21016818,0
-3.6072013,-0.55516297,-3.1459758,-0.52073991,-0.76418471,-0.3805939,0
5.4787316,-0.47578526,0.2994194,0.75604177,-0.61986303,0.21016818,0
-3.5254135,2.7889585,-0.50372934,-0.75604177,0.61986303,-0.21016818,0
1.1202946,-5.6258802,0.78858387,0.75604177,-0.61986303,0.21016818,0
5.5102501,0.27757883,1.0995221,0.52073991,0.76418471,0.3805939,0
-0.23031592,-5.4190202,1.9996817,-0.52073991,-0.76418471,-0.3805939,0
-5.2286801,-0.74973822,-0.53673792,-0.52073991,-0.76418471,-0.3805939,0
4.6007462,-1.6527669,-0.013539314,0.75604177,-0.61986303,0.21016818,0
-5.6975131,-0.75160885,0.10848904,-0.52073991,-0.76418471,-0.3805939,0
-5.4927173,-1.1514935,0.63120031,-0.52073991,-0.76418471,-0.3805939,0
5.2605247,1.1977348,-0.40635347,0.52073991,0.76418471,0.3805939,0
6.1255436,0.48019552,-0.14916992,0.52073991,0.76418471,0.3805939,0
4.5763021,-0.97725487,2.0667272,0.75604177,-0.61986303,0.21016818,0
-0.52518821,1.2003057,3.3377278,-0.39652339,-0.17830193,0.90054297,0
0.43815017,5.0018578,-1.4464377,0.52073991,0.76418471,0.3805939,0
-4.3282757,2.2000675,0.6475668,-0.75604177,0.61986303,-0.21016818,0
0.49128437,2.9841471,2.5321717,0.52073991,0.76418471,0.3805939,0
2.9708214,-0.48976183,-2.1201937,0.39652339,0.17830193,-0.90054297,0
1.0449712,-2.2149661,3.3528917,-0.39652339,-0.17830193,0.90054297,0
-3.6271436,1.6681889,-3.4433353,-0.75604177,0.61986303,-0.21016818,0
2.8892219,0.81399775,3.6086292,0.52073991,0.76418471,0.3805939,0
3.8241267,1.7399185,0.47033215,0.52073991,0.76418471,0.3805939,0
-1.0623629,5.3361168,-1.8516018,-0.75604177,0.61986303,-0.21016818,0
-5.3670921,-0.32816792,0.90313196,-0.39652339,-0.17830193,0.90054297,0
-3.931133,0.83258295,-4.8142962,-0.75604177,0.61986303,-0.21016818,0
0.82849884,1.8955158,4.071425,-0.39652339,-0.17830193,0.90054297,0
4.7834973,1.6286263,-0.61884737,0.52073991,0.76418471,0.3805939,0
-4.8862925,-1.659039,0.82055902,-0.52073991,-0.76418471,-0.3805939,0
-4.0407348,1.3565609,-2.8746207,-0.75604177,0.61986303,-0.21016818,0
0.36345148,-0.36076427,-3.2427192,0.39652339,0.17830193,-0.90054297,0
-0.3018446,-3.3139229,-2.1292205,-0.52073991,-0.76418471,-0.3805939,0
2.9016359,-3.2503114,1.3869553,0.75604177,-0.61986303,0.21016818,0
-2.1587126,-2.6890099,-0.84334433,-0.52073991,-0.76418471,-0.3805939,0
1.4330754,3.6211634,-0.035464346,0.52073991,0.76418471,0.3805939,0
-3.6614659,2.8121822,0.054189682,-0.75604177,0.61986303,-0.21016818,0
0.46230745,3.4146423,1.7074386,0.52073991,0.76418471,0.3805939,0
0.39962864,3.7543778,1.1110513,0.52073991,0.76418471,0.3805939,0
1.5976396,4.2531796,-1.5296351,0.52073991,0.76418471,0.3805939,0
-2.6679072,3.2979152,2.8095684,-0.39652339,-0.17830193,0.90054297,0
-0.40690088,-4.655582,0.70840359,-0.52073991,-0.76418471,-0.3805939,0
4.8779268,-0.63380432,1.9946499,0.75604177,-0.61986303,0.21016818,0
-5.2989559,1.0526686,0.75531149,-0.75604177,0.61986303,-0.21016818,0
-2.9881444,-2.9545364,0.82465243,-0.52073991,-0.76418471,-0.3805939,0
-0.29938757,3.3402045,-2.8018091,0.39652339,0.17830193,-0.90054297,0
-3.5088134,2.2895279,-2.0364475,-0.75604177,0.61986303,-0.21016818,0
-3.6283913,0.97338951,-4.7362366,0.39652339,0.17830193,-0.90054297,0
-4.3571615,1.4151379,-1.5635684,-0.75604177,0.61986303,-0.21016818,0
1.3497107,1.5428824,-2.4315434,0.39652339,0.17830193,-0.90054297,0
-1.9668806,4.5663185,-0.86818099,-0.75604177,0.61986303,-0.21016818,0
-3.378619,1.9414251,-3.5314832,-0.75604177,0.61986303,-0.21016818,0
3.4333761,-3.3679056,-2.4863775,0.39652339,0.17830193,-0.90054297,0
0.47874141,-1.2077274,3.3029985,-0.39652339,-0.17830193,0.90054297,0
4.1946135,-2.3323355,-0.556849,0.75604177,-0.61986303,0.21016818,0
4.2283392,-0.61186284,4.3961353,0.75604177,-0.61986303,0.21016818,0
-4.4157124,0.76144588,-3.2809207,-0.75604177,0.61986303,-0.21016818,0
4.9569197,-0.85751534,1.0506783,0.75604177,-0.61986303,0.21016818,0
1.7430847,3.5107965,-0.23802507,0.52073991,0.76418471,0.3805939,0
3.9501522,1.3643497,1.051995,0.52073991,0.76418471,0.3805939,0
3.0712039,-3.8236394,-2.7360802,0.39652339,0.17830193,-0.90054297,0
5.1416106,-0.69411159,0.8682251,0.75604177,-0.61986303,0.21016818,0
-0.738873,1.1179407,3.2273314,-0.39652339,-0.17830193,0.90054297,0
-0.14756107,-4.4990697,2.3755624,-0.39652339,-0.17830193,0.90054297,0
-0.20072532,1.2059599,-3.1809335,0.39652339,0.17830193,-0.90054297,0
-3.0548134,-0.76665998,1.8344465,-0.39652339,-0.17830193,0.90054297,0
-4.5179586,-1.8373756,0.67467046,-0.52073991,-0.76418471,-0.3805939,0
2.4601777,3.4811006,-1.5588319,0.39652339,0.17830193,-0.90054297,0
-1.4685102,3.9093091,3.3560119,0.52073991,0.76418471,0.3805939,0
4.1936712,-2.4257045,-0.82883739,0.75604177,-0.61986303,0.21016818,0
2.795325,1.6678843,2.0226054,0.52073991,0.76418471,0.3805939,0
-4.4779124,0.45218688,-3.9692857,-0.75604177,0.61986303,-0.21016818,0
-3.8658986,2.219192,2.0684931,-0.39652339,-0.17830193,0.90054297,0
1.9778614,-4.7984524,-2.2676339,-0.52073991,-0.76418471,-0.3805939,0
-2.7379382,-2.8057363,1.5702477,-0.39652339,-0.17830193,0.90054297,0
-1.9141893,0.47635478,-4.0798564,0.39652339,0.17830193,-0.90054297,0
-1.5642989,0.2807498,-3.9645226,0.39652339,0.17830193,-0.90054297,0
-3.2982566,-1.4237919,-1.8245852,-0.52073991,-0.76418471,-0.3805939,0
1.3004799,4.221096,-1.0586318,0.52073991,0.76418471,0.3805939,0
-3.1676373,2.4271984,-2.8577268,-0.75604177,0.61986303,-0.21016818,0
-1.7814634,2.9166064,3.124387,-0.39652339,-0.17830193,0.90054297,0
-4.5006485,1.8505974,0.23693037,-0.75604177,0.61986303,-0.21016818,0
-0.092256069,-3.2342842,-2.5758913,-0.52073991,-0.76418471,-0.3805939,0
-2.2091737,-2.7043982,-0.74340558,-0.52073991,-0.76418471,-0.3805939,0
-1.6426549,-1.7983518,-3.3377602,-0.52073991,-0.76418471,-0.3805939,0
-3.4448602,-0.98661023,-2.5018036,-0.52073991,-0.76418471,-0.3805939,0
-2.9311049,1.9365345,-4.2385139,0.39652339,0.17830193,-0.90054297,0
4.8763065,-0.71084642,1.773253,0.75604177,-0.61986303,0.21016818,0
-3.4026732,-2.3081245,1.3760781,-0.39652339,-0.17830193,0.90054297,0
-6.0770454,-0.00099420547,0.44670916,-0.75604177,0.61986303,-0.21016818,0
-3.4236014,-0.59186995,-3.3234799,-0.52073991,-0.76418471,-0.3805939,0
4.1140461,0.22805309,-1.4746907,0.39652339,0.17830193,-0.90054297,0
-3.4190364,2.5712674,-1.5284519,-0.75604177,0.61986303,-0.21016818,0
-3.8812354,0.96016979,-4.6174936,-0.75604177,0.61986303,-0.21016818,0
-0.33222723,-4.630928,0.55672973,-0.52073991,-0.76418471,-0.3805939,0
-2.0506432,4.9603047,0.59514952,-0.75604177,0.61986303,-0.21016818,0
4.0081959,-1.0758793,3.8195062,0.75604177,-0.61986303,0.21016818,0
0.039643928,2.3013692,-2.858211,0.39652339,0.17830193,-0.90054297,0
-2.5051327,-0.34807247,-4.5032892,0.39652339,0.17830193,-0.90054297,0
1.3302724,-4.9491172,2.0292492,0.75604177,-0.61986303,0.21016818,0
0.80272913,-4.8739109,-0.50827229,-0.52073991,-0.76418471,-0.3805939,0
3.0555968,-2.4274061,3.2601604,0.75604177,-0.61986303,0.21016818,0
3.0655389,1.5298111,1.9301242,0.52073991,0.76418471,0.3805939,0
0.76284885,0.27278399,3.7212274,-0.39652339,-0.17830193,0.90054297,0
1.6500207,-2.4232159,3.5780725,-0.39652339,-0.17830193,0.90054297,0
3.4829531,-0.95796305,4.6752524,-0.39652339,-0.17830193,0.90054297,0
-3.6012647,0.15932661,-4.5887041,-0.52073991,-0.76418471,-0.3805939,0
2.501745,3.1479447,-0.54748535,0.52073991,0.76418471,0.3805939,0
-2.7314835,-2.6494184,-0.13915801,-0.52073991,-0.76418471,-0.3805939,0
-0.65058327,3.4563797,3.1463253,0.52073991,0.76418471,0.3805939,0
2.4125009,-4.884109,-1.672138,0.75604177,-0.61986303,0.21016818,0
-3.0973558,0.06955713,-4.6813669,0.39652339,0.17830193,-0.90054297,0
-1.7312723,-2.6381576,2.0466781,-0.39652339,-0.17830193,0.90054297,0
3.1497605,0.72131807,3.4382422,0.52073991,0.76418471,0.3805939,0
2.4735978,-3.5284262,2.1064827,0.75604177,-0.61986303,0.21016818,0
-2.3262913,-1.4648993,-3.0719192,-0.52073991,-0.76418471,-0.3805939,0
3.398231,-2.284714,2.4484475,0.75604177,-0.61986303,0.21016818,0
-5.2358108,-1.0153756,0.0063858032,-0.52073991,-0.76418471,-0.3805939,0
-3.3664775,-2.4349456,0.29902625,-0.52073991,-0.76418471,-0.3805939,0
-2.1864069,-2.6600411,-0.86361921,-0.52073991,-0.76418471,-0.3805939,0
1.9910829,3.4068351,-0.36860192,0.52073991,0.76418471,0.3805939,0
2.1169343,3.4310129,-1.7198846,0.39652339,0.17830193,-0.90054297,0
-0.23073864,4.2834282,0.91127169,0.52073991,0.76418471,0.3805939,0
1.4864669,3.2108793,0.71528423,0.52073991,0.76418471,0.3805939,0
-1.543014,4.1967535,-3.1798062,0.39652339,0.17830193,-0.90054297,0
-4.4410858,0.6088621,-3.6396694,-0.75604177,0.61986303,-0.21016818,0
-4.4974198,2.0675278,0.86512232,-0.75604177,0.61986303,-0.21016818,0
3.7679832,-1.6646695,2.9470689,0.75604177,-0.61986303,0.21016818,0
-2.6192045,-2.3201668,-0.95387721,-0.52073991,-0.76418471,-0.3805939,0
2.8605115,0.34615889,4.5872726,0.52073991,0.76418471,0.3805939,0
-0.10762835,-2.8686373,-3.2890303,-0.52073991,-0.76418471,-0.3805939,0
-3.1980047,2.6696179,-2.0335019,-0.75604177,0.61986303,-0.21016818,0
-0.95372581,4.4629679,1.5399917,0.52073991,0.76418471,0.3805939,0
3.9052114,1.5831612,0.67413878,0.52073991,0.76418471,0.3805939,0
1.0363491,-5.2061167,2.3285995,0.75604177,-0.61986303,0.21016818,0
-1.9545898,5.0701261,1.6903057,0.52073991,0.76418471,0.3805939,0
-2.4028986,-3.6949184,1.5104947,-0.52073991,-0.76418471,-0.3805939,0
2.7601175,0.13920194,4.5742083,-0.39652339,-0.17830193,0.90054297,0
-1.8847327,2.6439116,3.0249238,-0.39652339,-0.17830193,0.90054297,0
0.62040997,4.3710823,-0.42929286,0.52073991,0.76418471,0.3805939,0
-4.581677,0.053991795,1.3246284,-0.39652339,-0.17830193,0.90054297,0
-1.8872857,4.5297384,-1.262398,-0.75604177,0.61986303,-0.21016818,0
-0.37873483,5.4269133,-2.4235916,0.39652339,0.17830193,-0.90054297,0
1.8139017,0.10978019,4.1517491,-0.39652339,-0.17830193,0.90054297,0
2.8027031,2.1961327,0.95185316,0.52073991,0.76418471,0.3805939,0
2.8330653,-0.45594633,4.4884925,-0.39652339,-0.17830193,0.90054297,0
4.0514956,0.40384007,2.8419163,0.52073991,0.76418471,0.3805939,0
0.70193255,-4.1352601,2.8216398,-0.39652339,-0.17830193,0.90054297,0
-4.8145895,-0.53679729,-1.5308673,-0.52073991,-0.76418471,-0.3805939,0
0.3490324,-4.567008,-0.50373232,-0.52073991,-0.76418471,-0.3805939,0
-1.5237019,-3.3611269,-0.3626591,-0.52073991,-0.76418471,-0.3805939,0
2.8392384,-4.3651161,-1.6765482,0.75604177,-0.61986303,0.21016818,0
-0.80027223,5.6946406,-1.7370062,-0.75604177,0.61986303,-0.21016818,0
-1.6599392,4.0669913,-3.2569823,0.39652339,0.17830193,-0.90054297,0
-1.2611582,-3.3898094,-0.66428888,-0.52073991,-0.76418471,-0.3805939,0
0.076914132,-1.8979824,2.9894013,-0.39652339,-0.17830193,0.90054297,0
-2.4895523,1.9809375,-4.0352998,0.39652339,0.17830193,-0.90054297,0
3.5428085,-0.77452302,-1.9247196,0.39652339,0.17830193,-0.90054297,0
0.89877605,-5.7406454,1.2469716,0.75604177,-0.61986303,0.21016818,0
-0.015853405,-3.2840993,-2.5804031,-0.52073991,-0.76418471,-0.3805939,0
-3.2765074,1.4758673,-4.4818091,0.39652339,0.17830193,-0.90054297,0
6.0938683,0.25274038,0.23526335,0.75604177,-0.61986303,0.21016818,0
2.965349,-4.4165616,-2.2819417,0.75604177,-0.61986303,0.21016818,0
-1.5213196,0.23291707,-3.9550691,0.39652339,0.17830193,-0.90054297,0
3.9686341,-2.3926115,0.078295231,0.75604177,-0.61986303,0.21016818,0
-1.5543923,0.89152306,-3.839231,0.39652339,0.17830193,-0.90054297,0
2.620698,-3.6950684,-2.9089894,0.39652339,0.17830193,-0.90054297,0
-5.2045469,0.55037713,-1.0657506,-0.75604177,0.61986303,-0.21016818,0
-4.961421,0.9264338,-0.83122158,-0.75604177,0.61986303,-0.21016818,0
1.249428,-5.0115399,2.1359639,0.75604177,-0.61986303,0.21016818,0
1.0891368,-4.0291624,3.0131388,-0.39652339,-0.17830193,0.90054297,0
5.5085592,-0.063073158,-0.91830587,0.39652339,0.17830193,-0.90054297,0
4.523531,-1.9460118,-0.60065699,0.75604177,-0.61986303,0.21016818,0
-0.79811573,-3.3720131,-1.3335693,-0.52073991,-0.76418471,-0.3805939,0
-2.2543383,1.7725408,-3.9729924,0.39652339,0.17830193,-0.90054297,0
1.2066281,-2.0428228,3.4581552,-0.39652339,-0.17830193,0.90054297,0
4.0802679,2.0536523,-0.51006651,0.52073991,0.76418471,0.3805939,0
2.1612687,2.1838696,1.8541059,0.52073991,0.76418471,0.3805939,0
1.6707032,3.5774333,-0.27278829,0.52073991,0.76418471,0.3805939,0
-4.1951308,-1.3712003,-0.703053,-0.52073991,-0.76418471,-0.3805939,0
4.1172972,-1.7153199,-1.8580346,0.39652339,0.17830193,-0.90054297,0
-4.8419108,0.83448744,1.3645768,-0.39652339,-0.17830193,0.90054297,0
-2.3818948,-1.914824,1.9034141,-0.39652339,-0.17830193,0.90054297,0
-0.75914001,5.6304398,-1.0703834,0.52073991,0.76418471,0.3805939,0
4.332283,1.8214767,-1.0631092,0.39652339,0.17830193,-0.90054297,0
-5.2419519,-1.1725655,0.79104805,-0.39652339,-0.17830193,0.90054297,0
-5.6513171,-0.64824724,-0.16225433,-0.52073991,-0.76418471,-0.3805939,0
-0.10786057,1.1214821,3.5058773,-0.39652339,-0.17830193,0.90054297,0
0.35929489,4.148335,0.37522039,0.52073991,0.76418471,0.3805939,0
2.1564767,1.3194041,-2.1205587,0.39652339,0.17830193,-0.90054297,0
-5.9168801,-0.39303064,-0.31134653,-0.52073991,-0.76418471,-0.3805939,0
4.2946758,1.9060345,-0.50702691,0.52073991,0.76418471,0.3805939,0
2.9119375,-3.509793,0.58459115,0.75604177,-0.61986303,0.21016818,0
4.0256033,-1.3374295,2.9854798,0.75604177,-0.61986303,0.21016818,0
-3.3969576,-1.7833666,-0.96755886,-0.52073991,-0.76418471,-0.3805939,0
0.74225473,4.0044279,0.14019106,0.52073991,0.76418471,0.3805939,0
-4.4971466,1.3727832,-1.184917,-0.75604177,0.61986303,-0.21016818,0
3.5311098,-2.8820903,0.20855665,0.75604177,-0.61986303,0.21016818,0
-4.6644449,-1.0757735,1.0644979,-0.39652339,-0.17830193,0.90054297,0
-1.3195724,-2.6035171,-2.1631396,-0.52073991,-0.76418471,-0.3805939,0
-0.38922501,-3.429285,-1.7780319,-0.52073991,-0.76418471,-0.3805939,0
-3.3575125,2.6647663,-1.47401,-0.75604177,0.61986303,-0.21016818,0
-0.78471661,2.1000686,-3.2610462,0.39652339,0.17830193,-0.90054297,0
-5.2866421,0.272156,-1.591002,-0.75604177,0.61986303,-0.21016818,0
4.3351326,-2.062567,-0.26669407,0.75604177,-0.61986303,0.21016818,0
2.8364451,-3.4071016,1.1590362,0.75604177,-0.61986303,0.21016818,0
-3.0858562,-0.31729665,-4.3369012,-0.52073991,-0.76418471,-0.3805939,0
3.1349311,0.24631953,-1.902194,0.39652339,0.17830193,-0.90054297,0
-2.2131896,4.2714415,-0.85183072,-0.75604177,0.61986303,-0.21016818,0
-3.5852776,3.0810189,0.57301426,-0.75604177,0.61986303,-0.21016818,0
3.63307,-0.034423217,4.2943969,0.52073991,0.76418471,0.3805939,0
-2.6907151,-1.9106088,1.7682703,-0.39652339,-0.17830193,0.90054297,0
-1.4064399,4.6205168,-2.7244146,-0.75604177,0.61986303,-0.21016818,0
-1.2924137,4.9087505,-2.2844954,-0.75604177,0.61986303,-0.21016818,0
0.3605504,3.5676944,1.5393565,0.52073991,0.76418471,0.3805939,0
2.4766059,-4.0890579,-3.0504422,0.39652339,0.17830193,-0.90054297,0
4.8327427,0.95288372,0.67058086,0.52073991,0.76418471,0.3805939,0
-5.0125904,-1.4654138,0.83405828,-0.39652339,-0.17830193,0.90054297,0
2.0134606,-4.6916609,0.3309381,0.75604177,-0.61986303,0.21016818,0
2.0359626,-3.564291,-3.1405642,0.39652339,0.17830193,-0.90054297,0
4.4787045,-2.2695351,-1.39359,0.75604177,-0.61986303,0.21016818,0
3.1437321,-3.7748103,-1.0308812,0.75604177,-0.61986303,0.21016818,0
1.9966165,-3.6202083,3.4936869,-0.39652339,-0.17830193,0.90054297,0
-1.3037114,1.8080585,-3.5473843,0.39652339,0.17830193,-0.90054297,0
3.4758363,2.6149471,-1.2831142,0.39652339,0.17830193,-0.90054297,0
-2.4111459,-3.0251424,0.17695332,-0.52073991,-0.76418471,-0.3805939,0
-2.6793103,-0.96064556,-3.6013863,-0.52073991,-0.76418471,-0.3805939,0
-3.3180037,0.31807113,1.9333298,-0.39652339,-0.17830193,0.90054297,0
-1.9713445,4.5197434,2.8183298,0.52073991,0.76418471,0.3805939,0
5.7998576,-0.4399972,-0.86467075,0.39652339,0.17830193,-0.90054297,0
-1.3271761,-0.54515195,2.6390104,-0.39652339,-0.17830193,0.90054297,0
-5.0616655,1.0273979,-0.17283058,-0.75604177,0.61986303,-0.21016818,0
0.78091335,-1.9808141,3.2829833,-0.39652339,-0.17830193,0.90054297,0
-3.5585954,-2.3423243,0.37591672,-0.52073991,-0.76418471,-0.3805939,0
-4.381207,1.6023788,-0.92482662,-0.75604177,0.61986303,-0.21016818,0
1.7062514,-0.5913868,-2.697125,0.39652339,0.17830193,-0.90054297,0
-2.3938935,-2.5514393,-0.79778862,-0.52073991,-0.76418471,-0.3805939,0
-0.1187315,5.4166751,-2.3111351,0.39652339,0.17830193,-0.90054297,0
-2.6904562,0.38154274,-4.4404316,0.39652339,0.17830193,-0.90054297,0
-2.7687783,4.1848097,0.89128923,-0.75604177,0.61986303,-0.21016818,0
3.6463077,0.70997387,2.7816274,0.52073991,0.76418471,0.3805939,0
-1.3439593,-3.2899764,-0.75144911,-0.52073991,-0.76418471,-0.3805939,0
-1.6392736,4.7824092,1.8365804,0.52073991,0.76418471,0.3805939,0
-2.5819817,4.6841679,1.6921139,-0.75604177,0.61986303,-0.21016818,0
0.061209679,-5.4200425,1.6028612,-0.52073991,-0.76418471,-0.3805939,0
-1.3504844,-2.4636114,-2.4017589,-0.52073991,-0.76418471,-0.3805939,0
1.5251846,-4.5024953,-2.2425125,-0.52073991,-0.76418471,-0.3805939,0
5.3258095,-0.072432518,-1.0006266,0.39652339,0.17830193,-0.90054297,0
1.0655437,-4.2174687,-2.1859155,-0.52073991,-0.76418471,-0.3805939,0
-1.8987627,3.3241932,-3.5092094,0.39652339,0.17830193,-0.90054297,0
0.16336012,3.015481,2.9179323,0.52073991,0.76418471,0.3805939,0
3.4939711,0.83144057,2.7461708,0.52073991,0.76418471,0.3805939,0
-5.3506966,0.99906492,0.78334045,-0.75604177,0.61986303,-0.21016818,0
-2.771153,0.21338272,-4.5092578,0.39652339,0.17830193,-0.90054297,0
-0.44424483,2.0342879,-3.1241553,0.39652339,0.17830193,-0.90054297,0
-2.0839086,3.6399698,-3.179337,-0.75604177,0.61986303,-0.21016818,0
4.7168288,1.8012457,-0.89779329,0.39652339,0.17830193,-0.90054297,0
-0.10576606,-5.507731,2.0073895,-0.52073991,-0.76418471,-0.3805939,0
3.8790009,1.5166199,-1.3230562,0.39652339,0.17830193,-0.90054297,0
-0.58525074,3.227587,-2.9499767,0.39652339,0.17830193,-0.90054297,0
1.5465612,-5.081728,0.86007166,0.75604177,-0.61986303,0.21016818,0
3.2028871,0.91285157,-1.7403026,0.39652339,0.17830193,-0.90054297,0
1.6234252,2.5422559,-2.1131527,0.39652339,0.17830193,-0.90054297,0
-2.8799496,3.9433141,0.57895112,-0.75604177,0.61986303,-0.21016818,0
4.011446,0.88777804,1.9250278,0.52073991,0.76418471,0.3805939,0
-3.4967785,-0.04997015,1.781743,-0.39652339,-0.17830193,0.90054297,0
-0.25345564,3.8784094,1.7555809,0.52073991,0.76418471,0.3805939,0
-1.7143786,-0.31234479,-4.1480341,0.39652339,0.17830193,-0.90054297,0
-1.4007194,0.73601961,2.8602917,-0.39652339,-0.17830193,0.90054297,0
3.3465397,-3.4764657,-0.88051677,0.75604177,-0.61986303,0.21016818,0
1.6489935,1.3615863,4.206058,0.52073991,0.76418471,0.3805939,0
-3.2971315,1.9757385,-3.7234163,-0.75604177,0.61986303,-0.21016818,0
-5.0373669,-0.80523038,-0.68707609,-0.52073991,-0.76418471,-0.3805939,0
1.6870785,3.749413,-0.64050752,0.52073991,0.76418471,0.3805939,0
4.4404588,0.64617848,1.8231409,0.52073991,0.76418471,0.3805939,0
3.4654717,-2.792892,0.7077558,0.75604177,-0.61986303,0.21016818,0
4.1964984,0.50434649,2.4417155,0.52073991,0.76418471,0.3805939,0
-1.0052829,-4.570169,1.3556283,-0.52073991,-0.76418471,-0.3805939,0
-1.982289,1.6341649,-3.8806024,0.39652339,0.17830193,-0.90054297,0
1.6270304,-3.6285782,-3.3333523,0.39652339,0.17830193,-0.90054297,0
0.14542675,-4.6136212,-0.13155997,-0.52073991,-0.76418471,-0.3805939,0
4.817174,-0.85560822,1.5590162,0.75604177,-0.61986303,0.21016818,0
0.61803806,-2.6327875,3.08218,-0.39652339,-0.17830193,0.90054297,0
4.0281944,-2.1716557,0.51571894,0.75604177,-0.61986303,0.21016818,0
-0.26660204,4.6438069,0.23674691,0.52073991,0.76418471,0.3805939,0
3.5155346,-3.039345,-0.19921541,0.75604177,-0.61986303,0.21016818,0
-5.5572548,0.60088825,0.35203028,-0.75604177,0.61986303,-0.21016818,0
-0.68012905,4.209547,1.6744857,0.52073991,0.76418471,0.3805939,0
3.425669,0.18115373,4.1453171,0.52073991,0.76418471,0.3805939,0
3.554888,0.61651456,3.0943656,0.52073991,0.76418471,0.3805939,0
-3.0389533,3.9988253,1.3146605,-0.75604177,0.61986303,-0.21016818,0
1.635093,3.7050049,-0.48021322,0.52073991,0.76418471,0.3805939,0
4.2833409,-0.061457515,3.4589577,0.52073991,0.76418471,0.3805939,0
-1.9814823,-1.4866263,-3.5000727,-0.52073991,-0.76418471,-0.3805939,0
3.3282757,-3.9610395,-2.2440002,0.75604177,-0.61986303,0.21016818,0
0.83623326,-0.29736328,-3.0219927,0.39652339,0.17830193,-0.90054297,0
-1.9468565,5.2911434,1.1975613,-0.75604177,0.61986303,-0.21016818,0
0.95089126,-0.15883183,3.7185683,-0.39652339,-0.17830193,0.90054297,0
-0.46578979,-4.5460086,0.56896776,-0.52073991,-0.76418471,-0.3805939,0
-3.9855156,2.9599106,1.6556063,-0.75604177,0.61986303,-0.21016818,0
0.42038572,2.610456,-2.6293669,0.39652339,0.17830193,-0.90054297,0
-2.9219503,4.5006399,2.3737972,-0.75604177,0.61986303,-0.21016818,0
3.3059835,-2.558728,1.9721236,0.75604177,-0.61986303,0.21016818,0
-0.097370148,4.4318047,0.43087107,0.52073991,0.76418471,0.3805939,0
-5.6310058,-0.098021269,-1.2948298,-0.52073991,-0.76418471,-0.3805939,0
-1.4987993,-3.7215469,0.32694668,-0.52073991,-0.76418471,-0.3805939,0
-1.4578769,-3.1096935,2.0736973,-0.39652339,-0.17830193,0.90054297,0
4.5031147,0.5580368,1.9143915,0.52073991,0.76418471,0.3805939,0
2.8557625,-2.7032235,3.1655407,0.75604177,-0.61986303,0.21016818,0
1.1418891,2.2249818,3.1663029,0.52073991,0.76418471,0.3805939,0
3.3056121,-3.7624989,-1.5769012,0.75604177,-0.61986303,0.21016818,0
3.9832883,-2.2181995,-2.0166082,0.39652339,0.17830193,-0.90054297,0
1.4644158,3.6670761,-0.17053127,0.52073991,0.76418471,0.3805939,0
-3.6694012,1.3630788,-4.1912031,-0.75604177,0.61986303,-0.21016818,0
-2.2846196,1.805855,2.6829171,-0.39652339,-0.17830193,0.90054297,0
-4.3096681,1.4875869,-1.5207376,-0.75604177,0.61986303,-0.21016818,0
2.3427978,-3.9150043,1.4368513,0.75604177,-0.61986303,0.21016818,0
2.5648923,-4.8648853,-2.1636405,0.75604177,-0.61986303,0.21016818,0
-1.9674847,-0.36626244,-4.2701564,0.39652339,0.17830193,-0.90054297,0
-4.183301,1.8208858,-0.99230003,-0.75604177,0.61986303,-0.21016818,0
-0.39722109,4.465312,0.77385819,0.52073991,0.76418471,0.3805939,0
3.5607402,-3.1200652,-0.59990835,0.75604177,-0.61986303,0.21016818,0
2.1837764,-4.4901986,0.31244349,0.75604177,-0.61986303,0.21016818,0
3.476274,-2.2351739,2.3138125,0.75604177,-0.61986303,0.21016818,0
1.2227383,0.77987969,4.0241261,-0.39652339,-0.17830193,0.90054297,0
-1.7704105,-1.6479228,-3.4650035,-0.52073991,-0.76418471,-0.3805939,0
-1.7950501,4.8587546,1.8964266,0.52073991,0.76418471,0.3805939,0
-2.0166974,5.1225238,1.6700764,0.52073991,0.76418471,0.3805939,0
5.3179646,-0.18177032,-1.0257287,0.39652339,0.17830193,-0.90054297,0
-2.1578758,4.3692102,-0.76245499,-0.75604177,0.61986303,-0.21016818,0
-2.6316266,1.2780415,-4.2370262,0.39652339,0.17830193,-0.90054297,0
1.2977178,-0.0024522543,3.9022441,-0.39652339,-0.17830193,0.90054297,0
1.9853964,2.652329,1.1541324,0.52073991,0.76418471,0.3805939,0
-1.6036314,4.5311761,-2.2785516,-0.75604177,0.61986303,-0.21016818,0
3.0151105,-4.1910567,-2.8335257,0.39652339,0.17830193,-0.90054297,0
-3.610472,1.6849489,-3.4538758,-0.75604177,0.61986303,-0.21016818,0
-2.8154988,3.7563663,2.8353522,-0.39652339,-0.17830193,0.90054297,0
-3.5255926,-1.4613371,1.4896138,-0.39652339,-0.17830193,0.90054297,0
3.8632154,-2.1594884,1.1450858,0.75604177,-0.61986303,0.21016818,0
-0.89418244,-4.3672748,0.79623234,-0.52073991,-0.76418471,-0.3805939,0
-3.0506389,3.2304895,-0.90940714,-0.75604177,0.61986303,-0.21016818,0
2.717664,-4.332593,-1.1432815,0.75604177,-0.61986303,0.21016818,0
-2.3309367,-0.82353646,-4.3533387,-0.52073991,-0.76418471,-0.3805939,0
3.1262605,-3.213119,0.68860459,0.75604177,-0.61986303,0.21016818,0
-3.6616516,2.6627283,-0.38593626,-0.75604177,0.61986303,-0.21016818,0
-5.1138248,-1.2822928,0.37541771,-0.52073991,-0.76418471,-0.3805939,0
-2.0847836,5.1762133,1.3547583,-0.75604177,0.61986303,-0.21016818,0
-2.491251,4.9652004,2.194593,-0.75604177,0.61986303,-0.21016818,0
1.0176716,1.9704142,3.8474021,0.52073991,0.76418471,0.3805939,0
5.7456117,0.089619637,1.0069528,0.75604177,-0.61986303,0.21016818,0
-0.36008883,4.673811,0.30441403,0.52073991,0.76418471,0.3805939,0
3.1412065,-1.7737737,4.3632507,-0.39652339,-0.17830193,0.90054297,0
5.1534014,0.17443562,1.7948713,0.52073991,0.76418471,0.3805939,0
-3.0836558,3.151305,-1.024179,-0.75604177,0.61986303,-0.21016818,0
-2.0346384,4.859736,2.2222681,0.52073991,0.76418471,0.3805939,0
-5.733511,0.30324602,0.10822344,-0.75604177,0.61986303,-0.21016818,0
2.7829604,-2.8026114,3.1343009,0.75604177,-0.61986303,0.21016818,0
-2.5499511,4.8775072,2.147119,-0.75604177,0.61986303,-0.21016818,0
-5.9023232,-0.15917826,-0.64836407,-0.75604177,0.61986303,-0.21016818,0
-0.64215422,2.3517756,-3.1484373,0.39652339,0.17830193,-0.90054297,0
0.070279419,-3.0434706,2.7596803,-0.39652339,-0.17830193,0.90054297,0
-1.9122772,3.7231188,-3.4361753,0.39652339,0.17830193,-0.90054297,0
3.2901423,2.6516128,-0.62962174,0.52073991,0.76418471,0.3805939,0
-1.1617827,5.4781427,-0.21368241,0.52073991,0.76418471,0.3805939,0
-3.0472047,-0.60377568,-3.8145723,-0.52073991,-0.76418471,-0.3805939,0
-1.0471215,4.9773035,0.63505614,0.52073991,0.76418471,0.3805939,0
1.3873305,2.3702674,2.5387681,0.52073991,0.76418471,0.3805939,0
-2.8803358,3.4267137,-0.9433043,-0.75604177,0.61986303,-0.21016818,0
2.4969049,2.5911121,0.57718706,0.52073991,0.76418471,0.3805939,0
-4.4254103,2.4816847,1.8275836,-0.75604177,0.61986303,-0.21016818,0
0.60374212,-3.1727591,-3.65171,-0.52073991,-0.76418471,-0.3805939,0
-2.1559668,1.7483511,-3.9344678,0.39652339,0.17830193,-0.90054297,0
1.230988,-5.597724,0.35909677,-0.52073991,-0.76418471,-0.3805939,0
1.4221349,1.4975551,4.243444,0.52073991,0.76418471,0.3805939,0
-2.7839835,-2.8359103,0.30712652,-0.52073991,-0.76418471,-0.3805939,0
4.7839198,-1.8562868,-1.2727289,0.75604177,-0.61986303,0.21016818,0
-4.9854703,1.1122513,-0.19666481,-0.75604177,0.61986303,-0.21016818,0
-1.6066103,-3.6535575,0.337942,-0.52073991,-0.76418471,-0.3805939,0
-1.6312363,-0.17966521,-4.0851555,0.39652339,0.17830193,-0.90054297,0
-3.5415545,2.0064273,-2.753638,-0.75604177,0.61986303,-0.21016818,0
-3.7082517,1.7770509,-2.8304892,-0.75604177,0.61986303,-0.21016818,0
0.40904236,0.69674003,-3.0132656,0.39652339,0.17830193,-0.90054297,0
1.1275612,-1.4476125,3.5411885,-0.39652339,-0.17830193,0.90054297,0
0.75175619,-3.9246254,-2.3445749,-0.52073991,-0.76418471,-0.3805939,0
0.64324474,-5.5770836,1.1218219,-0.52073991,-0.76418471,-0.3805939,0
1.9204388,-4.6740155,0.71760988,0.75604177,-0.61986303,0.21016818,0
-4.1919289,-0.63416469,-2.1873085,-0.52073991,-0.76418471,-0.3805939,0
1.564435,3.638484,-0.24997181,0.52073991,0.76418471,0.3805939,0
2.7108078,-3.1696825,2.3112297,0.75604177,-0.61986303,0.21016818,0
2.916018,-3.6583829,-2.7716916,0.39652339,0.17830193,-0.90054297,0
3.5915315,1.4456384,-1.4636879,0.39652339,0.17830193,-0.90054297,0
-4.5007224,-1.5059226,-0.014428139,-0.52073991,-0.76418471,-0.3805939,0
4.4878068,-1.4551487,0.97558928,0.75604177,-0.61986303,0.21016818,0
-2.8408129,-2.198422,-0.89511418,-0.52073991,-0.76418471,-0.3805939,0
