-3.3335738,2.2077174,-3.860893,-0.88333881,-0.097359762,-0.45851243,0
-3.0890296,3.7528872,0.63340557,-0.46672153,0.27325803,0.84113079,0
4.1031342,1.2870045,1.6362476,0.88333881,0.097359762,0.45851243,0
-3.3016257,-2.605572,2.5811124,-0.46672153,0.27325803,0.84113079,0
1.5799959,-4.3554568,1.3959818,-0.043399885,-0.95700115,0.28681934,0
2.9021564,-3.5385103,4.321867,-0.043399885,-0.95700115,0.28681934,0
4.683465,-1.0096083,-0.63990313,0.46672153,-0.27325803,-0.84113079,0
-3.7140064,-4.9637032,-1.4345517,-0.043399885,-0.95700115,0.28681934,0
-0.7671144,4.3033423,-1.4468651,0.043399885,0.95700115,-0.28681934,0
-1.7060583,-4.7747593,-0.50028896,-0.043399885,-0.95700115,0.28681934,0
4.5587015,1.5439414,0.70402551,0.88333881,0.097359762,0.45851243,0
4.1601176,4.5370617,0.078521252,0.043399885,0.95700115,-0.28681934,0
4.4838958,3.3485117,0.46496201,0.88333881,0.097359762,0.45851243,0
-2.9484506,4.1228828,-2.3790553,0.043399885,0.95700115,-0.28681934,0
-1.706533,2.3045788,-5.2622261,0.46672153,-0.27325803,-0.84113079,0
3.4053435,4.6423779,2.2680886,0.88333881,0.097359762,0.45851243,0
-0.77642548,-3.2111251,4.1790061,-0.46672153,0.27325803,0.84113079,0
1.1332636,-3.0751536,5.1944695,-0.46672153,0.27325803,0.84113079,0
1.9809151,0.23305535,-2.5431817,0.46672153,-0.27325803,-0.84113079,0
4.6374197,-1.1878116,1.1324271,0.88333881,0.097359762,0.45851243,0
-0.83958077,0.42774415,-4.1714497,0.46672153,-0.27325803,-0.84113079,0
4.0402179,1.2964587,-1.7459955,0.46672153,-0.27325803,-0.84113079,0
-1.010551,-2.7205737,3.8897307,-0.46672153,0.27325803,0.84113079,0
0.24382997,-3.3855731,4.429915,-0.043399885,-0.95700115,0.28681934,0
3.3820124,2.4711571,-2.4928415,0.46672153,-0.27325803,-0.84113079,0
0.46173906,0.1310339,-3.3529887,0.46672153,-0.27325803,-0.84113079,0
-0.3674835,-5.1191387,-2.1074808,0.46672153,-0.27325803,-0.84113079,0
3.407887,4.0341606,-1.7132816,0.043399885,0.95700115,-0.28681934,0
1.9723282,2.1433949,3.9646964,-0.46672153,0.27325803,0.84113079,0
1.4898986,2.2324646,-3.4651816,0.46672153,-0.27325803,-0.84113079,0
3.2363009,0.62778139,-1.9748354,0.46672153,-0.27325803,-0.84113079,0
3.5135984,3.5701582,2.2872062,0.88333881,0.097359762,0.45851243,0
3.7734032,-1.6177497,2.8882747,0.88333881,0.097359762,0.45851243,0
4.7518067,0.34703994,0.58614826,0.88333881,0.097359762,0.45851243,0
-1.2999198,3.4829123,1.7138425,-0.46672153,0.27325803,0.84113079,0
-0.067673683,-1.5510498,-3.1002882,0.46672153,-0.27325803,-0.84113079,0
2.9971499,-2.2399077,4.5158606,0.88333881,0.097359762,0.45851243,0
2.6919026,-0.21182418,4.6732869,0.88333881,0.097359762,0.45851243,0
3.6932716,4.5415888,0.022987366,0.043399885,0.95700115,-0.28681934,0
-1.2442403,2.5646472,-5.090199,0.46672153,-0.27325803,-0.84113079,0
-5.3326693,-2.140888,1.3031781,-0.46672153,0.27325803,0.84113079,0
-3.5914726,-3.8722656,2.2256794,-0.043399885,-0.95700115,0.28681934,0
1.5682769,-4.2042112,1.8988552,-0.043399885,-0.95700115,0.28681934,0
-1.6337018,0.39770246,-4.6023269,0.46672153,-0.27325803,-0.84113079,0
4.036078,-2.3944609,2.5471499,0.88333881,0.097359762,0.45851243,0
-3.9300535,3.6693521,0.19388103,-0.46672153,0.27325803,0.84113079,0
-3.5236616,-4.3558626,0.62237167,-0.043399885,-0.95700115,0.28681934,0
-3.7116368,-4.5010719,0.1094203,-0.043399885,-0.95700115,0.28681934,0
2.5991395,4.9343476,1.1679077,0.043399885,0.95700115,-0.28681934,0
-5.269136,0.67300487,0.19390762,-0.88333881,-0.097359762,-0.45851243,0
-1.1203053,4.2007332,-1.8426743,0.043399885,0.95700115,-0.28681934,0
-5.437108,-1.3403869,0.94503093,-0.88333881,-0.097359762,-0.45851243,0
4.1880774,0.30981874,-1.3434229,0.46672153,-0.27325803,-0.84113079,0
3.7797995,0.43275788,2.4405527,0.88333881,0.097359762,0.45851243,0
-1.1632657,4.9760647,0.73779488,0.043399885,0.95700115,-0.28681934,0
1.168643,4.913887,0.88318539,0.043399885,0.95700115,-0.28681934,0
4.062861,1.4296315,1.6835506,0.88333881,0.097359762,0.45851243,0
3.1017461,1.1736917,3.5895138,0.88333881,0.097359762,0.45851243,0
4.0723109,1.772715,1.5924933,0.88333881,0.097359762,0.45851243,0
-0.80537021,4.4399128,-0.99697542,0.043399885,0.95700115,-0.28681934,0
3.5954905,-1.2540712,3.1538069,0.88333881,0.097359762,0.45851243,0
-1.8376155,3.6496568,-3.7899356,0.043399885,0.95700115,-0.28681934,0
-3.4110594,3.7763267,-3.6053743,0.043399885,0.95700115,-0.28681934,0
-1.7924635,5.0609632,0.9258604,0.043399885,0.95700115,-0.28681934,0
-3.0525553,-4.5776453,-0.046343327,-0.043399885,-0.95700115,0.28681934,0
-3.3294072,1.921447,-3.8081341,-0.88333881,-0.097359762,-0.45851243,0
-0.33353162,3.8482664,-2.8996649,0.043399885,0.95700115,-0.28681934,0
0.2303201,-4.2901993,-2.0450723,0.46672153,-0.27325803,-0.84113079,0
1.7883039,-3.8983083,2.9528222,-0.043399885,-0.95700115,0.28681934,0
1.1677085,3.7885299,-2.8718204,0.043399885,0.95700115,-0.28681934,0
0.94753784,4.9435663,0.94875574,0.043399885,0.95700115,-0.28681934,0
0.33502388,0.077540874,-3.4059215,0.46672153,-0.27325803,-0.84113079,0
0.42179155,1.8434926,3.2017732,-0.46672153,0.27325803,0.84113079,0
1.0617477,3.7591634,-2.9858389,0.043399885,0.95700115,-0.28681934,0
3.3963048,-4.7003298,-0.15511084,0.46672153,-0.27325803,-0.84113079,0
2.8906083,-0.39332509,4.3290153,0.88333881,0.097359762,0.45851243,0
3.4967341,3.4647834,-2.7519846,0.46672153,-0.27325803,-0.84113079,0
0.44485068,1.8885176,3.1999409,-0.46672153,0.27325803,0.84113079,0
3.2262931,3.6810462,2.8171628,0.88333881,0.097359762,0.45851243,0
4.64676,4.4229097,-0.22872066,0.043399885,0.95700115,-0.28681934,0
-2.7364931,4.2037067,-2.077307,0.043399885,0.95700115,-0.28681934,0
-2.9506686,-5.0916052,-1.7458045,-0.043399885,-0.95700115,0.28681934,0
4.5009279,0.38164222,1.0621274,0.88333881,0.097359762,0.45851243,0
4.8281159,-4.1667466,1.3975868,0.88333881,0.097359762,0.45851243,0
-5.0291991,-1.6277082,1.3048489,-0.46672153,0.27325803,0.84113079,0
2.5924716,-4.7294307,0.30138373,-0.043399885,-0.95700115,0.28681934,0
1.0937264,4.1809368,-1.5737123,0.043399885,0.95700115,-0.28681934,0
3.0045443,2.3998051,3.5164256,0.88333881,0.097359762,0.45851243,0
0.53023791,-4.2865028,1.4672089,-0.043399885,-0.95700115,0.28681934,0
-0.67074168,-4.4038076,0.89408445,-0.043399885,-0.95700115,0.28681934,0
-4.6192427,-1.1985269,1.392895,-0.46672153,0.27325803,0.84113079,0
5.2530766,-2.6132708,0.24902618,0.88333881,0.097359762,0.45851243,0
-2.2399619,-4.4233823,0.59132719,-0.043399885,-0.95700115,0.28681934,0
4.9399557,1.1667697,-1.2046223,0.46672153,-0.27325803,-0.84113079,0
-1.0412248,-4.1444902,1.7032647,-0.043399885,-0.95700115,0.28681934,0
2.1147978,4.7412562,3.1997824,-0.46672153,0.27325803,0.84113079,0
-4.8824625,-0.93543005,1.1613686,-0.46672153,0.27325803,0.84113079,0
-3.542686,-1.9143491,2.2227974,-0.46672153,0.27325803,0.84113079,0
2.3712673,4.7958975,0.67147541,0.043399885,0.95700115,-0.28681934,0
1.6478319,3.8743896,-2.5126934,0.043399885,0.95700115,-0.28681934,0
-5.4660988,-3.1778629,1.3910494,-0.88333881,-0.097359762,-0.45851243,0
4.1080189,-3.9606946,-0.00048422813,0.46672153,-0.27325803,-0.84113079,0
-1.1976317,4.8080511,0.17200089,0.043399885,0.95700115,-0.28681934,0
4.1248636,3.8883429,1.042021,0.88333881,0.097359762,0.45851243,0
0.43722624,4.2560186,-1.422533,0.043399885,0.95700115,-0.28681934,0
3.3577161,1.1402011,3.1034911,0.88333881,0.097359762,0.45851243,0
5.1016598,-0.49835467,0.091656089,0.88333881,0.097359762,0.45851243,0
2.8995872,-1.3737284,4.5198941,0.88333881,0.097359762,0.45851243,0
0.50780129,0.2162528,3.7781386,-0.46672153,0.27325803,0.84113079,0
4.4355497,2.3377697,-1.8649273,0.46672153,-0.27325803,-0.84113079,0
4.1210852,3.0482249,1.2276897,0.88333881,0.097359762,0.45851243,0
-2.8275628,2.8206339,-4.9658842,-0.88333881,-0.097359762,-0.45851243,0
4.9492149,-0.41728806,-0.68487275,0.46672153,-0.27325803,-0.84113079,0
1.5000254,3.4832761,-3.8400464,0.043399885,0.95700115,-0.28681934,0
-1.3842974,-4.4625988,0.58995152,-0.043399885,-0.95700115,0.28681934,0
-0.94357747,-1.5898235,3.5595465,-0.46672153,0.27325803,0.84113079,0
3.4062066,-4.2869778,1.9007998,-0.043399885,-0.95700115,0.28681934,0
4.1106162,-3.5051508,-0.14703584,0.46672153,-0.27325803,-0.84113079,0
1.0409427,-4.351171,1.3287153,-0.043399885,-0.95700115,0.28681934,0
0.67858958,1.4046345,3.4868355,-0.46672153,0.27325803,0.84113079,0
0.007506609,-3.0368669,4.5573788,-0.46672153,0.27325803,0.84113079,0
1.4717395,3.8318062,-2.6814232,0.043399885,0.95700115,-0.28681934,0
-0.66155791,3.7011914,-3.4400291,0.043399885,0.95700115,-0.28681934,0
-0.77517152,1.0700908,-4.3443899,0.46672153,-0.27325803,-0.84113079,0
-1.6916633,3.9087458,-2.903374,0.043399885,0.95700115,-0.28681934,0
0.9718914,3.9183104,2.8329635,-0.46672153,0.27325803,0.84113079,0
-2.9680409,2.9181266,-4.71595,-0.88333881,-0.097359762,-0.45851243,0
-2.8020031,-2.8635817,2.9421597,-0.46672153,0.27325803,0.84113079,0
4.4280272,-0.1326704,1.3117827,0.88333881,0.097359762,0.45851243,0
4.2913799,2.0743158,1.1064085,0.88333881,0.097359762,0.45851243,0
2.9500637,3.6476028,-3.0723448,0.043399885,0.95700115,-0.28681934,0
5.0072494,-0.79375482,-0.53036803,0.46672153,-0.27325803,-0.84113079,0
-0.36629987,-3.9557385,-2.4847775,0.46672153,-0.27325803,-0.84113079,0
-4.3591127,-3.9031065,2.0066199,-0.043399885,-0.95700115,0.28681934,0
-2.5862675,0.64350319,-4.968462,-0.88333881,-0.097359762,-0.45851243,0
-2.5035114,4.8510351,0.11782193,0.043399885,0.95700115,-0.28681934,0
-4.2673874,-3.4955652,-0.85084629,-0.88333881,-0.097359762,-0.45851243,0
-2.8065233,-4.0274982,1.8265057,-0.043399885,-0.95700115,0.28681934,0
2.0284944,-2.0216012,5.3489432,-0.46672153,0.27325803,0.84113079,0
3.2018456,1.2455006,3.3814209,0.88333881,0.097359762,0.45851243,0
5.3657808,2.8743765,-1.1333418,0.88333881,0.097359762,0.45851243,0
-3.4206119,2.8781786,-3.8355761,-0.88333881,-0.097359762,-0.45851243,0
-2.9024658,4.1932483,-2.1373148,0.043399885,0.95700115,-0.28681934,0
-0.75032693,-4.3969884,0.90479612,-0.043399885,-0.95700115,0.28681934,0
4.9824772,-0.26280093,-0.71660435,0.46672153,-0.27325803,-0.84113079,0
-2.1182344,-3.7257953,-3.5315819,0.46672153,-0.27325803,-0.84113079,0
0.41260529,1.2963595,-3.7588315,0.46672153,-0.27325803,-0.84113079,0
-3.3984618,-0.90302551,-3.0753541,-0.88333881,-0.097359762,-0.45851243,0
5.2899141,-0.014606953,-0.37374008,0.88333881,0.097359762,0.45851243,0
2.7394071,4.2314916,-1.1560144,0.043399885,0.95700115,-0.28681934,0
3.2637601,4.3957319,-0.52867079,0.043399885,0.95700115,-0.28681934,0
2.4967084,-3.5584793,4.1938877,-0.043399885,-0.95700115,0.28681934,0
-0.078971624,-4.1377134,1.871479,-0.043399885,-0.95700115,0.28681934,0
-2.6407304,-4.2203116,-3.6608477,0.46672153,-0.27325803,-0.84113079,0
-4.0008583,-3.0268798,-1.4638433,-0.88333881,-0.097359762,-0.45851243,0
-0.044732332,3.5662804,-3.7968392,0.043399885,0.95700115,-0.28681934,0
-2.8086023,4.5026064,-1.0909092,0.043399885,0.95700115,-0.28681934,0
2.0808249,-2.5441837,5.5477509,-0.46672153,0.27325803,0.84113079,0
4.5049043,-3.9213569,0.2069571,0.46672153,-0.27325803,-0.84113079,0
-3.3733172,-2.1838062,-2.8518376,-0.88333881,-0.097359762,-0.45851243,0
-3.9890542,-4.7218122,-0.6690774,-0.043399885,-0.95700115,0.28681934,0
-4.1053233,0.35645747,-1.9810003,-0.88333881,-0.097359762,-0.45851243,0
1.99052,-2.7623501,5.5685191,-0.46672153,0.27325803,0.84113079,0
3.8173842,-4.7803736,0.31675315,-0.043399885,-0.95700115,0.28681934,0
-2.2241564,-4.5342178,0.22390556,-0.043399885,-0.95700115,0.28681934,0
-4.4747887,-2.4573853,1.8820138,-0.46672153,0.27325803,0.84113079,0
1.2360063,4.8782969,2.6676435,-0.46672153,0.27325803,0.84113079,0
0.29013562,-3.3172269,4.6649647,-0.043399885,-0.95700115,0.28681934,0
2.8687425,-2.7156162,4.8642521,0.88333881,0.097359762,0.45851243,0
-2.8061132,3.6507425,-3.9328604,0.043399885,0.95700115,-0.28681934,0
-3.6433845,-2.3131859,-2.3040726,-0.88333881,-0.097359762,-0.45851243,0
4.3579302,2.657836,-2.0119758,0.46672153,-0.27325803,-0.84113079,0
-2.3176591,4.8449945,0.1257906,0.043399885,0.95700115,-0.28681934,0
3.0509157,-2.7389617,4.5182457,0.88333881,0.097359762,0.45851243,0
5.424418,2.5551956,-1.1785331,0.88333881,0.097359762,0.45851243,0
4.0760365,2.1943252,1.4957927,0.88333881,0.097359762,0.45851243,0
5.2788248,3.1701236,-1.0286169,0.88333881,0.097359762,0.45851243,0
3.9642205,-2.516865,2.7115762,0.88333881,0.097359762,0.45851243,0
-5.2551994,-4.1080437,1.1822572,-0.88333881,-0.097359762,-0.45851243,0
-0.56092501,4.6525898,1.7438984,-0.46672153,0.27325803,0.84113079,0
2.084059,-4.4614792,1.1184993,-0.043399885,-0.95700115,0.28681934,0
-2.6889408,0.1423068,2.028373,-0.46672153,0.27325803,0.84113079,0
0.40306997,3.5621643,-3.7428155,0.043399885,0.95700115,-0.28681934,0
-1.6929674,4.8338718,0.18320227,0.043399885,0.95700115,-0.28681934,0
-4.1696701,3.2720125,-2.4761178,-0.88333881,-0.097359762,-0.45851243,0
4.1764221,-1.3768182,-0.80195242,0.46672153,-0.27325803,-0.84113079,0
-1.1687253,-1.198482,-3.8257718,0.46672153,-0.27325803,-0.84113079,0
-0.74096167,4.7145438,1.6238739,-0.46672153,0.27325803,0.84113079,0
5.4053497,2.5487013,-1.1404195,0.88333881,0.097359762,0.45851243,0
3.3099413,-1.3890905,3.7325962,0.88333881,0.097359762,0.45851243,0
-1.9063563,-4.4248939,0.6367631,-0.043399885,-0.95700115,0.28681934,0
5.2212949,-2.9876246,0.38974178,0.88333881,0.097359762,0.45851243,0
4.9631171,2.5798309,-0.29505396,0.88333881,0.097359762,0.45851243,0
3.0649607,-1.3887587,-1.4147944,0.46672153,-0.27325803,-0.84113079,0
3.9012313,-3.5996847,3.0628524,0.88333881,0.097359762,0.45851243,0
-4.0229683,-3.2015884,-1.3841496,-0.88333881,-0.097359762,-0.45851243,0
0.87562037,-3.1556125,5.0776486,-0.46672153,0.27325803,0.84113079,0
3.1102328,0.46566838,3.7235053,0.88333881,0.097359762,0.45851243,0
-0.76458859,-4.4051228,0.87549639,-0.043399885,-0.95700115,0.28681934,0
-3.6925879,-3.3963945,-1.9792732,-0.88333881,-0.097359762,-0.45851243,0
5.334352,3.0609303,-1.1124053,0.88333881,0.097359762,0.45851243,0
2.468874,5.3345737,2.4835911,0.043399885,0.95700115,-0.28681934,0
0.82881927,-4.9940605,-0.8484478,-0.043399885,-0.95700115,0.28681934,0
2.0131388,0.12834096,4.6419711,-0.46672153,0.27325803,0.84113079,0
-1.0661085,-3.7451782,3.0318427,-0.043399885,-0.95700115,0.28681934,0
-4.0466428,-1.0961394,1.6773534,-0.46672153,0.27325803,0.84113079,0
0.95689344,-0.86875701,-2.7534392,0.46672153,-0.27325803,-0.84113079,0
3.1223063,-0.81991351,3.9732234,0.88333881,0.097359762,0.45851243,0
-4.7858362,-4.0734277,1.3737583,-0.043399885,-0.95700115,0.28681934,0
-2.9833477,-5.1311874,-1.8828199,-0.043399885,-0.95700115,0.28681934,0
3.1799874,4.2515612,-1.0223851,0.043399885,0.95700115,-0.28681934,0
-3.6632292,-4.9295549,-1.3129277,-0.043399885,-0.95700115,0.28681934,0
-5.1116381,3.6958516,-0.75138354,-0.88333881,-0.097359762,-0.45851243,0
-0.40183139,2.8965807,-4.7306042,0.46672153,-0.27325803,-0.84113079,0
-2.1963577,-1.6659572,-4.2441096,0.46672153,-0.27325803,-0.84113079,0
2.9185822,-4.409255,1.4190276,-0.043399885,-0.95700115,0.28681934,0
-4.1620116,2.5612633,-2.3399527,-0.88333881,-0.097359762,-0.45851243,0
3.1505771,-3.7358308,3.7010765,-0.043399885,-0.95700115,0.28681934,0
-1.9104271,-0.77813911,-4.3738794,0.46672153,-0.27325803,-0.84113079,0
4.5977521,-6.5803528e-05,0.95664483,0.88333881,0.097359762,0.45851243,0
-4.7938251,1.6828202,-0.93621707,-0.88333881,-0.097359762,-0.45851243,0
4.7487555,1.4476666,0.3583231,0.88333881,0.097359762,0.45851243,0
-1.1391362,-4.1650229,1.6199393,-0.043399885,-0.95700115,0.28681934,0
2.5511966,0.16766977,4.8637815,0.88333881,0.097359762,0.45851243,0
-0.9192996,-2.5756798,-3.2399619,0.46672153,-0.27325803,-0.84113079,0
0.85070682,4.4058013,-0.86020088,0.043399885,0.95700115,-0.28681934,0
-3.7083948,-3.8987885,-1.8421428,-0.88333881,-0.097359762,-0.45851243,0
-1.2038817,3.507216,-4.1693087,0.043399885,0.95700115,-0.28681934,0
-4.2308874,-3.9342704,-0.82801104,-0.88333881,-0.097359762,-0.45851243,0
4.0944662,-1.6874415,-0.74651587,0.46672153,-0.27325803,-0.84113079,0
-2.7252765,-3.9780011,-3.7193317,-0.88333881,-0.097359762,-0.45851243,0
4.8788919,-0.71736622,0.56732976,0.88333881,0.097359762,0.45851243,0
-3.1973834,-3.6333075,2.9728346,-0.46672153,0.27325803,0.84113079,0
1.3750358,-3.1699827,5.3204193,-0.043399885,-0.95700115,0.28681934,0
-1.0660534,-3.8614936,2.643754,-0.043399885,-0.95700115,0.28681934,0
2.3132119,3.9366817,-2.2041669,0.043399885,0.95700115,-0.28681934,0
4.1466441,0.71789181,1.6732681,0.88333881,0.097359762,0.45851243,0
1.6604028,4.1477709,-1.5986285,0.043399885,0.95700115,-0.28681934,0
-4.068181,4.5564251,-1.1019301,0.043399885,0.95700115,-0.28681934,0
-2.7265909,-5.5130224,-3.1179984,-0.043399885,-0.95700115,0.28681934,0
0.75884503,-4.8898921,-1.5569854,0.46672153,-0.27325803,-0.84113079,0
-4.021667,-2.03443,1.9960341,-0.46672153,0.27325803,0.84113079,0
-0.33285236,2.4372315,-4.5431013,0.46672153,-0.27325803,-0.84113079,0
2.9142351,-4.6754789,-0.43067217,0.46672153,-0.27325803,-0.84113079,0
-3.1473837,-0.54838026,-3.6343694,-0.88333881,-0.097359762,-0.45851243,0
-0.92507714,4.1715941,1.698101,-0.46672153,0.27325803,0.84113079,0
2.4928665,-4.3419676,1.5791206,-0.043399885,-0.95700115,0.28681934,0
2.3295369,-3.6321096,3.9229188,-0.043399885,-0.95700115,0.28681934,0
2.1326284,-3.8366787,3.2105584,-0.043399885,-0.95700115,0.28681934,0
-3.417109,0.080123156,-3.2481894,-0.88333881,-0.097359762,-0.45851243,0
-4.1087952,-2.4499912,2.0826917,-0.46672153,0.27325803,0.84113079,0
-1.3415852,4.8398638,1.2498908,-0.46672153,0.27325803,0.84113079,0
3.6725001,2.4374566,2.2215924,0.88333881,0.097359762,0.45851243,0
-3.2860119,4.8333426,0.17309809,-0.46672153,0.27325803,0.84113079,0
2.7932434,-1.4965037,4.7508402,0.88333881,0.097359762,0.45851243,0
-4.6886086,1.4128627,-1.0815966,-0.88333881,-0.097359762,-0.45851243,0
3.1038961,4.3428617,2.9124355,0.88333881,0.097359762,0.45851243,0
4.1827059,4.6908407,0.76018476,0.88333881,0.097359762,0.45851243,0
3.9536171,-2.5258007,2.7339015,0.88333881,0.097359762,0.45851243,0
1.4894683,-4.1647282,2.0186677,-0.043399885,-0.95700115,0.28681934,0
1.2628684,-0.59101343,4.459362,-0.46672153,0.27325803,0.84113079,0
-2.5850282,1.5488678,-5.1630902,-0.88333881,-0.097359762,-0.45851243,0
2.7885184,-4.0681272,2.5375535,-0.043399885,-0.95700115,0.28681934,0
3.8825195,4.1575975,-1.2296023,0.043399885,0.95700115,-0.28681934,0
1.1227455,-2.3683271,4.9590082,-0.46672153,0.27325803,0.84113079,0
-0.29298258,2.1899927,-4.4406576,0.46672153,-0.27325803,-0.84113079,0
1.1983762,3.142483,3.2106771,-0.46672153,0.27325803,0.84113079,0
-2.7764955,3.4577277,-4.5723925,0.043399885,0.95700115,-0.28681934,0
-3.7724638,1.1509962,-2.7909746,-0.88333881,-0.097359762,-0.45851243,0
-1.967559,-3.5488539,3.5504966,-0.043399885,-0.95700115,0.28681934,0
2.8500049,-4.6635923,0.56002712,-0.043399885,-0.95700115,0.28681934,0
1.7624798,-1.4691532,5.0218649,-0.46672153,0.27325803,0.84113079,0
2.7890081,-0.34158754,4.5137663,0.88333881,0.097359762,0.45851243,0
4.1884799,0.046844363,1.7351606,0.88333881,0.097359762,0.45851243,0
-1.9781375,-0.055193663,-4.6463132,0.46672153,-0.27325803,-0.84113079,0
-2.6162469,-0.48009443,2.2709084,-0.46672153,0.27325803,0.84113079,0
5.3292789,0.076508284,-0.46892333,0.88333881,0.097359762,0.45851243,0
3.1234818,-0.48562288,-1.6757243,0.46672153,-0.27325803,-0.84113079,0
1.2690408,3.2059371,-3.9039812,0.46672153,-0.27325803,-0.84113079,0
-5.2506819,0.50375605,0.19429326,-0.88333881,-0.097359762,-0.45851243,0
-1.3191438,1.1451075,-4.6705961,0.46672153,-0.27325803,-0.84113079,0
5.365169,2.7304163,-1.1015944,0.88333881,0.097359762,0.45851243,0
-2.6639366,1.0187066,-4.8984995,-0.88333881,-0.097359762,-0.45851243,0
-1.8050539,-2.0429988,3.2287583,-0.46672153,0.27325803,0.84113079,0
0.68964648,-2.3554313,4.7145019,-0.46672153,0.27325803,0.84113079,0
-5.2460728,2.5289528,-0.16586268,-0.46672153,0.27325803,0.84113079,0
-1.7380502,4.623517,-0.5254879,0.043399885,0.95700115,-0.28681934,0
5.1245852,3.9851091,-1.6171827,0.043399885,0.95700115,-0.28681934,0
-4.379282,0.64572072,-1.5146315,-0.88333881,-0.097359762,-0.45851243,0
2.673728,1.6812446,4.3063316,0.88333881,0.097359762,0.45851243,0
-3.3831439,-1.5851792,-2.9600177,-0.88333881,-0.097359762,-0.45851243,0
-0.39671969,-1.3431304,-3.3504138,0.46672153,-0.27325803,-0.84113079,0
1.1911541,4.472651,-0.58563662,0.043399885,0.95700115,-0.28681934,0
2.5160332,-4.4357305,-0.72951126,0.46672153,-0.27325803,-0.84113079,0
-1.4322541,3.7010946,-3.5569713,0.043399885,0.95700115,-0.28681934,0
-2.4174848,-4.9852705,-1.3103309,-0.043399885,-0.95700115,0.28681934,0
0.22040367,-3.4333777,4.2668629,-0.043399885,-0.95700115,0.28681934,0
0.47260821,4.9766064,2.2121158,-0.46672153,0.27325803,0.84113079,0
-0.88171244,-0.054140329,-4.0382776,0.46672153,-0.27325803,-0.84113079,0
1.3779123,-3.9558773,2.6986408,-0.043399885,-0.95700115,0.28681934,0
0.61083436,-3.5027013,4.0946369,-0.043399885,-0.95700115,0.28681934,0
-2.6312451,-0.41905522,-4.6561875,-0.88333881,-0.097359762,-0.45851243,0
0.40413404,2.9756088,-4.3090687,0.46672153,-0.27325803,-0.84113079,0
-2.6948161,-3.0100653,-3.9835453,-0.88333881,-0.097359762,-0.45851243,0
0.82371354,-4.5201044,-1.6411245,0.46672153,-0.27325803,-0.84113079,0
-2.9427433,2.7911952,-4.7377348,-0.88333881,-0.097359762,-0.45851243,0
-0.087530829,-4.8172827,-0.39726639,-0.043399885,-0.95700115,0.28681934,0
3.304317,0.99706197,3.2367601,0.88333881,0.097359762,0.45851243,0
-5.335289,-1.3069394,0.74176955,-0.88333881,-0.097359762,-0.45851243,0
3.2434578,1.5890737,3.2283001,0.88333881,0.097359762,0.45851243,0
-2.8304329,1.995746,-4.7852011,-0.88333881,-0.097359762,-0.45851243,0
-4.587801,-4.0427027,1.5062423,-0.043399885,-0.95700115,0.28681934,0
4.1443424,-0.24662232,-1.1869193,0.46672153,-0.27325803,-0.84113079,0
-5.1456666,0.65110373,-0.039310277,-0.88333881,-0.097359762,-0.45851243,0
-3.5939019,-2.8728571,2.5057693,-0.46672153,0.27325803,0.84113079,0
-1.6175621,-2.9590726,-3.5028567,0.46672153,-0.27325803,-0.84113079,0
0.67932987,-3.4890285,4.1506224,-0.043399885,-0.95700115,0.28681934,0
-4.1402168,0.6511541,-1.9763527,-0.88333881,-0.097359762,-0.45851243,0
-4.9289293,0.75467896,-0.47885352,-0.88333881,-0.097359762,-0.45851243,0
-0.61101866,-2.3750753,-3.1340752,0.46672153,-0.27325803,-0.84113079,0
3.5328076,-0.71656132,-1.3735752,0.46672153,-0.27325803,-0.84113079,0
-4.2475295,-1.145952,-1.3880162,-0.88333881,-0.097359762,-0.45851243,0
-0.57637018,-4.2349777,1.471683,-0.043399885,-0.95700115,0.28681934,0
-0.82551086,0.73469067,2.8698938,-0.46672153,0.27325803,0.84113079,0
-4.4136629,-2.4904218,-0.7824719,-0.88333881,-0.097359762,-0.45851243,0
-5.2179718,-3.1757569,0.91257668,-0.88333881,-0.097359762,-0.45851243,0
-2.8835063,-2.2471457,-3.7820249,-0.88333881,-0.097359762,-0.45851243,0
-1.4345387,4.6066961,1.2740624,-0.46672153,0.27325803,0.84113079,0
-0.45939422,4.8051128,0.27390337,0.043399885,0.95700115,-0.28681934,0
-3.3243308,0.93596053,1.4179776,-0.46672153,0.27325803,0.84113079,0
-1.668124,-3.9442015,2.2766881,-0.043399885,-0.95700115,0.28681934,0
1.9023123,-4.3618488,1.4234262,-0.043399885,-0.95700115,0.28681934,0
-4.1972861,-4.0066423,1.6856494,-0.043399885,-0.95700115,0.28681934,0
-5.4014292,-1.3077133,0.86935687,-0.88333881,-0.097359762,-0.45851243,0
3.7465529,4.3508682,1.6726377,0.88333881,0.097359762,0.45851243,0
0.12550412,4.9155989,0.73105431,0.043399885,0.95700115,-0.28681934,0
4.2955351,3.8610172,0.71901941,0.88333881,0.097359762,0.45851243,0
1.118299,-4.2895031,1.5461817,-0.043399885,-0.95700115,0.28681934,0
-4.8930073,3.7559633,-1.1853483,-0.88333881,-0.097359762,-0.45851243,0
-2.3930125,0.11173844,-4.930748,0.46672153,-0.27325803,-0.84113079,0
-0.93110389,-1.28916,3.468791,-0.46672153,0.27325803,0.84113079,0
-3.5605116,-0.36391309,-2.8776343,-0.88333881,-0.097359762,-0.45851243,0
-0.1254034,-1.799789,-3.0515132,0.46672153,-0.27325803,-0.84113079,0
-0.092768312,4.056056,-2.1699243,0.043399885,0.95700115,-0.28681934,0
-5.4107485,-3.7624428,1.4085445,-0.88333881,-0.097359762,-0.45851243,0
-1.8825359,0.13421392,2.4784548,-0.46672153,0.27325803,0.84113079,0
3.3315833,2.5529509,-2.5473952,0.46672153,-0.27325803,-0.84113079,0
1.6756544,-4.6329603,0.48453808,-0.043399885,-0.95700115,0.28681934,0
1.7727129,-4.8453355,-0.20938683,-0.043399885,-0.95700115,0.28681934,0
0.74640989,-2.3978014,4.7597637,-0.46672153,0.27325803,0.84113079,0
-1.943424,0.97891879,2.1702507,-0.46672153,0.27325803,0.84113079,0
-2.8271053,3.9407949,0.71769476,-0.46672153,0.27325803,0.84113079,0
2.5447459,4.7013874,0.38238335,0.043399885,0.95700115,-0.28681934,0
3.7194118,-2.5461705,3.1894295,0.88333881,0.097359762,0.45851243,0
0.73843908,-2.4363985,4.7678804,-0.46672153,0.27325803,0.84113079,0
-0.98617935,0.19921637,-4.1785517,0.46672153,-0.27325803,-0.84113079,0
3.7869072,3.0835025,-2.4671078,0.46672153,-0.27325803,-0.84113079,0
0.46028292,3.9182796,-2.5459452,0.043399885,0.95700115,-0.28681934,0
1.3112926,4.7701054,0.42502785,0.043399885,0.95700115,-0.28681934,0
-5.1338167,3.6445403,-0.69776106,-0.88333881,-0.097359762,-0.45851243,0
1.9565154,4.4121876,-0.67156839,0.043399885,0.95700115,-0.28681934,0
2.8053327,-1.9460911,4.8230147,0.88333881,0.097359762,0.45851243,0
-2.4807835,-2.680536,-4.0723238,0.46672153,-0.27325803,-0.84113079,0
-3.8171744,2.7817929,-3.0511186,-0.88333881,-0.097359762,-0.45851243,0
-3.8556318,-4.1720052,-1.5004721,-0.88333881,-0.097359762,-0.45851243,0
0.42856079,5.0980864,1.3857996,0.043399885,0.95700115,-0.28681934,0
-0.26930094,-4.3137469,-2.3146491,0.46672153,-0.27325803,-0.84113079,0
2.8638129,2.4672515,3.7732282,0.88333881,0.097359762,0.45851243,0
-0.063800961,5.1623421,1.5256932,0.043399885,0.95700115,-0.28681934,0
-4.724803,4.0652776,-0.37572861,-0.46672153,0.27325803,0.84113079,0
0.47788572,-3.3559866,-2.2112021,0.46672153,-0.27325803,-0.84113079,0
-0.95470333,3.3716452,-4.583951,0.043399885,0.95700115,-0.28681934,0
-5.1586127,-3.5899389,0.88616657,-0.88333881,-0.097359762,-0.45851243,0
-0.39026254,-4.2090793,1.586257,-0.043399885,-0.95700115,0.28681934,0
4.7441521,4.0603061,-0.18757343,0.88333881,0.097359762,0.45851243,0
4.8218374,-1.8897808,0.9261955,0.88333881,0.097359762,0.45851243,0
-2.7288811,4.9267569,0.33637524,0.043399885,0.95700115,-0.28681934,0
5.1098671,3.3313088,-0.73733902,0.88333881,0.097359762,0.45851243,0
-2.6664827,-5.0171051,-1.4542253,-0.043399885,-0.95700115,0.28681934,0
2.5537171,4.0091753,-1.9258933,0.043399885,0.95700115,-0.28681934,0
3.809608,3.3290141,1.7681384,0.88333881,0.097359762,0.45851243,0
-0.22002423,1.8648635,2.8387036,-0.46672153,0.27325803,0.84113079,0
-3.3245053,-1.0950543,-3.1770582,-0.88333881,-0.097359762,-0.45851243,0
4.1518226,4.5061207,0.85890627,0.88333881,0.097359762,0.45851243,0
-0.063717127,3.8130977,-2.976182,0.043399885,0.95700115,-0.28681934,0
-2.5132203,-4.6981807,-0.36691189,-0.043399885,-0.95700115,0.28681934,0
-2.4026277,-5.2755089,-2.2764919,-0.043399885,-0.95700115,0.28681934,0
4.9657149,-2.1015606,0.69397897,0.88333881,0.097359762,0.45851243,0
-5.3271623,-2.4545441,1.4081306,-0.46672153,0.27325803,0.84113079,0
-2.4555862,-4.6091313,-0.061069965,-0.043399885,-0.95700115,0.28681934,0
0.74038416,-5.0300226,-0.98181939,-0.043399885,-0.95700115,0.28681934,0
-3.9606934,-1.0434384,-1.9623828,-0.88333881,-0.097359762,-0.45851243,0
-3.9667673,1.2885281,-2.4458456,-0.88333881,-0.097359762,-0.45851243,0
-4.4524083,-2.8243499,-0.63692331,-0.88333881,-0.097359762,-0.45851243,0
3.1648417,2.0754051,-2.4847751,0.46672153,-0.27325803,-0.84113079,0
2.8524032,2.2564809,3.8399634,0.88333881,0.097359762,0.45851243,0
-2.6018529,4.076489,-2.4814069,0.043399885,0.95700115,-0.28681934,0
-2.1479411,4.351162,-1.4962502,0.043399885,0.95700115,-0.28681934,0
3.9020514,1.6581897,1.9448239,0.88333881,0.097359762,0.45851243,0
3.5983553,0.01447098,2.8789287,0.88333881,0.097359762,0.45851243,0
-4.9663615,4.19982,-1.1382756,-0.88333881,-0.097359762,-0.45851243,0
2.3329501,0.75451326,4.6160016,-0.46672153,0.27325803,0.84113079,0
-0.35770559,3.0035615,-4.7408752,0.46672153,-0.27325803,-0.84113079,0
-5.1394501,1.1026998,-0.1471771,-0.88333881,-0.097359762,-0.45851243,0
1.9988651,-3.3035617,4.9691162,-0.043399885,-0.95700115,0.28681934,0
1.4829583,1.8450007,-3.3431573,0.46672153,-0.27325803,-0.84113079,0
4.4434285,1.4686136,0.94209754,0.88333881,0.097359762,0.45851243,0
4.4090781,-0.81033182,1.4921824,0.88333881,0.097359762,0.45851243,0
-1.8965703,4.4687767,1.062499,-0.46672153,0.27325803,0.84113079,0
3.5700073,-3.7813866,3.612541,-0.043399885,-0.95700115,0.28681934,0
2.8398948,0.87759489,4.1568527,0.88333881,0.097359762,0.45851243,0
-2.7749267,3.9834852,-2.8179126,0.043399885,0.95700115,-0.28681934,0
3.0792809,-2.8082323,-0.94570476,0.46672153,-0.27325803,-0.84113079,0
-0.53837872,-1.8640668,3.8734734,-0.46672153,0.27325803,0.84113079,0
-0.90864825,-4.8485193,-0.6257391,-0.043399885,-0.95700115,0.28681934,0
-2.8298495,4.4931579,-1.1256502,0.043399885,0.95700115,-0.28681934,0
1.0139441,3.6569457,-3.3341327,0.043399885,0.95700115,-0.28681934,0
-4.8775463,-0.35547876,-0.34211493,-0.88333881,-0.097359762,-0.45851243,0
-4.8720493,-4.0397272,0.42959929,-0.88333881,-0.097359762,-0.45851243,0
2.4582431,-4.910737,-0.32387567,-0.043399885,-0.95700115,0.28681934,0
-0.06923008,-3.4324195,4.2262344,-0.043399885,-0.95700115,0.28681934,0
0.40968525,3.7132702,2.5876215,-0.46672153,0.27325803,0.84113079,0
3.2793298,-2.7735863,4.0855522,0.88333881,0.097359762,0.45851243,0
3.3680792,-3.9793022,2.921622,-0.043399885,-0.95700115,0.28681934,0
-2.8081603,-4.3054838,-3.4901168,-0.88333881,-0.097359762,-0.45851243,0
-1.5592785,2.5078866,-5.2465658,0.46672153,-0.27325803,-0.84113079,0
0.88094926,-1.2443279,-2.6735666,0.46672153,-0.27325803,-0.84113079,0
-2.5850916,-5.0133176,-1.4292743,-0.043399885,-0.95700115,0.28681934,0
0.44474733,-5.1562438,-1.4477034,-0.043399885,-0.95700115,0.28681934,0
2.7994661,4.3129363,-0.87517977,0.043399885,0.95700115,-0.28681934,0
2.1323433,0.84284544,-2.6572602,0.46672153,-0.27325803,-0.84113079,0
2.0811088,5.25176,3.0152419,-0.46672153,0.27325803,0.84113079,0
3.4047742,0.80426073,-1.9386866,0.46672153,-0.27325803,-0.84113079,0
-4.3702564,1.80346,-1.7778513,-0.88333881,-0.097359762,-0.45851243,0
1.3298643,4.9389253,0.99112201,0.043399885,0.95700115,-0.28681934,0
2.392302,-3.721997,3.6324971,-0.043399885,-0.95700115,0.28681934,0
3.1861715,-1.60366,4.0166039,0.88333881,0.097359762,0.45851243,0
1.0565407,-4.9524651,-0.67520261,-0.043399885,-0.95700115,0.28681934,0
0.073186159,0.60648084,-3.7230453,0.46672153,-0.27325803,-0.84113079,0
-4.1301837,4.6220074,-0.89248991,0.043399885,0.95700115,-0.28681934,0
4.8428993,-1.6294245,0.83033586,0.88333881,0.097359762,0.45851243,0
1.4706619,4.26968,-1.2205772,0.043399885,0.95700115,-0.28681934,0
0.590886,4.6712427,-0.013845921,0.043399885,0.95700115,-0.28681934,0
-1.4905319,-0.58119535,2.9283824,-0.46672153,0.27325803,0.84113079,0
4.7718639,0.43662405,-1.0606904,0.46672153,-0.27325803,-0.84113079,0
3.2267637,2.8536005,2.9919546,0.88333881,0.097359762,0.45851243,0
1.8464084,-1.0632815,-2.1966753,0.46672153,-0.27325803,-0.84113079,0
-1.5671608,4.6588945,1.1835163,-0.46672153,0.27325803,0.84113079,0
-3.8590665,-4.4647446,0.20832396,-0.043399885,-0.95700115,0.28681934,0
0.062042236,1.2114075,3.2075028,-0.46672153,0.27325803,0.84113079,0
2.059166,2.8496864,3.7834277,-0.46672153,0.27325803,0.84113079,0
1.1040339,-4.5887032,-1.4632964,0.46672153,-0.27325803,-0.84113079,0
-3.0983515,3.8581607,-3.2850091,0.043399885,0.95700115,-0.28681934,0
2.6960742,5.2099657,3.370048,-0.46672153,0.27325803,0.84113079,0
-1.2620857,-5.0506067,-2.6261358,0.46672153,-0.27325803,-0.84113079,0
2.5048864,2.2068274,-2.893662,0.46672153,-0.27325803,-0.84113079,0
-2.2546222,-1.1499605,2.6891832,-0.46672153,0.27325803,0.84113079,0
2.6125507,-3.3652918,4.8560061,-0.043399885,-0.95700115,0.28681934,0
0.96893197,1.1956234,-3.4174137,0.46672153,-0.27325803,-0.84113079,0
-4.9402223,-3.7800417,0.50579739,-0.88333881,-0.097359762,-0.45851243,0
-4.7767234,-2.70243,1.794086,-0.46672153,0.27325803,0.84113079,0
2.619442,0.58519626,-2.3032799,0.46672153,-0.27325803,-0.84113079,0
3.7352123,0.10587883,-1.5284519,0.46672153,-0.27325803,-0.84113079,0
-4.5890088,0.67568028,-1.1169486,-0.88333881,-0.097359762,-0.45851243,0
-0.2325294,4.0598807,-2.178309,0.043399885,0.95700115,-0.28681934,0
-2.6125116,1.1983486,-5.0357151,-0.88333881,-0.097359762,-0.45851243,0
-3.2898002,-1.9707401,-3.0579779,-0.88333881,-0.097359762,-0.45851243,0
-5.1013637,-0.62192082,0.14565158,-0.88333881,-0.097359762,-0.45851243,0
-1.1407295,4.8822217,1.3475795,-0.46672153,0.27325803,0.84113079,0
-2.2493341,4.5313864,-0.9102571,0.043399885,0.95700115,-0.28681934,0
-0.036410272,4.5934501,-0.36832714,0.043399885,0.95700115,-0.28681934,0
-4.9252739,-3.7310686,2.0458322,-0.46672153,0.27325803,0.84113079,0
-0.95500833,-1.4927855,3.5216787,-0.46672153,0.27325803,0.84113079,0
2.3922672,3.1939099,-3.276825,0.46672153,-0.27325803,-0.84113079,0
-3.4652824,-0.33459038,-3.0673242,-0.88333881,-0.097359762,-0.45851243,0
3.0950472,0.20097518,-1.9145567,0.46672153,-0.27325803,-0.84113079,0
5.2320113,2.662081,-0.83055162,0.88333881,0.097359762,0.45851243,0
3.9901724,1.3826258,-1.8017581,0.46672153,-0.27325803,-0.84113079,0
3.8101363,-4.4218798,1.5118089,-0.043399885,-0.95700115,0.28681934,0
-4.5040674,3.6938715,-1.9214675,-0.88333881,-0.097359762,-0.45851243,0
-3.8992958,-1.3229045,-2.0213251,-0.88333881,-0.097359762,-0.45851243,0
1.8654549,-4.4213009,1.2194798,-0.043399885,-0.95700115,0.28681934,0
-0.83581209,1.118746,-4.3938437,0.46672153,-0.27325803,-0.84113079,0
2.8229852,-1.959447,4.7918415,0.88333881,0.097359762,0.45851243,0
0.12180459,4.2533231,-1.4792547,0.043399885,0.95700115,-0.28681934,0
-1.1087656,4.6857653,-0.22257137,0.043399885,0.95700115,-0.28681934,0
2.3631949,2.4253111,-3.0432615,0.46672153,-0.27325803,-0.84113079,0
0.2952677,-5.126245,-1.3702276,-0.043399885,-0.95700115,0.28681934,0
4.6768365,-3.0821269,1.458725,0.88333881,0.097359762,0.45851243,0
-3.1048429,4.717278,-0.41946101,0.043399885,0.95700115,-0.28681934,0
1.6958289,-0.062350512,4.527854,-0.46672153,0.27325803,0.84113079,0
2.9878254,4.9257288,1.1979642,0.043399885,0.95700115,-0.28681934,0
-2.8607411,-1.5004238,-3.9844398,-0.88333881,-0.097359762,-0.45851243,0
-3.5516911,-2.3078108,-2.481863,-0.88333881,-0.097359762,-0.45851243,0
4.0874205,3.3251314,1.2337489,0.88333881,0.097359762,0.45851243,0
2.571564,4.3802915,-0.68492746,0.043399885,0.95700115,-0.28681934,0
-1.1313133,4.7453289,-0.027240753,0.043399885,0.95700115,-0.28681934,0
3.3134165,-0.08892259,3.449825,0.88333881,0.097359762,0.45851243,0
-2.2070873,1.5613606,1.8347329,-0.46672153,0.27325803,0.84113079,0
-1.4654623,-4.6958938,-0.20074224,-0.043399885,-0.95700115,0.28681934,0
-1.6104798,4.0598278,-2.3869894,0.043399885,0.95700115,-0.28681934,0
1.2372077,1.6930006,3.7031164,-0.46672153,0.27325803,0.84113079,0
2.8293848,2.5553458,3.8208482,0.88333881,0.097359762,0.45851243,0
-0.74836659,5.1509523,1.3841059,0.043399885,0.95700115,-0.28681934,0
2.8838739,-3.9802074,2.8453331,-0.043399885,-0.95700115,0.28681934,0
3.3994124,1.3579412,-2.1215358,0.46672153,-0.27325803,-0.84113079,0
4.808815,-1.9113265,0.95585841,0.88333881,0.097359762,0.45851243,0
-5.186903,-3.785521,1.9183512,-0.46672153,0.27325803,0.84113079,0
-2.3854432,4.2511396,-1.8659234,0.043399885,0.95700115,-0.28681934,0
-1.3937995,3.7854445,-3.2697093,0.043399885,0.95700115,-0.28681934,0
-0.064804792,-5.1528349,-1.5134306,-0.043399885,-0.95700115,0.28681934,0
-5.1257434,-2.1534481,0.51781988,-0.88333881,-0.097359762,-0.45851243,0
-4.8551817,-2.9137311,0.15801382,-0.88333881,-0.097359762,-0.45851243,0
2.5632029,-3.7902331,3.4306808,-0.043399885,-0.95700115,0.28681934,0
-4.6681089,1.9481227,-1.2347476,-0.88333881,-0.097359762,-0.45851243,0
-3.1610584,3.36236,-4.4384255,-0.88333881,-0.097359762,-0.45851243,0
3.7143569,4.0254068,-1.6961136,0.043399885,0.95700115,-0.28681934,0
-1.7744255,-4.5211062,-3.0824387,0.46672153,-0.27325803,-0.84113079,0
-2.2506294,2.138413,-5.510149,0.46672153,-0.27325803,-0.84113079,0
-4.4012752,1.1780295,-1.5852902,-0.88333881,-0.097359762,-0.45851243,0
3.2194476,-0.94295377,3.8122015,0.88333881,0.097359762,0.45851243,0
4.4501877,-2.7843614,1.8321452,0.88333881,0.097359762,0.45851243,0
-3.5104861,3.1282775,-3.7155354,-0.88333881,-0.097359762,-0.45851243,0
4.7255225,-3.9909277,1.5579047,0.88333881,0.097359762,0.45851243,0
-4.1426558,4.4664445,-1.4134276,0.043399885,0.95700115,-0.28681934,0
-3.2469218,-4.3629093,-2.6326356,-0.88333881,-0.097359762,-0.45851243,0
1.1566024,-0.76133728,4.4557314,-0.46672153,0.27325803,0.84113079,0
1.7444904,-3.672246,-1.4056531,0.46672153,-0.27325803,-0.84113079,0
-3.3198841,-2.4666386,2.5258467,-0.46672153,0.27325803,0.84113079,0
-1.6817522,4.7132664,-0.2175107,0.043399885,0.95700115,-0.28681934,0
-2.7354798,4.0926437,-2.4477255,0.043399885,0.95700115,-0.28681934,0
4.4675493,2.4312699,-1.8775468,0.46672153,-0.27325803,-0.84113079,0
-4.4780846,-2.490438,-0.65835786,-0.88333881,-0.097359762,-0.45851243,0
1.9272107,4.3096404,-1.0181627,0.043399885,0.95700115,-0.28681934,0
-4.3157678,-1.7070888,-1.1374022,-0.88333881,-0.097359762,-0.45851243,0
-2.2269731,0.8890605,2.0421088,-0.46672153,0.27325803,0.84113079,0
3.7816405,2.1997375,2.061806,0.88333881,0.097359762,0.45851243,0
-0.68147516,3.4823194,-4.1733308,0.043399885,0.95700115,-0.28681934,0
-5.2186718,3.4017932,-0.43421781,-0.46672153,0.27325803,0.84113079,0
3.083158,4.5771713,0.049394131,0.043399885,0.95700115,-0.28681934,0
-5.2974501,-1.2158854,0.64953804,-0.88333881,-0.097359762,-0.45851243,0
3.9462698,4.6329093,0.36596966,0.043399885,0.95700115,-0.28681934,0
2.8549006,3.8163755,-2.5236158,0.043399885,0.95700115,-0.28681934,0
3.9292374,-0.29501235,2.3071876,0.88333881,0.097359762,0.45851243,0
-0.78104353,-5.2374868,-2.2985067,0.46672153,-0.27325803,-0.84113079,0
3.1136551,1.9811978,3.3951061,0.88333881,0.097359762,0.45851243,0
2.4477277,-1.2195864,5.3210139,-0.46672153,0.27325803,0.84113079,0
-0.77799296,5.0844421,1.1577029,0.043399885,0.95700115,-0.28681934,0
4.8710885,3.4355736,-1.9799013,0.46672153,-0.27325803,-0.84113079,0
-1.8504579,-5.2735419,-2.1863763,-0.043399885,-0.95700115,0.28681934,0
1.6394311,-4.9906769,-0.71449924,-0.043399885,-0.95700115,0.28681934,0
0.72333324,-4.4171834,-1.7302589,0.46672153,-0.27325803,-0.84113079,0
-4.1285005,-1.2676822,-1.591482,-0.88333881,-0.097359762,-0.45851243,0
-4.5193768,3.4205875,-1.8339443,-0.88333881,-0.097359762,-0.45851243,0
-0.25842595,2.2378845,2.6962123,-0.46672153,0.27325803,0.84113079,0
1.3757551,-4.1824927,1.9421892,-0.043399885,-0.95700115,0.28681934,0
-0.81481147,-1.2640834,-3.6080821,0.46672153,-0.27325803,-0.84113079,0
2.9421051,4.9245458,3.1006179,0.88333881,0.097359762,0.45851243,0
-3.3465705,-5.0091496,-2.3034368,-0.88333881,-0.097359762,-0.45851243,0
0.036612034,-3.5509856,3.8466434,-0.043399885,-0.95700115,0.28681934,0
2.6552405,-0.5206821,4.8095021,0.88333881,0.097359762,0.45851243,0
-4.8769889,3.3534765,-1.130744,-0.88333881,-0.097359762,-0.45851243,0
4.6159034,-0.73810899,1.0783893,0.88333881,0.097359762,0.45851243,0
-0.65182126,-3.9628053,-2.6409097,0.46672153,-0.27325803,-0.84113079,0
3.5968361,0.86674929,2.7008843,0.88333881,0.097359762,0.45851243,0
1.1507477,2.0211461,-3.5847166,0.46672153,-0.27325803,-0.84113079,0
2.0240159,2.1584656,3.9884806,-0.46672153,0.27325803,0.84113079,0
-2.8125596,-4.5126405,0.20686531,-0.043399885,-0.95700115,0.28681934,0
-3.8998213,1.7418373,-2.6710749,-0.88333881,-0.097359762,-0.45851243,0
4.0927954,3.938066,-1.9302711,0.043399885,0.95700115,-0.28681934,0
-2.0483694,-5.4178963,-2.6979768,-0.043399885,-0.95700115,0.28681934,0
-2.4193628,4.8130689,0.0038776398,0.043399885,0.95700115,-0.28681934,0
-4.2795372,-3.2090244,-0.88828206,-0.88333881,-0.097359762,-0.45851243,0
3.1955054,4.5004468,2.7024875,0.88333881,0.097359762,0.45851243,0
3.9721987,4.8127017,0.96978807,0.043399885,0.95700115,-0.28681934,0
-4.2050653,-2.9690323,2.1978955,-0.46672153,0.27325803,0.84113079,0
3.6591253,-4.5269794,1.1382823,-0.043399885,-0.95700115,0.28681934,0
-4.9273496,4.3908472,-1.2539964,-0.88333881,-0.097359762,-0.45851243,0
-4.3203206,-0.31264281,-1.4247243,-0.88333881,-0.097359762,-0.45851243,0
-0.24120402,2.1932578,2.7202659,-0.46672153,0.27325803,0.84113079,0
-2.362,-0.87049234,-4.5944424,0.46672153,-0.27325803,-0.84113079,0
-5.1831255,-2.1387415,0.62524724,-0.88333881,-0.097359762,-0.45851243,0
3.5823793,3.2310092,2.2267118,0.88333881,0.097359762,0.45851243,0
-4.3506255,1.5669355,0.64352822,-0.46672153,0.27325803,0.84113079,0
4.7734623,1.1536124,0.37316322,0.88333881,0.097359762,0.45851243,0
3.363415,4.5907364,0.13706112,0.043399885,0.95700115,-0.28681934,0
-1.1661761,-0.25846481,-4.1297402,0.46672153,-0.27325803,-0.84113079,0
4.9456396,-0.077439785,0.30285621,0.88333881,0.097359762,0.45851243,0
5.1653299,-3.547379,0.61641884,0.88333881,0.097359762,0.45851243,0
3.5692339,0.58216006,2.8144894,0.88333881,0.097359762,0.45851243,0
2.5456066,-0.99577022,-1.8306406,0.46672153,-0.27325803,-0.84113079,0
4.5302982,-1.690346,-0.50374031,0.46672153,-0.27325803,-0.84113079,0
-0.91011715,-5.2837858,-2.0782707,-0.043399885,-0.95700115,0.28681934,0
-4.0137596,3.2634041,-2.7746561,-0.88333881,-0.097359762,-0.45851243,0
4.4004588,-2.9089375,1.9544014,0.88333881,0.097359762,0.45851243,0
3.6788306,-1.4851947,3.0423245,0.88333881,0.097359762,0.45851243,0
-2.5478227,-5.3635678,-2.5922787,-0.043399885,-0.95700115,0.28681934,0
1.0978996,3.9086733,-2.4815154,0.043399885,0.95700115,-0.28681934,0
-5.4317689,-1.6145937,1.0772128,-0.46672153,0.27325803,0.84113079,0
5.4852481,3.1546531,-1.5478578,0.46672153,-0.27325803,-0.84113079,0
-4.5213571,-2.1924071,-0.63827658,-0.88333881,-0.097359762,-0.45851243,0
-5.0383797,-1.0116632,0.1070683,-0.88333881,-0.097359762,-0.45851243,0
2.9609785,3.8653352,-2.3442068,0.043399885,0.95700115,-0.28681934,0
-3.9096632,1.1942635,-2.5358443,-0.88333881,-0.097359762,-0.45851243,0
-3.3479543,3.5108693,-4.1098976,-0.88333881,-0.097359762,-0.45851243,0
-2.5119896,4.1266603,-2.3004105,0.043399885,0.95700115,-0.28681934,0
-0.67206764,-1.0395788,-3.6018124,0.46672153,-0.27325803,-0.84113079,0
0.44202864,5.2637377,1.9405489,0.043399885,0.95700115,-0.28681934,0
2.8022776,3.3891528,-3.1127501,0.46672153,-0.27325803,-0.84113079,0
-3.8465714,3.7258582,-3.1949468,-0.88333881,-0.097359762,-0.45851243,0
3.9633923,0.67820144,-1.5877717,0.46672153,-0.27325803,-0.84113079,0
2.8892193,-0.63265347,-1.7579446,0.46672153,-0.27325803,-0.84113079,0
-4.6999254,2.5475698,-1.3007357,-0.88333881,-0.097359762,-0.45851243,0
1.7803514,-4.4926219,0.96863317,-0.043399885,-0.95700115,0.28681934,0
-2.3013585,4.2979546,-1.696996,0.043399885,0.95700115,-0.28681934,0
1.4572477,4.3597994,-0.92191362,0.043399885,0.95700115,-0.28681934,0
3.5904176,-3.0065145,-0.59767199,0.46672153,-0.27325803,-0.84113079,0
4.9482884,0.022828102,0.27646351,0.88333881,0.097359762,0.45851243,0
-0.017020106,4.0947466,2.2269235,-0.46672153,0.27325803,0.84113079,0
-3.8359325,-0.43113399,1.5782305,-0.46672153,0.27325803,0.84113079,0
2.2419286,-3.9016733,3.0102365,-0.043399885,-0.95700115,0.28681934,0
-3.670187,-3.9438393,1.9749556,-0.043399885,-0.95700115,0.28681934,0
3.204742,2.4984107,3.1098006,0.88333881,0.097359762,0.45851243,0
-2.0976071,-5.4343443,-2.9650803,0.46672153,-0.27325803,-0.84113079,0
-2.3159511,4.5603342,-0.82374883,0.043399885,0.95700115,-0.28681934,0
1.1359187,3.6876693,-3.2131643,0.043399885,0.95700115,-0.28681934,0
-5.0612626,-1.2193186,0.19524479,-0.88333881,-0.097359762,-0.45851243,0
-0.34909558,-1.0588394,-3.4163463,0.46672153,-0.27325803,-0.84113079,0
-3.986671,2.5618234,-2.6778703,-0.88333881,-0.097359762,-0.45851243,0
0.55883956,-3.95205,2.5874724,-0.043399885,-0.95700115,0.28681934,0
5.102807,2.5017807,-0.54759789,0.88333881,0.097359762,0.45851243,0
-4.1173759,0.62093461,-2.0139389,-0.88333881,-0.097359762,-0.45851243,0
0.095038176,-4.4482651,0.86162233,-0.043399885,-0.95700115,0.28681934,0
4.7102704,-1.5261014,1.0639096,0.88333881,0.097359762,0.45851243,0
3.6571994,3.8045123,-2.4417996,0.043399885,0.95700115,-0.28681934,0
-4.336195,1.0000026,0.83571482,-0.46672153,0.27325803,0.84113079,0
-5.3377194,-0.30933285,0.53462207,-0.88333881,-0.097359762,-0.45851243,0
-3.5444498,-3.837007,-2.1711068,-0.88333881,-0.097359762,-0.45851243,0
-2.8754649,0.64642727,-4.4119334,-0.88333881,-0.097359762,-0.45851243,0
-1.4540164,-4.9775047,-2.756382,0.46672153,-0.27325803,-0.84113079,0
-2.7087181,-5.1839705,-2.017381,-0.043399885,-0.95700115,0.28681934,0
3.8451757,2.7954957,1.8129026,0.88333881,0.097359762,0.45851243,0
3.4957767,-4.3810453,1.6004875,-0.043399885,-0.95700115,0.28681934,0
-0.18232787,0.66404033,3.2497315,-0.46672153,0.27325803,0.84113079,0
-0.92699039,4.5538597,-0.6351819,0.043399885,0.95700115,-0.28681934,0
-1.9748936,1.2933987,2.0506239,-0.46672153,0.27325803,0.84113079,0
-1.5492632,4.1896605,-1.9445262,0.043399885,0.95700115,-0.28681934,0
5.0134525,2.7949417,-0.43770361,0.88333881,0.097359762,0.45851243,0
-2.7853007,3.0203195,-5.0897045,-0.88333881,-0.097359762,-0.45851243,0
-4.5843301,-4.1923265,1.0075302,-0.043399885,-0.95700115,0.28681934,0
0.058275223,-3.8273015,2.9279666,-0.043399885,-0.95700115,0.28681934,0
-0.76469815,-4.7316542,-0.21402311,-0.043399885,-0.95700115,0.28681934,0
-3.9944849,-0.98609573,-1.9094583,-0.88333881,-0.097359762,-0.45851243,0
-4.6207724,2.4323123,-1.4287544,-0.88333881,-0.097359762,-0.45851243,0
1.6461465,4.1858096,-1.4738641,0.043399885,0.95700115,-0.28681934,0
5.5071621,3.3548357,-1.5077362,0.88333881,0.097359762,0.45851243,0
2.0641091,4.7796545,0.57080126,0.043399885,0.95700115,-0.28681934,0
-4.8175683,2.8233974,-1.1326622,-0.88333881,-0.097359762,-0.45851243,0
-2.3926878,-3.6646383,3.0998411,-0.043399885,-0.95700115,0.28681934,0
5.2951903,3.1819825,-1.0626645,0.88333881,0.097359762,0.45851243,0
-0.020158768,3.8624678,-2.8048615,0.043399885,0.95700115,-0.28681934,0
0.24369287,4.6124296,2.2034068,-0.46672153,0.27325803,0.84113079,0
-1.8275943,3.9267855,-2.8637512,0.043399885,0.95700115,-0.28681934,0
0.63797987,-4.8196721,-0.29545879,-0.043399885,-0.95700115,0.28681934,0
-1.8873874,-4.3806119,0.78738594,-0.043399885,-0.95700115,0.28681934,0
3.8040404,1.1635752,2.2386696,0.88333881,0.097359762,0.45851243,0
5.4538651,2.1129642,-1.1413612,0.88333881,0.097359762,0.45851243,0
-4.0836444,4.0918479,-2.6543777,0.043399885,0.95700115,-0.28681934,0
-1.5399547,3.6251893,-3.8265336,0.043399885,0.95700115,-0.28681934,0
-2.1962888,-0.70342803,2.5764863,-0.46672153,0.27325803,0.84113079,0
1.4888043,5.2976923,2.2122333,0.043399885,0.95700115,-0.28681934,0
-4.0936971,-2.5832696,-1.3791809,-0.88333881,-0.097359762,-0.45851243,0
4.786449,-4.1720657,1.4789886,0.88333881,0.097359762,0.45851243,0
2.3235302,4.6129451,0.053812504,0.043399885,0.95700115,-0.28681934,0
-2.891952,-3.4647152,-3.5072165,-0.88333881,-0.097359762,-0.45851243,0
4.6870003,2.6767302,0.21631742,0.88333881,0.097359762,0.45851243,0
-0.73069119,3.570127,2.001359,-0.46672153,0.27325803,0.84113079,0
1.6352383,5.0576363,1.4334219,0.043399885,0.95700115,-0.28681934,0
-4.7871289,1.0184573,-0.80804789,-0.88333881,-0.097359762,-0.45851243,0
-3.679378,-3.2383103,-2.0382905,-0.88333881,-0.097359762,-0.45851243,0
-2.2490811,-4.7535272,-0.51161337,-0.043399885,-0.95700115,0.28681934,0
-3.8987684,3.0024369,-2.9407783,-0.88333881,-0.097359762,-0.45851243,0
4.0402546,3.8325279,-2.2903619,0.043399885,0.95700115,-0.28681934,0
4.5831695,-2.0533111,1.42072,0.88333881,0.097359762,0.45851243,0
0.58818376,4.0263681,-2.1659412,0.043399885,0.95700115,-0.28681934,0
0.025354266,2.0192049,2.9247169,-0.46672153,0.27325803,0.84113079,0
3.1982627,-3.0614719,4.3028588,0.88333881,0.097359762,0.45851243,0
-2.2512546,3.5780959,-4.0912948,0.043399885,0.95700115,-0.28681934,0
-0.3440237,-4.6970654,-2.2315822,0.46672153,-0.27325803,-0.84113079,0
-3.4519696,-0.066395521,1.6727891,-0.46672153,0.27325803,0.84113079,0
1.3303747,-1.2684424,4.7168961,-0.46672153,0.27325803,0.84113079,0
1.7599881,1.3535099,-3.0297706,0.46672153,-0.27325803,-0.84113079,0
-2.5215898,2.4920232,-5.4855757,-0.88333881,-0.097359762,-0.45851243,0
-4.511795,-2.9815869,-0.48912382,-0.88333881,-0.097359762,-0.45851243,0
-2.6263754,4.3575745,-1.5472484,0.043399885,0.95700115,-0.28681934,0
