1.4456182,1.9414697,4.2738323,0.032444715,-0.31178707,0.94959784,0
-1.7424934,-4.1745133,2.1723864,-0.12907717,-0.94344866,-0.30535793,0
-3.0330269,-1.4973195,2.2955508,-0.99110359,0.11266422,0.070854396,0
1.6557205,2.608325,2.7032633,0.12907717,0.94344866,0.30535793,0
0.72709751,-1.5950797,3.1372058,0.032444715,-0.31178707,0.94959784,0
-2.8193347,-3.8540838,1.6375618,-0.12907717,-0.94344866,-0.30535793,0
2.9783783,1.6162198,-3.249032,0.99110359,-0.11266422,-0.070854396,0
3.1785626,-0.063809752,2.2225032,0.99110359,-0.11266422,-0.070854396,0
-1.8340049,2.5683308,4.3019662,0.12907717,0.94344866,0.30535793,0
3.0252545,0.92446995,-1.4933927,0.99110359,-0.11266422,-0.070854396,0
-3.1981511,-1.0616059,-0.70700049,-0.99110359,0.11266422,0.070854396,0
-1.6938623,-2.9678364,-1.5763764,-0.12907717,-0.94344866,-0.30535793,0
2.8291237,-0.014779091,-2.7433646,0.99110359,-0.11266422,-0.070854396,0
3.1634431,0.46867633,1.1643171,0.99110359,-0.11266422,-0.070854396,0
0.0012562275,-2.518455,2.8588283,0.032444715,-0.31178707,0.94959784,0
2.9092498,-1.1814404,0.23250821,0.99110359,-0.11266422,-0.070854396,0
2.0909615,-1.9633002,2.969707,0.032444715,-0.31178707,0.94959784,0
0.028550625,-3.1506743,-1.739548,-0.12907717,-0.94344866,-0.30535793,0
1.1277597,3.7926958,-0.73285341,0.12907717,0.94344866,0.30535793,0
-1.3632796,0.25055766,-3.5569243,-0.032444715,0.31178707,-0.94959784,0
3.4129772,1.8103017,2.5214801,0.99110359,-0.11266422,-0.070854396,0
-2.8785164,-0.47475982,2.8308706,-0.99110359,0.11266422,0.070854396,0
-3.0406089,-1.0819492,1.5290214,-0.99110359,0.11266422,0.070854396,0
0.75825191,-2.897871,-2.8290739,-0.12907717,-0.94344866,-0.30535793,0
2.4624648,-3.1905029,2.5540795,0.032444715,-0.31178707,0.94959784,0
-2.8695741,1.315624,0.10910633,-0.99110359,0.11266422,0.070854396,0
3.0053132,-1.007026,1.2988987,0.99110359,-0.11266422,-0.070854396,0
0.11773729,-1.8064569,-4.2829175,-0.032444715,0.31178707,-0.94959784,0
1.5198708,-3.3324342,-1.808367,-0.12907717,-0.94344866,-0.30535793,0
0.82799327,-3.53935,2.4953847,0.032444715,-0.31178707,0.94959784,0
-0.75973463,-1.8648617,3.099427,0.032444715,-0.31178707,0.94959784,0
-0.86262774,-1.1276953,3.3449805,0.032444715,-0.31178707,0.94959784,0
1.8354425,3.360425,0.30356836,0.12907717,0.94344866,0.30535793,0
0.42599869,2.8548951,2.4612615,0.12907717,0.94344866,0.30535793,0
0.96619773,-1.6965381,3.0957241,0.032444715,-0.31178707,0.94959784,0
3.4527454,2.4123805,2.1204052,0.99110359,-0.11266422,-0.070854396,0
-3.1701074,-1.648931,0.61916375,-0.99110359,0.11266422,0.070854396,0
3.2184253,2.6609218,-1.5524395,0.99110359,-0.11266422,-0.070854396,0
1.9467611,0.45532489,-3.6027851,-0.032444715,0.31178707,-0.94959784,0
-2.7526588,-2.9959533,-1.0419436,-0.12907717,-0.94344866,-0.30535793,0
0.36427891,3.3966112,0.81363797,0.12907717,0.94344866,0.30535793,0
3.2735801,1.7595298,0.6523428,0.99110359,-0.11266422,-0.070854396,0
2.5240555,-1.8618754,2.9882114,0.032444715,-0.31178707,0.94959784,0
0.78943849,-2.9615369,-2.6455503,-0.12907717,-0.94344866,-0.30535793,0
-3.0304813,-1.067004,1.6469249,-0.99110359,0.11266422,0.070854396,0
1.3868736,4.2519073,-2.2611849,0.12907717,0.94344866,0.30535793,0
-1.3353686,-1.9005692,-4.2641697,-0.032444715,0.31178707,-0.94959784,0
-1.252017,1.3939948,4.1862459,0.032444715,-0.31178707,0.94959784,0
-1.8345704,0.49154353,3.9098427,0.032444715,-0.31178707,0.94959784,0
2.2456312,-3.1871219,2.562598,0.032444715,-0.31178707,0.94959784,0
1.945298,3.7935133,-1.0809593,0.12907717,0.94344866,0.30535793,0
2.8310113,-2.9823096,2.0016415,0.99110359,-0.11266422,-0.070854396,0
1.8018003,-3.6025634,2.4413579,0.032444715,-0.31178707,0.94959784,0
-0.57482052,1.5187876,4.2040825,0.032444715,-0.31178707,0.94959784,0
-1.7601113,3.1329913,2.5261283,0.12907717,0.94344866,0.30535793,0
-1.9127291,4.0180578,-0.14390445,0.12907717,0.94344866,0.30535793,0
-0.50302076,-4.1783438,1.6602883,-0.12907717,-0.94344866,-0.30535793,0
1.3750186,2.2187188,-3.0042653,-0.032444715,0.31178707,-0.94959784,0
-2.6028502,1.8974535,2.9148476,-0.99110359,0.11266422,0.070854396,0
1.9376879,2.3167953,3.4847968,0.12907717,0.94344866,0.30535793,0
-2.8571482,-0.13610601,2.5912809,-0.99110359,0.11266422,0.070854396,0
3.0457034,0.86980963,-1.1204437,0.99110359,-0.11266422,-0.070854396,0
-2.9820716,1.1555086,-3.2044878,-0.032444715,0.31178707,-0.94959784,0
2.1364691,0.60932374,3.8128371,0.032444715,-0.31178707,0.94959784,0
-1.750519,-1.4532695,-4.1031208,-0.032444715,0.31178707,-0.94959784,0
-2.6223078,1.5543556,3.1882381,-0.99110359,0.11266422,0.070854396,0
1.3526999,3.5483835,-2.5669262,-0.032444715,0.31178707,-0.94959784,0
-2.8171408,0.55181479,2.0570538,-0.99110359,0.11266422,0.070854396,0
1.3711202,-3.1265945,-2.3814623,-0.12907717,-0.94344866,-0.30535793,0
2.0658131,-2.9427907,-3.2430024,-0.12907717,-0.94344866,-0.30535793,0
-2.8065348,-3.8005197,1.4666586,-0.12907717,-0.94344866,-0.30535793,0
-2.6759305,1.562932,2.4245319,-0.99110359,0.11266422,0.070854396,0
2.1575167,3.3217413,0.28694487,0.12907717,0.94344866,0.30535793,0
-2.1916716,-0.24525595,3.6801262,0.032444715,-0.31178707,0.94959784,0
0.31261253,1.3921515,4.1321831,0.032444715,-0.31178707,0.94959784,0
-3.3989351,-1.9428786,-4.0223885,-0.12907717,-0.94344866,-0.30535793,0
0.57158852,2.4195375,-2.9108784,-0.032444715,0.31178707,-0.94959784,0
-2.5882978,3.7961268,0.099373341,-0.99110359,0.11266422,0.070854396,0
3.1173973,0.50449967,0.46327591,0.99110359,-0.11266422,-0.070854396,0
-2.5666797,-1.155627,3.394031,0.032444715,-0.31178707,0.94959784,0
-0.36711407,-0.43473434,3.5555744,0.032444715,-0.31178707,0.94959784,0
2.5370533,2.6238346,2.2827971,0.12907717,0.94344866,0.30535793,0
2.8504283,-0.045570374,-2.3964016,0.99110359,-0.11266422,-0.070854396,0
0.63079828,3.896858,-0.84460807,0.12907717,0.94344866,0.30535793,0
-3.4200909,-2.7414579,-1.1403761,-0.99110359,0.11266422,0.070854396,0
2.4990997,-3.8434145,-0.64354634,-0.12907717,-0.94344866,-0.30535793,0
-2.4293978,-0.29286766,3.6726158,0.032444715,-0.31178707,0.94959784,0
-1.0979142,3.7119026,0.45757842,0.12907717,0.94344866,0.30535793,0
3.0829504,1.4932637,-1.5907791,0.99110359,-0.11266422,-0.070854396,0
1.8620365,3.6615565,-0.63806343,0.12907717,0.94344866,0.30535793,0
2.6249864,-2.3121731,-1.9457784,0.99110359,-0.11266422,-0.070854396,0
0.10513604,3.6585999,0.11372638,0.12907717,0.94344866,0.30535793,0
2.7738123,-2.1329587,-0.14899081,0.99110359,-0.11266422,-0.070854396,0
2.4848025,-4.4298964,2.146379,0.032444715,-0.31178707,0.94959784,0
3.1436698,-0.58644915,2.5654628,0.99110359,-0.11266422,-0.070854396,0
-1.651361,2.4317343,4.5406175,0.032444715,-0.31178707,0.94959784,0
-2.1117423,2.8755739,3.4700933,0.12907717,0.94344866,0.30535793,0
0.43225384,-2.5054314,-3.9037714,-0.12907717,-0.94344866,-0.30535793,0
-3.0644586,0.18309045,-0.81609559,-0.99110359,0.11266422,0.070854396,0
-3.3808529,-0.73549956,-3.7811441,-0.99110359,0.11266422,0.070854396,0
-2.7509699,3.1297233,-1.1164317,-0.99110359,0.11266422,0.070854396,0
0.33788586,2.6703792,3.0685966,0.12907717,0.94344866,0.30535793,0
3.3315661,2.0555773,0.99270153,0.99110359,-0.11266422,-0.070854396,0
2.618964,2.2441087,3.4213927,0.12907717,0.94344866,0.30535793,0
-0.379951,2.0590806,4.3748217,0.032444715,-0.31178707,0.94959784,0
-3.3643501,-2.1826522,-1.2492223,-0.99110359,0.11266422,0.070854396,0
1.8044308,-2.9171147,2.6663253,0.032444715,-0.31178707,0.94959784,0
2.6476011,-2.2160575,-1.7822808,0.99110359,-0.11266422,-0.070854396,0
1.2553736,2.9843421,-2.7487955,-0.032444715,0.31178707,-0.94959784,0
2.2604814,2.935776,1.4359183,0.12907717,0.94344866,0.30535793,0
-2.9724388,1.9334571,-2.3121562,-0.99110359,0.11266422,0.070854396,0
1.3558303,-3.3921461,-1.5545378,-0.12907717,-0.94344866,-0.30535793,0
-1.0819424,3.7800558,0.24025822,0.12907717,0.94344866,0.30535793,0
-1.328229,-2.1559224,-4.2394609,-0.12907717,-0.94344866,-0.30535793,0
-0.67717981,2.617794,-2.8031175,-0.032444715,0.31178707,-0.94959784,0
2.8320498,-1.9477425,0.37112296,0.99110359,-0.11266422,-0.070854396,0
-2.6281385,-3.4367762,0.26740789,-0.12907717,-0.94344866,-0.30535793,0
1.1163563,-3.7993417,-0.1952188,-0.12907717,-0.94344866,-0.30535793,0
3.0238979,-1.7131958,2.6817238,0.99110359,-0.11266422,-0.070854396,0
3.3796482,1.372624,2.7512147,0.99110359,-0.11266422,-0.070854396,0
2.1284261,3.0515366,1.134079,0.12907717,0.94344866,0.30535793,0
-3.1444118,-0.54929113,-0.76992631,-0.99110359,0.11266422,0.070854396,0
-1.3223472,2.2589951,4.4726596,0.032444715,-0.31178707,0.94959784,0
1.4804225,1.8414038,4.2397881,0.032444715,-0.31178707,0.94959784,0
2.7121682,-0.38875771,-3.7846701,0.99110359,-0.11266422,-0.070854396,0
1.5883639,2.6736302,2.5299649,0.12907717,0.94344866,0.30535793,0
-3.4270654,-2.6558802,-1.8075733,-0.12907717,-0.94344866,-0.30535793,0
-1.362375,-1.8812022,3.1146519,0.032444715,-0.31178707,0.94959784,0
-2.7189312,0.73742557,-3.3507502,-0.032444715,0.31178707,-0.94959784,0
2.9993284,0.56365991,-1.2823286,0.99110359,-0.11266422,-0.070854396,0
2.6564722,-4.2099085,1.5121862,0.99110359,-0.11266422,-0.070854396,0
1.3853924,2.354454,3.6019049,0.12907717,0.94344866,0.30535793,0
-2.7743604,3.446861,-1.9478883,-0.99110359,0.11266422,0.070854396,0
2.8426595,0.67693472,-3.5606325,-0.032444715,0.31178707,-0.94959784,0
-0.2787075,-1.2353963,3.2896676,0.032444715,-0.31178707,0.94959784,0
0.95590734,-3.2555201,-1.8076131,-0.12907717,-0.94344866,-0.30535793,0
-0.1428194,2.4188762,4.0488501,0.12907717,0.94344866,0.30535793,0
-2.8657613,1.6995593,-0.44804382,-0.99110359,0.11266422,0.070854396,0
-2.8757381,2.9663973,-2.6019685,-0.99110359,0.11266422,0.070854396,0
-3.1126294,0.4299382,-1.8824106,-0.99110359,0.11266422,0.070854396,0
2.9975686,-0.36518025,0.16998208,0.99110359,-0.11266422,-0.070854396,0
1.09741,4.060113,-1.5462484,0.12907717,0.94344866,0.30535793,0
2.9860046,0.36439085,-1.1518484,0.99110359,-0.11266422,-0.070854396,0
-0.61905456,1.5030048,-3.171129,-0.032444715,0.31178707,-0.94959784,0
3.5043466,2.066843,3.3916271,0.99110359,-0.11266422,-0.070854396,0
-1.8476679,-0.2853756,3.6551998,0.032444715,-0.31178707,0.94959784,0
0.33038568,-2.5702524,-3.6604376,-0.12907717,-0.94344866,-0.30535793,0
-3.1825981,-0.77199888,-0.94994497,-0.99110359,0.11266422,0.070854396,0
-1.7195622,-2.737149,-2.2782555,-0.12907717,-0.94344866,-0.30535793,0
-1.9550624,2.8943348,3.3459005,0.12907717,0.94344866,0.30535793,0
-1.5827053,1.4593105,-3.1525502,-0.032444715,0.31178707,-0.94959784,0
-3.0179265,-0.52514434,0.96093833,-0.99110359,0.11266422,0.070854396,0
-1.9930501,2.7479105,3.8143559,0.12907717,0.94344866,0.30535793,0
1.0383029,0.83359265,-3.4475472,-0.032444715,0.31178707,-0.94959784,0
1.5633547,1.5500193,-3.230258,-0.032444715,0.31178707,-0.94959784,0
-0.78784227,0.71350241,3.9469566,0.032444715,-0.31178707,0.94959784,0
0.55970335,1.9158815,-3.0758407,-0.032444715,0.31178707,-0.94959784,0
-1.9217553,-3.6548936,0.6427207,-0.12907717,-0.94344866,-0.30535793,0
2.1385226,-3.4202695,-1.7984964,-0.12907717,-0.94344866,-0.30535793,0
-2.7261567,-2.7463419,-1.824358,-0.12907717,-0.94344866,-0.30535793,0
2.9449713,-2.034852,2.0891685,0.99110359,-0.11266422,-0.070854396,0
1.0152038,-4.3308926,1.4898436,-0.12907717,-0.94344866,-0.30535793,0
1.6838989,1.0482132,3.972403,0.032444715,-0.31178707,0.94959784,0
0.61705554,4.0958395,-1.4535823,0.12907717,0.94344866,0.30535793,0
-3.1669929,-0.71344495,-0.8247714,-0.99110359,0.11266422,0.070854396,0
3.1256466,0.022129297,1.3456695,0.99110359,-0.11266422,-0.070854396,0
2.6904836,-2.0208714,-1.4928077,0.99110359,-0.11266422,-0.070854396,0
-0.63352215,-3.1904628,-1.3367529,-0.12907717,-0.94344866,-0.30535793,0
-2.2713559,4.2157946,-0.60324645,0.12907717,0.94344866,0.30535793,0
0.7240814,-3.8404121,0.097492695,-0.12907717,-0.94344866,-0.30535793,0
-2.7968068,3.2718539,-1.9835901,-0.99110359,0.11266422,0.070854396,0
2.9461393,2.098,3.7345181,0.12907717,0.94344866,0.30535793,0
1.1035106,3.5171237,0.12881851,0.12907717,0.94344866,0.30535793,0
-1.2672665,-0.99143171,3.4035461,0.032444715,-0.31178707,0.94959784,0
2.6255541,-3.3208475,-0.33396959,0.99110359,-0.11266422,-0.070854396,0
-2.6022384,0.63785368,-3.3874302,-0.032444715,0.31178707,-0.94959784,0
-2.5451057,3.7173774,0.82875514,-0.99110359,0.11266422,0.070854396,0
0.60680223,3.6426275,-0.048982143,0.12907717,0.94344866,0.30535793,0
2.9150453,-2.6435971,2.6385169,0.99110359,-0.11266422,-0.070854396,0
-1.2242193,2.0552893,-2.9691176,-0.032444715,0.31178707,-0.94959784,0
-2.97123,1.1235662,-1.0074568,-0.99110359,0.11266422,0.070854396,0
0.095904827,-0.24502218,3.6020441,0.032444715,-0.31178707,0.94959784,0
2.6458607,-0.86103201,-3.9612179,0.99110359,-0.11266422,-0.070854396,0
-1.0315831,1.3903334,-3.1940281,-0.032444715,0.31178707,-0.94959784,0
-1.0710301,1.8217523,4.3205104,0.032444715,-0.31178707,0.94959784,0
-3.3384228,-3.0947824,-0.48898983,-0.12907717,-0.94344866,-0.30535793,0
-1.1878629,-0.42434978,3.5870261,0.032444715,-0.31178707,0.94959784,0
-1.9334886,-3.5499985,0.32359219,-0.12907717,-0.94344866,-0.30535793,0
-3.2670064,-0.5962081,-2.4101572,-0.99110359,0.11266422,0.070854396,0
-0.1353274,-3.6035113,-0.2711699,-0.12907717,-0.94344866,-0.30535793,0
-1.9736493,-2.8511896,-1.8185053,-0.12907717,-0.94344866,-0.30535793,0
-2.8100052,2.2373261,-0.52322441,-0.99110359,0.11266422,0.070854396,0
0.78659177,-3.1374002,-2.1009912,-0.12907717,-0.94344866,-0.30535793,0
-2.1303906,2.9794595,3.1570063,0.12907717,0.94344866,0.30535793,0
-0.73053598,2.9587202,2.6293535,0.12907717,0.94344866,0.30535793,0
3.2033079,1.0699553,0.76586127,0.99110359,-0.11266422,-0.070854396,0
2.4203858,-2.5751021,-4.3896227,0.99110359,-0.11266422,-0.070854396,0
-0.27975655,-0.14390087,-3.7234595,-0.032444715,0.31178707,-0.94959784,0
-2.6750612,-2.9118047,-1.3347344,-0.12907717,-0.94344866,-0.30535793,0
0.38445318,4.2578688,-1.8558726,0.12907717,0.94344866,0.30535793,0
-3.4037426,-1.1158528,-3.4965327,-0.99110359,0.11266422,0.070854396,0
0.36442518,1.0128162,4.0058632,0.032444715,-0.31178707,0.94959784,0
2.8974645,-0.22676992,-1.4503433,0.99110359,-0.11266422,-0.070854396,0
1.5739493,2.3388002,3.5705655,0.12907717,0.94344866,0.30535793,0
-2.4693584,2.410789,3.9658782,-0.99110359,0.11266422,0.070854396,0
2.7619824,-2.1883821,2.8728781,0.032444715,-0.31178707,0.94959784,0
1.8830235,-0.13588715,-3.7947235,-0.032444715,0.31178707,-0.94959784,0
-0.57519627,1.34338,4.146503,0.032444715,-0.31178707,0.94959784,0
-2.8862343,0.83705008,-3.3123238,-0.032444715,0.31178707,-0.94959784,0
-2.994812,-1.6760778,3.1143322,-0.99110359,0.11266422,0.070854396,0
-0.77450812,3.5177431,0.92075706,0.12907717,0.94344866,0.30535793,0
-2.6674337,1.8166678,2.1399217,-0.99110359,0.11266422,0.070854396,0
2.8716154,0.061871767,-2.2708766,0.99110359,-0.11266422,-0.070854396,0
3.1531022,-0.92328715,3.2330015,0.99110359,-0.11266422,-0.070854396,0
-1.3483057,2.274936,-2.8927598,-0.032444715,0.31178707,-0.94959784,0
0.18195415,-2.6742897,-3.2762556,-0.12907717,-0.94344866,-0.30535793,0
-2.4119546,1.200754,-3.2091112,-0.032444715,0.31178707,-0.94959784,0
1.3999765,-3.6949048,-0.63778043,-0.12907717,-0.94344866,-0.30535793,0
1.7655416,-4.574245,1.9245441,-0.12907717,-0.94344866,-0.30535793,0
1.8104998,3.36447,-2.6429532,-0.032444715,0.31178707,-0.94959784,0
-2.868494,-1.3765621,3.3318026,0.032444715,-0.31178707,0.94959784,0
-2.7592559,1.489728,1.3753892,-0.99110359,0.11266422,0.070854396,0
0.65795684,-1.1034577,3.3009853,0.032444715,-0.31178707,0.94959784,0
-2.9042234,-0.12581301,1.9164364,-0.99110359,0.11266422,0.070854396,0
1.2060814,-3.3196187,-1.7153218,-0.12907717,-0.94344866,-0.30535793,0
0.097930431,-2.5816729,-3.5268905,-0.12907717,-0.94344866,-0.30535793,0
0.86935866,-3.3917234,-1.350209,-0.12907717,-0.94344866,-0.30535793,0
-0.17836666,-1.3246161,-4.1145949,-0.032444715,0.31178707,-0.94959784,0
2.6914005,-2.7394862,-0.33732617,0.99110359,-0.11266422,-0.070854396,0
3.3203764,2.9428306,-0.57461548,0.99110359,-0.11266422,-0.070854396,0
-0.71758044,4.1475763,-2.2994547,-0.032444715,0.31178707,-0.94959784,0
-0.45759964,2.8942673,2.7131195,0.12907717,0.94344866,0.30535793,0
3.2504554,3.5483792,-2.5155301,0.99110359,-0.11266422,-0.070854396,0
-2.3010612,-3.808497,1.277637,-0.12907717,-0.94344866,-0.30535793,0
1.8748348,4.0588913,-1.871098,0.12907717,0.94344866,0.30535793,0
0.28976274,-3.7320848,-0.053611517,-0.12907717,-0.94344866,-0.30535793,0
-2.5240912,-3.3416173,-0.070580006,-0.12907717,-0.94344866,-0.30535793,0
1.4985536,4.0081005,-1.5551143,0.12907717,0.94344866,0.30535793,0
-2.0252876,-3.5180745,2.5998578,0.032444715,-0.31178707,0.94959784,0
-2.6776338,2.0145698,1.6825691,-0.99110359,0.11266422,0.070854396,0
-0.93577433,-1.3217294,-4.087769,-0.032444715,0.31178707,-0.94959784,0
2.2141128,-2.0727098,2.9295764,0.032444715,-0.31178707,0.94959784,0
-2.9812093,-1.5199363,3.0563326,-0.99110359,0.11266422,0.070854396,0
0.65132046,3.711499,-0.28058863,0.12907717,0.94344866,0.30535793,0
2.8567891,0.27933168,-2.824048,0.99110359,-0.11266422,-0.070854396,0
2.2215712,2.8836887,-2.8148558,-0.032444715,0.31178707,-0.94959784,0
-3.244056,-1.9632354,0.084546328,-0.99110359,0.11266422,0.070854396,0
0.9629755,-4.1266994,2.297925,0.032444715,-0.31178707,0.94959784,0
2.84027,-2.6882989,1.6636505,0.99110359,-0.11266422,-0.070854396,0
1.4315655,1.831172,-3.1334426,-0.032444715,0.31178707,-0.94959784,0
-2.1419768,3.0999286,2.7896967,0.12907717,0.94344866,0.30535793,0
3.3016398,3.0051405,-0.93578053,0.99110359,-0.11266422,-0.070854396,0
3.3723588,2.8071742,0.36820841,0.99110359,-0.11266422,-0.070854396,0
0.52656662,-3.8406074,0.18158698,-0.12907717,-0.94344866,-0.30535793,0
-0.15488206,-3.9384069,0.77180648,-0.12907717,-0.94344866,-0.30535793,0
2.1311707,0.066910505,-3.7366161,-0.032444715,0.31178707,-0.94959784,0
1.4116719,-4.1872406,0.87842059,-0.12907717,-0.94344866,-0.30535793,0
2.9542065,0.011578798,-1.0356376,0.99110359,-0.11266422,-0.070854396,0
1.5551572,1.9228024,-3.1075797,-0.032444715,0.31178707,-0.94959784,0
-1.2090044,-2.1601801,-4.2767034,-0.12907717,-0.94344866,-0.30535793,0
-2.6122739,0.29786301,3.8728223,0.032444715,-0.31178707,0.94959784,0
2.9634557,-1.6739547,1.7738686,0.99110359,-0.11266422,-0.070854396,0
2.2699058,-3.1494203,-2.6908627,-0.12907717,-0.94344866,-0.30535793,0
-0.9591943,3.7447741,0.29738045,0.12907717,0.94344866,0.30535793,0
0.4757328,2.4124596,3.8072081,0.12907717,0.94344866,0.30535793,0
-0.13219643,2.3198318,4.3503714,0.12907717,0.94344866,0.30535793,0
-2.9649272,1.3430828,-1.2683392,-0.99110359,0.11266422,0.070854396,0
-2.2812667,-2.7560802,-1.9823289,-0.12907717,-0.94344866,-0.30535793,0
3.1328683,3.276906,0.013181686,0.12907717,0.94344866,0.30535793,0
2.6875811,1.603128,4.1203089,0.032444715,-0.31178707,0.94959784,0
1.9422154,1.8029926,4.2113981,0.032444715,-0.31178707,0.94959784,0
0.75959396,-3.6220992,2.4705524,0.032444715,-0.31178707,0.94959784,0
1.6129158,-3.5012419,-1.3261423,-0.12907717,-0.94344866,-0.30535793,0
-2.9528351,-0.18388939,1.328808,-0.99110359,0.11266422,0.070854396,0
1.6775737,1.3404071,-3.3029835,-0.032444715,0.31178707,-0.94959784,0
-2.9670668,1.5206668,-1.5806421,-0.99110359,0.11266422,0.070854396,0
-0.50624061,2.7341802,3.2282932,0.12907717,0.94344866,0.30535793,0
3.3555508,2.7086651,1.6747155,0.12907717,0.94344866,0.30535793,0
1.2207553,2.3098862,3.8091974,0.12907717,0.94344866,0.30535793,0
0.33847642,3.1754684,1.5077989,0.12907717,0.94344866,0.30535793,0
2.788775,-2.910532,1.2967103,0.99110359,-0.11266422,-0.070854396,0
2.6914966,3.2386572,0.31792736,0.12907717,0.94344866,0.30535793,0
-1.0450308,-3.4455938,-0.37454033,-0.12907717,-0.94344866,-0.30535793,0
3.2459729,0.43141687,2.3779759,0.99110359,-0.11266422,-0.070854396,0
0.58877301,2.701407,2.8666799,0.12907717,0.94344866,0.30535793,0
1.5114746,-2.5339429,2.8021438,0.032444715,-0.31178707,0.94959784,0
0.96901608,0.93315816,-3.4124889,-0.032444715,0.31178707,-0.94959784,0
1.8388085,-4.2686815,0.94949079,-0.12907717,-0.94344866,-0.30535793,0
2.6671991,1.6577785,4.1389489,0.032444715,-0.31178707,0.94959784,0
-1.1158633,-3.2170544,-1.0507045,-0.12907717,-0.94344866,-0.30535793,0
-2.2397425,-0.3541193,3.6460247,0.032444715,-0.31178707,0.94959784,0
-1.6110007,3.8500564,0.24761844,0.12907717,0.94344866,0.30535793,0
-0.051449716,-3.7127132,0.03077054,-0.12907717,-0.94344866,-0.30535793,0
-2.836899,2.7332044,-1.6879003,-0.99110359,0.11266422,0.070854396,0
-2.6329534,4.2696075,-1.2781346,-0.99110359,0.11266422,0.070854396,0
1.8612275,3.0451677,1.2667031,0.12907717,0.94344866,0.30535793,0
0.72862458,-1.7101414,3.0993748,0.032444715,-0.31178707,0.94959784,0
-2.3895779,1.9582205,-2.9611721,-0.032444715,0.31178707,-0.94959784,0
2.9123008,-0.49676132,-0.81351054,0.99110359,-0.11266422,-0.070854396,0
1.2453526,3.9929442,-2.4172926,-0.032444715,0.31178707,-0.94959784,0
-3.3174672,-3.24455,1.0950694,-0.99110359,0.11266422,0.070854396,0
3.2625151,-0.14138448,3.5201697,0.99110359,-0.11266422,-0.070854396,0
-3.4384623,-2.447819,-1.8642631,-0.99110359,0.11266422,0.070854396,0
1.5170708,3.5163519,-2.5830586,-0.032444715,0.31178707,-0.94959784,0
0.078699589,2.8466268,-2.7538095,-0.032444715,0.31178707,-0.94959784,0
-2.1798723,-2.4979973,-2.8225744,-0.12907717,-0.94344866,-0.30535793,0
1.5737035,-3.7911148,-0.41396165,-0.12907717,-0.94344866,-0.30535793,0
3.0714617,2.9461308,1.0611172,0.12907717,0.94344866,0.30535793,0
0.55034876,3.1587899,1.4697695,0.12907717,0.94344866,0.30535793,0
-1.0279461,-3.1511478,2.6862564,0.032444715,-0.31178707,0.94959784,0
-1.1087275,-2.8714759,-2.1214368,-0.12907717,-0.94344866,-0.30535793,0
2.8704948,-0.92645597,-0.71503472,0.99110359,-0.11266422,-0.070854396,0
0.1798197,-4.0720572,2.3426239,0.032444715,-0.31178707,0.94959784,0
1.2379584,-4.1941562,0.97321749,-0.12907717,-0.94344866,-0.30535793,0
-0.9560554,3.4939959,1.0708694,0.12907717,0.94344866,0.30535793,0
1.6373389,-4.3123145,2.2139401,0.032444715,-0.31178707,0.94959784,0
-3.1248474,0.65635002,-2.4133267,-0.99110359,0.11266422,0.070854396,0
-0.50711584,1.6526864,4.2457328,0.032444715,-0.31178707,0.94959784,0
-0.49030614,3.1712985,1.8710155,0.12907717,0.94344866,0.30535793,0
2.4152417,2.1117189,-3.0749378,-0.032444715,0.31178707,-0.94959784,0
-0.862041,-1.919034,3.0851355,0.032444715,-0.31178707,0.94959784,0
2.4390173,3.5004025,-2.6197953,-0.032444715,0.31178707,-0.94959784,0
-2.4389927,-0.92870617,3.464175,0.032444715,-0.31178707,0.94959784,0
0.52266353,-3.8343468,0.16389346,-0.12907717,-0.94344866,-0.30535793,0
-0.8584795,-1.0293748,-3.9944196,-0.032444715,0.31178707,-0.94959784,0
-0.79594028,4.4986229,-2.1815166,-0.032444715,0.31178707,-0.94959784,0
1.7533689,-3.7358625,-0.66061759,-0.12907717,-0.94344866,-0.30535793,0
-1.0090773,-2.9579844,2.7490346,0.032444715,-0.31178707,0.94959784,0
0.15708335,-3.9380488,0.63882971,-0.12907717,-0.94344866,-0.30535793,0
-3.0142179,0.54718113,-0.69226718,-0.99110359,0.11266422,0.070854396,0
-1.3536668,1.3905706,4.1885948,0.032444715,-0.31178707,0.94959784,0
-1.9116924,2.7260339,-2.7253993,-0.032444715,0.31178707,-0.94959784,0
1.2484094,-3.4382226,-1.3667691,-0.12907717,-0.94344866,-0.30535793,0
2.1601982,-1.9071207,-4.3857532,-0.032444715,0.31178707,-0.94959784,0
-2.2746079,1.4453567,-3.133492,-0.032444715,0.31178707,-0.94959784,0
0.70225215,3.18483,-2.6640701,-0.032444715,0.31178707,-0.94959784,0
2.8332157,-2.9499147,1.9809655,0.99110359,-0.11266422,-0.070854396,0
3.1723466,-0.76067328,3.2436192,0.99110359,-0.11266422,-0.070854396,0
2.406002,0.89276659,3.8966925,0.032444715,-0.31178707,0.94959784,0
-0.76091623,-2.1987715,-4.3468795,-0.12907717,-0.94344866,-0.30535793,0
1.3696182,3.9545412,-1.335135,0.12907717,0.94344866,0.30535793,0
2.5302241,2.1310666,3.8081632,0.12907717,0.94344866,0.30535793,0
2.9179175,-1.9542742,1.5826161,0.99110359,-0.11266422,-0.070854396,0
-0.77893984,4.0541677,-0.73473334,0.12907717,0.94344866,0.30535793,0
0.18779087,2.3386607,4.1569366,0.12907717,0.94344866,0.30535793,0
-0.74380827,-2.0183296,-4.3230467,-0.032444715,0.31178707,-0.94959784,0
2.0781903,-3.914031,2.3296485,0.032444715,-0.31178707,0.94959784,0
-2.1290812,-3.3593357,2.6555233,0.032444715,-0.31178707,0.94959784,0
1.5591402,1.8192959,4.2298403,0.032444715,-0.31178707,0.94959784,0
-2.6221995,3.9002535,-0.54041147,-0.99110359,0.11266422,0.070854396,0
-0.83192825,3.2161911,-2.6013551,-0.032444715,0.31178707,-0.94959784,0
1.9463692,1.1902766,4.0100803,0.032444715,-0.31178707,0.94959784,0
2.4849176,-2.4323354,-3.7139788,0.99110359,-0.11266422,-0.070854396,0
3.2115419,2.5677817,-1.500622,0.99110359,-0.11266422,-0.070854396,0
2.3211641,1.20116,4.0008478,0.032444715,-0.31178707,0.94959784,0
-0.43189049,3.0582037,2.1957462,0.12907717,0.94344866,0.30535793,0
0.79468727,-0.79217839,-3.9730225,-0.032444715,0.31178707,-0.94959784,0
-0.91119146,-3.709547,0.38440657,-0.12907717,-0.94344866,-0.30535793,0
2.6060562,-3.106456,-0.94760084,0.99110359,-0.11266422,-0.070854396,0
3.2861214,1.9639071,0.50279284,0.99110359,-0.11266422,-0.070854396,0
2.7793896,-3.5396352,2.4286184,0.032444715,-0.31178707,0.94959784,0
-1.5328627,1.9927955,4.3924494,0.032444715,-0.31178707,0.94959784,0
-1.9030175,3.4133728,-2.5000176,-0.032444715,0.31178707,-0.94959784,0
-2.866761,1.13256,0.43954563,-0.99110359,0.11266422,0.070854396,0
2.989378,-1.5231233,1.8966354,0.99110359,-0.11266422,-0.070854396,0
2.1301775,2.5849011,2.5750782,0.12907717,0.94344866,0.30535793,0
-0.65139771,-1.232421,3.3033786,0.032444715,-0.31178707,0.94959784,0
-2.7697434,2.2468436,0.024814248,-0.99110359,0.11266422,0.070854396,0
2.6242836,-1.0970206,-3.887795,0.99110359,-0.11266422,-0.070854396,0
1.8986692,2.6667457,2.4200673,0.12907717,0.94344866,0.30535793,0
0.91556668,-3.3481064,-1.5045023,-0.12907717,-0.94344866,-0.30535793,0
0.97815919,3.5786524,-2.5441906,-0.032444715,0.31178707,-0.94959784,0
-3.2002425,-2.8400359,-1.334476,-0.12907717,-0.94344866,-0.30535793,0
0.34469414,1.3380463,-3.2582188,-0.032444715,0.31178707,-0.94959784,0
-0.22962952,0.32651973,3.8008242,0.032444715,-0.31178707,0.94959784,0
3.4740992,1.9046122,3.2264838,0.99110359,-0.11266422,-0.070854396,0
-3.0506787,-1.3943884,1.8849694,-0.99110359,0.11266422,0.070854396,0
0.49526548,1.8672637,4.2819381,0.032444715,-0.31178707,0.94959784,0
-1.4602203,4.0207644,-2.3157184,-0.032444715,0.31178707,-0.94959784,0
-3.2837379,-0.58960813,-3.7671652,-0.032444715,0.31178707,-0.94959784,0
3.1589334,1.6445212,-0.76844835,0.99110359,-0.11266422,-0.070854396,0
-3.088392,-0.53122735,-0.015049934,-0.99110359,0.11266422,0.070854396,0
3.4267786,2.0330248,2.3603873,0.99110359,-0.11266422,-0.070854396,0
2.9073207,0.45593357,-2.3980231,0.99110359,-0.11266422,-0.070854396,0
3.0653255,1.9886771,4.0219054,0.12907717,0.94344866,0.30535793,0
-2.2449725,3.9493303,0.20888186,0.12907717,0.94344866,0.30535793,0
-0.94172764,2.5117598,4.099576,0.12907717,0.94344866,0.30535793,0
3.097466,2.2149301,-2.5352416,0.99110359,-0.11266422,-0.070854396,0
3.3738763,2.7787642,0.43461323,0.99110359,-0.11266422,-0.070854396,0
2.3586335,-3.8349175,-0.61042333,-0.12907717,-0.94344866,-0.30535793,0
3.1340876,-0.55146366,3.3976235,0.032444715,-0.31178707,0.94959784,0
-1.6025872,-1.2587485,-4.0443072,-0.032444715,0.31178707,-0.94959784,0
-1.1756159,-3.1878843,-1.1155722,-0.12907717,-0.94344866,-0.30535793,0
-1.3267262,4.0722489,-0.55904317,0.12907717,0.94344866,0.30535793,0
-0.012653828,-0.66565406,-3.9038959,-0.032444715,0.31178707,-0.94959784,0
3.4336886,1.3179448,3.5940754,0.99110359,-0.11266422,-0.070854396,0
3.1708307,3.0263047,0.77140236,0.12907717,0.94344866,0.30535793,0
3.364435,1.8050152,1.8508861,0.99110359,-0.11266422,-0.070854396,0
3.0148146,-1.7269852,2.5765948,0.99110359,-0.11266422,-0.070854396,0
1.7220714,0.98137164,3.9491522,0.032444715,-0.31178707,0.94959784,0
1.4592844,-3.3578451,-1.7042472,-0.12907717,-0.94344866,-0.30535793,0
-2.5732381,-3.7581415,1.2371082,-0.12907717,-0.94344866,-0.30535793,0
-1.8399515,0.10795689,3.7840815,0.032444715,-0.31178707,0.94959784,0
2.9905844,-1.8941411,2.5034554,0.99110359,-0.11266422,-0.070854396,0
2.3201308,-3.6486163,-1.1697519,-0.12907717,-0.94344866,-0.30535793,0
1.4169264,-2.2966459,-4.4882531,-0.032444715,0.31178707,-0.94959784,0
-1.701344,1.5148854,-3.1302495,-0.032444715,0.31178707,-0.94959784,0
2.4246392,3.1499209,-2.7343802,-0.032444715,0.31178707,-0.94959784,0
-1.1417384,3.9548721,-2.3482347,-0.032444715,0.31178707,-0.94959784,0
0.28958464,-3.1452744,-1.8665738,-0.12907717,-0.94344866,-0.30535793,0
2.6085932,-1.3610642,-3.6874228,0.99110359,-0.11266422,-0.070854396,0
-1.2474358,-2.4030313,-3.5101333,-0.12907717,-0.94344866,-0.30535793,0
0.52796364,4.2568197,-1.9132936,0.12907717,0.94344866,0.30535793,0
1.0223808,3.0157866,1.7120674,0.12907717,0.94344866,0.30535793,0
-2.8643303,-3.9790478,2.0426764,-0.12907717,-0.94344866,-0.30535793,0
3.2370827,3.3586905,-2.4009676,0.99110359,-0.11266422,-0.070854396,0
1.3263881,-3.6763315,2.4333804,0.032444715,-0.31178707,0.94959784,0
2.5257611,-3.5465086,-1.3710386,0.99110359,-0.11266422,-0.070854396,0
-2.3440888,-0.17332035,-3.6625881,-0.032444715,0.31178707,-0.94959784,0
2.8033447,2.4686465,2.6497104,0.12907717,0.94344866,0.30535793,0
1.4881529,-4.2730861,1.1113234,-0.12907717,-0.94344866,-0.30535793,0
3.0543003,1.7554371,-2.408402,0.99110359,-0.11266422,-0.070854396,0
0.28928232,-2.8247454,-2.8567686,-0.12907717,-0.94344866,-0.30535793,0
-1.8702767,-1.848555,-4.228816,-0.032444715,0.31178707,-0.94959784,0
-2.0395293,-3.5906911,2.5765016,0.032444715,-0.31178707,0.94959784,0
-2.1243207,2.7108026,3.9844956,0.12907717,0.94344866,0.30535793,0
-2.8013637,3.4795058,-2.4476104,-0.032444715,0.31178707,-0.94959784,0
-0.56601799,3.3052835,1.4890525,0.12907717,0.94344866,0.30535793,0
1.3298459,0.83431625,-3.4572709,-0.032444715,0.31178707,-0.94959784,0
1.6793172,4.1359696,-2.0265968,0.12907717,0.94344866,0.30535793,0
2.6206679,3.6741109,-0.99753189,0.12907717,0.94344866,0.30535793,0
1.9620736,3.8336706,-1.2121215,0.12907717,0.94344866,0.30535793,0
-0.23460816,-3.8748114,0.60901928,-0.12907717,-0.94344866,-0.30535793,0
2.319906,2.433089,2.9639244,0.12907717,0.94344866,0.30535793,0
-3.4765906,-2.4289796,-2.4275517,-0.99110359,0.11266422,0.070854396,0
-2.8412905,-3.3401699,0.059030056,-0.12907717,-0.94344866,-0.30535793,0
2.024837,-4.0347571,2.2918327,0.032444715,-0.31178707,0.94959784,0
0.41892648,-0.84858167,3.392837,0.032444715,-0.31178707,0.94959784,0
-1.9971275,-0.12862951,-3.6597686,-0.032444715,0.31178707,-0.94959784,0
-1.0317321,2.7375574,3.4399886,0.12907717,0.94344866,0.30535793,0
-3.3913932,-1.9115657,-4.1223221,-0.12907717,-0.94344866,-0.30535793,0
-2.6867366,2.9416299,0.081139207,-0.99110359,0.11266422,0.070854396,0
2.5020983,-4.0700135,2.2639503,0.032444715,-0.31178707,0.94959784,0
2.6880515,-0.77808332,-3.5029507,0.99110359,-0.11266422,-0.070854396,0
2.215822,-4.4882946,2.136395,0.032444715,-0.31178707,0.94959784,0
2.9804983,-2.1571875,2.7806392,0.99110359,-0.11266422,-0.070854396,0
-3.1032457,-1.9494874,2.0323231,-0.99110359,0.11266422,0.070854396,0
-1.9735711,1.2502854,4.1637139,0.032444715,-0.31178707,0.94959784,0
-1.2659307,-1.9333764,-4.2773142,-0.032444715,0.31178707,-0.94959784,0
-3.1721025,-2.4975107,1.9405608,-0.99110359,0.11266422,0.070854396,0
2.6548841,-2.179801,-1.7380561,0.99110359,-0.11266422,-0.070854396,0
2.1951332,4.1568727,-2.3092196,0.12907717,0.94344866,0.30535793,0
-2.6379161,1.3159432,3.3490062,-0.99110359,0.11266422,0.070854396,0
1.6850095,2.2475853,-3.0053785,-0.032444715,0.31178707,-0.94959784,0
-2.7961998,0.5921495,2.2858367,-0.99110359,0.11266422,0.070854396,0
1.2463263,3.6204226,-0.25070858,0.12907717,0.94344866,0.30535793,0
1.3473314,-4.062099,0.51897287,-0.12907717,-0.94344866,-0.30535793,0
3.2410383,3.113117,-1.955157,0.99110359,-0.11266422,-0.070854396,0
-1.7128909,-4.0716934,1.8421965,-0.12907717,-0.94344866,-0.30535793,0
2.8822639,-0.80877209,-0.73753804,0.99110359,-0.11266422,-0.070854396,0
-2.2394655,3.09516,2.8456395,0.12907717,0.94344866,0.30535793,0
2.4208522,-2.3719268,-4.5472713,-0.032444715,0.31178707,-0.94959784,0
-1.6896769,3.7277446,0.65877557,0.12907717,0.94344866,0.30535793,0
2.0673938,-4.0904579,0.30221677,-0.12907717,-0.94344866,-0.30535793,0
-2.5102253,-3.6248419,0.79862261,-0.12907717,-0.94344866,-0.30535793,0
2.4926057,2.5213845,2.61812,0.12907717,0.94344866,0.30535793,0
-3.0043635,-2.7210829,-1.7847986,-0.12907717,-0.94344866,-0.30535793,0
2.3590941,-4.0684876,0.11103344,-0.12907717,-0.94344866,-0.30535793,0
-3.2386966,-2.4148555,-2.6318789,-0.12907717,-0.94344866,-0.30535793,0
-1.1966863,-0.3245213,3.6201053,0.032444715,-0.31178707,0.94959784,0
2.9206657,3.1227384,-2.7602527,-0.032444715,0.31178707,-0.94959784,0
2.1464009,3.1981688,-2.7090325,-0.032444715,0.31178707,-0.94959784,0
2.9144375,-0.73608184,-0.40308446,0.99110359,-0.11266422,-0.070854396,0
3.0637884,-0.057243228,3.5622959,0.032444715,-0.31178707,0.94959784,0
3.1893079,2.1814718,3.3738296,0.12907717,0.94344866,0.30535793,0
2.6010318,-1.4749084,-3.612165,0.99110359,-0.11266422,-0.070854396,0
1.5256861,-3.8704569,-0.14852524,-0.12907717,-0.94344866,-0.30535793,0
-0.09005928,-1.4651271,-4.1637473,-0.032444715,0.31178707,-0.94959784,0
1.2855988,3.5057712,-2.5786245,-0.032444715,0.31178707,-0.94959784,0
-2.4376621,-4.0168161,1.9790125,-0.12907717,-0.94344866,-0.30535793,0
-2.8783388,-2.2437277,-3.3129301,-0.12907717,-0.94344866,-0.30535793,0
3.3184581,2.9535794,-0.61853886,0.99110359,-0.11266422,-0.070854396,0
2.9051878,-0.5902493,-0.76435125,0.99110359,-0.11266422,-0.070854396,0
-3.074553,-0.12957144,-0.46013618,-0.99110359,0.11266422,0.070854396,0
0.63464463,3.2653337,1.104954,0.12907717,0.94344866,0.30535793,0
2.9083302,-0.58894444,-0.72246718,0.99110359,-0.11266422,-0.070854396,0
2.1468139,3.0176437,1.2310228,0.12907717,0.94344866,0.30535793,0
-1.3568439,-3.3447039,-0.5544486,-0.12907717,-0.94344866,-0.30535793,0
-2.3605034,3.3464797,2.1203141,0.12907717,0.94344866,0.30535793,0
-1.3578606,-1.5430994,-4.1460314,-0.032444715,0.31178707,-0.94959784,0
3.2819703,3.5589306,-2.091485,0.99110359,-0.11266422,-0.070854396,0
0.46746063,-3.719831,-0.16658521,-0.12907717,-0.94344866,-0.30535793,0
2.6833248,-1.939158,-1.722874,0.99110359,-0.11266422,-0.070854396,0
-0.73702991,3.0659783,-2.6539178,-0.032444715,0.31178707,-0.94959784,0
-3.2373505,-0.54171109,-2.0819957,-0.99110359,0.11266422,0.070854396,0
-1.7210555,1.3625288,4.1919398,0.032444715,-0.31178707,0.94959784,0
-3.206357,-0.59867191,-1.5578876,-0.99110359,0.11266422,0.070854396,0
1.8825846,2.2441707,3.732475,0.12907717,0.94344866,0.30535793,0
-1.9643468,3.7697408,0.6451273,0.12907717,0.94344866,0.30535793,0
-3.1263232,1.0556283,-3.0688486,-0.99110359,0.11266422,0.070854396,0
-1.1820489,-3.1855531,-1.1200562,-0.12907717,-0.94344866,-0.30535793,0
-1.9309666,2.8574228,-2.681601,-0.032444715,0.31178707,-0.94959784,0
1.3903439,-2.1254218,2.9404147,0.032444715,-0.31178707,0.94959784,0
1.6997883,3.7022307,-0.69514894,0.12907717,0.94344866,0.30535793,0
-2.061229,1.264249,-3.2002463,-0.032444715,0.31178707,-0.94959784,0
-2.7679,0.4033792,2.9818521,-0.99110359,0.11266422,0.070854396,0
2.817426,-1.3938479,-0.71416688,0.99110359,-0.11266422,-0.070854396,0
-0.082401693,3.7954478,-0.22981095,0.12907717,0.94344866,0.30535793,0
2.5906873,-4.1924849,0.56429291,0.99110359,-0.11266422,-0.070854396,0
2.3716855,-3.0385544,-3.0764208,-0.12907717,-0.94344866,-0.30535793,0
-0.42576784,-3.5132999,-0.42711997,-0.12907717,-0.94344866,-0.30535793,0
0.38799095,-2.3519597,-4.3592348,-0.12907717,-0.94344866,-0.30535793,0
-1.6752336,-1.5949442,3.2193301,0.032444715,-0.31178707,0.94959784,0
-1.6899143,3.8875425,0.16515684,0.12907717,0.94344866,0.30535793,0
-1.6129045,-2.3379769,-3.5566423,-0.12907717,-0.94344866,-0.30535793,0
2.9493937,-0.93727303,0.40579337,0.99110359,-0.11266422,-0.070854396,0
2.2765076,-3.1204565,-2.7831397,-0.12907717,-0.94344866,-0.30535793,0
-0.57468843,0.11449265,3.7429974,0.032444715,-0.31178707,0.94959784,0
1.742147,1.3581858,4.0721879,0.032444715,-0.31178707,0.94959784,0
-1.7200558,0.21591544,3.8154316,0.032444715,-0.31178707,0.94959784,0
-2.0239844,2.6563423,4.1103463,0.12907717,0.94344866,0.30535793,0
-1.1758858,-3.9489777,2.4293551,0.032444715,-0.31178707,0.94959784,0
-0.90153265,3.1645055,2.0658314,0.12907717,0.94344866,0.30535793,0
1.9611278,1.5548189,4.1292682,0.032444715,-0.31178707,0.94959784,0
-2.7704124,3.1526818,-1.4248965,-0.99110359,0.11266422,0.070854396,0
-2.2149484,-3.2312224,-0.54233885,-0.12907717,-0.94344866,-0.30535793,0
1.4925241,1.6306832,4.1701875,0.032444715,-0.31178707,0.94959784,0
-0.74714875,2.8482261,2.9777656,0.12907717,0.94344866,0.30535793,0
-2.4416931,2.9923947,3.2486329,0.12907717,0.94344866,0.30535793,0
-2.263541,-0.88510245,-3.8990436,-0.032444715,0.31178707,-0.94959784,0
2.8149679,-2.8065147,1.4976987,0.99110359,-0.11266422,-0.070854396,0
0.055259943,-3.0804796,-1.967716,-0.12907717,-0.94344866,-0.30535793,0
3.0990088,3.5616648,-0.85231066,0.12907717,0.94344866,0.30535793,0
-1.2109498,2.5646248,-2.8023376,-0.032444715,0.31178707,-0.94959784,0
-3.0337863,1.6474642,-2.7155221,-0.99110359,0.11266422,0.070854396,0
2.9804134,4.009531,-2.471128,-0.032444715,0.31178707,-0.94959784,0
3.1393843,0.42384529,0.89907074,0.99110359,-0.11266422,-0.070854396,0
1.9311773,3.4114833,-2.63164,-0.032444715,0.31178707,-0.94959784,0
-3.0038037,-2.2403305,-3.2703917,-0.12907717,-0.94344866,-0.30535793,0
-1.873256,-2.4452214,-3.1152413,-0.12907717,-0.94344866,-0.30535793,0
-0.84469032,-3.3635511,-0.71270847,-0.12907717,-0.94344866,-0.30535793,0
-2.6122079,-1.5655557,-4.110548,-0.032444715,0.31178707,-0.94959784,0
2.2735806,3.9450569,-1.687943,0.12907717,0.94344866,0.30535793,0
2.1908545,-3.9677391,2.3081651,0.032444715,-0.31178707,0.94959784,0
-2.231492,4.3618665,-1.071408,0.12907717,0.94344866,0.30535793,0
0.051553249,-2.2249298,-4.418056,-0.032444715,0.31178707,-0.94959784,0
2.861809,-0.93714237,-0.81953859,0.99110359,-0.11266422,-0.070854396,0
2.6950581,-2.6058378,-0.49867254,0.99110359,-0.11266422,-0.070854396,0
-2.3412411,3.856688,0.53580761,0.12907717,0.94344866,0.30535793,0
1.8913357,3.2569714,-2.6810105,-0.032444715,0.31178707,-0.94959784,0
-1.5102345,-3.9909863,1.5071774,-0.12907717,-0.94344866,-0.30535793,0
1.067723,0.64925671,-3.5090766,-0.032444715,0.31178707,-0.94959784,0
-0.5360027,4.2267098,-1.3705187,0.12907717,0.94344866,0.30535793,0
-3.0622406,-2.3571963,3.0164452,0.032444715,-0.31178707,0.94959784,0
-2.8614388,-2.3163769,-3.0956128,-0.12907717,-0.94344866,-0.30535793,0
-1.4517081,0.49414611,3.8976164,0.032444715,-0.31178707,0.94959784,0
2.7466166,-1.7362673,-1.1601675,0.99110359,-0.11266422,-0.070854396,0
1.652445,3.3466961,0.42333984,0.12907717,0.94344866,0.30535793,0
2.8104725,-1.6002889,-0.4831731,0.99110359,-0.11266422,-0.070854396,0
-0.6967473,-1.5387156,-4.1671796,-0.032444715,0.31178707,-0.94959784,0
1.1597489,-3.0695763,2.6382935,0.032444715,-0.31178707,0.94959784,0
-2.5647087,2.9600496,1.7587616,-0.99110359,0.11266422,0.070854396,0
-1.8969692,3.3398881,-2.5243521,-0.032444715,0.31178707,-0.94959784,0
2.2316425,3.5823364,-0.54953671,0.12907717,0.94344866,0.30535793,0
-2.8260398,1.0305779,1.1713095,-0.99110359,0.11266422,0.070854396,0
1.66869,-4.3225732,1.1879065,-0.12907717,-0.94344866,-0.30535793,0
-1.0739143,-2.4001191,-3.5924802,-0.12907717,-0.94344866,-0.30535793,0
3.4981916,1.926947,4.0296535,0.12907717,0.94344866,0.30535793,0
-0.87660885,-1.1442463,3.340024,0.032444715,-0.31178707,0.94959784,0
-2.6195149,3.6388066,-0.087134838,-0.99110359,0.11266422,0.070854396,0
3.0256429,1.5497313,-2.4821715,0.99110359,-0.11266422,-0.070854396,0
-3.3479342,-2.7648921,-0.093794823,-0.99110359,0.11266422,0.070854396,0
-1.1285763,-0.70298266,-3.8780246,-0.032444715,0.31178707,-0.94959784,0
3.3272266,2.9725268,-0.52601671,0.99110359,-0.11266422,-0.070854396,0
-1.6770623,0.19015172,-3.5660369,-0.032444715,0.31178707,-0.94959784,0
2.7223587,-1.537169,3.0880487,0.032444715,-0.31178707,0.94959784,0
-3.0589225,-0.93133569,1.0333681,-0.99110359,0.11266422,0.070854396,0
2.6912169,0.008597374,-3.7748971,-0.032444715,0.31178707,-0.94959784,0
3.2090673,0.81085157,1.2584181,0.99110359,-0.11266422,-0.070854396,0
0.020349979,2.3313379,4.2503386,0.12907717,0.94344866,0.30535793,0
-3.2215438,-0.31682849,-2.2184725,-0.99110359,0.11266422,0.070854396,0
3.0916893,1.6767297,-1.7602642,0.99110359,-0.11266422,-0.070854396,0
1.0703646,-4.0250621,2.3276267,0.032444715,-0.31178707,0.94959784,0
1.1467428,-3.5793211,-0.88785028,-0.12907717,-0.94344866,-0.30535793,0
2.4003,-2.3558798,-4.5413003,-0.032444715,0.31178707,-0.94959784,0
-1.4181805,2.2399321,4.4696751,0.032444715,-0.31178707,0.94959784,0
-2.1335132,0.001196688,-3.6124823,-0.032444715,0.31178707,-0.94959784,0
2.7583821,-1.449254,-1.4519652,0.99110359,-0.11266422,-0.070854396,0
0.50073063,-4.3956833,1.9074976,-0.12907717,-0.94344866,-0.30535793,0
2.6679626,1.914454,-3.1483419,-0.032444715,0.31178707,-0.94959784,0
-3.0623026,0.75988078,-1.703076,-0.99110359,0.11266422,0.070854396,0
-0.85954547,2.9606919,2.6777964,0.12907717,0.94344866,0.30535793,0
2.5098059,1.96094,4.2438655,0.032444715,-0.31178707,0.94959784,0
0.14052612,3.548727,0.43823576,0.12907717,0.94344866,0.30535793,0
-2.9785604,-0.44074559,1.3773854,-0.99110359,0.11266422,0.070854396,0
-0.86550021,1.9591213,-3.0129492,-0.032444715,0.31178707,-0.94959784,0
3.1638098,2.5224764,-2.0962543,0.99110359,-0.11266422,-0.070854396,0
-0.95047355,-2.6599581,-2.8418477,-0.12907717,-0.94344866,-0.30535793,0
-2.8351696,1.1969445,-3.1959021,-0.032444715,0.31178707,-0.94959784,0
0.029035091,2.3705378,4.1255546,0.12907717,0.94344866,0.30535793,0
-1.377449,3.4108763,1.5058055,0.12907717,0.94344866,0.30535793,0
3.0165367,-1.3154455,1.9463027,0.99110359,-0.11266422,-0.070854396,0
-1.7132922,-2.9883528,-1.5047743,-0.12907717,-0.94344866,-0.30535793,0
-2.0723925,1.7651119,4.3361263,0.032444715,-0.31178707,0.94959784,0
-2.2210698,-3.4572363,0.15855169,-0.12907717,-0.94344866,-0.30535793,0
0.90329456,-0.8323617,3.3816133,0.032444715,-0.31178707,0.94959784,0
-0.93157029,-2.4156137,-3.6047764,-0.12907717,-0.94344866,-0.30535793,0
2.7186112,-2.3925247,-0.50840002,0.99110359,-0.11266422,-0.070854396,0
-1.8799148,-3.5579853,0.32562256,-0.12907717,-0.94344866,-0.30535793,0
-1.7209349,-2.4998927,-3.0107131,-0.12907717,-0.94344866,-0.30535793,0
0.94068909,-2.4382477,-4.3262653,-0.12907717,-0.94344866,-0.30535793,0
2.8975358,3.2708883,0.13125086,0.12907717,0.94344866,0.30535793,0
0.26202035,-1.1441637,3.3011479,0.032444715,-0.31178707,0.94959784,0
-2.8966541,0.64011669,0.80442381,-0.99110359,0.11266422,0.070854396,0
2.2093658,1.3716795,4.0606551,0.032444715,-0.31178707,0.94959784,0
0.706043,-0.97313219,3.342133,0.032444715,-0.31178707,0.94959784,0
0.046598434,2.3048873,4.3209672,0.12907717,0.94344866,0.30535793,0
3.3596125,1.5018452,2.2654905,0.99110359,-0.11266422,-0.070854396,0
2.5840321,-1.6531651,-3.5665164,0.99110359,-0.11266422,-0.070854396,0
-2.3000112,2.3642321,4.5406165,0.032444715,-0.31178707,0.94959784,0
-2.5813656,3.4236364,0.78862917,-0.99110359,0.11266422,0.070854396,0
0.87371993,2.7872353,2.4810505,0.12907717,0.94344866,0.30535793,0
-2.8928013,-3.0832269,-0.71305943,-0.12907717,-0.94344866,-0.30535793,0
2.8264184,-1.2569005,3.1765153,0.032444715,-0.31178707,0.94959784,0
-3.1022677,-1.2886779,0.99526286,-0.99110359,0.11266422,0.070854396,0
3.2539961,3.2011173,-1.9138296,0.99110359,-0.11266422,-0.070854396,0
3.087122,1.9333521,4.1836271,0.12907717,0.94344866,0.30535793,0
2.6609459,-2.4080248,-1.2903724,0.99110359,-0.11266422,-0.070854396,0
-3.3223851,-2.9353034,0.5345521,-0.99110359,0.11266422,0.070854396,0
-1.5482755,-1.5055217,-4.1271877,-0.032444715,0.31178707,-0.94959784,0
0.38707471,-3.1200805,-1.9856246,-0.12907717,-0.94344866,-0.30535793,0
1.3936552,3.8005071,-2.4855437,-0.032444715,0.31178707,-0.94959784,0
2.8479192,-0.62641907,-1.5079007,0.99110359,-0.11266422,-0.070854396,0
-1.2291114,-4.0044761,1.4300225,-0.12907717,-0.94344866,-0.30535793,0
3.2081358,0.11488402,2.3520327,0.99110359,-0.11266422,-0.070854396,0
-2.1369786,-0.40373492,3.6262231,0.032444715,-0.31178707,0.94959784,0
-0.061808825,-3.1738544,-1.6297348,-0.12907717,-0.94344866,-0.30535793,0
-1.7749047,3.4724488,1.4835763,0.12907717,0.94344866,0.30535793,0
-1.6896329,-1.3139515,3.3120823,0.032444715,-0.31178707,0.94959784,0
1.165611,-4.3043046,1.3441184,-0.12907717,-0.94344866,-0.30535793,0
-0.11408806,2.3073096,4.3814068,0.12907717,0.94344866,0.30535793,0
-3.061805,-2.2601149,-3.1847465,-0.12907717,-0.94344866,-0.30535793,0
1.0199388,-4.0196047,0.52607179,-0.12907717,-0.94344866,-0.30535793,0
2.6056261,3.5589957,-0.63550711,0.12907717,0.94344866,0.30535793,0
-2.3251228,4.1390576,-0.3434279,0.12907717,0.94344866,0.30535793,0
-3.1867356,-2.8999336,2.3757598,-0.99110359,0.11266422,0.070854396,0
3.2318091,0.7555089,1.6645284,0.99110359,-0.11266422,-0.070854396,0
-3.2361727,-1.7883005,-0.083344698,-0.99110359,0.11266422,0.070854396,0
-1.0948079,-2.6495416,-2.8130195,-0.12907717,-0.94344866,-0.30535793,0
-0.2391091,-4.0657325,1.2008011,-0.12907717,-0.94344866,-0.30535793,0
-2.9752109,0.83928037,-0.61110324,-0.99110359,0.11266422,0.070854396,0
-0.33712,3.9460173,-0.58734584,0.12907717,0.94344866,0.30535793,0
1.1071236,3.8949084,-1.0399313,0.12907717,0.94344866,0.30535793,0
-0.35883737,2.8855817,2.6982069,0.12907717,0.94344866,0.30535793,0
-2.7551043,-3.958621,1.9333954,-0.12907717,-0.94344866,-0.30535793,0
0.17136145,-3.3800461,2.5701249,0.032444715,-0.31178707,0.94959784,0
0.5158217,0.70170546,-3.4729991,-0.032444715,0.31178707,-0.94959784,0
3.3946109,1.7165427,2.4136591,0.99110359,-0.11266422,-0.070854396,0
1.3417588,4.2310133,-2.1775596,0.12907717,0.94344866,0.30535793,0
1.5586507,-4.2677402,1.0650067,-0.12907717,-0.94344866,-0.30535793,0
-2.9185777,-0.81326628,2.8087535,-0.99110359,0.11266422,0.070854396,0
-3.2117581,-1.7106035,0.13461995,-0.99110359,0.11266422,0.070854396,0
2.4721804,-2.7755663,-3.3463783,0.99110359,-0.11266422,-0.070854396,0
-1.8058035,-2.1667278,-4.0042014,-0.12907717,-0.94344866,-0.30535793,0
-3.2013264,0.44788706,-3.151629,-0.99110359,0.11266422,0.070854396,0
-2.4781938,2.0811994,4.366364,-0.99110359,0.11266422,0.070854396,0
0.74426579,2.6550574,2.9441545,0.12907717,0.94344866,0.30535793,0
2.1457474,2.3611383,3.2598448,0.12907717,0.94344866,0.30535793,0
-0.93229818,0.69929457,3.9472272,0.032444715,-0.31178707,0.94959784,0
2.801719,3.7286062,-1.242434,0.12907717,0.94344866,0.30535793,0
-3.5079367,-2.1107574,-3.3720138,-0.99110359,0.11266422,0.070854396,0
2.9117594,-0.90575695,-0.17074567,0.99110359,-0.11266422,-0.070854396,0
2.755646,-2.1744039,-0.33719307,0.99110359,-0.11266422,-0.070854396,0
-2.1391625,-4.1348133,2.2174025,-0.12907717,-0.94344866,-0.30535793,0
-3.3865166,-0.88221961,-3.6270764,-0.99110359,0.11266422,0.070854396,0
2.7888696,-3.5753198,2.3551011,0.99110359,-0.11266422,-0.070854396,0
-1.7245712,-1.6354852,3.2077045,0.032444715,-0.31178707,0.94959784,0
2.2920821,-1.0659205,3.2574775,0.032444715,-0.31178707,0.94959784,0
-2.6578164,2.304338,1.4990159,-0.99110359,0.11266422,0.070854396,0
1.0265334,-0.19845611,3.585537,0.032444715,-0.31178707,0.94959784,0
-2.9875836,0.90734899,-0.89240569,-0.99110359,0.11266422,0.070854396,0
-1.5740702,4.5945807,-2.1234241,-0.032444715,0.31178707,-0.94959784,0
-0.032867551,4.216291,-1.5510073,0.12907717,0.94344866,0.30535793,0
0.92919278,-1.4612592,3.1742392,0.032444715,-0.31178707,0.94959784,0
-0.9257803,-2.8638437,-2.2223513,-0.12907717,-0.94344866,-0.30535793,0
-2.6883254,0.95091617,-3.2816992,-0.032444715,0.31178707,-0.94959784,0
3.1254191,0.39233327,0.75383401,0.99110359,-0.11266422,-0.070854396,0
3.0303631,-0.83189237,1.3708186,0.99110359,-0.11266422,-0.070854396,0
3.2583146,3.2697327,-1.9625299,0.99110359,-0.11266422,-0.070854396,0
0.77598357,2.7903938,2.5126066,0.12907717,0.94344866,0.30535793,0
2.7056344,-2.0240982,-1.2757468,0.99110359,-0.11266422,-0.070854396,0
1.9646244,0.18584132,-3.6918764,-0.032444715,0.31178707,-0.94959784,0
0.1984024,-0.29510093,-3.7894413,-0.032444715,0.31178707,-0.94959784,0
3.3625803,2.6783817,0.43621778,0.99110359,-0.11266422,-0.070854396,0
3.0355887,0.90150142,-1.312319,0.99110359,-0.11266422,-0.070854396,0
0.82815909,-4.4739175,2.0108063,-0.12907717,-0.94344866,-0.30535793,0
