4.2982616,-3.8312423,-1.8807194,0.96474308,0.04119432,0.25994968,0
2.056324,3.2412844,5.3189259,0.96474308,0.04119432,0.25994968,0
2.9052761,2.0047927,2.3641858,0.96474308,0.04119432,0.25994968,0
0.73795843,-4.9326143,-0.53285217,0.083582103,-0.98450094,-0.15418121,0
1.4917593,5.4449911,-1.5301175,-0.083582103,0.98450094,0.15418121,0
0.0089697838,-4.6951213,-2.4445174,0.083582103,-0.98450094,-0.15418121,0
-2.2469554,-4.9630504,-1.9566393,0.083582103,-0.98450094,-0.15418121,0
3.2290454,-5.0047975,1.2784866,0.083582103,-0.98450094,-0.15418121,0
0.81486702,4.182332,6.1654625,-0.083582103,0.98450094,0.15418121,0
2.7004044,3.3713932,2.9079516,0.96474308,0.04119432,0.25994968,0
0.26248494,-1.8597867,4.9814296,-0.24956933,-0.17047238,0.9532336,0
-0.78097248,1.1643256,5.2490578,-0.24956933,-0.17047238,0.9532336,0
-2.6511717,5.1408863,-1.8341935,-0.083582103,0.98450094,0.15418121,0
2.1564584,3.4261565,4.918005,0.96474308,0.04119432,0.25994968,0
-3.1363058,-4.1375093,-1.1687984,-0.96474308,-0.04119432,-0.25994968,0
4.184186,-0.18687117,-4.1832471,0.24956933,0.17047238,-0.9532336,0
4.7089949,-0.26911187,-3.9695539,0.96474308,0.04119432,0.25994968,0
4.7575803,-2.8287058,-4.5055799,0.24956933,0.17047238,-0.9532336,0
-3.3097668,4.2594786,3.436877,-0.083582103,0.98450094,0.15418121,0
0.31410694,-3.9397402,4.6229744,-0.24956933,-0.17047238,0.9532336,0
4.422327,0.78666496,-3.0729618,0.96474308,0.04119432,0.25994968,0
3.0119152,-4.4359689,2.989089,0.96474308,0.04119432,0.25994968,0
2.3596168,0.23819399,4.6692257,0.96474308,0.04119432,0.25994968,0
-4.2239194,1.2136399,2.0196288,-0.96474308,-0.04119432,-0.25994968,0
3.9591908,-0.8992092,-4.3695459,0.24956933,0.17047238,-0.9532336,0
-0.087332249,-2.5622334,-5.726388,0.24956933,0.17047238,-0.9532336,0
-0.88583755,-5.1910114,0.23683548,0.083582103,-0.98450094,-0.15418121,0
3.1766572,-5.134717,2.4884164,0.96474308,0.04119432,0.25994968,0
-2.9861512,4.1064539,4.5894279,-0.083582103,0.98450094,0.15418121,0
-2.4818835,1.0488729,-4.4194231,-0.96474308,-0.04119432,-0.25994968,0
2.0463471,0.69889355,-4.5845551,0.24956933,0.17047238,-0.9532336,0
-2.6720428,-5.3742065,0.43829513,0.083582103,-0.98450094,-0.15418121,0
-2.6331182,-2.4340968,4.1206145,-0.24956933,-0.17047238,0.9532336,0
1.8257537,-5.6003017,4.3202591,0.083582103,-0.98450094,-0.15418121,0
-1.4115207,5.2432804,-1.8159955,-0.083582103,0.98450094,0.15418121,0
3.7980475,-2.7338598,-0.19819391,0.96474308,0.04119432,0.25994968,0
-4.2226291,4.2980413,2.695776,-0.083582103,0.98450094,0.15418121,0
0.41304922,3.1659033,5.9196219,-0.24956933,-0.17047238,0.9532336,0
-1.7890626,2.968472,-5.1828351,0.24956933,0.17047238,-0.9532336,0
3.1311307,-1.1412907,2.0245385,0.96474308,0.04119432,0.25994968,0
2.2294989,5.6503358,-2.44138,-0.083582103,0.98450094,0.15418121,0
-1.003746,-4.5544276,-3.8918896,0.083582103,-0.98450094,-0.15418121,0
1.8419877,0.049617589,-4.7541733,0.24956933,0.17047238,-0.9532336,0
0.68924952,-4.8417354,-1.1395525,0.083582103,-0.98450094,-0.15418121,0
2.8470266,0.025641739,-4.4953284,0.24956933,0.17047238,-0.9532336,0
-3.6801465,4.1093554,4.1946793,-0.083582103,0.98450094,0.15418121,0
2.146759,-3.7079315,5.1442423,-0.24956933,-0.17047238,0.9532336,0
-4.5815892,2.7102921,3.1098619,-0.96474308,-0.04119432,-0.25994968,0
2.0728254,-1.5304822,-4.9763155,0.24956933,0.17047238,-0.9532336,0
-0.95542336,4.1251564,5.5708685,-0.083582103,0.98450094,0.15418121,0
-3.9306788,4.3978767,2.2165587,-0.083582103,0.98450094,0.15418121,0
-3.8459833,4.097311,4.1816883,-0.083582103,0.98450094,0.15418121,0
3.7343488,-4.5266862,-1.5004951,0.083582103,-0.98450094,-0.15418121,0
3.3031213,5.7922344,-3.3446431,0.24956933,0.17047238,-0.9532336,0
-2.3621883,-5.7261024,3.602819,-0.24956933,-0.17047238,0.9532336,0
1.0550784,-1.0847647,-5.1630654,0.24956933,0.17047238,-0.9532336,0
-3.3429713,-5.0070057,-0.26401639,-0.96474308,-0.04119432,-0.25994968,0
-3.406924,0.31594896,-0.87020326,-0.96474308,-0.04119432,-0.25994968,0
1.3627043,4.5958605,3.8219237,-0.083582103,0.98450094,0.15418121,0
-0.92774677,-4.7425413,-2.6495159,0.083582103,-0.98450094,-0.15418121,0
-1.6093194,-3.1483927,4.2609167,-0.24956933,-0.17047238,0.9532336,0
-3.4674273,-1.1660228,-0.41081131,-0.96474308,-0.04119432,-0.25994968,0
-1.4833453,1.8866012,5.1943364,-0.24956933,-0.17047238,0.9532336,0
3.2109213,2.3870502,1.169277,0.96474308,0.04119432,0.25994968,0
1.5711484,-2.7809851,-5.331296,0.24956933,0.17047238,-0.9532336,0
1.0248166,-3.1152363,4.9564986,-0.24956933,-0.17047238,0.9532336,0
-4.0636663,-2.5604415,2.0229673,-0.96474308,-0.04119432,-0.25994968,0
-0.44024515,-4.7738657,-2.1852264,0.083582103,-0.98450094,-0.15418121,0
-2.4888451,-2.5410566,-3.8246899,-0.96474308,-0.04119432,-0.25994968,0
-3.4981017,1.7010397,-0.75131321,-0.96474308,-0.04119432,-0.25994968,0
3.0362968,-3.805367,2.7986698,0.96474308,0.04119432,0.25994968,0
-0.68916059,5.4483423,-2.7337971,-0.083582103,0.98450094,0.15418121,0
4.2719035,0.51450324,-4.0348501,0.24956933,0.17047238,-0.9532336,0
2.772841,-5.0906677,1.5794878,0.083582103,-0.98450094,-0.15418121,0
-2.1241446,-5.5089374,1.595613,0.083582103,-0.98450094,-0.15418121,0
3.7566397,-4.0770435,-4.3595362,0.083582103,-0.98450094,-0.15418121,0
-2.4187701,2.8218584,5.1166863,-0.24956933,-0.17047238,0.9532336,0
2.814286,0.44338393,2.9493096,0.96474308,0.04119432,0.25994968,0
1.077055,-5.5576096,3.6417856,0.083582103,-0.98450094,-0.15418121,0
-3.7838895,1.5390376,0.33499455,-0.96474308,-0.04119432,-0.25994968,0
3.0326538,-5.1996303,2.4160984,0.083582103,-0.98450094,-0.15418121,0
-4.2457213,0.83538973,4.2831154,-0.24956933,-0.17047238,0.9532336,0
-3.8379316,4.3081236,0.096740678,-0.96474308,-0.04119432,-0.25994968,0
0.66571462,3.1119609,-4.5144811,0.24956933,0.17047238,-0.9532336,0
2.5221033,4.7198763,3.3559804,0.96474308,0.04119432,0.25994968,0
1.3282528,4.9837165,1.3266491,-0.083582103,0.98450094,0.15418121,0
3.8008838,-1.285198,-0.43829,0.96474308,0.04119432,0.25994968,0
-4.7075686,1.5104365,3.7675481,-0.96474308,-0.04119432,-0.25994968,0
2.8382525,0.20762348,2.8977246,0.96474308,0.04119432,0.25994968,0
0.44127864,1.5836977,-4.84655,0.24956933,0.17047238,-0.9532336,0
-2.7111988,-3.8529632,-2.7915773,-0.96474308,-0.04119432,-0.25994968,0
4.5983047,-0.28204441,-3.556705,0.96474308,0.04119432,0.25994968,0
-4.834177,2.1696932,4.367671,-0.24956933,-0.17047238,0.9532336,0
-3.7293789,-3.450654,0.92340827,-0.96474308,-0.04119432,-0.25994968,0
2.9916015,-2.637671,2.7795014,0.96474308,0.04119432,0.25994968,0
-3.0461419,4.815218,0.031199962,-0.083582103,0.98450094,0.15418121,0
-3.6426435,-5.6262484,1.5215054,0.083582103,-0.98450094,-0.15418121,0
-3.4093599,-2.1840212,-0.46499145,-0.96474308,-0.04119432,-0.25994968,0
-3.6465104,-2.9842625,3.7569046,-0.24956933,-0.17047238,0.9532336,0
-3.6154826,-3.4539742,0.50123644,-0.96474308,-0.04119432,-0.25994968,0
2.4666333,1.6197028,4.0531306,0.96474308,0.04119432,0.25994968,0
-2.9428401,4.8187675,-3.3061068,-0.96474308,-0.04119432,-0.25994968,0
-4.4289417,-3.2216594,3.483386,-0.96474308,-0.04119432,-0.25994968,0
-0.44783545,-2.8696055,-5.875742,0.24956933,0.17047238,-0.9532336,0
0.04253149,-4.8767867,-1.2663301,0.083582103,-0.98450094,-0.15418121,0
-1.2290976,4.7743368,1.277266,-0.083582103,0.98450094,0.15418121,0
1.9885077,4.8775887,2.3622379,-0.083582103,0.98450094,0.15418121,0
-4.5890608,1.7368801,3.2918468,-0.96474308,-0.04119432,-0.25994968,0
1.7276294,-4.3764434,-3.5476964,0.083582103,-0.98450094,-0.15418121,0
-1.650629,-4.7927527,3.9560308,-0.24956933,-0.17047238,0.9532336,0
4.7984748,-3.9316905,-3.7212269,0.96474308,0.04119432,0.25994968,0
-2.0588431,-1.377387,-5.604949,-0.96474308,-0.04119432,-0.25994968,0
-0.11261425,2.0386534,-4.9102035,0.24956933,0.17047238,-0.9532336,0
-3.6277652,4.5319514,-0.71871531,-0.96474308,-0.04119432,-0.25994968,0
1.6644362,-5.225677,4.7465377,-0.24956933,-0.17047238,0.9532336,0
3.6226223,4.0562229,-0.62316966,0.96474308,0.04119432,0.25994968,0
4.4713545,-2.5348165,-2.728559,0.96474308,0.04119432,0.25994968,0
-2.7484031,4.1331778,4.547667,-0.083582103,0.98450094,0.15418121,0
-3.0191622,-4.7348428,-1.5088873,-0.96474308,-0.04119432,-0.25994968,0
-0.78482199,2.8886881,5.556428,-0.24956933,-0.17047238,0.9532336,0
-1.3225892,4.6751227,1.8600969,-0.083582103,0.98450094,0.15418121,0
-4.6475573,1.5831519,3.5333061,-0.96474308,-0.04119432,-0.25994968,0
-0.6979593,-3.1982055,4.4906149,-0.24956933,-0.17047238,0.9532336,0
1.1391153,3.5029714,-4.320611,0.24956933,0.17047238,-0.9532336,0
0.13123274,-5.033771,-0.21584344,0.083582103,-0.98450094,-0.15418121,0
0.81502819,5.10075,0.30113137,-0.083582103,0.98450094,0.15418121,0
3.2315087,-1.0210378,1.6329528,0.96474308,0.04119432,0.25994968,0
-4.5876527,1.4676334,3.3292909,-0.96474308,-0.04119432,-0.25994968,0
1.647254,4.3032484,5.8446064,-0.083582103,0.98450094,0.15418121,0
-1.9040165,4.3487892,3.6286602,-0.083582103,0.98450094,0.15418121,0
-0.82372475,-4.5497546,-3.8241405,0.083582103,-0.98450094,-0.15418121,0
-4.1215091,3.9928155,4.6995664,-0.083582103,0.98450094,0.15418121,0
4.3666878,-3.5242712,-2.1833148,0.96474308,0.04119432,0.25994968,0
-0.2129972,5.7116189,-4.1567793,-0.083582103,0.98450094,0.15418121,0
1.5612452,-3.4651663,-5.4562449,0.24956933,0.17047238,-0.9532336,0
-3.7646165,0.50620997,4.3502049,-0.24956933,-0.17047238,0.9532336,0
-0.96868205,-0.68127882,4.869853,-0.24956933,-0.17047238,0.9532336,0
-2.8675776,0.78022432,-2.9454365,-0.96474308,-0.04119432,-0.25994968,0
-2.9791026,-0.66683233,4.3460813,-0.24956933,-0.17047238,0.9532336,0
2.6359258,-3.9360137,-5.2590833,0.24956933,0.17047238,-0.9532336,0
1.5281545,-4.6101966,4.8209262,-0.24956933,-0.17047238,0.9532336,0
-4.8870683,2.3301105,4.3038259,-0.96474308,-0.04119432,-0.25994968,0
4.4435816,0.78270912,-3.151216,0.96474308,0.04119432,0.25994968,0
1.1044335,5.1069446,0.41846073,-0.083582103,0.98450094,0.15418121,0
1.2253525,0.075196147,-4.9110427,0.24956933,0.17047238,-0.9532336,0
2.7262161,-4.2411242,-3.8704188,0.083582103,-0.98450094,-0.15418121,0
-0.15337707,-1.6549098,4.9091902,-0.24956933,-0.17047238,0.9532336,0
3.9299245,2.7456217,-1.5559607,0.96474308,0.04119432,0.25994968,0
2.4441504,3.8790991,3.7785234,0.96474308,0.04119432,0.25994968,0
-3.100184,-5.4601808,0.75516939,0.083582103,-0.98450094,-0.15418121,0
-3.5837107,-5.6529207,1.7237644,0.083582103,-0.98450094,-0.15418121,0
3.1290612,-2.7474074,2.2867408,0.96474308,0.04119432,0.25994968,0
0.70258713,-4.3958311,-3.9795809,0.083582103,-0.98450094,-0.15418121,0
1.8483033,-5.4621153,3.4501166,0.083582103,-0.98450094,-0.15418121,0
0.054564476,-1.2739573,-5.4588475,0.24956933,0.17047238,-0.9532336,0
-0.22679043,-4.157896,-6.0026903,0.083582103,-0.98450094,-0.15418121,0
-3.0044682,-1.9893227,-1.9985062,-0.96474308,-0.04119432,-0.25994968,0
-2.8079371,4.6071806,-3.7732387,-0.96474308,-0.04119432,-0.25994968,0
-2.0451562,3.8418343,-5.0936956,0.24956933,0.17047238,-0.9532336,0
-1.7026333,5.2872477,-4.7455268,0.24956933,0.17047238,-0.9532336,0
2.9703195,-4.2654557,-3.582727,0.083582103,-0.98450094,-0.15418121,0
-0.81021762,5.0724607,-0.39928412,-0.083582103,0.98450094,0.15418121,0
-3.4303608,-5.5964227,1.446136,0.083582103,-0.98450094,-0.15418121,0
2.169034,3.5397782,-4.0443826,0.24956933,0.17047238,-0.9532336,0
4.0057507,5.0536432,-3.2927718,0.24956933,0.17047238,-0.9532336,0
-3.4408541,-0.49637377,4.2556725,-0.24956933,-0.17047238,0.9532336,0
3.5844045,-1.6611426,0.42469865,0.96474308,0.04119432,0.25994968,0
0.36655283,3.1072626,-4.5936451,0.24956933,0.17047238,-0.9532336,0
-0.55792665,-0.62988186,-5.5040221,0.24956933,0.17047238,-0.9532336,0
2.687856,-4.3087306,-3.4595239,0.083582103,-0.98450094,-0.15418121,0
-4.7099934,2.25598,3.6584005,-0.96474308,-0.04119432,-0.25994968,0
-2.6129808,1.749778,4.8741131,-0.24956933,-0.17047238,0.9532336,0
-2.9976249,-0.85024548,-2.2044148,-0.96474308,-0.04119432,-0.25994968,0
-2.2649801,-2.2646632,-4.6993113,-0.96474308,-0.04119432,-0.25994968,0
-2.067764,4.8166442,-4.9252834,0.24956933,0.17047238,-0.9532336,0
2.0518036,4.8586092,2.517746,-0.083582103,0.98450094,0.15418121,0
2.0636151,-5.5218883,3.9485087,0.083582103,-0.98450094,-0.15418121,0
-2.073875,4.6104131,1.8660177,-0.083582103,0.98450094,0.15418121,0
4.0379238,-3.9829593,-4.8078117,0.083582103,-0.98450094,-0.15418121,0
-1.3179531,4.5237832,2.8289676,-0.083582103,0.98450094,0.15418121,0
-2.7831006,4.7522874,0.57562721,-0.083582103,0.98450094,0.15418121,0
-3.0662084,5.1089649,-1.8553593,-0.083582103,0.98450094,0.15418121,0
-2.2696681,4.4919515,2.5162969,-0.083582103,0.98450094,0.15418121,0
-4.3950806,-1.9394743,3.1545305,-0.96474308,-0.04119432,-0.25994968,0
1.4679081,-4.1811438,4.8818836,-0.24956933,-0.17047238,0.9532336,0
2.4106274,3.3157253,3.9922118,0.96474308,0.04119432,0.25994968,0
1.8035686,-5.1228914,1.2598026,0.083582103,-0.98450094,-0.15418121,0
-4.2578049,-4.4758639,3.0470052,-0.96474308,-0.04119432,-0.25994968,0
0.61569691,3.3459501,6.0048771,-0.24956933,-0.17047238,0.9532336,0
-0.594208,4.7929797,-4.5437183,0.24956933,0.17047238,-0.9532336,0
-2.878592,-4.2483664,-2.1076753,-0.96474308,-0.04119432,-0.25994968,0
1.4036098,-2.4247146,-5.3114457,0.24956933,0.17047238,-0.9532336,0
0.32598734,-5.3883061,2.1535654,0.083582103,-0.98450094,-0.15418121,0
-2.5012124,-0.60974693,-4.0848475,-0.96474308,-0.04119432,-0.25994968,0
-2.2379029,-2.3789384,4.2339516,-0.24956933,-0.17047238,0.9532336,0
0.2289114,-4.4553456,-3.8563371,0.083582103,-0.98450094,-0.15418121,0
2.4947767,-5.5815115,4.5629592,0.083582103,-0.98450094,-0.15418121,0
-2.4175298,0.69592619,-4.6023245,-0.96474308,-0.04119432,-0.25994968,0
2.1555457,5.7889457,-3.3665447,-0.083582103,0.98450094,0.15418121,0
1.2241864,4.2999992,5.636013,-0.083582103,0.98450094,0.15418121,0
4.3352871,4.1941423,-3.2899175,0.96474308,0.04119432,0.25994968,0
-0.77731776,-1.2902541,-5.6795597,0.24956933,0.17047238,-0.9532336,0
-3.6852846,-4.8294806,0.97826767,-0.96474308,-0.04119432,-0.25994968,0
1.7179544,-4.3323288,-3.8346267,0.083582103,-0.98450094,-0.15418121,0
-0.7361064,-5.6644154,4.0395813,-0.24956933,-0.17047238,0.9532336,0
3.9535737,-0.89295721,-4.3698983,0.24956933,0.17047238,-0.9532336,0
-1.3095117,-5.568058,2.4147367,0.083582103,-0.98450094,-0.15418121,0
-1.7570055,-4.7908516,3.9285202,-0.24956933,-0.17047238,0.9532336,0
2.6775861,5.7232389,-2.6639867,-0.083582103,0.98450094,0.15418121,0
-4.4461527,-2.6298282,3.4534721,-0.96474308,-0.04119432,-0.25994968,0
3.6512847,-2.6336584,-4.7603412,0.24956933,0.17047238,-0.9532336,0
-3.8341594,-2.094563,3.8668861,-0.24956933,-0.17047238,0.9532336,0
-3.1334004,-4.7266283,3.5796461,-0.24956933,-0.17047238,0.9532336,0
2.6589196,1.0667353,3.4271336,0.96474308,0.04119432,0.25994968,0
-3.8729529,-2.1636822,1.2523031,-0.96474308,-0.04119432,-0.25994968,0
-1.5893807,-0.48910809,-5.7488947,0.24956933,0.17047238,-0.9532336,0
1.3550098,-4.7882171,-1.1203734,0.083582103,-0.98450094,-0.15418121,0
-1.2184784,2.3628607,5.3488545,-0.24956933,-0.17047238,0.9532336,0
4.0530787,-3.1085575,-1.0853034,0.96474308,0.04119432,0.25994968,0
2.9376597,-0.28026485,2.606113,0.96474308,0.04119432,0.25994968,0
1.4246311,-5.3856363,2.7320986,0.083582103,-0.98450094,-0.15418121,0
-0.38824081,-3.6551237,-6.000618,0.24956933,0.17047238,-0.9532336,0
-2.4840198,-0.80620283,4.4507766,-0.24956933,-0.17047238,0.9532336,0
-4.7070518,1.4125119,3.7811475,-0.96474308,-0.04119432,-0.25994968,0
-2.33898,-4.5662603,3.8163161,-0.24956933,-0.17047238,0.9532336,0
-3.9717281,4.5006933,1.5377859,-0.083582103,0.98450094,0.15418121,0
-3.1106281,3.380209,-2.4554307,-0.96474308,-0.04119432,-0.25994968,0
4.3774347,0.44680929,-2.8524976,0.96474308,0.04119432,0.25994968,0
-2.7486093,0.091685772,-3.2778473,-0.96474308,-0.04119432,-0.25994968,0
2.8184228,1.7214692,-4.1995425,0.24956933,0.17047238,-0.9532336,0
-1.3275882,0.78318477,5.0377855,-0.24956933,-0.17047238,0.9532336,0
1.5989261,1.475211,-4.5628629,0.24956933,0.17047238,-0.9532336,0
1.8972995,-4.1715117,-4.7642784,0.083582103,-0.98450094,-0.15418121,0
3.1227479,3.2225327,-3.8514218,0.24956933,0.17047238,-0.9532336,0
0.31570935,-5.6223216,3.6422663,0.083582103,-0.98450094,-0.15418121,0
-4.3962741,-2.793632,3.2943177,-0.96474308,-0.04119432,-0.25994968,0
1.1072547,-5.2582998,4.5948257,-0.24956933,-0.17047238,0.9532336,0
4.2233744,-2.2321565,-1.8562005,0.96474308,0.04119432,0.25994968,0
2.4224906,4.0061884,3.8387699,0.96474308,0.04119432,0.25994968,0
-3.3401165,5.0757608,-1.8724315,-0.96474308,-0.04119432,-0.25994968,0
-4.7890463,1.4330549,4.0821958,-0.96474308,-0.04119432,-0.25994968,0
-1.0061197,-5.0564084,-0.6878562,0.083582103,-0.98450094,-0.15418121,0
4.719789,-3.4154701,-3.5110092,0.96474308,0.04119432,0.25994968,0
-2.7713084,-5.5981073,1.814167,0.083582103,-0.98450094,-0.15418121,0
3.6787543,-2.8926663,0.26970133,0.96474308,0.04119432,0.25994968,0
3.2304368,1.1075749,-4.2014575,0.24956933,0.17047238,-0.9532336,0
-4.2366333,-0.57664299,2.3505197,-0.96474308,-0.04119432,-0.25994968,0
2.70579,5.7655516,-2.9188757,-0.083582103,0.98450094,0.15418121,0
-2.8748193,-5.8450775,3.335042,0.083582103,-0.98450094,-0.15418121,0
-4.8809981,2.3968685,4.2707162,-0.96474308,-0.04119432,-0.25994968,0
-3.73404,-3.1527104,0.89349127,-0.96474308,-0.04119432,-0.25994968,0
-1.7280822,5.6046839,-4.2952952,-0.083582103,0.98450094,0.15418121,0
4.2742295,1.753279,-2.6765103,0.96474308,0.04119432,0.25994968,0
-2.5503099,-4.607873,3.7535462,-0.24956933,-0.17047238,0.9532336,0
0.93818289,0.46155035,-4.9171333,0.24956933,0.17047238,-0.9532336,0
0.82798028,-5.6508198,4.1019378,0.083582103,-0.98450094,-0.15418121,0
3.6781483,-4.7538204,-0.08063031,0.083582103,-0.98450094,-0.15418121,0
-2.4188585,-4.5832515,-3.7608018,-0.96474308,-0.04119432,-0.25994968,0
-0.85395336,-4.9340611,-1.386596,0.083582103,-0.98450094,-0.15418121,0
-0.27248573,-4.6577063,-2.8360052,0.083582103,-0.98450094,-0.15418121,0
0.64473152,4.887228,1.572221,-0.083582103,0.98450094,0.15418121,0
-3.4277654,-5.3193164,0.10016847,-0.96474308,-0.04119432,-0.25994968,0
2.7124496,5.4055386,-0.61645675,-0.083582103,0.98450094,0.15418121,0
3.1133556,-4.6586795,-0.99431396,0.083582103,-0.98450094,-0.15418121,0
3.5838852,2.7727847,-3.811121,0.24956933,0.17047238,-0.9532336,0
-0.9666853,3.9715271,5.7024641,-0.24956933,-0.17047238,0.9532336,0
3.5287755,-4.0698509,1.012863,0.96474308,0.04119432,0.25994968,0
-3.8575115,4.6336012,0.75103879,-0.083582103,0.98450094,0.15418121,0
4.2892551,-3.7848864,-4.7991934,0.24956933,0.17047238,-0.9532336,0
-3.0909243,5.255259,-2.8028951,-0.083582103,0.98450094,0.15418121,0
2.6176438,-5.4620457,3.866734,0.083582103,-0.98450094,-0.15418121,0
3.821744,2.6981945,-3.762187,0.24956933,0.17047238,-0.9532336,0
2.7328718,-1.1568861,3.5050554,0.96474308,0.04119432,0.25994968,0
-1.529356,-5.2459755,0.2389493,0.083582103,-0.98450094,-0.15418121,0
0.0062651634,-4.6758113,-2.5692832,0.083582103,-0.98450094,-0.15418121,0
3.8213551,-4.4921288,-1.6739886,0.083582103,-0.98450094,-0.15418121,0
0.64973295,0.47965038,-4.9894171,0.24956933,0.17047238,-0.9532336,0
-3.1810172,-0.28946948,-1.6126633,-0.96474308,-0.04119432,-0.25994968,0
3.2874043,2.8079915,0.81872034,0.96474308,0.04119432,0.25994968,0
3.4845359,0.45966911,0.45925176,0.96474308,0.04119432,0.25994968,0
3.4891183,1.2698398,0.31385696,0.96474308,0.04119432,0.25994968,0
-3.7433763,-3.6401598,3.6142464,-0.24956933,-0.17047238,0.9532336,0
-3.4474087,0.24866962,-0.7092914,-0.96474308,-0.04119432,-0.25994968,0
-2.7326136,-5.5067706,1.251924,0.083582103,-0.98450094,-0.15418121,0
-2.2251382,-3.1123371,-4.7128448,-0.96474308,-0.04119432,-0.25994968,0
-1.8843966,-4.3774033,-5.4996576,0.083582103,-0.98450094,-0.15418121,0
-3.5177779,-0.41791368,-0.34249842,-0.96474308,-0.04119432,-0.25994968,0
-1.9170716,1.0484238,-5.5597229,0.24956933,0.17047238,-0.9532336,0
2.9085286,-3.5822241,3.2374902,0.96474308,0.04119432,0.25994968,0
-2.6310825,1.0943862,4.7521667,-0.24956933,-0.17047238,0.9532336,0
4.1297951,0.51538944,-4.0718985,0.24956933,0.17047238,-0.9532336,0
-0.78416252,-3.1841702,-6.020052,0.24956933,0.17047238,-0.9532336,0
2.7721248,1.2931423,2.9711204,0.96474308,0.04119432,0.25994968,0
2.8728313,-5.3442144,3.2526767,0.083582103,-0.98450094,-0.15418121,0
1.812499,3.9814463,6.1065331,0.96474308,0.04119432,0.25994968,0
2.1632876,-2.7686388,5.3165488,-0.24956933,-0.17047238,0.9532336,0
2.6024137,5.1117811,1.1996393,-0.083582103,0.98450094,0.15418121,0
1.697114,4.0394588,6.4120312,-0.24956933,-0.17047238,0.9532336,0
0.15240812,5.4762959,-2.4560733,-0.083582103,0.98450094,0.15418121,0
-2.089694,4.2570486,4.1137981,-0.083582103,0.98450094,0.15418121,0
-0.15567791,3.4265318,-4.6732759,0.24956933,0.17047238,-0.9532336,0
-3.2444246,0.61850905,-1.5212288,-0.96474308,-0.04119432,-0.25994968,0
1.203496,-4.21033,-4.8925209,0.083582103,-0.98450094,-0.15418121,0
4.0025225,-4.0672793,-4.2885914,0.083582103,-0.98450094,-0.15418121,0
-1.3921471,-4.251245,-6.0383682,0.083582103,-0.98450094,-0.15418121,0
3.8948398,-0.45317221,-0.91883755,0.96474308,0.04119432,0.25994968,0
-3.1914873,2.5807695,4.871264,-0.24956933,-0.17047238,0.9532336,0
3.7236457,4.1863871,-1.0187225,0.96474308,0.04119432,0.25994968,0
2.2597518,4.9493937,-3.7685418,0.24956933,0.17047238,-0.9532336,0
4.1878467,3.3264751,-2.6052279,0.96474308,0.04119432,0.25994968,0
1.491364,4.4334431,4.9287624,-0.083582103,0.98450094,0.15418121,0
3.1408653,5.1997852,0.9295944,-0.083582103,0.98450094,0.15418121,0
2.6506479,-3.154006,4.1266956,0.96474308,0.04119432,0.25994968,0
3.2198253,-2.4632826,-4.842834,0.24956933,0.17047238,-0.9532336,0
-4.4889717,3.3699081,2.6616035,-0.96474308,-0.04119432,-0.25994968,0
2.027374,-4.4014397,-3.2255943,0.083582103,-0.98450094,-0.15418121,0
-3.9959607,-2.5860405,3.7366304,-0.24956933,-0.17047238,0.9532336,0
-0.66631985,-5.6690168,3.4080701,0.083582103,-0.98450094,-0.15418121,0
2.3715725,1.1461277,4.4809747,0.96474308,0.04119432,0.25994968,0
2.6502676,4.8925219,2.6256289,-0.083582103,0.98450094,0.15418121,0
-2.5313666,4.8076472,0.35859984,-0.083582103,0.98450094,0.15418121,0
1.155215,3.013041,-4.4040132,0.24956933,0.17047238,-0.9532336,0
0.12594748,4.5552063,3.4110603,-0.083582103,0.98450094,0.15418121,0
-0.079958439,4.2972455,4.9466114,-0.083582103,0.98450094,0.15418121,0
3.1065099,3.7549839,-3.7604523,0.24956933,0.17047238,-0.9532336,0
3.2927499,-4.7107615,-0.56450212,0.083582103,-0.98450094,-0.15418121,0
2.8034844,-1.8362863,3.3506584,0.96474308,0.04119432,0.25994968,0
-2.4533291,-4.2423286,-3.6868973,-0.96474308,-0.04119432,-0.25994968,0
-4.8890247,3.8552341,4.069397,-0.96474308,-0.04119432,-0.25994968,0
2.1880057,0.5918355,5.2500801,0.96474308,0.04119432,0.25994968,0
0.32624006,-4.3326955,-4.5867357,0.083582103,-0.98450094,-0.15418121,0
1.648046,4.4552441,4.874486,-0.083582103,0.98450094,0.15418121,0
2.5155969,5.018343,1.7492061,-0.083582103,0.98450094,0.15418121,0
-0.94251657,4.0095577,-4.7750149,0.24956933,0.17047238,-0.9532336,0
-2.1057863,0.37205362,-5.7079649,-0.96474308,-0.04119432,-0.25994968,0
1.346364,4.3470187,5.4020081,-0.083582103,0.98450094,0.15418121,0
-2.8263938,1.0048063,-3.1338692,-0.96474308,-0.04119432,-0.25994968,0
-2.4346912,-2.7850144,4.1098089,-0.24956933,-0.17047238,0.9532336,0
-0.61563754,5.5448837,-4.4148617,0.24956933,0.17047238,-0.9532336,0
1.4815421,-0.68811417,5.5101318,-0.24956933,-0.17047238,0.9532336,0
-3.0163574,0.33114189,4.514801,-0.24956933,-0.17047238,0.9532336,0
-0.6613028,-1.5470016,-5.6951008,0.24956933,0.17047238,-0.9532336,0
4.3709002,-0.043148756,-2.7506013,0.96474308,0.04119432,0.25994968,0
-1.9920678,-5.7580895,3.2581387,0.083582103,-0.98450094,-0.15418121,0
-1.429369,-4.727654,4.0256023,-0.24956933,-0.17047238,0.9532336,0
-0.036692142,2.923682,-4.7320509,0.24956933,0.17047238,-0.9532336,0
2.1293252,2.0639954,5.2345634,0.96474308,0.04119432,0.25994968,0
0.94069529,5.4277143,-1.7185302,-0.083582103,0.98450094,0.15418121,0
3.9406447,2.7327366,-1.5937057,0.96474308,0.04119432,0.25994968,0
2.6323035,2.4427817,3.3078508,0.96474308,0.04119432,0.25994968,0
-0.083726048,3.3962407,-4.6598554,0.24956933,0.17047238,-0.9532336,0
-0.88915634,2.9712877,5.5438843,-0.24956933,-0.17047238,0.9532336,0
-2.3066132,4.2104282,-5.0962305,0.24956933,0.17047238,-0.9532336,0
-2.2637553,-2.4428413,4.215755,-0.24956933,-0.17047238,0.9532336,0
3.9072225,-4.201407,-0.37080798,0.96474308,0.04119432,0.25994968,0
-2.7258267,2.9530714,-3.8158433,-0.96474308,-0.04119432,-0.25994968,0
4.1944132,-0.32018936,-4.204412,0.24956933,0.17047238,-0.9532336,0
1.5879045,-1.7298772,-5.1389337,0.24956933,0.17047238,-0.9532336,0
-2.997371,-1.8512795,4.129477,-0.24956933,-0.17047238,0.9532336,0
4.3161364,4.5361977,-3.3040462,0.24956933,0.17047238,-0.9532336,0
-2.9801204,4.3942814,2.7548168,-0.083582103,0.98450094,0.15418121,0
2.733346,3.1337433,2.8233571,0.96474308,0.04119432,0.25994968,0
-3.4913909,1.1234388,-0.68468732,-0.96474308,-0.04119432,-0.25994968,0
1.0406251,-0.17456722,5.4865346,-0.24956933,-0.17047238,0.9532336,0
-0.92607594,-5.6097822,2.8890233,0.083582103,-0.98450094,-0.15418121,0
0.96144915,4.7435741,2.6611989,-0.083582103,0.98450094,0.15418121,0
0.16706038,5.7187381,-3.9962063,-0.083582103,0.98450094,0.15418121,0
3.3547282,5.4757862,-0.71682739,-0.083582103,0.98450094,0.15418121,0
-3.985688,2.020967,1.0075499,-0.96474308,-0.04119432,-0.25994968,0
1.9251912,-4.8911195,-0.15420997,0.083582103,-0.98450094,-0.15418121,0
2.9209628,0.15120035,-4.453516,0.24956933,0.17047238,-0.9532336,0
-3.5012007,-0.76889777,-0.3484,-0.96474308,-0.04119432,-0.25994968,0
-2.5278945,5.3174434,-2.8947444,-0.083582103,0.98450094,0.15418121,0
-4.1976061,1.5889353,1.8624992,-0.96474308,-0.04119432,-0.25994968,0
-3.4244912,0.98391616,4.5246859,-0.24956933,-0.17047238,0.9532336,0
2.1928382,-4.5684557,5.0024142,-0.24956933,-0.17047238,0.9532336,0
0.21798426,2.5549545,-4.7313147,0.24956933,0.17047238,-0.9532336,0
4.0629416,-2.8809822,-1.1579711,0.96474308,0.04119432,0.25994968,0
-2.0655708,-2.6841373,-5.3728981,-0.96474308,-0.04119432,-0.25994968,0
3.4609032,0.0096235275,-4.337472,0.24956933,0.17047238,-0.9532336,0
1.1750064,5.4096045,-1.4758704,-0.083582103,0.98450094,0.15418121,0
-0.10469556,0.52889204,5.3124776,-0.24956933,-0.17047238,0.9532336,0
-1.7320151,-5.4320083,1.3169713,0.083582103,-0.98450094,-0.15418121,0
1.1868095,0.10206831,-4.916328,0.24956933,0.17047238,-0.9532336,0
4.2528291,-0.12637639,-2.2992187,0.96474308,0.04119432,0.25994968,0
-1.2143829,5.2306895,-1.6287322,-0.083582103,0.98450094,0.15418121,0
1.593904,2.6097918,6.1293335,-0.24956933,-0.17047238,0.9532336,0
-3.6740775,-2.0358381,3.9192996,-0.24956933,-0.17047238,0.9532336,0
-2.6184056,-2.7729239,-3.307112,-0.96474308,-0.04119432,-0.25994968,0
2.4766147,2.5465612,-4.1414757,0.24956933,0.17047238,-0.9532336,0
0.047777593,2.3330524,-4.8155622,0.24956933,0.17047238,-0.9532336,0
-2.4035525,4.0764537,5.0968142,-0.083582103,0.98450094,0.15418121,0
1.3848033,5.391715,-1.2479062,-0.083582103,0.98450094,0.15418121,0
-2.2774935,-5.3235078,0.32845259,0.083582103,-0.98450094,-0.15418121,0
-1.4113109,-0.12142253,-5.6365185,0.24956933,0.17047238,-0.9532336,0
0.26015973,4.3745894,-4.3948565,0.24956933,0.17047238,-0.9532336,0
-1.315908,5.3052626,-2.1599395,-0.083582103,0.98450094,0.15418121,0
-3.7882822,4.5752778,1.1609821,-0.083582103,0.98450094,0.15418121,0
-3.5013933,4.2712507,3.2578249,-0.083582103,0.98450094,0.15418121,0
3.5117874,-1.1767509,0.6174379,0.96474308,0.04119432,0.25994968,0
-2.3944879,-0.71237564,-4.4646654,-0.96474308,-0.04119432,-0.25994968,0
3.1926317,1.4303162,1.3887668,0.96474308,0.04119432,0.25994968,0
-0.81082845,1.5154577,-5.1865706,0.24956933,0.17047238,-0.9532336,0
-1.9296292,-3.0766087,4.1898932,-0.24956933,-0.17047238,0.9532336,0
-4.0542068,-1.0105281,1.7422459,-0.96474308,-0.04119432,-0.25994968,0
1.3910313,4.7676487,2.740346,-0.083582103,0.98450094,0.15418121,0
-4.385006,-1.1695309,2.9951262,-0.96474308,-0.04119432,-0.25994968,0
4.7273078,-3.183615,-4.5769758,0.24956933,0.17047238,-0.9532336,0
-4.0322428,2.1164412,4.5681038,-0.24956933,-0.17047238,0.9532336,0
2.7769272,-4.8068891,-0.23032278,0.083582103,-0.98450094,-0.15418121,0
-4.3726687,0.027172327,2.7596974,-0.96474308,-0.04119432,-0.25994968,0
-3.5277715,1.410295,-0.59512776,-0.96474308,-0.04119432,-0.25994968,0
2.059679,5.6942849,-2.8140736,-0.083582103,0.98450094,0.15418121,0
-3.3049641,5.0211902,-1.4243129,-0.083582103,0.98450094,0.15418121,0
2.9829772,-5.2456255,3.2247915,0.96474308,0.04119432,0.25994968,0
2.5615425,-3.132668,-5.1348906,0.24956933,0.17047238,-0.9532336,0
1.0380158,5.6053982,-2.8003459,-0.083582103,0.98450094,0.15418121,0
-2.4223247,-1.6837664,-4.2074194,-0.96474308,-0.04119432,-0.25994968,0
-2.2370889,2.0313239,-5.46773,0.24956933,0.17047238,-0.9532336,0
0.77220631,4.4196153,4.6271963,-0.083582103,0.98450094,0.15418121,0
0.79211664,0.49133742,-4.950048,0.24956933,0.17047238,-0.9532336,0
-1.3487732,-1.5023267,-5.8671007,0.24956933,0.17047238,-0.9532336,0
-4.2168322,0.414186,2.1200168,-0.96474308,-0.04119432,-0.25994968,0
-3.885478,-4.1470366,1.6130924,-0.96474308,-0.04119432,-0.25994968,0
-3.3699331,-5.6112947,1.5738611,0.083582103,-0.98450094,-0.15418121,0
2.1113112,1.9606638,5.3177934,0.96474308,0.04119432,0.25994968,0
-3.0235815,-4.0799227,-1.5962725,-0.96474308,-0.04119432,-0.25994968,0
2.7924576,-1.7600279,3.3794973,0.96474308,0.04119432,0.25994968,0
-1.8719838,-0.13988543,4.7301764,-0.24956933,-0.17047238,0.9532336,0
-0.98703146,4.9116578,-4.6253409,0.24956933,0.17047238,-0.9532336,0
-0.20280886,1.7301989,5.5016274,-0.24956933,-0.17047238,0.9532336,0
-1.8012075,4.1291695,5.0867414,-0.083582103,0.98450094,0.15418121,0
0.62976789,4.8583174,1.7487153,-0.083582103,0.98450094,0.15418121,0
-4.3190651,4.2009993,1.8993307,-0.96474308,-0.04119432,-0.25994968,0
2.5663311,1.0357537,3.7756639,0.96474308,0.04119432,0.25994968,0
1.80498,-2.8699141,-5.2859797,0.24956933,0.17047238,-0.9532336,0
-0.12755704,-3.3051639,4.6208258,-0.24956933,-0.17047238,0.9532336,0
-1.7451944,4.0826406,5.4142084,-0.083582103,0.98450094,0.15418121,0
2.8717856,4.0730214,2.160723,0.96474308,0.04119432,0.25994968,0
-1.4846344,4.9003668,0.33399332,-0.083582103,0.98450094,0.15418121,0
-3.0802138,0.15056038,4.4657888,-0.24956933,-0.17047238,0.9532336,0
-3.7351964,-2.3634305,0.77270555,-0.96474308,-0.04119432,-0.25994968,0
3.9926555,-3.6130886,-0.78110409,0.96474308,0.04119432,0.25994968,0
1.1820202,5.2042336,-0.16070294,-0.083582103,0.98450094,0.15418121,0
-1.8054619,-3.2614789,-6.2467422,-0.96474308,-0.04119432,-0.25994968,0
-2.3076351,-1.1056609,-4.7246761,-0.96474308,-0.04119432,-0.25994968,0
0.39151746,0.79889262,-4.9999294,0.24956933,0.17047238,-0.9532336,0
-3.6614525,4.2125883,3.5456367,-0.083582103,0.98450094,0.15418121,0
-4.1184888,0.26402688,1.7788334,-0.96474308,-0.04119432,-0.25994968,0
1.004456,-4.2653503,-4.6490979,0.083582103,-0.98450094,-0.15418121,0
2.6801133,1.0581276,-4.354383,0.24956933,0.17047238,-0.9532336,0
4.7516308,-1.2588938,-3.9709349,0.96474308,0.04119432,0.25994968,0
3.8656101,5.707551,-1.9197826,-0.083582103,0.98450094,0.15418121,0
3.5279486,-1.1929533,-4.5349822,0.24956933,0.17047238,-0.9532336,0
-4.2192268,-2.9231317,2.6577697,-0.96474308,-0.04119432,-0.25994968,0
-2.6746795,5.2319655,-2.428509,-0.083582103,0.98450094,0.15418121,0
0.49338579,-1.8542671,5.0428691,-0.24956933,-0.17047238,0.9532336,0
-4.2356076,-2.3481493,2.6274452,-0.96474308,-0.04119432,-0.25994968,0
-3.1599495,-2.1996176,-1.3881488,-0.96474308,-0.04119432,-0.25994968,0
1.3638926,-5.5608864,3.8182025,0.083582103,-0.98450094,-0.15418121,0
0.59512162,3.6994987,-4.4278903,0.24956933,0.17047238,-0.9532336,0
-3.5166321,-5.1653638,0.40557957,-0.96474308,-0.04119432,-0.25994968,0
2.4604702,4.418314,3.6325066,0.96474308,0.04119432,0.25994968,0
2.245476,-2.6672313,5.3562031,-0.24956933,-0.17047238,0.9532336,0
-3.2470481,5.1365461,-2.2274685,-0.96474308,-0.04119432,-0.25994968,0
2.1415377,-4.6141729,-1.8053304,0.083582103,-0.98450094,-0.15418121,0
-4.010684,-0.27022433,1.4634035,-0.96474308,-0.04119432,-0.25994968,0
-2.5437784,2.8307328,-4.4720869,-0.96474308,-0.04119432,-0.25994968,0
0.17740428,3.6726356,-4.542058,0.24956933,0.17047238,-0.9532336,0
-2.6618409,1.5623908,-3.8329303,-0.96474308,-0.04119432,-0.25994968,0
2.174685,-0.17313099,5.4207411,0.96474308,0.04119432,0.25994968,0
-2.8801565,-5.850451,3.3664651,0.083582103,-0.98450094,-0.15418121,0
1.5748534,2.8576217,6.1686678,-0.24956933,-0.17047238,0.9532336,0
-2.9709859,0.61688131,4.5777802,-0.24956933,-0.17047238,0.9532336,0
-2.6499157,-3.2855363,3.9639487,-0.24956933,-0.17047238,0.9532336,0
1.0973577,-5.6344113,4.1431961,0.083582103,-0.98450094,-0.15418121,0
3.3686519,0.45273924,0.8904264,0.96474308,0.04119432,0.25994968,0
-2.2974286,-4.2743344,-4.2604136,-0.96474308,-0.04119432,-0.25994968,0
1.1676035,-4.114018,-5.5269651,0.083582103,-0.98450094,-0.15418121,0
-1.1636896,-5.1995788,0.14091563,0.083582103,-0.98450094,-0.15418121,0
-0.60062695,-2.9637535,-5.9325819,0.24956933,0.17047238,-0.9532336,0
-2.950135,-1.2210827,-2.3218954,-0.96474308,-0.04119432,-0.25994968,0
-0.072263241,-4.5221462,-3.5930603,0.083582103,-0.98450094,-0.15418121,0
-4.768157,4.1094155,3.6044838,-0.083582103,0.98450094,0.15418121,0
4.1067934,2.3559818,-2.1506205,0.96474308,0.04119432,0.25994968,0
-0.73947573,4.2307072,5.0139556,-0.083582103,0.98450094,0.15418121,0
-1.8958156,3.1415918,5.3107829,-0.24956933,-0.17047238,0.9532336,0
3.4825809,-4.7710781,-0.076452345,0.083582103,-0.98450094,-0.15418121,0
1.9300196,-4.866313,4.8803372,-0.24956933,-0.17047238,0.9532336,0
1.6815348,-4.4415956,-3.1566691,0.083582103,-0.98450094,-0.15418121,0
-1.6003642,5.1043615,-1.0313227,-0.083582103,0.98450094,0.15418121,0
-0.090653419,3.3407056,5.8190079,-0.24956933,-0.17047238,0.9532336,0
-2.3118784,1.2088542,-5.0757093,-0.96474308,-0.04119432,-0.25994968,0
-1.9828186,-2.6947331,-5.6783342,-0.96474308,-0.04119432,-0.25994968,0
3.1156943,-3.6965623,-5.0906515,0.24956933,0.17047238,-0.9532336,0
0.3673501,-2.5247564,-5.6006441,0.24956933,0.17047238,-0.9532336,0
-0.33921146,-1.6253457,-5.6247845,0.24956933,0.17047238,-0.9532336,0
3.5250449,-4.2845874,-3.1598456,0.083582103,-0.98450094,-0.15418121,0
1.2148728,5.3695745,-1.1986575,-0.083582103,0.98450094,0.15418121,0
1.1478903,-0.94847035,5.3762159,-0.24956933,-0.17047238,0.9532336,0
4.3049831,-4.154737,-3.5661788,0.083582103,-0.98450094,-0.15418121,0
2.0479248,-4.1222515,-4.9971685,0.083582103,-0.98450094,-0.15418121,0
-0.62111282,-0.0202564,5.0790653,-0.24956933,-0.17047238,0.9532336,0
2.7750793,4.1484733,-3.776855,0.24956933,0.17047238,-0.9532336,0
2.8140998,-5.2967,2.9174421,0.083582103,-0.98450094,-0.15418121,0
-4.3206,-3.3370354,3.0995846,-0.96474308,-0.04119432,-0.25994968,0
-3.1388326,-1.2294195,4.2036514,-0.24956933,-0.17047238,0.9532336,0
-3.9206882,-4.5326695,3.4082112,-0.24956933,-0.17047238,0.9532336,0
3.013483,-2.2362723,2.6346824,0.96474308,0.04119432,0.25994968,0
-2.5042691,-0.90173292,-4.0272322,-0.96474308,-0.04119432,-0.25994968,0
-1.39657,2.4952435,-5.1647053,0.24956933,0.17047238,-0.9532336,0
2.7513509,-0.66482443,-4.643858,0.24956933,0.17047238,-0.9532336,0
-0.39703596,3.0098574,-4.8109822,0.24956933,0.17047238,-0.9532336,0
-1.0963106,-2.5653768,-5.9911137,0.24956933,0.17047238,-0.9532336,0
4.3025942,2.4134741,-2.8864012,0.96474308,0.04119432,0.25994968,0
3.3275647,-4.529304,-1.704299,0.083582103,-0.98450094,-0.15418121,0
0.86663663,-1.6714156,5.1732912,-0.24956933,-0.17047238,0.9532336,0
1.9946501,-3.8551912,5.0780835,-0.24956933,-0.17047238,0.9532336,0
4.3361502,-2.9496112,-2.1610472,0.96474308,0.04119432,0.25994968,0
2.079993,-0.47660393,-4.7859674,0.24956933,0.17047238,-0.9532336,0
-2.6542137,-1.5445104,4.2741809,-0.24956933,-0.17047238,0.9532336,0
-3.7971888,0.96008801,0.47609675,-0.96474308,-0.04119432,-0.25994968,0
-2.5785086,2.7860725,5.0684652,-0.24956933,-0.17047238,0.9532336,0
3.1613729,2.2602174,1.3732624,0.96474308,0.04119432,0.25994968,0
-3.3277793,-2.6488602,3.9003348,-0.24956933,-0.17047238,0.9532336,0
4.3298059,3.2454646,-3.1192389,0.96474308,0.04119432,0.25994968,0
-2.9135227,-3.9580185,-2.0240495,-0.96474308,-0.04119432,-0.25994968,0
0.52890778,4.7562509,2.3457665,-0.083582103,0.98450094,0.15418121,0
-1.3885288,-5.4301424,1.4912596,0.083582103,-0.98450094,-0.15418121,0
-3.8968616,0.91360283,4.3884382,-0.24956933,-0.17047238,0.9532336,0
-3.3291624,-2.7961779,-0.66561663,-0.96474308,-0.04119432,-0.25994968,0
-1.1270688,4.9482317,-4.6554642,0.24956933,0.17047238,-0.9532336,0
-2.1569669,-1.2886662,-5.2548447,-0.96474308,-0.04119432,-0.25994968,0
2.2464223,4.3699322,4.4345627,0.96474308,0.04119432,0.25994968,0
2.2934952,5.646656,-2.3831897,-0.083582103,0.98450094,0.15418121,0
0.33097553,-5.4928627,2.8239031,0.083582103,-0.98450094,-0.15418121,0
0.51356697,4.2302589,5.6960926,-0.083582103,0.98450094,0.15418121,0
1.9850068,3.8279512,-4.0410271,0.24956933,0.17047238,-0.9532336,0
0.77475905,-5.6713319,4.2040672,0.083582103,-0.98450094,-0.15418121,0
1.8441639,4.7501769,3.0975556,-0.083582103,0.98450094,0.15418121,0
-0.28836727,4.2719173,4.995357,-0.083582103,0.98450094,0.15418121,0
0.28820705,4.4167261,4.3832698,-0.083582103,0.98450094,0.15418121,0
4.3367138,-0.13892627,-2.6085496,0.96474308,0.04119432,0.25994968,0
0.95103312,-4.3009081,-4.4510126,0.083582103,-0.98450094,-0.15418121,0
2.726603,-5.4410009,3.7914219,0.083582103,-0.98450094,-0.15418121,0
1.1101682,2.8153598,-4.45116,0.24956933,0.17047238,-0.9532336,0
3.8861682,0.0053019524,-0.95930934,0.96474308,0.04119432,0.25994968,0
-1.518774,2.2606115,-5.2386608,0.24956933,0.17047238,-0.9532336,0
-1.3649077,4.3403444,3.9748318,-0.083582103,0.98450094,0.15418121,0
3.1342211,-4.3443089,2.5206537,0.96474308,0.04119432,0.25994968,0
-2.1400409,2.2335997,5.0844598,-0.24956933,-0.17047238,0.9532336,0
-2.1103227,5.4327574,-3.4046965,-0.083582103,0.98450094,0.15418121,0
-3.5851848,0.90185404,-0.30147809,-0.96474308,-0.04119432,-0.25994968,0
2.2935164,-3.7798703,5.1698003,-0.24956933,-0.17047238,0.9532336,0
-1.2212915,4.1364393,5.3546925,-0.083582103,0.98450094,0.15418121,0
-3.4160905,-4.9555554,-0.00080442429,-0.96474308,-0.04119432,-0.25994968,0
-1.1992922,-0.42775106,-5.6357923,0.24956933,0.17047238,-0.9532336,0
2.5343695,1.4376154,3.8305995,0.96474308,0.04119432,0.25994968,0
1.0113125,5.3632126,-1.2683804,-0.083582103,0.98450094,0.15418121,0
0.27600861,5.1960201,-0.59940886,-0.083582103,0.98450094,0.15418121,0
-0.72082376,-2.8169658,-5.9377999,0.24956933,0.17047238,-0.9532336,0
-2.9389582,1.5971289,-2.8099799,-0.96474308,-0.04119432,-0.25994968,0
2.6474771,-5.4543705,3.8338985,0.083582103,-0.98450094,-0.15418121,0
4.4585285,0.43854237,-3.1521492,0.96474308,0.04119432,0.25994968,0
2.5277195,-3.3934257,-5.1903796,0.24956933,0.17047238,-0.9532336,0
2.8878057,0.41792583,2.6804926,0.96474308,0.04119432,0.25994968,0
-2.3188086,1.1635671,-5.0428138,-0.96474308,-0.04119432,-0.25994968,0
2.5411534,4.5190735,-3.7718225,0.24956933,0.17047238,-0.9532336,0
-0.6909647,-4.7470503,-2.4923694,0.083582103,-0.98450094,-0.15418121,0
-4.427331,-0.42425799,3.0341015,-0.96474308,-0.04119432,-0.25994968,0
-1.8609833,1.0740242,-5.5404606,0.24956933,0.17047238,-0.9532336,0
2.9116654,-5.1077938,1.7641008,0.083582103,-0.98450094,-0.15418121,0
-3.7477515,-0.67772174,0.55216599,-0.96474308,-0.04119432,-0.25994968,0
4.2915206,1.3405099,-2.675272,0.96474308,0.04119432,0.25994968,0
-2.679791,1.6070056,-3.7733834,-0.96474308,-0.04119432,-0.25994968,0
-4.1049585,1.0289665,1.6074004,-0.96474308,-0.04119432,-0.25994968,0
4.000247,-0.8045485,-1.2543499,0.96474308,0.04119432,0.25994968,0
4.4775419,-2.2437201,-2.7976522,0.96474308,0.04119432,0.25994968,0
2.6270306,-4.7388411,-0.74609596,0.083582103,-0.98450094,-0.15418121,0
-0.43709087,4.1447935,5.7264709,-0.083582103,0.98450094,0.15418121,0
2.1916795,4.998796,1.6984262,-0.083582103,0.98450094,0.15418121,0
1.1564512,-1.3661813,-5.186852,0.24956933,0.17047238,-0.9532336,0
-4.818295,3.4065597,3.8780022,-0.96474308,-0.04119432,-0.25994968,0
3.4203408,0.042682409,0.76357722,0.96474308,0.04119432,0.25994968,0
-2.0835857,-3.2178354,-5.2214651,-0.96474308,-0.04119432,-0.25994968,0
2.7971547,-1.413065,3.3070819,0.96474308,0.04119432,0.25994968,0
-2.3325901,-1.1685181,-4.6221008,-0.96474308,-0.04119432,-0.25994968,0
-2.2170639,-2.521827,4.2138538,-0.24956933,-0.17047238,0.9532336,0
-2.4026294,5.4090176,-3.4115722,-0.083582103,0.98450094,0.15418121,0
-3.9006262,-3.9041803,1.6308246,-0.96474308,-0.04119432,-0.25994968,0
2.9601192,-2.2393556,-4.8707819,0.24956933,0.17047238,-0.9532336,0
2.3798747,-3.3478885,5.1623325,0.96474308,0.04119432,0.25994968,0
-4.8248396,3.6899428,3.8573852,-0.96474308,-0.04119432,-0.25994968,0
0.77981091,-0.61248052,-5.1506729,0.24956933,0.17047238,-0.9532336,0
-3.7587051,3.3392663,-0.043756008,-0.96474308,-0.04119432,-0.25994968,0
4.0546961,1.4169253,-3.9303327,0.24956933,0.17047238,-0.9532336,0
4.1957722,-4.3686743,-2.2593193,0.083582103,-0.98450094,-0.15418121,0
-0.79859257,1.0106547,5.2169628,-0.24956933,-0.17047238,0.9532336,0
2.9144135,0.49914289,2.5688739,0.96474308,0.04119432,0.25994968,0
2.1853888,-5.3856282,3.1444542,0.083582103,-0.98450094,-0.15418121,0
-1.7604032,-2.2969513,-6.1169786,0.24956933,0.17047238,-0.9532336,0
-2.5600679,-5.6091309,3.5719295,-0.24956933,-0.17047238,0.9532336,0
-3.0507343,-2.7774277,3.9498773,-0.24956933,-0.17047238,0.9532336,0
-3.5634677,0.077232361,-0.25139689,-0.96474308,-0.04119432,-0.25994968,0
-1.1409769,-4.8662429,-1.9752358,0.083582103,-0.98450094,-0.15418121,0
4.7795329,-3.3726232,-4.5971036,0.24956933,0.17047238,-0.9532336,0
1.5824375,0.68179846,5.7815375,-0.24956933,-0.17047238,0.9532336,0
-0.30279583,-2.1313112,4.784873,-0.24956933,-0.17047238,0.9532336,0
-0.79862738,0.033836603,-5.4483433,0.24956933,0.17047238,-0.9532336,0
2.3458471,-4.1594834,-4.5979271,0.083582103,-0.98450094,-0.15418121,0
-2.9372683,0.55282879,4.5751538,-0.24956933,-0.17047238,0.9532336,0
3.9904699,-0.63580155,-1.2448049,0.96474308,0.04119432,0.25994968,0
3.4391744,-3.8755898,1.3146116,0.96474308,0.04119432,0.25994968,0
-2.693367,3.0336947,-3.9490879,-0.96474308,-0.04119432,-0.25994968,0
-2.3295722,2.29497,5.0458136,-0.24956933,-0.17047238,0.9532336,0
-1.6057242,-1.6696215,4.5263152,-0.24956933,-0.17047238,0.9532336,0
4.4082241,-4.0808892,-3.9817553,0.083582103,-0.98450094,-0.15418121,0
3.3372645,2.2722166,0.71858001,0.96474308,0.04119432,0.25994968,0
-3.9448898,-5.0348616,1.9742789,-0.96474308,-0.04119432,-0.25994968,0
1.5924616,-3.1622448,-5.393899,0.24956933,0.17047238,-0.9532336,0
3.8707063,5.2072473,-1.7262836,0.96474308,0.04119432,0.25994968,0
-3.741173,3.0635672,-0.065131277,-0.96474308,-0.04119432,-0.25994968,0
3.141598,-5.0377855,1.4417232,0.083582103,-0.98450094,-0.15418121,0
-0.75186634,-4.8209443,-2.0535436,0.083582103,-0.98450094,-0.15418121,0
-2.823107,-3.9799001,3.7944274,-0.24956933,-0.17047238,0.9532336,0
2.999146,0.010857582,2.3317876,0.96474308,0.04119432,0.25994968,0
2.2490098,-4.9768076,0.56847894,0.083582103,-0.98450094,-0.15418121,0
4.2953858,-4.1402035,-1.8210864,0.96474308,0.04119432,0.25994968,0
3.3293719,-4.5704746,-1.4404284,0.083582103,-0.98450094,-0.15418121,0
2.5190787,5.1282701,1.049173,-0.083582103,0.98450094,0.15418121,0
-2.5268502,-4.8938713,-2.550102,0.083582103,-0.98450094,-0.15418121,0
-0.46340299,-0.12464547,-5.3889203,0.24956933,0.17047238,-0.9532336,0
4.4948049,-3.4524252,-2.6701746,0.96474308,0.04119432,0.25994968,0
-3.2192049,-1.4972236,-1.279544,-0.96474308,-0.04119432,-0.25994968,0
1.8555188,-5.1394734,1.3938479,0.083582103,-0.98450094,-0.15418121,0
0.86877441,5.4790678,-2.0854254,-0.083582103,0.98450094,0.15418121,0
4.2846951,4.0330577,-3.4022584,0.24956933,0.17047238,-0.9532336,0
-4.1991277,-4.7030582,3.3048401,-0.24956933,-0.17047238,0.9532336,0
3.5932038,4.7443109,-3.4561019,0.24956933,0.17047238,-0.9532336,0
2.5859809,-0.21921468,3.9016137,0.96474308,0.04119432,0.25994968,0
0.91796279,0.72932625,5.6160679,-0.24956933,-0.17047238,0.9532336,0
3.6426132,4.8521585,-0.82349491,0.96474308,0.04119432,0.25994968,0
-2.6126997,1.592351,4.8460336,-0.24956933,-0.17047238,0.9532336,0
3.1413937,-2.9642391,2.2753329,0.96474308,0.04119432,0.25994968,0
1.366199,-3.2345126,-5.4660611,0.24956933,0.17047238,-0.9532336,0
-4.0840511,-4.1042337,3.4420605,-0.24956933,-0.17047238,0.9532336,0
1.5976872,4.4498701,4.8815107,-0.083582103,0.98450094,0.15418121,0
4.6442947,-1.422622,-4.2837811,0.24956933,0.17047238,-0.9532336,0
0.84772635,2.915524,5.9886498,-0.24956933,-0.17047238,0.9532336,0
3.4026628,3.7763469,0.23750949,0.96474308,0.04119432,0.25994968,0
0.062221527,-4.1770701,-5.7235894,0.083582103,-0.98450094,-0.15418121,0
2.1841998,-4.6651044,4.9828682,-0.24956933,-0.17047238,0.9532336,0
3.1298304,-3.540637,2.4095886,0.96474308,0.04119432,0.25994968,0
-1.2084408,-5.6774521,3.1680441,0.083582103,-0.98450094,-0.15418121,0
-1.878881,-2.6953053,-6.0639858,-0.96474308,-0.04119432,-0.25994968,0
-0.85068035,1.4563324,-5.2075787,0.24956933,0.17047238,-0.9532336,0
-2.1661115,-2.7581344,-4.9880381,-0.96474308,-0.04119432,-0.25994968,0
2.4514918,-4.6449766,-1.4406116,0.083582103,-0.98450094,-0.15418121,0
-0.30405712,-0.58999515,-5.4304228,0.24956933,0.17047238,-0.9532336,0
-2.6784754,4.0742822,-4.1692572,-0.96474308,-0.04119432,-0.25994968,0
-2.7788689,-3.1854212,-2.6462195,-0.96474308,-0.04119432,-0.25994968,0
-1.5753045,4.9199123,0.16003287,-0.083582103,0.98450094,0.15418121,0
2.8649967,2.0302904,2.5096323,0.96474308,0.04119432,0.25994968,0
-2.2059951,0.037972927,-5.2831221,-0.96474308,-0.04119432,-0.25994968,0
3.8087802,4.1457577,-1.3282428,0.96474308,0.04119432,0.25994968,0
2.4848886,2.005969,3.9241679,0.96474308,0.04119432,0.25994968,0
0.37759471,-5.6394234,3.7850156,0.083582103,-0.98450094,-0.15418121,0
-3.8295729,-1.1702867,0.93388581,-0.96474308,-0.04119432,-0.25994968,0
-2.0205193,-2.5968308,-5.5539341,-0.96474308,-0.04119432,-0.25994968,0
2.0861831,2.1415873,5.3823795,0.96474308,0.04119432,0.25994968,0
-4.2036629,1.4967694,4.4124045,-0.24956933,-0.17047238,0.9532336,0
-2.056076,1.5706573,4.987885,-0.24956933,-0.17047238,0.9532336,0
-1.4514482,2.7679148,-5.1303105,0.24956933,0.17047238,-0.9532336,0
-0.59692574,-5.072041,-0.3662138,0.083582103,-0.98450094,-0.15418121,0
3.1760631,4.9231648,0.8967452,0.96474308,0.04119432,0.25994968,0
-2.597429,1.2676463,-4.0252719,-0.96474308,-0.04119432,-0.25994968,0
-1.9237993,4.3485136,3.6196942,-0.083582103,0.98450094,0.15418121,0
-0.93626332,5.299726,-1.9187832,-0.083582103,0.98450094,0.15418121,0
1.6000826,-4.7533059,-1.2104419,0.083582103,-0.98450094,-0.15418121,0
-0.52759528,-2.0170708,-5.7441597,0.24956933,0.17047238,-0.9532336,0
-4.8295898,2.8931777,4.001277,-0.96474308,-0.04119432,-0.25994968,0
1.9694777,4.7026625,3.4688878,-0.083582103,0.98450094,0.15418121,0
-0.59297752,5.0638509,-0.22653902,-0.083582103,0.98450094,0.15418121,0
0.58026791,0.060736179,5.4080873,-0.24956933,-0.17047238,0.9532336,0
1.6781781,-5.273232,2.1518049,0.083582103,-0.98450094,-0.15418121,0
-2.1501219,5.1081176,-1.3533344,-0.083582103,0.98450094,0.15418121,0
2.9096212,-1.584738,2.9168937,0.96474308,0.04119432,0.25994968,0
4.4719467,0.82271886,-3.2628274,0.96474308,0.04119432,0.25994968,0
-2.1158128,4.5128798,2.4660673,-0.083582103,0.98450094,0.15418121,0
4.3694634,-1.7312219,-4.410924,0.24956933,0.17047238,-0.9532336,0
-3.7852297,-5.131063,1.3969817,-0.96474308,-0.04119432,-0.25994968,0
2.3819723,4.3012037,3.9423923,0.96474308,0.04119432,0.25994968,0
-2.4106345,-1.6536064,-4.2555847,-0.96474308,-0.04119432,-0.25994968,0
-4.2481418,1.8111372,2.0148389,-0.96474308,-0.04119432,-0.25994968,0
1.2499027,4.9180155,1.703702,-0.083582103,0.98450094,0.15418121,0
-3.7072809,-3.4286358,0.83790851,-0.96474308,-0.04119432,-0.25994968,0
2.66995,5.7008438,-2.5251212,-0.083582103,0.98450094,0.15418121,0
2.0747633,-1.7991979,-5.0238647,0.24956933,0.17047238,-0.9532336,0
1.236732,4.3294001,5.4550762,-0.083582103,0.98450094,0.15418121,0
3.8201218,5.6782312,-1.7572241,-0.083582103,0.98450094,0.15418121,0
-1.0387788,5.3940086,-2.5763891,-0.083582103,0.98450094,0.15418121,0
-1.1340592,1.1832316,-5.3306112,0.24956933,0.17047238,-0.9532336,0
-1.6196562,-0.90772092,4.6589227,-0.24956933,-0.17047238,0.9532336,0
-2.8980632,3.8814719,-3.3237519,-0.96474308,-0.04119432,-0.25994968,0
