-3.0239282,2.1713712,-3.5966659,-0.28077209,0.90032566,-0.33253664,0
-3.9985671,-2.8691759,2.2428203,-0.81504822,-0.40662366,-0.4127391,0
2.4814491,-2.5654528,2.9877441,0.28077209,-0.90032566,0.33253664,0
-3.2519565,-2.5554576,0.4593966,-0.81504822,-0.40662366,-0.4127391,0
-0.5203777,-2.8867044,-4.6083946,-0.81504822,-0.40662366,-0.4127391,0
2.1257772,-1.2913814,5.5543442,0.81504822,0.40662366,0.4127391,0
0.88651991,2.5973103,-5.2521009,0.50681686,-0.15514775,-0.8479774,0
2.4601855,1.9926236,-4.200922,0.50681686,-0.15514775,-0.8479774,0
-1.9088111,0.83495569,-5.5331316,-0.81504822,-0.40662366,-0.4127391,0
3.7905459,3.2293849,-2.1869068,0.81504822,0.40662366,0.4127391,0
4.1266909,2.9713876,-2.5965283,0.81504822,0.40662366,0.4127391,0
1.0495555,2.5747352,3.8707576,0.81504822,0.40662366,0.4127391,0
5.3321085,-0.62931073,-2.0047245,0.50681686,-0.15514775,-0.8479774,0
-4.2347107,2.8805194,-0.65437961,-0.28077209,0.90032566,-0.33253664,0
-1.2135854,-4.5823774,-1.5689479,-0.81504822,-0.40662366,-0.4127391,0
-0.9089607,-4.9085088,-1.8492007,-0.81504822,-0.40662366,-0.4127391,0
3.8274994,-2.9393485,0.83892703,0.28077209,-0.90032566,0.33253664,0
-1.0134964,-4.6661053,0.25124198,0.28077209,-0.90032566,0.33253664,0
-3.9483113,3.7337799,2.2637882,-0.50681686,0.15514775,0.8479774,0
-1.6779075,4.3822041,1.2525568,-0.28077209,0.90032566,-0.33253664,0
-1.1326904,-0.12356377,-5.9611206,0.50681686,-0.15514775,-0.8479774,0
3.2136343,1.6083494,0.54935503,0.81504822,0.40662366,0.4127391,0
-0.74864149,-2.5226555,-4.5162897,-0.81504822,-0.40662366,-0.4127391,0
0.36726809,-2.3719833,5.2966299,0.28077209,-0.90032566,0.33253664,0
0.70981902,-2.9625602,-4.3404651,0.50681686,-0.15514775,-0.8479774,0
-0.22531748,1.2275739,-5.6660118,0.50681686,-0.15514775,-0.8479774,0
-0.50430441,-1.5906744,-5.3171234,0.50681686,-0.15514775,-0.8479774,0
0.89759451,3.2089806,3.5459917,0.81504822,0.40662366,0.4127391,0
1.2372602,1.6524544,4.4087076,0.81504822,0.40662366,0.4127391,0
-0.85388124,-4.4079552,-2.4511044,-0.81504822,-0.40662366,-0.4127391,0
0.029809952,4.0572166,-1.0692152,-0.28077209,0.90032566,-0.33253664,0
-3.9746065,-3.410521,2.7288287,-0.81504822,-0.40662366,-0.4127391,0
2.3085907,3.273185,0.69640303,0.81504822,0.40662366,0.4127391,0
-3.2855802,3.5313408,0.30630159,-0.28077209,0.90032566,-0.33253664,0
-1.954787,-3.6759744,-0.99824858,-0.81504822,-0.40662366,-0.4127391,0
2.0007219,-2.9024632,2.4812012,0.28077209,-0.90032566,0.33253664,0
4.1098461,3.8564692,-3.4352317,0.81504822,0.40662366,0.4127391,0
3.8516121,-2.8674698,1.013175,0.28077209,-0.90032566,0.33253664,0
-3.8301313,-2.1523128,3.4113536,-0.50681686,0.15514775,0.8479774,0
1.9564381,-4.6069083,-3.2945356,0.50681686,-0.15514775,-0.8479774,0
5.7883248,-2.6005874,-1.3713846,0.50681686,-0.15514775,-0.8479774,0
-3.8100047,-3.8533752,2.8400776,-0.81504822,-0.40662366,-0.4127391,0
3.7768648,1.7487599,-3.3693552,0.50681686,-0.15514775,-0.8479774,0
1.961916,0.089668274,4.5173392,0.81504822,0.40662366,0.4127391,0
-3.7871079,2.9857767,2.4969921,-0.50681686,0.15514775,0.8479774,0
0.0046057701,-2.6551564,4.8361616,0.28077209,-0.90032566,0.33253664,0
-0.6854527,-1.2727618,-5.4835567,0.50681686,-0.15514775,-0.8479774,0
-1.4624994,-1.0576661,-4.5498962,-0.81504822,-0.40662366,-0.4127391,0
1.0511365,-2.2233691,5.121582,0.28077209,-0.90032566,0.33253664,0
1.2782631,-4.5707173,-3.7064877,0.50681686,-0.15514775,-0.8479774,0
-2.105191,-4.205626,2.4197204,0.28077209,-0.90032566,0.33253664,0
1.6402421,-2.6381576,3.5011606,0.28077209,-0.90032566,0.33253664,0
-3.8444192,4.0345612,2.1405911,-0.28077209,0.90032566,-0.33253664,0
1.5826316,2.3963377,2.9938309,0.81504822,0.40662366,0.4127391,0
-5.6407704,2.6336336,0.064453602,-0.81504822,-0.40662366,-0.4127391,0
2.5896378,4.4902887,-2.0580447,-0.28077209,0.90032566,-0.33253664,0
-3.0347314,-2.544914,0.020048261,-0.81504822,-0.40662366,-0.4127391,0
4.4316363,-3.7591684,-1.8907866,0.28077209,-0.90032566,0.33253664,0
3.7129004,-3.3657918,-0.21888685,0.28077209,-0.90032566,0.33253664,0
2.8571162,4.1823215,-3.1176913,-0.28077209,0.90032566,-0.33253664,0
-4.537425,-1.8791171,2.9386353,-0.50681686,0.15514775,0.8479774,0
3.5496986,-3.4187143,-0.22437668,0.28077209,-0.90032566,0.33253664,0
-3.2726583,-2.6129339,3.8288186,-0.50681686,0.15514775,0.8479774,0
-0.58845913,1.2467365,4.7269306,-0.50681686,0.15514775,0.8479774,0
4.94522,-2.7016816,0.5386672,0.28077209,-0.90032566,0.33253664,0
3.1239164,3.4020431,-1.0405942,0.81504822,0.40662366,0.4127391,0
0.55609274,-2.1751807,5.6700301,0.28077209,-0.90032566,0.33253664,0
1.32078,4.0100212,-2.2870049,-0.28077209,0.90032566,-0.33253664,0
1.749987,-0.16720855,-4.2302237,0.50681686,-0.15514775,-0.8479774,0
-3.3359587,0.62359023,3.1988244,-0.50681686,0.15514775,0.8479774,0
-1.75553,2.4397585,3.8111205,-0.50681686,0.15514775,0.8479774,0
-2.4132128,-4.6379623,0.85475248,-0.81504822,-0.40662366,-0.4127391,0
-3.1525421,-0.12864327,-2.1277764,-0.81504822,-0.40662366,-0.4127391,0
0.84019971,1.0423717,5.6181984,-0.50681686,0.15514775,0.8479774,0
1.9314756,-4.8146439,-2.6374607,0.28077209,-0.90032566,0.33253664,0
4.0689859,-1.0045829,-2.6910033,0.50681686,-0.15514775,-0.8479774,0
-1.40416,-1.4895465,4.7400398,-0.50681686,0.15514775,0.8479774,0
1.292976,-2.1536915,-4.1399179,0.50681686,-0.15514775,-0.8479774,0
4.2593217,0.92610657,-2.9304867,0.50681686,-0.15514775,-0.8479774,0
-2.7999008,0.90939283,3.4669232,-0.50681686,0.15514775,0.8479774,0
-3.3687119,3.9166908,1.4198084,-0.28077209,0.90032566,-0.33253664,0
1.6037078,0.61513853,4.7070184,0.81504822,0.40662366,0.4127391,0
-1.5633601,5.1805701,3.424511,-0.50681686,0.15514775,0.8479774,0
0.54700279,4.5182309,2.9484646,0.81504822,0.40662366,0.4127391,0
2.6460662,1.6201574,1.658515,0.81504822,0.40662366,0.4127391,0
2.8997834,4.4303012,-2.482326,-0.28077209,0.90032566,-0.33253664,0
-4.1922512,-3.6709745,3.4152131,-0.81504822,-0.40662366,-0.4127391,0
-2.8390124,-2.9255769,0.0085792542,-0.81504822,-0.40662366,-0.4127391,0
-0.88593721,2.007376,-5.8458538,-0.28077209,0.90032566,-0.33253664,0
-2.775877,-1.3677633,-1.6508284,-0.81504822,-0.40662366,-0.4127391,0
-0.86585093,2.1073759,-5.5920696,-0.28077209,0.90032566,-0.33253664,0
-3.7308164,0.25493154,3.0302768,-0.50681686,0.15514775,0.8479774,0
-3.0943103,-1.8802419,3.8013577,-0.50681686,0.15514775,0.8479774,0
-4.5112076,-1.1143919,1.5263634,-0.81504822,-0.40662366,-0.4127391,0
0.60578489,3.9428372,-1.8652072,-0.28077209,0.90032566,-0.33253664,0
3.5327137,-2.7314975,1.6505687,0.28077209,-0.90032566,0.33253664,0
3.4798036,-3.0958576,0.70875597,0.28077209,-0.90032566,0.33253664,0
-0.14527085,-4.1169953,-4.1370673,-0.81504822,-0.40662366,-0.4127391,0
1.9158807,-1.8153868,5.4960375,0.28077209,-0.90032566,0.33253664,0
1.9975924,-3.6550894,0.44614744,0.28077209,-0.90032566,0.33253664,0
0.83276081,3.3824313,-3.5741208,-0.28077209,0.90032566,-0.33253664,0
1.6977875,3.2610965,1.9144835,0.81504822,0.40662366,0.4127391,0
3.9422131,-3.9543779,-2.2270722,0.50681686,-0.15514775,-0.8479774,0
0.68585193,-4.7285872,-4.0316739,0.50681686,-0.15514775,-0.8479774,0
-0.56396103,0.62771773,4.8548288,-0.50681686,0.15514775,0.8479774,0
-0.49548483,-4.8018398,-0.55362761,0.28077209,-0.90032566,0.33253664,0
-3.4335387,1.7346435,2.937222,-0.50681686,0.15514775,0.8479774,0
-1.2444925,-0.76617122,4.7031202,-0.50681686,0.15514775,0.8479774,0
-2.0888751,-3.480978,-0.92556775,-0.81504822,-0.40662366,-0.4127391,0
-5.0851307,3.1809874,0.8771615,-0.28077209,0.90032566,-0.33253664,0
-2.3337572,-0.98532939,-2.9006629,-0.81504822,-0.40662366,-0.4127391,0
-4.4488802,2.1963255,-1.8583812,-0.81504822,-0.40662366,-0.4127391,0
-3.163558,1.3282409,3.1729398,-0.50681686,0.15514775,0.8479774,0
1.3347654,-3.5223064,1.365298,0.28077209,-0.90032566,0.33253664,0
0.99847507,3.206074,-4.1915159,-0.28077209,0.90032566,-0.33253664,0
1.3194332,0.076683044,5.7988605,0.81504822,0.40662366,0.4127391,0
-1.7980093,-1.8912065,-3.066165,-0.81504822,-0.40662366,-0.4127391,0
2.8473351,-4.5117092,-2.5905719,0.28077209,-0.90032566,0.33253664,0
-3.5751791,3.4713519,0.38840294,-0.28077209,0.90032566,-0.33253664,0
1.8073769,-2.422575,-3.783277,0.50681686,-0.15514775,-0.8479774,0
3.5434957,4.3202572,-3.3237717,-0.28077209,0.90032566,-0.33253664,0
0.44082594,2.843719,-4.7017317,-0.28077209,0.90032566,-0.33253664,0
3.5855439,-0.29949498,1.6945091,0.81504822,0.40662366,0.4127391,0
-5.2206459,0.5965004,1.2417707,-0.81504822,-0.40662366,-0.4127391,0
-2.2520771,2.545718,-3.2348433,-0.28077209,0.90032566,-0.33253664,0
2.4482231,-4.2450724,-1.531683,0.28077209,-0.90032566,0.33253664,0
2.5215881,0.27643466,3.2281382,0.81504822,0.40662366,0.4127391,0
-1.8096077,-1.4632337,-3.4648926,-0.81504822,-0.40662366,-0.4127391,0
1.1395769,1.0693684,5.1760526,0.81504822,0.40662366,0.4127391,0
-0.4351809,4.3879189,0.21875215,-0.28077209,0.90032566,-0.33253664,0
2.9508703,-0.9184258,3.5575778,0.81504822,0.40662366,0.4127391,0
-0.94599956,-3.7519715,-2.9154603,-0.81504822,-0.40662366,-0.4127391,0
-0.714046,-0.47941303,-5.6457987,0.50681686,-0.15514775,-0.8479774,0
-1.8593576,-1.2365141,-3.5900106,-0.81504822,-0.40662366,-0.4127391,0
-1.8165774,1.2051454,-6.0799708,-0.81504822,-0.40662366,-0.4127391,0
2.3165684,-2.9709935,-3.3786049,0.50681686,-0.15514775,-0.8479774,0
3.4040127,0.062494643,-3.2836771,0.50681686,-0.15514775,-0.8479774,0
0.75203896,-1.0980645,-4.6563635,0.50681686,-0.15514775,-0.8479774,0
2.831749,-0.046156883,-3.6058264,0.50681686,-0.15514775,-0.8479774,0
0.75968504,0.61768961,-4.9657116,0.50681686,-0.15514775,-0.8479774,0
-1.9638504,-0.80952346,4.2811069,-0.50681686,0.15514775,0.8479774,0
3.7230155,-3.0712061,0.57014751,0.28077209,-0.90032566,0.33253664,0
-2.0854702,-1.7318645,4.377172,-0.50681686,0.15514775,0.8479774,0
1.2979069,-0.41799545,6.1589508,-0.50681686,0.15514775,0.8479774,0
5.5101476,-1.7073087,-1.7010813,0.50681686,-0.15514775,-0.8479774,0
-4.9742498,2.2928109,1.9142509,-0.50681686,0.15514775,0.8479774,0
-0.9134047,0.35044193,4.6967053,-0.50681686,0.15514775,0.8479774,0
-3.4629445,-2.9786663,1.292979,-0.81504822,-0.40662366,-0.4127391,0
-1.4448862,3.9338293,3.7234263,-0.50681686,0.15514775,0.8479774,0
2.4403362,-0.595285,-3.7392955,0.50681686,-0.15514775,-0.8479774,0
-1.4559133,-1.5499775,-4.0778847,-0.81504822,-0.40662366,-0.4127391,0
-3.2961354,1.5554297,-3.5033379,-0.81504822,-0.40662366,-0.4127391,0
5.154984,-1.8052292,0.078713417,0.81504822,0.40662366,0.4127391,0
2.3618801,-4.6921825,-2.6693091,0.28077209,-0.90032566,0.33253664,0
0.66371703,-2.9004958,-4.379375,0.50681686,-0.15514775,-0.8479774,0
-4.5988083,-2.3912151,2.9572558,-0.81504822,-0.40662366,-0.4127391,0
1.3609802,-0.28843665,-4.4405432,0.50681686,-0.15514775,-0.8479774,0
2.5949979,0.67136401,-3.8786077,0.50681686,-0.15514775,-0.8479774,0
-3.5395682,3.7013447,2.5140176,-0.50681686,0.15514775,0.8479774,0
-1.548842,0.40111876,-5.8165646,-0.81504822,-0.40662366,-0.4127391,0
-1.3320029,-2.3424168,4.9392099,-0.50681686,0.15514775,0.8479774,0
0.24777794,4.518671,-0.0038892031,-0.28077209,0.90032566,-0.33253664,0
-0.28899646,-4.4859614,0.12725091,0.28077209,-0.90032566,0.33253664,0
-0.044380903,-5.2139931,-3.2555537,-0.81504822,-0.40662366,-0.4127391,0
0.75825548,4.5199099,2.5296438,0.81504822,0.40662366,0.4127391,0
-3.1993432,-0.36698318,-1.8005481,-0.81504822,-0.40662366,-0.4127391,0
-4.8598075,-0.27697659,1.3897471,-0.81504822,-0.40662366,-0.4127391,0
-0.22283888,-0.70263004,5.3021135,-0.50681686,0.15514775,0.8479774,0
4.6502495,-1.9311664,1.1994991,0.81504822,0.40662366,0.4127391,0
-2.6202278,2.2821531,3.3231459,-0.50681686,0.15514775,0.8479774,0
2.4591172,4.0246377,-0.34116417,0.81504822,0.40662366,0.4127391,0
2.7995691,-2.369633,3.2493172,0.28077209,-0.90032566,0.33253664,0
-1.670578,0.97474301,4.1299362,-0.50681686,0.15514775,0.8479774,0
2.6029034,4.2842093,-0.88082922,0.81504822,0.40662366,0.4127391,0
0.26520252,-4.1491017,0.57135177,0.28077209,-0.90032566,0.33253664,0
-0.47728419,5.1041923,2.1935732,-0.28077209,0.90032566,-0.33253664,0
-0.3898077,3.0121315,-3.5444305,-0.28077209,0.90032566,-0.33253664,0
0.72699142,0.95694423,5.5661659,-0.50681686,0.15514775,0.8479774,0
-5.843708,2.0559771,1.0342979,-0.81504822,-0.40662366,-0.4127391,0
-1.7316642,4.1953397,3.504179,-0.50681686,0.15514775,0.8479774,0
2.6910305,3.65483,-0.43480253,0.81504822,0.40662366,0.4127391,0
-2.3216369,-3.0014889,-0.93831044,-0.81504822,-0.40662366,-0.4127391,0
-4.3504348,-3.1071568,3.2750797,-0.50681686,0.15514775,0.8479774,0
3.6715,-3.9216349,-1.688848,0.28077209,-0.90032566,0.33253664,0
0.78421843,4.8413572,2.1616895,0.81504822,0.40662366,0.4127391,0
-4.5106506,-1.0376419,1.4496503,-0.81504822,-0.40662366,-0.4127391,0
3.0017347,1.5787619,0.99694777,0.81504822,0.40662366,0.4127391,0
-0.41174895,3.1342192,4.4872079,-0.50681686,0.15514775,0.8479774,0
-1.6913007,-1.2816265,-3.8774343,-0.81504822,-0.40662366,-0.4127391,0
-1.257158,-4.1652708,-1.8938302,-0.81504822,-0.40662366,-0.4127391,0
-0.20744944,-4.3179426,0.51330107,0.28077209,-0.90032566,0.33253664,0
3.1796198,4.3052511,-2.0404179,0.81504822,0.40662366,0.4127391,0
0.26865959,-5.2938981,-3.7950034,-0.81504822,-0.40662366,-0.4127391,0
2.8585286,-2.9707341,1.572086,0.28077209,-0.90032566,0.33253664,0
-1.1457553,-4.7021294,0.26537782,0.28077209,-0.90032566,0.33253664,0
3.874022,4.3582058,-3.5001032,-0.28077209,0.90032566,-0.33253664,0
3.2786407,-3.8202062,-2.6482215,0.50681686,-0.15514775,-0.8479774,0
-0.3242259,5.1589098,2.2124865,-0.28077209,0.90032566,-0.33253664,0
-2.0862942,-0.43225455,-3.9342155,-0.81504822,-0.40662366,-0.4127391,0
0.036359787,2.036144,4.9559383,-0.50681686,0.15514775,0.8479774,0
-3.4690917,-3.8123305,2.1264293,-0.81504822,-0.40662366,-0.4127391,0
-4.1379571,-2.2266908,1.8851128,-0.81504822,-0.40662366,-0.4127391,0
-3.2724447,-4.3069487,2.2253947,-0.81504822,-0.40662366,-0.4127391,0
2.3654737,3.7508497,-3.8707683,-0.28077209,0.90032566,-0.33253664,0
-4.7739458,-1.3171917,2.2449961,-0.81504822,-0.40662366,-0.4127391,0
-4.5533876,-1.7346128,2.9026556,-0.50681686,0.15514775,0.8479774,0
-3.5557711,3.8370037,1.362,-0.28077209,0.90032566,-0.33253664,0
4.0367155,4.1922431,-3.6611128,0.50681686,-0.15514775,-0.8479774,0
-1.947156,-1.8689058,-2.793611,-0.81504822,-0.40662366,-0.4127391,0
0.93932205,3.6906979,2.9890113,0.81504822,0.40662366,0.4127391,0
-4.2080827,0.43544626,-0.59909964,-0.81504822,-0.40662366,-0.4127391,0
4.112751,-0.92068672,1.2654052,0.81504822,0.40662366,0.4127391,0
1.7335496,-3.9058805,-0.0099160671,0.28077209,-0.90032566,0.33253664,0
-3.153553,2.0376649,3.0491214,-0.50681686,0.15514775,0.8479774,0
-1.2608461,-1.8049247,-4.2119203,-0.81504822,-0.40662366,-0.4127391,0
-4.6850014,2.0845122,2.1252384,-0.50681686,0.15514775,0.8479774,0
-1.4938439,-4.5887036,-1.0092813,-0.81504822,-0.40662366,-0.4127391,0
1.9098387,2.0211513,-4.5350709,0.50681686,-0.15514775,-0.8479774,0
-1.4556458,5.1005831,3.0098672,-0.28077209,0.90032566,-0.33253664,0
-0.58798695,1.7111232,4.6422472,-0.50681686,0.15514775,0.8479774,0
-1.3468552,-1.7412328,4.8203392,-0.50681686,0.15514775,0.8479774,0
2.4832349,4.5717368,-1.7476902,-0.28077209,0.90032566,-0.33253664,0
0.63075805,4.5798326,2.7223816,0.81504822,0.40662366,0.4127391,0
3.5513954,4.4156699,-3.0721178,-0.28077209,0.90032566,-0.33253664,0
-4.1210871,2.3643985,-2.147687,-0.28077209,0.90032566,-0.33253664,0
2.5319304,-0.9854641,4.4509168,0.81504822,0.40662366,0.4127391,0
-2.7335813,-1.6936364,3.982816,-0.50681686,0.15514775,0.8479774,0
-0.56857157,-3.2229137,3.7829421,0.28077209,-0.90032566,0.33253664,0
4.559957,2.1850305,-2.6774063,0.81504822,0.40662366,0.4127391,0
2.566349,2.2304943,1.2146415,0.81504822,0.40662366,0.4127391,0
-1.9870799,2.7707639,3.6121664,-0.50681686,0.15514775,0.8479774,0
3.5722053,-2.8475919,-2.6507163,0.50681686,-0.15514775,-0.8479774,0
-2.8061693,2.8558345,-1.9273791,-0.28077209,0.90032566,-0.33253664,0
3.5373559,-2.2617543,2.9184537,0.28077209,-0.90032566,0.33253664,0
-2.0049787,-4.2196569,-0.36350659,-0.81504822,-0.40662366,-0.4127391,0
-0.514539,-4.8196745,-0.58582616,0.28077209,-0.90032566,0.33253664,0
-0.904239,-3.0525508,-3.6869829,-0.81504822,-0.40662366,-0.4127391,0
2.8177762,-0.86325717,3.7660513,0.81504822,0.40662366,0.4127391,0
-5.1187329,-0.56176865,2.1816258,-0.81504822,-0.40662366,-0.4127391,0
2.4168596,4.492187,-0.71833926,0.81504822,0.40662366,0.4127391,0
2.1877179,-3.4072173,-3.3758035,0.50681686,-0.15514775,-0.8479774,0
1.9744939,4.531528,0.11645609,0.81504822,0.40662366,0.4127391,0
-0.46553326,3.0201328,-3.4588296,-0.28077209,0.90032566,-0.33253664,0
4.3239355,-3.0180223,-2.1702428,0.50681686,-0.15514775,-0.8479774,0
1.3992758,3.7185376,-3.1424577,-0.28077209,0.90032566,-0.33253664,0
4.2805362,2.1140766,-3.1351614,0.50681686,-0.15514775,-0.8479774,0
-4.9501047,2.3628662,-1.0326684,-0.81504822,-0.40662366,-0.4127391,0
1.1546259,-3.3109801,2.0895512,0.28077209,-0.90032566,0.33253664,0
0.70740151,0.65047455,5.6105299,-0.50681686,0.15514775,0.8479774,0
5.6130109,-2.894341,-1.4224205,0.50681686,-0.15514775,-0.8479774,0
-4.1977191,-2.6450331,2.415271,-0.81504822,-0.40662366,-0.4127391,0
-4.1456189,-3.5225642,3.4734979,-0.50681686,0.15514775,0.8479774,0
1.7865212,-0.4924829,-4.1488757,0.50681686,-0.15514775,-0.8479774,0
-2.6507983,-1.6261979,-1.643219,-0.81504822,-0.40662366,-0.4127391,0
-4.9179277,1.5904632,-0.33525085,-0.81504822,-0.40662366,-0.4127391,0
-0.29486597,3.7432034,4.4456449,-0.50681686,0.15514775,0.8479774,0
-0.31146795,-3.9118454,-4.0109835,-0.81504822,-0.40662366,-0.4127391,0
-2.4930916,1.2338933,3.5909238,-0.50681686,0.15514775,0.8479774,0
4.6336594,-1.7257316,-2.2215676,0.50681686,-0.15514775,-0.8479774,0
5.0333047,-2.9161816,-0.11645508,0.28077209,-0.90032566,0.33253664,0
-4.6274247,3.3440471,0.93217802,-0.28077209,0.90032566,-0.33253664,0
1.8525734,-2.1307127,4.6957617,0.28077209,-0.90032566,0.33253664,0
-0.68650544,-5.0226178,-2.1760714,-0.81504822,-0.40662366,-0.4127391,0
-0.32480001,1.9754605,-5.8623047,0.50681686,-0.15514775,-0.8479774,0
-2.3592553,4.4650984,2.0522738,-0.28077209,0.90032566,-0.33253664,0
5.4426622,-2.3356996,0.033236504,0.81504822,0.40662366,0.4127391,0
-4.5843372,-1.4133018,1.9652548,-0.81504822,-0.40662366,-0.4127391,0
-0.58964682,-5.0364547,-1.1093304,0.28077209,-0.90032566,0.33253664,0
0.74726915,-0.68923497,5.8794737,-0.50681686,0.15514775,0.8479774,0
0.68840051,-4.9323578,-1.9065936,0.28077209,-0.90032566,0.33253664,0
-3.3070455,-4.0263557,3.9198527,0.28077209,-0.90032566,0.33253664,0
0.74533176,-0.91516447,5.9196525,-0.50681686,0.15514775,0.8479774,0
-1.1218104,2.015801,-5.6238871,-0.28077209,0.90032566,-0.33253664,0
1.4273329,3.3705506,-4.108304,-0.28077209,0.90032566,-0.33253664,0
2.1009698,0.19598377,-4.0868993,0.50681686,-0.15514775,-0.8479774,0
3.3576918,-2.7059639,1.8674766,0.28077209,-0.90032566,0.33253664,0
-1.7022533,1.5500879,-6.3946953,-0.28077209,0.90032566,-0.33253664,0
-5.3656883,3.1249642,0.9623661,-0.28077209,0.90032566,-0.33253664,0
0.94963408,-2.6050181,4.1739874,0.28077209,-0.90032566,0.33253664,0
3.2203324,-1.259614,3.3615961,0.81504822,0.40662366,0.4127391,0
-1.9529154,-0.38428414,4.2098403,-0.50681686,0.15514775,0.8479774,0
0.51794362,3.9672599,-1.724916,-0.28077209,0.90032566,-0.33253664,0
0.83113909,-4.7684059,-1.5832226,0.28077209,-0.90032566,0.33253664,0
-3.3559194,-1.1599472,-0.71013832,-0.81504822,-0.40662366,-0.4127391,0
-5.9640174,2.962966,1.0289536,-0.28077209,0.90032566,-0.33253664,0
4.1426229,2.0496802,-1.7199392,0.81504822,0.40662366,0.4127391,0
0.71386957,-0.98059535,5.9128199,-0.50681686,0.15514775,0.8479774,0
2.0278697,3.3802521,-4.5890923,-0.28077209,0.90032566,-0.33253664,0
4.0780725,-2.8382072,0.90119362,0.28077209,-0.90032566,0.33253664,0
3.1885624,4.3039393,-2.0567842,0.81504822,0.40662366,0.4127391,0
0.45352614,4.4785342,3.1721644,0.81504822,0.40662366,0.4127391,0
-0.95219004,3.5947371,4.0799408,-0.50681686,0.15514775,0.8479774,0
0.72629642,2.4857395,4.5967846,0.81504822,0.40662366,0.4127391,0
0.29728675,-4.3132892,0.099732518,0.28077209,-0.90032566,0.33253664,0
4.1015277,-2.5562382,1.6448047,0.28077209,-0.90032566,0.33253664,0
-2.3070078,-4.4931107,1.8117708,0.28077209,-0.90032566,0.33253664,0
1.7294668,3.6442342,1.4744648,0.81504822,0.40662366,0.4127391,0
-4.7579145,-0.71257317,2.5934205,-0.50681686,0.15514775,0.8479774,0
-0.31214845,-4.0046062,-3.9182529,-0.81504822,-0.40662366,-0.4127391,0
0.98094416,-5.0623808,-2.5056295,0.28077209,-0.90032566,0.33253664,0
3.905834,1.1529394,-0.36889052,0.81504822,0.40662366,0.4127391,0
-2.4833755,-2.5648599,-1.0490798,-0.81504822,-0.40662366,-0.4127391,0
-5.5032744,1.3396022,1.0677943,-0.81504822,-0.40662366,-0.4127391,0
-2.056097,-3.0592334,4.6375856,-0.50681686,0.15514775,0.8479774,0
-1.1537197,4.3850775,0.81774592,-0.28077209,0.90032566,-0.33253664,0
1.8879129,-2.4069722,-3.7379966,0.50681686,-0.15514775,-0.8479774,0
0.50942242,4.2765522,3.2607741,0.81504822,0.40662366,0.4127391,0
-1.6283724,-3.6723943,-1.6463559,-0.81504822,-0.40662366,-0.4127391,0
3.2040589,-3.8478355,-1.0943627,0.28077209,-0.90032566,0.33253664,0
-2.438237,4.6993494,2.7531834,-0.28077209,0.90032566,-0.33253664,0
2.9526999,1.5031121,1.1683077,0.81504822,0.40662366,0.4127391,0
-0.22782671,1.9884443,4.8067675,-0.50681686,0.15514775,0.8479774,0
3.8940699,0.35834956,0.43715692,0.81504822,0.40662366,0.4127391,0
-1.2973356,2.7541895,-3.4765379,-0.28077209,0.90032566,-0.33253664,0
0.044630766,4.6405516,0.49761939,-0.28077209,0.90032566,-0.33253664,0
2.1821077,4.5383759,-1.5837598,-0.28077209,0.90032566,-0.33253664,0
-2.0430579,3.0625296,-2.0120838,-0.28077209,0.90032566,-0.33253664,0
-0.91835511,-4.5295978,-2.2039454,-0.81504822,-0.40662366,-0.4127391,0
0.98434711,5.020112,1.5903833,0.81504822,0.40662366,0.4127391,0
2.364641,3.6137826,-4.241169,-0.28077209,0.90032566,-0.33253664,0
2.4681158,-1.5648754,-3.5452943,0.50681686,-0.15514775,-0.8479774,0
-1.7809706,5.0378089,3.1145921,-0.28077209,0.90032566,-0.33253664,0
-3.1746123,1.55407,3.1250148,-0.50681686,0.15514775,0.8479774,0
0.45886087,3.6236658,-2.605294,-0.28077209,0.90032566,-0.33253664,0
1.3352478,4.7802186,-0.21395147,-0.28077209,0.90032566,-0.33253664,0
0.91196632,-3.4762805,1.8468959,0.28077209,-0.90032566,0.33253664,0
2.1052473,-4.0610442,-0.74385023,0.28077209,-0.90032566,0.33253664,0
3.1958494,-3.9358406,-1.3257008,0.28077209,-0.90032566,0.33253664,0
1.4736707,-4.6639829,-1.8430133,0.28077209,-0.90032566,0.33253664,0
1.8648725,2.1618466,-4.5876884,0.50681686,-0.15514775,-0.8479774,0
5.0097961,0.5502758,-1.9551821,0.81504822,0.40662366,0.4127391,0
3.3520112,0.63943064,-3.4203143,0.50681686,-0.15514775,-0.8479774,0
1.3883423,-0.32760596,-4.4170246,0.50681686,-0.15514775,-0.8479774,0
-0.092875034,-3.7570486,-4.595149,-0.81504822,-0.40662366,-0.4127391,0
4.3954058,1.9405882,-2.1116409,0.81504822,0.40662366,0.4127391,0
2.722569,0.8636179,2.2527723,0.81504822,0.40662366,0.4127391,0
3.7104888,2.9945142,-3.6369524,0.50681686,-0.15514775,-0.8479774,0
1.2940428,1.5533481,-4.8175282,0.50681686,-0.15514775,-0.8479774,0
0.21373987,3.3544991,-3.127084,-0.28077209,0.90032566,-0.33253664,0
2.0015671,-3.5940652,0.60801148,0.28077209,-0.90032566,0.33253664,0
-0.21275806,-1.4813983,-5.1628652,0.50681686,-0.15514775,-0.8479774,0
-0.98823345,-5.0037556,-1.5988226,-0.81504822,-0.40662366,-0.4127391,0
1.7557418,2.020124,3.0226245,0.81504822,0.40662366,0.4127391,0
2.6888838,-0.93523544,-3.5285468,0.50681686,-0.15514775,-0.8479774,0
-2.9954953,-3.2968931,4.1196113,-0.50681686,0.15514775,0.8479774,0
3.6044216,-2.6045506,-2.6759286,0.50681686,-0.15514775,-0.8479774,0
-3.5747466,0.47632861,-1.8900442,-0.81504822,-0.40662366,-0.4127391,0
-4.4266448,2.6941304,-0.99696159,-0.28077209,0.90032566,-0.33253664,0
1.3876975,-4.6941776,-1.8521733,0.28077209,-0.90032566,0.33253664,0
2.091764,-2.3395882,-3.6284885,0.50681686,-0.15514775,-0.8479774,0
3.9559035,3.8266659,-3.1018748,0.81504822,0.40662366,0.4127391,0
1.0087228,2.876327,-5.0929422,-0.28077209,0.90032566,-0.33253664,0
1.8213172,1.3490095,-4.4650011,0.50681686,-0.15514775,-0.8479774,0
5.139401,0.36437654,-2.0279732,0.81504822,0.40662366,0.4127391,0
0.51805961,-4.8331151,-4.112834,0.50681686,-0.15514775,-0.8479774,0
0.31532955,-0.13218784,-5.0940933,0.50681686,-0.15514775,-0.8479774,0
4.4191823,-3.7425976,-1.8354087,0.28077209,-0.90032566,0.33253664,0
-5.0081606,-0.21879721,1.6253853,-0.81504822,-0.40662366,-0.4127391,0
-4.5219574,1.9224436,-1.4442477,-0.81504822,-0.40662366,-0.4127391,0
-0.78658676,-5.1503744,-1.2514796,0.28077209,-0.90032566,0.33253664,0
-2.3749149,2.7583985,3.3826289,-0.50681686,0.15514775,0.8479774,0
0.75437415,2.4282084,4.5980167,0.81504822,0.40662366,0.4127391,0
0.050201654,-5.3883042,-2.6021914,0.28077209,-0.90032566,0.33253664,0
1.8714838,-2.4414732,3.8384287,0.28077209,-0.90032566,0.33253664,0
-1.5475738,-4.5469341,1.0248313,0.28077209,-0.90032566,0.33253664,0
-2.2812078,4.5639925,2.2541256,-0.28077209,0.90032566,-0.33253664,0
3.2352154,1.9364884,-3.7274337,0.50681686,-0.15514775,-0.8479774,0
-2.7933061,-0.7660774,3.7774119,-0.50681686,0.15514775,0.8479774,0
-3.2543957,-2.9387677,0.84184384,-0.81504822,-0.40662366,-0.4127391,0
3.0324783,-2.0006866,4.0515676,0.28077209,-0.90032566,0.33253664,0
0.77139437,-4.8076038,-3.9660897,0.50681686,-0.15514775,-0.8479774,0
4.2049408,-1.1617887,1.3208853,0.81504822,0.40662366,0.4127391,0
3.8809514,-2.1980331,-2.585031,0.50681686,-0.15514775,-0.8479774,0
-3.6625605,0.83230591,-2.0673389,-0.81504822,-0.40662366,-0.4127391,0
-1.4659301,-0.0054935217,4.4315968,-0.50681686,0.15514775,0.8479774,0
2.4950681,-1.8986206,4.7816606,0.28077209,-0.90032566,0.33253664,0
-0.17376915,4.1329169,4.4467192,-0.50681686,0.15514775,0.8479774,0
1.13212,-0.46459436,-4.5450993,0.50681686,-0.15514775,-0.8479774,0
-1.7399904,0.768448,4.1261945,-0.50681686,0.15514775,0.8479774,0
2.5625432,-3.1075046,1.4516981,0.28077209,-0.90032566,0.33253664,0
3.3630629,1.8746526,-0.0080842972,0.81504822,0.40662366,0.4127391,0
0.12905812,-5.2891278,-2.4002576,0.28077209,-0.90032566,0.33253664,0
-5.1517763,-0.024613857,1.7176828,-0.81504822,-0.40662366,-0.4127391,0
-1.3419892,5.2274647,3.5482388,-0.50681686,0.15514775,0.8479774,0
0.35349822,-0.3694911,-5.0278635,0.50681686,-0.15514775,-0.8479774,0
-4.5624557,1.3640332,2.3303013,-0.50681686,0.15514775,0.8479774,0
4.1982417,3.3502731,-3.1110926,0.81504822,0.40662366,0.4127391,0
0.73449588,4.2757969,-1.0724105,-0.28077209,0.90032566,-0.33253664,0
1.8198199,-1.2881546,6.1553483,0.81504822,0.40662366,0.4127391,0
-1.0623877,2.0385132,4.2988086,-0.50681686,0.15514775,0.8479774,0
0.19595242,-3.481708,2.4367549,0.28077209,-0.90032566,0.33253664,0
-2.016547,3.4943917,-0.86522377,-0.28077209,0.90032566,-0.33253664,0
1.7550616,-1.4822388,6.4744353,0.81504822,0.40662366,0.4127391,0
-4.5802417,-2.4504671,3.0175805,-0.50681686,0.15514775,0.8479774,0
2.3945124,4.778686,-1.1124742,-0.28077209,0.90032566,-0.33253664,0
-2.7681572,3.2430594,-0.91108346,-0.28077209,0.90032566,-0.33253664,0
1.9401436,-2.2135217,4.3976245,0.28077209,-0.90032566,0.33253664,0
-4.853301,-1.5735705,2.6542807,-0.81504822,-0.40662366,-0.4127391,0
-4.3848605,-2.6086388,2.7489696,-0.81504822,-0.40662366,-0.4127391,0
0.56622672,3.9775684,-1.7377735,-0.28077209,0.90032566,-0.33253664,0
-0.50953078,-0.39155912,-5.5396395,0.50681686,-0.15514775,-0.8479774,0
3.1799762,0.48566127,1.721873,0.81504822,0.40662366,0.4127391,0
2.086134,4.0258317,0.39419976,0.81504822,0.40662366,0.4127391,0
4.0396214,-0.62023216,-2.7788754,0.50681686,-0.15514775,-0.8479774,0
3.3683197,3.2264292,-1.3502119,0.81504822,0.40662366,0.4127391,0
1.084554,1.4519293,4.907815,0.81504822,0.40662366,0.4127391,0
5.3484607,-1.4394072,-1.846734,0.50681686,-0.15514775,-0.8479774,0
2.3275132,-4.7983484,-3.0377259,0.50681686,-0.15514775,-0.8479774,0
-1.6076931,-0.20807326,4.3839316,-0.50681686,0.15514775,0.8479774,0
-0.86733484,4.6332006,1.2477212,-0.28077209,0.90032566,-0.33253664,0
5.3841624,-3.1565399,-1.0634518,0.28077209,-0.90032566,0.33253664,0
-2.6923485,3.4452541,-0.42765927,-0.28077209,0.90032566,-0.33253664,0
-3.6919949,-2.7966673,1.565989,-0.81504822,-0.40662366,-0.4127391,0
3.6130376,-2.9264259,-2.6118884,0.50681686,-0.15514775,-0.8479774,0
-4.1150289,2.4842768,-1.8282379,-0.28077209,0.90032566,-0.33253664,0
3.2607431,-3.7063212,-0.75907993,0.28077209,-0.90032566,0.33253664,0
-0.62840796,-2.8083861,4.9557753,0.28077209,-0.90032566,0.33253664,0
0.35869837,-2.3327129,5.4101877,0.28077209,-0.90032566,0.33253664,0
1.5083536,4.4299922,1.136988,0.81504822,0.40662366,0.4127391,0
-3.6054068,-3.7304201,2.3149185,-0.81504822,-0.40662366,-0.4127391,0
-0.72872186,5.5458775,3.6017103,-0.28077209,0.90032566,-0.33253664,0
0.7731781,1.713833,-5.1581993,0.50681686,-0.15514775,-0.8479774,0
-1.5385818,2.8976293,-2.8844888,-0.28077209,0.90032566,-0.33253664,0
-0.12088537,-0.14716077,5.2614183,-0.50681686,0.15514775,0.8479774,0
3.2423196,4.5124288,-2.5491838,-0.28077209,0.90032566,-0.33253664,0
-2.948976,-1.5828166,-1.0971371,-0.81504822,-0.40662366,-0.4127391,0
-6.0132537,2.9223585,0.96058273,-0.28077209,0.90032566,-0.33253664,0
-0.90498316,1.4823349,4.4946456,-0.50681686,0.15514775,0.8479774,0
0.6988616,-4.342104,-0.31734514,0.28077209,-0.90032566,0.33253664,0
3.35516,1.2388337,-3.528101,0.50681686,-0.15514775,-0.8479774,0
0.79926157,-4.5129251,-0.8646059,0.28077209,-0.90032566,0.33253664,0
2.4530234,3.8215747,-0.12907732,0.81504822,0.40662366,0.4127391,0
-0.5356757,3.6334608,4.3217969,-0.50681686,0.15514775,0.8479774,0
1.5664053,-2.1775537,4.810564,0.28077209,-0.90032566,0.33253664,0
0.28911889,-1.4612384,-4.8665929,0.50681686,-0.15514775,-0.8479774,0
2.7833223,0.49772254,-3.7342801,0.50681686,-0.15514775,-0.8479774,0
-1.4146947,1.2837181,4.2263417,-0.50681686,0.15514775,0.8479774,0
0.47115171,-1.8553634,-4.6856861,0.50681686,-0.15514775,-0.8479774,0
2.8320217,1.2411041,1.6647397,0.81504822,0.40662366,0.4127391,0
-0.55922794,0.99940014,-5.8238344,0.50681686,-0.15514775,-0.8479774,0
0.34753227,-3.7292848,1.6384702,0.28077209,-0.90032566,0.33253664,0
-4.6447115,3.6030748,1.8714795,-0.50681686,0.15514775,0.8479774,0
-5.982583,2.5669775,1.2614303,-0.50681686,0.15514775,0.8479774,0
-0.27381265,2.0099642,4.7753448,-0.50681686,0.15514775,0.8479774,0
-3.8186445,3.3917661,2.403862,-0.50681686,0.15514775,0.8479774,0
-3.1805012,-3.9405951,4.0451994,0.28077209,-0.90032566,0.33253664,0
-3.4687588,0.89813423,-2.5148976,-0.81504822,-0.40662366,-0.4127391,0
1.3422656,3.0115588,-5.0084305,-0.28077209,0.90032566,-0.33253664,0
-3.572103,4.1341443,2.4153872,-0.50681686,0.15514775,0.8479774,0
3.0505981,-1.3173757,3.7536826,0.81504822,0.40662366,0.4127391,0
3.0523634,4.2394781,-1.7243233,0.81504822,0.40662366,0.4127391,0
-1.7009115,-1.7826328,-3.364872,-0.81504822,-0.40662366,-0.4127391,0
2.8305435,-3.4780071,0.22229958,0.28077209,-0.90032566,0.33253664,0
-1.2680967,4.4993744,1.223772,-0.28077209,0.90032566,-0.33253664,0
0.35666382,4.8166442,3.0303411,0.81504822,0.40662366,0.4127391,0
-3.3197,-2.6930528,0.72872782,-0.81504822,-0.40662366,-0.4127391,0
0.56159055,-3.2579103,-4.37502,0.50681686,-0.15514775,-0.8479774,0
2.5067878,4.5709457,-0.9735142,0.81504822,0.40662366,0.4127391,0
3.5449586,-2.9229794,1.1218035,0.28077209,-0.90032566,0.33253664,0
4.435184,-2.6816571,-2.1652937,0.50681686,-0.15514775,-0.8479774,0
3.0399237,0.55905485,-3.5921364,0.50681686,-0.15514775,-0.8479774,0
-0.32014275,-3.1226947,3.8445225,0.28077209,-0.90032566,0.33253664,0
3.8606911,2.348048,-1.4571459,0.81504822,0.40662366,0.4127391,0
-3.1730959,3.561748,2.7585921,-0.50681686,0.15514775,0.8479774,0
-4.3526583,2.1123736,-1.9656824,-0.81504822,-0.40662366,-0.4127391,0
-1.0822634,0.80493903,4.5126266,-0.50681686,0.15514775,0.8479774,0
5.7049932,-3.0864778,-1.1446505,0.28077209,-0.90032566,0.33253664,0
3.9581196,3.8217385,-3.1013958,0.81504822,0.40662366,0.4127391,0
4.6879053,-2.7714295,0.5670867,0.28077209,-0.90032566,0.33253664,0
2.2391953,-4.4797974,-1.9907002,0.28077209,-0.90032566,0.33253664,0
-2.1699116,-3.6598144,-0.58935601,-0.81504822,-0.40662366,-0.4127391,0
-1.1210313,-0.2669735,-5.9279127,0.50681686,-0.15514775,-0.8479774,0
4.691967,-1.911231,1.0974793,0.81504822,0.40662366,0.4127391,0
-1.5196331,-4.4897757,-1.0558169,-0.81504822,-0.40662366,-0.4127391,0
3.4905136,0.21798253,1.3723587,0.81504822,0.40662366,0.4127391,0
-1.1068997,-0.31106853,-5.9113998,0.50681686,-0.15514775,-0.8479774,0
4.8118248,0.10650349,-2.4503117,0.50681686,-0.15514775,-0.8479774,0
4.9553747,-0.79363585,-0.5237174,0.81504822,0.40662366,0.4127391,0
3.6012752,-3.320992,-0.0033464432,0.28077209,-0.90032566,0.33253664,0
0.46681517,4.3568769,3.2657771,0.81504822,0.40662366,0.4127391,0
-3.6490912,1.5398475,2.8440313,-0.50681686,0.15514775,0.8479774,0
0.59757888,-4.0120964,-4.2155237,0.50681686,-0.15514775,-0.8479774,0
0.42434776,4.7457352,2.9665425,0.81504822,0.40662366,0.4127391,0
1.0974103,-2.0936663,-4.2677851,0.50681686,-0.15514775,-0.8479774,0
3.0488734,-1.0579274,-3.2909408,0.50681686,-0.15514775,-0.8479774,0
0.024850607,4.72825,0.75175953,-0.28077209,0.90032566,-0.33253664,0
2.6134219,4.3857975,-2.3610322,-0.28077209,0.90032566,-0.33253664,0
-3.7697287,-4.3993092,3.3007586,0.28077209,-0.90032566,0.33253664,0
-0.28885555,-5.3293204,-2.1562183,0.28077209,-0.90032566,0.33253664,0
-3.0323644,0.70037222,-3.1818271,-0.81504822,-0.40662366,-0.4127391,0
0.18983889,-3.3328838,2.8448513,0.28077209,-0.90032566,0.33253664,0
-3.2247386,-0.19261384,-1.9221853,-0.81504822,-0.40662366,-0.4127391,0
-4.1030531,1.2463374,-1.6053818,-0.81504822,-0.40662366,-0.4127391,0
1.5343797,3.8182416,-2.9865882,-0.28077209,0.90032566,-0.33253664,0
-1.9616024,-4.0853205,2.6242051,0.28077209,-0.90032566,0.33253664,0
-2.6134071,-3.7564483,4.06495,0.28077209,-0.90032566,0.33253664,0
5.4874349,-1.0132015,-1.3580794,0.81504822,0.40662366,0.4127391,0
5.5899744,-1.3401558,-1.2384572,0.81504822,0.40662366,0.4127391,0
1.6024756,-1.5163422,6.5419402,-0.50681686,0.15514775,0.8479774,0
-0.6900062,1.9765966,4.532701,-0.50681686,0.15514775,0.8479774,0
-2.8915198,-1.6140758,3.8738637,-0.50681686,0.15514775,0.8479774,0
0.86534357,0.53329897,5.726367,-0.50681686,0.15514775,0.8479774,0
4.510798,0.34482503,-0.7673893,0.81504822,0.40662366,0.4127391,0
-2.465138,2.2353554,3.4244022,-0.50681686,0.15514775,0.8479774,0
4.2126493,-1.9514998,-2.4318886,0.50681686,-0.15514775,-0.8479774,0
0.19767761,2.6044312,-5.1442914,-0.28077209,0.90032566,-0.33253664,0
-5.0204067,1.5689666,-0.11170483,-0.81504822,-0.40662366,-0.4127391,0
-2.0079405,-2.1798913,4.5054817,-0.50681686,0.15514775,0.8479774,0
-2.7492073,0.22198674,3.6229911,-0.50681686,0.15514775,0.8479774,0
3.7140915,-4.0148959,-1.9773083,0.28077209,-0.90032566,0.33253664,0
2.0150278,0.45066857,4.0568061,0.81504822,0.40662366,0.4127391,0
0.28019881,-4.0772305,0.75327742,0.28077209,-0.90032566,0.33253664,0
5.1945782,-3.1397579,-0.85794592,0.28077209,-0.90032566,0.33253664,0
1.163383,4.2895279,-1.3973583,-0.28077209,0.90032566,-0.33253664,0
4.4026208,1.1741444,-1.370801,0.81504822,0.40662366,0.4127391,0
1.6568396,1.6568232,3.5758471,0.81504822,0.40662366,0.4127391,0
-4.6531906,-1.1369516,1.8289671,-0.81504822,-0.40662366,-0.4127391,0
0.94027197,-2.25389,-4.3323879,0.50681686,-0.15514775,-0.8479774,0
-0.6845355,-0.31911254,4.9559979,-0.50681686,0.15514775,0.8479774,0
-4.1102657,2.9312544,-0.62208962,-0.28077209,0.90032566,-0.33253664,0
-3.1917906,0.82835841,-2.9930928,-0.81504822,-0.40662366,-0.4127391,0
4.0446477,2.6978357,-3.3829517,0.50681686,-0.15514775,-0.8479774,0
1.6392598,3.8776596,-2.9142709,-0.28077209,0.90032566,-0.33253664,0
-0.618505,3.477433,-2.0915542,-0.28077209,0.90032566,-0.33253664,0
-0.49576092,0.52826285,-5.6997013,0.50681686,-0.15514775,-0.8479774,0
3.6780682,-2.7546597,1.4651315,0.28077209,-0.90032566,0.33253664,0
-1.0811338,5.179522,2.9073758,-0.28077209,0.90032566,-0.33253664,0
3.141237,-4.1060843,-2.67804,0.50681686,-0.15514775,-0.8479774,0
3.4080138,1.0024924,-3.45327,0.50681686,-0.15514775,-0.8479774,0
4.2829928,1.4739331,-3.0165701,0.50681686,-0.15514775,-0.8479774,0
0.58036852,3.5841782,-2.8147979,-0.28077209,0.90032566,-0.33253664,0
2.3491092,3.5457811,0.34783342,0.81504822,0.40662366,0.4127391,0
1.8398795,1.7955277,3.0777442,0.81504822,0.40662366,0.4127391,0
-0.73433161,-4.3879337,-2.7069073,-0.81504822,-0.40662366,-0.4127391,0
-1.473658,0.29011774,4.3728919,-0.50681686,0.15514775,0.8479774,0
2.6204038,1.6087861,1.7203944,0.81504822,0.40662366,0.4127391,0
0.35383892,1.3400068,-5.3404341,0.50681686,-0.15514775,-0.8479774,0
-3.0458491,3.2180948,-0.74421,-0.28077209,0.90032566,-0.33253664,0
4.0542421,3.9190462,-3.3870773,0.81504822,0.40662366,0.4127391,0
-1.8004632,2.8196931,-2.8743818,-0.28077209,0.90032566,-0.33253664,0
-4.7303743,2.8587079,1.956471,-0.50681686,0.15514775,0.8479774,0
1.5836973,-0.68916035,6.0315061,0.81504822,0.40662366,0.4127391,0
3.5982084,-0.40730834,1.7757167,0.81504822,0.40662366,0.4127391,0
0.21812534,-4.7387419,-0.98531938,0.28077209,-0.90032566,0.33253664,0
-5.1449804,1.2025495,2.0116858,-0.50681686,0.15514775,0.8479774,0
1.0943844,-4.0084734,0.25198936,0.28077209,-0.90032566,0.33253664,0
2.1332293,-2.9774933,2.1661816,0.28077209,-0.90032566,0.33253664,0
4.9789858,-2.0112071,0.62918806,0.81504822,0.40662366,0.4127391,0
4.3629031,-2.7021954,1.0289438,0.28077209,-0.90032566,0.33253664,0
3.3243396,-4.2656446,-2.3271174,0.28077209,-0.90032566,0.33253664,0
3.4946437,4.4769258,-2.8316367,0.81504822,0.40662366,0.4127391,0
1.1860666,0.18613338,5.9543962,0.81504822,0.40662366,0.4127391,0
-2.8218579,-4.6757565,1.7519736,0.28077209,-0.90032566,0.33253664,0
2.9825544,-4.0342574,-2.7860222,0.50681686,-0.15514775,-0.8479774,0
-0.43908215,1.2778251,-5.8029671,0.50681686,-0.15514775,-0.8479774,0
3.1403117,-1.5439708,-3.1473622,0.50681686,-0.15514775,-0.8479774,0
-3.2351937,-2.9282506,0.79356384,-0.81504822,-0.40662366,-0.4127391,0
-2.9521923,0.024564773,3.5377917,-0.50681686,0.15514775,0.8479774,0
-2.4484243,-3.4576275,4.4759922,-0.50681686,0.15514775,0.8479774,0
4.0356102,1.3350996,-0.80462408,0.81504822,0.40662366,0.4127391,0
1.2572403,3.7645679,-2.897907,-0.28077209,0.90032566,-0.33253664,0
-4.1340804,-3.7869525,3.4146004,-0.81504822,-0.40662366,-0.4127391,0
-1.1369491,-2.94382,5.0184746,0.28077209,-0.90032566,0.33253664,0
-0.055545688,-2.2764838,-4.9234324,0.50681686,-0.15514775,-0.8479774,0
5.8797855,-2.2726407,-1.3767219,0.50681686,-0.15514775,-0.8479774,0
-4.42103,1.2017272,-0.93351364,-0.81504822,-0.40662366,-0.4127391,0
3.4165447,-2.875618,-2.7386231,0.50681686,-0.15514775,-0.8479774,0
1.7043781,-1.5803666,6.3109212,0.28077209,-0.90032566,0.33253664,0
-5.0503426,-0.47040582,1.9565659,-0.81504822,-0.40662366,-0.4127391,0
-2.4956493,3.1089215,3.246336,-0.50681686,0.15514775,0.8479774,0
-4.7591715,2.6111779,-0.94078684,-0.28077209,0.90032566,-0.33253664,0
-2.3760133,-2.1124389,4.2731514,-0.50681686,0.15514775,0.8479774,0
4.7066412,-1.1812069,-2.2775755,0.50681686,-0.15514775,-0.8479774,0
-1.0191603,4.4040036,0.75537443,-0.28077209,0.90032566,-0.33253664,0
-3.3864074,-1.1588123,-0.65105093,-0.81504822,-0.40662366,-0.4127391,0
0.61426592,-1.2777793,-4.7058258,0.50681686,-0.15514775,-0.8479774,0
-2.5347941,-3.8960423,0.36391628,-0.81504822,-0.40662366,-0.4127391,0
-4.3796792,2.4580367,-1.6758261,-0.28077209,0.90032566,-0.33253664,0
-0.52241153,-3.4462984,-4.0530758,-0.81504822,-0.40662366,-0.4127391,0
2.7359707,2.3745203,-4.1059642,0.50681686,-0.15514775,-0.8479774,0
4.7753267,-1.3488665,0.37883282,0.81504822,0.40662366,0.4127391,0
5.3128586,-0.84943438,-1.1746798,0.81504822,0.40662366,0.4127391,0
-3.083277,3.6476486,0.450387,-0.28077209,0.90032566,-0.33253664,0
0.74822712,3.055999,-4.3865442,-0.28077209,0.90032566,-0.33253664,0
-0.33465624,4.2948222,-0.1181792,-0.28077209,0.90032566,-0.33253664,0
4.0027609,3.2615666,-3.5111279,0.50681686,-0.15514775,-0.8479774,0
-4.3398643,-1.4962654,2.9866657,-0.50681686,0.15514775,0.8479774,0
-3.3434396,3.8966565,1.3442273,-0.28077209,0.90032566,-0.33253664,0
-1.4939659,3.7215769,-0.69136512,-0.28077209,0.90032566,-0.33253664,0
1.4692048,2.6674495,2.9507236,0.81504822,0.40662366,0.4127391,0
-2.8236625,-2.5271227,-0.41428322,-0.81504822,-0.40662366,-0.4127391,0
3.7856927,-1.4997751,-2.7697196,0.50681686,-0.15514775,-0.8479774,0
-0.50537491,-0.85931373,-5.4515734,0.50681686,-0.15514775,-0.8479774,0
1.0877516,4.4259534,-0.964136,-0.28077209,0.90032566,-0.33253664,0
-3.2609866,3.3449497,-0.21910858,-0.28077209,0.90032566,-0.33253664,0
-2.364177,-4.0627589,3.0251961,0.28077209,-0.90032566,0.33253664,0
-2.2432444,-3.2232909,-0.87459922,-0.81504822,-0.40662366,-0.4127391,0
4.2933035,2.4656463,-2.4272952,0.81504822,0.40662366,0.4127391,0
-3.3361905,-0.80635476,-1.0974504,-0.81504822,-0.40662366,-0.4127391,0
-4.4944496,-2.0406103,2.4057655,-0.81504822,-0.40662366,-0.4127391,0
-4.0373468,0.88494539,-1.3790977,-0.81504822,-0.40662366,-0.4127391,0
4.8341742,-2.2740278,1.1740789,0.81504822,0.40662366,0.4127391,0
-2.420114,-2.0588255,4.2369843,-0.50681686,0.15514775,0.8479774,0
0.31683612,-1.2644553,-4.8860307,0.50681686,-0.15514775,-0.8479774,0
1.4196892,1.5772276,-4.7468014,0.50681686,-0.15514775,-0.8479774,0
-2.2368848,-1.4908299,-2.5939484,-0.81504822,-0.40662366,-0.4127391,0
5.3049846,-2.0141373,-1.7675643,0.50681686,-0.15514775,-0.8479774,0
3.8948543,-2.6744285,1.4993129,0.28077209,-0.90032566,0.33253664,0
0.029519081,0.096217871,-5.3067055,0.50681686,-0.15514775,-0.8479774,0
1.3158221,2.9076829,-5.0523033,0.50681686,-0.15514775,-0.8479774,0
-3.6843486,-1.1002982,-0.1203444,-0.81504822,-0.40662366,-0.4127391,0
2.2658319,1.2998219,2.7249637,0.81504822,0.40662366,0.4127391,0
-1.1174338,-4.8129439,-0.058559299,0.28077209,-0.90032566,0.33253664,0
0.2637189,4.1052375,3.9147477,0.81504822,0.40662366,0.4127391,0
-0.058991194,-5.0864115,-3.3523936,-0.81504822,-0.40662366,-0.4127391,0
1.5313056,-0.012457371,-4.3892384,0.50681686,-0.15514775,-0.8479774,0
-1.4627064,-0.24641728,4.477603,-0.50681686,0.15514775,0.8479774,0
-0.94009376,3.8176861,-0.8988083,-0.28077209,0.90032566,-0.33253664,0
-1.3153381,4.6205263,1.5916708,-0.28077209,0.90032566,-0.33253664,0
-1.5106196,-3.7672892,3.1044776,0.28077209,-0.90032566,0.33253664,0
-2.9002118,1.3469048,-4.0797467,-0.81504822,-0.40662366,-0.4127391,0
2.0711236,-1.8480842,5.2764339,0.28077209,-0.90032566,0.33253664,0
0.41040802,-0.23561358,-5.0183449,0.50681686,-0.15514775,-0.8479774,0
0.33410597,-2.2625992,5.62078,0.28077209,-0.90032566,0.33253664,0
-5.6690474,3.0481441,1.3607879,-0.50681686,0.15514775,0.8479774,0
-2.2980587,-0.23111844,-3.7141938,-0.81504822,-0.40662366,-0.4127391,0
0.73245215,-4.9932923,-3.9553909,0.50681686,-0.15514775,-0.8479774,0
-1.23128,-0.10206771,4.5895109,-0.50681686,0.15514775,0.8479774,0
-3.0182049,-3.1359935,0.56973481,-0.81504822,-0.40662366,-0.4127391,0
3.8124757,-0.083645344,1.0337287,0.81504822,0.40662366,0.4127391,0
-3.611572,1.5618627,-2.886775,-0.81504822,-0.40662366,-0.4127391,0
1.9962647,3.9920499,0.60494864,0.81504822,0.40662366,0.4127391,0
-3.6076226,-3.5762901,2.1674483,-0.81504822,-0.40662366,-0.4127391,0
3.6586435,4.0403485,-2.7253833,0.81504822,0.40662366,0.4127391,0
3.7211509,2.6869206,-3.5743017,0.50681686,-0.15514775,-0.8479774,0
-0.14504671,3.7674468,-1.7061148,-0.28077209,0.90032566,-0.33253664,0
1.344851,4.2288933,-1.7147429,-0.28077209,0.90032566,-0.33253664,0
-0.67507982,-2.6820583,5.3372073,0.28077209,-0.90032566,0.33253664,0
-4.7938199,1.2909548,-0.2852602,-0.81504822,-0.40662366,-0.4127391,0
0.013708591,-4.3327885,0.28637469,0.28077209,-0.90032566,0.33253664,0
1.2267144,2.0684419,-4.9520116,0.50681686,-0.15514775,-0.8479774,0
2.6787014,-0.33341026,3.5186913,0.81504822,0.40662366,0.4127391,0
-2.9636335,2.0235815,3.1652083,-0.50681686,0.15514775,0.8479774,0
-3.126914,-1.8841363,-0.44890296,-0.81504822,-0.40662366,-0.4127391,0
-2.093822,-4.1745701,2.4942033,0.28077209,-0.90032566,0.33253664,0
5.431869,-2.6081924,0.32300377,0.81504822,0.40662366,0.4127391,0
2.0686874,-3.5758684,0.60060596,0.28077209,-0.90032566,0.33253664,0
-3.3005576,-2.3348546,3.7612662,-0.50681686,0.15514775,0.8479774,0
0.81703424,1.6958764,5.1957612,0.81504822,0.40662366,0.4127391,0
2.9776025,-1.7024982,4.2772446,0.81504822,0.40662366,0.4127391,0
2.0551028,-0.12600994,4.5458035,0.81504822,0.40662366,0.4127391,0
-3.8284869,3.7967343,2.3238854,-0.50681686,0.15514775,0.8479774,0
-3.8025887,-2.6248477,3.5142703,-0.50681686,0.15514775,0.8479774,0
2.8175766,1.9106678,1.0336224,0.81504822,0.40662366,0.4127391,0
1.7223532,4.3264589,-1.7693274,-0.28077209,0.90032566,-0.33253664,0
4.4953156,-3.7506902,-1.9337606,0.50681686,-0.15514775,-0.8479774,0
-0.84182954,4.6225872,1.1974523,-0.28077209,0.90032566,-0.33253664,0
-1.7321784,-1.97373,4.6325779,-0.50681686,0.15514775,0.8479774,0
1.0372968,3.1992409,-4.242795,-0.28077209,0.90032566,-0.33253664,0
0.83816242,-0.23061085,5.8498888,-0.50681686,0.15514775,0.8479774,0
-4.0196075,-1.0436184,3.0952582,-0.50681686,0.15514775,0.8479774,0
-3.128592,-4.3231106,2.9657302,0.28077209,-0.90032566,0.33253664,0
3.003046,-1.5609524,4.0875511,0.81504822,0.40662366,0.4127391,0
-0.084259748,1.7747438,4.931674,-0.50681686,0.15514775,0.8479774,0
4.2571507,-0.016258955,0.089229345,0.81504822,0.40662366,0.4127391,0
3.8038297,-0.67521924,-2.9097424,0.50681686,-0.15514775,-0.8479774,0
-0.14994478,-4.1380763,0.9517262,0.28077209,-0.90032566,0.33253664,0
1.1707401,4.3075247,-1.3548466,-0.28077209,0.90032566,-0.33253664,0
-2.5057693,4.1020231,1.1929731,-0.28077209,0.90032566,-0.33253664,0
2.8446078,-0.17503285,3.0350404,0.81504822,0.40662366,0.4127391,0
-1.1036549,2.6114564,-4.0265121,-0.28077209,0.90032566,-0.33253664,0
0.42883968,3.1576648,-3.8416195,-0.28077209,0.90032566,-0.33253664,0
-0.30690688,-4.5497684,-3.3915191,-0.81504822,-0.40662366,-0.4127391,0
1.4341732,4.3628221,1.3496497,0.81504822,0.40662366,0.4127391,0
-2.0565653,2.3151324,-4.0242209,-0.28077209,0.90032566,-0.33253664,0
-3.5102682,-3.0776763,3.7718349,-0.50681686,0.15514775,0.8479774,0
2.3808303,-2.728457,2.6313772,0.28077209,-0.90032566,0.33253664,0
0.37453079,-0.086210966,-5.0671225,0.50681686,-0.15514775,-0.8479774,0
0.17554092,-1.7511821,5.7320614,-0.50681686,0.15514775,0.8479774,0
-4.6937375,-1.9020972,2.8494158,-0.50681686,0.15514775,0.8479774,0
-1.8498859,3.9849269,0.32215667,-0.28077209,0.90032566,-0.33253664,0
3.132915,2.9880142,-3.9809661,0.50681686,-0.15514775,-0.8479774,0
2.3889058,-4.597713,-2.4363556,0.28077209,-0.90032566,0.33253664,0
-0.57970178,-4.3735709,-3.0264096,-0.81504822,-0.40662366,-0.4127391,0
4.3389268,3.0824842,-3.1250873,0.81504822,0.40662366,0.4127391,0
1.6679509,0.0054011345,5.1808586,0.81504822,0.40662366,0.4127391,0
0.19706535,0.77751875,5.282269,-0.50681686,0.15514775,0.8479774,0
4.1034551,-2.3617051,2.1698651,0.28077209,-0.90032566,0.33253664,0
-0.040827513,-4.6440587,-0.51032686,0.28077209,-0.90032566,0.33253664,0
-0.98340321,-1.3568604,-5.2012205,-0.81504822,-0.40662366,-0.4127391,0
-1.8510461,3.2632687,-1.6307154,-0.28077209,0.90032566,-0.33253664,0
-4.3432217,1.8342991,-1.710363,-0.81504822,-0.40662366,-0.4127391,0
-0.42237258,0.07473731,5.040628,-0.50681686,0.15514775,0.8479774,0
3.4223344,-3.9461808,-1.5449262,0.28077209,-0.90032566,0.33253664,0
-0.33698606,-0.6543529,5.2250571,-0.50681686,0.15514775,0.8479774,0
4.7436914,1.412879,-2.2795205,0.81504822,0.40662366,0.4127391,0
2.1699686,-4.1788316,-3.2452354,0.50681686,-0.15514775,-0.8479774,0
-4.8167343,2.5402908,-1.0841079,-0.28077209,0.90032566,-0.33253664,0
-1.6999242,-1.5341476,4.5714293,-0.50681686,0.15514775,0.8479774,0
-3.83814,-3.1762223,3.593904,-0.50681686,0.15514775,0.8479774,0
-1.5516448,-2.5192683,4.840292,-0.50681686,0.15514775,0.8479774,0
-2.7255316,3.211832,-1.0316205,-0.28077209,0.90032566,-0.33253664,0
1.1928182,-4.3084693,-0.64334536,0.28077209,-0.90032566,0.33253664,0
-3.4874692,-2.2953842,0.66825008,-0.81504822,-0.40662366,-0.4127391,0
3.6447814,-1.1007719,2.3669355,0.81504822,0.40662366,0.4127391,0
-5.7382083,2.3852067,0.50161362,-0.81504822,-0.40662366,-0.4127391,0
1.6681809,-2.1430659,4.8180051,0.28077209,-0.90032566,0.33253664,0
-4.5328236,-0.008130312,0.47917843,-0.81504822,-0.40662366,-0.4127391,0
3.4477472,-2.0623064,3.5341086,0.28077209,-0.90032566,0.33253664,0
