5.8476372,2.4026842,-2.9796302,0.07049036,0.85400838,-0.51546162,0
-2.0817232,-1.6314483,4.7723966,-0.07049036,-0.85400838,0.51546162,0
-0.50677538,-1.1151456,5.8431764,-0.07049036,-0.85400838,0.51546162,0
1.3316257,0.56529516,-5.9638748,0.59740442,-0.44996858,-0.66380435,0
2.8229222,-2.6409671,3.7705629,-0.07049036,-0.85400838,0.51546162,0
-0.25283647,1.1568432,5.7673788,-0.59740442,0.44996858,0.66380435,0
-5.3514175,4.2879319,-0.94364429,-0.59740442,0.44996858,0.66380435,0
-0.91319346,-2.427103,3.6139684,-0.07049036,-0.85400838,0.51546162,0
3.7776606,-1.537663,2.5536215,0.79883605,0.26114732,0.54190683,0
-3.8810043,3.4474442,-2.5790987,0.07049036,0.85400838,-0.51546162,0
-1.6735475,-0.76763171,5.7933116,-0.59740442,0.44996858,0.66380435,0
1.389209,0.13516867,-5.6204844,0.59740442,-0.44996858,-0.66380435,0
0.14434147,-5.7668238,-1.7746056,-0.07049036,-0.85400838,0.51546162,0
4.3038831,-4.153523,1.4671086,-0.07049036,-0.85400838,0.51546162,0
-0.86820304,-2.8825326,-4.7124014,-0.79883605,-0.26114732,-0.54190683,0
1.3479102,0.54603946,5.1312213,0.79883605,0.26114732,0.54190683,0
-2.3011441,4.574542,-0.49569273,0.07049036,0.85400838,-0.51546162,0
0.33730221,-3.6823301,1.7053356,-0.07049036,-0.85400838,0.51546162,0
0.73456538,-4.2005858,-3.2705958,0.59740442,-0.44996858,-0.66380435,0
0.065363884,1.9803724,-4.470046,0.07049036,0.85400838,-0.51546162,0
3.0802431,-3.8561432,1.792468,-0.07049036,-0.85400838,0.51546162,0
-2.2835248,-0.64328504,-3.7051497,-0.79883605,-0.26114732,-0.54190683,0
-3.647768,-2.9215684,-0.59617591,-0.79883605,-0.26114732,-0.54190683,0
-2.0985777,-4.3255396,0.30656624,-0.07049036,-0.85400838,0.51546162,0
-0.93986821,-0.97492504,6.0162644,-0.07049036,-0.85400838,0.51546162,0
1.3627279,5.0343781,0.76719654,0.07049036,0.85400838,-0.51546162,0
-5.4041862,-1.0307856,2.614228,-0.59740442,0.44996858,0.66380435,0
3.3444021,-4.0805759,-1.0031693,0.59740442,-0.44996858,-0.66380435,0
1.414,2.9963477,-2.6023669,0.07049036,0.85400838,-0.51546162,0
-0.069264412,-2.5776768,3.4799089,-0.07049036,-0.85400838,0.51546162,0
2.2951248,-1.9297071,-3.4054835,0.59740442,-0.44996858,-0.66380435,0
1.867152,5.5926294,1.7610793,0.07049036,0.85400838,-0.51546162,0
-3.8393035,-2.5381658,-0.4985925,-0.79883605,-0.26114732,-0.54190683,0
-4.6719551,-0.86288118,-0.078490257,-0.79883605,-0.26114732,-0.54190683,0
-2.4688764,1.4407935,3.5805285,-0.59740442,0.44996858,0.66380435,0
3.6814599,-0.30140758,2.0996757,0.79883605,0.26114732,0.54190683,0
1.1366138,-4.5695152,0.34477019,-0.07049036,-0.85400838,0.51546162,0
0.055993557,-5.8432503,-1.9133099,-0.07049036,-0.85400838,0.51546162,0
-1.7730939,3.639729,2.7161345,-0.59740442,0.44996858,0.66380435,0
1.806334,-4.0666633,1.2694725,-0.07049036,-0.85400838,0.51546162,0
-4.3161345,1.7580709,-1.866061,-0.79883605,-0.26114732,-0.54190683,0
2.2325127,4.9513588,1.7042675,0.79883605,0.26114732,0.54190683,0
-3.035975,0.728163,-3.2568536,-0.79883605,-0.26114732,-0.54190683,0
4.9421415,-3.6735249,1.866317,0.79883605,0.26114732,0.54190683,0
2.1884582,4.3849998,2.0421405,0.79883605,0.26114732,0.54190683,0
4.0759554,2.0002289,0.40897298,0.79883605,0.26114732,0.54190683,0
-3.9661446,4.0441904,-1.6020634,0.07049036,0.85400838,-0.51546162,0
5.9445229,2.008637,-2.3495722,0.79883605,0.26114732,0.54190683,0
-3.8404326,0.52506113,2.9669092,-0.59740442,0.44996858,0.66380435,0
-1.4680262,5.5632086,1.2562432,0.07049036,0.85400838,-0.51546162,0
4.9842663,1.8477149,-0.85649014,0.79883605,0.26114732,0.54190683,0
-1.7482369,-0.12222123,-4.7453313,-0.79883605,-0.26114732,-0.54190683,0
-3.2980006,-4.4071856,0.0072743893,-0.07049036,-0.85400838,0.51546162,0
-2.9797382,-0.64886093,-2.6761601,-0.79883605,-0.26114732,-0.54190683,0
2.547152,0.9518404,3.1678369,0.79883605,0.26114732,0.54190683,0
-3.2154303,4.5321875,-0.69089603,0.07049036,0.85400838,-0.51546162,0
-0.33119428,-2.1843815,-5.5964599,0.59740442,-0.44996858,-0.66380435,0
-1.1442772,-3.9861722,-3.7735858,-0.79883605,-0.26114732,-0.54190683,0
-3.8874912,3.6052575,-2.3185234,0.07049036,0.85400838,-0.51546162,0
4.0386314,3.4704709,-0.24452281,0.79883605,0.26114732,0.54190683,0
-3.6027362,0.31939721,-2.2243934,-0.79883605,-0.26114732,-0.54190683,0
-0.60839087,3.5874307,3.7997844,-0.59740442,0.44996858,0.66380435,0
-0.28611302,5.4347248,2.8376124,-0.59740442,0.44996858,0.66380435,0
-0.030771255,-4.7036304,-0.037071493,-0.07049036,-0.85400838,0.51546162,0
-0.8385489,-1.5990721,4.9960442,-0.07049036,-0.85400838,0.51546162,0
-1.3379967,-4.538588,-3.2218084,-0.79883605,-0.26114732,-0.54190683,0
2.8366294,-0.2115351,-4.0828304,0.59740442,-0.44996858,-0.66380435,0
4.834424,-0.39055014,0.44302678,0.79883605,0.26114732,0.54190683,0
0.98535895,-4.9302254,-2.5502932,0.59740442,-0.44996858,-0.66380435,0
4.0324388,0.31543803,1.2850304,0.79883605,0.26114732,0.54190683,0
2.3368392,4.2882414,1.8700371,0.79883605,0.26114732,0.54190683,0
5.0572662,-4.2000709,1.4930159,-0.07049036,-0.85400838,0.51546162,0
-0.7801733,1.1502284,-5.9610443,0.07049036,0.85400838,-0.51546162,0
0.56770754,-3.0772643,2.7393079,-0.07049036,-0.85400838,0.51546162,0
2.5117979,-4.1694694,1.1956179,-0.07049036,-0.85400838,0.51546162,0
-0.41823733,-2.121469,-5.7174416,0.59740442,-0.44996858,-0.66380435,0
4.3785243,-2.8719614,2.3108792,0.79883605,0.26114732,0.54190683,0
1.7831453,2.1912446,3.6968007,0.79883605,0.26114732,0.54190683,0
-3.0938663,-3.6549015,1.2815604,-0.07049036,-0.85400838,0.51546162,0
2.3159528,-4.7111316,0.27141869,-0.07049036,-0.85400838,0.51546162,0
0.99535751,2.3302534,-3.7631907,0.07049036,0.85400838,-0.51546162,0
0.849226,-4.8616042,-2.7193244,0.59740442,-0.44996858,-0.66380435,0
4.5276446,3.1922133,-0.83129406,0.79883605,0.26114732,0.54190683,0
-4.4055214,4.4362388,-1.0126098,0.07049036,0.85400838,-0.51546162,0
-3.9061184,-0.29872894,-1.4792938,-0.79883605,-0.26114732,-0.54190683,0
-1.4324279,5.7418752,1.5571237,0.07049036,0.85400838,-0.51546162,0
0.95174885,6.0386953,2.3749306,0.07049036,0.85400838,-0.51546162,0
3.5753844,-1.0991981,2.6405025,0.79883605,0.26114732,0.54190683,0
1.5588727,4.1879215,-0.60837442,0.07049036,0.85400838,-0.51546162,0
5.3158484,2.9956665,-1.8984849,0.79883605,0.26114732,0.54190683,0
2.7148085,0.58059168,3.0995972,0.79883605,0.26114732,0.54190683,0
1.9035988,-5.0321789,-1.6547935,0.59740442,-0.44996858,-0.66380435,0
-2.9600153,0.38764524,-3.2047305,-0.79883605,-0.26114732,-0.54190683,0
-2.1243441,0.13342857,4.7768121,-0.59740442,0.44996858,0.66380435,0
-0.15354919,-5.3258586,-3.3070915,0.59740442,-0.44996858,-0.66380435,0
-3.4550705,3.5688167,-2.3197639,0.07049036,0.85400838,-0.51546162,0
-1.4046805,3.2847643,3.2883136,-0.59740442,0.44996858,0.66380435,0
-3.1113982,-3.7859986,-0.97027647,-0.79883605,-0.26114732,-0.54190683,0
-1.3557746,0.2666986,-5.5112906,-0.79883605,-0.26114732,-0.54190683,0
-1.3118687,1.1985526,-5.953691,0.07049036,0.85400838,-0.51546162,0
1.740854,5.6810651,2.077383,0.79883605,0.26114732,0.54190683,0
-1.0661469,3.936918,3.1509128,-0.59740442,0.44996858,0.66380435,0
-0.75784898,-5.1601543,-3.7774804,-0.79883605,-0.26114732,-0.54190683,0
-1.1789742,-1.8162944,4.5895996,-0.07049036,-0.85400838,0.51546162,0
-4.1177797,0.42553496,-1.5163056,-0.79883605,-0.26114732,-0.54190683,0
1.4355729,0.28243911,5.1290255,0.79883605,0.26114732,0.54190683,0
-0.56170845,-5.4197049,-1.2960595,-0.07049036,-0.85400838,0.51546162,0
2.6581349,1.5201716,-4.8779325,0.07049036,0.85400838,-0.51546162,0
5.1529627,1.8014021,-1.0828502,0.79883605,0.26114732,0.54190683,0
1.7938528,2.0111978,-4.182601,0.07049036,0.85400838,-0.51546162,0
0.45711756,-5.3287635,-2.7555406,0.59740442,-0.44996858,-0.66380435,0
2.3364925,-2.6925235,3.6186242,-0.07049036,-0.85400838,0.51546162,0
-0.39007115,-4.6632476,-0.01930213,-0.07049036,-0.85400838,0.51546162,0
-3.895865,4.5195556,-0.80487442,0.07049036,0.85400838,-0.51546162,0
-2.3406672,-3.2577837,-2.360976,-0.79883605,-0.26114732,-0.54190683,0
0.65620279,-5.3972626,-1.0923258,-0.07049036,-0.85400838,0.51546162,0
4.264864,-0.85745502,1.5076301,0.79883605,0.26114732,0.54190683,0
-0.040691853,4.877738,0.31575799,0.07049036,0.85400838,-0.51546162,0
5.8419447,1.3481731,-2.4354036,0.59740442,-0.44996858,-0.66380435,0
2.7087317,3.7670615,-1.1484032,0.07049036,0.85400838,-0.51546162,0
4.1029201,-1.0287685,1.8289111,0.79883605,0.26114732,0.54190683,0
-1.5286614,-1.4949011,-4.4075117,-0.79883605,-0.26114732,-0.54190683,0
-3.4262776,-3.2081304,-0.78458393,-0.79883605,-0.26114732,-0.54190683,0
2.1796048,3.4870203,2.4879313,0.79883605,0.26114732,0.54190683,0
3.5513213,0.47484231,1.9174379,0.79883605,0.26114732,0.54190683,0
1.8809193,2.0560882,3.6178024,0.79883605,0.26114732,0.54190683,0
-1.3220544,-4.3607407,0.35443664,-0.07049036,-0.85400838,0.51546162,0
0.14025211,-0.68389463,-6.1892958,0.59740442,-0.44996858,-0.66380435,0
1.1048701,-0.12335157,-5.7011395,0.59740442,-0.44996858,-0.66380435,0
-0.56816459,-1.3351709,-5.9003739,-0.79883605,-0.26114732,-0.54190683,0
-0.48238945,4.4860845,-0.39352965,0.07049036,0.85400838,-0.51546162,0
0.48412824,0.17350754,-6.4610195,0.59740442,-0.44996858,-0.66380435,0
5.7568669,2.1200356,-3.0351884,0.59740442,-0.44996858,-0.66380435,0
-1.5005322,-0.76234984,-4.8019972,-0.79883605,-0.26114732,-0.54190683,0
-1.0799003,2.7620602,3.9349282,-0.59740442,0.44996858,0.66380435,0
4.6488757,3.3680639,-1.5441384,0.07049036,0.85400838,-0.51546162,0
2.6165767,-2.5598526,-2.6890335,0.59740442,-0.44996858,-0.66380435,0
-1.5940651,2.5848479,3.5923209,-0.59740442,0.44996858,0.66380435,0
-4.6257615,2.7029037,-1.8649527,-0.79883605,-0.26114732,-0.54190683,0
3.6611919,-4.6125755,0.61866915,-0.07049036,-0.85400838,0.51546162,0
2.2508559,-0.46190464,4.285903,0.79883605,0.26114732,0.54190683,0
-3.5196266,-3.2867258,1.8333254,-0.07049036,-0.85400838,0.51546162,0
0.48517561,4.8292809,0.30738881,0.07049036,0.85400838,-0.51546162,0
-0.5654645,-5.0665655,-3.8535686,0.59740442,-0.44996858,-0.66380435,0
-2.8280573,1.4384338,3.2588758,-0.59740442,0.44996858,0.66380435,0
1.8431873,-2.9833837,3.0692718,-0.07049036,-0.85400838,0.51546162,0
5.5701408,-2.5770309,0.41216516,0.79883605,0.26114732,0.54190683,0
2.9191561,0.66674232,-4.6039114,0.59740442,-0.44996858,-0.66380435,0
3.5226858,-1.9699488,-2.2734361,0.59740442,-0.44996858,-0.66380435,0
-1.1787896,2.3018668,-4.1075401,0.07049036,0.85400838,-0.51546162,0
3.6620564,-3.8921225,1.8124225,-0.07049036,-0.85400838,0.51546162,0
4.0694914,2.0489256,0.39503455,0.79883605,0.26114732,0.54190683,0
-0.10963988,-4.9118996,-3.5481822,0.59740442,-0.44996858,-0.66380435,0
5.2893429,0.41437721,-2.2997437,0.59740442,-0.44996858,-0.66380435,0
3.1274726,-2.0434022,3.7557945,0.79883605,0.26114732,0.54190683,0
0.62340188,2.1444695,-4.1218605,0.07049036,0.85400838,-0.51546162,0
-0.74223256,-6.3865647,-2.9226234,-0.07049036,-0.85400838,0.51546162,0
-0.97717834,-0.40318167,-5.7465682,-0.79883605,-0.26114732,-0.54190683,0
-4.2274346,-3.813642,0.86354446,-0.07049036,-0.85400838,0.51546162,0
-1.1320021,-1.7610573,4.6875391,-0.07049036,-0.85400838,0.51546162,0
-1.3648634,3.4272423,3.2275672,-0.59740442,0.44996858,0.66380435,0
0.16840148,1.5969193,5.8481693,-0.59740442,0.44996858,0.66380435,0
-4.7495623,-1.7615047,0.46896219,-0.79883605,-0.26114732,-0.54190683,0
-0.65609676,-3.30023,-4.823781,-0.79883605,-0.26114732,-0.54190683,0
0.8308481,3.9028003,4.2757955,0.79883605,0.26114732,0.54190683,0
1.65027,-3.8971457,1.5289844,-0.07049036,-0.85400838,0.51546162,0
-3.7241702,2.4467142,1.7689242,-0.59740442,0.44996858,0.66380435,0
3.3365445,3.3918881,0.82830739,0.79883605,0.26114732,0.54190683,0
-3.2745864,-0.54629111,-2.2909467,-0.79883605,-0.26114732,-0.54190683,0
-1.3265349,-1.368639,-4.7663164,-0.79883605,-0.26114732,-0.54190683,0
-3.4005637,-1.994415,-1.4073837,-0.79883605,-0.26114732,-0.54190683,0
-0.48925638,1.5788651,-5.2111025,0.07049036,0.85400838,-0.51546162,0
-6.0413833,-2.4696436,2.8421981,-0.07049036,-0.85400838,0.51546162,0
3.010695,4.5081306,0.12068164,0.07049036,0.85400838,-0.51546162,0
-5.4338074,-1.4572053,1.3309786,-0.79883605,-0.26114732,-0.54190683,0
-2.2834806,4.8849111,1.4127387,-0.59740442,0.44996858,0.66380435,0
0.89046752,1.6777227,5.2601838,0.79883605,0.26114732,0.54190683,0
0.12288618,-1.0599298,-5.9500246,0.59740442,-0.44996858,-0.66380435,0
2.8787014,-1.8101877,4.0101266,0.79883605,0.26114732,0.54190683,0
1.3590647,4.0426288,3.4297562,0.79883605,0.26114732,0.54190683,0
3.1253481,1.3767908,2.1107206,0.79883605,0.26114732,0.54190683,0
2.3891587,2.8148253,2.5029576,0.79883605,0.26114732,0.54190683,0
-3.2504075,-3.3678286,1.7357713,-0.07049036,-0.85400838,0.51546162,0
-2.0113139,0.3303175,4.7450724,-0.59740442,0.44996858,0.66380435,0
2.2279806,-1.6175473,-3.6775126,0.59740442,-0.44996858,-0.66380435,0
3.4179394,4.5006866,0.16403902,0.07049036,0.85400838,-0.51546162,0
-5.0674067,-1.3517933,3.1349189,-0.59740442,0.44996858,0.66380435,0
-3.1657467,4.4588265,0.90755165,-0.59740442,0.44996858,0.66380435,0
1.3287323,-4.7230682,-2.3816915,0.59740442,-0.44996858,-0.66380435,0
-3.4722157,2.148366,-3.2981844,-0.79883605,-0.26114732,-0.54190683,0
-5.528729,1.05281,1.0897505,-0.59740442,0.44996858,0.66380435,0
0.50033116,2.8825915,-2.9157817,0.07049036,0.85400838,-0.51546162,0
3.1286335,-2.6362069,-2.1764398,0.59740442,-0.44996858,-0.66380435,0
3.7587225,-1.3235469,2.4783545,0.79883605,0.26114732,0.54190683,0
-0.85387856,2.9134235,4.0357375,-0.59740442,0.44996858,0.66380435,0
-4.4501166,3.3022633,-2.4127085,-0.79883605,-0.26114732,-0.54190683,0
-3.9212019,2.1649303,-2.6443071,-0.79883605,-0.26114732,-0.54190683,0
4.7011766,0.97559381,-3.2095039,0.59740442,-0.44996858,-0.66380435,0
2.6829631,3.3402836,1.8166336,0.79883605,0.26114732,0.54190683,0
-4.5251274,-2.5118573,0.49971652,-0.79883605,-0.26114732,-0.54190683,0
-1.5721183,-0.87728763,-4.6410813,-0.79883605,-0.26114732,-0.54190683,0
2.4259272,3.1206424,2.3013811,0.79883605,0.26114732,0.54190683,0
4.1356592,-2.8990316,2.6819379,0.79883605,0.26114732,0.54190683,0
-0.083884954,-1.4240885,-5.8892627,0.59740442,-0.44996858,-0.66380435,0
3.3315949,2.885844,1.0794685,0.79883605,0.26114732,0.54190683,0
0.81193137,3.7866662,-1.3753144,0.07049036,0.85400838,-0.51546162,0
2.2965238,1.7131951,3.170393,0.79883605,0.26114732,0.54190683,0
1.4735065,1.9567811,4.2662344,0.79883605,0.26114732,0.54190683,0
5.3271003,-4.1588707,1.5327309,0.79883605,0.26114732,0.54190683,0
-0.32910967,1.096126,5.7398934,-0.59740442,0.44996858,0.66380435,0
0.9921267,0.011288881,-5.8938737,0.59740442,-0.44996858,-0.66380435,0
0.44845963,3.4354579,-2.0068955,0.07049036,0.85400838,-0.51546162,0
-2.7744646,-0.10995007,-3.2384617,-0.79883605,-0.26114732,-0.54190683,0
1.9294112,0.45250344,4.3190937,0.79883605,0.26114732,0.54190683,0
0.82085055,3.082906,4.6856437,0.79883605,0.26114732,0.54190683,0
-3.7737281,-4.2278662,0.23930979,-0.07049036,-0.85400838,0.51546162,0
0.94280481,-5.5829668,-1.3608042,-0.07049036,-0.85400838,0.51546162,0
3.5035424,-0.50558329,-3.2833042,0.59740442,-0.44996858,-0.66380435,0
-3.5363719,2.2075009,-3.2321081,-0.79883605,-0.26114732,-0.54190683,0
-2.4477708,-1.5050406,-3.0477467,-0.79883605,-0.26114732,-0.54190683,0
2.4598947,-2.7384181,-2.7090001,0.59740442,-0.44996858,-0.66380435,0
-0.22341251,-0.52967316,6.8519278,-0.07049036,-0.85400838,0.51546162,0
3.9125152,3.5647678,-1.3189414,0.07049036,0.85400838,-0.51546162,0
-0.51578593,-0.80758661,-6.231832,-0.79883605,-0.26114732,-0.54190683,0
2.6831102,-2.0727324,-2.9593558,0.59740442,-0.44996858,-0.66380435,0
-1.39115,-3.7718303,1.3206851,-0.07049036,-0.85400838,0.51546162,0
4.636456,-2.597136,-0.84592819,0.59740442,-0.44996858,-0.66380435,0
5.0568857,-1.8336003,0.81050229,0.79883605,0.26114732,0.54190683,0
1.4782467,-4.4684629,0.55891001,-0.07049036,-0.85400838,0.51546162,0
-4.2595258,0.28439665,-1.2393392,-0.79883605,-0.26114732,-0.54190683,0
1.5861288,-0.43581539,-5.0562129,0.59740442,-0.44996858,-0.66380435,0
-1.5463495,-0.010897875,-5.0965853,-0.79883605,-0.26114732,-0.54190683,0
3.2191763,2.3082292,-3.4955683,0.07049036,0.85400838,-0.51546162,0
-2.3395157,-2.2221189,-2.8617651,-0.79883605,-0.26114732,-0.54190683,0
1.5361154,4.4715853,2.9620461,0.79883605,0.26114732,0.54190683,0
-4.9665279,-0.52641344,2.6662126,-0.59740442,0.44996858,0.66380435,0
-5.2995625,-2.3645139,1.5703223,-0.79883605,-0.26114732,-0.54190683,0
-2.642755,2.7664473,-3.5380306,0.07049036,0.85400838,-0.51546162,0
-1.2203861,-5.3198762,-3.0186739,-0.79883605,-0.26114732,-0.54190683,0
2.9336452,-0.53714967,-3.774797,0.59740442,-0.44996858,-0.66380435,0
-3.7806044,3.4031248,-2.6387973,0.07049036,0.85400838,-0.51546162,0
-5.2990961,2.0339437,-0.55000138,-0.79883605,-0.26114732,-0.54190683,0
2.788173,1.154294,2.7149796,0.79883605,0.26114732,0.54190683,0
-1.0554903,-5.7228718,-1.8658665,-0.07049036,-0.85400838,0.51546162,0
1.6102083,-3.506623,-2.9529548,0.59740442,-0.44996858,-0.66380435,0
5.1034331,-2.2660115,0.95026636,0.79883605,0.26114732,0.54190683,0
1.3339381,-5.6850352,-1.4764209,-0.07049036,-0.85400838,0.51546162,0
-5.3575726,-0.56253386,2.3387687,-0.59740442,0.44996858,0.66380435,0
-4.1858835,-1.8510675,4.1207876,-0.07049036,-0.85400838,0.51546162,0
-1.7527723,1.0386186,-5.298059,-0.79883605,-0.26114732,-0.54190683,0
-3.7773852,1.4612663,2.3890312,-0.59740442,0.44996858,0.66380435,0
3.6088204,-0.4003861,-3.2598665,0.59740442,-0.44996858,-0.66380435,0
0.84560513,1.5886883,-5.0122824,0.07049036,0.85400838,-0.51546162,0
1.0306511,-2.1449518,-4.3975663,0.59740442,-0.44996858,-0.66380435,0
0.72161865,5.9111376,2.1321247,0.07049036,0.85400838,-0.51546162,0
2.475208,3.6014428,1.9970359,0.79883605,0.26114732,0.54190683,0
-0.67875612,-4.4122243,-4.2545037,-0.79883605,-0.26114732,-0.54190683,0
-4.1486878,3.5275638,-2.4829645,0.07049036,0.85400838,-0.51546162,0
5.2515578,2.5396647,-2.8341985,0.07049036,0.85400838,-0.51546162,0
4.7519937,2.7433925,-2.5649817,0.07049036,0.85400838,-0.51546162,0
-1.5768667,3.1525459,3.2229769,-0.59740442,0.44996858,0.66380435,0
-5.7536097,0.11166286,1.0463617,-0.79883605,-0.26114732,-0.54190683,0
-2.0482066,-3.6520009,-2.6021233,-0.79883605,-0.26114732,-0.54190683,0
-4.230094,0.11819029,-1.2026303,-0.79883605,-0.26114732,-0.54190683,0
-2.1351149,-3.3979161,1.8384411,-0.07049036,-0.85400838,0.51546162,0
-2.0557449,-2.0803657,4.0321908,-0.07049036,-0.85400838,0.51546162,0
-2.6583676,-0.07614696,4.4382696,-0.59740442,0.44996858,0.66380435,0
-2.2845254,2.9568272,-3.173624,0.07049036,0.85400838,-0.51546162,0
3.2458131,0.32145452,2.4417114,0.79883605,0.26114732,0.54190683,0
-2.6264234,-4.931468,-0.76951069,-0.07049036,-0.85400838,0.51546162,0
4.1935983,-3.0774829,-0.91887784,0.59740442,-0.44996858,-0.66380435,0
-2.6083133,-3.4638045,-1.8671511,-0.79883605,-0.26114732,-0.54190683,0
1.4654107,-5.1533322,-0.57752514,-0.07049036,-0.85400838,0.51546162,0
-3.3264735,0.80204797,-2.8642297,-0.79883605,-0.26114732,-0.54190683,0
-0.3464582,4.0248523,3.7390044,-0.59740442,0.44996858,0.66380435,0
-2.2616754,-0.11049318,-3.994113,-0.79883605,-0.26114732,-0.54190683,0
4.0458059,-3.9320047,1.798824,-0.07049036,-0.85400838,0.51546162,0
-3.8501487,1.4371978,2.3398614,-0.59740442,0.44996858,0.66380435,0
0.71750212,-0.23607451,6.4374232,0.79883605,0.26114732,0.54190683,0
0.17695507,3.5904238,4.5045443,-0.59740442,0.44996858,0.66380435,0
-3.7782574,3.0897384,-3.15769,0.07049036,0.85400838,-0.51546162,0
-1.4055984,-4.1038518,0.7686215,-0.07049036,-0.85400838,0.51546162,0
1.1258897,2.5272758,4.5037398,0.79883605,0.26114732,0.54190683,0
5.3944659,2.9828091,-2.0081799,0.79883605,0.26114732,0.54190683,0
-2.7945237,0.85355604,-3.6732101,-0.79883605,-0.26114732,-0.54190683,0
-4.7206411,-3.4983082,1.2633028,-0.79883605,-0.26114732,-0.54190683,0
-3.9605086,-1.3818657,-0.87714791,-0.79883605,-0.26114732,-0.54190683,0
3.9488816,2.6424458,-2.8420553,0.07049036,0.85400838,-0.51546162,0
5.3692698,-0.70614767,-0.19331408,0.79883605,0.26114732,0.54190683,0
1.1518784,-2.9505877,3.0290694,-0.07049036,-0.85400838,0.51546162,0
2.8575935,-0.66114116,-3.7591918,0.59740442,-0.44996858,-0.66380435,0
1.5748489,1.2598931,4.4526768,0.79883605,0.26114732,0.54190683,0
-3.8910077,2.7211595,1.432739,-0.59740442,0.44996858,0.66380435,0
-1.5424306,-4.9779463,-0.69827628,-0.07049036,-0.85400838,0.51546162,0
-3.1811178,-0.95302463,-2.2327242,-0.79883605,-0.26114732,-0.54190683,0
-3.2746458,-2.3323824,-1.4301338,-0.79883605,-0.26114732,-0.54190683,0
0.064460278,-5.5028048,-1.3481079,-0.07049036,-0.85400838,0.51546162,0
5.0481949,-4.2636023,0.65426087,0.59740442,-0.44996858,-0.66380435,0
1.9310555,-5.5371642,-1.2877723,0.59740442,-0.44996858,-0.66380435,0
4.8331909,-3.4166422,1.9031304,0.79883605,0.26114732,0.54190683,0
-3.1276398,-3.5515108,-1.059335,-0.79883605,-0.26114732,-0.54190683,0
0.12481445,-2.2278028,-5.156631,0.59740442,-0.44996858,-0.66380435,0
-3.1099465,2.4500015,2.319479,-0.59740442,0.44996858,0.66380435,0
-3.4254851,0.50784636,-2.5764978,-0.79883605,-0.26114732,-0.54190683,0
-0.11019754,-1.9262418,-5.5725522,0.59740442,-0.44996858,-0.66380435,0
0.64615726,-1.7517619,4.9461064,-0.07049036,-0.85400838,0.51546162,0
-5.4782543,3.8037972,-1.1388016,-0.79883605,-0.26114732,-0.54190683,0
-5.7070494,-2.2325449,2.1074102,-0.79883605,-0.26114732,-0.54190683,0
0.72245836,-0.28826672,6.4552689,0.79883605,0.26114732,0.54190683,0
-4.8693566,3.4796054,-1.8801591,-0.79883605,-0.26114732,-0.54190683,0
2.0463753,0.75096989,4.0028424,0.79883605,0.26114732,0.54190683,0
3.6392736,-4.4489145,0.8868227,-0.07049036,-0.85400838,0.51546162,0
-2.6850076,0.80519187,3.8168681,-0.59740442,0.44996858,0.66380435,0
0.43076944,-1.2858667,5.688539,-0.07049036,-0.85400838,0.51546162,0
-1.3823704,-1.6199397,-4.5629053,-0.79883605,-0.26114732,-0.54190683,0
5.8537731,-0.19347858,-1.1545877,0.79883605,0.26114732,0.54190683,0
5.0258002,2.5593319,-2.8324871,0.07049036,0.85400838,-0.51546162,0
-5.8284159,0.90832233,0.91798353,-0.59740442,0.44996858,0.66380435,0
-5.0604396,4.2839069,-1.3545516,0.07049036,0.85400838,-0.51546162,0
-0.78410006,-6.4629993,-3.1037428,0.59740442,-0.44996858,-0.66380435,0
-3.8309422,2.339293,-2.861387,-0.79883605,-0.26114732,-0.54190683,0
3.4392397,-0.25947022,2.436528,0.79883605,0.26114732,0.54190683,0
1.0328593,1.4667778,-5.1886549,0.07049036,0.85400838,-0.51546162,0
1.5381556,-5.6756363,-1.4329224,-0.07049036,-0.85400838,0.51546162,0
-2.9008417,-4.8554564,-0.68110251,-0.07049036,-0.85400838,0.51546162,0
-0.093575954,5.0020518,0.5144875,0.07049036,0.85400838,-0.51546162,0
-3.9828448,2.4062133,-2.669713,-0.79883605,-0.26114732,-0.54190683,0
-1.5856971,-2.2094688,-3.9790807,-0.79883605,-0.26114732,-0.54190683,0
0.88180614,-4.6318893,-2.8457186,0.59740442,-0.44996858,-0.66380435,0
1.2995431,0.66578025,-6.0608625,0.59740442,-0.44996858,-0.66380435,0
-1.9231105,-4.8781681,-0.5850237,-0.07049036,-0.85400838,0.51546162,0
0.3150053,0.39708024,6.7256317,0.79883605,0.26114732,0.54190683,0
-2.2421992,-3.7122815,-2.2871056,-0.79883605,-0.26114732,-0.54190683,0
-2.7446122,3.3894842,-2.5197229,0.07049036,0.85400838,-0.51546162,0
-1.9083207,-2.9517231,2.6087008,-0.07049036,-0.85400838,0.51546162,0
3.7841287,-1.4883161,2.5203059,0.79883605,0.26114732,0.54190683,0
3.5431147,2.940403,0.74137056,0.79883605,0.26114732,0.54190683,0
5.5133801,-2.449677,-0.15667939,0.59740442,-0.44996858,-0.66380435,0
-2.9687824,3.8823543,-1.733799,0.07049036,0.85400838,-0.51546162,0
-0.73672533,-1.8791195,4.54599,-0.07049036,-0.85400838,0.51546162,0
-4.2060423,4.2680292,-1.2640167,0.07049036,0.85400838,-0.51546162,0
-3.3962774,-2.7643113,2.7157202,-0.07049036,-0.85400838,0.51546162,0
1.9858301,4.2995143,-0.36510372,0.07049036,0.85400838,-0.51546162,0
4.1104388,-1.5288315,-2.0434933,0.59740442,-0.44996858,-0.66380435,0
0.38574004,-0.68472362,-5.9678025,0.59740442,-0.44996858,-0.66380435,0
5.370707,0.35048771,-2.1832099,0.59740442,-0.44996858,-0.66380435,0
5.52527,1.7696714,-1.6163845,0.79883605,0.26114732,0.54190683,0
1.4241624,0.71188724,4.9388933,0.79883605,0.26114732,0.54190683,0
2.8880429,1.4698336,-4.9298921,0.07049036,0.85400838,-0.51546162,0
-0.62307501,4.2305746,-0.83609402,0.07049036,0.85400838,-0.51546162,0
1.2921813,0.46778035,5.2510858,0.79883605,0.26114732,0.54190683,0
1.182651,-5.3792343,-0.99046326,-0.07049036,-0.85400838,0.51546162,0
0.59865952,-0.84343159,6.4445181,-0.07049036,-0.85400838,0.51546162,0
2.5959325,-3.1213887,2.9435666,-0.07049036,-0.85400838,0.51546162,0
-0.687747,3.52824,-2.008554,0.07049036,0.85400838,-0.51546162,0
1.2450744,1.5289859,4.8091273,0.79883605,0.26114732,0.54190683,0
-0.38611031,-1.1373003,-6.2640996,-0.79883605,-0.26114732,-0.54190683,0
-2.4385147,3.89976,-1.6324468,0.07049036,0.85400838,-0.51546162,0
-0.25054455,-4.9223194,-0.42944658,-0.07049036,-0.85400838,0.51546162,0
-0.79099488,5.5668869,2.2936456,-0.59740442,0.44996858,0.66380435,0
0.33444452,-3.0105371,2.8179607,-0.07049036,-0.85400838,0.51546162,0
-4.5399022,4.2238255,-1.3829085,0.07049036,0.85400838,-0.51546162,0
-0.17584336,3.8880613,3.9852781,-0.59740442,0.44996858,0.66380435,0
4.3930316,0.84652567,-3.3993351,0.59740442,-0.44996858,-0.66380435,0
2.785954,-4.4661598,0.74155802,-0.07049036,-0.85400838,0.51546162,0
1.7768588,3.3808842,3.1327748,0.79883605,0.26114732,0.54190683,0
-6.0696812,-1.5254364,2.3506081,-0.59740442,0.44996858,0.66380435,0
1.0009875,-4.2941628,0.78242278,-0.07049036,-0.85400838,0.51546162,0
2.6020079,-1.8691823,4.4464359,0.79883605,0.26114732,0.54190683,0
2.5765278,2.0069871,2.6160533,0.79883605,0.26114732,0.54190683,0
1.0281103,-3.1746495,-3.7018588,0.59740442,-0.44996858,-0.66380435,0
1.0681968,-3.908792,1.4300886,-0.07049036,-0.85400838,0.51546162,0
-1.6014923,1.4490448,4.3555555,-0.59740442,0.44996858,0.66380435,0
1.342787,1.7316486,4.5674233,0.79883605,0.26114732,0.54190683,0
-3.5367961,-4.0085497,-0.23594105,-0.79883605,-0.26114732,-0.54190683,0
0.76848555,5.5625739,1.5610392,0.07049036,0.85400838,-0.51546162,0
-1.4210402,1.5567093,4.4449749,-0.59740442,0.44996858,0.66380435,0
0.6216836,-4.7304826,0.0076644719,-0.07049036,-0.85400838,0.51546162,0
4.6551824,3.021565,-2.1173494,0.07049036,0.85400838,-0.51546162,0
3.3429604,-2.946137,-1.7734617,0.59740442,-0.44996858,-0.66380435,0
-4.368463,3.6054442,0.40361905,-0.59740442,0.44996858,0.66380435,0
-4.5705318,1.9971895,-1.6062813,-0.79883605,-0.26114732,-0.54190683,0
-2.6096234,0.85048199,-3.944293,-0.79883605,-0.26114732,-0.54190683,0
-0.26981974,0.46222833,-7.0311193,0.07049036,0.85400838,-0.51546162,0
-2.2669749,-1.3569034,5.2019253,-0.07049036,-0.85400838,0.51546162,0
-2.7851024,4.3319755,-0.96375537,0.07049036,0.85400838,-0.51546162,0
2.2853968,-4.1275253,-1.9244179,0.59740442,-0.44996858,-0.66380435,0
-3.0033851,4.4982595,-0.71810985,0.07049036,0.85400838,-0.51546162,0
-4.5537462,-3.1205888,1.96716,-0.07049036,-0.85400838,0.51546162,0
3.4459114,1.4593697,1.5983765,0.79883605,0.26114732,0.54190683,0
-3.8893044,0.35426354,-1.8187594,-0.79883605,-0.26114732,-0.54190683,0
1.1804926,1.909327,4.7210407,0.79883605,0.26114732,0.54190683,0
0.43525791,0.81431013,-6.3513751,0.07049036,0.85400838,-0.51546162,0
-0.081879497,-2.0801141,-5.4427624,0.59740442,-0.44996858,-0.66380435,0
-1.778555,2.7299426,3.3279307,-0.59740442,0.44996858,0.66380435,0
0.36086273,6.1978354,2.9025865,-0.59740442,0.44996858,0.66380435,0
-1.2948442,4.2447023,-0.90455294,0.07049036,0.85400838,-0.51546162,0
-0.36416733,-3.5797131,-4.6802897,0.59740442,-0.44996858,-0.66380435,0
4.6611915,-4.0857396,1.6282743,-0.07049036,-0.85400838,0.51546162,0
2.8443604,-1.8863941,-2.9405475,0.59740442,-0.44996858,-0.66380435,0
0.94720936,1.657863,5.18611,0.79883605,0.26114732,0.54190683,0
-2.7474661,2.3820429,-4.1892252,0.07049036,0.85400838,-0.51546162,0
-1.6596904,4.5202188,2.2213426,-0.59740442,0.44996858,0.66380435,0
-5.9998078,-0.75694895,1.8925622,-0.59740442,0.44996858,0.66380435,0
3.5813332,1.7810795,1.243715,0.79883605,0.26114732,0.54190683,0
-3.1513786,-0.9690299,4.5998273,-0.59740442,0.44996858,0.66380435,0
5.4268684,0.019739628,-1.9084644,0.59740442,-0.44996858,-0.66380435,0
2.8444228,0.088714361,-4.2793446,0.59740442,-0.44996858,-0.66380435,0
3.2821844,-2.0952268,3.552706,0.79883605,0.26114732,0.54190683,0
-2.9002349,-1.7965221,4.3869724,-0.07049036,-0.85400838,0.51546162,0
-2.1725302,2.6169205,3.049978,-0.59740442,0.44996858,0.66380435,0
-3.0046453,2.891736,-3.3799434,0.07049036,0.85400838,-0.51546162,0
-1.3509371,-2.197835,3.9339535,-0.07049036,-0.85400838,0.51546162,0
3.2848475,3.8971229,0.66104007,0.79883605,0.26114732,0.54190683,0
-1.1281955,-1.4626173,5.1825099,-0.07049036,-0.85400838,0.51546162,0
4.4424267,-4.247642,0.098268509,0.59740442,-0.44996858,-0.66380435,0
-0.98788238,-5.7450004,-1.8932831,-0.07049036,-0.85400838,0.51546162,0
3.8459692,-2.9430161,3.1301715,0.79883605,0.26114732,0.54190683,0
4.2980824,-2.7475867,2.3695238,0.79883605,0.26114732,0.54190683,0
1.8660367,-1.1520652,5.1857638,0.79883605,0.26114732,0.54190683,0
-1.2433677,-2.4893923,-4.3488193,-0.79883605,-0.26114732,-0.54190683,0
4.5371294,-3.2667041,2.2673051,0.79883605,0.26114732,0.54190683,0
4.1375895,-4.2477903,-0.17597532,0.59740442,-0.44996858,-0.66380435,0
-5.1256909,0.49075794,-0.061953306,-0.79883605,-0.26114732,-0.54190683,0
3.160852,4.1453676,0.72419405,0.79883605,0.26114732,0.54190683,0
-2.6488497,4.6513128,1.2422649,-0.59740442,0.44996858,0.66380435,0
-2.3816032,1.4425128,3.6579065,-0.59740442,0.44996858,0.66380435,0
3.2130189,1.3921921,-4.8311987,0.59740442,-0.44996858,-0.66380435,0
2.6731567,-2.7569914,3.5578551,-0.07049036,-0.85400838,0.51546162,0
3.9319272,2.2060661,0.52209413,0.79883605,0.26114732,0.54190683,0
-2.1225326,-1.7859335,4.5108681,-0.07049036,-0.85400838,0.51546162,0
-0.45457757,3.5380259,3.9717014,-0.59740442,0.44996858,0.66380435,0
-1.3065248,0.32363173,5.383894,-0.59740442,0.44996858,0.66380435,0
1.2476957,0.59243089,-6.0578036,0.59740442,-0.44996858,-0.66380435,0
4.0638938,-1.5876591,2.1557722,0.79883605,0.26114732,0.54190683,0
-2.6876383,-0.65572143,-3.1034441,-0.79883605,-0.26114732,-0.54190683,0
5.5952463,-3.1320302,0.64261341,0.79883605,0.26114732,0.54190683,0
5.7735643,-0.15633821,-1.0542481,0.79883605,0.26114732,0.54190683,0
0.89463431,4.2450762,4.0168223,0.79883605,0.26114732,0.54190683,0
1.5059347,2.1472006,-3.9966478,0.07049036,0.85400838,-0.51546162,0
4.3840046,-0.15914345,-2.7257526,0.59740442,-0.44996858,-0.66380435,0
0.38397741,-5.3461699,-1.0449027,-0.07049036,-0.85400838,0.51546162,0
0.22100681,3.0683899,4.898057,-0.59740442,0.44996858,0.66380435,0
-3.2860794,-1.5556202,4.7333307,-0.07049036,-0.85400838,0.51546162,0
-2.6763988,3.970679,-1.5474806,0.07049036,0.85400838,-0.51546162,0
2.3627839,-4.550601,0.54378772,-0.07049036,-0.85400838,0.51546162,0
-3.1149876,-1.5418096,4.7796082,-0.07049036,-0.85400838,0.51546162,0
2.6480751,-3.1545055,2.8958302,-0.07049036,-0.85400838,0.51546162,0
0.62686348,-2.0860181,4.3896775,-0.07049036,-0.85400838,0.51546162,0
0.19590664,1.2252369,-5.7032905,0.07049036,0.85400838,-0.51546162,0
3.3204277,-2.2601261,3.5757957,0.79883605,0.26114732,0.54190683,0
-4.4504504,-0.79516649,-0.43764639,-0.79883605,-0.26114732,-0.54190683,0
-1.4012432,0.59006691,-5.6000962,-0.79883605,-0.26114732,-0.54190683,0
3.7526772,-0.5198884,-3.0493934,0.59740442,-0.44996858,-0.66380435,0
5.1329384,-3.1997828,0.0094032288,0.59740442,-0.44996858,-0.66380435,0
2.9742649,0.64627957,2.685472,0.79883605,0.26114732,0.54190683,0
0.37674642,1.1688349,6.2627053,0.79883605,0.26114732,0.54190683,0
4.6662183,-4.651782,0.57362628,0.59740442,-0.44996858,-0.66380435,0
3.7599623,0.049801588,-3.4290087,0.59740442,-0.44996858,-0.66380435,0
-2.3886173,-2.2578177,3.6926708,-0.07049036,-0.85400838,0.51546162,0
-4.7917786,-2.3663416,0.8226676,-0.79883605,-0.26114732,-0.54190683,0
-2.6685441,-5.0305309,-0.93939573,-0.07049036,-0.85400838,0.51546162,0
-0.74005699,2.7617369,-3.2856374,0.07049036,0.85400838,-0.51546162,0
-0.94590139,4.5873761,-0.28909814,0.07049036,0.85400838,-0.51546162,0
2.6802626,-0.5064249,3.6743598,0.79883605,0.26114732,0.54190683,0
3.8535337,2.5255311,-3.0487967,0.07049036,0.85400838,-0.51546162,0
-5.690321,-2.1405859,2.0384347,-0.79883605,-0.26114732,-0.54190683,0
-4.8713908,4.132514,-1.5795242,0.07049036,0.85400838,-0.51546162,0
0.44773093,-3.1100202,-4.267993,0.59740442,-0.44996858,-0.66380435,0
2.5639558,-0.23959422,3.7172236,0.79883605,0.26114732,0.54190683,0
3.7672114,3.8102005,-0.0081343651,0.79883605,0.26114732,0.54190683,0
-3.2095432,-0.18582368,4.0165739,-0.59740442,0.44996858,0.66380435,0
-1.0342038,4.0435829,3.1073565,-0.59740442,0.44996858,0.66380435,0
4.4183965,3.4611797,-1.4213839,0.07049036,0.85400838,-0.51546162,0
5.7760115,0.62970114,-1.436651,0.79883605,0.26114732,0.54190683,0
-1.1579504,4.7039871,-0.12489718,0.07049036,0.85400838,-0.51546162,0
-1.2168911,3.818326,3.0956366,-0.59740442,0.44996858,0.66380435,0
-4.3907161,-3.2824111,1.7213502,-0.07049036,-0.85400838,0.51546162,0
2.5474241,3.0378621,-2.3785892,0.07049036,0.85400838,-0.51546162,0
5.6331072,2.5511746,-2.7629511,0.07049036,0.85400838,-0.51546162,0
0.44984961,0.28246826,-6.5657296,0.59740442,-0.44996858,-0.66380435,0
0.52000093,5.9114943,2.1051443,0.07049036,0.85400838,-0.51546162,0
-4.4119668,4.1969624,-0.036501646,-0.59740442,0.44996858,0.66380435,0
3.0874815,-4.3362274,0.99806106,-0.07049036,-0.85400838,0.51546162,0
-2.6823688,1.1013907,-3.9579723,-0.79883605,-0.26114732,-0.54190683,0
-4.5780492,4.5605545,-0.83023894,0.07049036,0.85400838,-0.51546162,0
0.0029807091,2.0079007,-4.4329691,0.07049036,0.85400838,-0.51546162,0
-3.5802736,2.9520278,1.5558934,-0.59740442,0.44996858,0.66380435,0
-0.14932656,-1.4982355,-5.8978972,0.59740442,-0.44996858,-0.66380435,0
-3.0207715,5.2126245,0.46306062,0.07049036,0.85400838,-0.51546162,0
-0.4923265,-0.25424695,-6.533071,-0.79883605,-0.26114732,-0.54190683,0
5.543025,0.49704361,-2.1274736,0.59740442,-0.44996858,-0.66380435,0
-5.994873,-1.4295006,2.3529012,-0.59740442,0.44996858,0.66380435,0
2.033016,4.1533623,2.3829079,0.79883605,0.26114732,0.54190683,0
-0.49740481,-1.1664274,5.7594943,-0.07049036,-0.85400838,0.51546162,0
1.9284716,-5.3939099,-0.91278589,-0.07049036,-0.85400838,0.51546162,0
4.0366335,-2.5626287,2.6657991,0.79883605,0.26114732,0.54190683,0
-3.0471597,3.0084355,-3.1924124,0.07049036,0.85400838,-0.51546162,0
4.9528003,-4.6078196,0.80174112,0.59740442,-0.44996858,-0.66380435,0
4.4321451,2.076107,-0.15266013,0.79883605,0.26114732,0.54190683,0
-3.2756898,1.773607,2.628818,-0.59740442,0.44996858,0.66380435,0
3.5497854,-4.3872018,-0.61048007,0.59740442,-0.44996858,-0.66380435,0
-3.1725268,1.0946269,-3.2321601,-0.79883605,-0.26114732,-0.54190683,0
1.9030622,0.55250478,4.3097444,0.79883605,0.26114732,0.54190683,0
-0.7739954,3.1960692,-2.5706837,0.07049036,0.85400838,-0.51546162,0
5.7627044,-0.65466785,-1.1490653,0.59740442,-0.44996858,-0.66380435,0
5.1505828,-1.2724006,-1.2812192,0.59740442,-0.44996858,-0.66380435,0
-5.8822899,-1.516736,2.0207851,-0.79883605,-0.26114732,-0.54190683,0
0.26058093,2.8276501,5.0968614,-0.59740442,0.44996858,0.66380435,0
-0.28540111,-5.1996703,-0.89372385,-0.07049036,-0.85400838,0.51546162,0
3.7233322,-4.7011123,-0.24150515,0.59740442,-0.44996858,-0.66380435,0
1.0486579,4.2456565,-0.58249426,0.07049036,0.85400838,-0.51546162,0
-4.7542348,1.0016534,-0.85572791,-0.79883605,-0.26114732,-0.54190683,0
-3.054647,-4.2964249,0.22405887,-0.07049036,-0.85400838,0.51546162,0
-0.40910631,2.7138019,4.5713358,-0.59740442,0.44996858,0.66380435,0
2.9943924,-3.4921324,2.3838148,-0.07049036,-0.85400838,0.51546162,0
-3.1792302,4.0869074,-1.423678,0.07049036,0.85400838,-0.51546162,0
2.1440203,-1.016147,4.7104831,0.79883605,0.26114732,0.54190683,0
0.81236124,-0.53671217,-5.6841874,0.59740442,-0.44996858,-0.66380435,0
-2.6925302,-0.50270391,-3.1699729,-0.79883605,-0.26114732,-0.54190683,0
3.6733141,-1.9331651,2.898035,0.79883605,0.26114732,0.54190683,0
-1.0666903,-4.5143223,-3.6334405,-0.79883605,-0.26114732,-0.54190683,0
-0.61412716,2.873045,-3.0840027,0.07049036,0.85400838,-0.51546162,0
-0.95775867,-3.4810283,1.8617473,-0.07049036,-0.85400838,0.51546162,0
-0.54415059,-1.077054,-6.0601611,-0.79883605,-0.26114732,-0.54190683,0
-5.2837534,0.068910122,0.37434006,-0.79883605,-0.26114732,-0.54190683,0
4.2490892,-4.2502303,1.2993917,-0.07049036,-0.85400838,0.51546162,0
-5.1254487,4.5193949,-0.9732883,0.07049036,0.85400838,-0.51546162,0
-1.3131208,-0.50079632,-5.2043076,-0.79883605,-0.26114732,-0.54190683,0
-0.93273497,3.3175209,-2.3911726,0.07049036,0.85400838,-0.51546162,0
-3.3454957,0.6817379,3.3061326,-0.59740442,0.44996858,0.66380435,0
3.2627835,2.4702122,-3.2212338,0.07049036,0.85400838,-0.51546162,0
3.3426876,2.3381677,1.327044,0.79883605,0.26114732,0.54190683,0
-0.19793415,1.3286099,5.7003551,-0.59740442,0.44996858,0.66380435,0
5.050149,-1.4586725,0.63975501,0.79883605,0.26114732,0.54190683,0
-1.3584986,2.8912675,3.5966132,-0.59740442,0.44996858,0.66380435,0
0.0025372505,3.7656116,-1.5208831,0.07049036,0.85400838,-0.51546162,0
-1.6048369,-3.0022116,2.5665541,-0.07049036,-0.85400838,0.51546162,0
0.67344093,-0.92344415,6.3221807,-0.07049036,-0.85400838,0.51546162,0
-4.5318937,0.13470984,2.6092188,-0.59740442,0.44996858,0.66380435,0
5.0412312,-3.5276752,0.14913583,0.59740442,-0.44996858,-0.66380435,0
3.3187726,-0.90896702,-3.1761522,0.59740442,-0.44996858,-0.66380435,0
0.82186699,-0.51764899,6.4192691,0.79883605,0.26114732,0.54190683,0
-3.4507909,2.8939719,-3.4372511,0.07049036,0.85400838,-0.51546162,0
1.1794777,-3.1784852,-3.5630324,0.59740442,-0.44996858,-0.66380435,0
-4.1525927,1.730711,-2.0939577,-0.79883605,-0.26114732,-0.54190683,0
-4.5492964,-0.021239281,2.69927,-0.59740442,0.44996858,0.66380435,0
-1.6594691,3.6146324,-1.9983058,0.07049036,0.85400838,-0.51546162,0
-4.012857,-3.4183929,0.18143153,-0.79883605,-0.26114732,-0.54190683,0
1.9639344,-3.8287249,1.6852369,-0.07049036,-0.85400838,0.51546162,0
5.3842211,2.9516859,-1.9780798,0.79883605,0.26114732,0.54190683,0
2.5965533,-3.6960588,-1.9368618,0.59740442,-0.44996858,-0.66380435,0
0.86279058,-3.2215152,2.5406682,-0.07049036,-0.85400838,0.51546162,0
-3.0690455,-4.4078069,0.037554026,-0.07049036,-0.85400838,0.51546162,0
1.0589037,-5.3851409,-1.0171727,-0.07049036,-0.85400838,0.51546162,0
1.2510915,-4.548367,-2.5699897,0.59740442,-0.44996858,-0.66380435,0
5.2405362,-4.4061227,1.1766945,-0.07049036,-0.85400838,0.51546162,0
-2.4157562,-2.9767008,-2.385741,-0.79883605,-0.26114732,-0.54190683,0
-1.7541897,-5.3635006,-1.3660146,-0.07049036,-0.85400838,0.51546162,0
0.97849274,4.1327562,3.9473329,0.79883605,0.26114732,0.54190683,0
-0.3065424,5.7952857,1.7995802,0.07049036,0.85400838,-0.51546162,0
-3.5084124,-3.3691084,1.6983681,-0.07049036,-0.85400838,0.51546162,0
-1.8934703,-4.8557935,-0.54390126,-0.07049036,-0.85400838,0.51546162,0
3.2826619,-2.8605199,3.4696817,-0.07049036,-0.85400838,0.51546162,0
-1.0201952,2.9455402,3.8642867,-0.59740442,0.44996858,0.66380435,0
3.0206747,3.4236166,1.2786474,0.79883605,0.26114732,0.54190683,0
2.9839187,0.15315604,2.9088793,0.79883605,0.26114732,0.54190683,0
4.8548923,1.0488939,-0.28082085,0.79883605,0.26114732,0.54190683,0
4.3634729,-0.94564962,1.4047689,0.79883605,0.26114732,0.54190683,0
0.45951796,3.887743,-1.2560451,0.07049036,0.85400838,-0.51546162,0
-2.5812154,-3.8650389,-1.7137403,-0.79883605,-0.26114732,-0.54190683,0
-3.0643768,0.98728371,-3.3398573,-0.79883605,-0.26114732,-0.54190683,0
2.7675438,4.3034348,1.2278044,0.79883605,0.26114732,0.54190683,0
-2.077544,2.5349703,3.1910138,-0.59740442,0.44996858,0.66380435,0
5.809804,0.54569817,-1.4459848,0.79883605,0.26114732,0.54190683,0
1.086692,-0.73309588,-5.3041763,0.59740442,-0.44996858,-0.66380435,0
1.2288349,2.8245909,4.2087083,0.79883605,0.26114732,0.54190683,0
2.6839223,-4.2047796,1.1606551,-0.07049036,-0.85400838,0.51546162,0
-2.9082336,4.4071164,-0.85610241,0.07049036,0.85400838,-0.51546162,0
-1.7546644,2.3899088,-4.0404258,0.07049036,0.85400838,-0.51546162,0
4.2472239,-2.6182275,2.3821566,0.79883605,0.26114732,0.54190683,0
-3.0893173,-1.885237,-1.9188122,-0.79883605,-0.26114732,-0.54190683,0
3.1277525,4.6962233,0.50752723,0.79883605,0.26114732,0.54190683,0
5.6488543,-2.5856032,0.30026293,0.79883605,0.26114732,0.54190683,0
-2.4178967,-4.4048796,-1.6943399,-0.79883605,-0.26114732,-0.54190683,0
2.8131638,-0.66442132,3.5545869,0.79883605,0.26114732,0.54190683,0
6.0286479,0.84843397,-1.9144754,0.79883605,0.26114732,0.54190683,0
-4.1658411,1.7555089,-2.0863779,-0.79883605,-0.26114732,-0.54190683,0
5.904912,-0.31603241,-1.1709125,0.79883605,0.26114732,0.54190683,0
4.0089521,-4.1330395,1.460713,-0.07049036,-0.85400838,0.51546162,0
-5.9103842,-1.6453538,2.5752587,-0.59740442,0.44996858,0.66380435,0
-1.6959924,3.8472404,2.6448598,-0.59740442,0.44996858,0.66380435,0
-3.1898043,-3.5581999,1.4286551,-0.07049036,-0.85400838,0.51546162,0
-2.6726861,-2.6832433,-2.1484139,-0.79883605,-0.26114732,-0.54190683,0
4.2936096,-1.7598727,1.9001335,0.79883605,0.26114732,0.54190683,0
-0.96489167,-5.6879807,-3.2179124,-0.79883605,-0.26114732,-0.54190683,0
0.017386913,2.0245154,-4.4034715,0.07049036,0.85400838,-0.51546162,0
-3.1428547,-1.0898366,-2.2231979,-0.79883605,-0.26114732,-0.54190683,0
0.32992649,-0.91385335,6.2910943,-0.07049036,-0.85400838,0.51546162,0
-2.9862676,3.8619449,-1.7700044,0.07049036,0.85400838,-0.51546162,0
1.6016102,-1.9035506,4.825285,-0.07049036,-0.85400838,0.51546162,0
-0.0058941841,-0.83398706,6.377491,-0.07049036,-0.85400838,0.51546162,0
5.4763112,0.39320183,-0.88088679,0.79883605,0.26114732,0.54190683,0
4.4427233,-0.56354451,-2.3987792,0.59740442,-0.44996858,-0.66380435,0
-1.1243496,-3.4869554,1.8291464,-0.07049036,-0.85400838,0.51546162,0
-3.0297871,-2.9432759,-1.4966929,-0.79883605,-0.26114732,-0.54190683,0
-1.4016029,1.559152,4.4608121,-0.59740442,0.44996858,0.66380435,0
1.9688118,2.3059564,-3.6703243,0.07049036,0.85400838,-0.51546162,0
-4.7565174,3.8511369,-0.11216474,-0.59740442,0.44996858,0.66380435,0
-3.7692492,0.14401579,3.289269,-0.59740442,0.44996858,0.66380435,0
-1.9734273,-1.7542772,-3.6268787,-0.79883605,-0.26114732,-0.54190683,0
-1.329566,-0.58287275,-5.1405125,-0.79883605,-0.26114732,-0.54190683,0
0.49843454,-2.9693701,2.908592,-0.07049036,-0.85400838,0.51546162,0
-5.4536166,-0.76754475,1.0278294,-0.79883605,-0.26114732,-0.54190683,0
4.4956403,2.7693491,-0.58033538,0.79883605,0.26114732,0.54190683,0
4.8273253,2.2404287,-3.3879824,0.07049036,0.85400838,-0.51546162,0
-0.79932213,-2.5686903,3.3949611,-0.07049036,-0.85400838,0.51546162,0
-1.619459,-2.8281927,-3.6311457,-0.79883605,-0.26114732,-0.54190683,0
-1.9552345,-4.9976339,-0.78734612,-0.07049036,-0.85400838,0.51546162,0
-0.77938533,-2.7973566,-4.8843756,-0.79883605,-0.26114732,-0.54190683,0
-2.6307857,1.0197859,3.7202005,-0.59740442,0.44996858,0.66380435,0
-4.6058698,0.22336721,-0.69937611,-0.79883605,-0.26114732,-0.54190683,0
-3.0715942,3.7715199,1.4581865,-0.59740442,0.44996858,0.66380435,0
-0.46409082,0.91535008,-6.3069615,0.07049036,0.85400838,-0.51546162,0
0.93028367,-3.6430392,-3.4723954,0.59740442,-0.44996858,-0.66380435,0
3.9312997,-4.5682235,0.72908831,-0.07049036,-0.85400838,0.51546162,0
-1.23734,3.6785536,-1.8346751,0.07049036,0.85400838,-0.51546162,0
-1.7448851,-3.3328784,-3.2030423,-0.79883605,-0.26114732,-0.54190683,0
-1.9412401,0.39677525,-4.7109284,-0.79883605,-0.26114732,-0.54190683,0
0.76204252,5.268786,1.0734154,0.07049036,0.85400838,-0.51546162,0
2.6268501,3.8691683,-0.99043286,0.07049036,0.85400838,-0.51546162,0
-5.0967674,-2.5642633,2.8146117,-0.07049036,-0.85400838,0.51546162,0
-5.0445466,0.89238596,1.6342461,-0.59740442,0.44996858,0.66380435,0
-1.566408,-2.590354,-3.8239651,-0.79883605,-0.26114732,-0.54190683,0
-0.41758451,3.2137487,4.2248096,-0.59740442,0.44996858,0.66380435,0
-0.28640223,-2.591589,3.427165,-0.07049036,-0.85400838,0.51546162,0
5.1086993,2.1742387,-3.4591668,0.07049036,0.85400838,-0.51546162,0
0.91361451,4.6634765,0.09127599,0.07049036,0.85400838,-0.51546162,0
4.7301631,-3.6892571,-0.021286249,0.59740442,-0.44996858,-0.66380435,0
2.402159,3.2837346,2.2578239,0.79883605,0.26114732,0.54190683,0
1.9081738,3.9056573,-1.0282588,0.07049036,0.85400838,-0.51546162,0
-2.246644,0.53665626,4.3934126,-0.59740442,0.44996858,0.66380435,0
0.41676736,-2.8213391,-4.4915457,0.59740442,-0.44996858,-0.66380435,0
0.45208931,4.570436,-0.1259864,0.07049036,0.85400838,-0.51546162,0
0.0050215721,-6.0590181,-2.6674011,0.59740442,-0.44996858,-0.66380435,0
-1.560111,-2.434392,3.5134249,-0.07049036,-0.85400838,0.51546162,0
-3.3419631,-3.9066882,0.830477,-0.07049036,-0.85400838,0.51546162,0
-0.5707376,-4.4546676,0.30156371,-0.07049036,-0.85400838,0.51546162,0
-4.8242168,-0.36171627,2.682646,-0.59740442,0.44996858,0.66380435,0
2.4502058,-2.0439057,-3.1885037,0.59740442,-0.44996858,-0.66380435,0
-1.2259502,1.2409203,-5.871748,0.07049036,0.85400838,-0.51546162,0
5.3225498,-4.4581137,1.0330248,0.59740442,-0.44996858,-0.66380435,0
-3.2210512,-3.8444791,-0.78045261,-0.79883605,-0.26114732,-0.54190683,0
-1.5481061,-5.3152723,-2.5377941,-0.79883605,-0.26114732,-0.54190683,0
0.49367833,-0.34247547,-6.1026583,0.59740442,-0.44996858,-0.66380435,0
2.6735764,3.5431201,1.7327229,0.79883605,0.26114732,0.54190683,0
3.8717029,-4.4494834,-0.27854562,0.59740442,-0.44996858,-0.66380435,0
-5.7096009,0.036967754,1.6155729,-0.59740442,0.44996858,0.66380435,0
-0.55667448,5.6650734,2.4379704,-0.59740442,0.44996858,0.66380435,0
1.4230386,-1.2051601,-4.681479,0.59740442,-0.44996858,-0.66380435,0
1.593408,-0.67407089,-4.8881574,0.59740442,-0.44996858,-0.66380435,0
4.1696811,-0.88097143,1.6592731,0.79883605,0.26114732,0.54190683,0
3.0748012,2.5290782,-3.1494136,0.07049036,0.85400838,-0.51546162,0
-1.2736083,-4.9126434,-3.1364655,-0.79883605,-0.26114732,-0.54190683,0
2.2313166,-4.0660672,1.3285767,-0.07049036,-0.85400838,0.51546162,0
2.3261676,-3.1311841,-2.5631087,0.59740442,-0.44996858,-0.66380435,0
3.9239292,1.5252979,0.86194932,0.79883605,0.26114732,0.54190683,0
-0.75504756,-4.0105219,-4.3356228,-0.79883605,-0.26114732,-0.54190683,0
-5.2088985,2.5960646,0.33147311,-0.59740442,0.44996858,0.66380435,0
-2.2257004,-4.6232638,-0.20408285,-0.07049036,-0.85400838,0.51546162,0
-3.914665,0.23842764,-1.7255529,-0.79883605,-0.26114732,-0.54190683,0
4.0021658,-2.4153934,2.6456563,0.79883605,0.26114732,0.54190683,0
-3.8853548,-1.7776096,4.2835894,-0.07049036,-0.85400838,0.51546162,0
-4.7722406,1.8897274,-1.2571505,-0.79883605,-0.26114732,-0.54190683,0
-1.3972464,-3.7887454,1.2918259,-0.07049036,-0.85400838,0.51546162,0
5.084229,-0.4799366,0.11785936,0.79883605,0.26114732,0.54190683,0
2.8176923,-0.86060476,-3.659893,0.59740442,-0.44996858,-0.66380435,0
4.4762549,2.8171792,-2.4804413,0.07049036,0.85400838,-0.51546162,0
2.4020879,-1.7934804,-3.4015625,0.59740442,-0.44996858,-0.66380435,0
-2.4636321,-0.067557573,4.6077042,-0.59740442,0.44996858,0.66380435,0
-5.67028,0.92016315,0.53390455,-0.79883605,-0.26114732,-0.54190683,0
-2.4935346,-2.0784662,3.9754698,-0.07049036,-0.85400838,0.51546162,0
-1.701124,-3.7689419,-3.0574107,-0.79883605,-0.26114732,-0.54190683,0
3.6009901,3.0738287,0.5917567,0.79883605,0.26114732,0.54190683,0
-0.24344301,-1.7622368,4.807097,-0.07049036,-0.85400838,0.51546162,0
-2.1334522,-2.250119,-3.1520345,-0.79883605,-0.26114732,-0.54190683,0
3.3224664,-3.9745226,-1.0948005,0.59740442,-0.44996858,-0.66380435,0
-2.6805718,2.210871,2.8680015,-0.59740442,0.44996858,0.66380435,0
0.97370183,5.2566738,3.4127741,0.79883605,0.26114732,0.54190683,0
-1.1604142,-0.23435384,5.8936267,-0.59740442,0.44996858,0.66380435,0
1.4023812,0.33782953,-5.7460065,0.59740442,-0.44996858,-0.66380435,0
-1.5400379,-0.20707208,5.5334835,-0.59740442,0.44996858,0.66380435,0
-2.5685077,2.0261192,-4.5714474,-0.79883605,-0.26114732,-0.54190683,0
2.8047588,4.1229401,1.2599266,0.79883605,0.26114732,0.54190683,0
4.2256827,3.6108978,-0.58793139,0.79883605,0.26114732,0.54190683,0
5.3469419,-0.89712143,-1.3588893,0.59740442,-0.44996858,-0.66380435,0
-4.204833,3.1265061,-2.6895885,-0.79883605,-0.26114732,-0.54190683,0
1.0546832,0.071974456,-5.8787107,0.59740442,-0.44996858,-0.66380435,0
0.0095863342,2.5116875,-3.5973997,0.07049036,0.85400838,-0.51546162,0
-1.7156587,1.2865398,-5.4722433,-0.79883605,-0.26114732,-0.54190683,0
1.8945689,-0.78870922,-4.539412,0.59740442,-0.44996858,-0.66380435,0
