-1.8726697,-2.6726379,-4.4184866,0.23282671,-0.64805096,-0.72513562,0
-6.2737761,2.1592958,0.58573341,-0.86730212,-0.47569016,0.146649,0
-0.8057487,5.5110478,-0.54650867,-0.43997589,0.59476781,-0.67280936,0
-5.9101,3.2685871,1.3869948,-0.23282671,0.64805096,0.72513562,0
0.63955355,0.028429627,-6.0257955,0.23282671,-0.64805096,-0.72513562,0
5.4839315,-0.91642904,-1.22545,0.86730212,0.47569016,-0.146649,0
4.8663731,-0.38498759,2.4225812,0.43997589,-0.59476781,0.67280936,0
2.9561498,-0.30208373,3.7450366,0.43997589,-0.59476781,0.67280936,0
4.0257664,3.3404772,4.5129576,-0.23282671,0.64805096,0.72513562,0
3.5912557,0.88247085,4.3768706,0.43997589,-0.59476781,0.67280936,0
-1.782896,-5.8312392,-1.5668316,0.23282671,-0.64805096,-0.72513562,0
-4.4910336,1.6724072,-1.529943,-0.43997589,0.59476781,-0.67280936,0
-3.5640638,2.3786459,-1.5118041,-0.43997589,0.59476781,-0.67280936,0
-4.9051933,-0.078816652,1.4198751,-0.86730212,-0.47569016,0.146649,0
2.9945145,4.0732269,0.23690844,0.86730212,0.47569016,-0.146649,0
-0.13973808,-5.1962147,1.4431132,0.43997589,-0.59476781,0.67280936,0
-0.35298538,4.1545758,2.3794701,-0.23282671,0.64805096,0.72513562,0
1.2693472,5.4762893,-1.9342201,-0.43997589,0.59476781,-0.67280936,0
5.8773813,-1.8643496,-1.9733377,0.86730212,0.47569016,-0.146649,0
-2.3315694,-4.1327567,3.490737,-0.86730212,-0.47569016,0.146649,0
2.6084521,-2.4109387,-3.2135663,0.23282671,-0.64805096,-0.72513562,0
-0.81510282,-6.5780101,0.66324353,0.43997589,-0.59476781,0.67280936,0
-0.30749846,-2.2516363,-4.2921891,0.23282671,-0.64805096,-0.72513562,0
4.3519564,1.8261919,0.97622514,0.86730212,0.47569016,-0.146649,0
5.690558,-0.56394672,1.139926,0.86730212,0.47569016,-0.146649,0
-0.2625165,3.5435724,-2.6410098,-0.43997589,0.59476781,-0.67280936,0
-3.7603822,-2.6930909,-5.0063148,0.23282671,-0.64805096,-0.72513562,0
0.40512371,-3.9578948,-2.5385029,0.23282671,-0.64805096,-0.72513562,0
3.9727509,1.021399,-3.8769815,0.86730212,0.47569016,-0.146649,0
-3.8423619,-0.93585229,4.9256086,-0.86730212,-0.47569016,0.146649,0
-5.3109779,0.89666653,2.184217,-0.86730212,-0.47569016,0.146649,0
2.3417869,5.0953355,-0.30796218,0.86730212,0.47569016,-0.146649,0
-0.95759583,2.9958916,3.2208536,-0.23282671,0.64805096,0.72513562,0
-3.3199928,-1.6666913,5.6443233,-0.86730212,-0.47569016,0.146649,0
0.84505129,0.47921479,5.8162384,0.43997589,-0.59476781,0.67280936,0
-2.6092591,-3.4090579,4.1959314,-0.86730212,-0.47569016,0.146649,0
-4.655725,-1.6489277,-4.358326,-0.43997589,0.59476781,-0.67280936,0
-1.7163775,5.8534336,0.35165823,-0.43997589,0.59476781,-0.67280936,0
-4.8006339,0.25671077,3.1266131,-0.86730212,-0.47569016,0.146649,0
-2.4064925,5.50913,0.50957012,-0.23282671,0.64805096,0.72513562,0
-2.5205312,-5.1162987,-0.81715453,-0.86730212,-0.47569016,0.146649,0
1.7038293,5.0042753,2.2804992,-0.23282671,0.64805096,0.72513562,0
-3.645925,4.6900759,0.58504725,-0.43997589,0.59476781,-0.67280936,0
-0.80042887,-0.91671002,-5.6434774,0.23282671,-0.64805096,-0.72513562,0
4.403348,0.67249751,-2.4621141,0.86730212,0.47569016,-0.146649,0
0.62819976,4.1847401,-2.6566873,-0.43997589,0.59476781,-0.67280936,0
-2.6620333,-4.7152805,-0.35322094,-0.86730212,-0.47569016,0.146649,0
1.5609846,-0.93660098,-4.8674979,0.23282671,-0.64805096,-0.72513562,0
-3.8103533,-0.95873344,5.0406895,-0.86730212,-0.47569016,0.146649,0
2.2252796,-0.25731987,-5.2612772,0.23282671,-0.64805096,-0.72513562,0
2.1494479,0.58366513,5.0555782,0.43997589,-0.59476781,0.67280936,0
-4.9803209,1.8401749,2.9620957,-0.23282671,0.64805096,0.72513562,0
-4.7289824,-1.9076779,-3.47033,-0.86730212,-0.47569016,0.146649,0
-2.9316676,0.11414355,5.162426,-0.23282671,0.64805096,0.72513562,0
-2.1685567,-4.9358721,1.8497275,-0.86730212,-0.47569016,0.146649,0
-0.49651766,-0.46159673,5.8618579,0.43997589,-0.59476781,0.67280936,0
-1.3088009,-3.4250994,3.7732859,0.43997589,-0.59476781,0.67280936,0
-0.93190956,0.94231361,5.0643759,-0.23282671,0.64805096,0.72513562,0
-3.3979166,-3.8392811,-1.863826,-0.86730212,-0.47569016,0.146649,0
-0.96923226,3.8413603,-1.9156148,-0.43997589,0.59476781,-0.67280936,0
2.6863968,-1.466276,-4.0327811,0.23282671,-0.64805096,-0.72513562,0
-5.7171845,2.6134822,0.10380125,-0.43997589,0.59476781,-0.67280936,0
5.0181756,-2.6450675,-2.2306123,0.23282671,-0.64805096,-0.72513562,0
1.1421514,2.1004319,4.6953101,-0.23282671,0.64805096,0.72513562,0
-0.29317904,-1.9999096,4.3690085,0.43997589,-0.59476781,0.67280936,0
-3.5046411,3.1509345,-0.86795473,-0.43997589,0.59476781,-0.67280936,0
1.4122381,0.32457739,-6.0423679,0.23282671,-0.64805096,-0.72513562,0
-3.6778097,-2.4832439,0.87947083,-0.86730212,-0.47569016,0.146649,0
-3.9360552,-2.5771329,-0.95238042,-0.86730212,-0.47569016,0.146649,0
4.9712687,0.41493177,0.061171532,0.86730212,0.47569016,-0.146649,0
-1.2431103,-2.7253799,4.3488846,0.43997589,-0.59476781,0.67280936,0
-1.7802382,1.2490232,4.517889,-0.23282671,0.64805096,0.72513562,0
-3.3177829,-2.8608658,-4.7142653,0.23282671,-0.64805096,-0.72513562,0
1.7727463,3.1423075,-4.3266673,-0.43997589,0.59476781,-0.67280936,0
-0.976601,-2.7771676,4.1288238,0.43997589,-0.59476781,0.67280936,0
-1.3170815,-0.30448782,-5.3530998,-0.43997589,0.59476781,-0.67280936,0
-1.1529083,0.41845894,-4.8213692,-0.43997589,0.59476781,-0.67280936,0
-4.8807201,-1.9262817,-4.4280672,-0.86730212,-0.47569016,0.146649,0
2.5856438,-0.44186807,3.8637545,0.43997589,-0.59476781,0.67280936,0
-5.4982305,1.0737772,1.6512794,-0.86730212,-0.47569016,0.146649,0
0.023193836,2.5120444,3.9681783,-0.23282671,0.64805096,0.72513562,0
3.8866606,0.97404492,-4.5397358,0.86730212,0.47569016,-0.146649,0
2.960681,4.2253771,0.53035069,0.86730212,0.47569016,-0.146649,0
2.2403059,4.5585575,-2.6492996,0.86730212,0.47569016,-0.146649,0
-2.9292278,3.1249688,-1.2671934,-0.43997589,0.59476781,-0.67280936,0
0.28010404,-2.871588,3.2235472,0.43997589,-0.59476781,0.67280936,0
-0.090215683,-6.5518174,-0.37936753,0.23282671,-0.64805096,-0.72513562,0
1.5817139,6.1846757,-1.2696114,0.86730212,0.47569016,-0.146649,0
-2.2058897,-1.3687255,-5.6907778,0.23282671,-0.64805096,-0.72513562,0
3.1183214,4.0985999,1.0514224,0.86730212,0.47569016,-0.146649,0
-5.3836875,2.8956444,1.8893137,-0.23282671,0.64805096,0.72513562,0
4.1012521,0.36706084,-5.2169456,0.23282671,-0.64805096,-0.72513562,0
-2.4841483,0.84183735,4.6557779,-0.23282671,0.64805096,0.72513562,0
3.9461758,2.8888083,2.0232246,0.86730212,0.47569016,-0.146649,0
2.3091044,3.3736606,-4.4728947,-0.43997589,0.59476781,-0.67280936,0
-4.5435762,-0.71997869,1.4787683,-0.86730212,-0.47569016,0.146649,0
-2.3595011,2.8835142,2.8711607,-0.23282671,0.64805096,0.72513562,0
-0.18278503,-0.030848742,-5.8529606,-0.43997589,0.59476781,-0.67280936,0
2.4589963,-2.2972133,2.306437,0.43997589,-0.59476781,0.67280936,0
4.5232334,-2.8195992,0.49476051,0.43997589,-0.59476781,0.67280936,0
1.0939381,5.5234566,-1.7778174,-0.43997589,0.59476781,-0.67280936,0
-1.9753814,-3.4894781,-3.721458,0.23282671,-0.64805096,-0.72513562,0
4.5676646,-2.0647967,-2.8938487,0.23282671,-0.64805096,-0.72513562,0
-1.5454459,-3.3413343,4.0020862,0.43997589,-0.59476781,0.67280936,0
4.1912832,2.7812071,3.1237972,0.86730212,0.47569016,-0.146649,0
-5.6438971,0.69794655,-0.42930603,-0.86730212,-0.47569016,0.146649,0
2.4700344,-4.3834071,0.4550097,0.43997589,-0.59476781,0.67280936,0
1.5072138,-2.5079203,2.742578,0.43997589,-0.59476781,0.67280936,0
-6.0080047,2.3711555,2.1575918,-0.23282671,0.64805096,0.72513562,0
2.1208067,-0.044841513,-5.4847121,0.23282671,-0.64805096,-0.72513562,0
2.5774965,3.6386845,-3.6389303,0.86730212,0.47569016,-0.146649,0
0.24943018,-0.69744444,5.1655631,0.43997589,-0.59476781,0.67280936,0
-1.7097082,-5.6508074,-1.7045839,0.23282671,-0.64805096,-0.72513562,0
-4.2011447,-1.6000451,0.6492548,-0.86730212,-0.47569016,0.146649,0
5.0855188,-0.65242434,-2.7253556,0.86730212,0.47569016,-0.146649,0
4.7873654,0.56784487,3.3165565,0.43997589,-0.59476781,0.67280936,0
-0.28243756,5.553627,-0.85108161,-0.43997589,0.59476781,-0.67280936,0
-0.20726514,-2.6568434,3.7320924,0.43997589,-0.59476781,0.67280936,0
-0.42282152,-1.6175243,-4.8959203,0.23282671,-0.64805096,-0.72513562,0
-3.3753386,-3.0433576,0.85146785,-0.86730212,-0.47569016,0.146649,0
-3.5618088,-0.14509177,-3.7442789,-0.43997589,0.59476781,-0.67280936,0
-1.1472669,0.83445042,5.0916262,-0.23282671,0.64805096,0.72513562,0
-6.1970005,2.9546473,1.5754437,-0.23282671,0.64805096,0.72513562,0
-4.5352755,-0.44317567,2.4257369,-0.86730212,-0.47569016,0.146649,0
-2.7037637,2.0322731,-2.3805833,-0.43997589,0.59476781,-0.67280936,0
-0.14941174,3.1342061,-3.0768559,-0.43997589,0.59476781,-0.67280936,0
4.9326973,-1.7755156,1.1499729,0.43997589,-0.59476781,0.67280936,0
2.6097741,4.4700603,-0.75127387,0.86730212,0.47569016,-0.146649,0
-2.4535797,2.5742435,-2.065083,-0.43997589,0.59476781,-0.67280936,0
2.9689164,4.8508534,2.8238068,-0.23282671,0.64805096,0.72513562,0
4.5685444,1.3784883,0.80492401,0.86730212,0.47569016,-0.146649,0
-1.7472895,2.8522451,-2.2811978,-0.43997589,0.59476781,-0.67280936,0
4.8859558,-0.13439822,-2.2252612,0.86730212,0.47569016,-0.146649,0
2.6347473,-0.4529506,-4.9549704,0.23282671,-0.64805096,-0.72513562,0
-5.3869052,0.91289949,1.7878275,-0.86730212,-0.47569016,0.146649,0
-2.5398281,-4.3997107,1.393142,-0.86730212,-0.47569016,0.146649,0
-2.8363926,4.8503785,0.96026063,-0.23282671,0.64805096,0.72513562,0
0.27680922,5.183423,1.662208,-0.23282671,0.64805096,0.72513562,0
-4.4580002,-2.1518955,-2.6598768,-0.86730212,-0.47569016,0.146649,0
1.4321413,2.9938428,3.9899819,-0.23282671,0.64805096,0.72513562,0
-4.7573376,2.5377634,-0.59081554,-0.43997589,0.59476781,-0.67280936,0
0.2198801,-0.03900969,-6.1002741,0.23282671,-0.64805096,-0.72513562,0
0.43230391,-0.40310884,5.3061695,0.43997589,-0.59476781,0.67280936,0
-0.74166441,4.6359701,-1.3619897,-0.43997589,0.59476781,-0.67280936,0
5.936554,-1.7734294,-1.3284583,0.86730212,0.47569016,-0.146649,0
-1.0235615,-0.048401833,-5.3186622,-0.43997589,0.59476781,-0.67280936,0
4.337698,1.1803465,-1.2030511,0.86730212,0.47569016,-0.146649,0
4.4096365,2.3388572,2.9803014,0.86730212,0.47569016,-0.146649,0
3.1860394,4.5046992,2.7691941,0.86730212,0.47569016,-0.146649,0
2.6514468,4.4394197,-0.60420609,0.86730212,0.47569016,-0.146649,0
1.9315499,-2.6812129,2.3118961,0.43997589,-0.59476781,0.67280936,0
4.0013437,1.91035,-0.82436013,0.86730212,0.47569016,-0.146649,0
-1.7631359,5.6839905,0.55986655,-0.23282671,0.64805096,0.72513562,0
0.38334441,6.2477617,-0.67284244,-0.43997589,0.59476781,-0.67280936,0
3.8173976,3.7210228,3.9610999,0.86730212,0.47569016,-0.146649,0
2.4637964,0.13423634,4.4527154,0.43997589,-0.59476781,0.67280936,0
-5.2835937,0.67521906,1.6278553,-0.86730212,-0.47569016,0.146649,0
-1.4553504,1.5746262,-3.601531,-0.43997589,0.59476781,-0.67280936,0
2.8174083,-4.3705196,0.23924112,0.43997589,-0.59476781,0.67280936,0
2.9123743,-0.47944939,-4.8421483,0.23282671,-0.64805096,-0.72513562,0
0.78336167,-2.4964447,3.2260768,0.43997589,-0.59476781,0.67280936,0
5.6447272,-2.1817119,0.32526875,0.43997589,-0.59476781,0.67280936,0
5.3847427,-2.0910168,-2.608068,0.23282671,-0.64805096,-0.72513562,0
1.5791221,6.4173002,-0.53036523,0.86730212,0.47569016,-0.146649,0
1.7983,5.8660517,-1.0222194,0.86730212,0.47569016,-0.146649,0
-2.0048051,-2.1698294,-4.9102712,0.23282671,-0.64805096,-0.72513562,0
0.89587021,-3.3685668,-2.9076145,0.23282671,-0.64805096,-0.72513562,0
-1.3570305,-4.2413774,3.08323,0.43997589,-0.59476781,0.67280936,0
5.1303535,1.0576317,3.0867662,0.86730212,0.47569016,-0.146649,0
-0.30236053,-4.7740741,-2.0362456,0.23282671,-0.64805096,-0.72513562,0
-0.70024145,4.4180598,-1.5817122,-0.43997589,0.59476781,-0.67280936,0
3.6295283,2.7437925,-0.31986046,0.86730212,0.47569016,-0.146649,0
-5.8737669,1.838516,1.910913,-0.86730212,-0.47569016,0.146649,0
-4.8992023,-0.26185989,0.86156511,-0.86730212,-0.47569016,0.146649,0
-3.8808589,-2.0558221,1.0650523,-0.86730212,-0.47569016,0.146649,0
2.7861838,-0.89028382,3.3362112,0.43997589,-0.59476781,0.67280936,0
-2.9956183,-1.4049437,-5.22825,-0.43997589,0.59476781,-0.67280936,0
4.0746489,-3.386811,-1.8706667,0.23282671,-0.64805096,-0.72513562,0
1.684516,6.0577073,-1.0734748,0.86730212,0.47569016,-0.146649,0
3.8478503,3.3974915,3.0917521,0.86730212,0.47569016,-0.146649,0
-3.6318319,-0.85505199,5.8037834,-0.23282671,0.64805096,0.72513562,0
2.240984,-5.5328145,-0.54154444,0.23282671,-0.64805096,-0.72513562,0
-2.6798294,5.0342541,0.84620166,-0.23282671,0.64805096,0.72513562,0
-3.7081728,-1.0864465,5.2307358,-0.86730212,-0.47569016,0.146649,0
-1.9571733,-2.1386852,-4.9228106,0.23282671,-0.64805096,-0.72513562,0
1.4501185,-1.2952956,-4.5825305,0.23282671,-0.64805096,-0.72513562,0
-3.1302385,-3.8332763,-0.26126504,-0.86730212,-0.47569016,0.146649,0
0.68281555,-3.7664371,-2.6204472,0.23282671,-0.64805096,-0.72513562,0
-3.3860645,-3.0585096,0.73888183,-0.86730212,-0.47569016,0.146649,0
2.7226555,-2.0787599,-3.4737649,0.23282671,-0.64805096,-0.72513562,0
2.661494,-3.3010614,1.2866075,0.43997589,-0.59476781,0.67280936,0
2.3298831,-2.6629596,2.0675468,0.43997589,-0.59476781,0.67280936,0
-2.6372051,-5.1615973,-1.6541175,-0.86730212,-0.47569016,0.146649,0
-3.3612099,-2.8397439,1.595494,-0.86730212,-0.47569016,0.146649,0
0.79714441,4.8396125,2.1365399,-0.23282671,0.64805096,0.72513562,0
-4.4118853,-0.94269729,-3.8934703,-0.43997589,0.59476781,-0.67280936,0
4.8458824,-3.0480678,0.081799984,0.43997589,-0.59476781,0.67280936,0
-5.021306,0.47733688,2.5371838,-0.86730212,-0.47569016,0.146649,0
4.7717094,1.5872648,4.2279687,0.43997589,-0.59476781,0.67280936,0
-4.4564528,-0.6653651,2.1711802,-0.86730212,-0.47569016,0.146649,0
-1.57054,-1.1751552,5.9334121,0.43997589,-0.59476781,0.67280936,0
5.6773782,-1.4114044,-1.6869483,0.86730212,0.47569016,-0.146649,0
-0.86930919,5.4140911,-0.59065425,-0.43997589,0.59476781,-0.67280936,0
-4.1587753,-2.9349968,-3.4303939,-0.86730212,-0.47569016,0.146649,0
4.0085902,2.1723595,0.06838274,0.86730212,0.47569016,-0.146649,0
-3.1253443,3.2350636,2.3110857,-0.23282671,0.64805096,0.72513562,0
-3.7708588,-0.59578967,-4.0059934,-0.43997589,0.59476781,-0.67280936,0
-3.8776259,-3.2100251,-2.6597557,-0.86730212,-0.47569016,0.146649,0
-1.8731496,3.5901277,2.3958206,-0.23282671,0.64805096,0.72513562,0
0.45418024,4.2663465,2.5387459,-0.23282671,0.64805096,0.72513562,0
-3.4550548,-1.9064659,4.0677862,-0.86730212,-0.47569016,0.146649,0
3.3189511,-2.0827839,1.9336363,0.43997589,-0.59476781,0.67280936,0
4.186069,-0.97864056,2.3426652,0.43997589,-0.59476781,0.67280936,0
5.6312628,-1.6945059,-2.8779874,0.86730212,0.47569016,-0.146649,0
1.9272115,5.802495,-0.46598184,0.86730212,0.47569016,-0.146649,0
-0.87349606,-1.5446713,-5.1057315,0.23282671,-0.64805096,-0.72513562,0
-4.5809069,3.0272965,2.0294137,-0.23282671,0.64805096,0.72513562,0
-4.1842742,-2.8059564,-5.0415511,0.23282671,-0.64805096,-0.72513562,0
3.0343709,3.8634887,-0.20770693,0.86730212,0.47569016,-0.146649,0
4.0867391,-1.4828753,1.9618738,0.43997589,-0.59476781,0.67280936,0
-2.5781221,-3.2139301,4.7900186,0.43997589,-0.59476781,0.67280936,0
-4.2516246,-0.74823785,3.1137466,-0.86730212,-0.47569016,0.146649,0
-3.0290077,-0.72906804,5.884747,-0.23282671,0.64805096,0.72513562,0
-5.5434427,1.8115492,-0.71872997,-0.43997589,0.59476781,-0.67280936,0
-3.9979587,-3.1716933,-3.2470818,-0.86730212,-0.47569016,0.146649,0
-0.10986328,-0.2892766,5.761342,0.43997589,-0.59476781,0.67280936,0
-3.5312824,-2.8023856,0.71084023,-0.86730212,-0.47569016,0.146649,0
-1.3381748,4.5448103,-1.0524944,-0.43997589,0.59476781,-0.67280936,0
1.3536801,6.2773533,1.0303285,-0.23282671,0.64805096,0.72513562,0
1.5257442,-3.5642717,-2.5304735,0.23282671,-0.64805096,-0.72513562,0
4.5755978,-2.9687967,0.32862568,0.43997589,-0.59476781,0.67280936,0
2.4857082,2.8291264,-5.0697546,-0.43997589,0.59476781,-0.67280936,0
4.3376818,-0.3418529,2.8064437,0.43997589,-0.59476781,0.67280936,0
-4.4094343,-2.5533206,-3.6747689,-0.86730212,-0.47569016,0.146649,0
-4.3695459,-2.6411088,-5.2483621,0.23282671,-0.64805096,-0.72513562,0
-2.9493332,-3.7630658,-3.7896705,0.23282671,-0.64805096,-0.72513562,0
-1.7779529,5.8570971,0.3951633,-0.43997589,0.59476781,-0.67280936,0
1.8209653,1.6377432,-5.6882439,-0.43997589,0.59476781,-0.67280936,0
-1.1199787,-6.0891962,1.2947283,0.43997589,-0.59476781,0.67280936,0
2.3361058,0.83421659,5.1550045,0.43997589,-0.59476781,0.67280936,0
-2.5679264,4.3909264,-0.38434744,-0.43997589,0.59476781,-0.67280936,0
2.4614174,4.9431043,-0.094248772,0.86730212,0.47569016,-0.146649,0
3.8588998,-3.7830389,0.077506781,0.43997589,-0.59476781,0.67280936,0
2.2341967,-2.7494626,2.0536509,0.43997589,-0.59476781,0.67280936,0
-3.9576678,-1.7302163,1.6669703,-0.86730212,-0.47569016,0.146649,0
4.9846506,0.89324808,1.6918457,0.86730212,0.47569016,-0.146649,0
-1.9380889,-5.843524,0.26856184,-0.86730212,-0.47569016,0.146649,0
5.4602685,-0.99540615,-1.6215792,0.86730212,0.47569016,-0.146649,0
1.2664528,-2.5727243,-3.4998689,0.23282671,-0.64805096,-0.72513562,0
1.7856159,0.88136673,5.5566711,0.43997589,-0.59476781,0.67280936,0
1.8097067,0.15477371,-5.7629957,0.23282671,-0.64805096,-0.72513562,0
6.4718142,-2.9534121,-1.4883113,0.23282671,-0.64805096,-0.72513562,0
2.6920314,3.1680932,4.2387805,-0.23282671,0.64805096,0.72513562,0
-4.2072663,-1.5547706,0.75990963,-0.86730212,-0.47569016,0.146649,0
4.5680408,1.9822408,2.76036,0.86730212,0.47569016,-0.146649,0
-4.3338532,3.8626955,1.3621449,-0.23282671,0.64805096,0.72513562,0
-6.3039474,2.5941329,1.8177862,-0.86730212,-0.47569016,0.146649,0
2.6950378,4.6339278,2.9297349,-0.23282671,0.64805096,0.72513562,0
-0.056680202,0.44145942,5.7930064,-0.23282671,0.64805096,0.72513562,0
3.5505137,2.9122286,-0.24080396,0.86730212,0.47569016,-0.146649,0
-3.6074858,-2.6510942,0.75091457,-0.86730212,-0.47569016,0.146649,0
-2.3699822,4.3940978,-0.51098704,-0.43997589,0.59476781,-0.67280936,0
-0.89143229,-0.69004506,5.9181581,0.43997589,-0.59476781,0.67280936,0
4.9118176,0.45632982,-0.15614939,0.86730212,0.47569016,-0.146649,0
-1.8073125,-5.5742702,1.9153795,-0.86730212,-0.47569016,0.146649,0
-5.4790778,1.4215105,-1.1056166,-0.43997589,0.59476781,-0.67280936,0
-0.8940382,-6.2062397,1.04351,0.43997589,-0.59476781,0.67280936,0
3.6609631,3.4130909,2.0370741,0.86730212,0.47569016,-0.146649,0
1.8212667,-0.72482228,4.1134768,0.43997589,-0.59476781,0.67280936,0
2.7479589,2.1004338,-5.8854194,-0.43997589,0.59476781,-0.67280936,0
-2.4281874,4.4679499,-0.40763879,-0.43997589,0.59476781,-0.67280936,0
-0.83277273,5.1807628,1.3083208,-0.23282671,0.64805096,0.72513562,0
-3.7464848,-1.4569565,3.8023186,-0.86730212,-0.47569016,0.146649,0
-3.85498,4.1723366,1.239177,-0.23282671,0.64805096,0.72513562,0
-5.622828,0.88527322,-1.4856496,-0.43997589,0.59476781,-0.67280936,0
3.6169384,2.3021708,-1.8268247,0.86730212,0.47569016,-0.146649,0
-5.9499531,2.115176,2.3577499,-0.86730212,-0.47569016,0.146649,0
-4.1634188,-1.9261944,-0.18556786,-0.86730212,-0.47569016,0.146649,0
2.106113,0.9876796,5.4410677,0.43997589,-0.59476781,0.67280936,0
3.2120667,-4.8464775,-0.43959069,0.43997589,-0.59476781,0.67280936,0
0.049269676,4.531219,2.1720219,-0.23282671,0.64805096,0.72513562,0
1.2458754,5.5696812,1.6281582,-0.23282671,0.64805096,0.72513562,0
-3.3842573,-0.013489068,5.1311731,-0.23282671,0.64805096,0.72513562,0
-1.5770679,-4.2398567,-2.9229574,0.23282671,-0.64805096,-0.72513562,0
-2.6879253,-5.108819,-1.7828844,-0.86730212,-0.47569016,0.146649,0
2.4388142,4.4874825,-1.7058437,0.86730212,0.47569016,-0.146649,0
-4.3045735,-2.7314453,-3.6323977,-0.86730212,-0.47569016,0.146649,0
0.38117981,4.0519085,2.7069497,-0.23282671,0.64805096,0.72513562,0
3.4904835,-2.4839804,-2.865087,0.23282671,-0.64805096,-0.72513562,0
4.452795,1.7146894,1.2109129,0.86730212,0.47569016,-0.146649,0
-5.7438922,2.8529918,1.8117776,-0.23282671,0.64805096,0.72513562,0
3.1206779,3.6078358,-0.52654648,0.86730212,0.47569016,-0.146649,0
-1.7914432,-2.7534051,4.6826868,0.43997589,-0.59476781,0.67280936,0
-0.21668768,0.3773309,-5.4699569,-0.43997589,0.59476781,-0.67280936,0
2.7709017,-4.4084945,0.23608398,0.43997589,-0.59476781,0.67280936,0
3.4057465,2.9415731,4.6703806,-0.23282671,0.64805096,0.72513562,0
4.3355517,2.3751688,2.65994,0.86730212,0.47569016,-0.146649,0
-2.0550749,0.31666088,5.2628932,-0.23282671,0.64805096,0.72513562,0
-2.0104764,-5.5504169,0.7912153,-0.86730212,-0.47569016,0.146649,0
-3.7618737,1.7819252,-1.9099536,-0.43997589,0.59476781,-0.67280936,0
0.63554382,-4.0329409,-2.3974509,0.23282671,-0.64805096,-0.72513562,0
3.8136976,-1.5801201,2.0544608,0.43997589,-0.59476781,0.67280936,0
-5.8915453,1.0019934,-0.90768147,-0.86730212,-0.47569016,0.146649,0
1.4169736,6.0085478,1.2908812,-0.23282671,0.64805096,0.72513562,0
2.7193558,-0.67870432,-4.7260494,0.23282671,-0.64805096,-0.72513562,0
0.46224594,0.47446489,-5.8280711,-0.43997589,0.59476781,-0.67280936,0
5.8027639,-1.1753294,-0.17963743,0.86730212,0.47569016,-0.146649,0
5.041934,-0.034928083,-0.98012972,0.86730212,0.47569016,-0.146649,0
-1.6106553,3.4007323,2.6493645,-0.23282671,0.64805096,0.72513562,0
5.5914636,-2.3905976,0.1754446,0.43997589,-0.59476781,0.67280936,0
3.0223961,-4.7805681,-0.2572937,0.43997589,-0.59476781,0.67280936,0
1.7281439,6.1261778,-0.59335244,0.86730212,0.47569016,-0.146649,0
-0.75969696,1.6110089,4.5220599,-0.23282671,0.64805096,0.72513562,0
-3.503232,-2.3558142,2.3252928,-0.86730212,-0.47569016,0.146649,0
5.3366718,-1.5855062,-3.0752749,0.23282671,-0.64805096,-0.72513562,0
4.191082,-0.8176136,-4.1293645,0.23282671,-0.64805096,-0.72513562,0
-1.1253796,5.2207556,-0.59410977,-0.43997589,0.59476781,-0.67280936,0
0.62978745,-3.9964151,-2.431942,0.23282671,-0.64805096,-0.72513562,0
2.6119812,-1.0185862,-4.4567738,0.23282671,-0.64805096,-0.72513562,0
1.0385404,1.1809062,5.4838195,-0.23282671,0.64805096,0.72513562,0
2.1577981,-4.1752453,-1.7815086,0.23282671,-0.64805096,-0.72513562,0
-1.445415,5.9410925,0.43210959,-0.23282671,0.64805096,0.72513562,0
-1.5930929,-1.0307848,-5.7960377,0.23282671,-0.64805096,-0.72513562,0
-0.60938311,6.4092875,0.11913031,-0.43997589,0.59476781,-0.67280936,0
4.6186943,-0.20035982,-4.0198436,0.86730212,0.47569016,-0.146649,0
4.6974063,-2.2899606,-2.6509624,0.23282671,-0.64805096,-0.72513562,0
-6.1569595,2.6684763,1.8440514,-0.23282671,0.64805096,0.72513562,0
4.2492533,1.9065427,0.62946248,0.86730212,0.47569016,-0.146649,0
1.8997438,4.9222507,-2.8362343,-0.43997589,0.59476781,-0.67280936,0
6.2315946,-2.2250354,-1.0484395,0.86730212,0.47569016,-0.146649,0
1.8924496,-1.1030267,-4.6123366,0.23282671,-0.64805096,-0.72513562,0
-3.7072725,-1.6047854,3.554708,-0.86730212,-0.47569016,0.146649,0
-0.21397591,4.9922471,1.6754798,-0.23282671,0.64805096,0.72513562,0
0.49125004,2.070874,-4.435802,-0.43997589,0.59476781,-0.67280936,0
3.7806115,-3.838798,-1.561137,0.23282671,-0.64805096,-0.72513562,0
4.537981,-0.16882992,-4.394918,0.86730212,0.47569016,-0.146649,0
2.9620557,4.8126154,2.4433198,0.86730212,0.47569016,-0.146649,0
5.3389368,-2.3015492,-2.4346232,0.23282671,-0.64805096,-0.72513562,0
4.1826477,0.63499522,-3.8890138,0.86730212,0.47569016,-0.146649,0
0.44873834,-4.9284821,1.2949634,0.43997589,-0.59476781,0.67280936,0
-1.8761895,4.2588439,-0.95346284,-0.43997589,0.59476781,-0.67280936,0
-3.505403,-1.7701094,4.2123232,-0.86730212,-0.47569016,0.146649,0
-1.0301836,-6.2889299,1.0594425,0.43997589,-0.59476781,0.67280936,0
4.4761171,-3.5154102,-1.6268344,0.23282671,-0.64805096,-0.72513562,0
2.7232616,-3.1924233,-2.4782934,0.23282671,-0.64805096,-0.72513562,0
5.192111,-0.85464907,-2.7509217,0.86730212,0.47569016,-0.146649,0
1.9558582,1.0017968,5.551805,0.43997589,-0.59476781,0.67280936,0
-4.9235892,0.25177455,2.3834291,-0.86730212,-0.47569016,0.146649,0
0.92733335,-5.9163766,-0.62054348,0.23282671,-0.64805096,-0.72513562,0
-1.3329458,-5.501967,1.9531105,0.43997589,-0.59476781,0.67280936,0
-3.7815795,2.0385897,-1.6701744,-0.43997589,0.59476781,-0.67280936,0
4.3657928,0.6904707,-2.6259193,0.86730212,0.47569016,-0.146649,0
4.0134535,0.86912221,-4.1302061,0.86730212,0.47569016,-0.146649,0
-2.8838196,0.64380872,4.7044287,-0.23282671,0.64805096,0.72513562,0
2.9050701,-0.1144622,-5.170681,0.23282671,-0.64805096,-0.72513562,0
0.97910547,4.2651782,2.7083335,-0.23282671,0.64805096,0.72513562,0
3.2917128,1.3366132,4.9742179,0.43997589,-0.59476781,0.67280936,0
-2.8329334,-2.7540278,4.9978309,-0.86730212,-0.47569016,0.146649,0
-2.9089825,-2.8513837,4.2322698,-0.86730212,-0.47569016,0.146649,0
0.57321024,2.3903284,4.2535548,-0.23282671,0.64805096,0.72513562,0
-5.8640652,0.85645771,-1.3533692,-0.43997589,0.59476781,-0.67280936,0
3.7014873,-2.3946619,-2.8771613,0.23282671,-0.64805096,-0.72513562,0
4.8046584,0.39156961,-0.99996662,0.86730212,0.47569016,-0.146649,0
1.0674604,-4.6073918,1.1742029,0.43997589,-0.59476781,0.67280936,0
2.0621719,-3.1953712,-2.687922,0.23282671,-0.64805096,-0.72513562,0
-5.9932551,2.7511106,1.822763,-0.23282671,0.64805096,0.72513562,0
-1.7205788,-2.410753,4.9392514,0.43997589,-0.59476781,0.67280936,0
1.6051564,-5.9150357,-0.40410638,0.23282671,-0.64805096,-0.72513562,0
-1.3809018,4.9053459,-0.70583802,-0.43997589,0.59476781,-0.67280936,0
0.85255235,-3.7744689,2.051049,0.43997589,-0.59476781,0.67280936,0
-0.606426,5.5380354,-0.65299636,-0.43997589,0.59476781,-0.67280936,0
4.3729267,0.25043619,-4.0110836,0.86730212,0.47569016,-0.146649,0
-5.8842025,2.4467404,0.065619469,-0.43997589,0.59476781,-0.67280936,0
4.7719011,-2.2847877,0.80492401,0.43997589,-0.59476781,0.67280936,0
1.2914882,-2.3523824,3.0211453,0.43997589,-0.59476781,0.67280936,0
-2.0714822,5.3391829,0.76901615,-0.23282671,0.64805096,0.72513562,0
3.1306148,-1.2647023,-4.0702972,0.23282671,-0.64805096,-0.72513562,0
-2.6525946,-4.1330276,1.5912743,-0.86730212,-0.47569016,0.146649,0
5.8925533,-1.8364213,0.46844578,0.43997589,-0.59476781,0.67280936,0
3.1067493,-3.7420712,0.60558248,0.43997589,-0.59476781,0.67280936,0
2.727421,-1.7769011,-3.7420049,0.23282671,-0.64805096,-0.72513562,0
-1.1724977,5.2825546,1.1082704,-0.23282671,0.64805096,0.72513562,0
4.3855286,-1.5086176,1.7437267,0.43997589,-0.59476781,0.67280936,0
2.4267063,-3.2576447,1.4785248,0.43997589,-0.59476781,0.67280936,0
4.8454657,2.0210919,4.5271091,0.86730212,0.47569016,-0.146649,0
-6.0511518,2.6397693,0.34543324,-0.43997589,0.59476781,-0.67280936,0
-4.6748204,-0.11967635,2.649796,-0.86730212,-0.47569016,0.146649,0
-2.7975407,-4.016026,-3.5148635,0.23282671,-0.64805096,-0.72513562,0
5.8183742,-1.5667801,-1.3570757,0.86730212,0.47569016,-0.146649,0
-4.4452176,-0.0093346834,4.3656144,-0.86730212,-0.47569016,0.146649,0
-1.3413037,-4.3902259,2.9413624,0.43997589,-0.59476781,0.67280936,0
-4.2363114,-2.5893126,-2.7676451,-0.86730212,-0.47569016,0.146649,0
4.0406137,-0.70783782,2.6771746,0.43997589,-0.59476781,0.67280936,0
-2.4163327,4.5670991,1.3482997,-0.23282671,0.64805096,0.72513562,0
-0.61433101,1.8337902,-3.9224033,-0.43997589,0.59476781,-0.67280936,0
3.8394444,-2.2587292,1.4377296,0.43997589,-0.59476781,0.67280936,0
0.73230958,5.8809471,-1.2253108,-0.43997589,0.59476781,-0.67280936,0
-0.096686974,-3.7007282,2.7369802,0.43997589,-0.59476781,0.67280936,0
-0.78782523,-5.0883956,1.9622352,0.43997589,-0.59476781,0.67280936,0
-0.29743528,-5.5707588,1.2151382,0.43997589,-0.59476781,0.67280936,0
2.602788,-2.0290427,-3.556684,0.23282671,-0.64805096,-0.72513562,0
2.5512624,-4.9283257,-0.9821496,0.23282671,-0.64805096,-0.72513562,0
4.1590142,2.4171116,5.3622236,0.43997589,-0.59476781,0.67280936,0
3.2563286,1.8345537,-5.4763436,0.86730212,0.47569016,-0.146649,0
0.28182507,4.8305354,1.979193,-0.23282671,0.64805096,0.72513562,0
-3.745436,-3.1010523,-1.5244882,-0.86730212,-0.47569016,0.146649,0
1.8934722,-0.39561701,4.3572779,0.43997589,-0.59476781,0.67280936,0
-5.8653393,1.4775841,0.78999281,-0.86730212,-0.47569016,0.146649,0
3.655565,0.71706104,4.1885929,0.43997589,-0.59476781,0.67280936,0
0.39834595,-0.29620945,-5.8131132,0.23282671,-0.64805096,-0.72513562,0
-1.8798022,-4.7091465,-2.6007571,0.23282671,-0.64805096,-0.72513562,0
-6.1031885,2.8742697,1.6773992,-0.23282671,0.64805096,0.72513562,0
-1.0458367,-6.5864334,0.80668318,0.43997589,-0.59476781,0.67280936,0
-2.4244084,-4.0823359,3.105227,-0.86730212,-0.47569016,0.146649,0
-0.019948781,-3.8191552,2.5821083,0.43997589,-0.59476781,0.67280936,0
-3.6965137,-3.8694072,-3.9345388,0.23282671,-0.64805096,-0.72513562,0
-3.5178003,0.24408555,-3.4290226,-0.43997589,0.59476781,-0.67280936,0
-0.064789295,0.22278249,5.9858332,-0.23282671,0.64805096,0.72513562,0
-3.400079,-2.9683602,0.94841719,-0.86730212,-0.47569016,0.146649,0
2.5273848,-0.13312459,4.1747837,0.43997589,-0.59476781,0.67280936,0
1.9648299,6.0055723,0.41522694,0.86730212,0.47569016,-0.146649,0
0.38505524,-4.0603628,2.1040311,0.43997589,-0.59476781,0.67280936,0
-3.9509971,-0.093722105,-3.4443629,-0.43997589,0.59476781,-0.67280936,0
-0.21619272,2.0216129,-4.0167251,-0.43997589,0.59476781,-0.67280936,0
3.4233747,2.0537806,-3.7772965,0.86730212,0.47569016,-0.146649,0
-3.8615208,-2.3998399,0.063518286,-0.86730212,-0.47569016,0.146649,0
-0.7595911,-5.82654,-1.2424685,0.23282671,-0.64805096,-0.72513562,0
-1.5599108,-4.9925232,-2.2447925,0.23282671,-0.64805096,-0.72513562,0
-3.2139416,-3.1927521,1.3213937,-0.86730212,-0.47569016,0.146649,0
1.4721446,5.5965338,1.6768112,-0.23282671,0.64805096,0.72513562,0
5.5789299,-1.6949866,-2.8996482,0.23282671,-0.64805096,-0.72513562,0
-1.1588154,4.9664111,1.3952003,-0.23282671,0.64805096,0.72513562,0
-4.1180563,-2.4982934,-1.7730253,-0.86730212,-0.47569016,0.146649,0
5.153142,1.0924075,3.3343446,0.86730212,0.47569016,-0.146649,0
0.61853814,1.6790402,-4.8654242,-0.43997589,0.59476781,-0.67280936,0
-3.2680328,1.2561121,-2.6977167,-0.43997589,0.59476781,-0.67280936,0
-5.789979,1.0074108,-0.289433,-0.86730212,-0.47569016,0.146649,0
-3.7143807,-1.7636368,2.9973946,-0.86730212,-0.47569016,0.146649,0
-4.5018477,-1.8882487,-2.0639963,-0.86730212,-0.47569016,0.146649,0
2.3659432,-3.4126978,1.3811924,0.43997589,-0.59476781,0.67280936,0
-3.7229066,2.2916968,2.9623032,-0.23282671,0.64805096,0.72513562,0
3.0192044,4.0885587,0.43266106,0.86730212,0.47569016,-0.146649,0
-5.4437199,0.20663643,-0.83911133,-0.86730212,-0.47569016,0.146649,0
-2.0209932,0.52268052,-4.1615624,-0.43997589,0.59476781,-0.67280936,0
-4.5191383,-1.9984483,-2.5237145,-0.86730212,-0.47569016,0.146649,0
0.94435024,0.83788657,-5.8220706,-0.43997589,0.59476781,-0.67280936,0
-2.2338343,-5.4346333,-2.0660644,0.23282671,-0.64805096,-0.72513562,0
0.19315434,-2.6851754,3.4451971,0.43997589,-0.59476781,0.67280936,0
-5.9411535,1.0453539,-1.0604219,-0.86730212,-0.47569016,0.146649,0
5.586019,-1.5263984,-2.6002698,0.86730212,0.47569016,-0.146649,0
-5.4335074,-0.016607761,-1.5028577,-0.86730212,-0.47569016,0.146649,0
1.4296551,-6.014771,-0.30678225,0.43997589,-0.59476781,0.67280936,0
-0.67458606,5.5158873,-0.62800306,-0.43997589,0.59476781,-0.67280936,0
-1.7163613,1.7935271,-3.2373362,-0.43997589,0.59476781,-0.67280936,0
-4.9772859,3.9633825,1.065568,-0.23282671,0.64805096,0.72513562,0
-5.1905069,2.7122476,-0.1533041,-0.43997589,0.59476781,-0.67280936,0
1.419745,3.3347797,3.6813078,-0.23282671,0.64805096,0.72513562,0
-5.7233348,1.2830896,0.99893522,-0.86730212,-0.47569016,0.146649,0
-1.7384031,3.1079087,-2.0610006,-0.43997589,0.59476781,-0.67280936,0
2.4164333,-4.3560596,0.51423717,0.43997589,-0.59476781,0.67280936,0
5.8094268,-2.2931139,-2.2910967,0.23282671,-0.64805096,-0.72513562,0
2.9079118,1.6302083,-6.4057016,-0.43997589,0.59476781,-0.67280936,0
-1.8492365,-4.8333597,-2.479934,0.23282671,-0.64805096,-0.72513562,0
4.038619,2.7404175,2.0886106,0.86730212,0.47569016,-0.146649,0
0.031767845,4.649725,2.0604937,-0.23282671,0.64805096,0.72513562,0
2.4379306,4.1081996,3.3170245,-0.23282671,0.64805096,0.72513562,0
1.7510645,-3.3066227,-2.6883874,0.23282671,-0.64805096,-0.72513562,0
-2.8135176,-4.0800233,0.81148553,-0.86730212,-0.47569016,0.146649,0
-5.7865186,3.5515103,0.97836494,-0.43997589,0.59476781,-0.67280936,0
2.0416193,5.3983459,2.0367775,-0.23282671,0.64805096,0.72513562,0
4.6661325,1.2566071,0.9867239,0.86730212,0.47569016,-0.146649,0
1.0058327,3.4055314,3.485178,-0.23282671,0.64805096,0.72513562,0
-0.95390272,-0.82773912,5.8372879,0.43997589,-0.59476781,0.67280936,0
-2.1771989,3.7507739,-1.205758,-0.43997589,0.59476781,-0.67280936,0
3.2018743,2.1767049,5.2884812,-0.23282671,0.64805096,0.72513562,0
1.8851626,-4.863421,-1.2540265,0.23282671,-0.64805096,-0.72513562,0
-4.5965657,-2.4213781,-4.3534989,-0.86730212,-0.47569016,0.146649,0
-2.7090371,-4.3715334,0.48381376,-0.86730212,-0.47569016,0.146649,0
0.42980909,2.3298316,-4.1667032,-0.43997589,0.59476781,-0.67280936,0
1.8818698,5.8242865,-0.66345012,0.86730212,0.47569016,-0.146649,0
3.464011,3.691721,1.7760725,0.86730212,0.47569016,-0.146649,0
-5.1325412,2.9408569,0.010881901,-0.43997589,0.59476781,-0.67280936,0
-4.6027803,3.6468325,1.4687133,-0.23282671,0.64805096,0.72513562,0
-4.6489177,-0.084117174,2.9183311,-0.86730212,-0.47569016,0.146649,0
4.5746107,0.044321775,-3.4868793,0.86730212,0.47569016,-0.146649,0
-3.5053945,2.4217122,-1.5120993,-0.43997589,0.59476781,-0.67280936,0
-3.4858878,-0.071957111,-3.729275,-0.43997589,0.59476781,-0.67280936,0
4.7728777,-1.6219177,-3.2237573,0.23282671,-0.64805096,-0.72513562,0
-1.5095352,4.4343958,-1.0380428,-0.43997589,0.59476781,-0.67280936,0
5.8673186,-1.8731587,-2.06142,0.86730212,0.47569016,-0.146649,0
2.1736021,3.6350944,-4.1531754,-0.43997589,0.59476781,-0.67280936,0
1.6394014,6.5453706,0.24155772,0.86730212,0.47569016,-0.146649,0
-4.5617671,2.97651,-0.33085108,-0.43997589,0.59476781,-0.67280936,0
3.6810999,2.1217856,-2.0324836,0.86730212,0.47569016,-0.146649,0
3.1476636,3.0829735,-2.0694635,0.86730212,0.47569016,-0.146649,0
-3.9106464,-1.480847,2.7539492,-0.86730212,-0.47569016,0.146649,0
-4.4879127,-1.3077891,-0.098725796,-0.86730212,-0.47569016,0.146649,0
5.4703736,-2.1597328,-2.5191617,0.23282671,-0.64805096,-0.72513562,0
-0.64639616,-5.3824463,-1.6030087,0.23282671,-0.64805096,-0.72513562,0
-4.1218839,1.6147712,3.4391656,-0.23282671,0.64805096,0.72513562,0
-0.20323348,4.8395042,-1.5341651,-0.43997589,0.59476781,-0.67280936,0
5.3449054,-0.2967844,-0.037707806,0.86730212,0.47569016,-0.146649,0
-5.8937955,2.1569936,2.3856573,-0.23282671,0.64805096,0.72513562,0
3.6744561,-4.7854118,-0.74923563,0.23282671,-0.64805096,-0.72513562,0
2.1513057,5.1996117,-1.0962508,0.86730212,0.47569016,-0.146649,0
-1.3136148,-0.86249328,-5.8486471,-0.43997589,0.59476781,-0.67280936,0
4.3873644,2.8536835,4.518537,0.86730212,0.47569016,-0.146649,0
-0.47909403,4.501615,2.0288317,-0.23282671,0.64805096,0.72513562,0
-4.2911277,-1.6217276,0.046751499,-0.86730212,-0.47569016,0.146649,0
0.40512502,4.9613762,-1.8242589,-0.43997589,0.59476781,-0.67280936,0
-0.70552349,-6.4664211,-0.65324861,0.23282671,-0.64805096,-0.72513562,0
2.9045949,-1.5170434,-3.917352,0.23282671,-0.64805096,-0.72513562,0
4.8012757,2.0570488,4.3823934,0.86730212,0.47569016,-0.146649,0
4.4708071,2.4169528,5.1581898,0.43997589,-0.59476781,0.67280936,0
-1.6436858,-3.0735426,-3.9866776,0.23282671,-0.64805096,-0.72513562,0
0.48977423,-5.5157022,0.74902207,0.43997589,-0.59476781,0.67280936,0
-5.6510978,1.6542804,2.6301999,-0.86730212,-0.47569016,0.146649,0
1.939393,-2.682472,-3.18572,0.23282671,-0.64805096,-0.72513562,0
-2.4017887,-1.2239919,6.4338255,0.43997589,-0.59476781,0.67280936,0
-1.2837024,1.7405548,4.2380371,-0.23282671,0.64805096,0.72513562,0
-4.7865891,-0.75791764,-0.081504345,-0.86730212,-0.47569016,0.146649,0
4.5544987,-4.1934328,-0.74016333,0.43997589,-0.59476781,0.67280936,0
4.1628914,0.09540844,3.3072879,0.43997589,-0.59476781,0.67280936,0
1.6050102,2.8529787,-4.4727468,-0.43997589,0.59476781,-0.67280936,0
3.1409304,2.6547914,-3.4981933,0.86730212,0.47569016,-0.146649,0
-1.6057873,-6.2911081,-1.0989828,0.23282671,-0.64805096,-0.72513562,0
-5.8411398,1.0041537,-0.60257149,-0.86730212,-0.47569016,0.146649,0
-0.47407937,1.1822014,-4.5901279,-0.43997589,0.59476781,-0.67280936,0
1.0587902,1.5402905,5.1691408,-0.23282671,0.64805096,0.72513562,0
-0.41374314,-2.684257,3.8428826,0.43997589,-0.59476781,0.67280936,0
0.16207504,2.0476248,-4.2410941,-0.43997589,0.59476781,-0.67280936,0
3.7234101,3.5085931,2.716177,0.86730212,0.47569016,-0.146649,0
-5.9984922,1.3475125,-0.83136559,-0.43997589,0.59476781,-0.67280936,0
2.5787332,-1.9721625,-3.6152415,0.23282671,-0.64805096,-0.72513562,0
-4.0730262,-2.296216,-0.85122609,-0.86730212,-0.47569016,0.146649,0
-6.1046596,2.2852516,1.9944768,-0.86730212,-0.47569016,0.146649,0
4.1692395,1.3348523,-1.698163,0.86730212,0.47569016,-0.146649,0
-2.6852624,1.5651515,3.9447813,-0.23282671,0.64805096,0.72513562,0
-3.2415981,-2.4856031,-5.0251746,0.23282671,-0.64805096,-0.72513562,0
-3.4466853,-3.3544984,-0.57974648,-0.86730212,-0.47569016,0.146649,0
-2.5634375,0.65675294,4.7957292,-0.23282671,0.64805096,0.72513562,0
-4.070673,4.5034642,0.69784069,-0.43997589,0.59476781,-0.67280936,0
-1.5507615,5.6761355,0.086622477,-0.43997589,0.59476781,-0.67280936,0
-0.20675516,-6.4354649,0.39143276,0.43997589,-0.59476781,0.67280936,0
3.7524538,-2.6846113,-2.60167,0.23282671,-0.64805096,-0.72513562,0
3.6790335,-2.3357573,-2.9370131,0.23282671,-0.64805096,-0.72513562,0
-3.9454484,-2.387383,-0.3924346,-0.86730212,-0.47569016,0.146649,0
-1.8929317,-5.2396965,2.4942839,-0.86730212,-0.47569016,0.146649,0
-3.1357384,-3.5040615,-4.0809927,0.23282671,-0.64805096,-0.72513562,0
-3.0042329,-3.2400274,2.4082913,-0.86730212,-0.47569016,0.146649,0
-0.91537523,-0.18700433,-5.5119352,-0.43997589,0.59476781,-0.67280936,0
-4.7219591,0.16906071,3.3075967,-0.86730212,-0.47569016,0.146649,0
-0.45349503,0.045778871,-5.6081939,-0.43997589,0.59476781,-0.67280936,0
-3.3959932,-3.6693163,-1.3011322,-0.86730212,-0.47569016,0.146649,0
-5.4452348,0.45818162,-0.032122612,-0.86730212,-0.47569016,0.146649,0
2.4577599,-0.47999796,-4.9876256,0.23282671,-0.64805096,-0.72513562,0
0.59074664,-1.8763658,3.9001892,0.43997589,-0.59476781,0.67280936,0
-4.7316413,-2.2446079,-4.5789614,-0.86730212,-0.47569016,0.146649,0
3.5831542,1.853366,-3.4824295,0.86730212,0.47569016,-0.146649,0
3.5647893,-2.9377818,-2.4356675,0.23282671,-0.64805096,-0.72513562,0
3.823915,3.1757624,2.2309644,0.86730212,0.47569016,-0.146649,0
5.6197233,-1.3229568,-1.7410307,0.86730212,0.47569016,-0.146649,0
0.63444138,0.85972142,-5.6001067,-0.43997589,0.59476781,-0.67280936,0
-1.7567326,1.8246225,-3.1834471,-0.43997589,0.59476781,-0.67280936,0
4.7496524,1.3343666,1.7329028,0.86730212,0.47569016,-0.146649,0
-0.72415018,-6.930665,0.29201758,0.43997589,-0.59476781,0.67280936,0
-2.5502052,3.3941672,2.3535604,-0.23282671,0.64805096,0.72513562,0
-4.0554132,4.0664902,1.2694154,-0.23282671,0.64805096,0.72513562,0
-3.3715465,-0.71720576,5.764164,-0.23282671,0.64805096,0.72513562,0
0.63953972,2.2774351,-4.350173,-0.43997589,0.59476781,-0.67280936,0
1.8206177,5.6155643,1.7716911,-0.23282671,0.64805096,0.72513562,0
-2.862093,-3.4033489,2.7191539,-0.86730212,-0.47569016,0.146649,0
-0.84844327,5.8242626,-0.24170476,-0.43997589,0.59476781,-0.67280936,0
-3.3975899,3.2697568,2.192667,-0.23282671,0.64805096,0.72513562,0
4.0181074,-4.0118022,-1.3302691,0.23282671,-0.64805096,-0.72513562,0
3.4285851,-3.0280643,1.0263088,0.43997589,-0.59476781,0.67280936,0
4.0441689,-0.15887523,-4.7652473,0.23282671,-0.64805096,-0.72513562,0
1.9436853,5.2777486,-2.0706909,0.86730212,0.47569016,-0.146649,0
4.5392585,0.1069026,3.0713277,0.43997589,-0.59476781,0.67280936,0
-0.68745518,1.8931396,-3.8221197,-0.43997589,0.59476781,-0.67280936,0
4.996655,-1.9099448,-2.8944983,0.23282671,-0.64805096,-0.72513562,0
-2.4984369,3.0923491,2.6399159,-0.23282671,0.64805096,0.72513562,0
2.0530214,-4.2922626,0.80828285,0.43997589,-0.59476781,0.67280936,0
5.5661693,-1.419486,-2.3708658,0.86730212,0.47569016,-0.146649,0
2.8119397,-2.1959865,2.1651189,0.43997589,-0.59476781,0.67280936,0
1.5288498,-5.8854237,-0.45507121,0.23282671,-0.64805096,-0.72513562,0
4.4623537,1.4759026,0.49288416,0.86730212,0.47569016,-0.146649,0
1.8804786,5.3219724,-2.3010526,0.86730212,0.47569016,-0.146649,0
-4.262835,-1.7609303,-0.23745489,-0.86730212,-0.47569016,0.146649,0
-4.873189,-1.1697943,-3.7925613,-0.43997589,0.59476781,-0.67280936,0
3.4992151,-3.2083821,-2.2148883,0.23282671,-0.64805096,-0.72513562,0
-4.8524175,-0.49739528,-3.2117386,-0.43997589,0.59476781,-0.67280936,0
0.84249187,4.3809056,-2.6234093,-0.43997589,0.59476781,-0.67280936,0
2.6323256,2.2833297,5.0103197,-0.23282671,0.64805096,0.72513562,0
-1.5750813,1.3913375,4.4565754,-0.23282671,0.64805096,0.72513562,0
-1.421474,-2.0628247,-4.8186045,0.23282671,-0.64805096,-0.72513562,0
3.7161794,0.029039145,3.5407393,0.43997589,-0.59476781,0.67280936,0
-1.1461003,-3.3206182,3.7592516,0.43997589,-0.59476781,0.67280936,0
-0.1952337,2.9248698,-3.2319458,-0.43997589,0.59476781,-0.67280936,0
0.9417491,-3.4823852,-2.7911644,0.23282671,-0.64805096,-0.72513562,0
-1.2280021,-1.9460796,5.0279112,0.43997589,-0.59476781,0.67280936,0
5.1575031,-2.3189034,0.5226059,0.43997589,-0.59476781,0.67280936,0
0.47550106,-4.4308925,1.7173343,0.43997589,-0.59476781,0.67280936,0
-1.6062474,-1.3312685,5.8187575,0.43997589,-0.59476781,0.67280936,0
4.5377245,2.2115741,3.3249617,0.86730212,0.47569016,-0.146649,0
-3.2201869,-1.0487189,6.1090345,-0.23282671,0.64805096,0.72513562,0
4.3634167,0.069966912,-4.6527176,0.86730212,0.47569016,-0.146649,0
3.8017368,-2.9302425,-2.3663266,0.23282671,-0.64805096,-0.72513562,0
-3.3882244,1.5741787,-2.3379464,-0.43997589,0.59476781,-0.67280936,0
5.4661918,-0.34265828,0.53079081,0.86730212,0.47569016,-0.146649,0
-3.3535712,-0.28561544,5.3842239,-0.23282671,0.64805096,0.72513562,0
-2.3987498,-4.6527815,1.4066029,-0.86730212,-0.47569016,0.146649,0
-0.54037237,2.6052544,3.7039268,-0.23282671,0.64805096,0.72513562,0
-3.7811575,-1.9212565,2.0911927,-0.86730212,-0.47569016,0.146649,0
2.8811493,2.0699756,5.2808871,-0.23282671,0.64805096,0.72513562,0
4.2279086,-3.6399527,-0.037312984,0.43997589,-0.59476781,0.67280936,0
-0.79191542,5.5128026,1.0246967,-0.23282671,0.64805096,0.72513562,0
3.0001576,4.2817726,0.94675231,0.86730212,0.47569016,-0.146649,0
1.2721496,4.697926,-2.6241307,-0.43997589,0.59476781,-0.67280936,0
1.6452224,-1.0982723,3.8984666,0.43997589,-0.59476781,0.67280936,0
-1.8339231,1.4068362,4.3596153,-0.23282671,0.64805096,0.72513562,0
3.8284428,0.53707957,-5.4564848,0.23282671,-0.64805096,-0.72513562,0
-0.016337395,2.6244974,3.8549864,-0.23282671,0.64805096,0.72513562,0
1.8321133,5.6441774,1.7498105,-0.23282671,0.64805096,0.72513562,0
4.6824303,1.961375,3.369189,0.86730212,0.47569016,-0.146649,0
1.2939658,0.88876659,-6.0057187,-0.43997589,0.59476781,-0.67280936,0
1.8685552,2.742507,-4.7427468,-0.43997589,0.59476781,-0.67280936,0
-0.65274262,-6.1884623,0.90143329,0.43997589,-0.59476781,0.67280936,0
1.8653586,-4.0010338,-2.0310972,0.23282671,-0.64805096,-0.72513562,0
5.0034947,-3.3729289,-0.30844784,0.43997589,-0.59476781,0.67280936,0
2.3485067,-5.1178889,-0.87783861,0.23282671,-0.64805096,-0.72513562,0
2.233232,1.0328376,5.3978596,0.43997589,-0.59476781,0.67280936,0
1.3110793,-6.0703707,-0.2783916,0.43997589,-0.59476781,0.67280936,0
-3.4920652,-2.5869579,1.6415677,-0.86730212,-0.47569016,0.146649,0
1.8163352,4.1883721,3.0457926,-0.23282671,0.64805096,0.72513562,0
0.42922026,4.0918589,-2.6086743,-0.43997589,0.59476781,-0.67280936,0
-2.4635148,5.3215656,0.65888619,-0.23282671,0.64805096,0.72513562,0
-0.44951916,-2.535445,-4.0841498,0.23282671,-0.64805096,-0.72513562,0
1.6014142,6.6238761,0.27155399,0.86730212,0.47569016,-0.146649,0
-2.1048226,-5.8395414,-1.6627767,0.23282671,-0.64805096,-0.72513562,0
-1.5773835,-6.3385801,0.79599583,-0.86730212,-0.47569016,0.146649,0
5.3502955,0.63092899,3.0034249,0.86730212,0.47569016,-0.146649,0
3.9887581,3.4262381,4.4244308,-0.23282671,0.64805096,0.72513562,0
-3.2224932,-4.250721,-2.1609511,-0.86730212,-0.47569016,0.146649,0
-4.8043499,-2.1061893,-4.6653566,-0.43997589,0.59476781,-0.67280936,0
1.5612454,-4.6729741,-1.5282315,0.23282671,-0.64805096,-0.72513562,0
3.6854632,2.5071495,-0.7566638,0.86730212,0.47569016,-0.146649,0
3.9187684,3.4717078,3.7519073,0.86730212,0.47569016,-0.146649,0
5.4697895,-0.63079357,-0.38256359,0.86730212,0.47569016,-0.146649,0
2.3664773,-4.7866011,-1.1681395,0.23282671,-0.64805096,-0.72513562,0
-3.6780014,-3.5446641,-2.5646272,-0.86730212,-0.47569016,0.146649,0
2.9081626,-0.46316886,3.634017,0.43997589,-0.59476781,0.67280936,0
1.1200409,-2.5200717,-3.5939341,0.23282671,-0.64805096,-0.72513562,0
1.8667016,-5.0598979,-1.0843632,0.23282671,-0.64805096,-0.72513562,0
1.4377472,-5.8157682,-0.13615441,0.43997589,-0.59476781,0.67280936,0
3.4526601,1.5702882,-5.1724162,0.86730212,0.47569016,-0.146649,0
0.26100492,2.8367505,3.7543459,-0.23282671,0.64805096,0.72513562,0
0.30572891,0.86918473,-5.3767834,-0.43997589,0.59476781,-0.67280936,0
0.88590646,-3.0475631,2.6718268,0.43997589,-0.59476781,0.67280936,0
-0.47833657,-2.1691186,4.3405085,0.43997589,-0.59476781,0.67280936,0
1.7320533,6.3449059,0.13926518,0.86730212,0.47569016,-0.146649,0
-3.4239676,-3.7202573,-1.6318157,-0.86730212,-0.47569016,0.146649,0
-2.4090581,-4.2942724,2.5085468,-0.86730212,-0.47569016,0.146649,0
0.37800121,5.2221766,1.6600647,-0.23282671,0.64805096,0.72513562,0
4.7000341,1.1931865,0.98150301,0.86730212,0.47569016,-0.146649,0
0.58903646,2.8591647,3.8396392,-0.23282671,0.64805096,0.72513562,0
-3.7402077,3.0630379,2.2674041,-0.23282671,0.64805096,0.72513562,0
2.2786,4.8629446,-1.4354725,0.86730212,0.47569016,-0.146649,0
-0.90029049,5.2406397,1.23313,-0.23282671,0.64805096,0.72513562,0
5.7986379,-2.4525223,-2.1520987,0.23282671,-0.64805096,-0.72513562,0
-4.5337229,-2.6977434,-4.8782983,-0.86730212,-0.47569016,0.146649,0
3.6712756,-1.2454872,-3.9138746,0.23282671,-0.64805096,-0.72513562,0
0.79332256,-4.1074228,-2.2802272,0.23282671,-0.64805096,-0.72513562,0
-0.68975312,3.7869608,-2.1464667,-0.43997589,0.59476781,-0.67280936,0
-1.0862086,-4.2034321,2.9396727,0.43997589,-0.59476781,0.67280936,0
2.8594556,1.5305259,5.4283075,0.43997589,-0.59476781,0.67280936,0
-2.1185865,-5.6777196,-1.8118155,0.23282671,-0.64805096,-0.72513562,0
-0.83417749,0.3983146,5.5819254,-0.23282671,0.64805096,0.72513562,0
2.2070839,-4.2715774,-1.6795921,0.23282671,-0.64805096,-0.72513562,0
-1.7144089,-1.6367023,-5.2934837,0.23282671,-0.64805096,-0.72513562,0
-3.0021467,0.75350809,-3.3158956,-0.43997589,0.59476781,-0.67280936,0
4.4830513,1.8856671,1.9444573,0.86730212,0.47569016,-0.146649,0
-1.7472968,2.7809606,3.1593795,-0.23282671,0.64805096,0.72513562,0
3.4636569,-1.5906837,-3.6720364,0.23282671,-0.64805096,-0.72513562,0
-0.76966763,-2.7250576,-4.017487,0.23282671,-0.64805096,-0.72513562,0
-3.5152674,-3.8560226,-2.6121621,-0.86730212,-0.47569016,0.146649,0
-6.08777,2.7117426,1.8275995,-0.23282671,0.64805096,0.72513562,0
5.5977011,-0.45622635,0.9401722,0.86730212,0.47569016,-0.146649,0
-0.29361105,5.1385427,1.5191667,-0.23282671,0.64805096,0.72513562,0
3.4917624,-1.7590171,-3.512573,0.23282671,-0.64805096,-0.72513562,0
-0.52850103,1.264958,4.9055562,-0.23282671,0.64805096,0.72513562,0
3.9623628,3.282711,3.3966737,0.86730212,0.47569016,-0.146649,0
-2.0090814,-2.9019003,-4.2573943,0.23282671,-0.64805096,-0.72513562,0
5.3107409,-0.65788341,-1.4110689,0.86730212,0.47569016,-0.146649,0
-6.2968931,3.2587187,1.2716231,-0.23282671,0.64805096,0.72513562,0
1.4033701,5.0668297,-2.3838282,-0.43997589,0.59476781,-0.67280936,0
-5.2496982,0.62769079,-1.9573591,-0.43997589,0.59476781,-0.67280936,0
-0.26126111,2.3971667,-3.655261,-0.43997589,0.59476781,-0.67280936,0
0.45827007,6.3654194,-0.61782908,-0.43997589,0.59476781,-0.67280936,0
0.29420376,-0.43022478,5.372508,0.43997589,-0.59476781,0.67280936,0
-0.64317042,-3.2969863,3.451257,0.43997589,-0.59476781,0.67280936,0
-1.9770551,-1.7941693,-5.2370872,0.23282671,-0.64805096,-0.72513562,0
1.4006066,-2.6934164,-3.3489327,0.23282671,-0.64805096,-0.72513562,0
-3.3123713,2.6854279,-1.4051981,-0.43997589,0.59476781,-0.67280936,0
-0.41196299,0.039389491,6.0382605,-0.23282671,0.64805096,0.72513562,0
4.5366249,-4.1904469,-0.72583485,0.43997589,-0.59476781,0.67280936,0
-4.3901277,2.0076058,-1.2996106,-0.43997589,0.59476781,-0.67280936,0
-2.2706792,-5.0743866,0.7964561,-0.86730212,-0.47569016,0.146649,0
4.466855,2.7004738,4.4916897,0.86730212,0.47569016,-0.146649,0
