-4.259769,-5.033658,-1.9911387,-0.26232406,-0.42950174,-0.86412632,0
3.8374281,-2.858665,-4.3333635,0.90191829,0.20928019,-0.37781641,0
-4.4290266,3.0226059,3.011915,-0.90191829,-0.20928019,0.37781641,0
-4.3344254,2.2745795,2.8234003,-0.90191829,-0.20928019,0.37781641,0
-6.1172004,0.76240587,-4.3081264,-0.26232406,-0.42950174,-0.86412632,0
5.1101685,0.9054637,3.7848418,0.26232406,0.42950174,0.86412632,0
2.3146749,1.2744551,-5.6790404,0.90191829,0.20928019,-0.37781641,0
-3.6671422,-1.1010143,-4.1257076,-0.26232406,-0.42950174,-0.86412632,0
3.4598851,-0.035532475,-3.6708376,0.90191829,0.20928019,-0.37781641,0
-0.14732468,1.821739,-6.6469369,-0.26232406,-0.42950174,-0.86412632,0
-3.7746594,-0.98603034,2.3535485,-0.90191829,-0.20928019,0.37781641,0
-1.2122688,-6.3173189,-2.2782474,-0.26232406,-0.42950174,-0.86412632,0
-1.7014797,3.8231282,-1.677247,-0.3431173,0.87848175,-0.33247623,0
3.0283837,-2.9021802,2.74124,0.3431173,-0.87848175,0.33247623,0
1.7205691,6.197855,2.1833196,0.26232406,0.42950174,0.86412632,0
-3.8928878,3.3017824,-0.79322273,-0.3431173,0.87848175,-0.33247623,0
4.8026471,1.5166106,0.39434928,0.90191829,0.20928019,-0.37781641,0
0.80863702,2.8050337,-6.9577503,-0.3431173,0.87848175,-0.33247623,0
1.8117812,1.7785301,4.3521929,0.26232406,0.42950174,0.86412632,0
0.29360032,-3.8332748,3.1033769,0.3431173,-0.87848175,0.33247623,0
0.31233644,-5.5272746,-1.3919111,0.3431173,-0.87848175,0.33247623,0
1.8254395,-5.2268691,-2.1596985,0.3431173,-0.87848175,0.33247623,0
5.7663174,-2.0477767,0.72042227,0.90191829,0.20928019,-0.37781641,0
-6.1498766,1.9499037,-2.0359843,-0.3431173,0.87848175,-0.33247623,0
-3.6560097,-4.3094969,0.79585129,-0.90191829,-0.20928019,0.37781641,0
1.968426,0.64110589,4.8699803,0.26232406,0.42950174,0.86412632,0
2.7380025,-0.55107331,-5.6796751,0.90191829,0.20928019,-0.37781641,0
4.8311062,4.4223623,2.0718417,0.90191829,0.20928019,-0.37781641,0
-3.9536691,-0.6383965,2.1187801,-0.90191829,-0.20928019,0.37781641,0
5.5550361,-0.51258075,4.3546119,0.26232406,0.42950174,0.86412632,0
-3.7903438,0.1906563,-4.7303143,-0.26232406,-0.42950174,-0.86412632,0
3.4658189,6.8674688,1.0339477,-0.3431173,0.87848175,-0.33247623,0
0.85133219,1.8696661,-6.9739223,-0.26232406,-0.42950174,-0.86412632,0
-2.3104284,-0.61602664,6.053894,-0.90191829,-0.20928019,0.37781641,0
-1.8960388,-3.7618213,5.3006001,-0.90191829,-0.20928019,0.37781641,0
-5.6760836,2.7698834,-0.35835826,-0.3431173,0.87848175,-0.33247623,0
5.0802822,2.5924611,1.6530514,0.90191829,0.20928019,-0.37781641,0
-0.31640148,-0.10975671,5.9367943,0.26232406,0.42950174,0.86412632,0
5.9385276,-2.1727242,1.6653523,0.3431173,-0.87848175,0.33247623,0
-2.8813214,-2.5350039,3.6281044,-0.90191829,-0.20928019,0.37781641,0
-4.283597,2.8406084,3.2582722,-0.90191829,-0.20928019,0.37781641,0
1.4930735,-3.5530505,-4.4734526,-0.26232406,-0.42950174,-0.86412632,0
-1.1697628,5.3196435,1.7281693,-0.3431173,0.87848175,-0.33247623,0
3.725791,-3.2890725,0.99925005,0.3431173,-0.87848175,0.33247623,0
1.0355411,3.6144581,3.6753151,0.26232406,0.42950174,0.86412632,0
-1.9482884,0.48370022,-5.4351625,-0.26232406,-0.42950174,-0.86412632,0
0.68336725,-5.8269448,-2.566618,0.3431173,-0.87848175,0.33247623,0
2.8909428,5.9548397,-0.78415966,-0.3431173,0.87848175,-0.33247623,0
-1.9153543,4.7462711,0.98263609,-0.3431173,0.87848175,-0.33247623,0
3.6072083,2.2092066,-2.0757425,0.90191829,0.20928019,-0.37781641,0
1.8503138,5.0732718,2.7028909,0.26232406,0.42950174,0.86412632,0
-4.776495,0.10782409,0.56788754,-0.90191829,-0.20928019,0.37781641,0
-0.94472551,5.4278979,1.7819635,-0.3431173,0.87848175,-0.33247623,0
-1.1822298,4.4694285,-0.50543541,-0.3431173,0.87848175,-0.33247623,0
2.6380582,-2.0783527,5.3208075,0.3431173,-0.87848175,0.33247623,0
-5.2648659,-0.69702506,-3.8414817,-0.26232406,-0.42950174,-0.86412632,0
2.2782764,3.2578874,3.4752846,0.26232406,0.42950174,0.86412632,0
-3.8799579,-0.085814714,2.6008296,-0.90191829,-0.20928019,0.37781641,0
1.644294,6.5230594,2.0037596,-0.3431173,0.87848175,-0.33247623,0
-3.8115473,-3.3179879,0.97377115,-0.90191829,-0.20928019,0.37781641,0
-4.5525084,0.50820422,1.3243637,-0.90191829,-0.20928019,0.37781641,0
5.6688147,0.62031913,1.965579,0.90191829,0.20928019,-0.37781641,0
0.89404178,-1.272683,6.1473541,0.26232406,0.42950174,0.86412632,0
5.5173397,-1.8935704,2.83761,0.3431173,-0.87848175,0.33247623,0
-0.49618948,2.2719026,4.8076029,0.26232406,0.42950174,0.86412632,0
-1.0405273,-2.2366378,-4.3586273,-0.26232406,-0.42950174,-0.86412632,0
3.6488171,5.7724609,1.8093941,0.26232406,0.42950174,0.86412632,0
1.3086685,-0.55429482,5.6644211,0.26232406,0.42950174,0.86412632,0
-1.5185826,-6.0911121,-0.99218488,0.3431173,-0.87848175,0.33247623,0
3.7245522,3.3891923,2.9709733,0.26232406,0.42950174,0.86412632,0
-5.3498487,0.32861388,-4.3254623,-0.26232406,-0.42950174,-0.86412632,0
-3.1283939,0.87493134,4.9271297,-0.90191829,-0.20928019,0.37781641,0
-4.0417452,1.9515344,3.343142,-0.90191829,-0.20928019,0.37781641,0
5.549015,-2.4471655,1.3421913,0.3431173,-0.87848175,0.33247623,0
-1.7628937,-6.2194853,-1.0792469,0.3431173,-0.87848175,0.33247623,0
4.1797223,1.8539636,-0.9058212,0.90191829,0.20928019,-0.37781641,0
-2.5188665,-2.0926144,4.7384009,-0.90191829,-0.20928019,0.37781641,0
3.9903829,-3.1394424,1.1215475,0.3431173,-0.87848175,0.33247623,0
1.5219195,-2.7986379,4.5695024,0.3431173,-0.87848175,0.33247623,0
-4.9782186,1.2452617,-4.8938856,-0.26232406,-0.42950174,-0.86412632,0
1.783861,4.1344223,-4.4516253,-0.3431173,0.87848175,-0.33247623,0
-3.4352777,0.95329666,4.2379484,-0.90191829,-0.20928019,0.37781641,0
3.7661304,-2.7582712,-4.4479532,0.90191829,0.20928019,-0.37781641,0
-5.4678769,-1.9598348,-3.1521916,-0.26232406,-0.42950174,-0.86412632,0
-3.7763367,-4.2761869,0.52706015,-0.90191829,-0.20928019,0.37781641,0
0.43853986,-1.9197489,-4.9651351,-0.26232406,-0.42950174,-0.86412632,0
4.8847704,-1.2723348,-0.95446092,0.90191829,0.20928019,-0.37781641,0
4.8580761,-3.6286311,-2.3233848,0.90191829,0.20928019,-0.37781641,0
2.7010098,2.3626206,3.7919345,0.26232406,0.42950174,0.86412632,0
-4.5768232,2.3042669,2.2611966,-0.90191829,-0.20928019,0.37781641,0
4.9812078,0.078184366,0.023832321,0.90191829,0.20928019,-0.37781641,0
-4.0127335,1.7901496,-4.6636357,-0.3431173,0.87848175,-0.33247623,0
5.368578,-1.8967017,2.982861,0.3431173,-0.87848175,0.33247623,0
-2.2802415,4.1702671,4.4056349,0.26232406,0.42950174,0.86412632,0
-3.9660158,4.0670176,4.6957302,-0.90191829,-0.20928019,0.37781641,0
-4.1882806,3.3288863,-0.41676021,-0.3431173,0.87848175,-0.33247623,0
4.499011,-2.6935177,-2.6625624,0.90191829,0.20928019,-0.37781641,0
-5.5484419,-0.14647126,-1.4157525,-0.90191829,-0.20928019,0.37781641,0
-4.2624016,2.2035263,2.955977,-0.90191829,-0.20928019,0.37781641,0
-4.4101806,4.6093702,3.9358461,-0.90191829,-0.20928019,0.37781641,0
-5.1448479,3.0014422,1.2913955,-0.90191829,-0.20928019,0.37781641,0
-3.1198499,1.5086706,5.2985659,-0.90191829,-0.20928019,0.37781641,0
3.3098512,-2.4025195,3.7709863,0.3431173,-0.87848175,0.33247623,0
6.0574532,-1.1428508,4.263793,0.3431173,-0.87848175,0.33247623,0
-5.3813214,-0.71382189,-3.7977803,-0.26232406,-0.42950174,-0.86412632,0
0.47219729,-0.7185626,5.9999967,0.26232406,0.42950174,0.86412632,0
-3.0407352,4.5599899,4.4427929,0.26232406,0.42950174,0.86412632,0
1.4144156,-1.1694001,5.9380484,0.26232406,0.42950174,0.86412632,0
5.3906898,-2.7034311,0.82846981,0.3431173,-0.87848175,0.33247623,0
2.8269787,1.0836635,4.3893819,0.26232406,0.42950174,0.86412632,0
-4.9376664,3.3220239,1.9635524,-0.90191829,-0.20928019,0.37781641,0
-2.7846656,-6.3865328,-0.46615243,0.3431173,-0.87848175,0.33247623,0
3.7123954,4.35958,-0.63350666,0.90191829,0.20928019,-0.37781641,0
-1.4487485,1.1809045,-5.9333444,-0.26232406,-0.42950174,-0.86412632,0
0.68392277,0.80284166,-6.3928514,-0.26232406,-0.42950174,-0.86412632,0
0.26663232,-3.6399763,3.6419487,0.3431173,-0.87848175,0.33247623,0
5.8867307,-0.78250885,1.7087301,0.90191829,0.20928019,-0.37781641,0
3.2284427,0.77351999,4.4216609,0.26232406,0.42950174,0.86412632,0
1.0174673,4.9105449,-1.6100007,-0.3431173,0.87848175,-0.33247623,0
-2.9456451,-3.3442378,-3.2297714,-0.26232406,-0.42950174,-0.86412632,0
-0.65816665,3.1711512,4.4098158,0.26232406,0.42950174,0.86412632,0
1.1355102,0.66410327,5.1113992,0.26232406,0.42950174,0.86412632,0
5.4547968,-2.6503377,0.90259528,0.3431173,-0.87848175,0.33247623,0
1.6462097,6.2222815,2.1937523,0.26232406,0.42950174,0.86412632,0
-0.54441726,-2.855916,6.5506306,0.3431173,-0.87848175,0.33247623,0
-5.4918418,-0.37415004,-1.4067541,-0.90191829,-0.20928019,0.37781641,0
-4.0077481,-4.7137413,-2.2266545,-0.26232406,-0.42950174,-0.86412632,0
-3.9389131,1.9797685,3.6042612,-0.90191829,-0.20928019,0.37781641,0
-4.7225242,1.6047148,1.5258851,-0.90191829,-0.20928019,0.37781641,0
-0.59188473,-0.42002511,6.1746373,0.26232406,0.42950174,0.86412632,0
1.6834829,4.7020426,-2.8482456,-0.3431173,0.87848175,-0.33247623,0
-0.53749883,2.9602194,-5.158493,-0.3431173,0.87848175,-0.33247623,0
-1.2693017,0.015503883,6.1638083,0.26232406,0.42950174,0.86412632,0
2.6917651,0.59681845,-5.1542115,0.90191829,0.20928019,-0.37781641,0
-0.17929983,0.40914345,5.6372623,0.26232406,0.42950174,0.86412632,0
5.1398306,-1.4952466,-0.46905929,0.90191829,0.20928019,-0.37781641,0
-2.8267002,-3.8186707,-3.0300696,-0.26232406,-0.42950174,-0.86412632,0
0.90371442,4.2088652,3.4198923,0.26232406,0.42950174,0.86412632,0
4.7612805,2.0559282,0.59433866,0.90191829,0.20928019,-0.37781641,0
-1.6720823,-0.97311401,-4.7949219,-0.26232406,-0.42950174,-0.86412632,0
-4.3968067,-1.0811591,0.81567299,-0.90191829,-0.20928019,0.37781641,0
-0.35918337,-1.7292907,6.7547483,0.26232406,0.42950174,0.86412632,0
-2.4341645,-1.598964,5.2140441,-0.90191829,-0.20928019,0.37781641,0
-4.856112,-0.50727773,-4.0598788,-0.26232406,-0.42950174,-0.86412632,0
-1.5582633,5.1791387,1.7578559,-0.3431173,0.87848175,-0.33247623,0
-0.04211247,-1.8156204,-4.8709788,-0.26232406,-0.42950174,-0.86412632,0
0.76370144,-0.73179936,5.9180837,0.26232406,0.42950174,0.86412632,0
-4.7480145,1.495436,1.4045038,-0.90191829,-0.20928019,0.37781641,0
-5.0873556,-2.3665032,-3.065578,-0.26232406,-0.42950174,-0.86412632,0
-5.2015934,1.0810537,0.092191935,-0.90191829,-0.20928019,0.37781641,0
3.3549206,5.6648731,1.9520879,0.26232406,0.42950174,0.86412632,0
5.1130061,1.4423535,1.0941012,0.90191829,0.20928019,-0.37781641,0
-0.69341612,-4.3008938,2.8864219,0.3431173,-0.87848175,0.33247623,0
2.1603794,-5.1230431,-3.8956847,-0.26232406,-0.42950174,-0.86412632,0
4.1277981,-3.0739741,-3.7594595,0.90191829,0.20928019,-0.37781641,0
1.2824388,-5.4557352,-3.4638066,-0.26232406,-0.42950174,-0.86412632,0
2.4170594,-3.8750672,0.80152941,0.3431173,-0.87848175,0.33247623,0
-0.72931004,4.8468018,0.024257779,-0.3431173,0.87848175,-0.33247623,0
-6.6016688,1.3290329,-3.1126907,-0.90191829,-0.20928019,0.37781641,0
-1.1085184,-5.2524471,0.80057919,0.3431173,-0.87848175,0.33247623,0
5.4210558,-2.9694815,-0.61433077,0.90191829,0.20928019,-0.37781641,0
1.7306963,2.0145152,-6.6631713,0.90191829,0.20928019,-0.37781641,0
-2.8670931,2.7816172,-3.2262492,-0.3431173,0.87848175,-0.33247623,0
0.93331409,-5.1861176,-1.131345,0.3431173,-0.87848175,0.33247623,0
-4.260952,-5.4191651,-1.7991683,-0.26232406,-0.42950174,-0.86412632,0
-1.5342416,-2.1638696,7.0494151,-0.90191829,-0.20928019,0.37781641,0
0.023999691,-3.4265475,-4.0903597,-0.26232406,-0.42950174,-0.86412632,0
-3.4674425,-4.9455795,-2.275444,-0.26232406,-0.42950174,-0.86412632,0
-1.9166083,2.1767797,5.2860813,0.26232406,0.42950174,0.86412632,0
-5.5834055,1.5285209,-0.57140481,-0.90191829,-0.20928019,0.37781641,0
2.8513446,2.3109887,-3.8237526,0.90191829,0.20928019,-0.37781641,0
-2.3439004,-0.2563743,-4.9472222,-0.26232406,-0.42950174,-0.86412632,0
3.0176191,6.3843746,1.6968656,0.26232406,0.42950174,0.86412632,0
-4.6212196,-0.60185361,0.54545343,-0.90191829,-0.20928019,0.37781641,0
-3.7095227,-2.8055441,-3.26563,-0.26232406,-0.42950174,-0.86412632,0
-4.2324672,-4.7553263,-0.82721317,-0.90191829,-0.20928019,0.37781641,0
4.2817993,1.2866011,3.8468721,0.26232406,0.42950174,0.86412632,0
2.8477702,4.746664,-2.4831145,0.90191829,0.20928019,-0.37781641,0
1.3554522,1.7617598,-7.0733252,-0.26232406,-0.42950174,-0.86412632,0
-5.755753,-1.1050096,-2.4415977,-0.90191829,-0.20928019,0.37781641,0
-3.5947499,-3.9744577,1.1276753,-0.90191829,-0.20928019,0.37781641,0
2.7716842,0.34383807,4.7738867,0.26232406,0.42950174,0.86412632,0
4.0256772,-2.8615923,1.8192703,0.3431173,-0.87848175,0.33247623,0
1.4322387,2.6297786,-7.0348382,0.90191829,0.20928019,-0.37781641,0
-1.2427742,4.2236342,-1.0924019,-0.3431173,0.87848175,-0.33247623,0
2.1325593,3.964298,-4.6238246,0.90191829,0.20928019,-0.37781641,0
2.7747192,-1.2060044,-5.9548054,0.90191829,0.20928019,-0.37781641,0
3.1449275,-1.564517,-5.2696357,0.90191829,0.20928019,-0.37781641,0
-0.41797927,-0.71476126,6.2683392,0.26232406,0.42950174,0.86412632,0
-1.5249116,-4.7516193,2.5536053,0.3431173,-0.87848175,0.33247623,0
-2.1251912,-5.2973738,-2.508059,-0.26232406,-0.42950174,-0.86412632,0
-3.9893038,-6.2260766,-1.4805694,-0.26232406,-0.42950174,-0.86412632,0
3.338444,3.2618666,3.1514702,0.26232406,0.42950174,0.86412632,0
4.894742,0.13934183,4.231029,0.26232406,0.42950174,0.86412632,0
-4.0778618,-2.7020051,0.67923462,-0.90191829,-0.20928019,0.37781641,0
2.2911057,-4.2988181,-0.1881367,0.3431173,-0.87848175,0.33247623,0
5.7974582,0.48395967,2.1971426,0.90191829,0.20928019,-0.37781641,0
-3.6896567,-2.5397787,1.6958132,-0.90191829,-0.20928019,0.37781641,0
2.2555795,2.5417097,-5.1181531,0.90191829,0.20928019,-0.37781641,0
0.4525657,1.0729681,5.1155014,0.26232406,0.42950174,0.86412632,0
-5.9454112,0.57405424,-1.9642785,-0.90191829,-0.20928019,0.37781641,0
-6.4864564,1.3314066,-3.3228493,-0.3431173,0.87848175,-0.33247623,0
-1.6284447,4.0264792,-1.215318,-0.3431173,0.87848175,-0.33247623,0
-4.1858501,-2.2180796,0.68950212,-0.90191829,-0.20928019,0.37781641,0
1.5699184,6.4741983,1.9514118,-0.3431173,0.87848175,-0.33247623,0
4.1526823,2.0819144,-0.84410447,0.90191829,0.20928019,-0.37781641,0
0.81248283,-4.5639358,0.63730621,0.3431173,-0.87848175,0.33247623,0
-5.3014956,-2.7119954,-2.2473409,-0.90191829,-0.20928019,0.37781641,0
3.487118,-0.9085772,-4.0894251,0.90191829,0.20928019,-0.37781641,0
2.0033932,5.8843141,-0.054552317,-0.3431173,0.87848175,-0.33247623,0
0.32054067,6.0273819,2.0601826,-0.3431173,0.87848175,-0.33247623,0
2.7802546,-2.067517,-5.6025667,-0.26232406,-0.42950174,-0.86412632,0
-0.59913969,3.9777474,-2.4063272,-0.3431173,0.87848175,-0.33247623,0
-5.46491,-2.5211484,-2.5317283,-0.90191829,-0.20928019,0.37781641,0
-0.56180859,1.7248269,-6.4729428,-0.26232406,-0.42950174,-0.86412632,0
1.7776841,3.2521036,-5.8654776,0.90191829,0.20928019,-0.37781641,0
-2.3818347,4.2306156,0.10156298,-0.3431173,0.87848175,-0.33247623,0
-2.249444,2.3428977,-5.0228677,-0.3431173,0.87848175,-0.33247623,0
-3.7954063,4.0874352,1.182059,-0.3431173,0.87848175,-0.33247623,0
-0.035767555,6.0057697,2.8119664,0.26232406,0.42950174,0.86412632,0
-1.7431037,-6.1763649,-0.98573518,0.3431173,-0.87848175,0.33247623,0
-3.1240001,-1.081207,3.8540738,-0.90191829,-0.20928019,0.37781641,0
-1.847965,-5.3369708,1.3403592,0.3431173,-0.87848175,0.33247623,0
-4.3516612,2.9173951,3.1383238,-0.90191829,-0.20928019,0.37781641,0
1.7136155,-1.8819048,-5.3710213,-0.26232406,-0.42950174,-0.86412632,0
6.3828621,-0.74652886,2.9130194,0.90191829,0.20928019,-0.37781641,0
-3.4295256,-5.3876772,0.73928612,-0.90191829,-0.20928019,0.37781641,0
0.36778587,-0.045656204,-5.8751473,-0.26232406,-0.42950174,-0.86412632,0
3.0332584,-3.1284509,-5.1520495,-0.26232406,-0.42950174,-0.86412632,0
4.6410065,4.1359377,2.3216047,0.26232406,0.42950174,0.86412632,0
-3.9910274,-4.5626826,-0.14414322,-0.90191829,-0.20928019,0.37781641,0
0.20742851,1.1188374,-6.4052629,-0.26232406,-0.42950174,-0.86412632,0
2.3484397,-1.3155632,-5.8452282,-0.26232406,-0.42950174,-0.86412632,0
-5.7186956,-0.92643666,-2.2542186,-0.90191829,-0.20928019,0.37781641,0
-1.2199801,-3.9825692,4.2709289,0.3431173,-0.87848175,0.33247623,0
-0.032508373,-3.3863511,-4.0931845,-0.26232406,-0.42950174,-0.86412632,0
-1.4287511,-1.5693365,-4.5724463,-0.26232406,-0.42950174,-0.86412632,0
-2.2799075,-2.0413949,5.337213,-0.90191829,-0.20928019,0.37781641,0
3.5475833,2.7390592,-1.9245827,0.90191829,0.20928019,-0.37781641,0
4.4693809,3.2059979,2.8359189,0.26232406,0.42950174,0.86412632,0
-0.83039677,-3.7990439,4.3537936,0.3431173,-0.87848175,0.33247623,0
2.897193,6.2862558,0.085070372,-0.3431173,0.87848175,-0.33247623,0
0.55470109,-4.7159305,0.50173283,0.3431173,-0.87848175,0.33247623,0
1.7276385,4.3574185,3.0959358,0.26232406,0.42950174,0.86412632,0
2.0940895,5.7201595,-0.58188617,-0.3431173,0.87848175,-0.33247623,0
0.21526885,3.3320994,4.0646687,0.26232406,0.42950174,0.86412632,0
2.1706436,-2.9436936,-4.9820151,-0.26232406,-0.42950174,-0.86412632,0
1.9982786,4.1911278,3.0964303,0.26232406,0.42950174,0.86412632,0
5.7692513,1.6770201,2.7906678,0.90191829,0.20928019,-0.37781641,0
-0.40944266,-6.1178823,-2.6210892,-0.26232406,-0.42950174,-0.86412632,0
-3.1893613,3.8383191,-0.10160697,-0.3431173,0.87848175,-0.33247623,0
-3.272682,-2.8950741,2.4944048,-0.90191829,-0.20928019,0.37781641,0
3.3886263,6.5811405,1.4864379,0.26232406,0.42950174,0.86412632,0
2.5644276,1.300231,-5.0685554,0.90191829,0.20928019,-0.37781641,0
-4.5095968,-4.1045408,-2.3771024,-0.26232406,-0.42950174,-0.86412632,0
-3.8518195,-2.7315645,1.2024661,-0.90191829,-0.20928019,0.37781641,0
2.2471666,0.86224794,-6.0685244,0.90191829,0.20928019,-0.37781641,0
-4.7444582,-0.80380535,0.1393957,-0.90191829,-0.20928019,0.37781641,0
-5.8260689,-1.7855823,-2.986438,-0.90191829,-0.20928019,0.37781641,0
6.3517475,0.51140404,3.6037958,0.26232406,0.42950174,0.86412632,0
-1.435436,3.9911008,4.2382288,0.26232406,0.42950174,0.86412632,0
-3.223619,2.9020591,5.3223624,0.26232406,0.42950174,0.86412632,0
2.0530026,1.2617939,-6.3107142,0.90191829,0.20928019,-0.37781641,0
0.091635823,1.7880349,4.8696556,0.26232406,0.42950174,0.86412632,0
2.4588356,-0.75723696,-6.156249,-0.26232406,-0.42950174,-0.86412632,0
-4.8288631,2.6977587,1.8774931,-0.90191829,-0.20928019,0.37781641,0
-2.5942001,5.2900405,3.1199775,-0.3431173,0.87848175,-0.33247623,0
-5.4258251,0.70315838,-0.65241617,-0.90191829,-0.20928019,0.37781641,0
-2.564846,-2.8575759,4.2049112,-0.90191829,-0.20928019,0.37781641,0
3.8609147,1.4337723,-1.8996279,0.90191829,0.20928019,-0.37781641,0
4.5021567,2.1294279,0.016475081,0.90191829,0.20928019,-0.37781641,0
-3.3018231,-6.9154549,-1.3299817,0.3431173,-0.87848175,0.33247623,0
-4.9545012,2.1422243,-2.7614613,-0.3431173,0.87848175,-0.33247623,0
-3.332998,4.3942947,1.5156475,-0.3431173,0.87848175,-0.33247623,0
0.076033831,-5.5010505,-1.0787547,0.3431173,-0.87848175,0.33247623,0
-2.3692102,-4.0989809,-3.0296259,-0.26232406,-0.42950174,-0.86412632,0
-4.4329681,0.30849504,1.4991069,-0.90191829,-0.20928019,0.37781641,0
-1.219155,-3.7578583,4.8638177,0.3431173,-0.87848175,0.33247623,0
-4.9134951,1.9449786,1.2584807,-0.90191829,-0.20928019,0.37781641,0
-6.0928402,-1.2287557,-3.3258429,-0.26232406,-0.42950174,-0.86412632,0
0.58601153,3.2087991,4.0134068,0.26232406,0.42950174,0.86412632,0
-0.39365053,-3.8404939,-3.7578268,-0.26232406,-0.42950174,-0.86412632,0
-4.2247839,4.0618734,1.5576384,-0.3431173,0.87848175,-0.33247623,0
3.0312643,-2.1233037,4.7962446,0.3431173,-0.87848175,0.33247623,0
3.1336002,1.413583,-3.6470466,0.90191829,0.20928019,-0.37781641,0
-5.8105063,1.2144542,-4.3294487,-0.3431173,0.87848175,-0.33247623,0
0.53835142,1.4500524,4.9020348,0.26232406,0.42950174,0.86412632,0
5.2757978,-2.5253203,-0.71505988,0.90191829,0.20928019,-0.37781641,0
0.15576434,-2.7886741,-4.4474058,-0.26232406,-0.42950174,-0.86412632,0
6.5955372,-1.1241214,3.211556,0.90191829,0.20928019,-0.37781641,0
-2.1987803,-5.3239098,-2.4725304,-0.26232406,-0.42950174,-0.86412632,0
2.1569257,-2.0389762,5.92138,0.3431173,-0.87848175,0.33247623,0
4.5091777,-4.7663307,-3.7864664,0.90191829,0.20928019,-0.37781641,0
3.3629725,0.055722475,4.7375922,0.26232406,0.42950174,0.86412632,0
4.7349482,4.4027362,2.1604781,0.26232406,0.42950174,0.86412632,0
-6.3242793,1.4206218,-3.2544889,-0.3431173,0.87848175,-0.33247623,0
-4.8571672,3.82567,1.5861555,-0.3431173,0.87848175,-0.33247623,0
2.2958863,-3.4278588,2.1082132,0.3431173,-0.87848175,0.33247623,0
-3.8491302,-4.6822271,0.12837476,-0.90191829,-0.20928019,0.37781641,0
-0.80788606,0.52112675,5.7724237,0.26232406,0.42950174,0.86412632,0
-2.6352293,1.6749809,5.7536459,0.26232406,0.42950174,0.86412632,0
3.292767,-3.7188401,0.31058335,0.3431173,-0.87848175,0.33247623,0
4.0571103,0.40343428,-2.0019975,0.90191829,0.20928019,-0.37781641,0
-5.8528395,2.0264082,-2.1403854,-0.3431173,0.87848175,-0.33247623,0
4.1498489,1.5794873,-1.1291729,0.90191829,0.20928019,-0.37781641,0
-0.57347655,-4.0205641,3.5033422,0.3431173,-0.87848175,0.33247623,0
5.731822,-2.4261765,1.2089918,0.3431173,-0.87848175,0.33247623,0
-4.8361959,0.35979474,-4.496891,-0.26232406,-0.42950174,-0.86412632,0
-1.8143883,-0.55829024,6.6144781,0.26232406,0.42950174,0.86412632,0
-2.1515195,-4.0726786,4.5185294,-0.90191829,-0.20928019,0.37781641,0
-2.4281151,-6.3210516,-0.66109896,0.3431173,-0.87848175,0.33247623,0
2.853977,-2.4026706,4.2410512,0.3431173,-0.87848175,0.33247623,0
1.771893,4.2783499,-4.0589819,-0.3431173,0.87848175,-0.33247623,0
-2.3027804,3.5188119,-1.8607771,-0.3431173,0.87848175,-0.33247623,0
2.9814692,-2.1736467,4.7146153,0.3431173,-0.87848175,0.33247623,0
1.7593222,-5.3990307,-2.5463572,0.3431173,-0.87848175,0.33247623,0
-4.039032,-5.8208485,-0.95566225,-0.90191829,-0.20928019,0.37781641,0
2.9183252,-4.8292341,-2.2369165,0.3431173,-0.87848175,0.33247623,0
0.6955508,-2.6551943,5.8013325,0.3431173,-0.87848175,0.33247623,0
6.326499,-1.4133704,3.271358,0.3431173,-0.87848175,0.33247623,0
0.06832242,2.5776911,-6.7944355,-0.3431173,0.87848175,-0.33247623,0
2.7852807,0.13062194,4.8757353,0.26232406,0.42950174,0.86412632,0
-1.2431045,-4.508009,2.906456,0.3431173,-0.87848175,0.33247623,0
6.5858579,-1.1093252,3.8070581,0.3431173,-0.87848175,0.33247623,0
-5.1957006,3.1221135,0.076559544,-0.3431173,0.87848175,-0.33247623,0
-0.78945851,2.882545,-5.1037035,-0.3431173,0.87848175,-0.33247623,0
1.072001,2.8679852,-7.0632091,-0.3431173,0.87848175,-0.33247623,0
6.0884686,-0.78650212,2.1881032,0.90191829,0.20928019,-0.37781641,0
-3.5804319,5.1401029,4.3182926,0.26232406,0.42950174,0.86412632,0
-2.2483816,-6.5169172,-1.3641095,0.3431173,-0.87848175,0.33247623,0
6.0597353,-1.0501723,4.4686017,0.26232406,0.42950174,0.86412632,0
5.8123212,-1.6893851,1.028764,0.90191829,0.20928019,-0.37781641,0
5.4734378,0.81438541,1.6066741,0.90191829,0.20928019,-0.37781641,0
5.004837,-2.0745604,2.888298,0.3431173,-0.87848175,0.33247623,0
1.160385,-0.75921786,-5.7610922,-0.26232406,-0.42950174,-0.86412632,0
1.5812529,4.8355613,-2.3899555,-0.3431173,0.87848175,-0.33247623,0
1.2068419,2.7166758,4.0695429,0.26232406,0.42950174,0.86412632,0
-5.6947823,2.1791201,-0.47690254,-0.90191829,-0.20928019,0.37781641,0
4.184948,-3.6194289,-0.34748268,0.3431173,-0.87848175,0.33247623,0
-0.84270024,4.5018854,-0.77007437,-0.3431173,0.87848175,-0.33247623,0
3.227999,4.2060409,-1.8748999,0.90191829,0.20928019,-0.37781641,0
-3.1848712,-2.8726592,2.7164407,-0.90191829,-0.20928019,0.37781641,0
0.40757966,-1.9673746,6.640317,0.26232406,0.42950174,0.86412632,0
-1.337769,2.3362813,-5.9812031,-0.3431173,0.87848175,-0.33247623,0
-2.1676428,-1.0003083,-4.6309676,-0.26232406,-0.42950174,-0.86412632,0
-4.4527273,-1.858041,0.25184983,-0.90191829,-0.20928019,0.37781641,0
5.1383839,-2.1742296,2.4871278,0.3431173,-0.87848175,0.33247623,0
-2.8443961,4.7901359,2.0573142,-0.3431173,0.87848175,-0.33247623,0
-0.22405756,-1.3346556,-5.0548019,-0.26232406,-0.42950174,-0.86412632,0
-0.38523972,-0.052382231,5.9291749,0.26232406,0.42950174,0.86412632,0
-1.3293777,5.6119189,3.4004273,0.26232406,0.42950174,0.86412632,0
-1.5784481,-6.1011648,-0.95696497,0.3431173,-0.87848175,0.33247623,0
-5.9962153,0.025914431,-3.9787915,-0.26232406,-0.42950174,-0.86412632,0
4.7746229,-2.3258891,2.4618094,0.3431173,-0.87848175,0.33247623,0
-2.6619399,2.8467245,5.1793556,0.26232406,0.42950174,0.86412632,0
4.7714314,0.25002623,-0.38175505,0.90191829,0.20928019,-0.37781641,0
4.015183,0.64429975,-1.9686649,0.90191829,0.20928019,-0.37781641,0
4.2083125,-0.67085516,4.8421063,0.26232406,0.42950174,0.86412632,0
-4.406054,-4.0399113,-0.8453148,-0.90191829,-0.20928019,0.37781641,0
5.7812438,-1.689641,3.1040914,0.3431173,-0.87848175,0.33247623,0
5.748445,0.7388556,2.2213311,0.90191829,0.20928019,-0.37781641,0
-5.3818946,1.6419237,-3.6423025,-0.3431173,0.87848175,-0.33247623,0
-2.05581,4.796288,4.0263495,0.26232406,0.42950174,0.86412632,0
-2.9933228,3.1404841,5.1339455,0.26232406,0.42950174,0.86412632,0
1.0734551,-4.5433502,0.42237282,0.3431173,-0.87848175,0.33247623,0
1.710304,1.5907872,-6.9465628,0.90191829,0.20928019,-0.37781641,0
-2.1533215,0.69606948,-5.4784756,-0.26232406,-0.42950174,-0.86412632,0
5.1181698,-2.4847746,-1.0688869,0.90191829,0.20928019,-0.37781641,0
-4.4432621,-2.5091863,-3.1901879,-0.26232406,-0.42950174,-0.86412632,0
-1.8787038,-0.10935426,6.4108648,0.26232406,0.42950174,0.86412632,0
-4.0413885,4.36588,2.1716313,-0.3431173,0.87848175,-0.33247623,0
5.8087025,-1.4120147,3.8093085,0.3431173,-0.87848175,0.33247623,0
-0.4636054,2.4458811,-6.5937557,-0.3431173,0.87848175,-0.33247623,0
4.2908707,-1.9420258,-2.7431655,0.90191829,0.20928019,-0.37781641,0
0.79061735,-1.2671981,-5.3963571,-0.26232406,-0.42950174,-0.86412632,0
1.3701553,0.72395587,-6.5619631,-0.26232406,-0.42950174,-0.86412632,0
-1.6242405,2.3759389,-5.5807781,-0.3431173,0.87848175,-0.33247623,0
5.2353363,3.1634376,2.3394699,0.90191829,0.20928019,-0.37781641,0
-0.68153811,5.7328129,3.1436729,0.26232406,0.42950174,0.86412632,0
-1.1780618,-0.34250641,6.314055,0.26232406,0.42950174,0.86412632,0
-4.2393761,2.2744622,-3.1500697,-0.3431173,0.87848175,-0.33247623,0
3.5539742,-2.1306577,-4.6067624,0.90191829,0.20928019,-0.37781641,0
3.5605726,5.2486582,2.0965314,0.26232406,0.42950174,0.86412632,0
2.6043942,5.4416585,-1.844389,-0.3431173,0.87848175,-0.33247623,0
-3.6967692,-5.1720572,-2.0932598,-0.26232406,-0.42950174,-0.86412632,0
1.4580426,-1.9377667,6.3067102,0.26232406,0.42950174,0.86412632,0
-3.8266361,3.5631406,4.7493491,-0.90191829,-0.20928019,0.37781641,0
-2.9299936,-4.4888263,2.4296541,-0.90191829,-0.20928019,0.37781641,0
-0.2038579,5.3673501,3.180311,0.26232406,0.42950174,0.86412632,0
-3.2778986,2.4178252,-3.7635202,-0.3431173,0.87848175,-0.33247623,0
4.6321254,-1.0448565,-1.4315678,0.90191829,0.20928019,-0.37781641,0
-0.68855375,-1.2037961,6.5935464,0.26232406,0.42950174,0.86412632,0
1.0347571,-1.0628844,6.00036,0.26232406,0.42950174,0.86412632,0
0.91440511,-1.5490136,6.2785192,0.26232406,0.42950174,0.86412632,0
-2.8399498,3.2257216,5.0450196,0.26232406,0.42950174,0.86412632,0
-0.55504513,-6.075738,-1.9459381,0.3431173,-0.87848175,0.33247623,0
-4.943481,-1.560148,-0.7546621,-0.90191829,-0.20928019,0.37781641,0
-1.2959889,0.98812866,5.6884813,0.26232406,0.42950174,0.86412632,0
3.8956628,-1.5026634,-3.4432287,0.90191829,0.20928019,-0.37781641,0
-0.52256393,-3.9688118,3.5875416,0.3431173,-0.87848175,0.33247623,0
4.7512503,-2.4663005,-1.9345607,0.90191829,0.20928019,-0.37781641,0
3.8854449,-2.068336,-3.7809587,0.90191829,0.20928019,-0.37781641,0
-4.6988139,-4.2442751,-1.6573886,-0.90191829,-0.20928019,0.37781641,0
5.2079668,2.8072355,2.8099046,0.26232406,0.42950174,0.86412632,0
-6.0980587,1.9102434,-2.194252,-0.3431173,0.87848175,-0.33247623,0
2.8228953,-3.2241881,2.102483,0.3431173,-0.87848175,0.33247623,0
-5.0757322,-3.2576056,-2.0106268,-0.90191829,-0.20928019,0.37781641,0
4.1931872,1.8908355,-0.85325539,0.90191829,0.20928019,-0.37781641,0
-2.1955705,-4.746891,-2.7603035,-0.26232406,-0.42950174,-0.86412632,0
-1.1365553,-2.8176103,-4.0407124,-0.26232406,-0.42950174,-0.86412632,0
0.26435411,1.2161878,5.1014514,0.26232406,0.42950174,0.86412632,0
-6.5358315,1.1395586,-3.778801,-0.3431173,0.87848175,-0.33247623,0
4.9780116,1.0640101,0.56227267,0.90191829,0.20928019,-0.37781641,0
-2.1075864,2.9126625,-3.6638112,-0.3431173,0.87848175,-0.33247623,0
-2.4723072,-4.1931682,-2.9515142,-0.26232406,-0.42950174,-0.86412632,0
6.0278931,-0.89969349,4.4034748,0.26232406,0.42950174,0.86412632,0
-2.3136497,-0.74966776,-4.7112212,-0.26232406,-0.42950174,-0.86412632,0
2.5667381,6.353034,0.60254312,-0.3431173,0.87848175,-0.33247623,0
-0.26473737,4.8764215,-0.37692046,-0.3431173,0.87848175,-0.33247623,0
-0.49532533,1.1605759,5.3597097,0.26232406,0.42950174,0.86412632,0
-4.2532077,3.2140827,3.5376921,-0.90191829,-0.20928019,0.37781641,0
-0.79024386,-3.1591451,6.0031219,0.3431173,-0.87848175,0.33247623,0
0.20242262,4.285336,3.5947757,0.26232406,0.42950174,0.86412632,0
-3.1089187,1.9049879,5.5441895,-0.90191829,-0.20928019,0.37781641,0
-0.6707201,4.8390899,-0.056583524,-0.3431173,0.87848175,-0.33247623,0
2.3606119,5.4698524,-1.5183105,-0.3431173,0.87848175,-0.33247623,0
3.8679776,-4.6065488,-4.6707792,-0.26232406,-0.42950174,-0.86412632,0
5.6695433,-0.93553948,4.530076,0.26232406,0.42950174,0.86412632,0
-0.49470353,4.0452309,-2.3357992,-0.3431173,0.87848175,-0.33247623,0
-2.2503989,0.49535608,6.2231379,0.26232406,0.42950174,0.86412632,0
-3.0372829,-6.1974211,0.29422855,0.3431173,-0.87848175,0.33247623,0
-3.6510732,-4.4637933,0.72216821,-0.90191829,-0.20928019,0.37781641,0
-0.26757812,4.2387896,-2.0587637,-0.3431173,0.87848175,-0.33247623,0
1.0440907,0.83045149,-6.5159111,-0.26232406,-0.42950174,-0.86412632,0
2.4668152,4.4134588,-3.5770946,0.90191829,0.20928019,-0.37781641,0
-4.9397545,2.6958032,-1.3139923,-0.3431173,0.87848175,-0.33247623,0
-1.5300455,4.8266716,3.8516405,0.26232406,0.42950174,0.86412632,0
3.619091,-0.44314837,-3.5165703,0.90191829,0.20928019,-0.37781641,0
6.3260374,-0.29847836,3.0255523,0.90191829,0.20928019,-0.37781641,0
1.5900356,4.718442,-2.7084775,-0.3431173,0.87848175,-0.33247623,0
-1.2824886,-4.4266171,3.1621566,0.3431173,-0.87848175,0.33247623,0
2.8630838,2.6006989,-3.6352518,0.90191829,0.20928019,-0.37781641,0
-5.4652023,1.31387,-4.4231243,-0.3431173,0.87848175,-0.33247623,0
-0.46388811,1.0015922,5.4291873,0.26232406,0.42950174,0.86412632,0
4.9669638,-3.8063786,-2.1619062,0.90191829,0.20928019,-0.37781641,0
2.4520745,3.9848781,-3.8496821,0.90191829,0.20928019,-0.37781641,0
2.3935339,-0.26797077,5.1927733,0.26232406,0.42950174,0.86412632,0
-4.7255602,-3.2220719,-2.7501607,-0.26232406,-0.42950174,-0.86412632,0
-0.4234792,-2.7543926,6.6940713,0.3431173,-0.87848175,0.33247623,0
3.8518322,5.1248264,0.12324047,0.90191829,0.20928019,-0.37781641,0
4.2259364,5.2847347,1.8766153,0.26232406,0.42950174,0.86412632,0
-5.0064335,-1.9439073,-1.1175145,-0.90191829,-0.20928019,0.37781641,0
1.9410042,4.2352705,-4.3473315,-0.3431173,0.87848175,-0.33247623,0
6.4164653,-0.89779997,4.284574,0.26232406,0.42950174,0.86412632,0
-1.7035534,-2.3103113,6.5641189,-0.90191829,-0.20928019,0.37781641,0
-3.5236259,3.0357125,5.1805372,-0.90191829,-0.20928019,0.37781641,0
3.2155638,6.1445036,-0.61803746,-0.3431173,0.87848175,-0.33247623,0
2.1198626,4.0072699,-4.630332,0.90191829,0.20928019,-0.37781641,0
-3.1768782,3.353477,-1.3955585,-0.3431173,0.87848175,-0.33247623,0
-0.47082961,-2.2313917,-4.5341792,-0.26232406,-0.42950174,-0.86412632,0
4.1100769,4.178072,0.21529192,0.90191829,0.20928019,-0.37781641,0
-3.1365712,-2.8364472,-3.4242015,-0.26232406,-0.42950174,-0.86412632,0
-4.8472538,2.2244191,-2.654963,-0.3431173,0.87848175,-0.33247623,0
-3.6722569,-4.9095802,0.42466849,-0.90191829,-0.20928019,0.37781641,0
2.863327,-5.0015841,-2.6355479,0.3431173,-0.87848175,0.33247623,0
2.1343682,4.4132891,-4.0765171,-0.3431173,0.87848175,-0.33247623,0
-1.0614431,3.6388068,-2.8247902,-0.3431173,0.87848175,-0.33247623,0
3.0886774,-3.9524515,-0.096052289,0.3431173,-0.87848175,0.33247623,0
2.3921175,5.6817904,-0.99083287,-0.3431173,0.87848175,-0.33247623,0
-2.0655951,5.2073812,3.8249917,0.26232406,0.42950174,0.86412632,0
-5.3571787,3.1065085,0.2019738,-0.3431173,0.87848175,-0.33247623,0
-3.819813,-6.6059132,-0.86720908,-0.90191829,-0.20928019,0.37781641,0
2.0726984,2.9272685,-5.3411565,0.90191829,0.20928019,-0.37781641,0
1.0906043,-5.6307397,-2.4684672,0.3431173,-0.87848175,0.33247623,0
-1.5007387,-3.3519864,6.2268238,0.3431173,-0.87848175,0.33247623,0
-1.7673061,5.1635036,1.9322784,-0.3431173,0.87848175,-0.33247623,0
3.0002599,-3.839344,0.29405248,0.3431173,-0.87848175,0.33247623,0
3.3419802,-4.7861381,-2.5602598,0.3431173,-0.87848175,0.33247623,0
-2.7900674,3.0000978,5.1420197,0.26232406,0.42950174,0.86412632,0
-1.9425788,-6.1314206,-0.66112411,0.3431173,-0.87848175,0.33247623,0
2.1137874,-5.0910301,-2.0983555,0.3431173,-0.87848175,0.33247623,0
-3.5712221,-6.3453522,-0.12944651,-0.90191829,-0.20928019,0.37781641,0
-0.85295355,1.3107228,5.3936472,0.26232406,0.42950174,0.86412632,0
-2.0696132,4.9391837,1.6515533,-0.3431173,0.87848175,-0.33247623,0
3.4237695,3.7849712,2.8655658,0.26232406,0.42950174,0.86412632,0
-1.2579827,1.3071498,5.5183783,0.26232406,0.42950174,0.86412632,0
3.7458775,5.8355513,0.26399148,0.90191829,0.20928019,-0.37781641,0
-5.0028558,3.7089152,2.0222414,-0.90191829,-0.20928019,0.37781641,0
4.8977146,4.1531048,2.2351427,0.26232406,0.42950174,0.86412632,0
0.12296629,-5.4475503,-0.98583019,0.3431173,-0.87848175,0.33247623,0
1.3929954,5.9823847,0.8345083,-0.3431173,0.87848175,-0.33247623,0
-2.9379501,-0.022821665,4.8844714,-0.90191829,-0.20928019,0.37781641,0
-4.5550513,-0.96103168,0.50445503,-0.90191829,-0.20928019,0.37781641,0
-0.75777411,4.950078,0.32651436,-0.3431173,0.87848175,-0.33247623,0
1.9694939,-5.3736382,-2.6961632,0.3431173,-0.87848175,0.33247623,0
3.4761431,-3.0765171,1.8185103,0.3431173,-0.87848175,0.33247623,0
-0.55292225,4.9172773,0.028438926,-0.3431173,0.87848175,-0.33247623,0
5.7324781,-0.90915155,1.2703507,0.90191829,0.20928019,-0.37781641,0
-2.6388566,2.8557637,5.1678557,0.26232406,0.42950174,0.86412632,0
4.3614707,-3.2550011,0.43324924,0.3431173,-0.87848175,0.33247623,0
-0.66072619,1.6604626,5.1614594,0.26232406,0.42950174,0.86412632,0
0.93164325,-2.8921084,4.9316993,0.3431173,-0.87848175,0.33247623,0
-5.4239645,-0.031918526,-1.0551485,-0.90191829,-0.20928019,0.37781641,0
0.78253138,-0.92176104,-5.5655966,-0.26232406,-0.42950174,-0.86412632,0
0.43952847,-4.2970963,1.7272524,0.3431173,-0.87848175,0.33247623,0
-5.3155289,1.8862469,-3.0652304,-0.3431173,0.87848175,-0.33247623,0
-4.3321142,4.170445,1.9552765,-0.3431173,0.87848175,-0.33247623,0
-2.6112819,-3.6711843,3.6433866,-0.90191829,-0.20928019,0.37781641,0
4.8268929,3.3816562,1.4853154,0.90191829,0.20928019,-0.37781641,0
5.5739479,-2.1207693,2.1788769,0.3431173,-0.87848175,0.33247623,0
3.7368002,-1.0220816,-3.5562594,0.90191829,0.20928019,-0.37781641,0
0.82597017,4.8846569,3.1076007,0.26232406,0.42950174,0.86412632,0
-2.9877498,-0.12409019,4.7094951,-0.90191829,-0.20928019,0.37781641,0
-5.1868076,-0.94423962,-0.9943639,-0.90191829,-0.20928019,0.37781641,0
0.6982286,-4.8210788,-3.6019044,-0.26232406,-0.42950174,-0.86412632,0
0.58072841,-1.3503215,-5.2913256,-0.26232406,-0.42950174,-0.86412632,0
4.5096378,1.4323227,3.7052779,0.26232406,0.42950174,0.86412632,0
4.8867412,1.2778065,0.46281937,0.90191829,0.20928019,-0.37781641,0
-1.7800834,-6.0815096,-0.69694364,0.3431173,-0.87848175,0.33247623,0
3.8145652,-5.0863509,-3.8412049,0.3431173,-0.87848175,0.33247623,0
-1.0798495,0.89765978,-5.9045486,-0.26232406,-0.42950174,-0.86412632,0
5.3463664,1.2788599,1.5606143,0.90191829,0.20928019,-0.37781641,0
-0.7262466,-5.862617,-2.6517928,-0.26232406,-0.42950174,-0.86412632,0
-0.68601894,5.1103582,0.6759609,-0.3431173,0.87848175,-0.33247623,0
0.89175725,-4.9771662,-3.5830731,-0.26232406,-0.42950174,-0.86412632,0
-3.9919839,-4.7476749,-2.2145743,-0.26232406,-0.42950174,-0.86412632,0
5.4845099,0.060612202,1.2155761,0.90191829,0.20928019,-0.37781641,0
-0.063094258,1.818274,4.901597,0.26232406,0.42950174,0.86412632,0
0.069244385,-4.784328,-3.4292293,-0.26232406,-0.42950174,-0.86412632,0
-1.9173092,-4.8857517,2.6041536,0.3431173,-0.87848175,0.33247623,0
-4.7223716,3.6505785,0.98441231,-0.3431173,0.87848175,-0.33247623,0
-1.2899203,3.2466068,4.5640941,0.26232406,0.42950174,0.86412632,0
-5.5694714,1.9177221,-2.7199962,-0.3431173,0.87848175,-0.33247623,0
3.9309547,-2.577508,2.6676431,0.3431173,-0.87848175,0.33247623,0
-3.5194533,-1.1067822,2.8958864,-0.90191829,-0.20928019,0.37781641,0
-4.0055847,1.1186254,-5.1262069,-0.26232406,-0.42950174,-0.86412632,0
-4.5282011,1.7415051,-4.2602005,-0.3431173,0.87848175,-0.33247623,0
0.25209522,-3.9246218,2.90485,0.3431173,-0.87848175,0.33247623,0
-2.0303211,-5.0331621,2.3312883,0.3431173,-0.87848175,0.33247623,0
2.42172,4.9358454,-2.992348,-0.3431173,0.87848175,-0.33247623,0
5.6284084,-2.1164231,0.35318482,0.90191829,0.20928019,-0.37781641,0
5.2227902,2.2533286,1.8053937,0.90191829,0.20928019,-0.37781641,0
6.8507605,-0.80654001,3.9967389,0.90191829,0.20928019,-0.37781641,0
-2.4777679,-2.6498849,4.5278282,-0.90191829,-0.20928019,0.37781641,0
-4.8007927,-1.3178015,-0.27979821,-0.90191829,-0.20928019,0.37781641,0
4.1479406,-1.0264902,-2.5772338,0.90191829,0.20928019,-0.37781641,0
5.6697235,-2.5993109,0.8156153,0.3431173,-0.87848175,0.33247623,0
-4.2146049,4.8803711,3.709801,-0.3431173,0.87848175,-0.33247623,0
2.5263436,-0.62691975,-6.2269578,0.90191829,0.20928019,-0.37781641,0
2.185087,-0.12203693,-6.3888645,-0.26232406,-0.42950174,-0.86412632,0
5.9465666,0.71682429,2.6820812,0.90191829,0.20928019,-0.37781641,0
1.8577964,-0.057553142,5.250823,0.26232406,0.42950174,0.86412632,0
2.5110221,4.3751369,-3.4927921,0.90191829,0.20928019,-0.37781641,0
3.5216725,-0.068311453,-3.5414975,0.90191829,0.20928019,-0.37781641,0
3.769417,-2.6306474,2.6939433,0.3431173,-0.87848175,0.33247623,0
-1.7952394,3.4591851,-2.5421109,-0.3431173,0.87848175,-0.33247623,0
-3.9724915,-2.7555585,0.90110922,-0.90191829,-0.20928019,0.37781641,0
1.6047817,-1.080528,5.8360863,0.26232406,0.42950174,0.86412632,0
1.8971531,-3.1512296,-4.7958384,-0.26232406,-0.42950174,-0.86412632,0
4.6181965,-4.0434518,-3.1258013,0.90191829,0.20928019,-0.37781641,0
2.8987036,-3.1084261,-5.1211557,-0.26232406,-0.42950174,-0.86412632,0
1.6719325,5.8400602,2.3759212,0.26232406,0.42950174,0.86412632,0
2.7550552,3.9656,2.97879,0.26232406,0.42950174,0.86412632,0
-4.5050187,-2.5147374,-0.23673686,-0.90191829,-0.20928019,0.37781641,0
2.4410925,-1.4007708,-5.8310032,-0.26232406,-0.42950174,-0.86412632,0
-0.80922151,-4.2477846,-3.4292333,-0.26232406,-0.42950174,-0.86412632,0
-3.8383098,2.0011878,-4.2860284,-0.3431173,0.87848175,-0.33247623,0
-2.6492012,0.9238534,6.0981512,-0.90191829,-0.20928019,0.37781641,0
0.16561532,5.0867348,-0.26534927,-0.3431173,0.87848175,-0.33247623,0
4.0550108,-2.7985492,1.9555721,0.3431173,-0.87848175,0.33247623,0
1.0364239,4.1091948,-3.7469225,-0.3431173,0.87848175,-0.33247623,0
4.4685612,-3.4169788,-0.1052537,0.3431173,-0.87848175,0.33247623,0
4.3645039,3.3449042,0.36114889,0.90191829,0.20928019,-0.37781641,0
-0.57784557,-4.9825144,0.96614778,0.3431173,-0.87848175,0.33247623,0
-3.0867014,0.62982464,4.8908873,-0.90191829,-0.20928019,0.37781641,0
-3.9260743,0.10410762,2.595942,-0.90191829,-0.20928019,0.37781641,0
5.8868017,1.0326931,3.4858403,0.26232406,0.42950174,0.86412632,0
3.8286066,1.5495906,-1.9125992,0.90191829,0.20928019,-0.37781641,0
-1.5897925,1.5915203,5.4777641,0.26232406,0.42950174,0.86412632,0
4.2038364,3.9661365,2.5387144,0.26232406,0.42950174,0.86412632,0
3.2194819,3.2385497,3.1991732,0.26232406,0.42950174,0.86412632,0
4.1567454,2.1926384,-0.77307296,0.90191829,0.20928019,-0.37781641,0
-0.33248937,-2.5835702,7.0515223,0.3431173,-0.87848175,0.33247623,0
-2.985476,-2.9543979,-3.4114439,-0.26232406,-0.42950174,-0.86412632,0
2.7555017,4.7258883,2.6007636,0.26232406,0.42950174,0.86412632,0
3.9402959,-4.4554472,-2.3039598,0.3431173,-0.87848175,0.33247623,0
0.92208987,2.6803546,-7.3983436,-0.26232406,-0.42950174,-0.86412632,0
2.926451,2.6222529,-3.4720438,0.90191829,0.20928019,-0.37781641,0
4.8949671,2.9381855,1.4021732,0.90191829,0.20928019,-0.37781641,0
-3.2272997,2.6140523,-3.2972593,-0.3431173,0.87848175,-0.33247623,0
2.5896106,5.5297947,-1.596256,-0.3431173,0.87848175,-0.33247623,0
4.2452488,-4.1234126,-4.060389,0.90191829,0.20928019,-0.37781641,0
-0.59875798,-5.5784798,-0.58695245,0.3431173,-0.87848175,0.33247623,0
0.79544568,-2.0454881,-5.0109844,-0.26232406,-0.42950174,-0.86412632,0
1.3967512,1.8512001,-7.1303177,-0.26232406,-0.42950174,-0.86412632,0
5.1602421,2.1991439,1.6260657,0.90191829,0.20928019,-0.37781641,0
3.3354321,-2.1715226,4.3549356,0.3431173,-0.87848175,0.33247623,0
-1.5590634,0.3832562,6.0689859,0.26232406,0.42950174,0.86412632,0
-4.9926243,1.9948281,1.0971977,-0.90191829,-0.20928019,0.37781641,0
6.1975198,0.14875197,2.9664855,0.90191829,0.20928019,-0.37781641,0
4.7914081,3.2545114,1.3301775,0.90191829,0.20928019,-0.37781641,0
-2.4807734,-1.7360015,5.0268722,-0.90191829,-0.20928019,0.37781641,0
3.8388574,-2.5734136,-4.1719446,0.90191829,0.20928019,-0.37781641,0
3.3951497,0.76907265,4.3732638,0.26232406,0.42950174,0.86412632,0
5.0464559,-0.9847694,4.7436967,0.26232406,0.42950174,0.86412632,0
5.1100521,-3.668056,-1.74371,0.90191829,0.20928019,-0.37781641,0
4.3321028,4.9408541,1.1678296,0.90191829,0.20928019,-0.37781641,0
-1.9789484,4.0517502,-0.78682369,-0.3431173,0.87848175,-0.33247623,0
3.129899,5.6275468,-1.3216811,0.90191829,0.20928019,-0.37781641,0
-1.0125221,-1.9852949,-4.4920554,-0.26232406,-0.42950174,-0.86412632,0
1.4558492,1.0818381,-6.7658577,-0.26232406,-0.42950174,-0.86412632,0
4.865797,1.2498031,0.39730969,0.90191829,0.20928019,-0.37781641,0
-0.44166613,5.7088494,3.0827656,0.26232406,0.42950174,0.86412632,0
-3.3463011,-4.3045921,-2.6308131,-0.26232406,-0.42950174,-0.86412632,0
-5.791244,1.635985,-3.2355423,-0.3431173,0.87848175,-0.33247623,0
-1.7949669,1.6511803,5.510396,0.26232406,0.42950174,0.86412632,0
0.81419098,0.094125986,5.4922419,0.26232406,0.42950174,0.86412632,0
4.6706228,-0.057284474,4.3967957,0.26232406,0.42950174,0.86412632,0
3.5120595,5.6814203,-0.37955165,0.90191829,0.20928019,-0.37781641,0
4.5461645,-2.590358,-2.4928558,0.90191829,0.20928019,-0.37781641,0
1.7528436,-3.9321806,1.3360963,0.3431173,-0.87848175,0.33247623,0
-2.8077378,-6.5453429,-0.86195731,0.3431173,-0.87848175,0.33247623,0
0.29379177,-5.6789174,-1.7734495,0.3431173,-0.87848175,0.33247623,0
3.0795784,6.1538677,-0.45295632,-0.3431173,0.87848175,-0.33247623,0
-4.109622,3.587394,4.087244,-0.90191829,-0.20928019,0.37781641,0
2.4952674,3.5506897,-3.9870789,0.90191829,0.20928019,-0.37781641,0
-5.470335,-1.7520325,-2.11865,-0.90191829,-0.20928019,0.37781641,0
5.2076955,2.2418785,3.0909891,0.26232406,0.42950174,0.86412632,0
2.3327394,-0.039741278,-6.3638768,0.90191829,0.20928019,-0.37781641,0
-2.1346083,-2.0839379,5.6605034,-0.90191829,-0.20928019,0.37781641,0
1.3376787,-0.82567585,5.7905006,0.26232406,0.42950174,0.86412632,0
4.9639964,-1.6583303,-0.97914433,0.90191829,0.20928019,-0.37781641,0
2.7148924,-2.0365767,5.3518949,0.3431173,-0.87848175,0.33247623,0
3.8083811,-1.8907535,4.6087089,0.3431173,-0.87848175,0.33247623,0
4.1540923,-4.9654675,-3.8721952,0.3431173,-0.87848175,0.33247623,0
-3.0684738,2.3547795,-4.1462297,-0.3431173,0.87848175,-0.33247623,0
0.16534472,6.1375055,2.685437,0.26232406,0.42950174,0.86412632,0
4.4889307,-4.1190195,-3.4762406,0.90191829,0.20928019,-0.37781641,0
2.8806999,-3.6497483,0.91839707,0.3431173,-0.87848175,0.33247623,0
-5.4664645,0.78320813,-0.70508909,-0.90191829,-0.20928019,0.37781641,0
1.6786281,3.4545648,-5.9897947,0.90191829,0.20928019,-0.37781641,0
-1.7650242,5.7072997,3.3667624,-0.3431173,0.87848175,-0.33247623,0
1.8285637,0.59278321,4.9364567,0.26232406,0.42950174,0.86412632,0
-1.9772558,-6.1193953,-0.59356165,0.3431173,-0.87848175,0.33247623,0
-2.0160623,1.5418802,5.6318407,0.26232406,0.42950174,0.86412632,0
3.0247114,-3.5406284,1.0580964,0.3431173,-0.87848175,0.33247623,0
0.72968364,4.2072673,3.4735174,0.26232406,0.42950174,0.86412632,0
-0.28127694,-5.4674735,-2.9832728,-0.26232406,-0.42950174,-0.86412632,0
-1.5748255,1.2684516,5.6337972,0.26232406,0.42950174,0.86412632,0
-3.8331721,0.32536346,-4.7842665,-0.26232406,-0.42950174,-0.86412632,0
0.27003932,0.95646214,5.2288189,0.26232406,0.42950174,0.86412632,0
-1.5989602,4.4723525,-0.067640781,-0.3431173,0.87848175,-0.33247623,0
-3.6871307,-3.6711087,1.0751766,-0.90191829,-0.20928019,0.37781641,0
-5.4973216,2.9948106,0.44630158,-0.90191829,-0.20928019,0.37781641,0
1.795132,1.2718012,-6.9207559,0.90191829,0.20928019,-0.37781641,0
-0.085565805,-1.2057661,-5.1609068,-0.26232406,-0.42950174,-0.86412632,0
3.1344845,-3.8862128,-4.8061442,-0.26232406,-0.42950174,-0.86412632,0
-2.351933,-1.5868123,5.4170771,-0.90191829,-0.20928019,0.37781641,0
0.93514192,4.0216522,-3.8737063,-0.3431173,0.87848175,-0.33247623,0
-4.246294,-0.37441015,1.5664574,-0.90191829,-0.20928019,0.37781641,0
-2.2694068,2.6572642,5.1543627,0.26232406,0.42950174,0.86412632,0
-0.99941444,-1.4828947,-4.7457457,-0.26232406,-0.42950174,-0.86412632,0
1.1413386,-4.7025094,-0.068218946,0.3431173,-0.87848175,0.33247623,0
2.3154292,3.606262,-4.3856039,0.90191829,0.20928019,-0.37781641,0
-3.1442003,-3.0044954,2.7405038,-0.90191829,-0.20928019,0.37781641,0
0.22174406,6.0183086,2.1381671,-0.3431173,0.87848175,-0.33247623,0
-2.1485269,-2.8552873,5.2000113,-0.90191829,-0.20928019,0.37781641,0
-3.2531846,-2.6109641,2.6983225,-0.90191829,-0.20928019,0.37781641,0
-5.773097,2.1873798,-0.65927929,-0.90191829,-0.20928019,0.37781641,0
1.2354367,-1.4594687,-5.4358263,-0.26232406,-0.42950174,-0.86412632,0
-5.6857367,-0.49129605,-1.9345057,-0.90191829,-0.20928019,0.37781641,0
-0.98011255,-0.86773312,-5.0573626,-0.26232406,-0.42950174,-0.86412632,0
-5.7902069,1.4999949,-3.595932,-0.3431173,0.87848175,-0.33247623,0
-4.9010091,-0.30012655,-4.1492109,-0.26232406,-0.42950174,-0.86412632,0
3.2600443,-3.6368601,-4.9681973,-0.26232406,-0.42950174,-0.86412632,0
-2.2465277,3.875319,-0.97685468,-0.3431173,0.87848175,-0.33247623,0
-1.4199013,-3.8651185,-3.434047,-0.26232406,-0.42950174,-0.86412632,0
3.9511402,-4.7124844,-2.9943058,0.3431173,-0.87848175,0.33247623,0
4.500165,-4.4301071,-2.8147941,0.3431173,-0.87848175,0.33247623,0
1.0464482,-3.4298198,3.3924575,0.3431173,-0.87848175,0.33247623,0
-1.9734225,5.4497743,2.9013872,-0.3431173,0.87848175,-0.33247623,0
-5.0646672,-0.63960004,-0.53404659,-0.90191829,-0.20928019,0.37781641,0
1.8980939,4.3799353,-3.9208088,-0.3431173,0.87848175,-0.33247623,0
4.9069672,-2.847435,0.94718075,0.3431173,-0.87848175,0.33247623,0
2.6783016,3.1986697,-3.7451339,0.90191829,0.20928019,-0.37781641,0
-1.9311163,-3.1954973,5.5305619,-0.90191829,-0.20928019,0.37781641,0
4.5869155,-0.56183553,-1.2719358,0.90191829,0.20928019,-0.37781641,0
-0.46083426,4.3816972,3.7482269,0.26232406,0.42950174,0.86412632,0
2.8983049,2.4203265,-3.6510839,0.90191829,0.20928019,-0.37781641,0
3.8463566,1.2604976,3.9920342,0.26232406,0.42950174,0.86412632,0
-1.0062848,-2.0192192,7.0952945,0.26232406,0.42950174,0.86412632,0
-3.1499746,3.2264977,-1.7588328,-0.3431173,0.87848175,-0.33247623,0
-0.12482285,-4.8542128,0.83762866,0.3431173,-0.87848175,0.33247623,0
0.45265365,-5.1413126,-0.51691639,0.3431173,-0.87848175,0.33247623,0
-3.611136,-3.2114885,1.5111831,-0.90191829,-0.20928019,0.37781641,0
-3.036617,-5.3145151,1.7177577,-0.90191829,-0.20928019,0.37781641,0
-1.8655512,-0.52420688,6.6130686,0.26232406,0.42950174,0.86412632,0
0.9123255,3.4778719,-5.2869587,-0.3431173,0.87848175,-0.33247623,0
3.0368359,3.0713785,-2.9597538,0.90191829,0.20928019,-0.37781641,0
2.2178507,-5.1721978,-2.4202149,0.3431173,-0.87848175,0.33247623,0
-3.8283656,-5.9548969,-1.6642114,-0.26232406,-0.42950174,-0.86412632,0
5.1041956,-3.5659931,-1.1549604,0.3431173,-0.87848175,0.33247623,0
-3.8700905,1.002219,3.2270684,-0.90191829,-0.20928019,0.37781641,0
-2.0081353,-6.0016642,-0.25062323,0.3431173,-0.87848175,0.33247623,0
-2.8442516,0.34826279,5.3136983,-0.90191829,-0.20928019,0.37781641,0
1.1093239,-0.051163673,-6.0975199,-0.26232406,-0.42950174,-0.86412632,0
1.7790306,5.0570998,-2.0087063,-0.3431173,0.87848175,-0.33247623,0
