1.2448483,0.6920557,-5.0772729,0.15948284,-0.18136039,-0.97039866,0
4.2420325,4.0793676,-3.1276119,0.11561909,0.97964668,-0.16408694,0
1.317203,-4.607739,3.8902345,-0.11561909,-0.97964668,0.16408694,0
-1.6015303,-5.4931188,-3.4523346,-0.11561909,-0.97964668,0.16408694,0
3.6997466,-3.4336009,0.43654728,0.98040676,-0.086027503,0.17720559,0
3.7474337,5.0706248,2.4419701,0.11561909,0.97964668,-0.16408694,0
-2.4218326,5.1597342,-1.3730078,0.11561909,0.97964668,-0.16408694,0
-2.5884252,1.2199428,-5.8059216,0.15948284,-0.18136039,-0.97039866,0
-0.98886585,3.7988205,-6.0250106,0.15948284,-0.18136039,-0.97039866,0
3.0406947,-2.8304231,4.3756399,0.98040676,-0.086027503,0.17720559,0
-3.1986856,1.9523222,-3.9278281,-0.98040676,0.086027503,-0.17720559,0
4.8394132,3.2961957,-2.6016665,0.98040676,-0.086027503,0.17720559,0
-3.2083409,3.04338,4.0564518,-0.15948284,0.18136039,0.97039866,0
1.1397209,-4.5026445,4.3926206,-0.11561909,-0.97964668,0.16408694,0
-1.4608736,4.8009396,-2.838006,0.11561909,0.97964668,-0.16408694,0
2.8140543,-4.8407183,3.5539937,-0.11561909,-0.97964668,0.16408694,0
-3.3569884,0.88006163,4.4363303,-0.15948284,0.18136039,0.97039866,0
0.85746503,4.709518,-1.7502708,0.11561909,0.97964668,-0.16408694,0
1.3883598,-5.3221927,-0.32512236,-0.11561909,-0.97964668,0.16408694,0
3.6045752,0.5159955,2.8804953,0.98040676,-0.086027503,0.17720559,0
-3.7850251,2.9690833,-0.19024706,-0.98040676,0.086027503,-0.17720559,0
5.0741048,3.6827128,-3.7124772,0.98040676,-0.086027503,0.17720559,0
-2.310919,5.2558107,-0.72125292,0.11561909,0.97964668,-0.16408694,0
2.0676939,5.3145781,4.4990869,-0.15948284,0.18136039,0.97039866,0
-1.8085842,-5.0982895,-1.2409854,-0.11561909,-0.97964668,0.16408694,0
-3.4051547,-5.309824,-4.7197843,0.15948284,-0.18136039,-0.97039866,0
0.52369833,-2.2249923,5.6544247,-0.15948284,0.18136039,0.97039866,0
1.3264257,4.8472433,-0.59757042,0.11561909,0.97964668,-0.16408694,0
-4.1847563,5.6098261,3.3032975,-0.98040676,0.086027503,-0.17720559,0
2.0905471,4.646481,-1.2577653,0.11561909,0.97964668,-0.16408694,0
-3.4727569,-2.6761146,-4.6584578,-0.98040676,0.086027503,-0.17720559,0
-0.10723162,-1.8198762,-4.8300228,0.15948284,-0.18136039,-0.97039866,0
1.0358019,5.317945,4.3288684,-0.15948284,0.18136039,0.97039866,0
1.2425902,-4.8465633,2.4118118,-0.11561909,-0.97964668,0.16408694,0
3.6323209,-4.7509918,0.17003918,0.98040676,-0.086027503,0.17720559,0
-1.0274699,-4.6165142,-4.4585915,0.15948284,-0.18136039,-0.97039866,0
3.5002637,4.2287054,-2.7586884,0.11561909,0.97964668,-0.16408694,0
3.4776499,-1.7153912,2.4994557,0.98040676,-0.086027503,0.17720559,0
-2.1072154,-4.639451,1.287991,-0.11561909,-0.97964668,0.16408694,0
-3.1761241,2.2636409,-3.9015172,-0.98040676,0.086027503,-0.17720559,0
-1.2561815,3.95452,4.2069998,-0.15948284,0.18136039,0.97039866,0
-0.87464404,-3.6969132,-4.6053405,0.15948284,-0.18136039,-0.97039866,0
-0.77801466,2.8830547,-5.8192081,0.15948284,-0.18136039,-0.97039866,0
4.2299256,-0.7474227,-1.1926658,0.98040676,-0.086027503,0.17720559,0
2.5727556,-5.455101,-0.28407049,-0.11561909,-0.97964668,0.16408694,0
1.7548468,-4.0331626,-4.1103477,0.15948284,-0.18136039,-0.97039866,0
4.6241622,-1.7453227,-3.8582635,0.98040676,-0.086027503,0.17720559,0
-0.72208214,-3.0414841,5.6022797,-0.15948284,0.18136039,0.97039866,0
-4.058568,2.4578514,1.0749681,-0.98040676,0.086027503,-0.17720559,0
3.6468334,2.6966631,-5.0571585,0.15948284,-0.18136039,-0.97039866,0
1.1505439,-3.0555401,-4.392374,0.15948284,-0.18136039,-0.97039866,0
3.8629079,1.0181851,1.6950412,0.98040676,-0.086027503,0.17720559,0
-2.1898808,2.9319034,-6.0603743,0.15948284,-0.18136039,-0.97039866,0
0.19226336,-4.173512,-4.3409243,0.15948284,-0.18136039,-0.97039866,0
-0.81887531,-4.6485891,2.1412239,-0.11561909,-0.97964668,0.16408694,0
-2.6511097,5.8084784,2.3386264,0.11561909,0.97964668,-0.16408694,0
-2.6075735,-5.1860757,-2.3280797,-0.11561909,-0.97964668,0.16408694,0
1.5796043,-5.2699151,0.12174511,-0.11561909,-0.97964668,0.16408694,0
3.8303826,-1.5038624,-4.2419453,0.15948284,-0.18136039,-0.97039866,0
-2.7013843,-4.356461,2.5588582,-0.11561909,-0.97964668,0.16408694,0
-0.50731993,2.6623952,-5.73348,0.15948284,-0.18136039,-0.97039866,0
-4.2044392,0.33659887,0.85221565,-0.98040676,0.086027503,-0.17720559,0
-1.2563624,-0.36790511,-5.2902431,0.15948284,-0.18136039,-0.97039866,0
-4.7178211,-4.2359333,1.857621,-0.11561909,-0.97964668,0.16408694,0
0.31002665,2.2454426,4.7838163,-0.15948284,0.18136039,0.97039866,0
-0.31030405,-5.0412207,0.15545034,-0.11561909,-0.97964668,0.16408694,0
0.52751589,1.504662,-5.3470354,0.15948284,-0.18136039,-0.97039866,0
-4.9484072,-2.5740089,3.5552838,-0.98040676,0.086027503,-0.17720559,0
-1.9265223,-3.7063856,5.5285974,-0.15948284,0.18136039,0.97039866,0
-3.8899126,2.9336205,0.37283754,-0.98040676,0.086027503,-0.17720559,0
0.73175192,-3.9932699,6.0190964,-0.15948284,0.18136039,0.97039866,0
-1.6166501,1.0307528,-5.6108541,0.15948284,-0.18136039,-0.97039866,0
-2.9463813,3.7591214,-4.4465852,-0.98040676,0.086027503,-0.17720559,0
-4.1321363,2.0490451,4.0904622,-0.15948284,0.18136039,0.97039866,0
-2.6388218,-3.518714,-4.9285841,0.15948284,-0.18136039,-0.97039866,0
2.0933824,0.30835724,-4.8661079,0.15948284,-0.18136039,-0.97039866,0
3.6569967,-4.8845243,-0.031309605,0.98040676,-0.086027503,0.17720559,0
4.4568582,4.1215653,-2.7243102,0.11561909,0.97964668,-0.16408694,0
-2.2238173,-4.1153226,4.3350272,-0.11561909,-0.97964668,0.16408694,0
4.0867558,-5.9546576,-3.36799,0.15948284,-0.18136039,-0.97039866,0
-3.3870442,2.9041741,-2.4236217,-0.98040676,0.086027503,-0.17720559,0
0.52294564,5.2610817,4.255209,-0.15948284,0.18136039,0.97039866,0
3.8150673,-4.2752848,-0.61008453,0.98040676,-0.086027503,0.17720559,0
-0.83892822,-2.0839856,5.4041262,-0.15948284,0.18136039,0.97039866,0
3.2394898,-1.7601447,3.7953725,0.98040676,-0.086027503,0.17720559,0
4.1604185,4.3642731,1.6734533,0.98040676,-0.086027503,0.17720559,0
4.3497443,-3.0727563,-2.984446,0.98040676,-0.086027503,0.17720559,0
4.3850608,-0.45396042,-1.9084984,0.98040676,-0.086027503,0.17720559,0
-0.089171171,4.9906936,-0.73859072,0.11561909,0.97964668,-0.16408694,0
-4.5492721,0.050170898,2.6209857,-0.98040676,0.086027503,-0.17720559,0
1.0316567,-4.4174771,4.8249516,-0.11561909,-0.97964668,0.16408694,0
-1.0349985,5.7661142,3.2244425,0.11561909,0.97964668,-0.16408694,0
0.60067964,-4.7160239,2.7388659,-0.11561909,-0.97964668,0.16408694,0
-3.9445758,-2.693181,-2.0563626,-0.98040676,0.086027503,-0.17720559,0
-3.3433216,5.3163061,-1.0875325,0.11561909,0.97964668,-0.16408694,0
4.7715588,0.56773233,-4.474431,0.15948284,-0.18136039,-0.97039866,0
2.2546835,-5.9013906,-3.1726685,-0.11561909,-0.97964668,0.16408694,0
-3.9461217,-5.1332178,-2.955668,-0.11561909,-0.97964668,0.16408694,0
-2.6616211,1.3315842,4.4662261,-0.15948284,0.18136039,0.97039866,0
0.61505508,-0.66032362,5.3770137,-0.15948284,0.18136039,0.97039866,0
-3.7504878,-1.5477185,4.8253937,-0.15948284,0.18136039,0.97039866,0
-1.9486468,4.9715614,-2.1630406,0.11561909,0.97964668,-0.16408694,0
2.9941156,4.8710113,0.71941686,0.11561909,0.97964668,-0.16408694,0
2.8018727,-3.0152121,5.607235,0.98040676,-0.086027503,0.17720559,0
2.0994406,4.7255421,-0.77948046,0.11561909,0.97964668,-0.16408694,0
-0.48869419,0.87630355,-5.3966117,0.15948284,-0.18136039,-0.97039866,0
1.7784964,-5.7846837,-2.8114257,-0.11561909,-0.97964668,0.16408694,0
-2.8837206,5.0580091,3.733283,-0.15948284,0.18136039,0.97039866,0
-4.7834921,-2.4610314,2.6977243,-0.98040676,0.086027503,-0.17720559,0
3.8110294,2.4010632,-4.9749274,0.15948284,-0.18136039,-0.97039866,0
-3.9508924,-4.9739652,-2.0082474,-0.11561909,-0.97964668,0.16408694,0
0.76773024,-1.5360925,-4.7392621,0.15948284,-0.18136039,-0.97039866,0
4.0099239,-5.4828019,-2.2743583,0.98040676,-0.086027503,0.17720559,0
4.6313257,4.3079882,-0.95921087,0.98040676,-0.086027503,0.17720559,0
2.54405,0.29584086,5.5153399,-0.15948284,0.18136039,0.97039866,0
0.8012476,1.8548214,-5.3674898,0.15948284,-0.18136039,-0.97039866,0
2.0724857,-4.8426905,3.0196967,-0.11561909,-0.97964668,0.16408694,0
3.1525421,-4.4934773,2.9494729,0.98040676,-0.086027503,0.17720559,0
1.8708975,-4.874012,2.6906533,-0.11561909,-0.97964668,0.16408694,0
2.4755816,4.1588078,-3.8980112,0.11561909,0.97964668,-0.16408694,0
-3.9891696,5.6433201,3.442215,-0.15948284,0.18136039,0.97039866,0
-3.8168848,0.73493147,4.3878713,-0.15948284,0.18136039,0.97039866,0
-1.6855083,1.6951659,4.5586972,-0.15948284,0.18136039,0.97039866,0
-3.3015671,5.0053177,-1.8764977,-0.98040676,0.086027503,-0.17720559,0
1.1828055,4.8280668,4.4445829,-0.15948284,0.18136039,0.97039866,0
3.5981081,-1.3864548,1.9926975,0.98040676,-0.086027503,0.17720559,0
-2.0896199,-5.1547403,-4.5325623,0.15948284,-0.18136039,-0.97039866,0
4.1446152,1.6209645,0.42909923,0.98040676,-0.086027503,0.17720559,0
2.276844,-2.5951054,-4.2933207,0.15948284,-0.18136039,-0.97039866,0
-3.2484555,-0.41891432,-4.8036304,-0.98040676,0.086027503,-0.17720559,0
4.2633953,-0.43375254,-1.2255609,0.98040676,-0.086027503,0.17720559,0
-0.17735672,2.3216338,4.689477,-0.15948284,0.18136039,0.97039866,0
-4.0650387,-4.7747855,-2.4004416,-0.98040676,0.086027503,-0.17720559,0
4.5457811,-1.3746347,-4.1485229,0.15948284,-0.18136039,-0.97039866,0
2.0400262,-4.2084079,-4.0307269,0.15948284,-0.18136039,-0.97039866,0
2.2015188,5.4250383,3.4686382,0.11561909,0.97964668,-0.16408694,0
3.8050673,5.2390437,3.4880903,0.11561909,0.97964668,-0.16408694,0
-0.98824024,-4.4962068,2.9316516,-0.11561909,-0.97964668,0.16408694,0
-0.2577014,-2.0702055,5.4970741,-0.15948284,0.18136039,0.97039866,0
-2.0440497,-5.0248737,-0.96858573,-0.11561909,-0.97964668,0.16408694,0
3.6161451,0.9731915,3.0384359,0.98040676,-0.086027503,0.17720559,0
-3.71457,-3.8417876,-3.8865011,-0.98040676,0.086027503,-0.17720559,0
-4.7282906,0.036542892,3.6048083,-0.98040676,0.086027503,-0.17720559,0
-3.770997,-1.2745311,-2.3279934,-0.98040676,0.086027503,-0.17720559,0
0.11846781,-3.373065,5.802392,-0.15948284,0.18136039,0.97039866,0
3.7359004,5.151535,4.4043279,0.98040676,-0.086027503,0.17720559,0
3.1253548,4.8692789,0.80154991,0.11561909,0.97964668,-0.16408694,0
4.2918987,-0.019467831,-1.1821401,0.98040676,-0.086027503,0.17720559,0
-4.6372342,-2.4026423,1.9168839,-0.98040676,0.086027503,-0.17720559,0
4.0185075,-0.15390444,0.26515973,0.98040676,-0.086027503,0.17720559,0
-1.4542296,5.4138589,0.82598114,0.11561909,0.97964668,-0.16408694,0
-3.9978018,-0.74392581,-0.81558478,-0.98040676,0.086027503,-0.17720559,0
3.6417048,-2.9363899,-4.0052257,0.15948284,-0.18136039,-0.97039866,0
0.71980852,-5.2936139,-0.62557125,-0.11561909,-0.97964668,0.16408694,0
-2.8953919,-0.7837894,4.823154,-0.15948284,0.18136039,0.97039866,0
-2.1547019,-4.9833179,-0.79845381,-0.11561909,-0.97964668,0.16408694,0
4.003345,4.1974554,-2.5907795,0.11561909,0.97964668,-0.16408694,0
-3.6930072,-3.1984453,-3.6934788,-0.98040676,0.086027503,-0.17720559,0
4.3824162,3.8093772,0.17584586,0.98040676,-0.086027503,0.17720559,0
0.28290033,4.2447228,-4.9300804,0.11561909,0.97964668,-0.16408694,0
-4.5856109,-3.7868552,4.6319027,-0.11561909,-0.97964668,0.16408694,0
4.1400218,-0.0094213486,-0.33698726,0.98040676,-0.086027503,0.17720559,0
-1.8217754,-3.9644313,5.5191774,-0.11561909,-0.97964668,0.16408694,0
3.4816122,3.1944685,4.8611097,0.98040676,-0.086027503,0.17720559,0
3.6613579,-5.2274675,-0.2219243,0.98040676,-0.086027503,0.17720559,0
3.4043467,-0.8628757,3.318881,0.98040676,-0.086027503,0.17720559,0
2.3936501,4.160789,-3.9439106,0.11561909,0.97964668,-0.16408694,0
3.1110473,4.5176888,-1.3076267,0.11561909,0.97964668,-0.16408694,0
-1.58022,-2.4800456,-4.9487247,0.15948284,-0.18136039,-0.97039866,0
-3.575938,-1.0042205,-3.275948,-0.98040676,0.086027503,-0.17720559,0
3.3774717,-1.1923873,3.3076038,0.98040676,-0.086027503,0.17720559,0
2.6056795,4.8071823,0.064642429,0.11561909,0.97964668,-0.16408694,0
1.4865062,3.2976868,4.7805119,-0.15948284,0.18136039,0.97039866,0
-0.70654631,1.5604056,-5.5602689,0.15948284,-0.18136039,-0.97039866,0
-3.9010932,-4.7311459,-0.52345705,-0.11561909,-0.97964668,0.16408694,0
3.6645167,3.4296513,3.9633496,0.98040676,-0.086027503,0.17720559,0
4.0517888,4.7991986,1.0359366,0.11561909,0.97964668,-0.16408694,0
-2.9390445,-0.15920353,4.6992493,-0.15948284,0.18136039,0.97039866,0
-4.0357046,2.1481609,4.0877862,-0.15948284,0.18136039,0.97039866,0
-4.0664611,4.0380616,1.8857789,-0.98040676,0.086027503,-0.17720559,0
-4.564929,1.7768621,3.5458603,-0.98040676,0.086027503,-0.17720559,0
-3.0530612,-5.2526131,-3.0392237,-0.11561909,-0.97964668,0.16408694,0
4.5194516,2.4051776,-4.8592691,0.15948284,-0.18136039,-0.97039866,0
-3.7367077,-3.8542435,-3.7700698,-0.98040676,0.086027503,-0.17720559,0
-2.2567787,0.0213269,-5.5274038,0.15948284,-0.18136039,-0.97039866,0
-0.31110179,-5.5717959,-3.0127993,-0.11561909,-0.97964668,0.16408694,0
3.3975048,-4.4370294,1.6216006,0.98040676,-0.086027503,0.17720559,0
3.5660295,-1.8995113,1.9211023,0.98040676,-0.086027503,0.17720559,0
3.8478584,-1.4103434,0.59933114,0.98040676,-0.086027503,0.17720559,0
3.3282709,-2.8074706,2.7957392,0.98040676,-0.086027503,0.17720559,0
-2.8373408,-5.0725155,-1.8119888,-0.11561909,-0.97964668,0.16408694,0
-1.3223403,-2.4510024,-4.9117708,0.15948284,-0.18136039,-0.97039866,0
-0.62437582,4.1713557,-6.0073895,0.11561909,0.97964668,-0.16408694,0
-0.8573904,-0.38056159,5.0827351,-0.15948284,0.18136039,0.97039866,0
3.4780812,-0.17118096,3.2467299,0.98040676,-0.086027503,0.17720559,0
-4.1338,2.0084023,4.0977845,-0.15948284,0.18136039,0.97039866,0
-3.7491374,-2.7495739,5.0502338,-0.15948284,0.18136039,0.97039866,0
1.3548177,-5.4540119,-1.135756,-0.11561909,-0.97964668,0.16408694,0
2.2196636,-4.2905889,-3.9858451,0.15948284,-0.18136039,-0.97039866,0
1.845891,4.0207686,4.7044373,-0.15948284,0.18136039,0.97039866,0
1.624418,-4.7854962,-3.9911776,0.15948284,-0.18136039,-0.97039866,0
-2.4876919,-1.8957183,-5.2070723,0.15948284,-0.18136039,-0.97039866,0
3.5311248,-1.3042955,2.4031727,0.98040676,-0.086027503,0.17720559,0
-2.79668,3.3451617,-5.4757872,-0.98040676,0.086027503,-0.17720559,0
0.31705117,-4.749753,2.3376436,-0.11561909,-0.97964668,0.16408694,0
3.1049023,0.91269493,-4.8128128,0.15948284,-0.18136039,-0.97039866,0
-1.5462861,4.7956438,4.0021219,-0.15948284,0.18136039,0.97039866,0
-1.3408017,4.2449713,-6.0726914,0.11561909,0.97964668,-0.16408694,0
1.656477,-4.2671938,6.1624503,-0.11561909,-0.97964668,0.16408694,0
2.1297328,4.5542202,-1.7809772,0.11561909,0.97964668,-0.16408694,0
-2.6320758,-3.9230356,5.1953669,-0.11561909,-0.97964668,0.16408694,0
-0.31678373,5.3798761,1.4245572,0.11561909,0.97964668,-0.16408694,0
-4.3379931,-4.0127759,3.457572,-0.11561909,-0.97964668,0.16408694,0
-1.5442157,4.5297365,-4.5158925,0.11561909,0.97964668,-0.16408694,0
4.079565,1.7514257,-4.8093824,0.15948284,-0.18136039,-0.97039866,0
-3.1338215,0.13433051,-5.1692743,-0.98040676,0.086027503,-0.17720559,0
2.0971282,4.7043228,4.6179762,-0.15948284,0.18136039,0.97039866,0
-3.7106667,4.7532349,0.26450825,-0.98040676,0.086027503,-0.17720559,0
-3.0186336,3.9017749,-3.9775887,-0.98040676,0.086027503,-0.17720559,0
4.204031,-3.3000603,-3.8448405,0.15948284,-0.18136039,-0.97039866,0
3.5903645,-2.5964122,1.4481442,0.98040676,-0.086027503,0.17720559,0
-4.0234647,-5.0607047,-2.5772426,-0.11561909,-0.97964668,0.16408694,0
-2.1391912,4.3520546,3.9875832,-0.15948284,0.18136039,0.97039866,0
-4.7975559,-4.1764121,2.1567976,-0.11561909,-0.97964668,0.16408694,0
-2.7270751,3.2005258,-5.931098,-0.98040676,0.086027503,-0.17720559,0
2.0241575,-4.3171639,6.1231847,-0.11561909,-0.97964668,0.16408694,0
1.0630009,-4.7986684,2.5712152,-0.11561909,-0.97964668,0.16408694,0
4.3059301,-1.7824821,-2.1156528,0.98040676,-0.086027503,0.17720559,0
3.4529638,1.7755286,4.330761,0.98040676,-0.086027503,0.17720559,0
0.29312778,-4.9973226,0.84272623,-0.11561909,-0.97964668,0.16408694,0
-3.7620416,-4.2035642,2.7243388,-0.11561909,-0.97964668,0.16408694,0
4.0156231,-1.9310379,-0.58162093,0.98040676,-0.086027503,0.17720559,0
0.76650065,-5.2241855,-0.17816257,-0.11561909,-0.97964668,0.16408694,0
3.7632184,-1.7614212,0.89717507,0.98040676,-0.086027503,0.17720559,0
-0.78664589,5.4807081,1.6954808,0.11561909,0.97964668,-0.16408694,0
1.8357987,-0.65225291,5.5761318,-0.15948284,0.18136039,0.97039866,0
0.2033565,-5.6912045,-4.0554552,0.15948284,-0.18136039,-0.97039866,0
-4.6961088,-1.6704235,4.6929159,-0.15948284,0.18136039,0.97039866,0
-2.5638206,5.1988978,-1.2392392,0.11561909,0.97964668,-0.16408694,0
-4.4504395,1.933444,2.9884496,-0.98040676,0.086027503,-0.17720559,0
-1.9607327,-4.6671743,1.2256885,-0.11561909,-0.97964668,0.16408694,0
2.0044098,4.770545,-0.57776117,0.11561909,0.97964668,-0.16408694,0
-1.8139262,-3.3859572,5.4872169,-0.15948284,0.18136039,0.97039866,0
4.4462671,-0.35865641,-2.2008595,0.98040676,-0.086027503,0.17720559,0
4.4200716,-2.9186258,-3.8806219,0.15948284,-0.18136039,-0.97039866,0
-4.5170717,-2.4858553,1.2116748,-0.98040676,0.086027503,-0.17720559,0
4.5577822,0.93978834,-2.1874769,0.98040676,-0.086027503,0.17720559,0
1.5184278,1.2773373,-5.141696,0.15948284,-0.18136039,-0.97039866,0
3.950707,-3.2441208,-0.85992575,0.98040676,-0.086027503,0.17720559,0
1.7417688,-4.5725207,-4.0116949,0.15948284,-0.18136039,-0.97039866,0
1.9178752,5.0503755,1.0319324,0.11561909,0.97964668,-0.16408694,0
1.1564708,-2.2135088,5.7562728,-0.15948284,0.18136039,0.97039866,0
1.9905186,4.4257112,-2.6463044,0.11561909,0.97964668,-0.16408694,0
-0.89395475,4.3473215,4.193119,-0.15948284,0.18136039,0.97039866,0
3.6096299,3.7202349,4.4080844,0.98040676,-0.086027503,0.17720559,0
-1.2594581,-4.30126,3.9044342,-0.11561909,-0.97964668,0.16408694,0
-2.9926553,1.6263399,-5.225965,-0.98040676,0.086027503,-0.17720559,0
-2.1202426,-5.0464549,-1.1511209,-0.11561909,-0.97964668,0.16408694,0
-0.55122328,-4.4049616,3.7843435,-0.11561909,-0.97964668,0.16408694,0
-2.4210002,-4.9639282,-0.870332,-0.11561909,-0.97964668,0.16408694,0
2.514287,-5.1343694,1.5895939,-0.11561909,-0.97964668,0.16408694,0
4.9166327,0.6531496,-4.312005,0.98040676,-0.086027503,0.17720559,0
-1.0712714,4.0409131,-6.0837989,0.15948284,-0.18136039,-0.97039866,0
-1.491703,0.17475176,4.8747029,-0.15948284,0.18136039,0.97039866,0
-3.2487144,-0.28808403,4.6724424,-0.15948284,0.18136039,0.97039866,0
-0.96650505,-3.9340851,-4.5761123,0.15948284,-0.18136039,-0.97039866,0
-2.7426279,-4.505969,1.6371913,-0.11561909,-0.97964668,0.16408694,0
1.6728873,-0.19975471,-4.8402529,0.15948284,-0.18136039,-0.97039866,0
4.0867867,-1.9171681,-0.96860743,0.98040676,-0.086027503,0.17720559,0
4.5905733,1.5558577,-2.0698152,0.98040676,-0.086027503,0.17720559,0
3.8994703,-2.9801044,-0.44828463,0.98040676,-0.086027503,0.17720559,0
-3.5910466,-2.5263708,-3.9313149,-0.98040676,0.086027503,-0.17720559,0
0.91465712,4.2356009,-4.5393925,0.11561909,0.97964668,-0.16408694,0
3.230679,5.085948,2.1693413,0.11561909,0.97964668,-0.16408694,0
-2.1422462,4.6808147,-4.0352936,0.11561909,0.97964668,-0.16408694,0
-0.59494781,0.099591732,5.03613,-0.15948284,0.18136039,0.97039866,0
3.6684909,-5.154829,-0.22612524,0.98040676,-0.086027503,0.17720559,0
3.5663798,1.6274558,3.6313934,0.98040676,-0.086027503,0.17720559,0
3.9369311,4.7590308,0.71518826,0.11561909,0.97964668,-0.16408694,0
-2.4417007,5.8736172,2.8750796,0.11561909,0.97964668,-0.16408694,0
-0.8010931,1.318406,4.7744627,-0.15948284,0.18136039,0.97039866,0
-4.458384,2.8601985,3.4823143,-0.98040676,0.086027503,-0.17720559,0
-1.8441458,2.227437,-5.8718948,0.15948284,-0.18136039,-0.97039866,0
-3.4912314,0.34874868,-3.0877748,-0.98040676,0.086027503,-0.17720559,0
1.0370417,-4.4966197,4.3562441,-0.11561909,-0.97964668,0.16408694,0
-1.3058389,5.4726858,1.2817535,0.11561909,0.97964668,-0.16408694,0
-0.061462402,-4.3698473,4.3390818,-0.11561909,-0.97964668,0.16408694,0
4.3708959,-1.2927895,-2.2373524,0.98040676,-0.086027503,0.17720559,0
4.0180392,-5.4146519,-2.2861705,0.98040676,-0.086027503,0.17720559,0
-3.2371459,4.8767724,-2.2953176,-0.98040676,0.086027503,-0.17720559,0
-3.8881321,-0.011843204,-1.0669401,-0.98040676,0.086027503,-0.17720559,0
2.7558539,-1.7488143,-4.3727622,0.15948284,-0.18136039,-0.97039866,0
-0.42380619,-0.28226513,-5.1694198,0.15948284,-0.18136039,-0.97039866,0
-1.3787575,4.0720768,4.1648841,-0.15948284,0.18136039,0.97039866,0
1.9708099,4.4608579,-2.4503582,0.11561909,0.97964668,-0.16408694,0
-0.57917643,-1.9367661,-4.8857403,0.15948284,-0.18136039,-0.97039866,0
1.1750965,-1.9730628,5.7143965,-0.15948284,0.18136039,0.97039866,0
4.1707034,-1.5577745,-1.2584102,0.98040676,-0.086027503,0.17720559,0
-0.19132555,-5.0735793,0.046095371,-0.11561909,-0.97964668,0.16408694,0
-3.3940516,4.7383113,-1.4944401,-0.98040676,0.086027503,-0.17720559,0
1.2595992,-0.18701653,5.3944855,-0.15948284,0.18136039,0.97039866,0
-3.3434126,-4.491158,1.3022933,-0.11561909,-0.97964668,0.16408694,0
1.2599125,4.1557722,-4.7727203,0.11561909,0.97964668,-0.16408694,0
0.29379082,2.9331787,-5.6524267,0.15948284,-0.18136039,-0.97039866,0
-1.8228953,-3.6939368,-4.7617402,0.15948284,-0.18136039,-0.97039866,0
0.36541075,5.4430614,2.2824814,0.11561909,0.97964668,-0.16408694,0
2.3829682,-2.7423093,-4.2483683,0.15948284,-0.18136039,-0.97039866,0
-3.4352565,1.0324702,-3.0655353,-0.98040676,0.086027503,-0.17720559,0
-3.0283942,-3.5767887,5.3232861,-0.15948284,0.18136039,0.97039866,0
-1.963964,1.2297084,4.5999246,-0.15948284,0.18136039,0.97039866,0
-0.82757449,4.8353095,-2.1865735,0.11561909,0.97964668,-0.16408694,0
1.8916779,-4.4441037,5.2719727,-0.11561909,-0.97964668,0.16408694,0
3.8591371,5.1881371,3.2222629,0.11561909,0.97964668,-0.16408694,0
-2.1901884,-0.27966046,4.8448353,-0.15948284,0.18136039,0.97039866,0
-4.0750942,1.3923326,0.64912724,-0.98040676,0.086027503,-0.17720559,0
1.4880815,-2.026366,-4.5292449,0.15948284,-0.18136039,-0.97039866,0
-4.2539449,-3.84235,4.5342832,-0.11561909,-0.97964668,0.16408694,0
0.67008972,-1.9204232,-4.6834803,0.15948284,-0.18136039,-0.97039866,0
-3.6735106,2.080971,-1.2383595,-0.98040676,0.086027503,-0.17720559,0
-5.2395492,-3.3829017,4.7733688,-0.98040676,0.086027503,-0.17720559,0
-1.329855,0.14583373,4.9067068,-0.15948284,0.18136039,0.97039866,0
-0.89713383,-2.5474339,-4.8238664,0.15948284,-0.18136039,-0.97039866,0
3.7817423,-3.9133556,-0.25000572,0.98040676,-0.086027503,0.17720559,0
-4.5239754,1.0998683,2.9906266,-0.98040676,0.086027503,-0.17720559,0
-1.7785807,4.7764058,-3.2083416,0.11561909,0.97964668,-0.16408694,0
3.556088,2.9986537,4.354003,0.98040676,-0.086027503,0.17720559,0
1.6832545,-5.8104448,-3.0323353,-0.11561909,-0.97964668,0.16408694,0
3.4870317,-3.1763086,1.7383218,0.98040676,-0.086027503,0.17720559,0
3.8881583,1.6582389,1.8660655,0.98040676,-0.086027503,0.17720559,0
3.1031332,0.49632359,-4.7352867,0.15948284,-0.18136039,-0.97039866,0
-1.9328504,-2.8899407,5.3749704,-0.15948284,0.18136039,0.97039866,0
-2.0337553,0.19317889,4.7821741,-0.15948284,0.18136039,0.97039866,0
-1.3132949,1.8656794,-5.7170401,0.15948284,-0.18136039,-0.97039866,0
2.4729047,3.9263096,-5.2879801,0.11561909,0.97964668,-0.16408694,0
4.897089,3.5173051,-2.8134227,0.98040676,-0.086027503,0.17720559,0
-4.2707481,4.824935,3.398015,-0.98040676,0.086027503,-0.17720559,0
-3.0243347,5.4677544,3.633595,-0.15948284,0.18136039,0.97039866,0
4.0177946,-0.49207163,0.10493493,0.98040676,-0.086027503,0.17720559,0
-2.5944767,-4.1162739,-4.8096161,0.15948284,-0.18136039,-0.97039866,0
3.8642325,4.5832272,-0.38563251,0.11561909,0.97964668,-0.16408694,0
-1.3660362,5.7015738,2.605864,0.11561909,0.97964668,-0.16408694,0
3.8301823,1.8000622,2.2556746,0.98040676,-0.086027503,0.17720559,0
3.0132864,5.2235775,2.8378484,0.11561909,0.97964668,-0.16408694,0
3.1258223,-5.8623624,-2.3258357,-0.11561909,-0.97964668,0.16408694,0
-5.0464301,-2.74052,4.0167718,-0.98040676,0.086027503,-0.17720559,0
3.3273041,-5.1609197,-3.6411483,0.15948284,-0.18136039,-0.97039866,0
3.4529035,-2.6590884,2.1782322,0.98040676,-0.086027503,0.17720559,0
2.7380147,3.9307132,-5.0748835,0.11561909,0.97964668,-0.16408694,0
2.676347,4.9866824,1.1861024,0.11561909,0.97964668,-0.16408694,0
4.2139492,-3.3375192,-3.8362103,0.15948284,-0.18136039,-0.97039866,0
-5.0037169,-2.1723876,4.0562673,-0.98040676,0.086027503,-0.17720559,0
-4.2553549,4.7064037,3.5735705,-0.15948284,0.18136039,0.97039866,0
0.97669697,0.81243551,-5.1438413,0.15948284,-0.18136039,-0.97039866,0
2.4833012,5.1467686,2.0058377,0.11561909,0.97964668,-0.16408694,0
-3.9030025,2.7005484,0.3321104,-0.98040676,0.086027503,-0.17720559,0
0.79830599,0.049163342,-5.0305095,0.15948284,-0.18136039,-0.97039866,0
4.0652599,-3.788908,-1.7581782,0.98040676,-0.086027503,0.17720559,0
3.0676417,-2.2638245,4.5016165,0.98040676,-0.086027503,0.17720559,0
3.5987196,4.4973969,4.8457322,0.98040676,-0.086027503,0.17720559,0
4.6881523,2.8956044,-1.9592776,0.98040676,-0.086027503,0.17720559,0
1.8120461,-5.1136942,1.2182136,-0.11561909,-0.97964668,0.16408694,0
5.0236521,1.8593121,-4.3185444,0.98040676,-0.086027503,0.17720559,0
-1.6941571,-5.2085061,-1.8183827,-0.11561909,-0.97964668,0.16408694,0
3.6422653,-4.9543333,0.016302586,0.98040676,-0.086027503,0.17720559,0
-1.7758534,2.9717047,4.3052735,-0.15948284,0.18136039,0.97039866,0
-1.7986622,5.0150361,-1.7977991,0.11561909,0.97964668,-0.16408694,0
-0.56892282,5.2285285,0.34330893,0.11561909,0.97964668,-0.16408694,0
-4.4609327,-1.4588852,4.6920309,-0.15948284,0.18136039,0.97039866,0
-2.2561686,-5.2706442,-2.585367,-0.11561909,-0.97964668,0.16408694,0
-3.2822478,-0.26594114,-4.5424085,-0.98040676,0.086027503,-0.17720559,0
-4.1863451,-4.8315182,-1.7568438,-0.98040676,0.086027503,-0.17720559,0
3.1151989,-4.5200357,3.1431875,0.98040676,-0.086027503,0.17720559,0
3.632477,-3.1575246,-3.9654136,0.15948284,-0.18136039,-0.97039866,0
1.311708,5.3100033,2.1548665,0.11561909,0.97964668,-0.16408694,0
-0.4491415,5.7970753,3.9952753,-0.15948284,0.18136039,0.97039866,0
2.0514579,0.086094618,5.4735832,-0.15948284,0.18136039,0.97039866,0
3.2048666,-5.2796149,-3.6390872,0.15948284,-0.18136039,-0.97039866,0
-4.5655665,-2.2022796,4.8137698,-0.15948284,0.18136039,0.97039866,0
-1.8373373,-4.7668262,0.71768522,-0.11561909,-0.97964668,0.16408694,0
3.5371909,-1.6547914,-4.2619228,0.15948284,-0.18136039,-0.97039866,0
3.2804914,3.9435687,-4.6158934,0.11561909,0.97964668,-0.16408694,0
-3.3473876,-1.078562,-4.5765185,-0.98040676,0.086027503,-0.17720559,0
2.2851124,-1.1253874,5.7384009,-0.15948284,0.18136039,0.97039866,0
-4.7277284,-2.6431246,4.8695097,-0.15948284,0.18136039,0.97039866,0
1.5839419,4.3932953,-3.1263206,0.11561909,0.97964668,-0.16408694,0
-3.4142251,-0.79572701,-4.0694265,-0.98040676,0.086027503,-0.17720559,0
-1.5693648,-2.4978657,-4.9436102,0.15948284,-0.18136039,-0.97039866,0
0.53782368,-0.30836546,5.2985425,-0.15948284,0.18136039,0.97039866,0
4.5825977,3.366111,-1.1468723,0.98040676,-0.086027503,0.17720559,0
4.5558825,1.8062038,-1.7563472,0.98040676,-0.086027503,0.17720559,0
1.2558908,3.9901228,4.6131997,-0.15948284,0.18136039,0.97039866,0
3.2796798,-5.8328638,-2.0413098,-0.11561909,-0.97964668,0.16408694,0
2.0995421,2.3312492,-5.2431593,0.15948284,-0.18136039,-0.97039866,0
4.560648,3.3246806,-1.0455409,0.98040676,-0.086027503,0.17720559,0
3.022656,-3.2482615,4.2725973,0.98040676,-0.086027503,0.17720559,0
-3.1868811,-0.94478989,4.8053384,-0.15948284,0.18136039,0.97039866,0
-3.2434628,-0.24066615,-4.74472,-0.98040676,0.086027503,-0.17720559,0
-3.5108342,-3.4189618,-4.8084216,-0.98040676,0.086027503,-0.17720559,0
-3.2235239,0.43960404,-4.524786,-0.98040676,0.086027503,-0.17720559,0
0.063048363,4.4906054,4.3236217,-0.15948284,0.18136039,0.97039866,0
4.1150112,0.35702372,-0.020717025,0.98040676,-0.086027503,0.17720559,0
3.0263548,3.9802017,-4.5762529,0.11561909,0.97964668,-0.16408694,0
-2.1171086,-2.2069511,-5.0880003,0.15948284,-0.18136039,-0.97039866,0
4.114006,1.9805911,0.77303243,0.98040676,-0.086027503,0.17720559,0
-3.1548049,-0.12339997,-5.1782975,-0.98040676,0.086027503,-0.17720559,0
3.2371054,4.0346889,-4.1024528,0.11561909,0.97964668,-0.16408694,0
0.78822756,4.2258711,4.49228,-0.15948284,0.18136039,0.97039866,0
1.2028294,2.7868025,-5.4756713,0.15948284,-0.18136039,-0.97039866,0
4.1087408,4.9745531,2.1229794,0.11561909,0.97964668,-0.16408694,0
3.7349262,-0.64719534,-4.417738,0.15948284,-0.18136039,-0.97039866,0
4.0131221,5.0342784,2.4121826,0.11561909,0.97964668,-0.16408694,0
-1.4060512,-3.2865136,5.5356655,-0.15948284,0.18136039,0.97039866,0
-2.1632893,-5.379477,-3.1696882,-0.11561909,-0.97964668,0.16408694,0
2.5006795,4.9165564,0.64365149,0.11561909,0.97964668,-0.16408694,0
3.5029755,3.6144888,4.9468231,0.98040676,-0.086027503,0.17720559,0
4.4038754,3.9616394,0.13103771,0.98040676,-0.086027503,0.17720559,0
1.5346475,4.53092,-2.3393972,0.11561909,0.97964668,-0.16408694,0
3.1790271,-4.1254797,2.9815927,0.98040676,-0.086027503,0.17720559,0
2.3656538,-5.6581101,-1.6420236,-0.11561909,-0.97964668,0.16408694,0
-3.4200349,1.7871504,-2.7833779,-0.98040676,0.086027503,-0.17720559,0
-0.81327486,-1.3337642,-5.0369105,0.15948284,-0.18136039,-0.97039866,0
-4.020175,5.2143736,2.2007551,-0.98040676,0.086027503,-0.17720559,0
-2.3625584,4.6007752,-4.6683927,0.11561909,0.97964668,-0.16408694,0
3.3991823,0.54090881,-4.6949649,0.15948284,-0.18136039,-0.97039866,0
-3.1678343,2.6891057,4.1293201,-0.15948284,0.18136039,0.97039866,0
-4.482511,-2.0026574,4.790112,-0.15948284,0.18136039,0.97039866,0
-0.9364953,-4.4571891,3.2010596,-0.11561909,-0.97964668,0.16408694,0
-2.801096,-5.1039424,-1.9740772,-0.11561909,-0.97964668,0.16408694,0
3.5250351,-1.3576293,2.4109726,0.98040676,-0.086027503,0.17720559,0
4.8648043,0.6394949,-4.031888,0.98040676,-0.086027503,0.17720559,0
5.1631837,3.5418477,-4.9659085,0.15948284,-0.18136039,-0.97039866,0
4.490098,2.33639,-4.8512373,0.15948284,-0.18136039,-0.97039866,0
1.9645219,-4.0024304,6.2234101,-0.15948284,0.18136039,0.97039866,0
4.8704147,2.3020887,-3.25579,0.98040676,-0.086027503,0.17720559,0
-3.8543279,-5.2091389,-3.34426,-0.11561909,-0.97964668,0.16408694,0
2.2573647,-3.4402611,6.1664739,-0.15948284,0.18136039,0.97039866,0
1.7199824,-4.7737627,3.1828365,-0.11561909,-0.97964668,0.16408694,0
-3.6376681,-4.4992518,-4.631146,-0.98040676,0.086027503,-0.17720559,0
0.63389683,1.5452559,-5.3371382,0.15948284,-0.18136039,-0.97039866,0
3.9798033,2.8013742,1.9139869,0.98040676,-0.086027503,0.17720559,0
0.18177319,3.5300498,4.522655,-0.15948284,0.18136039,0.97039866,0
3.443568,2.326154,4.6500568,0.98040676,-0.086027503,0.17720559,0
-2.8569157,2.2063808,4.270637,-0.15948284,0.18136039,0.97039866,0
1.5745492,1.6100938,-5.1946621,0.15948284,-0.18136039,-0.97039866,0
4.2770925,3.7366686,0.72326088,0.98040676,-0.086027503,0.17720559,0
-2.4435635,4.5538568,3.8998442,-0.15948284,0.18136039,0.97039866,0
-3.1947441,0.058939934,-4.8688107,-0.98040676,0.086027503,-0.17720559,0
-3.7147913,0.95044351,-1.5588062,-0.98040676,0.086027503,-0.17720559,0
-5.0537105,-3.7711747,4.3956904,-0.11561909,-0.97964668,0.16408694,0
3.632067,2.114666,3.5044961,0.98040676,-0.086027503,0.17720559,0
-0.99788737,4.8478918,-2.2314568,0.11561909,0.97964668,-0.16408694,0
2.8864098,-2.3374014,5.4685788,0.98040676,-0.086027503,0.17720559,0
-3.7691934,-0.54689622,-1.9847292,-0.98040676,0.086027503,-0.17720559,0
3.9875512,5.1035814,2.8079243,0.11561909,0.97964668,-0.16408694,0
-4.0112524,1.839448,4.1495008,-0.15948284,0.18136039,0.97039866,0
0.12299728,2.158267,-5.5356712,0.15948284,-0.18136039,-0.97039866,0
3.1686301,2.6784108,-5.132339,0.15948284,-0.18136039,-0.97039866,0
2.5501084,-1.2828233,5.8113761,-0.15948284,0.18136039,0.97039866,0
-2.1738513,-5.1642227,-1.8920023,-0.11561909,-0.97964668,0.16408694,0
-1.2234387,-5.0081615,-4.4176021,0.15948284,-0.18136039,-0.97039866,0
-0.36280012,-5.5133343,-2.7001915,-0.11561909,-0.97964668,0.16408694,0
-1.7908792,-4.364727,3.1510684,-0.11561909,-0.97964668,0.16408694,0
-2.3747373,1.8940903,-5.8967953,0.15948284,-0.18136039,-0.97039866,0
2.9840801,1.1322502,5.4313393,-0.15948284,0.18136039,0.97039866,0
2.1388354,0.33004713,-4.8626914,0.15948284,-0.18136039,-0.97039866,0
3.77876,-5.669518,-1.0860658,0.98040676,-0.086027503,0.17720559,0
3.9480672,2.4250762,1.9068881,0.98040676,-0.086027503,0.17720559,0
0.61309457,2.8315878,4.7240791,-0.15948284,0.18136039,0.97039866,0
-0.95329714,3.8432059,-6.0274606,0.15948284,-0.18136039,-0.97039866,0
-2.8345275,-4.2217026,3.2695892,-0.11561909,-0.97964668,0.16408694,0
-0.54146934,-5.6459551,-3.6178718,-0.11561909,-0.97964668,0.16408694,0
-0.39099979,-2.4011171,5.5370121,-0.15948284,0.18136039,0.97039866,0
-4.0144973,-2.5793514,-1.6142538,-0.98040676,0.086027503,-0.17720559,0
0.89162993,-3.8723578,-4.2822685,0.15948284,-0.18136039,-0.97039866,0
3.14575,2.3719597,-5.078826,0.15948284,-0.18136039,-0.97039866,0
3.4326975,-4.4148722,1.4376493,0.98040676,-0.086027503,0.17720559,0
-2.9401369,2.0019908,-5.3341618,-0.98040676,0.086027503,-0.17720559,0
0.75661182,-1.9030585,-4.6725059,0.15948284,-0.18136039,-0.97039866,0
-0.94315481,0.30814737,-5.3651171,0.15948284,-0.18136039,-0.97039866,0
4.177681,-1.8215384,-1.4250619,0.98040676,-0.086027503,0.17720559,0
-0.59906626,-1.294984,-5.0089531,0.15948284,-0.18136039,-0.97039866,0
-5.004631,-3.4360223,3.4478693,-0.98040676,0.086027503,-0.17720559,0
2.8251309,-1.9799824,-4.3181729,0.15948284,-0.18136039,-0.97039866,0
4.5452771,4.1201715,-0.57431698,0.98040676,-0.086027503,0.17720559,0
0.81042981,-4.7230926,2.8444586,-0.11561909,-0.97964668,0.16408694,0
-0.76888704,-1.8887892,5.3791571,-0.15948284,0.18136039,0.97039866,0
-0.9919107,4.9006405,-1.9123211,0.11561909,0.97964668,-0.16408694,0
-4.0276709,4.0910406,3.7259967,-0.15948284,0.18136039,0.97039866,0
-2.2704945,-3.3652287,5.4083071,-0.15948284,0.18136039,0.97039866,0
-2.2893555,-4.4553485,2.2587938,-0.11561909,-0.97964668,0.16408694,0
-2.6470268,2.5234938,4.2458658,-0.15948284,0.18136039,0.97039866,0
-2.9605398,1.086906,4.4628282,-0.15948284,0.18136039,0.97039866,0
-2.0381565,-1.2521088,5.0515642,-0.15948284,0.18136039,0.97039866,0
1.4476938,2.8614647,4.85566,-0.15948284,0.18136039,0.97039866,0
-0.62583256,-1.822899,-4.9146891,0.15948284,-0.18136039,-0.97039866,0
-3.8369889,5.1375217,1.1499529,-0.98040676,0.086027503,-0.17720559,0
-0.17780304,4.5988197,-3.1406403,0.11561909,0.97964668,-0.16408694,0
3.7364006,-1.1986473,1.3187551,0.98040676,-0.086027503,0.17720559,0
-2.7397857,3.8671672,3.9794984,-0.15948284,0.18136039,0.97039866,0
-0.98642254,0.4955225,4.8977952,-0.15948284,0.18136039,0.97039866,0
-3.3357685,3.1020861,4.024538,-0.15948284,0.18136039,0.97039866,0
-3.0492206,4.0592008,-3.731936,-0.98040676,0.086027503,-0.17720559,0
-1.6400051,-1.0065479,5.0711064,-0.15948284,0.18136039,0.97039866,0
2.559154,-3.8079011,6.2847815,-0.15948284,0.18136039,0.97039866,0
0.91054201,-2.0305796,-4.6233754,0.15948284,-0.18136039,-0.97039866,0
3.0722098,-3.2290559,4.0077543,0.98040676,-0.086027503,0.17720559,0
4.2458539,-1.4361815,-1.6151581,0.98040676,-0.086027503,0.17720559,0
5.1507082,3.6619081,-4.9796972,0.11561909,0.97964668,-0.16408694,0
-4.3501315,-2.5870733,0.23892605,-0.98040676,0.086027503,-0.17720559,0
4.6887555,0.72373247,-3.0169854,0.98040676,-0.086027503,0.17720559,0
3.7976103,3.884171,-4.6061406,0.11561909,0.97964668,-0.16408694,0
-2.9054985,5.4167242,-0.17950296,0.11561909,0.97964668,-0.16408694,0
-4.2208595,0.72741842,1.1327963,-0.98040676,0.086027503,-0.17720559,0
-3.1661434,-0.54101741,-5.318306,-0.98040676,0.086027503,-0.17720559,0
-2.4426699,4.4538984,-5.6017332,0.11561909,0.97964668,-0.16408694,0
-3.5990872,3.422092,-0.9990449,-0.98040676,0.086027503,-0.17720559,0
2.7601485,-3.9174881,5.4000516,0.98040676,-0.086027503,0.17720559,0
1.5017588,-5.3180718,-3.9118018,0.15948284,-0.18136039,-0.97039866,0
-4.2842026,1.9365602,2.0702429,-0.98040676,0.086027503,-0.17720559,0
2.9393582,1.3974566,-4.9306178,0.15948284,-0.18136039,-0.97039866,0
3.6453328,4.0004358,-4.0193052,0.11561909,0.97964668,-0.16408694,0
-3.5296764,-0.74776626,-3.4073961,-0.98040676,0.086027503,-0.17720559,0
3.9375832,-4.4480782,-1.3717999,0.98040676,-0.086027503,0.17720559,0
-3.3234801,-4.600482,0.66364431,-0.11561909,-0.97964668,0.16408694,0
2.0151253,-1.9825662,5.8542299,-0.15948284,0.18136039,0.97039866,0
0.66978645,3.3072968,4.6444898,-0.15948284,0.18136039,0.97039866,0
-3.8179998,2.0539052,-0.45209837,-0.98040676,0.086027503,-0.17720559,0
-2.6256342,-4.0590806,4.3876777,-0.11561909,-0.97964668,0.16408694,0
-3.4654093,-2.5865595,5.0663977,-0.15948284,0.18136039,0.97039866,0
3.9719243,3.5919185,2.341361,0.98040676,-0.086027503,0.17720559,0
2.5507398,-4.4744048,5.5554523,-0.11561909,-0.97964668,0.16408694,0
3.7959585,-4.1804132,-3.7473752,0.15948284,-0.18136039,-0.97039866,0
0.71236992,4.0809522,-5.6052222,0.11561909,0.97964668,-0.16408694,0
2.2168956,3.4546475,-5.4338279,0.15948284,-0.18136039,-0.97039866,0
1.8457017,-4.7640004,3.3297024,-0.11561909,-0.97964668,0.16408694,0
3.3789618,-1.127645,-4.3864479,0.15948284,-0.18136039,-0.97039866,0
0.73390865,-3.6336999,5.9522491,-0.15948284,0.18136039,0.97039866,0
2.5403812,-4.7497778,3.904099,-0.11561909,-0.97964668,0.16408694,0
-2.5404122,5.6808295,1.6545253,0.11561909,0.97964668,-0.16408694,0
4.4365482,3.4396565,-0.30313325,0.98040676,-0.086027503,0.17720559,0
-4.1560802,4.060843,2.3926642,-0.98040676,0.086027503,-0.17720559,0
4.8395805,1.2526169,-3.5946822,0.98040676,-0.086027503,0.17720559,0
1.562927,3.2372403,4.8043685,-0.15948284,0.18136039,0.97039866,0
-0.53594363,5.0995317,-0.40360117,0.11561909,0.97964668,-0.16408694,0
-2.7610199,5.220458,-1.2494678,0.11561909,0.97964668,-0.16408694,0
1.28933,4.7509422,4.4765034,-0.15948284,0.18136039,0.97039866,0
0.57476139,2.4466789,4.7897158,-0.15948284,0.18136039,0.97039866,0
0.33472633,4.5159903,-3.2740178,0.11561909,0.97964668,-0.16408694,0
-2.2426622,-5.276783,-2.6125031,-0.11561909,-0.97964668,0.16408694,0
-3.2878966,1.6928627,-3.5602212,-0.98040676,0.086027503,-0.17720559,0
4.5502491,-0.41052532,-2.8013313,0.98040676,-0.086027503,0.17720559,0
-2.6123466,0.92722213,-5.7551455,0.15948284,-0.18136039,-0.97039866,0
-0.63348699,-5.5084324,-2.8616598,-0.11561909,-0.97964668,0.16408694,0
-3.5928183,5.3044872,-0.11988592,-0.98040676,0.086027503,-0.17720559,0
4.5496111,-1.085535,-3.1255002,0.98040676,-0.086027503,0.17720559,0
3.7093792,-3.3958943,0.40156078,0.98040676,-0.086027503,0.17720559,0
2.6237104,-5.6267858,-1.2731762,-0.11561909,-0.97964668,0.16408694,0
-2.9806561,-5.3539672,-3.5933213,-0.11561909,-0.97964668,0.16408694,0
3.0200033,-1.5494249,5.1119995,0.98040676,-0.086027503,0.17720559,0
3.3230171,0.74663818,4.5502095,0.98040676,-0.086027503,0.17720559,0
3.1888323,0.71493626,-4.7620597,0.15948284,-0.18136039,-0.97039866,0
4.2425642,1.8181844,-0.017071784,0.98040676,-0.086027503,0.17720559,0
2.7835867,5.3529863,3.4486036,0.11561909,0.97964668,-0.16408694,0
0.12614465,-5.6840596,-3.374953,-0.11561909,-0.97964668,0.16408694,0
3.8563254,0.91106319,1.6794544,0.98040676,-0.086027503,0.17720559,0
-3.9031215,-5.0308905,-2.3144481,-0.11561909,-0.97964668,0.16408694,0
3.1914639,-2.213135,3.8411679,0.98040676,-0.086027503,0.17720559,0
-4.8579664,-0.15998173,4.2268467,-0.98040676,0.086027503,-0.17720559,0
-1.3301475,5.2459645,-0.08896637,0.11561909,0.97964668,-0.16408694,0
-3.0102258,-4.7605891,-0.071518898,-0.11561909,-0.97964668,0.16408694,0
3.6732903,5.0308728,4.6921492,0.98040676,-0.086027503,0.17720559,0
-3.3413568,-1.1826354,-4.6604085,-0.98040676,0.086027503,-0.17720559,0
-4.6624355,-0.93212175,2.7702043,-0.98040676,0.086027503,-0.17720559,0
4.5072002,-2.4525414,-3.9534106,0.15948284,-0.18136039,-0.97039866,0
-2.7693372,4.5306616,-5.0515385,-0.98040676,0.086027503,-0.17720559,0
1.0887852,-1.8209896,5.6717901,-0.15948284,0.18136039,0.97039866,0
-4.5195913,-4.3435369,1.3548727,-0.11561909,-0.97964668,0.16408694,0
-4.1607366,-4.877161,-1.57816,-0.11561909,-0.97964668,0.16408694,0
0.90452659,-5.6351404,-2.5344267,-0.11561909,-0.97964668,0.16408694,0
-3.2603927,-3.1328094,5.2021818,-0.15948284,0.18136039,0.97039866,0
1.814599,-3.6970663,6.1417012,-0.15948284,0.18136039,0.97039866,0
-3.9132776,-3.691926,-2.714381,-0.98040676,0.086027503,-0.17720559,0
3.3898454,-5.5922356,-0.52706861,-0.11561909,-0.97964668,0.16408694,0
4.6022797,4.0675402,-2.9443915,0.11561909,0.97964668,-0.16408694,0
-4.0042076,-4.3670578,1.5775969,-0.11561909,-0.97964668,0.16408694,0
3.2122529,4.9468164,1.3257012,0.11561909,0.97964668,-0.16408694,0
-0.97280502,-4.4936924,2.9575386,-0.11561909,-0.97964668,0.16408694,0
2.6732917,-5.9668689,-3.2686353,-0.11561909,-0.97964668,0.16408694,0
1.3128207,5.2431121,4.388381,-0.15948284,0.18136039,0.97039866,0
-4.5006852,-2.2622485,1.2295681,-0.98040676,0.086027503,-0.17720559,0
0.93438816,-3.1612964,5.8969088,-0.15948284,0.18136039,0.97039866,0
-4.6953039,-0.59391451,3.1162367,-0.98040676,0.086027503,-0.17720559,0
4.269618,0.7020421,-0.70859838,0.98040676,-0.086027503,0.17720559,0
-3.0363038,3.1642208,-4.2378845,-0.98040676,0.086027503,-0.17720559,0
0.61366892,4.710969,-1.913394,0.11561909,0.97964668,-0.16408694,0
-3.4565096,-4.511601,1.1005518,-0.11561909,-0.97964668,0.16408694,0
4.2618465,3.7571666,-5.0372815,0.11561909,0.97964668,-0.16408694,0
2.6321421,-5.2377515,1.0554123,-0.11561909,-0.97964668,0.16408694,0
4.2677064,-0.18207645,-4.4171042,0.15948284,-0.18136039,-0.97039866,0
-3.4151392,-2.9646506,-5.1173096,-0.98040676,0.086027503,-0.17720559,0
-3.904994,-4.8617926,-3.3281412,-0.98040676,0.086027503,-0.17720559,0
-3.2301588,3.9988201,-2.7601948,-0.98040676,0.086027503,-0.17720559,0
-2.6555378,-4.383132,2.4319313,-0.11561909,-0.97964668,0.16408694,0
-3.1673684,-0.84550035,-5.4593463,-0.98040676,0.086027503,-0.17720559,0
4.7095556,2.7611146,-2.1429811,0.98040676,-0.086027503,0.17720559,0
1.6679373,-1.5750141,-4.5840406,0.15948284,-0.18136039,-0.97039866,0
3.4271829,-1.6170034,-4.287065,0.15948284,-0.18136039,-0.97039866,0
1.7475939,3.1373301,-5.4516516,0.15948284,-0.18136039,-0.97039866,0
-3.5659046,4.5559449,3.7149999,-0.15948284,0.18136039,0.97039866,0
-3.662076,3.9184527,-0.40958548,-0.98040676,0.086027503,-0.17720559,0
4.8350182,4.1660781,-2.1550493,0.98040676,-0.086027503,0.17720559,0
-3.4399292,-1.808338,-4.4188042,-0.98040676,0.086027503,-0.17720559,0
-3.4019647,-3.2748289,5.2054572,-0.15948284,0.18136039,0.97039866,0
4.204206,-5.5561819,-3.3848686,0.98040676,-0.086027503,0.17720559,0
-2.124711,-4.5646296,1.7223678,-0.11561909,-0.97964668,0.16408694,0
-3.7479784,5.1095557,0.64391994,-0.98040676,0.086027503,-0.17720559,0
2.1104097,5.5351849,4.0620461,0.11561909,0.97964668,-0.16408694,0
-2.6935534,-2.0974271,-5.203207,0.15948284,-0.18136039,-0.97039866,0
-3.3404756,-0.92727542,-4.5413136,-0.98040676,0.086027503,-0.17720559,0
-4.5751376,-4.1821108,2.2794948,-0.11561909,-0.97964668,0.16408694,0
-0.25627899,-0.8817482,5.2751946,-0.15948284,0.18136039,0.97039866,0
-0.077555656,4.9636383,-0.89193392,0.11561909,0.97964668,-0.16408694,0
2.0585451,4.4573164,-2.4096808,0.11561909,0.97964668,-0.16408694,0
0.18569994,0.67792964,-5.2487016,0.15948284,-0.18136039,-0.97039866,0
2.5037699,-1.6304448,5.8687286,-0.15948284,0.18136039,0.97039866,0
4.6935802,4.1986828,-1.3567042,0.98040676,-0.086027503,0.17720559,0
-2.4345517,5.4922476,3.7259471,-0.15948284,0.18136039,0.97039866,0
-4.3473673,-4.5136786,0.46043086,-0.11561909,-0.97964668,0.16408694,0
-4.7675695,-2.8969359,2.39801,-0.98040676,0.086027503,-0.17720559,0
2.1399314,4.0148745,4.7538638,-0.15948284,0.18136039,0.97039866,0
3.4624,-0.544379,3.1523154,0.98040676,-0.086027503,0.17720559,0
3.7768281,4.8797007,1.3228118,0.11561909,0.97964668,-0.16408694,0
-3.1913223,-3.9525471,4.6251173,-0.11561909,-0.97964668,0.16408694,0
4.4911256,0.70894718,-1.9307564,0.98040676,-0.086027503,0.17720559,0
3.823276,0.96138716,1.886735,0.98040676,-0.086027503,0.17720559,0
3.3995609,-5.4948287,0.061329365,-0.11561909,-0.97964668,0.16408694,0
4.3567381,-4.1480508,-3.545161,0.98040676,-0.086027503,0.17720559,0
1.3243744,-5.132885,0.76001596,-0.11561909,-0.97964668,0.16408694,0
4.2989011,-0.87833357,-1.6378298,0.98040676,-0.086027503,0.17720559,0
3.7097561,-2.1597524,0.99958134,0.98040676,-0.086027503,0.17720559,0
2.4448164,-5.4488173,-3.7323771,0.15948284,-0.18136039,-0.97039866,0
4.3641067,1.5121722,-0.83807361,0.98040676,-0.086027503,0.17720559,0
1.8468819,4.6108751,-1.6420336,0.11561909,0.97964668,-0.16408694,0
4.3654752,3.8363898,-4.4912786,0.11561909,0.97964668,-0.16408694,0
-0.041141033,-0.49864292,-5.0660896,0.15948284,-0.18136039,-0.97039866,0
3.4527793,4.3532963,4.9063787,-0.15948284,0.18136039,0.97039866,0
4.2695456,3.6730707,0.73414063,0.98040676,-0.086027503,0.17720559,0
-1.0694187,-5.5190964,-3.2324922,-0.11561909,-0.97964668,0.16408694,0
3.7930093,1.0606658,2.102386,0.98040676,-0.086027503,0.17720559,0
-2.4698725,-2.7875271,5.2675714,-0.15948284,0.18136039,0.97039866,0
4.1100283,2.6376088,-4.9699969,0.15948284,-0.18136039,-0.97039866,0
3.1360223,-2.0734215,4.2157297,0.98040676,-0.086027503,0.17720559,0
1.0912814,2.3127389,4.8996372,-0.15948284,0.18136039,0.97039866,0
0.58466005,-4.3857365,4.6994891,-0.11561909,-0.97964668,0.16408694,0
0.086258888,-3.0209088,5.7312832,-0.15948284,0.18136039,0.97039866,0
-2.96171,-4.5755138,-4.784142,0.15948284,-0.18136039,-0.97039866,0
-0.85987043,2.5531964,4.5340295,-0.15948284,0.18136039,0.97039866,0
3.3947706,3.9098268,-4.7368193,0.11561909,0.97964668,-0.16408694,0
-0.21513939,-1.4927582,-4.9088936,0.15948284,-0.18136039,-0.97039866,0
-2.8681672,3.8182962,3.9675326,-0.15948284,0.18136039,0.97039866,0
1.9639382,4.4830933,-2.3224463,0.11561909,0.97964668,-0.16408694,0
0.82951212,-1.2807335,-4.7768331,0.15948284,-0.18136039,-0.97039866,0
-0.30230975,-3.9785919,-4.4586358,0.15948284,-0.18136039,-0.97039866,0
3.7617164,-5.6499019,-3.4783659,0.15948284,-0.18136039,-0.97039866,0
-1.5135069,3.1183312,4.3209863,-0.15948284,0.18136039,0.97039866,0
3.1615336,4.4079275,-1.9273582,0.11561909,0.97964668,-0.16408694,0
-3.705631,-2.5131702,-3.290957,-0.98040676,0.086027503,-0.17720559,0
-1.5240098,5.824101,3.2260747,0.11561909,0.97964668,-0.16408694,0
-4.1039038,3.2063446,3.8788109,-0.15948284,0.18136039,0.97039866,0
-3.8873348,4.7311811,1.2312326,-0.98040676,0.086027503,-0.17720559,0
-0.34918594,-1.8746974,5.4454999,-0.15948284,0.18136039,0.97039866,0
-0.37559223,1.498129,-5.4942379,0.15948284,-0.18136039,-0.97039866,0
-3.0835247,-5.0159798,-1.647922,-0.11561909,-0.97964668,0.16408694,0
-3.3831515,5.9809146,2.8523092,0.11561909,0.97964668,-0.16408694,0
4.1905966,-1.0838089,-1.1383774,0.98040676,-0.086027503,0.17720559,0
3.8292899,3.1325643,2.9074991,0.98040676,-0.086027503,0.17720559,0
4.7222137,4.2814536,-1.5827575,0.11561909,0.97964668,-0.16408694,0
2.7414641,-5.0465961,2.2736959,-0.11561909,-0.97964668,0.16408694,0
2.0774446,3.8219843,-5.5253983,0.15948284,-0.18136039,-0.97039866,0
-2.8734522,2.0008898,-5.7036357,-0.98040676,0.086027503,-0.17720559,0
-1.3948145,-2.1558628,-4.9788408,0.15948284,-0.18136039,-0.97039866,0
4.7625933,0.5943737,-3.4883022,0.98040676,-0.086027503,0.17720559,0
0.65853691,3.7457623,-5.7443466,0.15948284,-0.18136039,-0.97039866,0
2.8896956,4.6219864,4.7636209,-0.15948284,0.18136039,0.97039866,0
3.6612706,-3.2583029,0.73452091,0.98040676,-0.086027503,0.17720559,0
3.0468845,3.7355514,-5.3499193,0.15948284,-0.18136039,-0.97039866,0
2.7510588,-2.6845417,-4.1986694,0.15948284,-0.18136039,-0.97039866,0
4.5405216,3.8748002,-4.1386175,0.11561909,0.97964668,-0.16408694,0
-0.85190773,-4.4699326,3.1845784,-0.11561909,-0.97964668,0.16408694,0
-2.3698406,-0.20485234,-5.5037136,0.15948284,-0.18136039,-0.97039866,0
-0.15550137,1.9957712,-5.5510721,0.15948284,-0.18136039,-0.97039866,0
2.0443106,4.4297743,4.6606069,-0.15948284,0.18136039,0.97039866,0
-3.2967961,-2.5834899,-5.2115068,0.15948284,-0.18136039,-0.97039866,0
-2.3154411,-1.8872459,5.1246963,-0.15948284,0.18136039,0.97039866,0
1.3774848,5.2900896,2.0823233,0.11561909,0.97964668,-0.16408694,0
-4.3286605,-0.60666275,1.0815619,-0.98040676,0.086027503,-0.17720559,0
-2.3569417,-2.462364,5.2253604,-0.15948284,0.18136039,0.97039866,0
-4.6927252,-1.3047414,4.6251287,-0.15948284,0.18136039,0.97039866,0
1.0949564,5.5272169,4.2994785,-0.15948284,0.18136039,0.97039866,0
-4.0762129,-4.2196217,-2.0691047,-0.98040676,0.086027503,-0.17720559,0
-4.283741,-0.24444532,1.0088832,-0.98040676,0.086027503,-0.17720559,0
