-1.3755077,-0.027046204,-1.1063404,0.23571944,0.80718279,-0.54119492,0
-3.0099263,-0.18518591,-2.4692307,-0.78601456,-0.16913939,-0.59461999,0
1.648746,-0.25215805,1.0574822,0.22383654,-0.97444719,-0.018703222,0
0.15364309,-0.34838325,-0.28578982,0.54056102,-0.65473288,-0.52831662,0
1.4370376,0.58487666,0.45600101,0.52435786,0.32707724,-0.78617358,0
2.9625187,0.47258162,2.4609501,0.78601456,0.16913939,0.59461999,0
-3.2296746,-0.65438509,-2.0817351,-0.78601456,-0.16913939,-0.59461999,0
-0.10852255,0.18835565,-0.53337514,0.51546842,0.3516748,-0.78141975,0
3.0814481,0.68066978,2.3075199,0.78601456,0.16913939,0.59461999,0
2.9155741,1.1997612,2.3261652,0.78601456,0.16913939,0.59461999,0
-3.2306242,-0.38237,-2.5169392,-0.78601456,-0.16913939,-0.59461999,0
2.9175174,0.93435574,2.6095266,-0.59549767,0.46545869,0.6547752,0
-3.0848281,-1.2802029,-2.3889706,-0.78601456,-0.16913939,-0.59461999,0
-3.1984751,-0.83063078,-2.0775845,-0.78601456,-0.16913939,-0.59461999,0
-3.1302993,-0.27920914,-2.6394117,-0.78601456,-0.16913939,-0.59461999,0
2.9981694,0.82559586,2.4971972,0.78601456,0.16913939,0.59461999,0
-3.2555213,-0.16410637,-2.3807709,-0.78601456,-0.16913939,-0.59461999,0
-3.1834958,-0.84227371,-1.8838227,-0.29936063,-0.73741585,0.60547572,0
3.3945003,0.56857395,2.0341539,0.78601456,0.16913939,0.59461999,0
-2.6547372,-0.87227726,-2.2058692,0.47171944,-0.78577864,-0.40004057,0
2.2028253,0.46792889,1.1431038,0.54719204,0.25724819,-0.79649484,0
-0.74659574,0.3836897,-0.59201169,-0.12456322,0.9854483,-0.11565317,0
-3.1259921,-1.0094252,-2.3598146,-0.78601456,-0.16913939,-0.59461999,0
3.3977022,0.78108621,2.0134921,0.78601456,0.16913939,0.59461999,0
3.1140397,0.18907619,1.6490945,0.59771079,-0.4535436,-0.66108984,0
3.1678624,0.60423517,2.6961679,0.78601456,0.16913939,0.59461999,0
-2.9344788,-0.62516308,-2.6679842,-0.78601456,-0.16913939,-0.59461999,0
0.75200564,0.066267788,0.033075392,0.61577052,-0.12887582,-0.77731419,0
-2.9027603,-0.93184948,-2.8299301,-0.78601456,-0.16913939,-0.59461999,0
0.83176762,0.35219359,1.1449037,-0.61057836,0.061751053,0.78954446,0
2.4078422,0.89232922,2.0758619,-0.31383586,0.93785906,0.14807865,0
-3.3348005,-0.57626462,-2.1377673,-0.78601456,-0.16913939,-0.59461999,0
-0.77260113,0.39487687,-0.13729638,-0.41077802,0.86169827,0.29788822,0
2.2829003,0.44310474,2.1277068,-0.50869358,-0.36961877,0.77756834,0
-3.1983373,-1.1289778,-2.2633548,-0.78601456,-0.16913939,-0.59461999,0
-2.8582025,0.062307596,-1.8570136,-0.28330189,0.95345318,0.10328072,0
2.4276817,0.70131469,1.2840976,0.57365799,0.15896145,-0.80352199,0
2.9761581,0.024138927,2.0269451,0.29242015,-0.94916028,-0.11655518,0
0.066935122,0.60150063,0.059870202,-0.047782958,0.97558892,-0.21434286,0
-3.0699513,-0.67053413,-2.1552379,-0.78601456,-0.16913939,-0.59461999,0
3.183444,0.91488934,2.3781264,0.78601456,0.16913939,0.59461999,0
3.1279352,0.84071946,2.2257919,0.78601456,0.16913939,0.59461999,0
-2.2613878,0.094940901,-1.8693883,-0.17000741,0.98389882,-0.05514086,0
3.3890555,0.44690466,2.1637397,0.78601456,0.16913939,0.59461999,0
2.5904548,0.095876455,2.076364,0.058424711,-0.97786325,0.20092261,0
3.2751274,1.1659801,2.1594555,0.78601456,0.16913939,0.59461999,0
-2.5258493,-0.52519369,-1.2263858,-0.61790162,0.18467122,0.76426029,0
3.1202645,0.49975562,2.4272265,0.78601456,0.16913939,0.59461999,0
-2.0554471,-0.34103084,-0.7999047,-0.57668829,-0.14593945,0.80382335,0
-2.9775491,-0.95647335,-2.6126947,-0.78601456,-0.16913939,-0.59461999,0
2.675216,0.63851666,1.5456488,0.60762745,-0.034180537,-0.79348624,0
0.28132468,-0.38756305,-0.23651981,0.53439003,-0.66948402,-0.51596344,0
-1.885394,-0.44085276,-0.58471757,-0.53276467,-0.30258387,0.79031938,0
-2.9996941,-0.66410398,-2.4225433,-0.78601456,-0.16913939,-0.59461999,0
2.9715939,1.2577186,2.4986656,0.78601456,0.16913939,0.59461999,0
-1.7844884,-0.88950992,-1.655874,0.26739568,-0.96023285,-0.080326259,0
-3.305356,-0.28316689,-2.5666537,-0.78601456,-0.16913939,-0.59461999,0
-2.900027,-0.88055372,-2.8325446,-0.78601456,-0.16913939,-0.59461999,0
2.0405946,1.1562397,1.8406898,-0.27735424,0.9560923,0.094668001,0
0.016906083,0.431835,-0.23282875,0.053898871,0.93943256,-0.33846897,0
0.91594923,0.13126981,0.16024724,0.61468667,-0.1113119,-0.78087759,0
-3.1653242,-0.75483918,-1.5936251,-0.5904513,-0.079578996,0.80314028,0
1.28895,0.32616758,1.5131624,-0.61660254,0.28376427,0.73435616,0
-2.1137064,-0.67411375,-1.012401,-0.33551812,-0.69114822,0.64011061,0
3.2064919,1.1446056,2.1310449,0.78601456,0.16913939,0.59461999,0
2.0832579,-0.21940064,1.4262722,0.10983682,-0.98474973,0.13492101,0
-0.080170721,0.44122428,0.12399004,-0.44281337,0.82521993,0.35061133,0
3.5883563,0.22035599,2.1775465,0.78601456,0.16913939,0.59461999,0
-1.1163383,-0.63198853,-0.39547473,-0.10588908,-0.91079539,0.39904776,0
3.0908027,0.24979877,2.7464328,0.78601456,0.16913939,0.59461999,0
-3.3402603,-0.64252043,-2.3464761,-0.78601456,-0.16913939,-0.59461999,0
-1.1257415,-0.4883523,-0.54437083,-0.13675457,-0.89044398,0.43405935,0
-3.061641,-0.35404205,-2.7130778,-0.78601456,-0.16913939,-0.59461999,0
-3.2132273,-0.34780335,-2.0553079,-0.78601456,-0.16913939,-0.59461999,0
2.1787639,0.96073818,1.3686888,0.26973838,0.77162653,-0.57604998,0
-3.0652583,-0.56772709,-2.5460427,-0.78601456,-0.16913939,-0.59461999,0
-3.1197524,-0.43862915,-2.3493156,-0.78601456,-0.16913939,-0.59461999,0
-3.1249747,-0.87591171,-2.3054898,-0.78601456,-0.16913939,-0.59461999,0
1.2964906,0.74039102,0.80454165,0.10263109,0.91279602,-0.39531028,0
-2.8260927,-0.032886267,-2.1037772,-0.3627668,0.9050262,0.22209868,0
2.1202209,0.37418675,2.0508099,-0.46348977,-0.47526306,0.74786496,0
-3.3048708,-0.17284703,-2.1029158,-0.53430259,0.66968751,0.51578993,0
-1.7711309,-0.102754,-0.94281483,-0.61734641,0.26551196,0.74053133,0
-3.0317776,-0.51299667,-2.4211562,-0.78601456,-0.16913939,-0.59461999,0
3.267324,0.89206696,2.4556255,0.78601456,0.16913939,0.59461999,0
-3.4863477,-0.87121129,-1.8695338,-0.78601456,-0.16913939,-0.59461999,0
-2.4592772,-0.37352633,-2.297308,0.55752778,0.22163145,-0.8000263,0
-3.2506185,-0.94080067,-1.9610566,-0.78601456,-0.16913939,-0.59461999,0
-2.2727778,-0.28641009,-2.0235727,0.37330765,0.63682169,-0.6746105,0
3.3510582,0.57274461,2.1247144,0.78601456,0.16913939,0.59461999,0
-2.5020809,-1.2011795,-1.7994442,0.060496569,-0.97827244,0.1983003,0
3.2531931,0.39043999,2.5622463,0.78601456,0.16913939,0.59461999,0
3.1098449,0.58911657,2.1899602,0.78601456,0.16913939,0.59461999,0
3.1081781,0.63762188,2.70714,0.78601456,0.16913939,0.59461999,0
2.5401125,0.30149221,2.3936658,-0.26761335,-0.77396119,0.57390505,0
-3.2671854,-0.60433388,-2.1735055,-0.78601456,-0.16913939,-0.59461999,0
2.8314686,0.89423108,1.4752115,0.42459738,0.55139428,-0.71810943,0
1.4012009,-0.089278936,1.8218292,-0.38822496,-0.61348391,0.68769091,0
0.24464285,0.16659565,-0.20338723,0.5296095,0.31192705,-0.7888062,0
2.6464758,0.88663077,2.509469,-0.61734295,0.26561284,0.74049795,0
1.0364306,-0.25417405,0.48289484,0.39051673,-0.88148671,-0.26547647,0
-3.3399093,-0.62448502,-1.9335148,-0.78601456,-0.16913939,-0.59461999,0
-0.8510552,-0.58107221,-1.0304533,0.60765201,-0.38836473,-0.69277108,0
-1.5296512,-0.27170157,-0.44228306,-0.53334904,-0.30083275,0.79059362,0
-3.2324243,-0.61386967,-2.3499722,-0.78601456,-0.16913939,-0.59461999,0
-3.384305,-0.6696856,-1.9654437,-0.78601456,-0.16913939,-0.59461999,0
2.9207175,1.0053821,2.250639,0.78601456,0.16913939,0.59461999,0
-0.54419404,0.4311738,-0.4456898,-0.19378227,0.98077893,-0.022825941,0
3.316844,1.1983728,2.1715117,0.78601456,0.16913939,0.59461999,0
3.1743371,1.2206626,2.4832807,0.78601456,0.16913939,0.59461999,0
2.4877853,-0.056734085,1.3665789,0.43379265,-0.83619344,-0.33556557,0
-1.8277335,-0.59794664,-2.1348004,0.60981232,-0.37010896,-0.70081955,0
0.17527518,0.095472336,0.82074904,-0.61326808,0.091982096,0.78450072,0
2.3905735,1.1279299,1.6869055,-0.24652916,0.96781421,0.050586939,0
-3.3351862,-0.30930471,-2.3554835,-0.78601456,-0.16913939,-0.59461999,0
3.3835888,0.60876083,2.2090585,0.78601456,0.16913939,0.59461999,0
-3.1281285,-0.77805901,-2.6449947,-0.78601456,-0.16913939,-0.59461999,0
3.4037292,0.58584118,2.2990775,0.78601456,0.16913939,0.59461999,0
3.2353356,0.89166498,2.5225043,0.78601456,0.16913939,0.59461999,0
-2.3379495,-0.14988494,-1.8420696,-0.092870891,0.98323542,-0.15691721,0
0.50312394,0.00732789,-0.41842335,0.61789864,-0.24536267,-0.74699265,0
3.2191837,0.43658161,2.3142128,0.78601456,0.16913939,0.59461999,0
3.2762063,1.0085149,2.4282846,0.78601456,0.16913939,0.59461999,0
3.3854492,0.26832914,2.2662601,0.78601456,0.16913939,0.59461999,0
-3.4282641,-0.36178207,-2.2323878,-0.78601456,-0.16913939,-0.59461999,0
2.9508848,0.88878727,2.5368075,0.78601456,0.16913939,0.59461999,0
-2.8968186,-1.216939,-1.9549353,0.14396429,-0.98548013,0.090016499,0
2.5596867,0.63567376,1.3037417,0.36147571,0.65454179,-0.66401064,0
0.88979757,-0.37492076,0.10965669,0.48115125,-0.77130896,-0.41662413,0
0.31270012,-0.55127621,0.42461941,-0.25421101,-0.78833169,0.56027651,0
3.1080675,0.39726543,2.4295251,0.78601456,0.16913939,0.59461999,0
3.3212526,0.24124098,2.323261,0.78601456,0.16913939,0.59461999,0
-2.8943615,-0.88645911,-2.5156455,-0.78601456,-0.16913939,-0.59461999,0
-1.1578045,-0.89543533,-0.98823792,0.34862894,-0.91558439,-0.20040688,0
-0.46695161,-0.028725116,0.4096061,-0.52553475,-0.32372409,0.78677553,0
2.920435,0.81987309,2.4948289,0.78601456,0.16913939,0.59461999,0
-2.8214617,-0.4247086,-2.691982,-0.78601456,-0.16913939,-0.59461999,0
3.1750298,0.5289731,2.1544089,0.78601456,0.16913939,0.59461999,0
3.1653292,0.82845259,2.4912367,0.78601456,0.16913939,0.59461999,0
3.2234428,0.5994072,2.456285,0.78601456,0.16913939,0.59461999,0
-1.8033502,-0.20355022,-0.68919963,-0.57818556,-0.13932551,0.80392128,0
-1.5498625,-0.17875135,-0.43810058,-0.6117847,0.07452409,0.78750587,0
2.962275,0.57508039,2.5387671,0.78601456,0.16913939,0.59461999,0
3.5116591,0.49832964,2.2463787,0.78601456,0.16913939,0.59461999,0
0.84136611,0.78357315,0.58881581,-0.25357574,0.96541643,0.060583472,0
-2.9096708,-0.40133905,-2.5298665,-0.78601456,-0.16913939,-0.59461999,0
-2.8246627,-0.77652311,-2.6843719,-0.78601456,-0.16913939,-0.59461999,0
0.19986524,-0.37673447,-0.16094261,0.18386757,-0.98227829,0.03635852,0
3.2511289,1.0277307,2.023561,0.78601456,0.16913939,0.59461999,0
-3.4792829,-1.0836177,-2.0430508,-0.78601456,-0.16913939,-0.59461999,0
3.2552392,0.62521005,2.1034038,0.78601456,0.16913939,0.59461999,0
-0.81880069,0.01125443,-0.18045023,-0.61747503,0.26161698,0.74180919,0
-3.2173021,-0.6830368,-2.6143374,-0.78601456,-0.16913939,-0.59461999,0
-3.0661163,-0.90503168,-2.1732697,-0.78601456,-0.16913939,-0.59461999,0
-3.1029768,-1.1641264,-2.5735626,-0.78601456,-0.16913939,-0.59461999,0
-1.1998796,-0.60615182,-0.73325604,-0.17405611,-0.86238736,0.47538659,0
2.9233191,0.70101357,2.6457942,-0.61566418,0.3013308,0.72811896,0
3.2519889,1.0916724,2.2422595,0.78601456,0.16913939,0.59461999,0
1.5694411,0.62741613,0.50907797,0.38885993,0.61246455,-0.68824029,0
-3.1939356,-0.69206476,-2.4705939,-0.78601456,-0.16913939,-0.59461999,0
2.3616843,0.14902592,1.3920178,0.59993047,-0.44084698,-0.66763556,0
2.8197384,0.33046341,2.5931542,0.78601456,0.16913939,0.59461999,0
3.1145401,0.28828144,2.5772486,0.78601456,0.16913939,0.59461999,0
3.117029,0.53322268,2.5996146,0.78601456,0.16913939,0.59461999,0
3.2096949,0.54837251,2.1505995,0.78601456,0.16913939,0.59461999,0
-2.9343288,-0.82285881,-2.3838012,-0.78601456,-0.16913939,-0.59461999,0
-2.8383358,-0.29363608,-1.6152515,-0.551368,0.62681299,0.55054402,0
3.1760039,0.64809513,2.6589749,0.78601456,0.16913939,0.59461999,0
-3.3723834,-0.77461243,-2.09307,-0.78601456,-0.16913939,-0.59461999,0
2.1511481,0.91167521,2.1427143,-0.37931609,0.89145803,0.24783432,0
3.2426279,0.95983624,1.852066,0.78601456,0.16913939,0.59461999,0
2.8765934,1.0341489,1.9458213,0.28376943,0.75581557,-0.59009963,0
-0.21432653,0.57806545,0.02168943,-0.34533429,0.91791463,0.19538891,0
3.0682404,0.73608088,2.3351278,0.78601456,0.16913939,0.59461999,0
-3.301111,-0.57996035,-2.3504784,-0.78601456,-0.16913939,-0.59461999,0
-3.461179,-0.73073435,-2.049751,-0.78601456,-0.16913939,-0.59461999,0
-3.4798231,-0.21870899,-2.3102722,-0.78601456,-0.16913939,-0.59461999,0
-1.3656217,-0.0097655058,-0.52213037,-0.59230155,0.48156154,0.64596981,0
0.47367549,-0.34162462,0.76191437,-0.28221554,-0.75760078,0.58855349,0
-1.9840877,-0.83038998,-1.8597019,0.31539071,-0.93696982,-0.15038693,0
0.41789997,0.74356848,0.52931505,-0.20092154,0.97952056,-0.013030753,0
2.5236282,0.67799735,2.3618696,-0.61229336,0.34572473,0.71103531,0
3.2891803,0.91825509,1.9325508,0.78601456,0.16913939,0.59461999,0
-3.1710558,-0.60891986,-2.0456774,-0.78601456,-0.16913939,-0.59461999,0
-3.4716492,-0.83350492,-1.9147243,-0.78601456,-0.16913939,-0.59461999,0
3.3725178,0.46330023,2.4088144,0.78601456,0.16913939,0.59461999,0
-0.29682058,0.40179864,-0.81963146,0.29470402,0.74300504,-0.60091007,0
-1.5743252,-0.11628103,-1.9821823,0.482719,0.43297946,-0.76125604,0
3.2114046,0.57252932,2.5606217,0.78601456,0.16913939,0.59461999,0
3.4834754,0.52489281,2.2186248,0.78601456,0.16913939,0.59461999,0
2.8715048,0.68080592,2.6143987,0.78601456,0.16913939,0.59461999,0
0.66671824,0.74163425,0.46397984,0.090301037,0.92011589,-0.38109356,0
-3.1558828,-0.88132143,-2.5368071,-0.78601456,-0.16913939,-0.59461999,0
3.1416082,0.89511752,1.9204766,0.45742077,0.48791501,-0.7434414,0
-1.2595958,-0.63543081,-1.3651907,0.61135101,-0.35552496,-0.70700198,0
0.9875403,0.67091382,0.96304023,-0.17314136,0.98358047,-0.05090744,0
-3.2875252,-0.57894945,-2.2884128,-0.78601456,-0.16913939,-0.59461999,0
-3.0736773,-0.98889256,-2.7073436,-0.78601456,-0.16913939,-0.59461999,0
-0.52926171,-0.54617846,-0.55557543,0.49809855,-0.742975,-0.4470861,0
-2.1739972,-0.92302275,-2.4208848,0.60753918,-0.38926041,-0.69236714,0
2.70719,1.0086701,2.6445167,0.78601456,0.16913939,0.59461999,0
2.0233631,0.031708479,1.4112728,0.19575423,-0.98044646,0.020124629,0
-3.2701342,-0.41993666,-2.4345469,-0.78601456,-0.16913939,-0.59461999,0
2.0415964,-0.019464254,1.2513181,0.54722297,-0.63786167,-0.54192191,0
-2.2704444,-0.38824821,-2.4963534,0.52160859,0.33481985,-0.78474188,0
-2.2129703,-0.34746075,-2.0481694,0.34555405,0.67735076,-0.64945221,0
-3.0504844,-0.92891741,-2.5315282,-0.78601456,-0.16913939,-0.59461999,0
2.7622283,0.4633019,2.670434,0.78601456,0.16913939,0.59461999,0
-1.5839913,0.21284771,-0.79291403,-0.47810593,0.77607608,0.41124272,0
1.1143944,0.64268923,0.44923598,0.44810081,0.50675583,-0.73648077,0
3.2467351,0.38092518,2.5727839,0.78601456,0.16913939,0.59461999,0
-3.1204407,-0.64727855,-2.1072762,-0.78601456,-0.16913939,-0.59461999,0
-2.8423507,-1.0925713,-2.592886,-0.78601456,-0.16913939,-0.59461999,0
2.6001625,0.52805281,1.151211,0.6108343,-0.064372256,-0.78913713,0
2.457202,1.0768206,1.773942,-0.12221301,0.98537546,-0.11873922,0
3.1921353,0.95478415,2.1560533,0.78601456,0.16913939,0.59461999,0
2.1616795,0.83803821,1.9557142,-0.61142921,0.35473984,0.70732856,0
-3.6132793,-0.45406914,-1.9641417,-0.78601456,-0.16913939,-0.59461999,0
-1.8692548,0.059568405,-0.67450494,-0.5935216,0.47555578,0.64929098,0
3.0802424,0.21628118,2.4713087,0.78601456,0.16913939,0.59461999,0
3.4518447,0.71007276,2.0118055,0.78601456,0.16913939,0.59461999,0
3.0245295,0.64150476,2.8690736,0.78601456,0.16913939,0.59461999,0
-1.6893127,-0.67812371,-2.0700033,0.60974264,-0.053477705,-0.79079318,0
3.1779182,1.134171,2.4349127,0.78601456,0.16913939,0.59461999,0
1.7359414,0.017764211,0.90801013,0.48307392,-0.768251,-0.4200356,0
-3.3344059,-1.1700859,-2.3036346,-0.78601456,-0.16913939,-0.59461999,0
0.74907005,-0.48543864,0.41407928,0.36578679,-0.90264988,-0.22676662,0
3.1448462,1.1732917,2.5516717,0.78601456,0.16913939,0.59461999,0
-3.2096441,-0.25624633,-2.3128974,-0.78601456,-0.16913939,-0.59461999,0
-0.32028991,-0.70377171,-0.082320571,0.25032151,-0.96654409,-0.055961192,0
-3.0911856,-1.0089097,-2.6418097,-0.78601456,-0.16913939,-0.59461999,0
0.63797319,-0.23063049,-0.12808979,0.6170963,-0.27231914,-0.73826444,0
-3.2813003,-0.77970743,-1.9408287,-0.78601456,-0.16913939,-0.59461999,0
-0.5706414,0.28112859,-0.87436932,0.10181218,0.91329449,-0.39436948,0
-2.6577942,-0.25545025,-1.7598051,-0.5122503,0.71666485,0.47327691,0
1.2011514,0.21972418,1.4275795,-0.60551149,0.016701117,0.79566109,0
1.4781687,-0.084961891,1.0533849,0.050716817,-0.97624469,0.21065119,0
-2.3629172,-0.45885849,-0.9857527,-0.5897491,-0.083321661,0.80327666,0
0.9290179,-0.22249067,0.95118523,-0.33346158,-0.69392228,0.63818115,0
-3.3019493,-0.51625156,-2.3558681,-0.78601456,-0.16913939,-0.59461999,0
2.9491117,0.78032041,2.4905808,0.78601456,0.16913939,0.59461999,0
2.1205966,-0.2198019,1.5458713,0.26147026,-0.96253437,-0.071838886,0
3.1162722,1.0338299,2.2645469,0.78601456,0.16913939,0.59461999,0
-3.2250078,-0.096592903,-2.4733505,-0.78601456,-0.16913939,-0.59461999,0
3.1783452,0.9207983,1.9549574,0.78601456,0.16913939,0.59461999,0
3.1794567,0.43410063,2.6586118,0.78601456,0.16913939,0.59461999,0
-3.3535407,-0.67106342,-2.3574569,-0.78601456,-0.16913939,-0.59461999,0
0.58357859,0.20114481,1.0426222,-0.55581617,-0.22774042,0.79950136,0
-0.085871458,-0.33304557,-0.45096609,0.50454664,-0.73131299,-0.45892692,0
0.092197001,-0.33931735,0.58848757,-0.4957101,-0.40228775,0.76969844,0
0.96364331,-0.21273232,1.3401256,-0.27048934,-0.77079785,0.57680672,0
3.0515661,0.91334105,2.4265659,0.78601456,0.16913939,0.59461999,0
-1.241586,-0.71946239,-0.30564928,-0.25202191,-0.7906217,0.55803412,0
-0.12443614,-0.56700021,0.40517464,-0.08919096,-0.92075545,0.37980819,0
3.1831434,0.91700053,1.9964517,0.78601456,0.16913939,0.59461999,0
-0.085116863,-0.18735403,-0.56223643,0.57895035,-0.53868788,-0.61207151,0
1.0634893,0.51779908,0.17016244,0.31411952,0.7191574,-0.61979145,0
0.46050906,-0.012222111,0.72523445,-0.56851411,-0.18006518,0.80272532,0
-1.7852285,-0.52100563,-0.81725377,-0.56924719,-0.17712893,0.80285907,0
3.0230153,0.85823107,2.4596374,0.78601456,0.16913939,0.59461999,0
1.9645417,0.52896929,0.93643707,0.4699297,0.46148768,-0.75245941,0
-2.2708693,0.23505259,-1.4391383,-0.28467387,0.9528265,0.10527262,0
-1.0668936,-0.56691581,-0.26391217,-0.47827113,-0.44307554,0.75824839,0
1.3281794,0.2638979,0.2406525,0.50690806,0.37424093,-0.77652299,0
-3.2421575,-0.17178631,-2.2875838,-0.78601456,-0.16913939,-0.59461999,0
-3.308037,-0.42672968,-2.5361223,-0.78601456,-0.16913939,-0.59461999,0
-2.6970921,-1.1757195,-2.5096667,-0.78601456,-0.16913939,-0.59461999,0
2.7068269,0.6959095,1.7441841,0.41187996,0.57399917,-0.70772851,0
0.54400289,0.39363155,0.051099062,0.079849064,0.92601126,-0.36895421,0
3.1415703,0.82902908,2.4833736,0.78601456,0.16913939,0.59461999,0
2.304322,0.66615367,1.0893017,0.4991878,0.39374465,-0.77186549,0
2.8190844,1.0849161,1.7663593,0.37688851,0.63132328,-0.67777997,0
3.3935039,1.0279799,2.1854146,0.78601456,0.16913939,0.59461999,0
-3.3053703,-0.98912406,-2.122628,-0.78601456,-0.16913939,-0.59461999,0
3.0867643,1.1616595,2.1526706,0.78601456,0.16913939,0.59461999,0
1.9043733,-0.093743563,0.96141219,0.4553473,-0.80896258,-0.37180406,0
-2.9580145,-0.68002987,-2.5684488,-0.78601456,-0.16913939,-0.59461999,0
-1.9273472,-0.95784688,-1.5645456,0.31111866,-0.93939042,-0.14405128,0
-1.5528464,0.13640463,-1.0535557,-0.22787124,0.973387,0.024338186,0
3.2776346,0.29990625,2.3893137,0.78601456,0.16913939,0.59461999,0
-2.8418436,-0.68021083,-2.6068978,-0.78601456,-0.16913939,-0.59461999,0
-3.0519404,-1.0180492,-2.5806992,-0.78601456,-0.16913939,-0.59461999,0
2.4956729,0.55629635,2.4128611,-0.57639265,-0.14723051,0.80379987,0
-0.048426747,-0.52668041,-0.18209472,0.11952317,-0.98527408,0.12226611,0
2.8959637,0.66653204,2.4268034,0.78601456,0.16913939,0.59461999,0
-1.5253149,-0.64663374,-0.96621525,-0.070853174,-0.93085927,0.35844189,0
-3.4106913,-0.93123794,-1.9867942,-0.56734943,-0.18468459,0.80249977,0
1.3300189,0.086596966,1.5743077,-0.45566303,-0.49152172,0.74214381,0
-1.2020855,-0.85384262,-0.60109019,-0.058071494,-0.93739069,0.34340388,0
1.8319504,0.098247528,2.0823946,-0.38366497,-0.62074006,0.6837272,0
2.8729517,0.60476375,2.5925939,0.78601456,0.16913939,0.59461999,0
3.1618488,0.43065643,2.52302,0.78601456,0.16913939,0.59461999,0
-0.63239312,0.39713788,-0.97189921,0.26920646,0.77221239,-0.57551354,0
-0.2861312,0.026194319,0.55962723,-0.61015463,0.057502791,0.79019272,0
3.4115458,0.423491,2.3204889,0.78601456,0.16913939,0.59461999,0
1.4202725,0.86940122,1.0320754,-0.14363629,0.98548812,-0.090452313,0
2.8708055,1.1307745,2.3745894,0.78601456,0.16913939,0.59461999,0
-2.5305724,-0.77434111,-1.4491234,-0.58211434,-0.12134763,0.80400091,0
2.8937452,0.35069299,2.483582,0.78601456,0.16913939,0.59461999,0
1.0578279,0.6114971,0.14992535,0.37746483,0.63043225,-0.67828846,0
-1.442716,0.049400926,-0.44100964,-0.57477456,0.55410159,0.60216737,0
1.6727903,0.086227298,0.67097718,0.61101449,-0.066245288,-0.78884256,0
2.9382949,0.68299723,2.4747784,0.78601456,0.16913939,0.59461999,0
-1.4514692,-0.54803467,-0.70033628,-0.48100269,-0.43689907,0.76010221,0
-3.1897132,-0.80112362,-2.5878558,-0.78601456,-0.16913939,-0.59461999,0
1.8098001,-0.035315752,1.7051309,0.039340198,-0.97358,0.22493172,0
-0.1031245,0.24870311,-0.60702038,0.50510871,0.37885532,-0.77545691,0
2.180079,0.12805748,1.025773,0.55990505,-0.60253334,-0.5687353,0
-2.5129793,-0.7736547,-2.5696626,0.58756709,-0.50344861,-0.63348567,0
2.9431314,0.75253296,2.5468357,0.78601456,0.16913939,0.59461999,0
3.2691276,0.61225367,2.3018672,0.78601456,0.16913939,0.59461999,0
3.1321495,0.9347043,2.5149021,0.78601456,0.16913939,0.59461999,0
1.5546036,-0.28501105,0.71132952,0.46661121,-0.79326457,-0.39115882,0
-3.3558497,-0.55411386,-2.3853571,-0.78601456,-0.16913939,-0.59461999,0
2.5345693,0.73774624,1.4506544,0.31997693,0.71167535,-0.62540609,0
2.8736148,0.10531068,2.1112907,0.0021042228,-0.96257097,0.27102149,0
1.7601057,0.7309339,2.0664816,-0.61638951,0.28813678,0.73283088,0
-2.820971,-0.68639016,-2.5690701,-0.78601456,-0.16913939,-0.59461999,0
-3.3332593,-1.1508055,-2.2711198,-0.78601456,-0.16913939,-0.59461999,0
-0.9476971,-0.72172284,-0.92772555,0.43789655,-0.83127344,-0.34238994,0
2.7784822,0.91188192,2.799011,-0.61463726,0.31703699,0.72229379,0
-3.0282693,-1.0970192,-2.1493583,-0.78601456,-0.16913939,-0.59461999,0
1.8218932,0.89039755,1.7443924,-0.53149557,0.67613816,0.51024449,0
3.1306434,0.95651531,2.1171269,0.78601456,0.16913939,0.59461999,0
0.46961176,-0.4094106,0.14041987,0.11979866,-0.9852854,0.12190494,0
-1.504969,-0.69402266,-1.6139183,0.46833271,-0.79076827,-0.39414448,0
-0.087267816,0.52444208,0.2086122,-0.43574589,0.83386666,0.33880937,0
-3.4738507,-0.75014186,-1.9931326,-0.59379333,-0.061079353,0.80229592,0
2.9017162,1.1075697,2.6872704,0.78601456,0.16913939,0.59461999,0
-2.014786,-0.032160521,-1.5361264,0.12711906,0.89707083,-0.42320737,0
1.2252769,0.96510768,0.98648316,-0.097641528,0.98373747,-0.15075369,0
3.2510788,0.58003783,2.2331491,0.78601456,0.16913939,0.59461999,0
0.75328445,-0.28719109,0.1286816,0.52948081,-0.6806761,-0.5062905,0
-3.0890579,-0.94544339,-2.1560757,-0.78601456,-0.16913939,-0.59461999,0
1.9820635,0.76329708,1.019932,0.45192587,0.49910682,-0.73936141,0
-0.70209026,0.61127943,-0.38761795,-0.10151434,0.98410124,-0.1457378,0
3.4694045,0.30310202,1.8872098,0.78601456,0.16913939,0.59461999,0
-3.2069347,-0.76268721,-2.4716945,-0.78601456,-0.16913939,-0.59461999,0
2.916939,0.80431414,2.6908774,0.78601456,0.16913939,0.59461999,0
-2.1998308,-0.67921019,-2.3021176,0.58589315,0.10309397,-0.8038038,0
3.2298496,0.53181839,2.4469688,0.78601456,0.16913939,0.59461999,0
3.156404,0.47641993,2.5959573,0.78601456,0.16913939,0.59461999,0
-2.6968658,0.060827494,-1.5223622,-0.49252528,0.7526474,0.43696749,0
1.528427,0.23150122,0.64601892,0.61547279,-0.3044773,-0.72697097,0
-3.2982881,-0.45639634,-1.9308205,-0.78601456,-0.16913939,-0.59461999,0
-3.1162298,-1.0273876,-2.3125463,-0.78601456,-0.16913939,-0.59461999,0
-1.7582223,-0.81559038,-1.9488994,0.48617789,-0.76323289,-0.42556608,0
-0.98108971,-0.66455388,-0.6831224,0.12097484,-0.98533124,0.1203633,0
0.15255436,0.52778941,0.29782206,-0.22036767,0.97531825,0.013869941,0
-3.3325701,-0.67621231,-2.2816777,-0.78601456,-0.16913939,-0.59461999,0
3.3149326,0.85540485,1.9854789,0.78601456,0.16913939,0.59461999,0
1.2019138,0.40839863,0.38853341,0.60284591,0.0033823401,-0.79785037,0
3.0457056,0.22062421,2.2144449,0.011656046,-0.96572822,0.25929326,0
-1.4077476,-0.028988123,-0.66854364,-0.59683567,0.45833743,0.6585694,0
1.9795825,1.0676324,1.6677699,-0.23057598,0.97264785,0.028123811,0
2.7258618,1.0587478,2.5154831,0.78601456,0.16913939,0.59461999,0
3.1098056,0.68043518,2.2851925,0.78601456,0.16913939,0.59461999,0
0.75638604,0.28849399,1.1838039,-0.60381371,0.0036941916,0.79711676,0
-3.4212179,-0.70066738,-2.0556688,-0.78601456,-0.16913939,-0.59461999,0
-2.9512959,-0.91492915,-2.4085939,-0.78601456,-0.16913939,-0.59461999,0
1.7808152,0.60265231,0.66763383,0.4610756,0.4803333,-0.74611592,0
-3.2481995,-0.37532711,-2.582983,-0.78601456,-0.16913939,-0.59461999,0
3.4265666,0.49144554,2.3080549,0.78601456,0.16913939,0.59461999,0
3.0542855,0.40860796,2.5167348,0.78601456,0.16913939,0.59461999,0
3.1198041,1.2154589,2.3585997,0.78601456,0.16913939,0.59461999,0
-2.9204249,-0.29874897,-2.6220706,-0.78601456,-0.16913939,-0.59461999,0
2.9358289,0.80657887,2.2835214,0.78601456,0.16913939,0.59461999,0
3.132458,1.2931659,2.1353898,0.78601456,0.16913939,0.59461999,0
3.4432528,0.28145266,2.388613,0.78601456,0.16913939,0.59461999,0
-1.8422905,-0.45168233,-1.090711,-0.50405616,-0.38153508,0.77482784,0
0.25742117,-0.22535272,0.31022978,0.050298333,-0.97615254,0.21117808,0
3.3167553,1.1824074,2.260906,0.78601456,0.16913939,0.59461999,0
-3.5270729,-0.50670242,-2.2536514,-0.78601456,-0.16913939,-0.59461999,0
-2.5059531,-0.54830432,-1.3585466,-0.43890166,-0.52469599,0.7294237,0
-1.6962606,-0.71145368,-1.8439087,0.4685303,-0.79048008,-0.39448774,0
2.9810343,0.32429743,2.6873667,0.78601456,0.16913939,0.59461999,0
3.0882125,0.85263991,2.079834,0.78601456,0.16913939,0.59461999,0
-1.3050597,0.07352674,-1.2991545,0.17339033,0.86292219,-0.47465873,0
2.269685,-0.067823648,1.9443622,-0.18579876,-0.85274416,0.48816594,0
-2.490658,-0.74283576,-2.4788334,0.61817837,-0.20564258,-0.75866091,0
-3.2917104,-0.77729106,-2.0938921,-0.78601456,-0.16913939,-0.59461999,0
-3.2641568,-0.85718489,-2.5036356,-0.78601456,-0.16913939,-0.59461999,0
1.6200132,0.088162541,0.97178686,0.53632206,-0.66495061,-0.51980686,0
-3.0300467,-0.46847773,-2.4913635,-0.78601456,-0.16913939,-0.59461999,0
-2.9101632,-0.70222163,-1.8394405,-0.52024293,-0.33862007,0.78401756,0
-3.110992,-0.43241858,-1.6453011,-0.61394596,0.10081995,0.78288293,0
2.8789883,1.098213,2.3281512,-0.38528502,0.88622624,0.2572127,0
-0.065598272,-0.081648856,0.36388335,-0.61335397,0.093068019,0.78430545,0
-3.297575,-0.43010902,-2.4976826,-0.78601456,-0.16913939,-0.59461999,0
-3.2866511,-0.17484903,-2.6414142,-0.78601456,-0.16913939,-0.59461999,0
0.66810405,0.33273625,1.0653886,-0.61307365,0.089559361,0.78493297,0
1.8923384,0.3103857,0.71375763,0.61675364,-0.28048128,-0.73548961,0
-0.8136121,-0.63252664,-1.3724427,0.61454153,-0.31837448,-0.72178686,0
-1.484421,-0.99794722,-1.6442662,0.43488458,-0.83489597,-0.33737814,0
-2.2570376,-0.78975987,-2.2995648,0.51225424,-0.71665716,-0.4732843,0
1.1655768,0.21582776,0.084830165,0.61582756,-0.12989801,-0.77709901,0
2.3871255,0.1691792,1.760903,0.29998243,-0.94536817,-0.1276302,0
3.4568126,0.41034698,2.2079701,0.78601456,0.16913939,0.59461999,0
3.2970529,0.64628792,1.8987526,0.78601456,0.16913939,0.59461999,0
-1.918611,-0.71554637,-1.7723625,0.61776602,-0.25125766,-0.74514055,0
2.0736589,0.32484913,1.1051804,0.61339492,-0.33316368,-0.71606439,0
0.5845964,0.38146055,0.11795254,0.038054466,0.94678277,-0.31961551,0
3.0533419,0.4183054,2.5712693,0.78601456,0.16913939,0.59461999,0
3.4266174,0.82530403,2.1133091,0.78601456,0.16913939,0.59461999,0
1.5952508,0.22079372,1.925982,-0.54587626,-0.26157841,0.79598719,0
1.9592323,0.25689769,1.0076158,0.6060729,-0.40046969,-0.68724042,0
-2.3605847,-0.29035378,-1.4060311,-0.61359477,0.096162051,0.78374362,0
-3.175946,-0.129776,-2.2337646,-0.78601456,-0.16913939,-0.59461999,0
-3.0212264,-0.72187138,-2.7735386,-0.78601456,-0.16913939,-0.59461999,0
-3.027581,-0.45854187,-2.3739388,-0.78601456,-0.16913939,-0.59461999,0
-3.0349159,-0.98170519,-2.4736245,-0.78601456,-0.16913939,-0.59461999,0
0.11956663,0.15187699,-0.65938258,0.59405077,0.059603393,-0.80221629,0
-3.2821066,-0.76328707,-2.1925578,-0.78601456,-0.16913939,-0.59461999,0
3.1509776,0.63721585,2.1472838,0.78601456,0.16913939,0.59461999,0
-3.1952035,-0.051954985,-2.2903042,-0.30905938,0.94053179,0.14100459,0
0.68817699,-0.037571281,0.047484756,0.60681236,-0.027259633,-0.79437745,0
-3.2523358,-0.57533169,-2.4560533,-0.78601456,-0.16913939,-0.59461999,0
-2.5058835,-0.29616189,-2.3661931,0.40947282,0.57816488,-0.70573157,0
-1.3348689,0.13306117,-0.92302483,-0.051947296,0.97651333,-0.20910084,0
3.1468258,1.177808,2.02197,0.78601456,0.16913939,0.59461999,0
0.08372201,0.19879711,0.43166932,-0.61335963,0.093140095,0.78429234,0
1.6039993,0.40027952,0.77778113,0.44092232,0.52080899,-0.73098916,0
0.16681397,0.66972864,0.26692033,-0.24009866,0.96986079,0.041504279,0
1.5950245,1.0270357,1.5178357,-0.37096566,0.89847255,0.23480079,0
2.0483468,1.0454097,1.4113451,0.20296288,0.8379271,-0.50664008,0
1.2514355,-0.25578964,1.4345324,-0.12370801,-0.89935696,0.41934863,0
-3.4402812,-0.27484035,-2.3108964,-0.78601456,-0.16913939,-0.59461999,0
3.1807995,0.23770595,2.2830024,0.78601456,0.16913939,0.59461999,0
3.2366314,0.64035177,2.5192103,0.78601456,0.16913939,0.59461999,0
-3.0249393,-0.85557842,-2.1921337,-0.78601456,-0.16913939,-0.59461999,0
0.36967927,-0.46908414,0.46983019,-0.19668138,-0.84345037,0.49990779,0
3.0527804,1.0450606,2.5566995,0.78601456,0.16913939,0.59461999,0
-3.144146,-0.83221054,-2.3038325,-0.78601456,-0.16913939,-0.59461999,0
2.9627821,0.2109673,2.4998701,-0.31933272,-0.71250498,0.62479049,0
-3.056495,-0.70258355,-2.1539311,-0.78601456,-0.16913939,-0.59461999,0
0.90309155,0.53889418,0.52464277,0.27443409,0.76641208,-0.58077377,0
3.2056322,0.86735439,2.4000847,0.78601456,0.16913939,0.59461999,0
2.8828464,1.1527262,2.8399065,0.78601456,0.16913939,0.59461999,0
-0.90370393,-0.40595186,-0.97545785,0.53054261,-0.67829382,-0.50837177,0
2.702014,0.7040658,1.5618309,0.5995571,0.025914431,-0.79991221,0
3.3872037,0.89302087,1.9399188,0.78601456,0.16913939,0.59461999,0
-2.1295056,-0.6719501,-0.75049061,-0.54009974,-0.28010356,0.79362077,0
-3.0552139,-0.86901808,-2.5814729,-0.78601456,-0.16913939,-0.59461999,0
-0.47441459,-0.14177996,0.069449842,-0.50342703,-0.38312995,0.77444983,0
-3.0625834,-0.39412975,-2.6179676,-0.78601456,-0.16913939,-0.59461999,0
2.9065244,0.68158102,2.6973176,0.78601456,0.16913939,0.59461999,0
0.61560899,0.4331373,1.1628448,-0.61755574,0.25899249,0.74266249,0
-3.2914534,-1.2397513,-2.2849464,-0.78601456,-0.16913939,-0.59461999,0
3.3360701,0.32777953,2.160202,0.78601456,0.16913939,0.59461999,0
2.9981475,0.81874585,2.1989417,0.78601456,0.16913939,0.59461999,0
-2.8139367,-1.069458,-2.3807778,-0.78601456,-0.16913939,-0.59461999,0
-3.1542776,-0.14693666,-2.1876018,-0.78601456,-0.16913939,-0.59461999,0
3.4546883,0.38923907,2.1031532,0.78601456,0.16913939,0.59461999,0
2.9355202,0.44467115,1.5633409,0.60800648,-0.38551578,-0.69405007,0
-0.22870708,0.50943995,0.0037744045,-0.22596323,0.9738946,0.021671548,0
3.0201154,0.77490139,2.264149,0.78601456,0.16913939,0.59461999,0
3.4839537,0.85804176,2.1724057,0.78601456,0.16913939,0.59461999,0
3.050966,1.2359967,2.6454632,0.78601456,0.16913939,0.59461999,0
-2.9585731,-0.14432955,-2.5644984,-0.78601456,-0.16913939,-0.59461999,0
3.0792017,0.49292517,2.6883969,0.78601456,0.16913939,0.59461999,0
2.1867342,1.0709844,1.7700987,-0.096434236,0.98361611,-0.15231508,0
3.072881,1.0637312,2.3822846,0.78601456,0.16913939,0.59461999,0
-3.2325757,-0.33967686,-2.5398803,-0.78601456,-0.16913939,-0.59461999,0
1.8861083,0.25957823,0.94349313,0.59421325,-0.47207546,-0.65119523,0
2.9858179,0.2532444,2.5285382,0.78601456,0.16913939,0.59461999,0
1.953604,0.57977867,1.1283392,0.37896943,0.62809837,-0.67961335,0
-1.9351442,0.13150239,-1.6638584,0.22422034,0.8183533,-0.52917206,0
-0.92119801,0.21287084,-0.70322073,-0.26802051,0.95998317,0.08122322,0
-3.3977234,-0.24538326,-2.0327253,-0.78601456,-0.16913939,-0.59461999,0
2.2562284,0.041708469,1.3676367,0.47260553,-0.78445566,-0.4015882,0
0.09033531,0.391249,0.25375021,-0.46807387,0.79114532,0.39369512,0
-3.2517667,-0.86118126,-2.4458618,-0.78601456,-0.16913939,-0.59461999,0
3.3635724,0.6992321,2.2401774,0.78601456,0.16913939,0.59461999,0
-2.9265163,-0.78125858,-2.7128801,0.61820346,-0.2187195,-0.75497437,0
1.7455268,0.35738707,2.163038,-0.58607829,-0.10217278,0.80378652,0
2.4238491,0.32175827,1.4610462,0.51949632,-0.70211059,-0.48699522,0
3.2799826,0.57039666,2.0456994,0.61815256,-0.22790375,-0.75229454,0
-1.4752291,0.2126925,-1.4360207,0.06262666,0.93511093,-0.3487767,0
3.1784732,0.37879801,2.2824981,0.78601456,0.16913939,0.59461999,0
-3.1727419,-0.95218706,-2.5862794,-0.78601456,-0.16913939,-0.59461999,0
3.1881983,0.65026999,2.5155871,0.78601456,0.16913939,0.59461999,0
-3.2870731,-0.52550077,-2.281842,-0.78601456,-0.16913939,-0.59461999,0
2.6347582,0.15443444,1.7380846,0.37923169,-0.89153063,-0.247702,0
-1.7854657,-0.93208551,-0.99048734,-0.056586623,-0.93812251,0.34164917,0
3.1160467,0.37282252,2.3733811,0.78601456,0.16913939,0.59461999,0
-3.1044669,-1.0173852,-2.0132935,-0.78601456,-0.16913939,-0.59461999,0
3.1765053,0.75857902,2.0507269,0.78601456,0.16913939,0.59461999,0
2.7269192,0.63866305,2.6445885,-0.61815894,0.20293166,0.75940633,0
-2.0049295,-0.49554586,-2.3115082,0.61820757,-0.21600235,-0.75575256,0
-3.4933746,-0.50325632,-2.2550964,-0.78601456,-0.16913939,-0.59461999,0
-1.4628319,-0.030951262,-1.3410308,0.36560112,0.64844,-0.66772836,0
-0.30712155,-0.32100636,0.60452616,-0.50582635,-0.37702027,0.7758835,0
-2.6044464,-1.0821588,-2.1781659,0.3557874,-0.91035336,-0.21135747,0
2.531873,0.38399291,2.4470785,-0.56621003,-0.18915132,0.80226409,0
-0.86006999,-0.4207353,-0.33543432,-0.075847924,-0.92819333,0.3642858,0
1.1684486,0.77235448,1.2817963,-0.30453891,0.94297969,0.13433281,0
3.1536713,0.7984159,2.1765847,0.78601456,0.16913939,0.59461999,0
0.83477938,-0.12097484,-0.12602419,0.61062157,-0.36263284,-0.70401591,0
-1.3740308,-0.049846411,-1.5698612,0.52775443,0.31733435,-0.78789216,0
0.55424911,-0.35555637,0.73793322,-0.33061856,-0.69772768,0.63550556,0
-0.66496634,-0.37559485,-1.0496716,0.57238448,-0.56251943,-0.59661335,0
-3.0360799,-0.87479496,-2.3999617,-0.78601456,-0.16913939,-0.59461999,0
-3.0384512,-0.9265523,-2.1617613,-0.78601456,-0.16913939,-0.59461999,0
-2.1447432,-0.066822052,-1.9476519,0.15944523,0.87383819,-0.45932993,0
-1.8167579,-0.34196305,-0.59854615,-0.59693623,-0.042489931,0.80116248,0
2.9601643,1.1486857,2.4312875,0.78601456,0.16913939,0.59461999,0
-3.1460505,-0.49710798,-2.4377632,-0.78601456,-0.16913939,-0.59461999,0
2.6792827,0.21405578,2.31336,-0.063423157,-0.93470687,0.3497147,0
3.1361849,0.54583788,2.6265762,0.78601456,0.16913939,0.59461999,0
3.1566138,0.9283123,2.4219697,0.78601456,0.16913939,0.59461999,0
-3.2059727,-0.74264121,-1.9583507,-0.78601456,-0.16913939,-0.59461999,0
-2.7717407,-0.83256459,-2.5276582,-0.78601456,-0.16913939,-0.59461999,0
2.8847284,0.6559906,2.6852088,0.78601456,0.16913939,0.59461999,0
-3.165381,-0.39253664,-2.5347562,-0.78601456,-0.16913939,-0.59461999,0
-3.3769014,-0.49802041,-1.8031511,-0.78601456,-0.16913939,-0.59461999,0
-3.0741041,-0.31562281,-2.8248725,-0.78601456,-0.16913939,-0.59461999,0
-3.4023838,-0.41794515,-2.1507432,-0.78601456,-0.16913939,-0.59461999,0
3.5180485,0.37457991,2.0366654,0.78601456,0.16913939,0.59461999,0
-1.8028934,-0.81290579,-1.7709806,0.24715525,-0.96760768,-0.051473141,0
0.25786316,0.17482382,0.8932451,-0.61751449,0.26035303,0.74222094,0
2.8337102,1.0333443,2.7905543,0.78601456,0.16913939,0.59461999,0
3.1125441,0.41491413,2.4424012,0.78601456,0.16913939,0.59461999,0
-1.4791884,-0.62942505,-1.5996103,0.55098504,-0.62785292,-0.54974186,0
3.3592513,0.52375889,2.0720499,0.78601456,0.16913939,0.59461999,0
-2.8627408,-0.29706621,-2.5835357,0.32902831,0.6998415,-0.63400465,0
3.48262,0.49227476,2.1838174,0.78601456,0.16913939,0.59461999,0
-3.1437905,-0.90621138,-2.4355998,-0.78601456,-0.16913939,-0.59461999,0
-3.3590386,-0.88316584,-2.2350433,-0.78601456,-0.16913939,-0.59461999,0
-1.686655,-0.92018461,-1.5556955,0.30354208,-0.94350898,-0.13286451,0
2.5364707,0.53736305,1.4037662,0.59690261,0.042695597,-0.80117679,0
1.4512124,0.58860981,0.24674094,0.47796607,0.44376063,-0.75803989,0
-3.3542402,-0.77313566,-2.0492721,-0.78601456,-0.16913939,-0.59461999,0
3.3872175,1.0636773,2.2287979,0.78601456,0.16913939,0.59461999,0
2.2590737,0.62031507,2.1449628,-0.56110144,0.59894884,0.57133645,0
0.38181072,0.020278096,0.96388143,-0.60472703,0.010591224,0.79636216,0
2.9387805,0.90579844,2.6586108,0.78601456,0.16913939,0.59461999,0
-1.8428497,-0.047117472,-1.7327605,0.32382601,0.70668387,-0.62907434,0
0.54271096,0.23898077,0.90877187,-0.61587274,0.29776007,0.72941029,0
-2.7013371,-0.34174395,-2.8076346,-0.78601456,-0.16913939,-0.59461999,0
2.6299112,0.047907591,1.4089788,0.46387318,-0.79718053,-0.38642561,0
3.3740294,0.99711084,2.3028784,0.78601456,0.16913939,0.59461999,0
-1.8236865,-0.55043292,-1.9394671,0.61453378,-0.10906461,-0.78131473,0
1.7251124,0.48520851,0.7489562,0.53548503,0.29437453,-0.79158014,0
-2.3567109,-0.42730737,-2.1149108,0.51460838,0.35398984,-0.78094131,0
3.1392422,0.5820353,1.8849373,0.58892661,-0.49737644,-0.63701004,0
3.1457062,0.37887335,2.718574,0.78601456,0.16913939,0.59461999,0
3.108469,0.4379406,2.4322622,0.78601456,0.16913939,0.59461999,0
-3.4254346,-0.68306971,-2.1419644,-0.78601456,-0.16913939,-0.59461999,0
0.29212826,-0.097072601,0.68392277,-0.29314238,-0.74486136,0.59937382,0
2.7912514,0.83099985,2.8368464,0.78601456,0.16913939,0.59461999,0
1.4616672,0.2255013,1.4846538,-0.42609167,-0.54867017,0.71930987,0
-2.9804575,-0.31564069,-2.4454122,-0.78601456,-0.16913939,-0.59461999,0
-2.2870486,-0.91669488,-1.3487697,-0.15167153,-0.87968695,0.45071775,0
3.0764728,0.32228279,2.441344,0.78601456,0.16913939,0.59461999,0
-2.5378194,-0.045608044,-1.7883016,-0.44574991,0.82151943,0.35554564,0
1.9228277,0.79446721,1.5530097,-0.3238402,0.93196845,0.16297874,0
0.60427225,0.23557913,0.84507126,-0.58230251,0.52558327,0.62023038,0
-3.0938783,-0.095702648,-2.4780221,-0.78601456,-0.16913939,-0.59461999,0
-2.8970976,-1.0441432,-2.6254115,-0.78601456,-0.16913939,-0.59461999,0
2.2372923,1.0863724,1.6792548,-0.065292358,0.97917771,-0.19221833,0
3.4895058,0.69489622,1.8516866,0.78601456,0.16913939,0.59461999,0
1.9576259,0.26835299,1.1897254,0.53454363,-0.66912645,-0.51626813,0
-0.251856,-0.29704821,0.15473983,-0.30977565,-0.72461855,0.61560285,0
2.3663032,0.49095178,2.4466927,-0.41870952,-0.56198645,0.71333951,0
0.62344897,-0.19539255,-0.14018422,0.61819726,-0.20940593,-0.75761533,0
-2.862576,-0.60232878,-2.9237604,-0.78601456,-0.16913939,-0.59461999,0
-0.189417,-0.66604972,0.017313555,-0.077610195,-0.92723733,0.36634347,0
-0.54864073,-0.013242364,-1.0427707,0.476565,0.44689587,-0.75707972,0
-3.1270113,-0.78754425,-2.6955543,-0.78601456,-0.16913939,-0.59461999,0
-3.1382258,-0.54352617,-2.7124033,-0.78601456,-0.16913939,-0.59461999,0
-2.35163,-0.19837523,-1.9530772,-0.069994211,0.98000801,-0.18623926,0
-2.9784513,-0.37581897,-2.544908,-0.78601456,-0.16913939,-0.59461999,0
-3.524425,-0.84547043,-2.0870528,-0.78601456,-0.16913939,-0.59461999,0
3.0589755,0.75111198,2.1537435,0.78601456,0.16913939,0.59461999,0
2.7168305,0.33167672,1.2904069,0.60151935,-0.43122429,-0.67247307,0
2.8406272,0.56909227,2.5655546,-0.499042,-0.39410585,0.77177548,0
-2.7385769,-1.2364624,-1.9498408,0.0070573688,-0.9642368,0.26494801,0
1.3154048,0.59211326,1.7010254,-0.615933,0.13182029,0.77669144,0
0.9625836,-0.14329696,1.0673137,-0.19445318,-0.8453815,0.49751166,0
3.5003142,1.1343303,2.09901,0.78601456,0.16913939,0.59461999,0
0.028999984,0.089070261,-0.43727809,0.58780873,0.09342888,-0.80358672,0
2.7060683,0.53864312,1.3566525,0.61459947,-0.11002406,-0.78112864,0
3.0137069,0.4228735,2.5982509,0.78601456,0.16913939,0.59461999,0
3.4012933,1.023659,1.9888983,0.78601456,0.16913939,0.59461999,0
-2.8488522,-1.1424694,-2.172524,0.37545484,-0.89474505,-0.24179506,0
0.26498479,0.67060524,0.32049617,-0.075614989,0.98092616,-0.17907029,0
1.7103236,0.79803169,0.93835366,0.11624134,0.90425253,-0.41087115,0
-2.9140601,-0.62075043,-2.491396,-0.78601456,-0.16913939,-0.59461999,0
2.4082906,0.12662268,1.988573,-0.063966513,-0.93443036,0.35035425,0
0.42664838,-0.4566395,-0.37334222,0.59389347,-0.47369134,-0.65031278,0
2.3996146,0.35635233,2.1377838,-0.35987008,-0.65689486,0.6625576,0
-3.1581755,-0.784899,-1.600159,-0.59875947,-0.031074449,0.80032563,0
3.2233517,1.1220784,2.4799271,0.78601456,0.16913939,0.59461999,0
3.1177635,0.47494459,2.6004658,0.78601456,0.16913939,0.59461999,0
0.46348506,0.53506505,0.068285421,-0.028887749,0.97084272,-0.23796995,0
-1.6416596,-0.99692392,-1.5386413,0.30214542,-0.94424415,-0.13080928,0
-3.1738501,-1.0343435,-1.7405797,-0.44581473,-0.51127326,0.73474395,0
2.4731739,0.93660903,2.4777377,-0.61708802,0.27252972,0.73819351,0
0.91490006,-0.17612958,1.2148058,-0.41178131,-0.57417047,0.70764691,0
2.9121983,0.74701524,2.5226746,0.78601456,0.16913939,0.59461999,0
-1.6691298,-0.41625285,-1.990273,0.52748871,0.31810379,-0.78775966,0
-3.3480093,-0.20842195,-2.2105393,-0.78601456,-0.16913939,-0.59461999,0
2.2992513,0.88964248,1.1176884,0.36839449,0.64426219,-0.67023242,0
-2.1000798,-0.73345876,-2.2240775,0.59225845,-0.48177093,-0.64585322,0
1.9618757,0.70720148,1.3409683,0.22347182,0.81906605,-0.52838528,0
-3.0990665,-0.48639011,-2.4710159,-0.78601456,-0.16913939,-0.59461999,0
-2.9902387,-0.32855225,-1.4534059,-0.61196417,0.076522142,0.7871747,0
-0.71991599,0.031149834,-0.011944294,-0.60126746,-0.014466673,0.7989167,0
2.4940219,0.66587758,1.3107322,0.34130138,0.68325061,-0.64550889,0
2.9659936,0.7333374,2.9119465,0.78601456,0.16913939,0.59461999,0
1.3143924,-0.30796623,1.0081731,0.33340687,-0.92595452,-0.17733535,0
-3.3165855,-0.48173237,-2.3124447,-0.78601456,-0.16913939,-0.59461999,0
2.2018239,0.03350091,1.3953601,0.5740754,-0.55659288,-0.60053438,0
2.9500175,0.71168184,2.8133039,0.78601456,0.16913939,0.59461999,0
3.2157254,0.38805771,2.3937306,0.78601456,0.16913939,0.59461999,0
1.1091077,-0.21976846,0.48054183,0.56286043,-0.59359014,-0.57518589,0
0.8991043,-0.06569308,0.40715569,0.5249579,-0.69059604,-0.49748999,0
2.9279969,0.58391047,2.4962273,0.78601456,0.16913939,0.59461999,0
-2.6695242,-0.88041091,-2.6594229,-0.78601456,-0.16913939,-0.59461999,0
3.1334021,0.6954391,2.2405338,0.78601456,0.16913939,0.59461999,0
1.157094,-0.21983749,0.46556717,0.38337535,-0.88792026,-0.25420648,0
-2.9434137,-0.37995529,-2.8028314,-0.78601456,-0.16913939,-0.59461999,0
0.10531107,0.50422138,0.08020331,-0.058935583,0.97796518,-0.20027637,0
3.0889754,0.3052659,2.4988046,0.78601456,0.16913939,0.59461999,0
-3.0543635,-1.2011137,-2.4520628,-0.78601456,-0.16913939,-0.59461999,0
0.24290852,-0.0988722,-0.3279717,0.58528262,-0.51330817,-0.62766141,0
3.1856363,0.43879128,2.6994319,0.78601456,0.16913939,0.59461999,0
3.0505939,0.2859931,2.7185867,0.78601456,0.16913939,0.59461999,0
-1.1584191,0.21275854,-1.4867018,0.28239876,0.75739068,-0.588736,0
-3.1370144,-1.0706706,-2.0496545,-0.78601456,-0.16913939,-0.59461999,0
1.3490398,0.71247506,0.72733408,0.078615308,0.92668843,-0.36751598,0
3.3847594,0.67730665,2.3274641,0.78601456,0.16913939,0.59461999,0
-0.31276524,-0.49141958,-0.23603457,0.078765213,-0.98140514,0.17504252,0
-3.1854463,-0.56250429,-2.3954597,-0.78601456,-0.16913939,-0.59461999,0
2.9916186,1.1297393,2.1686113,0.78601456,0.16913939,0.59461999,0
0.99064696,0.4370113,0.059446454,0.35762095,0.66017067,-0.66051632,0
1.9800928,0.40963256,0.6615935,0.55377686,0.23490447,-0.79884344,0
-3.2419841,-0.93832779,-2.4264092,-0.78601456,-0.16913939,-0.59461999,0
-3.021884,-0.65502501,-2.689009,-0.78601456,-0.16913939,-0.59461999,0
0.25347137,-0.20698237,0.4720571,-0.24250889,-0.80039036,0.54823762,0
3.3266091,0.58168221,2.3311925,0.78601456,0.16913939,0.59461999,0
-3.2372019,-0.2813797,-2.6847613,-0.78601456,-0.16913939,-0.59461999,0
-3.3965352,-0.14691496,-2.3266759,-0.78601456,-0.16913939,-0.59461999,0
3.3099592,1.0717607,2.3698177,0.78601456,0.16913939,0.59461999,0
-2.9253311,-0.54741478,-2.6423533,-0.78601456,-0.16913939,-0.59461999,0
-3.2959893,-0.28704214,-2.3997083,-0.78601456,-0.16913939,-0.59461999,0
3.4713748,0.41293287,2.3000212,0.78601456,0.16913939,0.59461999,0
1.6487981,-0.22255278,1.7443608,-0.094681263,-0.91756099,0.38615698,0
1.9097292,0.39559853,0.66534722,0.48928741,0.41769427,-0.76559079,0
1.76992,0.19597042,0.92849129,0.60110801,0.015557393,-0.79901624,0
2.176229,-0.049927235,1.6315055,0.27417123,-0.95745331,-0.090073436,0
2.9841328,1.0512786,2.7436948,0.78601456,0.16913939,0.59461999,0
3.1095788,0.50721097,2.2243354,0.78601456,0.16913939,0.59461999,0
1.1664381,0.44874096,0.4350307,0.5845865,0.1095219,-0.80390501,0
2.9758642,0.85720682,2.7230585,0.78601456,0.16913939,0.59461999,0
-3.2568719,-0.40150213,-2.6028643,-0.78601456,-0.16913939,-0.59461999,0
1.8205463,0.35777676,0.50076318,0.61300534,-0.088719189,-0.78508162,0
2.9503648,1.0827944,1.7898504,0.20923471,0.83229458,-0.51332867,0
2.9546871,0.8877461,2.2360661,0.78601456,0.16913939,0.59461999,0
0.93159604,0.44801164,0.52825582,0.16636378,0.86849099,-0.46695441,0
-3.3187602,-0.4693327,-2.4922843,-0.78601456,-0.16913939,-0.59461999,0
2.7334638,1.2340899,1.9491994,-0.20756525,0.97821343,-0.0038767606,0
3.2500067,0.68187094,2.2038562,0.78601456,0.16913939,0.59461999,0
-1.570858,0.010444641,-1.4963623,0.16391283,0.87040049,-0.4642579,0
-2.4117525,-0.39744544,-2.4076362,0.58213782,0.12123699,-0.8040005,0
-0.86782271,-0.76873326,-0.59660172,0.33135241,-0.92727822,-0.17424306,0
-3.1885304,-0.72503972,-2.2876747,-0.78601456,-0.16913939,-0.59461999,0
2.2447126,0.20899749,1.1514862,0.60140985,-0.43190309,-0.67213517,0
-3.5212238,-0.53584552,-1.9998835,-0.78601456,-0.16913939,-0.59461999,0
2.8977704,1.2265301,2.4771152,0.78601456,0.16913939,0.59461999,0
-3.3266344,-0.73052573,-2.0431795,-0.78601456,-0.16913939,-0.59461999,0
-0.30204576,-0.36068335,-0.13269129,-0.11233592,-0.90675414,0.40642029,0
-3.346503,-0.38225555,-2.4925652,-0.78601456,-0.16913939,-0.59461999,0
-2.1606202,-0.68725324,-0.93836671,-0.36496818,-0.64938134,0.6671595,0
-3.5160153,-0.72217846,-2.1753497,-0.78601456,-0.16913939,-0.59461999,0
-3.0334055,-0.88559699,-2.4405756,-0.78601456,-0.16913939,-0.59461999,0
3.2110076,0.52189255,2.4236088,0.78601456,0.16913939,0.59461999,0
2.174731,-0.075437069,1.0009683,0.50847214,-0.72395015,-0.46621025,0
1.915735,0.80774546,0.95219952,0.17794752,0.85923558,-0.47963405,0
1.8733132,0.96506333,1.5232835,-0.44229028,0.82587242,0.34973425,0
-3.0870526,-0.93041515,-2.2276721,-0.78601456,-0.16913939,-0.59461999,0
-1.1651136,-0.64464545,-1.2311856,0.28404361,-0.95311528,-0.10435748,0
-2.3543823,-0.81185317,-2.2270522,0.58426684,-0.51756334,-0.62510818,0
1.4820287,0.44328749,0.80742621,0.46975058,0.46187565,-0.75233293,0
-3.1189857,-0.21962285,-2.2882929,-0.78601456,-0.16913939,-0.59461999,0
-3.4569285,-0.35994005,-2.1652293,-0.78601456,-0.16913939,-0.59461999,0
3.0000548,0.075449467,2.0257635,0.37005782,-0.89921427,-0.23338965,0
-2.8726027,-0.79558229,-2.7497106,-0.78601456,-0.16913939,-0.59461999,0
2.7636321,1.1968715,2.2534368,-0.29792446,0.94642127,0.12461025,0
3.1447453,0.88143301,2.2708173,0.78601456,0.16913939,0.59461999,0
-1.361358,-0.82186449,-0.91459501,-0.03111881,-0.94980013,0.31130561,0
-3.3499959,-0.52970576,-2.1548486,-0.78601456,-0.16913939,-0.59461999,0
-3.0632877,-0.87526321,-2.5554924,-0.78601456,-0.16913939,-0.59461999,0
-0.15278441,-0.51045722,0.13111645,-0.016836107,-0.95563114,0.29408419,0
2.8332615,1.0263438,2.749537,0.78601456,0.16913939,0.59461999,0
0.50681865,0.28422895,-0.45945925,0.56366467,0.19894917,-0.80168641,0
