0.96433562,-0.017056286,0.18030721,0.56382394,0.80922627,-0.16509277,0
0.86945176,-0.82651728,-0.28489545,-0.25442475,-0.60886014,-0.75137049,0
-1.2715611,0.67648298,0.28475726,-0.36722824,-0.29888466,0.88080156,0
-0.86364818,-0.077167273,0.31764615,-0.53054696,-0.64501965,0.54997265,0
2.0756395,-0.75367904,-0.027895808,0.54845893,0.69926959,-0.4584921,0
0.12542354,0.092499942,-0.40015602,0.3611117,0.28774273,-0.88701904,0
1.9603019,-1.2406391,0.26625043,0.82492828,-0.54212785,0.15997154,0
2.001018,-0.72900379,-0.048906922,0.51334053,0.60009539,-0.61348778,0
2.1536143,-1.6107178,0.028102756,0.82492828,-0.54212785,0.15997154,0
1.4493926,-0.38995814,0.48571515,0.46122992,0.80921555,0.36391956,0
1.8489549,-1.9262651,0.52626765,0.82492828,-0.54212785,0.15997154,0
0.71803045,-0.71909314,0.55693054,-0.48063785,-0.52384311,0.70326072,0
2.3649168,-1.0896766,0.56666875,0.82492828,-0.54212785,0.15997154,0
2.2847238,-1.2508287,0.13679683,0.82492828,-0.54212785,0.15997154,0
2.3561001,-1.1909854,0.56418788,0.82492828,-0.54212785,0.15997154,0
2.0265863,-1.3582555,-0.050724268,0.82492828,-0.54212785,0.15997154,0
1.1658232,-0.70107305,0.57865846,0.0038613081,0.28841487,0.95749784,0
2.2372134,-1.2593184,0.97996509,0.82492828,-0.54212785,0.15997154,0
-0.52620822,1.0308231,-0.23780814,0.56227547,0.75811839,-0.3303073,0
-0.19931875,0.63854575,-0.60502517,0.39755401,0.35529956,-0.84599835,0
-0.26560682,0.62187999,-0.17921132,0.56299925,0.76290572,-0.31781572,0
2.0904086,-1.3232057,-0.07335031,0.82492828,-0.54212785,0.15997154,0
-2.1025629,1.5295595,-0.54770803,-0.82492828,0.54212785,-0.15997154,0
-0.12338632,-0.63030732,-0.19243582,-0.51536393,-0.83762783,-0.18105185,0
1.8287983,-1.7055635,0.11493063,0.82492828,-0.54212785,0.15997154,0
-1.5809114,1.7018468,-0.71811634,-0.82492828,0.54212785,-0.15997154,0
-1.3493657,1.3365234,-0.39813197,0.56513548,0.78567636,-0.2516641,0
-2.1782129,1.3738428,-0.7399652,-0.82492828,0.54212785,-0.15997154,0
1.2702775,-1.0557144,0.61900425,-0.19980508,-0.014935791,0.9797219,0
2.0802727,-1.0451958,0.89215714,0.82492828,-0.54212785,0.15997154,0
-0.60245204,0.02111049,-0.51124591,-0.32185864,-0.68317962,-0.65549433,0
-1.9758679,1.7132726,-0.28564084,-0.82492828,0.54212785,-0.15997154,0
-1.1499404,0.51406527,-0.79325253,-0.19233513,-0.53535247,-0.8224386,0
-2.2173657,1.4660648,-0.44602615,-0.82492828,0.54212785,-0.15997154,0
1.4164736,-1.4119613,0.91025543,-0.44238269,-0.44306535,0.77973759,0
-1.0157486,1.4312675,-0.42611569,0.55306339,0.83258259,-0.030451417,0
1.6851914,-1.4831697,0.21421713,-0.47475082,-0.81813943,-0.32443792,0
0.65783519,-0.54156989,-0.26861304,0.17997801,-0.016359031,-0.98353463,0
-2.2107353,1.3660003,-0.10773873,-0.82492828,0.54212785,-0.15997154,0
-0.15008983,-0.45498988,-0.25158554,-0.20672286,-0.55277365,-0.80728382,0
2.2084415,-1.1267827,0.84506738,0.82492828,-0.54212785,0.15997154,0
-1.3568333,0.98800099,0.26960188,0.13042879,0.45794874,0.87935859,0
-0.19167274,0.70425516,0.29985285,0.45906866,0.80770737,0.3699528,0
-2.3429809,1.0592662,-0.3870784,-0.82492828,0.54212785,-0.15997154,0
1.6416693,-1.6279387,0.3852478,-0.54272842,-0.83876568,-0.043796837,0
2.1127076,-1.592688,0.44732124,0.82492828,-0.54212785,0.15997154,0
0.53261173,0.28474149,0.27979568,0.34507936,0.70718396,0.61709911,0
2.2697246,-1.3518792,0.14354634,0.82492828,-0.54212785,0.15997154,0
2.2278669,-0.96943259,0.78814805,0.13767636,0.46720779,0.87336278,0
2.0497591,-1.1008807,0.69040442,0.82492828,-0.54212785,0.15997154,0
1.9184973,-1.2860553,0.15164828,0.82492828,-0.54212785,0.15997154,0
-1.1344889,0.64496893,0.33539546,-0.060268104,0.19704175,0.97854102,0
-1.9494593,0.81759024,-0.40683591,-0.42710501,-0.78322619,-0.45181656,0
-2.2556374,1.2175143,-0.40297639,-0.82492828,0.54212785,-0.15997154,0
-1.8598897,1.2736409,-0.63835216,-0.82492828,0.54212785,-0.15997154,0
-1.8270254,0.93345308,0.21804702,-0.20109832,-0.016991705,0.97942376,0
1.8968506,-1.3954813,0.016894698,0.82492828,-0.54212785,0.15997154,0
1.4537644,-0.70428884,-0.14520162,0.47073811,0.50225925,-0.72535616,0
2.0069418,-1.6995162,0.48034084,0.82492828,-0.54212785,0.15997154,0
2.0267718,-1.4415658,0.53817385,0.82492828,-0.54212785,0.15997154,0
-1.529454,0.73133004,0.1283617,-0.47092459,-0.50266093,0.72495657,0
2.3038454,-1.22943,0.24222136,0.82492828,-0.54212785,0.15997154,0
-2.5811081,0.9348805,-0.28858316,-0.82492828,0.54212785,-0.15997154,0
-0.50903791,-0.18454242,0.40498191,-0.42067075,-0.3998099,0.81436372,0
1.9497349,-1.3654909,-0.11822379,0.82492828,-0.54212785,0.15997154,0
2.2280579,-1.5138342,0.12036765,0.82492828,-0.54212785,0.15997154,0
-2.3473465,1.1800655,-0.5531624,-0.82492828,0.54212785,-0.15997154,0
1.52364,-1.0870092,-0.095315456,0.245318,0.08841604,-0.96540242,0
-2.3984065,1.1321615,-0.15363204,-0.82492828,0.54212785,-0.15997154,0
2.1267292,-1.3232536,0.52392524,0.82492828,-0.54212785,0.15997154,0
-1.5667249,0.4409582,-0.45387453,-0.31192178,-0.67263919,-0.67101538,0
-1.0907964,1.1049404,0.062469214,0.12439084,0.4501965,0.88422298,0
0.41981679,-0.29647556,-0.30159074,0.22159773,0.049824983,-0.97386456,0
-2.0537548,1.5031199,-0.53277874,-0.82492828,0.54212785,-0.15997154,0
-1.2556231,1.1423562,0.19580215,0.36075354,0.72284925,0.58936077,0
1.7614388,-1.7056727,-0.04039371,-0.28955561,-0.64837164,-0.70411074,0
-0.64607155,0.35448658,-0.7450847,0.24043232,0.080413014,-0.96732938,0
0.70348036,-0.22403848,0.6957413,0.23335624,0.58441609,0.7771762,0
-1.9771428,1.2930758,-0.36526263,-0.82492828,0.54212785,-0.15997154,0
1.9544148,-1.4053032,0.53021246,0.82492828,-0.54212785,0.15997154,0
-0.83619118,0.3911531,0.3971037,-0.35614514,-0.27874947,0.89188528,0
1.7710196,-1.5750401,0.81066787,0.82492828,-0.54212785,0.15997154,0
-2.2007792,0.70856512,-0.49553597,-0.45794487,-0.80691463,-0.37306222,0
-0.42436728,0.56986946,0.36712992,0.0086495876,0.29509097,0.95543009,0
2.0421517,-1.0434043,0.75596684,0.82492828,-0.54212785,0.15997154,0
2.1475539,-1.049549,0.22118366,0.82492828,-0.54212785,0.15997154,0
1.9989536,-1.3556865,-0.17841005,0.82492828,-0.54212785,0.15997154,0
0.96856695,-0.96363783,0.36138052,-0.50975335,-0.59125233,0.62495798,0
-2.234947,1.1173022,-0.70905966,-0.82492828,0.54212785,-0.15997154,0
2.267652,-0.9475193,0.2410605,0.82492828,-0.54212785,0.15997154,0
-0.70219922,0.16690402,-0.7353211,-0.010616302,-0.29782701,-0.95456088,0
1.9388469,-1.1248519,-0.058765769,0.062790692,-0.19337261,-0.97911417,0
1.9061009,-1.43506,0.20992136,0.82492828,-0.54212785,0.15997154,0
-1.3714873,0.109905,-0.53283584,-0.46539783,-0.81206322,-0.35207745,0
2.0732648,-1.106194,0.55415285,0.82492828,-0.54212785,0.15997154,0
-1.8301517,1.92377,-0.1353671,0.40908027,0.76792169,0.49289957,0
1.9709853,-1.1566159,0.39916861,0.82492828,-0.54212785,0.15997154,0
2.1010299,-1.0323445,0.83652025,0.82492828,-0.54212785,0.15997154,0
-0.22622968,-0.52818191,0.25196242,-0.49966797,-0.56711024,0.65476567,0
1.2398618,-1.3864844,0.59931797,-0.49357471,-0.55296636,0.67127669,0
1.8050601,-1.8247954,0.32330573,-0.43153453,-0.78683662,-0.44121009,0
1.5532817,-0.4399929,0.30216396,0.40502393,0.76435196,0.50171894,0
-2.2830186,1.1282979,-0.34709799,-0.82492828,0.54212785,-0.15997154,0
-2.1153095,1.3092819,-0.28359354,-0.82492828,0.54212785,-0.15997154,0
1.9505213,-1.6852403,0.2380839,0.82492828,-0.54212785,0.15997154,0
1.4816012,-1.4463029,0.19013095,-0.49667871,-0.83033538,-0.252693,0
2.3086658,-1.0921329,0.065158725,0.82492828,-0.54212785,0.15997154,0
0.23160005,-0.0075196587,0.63739479,-0.17294747,0.027357072,0.98455113,0
-1.6466324,0.62457418,-0.19527948,-0.56119549,-0.81932914,0.11730099,0
-0.50809431,0.7688632,-0.47151813,0.35504246,0.27675906,-0.89294434,0
-2.1201885,0.90173566,-0.39555955,-0.82492828,0.54212785,-0.15997154,0
0.50151724,0.16126505,0.17069104,0.50050586,0.83210385,0.23895037,0
2.2542994,-1.0320466,0.91766411,0.82492828,-0.54212785,0.15997154,0
-2.3557308,1.0330907,-0.03693676,-0.82492828,0.54212785,-0.15997154,0
-0.71198577,0.61177647,-0.69979978,0.24211746,0.083170176,-0.96667576,0
-2.0528023,1.4882146,-0.30126882,-0.82492828,0.54212785,-0.15997154,0
-1.9274344,1.3861324,0.10757959,-0.82492828,0.54212785,-0.15997154,0
-2.1146011,1.2910044,-0.26481676,-0.82492828,0.54212785,-0.15997154,0
-0.14617527,0.63383782,0.32240456,0.27455235,0.63169688,0.72496921,0
-2.1572654,1.0998558,-0.79823941,-0.82492828,0.54212785,-0.15997154,0
2.0037055,-1.495456,0.082982481,0.82492828,-0.54212785,0.15997154,0
2.1195714,-1.0072592,0.83778864,0.82492828,-0.54212785,0.15997154,0
2.3916633,-1.0909959,0.079548478,0.82492828,-0.54212785,0.15997154,0
-2.1200237,1.3568629,0.14930546,-0.82492828,0.54212785,-0.15997154,0
0.93948841,-0.15859926,-0.30814373,0.50832945,0.58778214,-0.62937552,0
1.4251797,-1.4519947,0.41615728,-0.55353689,-0.83211005,0.034494221,0
-1.2645662,0.83872092,-0.67395139,0.060788929,-0.1962848,-0.97866094,0
1.9290687,-1.4151205,0.71619427,0.82492828,-0.54212785,0.15997154,0
-1.1410141,0.3207798,-0.49558669,-0.33895707,-0.70094389,-0.62752366,0
2.0332544,-1.297655,-0.033406019,0.82492828,-0.54212785,0.15997154,0
-1.186156,0.84429348,0.15751219,0.028786302,0.32294339,0.94598055,0
-1.0696419,0.35176808,-0.82513154,0.014268517,-0.26295379,-0.96470296,0
-1.6945095,0.63596004,-0.81079042,-0.22545218,-0.57510978,-0.7863971,0
-2.2148478,1.0803353,-0.77094561,-0.82492828,0.54212785,-0.15997154,0
1.9791188,-1.4805759,0.10201436,0.82492828,-0.54212785,0.15997154,0
-2.2801011,1.2522933,0.024658561,-0.82492828,0.54212785,-0.15997154,0
-0.75538528,0.76365733,0.15112361,0.28540283,0.64378703,0.70998853,0
-2.0770922,1.2279302,0.023971319,-0.82492828,0.54212785,-0.15997154,0
-0.58396852,-0.34993941,0.010822177,-0.4835422,-0.82340872,-0.29696029,0
2.2710493,-1.142344,0.061246276,0.82492828,-0.54212785,0.15997154,0
-2.0978732,1.2161332,-0.43438578,-0.82492828,0.54212785,-0.15997154,0
1.8269536,-1.8828173,0.67327338,0.82492828,-0.54212785,0.15997154,0
2.1534522,-0.76553905,0.51107574,0.54494643,0.83794862,0.029590309,0
2.1886492,-0.87751496,0.20013833,0.82492828,-0.54212785,0.15997154,0
1.9244635,-0.91569483,0.022221565,0.5631929,0.76428807,-0.31413013,0
-1.7068107,0.73109567,0.12371099,-0.54647261,-0.69261551,0.47079903,0
-0.8202188,1.2356875,-0.28644192,0.56164229,0.81803894,-0.12397724,0
-0.97847396,-0.027889431,-0.16782951,-0.42667675,-0.78287387,-0.45283067,0
1.282787,-0.44869101,0.54829836,0.29085088,0.64979661,0.70226097,0
1.1754043,-1.2936839,-0.051603407,-0.21008039,-0.55680656,-0.80363739,0
-1.6208754,1.4327266,-0.32784683,0.5230732,0.83943892,0.14743477,0
-2.3470485,0.94810796,-0.90683419,-0.82492828,0.54212785,-0.15997154,0
2.1120057,-1.6272056,0.18062925,0.82492828,-0.54212785,0.15997154,0
2.3227296,-1.0965114,0.5706889,0.82492828,-0.54212785,0.15997154,0
-1.8710531,1.8719193,0.026778877,-0.82492828,0.54212785,-0.15997154,0
-2.0861688,1.2535386,-0.089537382,-0.82492828,0.54212785,-0.15997154,0
1.5723271,-1.1947935,-0.21182519,0.16943538,-0.032832026,-0.98499447,0
1.8160172,-1.8585963,0.49735451,0.82492828,-0.54212785,0.15997154,0
2.2644734,-1.2272054,0.52542305,0.82492828,-0.54212785,0.15997154,0
0.014612347,0.11434193,-0.50322545,0.13422811,-0.087032706,-0.98712128,0
-2.0512609,1.3034196,-0.25444072,-0.82492828,0.54212785,-0.15997154,0
-0.39986545,0.80220443,-0.15946959,0.54870629,0.70011473,-0.45690352,0
1.9541911,-1.2048059,0.38130301,0.82492828,-0.54212785,0.15997154,0
1.7039716,-1.5443985,0.55841815,0.82492828,-0.54212785,0.15997154,0
-0.68033737,-0.016448289,0.0918926,-0.56246179,-0.7593013,0.32725888,0
-1.6886932,0.82075244,-0.40026009,-0.43308079,-0.78808188,-0.43745658,0
0.59542441,-0.84424794,-0.22732291,-0.13292551,-0.46114409,-0.87731254,0
2.2351115,-1.0870606,0.27361524,0.82492828,-0.54212785,0.15997154,0
-2.4268055,1.0364693,-0.082882762,-0.82492828,0.54212785,-0.15997154,0
1.8363013,-0.76946831,-0.18948317,0.43528631,0.42875478,-0.79164076,0
2.0501013,-1.2689537,0.61169875,0.82492828,-0.54212785,0.15997154,0
0.29725555,0.11565417,-0.45184356,0.48937201,0.54337889,-0.68209571,0
-1.0994834,0.9904896,-0.84720385,0.38408503,0.32999003,-0.86231399,0
2.0626686,-1.3071393,0.48862565,0.82492828,-0.54212785,0.15997154,0
1.3902258,-0.34838724,-0.3858797,0.45400771,0.46691537,-0.75885916,0
-2.0898471,1.2314363,-0.011857271,-0.82492828,0.54212785,-0.15997154,0
-2.1506953,1.0551913,-0.49218297,-0.82492828,0.54212785,-0.15997154,0
1.5999472,-1.6732937,0.48634684,0.82492828,-0.54212785,0.15997154,0
-2.3122797,1.2063212,-0.43146908,-0.82492828,0.54212785,-0.15997154,0
-1.811636,1.6717832,-0.066347837,-0.82492828,0.54212785,-0.15997154,0
-1.2491999,0.74193007,-0.73143053,0.033307433,-0.23590204,-0.97120601,0
-2.0743058,1.1396464,-0.29806972,-0.82492828,0.54212785,-0.15997154,0
0.6626755,-0.11072096,0.61013198,0.2860834,0.64453989,0.70903099,0
1.6836162,-0.89555264,-0.18827486,0.46396717,0.48779696,-0.73945165,0
0.084996268,-0.65464473,0.1106928,-0.55545843,-0.82993007,0.051790774,0
1.2598836,-0.57867938,-0.26149243,0.3172532,0.20984754,-0.92483211,0
-2.155293,1.062848,-0.22485507,-0.82492828,0.54212785,-0.15997154,0
0.30882695,-0.80274975,-0.28745127,-0.37196112,-0.73376024,-0.56854296,0
-1.8878937,1.6975197,0.028053463,-0.82492828,0.54212785,-0.15997154,0
-2.4310308,1.2308898,-0.12416875,-0.82492828,0.54212785,-0.15997154,0
-1.9409831,1.5932537,-0.45865685,-0.82492828,0.54212785,-0.15997154,0
-1.7664659,1.7592711,-0.39807817,-0.82492828,0.54212785,-0.15997154,0
-1.7894707,0.52980316,0.02253437,-0.54769504,-0.69668353,0.46331668,0
0.31311324,-0.28614819,0.65388334,-0.0073707104,0.27267522,0.96207803,0
1.9972975,-1.8627002,0.22516096,0.82492828,-0.54212785,0.15997154,0
-1.9506658,1.5534437,-0.39435405,-0.82492828,0.54212785,-0.15997154,0
1.8008091,-1.9043238,0.43757048,-0.50273091,-0.8330732,-0.23076135,0
0.98886859,-0.88399464,0.037486553,-0.37534052,-0.73699993,-0.56209505,0
-2.1387851,1.1784395,-0.91740954,-0.82492828,0.54212785,-0.15997154,0
-2.0390069,1.5662487,-0.53367567,-0.82492828,0.54212785,-0.15997154,0
0.95609844,-0.1468392,0.5561384,0.30576509,0.66603249,0.68037403,0
1.7923894,-1.7233934,0.45651507,0.82492828,-0.54212785,0.15997154,0
-1.9088194,1.5390823,-0.20118254,-0.82492828,0.54212785,-0.15997154,0
1.7790375,-0.71588254,-0.033107519,0.56372714,0.76841009,-0.30291557,0
-2.1831009,1.4329212,-0.021161318,-0.82492828,0.54212785,-0.15997154,0
-1.8540387,1.8031547,-0.34067619,-0.82492828,0.54212785,-0.15997154,0
1.5988967,-0.35441732,0.23809958,0.54880047,0.83594835,0.0029377937,0
1.200826,-0.6842463,0.8478151,0.14970767,0.48246527,0.86302674,0
0.95235401,-0.33609557,0.78195006,0.14538527,0.47700018,0.86679542,0
-0.18625343,0.59302539,0.00089561939,0.56448519,0.80474579,-0.18368679,0
-1.6731814,1.7764859,-0.3163389,0.49135691,0.82767975,0.27113646,0
1.1526119,-0.89050722,0.57037729,-0.027114987,0.24473622,0.96921062,0
-1.7687021,1.4046059,-0.55376005,-0.82492828,0.54212785,-0.15997154,0
-1.781881,1.3856713,-0.66939819,-0.82492828,0.54212785,-0.15997154,0
-2.1102114,1.2341255,-0.24738288,-0.82492828,0.54212785,-0.15997154,0
0.51763201,-0.49132878,0.46401668,-0.4100647,-0.37920883,0.82948637,0
-1.6564898,1.8506501,-0.44913581,-0.82492828,0.54212785,-0.15997154,0
-0.79201436,0.22529876,0.10791755,-0.54716802,-0.69491959,0.46657693,0
-2.3110609,0.9381355,-0.38091516,-0.82492828,0.54212785,-0.15997154,0
-1.9345896,0.71068239,-0.13972175,-0.55826694,-0.82575405,0.080426276,0
0.95729506,-0.86514682,0.67510164,-0.28018349,-0.14639211,0.94871855,0
1.4665943,-1.3636568,-0.23495251,-0.24151099,-0.59394079,-0.76740295,0
2.0473359,-1.2542372,0.3558082,0.82492828,-0.54212785,0.15997154,0
2.290241,-1.2063056,0.39866722,0.82492828,-0.54212785,0.15997154,0
2.0655229,-1.4168495,0.21212131,0.82492828,-0.54212785,0.15997154,0
-1.1593305,0.86734635,0.07730639,-0.052828968,0.20782945,0.97673756,0
-0.8282609,-0.1729804,-0.44218612,-0.42343491,-0.78018785,-0.46044546,0
0.33811569,0.4607721,-0.34265867,0.56284535,0.76184142,-0.32062888,0
-2.1514282,1.1769975,-0.32287705,-0.82492828,0.54212785,-0.15997154,0
-2.1261287,1.1418611,-0.6803056,-0.82492828,0.54212785,-0.15997154,0
-2.3217063,1.1360997,-0.29649103,-0.82492828,0.54212785,-0.15997154,0
-1.6003387,1.8207407,0.047404468,0.37911701,0.74059153,0.55479246,0
1.2933847,-0.73748833,0.69392025,-0.21937865,-0.046248138,0.97454309,0
-1.826154,1.6129532,-0.25547564,-0.82492828,0.54212785,-0.15997154,0
-0.68636513,0.18764421,-0.51472652,-0.029207945,-0.32352281,-0.94576955,0
-0.24530384,0.68325186,-0.54291475,0.51592386,0.60655922,-0.60490388,0
1.6368127,-1.8188348,0.17035919,0.82492828,-0.54212785,0.15997154,0
1.8814669,-1.4156065,0.83083665,0.82492828,-0.54212785,0.15997154,0
-1.7599359,1.4723439,-0.68205464,-0.82492828,0.54212785,-0.15997154,0
-2.0388424,1.6229647,-0.40260243,-0.82492828,0.54212785,-0.15997154,0
1.9779673,-1.8055733,0.38474375,0.82492828,-0.54212785,0.15997154,0
2.3320665,-1.1870267,0.30748796,0.82492828,-0.54212785,0.15997154,0
1.7586304,-1.5793393,0.41015083,0.82492828,-0.54212785,0.15997154,0
1.7717555,-1.4265611,0.6670711,-0.39847738,-0.35705063,0.84482592,0
-2.2061787,1.4160711,-0.28589976,-0.82492828,0.54212785,-0.15997154,0
-1.9786522,1.4120564,-0.057399631,-0.82492828,0.54212785,-0.15997154,0
0.79967737,0.28114501,-0.081450701,0.5564934,0.82855034,-0.061803758,0
0.91477257,-1.2861242,0.41963521,-0.54951334,-0.70289958,0.45162749,0
0.8106733,0.096198916,0.36692977,0.42384982,0.78053349,0.45947698,0
-0.9983964,0.59934431,-0.8711822,0.069458902,-0.18364528,-0.98053563,0
1.3114893,-1.6080985,0.48878655,-0.56244147,-0.75917101,0.32759607,0
2.0087533,-1.4203162,0.53331721,0.82492828,-0.54212785,0.15997154,0
-1.6695261,1.5785469,-0.67254317,0.50621283,0.58266324,-0.63580847,0
-1.2241553,0.26267165,0.010327935,-0.56453681,-0.77613086,0.28092581,0
2.0366645,-1.0594412,0.81900889,0.82492828,-0.54212785,0.15997154,0
-2.0384264,1.1890345,-0.44964343,-0.82492828,0.54212785,-0.15997154,0
1.741641,-1.7798146,0.7420693,0.82492828,-0.54212785,0.15997154,0
-1.8367094,0.91537845,-0.94847602,-0.2147193,-0.56235808,-0.79852951,0
-0.15552771,0.46658912,0.089441366,0.44676548,0.79874003,0.40300786,0
1.7375028,-1.5976467,0.89440584,0.82492828,-0.54212785,0.15997154,0
0.12411734,-0.56496859,0.40727609,-0.52418172,-0.62783962,0.57537043,0
2.2668755,-1.2403947,0.40323174,0.82492828,-0.54212785,0.15997154,0
-2.15554,1.3288634,-0.15708506,-0.82492828,0.54212785,-0.15997154,0
-1.9203924,1.538852,-0.7764709,-0.82492828,0.54212785,-0.15997154,0
1.936004,-1.2038922,0.74030614,0.82492828,-0.54212785,0.15997154,0
-0.16657545,0.21005513,-0.4011462,0.26336908,0.11823827,-0.95742184,0
-2.5231709,1.0668808,-0.14722109,-0.82492828,0.54212785,-0.15997154,0
1.8723297,-1.5758582,0.29777384,0.82492828,-0.54212785,0.15997154,0
1.2808893,-0.33243501,0.2242952,0.5129506,0.83689582,0.19101614,0
-0.075610161,-0.1696506,-0.60751635,-0.22713709,-0.57709986,-0.78445196,0
0.35928923,0.25332266,0.62090492,0.10866141,0.42983842,0.89634365,0
-1.1889112,1.1509221,0.14700952,0.25295168,0.60716861,0.75323439,0
2.048738,-1.5159048,0.5190888,0.82492828,-0.54212785,0.15997154,0
-2.2050302,1.159477,-0.064169288,-0.82492828,0.54212785,-0.15997154,0
-1.9925653,0.96964717,-0.77914864,0.02448082,-0.2484836,-0.96832681,0
1.0109501,-0.19606483,0.064596415,0.56451404,0.77587205,-0.28168535,0
1.0778456,-1.0501781,-0.021316856,-0.36711746,-0.72907573,-0.57764494,0
2.1379871,-1.5217898,0.094561219,0.056656778,-0.20228508,-0.97768658,0
-1.9397647,0.7968303,-0.30341756,-0.56279159,-0.7614758,0.32159042,0
0.75748491,-0.73163545,-0.15501073,-0.10667074,-0.42724523,-0.89782137,0
-2.0315955,1.6352454,-0.55384338,-0.82492828,0.54212785,-0.15997154,0
-0.41070929,0.39268324,-0.36937705,0.3637979,0.29262683,-0.88431942,0
-1.5466303,0.74981016,0.042666912,-0.29939663,-0.17903221,0.93718153,0
-8.0168247e-06,0.2995379,-0.42801645,0.54621148,0.69175702,-0.47236162,0
2.3405724,-1.20713,0.26246381,0.82492828,-0.54212785,0.15997154,0
-1.8300006,1.7658012,-0.79586035,0.4817889,0.5263896,-0.70056671,0
1.7202024,-1.8125377,0.51113069,0.82492828,-0.54212785,0.15997154,0
-0.70046204,1.0677067,0.074486062,0.51878822,0.83853734,0.16647589,0
-2.0379348,1.2585375,0.058826447,-0.82492828,0.54212785,-0.15997154,0
0.33821106,-0.6839242,-0.15522322,-0.53114146,-0.84028304,-0.10869014,0
1.7064288,-1.190753,0.81466627,-0.3714062,-0.30653828,0.87640852,0
-2.0308714,1.7239748,-0.52457458,-0.82492828,0.54212785,-0.15997154,0
2.3061509,-1.2042431,0.25539267,0.82492828,-0.54212785,0.15997154,0
2.0555618,-0.71301913,0.44352782,0.39241016,0.75298238,0.52823484,0
-0.71027213,0.95548201,-0.34276822,0.5651561,0.79589444,-0.21714252,0
-2.2475467,1.3545653,-0.3897965,-0.82492828,0.54212785,-0.15997154,0
-2.1158195,0.93175054,-0.32374597,-0.82492828,0.54212785,-0.15997154,0
-2.1664758,1.3473125,-0.77329355,-0.82492828,0.54212785,-0.15997154,0
1.5997537,-0.55918449,0.75746787,0.18208599,0.52280748,0.83277678,0
-2.0138021,1.1736013,-0.19552612,-0.82492828,0.54212785,-0.15997154,0
-0.9487657,0.15591103,0.27719533,-0.54795694,-0.69756627,0.46167588,0
2.3649979,-1.1796291,0.25083303,0.82492828,-0.54212785,0.15997154,0
2.0138755,-1.3477139,-0.048068404,0.82492828,-0.54212785,0.15997154,0
2.2634139,-0.83823717,0.21354246,0.82492828,-0.54212785,0.15997154,0
0.47042018,0.1408381,-0.070743293,0.55103314,0.83436716,-0.013934433,0
1.7267376,-1.6158001,0.96133852,0.82492828,-0.54212785,0.15997154,0
-0.12250692,0.16541886,0.50888181,-0.084723473,0.16122609,0.98327428,0
0.1211912,-0.52482629,0.29181197,-0.55033869,-0.70579422,0.44607395,0
1.9779663,-1.2337354,0.18723875,0.82492828,-0.54212785,0.15997154,0
-0.72723234,0.62651896,0.37578773,-0.16836822,0.03449297,0.98512059,0
2.2136202,-0.86992502,0.39180148,0.82492828,-0.54212785,0.15997154,0
2.0423791,-0.64212012,0.12566185,0.55837786,0.73764032,-0.37960649,0
2.1254454,-1.4255532,0.96763766,0.82492828,-0.54212785,0.15997154,0
1.8626585,-1.7204068,0.82483763,0.82492828,-0.54212785,0.15997154,0
0.19193435,-0.27677953,0.73242778,-0.18328547,0.011167437,0.98299634,0
-2.0283601,1.2328396,-0.19365489,-0.82492828,0.54212785,-0.15997154,0
-1.1910281,1.230809,0.35600477,0.091836214,0.40780553,0.90843874,0
-2.1520615,1.2101924,0.040454984,-0.82492828,0.54212785,-0.15997154,0
2.1417711,-1.5935551,0.37203521,0.82492828,-0.54212785,0.15997154,0
2.2637246,-0.93404114,0.60941833,0.82492828,-0.54212785,0.15997154,0
-0.89598417,1.1748039,-0.53225893,0.46934474,0.49926427,-0.7283206,0
-2.1040087,1.5792662,-0.65396821,-0.82492828,0.54212785,-0.15997154,0
2.2484739,-0.95546031,0.28105628,0.82492828,-0.54212785,0.15997154,0
2.0166945,-1.5323666,0.70260996,0.82492828,-0.54212785,0.15997154,0
-0.64916778,0.098985374,0.22778457,-0.24066502,-0.080793619,0.9672398,0
-1.5364388,0.70015734,-0.91522199,-0.10245049,-0.42173564,-0.9009124,0
2.2949767,-1.1622703,0.80150354,0.82492828,-0.54212785,0.15997154,0
2.2656155,-1.5117415,0.056162119,0.82492828,-0.54212785,0.15997154,0
0.35401213,-0.86757267,-0.12243103,-0.48887581,-0.82636929,-0.27948982,0
0.078358352,-0.31480348,-0.083828188,-0.40241051,-0.76202911,-0.50732398,0
1.990754,-1.7482308,0.16330028,0.82492828,-0.54212785,0.15997154,0
2.1181171,-1.6731776,0.0080736876,0.82492828,-0.54212785,0.15997154,0
-2.1606407,1.1705329,-0.74137467,-0.82492828,0.54212785,-0.15997154,0
-1.9888792,1.0969948,-0.45809424,-0.82492828,0.54212785,-0.15997154,0
-2.132031,1.2913829,-0.68621492,-0.82492828,0.54212785,-0.15997154,0
0.032839835,-0.7308253,-0.12287585,-0.45254004,-0.80302674,-0.38775748,0
2.1635504,-0.83851361,0.47628152,0.82492828,-0.54212785,0.15997154,0
-0.039994031,0.62166518,-0.27201694,0.53013098,0.64387256,-0.55171508,0
0.54383761,-0.59160924,-0.10995193,-0.22096276,-0.56979179,-0.79152584,0
-1.5966746,1.4907043,-0.77591407,0.49849123,0.5643549,-0.65803522,0
2.0091665,-1.2152998,0.79271644,0.82492828,-0.54212785,0.15997154,0
2.2397053,-0.95517421,0.52998924,0.82492828,-0.54212785,0.15997154,0
0.25193372,-0.040423363,0.3502506,-0.18047732,0.015575975,0.9834559,0
-1.6413816,1.7680128,-0.38855103,-0.82492828,0.54212785,-0.15997154,0
-1.0335886,0.45535868,0.25659811,-0.2080825,-0.028125763,0.97770691,0
-2.1010451,1.1760863,0.20087945,-0.14348125,0.072906226,0.98696405,0
1.4605685,-0.54036254,0.099230111,0.51513171,0.6045683,-0.60756618,0
-2.2498236,1.2240494,-0.77475238,-0.82492828,0.54212785,-0.15997154,0
-1.8348992,1.52609,-0.66705823,-0.82492828,0.54212785,-0.15997154,0
-2.2337503,1.2420821,-0.090327144,-0.82492828,0.54212785,-0.15997154,0
-2.1339302,1.2494711,-0.46686387,-0.82492828,0.54212785,-0.15997154,0
1.6403816,-1.3699847,-0.17278409,-0.17500639,-0.51407796,-0.83970046,0
-1.9911394,0.74819303,-0.074258089,-0.55085272,-0.70762259,0.44252878,0
0.084264979,0.31859785,-0.26844591,0.5584197,0.73783237,-0.37917149,0
1.9030582,-1.2134681,0.82612216,0.82492828,-0.54212785,0.15997154,0
0.47758907,0.075594664,0.11721593,0.56493783,0.79999715,-0.20211351,0
2.1975825,-1.2415702,-0.015401959,0.39909717,0.35822713,-0.84403491,0
2.0724821,-1.5374237,0.20263422,0.82492828,-0.54212785,0.15997154,0
-1.0075661,0.80482829,-0.86290824,0.23652387,0.074031383,-0.96880138,0
-1.361184,1.2826734,0.042286277,0.10301435,0.42247289,0.90050268,0
1.2793944,-0.10156703,-0.17185926,0.56347644,0.76641136,-0.30839604,0
-2.1672428,1.3131708,-1.0070659,-0.82492828,0.54212785,-0.15997154,0
-1.2337604,1.0406094,0.32835931,0.21956336,0.56812942,0.79310858,0
-1.8848267,1.301674,0.1856457,-0.00548172,0.27533016,0.96133423,0
0.71475154,0.070332676,-0.10953361,0.55668366,0.8282783,-0.063706636,0
-2.0454814,1.5154597,-0.58249521,-0.82492828,0.54212785,-0.15997154,0
0.63766468,-0.81960845,0.59222269,-0.38185018,-0.32583106,0.8648842,0
-1.0402163,0.61292756,-0.73011369,0.19663441,0.0099031925,-0.98042691,0
-2.0047207,1.7135633,-0.18369073,-0.82492828,0.54212785,-0.15997154,0
1.5677826,-1.8199174,0.26680842,0.82492828,-0.54212785,0.15997154,0
0.91730237,-1.2337432,0.088187784,-0.39752388,-0.75763929,-0.51764625,0
1.8105469,-1.3932555,0.70145851,0.82492828,-0.54212785,0.15997154,0
-0.17584682,-0.58409452,-0.38518238,-0.35073012,-0.71288389,-0.60727674,0
-2.3191519,0.94082558,-0.30203271,-0.82492828,0.54212785,-0.15997154,0
1.9952108,-1.1902313,0.83245242,0.82492828,-0.54212785,0.15997154,0
0.44087946,0.30126902,-0.2598643,0.52718133,0.63583982,-0.56372666,0
-0.83120573,0.49224848,0.43940601,-0.09255439,0.14964214,0.9843989,0
-1.7920616,1.7379755,-0.24296397,-0.82492828,0.54212785,-0.15997154,0
-2.1486874,1.6114399,-0.14804894,-0.82492828,0.54212785,-0.15997154,0
2.3498003,-1.0999024,0.57462621,0.82492828,-0.54212785,0.15997154,0
-0.53140497,0.31953037,-0.44300622,-0.1284436,-0.45540375,-0.88097107,0
-2.2089248,1.499068,-0.39636678,-0.82492828,0.54212785,-0.15997154,0
2.0109017,-1.1384066,0.18057656,0.82492828,-0.54212785,0.15997154,0
-0.69253957,0.23976374,-0.74175954,0.089775801,-0.15375879,-0.98402178,0
1.8121475,-1.4164459,0.73990834,0.82492828,-0.54212785,0.15997154,0
-1.223719,0.59153968,0.43754923,-0.24096864,-0.081290245,0.96712255,0
-1.9104247,0.74594116,-0.46722162,-0.5570699,-0.82770705,0.067634463,0
-2.2388601,1.0322058,-0.45778978,-0.82492828,0.54212785,-0.15997154,0
1.7684736,-0.96537805,-0.24197602,0.23965991,0.079150558,-0.9676252,0
-0.96999538,0.00091588497,0.23059767,-0.52253026,-0.623501,0.58155715,0
-2.3347292,1.0343864,-0.7025733,-0.82492828,0.54212785,-0.15997154,0
-1.7567713,0.95124626,0.20117342,-0.19375378,-0.005340308,0.98103571,0
-0.2377457,0.81634122,-0.1972831,0.53055084,0.8402648,0.11167377,0
1.2863215,-0.18262893,0.22615063,0.56504387,0.78351963,-0.2585007,0
-2.0854681,1.520171,-0.20394963,-0.82492828,0.54212785,-0.15997154,0
0.82164276,0.13770711,0.073251009,0.5650624,0.7839098,-0.25727433,0
1.7308093,-0.84714848,0.72804511,0.36758882,0.72953373,0.57676619,0
0.6966297,-1.0171807,0.037798055,-0.39069915,-0.75141025,-0.53173029,0
-0.7876333,1.1369321,-0.10487761,0.5171082,0.8381108,0.17369407,0
2.3697784,-1.1077121,0.52285337,0.82492828,-0.54212785,0.15997154,0
1.3353955,-0.48168814,-0.088300705,0.5101347,0.59218538,-0.62376219,0
-2.1850762,1.3777063,-0.72361118,-0.82492828,0.54212785,-0.15997154,0
-1.029459,0.073240101,-0.55433679,-0.40713584,-0.76621604,-0.49714547,0
-0.047262728,0.37996602,-0.16164461,0.55424666,0.83135641,-0.04070878,0
-2.008379,0.97929144,-0.78100741,-0.82492828,0.54212785,-0.15997154,0
1.9920121,-1.2228638,0.50817966,0.82492828,-0.54212785,0.15997154,0
2.0792501,-1.2375838,0.61687827,0.82492828,-0.54212785,0.15997154,0
-2.0753064,1.5567933,-0.60178298,-0.82492828,0.54212785,-0.15997154,0
-2.1195636,1.6298109,-0.41002905,-0.82492828,0.54212785,-0.15997154,0
0.085772678,0.67648232,-0.32612118,0.55821693,0.73690522,-0.38126731,0
-1.9236135,1.7801261,-0.49763906,-0.82492828,0.54212785,-0.15997154,0
-2.2104795,0.98307848,-0.75864953,-0.82492828,0.54212785,-0.15997154,0
-1.9539018,0.91835147,-0.86316615,-0.36406755,-0.72610176,-0.5832935,0
2.1836333,-1.4361188,0.27856112,0.82492828,-0.54212785,0.15997154,0
1.3541479,-1.1195354,0.75735432,-0.46482107,-0.48960847,0.7377162,0
1.8767552,-1.6302834,0.28906691,-0.56208289,-0.81664503,0.13097304,0
-1.0506824,0.24230015,0.35216099,-0.40830925,-0.37582925,0.83188701,0
1.675871,-1.6889098,0.32320982,0.82492828,-0.54212785,0.15997154,0
-1.8608183,1.3812506,-0.49140757,-0.82492828,0.54212785,-0.15997154,0
-2.0266554,1.5820497,-0.31564391,-0.82492828,0.54212785,-0.15997154,0
1.4660101,-0.62248605,0.43594289,0.45000666,0.80116248,0.39450347,0
1.840004,-1.8544099,0.50139678,0.82492828,-0.54212785,0.15997154,0
0.26419234,0.49471921,-0.24741703,0.49958622,0.56691855,-0.65499407,0
2.2224767,-1.1670821,0.72556031,0.82492828,-0.54212785,0.15997154,0
2.281034,-1.1557888,0.3822546,0.82492828,-0.54212785,0.15997154,0
-2.2400267,1.338024,-0.73966557,-0.82492828,0.54212785,-0.15997154,0
1.1065873,0.073720813,-0.049177527,0.56357723,0.76719999,-0.30624366,0
0.1328854,-0.48164949,-0.22480032,-0.096109509,-0.41342646,-0.90545118,0
1.7833915,-0.77423537,-0.0005812645,0.47747579,0.51688862,-0.71052313,0
2.1969135,-1.0099421,0.3581053,0.82492828,-0.54212785,0.15997154,0
-1.8708568,1.5334717,-0.14175552,-0.82492828,0.54212785,-0.15997154,0
-0.26096618,0.03410989,0.28418785,-0.27628177,-0.13982588,0.95085084,0
-2.2809401,1.2552582,-0.83357561,-0.82492828,0.54212785,-0.15997154,0
2.2544737,-1.269509,0.053039432,0.82492828,-0.54212785,0.15997154,0
-1.9773457,1.2967292,-0.32466787,-0.82492828,0.54212785,-0.15997154,0
-0.82540548,0.045683682,0.26866221,-0.47922152,-0.52072072,0.70653868,0
-2.0984886,1.4648104,-0.23102283,-0.82492828,0.54212785,-0.15997154,0
0.21856582,-0.85119832,0.20693636,-0.56132489,-0.75248116,0.34450924,0
2.0881767,-1.6392497,0.42923242,0.82492828,-0.54212785,0.15997154,0
-1.2319405,1.6031796,-0.44176954,0.56238663,0.75882101,-0.3284995,0
-2.0297563,1.2931228,-0.42054492,-0.82492828,0.54212785,-0.15997154,0
-1.0715408,0.76607668,-0.51758653,0.28086334,0.14753842,-0.9483397,0
-1.0428765,1.3502381,-0.2676149,0.54866505,0.83603317,0.0039233565,0
2.0910118,-1.6162715,0.095292449,-0.29200327,-0.65106255,-0.70060825,0
-0.74640095,-0.12412491,-0.20026094,-0.38718235,-0.7481575,-0.53884178,0
-1.9739566,1.4246849,-0.58577836,-0.82492828,0.54212785,-0.15997154,0
1.7123556,-1.8792046,0.43217069,0.82492828,-0.54212785,0.15997154,0
-2.0003066,1.7460874,-0.35447931,-0.82492828,0.54212785,-0.15997154,0
-2.0716102,1.1738129,-0.45021862,-0.82492828,0.54212785,-0.15997154,0
2.0802486,-1.5525086,0.18823403,0.82492828,-0.54212785,0.15997154,0
-0.1466983,-0.53581858,0.33128646,-0.55688292,-0.73102587,0.3943131,0
-2.0650308,1.31012,-0.77862221,-0.82492828,0.54212785,-0.15997154,0
1.4772416,-1.1451659,0.62897897,-0.20734245,-0.026943415,0.97789747,0
1.8986294,-1.5353025,0.043319643,0.82492828,-0.54212785,0.15997154,0
-1.0621418,1.3196242,-0.74775124,0.48137304,0.52546871,-0.70154309,0
-2.1458888,0.89970171,-0.38976979,-0.55075788,-0.83458197,0.011786461,0
-1.2282913,0.0080872178,-0.44782513,-0.4419477,-0.79506487,-0.4153966,0
1.7191635,-0.69664872,-0.17314208,0.48178974,0.52639145,-0.70056468,0
-1.9335823,1.3674594,-0.41737825,-0.82492828,0.54212785,-0.15997154,0
-2.1088161,1.2945981,-0.36363,-0.82492828,0.54212785,-0.15997154,0
-2.1663961,0.9739784,-0.61241198,-0.2794615,-0.63718653,-0.71825826,0
-1.9834657,1.5336525,-0.26515967,-0.82492828,0.54212785,-0.15997154,0
1.1078739,-0.55038399,-0.23161697,0.073737383,-0.17738283,-0.98137575,0
-0.78610456,1.0164571,-0.71886218,0.47753817,0.51702511,-0.71038198,0
2.0665135,-1.0935991,0.57593524,0.82492828,-0.54212785,0.15997154,0
1.362923,-1.3241625,0.10518736,-0.25297093,-0.60719085,-0.75320995,0
1.9194063,-1.429862,0.77190268,0.82492828,-0.54212785,0.15997154,0
0.71006441,-0.36484268,0.48278224,-0.046723068,0.21664667,0.97513151,0
1.4091736,-0.47653699,0.36901116,0.50109988,0.832367,0.23677909,0
2.2500949,-0.84496439,0.32051706,0.82492828,-0.54212785,0.15997154,0
2.1632836,-1.4931047,0.63747603,0.82492828,-0.54212785,0.15997154,0
-1.3700917,0.34526134,-0.18317598,-0.53875184,-0.839746,-0.067625225,0
1.9223597,-1.5826796,-0.17519099,0.82492828,-0.54212785,0.15997154,0
1.1236823,-0.73254675,-0.36868888,0.007470727,-0.27253473,-0.96211714,0
-2.4444304,1.038152,-0.63707519,-0.82492828,0.54212785,-0.15997154,0
-2.0827174,1.694342,-0.2974574,-0.82492828,0.54212785,-0.15997154,0
0.5960207,-0.9361465,-0.36809707,-0.19823837,-0.54252732,-0.81631231,0
0.3274284,0.49271831,-0.15732118,0.55669397,0.73022032,-0.39606845,0
-0.53867114,0.22452317,-0.55403596,0.21921414,0.045983076,-0.97459269,0
-2.3191414,1.1734126,-0.16422212,-0.82492828,0.54212785,-0.15997154,0
1.8875688,-1.0084343,-0.1756928,0.16359663,-0.041906118,-0.98563701,0
2.2345052,-1.2371424,0.44703156,0.82492828,-0.54212785,0.15997154,0
2.0968556,-1.2161864,0.82774878,0.82492828,-0.54212785,0.15997154,0
-1.181283,0.29762405,0.20238888,-0.33503753,-0.24103421,0.91085255,0
2.0768342,-1.3315167,-0.024060488,0.82492828,-0.54212785,0.15997154,0
0.35304743,-0.74673343,0.37720114,-0.4192206,-0.39697409,0.81649613,0
1.8015015,-1.4773114,0.13760442,-0.23418903,-0.58539242,-0.77619034,0
-0.69230306,0.66893309,-0.36273566,0.43282965,0.42384118,-0.79562402,0
1.6149335,-1.7404592,0.34520528,0.82492828,-0.54212785,0.15997154,0
-2.0172424,1.3585939,-0.16143018,-0.82492828,0.54212785,-0.15997154,0
1.3790016,-1.4994187,0.17527345,-0.45394599,-0.80405009,-0.38397479,0
0.58515257,-0.90430593,0.77562761,-0.4424147,-0.44313028,0.77968264,0
-2.4590139,1.1034412,-0.30578887,-0.82492828,0.54212785,-0.15997154,0
2.1803343,-1.3015404,0.5954628,0.82492828,-0.54212785,0.15997154,0
1.7837985,-1.5658897,0.42198882,0.82492828,-0.54212785,0.15997154,0
0.87406093,-0.76459581,-0.1144776,-0.22834754,-0.57852721,-0.78304785,0
-0.59522831,0.65663266,-0.65540743,0.18941236,-0.0015199184,-0.98189658,0
2.0445361,-1.4993008,0.21167272,0.82492828,-0.54212785,0.15997154,0
2.1076462,-1.5305136,0.23320073,0.82492828,-0.54212785,0.15997154,0
2.0995016,-1.2977445,0.10205579,0.82492828,-0.54212785,0.15997154,0
0.36465266,-0.0209665,-0.30433145,0.45753652,0.47426382,-0.7521531,0
1.9866655,-1.4877167,0.35291201,0.82492828,-0.54212785,0.15997154,0
-2.3029194,1.2178885,-0.035773396,-0.82492828,0.54212785,-0.15997154,0
-0.96669459,1.0504446,0.2513175,0.10947251,0.4308939,0.89573801,0
1.8651131,-1.4161556,0.91265166,0.82492828,-0.54212785,0.15997154,0
1.9314898,-1.4260105,0.85480762,0.82492828,-0.54212785,0.15997154,0
1.1890155,-1.0966113,-0.33942062,-0.15159202,-0.48484194,-0.86136425,0
1.556093,-1.0167999,0.81195426,-0.17789602,0.019621223,0.98385376,0
1.8563125,-0.8405571,0.76139826,0.19629681,0.54017174,0.81834108,0
1.6821804,-1.5913323,0.79422808,0.82492828,-0.54212785,0.15997154,0
-2.0626445,1.618242,-0.25036836,-0.82492828,0.54212785,-0.15997154,0
2.1752949,-0.88306856,0.40142417,0.82492828,-0.54212785,0.15997154,0
1.8805956,-1.1037703,0.90945768,0.028702497,0.32282838,0.94602233,0
1.8553834,-1.313261,0.67308128,0.82492828,-0.54212785,0.15997154,0
-2.1784232,0.79374695,-0.48766947,-0.56010175,-0.82207745,0.10234696,0
-2.1128144,1.4257191,-0.041436195,-0.82492828,0.54212785,-0.15997154,0
-2.187109,1.0132608,-0.099601388,-0.41874409,-0.39604354,0.8171922,0
1.3330637,-0.99104404,-0.27757066,0.049038768,-0.21330655,-0.97575384,0
2.0938787,-1.0168641,0.44412386,0.82492828,-0.54212785,0.15997154,0
1.9573961,-1.5457919,-0.24465275,0.82492828,-0.54212785,0.15997154,0
2.2142906,-1.1997447,0.4024446,0.82492828,-0.54212785,0.15997154,0
0.95698273,-1.1736145,0.037341863,-0.50863606,-0.83541656,-0.2082516,0
2.4635577,-1.0764605,0.37731087,0.82492828,-0.54212785,0.15997154,0
-1.7512838,1.5327903,-0.93934631,0.34101486,0.25163433,-0.90575337,0
-2.0027819,1.4099787,-0.28899372,-0.82492828,0.54212785,-0.15997154,0
-2.1010227,0.84862792,-0.5311597,-0.41047728,-0.76914096,-0.48982728,0
1.8834274,-1.5705523,0.21142828,0.82492828,-0.54212785,0.15997154,0
-2.1114883,1.4059107,-0.72898668,-0.82492828,0.54212785,-0.15997154,0
-2.1440914,1.6602091,-0.12516308,-0.82492828,0.54212785,-0.15997154,0
2.238492,-1.2762856,0.28971899,0.82492828,-0.54212785,0.15997154,0
-1.514137,0.70378423,-0.71981084,-0.17496991,-0.51403278,-0.83973581,0
2.0213292,-1.5567675,-0.06223011,0.82492828,-0.54212785,0.15997154,0
-1.304948,0.41468114,0.015385032,-0.46378908,-0.48741964,0.73981214,0
1.8218526,-1.556371,0.64311105,0.82492828,-0.54212785,0.15997154,0
-0.6007821,0.48300275,-0.61481464,0.11842197,-0.11097243,-0.98674291,0
-2.0749602,1.1816517,-0.66795552,-0.82492828,0.54212785,-0.15997154,0
1.7456388,-1.5335401,0.64186573,0.82492828,-0.54212785,0.15997154,0
1.9120502,-1.6165625,0.15345001,0.82492828,-0.54212785,0.15997154,0
-0.88794476,1.3796954,-0.37770158,0.56415421,0.77217019,-0.29237545,0
2.2065251,-1.1558677,0.64060527,0.82492828,-0.54212785,0.15997154,0
-0.82996035,0.41743004,-0.71917278,0.043827772,-0.22081593,-0.97433037,0
0.26792908,-0.097559474,0.57448232,-0.10299408,0.1341109,0.9855997,0
0.44386727,-0.0069750696,0.40934405,0.39576811,0.75604755,0.52130604,0
1.9094799,-1.473641,0.1506868,0.82492828,-0.54212785,0.15997154,0
2.0403404,-1.4550798,0.30126065,0.82492828,-0.54212785,0.15997154,0
1.9242412,-1.276372,0.43818945,0.82492828,-0.54212785,0.15997154,0
-2.0705447,0.73523688,-0.63563865,-0.42733812,-0.78341788,-0.45126361,0
-1.9281449,1.8083631,-0.79090559,-0.82492828,0.54212785,-0.15997154,0
-1.8830514,1.4277298,-0.61951399,-0.82492828,0.54212785,-0.15997154,0
-1.9370178,1.0541569,-0.71084934,-0.19053531,-0.53315741,-0.82428128,0
-0.44656393,0.65203506,-0.43862265,0.29698092,0.17489952,-0.93872935,0
-0.47129864,0.041078538,-0.41249216,-0.086891294,-0.40128011,-0.91182476,0
2.1651115,-1.2891856,0.11711049,0.82492828,-0.54212785,0.15997154,0
1.9348791,-0.88153231,-0.053040504,0.51811457,0.61210853,-0.59739488,0
-0.032082736,-0.084601335,-0.35539946,-0.14661372,-0.47855526,-0.86573064,0
-0.75008291,0.47361138,-0.80957985,0.18037784,-0.01573202,-0.98347169,0
0.095400631,0.15509483,0.49688187,0.16844249,0.50593817,0.84596336,0
1.4296722,-1.4782658,-0.018978059,-0.43365401,-0.78854156,-0.43605807,0
1.8296571,-1.5524151,0.70852405,0.82492828,-0.54212785,0.15997154,0
0.68079221,-0.41698265,0.8246758,-0.049889982,0.21207768,0.97597861,0
-0.61287212,0.93102145,-0.37895924,0.52722526,0.63595796,-0.56355232,0
2.0752687,-1.3611032,0.68007201,0.82492828,-0.54212785,0.15997154,0
1.9614573,-1.7807785,0.47046256,0.82492828,-0.54212785,0.15997154,0
2.302273,-1.0638142,0.54181886,0.82492828,-0.54212785,0.15997154,0
-1.9210513,1.7056442,-0.19802648,-0.82492828,0.54212785,-0.15997154,0
-2.3464339,0.96688068,-0.04331851,-0.82492828,0.54212785,-0.15997154,0
-0.9050712,0.14661288,0.17077041,-0.51736099,-0.61019242,0.60000235,0
-1.2281097,1.3481085,-0.15092993,0.55578411,0.82951301,-0.054884017,0
-2.0655589,1.2429073,-0.14427388,-0.82492828,0.54212785,-0.15997154,0
0.78758073,-0.45467293,0.73521823,-0.030379355,0.24008361,0.97027695,0
-0.87116933,0.31411147,0.23293227,-0.4637545,-0.48734635,0.73988211,0
-0.050185144,0.24231625,0.14024419,0.33442944,0.69628745,0.63509136,0
2.28491,-1.0375122,0.88368839,0.82492828,-0.54212785,0.15997154,0
1.5534629,-0.61999929,0.040392041,0.56521332,0.78854489,-0.24234462,0
-1.8792922,1.463573,-1.0220156,-0.82492828,0.54212785,-0.15997154,0
2.2139835,-1.3276738,0.9177044,0.82492828,-0.54212785,0.15997154,0
-0.42920077,0.56015503,0.46592838,-0.079229593,0.16931957,0.98237151,0
1.4329698,-0.6800313,0.53549039,0.29863805,0.65831399,0.69096905,0
-2.3003218,0.95025098,-0.31620395,-0.82492828,0.54212785,-0.15997154,0
-1.3862314,1.4268346,-0.32073271,0.56522751,0.78948772,-0.23922223,0
1.7486846,-1.5834423,0.059008241,0.82492828,-0.54212785,0.15997154,0
1.7329929,-0.70364702,0.25989127,0.54166752,0.67733282,-0.49781185,0
-1.3369668,1.2278287,-0.78115433,0.24151659,0.082186699,-0.96691012,0
-1.9326687,1.6676018,0.087517977,-0.82492828,0.54212785,-0.15997154,0
-1.3343198,0.97323918,0.31467021,-0.15953147,0.048203498,0.98601538,0
-1.6416435,0.82513392,0.23415208,-0.18687534,0.0055195689,0.98236829,0
2.0144892,-1.1667953,0.081674695,0.82492828,-0.54212785,0.15997154,0
2.1951408,-1.0539116,0.21449077,0.82492828,-0.54212785,0.15997154,0
-0.34981769,0.012535989,-0.28601986,-0.2585066,-0.6135332,-0.746158,0
-1.9216161,1.5249023,-0.31479996,-0.82492828,0.54212785,-0.15997154,0
-1.0276443,0.42132795,-0.65833807,0.037869871,-0.22937173,-0.97260201,0
-1.9968117,1.3110315,-0.58050215,-0.82492828,0.54212785,-0.15997154,0
2.2466006,-1.0659999,0.37652755,0.82492828,-0.54212785,0.15997154,0
-2.2807326,1.3409983,0.24353087,-0.82492828,0.54212785,-0.15997154,0
0.85113633,-1.2029804,0.190837,-0.54097009,-0.83926958,-0.054572165,0
-0.81639916,1.1397536,-0.51355767,0.52652121,0.63406515,-0.56633639,0
2.1611748,-1.0953904,0.4495371,0.82492828,-0.54212785,0.15997154,0
1.9060318,-1.7464869,0.056961656,0.82492828,-0.54212785,0.15997154,0
2.3353229,-1.1168811,0.48075068,0.82492828,-0.54212785,0.15997154,0
-1.932907,1.5738306,-0.93371928,-0.82492828,0.54212785,-0.15997154,0
2.1492276,-1.324616,0.0055131912,0.82492828,-0.54212785,0.15997154,0
2.0837643,-1.5991503,0.4368096,0.82492828,-0.54212785,0.15997154,0
0.95961756,-0.28802115,0.047715425,0.55288351,0.71506011,-0.42779559,0
1.9839225,-0.83462775,0.3215971,0.54827499,0.83627117,0.0067414045,0
-1.7805101,1.0854609,-0.7026571,-0.14828646,-0.48067033,-0.86427277,0
-0.28117985,-0.25441819,-0.46648821,-0.18155527,-0.52215487,-0.83330208,0
-1.9351733,1.2976065,-0.50608218,-0.82492828,0.54212785,-0.15997154,0
-0.0072066188,0.056163743,0.59070003,-0.32603076,-0.22517559,0.91815042,0
2.1148508,-1.306139,0.097981572,0.82492828,-0.54212785,0.15997154,0
-1.6355771,0.31086874,-0.69612128,-0.36940926,-0.73129821,-0.57335842,0
2.3782623,-1.1096418,0.40267205,0.82492828,-0.54212785,0.15997154,0
-1.948014,1.4093255,-0.14573056,-0.82492828,0.54212785,-0.15997154,0
1.9963601,-1.5508025,0.10669172,0.82492828,-0.54212785,0.15997154,0
-2.1478281,1.0868894,-0.63260502,-0.82492828,0.54212785,-0.15997154,0
-2.0329304,1.4942681,-0.22947758,-0.82492828,0.54212785,-0.15997154,0
-2.3452733,1.1326967,-0.88778037,-0.82492828,0.54212785,-0.15997154,0
-2.1277618,1.1033355,-0.2375381,-0.82492828,0.54212785,-0.15997154,0
-2.208287,1.4120247,-0.28786087,-0.82492828,0.54212785,-0.15997154,0
-1.9199163,1.1103101,-1.0020182,-0.82492828,0.54212785,-0.15997154,0
2.1469774,-1.2201227,0.75205868,0.82492828,-0.54212785,0.15997154,0
1.6916233,-1.5310833,0.6181531,0.82492828,-0.54212785,0.15997154,0
0.20776331,0.26879615,0.17693916,0.51862037,0.83849645,0.16720325,0
-0.65301228,0.42695355,0.22249314,0.02135098,0.31270096,0.94961178,0
1.2639426,-1.33635,0.55413598,-0.54731029,-0.69539398,0.46570259,0
-0.99812961,1.1420932,-0.56973308,0.48089406,0.52440923,-0.70266348,0
2.2273872,-1.2650837,0.22996533,0.82492828,-0.54212785,0.15997154,0
2.3843527,-0.88238394,0.35092008,0.82492828,-0.54212785,0.15997154,0
-2.0522087,0.88987494,-0.42690688,-0.5580321,-0.82616103,0.077835321,0
-1.9928784,1.3936189,-0.41119432,-0.82492828,0.54212785,-0.15997154,0
-1.9795883,1.3948581,-0.91563088,-0.82492828,0.54212785,-0.15997154,0
-2.243288,1.2041988,0.019187808,-0.82492828,0.54212785,-0.15997154,0
-1.76669,1.5467665,-0.20957083,0.51143849,0.83640146,0.19713855,0
-2.1692986,1.1044481,-0.60472566,-0.82492828,0.54212785,-0.15997154,0
-0.42890513,-0.12555183,0.24001792,-0.43686888,-0.43193078,0.78903836,0
2.0682833,-1.2819833,0.52448606,0.82492828,-0.54212785,0.15997154,0
-0.48169819,-0.32876945,0.026186883,-0.50706303,-0.83482653,-0.21436363,0
-0.18725431,-0.0029353357,-0.41960734,0.2041083,0.02178368,-0.97870612,0
1.8737185,-0.87082887,-0.17035723,0.46613523,0.49240309,-0.73502195,0
-2.1212449,1.1105947,-0.096217632,-0.82492828,0.54212785,-0.15997154,0
-0.53923512,0.76246548,-0.15094264,0.54145145,0.8391434,0.051661789,0
2.2257419,-1.0797288,0.41147864,0.82492828,-0.54212785,0.15997154,0
-1.4640888,0.41795987,0.17386508,-0.43191332,-0.4220137,0.79709196,0
-0.5079307,-0.13544056,-0.29251504,-0.42304975,-0.77986664,-0.46134287,0
-1.5202589,1.3548911,-0.51813132,0.48397556,0.53125,-0.69537127,0
1.2167587,-0.72220415,-0.3145197,0.39667273,0.35363036,-0.84711063,0
2.1990886,-1.1131916,0.31817627,0.82492828,-0.54212785,0.15997154,0
-0.31316158,-0.049175173,0.31733543,-0.52741098,-0.63645911,0.56281221,0
1.9961575,-1.2521856,1.0334363,0.82492828,-0.54212785,0.15997154,0
0.9367671,-1.1835182,0.42018265,-0.52757019,-0.6368891,0.56217623,0
-0.61870563,0.42070752,-0.62802541,0.29002368,0.16304442,-0.94302857,0
2.1441751,-1.2160033,0.1590327,0.82492828,-0.54212785,0.15997154,0
2.1504054,-1.4271054,0.56734508,0.82492828,-0.54212785,0.15997154,0
2.1130109,-1.2356168,0.49033457,0.82492828,-0.54212785,0.15997154,0
0.34736675,-0.65766388,0.072998844,-0.56073475,-0.74924564,0.35243094,0
-2.2017021,1.3455564,-0.90498996,-0.82492828,0.54212785,-0.15997154,0
-2.099807,1.2179772,-0.40525293,-0.82492828,0.54212785,-0.15997154,0
2.1030245,-1.5109355,0.37871325,0.82492828,-0.54212785,0.15997154,0
-1.8644786,1.1756489,-0.83513999,-0.82492828,0.54212785,-0.15997154,0
-2.3094196,1.2422291,-0.71368438,-0.82492828,0.54212785,-0.15997154,0
-2.079437,1.1845884,-0.54981726,-0.82492828,0.54212785,-0.15997154,0
1.1772296,-1.5413142,0.35363644,-0.55758905,-0.82689595,0.073060334,0
2.3990695,-1.0840623,0.44373798,0.82492828,-0.54212785,0.15997154,0
-2.0267019,1.1537043,-0.40761763,-0.82492828,0.54212785,-0.15997154,0
-0.49188459,-0.10002215,-0.19249848,-0.48463839,-0.82403255,-0.29342157,0
1.0517493,-0.68920314,0.80598766,-0.24637061,-0.090143889,0.96497452,0
2.1463068,-1.2057178,0.27389491,0.82492828,-0.54212785,0.15997154,0
-0.04200989,-0.085575201,-0.38532022,0.10263008,-0.13465405,-0.98556358,0
2.2158751,-1.1940492,0.6339004,0.82492828,-0.54212785,0.15997154,0
-2.4103529,1.0836869,-0.25106525,-0.82492828,0.54212785,-0.15997154,0
-1.8394309,1.3750027,-0.77511859,-0.82492828,0.54212785,-0.15997154,0
-0.85567909,0.52031016,-0.52004182,0.22125548,0.049273014,-0.97397041,0
0.1963917,0.23518094,0.34613994,0.12584436,0.45206589,0.88306278,0
2.1589761,-1.1592081,0.38006151,0.82492828,-0.54212785,0.15997154,0
2.108474,-0.93338609,0.62624955,0.19660783,0.54054922,0.81801724,0
2.3503704,-1.1584227,0.45666003,0.82492828,-0.54212785,0.15997154,0
-0.78482729,0.038765579,-0.69743592,-0.1291275,-0.45628095,-0.88041699,0
-0.6122691,-0.11563167,-0.45584345,-0.28969961,-0.64853013,-0.70390552,0
2.1955307,-1.2358187,0.56873989,0.82492828,-0.54212785,0.15997154,0
-1.8097913,1.8417625,-0.16323692,-0.82492828,0.54212785,-0.15997154,0
2.0825927,-1.3853272,1.0151273,0.82492828,-0.54212785,0.15997154,0
0.11224599,0.4178296,-0.4877052,0.41089523,0.38081065,-0.82834077,0
-0.88017237,0.96601808,-0.61240828,0.45545152,0.46991557,-0.75613707,0
0.7356168,0.039189756,-0.32486451,0.49774122,0.56260496,-0.66009796,0
-1.7676663,0.46661556,-0.21328688,-0.52834415,-0.84013176,-0.12260216,0
-2.0530467,1.1295735,-0.096994638,-0.82492828,0.54212785,-0.15997154,0
1.7181643,-1.4248278,0.71633857,0.82492828,-0.54212785,0.15997154,0
2.2419991,-0.96069944,0.64354163,0.82492828,-0.54212785,0.15997154,0
1.826206,-1.3276994,0.78445226,0.82492828,-0.54212785,0.15997154,0
1.9238576,-1.8127304,0.030607641,0.82492828,-0.54212785,0.15997154,0
1.6139207,-1.1180232,-0.19368351,0.021010518,-0.2534112,-0.9671306,0
