-2.7055726,-2.3041472,-1.7111117,-0.61514843,-0.65257227,-0.44242692,0
-2.582689,-2.9151483,-0.90005839,-0.61514843,-0.65257227,-0.44242692,0
1.5885025,2.3158281,2.2837574,-0.65471995,0.11018591,0.74779725,0
-2.7493007,-2.0484204,-1.809613,-0.61514843,-0.65257227,-0.44242692,0
-1.5206494,-1.6770306,-1.8467628,0.41700584,0.20693763,-0.88503265,0
2.2114599,2.7047613,1.7388902,0.61514843,0.65257227,0.44242692,0
0.70339775,0.50999177,-0.18325996,0.38291121,0.2432476,-0.89118427,0
-2.5555308,-2.3138061,-1.8591607,-0.61514843,-0.65257227,-0.44242692,0
1.9992547,3.0136316,1.913236,0.61514843,0.65257227,0.44242692,0
-2.4837997,-2.687427,-1.9155475,-0.61514843,-0.65257227,-0.44242692,0
2.2116241,2.2370214,2.3780217,0.61514843,0.65257227,0.44242692,0
-2.1497598,-3.2387676,-1.6623251,-0.61514843,-0.65257227,-0.44242692,0
-2.3173909,-3.105969,-1.451417,-0.61514843,-0.65257227,-0.44242692,0
2.1619213,2.8926549,1.7684102,0.61514843,0.65257227,0.44242692,0
-2.64605,-2.469532,-1.9275252,-0.61514843,-0.65257227,-0.44242692,0
2.231957,3.0547976,1.3080122,0.61514843,0.65257227,0.44242692,0
-0.95466471,-2.3384805,-1.154573,0.65682566,-0.7345742,0.17023718,0
2.4132555,2.4182088,2.2318377,0.61514843,0.65257227,0.44242692,0
1.0291512,0.98137724,-0.24652675,0.39065033,0.23514849,-0.88999856,0
-2.0639644,-2.3678377,-2.3716226,-0.61514843,-0.65257227,-0.44242692,0
1.8435397,2.4516401,0.92209041,-0.31045094,0.71631771,-0.62490726,0
-1.9755993,-3.0475402,-1.7090027,-0.61514843,-0.65257227,-0.44242692,0
2.3988907,2.5360053,1.8867431,0.61514843,0.65257227,0.44242692,0
2.8684049,2.3837609,1.5206819,0.61514843,0.65257227,0.44242692,0
2.827251,2.1967902,1.9426664,0.61514843,0.65257227,0.44242692,0
-2.6012123,-2.8142514,-1.3551142,-0.61514843,-0.65257227,-0.44242692,0
-2.3037214,-3.1850276,-1.2766619,-0.61514843,-0.65257227,-0.44242692,0
-1.2808712,-1.5946286,-0.15614635,-0.30835056,-0.31732911,0.89678442,0
2.2184007,2.8477285,1.5525806,0.61514843,0.65257227,0.44242692,0
2.821847,2.257761,1.8854314,0.61514843,0.65257227,0.44242692,0
2.3158045,2.8847938,1.2008196,0.61514843,0.65257227,0.44242692,0
2.1658752,3.040498,1.5558854,0.61514843,0.65257227,0.44242692,0
2.8473349,2.6740303,1.1290631,0.61514843,0.65257227,0.44242692,0
-1.1150678,-2.3554964,-0.92608273,0.70119882,-0.70938301,0.071384311,0
2.9232728,2.4285221,1.8251187,0.61514843,0.65257227,0.44242692,0
-0.13751227,-0.16148114,-1.1633823,0.31462133,0.31135976,-0.89669865,0
2.4125919,2.5794988,1.525398,0.61514843,0.65257227,0.44242692,0
1.249807,2.4666955,1.397604,-0.78826261,0.51995897,0.32906604,0
2.3239262,2.9100127,1.9630629,0.61514843,0.65257227,0.44242692,0
-0.82582295,-1.8723171,-0.32043159,0.4399876,-0.74979705,0.49418139,0
-3.0383344,-2.2575121,-1.0661356,-0.70309991,0.20017315,0.6823349,0
-0.0091612339,0.2575736,-0.84072053,0.26260519,0.35952681,-0.89542103,0
2.9856837,2.5125971,1.237144,0.61514843,0.65257227,0.44242692,0
-1.5481172,-2.5796013,-1.8564789,0.78833681,-0.51682413,-0.33379298,0
-0.5489006,0.57134974,-0.42223826,-0.41129491,0.7443698,-0.52607042,0
-2.1108456,-2.3889709,-2.2516589,-0.61514843,-0.65257227,-0.44242692,0
-0.059940398,0.82667196,0.28004748,-0.73810756,0.67391145,0.032253444,0
-2.5107002,-3.0610919,-1.4058179,-0.61514843,-0.65257227,-0.44242692,0
-0.61683053,-1.7406963,-1.3114197,0.78264385,-0.43768585,-0.44260526,0
-2.3430858,-2.7975717,-1.8531733,-0.61514843,-0.65257227,-0.44242692,0
2.3944585,2.8791094,1.4372004,0.61514843,0.65257227,0.44242692,0
1.6449655,0.75134706,0.5707249,0.75912195,-0.64178056,-0.10886407,0
-2.6074953,-2.4774246,-2.1492016,-0.61514843,-0.65257227,-0.44242692,0
-3.2158685,-2.1786098,-1.6114614,-0.61514843,-0.65257227,-0.44242692,0
-2.4386101,-2.4200182,-1.7725567,-0.61514843,-0.65257227,-0.44242692,0
-2.3195772,-1.6177986,-1.8282253,-0.429775,0.74800885,-0.50574327,0
-2.6575992,-2.4138117,-1.3690178,-0.61514843,-0.65257227,-0.44242692,0
2.8050394,2.1016324,1.6773853,0.61514843,0.65257227,0.44242692,0
0.15099341,0.74524713,-0.45749563,0.1028707,0.48993069,-0.86567056,0
2.9692135,2.1050224,1.7217363,0.61514843,0.65257227,0.44242692,0
2.0054781,3.1283071,1.3666687,-0.39025071,0.73962229,-0.54832774,0
-2.2654514,-3.1280184,-1.5461785,-0.61514843,-0.65257227,-0.44242692,0
-2.401051,-1.5339026,-1.7540045,-0.49635684,0.75654459,-0.4257583,0
3.0013232,2.3517127,1.1047482,0.76273561,-0.35053658,-0.54346865,0
2.0863874,3.0212686,2.0369341,0.61514843,0.65257227,0.44242692,0
-2.945411,-2.6373539,-1.296576,-0.61514843,-0.65257227,-0.44242692,0
0.71601272,1.4009289,1.6362913,-0.52009475,-0.085861474,0.84978175,0
2.0339587,1.2654538,1.8640618,0.39962322,-0.7418139,0.5385288,0
-0.21055874,0.83936298,0.11857736,-0.73645258,0.6759522,0.026942194,0
2.4213016,1.6043599,1.7475736,0.51165515,-0.75737113,0.40570682,0
2.524018,2.4468007,1.5896697,0.61514843,0.65257227,0.44242692,0
-0.17714947,-0.51582289,0.49107438,0.011357903,-0.56843942,0.82264668,0
-2.4483225,-1.3717148,-0.88789254,-0.7858181,0.46201146,0.41113883,0
-2.040132,-2.8651259,-2.3841252,-0.61514843,-0.65257227,-0.44242692,0
-2.1442375,-3.1698909,-1.6777506,-0.61514843,-0.65257227,-0.44242692,0
1.1693547,0.39391851,0.93400061,0.31326246,-0.71727163,0.62240505,0
-2.2305579,-2.7412839,-1.9766884,-0.61514843,-0.65257227,-0.44242692,0
2.1946011,1.5187557,0.79996812,0.72064143,-0.23777798,-0.65125811,0
0.25853783,0.69691205,-0.45019668,0.20849872,0.40653422,-0.88952684,0
-2.2094886,-1.5472078,-1.2270753,-0.74416101,0.66593957,0.052428365,0
2.6925275,2.2027915,1.805477,0.61514843,0.65257227,0.44242692,0
1.1769137,1.9625249,1.3781189,-0.77723044,0.40777037,0.47920337,0
2.6393785,2.6862106,1.4716682,0.61514843,0.65257227,0.44242692,0
2.6342981,2.7957191,1.0243329,0.61514843,0.65257227,0.44242692,0
-2.5523925,-2.5100827,-1.6789944,-0.61514843,-0.65257227,-0.44242692,0
1.2721107,0.93407989,1.4594575,0.1464619,-0.64598095,0.74917114,0
-1.3651837,-2.6953931,-1.5366625,0.78213364,-0.57578123,-0.23820728,0
-2.3573995,-2.0312076,-0.91049957,-0.48700076,-0.12679774,0.86414832,0
2.2815714,2.3955445,0.60987276,0.37017763,0.25639826,-0.89287651,0
1.9796004,3.0398724,1.870042,0.61514843,0.65257227,0.44242692,0
-3.0558503,-2.3146982,-1.3828969,-0.61514843,-0.65257227,-0.44242692,0
2.1235852,2.8503721,1.6389818,0.61514843,0.65257227,0.44242692,0
2.5337286,2.1386309,1.9788117,0.61514843,0.65257227,0.44242692,0
2.5114255,3.0223937,1.3324262,0.61514843,0.65257227,0.44242692,0
-2.0006287,-2.4691677,-2.2311244,-0.61514843,-0.65257227,-0.44242692,0
2.8292332,2.4234228,1.5654252,0.61514843,0.65257227,0.44242692,0
2.6412632,2.0642157,1.0613561,0.78155661,-0.43089852,-0.45110476,0
-1.5661461,-1.4344196,-0.33903861,-0.56087637,-0.032159328,0.82727456,0
1.398159,0.98166752,1.2724262,0.24162209,-0.69020146,0.68208551,0
-2.1723452,-3.0630155,-1.8697029,-0.61514843,-0.65257227,-0.44242692,0
2.077107,2.9079356,1.8251042,0.61514843,0.65257227,0.44242692,0
-2.3322406,-2.7065833,-1.9484625,-0.61514843,-0.65257227,-0.44242692,0
1.0578566,0.43519866,-0.19818297,0.72539502,-0.24863043,-0.64186037,0
2.7886901,2.5357423,1.0585473,0.61514843,0.65257227,0.44242692,0
-2.6508541,-2.5732872,-1.144135,-0.61514843,-0.65257227,-0.44242692,0
-2.7030253,-2.4137287,-2.1558366,-0.61514843,-0.65257227,-0.44242692,0
-0.66081178,-0.93243337,-1.5014259,0.47606182,0.13986823,-0.86821765,0
2.7535124,1.9344091,1.4337957,0.7357865,-0.67675829,-0.024827003,0
0.59830928,0.39828938,-0.44747368,0.48232883,0.13240665,-0.86592555,0
0.75617582,-0.55862677,0.14973873,0.67895448,-0.72372419,0.1234659,0
-0.4630574,-1.1397073,0.027412057,0.37315536,-0.73531526,0.56574422,0
-1.1659275,-0.95019972,-1.6309568,0.17908293,0.43084139,-0.88447994,0
-1.3812653,-1.6771202,-0.16836166,-0.10117918,-0.49118024,0.86516172,0
-0.41834751,0.76081669,-0.062820971,-0.56869185,0.75593126,-0.32427949,0
-2.8051212,-2.0993476,-2.1104262,-0.61514843,-0.65257227,-0.44242692,0
-0.17901778,0.65361768,0.36903489,-0.77908033,0.58921528,0.21414697,0
2.4495246,2.7586746,1.6597879,0.61514843,0.65257227,0.44242692,0
2.1772938,2.5984883,2.1569455,0.61514843,0.65257227,0.44242692,0
-2.5604742,-2.1045005,-0.95027149,-0.69227767,0.17854023,0.69919586,0
2.1470923,2.6540534,2.0524418,0.61514843,0.65257227,0.44242692,0
1.8730167,2.7644687,2.0732157,0.61514843,0.65257227,0.44242692,0
-1.9896472,-3.1903203,-1.8218017,-0.61514843,-0.65257227,-0.44242692,0
2.060308,3.1331115,1.9346563,0.61514843,0.65257227,0.44242692,0
-0.94479376,-1.2720197,-1.4656513,0.55320889,0.042560101,-0.8319546,0
-1.6410115,-2.2097983,-0.57613873,-0.1029287,-0.48988786,0.86568797,0
-1.7140224,-3.0761588,-1.7438118,-0.61514843,-0.65257227,-0.44242692,0
-2.903141,-2.0420251,-1.5432576,-0.61514843,-0.65257227,-0.44242692,0
2.0625329,2.5887551,2.1457036,0.61514843,0.65257227,0.44242692,0
-0.31547809,0.24268383,0.45503116,-0.66726375,0.13202418,0.73302704,0
-1.9766678,-2.3768642,-0.82865161,-0.16918564,-0.43882844,0.88249969,0
2.9179053,2.5280089,1.656653,0.61514843,0.65257227,0.44242692,0
-1.9969208,-1.8005071,-2.1116331,-0.018947303,0.57323682,-0.81917059,0
2.7126424,2.4012322,1.5088612,0.61514843,0.65257227,0.44242692,0
-1.4170345,-0.99257433,-0.02594915,-0.48447526,-0.12983489,0.86511648,0
0.99874628,0.2586692,-0.17352661,0.70068294,-0.19524947,-0.68623674,0
-3.0026312,-2.3926315,-1.6770891,-0.61514843,-0.65257227,-0.44242692,0
-1.2909973,-2.1464069,-0.45903158,0.33206284,-0.72341037,0.6053195,0
2.8362455,1.9771349,1.829486,0.61570036,-0.74813068,0.24741328,0
0.4518539,1.5543672,0.58609396,-0.68027747,0.72297728,-0.12052464,0
0.9959898,2.2420669,1.2278457,-0.6781078,0.7241959,-0.12533879,0
-2.6162007,-3.0055871,-1.3132067,0.01175946,-0.56869453,0.82246464,0
-2.7328975,-2.6199269,-0.91294527,-0.41822886,-0.20560412,0.88476628,0
1.9533569,2.8619833,2.3703108,0.61514843,0.65257227,0.44242692,0
-2.2643147,-2.7154167,-1.7827322,-0.61514843,-0.65257227,-0.44242692,0
0.34283692,1.0236526,1.2867711,-0.70751399,0.20931381,0.67499,0
-0.70865303,-0.49382961,-1.1228687,0.24244446,0.37739897,-0.89375091,0
-2.5980668,-2.8111925,-1.2377415,-0.61514843,-0.65257227,-0.44242692,0
-0.44564295,-1.0791594,-1.0667248,0.5941124,-0.014783174,-0.80424619,0
0.67112976,1.0878597,-0.12301975,0.11558998,0.48044989,-0.86937141,0
-1.8509046,-2.7977464,-2.2458723,-0.61514843,-0.65257227,-0.44242692,0
-2.3922579,-3.0686278,-1.4393663,-0.61514843,-0.65257227,-0.44242692,0
-0.30173063,-0.79153472,0.17069936,0.081192344,-0.61061358,0.78775549,0
2.132175,2.5465577,2.3757942,0.61514843,0.65257227,0.44242692,0
2.5254264,2.2384412,2.1669447,0.61514843,0.65257227,0.44242692,0
-2.6602831,-2.1372814,-2.2085023,-0.61514843,-0.65257227,-0.44242692,0
1.5179734,0.96103728,0.12112147,0.68026352,-0.15565307,-0.71624959,0
2.0530128,2.5094402,2.4363406,0.61514843,0.65257227,0.44242692,0
1.8568938,3.1634099,1.9955001,0.61514843,0.65257227,0.44242692,0
-2.5206356,-2.3267946,-1.9033473,-0.61514843,-0.65257227,-0.44242692,0
2.8647797,2.8427935,1.0213566,0.61514843,0.65257227,0.44242692,0
-2.2048755,-2.3131263,-0.64999664,-0.46450764,-0.15344235,0.87217426,0
1.9505564,1.1038623,0.88500851,0.77956033,-0.58729523,-0.21764642,0
-2.016068,-3.0190542,-1.8238837,-0.61514843,-0.65257227,-0.44242692,0
-0.85274351,-1.4257411,-0.26174349,0.06575644,-0.60167336,0.79603082,0
-1.2254256,-0.60787952,0.15224141,-0.74499041,0.29746115,0.59708107,0
1.5511718,1.3250678,0.0021852851,0.4726088,0.14394939,-0.86943614,0
-0.28049576,-0.32516637,0.6158644,-0.33274597,-0.2938458,0.89606625,0
-2.561516,-2.2425117,-2.2494638,-0.61514843,-0.65257227,-0.44242692,0
-2.3899341,-2.293287,-2.0042424,-0.61514843,-0.65257227,-0.44242692,0
1.7233455,1.2793243,1.6800934,0.35015374,-0.72891361,0.58828324,0
2.416878,2.434622,2.1864698,0.61514843,0.65257227,0.44242692,0
2.4502978,2.1646819,2.2978079,0.61514843,0.65257227,0.44242692,0
-1.7883637,-2.4059937,-0.57840097,-0.085410953,-0.50270092,0.86023062,0
1.0079958,2.3007538,1.087811,-0.6332221,0.743258,-0.21586394,0
-2.4594038,-2.0261862,-2.2253828,-0.61514843,-0.65257227,-0.44242692,0
1.0083618,1.1802934,1.6557902,-0.22521162,-0.39233744,0.89182448,0
-0.24987274,0.72863543,0.33847302,-0.75341481,0.65189594,0.086008906,0
1.1095407,1.3546612,1.7567732,-0.32642782,-0.29999548,0.89635229,0
-1.7361989,-2.9477692,-2.1081772,-0.61514843,-0.65257227,-0.44242692,0
-2.6991596,-3.1014872,-1.0866053,-0.61514843,-0.65257227,-0.44242692,0
2.9977908,2.1156731,2.0110598,0.61514843,0.65257227,0.44242692,0
-1.5612668,-3.0433686,-1.6658789,0.72766775,-0.68592966,-1.1146069e-05,0
1.0653553,0.048913836,0.92793012,0.42478597,-0.74707681,0.51130533,0
2.3391445,3.1058259,1.4568335,0.61514843,0.65257227,0.44242692,0
2.7052991,2.6513352,1.4817928,0.61514843,0.65257227,0.44242692,0
0.83662176,1.6805025,1.1899681,-0.77004987,0.37690124,0.51475084,0
-2.7523208,-2.6527891,-1.2962049,-0.61514843,-0.65257227,-0.44242692,0
-2.5565231,-2.3078887,-1.7471032,-0.61514843,-0.65257227,-0.44242692,0
1.1236792,1.1327672,0.20687377,0.26406115,0.35821941,-0.89551699,0
0.63535941,-0.3718192,0.017619908,0.7853986,-0.55622649,-0.27158982,0
2.5486739,2.155288,2.3732846,-0.12970763,-0.46975014,0.87321866,0
2.2308326,2.4619572,1.9575427,0.61514843,0.65257227,0.44242692,0
-0.87612647,-0.47588444,-1.1525528,0.13602453,0.46490192,-0.87485051,0
-0.3096053,-1.2825437,-0.035025656,0.19372004,-0.66906518,0.71751255,0
-1.5129259,-1.1641886,-1.6880769,0.042395294,0.5329715,-0.84507042,0
-2.7498689,-2.6643395,-1.2055728,-0.61514843,-0.65257227,-0.44242692,0
-2.2109253,-2.8827331,-1.9061205,-0.61514843,-0.65257227,-0.44242692,0
2.1911917,2.8618693,1.3363788,0.61514843,0.65257227,0.44242692,0
2.6210425,2.4709816,1.4447209,0.61514843,0.65257227,0.44242692,0
2.6701853,2.348,1.2267661,0.72521853,-0.24822159,-0.64221787,0
2.7446165,1.9379778,2.3231843,0.61514843,0.65257227,0.44242692,0
-1.9996192,-2.926928,-1.6053958,-0.61514843,-0.65257227,-0.44242692,0
2.3753631,2.4028683,2.1683669,0.61514843,0.65257227,0.44242692,0
2.003598,2.8346949,0.77755833,-0.1811706,0.66314709,-0.72623211,0
-3.0266366,-2.0854883,-1.5036614,-0.61514843,-0.65257227,-0.44242692,0
-2.8063798,-2.1817498,-1.4910194,-0.61514843,-0.65257227,-0.44242692,0
-1.3298267,-1.0315003,-1.8630748,0.13796437,0.46340561,-0.87534052,0
2.8365269,3.0043693,1.0288877,0.61514843,0.65257227,0.44242692,0
-2.2576089,-3.0899382,-1.6063491,-0.61514843,-0.65257227,-0.44242692,0
-2.296783,-1.7352996,-1.8990701,-0.41897276,0.74594337,-0.51771629,0
-2.9428372,-2.2986889,-1.5407181,-0.76501209,0.35835019,0.5351088,0
1.4341478,1.2864434,0.088388145,0.51004332,0.098526627,-0.85448712,0
-2.6729422,-2.4209042,-1.8154137,-0.61514843,-0.65257227,-0.44242692,0
3.012625,2.1062098,1.9239756,0.61514843,0.65257227,0.44242692,0
-3.0871668,-2.1837101,-1.9568583,-0.61514843,-0.65257227,-0.44242692,0
-2.3351645,-2.5019958,-1.7250354,-0.61514843,-0.65257227,-0.44242692,0
-2.6702204,-2.3773367,-1.4426922,-0.61514843,-0.65257227,-0.44242692,0
2.7963212,2.456387,1.6656512,0.61514843,0.65257227,0.44242692,0
2.3788848,3.1097207,1.3586175,0.61514843,0.65257227,0.44242692,0
-1.9835989,-2.767674,-1.8099988,-0.61514843,-0.65257227,-0.44242692,0
0.63343269,-0.49435902,-0.54950416,0.75522095,-0.32662079,-0.5682956,0
-1.0263367,-0.50817895,-1.4088943,0.063748479,0.51815593,-0.85290706,0
0.98450094,1.7319044,0.49294841,-0.25871959,0.69717097,-0.66859311,0
2.4173181,2.1175783,2.2063017,0.61514843,0.65257227,0.44242692,0
-2.3198299,-2.9419346,-1.6461117,-0.61514843,-0.65257227,-0.44242692,0
-2.8947253,-2.5595875,-1.573501,-0.61514843,-0.65257227,-0.44242692,0
2.4976993,2.3410194,1.818469,0.61514843,0.65257227,0.44242692,0
1.5566258,1.0799975,1.4570704,0.056591958,-0.59626263,0.80079228,0
1.3047767,0.89269078,1.4983087,0.24704111,-0.69244397,0.67785847,0
-1.7783321,-1.7206426,-0.22353786,-0.31486601,-0.31112599,0.89669383,0
-1.9325421,-2.429219,-2.3577063,-0.61514843,-0.65257227,-0.44242692,0
1.933733,2.0532627,2.0957227,-0.28793174,-0.33645308,0.89660168,0
2.6428969,2.8895435,1.3434384,0.61514843,0.65257227,0.44242692,0
-2.6963997,-2.6546922,-1.7202593,-0.61514843,-0.65257227,-0.44242692,0
1.0260792,1.5146682,1.6396817,-0.51068342,-0.097726285,0.85419661,0
-2.303741,-2.9133286,-1.5364134,-0.61514843,-0.65257227,-0.44242692,0
3.1299593,1.9713883,1.8561368,0.61514843,0.65257227,0.44242692,0
-0.61711901,0.26964545,0.11441755,-0.77276784,0.38782749,0.50241375,0
-2.312871,-2.9873636,-1.3199022,-0.61514843,-0.65257227,-0.44242692,0
-0.783337,0.028048456,-1.1261463,-0.22328946,0.68238866,-0.69605136,0
-2.5451903,-1.8543952,-1.0261841,-0.72720087,0.25284016,0.6381619,0
2.5245624,2.489933,1.97912,0.61514843,0.65257227,0.44242692,0
1.5981755,2.6966021,0.84144378,-0.42823237,0.74772465,-0.50746918,0
-2.4115229,-2.5755055,-1.1510307,-0.27388924,-0.34933341,0.89607525,0
1.8283814,1.7512276,0.50670427,0.41960156,0.20410489,-0.88446355,0
-1.6573691,-2.232048,-0.42088103,0.023913026,-0.57634771,0.81685466,0
-2.0148473,-1.17383,-0.61555558,-0.78339475,0.56912506,0.24977845,0
-2.2127633,-2.7905755,-2.084343,-0.61514843,-0.65257227,-0.44242692,0
-1.720624,-2.6197617,-1.8929276,0.78777653,-0.53126335,-0.31171638,0
0.62684202,-0.454633,-0.17915154,0.77061814,-0.61621749,-0.16255343,0
-1.871138,-2.5067253,-2.363215,-0.61514843,-0.65257227,-0.44242692,0
-2.3626761,-2.8069348,-1.7914302,-0.61514843,-0.65257227,-0.44242692,0
-0.19980216,0.57636011,0.13446426,-0.75800192,0.64387167,0.10422236,0
2.7420292,1.9467406,2.1851318,0.61514843,0.65257227,0.44242692,0
0.12938213,0.33231539,1.0932325,-0.33089131,-0.29565597,0.8961575,0
-2.0428975,-2.9191999,-1.3546667,0.59975243,-0.75157058,0.274661,0
-1.9887366,-2.9044051,-1.9260422,-0.61514843,-0.65257227,-0.44242692,0
-2.6429472,-2.2064104,-2.2995703,-0.61514843,-0.65257227,-0.44242692,0
2.2363265,2.3019643,2.5575924,-0.35651916,-0.27026767,0.89434296,0
-2.2758396,-2.7302518,-1.8690343,-0.61514843,-0.65257227,-0.44242692,0
-2.7663164,-2.586791,-1.7524347,-0.61514843,-0.65257227,-0.44242692,0
-0.6128692,-1.7513405,-1.1014383,0.77281862,-0.61014485,-0.17456996,0
-0.10788828,-0.32463771,0.66948593,0.085428417,-0.61302888,0.78542817,0
1.2868832,1.4135492,1.9292784,-0.20810193,-0.40686783,0.8894673,0
-2.2772365,-1.4723377,-1.7469858,-0.30074131,0.71295327,-0.63344479,0
-0.0057246387,0.67585272,-0.54673159,5.5074692e-05,0.56112707,-0.82772964,0
-2.8890936,-2.7852802,-1.3376243,-0.61514843,-0.65257227,-0.44242692,0
-1.4246296,-2.5702095,-1.5886235,0.70762277,-0.70443463,0.055154085,0
2.664433,2.1178269,1.8115733,0.61514843,0.65257227,0.44242692,0
-0.19118837,0.42975655,-0.36322761,-0.39357373,0.74041331,-0.54487419,0
2.9046955,2.379035,1.3352774,0.61514843,0.65257227,0.44242692,0
0.28505409,-0.19686998,-0.68518168,0.65651584,-0.11325948,-0.7457608,0
2.0708723,3.1917343,1.7880105,0.61514843,0.65257227,0.44242692,0
-1.4915556,-2.7720139,-1.1561061,0.69060129,-0.71671098,0.096927702,0
-2.2467113,-2.3693492,-0.79973805,-0.20135337,-0.41251773,0.8884176,0
0.081214279,1.0962067,0.22003955,-0.62779182,0.74489975,-0.2258358,0
-1.3695097,-2.1328363,-1.7101302,0.75270098,-0.31912592,-0.57584679,0
1.5361459,2.5624518,2.0200384,-0.75896746,0.33822104,0.55639452,0
-2.02582,-2.8473165,-1.6288747,-0.61514843,-0.65257227,-0.44242692,0
2.3631649,2.6887465,1.9303868,0.61514843,0.65257227,0.44242692,0
-0.42108512,-1.4315057,-0.11416388,0.54007572,-0.75760663,0.36653835,0
2.0620711,3.1916783,1.6503017,0.61514843,0.65257227,0.44242692,0
-2.9944897,-2.2932148,-1.870436,-0.61514843,-0.65257227,-0.44242692,0
-2.1123998,-1.91119,-0.78435427,-0.6367445,0.080302522,0.76688182,0
2.2866087,2.4848416,1.7908587,0.61514843,0.65257227,0.44242692,0
-2.4259534,-2.1648126,-2.1004982,-0.61514843,-0.65257227,-0.44242692,0
2.5290375,2.4703503,1.8635252,0.61514843,0.65257227,0.44242692,0
-1.9939392,-2.2037916,-0.51192516,-0.11326295,-0.48219573,0.86871094,0
2.9071398,2.244204,2.1279814,0.61514843,0.65257227,0.44242692,0
-1.1617315,-2.1681697,-0.80749345,0.44863111,-0.75118196,0.48420614,0
2.2463462,2.8908577,1.3292682,0.61514843,0.65257227,0.44242692,0
-2.712929,-2.0981808,-2.3333142,-0.61514843,-0.65257227,-0.44242692,0
2.6215496,2.3675232,1.7617925,0.61514843,0.65257227,0.44242692,0
0.58318526,-0.23149967,0.69266939,0.30192965,-0.71337086,0.6324085,0
1.7754488,3.2151492,1.6976895,0.61514843,0.65257227,0.44242692,0
2.5562167,2.2106562,2.3029122,0.61514843,0.65257227,0.44242692,0
-1.8938454,-2.3903098,-0.90234077,-0.10111862,-0.49122483,0.86514342,0
1.5470537,1.2567325,0.14907065,0.42003709,0.20362853,-0.88436651,0
3.0997672,2.298975,1.5921984,0.61514843,0.65257227,0.44242692,0
0.94481951,1.26728,0.22848278,0.082217634,0.50500619,-0.85919088,0
-2.0170627,-1.3322778,-1.230793,-0.70622778,0.70554435,-0.058730066,0
0.94010448,1.4856669,-0.062187791,0.14097935,0.46107274,-0.87609172,0
2.1201315,3.0489571,1.5103937,-0.37579846,0.7360068,-0.56308925,0
-1.1375754,0.15631038,0.024727762,-0.78635687,0.54831988,0.28458428,0
-2.2211947,-2.7104182,-1.9818571,-0.61514843,-0.65257227,-0.44242692,0
-2.8261065,-2.1152987,-1.5605593,-0.61514843,-0.65257227,-0.44242692,0
2.433141,2.2976205,2.1901782,0.61514843,0.65257227,0.44242692,0
2.7143617,2.4813833,1.4963598,0.61514843,0.65257227,0.44242692,0
2.6400642,2.3493762,2.156889,0.61514843,0.65257227,0.44242692,0
-1.2715384,-1.1399229,0.16732249,-0.54194593,-0.057573199,0.83843887,0
-2.9583733,-2.5654855,-1.5914856,-0.61514843,-0.65257227,-0.44242692,0
1.3702482,2.0814035,0.79167688,-0.39295462,0.74026704,-0.54551923,0
-2.4172106,-2.1376951,-2.1672633,-0.61514843,-0.65257227,-0.44242692,0
1.5645764,0.93959975,1.7624947,0.1135613,-0.62864959,0.76935261,0
0.58354008,-0.45753235,-0.42295676,0.78281844,-0.572272,-0.24433565,0
1.0965779,2.2683382,1.2082928,-0.78538418,0.5563339,0.27141136,0
-2.5830541,-2.0342734,-2.0775416,-0.61514843,-0.65257227,-0.44242692,0
-1.3811257,-2.2337227,-2.0758429,0.65937626,-0.11819048,-0.74246472,0
0.049758315,0.43865868,-0.51340342,-0.15127829,0.6484322,-0.74609017,0
0.45926833,1.1752585,1.116408,-0.75579613,0.3283644,0.56652349,0
-1.6198717,-2.2769985,-0.90632266,0.21969999,-0.6808185,0.69872606,0
-1.8755581,-3.2006361,-1.7607825,-0.61514843,-0.65257227,-0.44242692,0
2.137387,1.0467854,0.66863215,0.77851343,-0.41413051,-0.47160614,0
-2.7996483,-2.379251,-1.9550018,-0.61514843,-0.65257227,-0.44242692,0
-2.3629732,-2.0319705,-2.0380578,-0.080672562,0.61031616,-0.78803939,0
0.76716471,1.5364319,1.6255143,-0.70204037,0.19800793,0.68405551,0
-0.53059614,-0.27972549,0.70771551,-0.54790968,-0.049662024,0.83506197,0
-2.0548224,-1.4865165,-1.6206546,-0.52409315,0.75769073,-0.38888443,0
1.272292,0.56022573,1.5170734,0.2428322,-0.69070488,0.68114555,0
2.1103635,2.8234549,2.1807594,0.61514843,0.65257227,0.44242692,0
2.2196119,1.1677415,0.9573102,0.73859209,-0.6733036,-0.033823431,0
-2.2329094,-2.4454136,-1.9139422,-0.61514843,-0.65257227,-0.44242692,0
-1.9461792,-2.985549,-1.5908103,-0.61514843,-0.65257227,-0.44242692,0
-1.6831845,-0.82408428,-1.6527078,-0.37832952,0.73666024,-0.560534,0
2.6385906,2.8057899,1.0356523,0.61514843,0.65257227,0.44242692,0
-2.2408743,-2.7047188,-2.2982674,-0.61514843,-0.65257227,-0.44242692,0
-2.0504084,-3.0265105,-1.5631016,-0.61514843,-0.65257227,-0.44242692,0
-1.9165522,-0.88457417,-1.0481377,-0.77618718,0.59970152,0.19465733,0
-2.2091398,-2.3948274,-2.2283607,-0.61514843,-0.65257227,-0.44242692,0
1.4809775,1.1244496,0.095767051,0.66129577,-0.1215246,-0.7402159,0
2.1502039,2.0922282,0.79300863,0.30092472,0.32433909,-0.89679909,0
-2.721293,-2.4174476,-1.587574,-0.61514843,-0.65257227,-0.44242692,0
2.4306254,2.4602628,2.3205314,0.61514843,0.65257227,0.44242692,0
-1.8395495,-0.86186695,-0.55546105,-0.77751106,0.40913251,0.47758439,0
-0.556436,-1.2962923,0.039476931,-0.050806105,-0.52718532,0.84823012,0
1.923057,1.2258162,1.5488173,0.50907767,-0.75726461,0.40913337,0
0.90008622,0.54274631,1.1681465,0.010170758,-0.56768429,0.82318354,0
-2.5783877,-2.4824967,-1.7247896,-0.61514843,-0.65257227,-0.44242692,0
2.3561971,2.2328749,2.0963669,0.61514843,0.65257227,0.44242692,0
-2.4023652,-2.9317284,-1.6631122,-0.61514843,-0.65257227,-0.44242692,0
-2.2153795,-2.1038988,-2.3988993,0.14468926,0.45819032,-0.87699854,0
-0.49962455,-0.31588319,0.64921683,-0.40588295,-0.21896461,0.88730693,0
-0.9529267,-2.1730032,-1.5507262,0.78456032,-0.56207049,-0.26180446,0
-1.1349499,0.081347942,-0.012258738,-0.78391665,0.56609368,0.2549755,0
2.1193061,1.4777279,1.4740974,0.66986161,-0.72854263,0.14321572,0
2.1370444,3.2823267,1.5362018,0.61514843,0.65257227,0.44242692,0
2.1459932,2.3584652,2.2293169,0.61514843,0.65257227,0.44242692,0
2.2397156,2.8537071,1.4772682,0.61514843,0.65257227,0.44242692,0
1.1330853,1.3430858,1.8034151,-0.34870631,-0.27809399,0.89502382,0
1.4743338,2.1553111,1.7764941,-0.57140827,-0.01762262,0.82047659,0
2.4993656,2.3364778,1.6735071,0.61514843,0.65257227,0.44242692,0
-2.8637128,-2.3668494,-1.6362796,-0.61514843,-0.65257227,-0.44242692,0
1.0746744,0.25905132,0.31993088,0.75985891,-0.64037359,-0.11196411,0
-1.1653916,-2.478776,-1.2806299,0.67702115,-0.72479427,0.12773234,0
2.0856245,2.846185,1.5018928,0.61514843,0.65257227,0.44242692,0
-2.5339403,-2.1428516,-2.2360406,-0.61514843,-0.65257227,-0.44242692,0
-1.0156586,-1.1461126,0.18548462,-0.0817343,-0.50535429,0.85903227,0
1.2506001,2.0446501,2.0303128,-0.54460961,-0.054050177,0.83694607,0
2.1381421,2.9217279,1.455817,0.61514843,0.65257227,0.44242692,0
1.2124889,0.46113288,-0.26080689,0.66617036,-0.13008514,-0.73436683,0
-0.049639642,0.60115623,-0.667225,-0.022023499,0.57516652,-0.81773978,0
0.9772262,-0.055354595,0.77148294,0.39847183,-0.74155128,0.53974247,0
-3.1500552,-2.1187425,-1.8117702,-0.61514843,-0.65257227,-0.44242692,0
-1.8159465,-2.7958801,-2.1771123,-0.61514843,-0.65257227,-0.44242692,0
-2.7985759,-2.1123669,-1.635133,-0.61514843,-0.65257227,-0.44242692,0
1.3105253,2.2997537,1.6508503,-0.7837854,0.44547486,0.43270373,0
-2.4576826,-2.9463363,-1.1270005,-0.61514843,-0.65257227,-0.44242692,0
-1.5822392,-2.7285504,-1.0676337,0.47897503,-0.75505984,0.44773591,0
1.8689704,2.7094779,0.99374712,-0.16841127,0.65697187,-0.73486429,0
-2.9739456,-1.8631597,-1.7795067,-0.61514843,-0.65257227,-0.44242692,0
-2.0739713,-2.8815317,-1.6385339,-0.61514843,-0.65257227,-0.44242692,0
0.80834353,1.7845441,1.2677636,-0.76705605,0.36564684,0.52718818,0
-2.7116489,-2.7317095,-1.3590736,-0.61514843,-0.65257227,-0.44242692,0
3.0058858,2.286725,1.5556835,0.61514843,0.65257227,0.44242692,0
0.72183114,1.4743565,0.33969355,-0.5298562,0.75772631,-0.38092399,0
2.4142895,2.3107448,1.9889853,0.61514843,0.65257227,0.44242692,0
-2.9972904,-2.0414853,-1.796443,-0.7795254,0.58743656,0.21738946,0
-2.032002,-2.7944589,-1.9831024,-0.61514843,-0.65257227,-0.44242692,0
2.9688637,2.6769876,1.0586759,0.59746695,-0.01970461,-0.80165142,0
-2.5294025,-1.4579492,-1.258986,-0.76688683,0.62549031,0.14368808,0
0.76282448,-0.38684747,0.5053091,0.67182797,-0.7275458,0.13901132,0
2.5005059,2.8344421,1.5011303,0.61514843,0.65257227,0.44242692,0
-2.5684562,-2.9035311,-1.6034693,-0.61514843,-0.65257227,-0.44242692,0
-2.606111,-2.7199678,-1.4087399,-0.61514843,-0.65257227,-0.44242692,0
1.2131191,2.0257306,1.9351382,-0.60458481,0.030269057,0.79596549,0
2.4545004,2.4292433,1.8585296,0.61514843,0.65257227,0.44242692,0
2.5098553,2.3248124,2.0053091,0.61514843,0.65257227,0.44242692,0
2.4609494,2.3907626,2.0839257,0.61514843,0.65257227,0.44242692,0
-0.47084031,-1.6150676,-0.64121395,0.61448526,-0.74842459,0.24953622,0
-2.6830401,-2.6353836,-1.8152218,-0.61514843,-0.65257227,-0.44242692,0
1.1862122,0.64809704,1.5991491,0.12062562,-0.6324566,0.76514572,0
-1.2982054,-2.2771888,-1.5824072,0.78362089,-0.4443022,-0.43420464,0
2.5474443,2.9063535,1.314351,0.61514843,0.65257227,0.44242692,0
0.64542997,0.35140002,-0.3581017,0.46725625,0.15023434,-0.8712641,0
1.1754191,0.68120849,0.0845908,0.57495379,0.012660772,-0.8180877,0
-0.35852948,-0.51294225,-0.92552412,0.28818232,0.33622125,-0.89660817,0
2.300643,2.5636253,2.1005716,0.61514843,0.65257227,0.44242692,0
-3.1388168,-2.3471408,-1.5987008,-0.61514843,-0.65257227,-0.44242692,0
-2.473125,-3.0252028,-1.5547333,-0.61514843,-0.65257227,-0.44242692,0
2.3841043,2.2829103,2.0923364,0.61514843,0.65257227,0.44242692,0
2.0746951,2.4213426,2.3511038,-0.31783962,-0.30827838,0.89662832,0
1.4929954,0.65885949,0.4063096,0.77573454,-0.60120022,-0.19181752,0
2.3952823,1.6133473,0.5801394,0.6465919,-0.096481338,-0.75671011,0
2.6561356,2.9035335,1.0717411,0.61514843,0.65257227,0.44242692,0
0.72840494,1.2124661,-0.0077533722,-0.25528809,0.69579709,-0.67133772,0
0.41190124,-0.030841947,0.90569061,0.19933109,-0.6716609,0.7135396,0
0.81748122,-0.003128469,-0.49151587,0.63083541,-0.070801675,-0.77267951,0
1.0797989,1.615151,0.18882847,-0.20904483,0.67608017,-0.70655203,0
-2.144074,-2.8446245,-1.423999,-0.61514843,-0.65257227,-0.44242692,0
-1.5634989,-2.0293548,-2.2086511,0.35324228,0.27355963,-0.89464235,0
2.357944,1.5325422,0.54222184,0.68326879,-0.16127707,-0.71213287,0
2.7448254,2.3048177,2.1596329,0.61514843,0.65257227,0.44242692,0
-0.48760784,-0.099401355,0.59263265,-0.60084069,0.024691194,0.79898721,0
2.0651906,3.1480441,1.5575575,0.61514843,0.65257227,0.44242692,0
-0.051622987,-0.33159351,0.46494809,-0.0073465705,-0.55639374,0.8308863,0
-3.054811,-2.1855812,-1.3670249,-0.61514843,-0.65257227,-0.44242692,0
-0.48823065,-0.055207312,-0.73275959,-0.09859705,0.6204319,-0.77803779,0
2.7034745,2.7907953,1.254457,0.61514843,0.65257227,0.44242692,0
1.9750026,1.3989062,0.47488737,0.72438043,-0.2462865,-0.64390671,0
-0.95919943,-0.11287719,-0.20252883,-0.69859409,0.71127605,-0.077798247,0
-3.0863333,-2.0724535,-1.7608325,-0.61514843,-0.65257227,-0.44242692,0
-0.30551037,0.56632864,-0.64637482,-0.39574286,0.74092144,-0.54260767,0
-2.4885323,-2.2156546,-2.2090688,-0.075277686,0.60721368,-0.79096442,0
3.0229435,2.1407413,1.7885413,0.61514843,0.65257227,0.44242692,0
-1.8190773,-1.0837517,-0.36694497,-0.78592718,0.46304655,0.40976363,0
1.9470108,2.8635216,2.2360706,0.61514843,0.65257227,0.44242692,0
-1.3263621,-0.86335075,-0.25074106,-0.53865093,-0.061908066,0.84025133,0
2.6351185,2.0217328,1.9490829,0.61514843,0.65257227,0.44242692,0
2.3236313,3.0445476,1.3801694,0.61514843,0.65257227,0.44242692,0
0.71710813,1.2889249,-0.058395684,-0.12882444,0.63681656,-0.7601769,0
-1.7397382,-2.2535424,-0.45521438,-0.14312828,-0.45940477,0.87661934,0
2.0939617,3.0010064,1.4131004,0.61514843,0.65257227,0.44242692,0
2.4188175,2.7688317,1.8220351,0.61514843,0.65257227,0.44242692,0
-3.001735,-2.4680462,-1.5368263,-0.61514843,-0.65257227,-0.44242692,0
-0.66016448,0.3721461,-0.35514367,-0.66558439,0.73062974,-0.15224111,0
-2.710669,-2.4740701,-1.190001,-0.61514843,-0.65257227,-0.44242692,0
-2.0226974,-1.409687,-1.7350028,-0.22142299,0.68157381,-0.69744462,0
-0.28215176,1.030706,0.33525586,-0.74220091,0.66861331,0.045759261,0
-2.1671932,-2.7341404,-1.9277854,-0.61514843,-0.65257227,-0.44242692,0
0.20967871,-0.95439005,-0.61812705,0.76882273,-0.62082326,-0.15326393,0
2.1229699,2.4926684,2.3143661,0.61514843,0.65257227,0.44242692,0
-0.37213761,0.42492083,0.45166978,-0.76304901,0.35159382,0.54234481,0
2.3905926,2.7932401,1.254122,0.61514843,0.65257227,0.44242692,0
-0.25567687,0.051356234,0.46167713,-0.6992377,0.19233161,0.6885311,0
-0.42883828,-1.2520996,-0.2334373,0.5976553,-0.75195837,0.27814877,0
0.74020314,-0.21935815,0.72165555,0.5242902,-0.75769305,0.38861394,0
-2.1378953,-2.7395165,-2.4490447,-0.61514843,-0.65257227,-0.44242692,0
2.0454438,2.9737716,2.0060711,0.61514843,0.65257227,0.44242692,0
-2.6750228,-1.9630175,-1.0905479,-0.75262851,0.31891355,0.57605922,0
2.2924457,1.3290205,1.1971623,0.69979972,-0.71040767,0.074841142,0
2.2050443,3.0000098,1.5036603,0.61514843,0.65257227,0.44242692,0
-2.810528,-2.467145,-1.8880944,-0.61514843,-0.65257227,-0.44242692,0
-2.5631194,-2.4367423,-1.9511576,-0.61514843,-0.65257227,-0.44242692,0
-2.7951775,-2.4427881,-1.9770133,-0.61514843,-0.65257227,-0.44242692,0
0.043875039,-0.55554891,-0.52382874,0.77454644,-0.39543051,-0.4936724,0
-2.4544239,-2.8519421,-1.6881821,-0.61514843,-0.65257227,-0.44242692,0
-1.2269834,-0.86380231,-1.5038365,-0.13032636,0.63760835,-0.7592566,0
2.2733984,2.7023466,1.1254519,0.17126495,0.43715847,-0.88292742,0
0.30417824,0.76505941,-0.26539621,-0.078153402,0.6088708,-0.78941017,0
-2.9131515,-2.1682959,-1.4492683,-0.61514843,-0.65257227,-0.44242692,0
-1.5555606,-0.59185946,-0.41121423,-0.78303152,0.44024459,0.43937016,0
2.5519271,3.0456128,1.2612811,0.61514843,0.65257227,0.44242692,0
1.9849417,2.6304288,2.1253147,0.61514843,0.65257227,0.44242692,0
0.83550936,-0.2266531,0.27762008,0.74606597,-0.66324884,-0.059045792,0
-2.2976398,-2.6240063,-2.0206125,-0.61514843,-0.65257227,-0.44242692,0
1.4392352,1.7095363,2.159534,-0.4206655,-0.20294091,0.88422596,0
-2.0666203,-2.8785243,-1.9054751,-0.61514843,-0.65257227,-0.44242692,0
2.3813698,2.6609724,1.183762,0.15094286,0.4533022,-0.87848347,0
1.7230229,2.0540721,2.1494708,-0.33687234,-0.28980333,0.89584088,0
0.48011237,1.4706072,1.0488322,-0.77272946,0.38766789,0.50259578,0
0.50939488,-0.29281408,-0.52890068,0.78787011,-0.48802394,-0.37562382,0
1.3005877,1.9508467,2.0585613,-0.64330852,0.091037124,0.76017511,0
0.17596489,1.0278971,0.23913395,-0.52137655,0.75764883,-0.39259982,0
-3.0179329,-2.4252825,-1.4194117,-0.61514843,-0.65257227,-0.44242692,0
-3.0046713,-2.0042319,-1.2308329,-0.77448153,0.39514634,0.49400145,0
0.17705131,0.45829862,0.84699184,-0.41835731,-0.20546398,0.88473809,0
1.9336499,2.7612457,2.0103889,0.61514843,0.65257227,0.44242692,0
-0.32924771,0.2961812,0.77850562,-0.51341987,-0.094295472,0.85294092,0
-0.58946615,-1.52305,-0.33870119,0.38767171,-0.73899788,0.55099261,0
2.5822649,1.8819523,2.1627319,0.42033041,-0.74621266,0.51622581,0
-0.21032959,1.1701435,0.4861576,-0.75066769,0.65633547,0.075641155,0
1.9725255,2.110853,2.106411,-0.2147845,-0.40122801,0.89044011,0
2.1037505,2.3970664,0.70481366,0.14470643,0.45817706,-0.87700278,0
-2.3707857,-2.9556775,-1.1269675,-0.61514843,-0.65257227,-0.44242692,0
-2.3532076,-2.8214331,-1.7445335,-0.61514843,-0.65257227,-0.44242692,0
-1.8418921,-2.5389767,-0.79159915,0.20126379,-0.67254764,0.71216047,0
2.5252228,3.0135074,1.18179,0.61514843,0.65257227,0.44242692,0
-0.041671336,1.1524478,0.027713537,-0.63714361,0.74199438,-0.20854771,0
-2.9246936,-2.7476654,-1.3571031,-0.61514843,-0.65257227,-0.44242692,0
-2.6753149,-1.7528448,-1.5530093,-0.70051414,0.70988673,-0.073079467,0
-2.3772292,-2.597362,-1.755986,-0.61514843,-0.65257227,-0.44242692,0
-0.63925207,-1.3767452,-0.10547876,0.18068238,-0.6629138,0.72656673,0
-3.143353,-2.6566648,-1.1856047,-0.61514843,-0.65257227,-0.44242692,0
-1.0133349,-1.9246323,-1.0883745,0.75487685,-0.6494264,-0.091684282,0
2.9784391,2.3369484,1.8740079,0.61514843,0.65257227,0.44242692,0
1.6159173,0.53382659,0.76795363,0.70742071,-0.70459652,0.05567354,0
2.6585069,1.8530605,1.7819539,0.52764487,-0.75772125,0.38399118,0
2.4359736,2.5185151,1.9077845,0.61514843,0.65257227,0.44242692,0
-2.6552694,-2.8081374,-1.2749069,-0.28559387,-0.33861262,0.89653647,0
1.958154,1.3389554,1.0254563,0.78570908,-0.55383664,-0.27554655,0
1.9458588,2.6968198,2.3018522,0.61514843,0.65257227,0.44242692,0
2.8861837,2.269217,2.0505595,0.61514843,0.65257227,0.44242692,0
2.1747665,1.3323462,0.83921713,0.73392665,-0.26898739,-0.62369645,0
-2.4245811,-2.9612207,-1.4120811,-0.61514843,-0.65257227,-0.44242692,0
-2.0786426,-2.9169252,-1.5832323,-0.61514843,-0.65257227,-0.44242692,0
-1.9586997,-2.6490102,-2.01809,-0.61514843,-0.65257227,-0.44242692,0
3.0501239,2.4736867,1.1979803,0.61514843,0.65257227,0.44242692,0
-1.7456605,-2.7254024,-2.2487707,-0.61514843,-0.65257227,-0.44242692,0
2.2084422,2.5005295,2.4020197,0.61514843,0.65257227,0.44242692,0
0.53744447,-0.14072485,-0.19393106,0.78223068,-0.43504232,-0.44592971,0
2.2167952,2.745399,2.0493217,0.61514843,0.65257227,0.44242692,0
-2.0997913,-1.293565,-0.4478395,-0.74883765,0.30805102,0.58681041,0
-1.1215467,-1.9077353,-0.68414557,0.49737507,-0.75661397,0.42444474,0
-0.72824955,-1.8403836,-1.0976988,0.70562875,-0.70601487,0.060257196,0
2.4176307,2.7175269,1.9790258,0.61514843,0.65257227,0.44242692,0
-2.0227473,-2.7942348,-1.9089546,-0.61514843,-0.65257227,-0.44242692,0
2.4416223,2.5108628,2.3241723,0.61514843,0.65257227,0.44242692,0
-0.45965436,-1.3438941,-0.033816516,0.30381578,-0.71403033,0.63075882,0
2.459168,2.7638755,1.2842371,0.61514843,0.65257227,0.44242692,0
1.1089358,0.012244701,0.2508404,0.78346437,-0.56873059,-0.25045717,0
-2.9026871,-2.3695583,-1.899328,-0.61514843,-0.65257227,-0.44242692,0
2.0863643,3.0090775,1.9400941,0.61514843,0.65257227,0.44242692,0
-1.4799675,-0.41413879,-0.46885395,-0.76888835,0.62065995,0.15359581,0
2.4164729,2.5727186,1.7447703,0.61514843,0.65257227,0.44242692,0
2.9413652,2.3571386,1.7057474,0.61514843,0.65257227,0.44242692,0
-2.4790111,-2.8107443,-1.2974789,-0.61514843,-0.65257227,-0.44242692,0
-2.0884297,-2.8209143,-1.604425,-0.61514843,-0.65257227,-0.44242692,0
-1.8595053,-2.5875788,-2.3382468,-0.61514843,-0.65257227,-0.44242692,0
-1.3994285,-2.3466859,-1.4372358,0.75445694,-0.65014386,-0.090042233,0
0.37484476,0.1467396,1.0086443,-0.21537966,-0.40072352,0.89052355,0
-1.9571704,-2.7407694,-1.8428015,-0.61514843,-0.65257227,-0.44242692,0
0.42670605,0.94428062,-0.088345289,-0.33340847,0.7238335,-0.60407269,0
2.3794744,1.887702,1.9616709,0.25848949,-0.6970793,0.66877776,0
-2.4254646,-1.8531573,-1.0279987,-0.7607376,0.34391749,0.55045342,0
-2.2072747,-3.124716,-1.2179402,-0.61514843,-0.65257227,-0.44242692,0
1.5082252,0.79174232,1.3354696,0.25172389,-0.6943568,0.67416894,0
0.87603712,0.88247263,-0.34985796,0.33322746,0.29337525,-0.89604151,0
0.62899822,1.2482768,0.057075143,-0.26367807,0.69913399,-0.66459417,0
1.3397689,2.0481415,1.7040325,-0.66238499,0.12342587,0.73892611,0
-1.889446,-0.92976189,-0.48513755,-0.78191632,0.43308556,0.44837886,0
0.48265782,0.103773,1.1588879,-0.059580207,-0.52108055,0.85142529,0
2.3416123,2.1771145,0.58712393,0.557024,0.037403762,-0.82965362,0
2.7932615,2.1323824,1.8283354,0.61514843,0.65257227,0.44242692,0
1.4307504,1.127719,-0.037330776,0.40053827,0.22468013,-0.88830614,0
1.2143841,1.5240263,0.26293409,0.18675655,0.42458293,-0.88591826,0
2.4520195,2.9030905,1.3330238,0.61514843,0.65257227,0.44242692,0
1.8545036,2.7085397,2.2112885,-0.76102716,0.34486437,0.5494597,0
-0.13706613,-0.29339325,-0.93630445,0.42337239,0.19997193,-0.88361025,0
2.1429474,2.684757,2.2014961,0.61514843,0.65257227,0.44242692,0
-2.3400023,-2.4664049,-2.1730385,-0.61514843,-0.65257227,-0.44242692,0
2.8473282,2.0105715,2.3452356,0.27301836,-0.7027595,0.65695512,0
-2.6174417,-2.672574,-1.4972696,-0.61514843,-0.65257227,-0.44242692,0
-2.4188221,-3.1057425,-1.2724074,-0.61514843,-0.65257227,-0.44242692,0
1.0731851,1.7998006,1.4049687,-0.72585356,0.24969456,0.64092827,0
-2.8858676,-2.5713878,-1.6225905,-0.61514843,-0.65257227,-0.44242692,0
2.4852951,2.3443742,1.7014744,0.61514843,0.65257227,0.44242692,0
1.5840082,2.9011288,1.8781568,-0.76005566,0.63999367,0.11279792,0
-1.9333112,-2.8935494,-2.490943,-0.61514843,-0.65257227,-0.44242692,0
0.69928932,0.85174626,-0.38115612,0.18481833,0.42616925,-0.88556314,0
0.71898013,-0.087470621,-0.61309421,0.64402294,-0.092217371,-0.75942761,0
-2.8112872,-2.3164201,-2.0944328,-0.61514843,-0.65257227,-0.44242692,0
-2.7233353,-2.3849607,-2.0634675,-0.61514843,-0.65257227,-0.44242692,0
-0.0030540228,-0.95821816,-0.43158221,0.64798832,-0.73813874,0.18778229,0
1.783493,1.269208,0.61498785,0.71541566,-0.22619936,-0.66107047,0
-2.4945462,-1.5802565,-0.76539457,-0.74420738,0.29535404,0.59910035,0
2.1226065,0.99175477,1.2985647,0.54883796,-0.75731021,0.35391825,0
-2.0399747,-2.9778159,-1.6845051,-0.61514843,-0.65257227,-0.44242692,0
-2.250298,-3.292109,-1.2028149,-0.61514843,-0.65257227,-0.44242692,0
0.07147336,0.01944685,-0.69691455,0.30496347,0.32053435,-0.89680266,0
0.22328681,-0.93883467,-0.60159403,0.77844334,-0.41377324,-0.47203544,0
-2.4166327,-2.7416685,-1.5526495,-0.61514843,-0.65257227,-0.44242692,0
0.53864646,1.573809,0.68512398,-0.65287495,0.73621702,-0.17815346,0
-0.65772468,-0.93912733,-1.1952311,0.56512618,0.02632916,-0.82458407,0
2.2003372,1.0547695,1.3024464,0.68733907,-0.71877813,0.10451281,0
-2.9085195,-2.3772249,-1.6646866,-0.61514843,-0.65257227,-0.44242692,0
-2.2350311,-3.1900935,-1.6012788,-0.61514843,-0.65257227,-0.44242692,0
-2.4622092,-1.6268308,-1.3666127,-0.70742023,0.70459694,-0.055674851,0
0.7442013,0.30244452,-0.32457623,0.59974062,-0.023061097,-0.79986191,0
-1.982185,-2.723511,-2.4492695,-0.61514843,-0.65257227,-0.44242692,0
2.6581287,2.2592092,1.9173063,0.61514843,0.65257227,0.44242692,0
2.4989953,2.6597829,1.4939997,0.61514843,0.65257227,0.44242692,0
-2.724587,-2.2264438,-1.6153392,-0.61514843,-0.65257227,-0.44242692,0
-2.7075391,-2.2516999,-2.1958785,-0.61514843,-0.65257227,-0.44242692,0
0.97071171,2.1756442,0.9975729,-0.61054808,0.74933982,-0.25636041,0
-0.53744024,-1.7872443,-0.39979184,0.66197705,-0.73230636,0.15972984,0
-1.4285409,-1.6925027,-0.12307006,-0.074661493,-0.51042378,0.85667568,0
2.8369989,1.915833,1.5731976,0.73974878,-0.67183161,-0.037602782,0
2.9555783,2.2276692,2.0599637,0.61514843,0.65257227,0.44242692,0
1.8178327,2.7430916,1.1094346,-0.51967925,0.75761467,-0.39490938,0
0.92222142,1.6975502,0.2085712,-0.37501663,0.73580319,-0.56387597,0
-2.8295093,-2.4652567,-1.2958957,-0.61514843,-0.65257227,-0.44242692,0
-1.3952943,-0.48526788,-0.73000193,-0.67337865,0.72674251,-0.13567036,0
0.63495982,-0.36013523,0.036615014,0.75442106,-0.65020466,-0.08990258,0
-1.9101026,-2.1404669,-2.0617349,0.39158738,0.23416232,-0.8898468,0
1.5119987,0.74942422,1.3920896,0.30393946,-0.71407342,0.63065028,0
-2.5697465,-1.8967619,-1.3914436,-0.76055467,0.63902164,0.1149255,0
-2.8575022,-2.6261368,-1.3894243,-0.61514843,-0.65257227,-0.44242692,0
-0.50608957,-1.6958648,-0.61452031,0.7110877,-0.70158792,0.046137214,0
-2.1312397,-2.9047625,-1.6650807,-0.61514843,-0.65257227,-0.44242692,0
2.5965528,1.9429944,2.2455704,0.61514843,0.65257227,0.44242692,0
2.6099572,2.1013358,2.0442159,0.57491148,-0.75528443,0.3146776,0
-1.3546879,-0.80204701,-1.5897797,-0.040684223,0.58668917,-0.80878961,0
2.6668396,2.2907245,1.7096353,0.61514843,0.65257227,0.44242692,0
-0.17232966,-0.98691636,-0.83164907,0.77912354,-0.4172824,-0.46780527,0
3.0158417,2.3506002,1.8097979,0.61514843,0.65257227,0.44242692,0
1.2375224,2.0373373,0.4866333,-0.26774144,0.70072293,-0.66128814,0
-0.87999648,-1.4272499,-0.11151731,0.065047145,-0.60125738,0.79640341,0
-2.5782273,-2.6349688,-1.2048112,-0.61514843,-0.65257227,-0.44242692,0
-1.572911,-0.93484855,-0.13195048,-0.64134586,0.087806955,0.76221073,0
2.3554559,2.7785754,1.6427834,0.61514843,0.65257227,0.44242692,0
2.5233741,2.9934425,1.3098627,0.61514843,0.65257227,0.44242692,0
-2.8408983,-2.381525,-1.5632346,-0.61514843,-0.65257227,-0.44242692,0
-2.1963282,-2.6970656,-2.2152929,-0.61514843,-0.65257227,-0.44242692,0
-1.6229059,-2.7284584,-1.0903457,0.56663597,-0.75612187,0.32741904,0
-2.2281303,-2.6194546,-0.90343547,-0.18129426,-0.42904383,0.88490319,0
2.6458201,2.3003244,1.614877,0.61514843,0.65257227,0.44242692,0
2.7189803,2.7997246,1.0549505,0.61514843,0.65257227,0.44242692,0
1.8295391,0.61042118,0.7636131,0.77153349,-0.61375284,-0.16746163,0
2.4093795,3.014987,1.5555791,0.61514843,0.65257227,0.44242692,0
2.1669207,2.8650036,2.0590863,0.61514843,0.65257227,0.44242692,0
2.832201,2.5177541,1.7315133,0.61514843,0.65257227,0.44242692,0
-2.6991601,-1.9418328,-1.2033067,-0.72312337,0.24340385,0.64641094,0
-0.91019142,-1.9645071,-0.92175025,0.62321866,-0.74618864,0.23409551,0
-1.1579614,-0.96008193,-1.7196865,0.21802807,0.3984744,-0.89088821,0
-1.1448424,-1.9176538,-0.30314946,0.2600219,-0.69768918,0.66754663,0
1.9161861,3.202775,1.5067041,0.61514843,0.65257227,0.44242692,0
2.6593726,2.3579855,1.9454006,0.61514843,0.65257227,0.44242692,0
2.1905181,3.0193944,1.9286231,0.61514843,0.65257227,0.44242692,0
-0.72038871,-1.4930398,-1.5353179,0.75725204,-0.33283678,-0.56195104,0
2.3287177,1.6144671,1.4850781,0.67927331,-0.72354543,0.12275887,0
-2.939779,-2.5261998,-1.4692433,-0.61514843,-0.65257227,-0.44242692,0
2.8794355,2.1432977,1.6293572,0.61514843,0.65257227,0.44242692,0
2.0862634,2.7479756,2.1261618,0.61514843,0.65257227,0.44242692,0
0.24602818,-0.60467649,-0.90746951,0.65099931,-0.10387154,-0.75193781,0
-0.59545004,0.47545478,-0.32362655,-0.58356506,0.75420225,-0.30104941,0
-2.4730148,-2.5420995,-2.1165431,-0.61514843,-0.65257227,-0.44242692,0
-2.3418624,-2.7917037,-1.6625707,-0.61514843,-0.65257227,-0.44242692,0
-2.3339789,-2.9915016,-1.3587298,-0.61514843,-0.65257227,-0.44242692,0
-2.7763104,-2.8020034,-1.3692772,-0.61514843,-0.65257227,-0.44242692,0
-0.65917122,0.64900112,0.23566282,-0.78301257,0.57123291,0.24613822,0
1.6832776,2.6048751,2.1447065,-0.77092028,0.38031897,0.51091993,0
-2.2739244,-2.5861292,-1.702441,-0.61514843,-0.65257227,-0.44242692,0
0.43624979,0.25147724,-0.42202318,0.62505651,-0.06165126,-0.77814108,0
-2.3295321,-2.6199245,-1.8493985,-0.61514843,-0.65257227,-0.44242692,0
-2.2299592,-2.6368358,-2.0306106,-0.61514843,-0.65257227,-0.44242692,0
-2.1648223,-1.823642,-0.64187181,-0.5668124,-0.02400279,0.82349706,0
1.4590427,1.0410372,0.2283445,0.68972826,-0.17359066,-0.70295167,0
-0.98501283,0.0073045492,-0.90170568,-0.22995915,0.68527132,-0.69102961,0
-3.0620294,-2.5036821,-1.1387184,-0.61514843,-0.65257227,-0.44242692,0
1.1749442,0.91587222,0.12126887,0.4462263,0.17445621,-0.87775111,0
-0.87250131,-1.2944192,-0.018468857,0.25730225,-0.69660503,0.66972899,0
-2.0550787,-2.3644407,-0.67287755,0.055343211,-0.59551942,0.80143225,0
-2.4734373,-2.5211842,-1.4901468,-0.61514843,-0.65257227,-0.44242692,0
-2.3985252,-2.7062507,-2.0774121,-0.61514843,-0.65257227,-0.44242692,0
2.9872525,2.092474,1.5252842,0.61514843,0.65257227,0.44242692,0
2.2459342,1.3236818,1.0207609,0.78111631,-0.42829022,-0.45433965,0
-0.44244048,0.35203591,-0.71861142,-0.29487732,0.7108689,-0.63852376,0
2.4203265,2.2875464,2.4291365,0.61514843,0.65257227,0.44242692,0
-2.0468259,-2.9534545,-1.7355583,-0.61514843,-0.65257227,-0.44242692,0
-0.64503956,0.68213445,-0.11694402,-0.67035651,0.72829413,-0.14216107,0
0.51341283,-0.55176961,-0.1615991,0.78707266,-0.54098332,-0.2964009,0
1.3493618,0.72511828,1.0882337,0.45426396,-0.75201941,0.47760952,0
2.4976094,2.8380527,1.3750911,0.61514843,0.65257227,0.44242692,0
-2.7237549,-2.3025045,-2.0742261,-0.61514843,-0.65257227,-0.44242692,0
1.8321187,2.6457086,0.68828917,-0.073226243,0.60602707,-0.79206634,0
2.7910252,2.4617538,1.8506341,0.61514843,0.65257227,0.44242692,0
-0.16682386,-1.5022258,-0.87346786,0.78802401,-0.52649689,-0.31909078,0
0.22589254,-0.086150281,-0.9042635,0.55690914,0.037559301,-0.82972354,0
2.5915179,2.7245007,1.4107982,0.61514843,0.65257227,0.44242692,0
-2.5311913,-2.4995551,-2.0241182,-0.61514843,-0.65257227,-0.44242692,0
2.1948276,2.6711755,2.1043618,0.61514843,0.65257227,0.44242692,0
-2.4224269,-2.7891958,-1.200036,-0.61514843,-0.65257227,-0.44242692,0
-2.7350788,-2.0255032,-2.0660207,-0.61514843,-0.65257227,-0.44242692,0
-1.3396704,-0.60925746,-0.25400478,-0.78758043,0.48287076,0.38282192,0
2.6122215,2.8045011,1.1973567,0.61514843,0.65257227,0.44242692,0
2.5874302,3.073905,1.3539573,0.61514843,0.65257227,0.44242692,0
2.0990224,3.2067842,1.3882064,-0.58720547,0.75368118,-0.29521924,0
0.81758815,1.1235409,1.5130755,-0.30315191,-0.32224321,0.89680445,0
0.66025329,1.3936476,1.1666437,-0.646608,0.096508309,0.75669277,0
-2.8895659,-2.0268135,-1.5933428,-0.61514843,-0.65257227,-0.44242692,0
1.030969,-0.085086286,0.009496212,0.76867372,-0.62119317,-0.152511,0
2.635797,2.6795259,1.5388458,0.61514843,0.65257227,0.44242692,0
3.088716,2.1183081,2.046104,0.61514843,0.65257227,0.44242692,0
-0.42102608,0.55785906,0.10852695,-0.78381938,0.56667304,0.25398564,0
2.4519546,2.5329924,1.8621384,0.61514843,0.65257227,0.44242692,0
-1.6392473,-2.830102,-1.7293551,0.7880829,-0.49275908,-0.36893564,0
2.0568707,2.7168429,2.0616498,0.61514843,0.65257227,0.44242692,0
-0.18126976,-0.33705804,0.88218462,-0.29492712,-0.32995456,0.89674282,0
-2.7536614,-2.4247718,-1.2921007,-0.61514843,-0.65257227,-0.44242692,0
1.3848816,1.8136511,0.16853333,0.052794874,0.52580768,-0.84896344,0
-2.8549697,-1.7815406,-1.9779623,-0.47826147,0.754987,-0.44862062,0
