1.5633835,-0.28620315,0.070779637,0.8861019,-0.16042352,-0.43484211,0
1.2565093,-0.017065525,-0.92855984,0.8861019,-0.16042352,-0.43484211,0
-1.3221209,0.0074034929,-0.44020337,-0.45900178,-0.17347482,-0.87133449,0
-0.59456599,-0.049979806,1.3136415,0.37018061,-0.31960788,0.87224841,0
-1.5182916,0.20506859,0.083229914,-0.8861019,0.16042352,0.43484211,0
-0.13555196,0.78741491,0.44771844,0.26092377,0.94805986,0.18193704,0
-1.6162958,0.2356981,-0.15625739,-0.8861019,0.16042352,0.43484211,0
1.3193536,-0.19130814,-0.26366195,0.8861019,-0.16042352,-0.43484211,0
1.6545386,-0.6978991,-0.16489601,0.8861019,-0.16042352,-0.43484211,0
-1.5871013,0.0097359419,0.61742008,-0.8861019,0.16042352,0.43484211,0
1.4457626,-0.31614172,-0.39266372,0.8861019,-0.16042352,-0.43484211,0
-1.5432177,0.26415086,0.66049433,-0.8861019,0.16042352,0.43484211,0
-1.4320452,-0.56999069,0.56266463,-0.25836405,-0.94987005,-0.17605317,0
-1.258554,0.037917256,0.62907356,-0.8861019,0.16042352,0.43484211,0
1.1302471,-0.21834302,-1.2633667,0.8861019,-0.16042352,-0.43484211,0
-1.1690276,0.44123828,-0.17154258,-0.3306191,0.43873978,-0.83558249,0
-0.33945447,0.059612885,-0.57977647,-0.43988889,0.0044854283,-0.89804089,0
1.3760605,-0.27979338,0.13033219,0.37828821,-0.29177499,0.87850177,0
-1.3418583,-0.22809005,0.80620444,-0.8861019,0.16042352,0.43484211,0
0.5143708,-0.95316648,-0.36264765,-0.25097847,-0.95481503,-0.15917885,0
1.3560057,0.32676685,-1.1140679,0.8861019,-0.16042352,-0.43484211,0
-0.79595709,0.49187934,1.2802894,-0.8861019,0.16042352,0.43484211,0
0.058566034,0.67176914,-0.28636992,-0.11787105,0.82934755,-0.54615837,0
-1.4626298,-0.36180186,0.68772179,-0.8861019,0.16042352,0.43484211,0
1.2445143,0.0089293718,-1.3324257,0.8861019,-0.16042352,-0.43484211,0
-1.166037,0.99763644,0.34879285,-0.8861019,0.16042352,0.43484211,0
-1.0262409,-0.23423839,1.0763248,-0.8861019,0.16042352,0.43484211,0
-0.47533703,0.54949951,-0.35303989,-0.26064301,0.60331869,-0.75370526,0
-1.607803,0.023195624,0.073344558,-0.45965159,-0.18365826,-0.86890161,0
1.3380246,0.26633108,-0.02127254,0.44264042,0.57112801,0.6912902,0
-1.5451393,-0.12361693,0.017025828,-0.8861019,0.16042352,0.43484211,0
-1.1249633,-0.56684774,0.44237313,-0.25097787,-0.95481557,-0.15917748,0
-1.2988409,0.23505402,0.92421794,-0.8861019,0.16042352,0.43484211,0
-1.5179614,0.32551944,0.56836361,-0.8861019,0.16042352,0.43484211,0
-1.3751333,-0.60567123,0.77148241,-0.1792379,-0.98380309,-0.0022947192,0
1.0941553,-0.98594749,-0.93324161,0.8861019,-0.16042352,-0.43484211,0
0.50530005,0.28079367,0.51763183,0.43103039,0.63013995,0.64586091,0
1.2937121,0.061071873,-0.49085253,0.8861019,-0.16042352,-0.43484211,0
-0.38302836,-0.234303,0.84405559,0.30283356,-0.50985223,0.80519724,0
1.2476786,0.12022281,-0.93061876,0.8861019,-0.16042352,-0.43484211,0
1.6190802,-0.53764558,-0.14107761,0.8861019,-0.16042352,-0.43484211,0
1.3792001,-0.45206392,0.014414806,0.33229059,-0.4341726,0.83730346,0
-1.238349,0.54150295,1.0641561,-0.8861019,0.16042352,0.43484211,0
1.2885756,-0.76410449,-0.64477003,0.8861019,-0.16042352,-0.43484211,0
-1.3385177,-0.23157275,0.53102541,-0.8861019,0.16042352,0.43484211,0
-0.1794526,-0.074973017,0.84423649,0.34905726,-0.38625872,0.85379338,0
1.4535611,-0.42053008,-0.22317562,0.8861019,-0.16042352,-0.43484211,0
1.3986671,0.017184734,-0.85227889,0.8861019,-0.16042352,-0.43484211,0
1.013093,0.083994031,-1.057435,0.8861019,-0.16042352,-0.43484211,0
-1.5470196,0.0062986612,0.42189744,-0.8861019,0.16042352,0.43484211,0
1.4082255,0.11656392,-0.36391526,0.8861019,-0.16042352,-0.43484211,0
1.1800503,-0.57735038,0.26206562,0.34990388,-0.38373116,0.85458612,0
1.2738353,-0.67113876,-1.0152717,0.8861019,-0.16042352,-0.43484211,0
-1.4005156,-0.29939377,0.64576447,-0.8861019,0.16042352,0.43484211,0
-0.63046485,0.67701232,0.69583845,0.35292453,0.84169263,0.4086535,0
-0.76965737,-0.0062969923,1.1608533,0.40478951,-0.18913056,0.89463675,0
-0.86025095,0.67743659,1.1915803,-0.8861019,0.16042352,0.43484211,0
-0.12616201,0.60774934,0.5100435,0.38977471,0.76557827,0.51182556,0
0.75448066,-0.76751888,0.31016809,0.10569668,-0.84352827,0.52658159,0
0.58339942,0.42729607,0.08045119,0.31233558,0.8998524,0.30448657,0
1.1883094,0.23743331,0.28024513,0.45161182,0.50987947,0.73216772,0
1.2375197,0.35985577,-0.28057477,0.35587698,0.83655548,0.41656494,0
-1.0577968,-0.1702497,1.3234388,-0.8861019,0.16042352,0.43484211,0
-0.19279745,0.78072095,0.65366852,0.31691748,0.89431006,0.31586814,0
-1.4243796,0.018430591,0.73234069,-0.8861019,0.16042352,0.43484211,0
1.1657727,0.085133672,-0.86058867,0.8861019,-0.16042352,-0.43484211,0
-1.4673345,-0.28080213,0.73823446,-0.8861019,0.16042352,0.43484211,0
1.6598146,0.095813274,-0.37851188,0.8861019,-0.16042352,-0.43484211,0
0.59974897,0.028055072,-0.99475378,-0.35328269,0.37353283,-0.85770881,0
-1.6376011,0.28053558,0.14240201,-0.8861019,0.16042352,0.43484211,0
-0.24610874,-0.54550636,0.43196979,0.15354866,-0.78360486,0.60198522,0
1.2159911,-1.084262,-0.73464131,0.8861019,-0.16042352,-0.43484211,0
-1.3157917,-0.2950902,0.15634871,-0.34297353,-0.85800433,-0.38235807,0
-1.4930304,-0.35677445,0.91941953,0.017728746,-0.92577201,0.37766623,0
1.3845596,-0.028943777,-0.3315928,0.8861019,-0.16042352,-0.43484211,0
1.2274957,-0.29050922,-0.97849143,0.8861019,-0.16042352,-0.43484211,0
0.66675061,0.64399308,-0.11844105,0.21388945,0.97385174,0.076577485,0
0.54195929,-0.26299524,-1.0646995,-0.46314931,-0.27048719,-0.84399593,0
0.12673943,0.77971005,0.15579724,0.31110495,0.90130186,0.30144417,0
0.93098384,-1.0861697,-0.13199139,0.059549153,-0.89101005,0.45006129,0
-0.95971024,0.25760907,-0.064726084,-0.40554011,0.18589893,-0.89497417,0
1.4435298,0.18445325,-0.25915223,0.4471913,0.54252541,0.71111596,0
0.99701536,-0.044152617,-1.1188312,0.8861019,-0.16042352,-0.43484211,0
-0.48656553,-0.011073172,0.94837105,0.36749762,-0.3285197,0.87006915,0
0.047671765,0.058661833,-0.62009346,-0.41537631,0.14138326,-0.89859504,0
0.11078572,0.39038599,-0.64021486,-0.28776288,0.54505014,-0.78747237,0
-1.3741056,0.26566029,0.2074043,-0.8861019,0.16042352,0.43484211,0
0.29946029,0.87614948,-0.15146083,0.13012916,0.98656261,-0.098794997,0
1.2159725,-0.75897384,-0.88699222,0.8861019,-0.16042352,-0.43484211,0
0.066219032,0.016341507,-0.82444894,-0.45167446,-0.088388383,-0.8877936,0
-1.034562,0.8985647,0.3971141,0.035250306,0.95879829,-0.28189194,0
-1.1896992,-0.040627956,-0.15094447,-0.46072608,-0.20255736,-0.86411911,0
1.1326592,-0.6568234,-0.74078429,0.8861019,-0.16042352,-0.43484211,0
1.4516164,0.39444363,-0.44778484,0.8861019,-0.16042352,-0.43484211,0
-0.9428466,0.16525161,1.1734819,-0.8861019,0.16042352,0.43484211,0
-1.2373464,0.53429604,0.79227775,-0.8861019,0.16042352,0.43484211,0
0.43026823,-0.34293437,0.3291367,0.33189833,-0.43524748,0.83690083,0
-1.4399915,0.28936231,0.85651505,-0.8861019,0.16042352,0.43484211,0
-0.77884358,0.16141188,1.2770755,0.42751157,-0.079530373,0.90050471,0
1.0879666,-0.97074366,-0.79768723,0.8861019,-0.16042352,-0.43484211,0
1.5484432,-0.11224127,0.099313468,0.42813921,-0.076066077,0.90050578,0
-1.709646,-0.22144389,0.34063745,-0.8861019,0.16042352,0.43484211,0
0.033929735,-0.17315561,-0.78929067,-0.45659047,-0.46341413,-0.75945526,0
-1.2657009,0.75171828,0.92304057,-0.8861019,0.16042352,0.43484211,0
-1.5492551,0.36485267,0.02998551,-0.44222206,-0.011685923,-0.89682943,0
-1.511389,-0.011255026,0.22713655,-0.46201286,-0.38057387,-0.80106658,0
1.3912857,-0.83328676,-0.43432057,0.8861019,-0.16042352,-0.43484211,0
1.5037214,-0.69970632,-0.30838323,0.8861019,-0.16042352,-0.43484211,0
0.76576483,-0.66858858,0.064099118,0.1232444,-0.82286197,0.55471528,0
-0.021786988,-0.78166062,0.20933595,-0.020587325,-0.95088702,0.30885279,0
1.2974451,0.35660845,-0.53910005,0.8861019,-0.16042352,-0.43484211,0
-1.0041826,0.18354154,1.0067416,-0.8861019,0.16042352,0.43484211,0
-1.0778182,-0.10302746,0.88417065,-0.8861019,0.16042352,0.43484211,0
1.4157586,-0.44874442,-0.055528566,0.8861019,-0.16042352,-0.43484211,0
-1.4900433,0.1170578,0.47116917,-0.8861019,0.16042352,0.43484211,0
1.2376029,0.22882807,-0.62166834,0.8861019,-0.16042352,-0.43484211,0
1.5903788,-0.36441886,-0.18893537,0.8861019,-0.16042352,-0.43484211,0
0.14273269,0.71315938,0.14928174,0.27192292,0.93969572,0.20743626,0
-0.84299076,-0.5159182,0.19900912,-0.22940978,-0.96701115,-0.11072767,0
0.89516437,-0.38451529,-1.073772,-0.46241432,-0.24209382,-0.85297322,0
-1.2095323,-0.23018003,0.92062402,-0.8861019,0.16042352,0.43484211,0
0.9841007,0.33369827,-0.84805644,-0.020906329,0.92340106,-0.38326663,0
1.5821142,-0.22673345,-0.52542925,0.8861019,-0.16042352,-0.43484211,0
1.0948775,-0.90289283,-0.84285772,-0.27547383,-0.93678594,-0.21574569,0
-0.017003179,-0.267445,0.90984792,0.39407265,-0.23311301,0.88902479,0
-0.31235003,0.84747601,-0.24042428,0.0069313049,0.94267154,-0.33364975,0
-1.3637972,-0.20680928,0.8461625,-0.8861019,0.16042352,0.43484211,0
-1.2469976,-0.21385324,0.68346465,-0.8861019,0.16042352,0.43484211,0
-1.1746378,-0.096058369,0.89583164,-0.8861019,0.16042352,0.43484211,0
-0.90521222,-0.30837885,-0.27276599,-0.43625665,-0.60553443,-0.66558844,0
1.5840845,-0.067375779,-0.38040671,0.8861019,-0.16042352,-0.43484211,0
1.7974439,0.071315408,0.025135398,0.8861019,-0.16042352,-0.43484211,0
0.73248053,-0.72712874,-0.78411388,-0.41101089,-0.70560759,-0.57722437,0
1.1988915,0.15994513,-0.85722625,0.8861019,-0.16042352,-0.43484211,0
-1.1755427,0.87943935,0.99075264,-0.8861019,0.16042352,0.43484211,0
-1.3040996,0.17648828,0.94785643,-0.8861019,0.16042352,0.43484211,0
-1.3191226,-0.24921679,0.51945615,-0.8861019,0.16042352,0.43484211,0
0.83008343,-0.4057464,0.25853878,0.24254966,-0.63897222,0.72998905,0
0.077945471,0.50185525,-0.44053701,-0.21080184,0.69604874,-0.68635172,0
-0.60561442,-0.49899194,-0.3495056,-0.4170177,-0.68541056,-0.59691578,0
-1.5501542,0.06321609,0.68663478,-0.8861019,0.16042352,0.43484211,0
-1.3737084,-0.3834753,0.47602588,-0.8861019,0.16042352,0.43484211,0
-1.4676826,0.40426874,0.224889,-0.8861019,0.16042352,0.43484211,0
-0.12930012,0.85886842,-0.26141977,0.046839356,0.96438122,-0.26033604,0
-0.72460765,0.084293604,1.1229383,0.43046892,-0.062934622,0.90040857,0
0.79028833,0.51410812,-0.49341857,0.19979447,0.97875535,0.046046138,0
1.3807125,-0.2459774,-0.93422329,0.8861019,-0.16042352,-0.43484211,0
-0.13969791,0.63839924,-0.067385316,0.083745897,0.97816408,-0.1902144,0
0.6371209,-0.49611753,-0.8517487,-0.46055847,-0.41011757,-0.78720361,0
-1.3204731,0.26547134,0.058237121,-0.40853137,0.17280138,-0.89623749,0
-0.66164124,0.85534704,-0.15364832,-0.051848292,0.89799255,-0.43694511,0
-1.6640385,-0.16386151,0.56097043,-0.8861019,0.16042352,0.43484211,0
1.3566604,0.39448208,-0.41433418,0.8861019,-0.16042352,-0.43484211,0
0.84203577,0.48483834,-0.62395734,-0.028868973,0.9172653,-0.39722896,0
0.42507708,-0.44515014,0.25658917,0.14747697,-0.79184258,0.59265149,0
0.094104648,-0.87001932,0.20746237,-0.023718476,-0.95265561,0.30312487,0
-0.40567997,-0.80217564,0.33818543,-0.021789372,-0.95157111,0.30665576,0
0.11097545,-0.75103724,-0.46493089,-0.26506388,-0.94502455,-0.19149333,0
0.042368054,0.70806307,-0.12926593,0.0072627068,0.94288075,-0.33305138,0
0.70686114,-0.13522053,0.61393738,0.44146729,0.0063634068,0.89725471,0
0.061875582,0.30124077,-0.86243349,-0.30836898,0.49636245,-0.81150031,0
0.30118418,-0.66969383,0.47251344,0.21569932,-0.68767083,0.69324058,0
-1.5952396,0.65216482,0.27862781,-0.8861019,0.16042352,0.43484211,0
-1.6363435,0.49794376,0.2458587,-0.8861019,0.16042352,0.43484211,0
1.2491335,-0.51958942,-0.5506742,0.8861019,-0.16042352,-0.43484211,0
-1.0494642,0.10022008,1.3154938,0.3682971,-0.32587895,0.87072384,0
-1.1619887,0.53739655,0.4613601,-0.8861019,0.16042352,0.43484211,0
-1.0311177,0.37211919,0.80164891,-0.8861019,0.16042352,0.43484211,0
-0.18691903,0.91776967,0.49864709,0.30914709,0.90357447,0.29661608,0
1.6920601,0.17056096,-0.42688766,0.8861019,-0.16042352,-0.43484211,0
-1.2301888,1.0310565,0.81147861,0.28959757,0.92414105,0.2491914,0
0.79558861,0.3013168,-1.0442464,-0.16669369,0.76511014,-0.6219483,0
-0.80819345,0.43639112,1.1403835,0.46084523,0.20485738,0.86351317,0
-1.3926646,-0.24900913,0.486339,-0.8861019,0.16042352,0.43484211,0
-1.6958523,0.20041835,0.2714349,-0.8861019,0.16042352,0.43484211,0
1.0086033,0.65496814,-0.2813518,0.22006324,0.97131628,0.090093434,0
-1.1168714,0.35795069,0.96818727,-0.8861019,0.16042352,0.43484211,0
-0.70451349,-0.047743082,1.1420453,0.41346663,-0.1503654,0.89801759,0
1.5268934,0.052422047,-0.12834302,0.8861019,-0.16042352,-0.43484211,0
0.85346514,0.8292892,-0.26691467,0.23182496,0.96580493,0.11609417,0
-0.26699296,-0.46761391,-0.69358552,-0.43260056,-0.62302828,-0.65168428,0
-0.070184946,0.72752613,0.15451032,0.20009634,0.97866285,0.046695411,0
-0.59838396,0.51495349,-0.21245956,-0.1327951,0.81098586,-0.56979591,0
0.72181231,-1.0389621,-0.26536661,-0.10770994,-0.98377836,0.14345264,0
1.1084766,-0.82129931,-0.070231259,-0.00070226192,-0.93865359,0.34486055,0
-0.9156301,-0.37367198,-0.25213134,-0.45861858,-0.43914419,-0.772542,0
0.20609419,0.82616329,0.34587985,0.35655028,0.83536381,0.4183768,0
0.85070926,0.45842314,-0.75607347,-0.06213963,0.8886013,-0.45445153,0
1.3624074,-0.4469744,0.2969864,0.37326974,-0.30916691,0.87469161,0
1.4848053,-0.67607486,-0.32949835,0.8861019,-0.16042352,-0.43484211,0
1.4721215,0.26625502,-0.94444072,0.8861019,-0.16042352,-0.43484211,0
0.62269318,0.27387345,-1.0729942,-0.3317852,0.43555731,-0.83678448,0
-0.40010965,-0.37405133,0.96441972,0.25745583,-0.60977602,0.74959296,0
-1.5744815,0.93469322,0.21353298,-0.8861019,0.16042352,0.43484211,0
1.2689339,-0.40783298,0.085131645,0.37236857,-0.31223315,0.87398624,0
0.90412021,-0.81184661,-0.50940454,-0.26088893,-0.94808489,-0.18185693,0
-1.004774,-0.69914347,0.43207389,-0.21101168,-0.97495174,-0.070307314,0
-0.4203206,-0.24215421,-0.61768109,-0.46331829,-0.2810182,-0.84045511,0
-1.6326954,-0.21071935,0.34863716,-0.8861019,0.16042352,0.43484211,0
1.1489143,-0.10000074,-1.0747912,0.8861019,-0.16042352,-0.43484211,0
0.24594679,0.81567693,0.42857975,0.39776659,0.744798,0.53577745,0
0.92208874,-0.85505694,0.22619303,0.17275268,-0.75627428,0.63103533,0
-0.80411774,-0.56947219,0.71526933,0.025741518,-0.91970849,0.39175713,0
0.033291757,-0.54696184,0.13616064,-0.027158737,-0.95454925,0.29681319,0
0.1136473,-0.36776105,-0.69820845,-0.44737545,-0.54127502,-0.71195257,0
0.90816486,0.13273954,-1.424964,0.8861019,-0.16042352,-0.43484211,0
0.094792813,-0.31137571,-0.86228973,-0.46311659,-0.34412229,-0.81676352,0
-1.3164263,0.31605923,0.92133516,-0.8861019,0.16042352,0.43484211,0
-1.2103153,0.73249316,0.48237151,0.072452426,0.9745993,-0.21191248,0
-1.1936964,0.57744622,0.75173151,-0.8861019,0.16042352,0.43484211,0
1.4104055,0.24440598,-0.3585932,0.8861019,-0.16042352,-0.43484211,0
1.3766456,-0.32182884,-0.68854272,0.8861019,-0.16042352,-0.43484211,0
-1.1401681,0.52400529,0.71316487,-0.8861019,0.16042352,0.43484211,0
-0.16084766,-0.33139658,-0.93173772,-0.46347791,-0.29978043,-0.83385843,0
-1.2425488,0.21750808,0.66882664,-0.8861019,0.16042352,0.43484211,0
1.3245802,0.31255007,0.17997909,0.44532639,0.55475116,0.70280546,0
0.16592747,-0.5882051,-0.46576095,-0.36552149,-0.81873614,-0.44279218,0
-0.10810488,0.53651053,-0.76313919,-0.21175659,0.69442731,-0.68769896,0
1.5896711,-0.3875227,-0.32384935,0.8861019,-0.16042352,-0.43484211,0
1.5009865,0.32810473,-0.07240802,0.45655143,0.46384093,0.75921839,0
-1.5262345,-0.43481255,0.64624929,-0.8861019,0.16042352,0.43484211,0
-1.2559044,0.40206444,-0.45165533,-0.3731789,0.30947703,-0.87462074,0
0.3520391,-0.8440116,0.084635139,-0.12257385,-0.98589659,0.11394513,0
-1.382671,0.97681153,0.69683498,-0.8861019,0.16042352,0.43484211,0
0.93768418,0.47919402,-0.028314114,0.28285661,0.93039447,0.2331481,0
1.0977178,-0.73013282,-0.69996017,-0.21369991,-0.97392577,-0.076163769,0
-1.6326908,-0.3669548,0.15102345,-0.8861019,0.16042352,0.43484211,0
-0.99642897,0.87051404,0.73046452,-0.8861019,0.16042352,0.43484211,0
-1.1130233,0.50384414,0.60650849,-0.8861019,0.16042352,0.43484211,0
-0.6874333,0.17796993,-0.36062488,-0.44409746,-0.025321379,-0.89562052,0
-1.625778,-0.49313688,0.51399463,-0.8861019,0.16042352,0.43484211,0
-1.4684784,-0.20894086,0.50651109,-0.8861019,0.16042352,0.43484211,0
1.2104141,-0.67776501,-0.82129556,0.8861019,-0.16042352,-0.43484211,0
0.02503711,0.9092086,-0.058198273,0.18660095,0.98227334,0.017863214,0
0.68381089,-0.6511848,0.40824634,0.21240819,-0.69331753,0.68861711,0
-0.45189449,-0.55948508,0.59088981,-0.033092976,-0.9576937,0.28588054,0
-1.1571453,-0.36518735,0.86549497,-0.8861019,0.16042352,0.43484211,0
-0.030542135,-0.40134758,-0.64212924,-0.43129611,-0.62895215,-0.64684063,0
-0.91651237,0.34988964,1.3775539,-0.8861019,0.16042352,0.43484211,0
-0.96023893,0.54922426,1.1599479,-0.8861019,0.16042352,0.43484211,0
0.87508339,-1.0380194,-0.74732053,-0.30510589,-0.90813816,-0.28669757,0
0.47199902,-0.78806585,-0.43276358,-0.14220315,-0.98703992,0.074367225,0
1.6312888,0.28668439,-0.58639926,0.8861019,-0.16042352,-0.43484211,0
-1.3768754,-0.5135268,0.6510607,-0.8861019,0.16042352,0.43484211,0
0.26363933,-0.41634876,-0.84973234,-0.46323276,-0.27525222,-0.84240818,0
-0.22423244,-0.22608505,0.67660373,0.18926448,-0.73116624,0.65541947,0
0.31227615,0.81063676,-0.47023201,-0.036894739,0.91079921,-0.41119781,0
-0.36954084,-0.44362682,0.51168203,0.19905412,-0.71554589,0.66960549,0
0.17345661,0.45514274,-0.77301699,-0.3265872,0.44961289,-0.83137774,0
-1.1672778,0.79957795,-0.10998181,-0.27539277,0.57239121,-0.77235174,0
0.8117103,0.35920054,-0.71979046,-0.18427724,0.73891127,-0.64811409,0
0.88416433,0.053860068,0.43323529,0.45624602,0.13667682,0.87929451,0
1.3735268,-0.14474511,-0.35407799,0.8861019,-0.16042352,-0.43484211,0
0.23532909,0.56336147,0.49400544,0.43441808,0.61450446,0.65853256,0
1.362021,-0.44798303,-0.11899313,0.8861019,-0.16042352,-0.43484211,0
1.041983,-0.97603881,-0.96140766,0.8861019,-0.16042352,-0.43484211,0
-1.2700034,0.11629295,0.54372323,-0.8861019,0.16042352,0.43484211,0
0.56996965,-0.45286721,-1.1734359,-0.45892945,-0.43497357,-0.77471399,0
-1.2479159,0.18650544,1.1155421,-0.8861019,0.16042352,0.43484211,0
0.35287708,-0.83231783,0.052711487,-0.012793958,-0.94629854,0.32304099,0
-1.4725369,-0.24945879,0.84244847,-0.8861019,0.16042352,0.43484211,0
0.81157601,-0.7279247,-0.96382916,-0.38029665,-0.78795266,-0.48425722,0
-1.3548391,0.69564736,0.012373388,-0.19843096,0.71655703,-0.66870856,0
0.67368788,-0.69708008,-0.75825042,-0.35823315,-0.8323521,-0.42291701,0
0.50054014,-0.83191878,0.16657278,0.02790308,-0.91802442,0.39554074,0
-0.81620634,-0.27008569,-0.45412594,-0.45867884,-0.16868126,-0.87244481,0
0.4802987,0.11867738,-0.91291857,-0.37952715,0.28739527,-0.87941056,0
-1.3810346,0.10446405,0.13827239,-0.8861019,0.16042352,0.43484211,0
-0.78954899,-0.46013209,0.16654313,-0.25853673,-0.94974965,-0.17644948,0
-1.1715447,0.84935617,0.69890475,-0.8861019,0.16042352,0.43484211,0
-1.3633637,0.43778086,0.32079837,-0.8861019,0.16042352,0.43484211,0
-1.5909597,-0.041693807,0.43729776,-0.8861019,0.16042352,0.43484211,0
1.4156845,-1.0305095,-0.56809872,0.8861019,-0.16042352,-0.43484211,0
-0.8013491,0.072090387,1.2178931,0.44900012,0.064352699,0.89121133,0
-0.28789574,-0.19958061,1.085506,0.31601751,-0.47719073,0.8200134,0
-0.13642484,-0.66705692,0.40748453,0.014012218,-0.92848909,0.37109524,0
-1.1434073,0.9633534,0.91365021,0.29263908,0.92118406,0.25648016,0
0.22405356,-0.33608681,-0.88583297,-0.45726004,-0.45588887,-0.76359582,0
1.1489305,-0.39058828,-0.51781714,0.8861019,-0.16042352,-0.43484211,0
0.54466945,0.51577741,-0.42025,-0.084649742,0.86639637,-0.49212965,0
1.5930803,-0.048346043,-0.083532929,0.8861019,-0.16042352,-0.43484211,0
1.0264614,-0.16276705,-1.0869858,0.8861019,-0.16042352,-0.43484211,0
-1.6192576,-0.066380978,0.46363646,-0.8861019,0.16042352,0.43484211,0
1.41386,-0.025485396,-0.8646481,0.8861019,-0.16042352,-0.43484211,0
-1.6510549,-0.11370182,-0.047106087,-0.8861019,0.16042352,0.43484211,0
-1.3244951,0.11209166,0.47690085,-0.8861019,0.16042352,0.43484211,0
-1.0919904,0.57074773,0.91204411,-0.8861019,0.16042352,0.43484211,0
-1.2924817,-0.56346989,0.20757729,-0.2364839,-0.96336722,-0.12648731,0
-0.070108116,0.10935128,-0.96074784,-0.39776623,0.21838395,-0.89111751,0
-0.43918142,-0.701783,0.44257128,-0.12353522,-0.9859969,0.11202306,0
-0.69909096,-0.14226282,1.3186928,0.32139903,-0.46331218,0.82585967,0
1.3294029,0.30245721,-0.87805766,0.8861019,-0.16042352,-0.43484211,0
0.93686813,-0.82000041,-0.97267723,-0.35388502,-0.84003699,-0.41122162,0
-0.93958211,0.79158282,0.68162614,0.27840185,0.93430704,0.22262686,0
1.5872934,0.46433699,-0.69563538,0.8861019,-0.16042352,-0.43484211,0
-1.3883152,-0.0091524124,0.27894709,-0.8861019,0.16042352,0.43484211,0
1.3523299,-0.76566052,-0.80761468,0.8861019,-0.16042352,-0.43484211,0
-0.90129429,0.091718972,-0.48580179,-0.44368815,-0.022291958,-0.89590394,0
1.2466387,-0.22953475,-0.46889538,0.8861019,-0.16042352,-0.43484211,0
-1.0104796,0.014857054,1.2594398,0.42549545,-0.090458542,0.90042806,0
-1.1421821,0.71611845,0.95908654,-0.8861019,0.16042352,0.43484211,0
-1.2718322,0.97450912,0.5251413,-0.8861019,0.16042352,0.43484211,0
-0.045358837,0.79787588,-0.071478486,0.21956727,0.97152889,0.089004397,0
1.5534143,0.59049213,-0.42677316,0.8861019,-0.16042352,-0.43484211,0
1.8139696,-0.32446587,0.073934346,0.8861019,-0.16042352,-0.43484211,0
1.213413,-0.52348399,-1.0931358,0.8861019,-0.16042352,-0.43484211,0
1.6264498,-0.23056495,-0.25829986,0.8861019,-0.16042352,-0.43484211,0
0.033596516,0.77928424,-0.33492672,0.062588573,0.97101241,-0.23068935,0
-1.2012973,0.37808847,1.2699721,-0.8861019,0.16042352,0.43484211,0
1.5839438,-0.52131271,0.030133236,0.4070586,-0.17929439,0.89563191,0
1.5707604,-0.35584188,-0.26859412,0.8861019,-0.16042352,-0.43484211,0
-1.0306662,0.62941825,0.65770841,-0.8861019,0.16042352,0.43484211,0
-1.066836,-0.499677,-0.20768625,-0.43746924,-0.59941173,-0.67031807,0
-1.062892,0.43476188,1.0465273,-0.8861019,0.16042352,0.43484211,0
-1.1813405,0.17696214,1.1123011,-0.8861019,0.16042352,0.43484211,0
-0.91117394,0.29012996,-0.22277564,-0.30315721,0.50907195,-0.80556905,0
-0.7994746,-0.39163244,0.51059896,-0.069287062,-0.97349602,0.21795574,0
1.068094,0.19793916,-1.1034634,0.8861019,-0.16042352,-0.43484211,0
1.4123173,-0.19093835,-0.7851426,0.8861019,-0.16042352,-0.43484211,0
1.1639044,-0.67233539,-0.65724438,0.8861019,-0.16042352,-0.43484211,0
0.19440377,0.11217709,0.86200672,0.42178613,-0.109836,0.90001804,0
0.96187377,-0.54167205,0.27292344,0.36855143,-0.32503605,0.87093127,0
1.0089149,-1.0966039,-0.33450532,-0.10856277,-0.9839285,0.14177012,0
0.74355078,-0.29788327,0.33845645,0.30134189,-0.51343399,0.80347908,0
1.5306463,0.23701811,-0.58759111,0.8861019,-0.16042352,-0.43484211,0
0.37857127,-0.51752186,-0.81452495,-0.430383,-0.63300818,-0.64348358,0
-1.457432,0.79704213,0.52788544,-0.8861019,0.16042352,0.43484211,0
0.93648249,0.44837546,-0.98884618,-0.085700274,0.86530364,-0.49386746,0
1.4519318,-0.53399467,-0.4479647,0.8861019,-0.16042352,-0.43484211,0
1.6736127,0.0034979582,-0.095825613,0.8861019,-0.16042352,-0.43484211,0
-0.25056982,-0.48994499,0.59201282,0.11455673,-0.83327842,0.54085475,0
1.259107,-0.48651648,-1.1352122,0.8861019,-0.16042352,-0.43484211,0
-0.41158542,-0.43109599,-0.6822567,-0.43557006,-0.60892707,-0.6629377,0
0.92759925,0.095720887,-1.3096195,-0.30725664,0.49909839,-0.81024325,0
-1.2079513,-0.7784636,0.65477288,-0.10411209,-0.98310703,0.15053648,0
0.89771909,-0.595788,-0.94929123,0.8861019,-0.16042352,-0.43484211,0
-0.40047395,-0.41282779,0.83490133,0.31974834,-0.46760488,0.82407939,0
-1.1425245,-0.26741147,0.94417912,0.14743835,-0.79189432,0.592592,0
1.2384565,-0.66705859,-0.93876755,0.8861019,-0.16042352,-0.43484211,0
1.2521219,0.070462346,-1.1395636,0.8861019,-0.16042352,-0.43484211,0
-0.87295353,0.3724879,1.1847987,0.463269,0.33554456,0.82023871,0
0.58847308,-0.10019404,0.64228594,0.38941234,-0.25111759,0.88617039,0
1.1362146,-0.093321204,-1.3882867,0.8861019,-0.16042352,-0.43484211,0
-1.3209434,0.72565889,0.37830335,-0.8861019,0.16042352,0.43484211,0
0.054579735,0.44801435,-0.48122466,-0.25282347,0.61902422,-0.74356526,0
1.453588,0.16682684,-0.33340082,0.8861019,-0.16042352,-0.43484211,0
-0.91278273,0.66818202,1.0560763,0.434506,0.61408371,0.658867,0
0.13032627,-0.092285529,0.68729132,0.45323139,0.10360952,0.88535088,0
-0.62460983,0.34755975,0.93395829,0.46195194,0.38205791,0.80039495,0
-0.94405544,0.77612853,0.22128686,-0.053754628,0.89628863,-0.44020107,0
1.0483025,-0.19037676,-1.196532,0.8861019,-0.16042352,-0.43484211,0
1.4322579,0.46163797,-0.7980473,0.8861019,-0.16042352,-0.43484211,0
0.18363369,-0.56431752,-0.85005289,-0.46347177,-0.3150931,-0.82819694,0
-1.2913817,-0.45089757,0.95066619,-0.8861019,0.16042352,0.43484211,0
-0.83992922,-0.30714393,-0.29193509,-0.43522906,-0.61059278,-0.66162837,0
0.39498141,0.13070577,-0.99621499,-0.41121614,0.1607303,-0.89725518,0
0.054774225,0.6312483,-0.52911735,-0.13827991,0.8039614,-0.57838124,0
1.3153527,-0.66433322,0.26653764,0.2614522,-0.60166669,0.75474489,0
0.11579263,0.53410852,-0.81321764,-0.31715816,0.47427654,-0.82126272,0
1.1040741,-0.32230592,-0.87599432,0.8861019,-0.16042352,-0.43484211,0
-0.24022177,-0.22644374,-0.56050682,-0.44008371,-0.58558536,-0.68074667,0
-1.5987592,0.19373584,0.10433161,-0.8861019,0.16042352,0.43484211,0
1.3035761,-0.72554624,-0.71545905,0.8861019,-0.16042352,-0.43484211,0
-1.4700359,-0.35706711,0.65463936,-0.8861019,0.16042352,0.43484211,0
1.3291639,-0.29811704,0.23911464,0.36018813,-0.35210955,0.86387688,0
-0.37155518,-0.30167955,-0.62935495,-0.4609828,-0.40249878,-0.79087895,0
1.1780025,-0.17795765,-0.71886235,0.8861019,-0.16042352,-0.43484211,0
0.5371362,-0.72781801,0.17901827,0.18898213,-0.73160881,0.65500712,0
-0.0079808831,-0.59203827,0.49264318,0.072704494,-0.87846595,0.47224095,0
1.2265954,-0.12214446,-0.92636943,0.8861019,-0.16042352,-0.43484211,0
-1.1221683,0.70213258,1.2410097,0.45196927,0.50695705,0.73397428,0
0.094690979,0.16856846,1.0095983,0.45092255,0.081386186,0.88884467,0
-1.2849793,0.8435756,0.34713662,-0.8861019,0.16042352,0.43484211,0
1.0559367,0.33975184,-1.2361192,0.8861019,-0.16042352,-0.43484211,0
-1.3036112,0.60420549,0.33704549,-0.8861019,0.16042352,0.43484211,0
-1.3085103,0.40812659,0.94853008,-0.8861019,0.16042352,0.43484211,0
1.4516898,0.032626748,-0.18391909,0.8861019,-0.16042352,-0.43484211,0
-0.059912145,-0.49325812,-0.64809632,-0.43780082,-0.59770632,-0.67162305,0
1.5068157,0.34224665,-0.71816611,0.8861019,-0.16042352,-0.43484211,0
-1.0684434,0.43714142,0.79627836,-0.8861019,0.16042352,0.43484211,0
1.3614353,0.0813272,-0.43790686,0.8861019,-0.16042352,-0.43484211,0
1.1206768,-0.23955047,-1.2215919,0.8861019,-0.16042352,-0.43484211,0
0.15853482,-0.083245724,-1.0653937,-0.44029558,0.0017248541,-0.89785111,0
0.40636939,-0.37579906,0.47066638,0.35321683,-0.37373316,0.85764873,0
0.75962794,0.077245176,0.46405458,0.45015472,0.07444118,0.88984215,0
-0.48760295,0.41703945,-0.43925524,-0.36749196,0.32853851,-0.87006432,0
1.0888566,0.53347129,-0.46374506,0.15349755,0.98681802,-0.051270247,0
1.5484499,0.01227355,-0.38245791,0.8861019,-0.16042352,-0.43484211,0
-1.3895414,1.0216379,0.39340931,-0.8861019,0.16042352,0.43484211,0
1.639268,0.49798238,-0.58724958,0.8861019,-0.16042352,-0.43484211,0
1.8313985,-0.119241,-0.089690089,0.8861019,-0.16042352,-0.43484211,0
0.87536502,-0.88086772,0.09826526,0.00353688,-0.93582237,0.3524543,0
0.2585496,0.48476121,-0.58524328,-0.23450351,0.6540727,-0.71916401,0
1.4390539,0.059702754,-0.4409596,0.8861019,-0.16042352,-0.43484211,0
1.4441428,-0.87940896,-0.39749813,0.8861019,-0.16042352,-0.43484211,0
1.3532994,-0.21817362,-0.43823269,0.8861019,-0.16042352,-0.43484211,0
1.0671995,-0.72871637,-0.76532263,0.8861019,-0.16042352,-0.43484211,0
-0.42976391,-0.65822434,0.24257314,-0.0043283105,-0.94101322,0.33834207,0
1.2704647,-1.080278,-0.52906531,0.8861019,-0.16042352,-0.43484211,0
1.3242657,0.31054771,-0.48850119,0.8861019,-0.16042352,-0.43484211,0
0.2542876,-0.253371,0.51629394,0.40110683,-0.204684,0.89287049,0
1.1813102,-0.028934479,-1.3934886,-0.33521587,0.42609173,-0.84028333,0
-0.91812217,-0.5124402,0.90451407,0.084483206,-0.8665691,0.49185413,0
1.4489579,0.23070157,0.066666663,0.4223187,0.66601682,0.61487275,0
0.83079326,0.57302845,-1.0270149,-0.13578379,0.80717689,-0.57448089,0
-0.97289622,0.040710151,-0.22667679,-0.42434001,0.096591771,-0.90033621,0
-0.87197697,-0.65002364,0.4051792,-0.030925393,-0.95656312,0.28988037,0
0.65331107,-0.91908896,-0.78069645,-0.36338764,-0.8228218,-0.43693662,0
-1.4142345,-0.11648095,0.17477772,-0.8861019,0.16042352,0.43484211,0
-0.60040677,-0.24888362,-0.34581214,-0.44422683,-0.56161755,-0.6980316,0
1.0637839,-0.24498177,-1.2014604,0.8861019,-0.16042352,-0.43484211,0
-1.3367089,0.63789332,0.39120778,-0.8861019,0.16042352,0.43484211,0
0.72636145,0.52230614,0.37284207,0.37600023,0.7973817,0.47202349,0
-1.1173555,0.3713454,0.89005435,-0.8861019,0.16042352,0.43484211,0
0.045721374,-0.58194256,-0.48040366,-0.33838248,-0.86504114,-0.37040651,0
-1.0609249,1.0198555,0.53184491,0.10716361,0.98368031,-0.14452982,0
0.60192108,-0.82360327,0.144658,0.16328925,-0.76998788,0.61681056,0
-1.1130075,0.54671371,0.61828834,-0.8861019,0.16042352,0.43484211,0
-1.3781711,0.1325531,0.94248521,-0.8861019,0.16042352,0.43484211,0
1.3216431,0.098914742,-0.65275282,0.8861019,-0.16042352,-0.43484211,0
-0.38477898,0.91506439,-0.10531253,-0.035027683,0.9123286,-0.40795767,0
-1.3766307,0.47611511,0.46129137,-0.8861019,0.16042352,0.43484211,0
-1.4709467,0.16662133,0.4444738,-0.8861019,0.16042352,0.43484211,0
-1.2985526,0.14744818,1.1695515,-0.8861019,0.16042352,0.43484211,0
1.1123387,0.0048061609,-0.81237495,0.8861019,-0.16042352,-0.43484211,0
0.97632754,-0.28063023,-1.2156339,-0.46321481,-0.2741639,-0.84277296,0
1.0686204,-0.6566869,-0.61725324,0.8861019,-0.16042352,-0.43484211,0
1.2027278,0.27478182,-1.0075103,0.8861019,-0.16042352,-0.43484211,0
0.89371246,0.33338767,0.3240689,0.42615473,0.65090245,0.62826592,0
-0.83781803,0.55762434,1.2604103,-0.8861019,0.16042352,0.43484211,0
1.3390141,-0.43688774,-0.50812435,0.8861019,-0.16042352,-0.43484211,0
1.2132304,0.23218811,-0.78683168,0.8861019,-0.16042352,-0.43484211,0
1.3044648,-0.43299329,0.042850729,0.37709922,-0.29594505,0.87761748,0
-1.3208139,0.43073928,0.56607729,-0.8861019,0.16042352,0.43484211,0
0.80866241,-0.59842145,-1.1372483,0.8861019,-0.16042352,-0.43484211,0
0.27535492,-0.25479698,0.59702039,0.39477241,-0.23035517,0.88943315,0
0.25143012,-0.58991253,0.059771031,-0.043121338,-0.96265477,0.26727554,0
-1.2586737,0.61592078,0.67910284,-0.8861019,0.16042352,0.43484211,0
-0.42695826,0.63880426,0.77757525,0.40110159,0.73553491,0.54599071,0
0.40348116,0.19130901,-0.77716392,-0.30837959,0.49633586,-0.81151247,0
1.0384269,-0.56832361,-0.92223072,0.8861019,-0.16042352,-0.43484211,0
1.5021262,-0.6189183,-0.61749947,0.8861019,-0.16042352,-0.43484211,0
-0.2403962,-0.66952097,-0.19638503,-0.33611751,-0.8684057,-0.36454988,0
-0.66654915,-0.6810773,0.78233349,0.13280612,-0.81097192,0.56981313,0
-1.039005,0.63047004,1.1631594,-0.8861019,0.16042352,0.43484211,0
-1.2903668,-0.079989076,0.91058034,-0.8861019,0.16042352,0.43484211,0
-0.10974675,-0.27018407,0.96587801,0.36706913,-0.32993001,0.86971617,0
1.7655017,-0.064066529,-0.080332369,0.8861019,-0.16042352,-0.43484211,0
-0.34269005,-0.41342229,0.8789953,0.32722932,-0.44789475,0.83205235,0
1.4221516,-0.58500826,-0.41816914,0.8861019,-0.16042352,-0.43484211,0
-1.3584977,-0.51818383,0.84180802,-0.8861019,0.16042352,0.43484211,0
-1.227847,0.62599862,0.55862963,-0.8861019,0.16042352,0.43484211,0
0.48945194,-1.0243576,-0.60774088,-0.29848048,-0.91526055,-0.27056897,0
0.25381142,-0.18868557,0.77177966,0.41894764,-0.12408741,0.89949161,0
-1.1880324,-0.4449892,1.2690637,0.22842169,-0.66519356,0.71087337,0
1.248863,0.12366176,-0.8903476,0.8861019,-0.16042352,-0.43484211,0
1.4251416,-0.5297575,-0.41124037,0.8861019,-0.16042352,-0.43484211,0
-0.67849857,-0.033382505,-0.61243761,-0.45253938,-0.096714333,-0.88648438,0
-1.1851095,-0.34177768,0.76491171,-0.8861019,0.16042352,0.43484211,0
0.49072963,0.55985922,-0.28611094,0.12322783,0.98596525,-0.11263788,0
-1.1783599,0.69462729,1.0890329,-0.8861019,0.16042352,0.43484211,0
1.3159184,0.18465722,-1.1734684,0.8861019,-0.16042352,-0.43484211,0
0.15554054,0.56515753,0.69504362,0.45018825,0.52105135,0.72514546,0
0.48479062,-1.0552752,-0.20210302,-0.1029287,-0.98287272,0.15286165,0
-0.018035054,-0.36766282,0.51624101,0.25301635,-0.61864239,0.74381733,0
-1.3452438,0.1186502,-0.050254166,-0.44276142,-0.015545636,-0.89650452,0
-0.66299337,0.52133656,-0.36406499,-0.32481551,0.45432729,-0.8295067,0
-0.8428002,-0.41568357,0.5712173,0.00080955029,-0.93765289,0.34757206,0
-1.419571,0.13001931,0.77163899,-0.8861019,0.16042352,0.43484211,0
-1.4588748,-0.542503,0.84689784,-0.15234414,-0.98687077,0.053640008,0
-1.8143971,0.23724627,0.088191733,-0.8861019,0.16042352,0.43484211,0
0.46383819,0.40566188,-0.50464183,-0.037537277,0.91026914,-0.41231176,0
1.0685122,0.011356831,-1.1734382,-0.35835224,0.35788381,-0.86226618,0
-1.1398152,0.078817964,1.0456234,-0.8861019,0.16042352,0.43484211,0
-1.4379973,-0.57482779,0.34482616,-0.30596304,-0.90718436,-0.28879589,0
1.6030821,-0.12881899,-0.17392859,0.8861019,-0.16042352,-0.43484211,0
-1.2206699,0.46472657,0.6870296,-0.8861019,0.16042352,0.43484211,0
-0.48098299,0.34127241,1.0632361,0.45418578,0.48758492,0.74563801,0
0.80339468,-1.0408796,-0.43888408,-0.11288476,-0.98463607,0.13322407,0
0.67815292,0.59903449,-0.41349578,0.081517041,0.9775067,-0.19451371,0
1.4123685,-0.69764853,-0.57489026,0.8861019,-0.16042352,-0.43484211,0
1.2324095,-0.76124346,-0.79340315,0.8861019,-0.16042352,-0.43484211,0
-0.74407643,0.24341476,1.0644376,0.44081479,0.0018340945,0.89759618,0
-1.2743458,0.67791939,0.29726163,-0.8861019,0.16042352,0.43484211,0
1.1376067,0.065773129,-0.83313543,0.8861019,-0.16042352,-0.43484211,0
-1.8006868,0.2838552,-0.072178841,-0.44516218,-0.033347949,-0.89482874,0
1.2238798,-0.75073016,-0.22890082,0.8861019,-0.16042352,-0.43484211,0
1.3341843,-0.63450217,-0.85655475,0.8861019,-0.16042352,-0.43484211,0
1.442031,-0.11998737,-0.58153343,0.8861019,-0.16042352,-0.43484211,0
1.7136815,0.13011241,-0.25050217,0.8861019,-0.16042352,-0.43484211,0
-0.59893674,0.90442508,0.31168896,0.24994628,0.95547396,0.15683234,0
0.10555226,-0.80027115,0.20786586,-0.11797595,-0.9853549,0.12311465,0
1.5402615,-0.77550387,-0.29818049,0.8861019,-0.16042352,-0.43484211,0
-1.6911241,-0.14191616,0.42966264,-0.8861019,0.16042352,0.43484211,0
0.99856824,-0.32202256,-1.0922368,0.8861019,-0.16042352,-0.43484211,0
0.17975079,0.78680545,0.55738771,0.39816076,0.74372244,0.53697741,0
0.18680646,0.64131248,0.51388311,0.4452478,0.55524975,0.70246124,0
-0.34185857,0.24233353,-0.71239942,-0.43553424,0.032705322,-0.89957798,0
-1.1474493,1.095659,0.69318825,0.18208453,0.98324782,0.0083003044,0
1.1436447,-0.45746338,-1.109324,0.8861019,-0.16042352,-0.43484211,0
-1.4353238,0.63553417,0.28701967,-0.8861019,0.16042352,0.43484211,0
1.4259472,-0.56488776,-0.064095505,0.8861019,-0.16042352,-0.43484211,0
-1.2846411,0.4174099,1.0229822,-0.8861019,0.16042352,0.43484211,0
1.0033594,0.12469333,0.17635962,0.46175414,0.22441822,0.85814899,0
-1.5580621,-0.094896436,0.4758811,-0.8861019,0.16042352,0.43484211,0
0.15803924,-0.82578915,-0.16564035,-0.14398631,-0.98704833,0.070736647,0
-1.4828371,-0.015751004,0.26843491,-0.8861019,0.16042352,0.43484211,0
1.3571175,-0.25908554,-0.6688751,0.8861019,-0.16042352,-0.43484211,0
1.7081716,0.049317122,-0.27994737,0.8861019,-0.16042352,-0.43484211,0
1.2313893,0.57987344,-0.96809655,-0.060299158,0.89031565,-0.45133367,0
-1.2968464,0.18155563,0.66928297,-0.8861019,0.16042352,0.43484211,0
-0.47308511,0.5033586,-0.35950059,-0.29664707,0.52456397,-0.79801828,0
0.69063652,-0.8914752,-0.23505491,-0.21838498,-0.97202939,-0.086410403,0
1.3496531,0.019528985,-0.27868795,0.8861019,-0.16042352,-0.43484211,0
0.81371242,-0.85020757,-0.65458566,-0.17246336,-0.98494369,0.011930943,0
-1.4453368,0.59546697,0.022486232,-0.8861019,0.16042352,0.43484211,0
-0.70711988,-0.67505038,0.43726286,-0.15794715,-0.9865495,0.042103827,0
-0.9330706,-0.15819234,-0.22407901,-0.46334964,-0.28348124,-0.83961022,0
0.95848429,0.23120779,0.11406749,0.46101898,0.40182012,0.79120302,0
-1.4849231,-0.54173273,0.24656591,-0.39621896,-0.74897313,-0.53108346,0
-1.3124192,-0.48588324,0.6946125,-0.8861019,0.16042352,0.43484211,0
-0.99030459,-0.33142024,-0.32505262,-0.46202713,-0.2312379,-0.85618913,0
0.065888613,1.0047128,0.16173565,0.2343061,0.96452504,0.12162226,0
-1.0972638,0.36048973,-0.13587183,-0.37188971,0.31385541,-0.87360895,0
-0.11692631,-0.080259681,1.033018,0.37856638,-0.29079467,0.87870681,0
-1.4777526,0.76175547,0.22694039,-0.8861019,0.16042352,0.43484211,0
-0.29184198,-0.441861,-0.73831123,-0.4575085,-0.45298412,-0.76517391,0
0.88993514,0.67926019,-0.25258717,0.20702839,0.97638994,0.061659873,0
-1.4482746,0.5455122,0.17639716,-0.8861019,0.16042352,0.43484211,0
1.2437658,-0.16000724,-0.69692403,0.8861019,-0.16042352,-0.43484211,0
-1.1277497,0.82935572,0.70848578,-0.8861019,0.16042352,0.43484211,0
-1.1809391,1.0707242,0.9606874,-0.8861019,0.16042352,0.43484211,0
-1.6955733,-0.32710326,0.31760848,-0.8861019,0.16042352,0.43484211,0
0.47801316,0.31770036,-0.81065613,-0.29288387,0.53333157,-0.79358447,0
0.07450074,0.6015994,-0.38413778,-0.11717808,0.83017373,-0.54505122,0
0.9209739,-0.56267548,-1.0298815,0.8861019,-0.16042352,-0.43484211,0
-1.2947804,-0.10791457,1.1384308,-0.8861019,0.16042352,0.43484211,0
1.1911809,0.70870113,-0.44391215,0.20401406,0.97741383,0.055139482,0
0.94103944,0.43252933,-1.1270063,-0.2627883,0.59892809,-0.75645703,0
-0.29433411,-0.38002035,0.93519849,0.36365056,-0.34105772,0.86685514,0
-1.4022715,-0.56451094,0.75618184,-0.162117,-0.98620337,0.033479035,0
1.0402273,0.020321012,0.19693971,0.44068003,0.00090622902,0.89766371,0
-1.5350038,-0.40482676,0.40881467,-0.8861019,0.16042352,0.43484211,0
0.88270152,-0.93014789,-1.1203038,-0.40146253,-0.73450977,-0.54710448,0
-1.4231217,0.14977634,0.95210207,-0.8861019,0.16042352,0.43484211,0
0.80323684,-0.59033418,-1.2126977,-0.46044946,-0.41198075,-0.78629392,0
-1.185203,0.44913793,1.1674675,-0.8861019,0.16042352,0.43484211,0
1.5114346,-0.28902698,-0.66107142,0.8861019,-0.16042352,-0.43484211,0
-0.25357747,-0.25070894,-0.60167533,-0.46348798,-0.30371308,-0.8324284,0
1.008956,-0.33155388,0.52499807,0.36078978,-0.35020441,0.86440009,0
0.080683053,-0.89029503,-0.0060847998,-0.037560046,-0.95995837,0.27761334,0
-0.66866755,-0.16115063,1.0491973,0.23049223,-0.6614356,0.71370596,0
-1.251992,-0.22561324,0.88581699,-0.8861019,0.16042352,0.43484211,0
-1.1489828,-0.43223894,0.74701697,-0.12296838,-0.98593831,0.11315662,0
1.5037307,-0.55189145,0.098670438,0.8861019,-0.16042352,-0.43484211,0
0.87842286,-0.83943152,-0.49365252,-0.13002455,-0.98655546,0.099005461,0
1.2885721,0.24253869,-0.098391384,0.41260096,0.70042783,0.58237553,0
-0.92868316,0.90217972,0.0374147,-0.092110693,0.85852575,-0.50442964,0
-0.079492509,0.21326719,-0.57267725,-0.38965315,0.25020206,-0.88632333,0
-0.02851367,0.59099644,-0.53579921,-0.19383204,0.72394776,-0.66206396,0
-0.034381464,-0.57303715,-0.30035239,-0.36764708,-0.81458151,-0.44865632,0
1.2791564,0.21013808,-0.60122442,0.8861019,-0.16042352,-0.43484211,0
-1.0168424,0.3475709,1.1010983,-0.8861019,0.16042352,0.43484211,0
0.97125411,-0.89178872,-0.83384836,0.8861019,-0.16042352,-0.43484211,0
1.1947548,-0.097750187,-0.61561078,0.8861019,-0.16042352,-0.43484211,0
1.5931512,-0.67226362,-0.2825973,0.8861019,-0.16042352,-0.43484211,0
-0.25359765,-0.40524352,-0.81858891,-0.4513787,-0.51175821,-0.73099983,0
-0.96526194,-0.55451894,0.45230439,-0.28165933,-0.93146306,-0.23031396,0
-0.98828912,0.75248837,0.87087619,-0.8861019,0.16042352,0.43484211,0
0.13217369,0.573789,-0.3333784,-0.11021703,0.83834553,-0.53388095,0
1.0738184,0.0027647018,-1.1437029,0.8861019,-0.16042352,-0.43484211,0
1.6084528,0.020404577,-0.021985471,0.45960939,0.42528644,0.77967322,0
-0.51361102,0.38157335,-0.58469045,-0.41027683,0.16498871,-0.8969121,0
0.92785406,0.096807361,-1.0346154,-0.32757688,0.4469628,-0.83241665,0
1.1974595,0.11327541,-0.93038988,0.8861019,-0.16042352,-0.43484211,0
-1.1638362,-0.39872807,0.049170256,-0.406203,-0.7206074,-0.56189322,0
1.420171,0.20072126,-1.0710915,0.8861019,-0.16042352,-0.43484211,0
-1.3287146,-0.48386931,0.72651565,-0.8861019,0.16042352,0.43484211,0
1.0815952,-0.8771888,-0.51064652,0.8861019,-0.16042352,-0.43484211,0
1.142344,-0.75868988,-1.2755439,0.8861019,-0.16042352,-0.43484211,0
-1.4553072,0.43454587,0.44401491,-0.8861019,0.16042352,0.43484211,0
-0.82376111,-0.60336316,0.18471551,-0.17504478,-0.98453885,0.0065212846,0
1.1274416,-0.35561454,-1.292845,0.8861019,-0.16042352,-0.43484211,0
-1.2281934,-0.47573996,0.91621172,0.039464414,-0.90866882,0.41564834,0
0.17002654,0.67580581,-0.30335256,-0.080084562,0.871086,-0.48455718,0
-0.39838678,0.82077897,0.33817434,0.20753583,0.97621208,0.062759459,0
-1.0729333,0.17953491,1.1705,-0.8861019,0.16042352,0.43484211,0
-1.1720203,0.1279875,1.0851979,-0.8861019,0.16042352,0.43484211,0
-0.3149572,0.38634461,-0.37712502,-0.27620065,0.57064581,-0.77335405,0
-1.4211994,0.3850503,0.79537022,-0.8861019,0.16042352,0.43484211,0
0.32638264,-0.14236122,0.66641468,0.44929409,0.066883467,0.89087671,0
-1.298292,-0.50944597,0.45985091,-0.15397048,-0.98679441,0.050297737,0
-0.78125578,0.5526523,-0.54303664,-0.30094647,0.51437968,-0.80302215,0
-1.0342757,-0.11348057,1.0868604,-0.8861019,0.16042352,0.43484211,0
-1.2546921,0.42815042,0.82551301,-0.8861019,0.16042352,0.43484211,0
-0.65497762,-0.69421542,0.46145865,-0.026264429,-0.95406199,0.29845569,0
0.38924766,-0.031174302,-0.91404986,-0.39547682,0.22756331,-0.8898387,0
1.4991217,0.036647439,-0.7031582,0.8861019,-0.16042352,-0.43484211,0
-0.21188697,-0.67073691,0.13434401,-0.1490863,-0.98698264,0.06031996,0
1.390196,0.29295313,-0.34170544,0.8861019,-0.16042352,-0.43484211,0
-1.0407689,0.4078728,1.5431492,-0.8861019,0.16042352,0.43484211,0
1.0367686,-0.69012952,-0.85301018,0.8861019,-0.16042352,-0.43484211,0
-1.2194295,0.63952136,0.66843343,-0.8861019,0.16042352,0.43484211,0
0.19453895,0.50684267,-0.26477665,-0.024625838,0.92056948,-0.3898015,0
0.68954939,-0.48283553,-1.1898797,-0.45915562,-0.17581733,-0.87078369,0
1.2677404,-0.17029226,-0.53494328,0.8861019,-0.16042352,-0.43484211,0
1.1334273,-0.61323166,-0.53850138,0.8861019,-0.16042352,-0.43484211,0
-0.14932495,0.20513824,-0.64682913,-0.31844234,0.47097823,-0.82266265,0
0.84418339,0.46482405,-0.72368979,-0.10660303,0.84249699,-0.52804798,0
1.599295,-0.41082883,-0.12917623,0.8861019,-0.16042352,-0.43484211,0
-1.0009378,0.59641755,0.79786992,-0.8861019,0.16042352,0.43484211,0
0.27836514,-0.29756647,-0.98591512,-0.45739609,-0.15102354,-0.8763451,0
-0.10686052,0.79982907,-0.11122245,-0.025736988,0.91971189,-0.39174929,0
1.2539742,-0.81330383,-0.65555376,0.8861019,-0.16042352,-0.43484211,0
0.23726924,0.68760806,0.47681111,0.41562447,0.69025213,0.59229076,0
-1.2910122,0.24522185,0.62357485,-0.8861019,0.16042352,0.43484211,0
0.12975079,0.58720219,-0.7634325,-0.23709083,0.64926594,-0.72266287,0
-0.8041929,0.010170579,1.2876306,0.42483461,-0.093977764,0.90037972,0
-0.25735259,-0.65676165,-0.45519567,-0.35787037,-0.83300543,-0.42193687,0
1.5428443,-0.26805234,-0.51181388,0.8861019,-0.16042352,-0.43484211,0
-0.67086244,0.70375073,-0.022944778,-0.17712963,0.74976689,-0.63755369,0
-0.57260621,0.79913211,1.0630417,0.40776339,0.71584368,0.56683052,0
0.74054253,0.44964588,0.17440921,0.42512682,0.65504998,0.62464118,0
0.26307327,-0.32727131,0.65844238,0.27474523,-0.57378602,0.7715469,0
-1.5171061,-0.39565897,0.53718334,-0.8861019,0.16042352,0.43484211,0
0.89139175,-0.27290624,0.23947445,0.33490562,-0.42695388,0.83996934,0
0.87201965,-0.45811021,0.51428765,0.34662199,-0.39346793,0.8514905,0
-1.5942611,-0.3325479,0.50616717,-0.8861019,0.16042352,0.43484211,0
-0.89372993,0.70557308,1.2799631,0.41263598,0.70031238,0.58248949,0
-0.94837457,0.15730745,-0.47770238,-0.41746348,0.13135672,-0.89914936,0
-0.29659653,0.69426501,0.072690606,0.14218435,0.98703969,-0.074405432,0
-0.66464072,-0.47495398,0.56530207,0.0018640757,-0.93694896,0.34946123,0
1.1351024,-0.94708979,-0.61702263,0.8861019,-0.16042352,-0.43484211,0
-0.27758679,-0.77450287,0.44693089,0.052204907,-0.89767522,0.43755445,0
0.39408898,-0.96813136,0.0043469667,-0.042559683,-0.96238869,0.26832178,0
1.2560797,-0.35228431,-0.59671366,0.8861019,-0.16042352,-0.43484211,0
-1.7660594,0.11018693,0.085610479,-0.8861019,0.16042352,0.43484211,0
1.2470269,-0.34839499,-0.70064527,0.8861019,-0.16042352,-0.43484211,0
-1.1517652,0.23514366,0.82421184,-0.8861019,0.16042352,0.43484211,0
1.2104636,-0.58761919,-1.1340749,0.8861019,-0.16042352,-0.43484211,0
-1.6986644,0.22981608,0.34819481,-0.8861019,0.16042352,0.43484211,0
-0.75258207,0.56699264,1.3568701,0.45673552,0.46181846,0.76033956,0
1.7926977,-0.28237665,-0.10170852,0.8861019,-0.16042352,-0.43484211,0
-1.551302,0.33164763,0.067618459,-0.8861019,0.16042352,0.43484211,0
-0.10329789,0.13848516,1.0579903,0.45179302,0.089511193,0.88762099,0
1.3056525,-0.65046418,-0.55658531,0.8861019,-0.16042352,-0.43484211,0
0.24921763,0.0066612782,0.77464384,0.41718113,-0.13272616,0.89907932,0
0.50324976,0.62581968,0.19470787,0.32700589,0.88126189,0.34123963,0
0.61743844,0.24954017,0.37461084,0.45524022,0.47746736,0.75151914,0
-0.39340249,-0.13088599,-0.63529116,-0.45875829,-0.16984454,-0.87217754,0
-1.5442059,0.3305335,0.43309805,-0.8861019,0.16042352,0.43484211,0
-0.1503793,0.73903453,-0.15301466,-0.012784004,0.92937374,-0.36891875,0
1.0650315,-0.45388889,-1.0923227,0.8861019,-0.16042352,-0.43484211,0
-1.1083229,0.68621075,0.93846565,-0.8861019,0.16042352,0.43484211,0
1.6476741,0.097649097,-0.032241046,0.8861019,-0.16042352,-0.43484211,0
-1.3247577,0.84055781,0.28507996,-0.8861019,0.16042352,0.43484211,0
1.1556988,-0.020987511,-0.70849907,0.8861019,-0.16042352,-0.43484211,0
1.3162037,-0.60107362,-0.31049559,0.8861019,-0.16042352,-0.43484211,0
1.2371918,-0.1032548,0.11805984,0.4124887,-0.15489794,0.89769679,0
-0.27297693,-0.49216852,0.57215899,0.023116171,-0.92172605,0.3871519,0
1.3678002,-0.32163346,-0.58389843,0.8861019,-0.16042352,-0.43484211,0
0.88101643,-0.65427482,-0.072525054,0.077315867,-0.87388372,0.47994739,0
0.40769827,-0.82225901,-0.60750562,-0.30289543,-0.91056329,-0.28129834,0
1.6940035,-0.48160934,-0.14647827,0.8861019,-0.16042352,-0.43484211,0
1.0219566,-0.57339716,-0.70149994,0.8861019,-0.16042352,-0.43484211,0
-1.3511633,-0.033835888,0.88363487,-0.8861019,0.16042352,0.43484211,0
0.99964029,-0.81513011,-0.66503936,-0.28470835,-0.92871726,-0.23754013,0
0.12362403,0.85425764,-0.40831774,-0.058470249,0.89200407,-0.44822967,0
-1.6615465,0.45925331,0.19574465,-0.8861019,0.16042352,0.43484211,0
-0.30466464,0.76678109,0.27814597,0.083461523,0.97808158,-0.19076335,0
1.4618664,0.14751291,-0.15658507,0.8861019,-0.16042352,-0.43484211,0
-1.2939262,0.00044476986,0.45234367,-0.8861019,0.16042352,0.43484211,0
0.29935572,-0.65363288,-0.24958795,-0.27030501,-0.94098705,-0.20366299,0
0.75114155,0.63085723,-0.24209294,0.30215523,0.91136432,0.27949458,0
-1.0732467,-0.17318714,0.99467015,-0.8861019,0.16042352,0.43484211,0
-1.2523347,-0.18391836,0.72276342,-0.8861019,0.16042352,0.43484211,0
-1.3190243,0.23724222,0.22031066,-0.8861019,0.16042352,0.43484211,0
-1.5089836,0.35261798,0.14656711,-0.8861019,0.16042352,0.43484211,0
-1.1312867,0.77053559,1.0395957,-0.8861019,0.16042352,0.43484211,0
-0.9923358,0.19061375,1.077199,-0.8861019,0.16042352,0.43484211,0
1.2116579,-0.19772482,-1.2557018,0.8861019,-0.16042352,-0.43484211,0
-1.1398276,0.89399362,0.98656785,-0.8861019,0.16042352,0.43484211,0
1.0545285,-0.95046663,-0.25846058,0.030330181,-0.9161092,0.39977992,0
1.390938,0.0079056025,-1.0282515,0.8861019,-0.16042352,-0.43484211,0
0.61602181,0.86096847,-0.034941852,0.27812687,0.93454295,0.22197944,0
1.5225728,-0.044993281,-0.11738099,0.45927176,0.4302001,0.77717263,0
0.061231017,-0.84942031,-0.092626035,-0.084033132,-0.97824717,0.18965966,0
