1.2146614,-0.57368827,1.6457093,0.47174963,-0.14036822,0.87048787,0
0.82226396,-1.125468,1.3437288,0.00058192015,-0.98719722,-0.15950328,0
1.4344523,-0.27586532,1.0528018,0.87827277,0.16217858,-0.44981688,0
1.0191014,0.21305954,1.6596168,0.47174963,-0.14036822,0.87048787,0
-0.9969033,-0.24137759,-0.90780759,-0.65118092,-0.7210921,0.2366212,0
1.0254164,-0.48668277,1.7400107,0.47174963,-0.14036822,0.87048787,0
0.1014725,0.38875967,-0.86250013,0.74878013,0.5850904,-0.31144446,0
1.3379796,-0.76768506,1.2666965,0.47174963,-0.14036822,0.87048787,0
-0.48891169,0.047794119,0.78163236,-0.86415803,0.12252456,0.4880766,0
1.1384761,-0.57929981,1.046098,0.6499033,-0.61183715,-0.45086694,0
-1.8131102,0.12784195,-1.4701366,-0.47174963,0.14036822,-0.87048787,0
-1.4145728,-0.13736343,-1.6749226,-0.47174963,0.14036822,-0.87048787,0
-0.47219908,0.19194686,-2.2318215,-0.47174963,0.14036822,-0.87048787,0
-0.79239249,0.22174692,-1.7608894,-0.47174963,0.14036822,-0.87048787,0
-1.1501542,0.14747334,-1.5358924,-0.47174963,0.14036822,-0.87048787,0
-1.003788,0.86962271,-1.5025022,-0.47174963,0.14036822,-0.87048787,0
-1.4715493,0.060069084,-1.2951723,-0.47174963,0.14036822,-0.87048787,0
-0.4344773,-0.28590736,0.48031622,-0.83996964,-0.37177989,0.39526027,0
-0.67316854,1.1169595,-1.1338549,0.023844719,0.98891687,0.14654285,0
-1.3087862,0.26331997,-1.7344193,-0.47174963,0.14036822,-0.87048787,0
-0.69365621,-0.42821997,-0.26055777,-0.70221168,-0.65686798,0.27463293,0
1.163967,0.28226781,1.7746358,0.47174963,-0.14036822,0.87048787,0
-0.32521099,0.56399679,-1.8780937,-0.47174963,0.14036822,-0.87048787,0
-0.3772909,0.48895526,-1.8658967,-0.47174963,0.14036822,-0.87048787,0
1.121327,-0.38495731,1.7077768,0.47174963,-0.14036822,0.87048787,0
1.3956252,-0.061358452,1.5000473,0.47174963,-0.14036822,0.87048787,0
-0.30633634,0.72063893,-1.4329669,0.46799695,0.87656897,-0.11227602,0
-0.27591962,-0.72027862,0.30025071,-0.38007045,-0.92319304,0.057107151,0
-0.66302896,-0.64679813,-1.6840858,0.2007122,-0.94423318,-0.26103324,0
-0.92717206,0.99899876,-1.6320864,-0.47174963,0.14036822,-0.87048787,0
-0.59679168,-0.2451787,-1.8757026,-0.47174963,0.14036822,-0.87048787,0
0.0051680207,-0.40334767,1.4801978,-0.7787897,-0.52925646,0.33671099,0
0.23982716,0.43914306,1.5810124,-0.5074178,0.76416886,0.39821255,0
-0.6026597,-0.12492356,0.90214384,-0.87982166,-0.0099752843,0.47519943,0
0.83495212,-0.18413121,0.30014113,0.78912729,-0.3732172,-0.48783946,0
-0.17234284,-0.56671166,-0.64462006,0.33542335,-0.88445288,-0.32439852,0
-1.0953594,0.51485074,-1.8431236,-0.47174963,0.14036822,-0.87048787,0
1.1136173,0.033575773,1.8274621,0.47174963,-0.14036822,0.87048787,0
0.69600511,0.35104966,2.0012834,0.47174963,-0.14036822,0.87048787,0
-0.65638751,0.72687429,-0.9701128,-0.14655554,0.96103156,0.23439261,0
1.2012501,-0.87444615,1.7330202,0.47174963,-0.14036822,0.87048787,0
0.82148379,0.51914287,0.83625376,0.22947603,0.97277153,0.032500148,0
-0.43065876,0.5214473,-1.8269246,-0.47174963,0.14036822,-0.87048787,0
-1.033404,-0.51156688,-0.49882996,-0.70444483,-0.65375113,0.27634573,0
1.6052303,0.13539839,1.3043592,0.78632748,0.51363814,-0.34331465,0
1.2865837,-0.72780144,1.5009663,0.47174963,-0.14036822,0.87048787,0
-0.48995465,-0.1282286,0.58654642,-0.87137115,0.076686978,0.48459426,0
1.470793,0.21530986,1.4525754,0.47174963,-0.14036822,0.87048787,0
0.78479189,0.22341096,2.0904977,0.47174963,-0.14036822,0.87048787,0
0.93465924,0.64557123,0.6240989,0.59954035,0.77496594,-0.19994801,0
0.23289558,-0.71035779,0.59446234,-0.41215047,-0.90785921,0.076965213,0
0.21117425,-0.23753428,1.9771504,0.47174963,-0.14036822,0.87048787,0
-0.51718056,0.41970998,0.66776782,-0.54650748,0.72819507,0.41359586,0
0.54531813,0.41338289,1.6558986,-0.43246841,0.82350624,0.36716303,0
-1.2125175,0.47195756,-1.4862814,-0.47174963,0.14036822,-0.87048787,0
0.20341504,-0.017979801,-1.1140161,0.87849146,-0.0097464025,-0.47765866,0
1.4940724,-0.29616714,1.5050675,0.47174963,-0.14036822,0.87048787,0
-0.18084639,-0.73166311,-0.39342248,-0.18730158,-0.98066884,-0.056629539,0
1.5797329,0.12988639,1.4489136,0.47174963,-0.14036822,0.87048787,0
0.91180795,-0.27039516,-0.2039777,0.81788349,-0.29918119,-0.49148494,0
-0.65177041,0.6685698,-1.9385386,-0.47174963,0.14036822,-0.87048787,0
0.65531075,0.53077066,1.02881,0.0464468,0.9898324,0.13444167,0
0.98900425,-0.088462472,0.10434628,0.87608469,0.1861836,-0.44476014,0
-0.85406727,0.86778378,-1.6186297,-0.47174963,0.14036822,-0.87048787,0
0.3535651,-0.37666118,1.8273708,-0.84446627,-0.35590962,0.40025634,0
0.045092344,-0.82803428,1.5416286,-0.69207585,-0.67066163,0.26691586,0
-1.3144543,0.28536582,-1.3183453,-0.47174963,0.14036822,-0.87048787,0
-1.3208588,0.065117121,-1.7390355,-0.47174963,0.14036822,-0.87048787,0
-1.2283081,0.92071915,-1.4417393,-0.47174963,0.14036822,-0.87048787,0
-0.70363164,1.0474341,-1.8872485,-0.47174963,0.14036822,-0.87048787,0
-0.68923461,0.18605351,-0.123743,-0.85524887,0.16730207,0.49046886,0
-0.85996592,1.1262532,-1.8683186,-0.47174963,0.14036822,-0.87048787,0
-0.38416681,0.85124326,-1.8138397,-0.47174963,0.14036822,-0.87048787,0
-0.49039483,0.48557293,-2.111371,-0.47174963,0.14036822,-0.87048787,0
1.0375907,-0.5361954,1.7696009,0.47174963,-0.14036822,0.87048787,0
0.3154256,0.56093073,0.46559152,0.3000935,0.9538691,-0.00881809,0
-0.98746681,1.0547029,-0.90133715,-0.3212893,0.89200717,0.31795692,0
-0.4930836,0.72736138,-1.3318185,0.43891689,0.8936218,-0.093766689,0
0.73625124,-0.17647755,1.6595864,0.47174963,-0.14036822,0.87048787,0
-0.036069274,-0.4886232,-0.78325534,0.63177371,-0.63486594,-0.44475526,0
-0.7685436,0.58757961,-0.61394548,-0.61961305,0.64961606,0.44054347,0
1.127755,0.22570646,1.7746524,0.47174963,-0.14036822,0.87048787,0
-1.3130493,0.36331284,-1.6522797,-0.47174963,0.14036822,-0.87048787,0
-0.71171439,-0.43118834,-1.0048321,-0.43071356,-0.8981297,0.088594079,0
0.93350226,-0.7820785,1.7351044,0.47174963,-0.14036822,0.87048787,0
1.4505385,0.041224241,1.5457696,0.47174963,-0.14036822,0.87048787,0
0.51353723,0.67873114,-0.44399655,0.61167645,0.76315743,-0.20842916,0
0.93119448,-0.30896163,1.7689314,0.47174963,-0.14036822,0.87048787,0
0.64808726,0.28449929,1.9996121,-0.50707018,0.76447225,0.39807308,0
-1.349658,-0.12073755,-1.6886673,-0.47174963,0.14036822,-0.87048787,0
0.63708073,0.1397208,1.7847188,0.47174963,-0.14036822,0.87048787,0
1.2019531,-0.46206677,1.5720735,0.47174963,-0.14036822,0.87048787,0
-0.14908105,0.34625769,-1.3909082,0.86530536,0.26338136,-0.42647016,0
1.5178338,0.075794697,1.3681977,0.83946341,0.37350652,-0.39470756,0
0.4004758,-0.79664397,1.7537324,0.47174963,-0.14036822,0.87048787,0
-0.95560777,0.63010907,-0.57401782,-0.59103048,0.68228072,0.43032077,0
-0.90356529,1.1482066,-1.6885107,-0.47174963,0.14036822,-0.87048787,0
0.44127822,-0.42147756,1.8081717,0.47174963,-0.14036822,0.87048787,0
1.6900694,-0.12254834,1.4906216,0.47174963,-0.14036822,0.87048787,0
-0.6933977,-0.016955376,-1.9274848,-0.47174963,0.14036822,-0.87048787,0
-0.7583164,0.029803038,-2.0260954,-0.47174963,0.14036822,-0.87048787,0
-0.51584697,-0.089819193,-1.8561263,-0.47174963,0.14036822,-0.87048787,0
-0.31068754,-0.73696297,0.58318508,-0.52199411,-0.84011322,0.14741766,0
0.43253529,0.38699782,1.7954936,-0.59750032,0.67512071,0.43267241,0
-0.87094021,-0.61170435,-1.271426,-0.061682582,-0.99008209,-0.12622505,0
-1.5475461,-0.11433196,-1.6842951,-0.47174963,0.14036822,-0.87048787,0
-0.73771405,0.78798831,-1.962768,-0.47174963,0.14036822,-0.87048787,0
0.57005394,-0.63557506,0.36508802,0.39116955,-0.85145962,-0.34928924,0
0.26637021,-0.62671745,1.5076072,-0.71551889,-0.6378547,0.28491056,0
1.3323131,0.30103302,1.5748942,0.47174963,-0.14036822,0.87048787,0
0.29614136,0.75016946,-0.5954479,0.65968293,0.71123695,-0.24281794,0
0.36487353,-0.31585783,-0.38190517,0.73884118,-0.47586858,-0.47714037,0
0.9746449,-0.72934139,1.8749632,0.47174963,-0.14036822,0.87048787,0
0.31775033,0.45580855,-1.2996068,0.86393809,0.27092451,-0.4245128,0
1.061339,0.48865998,1.3502989,0.46918359,0.87583631,-0.11303729,0
-0.39427805,0.026234746,-1.8838397,0.71157098,-0.52239341,-0.46986383,0
-1.1804568,-0.12310696,-1.8015296,-0.47174963,0.14036822,-0.87048787,0
-0.27052242,0.87027162,-0.11112335,-0.15448976,0.95881665,0.23833516,0
1.3423629,0.057250738,1.5646825,0.47174963,-0.14036822,0.87048787,0
-0.65360808,-0.19700634,-2.1702297,-0.47174963,0.14036822,-0.87048787,0
0.67015344,0.58741444,0.68056685,0.5400157,0.82642448,-0.15939158,0
-1.0948868,-0.54760766,-1.044066,-0.5197252,-0.84177989,0.14591932,0
-0.35889703,-0.43943304,0.6033383,-0.70187652,-0.65733337,0.27437627,0
0.005399704,0.49565631,-1.5678653,0.88117754,0.11007914,-0.45979223,0
0.5372926,0.59181035,0.11337054,0.67515433,0.69248509,-0.25422627,0
0.6655376,0.32400692,0.073187411,0.7349422,0.60804051,-0.30024445,0
-0.37001872,0.30682135,-2.254653,-0.47174963,0.14036822,-0.87048787,0
0.98143077,-0.31338179,1.6016136,0.47174963,-0.14036822,0.87048787,0
0.46828866,-0.14358211,2.0359867,-0.75406986,0.44743872,0.48080897,0
-0.13316715,-0.11534095,1.38079,-0.88113964,-0.03884688,0.47125804,0
1.4706573,0.045761108,1.6230983,0.47174963,-0.14036822,0.87048787,0
0.090220273,-0.41704118,-0.58198857,0.46159232,-0.80184066,-0.37945268,0
0.87193596,0.58898532,1.4507079,0.25067142,0.96786094,0.02022171,0
0.73303562,-0.15771282,2.0831735,0.47174963,-0.14036822,0.87048787,0
0.6627261,-0.028382778,1.7752107,0.47174963,-0.14036822,0.87048787,0
-1.2235094,-0.43945134,-1.7313008,-0.47174963,0.14036822,-0.87048787,0
1.3735904,-0.89942729,1.4639804,0.47174963,-0.14036822,0.87048787,0
-0.28954911,0.76876241,-0.5340147,0.27182233,0.96231538,0.0078650713,0
0.24266493,-0.60577184,-0.67496496,0.51798713,-0.75481021,-0.40243131,0
1.1179774,-0.69238937,1.3906096,0.47174963,-0.14036822,0.87048787,0
-0.128335,0.57740521,0.070962459,-0.15005064,0.96006614,0.23613101,0
0.12943655,0.46269494,-1.5804838,0.83087111,0.40122357,-0.38558149,0
-0.50485349,0.59469819,-1.8564558,-0.47174963,0.14036822,-0.87048787,0
1.1996717,-0.63561869,1.7036986,0.47174963,-0.14036822,0.87048787,0
-0.23995316,0.28982067,-1.9304698,-0.47174963,0.14036822,-0.87048787,0
0.1250544,0.81319392,-0.41270715,0.27375183,0.96177673,0.0067325234,0
0.26026404,0.069167376,2.1924877,0.47174963,-0.14036822,0.87048787,0
0.44342929,-0.95585966,0.78291571,0.054234207,-0.98075843,-0.18754119,0
-1.3186183,0.44637001,-1.0734715,-0.72426164,0.50138026,0.47335297,0
0.48822692,-0.84140432,0.49770084,-0.055591285,-0.99001777,-0.12951577,0
0.71516043,-0.26895535,1.832507,0.47174963,-0.14036822,0.87048787,0
0.48401737,-0.056299329,2.0387056,0.47174963,-0.14036822,0.87048787,0
0.016385198,-0.64687765,-0.83987129,0.21643257,-0.93860877,-0.26864573,0
1.1360614,-0.19600368,0.29483646,0.88165754,0.087984681,-0.46361509,0
0.78493017,-0.84589052,1.7787976,-0.20170057,-0.97824883,-0.048435926,0
0.22892871,0.57265627,-0.91674292,0.67329603,0.69479591,-0.25284648,0
1.1398165,-0.22992623,0.41308743,0.88162029,0.090857059,-0.46313173,0
1.3205726,-0.70535326,0.94435775,0.79617453,-0.35641843,-0.48894987,0
-0.18084782,0.6809752,-0.84354675,0.32316148,0.94607455,-0.022576451,0
0.28561521,-0.11556673,1.9461596,0.47174963,-0.14036822,0.87048787,0
0.97601402,-0.18673301,1.6128396,0.47174963,-0.14036822,0.87048787,0
-0.30857772,1.075325,-1.2665689,0.39182717,0.9177857,-0.064350426,0
1.2787744,-0.0020177364,1.5864785,0.47174963,-0.14036822,0.87048787,0
-0.92630571,0.97804475,-1.607518,-0.47174963,0.14036822,-0.87048787,0
-0.20080972,-0.74127316,-0.86206388,0.078974605,-0.97655249,-0.20027071,0
1.4117277,-0.64122605,1.2273899,0.47174963,-0.14036822,0.87048787,0
0.9719674,-0.39778149,1.9010679,0.47174963,-0.14036822,0.87048787,0
1.3873057,-0.091206074,1.3269205,0.47174963,-0.14036822,0.87048787,0
-0.55019271,0.46974942,0.27093843,-0.78049827,0.39282411,0.48632479,0
1.2425882,0.36809576,1.3764744,0.43531588,0.89561659,-0.091493487,0
-1.3145554,0.52561736,-1.1631774,-0.78257698,0.38819107,0.4867042,0
0.72569734,-0.35622016,-0.2831735,0.74648452,-0.46184415,-0.47902107,0
-1.0099721,0.80524772,-1.0575091,-0.17840016,0.95163333,0.25013489,0
-1.1363467,-0.30670083,-0.70996761,-0.82947081,-0.40548491,0.38413554,0
1.1784339,-0.32066536,1.7878458,0.47174963,-0.14036822,0.87048787,0
1.0948567,0.2527976,1.9257308,0.47174963,-0.14036822,0.87048787,0
-1.1520444,0.19062293,-0.16586828,-0.83495361,0.24617624,0.49218881,0
0.047894359,0.048905313,1.3970226,-0.86475754,0.11913201,0.48785451,0
0.38345671,-0.084318936,-1.027582,0.79135883,-0.36797833,-0.48820412,0
0.78308427,0.53666741,0.1042223,0.77620184,0.53445303,-0.33447081,0
0.82752717,-0.1644429,2.0281041,0.47174963,-0.14036822,0.87048787,0
0.49878666,0.63013822,0.68166912,0.40829173,0.90980148,-0.074560702,0
0.71884751,0.44248724,2.1868191,0.47174963,-0.14036822,0.87048787,0
-0.063332081,0.47418848,1.0782315,-0.30985963,0.89788592,0.31271064,0
0.13803691,-0.91502476,1.2685255,-0.63449788,-0.73957229,0.22460014,0
0.65092343,-0.5055716,1.66228,0.47174963,-0.14036822,0.87048787,0
1.2123055,0.39132416,0.99542308,0.53119004,0.83322966,-0.15351123,0
-0.85958135,-0.386953,-1.9358271,-0.47174963,0.14036822,-0.87048787,0
-1.6354008,-0.031362534,-1.5057081,-0.47174963,0.14036822,-0.87048787,0
1.6178755,-0.29160643,1.3641484,0.47174963,-0.14036822,0.87048787,0
0.89999676,-0.78251982,1.8088894,0.47174963,-0.14036822,0.87048787,0
0.40358233,0.49367201,1.032933,-0.068251908,0.97847164,0.19476908,0
-0.071393341,-0.51247913,0.62595266,-0.39826763,-0.91472024,0.068335116,0
0.47871685,0.11182642,2.0733581,0.47174963,-0.14036822,0.87048787,0
1.2810371,-0.14769363,1.792748,0.47174963,-0.14036822,0.87048787,0
-1.0947968,-0.40299022,-0.9276002,-0.72470516,-0.62407839,0.2921105,0
0.5706076,0.62576938,-0.48039567,0.74017531,0.59954184,-0.30445081,0
0.79126024,-0.70992124,1.939153,0.47174963,-0.14036822,0.87048787,0
-0.090153813,-0.33278251,-1.1477293,0.48605037,-0.78230453,-0.38955712,0
0.55023432,0.11803448,1.9198351,0.47174963,-0.14036822,0.87048787,0
0.0083844364,-0.5915814,0.90190178,-0.49325532,-0.86032879,0.12858319,0
-1.0231346,0.53777802,-1.5778625,-0.47174963,0.14036822,-0.87048787,0
1.1096652,-0.94779336,1.7559958,0.47174963,-0.14036822,0.87048787,0
-0.29385686,0.44445023,0.85336423,-0.76769853,0.42020625,0.48380354,0
-0.907148,0.38742971,-1.7204373,-0.47174963,0.14036822,-0.87048787,0
-0.87544686,0.70351267,-1.6373858,-0.47174963,0.14036822,-0.87048787,0
0.46041593,0.44403374,-0.69192934,0.87049037,0.23129129,-0.43445468,0
0.1710552,-0.15551698,1.6548312,-0.87147135,0.075951517,0.48452994,0
-0.51850426,0.074154437,0.62762713,-0.83567071,0.24373962,0.49218455,0
-0.86535996,0.32863045,-1.7005677,-0.47174963,0.14036822,-0.87048787,0
-0.057006538,-0.52819681,-0.69579637,0.17420769,-0.95294839,-0.24807486,0
-0.49866533,0.72371256,-0.079227343,-0.16367698,0.95614719,0.24288362,0
-0.54506969,0.14369416,-1.9132538,-0.47174963,0.14036822,-0.87048787,0
-1.1450025,0.55068994,-0.86076117,-0.82663804,0.27309802,0.49202347,0
-0.16347717,-0.69336957,0.29042089,-0.56803751,-0.8034609,0.17828059,0
0.77418274,-0.68988562,1.9585514,0.47174963,-0.14036822,0.87048787,0
-0.97604883,-0.26040125,-1.7989099,-0.47174963,0.14036822,-0.87048787,0
-0.96387011,-0.54904807,-1.3870683,-0.42894521,-0.89908451,0.087481797,0
0.19294173,-0.59707564,1.4699745,-0.72191113,-0.62832791,0.28991097,0
0.83414465,0.12901968,0.45178074,0.8161602,0.4431136,-0.37085432,0
-0.39079773,0.043038249,-2.2419508,-0.47174963,0.14036822,-0.87048787,0
0.87151611,0.38539767,1.8108389,0.14419711,0.98623753,0.080887377,0
1.2783024,-0.53364587,0.64534801,0.73672843,-0.47966343,-0.47660729,0
0.51019943,-0.83061135,2.0973852,0.47174963,-0.14036822,0.87048787,0
0.14351559,0.14767128,1.4155275,-0.77671361,0.40112042,0.48561153,0
0.74172449,0.018399477,1.7494874,0.47174963,-0.14036822,0.87048787,0
-0.54271269,0.56008071,0.18017614,-0.39098227,0.85157937,0.34920701,0
-1.1529388,-0.34800136,-1.7611711,-0.47174963,0.14036822,-0.87048787,0
-1.0204382,0.38772571,-0.73817933,-0.75536275,0.44493249,0.48110548,0
-0.53817517,-0.044552088,-1.9382677,0.62522173,-0.64287972,-0.44249678,0
0.32388312,-0.2297529,1.9303161,0.47174963,-0.14036822,0.87048787,0
-0.52450252,-0.45026079,-0.18623865,-0.43079424,-0.89808613,0.088644803,0
0.99350047,-0.54882884,1.5725073,0.47174963,-0.14036822,0.87048787,0
-0.45144874,0.6026535,-2.0589056,0.68243635,0.68327022,-0.25965858,0
-1.0415378,0.65325308,-1.5629914,-0.47174963,0.14036822,-0.87048787,0
0.92094469,-0.86265993,1.0054927,0.54880977,-0.72595608,-0.41448247,0
1.4215755,0.27839494,1.2507573,0.61162651,0.76320708,-0.20839411,0
-0.71695018,0.54400504,-1.8996886,-0.47174963,0.14036822,-0.87048787,0
1.0231547,-0.86183059,1.605129,0.47174963,-0.14036822,0.87048787,0
1.3185804,0.22251594,1.2239761,0.69500566,0.66673279,-0.26913697,0
-1.3504721,0.30048406,-1.5801046,-0.47174963,0.14036822,-0.87048787,0
-0.74257898,0.75545919,-1.9012352,-0.47174963,0.14036822,-0.87048787,0
-0.22906041,0.2152487,-2.0784023,0.87125134,0.22597742,-0.43572396,0
1.0591815,-0.39758337,1.6879345,0.47174963,-0.14036822,0.87048787,0
1.1863641,-0.59159422,1.7614045,0.47174963,-0.14036822,0.87048787,0
0.8189674,-0.2482152,1.9940444,0.47174963,-0.14036822,0.87048787,0
0.62188935,0.12964687,-0.87334955,0.8757652,-0.04007259,-0.48107138,0
0.027084351,-0.10560864,1.4450917,-0.81811267,0.29852343,0.49150324,0
-0.74426788,0.20054267,0.49102861,-0.76469827,0.42636067,0.48317,0
-1.0468642,0.23144507,-1.8496997,-0.47174963,0.14036822,-0.87048787,0
-1.2178309,-0.27887368,-1.532181,-0.60749781,-0.76727849,0.20550001,0
-0.3292191,-0.82788193,-0.84906268,0.094254851,-0.97356212,-0.20806944,0
0.57382137,-0.16691975,-0.39428985,0.88002914,0.013618916,-0.47472438,0
1.3482037,0.028919578,1.1796379,0.82227111,0.42643982,-0.37685466,0
-0.547867,0.63029778,-2.0969524,-0.47174963,0.14036822,-0.87048787,0
-1.5869809,-0.12202168,-1.6684515,-0.47174963,0.14036822,-0.87048787,0
-1.3061361,-0.26721859,-1.5538439,-0.73124784,-0.61391568,0.29729491,0
1.00251,0.10135984,1.8899662,0.47174963,-0.14036822,0.87048787,0
-1.2168968,0.53714156,-1.4539313,-0.47174963,0.14036822,-0.87048787,0
-0.552347,0.67557216,0.24256572,-0.52292991,0.75034225,0.40438959,0
0.35019386,-0.75395238,0.10416618,0.47270238,-0.79312325,-0.38406795,0
0.58727312,-0.61244214,1.679626,0.47174963,-0.14036822,0.87048787,0
0.41611898,0.57114649,1.5477479,-0.20570147,0.94248515,0.26345521,0
-0.77892065,-0.23354602,-2.0809033,-0.47174963,0.14036822,-0.87048787,0
1.0022621,0.063963413,1.9371037,0.47174963,-0.14036822,0.87048787,0
-1.1247061,-0.051672935,-1.8717769,-0.47174963,0.14036822,-0.87048787,0
0.04379046,0.39959633,1.5727754,-0.58786786,0.68573344,0.42916352,0
-1.3389235,0.3603332,-1.5578284,-0.47174963,0.14036822,-0.87048787,0
0.35402489,-0.12463343,1.9655335,0.47174963,-0.14036822,0.87048787,0
-1.1347642,0.019630909,-1.8757422,-0.47174963,0.14036822,-0.87048787,0
-1.3117503,-0.51121283,-1.7494767,-0.47174963,0.14036822,-0.87048787,0
1.2265009,-0.8867439,0.89954233,0.55404222,-0.72081494,-0.41648912,0
-0.63439596,0.46686709,-1.8818622,-0.47174963,0.14036822,-0.87048787,0
0.31797403,-0.67102695,1.8598101,-0.8192125,-0.43490252,0.37383252,0
0.63787293,-0.88534641,1.7703185,0.47174963,-0.14036822,0.87048787,0
0.55275273,-0.67072976,2.0413594,0.47174963,-0.14036822,0.87048787,0
0.10738307,-0.50675267,1.6335365,-0.79593933,-0.49257833,0.35191953,0
-0.5882808,0.26329738,0.080160975,-0.77182657,0.41158032,0.48464975,0
-1.2963047,0.16227305,-0.67988294,-0.88092655,-0.03282541,0.47211349,0
-1.1128376,0.598804,-1.7204081,-0.47174963,0.14036822,-0.87048787,0
-0.28412834,-0.20486045,0.6632899,-0.87395966,-0.20523819,0.44053596,0
-0.90833342,0.88524306,-1.5703146,-0.47174963,0.14036822,-0.87048787,0
-0.82147163,-0.42064989,-1.8704262,-0.47174963,0.14036822,-0.87048787,0
-0.62843657,-0.43261182,-2.0307269,0.25207436,-0.924573,-0.28569806,0
-0.30147308,-0.49362028,-0.72678173,0.02641356,-0.98455417,-0.17307621,0
0.46193635,-0.06541574,1.9856117,0.47174963,-0.14036822,0.87048787,0
1.393943,-0.38643014,1.3799198,0.84046561,-0.2269057,-0.49206856,0
0.51753521,0.084834099,1.8897681,0.47174963,-0.14036822,0.87048787,0
-1.2727451,0.55864084,-1.4629649,-0.47174963,0.14036822,-0.87048787,0
-0.34881189,-0.40907228,0.67310309,-0.75327569,-0.57728958,0.31513864,0
0.74329352,0.59859097,1.7987676,0.47174963,-0.14036822,0.87048787,0
1.559839,0.19596767,1.5470766,0.47174963,-0.14036822,0.87048787,0
-0.55171752,1.0264474,-1.4402684,0.44460124,0.89042139,-0.097363293,0
1.2637002,0.090752125,1.5104618,0.47174963,-0.14036822,0.87048787,0
-0.68947464,-0.0060497522,-1.7641637,-0.47174963,0.14036822,-0.87048787,0
-0.29929233,-0.33479142,1.1464961,-0.88157851,-0.056636751,0.46862724,0
1.0753908,-0.20036554,1.839359,0.47174963,-0.14036822,0.87048787,0
0.69224751,-0.31757647,-0.27372974,0.85530281,-0.16705576,-0.49045846,0
0.25545892,-0.6434046,1.564195,-0.75025612,-0.58254892,0.31265414,0
-0.87228823,-0.34523201,-1.8816991,-0.47174963,0.14036822,-0.87048787,0
0.87755728,0.22164071,0.61210543,0.78644466,0.51338947,-0.3434183,0
0.27776915,-0.57473803,1.3365072,-0.73303378,-0.61108804,0.29871869,0
1.0596775,-0.15691793,1.4872295,0.47174963,-0.14036822,0.87048787,0
-0.75901765,0.79122305,-0.67297697,-0.082119703,0.97596157,0.20187992,0
1.117166,-0.89568549,0.89387912,0.58525848,-0.68855858,-0.42820507,0
-0.078828514,-0.20237499,1.3098596,-0.85162735,-0.32830924,0.40858775,0
-0.62619054,-0.68069935,-1.3716042,0.011303782,-0.98620313,-0.1651535,0
-0.65695089,0.59960431,0.12447074,-0.45440364,0.80734575,0.37644455,0
0.22092608,0.4010219,-0.70711267,0.77890837,0.52901614,-0.33681422,0
-0.73742568,0.50028145,-1.7433339,-0.47174963,0.14036822,-0.87048787,0
0.4922477,-0.54250622,2.1299756,0.47174963,-0.14036822,0.87048787,0
1.4650551,-0.70435333,1.2178285,0.47174963,-0.14036822,0.87048787,0
1.2991183,0.37195337,1.6214485,0.47174963,-0.14036822,0.87048787,0
0.42050955,0.42091826,0.22106588,0.58391505,0.78947395,-0.18914062,0
1.326839,-0.46772325,1.6339766,0.47174963,-0.14036822,0.87048787,0
-1.5321267,0.49573326,-1.5604262,-0.47174963,0.14036822,-0.87048787,0
1.464169,-0.99919653,1.4625895,0.55166352,-0.72316116,-0.41557837,0
-0.47802442,0.13838647,0.73401129,-0.75922167,0.4373582,0.48197544,0
0.20345843,0.62189561,0.042047501,0.4282648,0.8994503,-0.087054074,0
-1.3696835,0.053040385,-1.2110417,-0.82786369,-0.4102976,0.38248855,0
0.88408887,-0.78107584,1.7398691,0.47174963,-0.14036822,0.87048787,0
0.12062073,-0.78985214,1.4143834,-0.80816776,-0.46361434,0.36321712,0
1.2632368,-0.83376682,1.6808277,0.47174963,-0.14036822,0.87048787,0
-0.32981044,0.33196387,0.22278312,-0.50345802,0.76760781,0.39662114,0
-1.0755706,-0.29472125,-1.8321714,-0.47174963,0.14036822,-0.87048787,0
-0.6442349,0.81737816,-1.0753484,0.1462279,0.98603088,0.079753518,0
-0.48233745,-0.46012455,0.1889376,-0.76033419,-0.56466961,0.32099891,0
0.42564642,-0.6144011,1.8383353,0.47174963,-0.14036822,0.87048787,0
-1.1158601,-0.59328091,-0.97811043,-0.60738885,-0.76738518,0.20542377,0
1.158915,-0.089432359,1.4349692,0.47174963,-0.14036822,0.87048787,0
-1.4229546,0.36558115,-1.5984831,-0.47174963,0.14036822,-0.87048787,0
-1.0543013,0.8067826,-1.4871231,-0.47174963,0.14036822,-0.87048787,0
0.02617687,-0.043205202,1.1870661,-0.8562991,0.16247338,0.49025944,0
0.30317122,0.82370901,0.862091,-0.050185442,0.98137224,0.18544596,0
-0.88957626,0.60289323,-1.7657857,-0.47174963,0.14036822,-0.87048787,0
-0.43110096,0.24922597,-2.1144972,-0.47174963,0.14036822,-0.87048787,0
0.45136082,-0.59384894,1.9975958,0.47174963,-0.14036822,0.87048787,0
0.48322222,-0.54935312,1.8488591,0.47174963,-0.14036822,0.87048787,0
0.67943364,-0.17952788,2.0955274,0.47174963,-0.14036822,0.87048787,0
-0.11720663,-0.28090262,1.1327395,-0.86688489,-0.25424823,0.42879891,0
1.5646003,-0.40724683,1.5515053,0.47174963,-0.14036822,0.87048787,0
-0.77133256,0.6097759,-1.6427697,-0.47174963,0.14036822,-0.87048787,0
1.0351094,-1.070369,1.5890806,0.47174963,-0.14036822,0.87048787,0
-0.58811176,-0.42309469,-0.16454107,-0.67568785,-0.69181883,0.25462288,0
-0.49405226,-0.47582981,0.68093419,-0.84260559,-0.36259738,0.39816952,0
-0.92179108,0.44263673,-1.5707787,-0.47174963,0.14036822,-0.87048787,0
-0.84668547,1.0280135,-0.80433655,-0.3077929,0.89892727,0.31175849,0
0.88849837,-0.57221758,-0.012073994,0.69951952,-0.54142582,-0.46640176,0
0.23762679,-0.022738099,2.0467391,0.47174963,-0.14036822,0.87048787,0
-0.81377524,0.52496213,0.021545112,-0.74381626,0.46679398,0.4783732,0
1.2834206,0.043212652,1.6067789,0.47174963,-0.14036822,0.87048787,0
0.16107662,0.78060532,-0.38598505,0.57697195,0.79568118,-0.18437701,0
-0.40078422,0.77158952,-1.8648793,-0.47174963,0.14036822,-0.87048787,0
-1.2090822,0.12862539,-0.64370906,-0.88167155,-0.063484967,0.46757337,0
-0.80171698,0.80414605,-1.5799601,-0.47174963,0.14036822,-0.87048787,0
-0.11527726,0.86876845,-0.32053465,0.15088779,0.98553592,0.077148378,0
0.74557155,0.23429489,1.7855843,0.47174963,-0.14036822,0.87048787,0
0.52782547,-0.73664957,0.26078409,0.16177082,-0.95671022,-0.24194148,0
-0.34755445,0.18939948,-1.9617481,0.8250733,-0.27791578,-0.49195239,0
-0.7527771,0.085308313,-1.7637612,-0.47174963,0.14036822,-0.87048787,0
-1.5462279,0.61871231,-1.2223604,-0.47174963,0.14036822,-0.87048787,0
-1.2308466,-0.076052785,-1.5447998,-0.47174963,0.14036822,-0.87048787,0
0.58914065,-0.61968946,1.9295903,0.47174963,-0.14036822,0.87048787,0
-0.47681129,-0.2774049,0.71288592,-0.85617828,-0.30888233,0.41418666,0
-0.55524963,-0.15504289,-1.9195242,0.74550045,-0.46367663,-0.47878322,0
-0.60450375,-0.50719368,-1.9351726,-0.47174963,0.14036822,-0.87048787,0
-0.97291863,0.17940414,-1.6288267,-0.47174963,0.14036822,-0.87048787,0
-1.428496,0.48892641,-1.1584226,-0.70503545,0.5328207,0.46800345,0
-0.12929392,-0.34750253,1.7117865,-0.88142288,-0.10123956,0.46135056,0
0.59241569,-0.58964038,1.7865499,0.47174963,-0.14036822,0.87048787,0
0.13301256,0.71524572,-0.18201256,0.42084,0.9033851,-0.082395792,0
0.88479543,-0.46518403,0.19928533,0.8211332,-0.28973866,-0.49172354,0
-0.66644591,0.6050632,-1.8485063,-0.47174963,0.14036822,-0.87048787,0
1.2891502,0.17991996,1.8323961,0.47174963,-0.14036822,0.87048787,0
0.16271472,-0.0030584335,1.5884961,-0.74433506,0.46583611,0.47849992,0
-0.57986176,0.10224879,-1.7721699,-0.47174963,0.14036822,-0.87048787,0
-0.98124671,-0.32142425,-1.0843838,-0.4797532,-0.8691811,0.11983842,0
0.30678624,0.45680127,-1.389854,0.84996337,0.33501497,-0.40660471,0
0.71771556,0.014733508,-0.58791554,0.88090724,0.11773711,-0.45841089,0
0.88347411,0.029974282,0.19106424,0.85910612,-0.14904323,-0.48961499,0
-0.35848373,0.76415086,-2.1429932,-0.47174963,0.14036822,-0.87048787,0
1.4940468,-0.17289579,1.0547999,0.87242389,0.21738413,-0.43774509,0
-0.40078682,-0.28010142,0.4973723,-0.73811495,-0.60291302,0.3027907,0
0.23444152,-0.18139172,2.0854955,0.47174963,-0.14036822,0.87048787,0
0.79596746,0.091639757,0.27765924,0.87621433,0.18490991,-0.44503582,0
0.32728881,-0.32323492,1.9325987,-0.87686467,-0.17828241,0.44645697,0
-0.3195895,0.59249419,-0.20729737,-0.28435993,0.91027737,0.30088967,0
-0.72198784,0.20256197,0.31823683,-0.8495217,0.19204849,0.4913556,0
1.0473408,-0.17574728,1.830605,0.47174963,-0.14036822,0.87048787,0
1.3405036,-0.29863667,1.7455356,0.47174963,-0.14036822,0.87048787,0
0.47525561,0.28213143,1.909645,0.47174963,-0.14036822,0.87048787,0
0.7625562,-0.87250006,1.6979647,0.47174963,-0.14036822,0.87048787,0
-0.79494017,-0.3890605,-1.7088854,0.046582937,-0.98190069,-0.18357891,0
-0.82189429,-0.084517419,-0.14273024,-0.87674016,0.030234337,0.48001331,0
0.25198567,0.077259898,2.1438806,-0.6477288,0.61466837,0.45014495,0
0.48135698,-0.54015541,2.1330414,0.47174963,-0.14036822,0.87048787,0
0.52789491,-0.2807821,1.7945471,0.47174963,-0.14036822,0.87048787,0
-1.2554967,0.36182725,-1.7718512,-0.47174963,0.14036822,-0.87048787,0
0.39528823,-0.52056742,1.8307552,0.47174963,-0.14036822,0.87048787,0
0.73760706,-0.51247203,1.6357245,0.47174963,-0.14036822,0.87048787,0
-0.29592636,0.67896819,-0.82429492,0.20744336,0.97720432,0.045155346,0
1.2169683,-0.6556735,1.1679745,0.55847347,-0.71640325,-0.41817921,0
-1.0679594,-0.072244048,-1.6688895,-0.47174963,0.14036822,-0.87048787,0
-1.3339555,-0.088629365,-1.106004,-0.67041439,-0.69834661,0.25071228,0
-0.36343107,-0.5024547,-0.073560655,-0.62999576,-0.74437463,0.22138584,0
-1.0368836,-0.28295064,-1.5637782,-0.47174963,0.14036822,-0.87048787,0
-1.2175462,-0.06030798,-1.519474,-0.47174963,0.14036822,-0.87048787,0
-0.20185772,-0.76233733,0.61902452,-0.64407861,-0.72909445,0.23148185,0
0.097279429,-0.21787524,2.2430294,-0.84383577,0.21445058,0.49188656,0
-0.2203387,-0.22367895,0.99793363,-0.85614979,0.1631667,0.49029022,0
1.2100031,-0.53365695,1.4433932,0.47174963,-0.14036822,0.87048787,0
0.45953465,0.59847718,-0.034146428,0.36239478,0.93087447,-0.046289444,0
1.2885399,-0.58883846,1.5662829,0.47174963,-0.14036822,0.87048787,0
-1.0895565,-0.23273182,-1.9213588,-0.47174963,0.14036822,-0.87048787,0
0.38782495,-1.0024658,0.35560581,0.021395743,-0.98513389,-0.17045039,0
-0.14065073,0.66414607,-1.081079,0.45680463,0.88333434,-0.10511959,0
0.55829287,-0.12704277,1.8030304,0.47174963,-0.14036822,0.87048787,0
-0.53427339,0.7874555,-0.55685031,-0.31667447,0.89440536,0.31584263,0
-1.6463407,-0.20374179,-1.2087163,-0.79780769,-0.48832041,0.35361868,0
-1.0779527,-0.49182618,-1.7800696,-0.47174963,0.14036822,-0.87048787,0
0.67712784,-0.39402699,2.0257287,0.47174963,-0.14036822,0.87048787,0
-0.12084784,-0.8166604,0.84225434,-0.56413352,-0.8067888,0.1756283,0
1.3811495,0.29124928,1.7856007,0.47174963,-0.14036822,0.87048787,0
-0.060621858,0.44101,-1.9747283,0.86146754,0.2838186,-0.42109466,0
1.0765455,0.26750851,1.8948364,0.47174963,-0.14036822,0.87048787,0
0.90690184,-0.37785637,1.6721382,0.47174963,-0.14036822,0.87048787,0
0.27968401,0.18586348,-0.73961186,0.86835515,0.24528089,-0.43104166,0
0.79117727,0.14412332,1.9827065,0.47174963,-0.14036822,0.87048787,0
-0.79762512,0.9742192,-1.8981647,-0.47174963,0.14036822,-0.87048787,0
-1.3038867,0.45314944,-1.7293425,-0.47174963,0.14036822,-0.87048787,0
0.043488145,0.39642334,1.3475987,-0.62590766,0.64204842,0.44273439,0
-0.79752445,-0.65220904,-1.0808835,-0.17553777,-0.9824363,-0.063289821,0
0.16546965,-0.26849306,2.0072076,0.47174963,-0.14036822,0.87048787,0
-0.95197117,0.65809822,-1.8998138,-0.47174963,0.14036822,-0.87048787,0
0.123353,0.48933625,1.1828152,-0.53971899,0.73471653,0.41096854,0
-1.199495,0.84729278,-1.4250302,-0.47174963,0.14036822,-0.87048787,0
-1.0967588,-0.52986217,-0.9731304,-0.53681284,-0.82891703,0.15725386,0
0.24601257,0.53282613,1.0575304,-0.35321987,0.87448406,0.33243558,0
0.84111512,0.37162495,1.865044,0.47174963,-0.14036822,0.87048787,0
0.0025605559,0.64904857,0.55317789,-0.35646725,0.87260914,0.33389312,0
-0.72967857,-0.67153454,-0.51542479,-0.28880644,-0.95738518,0.0021342635,0
-0.1153807,0.91208118,-0.76388764,0.38514888,0.92088687,-0.060231209,0
-1.1821401,-0.33079219,-1.7939961,-0.47174963,0.14036822,-0.87048787,0
0.94863319,-0.14523184,1.9549458,0.47174963,-0.14036822,0.87048787,0
-0.30572855,0.21845371,0.78640449,-0.74585438,0.46301833,0.4788689,0
0.86794972,-0.66908836,1.6558808,0.47174963,-0.14036822,0.87048787,0
-0.75358003,0.62708819,0.15906142,-0.62363434,0.6447978,0.44194579,0
0.95702302,0.017323673,0.10142308,0.87296695,-0.064507633,-0.48349515,0
0.34199584,-0.31851923,2.0042822,-0.88151067,-0.097232431,0.4620443,0
-0.47250354,0.54999149,0.17968993,-0.44785929,0.81226653,0.37369144,0
0.49299479,-0.27708769,2.1415453,0.47174963,-0.14036822,0.87048787,0
1.4683167,0.48757792,1.6974697,0.63517177,0.73884702,-0.22508222,0
-0.34560698,-0.77213818,-0.53147286,0.0019803047,-0.98707592,-0.16024154,0
-0.23572275,0.67281443,-1.1629026,0.56664217,0.80465537,-0.17733169,0
1.1304444,-0.67322564,1.4823229,0.47174963,-0.14036822,0.87048787,0
-0.8419196,0.47824347,-1.8253057,-0.47174963,0.14036822,-0.87048787,0
0.013016939,-0.58136243,-1.1802577,0.55524385,-0.71962392,-0.41694826,0
-0.3022486,0.47303343,-1.8738902,-0.47174963,0.14036822,-0.87048787,0
1.4408109,-0.37328494,1.3736324,0.47174963,-0.14036822,0.87048787,0
0.38699499,0.75151283,0.35042882,0.34045178,0.9396835,-0.032977164,0
1.6606526,-0.48704028,1.4107609,0.47174963,-0.14036822,0.87048787,0
0.712107,-0.84680641,1.9384761,0.47174963,-0.14036822,0.87048787,0
-0.71059471,-0.46769059,-1.84172,-0.47174963,0.14036822,-0.87048787,0
1.3794563,-0.75689733,1.1483462,0.50957346,-0.76228142,-0.39907646,0
-0.06198585,-0.40458137,-0.43705082,0.20073307,-0.94422597,-0.26104337,0
-0.2295997,0.78898871,-1.2008678,0.35060367,0.93570662,-0.039120138,0
-1.3164599,-0.029423237,-0.66190237,-0.88118005,-0.04010585,0.47107694,0
1.1530848,-0.44977582,1.4867823,0.47174963,-0.14036822,0.87048787,0
-1.350798,0.1016109,-1.3912436,-0.47174963,0.14036822,-0.87048787,0
0.75698203,0.064423561,1.7566475,0.47174963,-0.14036822,0.87048787,0
0.72776508,0.1162616,2.0926538,0.47174963,-0.14036822,0.87048787,0
1.4042284,0.044360876,0.69953966,0.84673834,0.34749106,-0.40284508,0
0.19183177,0.4096629,1.0998162,-0.60311854,0.66879493,0.43469709,0
0.039739966,0.27758414,1.6163616,-0.74496448,0.46467134,0.47865316,0
1.454257,0.11515045,1.5825822,0.47174963,-0.14036822,0.87048787,0
0.90296847,-0.15334666,1.7989506,0.47174963,-0.14036822,0.87048787,0
-0.78936881,-0.42855048,-1.1762166,-0.21405721,-0.97594482,-0.041367948,0
0.25865114,-0.13630199,1.9982409,0.47174963,-0.14036822,0.87048787,0
-0.88952237,-0.46050477,-1.2372364,-0.099949539,-0.98939687,-0.10537624,0
-0.71392518,0.4087497,-1.6822345,-0.47174963,0.14036822,-0.87048787,0
-0.90611976,-0.40055549,-0.049190462,-0.72487426,-0.62381965,0.2922439,0
-0.88361359,0.29685557,-1.7079711,-0.47174963,0.14036822,-0.87048787,0
1.1011755,-0.92446601,1.396167,0.076046765,-0.97709113,-0.19877088,0
-1.2658466,0.049386978,-1.8328549,-0.47174963,0.14036822,-0.87048787,0
0.64637029,-0.30709612,2.0884206,0.47174963,-0.14036822,0.87048787,0
-0.99228024,0.0066666603,-1.8755279,-0.47174963,0.14036822,-0.87048787,0
0.67408699,0.2815727,1.8067142,-0.4311806,0.82442582,0.36661342,0
-1.2719411,0.63682652,-0.66276836,-0.65810049,0.60098851,0.45355988,0
-1.3861964,0.06190598,-1.254931,-0.87615567,-0.18548781,0.44491082,0
-0.89647877,0.60642731,-1.5930319,-0.47174963,0.14036822,-0.87048787,0
0.58623391,0.53944218,-0.53431499,0.71899766,0.6327033,-0.28762645,0
1.2217947,-0.77391315,1.3691028,0.56723022,-0.70752621,-0.42149341,0
-0.81448448,0.98697144,-1.4000878,-0.022325456,0.98502898,0.17093736,0
0.51409745,-0.65390646,1.7767556,0.47174963,-0.14036822,0.87048787,0
0.47820294,-0.67842412,1.7722695,0.47174963,-0.14036822,0.87048787,0
0.30704403,-0.51980823,-0.42395183,0.5999378,-0.67238891,-0.4335528,0
0.71986711,-0.23619926,1.8750987,0.47174963,-0.14036822,0.87048787,0
1.3236029,0.11601877,1.5461299,0.47174963,-0.14036822,0.87048787,0
0.77775514,-0.64954078,0.17565352,0.36290944,-0.86883748,-0.33677629,0
0.12897915,0.16642249,-1.0963753,0.88151288,0.097120076,-0.46206367,0
0.85474372,0.17208636,1.7134677,0.47174963,-0.14036822,0.87048787,0
-0.92157161,0.25233603,-1.8937395,-0.47174963,0.14036822,-0.87048787,0
-1.2628977,-0.19726944,-1.7542993,-0.47174963,0.14036822,-0.87048787,0
-1.0940666,0.24991715,-1.461773,-0.47174963,0.14036822,-0.87048787,0
0.014176846,0.75556731,0.099909842,-0.23141289,0.9329288,0.27584815,0
-0.923204,0.13603461,0.0058411956,-0.87750399,-0.1713115,0.44792753,0
-1.5826631,0.028154135,-1.6561546,-0.47174963,0.14036822,-0.87048787,0
-0.080698431,0.83403337,-0.19820195,0.24166438,0.97002602,0.025452137,0
1.3576226,-0.70695817,1.2627313,0.47174963,-0.14036822,0.87048787,0
0.57678008,0.48818329,0.2714687,0.56626618,0.80497622,-0.17707634,0
-1.0713465,-0.60788023,-1.558286,-0.33535662,-0.94161659,0.029904246,0
-0.81972206,0.75693166,-1.6129522,-0.47174963,0.14036822,-0.87048787,0
-1.5174501,0.40810537,-1.0392201,-0.86631179,0.11004424,0.48723131,0
0.076436996,0.36860406,1.4623116,-0.66565859,0.59072965,0.45600158,0
1.5210459,-0.12016153,1.5645452,0.47174963,-0.14036822,0.87048787,0
0.30209386,-0.58168519,2.0163674,0.47174963,-0.14036822,0.87048787,0
-1.4383543,0.19062436,-1.2702451,-0.47174963,0.14036822,-0.87048787,0
0.37341458,-0.34132874,1.9358053,-0.8732816,-0.21073955,0.43928146,0
-0.55524802,0.42211962,-2.0579529,-0.47174963,0.14036822,-0.87048787,0
-0.82958078,-0.32415998,-1.8199677,-0.47174963,0.14036822,-0.87048787,0
-0.74688923,0.50057536,-0.50238645,-0.59616745,0.67660671,0.43218967,0
-0.97136867,1.0068934,-1.7068851,0.24353549,0.96958584,0.024367154,0
-1.2759275,0.14264941,-1.3611549,-0.47174963,0.14036822,-0.87048787,0
-1.1541938,-0.24058342,-1.9380015,-0.47174963,0.14036822,-0.87048787,0
0.8434118,-0.2533592,1.9181132,0.47174963,-0.14036822,0.87048787,0
-0.88871902,0.36352444,-1.9137834,-0.47174963,0.14036822,-0.87048787,0
0.93581039,-0.93730664,1.6391301,0.47174963,-0.14036822,0.87048787,0
-0.86741769,0.92843735,-1.6478493,-0.47174963,0.14036822,-0.87048787,0
-0.34099853,-0.51847392,-0.70901859,-0.061795294,-0.9900828,-0.12616396,0
0.1601454,-0.75283068,-0.37194234,0.1961509,-0.94580132,-0.25881428,0
0.49471983,-0.56576991,0.40804771,0.3063761,-0.89963734,-0.31110522,0
-0.29312813,0.28254354,-2.190695,-0.47174963,0.14036822,-0.87048787,0
-0.25143325,0.48419297,-2.077148,-0.47174963,0.14036822,-0.87048787,0
1.2858306,-0.83229268,1.3117241,0.60800433,-0.66320974,-0.43644428,0
0.5635857,-0.067426987,-0.7159341,0.84563804,-0.2075516,-0.49175072,0
-0.40037271,-0.38726199,-0.82958961,0.021282673,-0.9851467,-0.1703912,0
-1.027951,-0.28853452,-0.47096002,-0.8677333,-0.24913216,0.43008369,0
-0.67682034,0.26620841,-2.0096123,-0.47174963,0.14036822,-0.87048787,0
1.4410087,-0.35903537,1.1172521,0.82035857,-0.29201376,-0.49167061,0
0.75497144,0.25623935,0.1212852,0.87595087,0.18748134,-0.44447845,0
0.83726901,0.080253839,1.8943899,0.47174963,-0.14036822,0.87048787,0
0.9984659,0.18599033,1.896174,0.47174963,-0.14036822,0.87048787,0
-1.2592183,0.97398913,-1.3701652,-0.3182776,0.89357603,0.31657761,0
-0.87111962,-0.20844465,-0.097575307,-0.79737514,-0.48931125,0.3532244,0
0.78792477,0.42119944,1.4626521,-0.0086099505,0.98646659,0.16373622,0
0.95190114,0.37975657,1.7497923,0.47174963,-0.14036822,0.87048787,0
-0.62040132,0.65564275,0.022204015,-0.49984133,0.77071738,0.39516255,0
-0.63887632,0.85345125,-1.9804087,-0.47174963,0.14036822,-0.87048787,0
1.3801105,-0.16406345,1.3171843,0.47174963,-0.14036822,0.87048787,0
1.0307314,-0.45493937,1.7163681,0.47174963,-0.14036822,0.87048787,0
-1.2939442,0.4544071,-1.6726863,-0.47174963,0.14036822,-0.87048787,0
-0.71006918,0.5141232,-2.0265942,-0.47174963,0.14036822,-0.87048787,0
1.2330168,0.25457394,1.2189491,0.70879263,0.64759892,-0.27969408,0
1.0860766,-0.3821553,1.7823724,0.47174963,-0.14036822,0.87048787,0
0.92538774,-0.63884616,1.7016425,0.47174963,-0.14036822,0.87048787,0
0.20687449,0.4583472,-0.75227469,0.82175958,0.42787215,-0.37634653,0
-1.0861751,0.18601024,-1.6913996,-0.47174963,0.14036822,-0.87048787,0
-0.70171607,0.10952318,-1.9170086,-0.47174963,0.14036822,-0.87048787,0
-0.79682338,0.57948649,-1.8695345,-0.47174963,0.14036822,-0.87048787,0
-0.70962,-0.2741369,-2.1177032,-0.47174963,0.14036822,-0.87048787,0
0.71068203,-0.20627415,1.9552979,0.47174963,-0.14036822,0.87048787,0
0.92952031,-0.68499088,1.7166543,0.47174963,-0.14036822,0.87048787,0
-0.61883783,0.436203,-2.0240231,-0.47174963,0.14036822,-0.87048787,0
1.0085224,0.63897741,1.4439127,0.33946139,0.94006252,-0.032379389,0
-0.53181791,-0.31059062,-1.8752438,-0.47174963,0.14036822,-0.87048787,0
1.0568442,0.42549062,1.6340809,0.47174963,-0.14036822,0.87048787,0
0.4071382,0.47351763,0.42716408,0.36577719,0.92944568,-0.048352838,0
0.42820519,0.33983338,-0.4411267,0.70877713,0.64762104,-0.27968216,0
1.4425492,-0.3695296,1.4675953,0.47174963,-0.14036822,0.87048787,0
0.72397459,0.27050579,2.1326621,0.47174963,-0.14036822,0.87048787,0
1.3736269,0.13825262,1.1774709,0.83404076,0.39132679,-0.38889515,0
0.93945217,-0.46486115,1.7448274,0.47174963,-0.14036822,0.87048787,0
-0.36545599,0.063220412,1.0624723,-0.87974596,-0.0086960793,0.47536466,0
0.9250288,-0.08854568,1.7044806,0.47174963,-0.14036822,0.87048787,0
-1.6788187,-0.1241312,-1.384588,-0.47174963,0.14036822,-0.87048787,0
1.1511793,0.24234247,0.79614663,0.66604424,0.70365834,-0.24748749,0
0.23359907,-0.53361177,1.9196094,0.47174963,-0.14036822,0.87048787,0
-0.77762252,0.54492033,-1.7254038,-0.47174963,0.14036822,-0.87048787,0
-0.05180344,0.83299714,-0.59578311,0.31525016,0.94884092,-0.017842889,0
-1.2184119,0.22896552,-1.654424,-0.47174963,0.14036822,-0.87048787,0
-0.64566022,-0.59744132,-1.5503886,0.11943585,-0.96797526,-0.22081512,0
-0.98109567,0.55271411,-1.6308885,-0.47174963,0.14036822,-0.87048787,0
0.25178745,-0.84268039,0.67983001,0.051668942,-0.98114967,-0.18621403,0
0.12201172,-0.043803573,-1.0148313,0.78686392,-0.37845767,-0.48745793,0
-0.015031934,0.12155628,1.4435482,-0.81810242,0.29855329,0.49150246,0
1.0050089,-0.56152642,1.8806729,0.47174963,-0.14036822,0.87048787,0
-0.99040997,0.7793113,-1.6460332,-0.47174963,0.14036822,-0.87048787,0
-0.31922686,-0.084036112,-2.1445961,0.6576407,-0.6016047,-0.45341003,0
-0.51882851,1.0060492,-0.24249624,-0.26217127,0.92026639,0.29047549,0
-0.88823652,0.25022292,-1.9292055,-0.47174963,0.14036822,-0.87048787,0
-1.2595413,0.034290314,-1.4811898,-0.47174963,0.14036822,-0.87048787,0
1.2301592,-0.79909945,1.3678023,0.47174963,-0.14036822,0.87048787,0
-0.54125845,0.87317193,-1.8074448,0.49629858,0.85827798,-0.13056326,0
-0.26937747,0.28789151,-1.9704472,0.87561607,0.19066402,-0.44378364,0
-0.15454885,0.87707603,-0.78371549,0.50798041,0.85021073,-0.13819492,0
-0.22161773,0.76001507,-1.470687,0.64124352,0.73223245,-0.22943938,0
-0.60952294,-0.16522741,-1.9622924,-0.47174963,0.14036822,-0.87048787,0
1.2810179,-0.51598692,0.61128843,0.73813331,-0.47714362,-0.47696242,0
-0.72718722,0.15860569,-2.0173721,-0.47174963,0.14036822,-0.87048787,0
-0.8181833,0.31917989,-1.8677912,-0.47174963,0.14036822,-0.87048787,0
-1.3089205,0.63826537,-1.5276086,-0.47174963,0.14036822,-0.87048787,0
-0.50527573,-0.31582713,-1.9262732,-0.47174963,0.14036822,-0.87048787,0
-0.41930741,0.4452734,-2.1568956,-0.47174963,0.14036822,-0.87048787,0
-0.2372047,0.5957129,-1.1391147,0.67596817,0.691468,-0.25483137,0
-0.82185286,-0.36096561,-1.4263799,-0.081730783,-0.98995799,-0.11534023,0
0.45331198,-0.50397062,2.0718198,0.47174963,-0.14036822,0.87048787,0
1.5304431,-0.28960133,1.3142573,0.47174963,-0.14036822,0.87048787,0
0.81774259,-0.23161542,2.0407679,0.47174963,-0.14036822,0.87048787,0
0.61405575,0.63235116,-0.15957934,0.6425631,0.73077583,-0.23038936,0
1.1970927,0.29163539,1.0488583,0.52879459,0.83504283,-0.15192068,0
-0.38813436,-0.18517244,-2.1825476,-0.47174963,0.14036822,-0.87048787,0
0.88781136,0.26714599,0.40445942,0.80245876,0.47746757,-0.35788924,0
0.36870068,-0.8963663,1.897825,0.47174963,-0.14036822,0.87048787,0
1.5006156,-0.76143122,1.5507752,0.47174963,-0.14036822,0.87048787,0
-1.2726474,0.25892341,-1.6953052,-0.47174963,0.14036822,-0.87048787,0
-0.9786222,-0.32863653,-1.8361549,-0.47174963,0.14036822,-0.87048787,0
0.55317599,-0.18673146,1.9447166,0.47174963,-0.14036822,0.87048787,0
-1.3188212,0.21947694,-1.7246343,-0.47174963,0.14036822,-0.87048787,0
0.99884492,-0.30367953,0.31649697,0.87714428,-0.02587533,-0.47952947,0
-0.53058553,0.62357211,-0.20912364,-0.33793354,0.88307786,0.32553715,0
0.99858242,-0.19442844,-0.12161052,0.83501583,-0.24596575,-0.4921886,0
0.28420138,-0.074510336,-1.0636303,0.84097779,-0.22504829,-0.49204659,0
-1.1282896,0.62162554,-1.4441592,-0.47174963,0.14036822,-0.87048787,0
0.21354856,-0.67609406,1.0187365,-0.50332314,-0.85346437,0.13514632,0
-1.0535877,-0.39572108,-1.2341974,-0.54713309,-0.82079101,0.16415709,0
-0.80121875,0.48916769,-1.614374,-0.47174963,0.14036822,-0.87048787,0
-0.29211068,-0.48254812,-1.024928,0.18245673,-0.95033836,-0.25212443,0
0.73481619,-0.8211509,1.9296405,0.47174963,-0.14036822,0.87048787,0
-1.2390404,0.97678089,-1.5452588,-0.40497875,0.84246004,0.35532168,0
-0.78743625,0.51933777,-0.70759881,-0.45633101,0.80587989,0.37725276,0
-1.025526,0.32144243,-0.026428044,-0.77935094,0.39535773,0.48611155,0
-1.1652052,0.84806669,-1.548794,-0.47174963,0.14036822,-0.87048787,0
-1.1311456,0.070394576,-0.16660005,-0.88024777,-0.017705172,0.47418392,0
-0.74185705,-0.29163539,-2.0569506,-0.47174963,0.14036822,-0.87048787,0
-1.0853879,0.10112429,-1.7251668,-0.47174963,0.14036822,-0.87048787,0
0.91642916,-0.7825464,0.7691192,0.47598326,-0.79049921,-0.38542292,0
-0.95678639,-0.46130872,-1.2206018,-0.33813491,-0.94056767,0.031579018,0
-0.70097405,-0.54212427,-1.4242473,-0.053808451,-0.98999,-0.13047749,0
1.2503288,-0.042790055,0.73173612,0.81316906,0.45094806,-0.36797005,0
1.2520235,-0.35965884,1.6484632,0.47174963,-0.14036822,0.87048787,0
-0.49292374,0.64140844,-0.15087003,-0.49678195,0.77332449,0.39392504,0
-0.55056381,-0.50280672,-0.69194597,-0.076401353,-0.99004126,-0.11824179,0
0.33273777,-0.80223721,1.4190682,-0.4563396,-0.88360983,0.10482317,0
-0.79728574,0.45283645,-0.46655655,-0.81234419,0.31469256,0.49098438,0
-0.82827544,-0.56772107,-0.67645049,-0.33198932,-0.94287121,0.027877033,0
-0.75969005,0.70895272,-0.84827387,-0.23525143,0.93142235,0.27768552,0
1.0801473,-0.65962976,0.39302921,0.74955034,-0.45608231,-0.47975343,0
1.2469521,-0.54111481,1.2937492,0.77181661,-0.41160128,-0.48464778,0
0.1666939,0.6504612,-0.031203806,0.21155876,0.97642773,0.042799771,0
-0.65734005,0.89661503,-1.9526207,-0.47174963,0.14036822,-0.87048787,0
-1.1949438,0.075489521,-1.5373378,-0.47174963,0.14036822,-0.87048787,0
0.38920093,0.43017423,1.885308,-0.56019378,0.71467602,0.41883299,0
-0.90494663,0.58423531,-1.5725938,-0.47174963,0.14036822,-0.87048787,0
0.7035684,-0.095465243,-0.42097127,0.88169616,0.084071338,-0.46426713,0
0.32486087,0.029346325,-0.54798448,0.88172919,0.072359502,-0.46617359,0
-0.07676971,0.084333539,1.2056894,-0.71236682,0.52110589,0.47008756,0
-0.27322841,-0.3764652,1.0176425,-0.87907219,-0.15150779,0.45197076,0
0.91243541,0.33586156,0.94559908,0.69773573,0.66302937,-0.27121371,0
-0.61574721,0.63523489,-0.058131576,-0.51289487,0.75935197,0.40040407,0
1.2462144,-0.81949854,1.1125208,0.61792135,-0.65162617,-0.43995076,0
-1.1234616,0.38620865,-1.7937921,-0.47174963,0.14036822,-0.87048787,0
1.0716001,-0.43057179,1.6433104,0.47174963,-0.14036822,0.87048787,0
-0.063856244,0.13960922,1.6150711,-0.82374996,0.28193471,0.49188325,0
-0.29540884,0.42437002,0.77757597,-0.46778011,0.79701716,0.38202828,0
-1.0281258,0.6617645,-1.5194684,-0.47174963,0.14036822,-0.87048787,0
-1.1384335,0.18814552,-1.5777655,-0.47174963,0.14036822,-0.87048787,0
-0.59014124,-0.4015137,-1.6565132,0.33056128,-0.88708735,-0.32218832,0
0.39888081,0.5534088,-0.44558689,0.70654309,0.650796,-0.27795947,0
0.28434461,-0.53894734,1.9237549,0.47174963,-0.14036822,0.87048787,0
-0.79352015,-0.70602512,-0.76092601,-0.2900787,-0.95699847,0.0028860569,0
0.43512732,-0.37132373,-0.21046096,0.5069592,-0.76456892,-0.39802858,0
1.1522285,-0.22266436,0.81068242,0.87617075,-0.03608644,-0.48064834,0
-1.3470802,0.16446424,-1.7674985,-0.47174963,0.14036822,-0.87048787,0
0.43959144,0.50163519,-0.61440182,0.68549591,0.67932004,-0.26195365,0
0.55784965,-0.3808744,-0.69852698,0.7722404,-0.41070536,-0.4847329,0
-0.94552594,-0.3981303,-1.674352,-0.47174963,0.14036822,-0.87048787,0
-0.93438333,0.41613066,-1.8370501,-0.47174963,0.14036822,-0.87048787,0
-1.6525328,-0.018990755,-1.0171834,-0.8666091,-0.25587866,0.42838645,0
-0.0069643259,0.24902225,1.5502858,-0.64630115,0.61651635,0.44966927,0
-0.79530877,0.47344089,-1.7053206,-0.47174963,0.14036822,-0.87048787,0
-1.0450096,0.71090913,-1.7878513,-0.47174963,0.14036822,-0.87048787,0
0.98149008,0.16928732,0.089000821,0.87721306,0.17454734,-0.44724804,0
0.304564,0.37481976,1.8463478,-0.67598128,0.57629979,0.45926902,0
-0.53124005,0.82003105,-1.5043775,0.20269662,0.97807097,0.047867477,0
-0.48893261,0.53142309,-2.0385005,-0.47174963,0.14036822,-0.87048787,0
1.4221272,0.18688202,1.6614172,0.47174963,-0.14036822,0.87048787,0
-1.0158358,0.78327119,-1.7639601,-0.47174963,0.14036822,-0.87048787,0
1.2443851,-0.10364199,1.6687714,0.47174963,-0.14036822,0.87048787,0
