0.23719704,0.75128269,1.699994,-0.063278973,0.26309645,0.96269202,0
0.29746798,-0.57890856,0.6545682,0.46217877,-0.84722418,0.26191962,0
-0.29302156,-0.21392596,2.2772832,-0.063278973,0.26309645,0.96269202,0
-0.32000348,1.1590472,1.8365262,-0.063278973,0.26309645,0.96269202,0
-0.82059121,-0.94500613,-1.6134994,-0.79826581,-0.59228718,0.10939655,0
1.0495725,-0.41947985,-1.0073795,0.98517531,-0.13765392,0.10237664,0
1.1333978,-0.63746893,-0.92423517,0.93698895,-0.31642956,0.14806736,0
0.33043146,-0.80717695,0.63953871,0.2746971,-0.92277306,0.27024305,0
0.4505223,-0.942518,-1.6042588,0.063278973,-0.26309645,-0.96269202,0
0.045950785,1.6591592,1.5073054,0.23607385,0.94119513,-0.24170402,0
-0.76605195,0.53641653,1.9959402,-0.063278973,0.26309645,0.96269202,0
0.67047894,-0.13633907,2.0983796,0.59792542,-0.76233709,0.24764335,0
-0.5310474,-1.1622295,-1.757105,-0.68480486,-0.71314585,0.14988425,0
-0.43657064,-0.59355825,1.6052986,-0.1676048,-0.95372629,0.24962926,0
-0.3340016,1.2146976,1.6712757,-0.063278973,0.26309645,0.96269202,0
0.033861518,0.4401648,-2.2782688,0.063278973,-0.26309645,-0.96269202,0
-0.70584357,-1.0191975,-0.14412932,-0.6371941,-0.75306863,0.16392434,0
-0.83180535,-0.025803089,-2.3315129,0.063278973,-0.26309645,-0.96269202,0
0.37025499,0.40469098,-2.2870529,0.063278973,-0.26309645,-0.96269202,0
-0.77509439,-0.42159557,-1.6071205,-0.9794246,0.16885343,-0.11052525,0
0.022271872,0.81554067,-1.3762913,-0.13627565,0.95331186,-0.26949054,0
0.61530578,0.38641864,-0.9062531,0.61416948,0.77059603,-0.17022792,0
0.27962136,-1.2082809,-0.62230945,0.080592573,-0.96012771,0.2676931,0
-0.79811335,-0.077548355,-0.072881907,-0.98004228,-0.19852903,-0.010163009,0
0.28640997,0.46096385,2.0288339,-0.063278973,0.26309645,0.96269202,0
-0.77150464,1.1940954,1.4995328,-0.063278973,0.26309645,0.96269202,0
0.27655369,0.82364047,1.6862071,-0.063278973,0.26309645,0.96269202,0
0.33807558,-0.66908705,0.98719984,0.29999936,-0.9149965,0.26978099,0
-0.60320234,1.3842162,1.4978155,-0.063278973,0.26309645,0.96269202,0
1.0406547,0.02607888,0.17605376,0.98231918,0.18672353,0.013539016,0
0.14613388,-1.440172,-1.3437941,-0.043597102,-0.96443319,0.26070654,0
-0.77833611,0.18215024,-1.9653392,-0.68438834,0.69063866,-0.23373216,0
-0.44923067,-0.34160101,2.1766775,-0.29415137,-0.9266904,0.23392257,0
-0.87514651,0.43430424,0.929847,-0.96836364,0.21712899,-0.1229915,0
0.99673796,0.33502412,2.0409799,-0.063278973,0.26309645,0.96269202,0
0.7843262,0.23331949,0.36216214,0.96136278,0.27502427,-0.011970431,0
0.1596573,-0.46550643,-1.8053722,0.063278973,-0.26309645,-0.96269202,0
-0.75996351,-0.6612379,-1.5433993,-0.99011284,-0.13755274,-0.027489305,0
0.38753217,-0.069715023,2.1228878,-0.063278973,0.26309645,0.96269202,0
0.77200711,-0.96566689,-1.8244873,0.063278973,-0.26309645,-0.96269202,0
-0.83402163,0.84239626,1.6945856,-0.063278973,0.26309645,0.96269202,0
0.18608844,-1.0418468,-1.9604332,0.063278973,-0.26309645,-0.96269202,0
0.63027793,-0.84738523,-0.10966706,0.46501303,-0.84573978,0.26170015,0
0.53039718,-0.11821163,2.0174632,-0.063278973,0.26309645,0.96269202,0
0.83091265,-1.3533689,-1.7540253,0.063278973,-0.26309645,-0.96269202,0
0.85656601,0.60990953,0.71274185,0.80020058,0.58981878,-0.10859475,0
-1.0755594,0.45103335,1.493782,-0.9936077,-0.10696822,-0.036077559,0
0.95450068,-0.088094831,-1.8996649,0.063278973,-0.26309645,-0.96269202,0
0.95199823,0.0064134002,-0.71185833,0.99612039,0.075760067,0.044771671,0
0.89853203,-1.019521,-1.6028583,0.063278973,-0.26309645,-0.96269202,0
0.28591466,0.31534648,1.9392258,-0.063278973,0.26309645,0.96269202,0
0.23155591,1.0268524,1.8309696,-0.063278973,0.26309645,0.96269202,0
0.41587126,0.53950512,-1.7577442,0.45343876,0.86689043,-0.20710945,0
0.19685328,0.010941744,-1.8893799,0.063278973,-0.26309645,-0.96269202,0
1.2057323,0.22738382,0.088538706,0.98693061,0.15974307,0.021215677,0
0.35859823,0.90813446,1.8491082,-0.063278973,0.26309645,0.96269202,0
0.76054001,-0.75387335,-1.0411073,0.90811479,-0.38489231,0.16487974,0
-0.12511563,-0.016094208,-1.9423013,0.063278973,-0.26309645,-0.96269202,0
-0.18137908,0.048758507,-2.2012656,0.063278973,-0.26309645,-0.96269202,0
0.18452746,0.15666866,2.0041413,-0.063278973,0.26309645,0.96269202,0
0.098327428,-1.2821661,-0.64178276,0.22335669,-0.93642294,0.27059883,0
-0.48612773,1.5564812,1.6967195,-0.063278973,0.26309645,0.96269202,0
-0.86907363,0.059381723,1.9814769,-0.80564219,-0.58278447,0.10631466,0
-0.48835188,0.56649232,2.0028534,-0.063278973,0.26309645,0.96269202,0
-0.85313034,-0.98091358,-1.7374355,0.063278973,-0.26309645,-0.96269202,0
-0.43905285,-0.86737025,-1.9108675,0.063278973,-0.26309645,-0.96269202,0
0.4463748,1.2446375,1.0759287,0.66219383,0.73275846,-0.15673047,0
-0.36670101,0.44776893,1.9488065,-0.063278973,0.26309645,0.96269202,0
-0.18505251,-0.12753046,2.2672675,-0.063278973,0.26309645,0.96269202,0
-0.56009293,-0.52062917,-2.0706632,0.063278973,-0.26309645,-0.96269202,0
0.95394605,0.43244934,-1.3134857,0.75891829,0.63911867,-0.12478161,0
-0.37166646,-0.70159364,-2.0919957,0.063278973,-0.26309645,-0.96269202,0
0.46718964,1.1043118,1.8286576,-0.063278973,0.26309645,0.96269202,0
0.10543597,-0.43671876,1.5737296,0.33886832,-0.90165102,0.26868862,0
0.86932892,0.11746135,-0.15369734,0.98784637,0.15373445,0.022917926,0
-0.82157171,0.69713104,1.6898351,-0.063278973,0.26309645,0.96269202,0
-0.64381176,-0.61803603,-2.0011938,0.063278973,-0.26309645,-0.96269202,0
-0.075689793,0.38169658,2.1514266,-0.063278973,0.26309645,0.96269202,0
0.048119545,-0.43576801,-2.0063961,0.063278973,-0.26309645,-0.96269202,0
-0.23045138,1.3950052,0.85460913,0.00085836649,0.96463931,-0.26357216,0
-0.58204424,-0.27948797,1.5857621,-0.56618237,-0.80383086,0.18246494,0
1.0579752,-0.28334093,-1.3515437,0.97022134,0.24220774,-0.0024196506,0
-0.59073299,0.28664863,1.9558879,-0.063278973,0.26309645,0.96269202,0
-0.26161039,0.54183298,-1.6764776,-0.21234825,0.93898714,-0.27057594,0
0.67836833,0.76604033,0.97637558,0.76897949,0.6277169,-0.12100421,0
-0.54671335,0.48070645,1.8631878,-0.063278973,0.26309645,0.96269202,0
-0.98582292,0.34092772,1.0781138,-0.99717063,0.02255246,-0.071708739,0
-0.36742866,0.846057,-1.4146414,-0.33000314,0.90484685,-0.26897943,0
0.056601018,-1.3339392,-1.759631,0.063278973,-0.26309645,-0.96269202,0
-0.36044443,0.059731364,-2.114888,0.063278973,-0.26309645,-0.96269202,0
0.19817078,-0.49932051,-1.8414536,0.063278973,-0.26309645,-0.96269202,0
0.97516674,-0.098214865,-1.8351671,0.063278973,-0.26309645,-0.96269202,0
-0.39802384,0.079875946,-2.0587606,0.063278973,-0.26309645,-0.96269202,0
-0.80013871,0.93066263,0.6554606,-0.5481813,0.79691333,-0.25382304,0
0.98538226,-0.45287156,-0.91646791,0.97862893,-0.17275497,0.11153919,0
0.82572842,-0.35712498,0.047356367,0.91431826,-0.37136319,0.1615901,0
-0.36924392,-0.33247316,-2.0920291,0.063278973,-0.26309645,-0.96269202,0
-0.45182508,-1.0667217,-1.0935601,-0.64088058,-0.75015986,0.16288704,0
0.89483172,-0.044157624,-0.73407751,0.98720342,0.1579802,0.021715403,0
-0.83638459,0.22505003,0.20514715,-0.99397999,0.069834083,-0.084420741,0
0.46102247,0.98335338,1.7351462,-0.063278973,0.26309645,0.96269202,0
-0.53084207,0.016549587,1.9685464,-0.063278973,0.26309645,0.96269202,0
0.31449538,-0.98563004,-0.23430812,0.41951162,-0.86825025,0.26486123,0
0.66223657,0.40186906,-2.0220916,0.4424991,0.87201911,-0.20923018,0
0.79142731,0.57584399,0.28382915,0.84251952,0.53113228,-0.089774519,0
1.0281463,-0.083850145,1.2246586,0.92880595,-0.33738935,0.15325755,0
0.14440843,-1.1598134,-1.0105927,0.12404895,-0.95507103,0.26916754,0
1.0210953,0.14746216,1.3152474,0.95932376,-0.24988991,0.13135064,0
-1.0004243,-0.4892801,-0.077026367,-0.92684722,-0.37318587,0.041065961,0
0.41803443,0.70905137,-1.415241,0.19617724,0.94908422,-0.24648255,0
-0.53898865,0.1631664,1.8373688,-0.063278973,0.26309645,0.96269202,0
0.45891875,0.82621413,-0.65382868,0.48290491,0.85225147,-0.2011719,0
-0.35363573,-1.1520088,-1.5926306,0.063278973,-0.26309645,-0.96269202,0
0.91982675,-0.3163929,0.48977077,0.92430401,-0.34833941,0.15595424,0
0.58208799,-1.0117337,-1.8112282,0.063278973,-0.26309645,-0.96269202,0
-0.41669494,0.12290239,-2.0905223,0.063278973,-0.26309645,-0.96269202,0
0.39241558,1.2318629,1.7897345,-0.063278973,0.26309645,0.96269202,0
0.40240949,-0.6081571,1.1508768,0.64410496,-0.72605884,0.24076414,0
0.25737816,0.47946334,1.9776177,-0.063278973,0.26309645,0.96269202,0
0.26648593,0.10167158,1.9922056,-0.063278973,0.26309645,0.96269202,0
0.078405857,-1.1655405,-1.8200819,0.063278973,-0.26309645,-0.96269202,0
-0.17850614,-0.12343359,2.2466104,-0.063278973,0.26309645,0.96269202,0
-1.0369558,0.24791241,0.27915215,-0.96622503,0.22530583,-0.12508565,0
-0.53802806,0.77020431,1.8546835,-0.063278973,0.26309645,0.96269202,0
-0.31891799,-0.43864119,-1.8062242,0.063278973,-0.26309645,-0.96269202,0
0.14137566,0.78313005,-1.2779872,-0.0026240945,0.96457803,-0.26378435,0
-1.0832167,-0.82701212,-1.5120445,-0.95269656,-0.30324751,0.020253211,0
0.16039951,-0.92033398,-0.29869178,0.07864058,-0.96031129,0.26761496,0
0.88150817,-0.42049432,-0.75473654,0.99171835,-0.091446668,0.090178668,0
-0.35393104,-1.2575918,-1.6887071,0.063278973,-0.26309645,-0.96269202,0
-0.86498761,-0.33109498,0.28322917,-0.76920772,-0.62745404,0.12091742,0
0.011029601,0.0192976,-2.2727039,0.063278973,-0.26309645,-0.96269202,0
-0.094599128,0.099686384,1.9245212,-0.063278973,0.26309645,0.96269202,0
-0.038006783,0.3031894,-2.0304258,0.063278973,-0.26309645,-0.96269202,0
0.1611917,-0.066846967,-2.1397519,0.063278973,-0.26309645,-0.96269202,0
0.97303069,-0.45750701,-0.80464005,0.98630053,-0.13075805,0.10056603,0
-0.078670979,-0.40117681,1.8397273,0.16960496,-0.94775826,0.27016348,0
0.80660003,-0.73974895,-1.3613563,0.96195793,-0.24080199,0.12904012,0
1.0406177,-0.5026592,-1.4174626,0.99003464,-0.10504994,0.093785703,0
0.3232795,0.35360432,1.7972572,-0.063278973,0.26309645,0.96269202,0
0.88008654,-0.52522099,-1.7582555,0.063278973,-0.26309645,-0.96269202,0
-0.70178509,0.9220525,1.8337473,-0.063278973,0.26309645,0.96269202,0
0.61543566,-0.056775093,2.0727463,-0.063278973,0.26309645,0.96269202,0
-0.41890132,-0.13955402,2.2864161,-0.063278973,0.26309645,0.96269202,0
-0.53438383,-0.44634449,-2.1424546,0.063278973,-0.26309645,-0.96269202,0
-0.34532487,1.3868757,1.6044302,-0.063278973,0.26309645,0.96269202,0
-0.64917707,-0.41206098,-2.0836849,0.063278973,-0.26309645,-0.96269202,0
-0.73543841,-0.20150077,-1.6619408,-0.97437203,0.19235364,-0.11661559,0
-0.5542019,0.65324807,1.7549489,-0.063278973,0.26309645,0.96269202,0
-0.59526652,0.6729883,-0.08528471,-0.63119239,0.73664141,-0.24280763,0
1.0342473,-0.44960093,-1.0546943,0.93713731,-0.31603596,0.14796942,0
0.17969108,-0.60476047,1.4460125,0.15628952,-0.95011091,0.2699312,0
0.81333756,-0.44128835,-2.0082183,0.063278973,-0.26309645,-0.96269202,0
0.90403694,-0.38655949,-0.50608259,0.9646039,-0.23131427,0.12662113,0
0.70849782,0.64109081,-0.065598354,0.7333101,0.6665653,-0.13396583,0
-0.28512198,1.4733918,1.7652115,-0.063278973,0.26309645,0.96269202,0
0.80736661,0.80883503,1.9876039,-0.063278973,0.26309645,0.96269202,0
-0.54148549,-1.0452781,-1.6795447,0.063278973,-0.26309645,-0.96269202,0
0.4713636,1.4074016,1.5654569,-0.063278973,0.26309645,0.96269202,0
-0.76853198,0.99795425,1.8885061,-0.063278973,0.26309645,0.96269202,0
0.71982521,-0.905496,-1.9607763,0.063278973,-0.26309645,-0.96269202,0
-0.56142938,-0.33587527,-2.1836205,0.063278973,-0.26309645,-0.96269202,0
-0.58548391,0.86543131,0.96039087,-0.60390812,0.75787598,-0.24681741,0
-0.087137729,-1.2160583,-1.3571794,-0.20940012,-0.94665283,0.24494886,0
-0.42522517,-1.15171,-1.7102759,0.063278973,-0.26309645,-0.96269202,0
-0.68514282,-0.55549425,-1.814445,-0.99309838,-0.11204714,-0.034656048,0
-0.34917575,-0.48670435,-1.9402407,0.063278973,-0.26309645,-0.96269202,0
-1.1084266,-0.26392013,0.89725173,-0.94434315,-0.32780939,0.027514905,0
-0.48839048,1.179105,1.8840649,-0.063278973,0.26309645,0.96269202,0
-0.28925896,-0.58255589,2.0927567,-0.20128393,-0.94816655,0.2458961,0
0.68127859,0.54012501,-1.8283418,0.41220623,0.88538945,-0.21487537,0
-1.1883464,0.54491222,0.95444435,-0.9387759,0.31165105,-0.1468789,0
0.099897563,0.17112207,1.9352406,-0.063278973,0.26309645,0.96269202,0
0.1885494,-0.073569298,2.231123,-0.063278973,0.26309645,0.96269202,0
-0.16900599,-0.36204374,-1.9992666,0.063278973,-0.26309645,-0.96269202,0
-0.33936095,-0.38284671,-2.1646686,0.063278973,-0.26309645,-0.96269202,0
-0.67251462,-0.31210822,-1.7868571,-0.96841729,0.21691963,-0.1229378,0
0.43627226,-0.13736749,-2.1562603,0.063278973,-0.26309645,-0.96269202,0
0.54384089,-0.23904788,1.8975273,0.78337002,-0.5845564,0.21124673,0
-0.20312694,-1.494818,-1.7616508,0.063278973,-0.26309645,-0.96269202,0
0.34413344,-0.67365515,0.87290466,0.19461071,-0.94285423,0.27046692,0
-1.0640378,0.5612551,1.4804407,-0.99781018,0.001927793,-0.066114247,0
-0.24758965,-0.45016122,-2.1111267,0.063278973,-0.26309645,-0.96269202,0
-0.59920108,0.24397427,-1.3759665,-0.65874577,0.71362031,-0.23832721,0
0.70229542,0.022724032,1.914382,0.74500352,-0.62939489,0.22097898,0
0.3798117,0.9867276,1.820529,-0.063278973,0.26309645,0.96269202,0
-0.29918075,1.0961306,0.17520845,-0.1723637,0.94724834,-0.27020556,0
-0.011024594,-0.081192732,1.9417281,-0.063278973,0.26309645,0.96269202,0
0.59753001,-0.21663857,-2.1836693,0.063278973,-0.26309645,-0.96269202,0
-0.11583591,0.70465851,-1.7110708,-0.18262595,0.94528419,-0.27034318,0
-0.12373412,0.7910322,1.8433884,-0.063278973,0.26309645,0.96269202,0
-0.36944902,0.051694989,-1.9259967,0.063278973,-0.26309645,-0.96269202,0
-0.66762185,-0.22562551,-1.9410024,0.063278973,-0.26309645,-0.96269202,0
-0.21351281,1.1692468,1.9484105,-0.063278973,0.26309645,0.96269202,0
0.80228782,0.6966784,1.0393777,0.81173462,0.57474327,-0.10371658,0
-0.92360556,0.84766626,1.6514401,-0.063278973,0.26309645,0.96269202,0
0.67633182,-0.19682634,-1.8914886,0.063278973,-0.26309645,-0.96269202,0
0.21669871,-0.50705874,-1.8298907,0.063278973,-0.26309645,-0.96269202,0
0.92478108,-0.4324379,-1.9200931,0.063278973,-0.26309645,-0.96269202,0
-0.052390397,-0.71261764,0.79659027,-0.17491609,-0.95261753,0.2488457,0
0.69154835,-0.5455845,1.3178589,0.75170994,-0.62193573,0.21938121,0
-0.5205164,-0.06265378,2.1731181,-0.063278973,0.26309645,0.96269202,0
-0.49908882,-0.52205485,0.71895492,-0.41149116,-0.88569069,0.21500471,0
-1.0119028,0.57243603,0.48020887,-0.83307409,0.51722974,-0.19611406,0
0.64843071,0.50879407,-1.2691295,0.60492802,0.77733189,-0.17267619,0
-1.018919,-0.025584579,1.2820681,-0.97857147,-0.20574829,-0.0080933571,0
-0.14092982,0.21993601,-2.227185,0.063278973,-0.26309645,-0.96269202,0
1.0679386,0.40918338,0.14009279,0.95220202,0.30476671,-0.020700961,0
-0.24350035,-0.28730142,2.0231991,-0.063278973,0.26309645,0.96269202,0
0.17682338,0.63813293,1.8108473,-0.063278973,0.26309645,0.96269202,0
0.98263955,0.30607945,-0.98046452,0.8062042,0.58205026,-0.10607708,0
-0.52931762,-0.58482724,0.46122241,-0.7245518,-0.67547184,0.13697557,0
-0.55041796,1.192544,1.7650042,-0.063278973,0.26309645,0.96269202,0
-0.61902356,-0.51383281,-1.9162958,0.063278973,-0.26309645,-0.96269202,0
0.57587361,0.15375876,-1.9544103,0.063278973,-0.26309645,-0.96269202,0
0.049942911,-0.90393919,0.87391931,0.23446751,-0.93370646,0.27058685,0
-0.83468634,-0.30336857,-2.1332858,0.063278973,-0.26309645,-0.96269202,0
-0.24789518,0.7932514,1.9286716,-0.063278973,0.26309645,0.96269202,0
-0.66507971,-1.3213077,-1.8063225,0.063278973,-0.26309645,-0.96269202,0
0.49458537,-1.0429775,-0.1460613,0.40613618,-0.87434787,0.26564848,0
-1.0361242,0.13186252,1.1588759,-0.98072982,-0.19504997,-0.011158943,0
-0.79105574,-0.36649072,1.329442,-0.67026538,-0.72589809,0.15432501,0
-0.73201215,0.98923671,0.041232824,-0.55592734,0.79181242,-0.25293815,0
-0.26141739,-0.85776478,1.3177909,-0.20392066,-0.94768226,0.24559045,0
0.90237999,-0.63349116,-1.8726009,0.063278973,-0.26309645,-0.96269202,0
-0.65632403,-0.92387813,-0.38594371,-0.55507416,-0.81093585,0.1851369,0
-0.32703954,-0.2230581,-2.1734049,0.063278973,-0.26309645,-0.96269202,0
0.22922397,1.2269173,0.049389303,0.29228729,0.92721307,-0.23418787,0
0.38602501,0.56328166,2.1309087,-0.063278973,0.26309645,0.96269202,0
-0.69544423,-0.38842916,2.0463371,-0.56708711,-0.8032428,0.18224479,0
-0.27331668,-1.1418732,-1.6551344,0.063278973,-0.26309645,-0.96269202,0
0.40447032,-1.4327191,-1.6699438,0.063278973,-0.26309645,-0.96269202,0
-0.050436378,0.21781456,2.1548707,-0.063278973,0.26309645,0.96269202,0
0.43226334,0.73350012,-0.0045458227,0.66498536,0.73040301,-0.15590322,0
-0.60170853,-0.95032305,-0.38948625,-0.67166364,-0.72469413,0.15390405,0
-0.8624649,0.78052843,1.7942545,-0.063278973,0.26309645,0.96269202,0
0.97747535,-0.54269493,-0.90223908,0.9112699,-0.37808019,0.16322541,0
0.55262387,-0.79497075,-1.930814,0.063278973,-0.26309645,-0.96269202,0
0.32929412,1.2535217,1.8786523,-0.063278973,0.26309645,0.96269202,0
0.87766159,-0.0052429438,0.15894067,0.9837597,-0.14590549,0.10453868,0
-0.090416431,0.4645896,-2.4143524,0.063278973,-0.26309645,-0.96269202,0
0.38370806,-0.57752377,1.1010582,0.44468695,-0.85614002,0.26320648,0
0.40153384,-1.526176,-1.626812,0.35497156,-0.89561123,0.26809645,0
0.55628419,-1.1697292,-1.3081857,0.53186619,-0.80733365,0.25559849,0
-0.31391916,1.0392458,1.712254,-0.063278973,0.26309645,0.96269202,0
1.0560896,0.088737249,-0.72043067,0.99470425,0.094907165,0.039445817,0
-0.94210654,0.9002738,1.8288378,-0.063278973,0.26309645,0.96269202,0
0.59348524,-1.1245394,-1.7644765,0.063278973,-0.26309645,-0.96269202,0
0.75804961,0.84937912,1.2230927,0.76824272,0.62856442,-0.12128428,0
-0.48261094,0.84596932,0.20755458,-0.61293119,0.75101757,-0.24553621,0
0.27707151,-1.2615905,-1.7697988,0.063278973,-0.26309645,-0.96269202,0
-0.98810875,0.13250005,0.10275584,-0.99793696,-0.027156353,-0.058174074,0
-0.3175382,0.68692219,1.7898424,-0.063278973,0.26309645,0.96269202,0
-0.40753821,0.9574523,1.7951026,-0.063278973,0.26309645,0.96269202,0
0.5659911,-1.0460185,-1.875314,0.063278973,-0.26309645,-0.96269202,0
0.76358604,0.3516041,-1.9826094,0.063278973,-0.26309645,-0.96269202,0
-0.79681665,0.73825073,1.8133726,-0.063278973,0.26309645,0.96269202,0
0.018727422,-0.13000035,-1.950606,0.063278973,-0.26309645,-0.96269202,0
-0.15705931,0.86215889,1.9483922,-0.063278973,0.26309645,0.96269202,0
1.1817696,0.21195471,-0.54882896,0.97606021,0.21744883,0.0047305822,0
0.31373978,0.1652298,-2.1963341,0.063278973,-0.26309645,-0.96269202,0
-0.21721214,0.4650811,2.0703793,-0.063278973,0.26309645,0.96269202,0
-0.84704053,-0.31979311,-2.0846028,0.063278973,-0.26309645,-0.96269202,0
-0.3733061,0.029471397,-2.1888611,0.063278973,-0.26309645,-0.96269202,0
-0.91241121,0.73783886,1.7992473,-0.063278973,0.26309645,0.96269202,0
-1.1254348,0.0029804707,0.11038274,-0.99773335,-0.038797647,-0.054979205,0
0.5668897,1.2471426,1.6942503,-0.063278973,0.26309645,0.96269202,0
0.275278,1.1290336,1.0071603,0.46371526,0.86192322,-0.20507649,0
-0.33353841,-0.059918165,2.2095351,-0.063278973,0.26309645,0.96269202,0
0.86166787,-0.68941855,0.63506985,0.74682343,-0.6273855,0.22054946,0
0.10848808,-0.7475152,-1.9699552,0.063278973,-0.26309645,-0.96269202,0
1.0154927,-0.41746473,-1.7087305,0.063278973,-0.26309645,-0.96269202,0
0.29971191,-1.1674058,-1.5996846,0.063278973,-0.26309645,-0.96269202,0
0.95395893,-0.56311393,-1.2637092,0.91931725,-0.36004218,0.15882474,0
0.30776918,0.77654791,-0.070469052,0.33237684,0.91511172,-0.22824556,0
0.37253511,-0.50458467,-1.9192026,0.063278973,-0.26309645,-0.96269202,0
-0.82673699,0.23777503,-0.062654674,-0.99081707,0.098929703,-0.092164516,0
0.10850059,1.5170785,1.8046809,-0.063278973,0.26309645,0.96269202,0
0.92586279,-0.53082365,0.46004117,0.87253237,-0.45365766,0.1813339,0
0.28442454,-0.009214282,-2.1845498,0.063278973,-0.26309645,-0.96269202,0
0.15427798,0.83144987,-0.7612952,0.048713207,0.96428967,-0.26033109,0
0.50034678,-1.192757,-0.56875455,0.47971767,-0.83785689,0.26051241,0
0.94884688,-0.88213301,-1.1378008,0.78684759,-0.58021486,0.21028882,0
-0.36729759,-0.28621697,-2.1544452,0.063278973,-0.26309645,-0.96269202,0
-0.1732547,-0.80450332,-1.8488581,0.063278973,-0.26309645,-0.96269202,0
0.71860743,-0.62663996,-1.7189537,0.063278973,-0.26309645,-0.96269202,0
-0.30729777,0.35087442,1.88825,-0.063278973,0.26309645,0.96269202,0
0.99105668,0.11441576,-1.5688252,0.82497001,0.55663317,-0.097897261,0
0.46215451,0.2096231,-2.2819674,0.063278973,-0.26309645,-0.96269202,0
-0.44192261,0.035892129,-2.2925634,0.063278973,-0.26309645,-0.96269202,0
0.15362537,0.88299072,1.9522148,-0.063278973,0.26309645,0.96269202,0
0.45270085,-1.2598712,-1.666567,0.063278973,-0.26309645,-0.96269202,0
-0.42392343,0.096113443,-2.1235991,0.063278973,-0.26309645,-0.96269202,0
0.3867873,-0.90039122,-1.9022362,0.063278973,-0.26309645,-0.96269202,0
-0.68761277,-1.1182148,-1.8915793,0.063278973,-0.26309645,-0.96269202,0
-0.382597,-0.77617073,-1.9427749,0.063278973,-0.26309645,-0.96269202,0
-1.1645479,0.43709826,2.0692341,-0.063278973,0.26309645,0.96269202,0
0.62407637,0.5934391,2.1193361,-0.063278973,0.26309645,0.96269202,0
-1.0676265,0.55773163,1.6741519,-0.063278973,0.26309645,0.96269202,0
0.63370132,-0.2607398,-1.7807317,0.063278973,-0.26309645,-0.96269202,0
0.74410063,-0.607853,-0.32725644,0.89046073,-0.42068619,0.17350149,0
-1.1644055,-0.031189322,0.20157492,-0.98248482,-0.18583098,-0.013793826,0
0.77686882,0.55495453,0.40656883,0.75411415,0.64443529,-0.12655038,0
0.71094579,-0.98315775,-0.51446879,0.51319915,-0.81873488,0.25748724,0
0.41242537,0.97767138,0.27636734,0.43425059,0.87577951,-0.21079999,0
0.22219616,-0.43803024,-1.8382432,0.063278973,-0.26309645,-0.96269202,0
-0.66197383,0.14321756,1.9250122,-0.063278973,0.26309645,0.96269202,0
-0.50680637,0.71537066,-0.5143317,-0.69010746,0.68529332,-0.23264712,0
-0.23412523,-1.1870741,-1.6366467,0.063278973,-0.26309645,-0.96269202,0
0.035316229,-0.051287055,1.9814749,-0.063278973,0.26309645,0.96269202,0
1.0355868,-0.24874365,-1.0341952,0.98519367,-0.13754383,0.10234779,0
0.69341862,0.8202889,1.7974608,-0.063278973,0.26309645,0.96269202,0
-0.22451812,1.5478196,1.4398848,-0.081205547,0.9600693,-0.26771736,0
-0.70237279,0.77716458,1.7003424,-0.063278973,0.26309645,0.96269202,0
-0.5971694,0.22999913,-1.7972993,-0.69956869,0.67626482,-0.23080164,0
-1.0351121,0.92689967,1.7372377,-0.063278973,0.26309645,0.96269202,0
-0.28797489,-0.85873008,-1.7750967,0.063278973,-0.26309645,-0.96269202,0
0.72290862,0.16580558,2.0476594,-0.063278973,0.26309645,0.96269202,0
-1.0793961,0.071391165,0.43278515,-0.99670327,0.032418519,-0.074374378,0
-0.41006446,-0.013724446,2.0349534,-0.063278973,0.26309645,0.96269202,0
0.30782628,0.40053308,1.8889811,-0.063278973,0.26309645,0.96269202,0
-0.37851986,-1.2371712,-1.0627266,-0.49283797,-0.84703732,0.19909397,0
-0.51948285,0.97345448,0.61558717,-0.55464935,0.79266101,-0.25308609,0
0.24755669,-0.01865685,-2.0294645,0.063278973,-0.26309645,-0.96269202,0
-0.064606458,-1.1340357,-1.7345552,0.063278973,-0.26309645,-0.96269202,0
0.45686832,1.0261273,2.0091801,-0.063278973,0.26309645,0.96269202,0
0.38575935,0.47437358,2.055804,-0.063278973,0.26309645,0.96269202,0
-0.17864081,-1.3032446,-1.8843769,0.063278973,-0.26309645,-0.96269202,0
1.0754722,-0.084755421,-1.9970334,0.063278973,-0.26309645,-0.96269202,0
-0.7406159,-0.73560077,-0.60361052,-0.68958294,-0.70884037,0.14839353,0
1.0893755,0.1530447,-1.4857025,0.80721593,0.58072436,-0.10564821,0
0.58024502,-1.124791,-0.37796193,0.39812607,-0.87789053,0.2660901,0
-0.85686171,0.12667656,2.03128,-0.063278973,0.26309645,0.96269202,0
0.37307233,1.138921,1.2706513,0.49110591,0.84795696,-0.19945917,0
0.065562963,0.74471307,-0.95667362,-0.14316171,0.95225573,-0.26965451,0
0.47325182,0.11594748,-1.8957187,0.063278973,-0.26309645,-0.96269202,0
-0.12701428,-1.3381009,-1.1629297,-0.25568622,-0.93670368,0.23918745,0
0.091253638,-0.174703,-1.9488518,0.063278973,-0.26309645,-0.96269202,0
-0.35617441,0.2337718,-2.0155361,0.063278973,-0.26309645,-0.96269202,0
1.1199794,0.15444073,0.62442011,0.99778795,-0.0030094683,0.066408396,0
-0.26014447,-0.55299127,1.5021235,-0.15357769,-0.9557023,0.25109136,0
0.72001052,-1.3979502,-1.1940665,0.51149011,-0.81975168,0.25765288,0
-0.69664448,0.14604843,-2.0962172,-0.79592359,0.56864452,-0.20772338,0
-0.40822211,-1.0830722,-1.7965901,0.063278973,-0.26309645,-0.96269202,0
0.818555,0.94119626,1.5562413,0.94604051,0.32299644,-0.02608797,0
-1.1015644,-0.036565661,1.5929666,-0.94695461,-0.32036918,0.02530992,0
-0.096589863,0.81620133,1.8792796,-0.063278973,0.26309645,0.96269202,0
0.21936166,0.2163825,2.2093303,-0.063278973,0.26309645,0.96269202,0
1.0874412,-0.021096945,-1.3123516,0.93562633,0.35130113,-0.03450799,0
-0.29256046,-0.41379452,-2.1240966,0.063278973,-0.26309645,-0.96269202,0
-0.91912484,0.017136246,-0.23437029,-0.99170214,-0.12473944,-0.031095564,0
-0.98939109,-0.29824817,0.46733883,-0.82299006,-0.55940062,0.098783746,0
-0.94772196,-0.05728966,-0.11057341,-0.99091208,0.098164111,-0.091961443,0
0.63998729,1.2758616,1.2096307,0.52790827,0.82744527,-0.19143441,0
-0.05795002,0.70592952,-1.5434729,-0.17136341,0.94743419,-0.27019048,0
0.84506696,0.10043395,0.41011435,0.99742252,-0.016021371,0.069940448,0
0.18345767,-0.493099,1.1291841,0.31260517,-0.91085649,0.26947814,0
0.1128666,1.3341882,1.6057916,-0.063278973,0.26309645,0.96269202,0
0.070970789,-1.3534223,-1.6807704,-0.057194173,-0.96399587,0.25969332,0
0.37744701,-0.28157675,-1.8019116,0.063278973,-0.26309645,-0.96269202,0
-0.42433178,-0.56693363,1.5475792,-0.22262764,-0.94403934,0.2433652,0
-0.24845281,-1.0817021,-1.8636731,0.063278973,-0.26309645,-0.96269202,0
-0.97553122,-0.13272393,0.69211048,-0.8656379,-0.49451816,0.078248575,0
-0.4690896,-0.39032388,-1.8663205,0.063278973,-0.26309645,-0.96269202,0
0.86901844,0.82431304,1.2903562,0.87605214,0.47670522,-0.072695851,0
-0.47055244,-0.54578298,1.6673532,-0.19126868,-0.94994092,0.24703932,0
-0.54900867,1.0753376,1.5320617,-0.56050134,0.78875279,-0.25240266,0
-0.23291844,-1.288291,-0.79213411,-0.39132482,-0.89391738,0.21857858,0
-0.19863415,-0.97469103,0.948524,-0.18623483,-0.95079398,0.24760336,0
-0.36676621,1.0886264,-0.27777457,-0.2813665,0.92079163,-0.27013993,0
-0.036855191,-0.97192293,-0.44506669,-0.095207632,-0.96181715,0.25659919,0
0.83519375,0.3776443,-1.1160433,0.68148971,0.7160992,-0.15090927,0
1.0200025,-0.62144357,-0.61166835,0.91913903,-0.36045289,0.15892524,0
-0.22950482,-0.55100667,2.0923684,-0.1376186,-0.95771039,0.25268912,0
0.87874687,-1.1493165,-1.7654434,0.60581028,-0.75644332,0.24655098,0
-0.4778519,1.1013069,0.41517746,-0.52732867,0.81015551,-0.25607139,0
-0.61255199,-0.91713154,0.32426792,-0.43582159,-0.87507021,0.21050292,0
0.78234863,-0.5913499,-0.33895189,0.84533417,-0.49860895,0.19183105,0
0.70643926,0.64922601,0.67940456,0.89063919,0.45011702,-0.064470679,0
-0.55009997,0.78811812,1.6190255,-0.063278973,0.26309645,0.96269202,0
0.45072061,-0.62945986,-2.0258291,0.063278973,-0.26309645,-0.96269202,0
-0.098917007,-0.8467294,-2.0366423,0.063278973,-0.26309645,-0.96269202,0
0.28149068,0.29579067,-2.1359522,0.063278973,-0.26309645,-0.96269202,0
-0.35061979,-0.8770479,-1.8462884,0.063278973,-0.26309645,-0.96269202,0
0.21113981,-1.0163095,-0.37320393,0.30758411,-0.91252685,0.26960462,0
-0.071031213,0.49340171,-1.5089282,0.060701072,0.96385396,-0.25942403,0
-0.1391077,-0.010038257,2.2314477,-0.063278973,0.26309645,0.96269202,0
0.62713027,0.38012105,-1.1001645,0.57118171,0.80056369,-0.18124349,0
0.75436521,0.4940598,1.8423862,0.99191642,0.12289152,0.031614661,0
0.39043003,-1.0727917,-1.9548861,0.063278973,-0.26309645,-0.96269202,0
-0.70945191,-0.5876261,0.45540223,-0.68499225,-0.71297807,0.14982606,0
0.9959749,0.053426862,-1.3465109,0.84040904,0.53429586,-0.090777829,0
0.85713512,-0.31665373,-1.9907842,0.063278973,-0.26309645,-0.96269202,0
0.088208124,1.4340466,1.5541537,-0.063278973,0.26309645,0.96269202,0
0.185599,-1.2646215,-1.6339481,0.063278973,-0.26309645,-0.96269202,0
0.79481828,0.31222099,0.54915273,0.99585801,0.079751074,0.043663621,0
0.78855932,0.48044455,2.0789413,-0.063278973,0.26309645,0.96269202,0
-0.33103108,-0.42825484,1.7501357,-0.18655849,-0.95073986,0.2475673,0
0.53379804,1.1435388,1.9035587,-0.063278973,0.26309645,0.96269202,0
-0.13989863,1.1458266,0.91874504,-0.0380072,0.96329021,-0.26575816,0
0.56381255,-0.40791464,-1.7979363,0.063278973,-0.26309645,-0.96269202,0
-0.40266812,0.17830789,-2.0983942,0.063278973,-0.26309645,-0.96269202,0
-1.035504,0.54853791,0.42124414,-0.95590651,0.2612052,-0.13421839,0
0.72170603,-1.1594361,-0.93430007,0.54621434,-0.79819274,0.2540434,0
0.53660929,-0.38560855,1.936774,0.66103047,-0.71163571,0.23793519,0
-0.069393307,-0.91102397,-1.8267531,0.063278973,-0.26309645,-0.96269202,0
-0.98300749,-0.62348461,-0.8418442,-0.97121131,-0.23821591,0.0012635887,0
0.31683671,1.1370069,1.2842084,0.38931632,0.89470881,-0.21892682,0
0.30542779,-0.100366,2.0590103,-0.063278973,0.26309645,0.96269202,0
0.9504261,-0.58056152,-0.90527451,0.97114754,-0.20600891,0.12013549,0
-0.22696543,-0.5579294,2.3010864,-0.063278973,0.26309645,0.96269202,0
0.69465297,-0.73710191,-2.0061367,0.063278973,-0.26309645,-0.96269202,0
0.71111751,0.053471446,-2.1972334,0.063278973,-0.26309645,-0.96269202,0
0.26557994,-0.61592078,-2.0904419,0.063278973,-0.26309645,-0.96269202,0
0.027093768,0.29272044,-1.9999651,-0.071265519,0.96097153,-0.26731062,0
0.38485157,-0.88052487,-1.8591487,0.063278973,-0.26309645,-0.96269202,0
-0.69132042,1.0592693,0.93429065,-0.41752574,0.86917007,-0.2649821,0
0.91334367,0.6302982,1.674356,0.93207014,0.36036122,-0.037217766,0
-0.81225759,-0.62921566,-0.60271001,-0.79160273,-0.60066086,0.11212298,0
1.1868358,0.19963217,-1.3308432,0.89963245,0.43262997,-0.059100464,0
-0.99206531,-0.035507858,-1.3631086,-0.91247916,0.37543184,-0.16258115,0
-0.63570154,-0.32831395,1.1740537,-0.61222184,-0.77202958,0.1707477,0
0.79876393,-0.00027704239,-1.1132457,0.9499054,0.31170839,-0.022748977,0
-0.54005575,1.1503196,0.29866791,-0.43180537,0.86244124,-0.26408184,0
-0.4849287,-1.1486226,-1.9630325,0.063278973,-0.26309645,-0.96269202,0
1.0174851,0.13214791,-1.3988612,0.86025465,0.50338513,-0.08102566,0
0.67860025,-0.90747952,-1.8813274,0.063278973,-0.26309645,-0.96269202,0
0.19532418,0.23234272,1.8228925,-0.063278973,0.26309645,0.96269202,0
-1.2620493,0.38599181,1.9148765,-0.063278973,0.26309645,0.96269202,0
0.034275532,-0.35022557,-2.1855369,0.063278973,-0.26309645,-0.96269202,0
0.97403461,-0.71194756,-1.9403753,0.063278973,-0.26309645,-0.96269202,0
1.1696644,-0.003764987,-0.95091408,0.97578144,0.21870369,0.0043693483,0
-0.35941041,-0.14726651,2.1941516,-0.063278973,0.26309645,0.96269202,0
0.61168122,-0.26561472,0.91185594,0.716443,-0.65956283,0.22734618,0
0.45839739,0.6260854,-0.53176916,0.3348037,0.91432035,-0.22786972,0
0.44637519,-0.42794573,1.7745763,0.66913348,-0.70449972,0.23651743,0
0.35704875,1.2085279,0.1417917,0.40634197,0.88784015,-0.21593064,0
0.41967607,0.92491007,-0.94038332,0.39795935,0.89126742,-0.21741825,0
-1.1302255,0.2519598,1.7846954,-0.99784523,-0.033439219,-0.056451023,0
-0.83461994,-0.15314937,-1.8392347,-0.96695441,0.22255027,-0.12438047,0
-0.66712344,0.69346321,1.9871361,-0.063278973,0.26309645,0.96269202,0
-0.79358459,0.56370473,1.8347247,-0.063278973,0.26309645,0.96269202,0
0.057380766,-1.0654956,-1.8250712,0.063278973,-0.26309645,-0.96269202,0
-0.79003853,-0.81305057,-1.1864635,-0.89242315,-0.44671953,0.06342493,0
0.060625404,-1.149773,-1.7382817,0.063278973,-0.26309645,-0.96269202,0
0.37715578,0.19233489,-1.9332885,0.063278973,-0.26309645,-0.96269202,0
0.48033798,-0.3270154,-1.8397205,0.063278973,-0.26309645,-0.96269202,0
-0.022730052,-0.35761416,-1.8135588,0.063278973,-0.26309645,-0.96269202,0
-0.072844803,-0.48794746,-2.1009936,0.063278973,-0.26309645,-0.96269202,0
0.81081223,-0.070886895,0.91393113,0.98217165,-0.15467933,0.10683209,0
-0.42413446,1.2876805,1.5213948,-0.43930131,0.85880148,-0.26357985,0
0.32174307,1.5319405,1.5324342,0.51747578,0.83347058,-0.19376688,0
0.23585738,1.2893016,1.9343567,-0.063278973,0.26309645,0.96269202,0
0.27932543,-1.1392208,-1.6389809,0.063278973,-0.26309645,-0.96269202,0
-0.61721772,1.0422301,1.693707,-0.063278973,0.26309645,0.96269202,0
1.1615443,-0.095211983,-1.4724579,0.95946687,0.28148055,-0.013859451,0
-0.068937659,0.08292377,-2.1732554,0.063278973,-0.26309645,-0.96269202,0
-0.099169418,-1.1166966,-1.5822802,0.063278973,-0.26309645,-0.96269202,0
-0.80232453,0.16201591,1.7951462,-0.063278973,0.26309645,0.96269202,0
-0.46020031,0.46629751,-2.0288863,-0.52208936,0.81337303,-0.25660628,0
0.94442409,-0.059379935,-1.2498167,0.918966,0.39157262,-0.046609014,0
-0.32220018,1.4414694,1.6057698,-0.20142147,0.9414078,-0.27051926,0
-0.38876066,-0.86381292,-1.9348516,0.063278973,-0.26309645,-0.96269202,0
-0.16491723,0.63679397,2.0800567,-0.063278973,0.26309645,0.96269202,0
0.85194218,-0.0068168789,0.47754455,0.96308804,-0.23679596,0.12801963,0
-0.60163873,-0.62890261,-1.7505687,0.063278973,-0.26309645,-0.96269202,0
0.37839839,-1.0893869,-1.5742047,0.063278973,-0.26309645,-0.96269202,0
0.58337998,0.32508862,-2.1030734,0.063278973,-0.26309645,-0.96269202,0
0.74085444,-1.0493197,-0.42982459,0.53981721,-0.80230957,0.25474805,0
-0.70022368,-0.73218876,0.41711056,-0.50388187,-0.84106934,0.19673705,0
0.85852689,-1.1350282,-1.8035192,0.063278973,-0.26309645,-0.96269202,0
0.76296622,0.25701535,1.3413401,0.97991443,-0.16640893,0.10988933,0
0.39012289,0.1957972,-1.9028709,0.063278973,-0.26309645,-0.96269202,0
-0.43415862,0.65817344,2.0575712,-0.063278973,0.26309645,0.96269202,0
-0.56115723,-1.1937337,-1.6305053,0.063278973,-0.26309645,-0.96269202,0
-0.022983253,-0.69139242,-2.0835607,0.063278973,-0.26309645,-0.96269202,0
0.27934042,1.2921183,1.6393418,-0.063278973,0.26309645,0.96269202,0
0.86689699,-0.95575345,-1.7703676,0.063278973,-0.26309645,-0.96269202,0
-0.87080348,0.40100071,-1.3298413,-0.77944648,0.5893954,-0.21231139,0
-1.0382028,0.37040007,0.48589522,-0.97189021,0.20294279,-0.11934632,0
0.90099788,0.27212161,1.3030047,0.96312869,-0.23665062,0.12798256,0
-0.74887884,-0.52657658,1.4207268,-0.76202089,-0.63564169,0.12362742,0
0.61990291,-0.25660795,1.5779085,0.68237627,-0.6924997,0.23410839,0
-0.17416543,0.85039651,1.9287484,-0.063278973,0.26309645,0.96269202,0
0.98667878,-0.48832548,-1.9893073,0.063278973,-0.26309645,-0.96269202,0
0.28315538,-0.34634149,-1.7950599,0.063278973,-0.26309645,-0.96269202,0
-0.40385365,-0.47388375,1.6049312,-0.51063001,-0.83733249,0.19527228,0
0.29910177,-0.8551532,0.56886762,0.49468693,-0.82951295,0.25921595,0
-0.38312757,-0.98939252,-0.73928219,-0.56750184,-0.80297273,0.18214372,0
0.15861797,0.054096341,-1.8943197,0.063278973,-0.26309645,-0.96269202,0
-0.97904915,-0.50855756,0.66118568,-0.84640038,-0.52524132,0.08790943,0
1.1385294,-0.49599314,-0.90420938,0.99743575,-0.015641719,0.06983757,0
-0.43399978,0.5652523,1.8998139,-0.063278973,0.26309645,0.96269202,0
-0.077354908,-0.068003893,-1.8991306,0.063278973,-0.26309645,-0.96269202,0
-0.93366486,0.48202419,2.0848837,-0.063278973,0.26309645,0.96269202,0
-0.31144905,-1.1613101,-1.7805173,0.063278973,-0.26309645,-0.96269202,0
0.26636899,-0.49944538,1.3649186,0.22911605,-0.935031,0.27059704,0
-0.38290873,1.3341019,1.4712924,-0.37564498,0.88740522,-0.26721281,0
0.36027119,0.60693669,1.8338383,-0.063278973,0.26309645,0.96269202,0
-0.67421472,1.1072023,0.70839924,-0.5310716,0.8078301,-0.25568187,0
0.77289164,0.46351039,1.3217374,0.99592245,-0.045500726,0.077898264,0
0.17321974,0.62486887,1.7664418,-0.063278973,0.26309645,0.96269202,0
1.1033684,-0.52224195,-0.65025115,0.95607698,-0.26065215,0.1340785,0
-0.76233292,-0.54723746,1.4629164,-0.5836935,-0.79219335,0.17813352,0
0.44386339,-0.35323143,-2.1394098,0.063278973,-0.26309645,-0.96269202,0
-0.90343082,-0.67793489,-2.0059073,-0.99637359,-0.071632564,-0.045916319,0
0.0039391518,0.3372947,2.1448557,-0.063278973,0.26309645,0.96269202,0
0.43593892,-1.4786679,-1.4894645,0.32765108,-0.90567958,0.26905239,0
0.3555429,0.47184432,-1.9866399,0.063278973,-0.26309645,-0.96269202,0
0.68123955,-0.4147948,-2.0080552,0.063278973,-0.26309645,-0.96269202,0
-0.85190427,-0.59923059,-1.5337222,-0.98195571,-0.18866462,-0.012984633,0
-0.59700441,-0.182446,-2.0162189,0.063278973,-0.26309645,-0.96269202,0
-0.14136577,0.23203182,2.16381,-0.063278973,0.26309645,0.96269202,0
-0.84704769,0.22626913,1.088233,-0.98300362,-0.18300468,-0.014600337,0
0.52530062,-0.60401654,-1.8945497,0.063278973,-0.26309645,-0.96269202,0
0.8820678,-0.012106657,-0.42402989,0.96382219,0.26637846,-0.0094459355,0
-0.14135653,0.59545636,-1.2149746,-0.36552304,0.89148712,-0.26766294,0
-0.2636252,-0.082300305,-1.9525903,0.063278973,-0.26309645,-0.96269202,0
0.17867553,0.57014132,-2.028645,0.063278973,-0.26309645,-0.96269202,0
0.14471433,-1.0046937,-0.17375737,0.25664276,-0.92789435,0.27045602,0
-0.80937713,0.24700731,0.33086562,-0.9857924,0.13391179,-0.10139453,0
0.51874137,-0.040156841,1.7838577,0.77564931,-0.59402043,0.21332574,0
0.14044219,-0.74826431,0.55257469,0.09241277,-0.9589361,0.26814437,0
0.39833248,0.010149598,-2.0016315,0.063278973,-0.26309645,-0.96269202,0
-0.12399518,0.038394928,1.974684,-0.063278973,0.26309645,0.96269202,0
0.91811782,0.33770347,-0.83599579,0.92961323,0.3664622,-0.039046645,0
0.62529111,0.059345484,-1.8729377,0.063278973,-0.26309645,-0.96269202,0
0.68510473,1.1408167,0.7961266,0.55161083,0.81310821,-0.18595822,0
0.40811935,1.0921782,0.39608824,0.37172693,0.90142715,-0.22191912,0
-0.18431237,0.96081543,1.7247584,-0.063278973,0.26309645,0.96269202,0
-0.33002555,-0.56697404,2.0062563,-0.063278973,0.26309645,0.96269202,0
0.22692984,1.2820944,0.33793229,0.16664124,0.95386839,-0.24973148,0
0.43492371,0.9284727,-0.53274524,0.48560905,0.85084629,-0.20061016,0
-1.1969669,0.76807201,1.4644353,-0.98628247,0.13087103,-0.10059571,0
0.97664601,0.0040793419,-1.0208337,0.87247944,0.48291841,-0.074628726,0
-0.86399364,0.37979963,-0.29780519,-0.87032521,0.45751628,-0.18224335,0
0.94372398,-0.91171956,-1.8361285,0.063278973,-0.26309645,-0.96269202,0
0.51358557,-0.82713401,0.72562617,0.37306035,-0.88845944,0.267331,0
0.74498475,-0.99597478,-1.5759141,0.063278973,-0.26309645,-0.96269202,0
0.97796142,-0.59594643,-1.7367439,0.063278973,-0.26309645,-0.96269202,0
0.6854316,1.10464,1.8191316,0.84825534,0.52239102,-0.087008558,0
-0.40021732,0.85954708,-0.14906538,-0.33061209,0.9046303,-0.26896018,0
0.59951276,0.72388816,1.8257527,-0.063278973,0.26309645,0.96269202,0
0.68900907,-0.87185431,-1.7296325,0.063278973,-0.26309645,-0.96269202,0
0.81986892,0.035953812,0.36380041,0.96752727,-0.22036225,0.12382019,0
-0.25838184,0.12879908,-2.2832799,0.063278973,-0.26309645,-0.96269202,0
0.49523222,0.36607397,-1.7458954,0.56751943,0.80296135,-0.18213944,0
0.49868917,0.683038,2.1115115,-0.063278973,0.26309645,0.96269202,0
-0.026492655,-0.46061075,-1.749115,0.063278973,-0.26309645,-0.96269202,0
0.26467395,0.39002562,-1.5252198,0.094712198,0.9618547,-0.25664204,0
-0.46728474,-0.24576831,-1.9429284,0.063278973,-0.26309645,-0.96269202,0
0.82075232,-0.35284659,0.54168111,0.92075628,-0.35670871,0.15800828,0
0.33401763,-1.25737,-0.85243392,0.30160677,-0.91447848,0.26974505,0
-0.29589385,0.83708572,1.9534299,-0.063278973,0.26309645,0.96269202,0
-0.65425128,-0.84547359,-0.52906787,-0.83826858,-0.53747636,0.091787726,0
-0.12021213,1.4377761,1.026044,-0.16200298,0.94912326,-0.27003688,0
0.6366607,0.27147472,-2.2678826,0.063278973,-0.26309645,-0.96269202,0
-0.99221611,0.96228075,1.5691034,-0.063278973,0.26309645,0.96269202,0
0.88922763,-0.24019217,-1.7956676,0.92314774,0.38195306,-0.043705165,0
0.88899678,-0.66265953,-1.9717952,0.063278973,-0.26309645,-0.96269202,0
-1.1556641,0.068850458,-0.12715304,-0.9944877,0.064186931,-0.082910776,0
0.21510231,1.120934,1.8703308,-0.063278973,0.26309645,0.96269202,0
0.66699392,0.85897803,0.5864774,0.76428854,0.63307863,-0.12277788,0
-0.95975089,-0.25207064,-1.016099,-0.98566508,-0.16764346,-0.018973351,0
-0.59134245,-0.82813144,-1.7423151,0.063278973,-0.26309645,-0.96269202,0
0.81847394,-0.55729485,-1.7355253,0.063278973,-0.26309645,-0.96269202,0
0.20321965,-1.2904803,-1.8626211,0.063278973,-0.26309645,-0.96269202,0
0.65567255,0.40170842,-0.43445399,0.75031137,0.64858723,-0.12793501,0
0.21139629,-1.2713993,-1.5673455,0.063278973,-0.26309645,-0.96269202,0
-0.39427829,-0.24852192,2.0412722,-0.063278973,0.26309645,0.96269202,0
0.10703754,0.89486647,1.9657149,-0.063278973,0.26309645,0.96269202,0
-0.12649772,-1.3981767,-0.76498628,-0.32592458,-0.91718268,0.22923565,0
0.42661107,0.51399887,-2.1204696,0.063278973,-0.26309645,-0.96269202,0
-0.87771678,0.96538329,1.9099683,-0.063278973,0.26309645,0.96269202,0
0.7976855,0.76806927,0.18634203,0.86756063,0.4912965,-0.077241719,0
0.21769845,0.11185312,1.9577005,-0.063278973,0.26309645,0.96269202,0
0.46315473,-1.5090653,-1.265169,0.37100512,-0.88929176,0.26742339,0
1.132329,-0.27447194,-0.46483052,0.992881,0.11413279,0.034071743,0
1.2657893,-0.41056764,-1.0278436,0.97327316,-0.19710973,0.11784309,0
0.66157383,0.68314481,2.0319276,-0.063278973,0.26309645,0.96269202,0
0.91402483,0.3916257,0.91188592,0.97643465,0.21574995,0.0052195191,0
-0.88986379,-0.081326842,1.6980157,-0.85322338,-0.51464409,0.08456485,0
0.92026621,-0.88200361,-0.39322335,0.73864788,-0.63632739,0.22245586,0
0.33280337,0.28342426,1.9188106,-0.063278973,0.26309645,0.96269202,0
-0.81433654,-0.21103299,2.0524096,-0.77199137,-0.62423104,0.11985362,0
0.45298576,-1.2167703,-1.5676466,0.063278973,-0.26309645,-0.96269202,0
-0.39709169,-0.80127978,-1.9899263,0.063278973,-0.26309645,-0.96269202,0
0.15808716,1.519073,1.4688615,0.3616575,0.90510398,-0.22358584,0
-0.1917191,-1.2672474,-1.764473,0.063278973,-0.26309645,-0.96269202,0
-0.80951452,0.10131657,2.0115807,-0.063278973,0.26309645,0.96269202,0
-0.88625193,0.58184463,0.71330118,-0.9713254,0.20527905,-0.11994773,0
0.28016162,0.021536231,-2.2609921,0.063278973,-0.26309645,-0.96269202,0
-0.2675834,1.0242836,-0.097595215,-0.084804475,0.9597187,-0.26785821,0
0.2635048,-0.82077706,-1.9759804,0.063278973,-0.26309645,-0.96269202,0
-0.26968527,-0.21958065,2.0210221,-0.063278973,0.26309645,0.96269202,0
-0.4393605,-0.58290833,1.5507582,-0.28752601,-0.92853057,0.23486096,0
-0.09907937,0.14439762,1.9166304,-0.063278973,0.26309645,0.96269202,0
-0.59172499,-0.20955133,-1.9362485,0.063278973,-0.26309645,-0.96269202,0
-0.34747726,1.1136181,0.85566795,-0.27858755,0.92162311,-0.27018458,0
0.48186371,-0.44494835,1.1867235,0.60459125,-0.75736225,0.24672198,0
0.69300759,-1.0368038,-1.4718226,0.81484985,-0.5433203,0.20204645,0
0.69142467,1.2135295,1.9558607,-0.063278973,0.26309645,0.96269202,0
0.95485413,0.29178298,2.1186001,-0.063278973,0.26309645,0.96269202,0
0.7092191,0.59864902,1.0880995,0.89350963,0.44463316,-0.062783301,0
-0.55009305,0.22184908,2.0978718,-0.063278973,0.26309645,0.96269202,0
-0.82681018,-0.30851781,-1.9228456,0.063278973,-0.26309645,-0.96269202,0
0.39587629,-1.6166812,-1.4893527,0.27330092,-0.92318171,0.27026296,0
0.23820555,0.56041443,-2.1975906,-0.10084593,0.95800215,-0.26844341,0
0.47181046,-0.4496057,-1.8533132,0.063278973,-0.26309645,-0.96269202,0
0.99978077,-0.7767334,-0.57136911,0.7540375,-0.61931133,0.21881694,0
-0.13472214,1.2282438,1.6286802,-0.063278973,0.26309645,0.96269202,0
0.11259547,-1.0940886,-1.8023832,0.063278973,-0.26309645,-0.96269202,0
0.78912199,0.3804667,-1.2189999,0.85748035,0.50787014,-0.082433775,0
0.4620848,0.50826287,1.9917563,-0.063278973,0.26309645,0.96269202,0
0.8292799,-0.059283115,0.75589943,0.95669854,-0.25862724,0.13356596,0
-0.6887058,0.26302958,1.9748855,-0.063278973,0.26309645,0.96269202,0
-0.53787261,1.296955,1.117821,-0.51899636,0.81525242,-0.25691664,0
0.9109388,-0.16905332,-0.12951398,0.95822239,-0.2535927,0.13229018,0
-0.01053822,0.75689971,2.0305195,-0.063278973,0.26309645,0.96269202,0
0.79926896,0.90902168,1.705759,0.93610042,0.35007173,-0.034140795,0
-1.1670799,0.54301536,1.3455375,-0.95412159,0.26692188,-0.13566339,0
0.54710203,-0.78677905,-1.9181712,0.063278973,-0.26309645,-0.96269202,0
0.075482845,-0.20999992,-1.975736,0.063278973,-0.26309645,-0.96269202,0
-0.92250556,0.98722184,1.2168747,-0.67402756,0.70011443,-0.23564065,0
-0.97047114,0.29527569,0.23824978,-0.91205311,0.37636733,-0.16280884,0
0.826195,-0.48149011,0.14687318,0.86593455,-0.46507397,0.18402022,0
-0.8627764,-0.42220253,0.42086935,-0.93212712,-0.36021796,0.037174881,0
0.30769399,1.2003529,1.0785711,0.23174554,0.9421314,-0.24224442,0
0.64823353,0.54904276,-1.3550596,0.44338137,0.87161142,-0.20906076,0
1.0541003,-0.36697018,-1.6856446,0.97197282,0.23509252,-0.00035992265,0
0.29336643,-1.3248563,-1.8042992,0.063278973,-0.26309645,-0.96269202,0
0.075901747,-1.361999,-1.2867532,0.094808698,-0.95867783,0.26823127,0
0.78356588,-0.097278476,-2.0769331,0.063278973,-0.26309645,-0.96269202,0
0.53695524,-1.1991918,-0.95993978,0.26208591,-0.92638743,0.27040195,0
-0.40699655,-0.44557226,-1.8685634,0.063278973,-0.26309645,-0.96269202,0
-0.80835634,-0.23258644,0.86649084,-0.88577372,-0.4592154,0.067277029,0
-0.014531374,1.0147638,0.2221368,0.079054177,0.96291554,-0.25796121,0
0.53287244,0.27965045,2.0080111,-0.063278973,0.26309645,0.96269202,0
-0.86303246,0.1899904,1.9812479,-0.063278973,0.26309645,0.96269202,0
0.05762732,-0.046065688,2.1108317,-0.063278973,0.26309645,0.96269202,0
-0.30835328,-1.1227049,-0.25608736,-0.19443947,-0.94939029,0.24668044,0
-0.84242541,-0.20904523,-1.4667486,-0.941504,0.30420151,-0.14502227,0
0.54664183,0.38590312,-2.0790579,0.48053598,0.8534739,-0.20166168,0
1.0930324,-0.3837719,-2.0639603,0.063278973,-0.26309645,-0.96269202,0
0.86604762,0.24677861,-1.8649604,0.64125359,0.74986398,-0.16278173,0
0.60750532,-1.0132736,-0.31160903,0.39101729,-0.88096672,0.26646364,0
-0.71588552,0.70326865,-0.13365722,-0.81611693,0.54156309,-0.20164955,0
0.47145241,-1.1660655,-0.43039733,0.33454642,-0.90322042,0.26883352,0
-0.7413618,-1.0217028,-1.3935009,-0.7334916,-0.66637832,0.13390277,0
-0.2471863,-0.024465203,-2.2834048,0.063278973,-0.26309645,-0.96269202,0
-1.0825973,-0.36890793,-1.6664932,-0.99762398,0.0096544623,-0.068213582,0
-0.45834744,0.014129043,1.9585671,-0.063278973,0.26309645,0.96269202,0
0.080456018,0.37275589,-2.1252375,0.063278973,-0.26309645,-0.96269202,0
-0.53146142,0.81694871,-0.53271127,-0.51723152,0.81631815,-0.25709194,0
-0.92628932,0.50295472,-0.33048218,-0.74699128,0.62719959,-0.22050965,0
-0.76492727,0.31845537,0.11447895,-0.85762644,0.47896415,-0.18727016,0
-0.6184029,0.97856396,0.70757151,-0.60139328,0.75975949,-0.24716693,0
-0.42342103,-0.21039164,2.1431813,-0.063278973,0.26309645,0.96269202,0
-0.51153755,-0.87982821,-1.6670597,0.063278973,-0.26309645,-0.96269202,0
-0.29098988,0.31207561,2.0518355,-0.063278973,0.26309645,0.96269202,0
-0.29653358,0.55261499,-1.7751368,-0.45778358,0.84950399,-0.26225376,0
-0.89651036,0.4885633,0.20575416,-0.87440395,0.45035321,-0.18055385,0
0.49821866,-0.057061911,-2.173358,0.063278973,-0.26309645,-0.96269202,0
0.64121681,-0.96289623,-1.9162145,0.063278973,-0.26309645,-0.96269202,0
-0.8197068,-0.32090294,-0.26327315,-0.98740125,-0.15668806,-0.022081554,0
0.13047278,0.20425701,1.9468566,-0.063278973,0.26309645,0.96269202,0
-0.057939261,-1.2211221,-0.38758859,0.015016556,-0.96426505,0.26451343,0
0.0037919283,-1.1880622,0.051724255,0.025221348,-0.96389556,0.26508319,0
-0.32734004,-1.2527279,-1.6209393,0.063278973,-0.26309645,-0.96269202,0
0.83880687,-0.62567616,-1.7431444,0.063278973,-0.26309645,-0.96269202,0
0.76056367,-1.1603622,-0.91275024,0.67992848,-0.69475013,0.23456258,0
-0.1576885,-0.095739484,1.8949507,-0.063278973,0.26309645,0.96269202,0
0.71023959,0.78267097,1.8861043,-0.063278973,0.26309645,0.96269202,0
0.24974757,0.16348577,2.0170991,-0.063278973,0.26309645,0.96269202,0
0.065613568,-0.59286559,0.82179499,0.15133595,-0.95094049,0.26983231,0
-1.116864,0.25964355,2.0953546,-0.063278973,0.26309645,0.96269202,0
0.688182,-0.98498094,-1.6335239,0.063278973,-0.26309645,-0.96269202,0
0.85469794,-0.13456845,-1.956455,0.063278973,-0.26309645,-0.96269202,0
-0.76563561,1.0307,1.6902825,-0.063278973,0.26309645,0.96269202,0
0.053791523,-0.16106117,2.2122707,-0.063278973,0.26309645,0.96269202,0
0.97082973,-0.18472099,-1.9691142,0.063278973,-0.26309645,-0.96269202,0
