0.90693998,-0.22259957,0.76400161,0.1739593,-0.15760905,0.97205853,0
-2.3241649,-0.98309863,0.0060771704,-0.079219639,-0.8860184,-0.45683235,0
-2.462316,-0.062073708,1.3147305,0.17536274,-0.082657158,0.98102796,0
3.7430997,-0.22419691,-1.610285,-0.17550208,-0.0407812,-0.98363417,0
4.4863935,0.37182713,-1.5214936,0.98443109,0.0025991201,-0.17575204,0
-4.1647811,-0.50165606,1.8286859,0.15725636,-0.45971334,0.87403345,0
0.14891285,-0.48975396,-1.1046767,-0.1646378,-0.33656842,-0.9271549,0
-4.1707087,0.068731308,1.7142302,-0.98443109,-0.0025991201,0.17575204,0
0.72293532,-0.48805809,0.53907931,0.14641625,-0.56534916,0.81175297,0
4.6432972,-0.56166506,0.067832232,0.98443109,0.0025991201,-0.17575204,0
-4.3410273,0.80871773,0.68360144,-0.98443109,-0.0025991201,0.17575204,0
4.5953717,0.39150572,-0.25717276,0.98443109,0.0025991201,-0.17575204,0
4.3235373,0.6389122,-0.40283769,0.98443109,0.0025991201,-0.17575204,0
-4.2877684,-0.33537245,1.554211,-0.98443109,-0.0025991201,0.17575204,0
-4.1746378,-0.61819696,1.3108748,-0.98443109,-0.0025991201,0.17575204,0
4.6189027,0.99374723,-0.72817618,0.98443109,0.0025991201,-0.17575204,0
4.3550429,0.22930765,-1.4864156,0.98443109,0.0025991201,-0.17575204,0
3.6477664,-0.82991767,-0.051464081,0.095050156,-0.84895653,0.51984447,0
-1.1709203,-0.055043459,1.3931997,0.17457868,-0.1307369,0.97592533,0
-4.3723373,0.5727787,1.0122995,-0.98443109,-0.0025991201,0.17575204,0
1.679009,-1.1341596,-0.45593396,-0.025579691,-0.98712742,-0.1578774,0
2.0893745,0.80170846,-0.20414799,0.03962332,0.97087228,0.23629892,0
3.7979436,-0.5009532,-1.5829858,-0.13449377,-0.63262647,-0.76268947,0
-2.0752747,0.98461866,0.029333293,-0.061998665,0.94076014,-0.33335686,0
-4.5525217,1.0113029,0.77619612,-0.98443109,-0.0025991201,0.17575204,0
-0.75321227,-0.94411314,0.65019584,0.073760688,-0.91370022,0.39963907,0
4.4309359,0.61395049,-0.46378425,0.98443109,0.0025991201,-0.17575204,0
-4.5774727,-0.22025442,0.09423542,-0.98443109,-0.0025991201,0.17575204,0
4.2016096,0.49059486,-1.7251618,0.98443109,0.0025991201,-0.17575204,0
-1.7466323,0.52252209,-0.56060648,-0.13552353,0.64796317,-0.7495181,0
-4.3473911,0.14577436,0.48882896,-0.98443109,-0.0025991201,0.17575204,0
4.6234598,0.12763309,-0.77859914,0.98443109,0.0025991201,-0.17575204,0
-2.2032521,-1.062657,0.71141005,0.058286607,-0.94814247,0.31245577,0
4.3373294,-0.1821003,-0.34459919,0.98443109,0.0025991201,-0.17575204,0
-4.2253838,-0.66928077,1.3328753,0.10864508,-0.79500747,0.59679091,0
4.1751204,0.47789478,-1.7836045,-0.16020997,0.42459327,-0.89109677,0
-4.4936409,0.19788504,-0.19361186,-0.98443109,-0.0025991201,0.17575204,0
-3.1016967,0.56409216,1.3214263,0.16101712,0.38766128,0.90763015,0
4.5344162,0.51454163,-0.87288451,0.98443109,0.0025991201,-0.17575204,0
4.1230245,0.71080208,-1.5764619,0.98443109,0.0025991201,-0.17575204,0
4.3246384,-0.95802164,-0.4884128,0.062384725,-0.93996125,0.33553106,0
-3.1784821,-1.0195622,1.0974704,0.10014242,-0.83003509,0.54864699,0
0.63049412,0.95245886,0.53454077,0.08573693,0.86577308,0.49303776,0
1.2860596,-0.9983604,-0.16415763,0.040422857,-0.97643816,0.21197778,0
1.4141865,-0.019426346,-1.0895636,-0.17552154,-0.038744569,-0.98371291,0
1.4928062,0.75516307,-0.97071421,-0.096828997,0.84251207,-0.52990335,0
4.1826482,0.27471304,-1.465943,0.98443109,0.0025991201,-0.17575204,0
4.533514,1.0037761,-0.76549816,0.98443109,0.0025991201,-0.17575204,0
-1.5733538,0.6216917,1.0309952,0.12458026,0.69505137,0.70808446,0
2.370971,0.43575311,0.47289491,0.13355327,0.63901007,0.75751555,0
-2.1989417,0.57370842,-0.322842,-0.13553196,0.64790547,-0.74956638,0
2.0198169,0.4905057,-1.1756207,-0.16766644,0.31401056,-0.93449759,0
4.2361102,0.69427037,-0.82688636,0.98443109,0.0025991201,-0.17575204,0
-2.7129619,-0.65303898,-0.053866625,-0.12574816,-0.68821639,-0.71452487,0
-4.5305562,0.25535917,0.86832321,-0.98443109,-0.0025991201,0.17575204,0
-4.4023757,0.83656406,0.799061,-0.98443109,-0.0025991201,0.17575204,0
4.2546248,0.29174948,-0.6741184,0.98443109,0.0025991201,-0.17575204,0
-4.4009733,-0.28166032,-0.072501063,-0.98443109,-0.0025991201,0.17575204,0
4.3148818,0.5783577,-1.1747251,0.98443109,0.0025991201,-0.17575204,0
-0.52998608,1.0204599,0.04193905,-0.029199183,0.9884159,-0.14893419,0
3.968081,-0.30200291,-1.7493615,-0.16947827,-0.25111961,-0.9530037,0
0.83641231,-0.50270629,0.8805294,0.15239254,-0.51088661,0.84603292,0
-0.24313384,-0.99923611,-0.37205076,-0.087173522,-0.86103719,-0.50101483,0
-0.11648971,0.53815079,0.95978612,0.16464704,0.33642709,0.92720455,0
4.5589557,0.75621533,-0.31233513,0.98443109,0.0025991201,-0.17575204,0
3.3598006,-0.38028812,0.27663982,0.15067527,-0.527367,0.83617055,0
-4.2273746,-0.49122882,1.0540689,-0.98443109,-0.0025991201,0.17575204,0
3.4532282,0.83913136,-1.3653053,-0.13300413,0.66471928,-0.73515874,0
-1.3518777,1.0698549,-0.071851254,-0.032775283,0.98506856,-0.16901392,0
-4.2336926,-0.15771961,1.536611,-0.98443109,-0.0025991201,0.17575204,0
-4.3954234,0.60776806,1.1217673,-0.98443109,-0.0025991201,0.17575204,0
-4.5731182,-0.33921766,0.50324571,-0.98443109,-0.0025991201,0.17575204,0
2.0833683,1.0508128,-0.33711988,0.01037693,0.99728733,0.072872713,0
-0.68676531,0.56525081,-0.67261875,-0.12740824,0.69938087,-0.70330203,0
-4.2154398,-0.67331052,1.3521041,-0.98443109,-0.0025991201,0.17575204,0
0.47449911,0.13985287,0.98828661,0.17010117,0.2378298,0.95629638,0
-0.69611549,0.89202356,0.84156895,0.11271256,0.75791693,0.64254022,0
-4.6926742,-0.061538219,-0.084041715,-0.98443109,-0.0025991201,0.17575204,0
4.3667369,0.68259192,-0.94065154,0.98443109,0.0025991201,-0.17575204,0
-4.491621,0.41058397,1.4985653,-0.98443109,-0.0025991201,0.17575204,0
3.2864854,-0.45137382,-1.5068938,-0.15069705,-0.5022012,-0.85151893,0
-3.2216361,0.73586154,-0.33041012,-0.14693925,0.56088656,-0.81474859,0
1.1152707,-0.98250353,-0.25134203,-0.022260308,-0.98999625,-0.13932647,0
-1.783215,0.82459438,0.56048357,0.018236995,0.99298382,0.11683534,0
0.82370377,-1.0427977,-0.5804919,-0.073420346,-0.90240306,-0.4245919,0
4.5358362,0.096890926,-0.81369686,0.98443109,0.0025991201,-0.17575204,0
1.6710132,0.91712278,0.2722097,0.08117336,0.88015807,0.46768868,0
-3.4245403,-0.86552048,0.89433551,0.071825504,-0.91854888,0.38872778,0
-2.4142952,0.98535132,0.89378303,0.06933248,0.91307598,0.40185237,0
-0.071733877,-0.10529305,0.84907222,0.17540798,-0.078779832,0.98133886,0
-1.9544227,-0.98392129,0.42656457,0.015062749,-0.99746001,0.069618434,0
-4.3602605,0.46130419,0.24112189,-0.98443109,-0.0025991201,0.17575204,0
4.2702699,0.7791779,-0.22585666,0.082102835,0.87730795,0.47285309,0
4.5497713,0.53996038,-0.2042318,0.98443109,0.0025991201,-0.17575204,0
4.6561775,-0.395751,-0.0019328594,0.98443109,0.0025991201,-0.17575204,0
-4.0608897,-1.0477824,0.67859274,-0.036999464,-0.97442311,-0.22165447,0
-4.5069828,-0.50877476,1.0471227,-0.98443109,-0.0025991201,0.17575204,0
4.6124878,0.64549208,0.024323463,0.98443109,0.0025991201,-0.17575204,0
-4.558248,-0.30452204,0.066072464,-0.98443109,-0.0025991201,0.17575204,0
4.4646277,0.79783559,-1.4098178,0.98443109,0.0025991201,-0.17575204,0
4.4800415,0.075781822,-0.23566717,0.98443109,0.0025991201,-0.17575204,0
-4.4245067,0.30650663,-0.12814808,-0.98443109,-0.0025991201,0.17575204,0
1.273247,-0.84734857,-0.24331649,-0.018589795,-0.99274325,-0.11880761,0
4.3209634,-0.13175297,-1.5523784,0.98443109,0.0025991201,-0.17575204,0
-0.098346442,0.17980736,0.92243415,0.16363117,0.3515996,0.92173898,0
-0.57105803,0.97949815,-0.3468594,-0.063257694,0.93813324,-0.34044766,0
1.3918662,1.0492915,-0.16834554,-0.01921016,0.99549222,-0.092878014,0
-2.7332361,-0.74104679,-0.039657772,-0.10262465,-0.80327106,-0.58670586,0
-0.38361084,1.0367819,0.16453883,0.0048911572,0.99909836,0.042172477,0
-4.526279,-0.41118526,1.0695564,-0.98443109,-0.0025991201,0.17575204,0
-4.2968154,-0.52615976,1.1292874,-0.98443109,-0.0025991201,0.17575204,0
1.5636599,0.73120272,0.39092761,0.11408693,0.75120157,0.65013885,0
-4.3677926,0.95116854,1.298259,-0.98443109,-0.0025991201,0.17575204,0
4.3446321,0.096928596,-0.36487043,0.98443109,0.0025991201,-0.17575204,0
4.6251879,-0.9437418,-0.56889117,0.98443109,0.0025991201,-0.17575204,0
-3.9121659,-0.94331837,1.0446818,0.050990224,-0.96111643,0.27139515,0
2.9950709,-1.0250311,0.13112748,0.098306656,-0.83702517,0.53826106,0
1.0249984,0.4280442,0.86404788,0.16397086,0.34660622,0.92356801,0
4.7220755,-0.096259117,-0.22028792,0.98443109,0.0025991201,-0.17575204,0
4.3859925,-0.99994087,-1.1768272,0.98443109,0.0025991201,-0.17575204,0
-4.4382639,0.38459587,-0.083287477,-0.98443109,-0.0025991201,0.17575204,0
-1.4936999,-0.96912783,-0.55882537,-0.10340196,-0.80000824,-0.59101182,0
-4.3179436,-0.71696305,1.0331575,-0.98443109,-0.0025991201,0.17575204,0
4.2717309,0.65277433,-1.2478378,0.98443109,0.0025991201,-0.17575204,0
4.4085817,0.3917799,-1.0581577,0.98443109,0.0025991201,-0.17575204,0
4.4745593,0.15781546,-0.40262538,0.98443109,0.0025991201,-0.17575204,0
-2.8682284,1.0271068,0.78464657,0.029896379,0.98284531,0.1819931,0
-4.5987425,-0.29121208,0.010672569,-0.98443109,-0.0025991201,0.17575204,0
-4.3865209,0.36004591,0.44868338,-0.98443109,-0.0025991201,0.17575204,0
-3.7652469,0.38896942,1.7466173,0.16690949,0.29965693,0.93933332,0
-2.0903218,0.95992088,0.83813351,0.093238294,0.83990026,0.53467214,0
4.3583865,-0.044333458,-1.4211323,0.98443109,0.0025991201,-0.17575204,0
-4.6289988,0.61905527,0.78333163,-0.98443109,-0.0025991201,0.17575204,0
4.1875219,0.49463129,-1.1812754,0.98443109,0.0025991201,-0.17575204,0
4.6609321,-0.40293741,-0.28662002,0.98443109,0.0025991201,-0.17575204,0
-4.2687473,-0.5889678,0.76110566,-0.98443109,-0.0025991201,0.17575204,0
-4.3418121,0.19893789,0.67465454,-0.98443109,-0.0025991201,0.17575204,0
4.4247599,0.62164736,-0.72475111,0.98443109,0.0025991201,-0.17575204,0
-4.2793913,0.80701113,1.3221345,-0.98443109,-0.0025991201,0.17575204,0
-0.40658134,-1.0181705,-0.11714621,-0.050723851,-0.95315063,-0.29821339,0
-4.6324115,0.53913689,0.57117796,-0.98443109,-0.0025991201,0.17575204,0
4.4153423,0.37538767,-1.3051347,0.98443109,0.0025991201,-0.17575204,0
-4.3190193,-0.71036243,0.53419143,-0.98443109,-0.0025991201,0.17575204,0
3.5030522,-0.74977112,-1.1700702,-0.092844665,-0.84132957,-0.53248894,0
-2.860908,-0.86316729,-0.12001514,-0.12434256,-0.69642675,-0.70677346,0
4.3701272,-0.73329592,-0.61351812,0.052744031,-0.95818043,0.2812621,0
-3.5208144,0.73768091,1.2560822,0.10043341,0.81227326,0.57456529,0
-0.85368431,0.67978096,0.84750646,0.11062264,0.7678709,0.63098097,0
-3.3778698,-1.0047879,1.0172265,0.063699722,-0.9371959,0.34293771,0
-4.588131,-0.91166973,0.98838377,-0.98443109,-0.0025991201,0.17575204,0
0.18100321,-0.66701508,0.80343056,0.13548794,-0.64820528,0.74931508,0
4.1723957,0.97710013,-0.70500767,-0.013814092,0.99794209,-0.062617421,0
-4.5019817,-0.11000633,1.035944,-0.98443109,-0.0025991201,0.17575204,0
-4.3987632,0.29393721,0.3372457,-0.98443109,-0.0025991201,0.17575204,0
4.5512314,-0.36931038,-0.49037087,0.98443109,0.0025991201,-0.17575204,0
4.5480022,-0.36431646,-0.044092655,0.98443109,0.0025991201,-0.17575204,0
-0.25897425,1.0708416,-0.41223305,-0.077930689,0.90269792,-0.42315888,0
-4.3489904,0.81018019,1.0396783,-0.98443109,-0.0025991201,0.17575204,0
2.4502568,0.90893328,-0.66225016,-0.051996529,0.95944583,-0.2770561,0
0.29970574,1.0881109,-0.17154601,-0.013087213,0.99819916,-0.058542132,0
-4.5171456,0.26926327,1.3482705,-0.98443109,-0.0025991201,0.17575204,0
4.466094,0.031886101,0.023029208,0.98443109,0.0025991201,-0.17575204,0
4.4058666,-0.27481318,-0.78270769,0.98443109,0.0025991201,-0.17575204,0
-4.5842376,0.25459051,0.65691996,-0.98443109,-0.0025991201,0.17575204,0
-0.058916539,0.70463979,-0.9141742,-0.15187755,0.51590627,-0.8430742,0
0.66929793,-0.091101348,0.71144211,0.16953301,-0.27806067,0.94548452,0
-1.1207538,-0.96066147,-0.071295038,-0.043797255,-0.96472627,-0.25958663,0
-4.2776194,0.1284771,1.3581388,-0.98443109,-0.0025991201,0.17575204,0
-0.96428096,-0.94476038,-0.15404707,-0.06493479,-0.92377996,-0.37737787,0
-2.2517421,0.66606236,-0.011603951,-0.094260991,0.85176057,-0.51538217,0
3.6993318,1.0766947,-0.70302439,0.00078552961,0.99981564,0.019186243,0
0.9976598,-1.0247352,-0.23051858,-0.015181541,-0.99489677,-0.099749207,0
1.0354896,0.438604,0.8936193,0.1574347,0.43161267,0.88821447,0
-1.0163901,0.34310323,-0.88320398,-0.15788455,0.45253578,-0.87765831,0
2.6784999,-0.10428524,-1.4388459,-0.17573367,0.035233662,-0.98380709,0
-3.8448803,0.99984121,0.19169116,-0.065514684,0.93326551,-0.35316199,0
4.4082699,-0.2207737,-0.75933284,0.98443109,0.0025991201,-0.17575204,0
4.3150425,-0.34529257,-0.72102153,0.98443109,0.0025991201,-0.17575204,0
4.4578824,-0.043087482,-0.94451135,0.98443109,0.0025991201,-0.17575204,0
3.0837169,0.83615375,-0.575293,0.023512542,0.98895717,0.14632538,0
1.7692802,1.0228645,-0.0031882823,0.068361104,0.91550869,0.39644748,0
1.3658205,0.0002207756,0.64667583,0.17504208,0.076487288,0.98158562,0
4.1983218,0.74369621,-1.0526718,0.98443109,0.0025991201,-0.17575204,0
0.976578,-0.95088416,0.056285024,0.031709909,-0.9861114,0.16303101,0
4.4508328,-0.25457716,-1.0438199,0.98443109,0.0025991201,-0.17575204,0
4.2355452,0.53445435,-1.7137487,0.98443109,0.0025991201,-0.17575204,0
4.5071301,0.72766018,-1.4368007,0.98443109,0.0025991201,-0.17575204,0
3.9479892,-0.84198689,-0.4636488,0.065522075,-0.93324947,0.35320318,0
-4.2681756,-0.91678357,1.3990251,-0.98443109,-0.0025991201,0.17575204,0
1.8914576,-0.61936498,-0.88985085,-0.11562687,-0.74351174,-0.6586507,0
-0.67965144,-0.48224446,0.96245539,0.14881203,-0.54445899,0.82548147,0
3.1215386,0.047684669,-1.6357704,-0.17576607,0.0068544,-0.9844082,0
-3.1114509,0.4673996,1.5020268,0.15163922,0.49308902,0.85666156,0
0.43136394,1.0183814,-0.25501204,-0.065632284,0.93300653,-0.35382408,0
0.030499846,0.0097718835,-1.1194088,-0.17576857,0.020088971,-0.98422658,0
-4.4969296,-0.79165983,0.90700531,-0.98443109,-0.0025991201,0.17575204,0
-3.0416293,0.68066335,-0.26319742,-0.10952866,0.79110259,-0.60179758,0
4.1963644,0.93067217,-1.0059186,0.98443109,0.0025991201,-0.17575204,0
-3.3396671,0.67064857,1.1942892,0.12379467,0.69957787,0.70375133,0
2.6810803,0.84809935,-0.37166888,0.023910046,0.98861629,0.14854713,0
-2.5880945,-0.98504937,0.39188915,-0.034014225,-0.9781732,-0.20498869,0
-4.3179421,-0.0096058846,1.2441363,-0.98443109,-0.0025991201,0.17575204,0
2.9832351,0.75602102,0.14641094,0.11041981,0.76882058,0.62985903,0
-1.4447209,-0.43679428,-0.67974442,-0.17020422,-0.2355587,-0.95684004,0
-4.5280509,0.30911922,1.0295745,-0.98443109,-0.0025991201,0.17575204,0
0.11137974,-0.70697898,-0.69937766,-0.13855028,-0.60382366,-0.78498465,0
-3.3598952,-0.82944202,1.1429161,0.058986545,-0.94679147,0.3163963,0
1.0361519,-0.78071404,-0.79777563,-0.13138413,-0.65333921,-0.74557775,0
0.89785534,1.1562415,-0.18547043,0.0070447922,0.9985038,0.054226473,0
-3.0897188,-1.1437875,0.26226163,-0.055661976,-0.94382137,-0.32573467,0
-4.5309362,-0.35251236,-0.092466235,-0.98443109,-0.0025991201,0.17575204,0
-2.2632678,0.040975571,1.3928628,0.17549804,-0.070263006,0.9819693,0
-4.4691172,-0.29749441,0.80231416,-0.98443109,-0.0025991201,0.17575204,0
4.3413401,0.24699783,-0.86596632,0.98443109,0.0025991201,-0.17575204,0
-3.4107437,-0.30773878,-0.26113296,-0.16505516,-0.33011699,-0.92939752,0
-4.5514903,0.069489479,0.73280984,-0.98443109,-0.0025991201,0.17575204,0
0.9733125,-0.68966269,0.58230579,0.12120783,-0.73417175,0.66805738,0
0.4544923,0.73179704,-1.0121617,-0.1430878,0.59257251,-0.79270667,0
-0.68428129,-0.98323822,-0.3455247,-0.099471271,-0.81613642,-0.56923366,0
-4.5412745,-0.020023346,0.050823808,-0.98443109,-0.0025991201,0.17575204,0
-4.2780781,0.68206072,0.86111116,-0.98443109,-0.0025991201,0.17575204,0
-4.3923202,-0.18537664,0.54792172,-0.98443109,-0.0025991201,0.17575204,0
4.6987381,-0.18936729,0.13271928,0.98443109,0.0025991201,-0.17575204,0
4.233984,0.089920044,-1.4567504,0.98443109,0.0025991201,-0.17575204,0
3.169426,1.1438036,-0.47846055,-0.0069211721,0.99968851,-0.023982376,0
-4.5251784,0.81514215,0.0041286945,-0.98443109,-0.0025991201,0.17575204,0
-2.9080822,-0.76113057,-0.34246874,-0.13753313,-0.61124867,-0.77939707,0
-1.1875467,-0.71587741,-0.380476,-0.10246634,-0.80393112,-0.58582902,0
-4.734056,-0.44245386,-0.2620604,-0.98443109,-0.0025991201,0.17575204,0
3.2560503,-0.77783442,0.28749955,0.13099113,-0.67757654,0.72369301,0
4.3842034,-0.54386234,-0.79172033,0.98443109,0.0025991201,-0.17575204,0
2.5448582,0.31684756,0.48691642,0.17312586,0.15848367,0.97206503,0
4.3459668,0.34964991,-0.96755254,0.98443109,0.0025991201,-0.17575204,0
-4.4081326,-1.085031,0.85358715,-0.98443109,-0.0025991201,0.17575204,0
4.6463656,0.23476839,-0.55120438,0.98443109,0.0025991201,-0.17575204,0
4.5200038,-0.93110275,-0.34336269,0.98443109,0.0025991201,-0.17575204,0
0.048190713,-0.076396912,-1.1641542,-0.1747591,-0.092676595,-0.98024005,0
0.25081134,0.87588489,0.095355727,-0.0045911074,0.99992979,-0.010927707,0
-4.4681921,-0.30918741,-0.0018684864,-0.98443109,-0.0025991201,0.17575204,0
4.5409651,0.082952023,0.14799631,0.98443109,0.0025991201,-0.17575204,0
1.9236901,0.61960065,0.24168634,0.12353271,0.70107484,0.70230609,0
4.4612069,0.4536891,-0.96103531,0.98443109,0.0025991201,-0.17575204,0
-4.396812,1.0055509,0.84490025,-0.98443109,-0.0025991201,0.17575204,0
-4.4302368,-0.25610065,0.82318807,-0.98443109,-0.0025991201,0.17575204,0
-3.2082472,0.8780911,0.19162917,-0.071615338,0.91906554,-0.38754338,0
4.2239046,0.32172537,-1.8726521,0.98443109,0.0025991201,-0.17575204,0
4.6959624,0.13966131,-0.37280589,0.98443109,0.0025991201,-0.17575204,0
-4.4808297,0.58707714,1.4567084,-0.98443109,-0.0025991201,0.17575204,0
-4.504034,-0.58204031,1.4801999,-0.98443109,-0.0025991201,0.17575204,0
-2.4250808,-0.75714207,0.12871879,-0.072756529,-0.9041847,-0.42089975,0
-1.2689261,0.74117899,-0.30343562,-0.075700879,0.90867627,-0.41058117,0
-4.3743787,-0.27396822,0.23841655,-0.98443109,-0.0025991201,0.17575204,0
2.6922514,0.10101581,-1.2913506,-0.16778044,0.31195074,-0.9351666,0
0.07335794,1.1198492,0.098308645,0.045943916,0.96132404,0.27156112,0
4.2979102,1.1010489,-0.88934088,0.98443109,0.0025991201,-0.17575204,0
-0.96447563,-0.10193932,-0.83836806,-0.17004028,-0.23916174,-0.95597512,0
-3.6617117,0.84792709,1.1799365,0.090036154,0.85129499,0.51690459,0
-4.1038251,-0.068600178,1.5081098,-0.98443109,-0.0025991201,0.17575204,0
4.2891893,0.61428905,-0.58029515,0.98443109,0.0025991201,-0.17575204,0
-4.3072982,0.071225166,0.68326682,-0.98443109,-0.0025991201,0.17575204,0
2.7213039,-0.0041491985,-1.5039113,-0.17323771,0.18350345,-0.96763384,0
-4.4940629,-1.0051467,0.90585268,-0.98443109,-0.0025991201,0.17575204,0
3.2003179,-0.44314575,0.4598496,0.17001909,-0.26778468,0.94835913,0
-0.38871115,0.94525379,-0.20819288,-0.060575664,0.9436537,-0.32534355,0
1.108531,0.75750309,0.53511345,0.11018085,0.76993603,0.62853706,0
-4.4843345,0.35534811,1.2867554,-0.98443109,-0.0025991201,0.17575204,0
1.2411093,0.42729843,-1.3208339,-0.15622424,0.47119752,-0.8680824,0
-4.1575723,-1.0721092,0.89013416,0.03893584,-0.97827518,0.20362154,0
4.4693103,0.32934332,-1.0925556,0.98443109,0.0025991201,-0.17575204,0
-4.2528262,-0.19609785,1.0387155,-0.98443109,-0.0025991201,0.17575204,0
-1.899959,-0.093900204,1.2450261,0.17416638,-0.14923462,0.97334242,0
-1.9681047,1.1745688,0.24611345,-0.019652963,0.99524862,-0.095362335,0
-3.9097567,-0.17930555,1.843097,0.17370109,-0.16739394,0.97046757,0
0.37100866,-0.067039907,0.98653567,0.17115271,-0.24188097,0.95509183,0
3.4746392,0.6409421,-1.3525679,-0.12242085,0.72763819,-0.67494881,0
3.9519854,1.0607235,-0.49153319,0.0047617555,0.99912935,0.041448295,0
-3.9109631,0.21948481,1.4470785,0.15941629,0.40798283,0.89896423,0
-2.3450339,-0.85094535,-0.080149293,-0.081451356,-0.87930965,-0.4692339,0
-3.8849838,0.67672753,0.35161281,-0.091235995,0.86220002,-0.49828428,0
4.1328974,0.97567368,-1.4105502,0.98443109,0.0025991201,-0.17575204,0
1.961494,-0.40773261,0.67038965,0.14896256,-0.54310721,0.82634431,0
4.5140581,-0.38165283,-1.0075133,0.98443109,0.0025991201,-0.17575204,0
-3.5168099,0.016340256,1.4954963,0.17427245,0.11586528,0.97785705,0
-3.2631118,-0.95544457,0.39244223,-0.064381659,-0.92507058,-0.37429881,0
4.2810283,0.27682781,-0.78029513,0.98443109,0.0025991201,-0.17575204,0
-3.962935,1.0027161,1.0238639,0.075079441,0.89786738,0.43381727,0
-4.3836856,-0.71240497,0.18162274,-0.98443109,-0.0025991201,0.17575204,0
4.1839952,-0.53957367,-1.1938488,0.98443109,0.0025991201,-0.17575204,0
-0.19355458,0.86626041,0.55925155,0.07187587,0.90651917,0.4160012,0
4.4375792,0.4677434,-0.86913061,0.98443109,0.0025991201,-0.17575204,0
-0.94076824,-0.85865617,0.65077376,0.093415201,-0.85472816,0.51060104,0
-1.0918031,0.81765962,0.31730866,0.010598779,0.99719363,0.074113972,0
-4.5419936,0.26312304,0.74067378,-0.98443109,-0.0025991201,0.17575204,0
4.405602,0.58323407,-0.59215486,0.98443109,0.0025991201,-0.17575204,0
3.8534596,-0.7501421,-1.060925,-0.07566458,-0.89623868,-0.43707123,0
-4.6645017,0.58398199,0.37277168,-0.98443109,-0.0025991201,0.17575204,0
4.5070677,-0.46971512,-0.6445173,0.98443109,0.0025991201,-0.17575204,0
-4.3375921,0.036573887,1.1817565,-0.98443109,-0.0025991201,0.17575204,0
-4.2231789,-0.83339357,1.0685378,-0.98443109,-0.0025991201,0.17575204,0
-4.6361699,0.44774771,0.68683898,-0.98443109,-0.0025991201,0.17575204,0
4.6795211,-0.33417273,0.21563065,0.1676507,-0.31429279,0.93440545,0
-4.4662848,-0.78259206,0.97238469,-0.98443109,-0.0025991201,0.17575204,0
-4.2835884,-0.63356614,1.0816715,-0.98443109,-0.0025991201,0.17575204,0
-4.268609,0.41118336,0.82290208,-0.98443109,-0.0025991201,0.17575204,0
0.42716479,1.0508176,-0.41797501,-0.033575356,0.98426008,-0.17350775,0
4.3966737,-0.75384521,0.055686355,0.12605721,-0.70726591,0.69561833,0
-4.5476618,0.40280724,0.098124385,-0.98443109,-0.0025991201,0.17575204,0
4.2952032,-0.77089643,-0.90810287,0.98443109,0.0025991201,-0.17575204,0
-1.4167683,1.0394057,0.35411549,0.035359085,0.97652191,0.21249703,0
0.98902744,-0.17143112,0.6800158,0.16653702,-0.33361882,0.9278816,0
3.6621714,-0.79058552,-0.85148621,-0.035867333,-0.97588146,-0.21533448,0
-3.8896668,-0.93345618,0.8250677,0.050922573,-0.96122748,0.27101439,0
-2.9310637,-0.46080637,1.5124356,0.152556,-0.50927842,0.84697241,0
4.5265398,0.8549819,-0.8299098,0.98443109,0.0025991201,-0.17575204,0
-4.6310005,0.40022039,0.21885228,-0.98443109,-0.0025991201,0.17575204,0
-2.4469566,0.79820132,0.61348855,0.064093351,0.92573851,0.37269348,0
-4.5825486,-0.20268202,0.76347399,-0.98443109,-0.0025991201,0.17575204,0
-1.9857507,0.16720212,-0.54145157,-0.16363597,0.37863469,-0.91096616,0
4.3130732,0.6437571,-0.49581319,0.98443109,0.0025991201,-0.17575204,0
-2.0789528,-0.66998303,0.70851201,0.090667427,-0.8641088,0.49507117,0
4.1561184,0.40109015,-1.1958125,0.98443109,0.0025991201,-0.17575204,0
3.713551,0.4050436,-1.6624618,-0.16643792,0.33527565,-0.92730188,0
1.8316479,-0.52250862,-0.86533237,-0.12262058,-0.70623958,-0.69727314,0
4.373868,0.72995496,-1.2813159,0.98443109,0.0025991201,-0.17575204,0
-4.4848456,0.020757675,1.4726713,-0.98443109,-0.0025991201,0.17575204,0
4.5675101,-0.4176631,0.028739452,0.98443109,0.0025991201,-0.17575204,0
1.9186206,0.7003088,0.55998868,0.14165664,0.58023524,0.80203539,0
4.3313813,-0.96224165,-0.33495623,0.095380247,-0.84777391,0.52171069,0
-4.3352118,-0.47890449,0.89883924,-0.98443109,-0.0025991201,0.17575204,0
-4.4338961,-0.39047527,1.408428,-0.98443109,-0.0025991201,0.17575204,0
-4.6052446,0.40562582,0.89371544,-0.98443109,-0.0025991201,0.17575204,0
-4.3961964,0.90384102,0.31895769,-0.98443109,-0.0025991201,0.17575204,0
-2.4651957,-0.82251298,1.0138674,0.078300118,-0.90168571,0.42524344,0
-4.3006139,-0.75281453,1.3856976,0.092206717,-0.85890234,0.50377047,0
-2.484894,0.49120569,-0.49292195,-0.14139152,0.60572481,-0.78301084,0
-4.1943545,-0.08161068,1.6157191,-0.98443109,-0.0025991201,0.17575204,0
4.3514233,0.17107725,-0.3702569,0.98443109,0.0025991201,-0.17575204,0
4.3336697,0.5381496,-0.7599858,0.98443109,0.0025991201,-0.17575204,0
2.6577723,0.45072043,0.67583168,0.16730037,0.29280716,0.94142157,0
-4.1880207,0.38682318,1.8552756,-0.98443109,-0.0025991201,0.17575204,0
-3.5665493,0.8419342,0.68853617,0.0061284304,0.99877518,0.04909803,0
-1.9805355,-0.89845979,0.23765942,-0.034608603,-0.97745109,-0.20830692,0
-4.5338349,0.54934692,0.28012252,-0.98443109,-0.0025991201,0.17575204,0
1.2013444,-0.48372239,0.51165241,0.15790613,-0.45228684,0.8777827,0
1.4666777,-0.68701494,0.279634,0.097355545,-0.84057111,0.53288108,0
-0.9795301,0.13487911,1.0426317,0.17572597,-0.037254736,0.98373401,0
3.2503548,-0.97663331,-0.78091222,-0.043930173,-0.96452039,-0.26032823,0
-4.2347155,0.40671778,1.2143456,-0.98443109,-0.0025991201,0.17575204,0
-3.8122816,0.21079874,1.6822679,0.17184627,0.19589117,0.96545106,0
-4.3629351,-0.74557757,0.32246548,-0.98443109,-0.0025991201,0.17575204,0
-0.80365711,-0.80184507,0.20940065,0.010840535,-0.9988851,0.045947611,0
-2.1945591,-0.4318285,1.270469,0.16933161,-0.28219414,0.94429517,0
-4.4704685,0.1544385,-0.07637465,-0.98443109,-0.0025991201,0.17575204,0
2.7336802,0.84541702,-1.3516428,-0.12181985,0.73089135,-0.67153406,0
0.86103183,0.94382179,0.1541559,0.073622346,0.90185726,0.42571509,0
-3.7736154,-0.81353307,1.5859671,0.12770411,-0.69763017,0.70498514,0
-4.1541038,0.080921173,1.4988776,-0.98443109,-0.0025991201,0.17575204,0
2.6667423,-0.99252748,-0.45562562,-0.015936852,-0.99445248,-0.10397369,0
-4.3098197,0.10399675,1.23983,-0.98443109,-0.0025991201,0.17575204,0
-4.3123021,-0.061633587,0.52459955,-0.98443109,-0.0025991201,0.17575204,0
-3.4603224,0.2374351,-0.2650069,-0.16020088,0.42470735,-0.89104402,0
4.6322532,-0.55305099,-0.31432486,0.98443109,0.0025991201,-0.17575204,0
-2.8999262,0.69238496,1.219064,0.12361932,0.70058089,0.70278364,0
-4.6279011,-0.5151391,0.55030489,-0.98443109,-0.0025991201,0.17575204,0
-1.7707042,0.47917473,-0.72480178,-0.16738233,0.31907499,-0.93283141,0
-4.2752047,-0.050157547,1.3036563,-0.98443109,-0.0025991201,0.17575204,0
-4.4343076,-0.68532181,1.6156906,-0.98443109,-0.0025991201,0.17575204,0
-4.3287654,-0.70617342,0.28493315,-0.98443109,-0.0025991201,0.17575204,0
-4.3594503,-0.39774704,1.5868663,-0.98443109,-0.0025991201,0.17575204,0
3.3327644,-0.83873725,-0.575737,0.010230541,-0.99904293,0.04252857,0
-4.4394712,-0.18930864,1.035936,-0.98443109,-0.0025991201,0.17575204,0
-1.8484789,1.1634319,0.16923666,-0.039918005,0.97707051,-0.20914069,0
3.1307342,0.70593452,-1.2436508,-0.13485911,0.65245658,-0.74573028,0
-4.2535257,-0.11474133,0.7844162,-0.98443109,-0.0025991201,0.17575204,0
-1.1661594,1.0037595,0.63097483,0.088905692,0.85519147,0.51063055,0
-4.8157268,-0.2082119,-0.26636195,-0.98443109,-0.0025991201,0.17575204,0
4.5488672,-0.3740592,-0.63363242,0.98443109,0.0025991201,-0.17575204,0
1.6875014,-0.68628669,-1.1205406,-0.13684785,-0.61617231,-0.77563173,0
-3.7211709,-0.48332906,-0.41989374,-0.16478151,-0.33436215,-0.92792726,0
-2.6184034,0.56768918,-0.24831176,-0.12521845,0.71207303,-0.69084907,0
0.86281389,-0.46640968,-0.96827495,-0.16902632,-0.26033354,-0.95060873,0
4.6812243,-0.71263218,-0.51260394,0.98443109,0.0025991201,-0.17575204,0
-4.5506115,-0.49682474,0.045101762,-0.98443109,-0.0025991201,0.17575204,0
2.5301957,0.016418934,-1.6438056,-0.1754235,-0.04833746,-0.98330587,0
1.7768254,1.0236986,-0.15288287,0.040771306,0.96924323,0.24270467,0
4.5351863,-0.89801645,-0.410402,0.98443109,0.0025991201,-0.17575204,0
-0.86783648,-0.84813976,1.0004992,0.12740228,-0.69941574,0.70326841,0
-2.1249988,-0.57620871,-0.38451207,-0.10687411,-0.7849766,-0.61023748,0
-4.6209378,0.52055836,0.10997343,-0.98443109,-0.0025991201,0.17575204,0
1.9050677,-0.085368395,-1.1708938,-0.17555434,0.064201005,-0.98237431,0
4.5160689,-0.53674412,-1.3606641,0.98443109,0.0025991201,-0.17575204,0
4.5788565,0.86735892,-0.87958908,0.98443109,0.0025991201,-0.17575204,0
-0.82388818,0.14406586,1.0606617,0.16849038,0.27084661,0.94776213,0
2.811408,0.34672356,0.40387714,0.15601176,0.44767493,0.8804816,0
-4.460362,-0.82412815,1.2639829,-0.98443109,-0.0025991201,0.17575204,0
-4.5323949,-0.098934174,0.70614052,-0.98443109,-0.0025991201,0.17575204,0
-0.64966738,0.88564283,0.026745886,-0.006669879,0.9997229,-0.022574753,0
4.5907073,0.47066331,-0.10893428,0.98443109,0.0025991201,-0.17575204,0
-0.69415635,0.83209205,-0.61428452,-0.11695635,0.75610095,-0.64391989,0
4.5979643,-0.93487883,-0.41938704,0.98443109,0.0025991201,-0.17575204,0
2.8657222,0.3658371,-1.2863214,-0.16928022,0.28323776,-0.9439919,0
4.4477134,0.07397747,-0.038141251,0.98443109,0.0025991201,-0.17575204,0
4.6602898,0.3308177,-0.005210638,0.98443109,0.0025991201,-0.17575204,0
-4.1081834,-0.29660511,1.4627966,-0.98443109,-0.0025991201,0.17575204,0
4.1997957,0.30283022,-1.6256042,0.98443109,0.0025991201,-0.17575204,0
-4.6618648,-0.75913286,0.60674113,-0.98443109,-0.0025991201,0.17575204,0
4.2673674,0.3326664,-1.5739646,0.98443109,0.0025991201,-0.17575204,0
4.3860059,0.28902531,-1.1715286,0.98443109,0.0025991201,-0.17575204,0
4.3285766,0.76145625,-0.64672726,0.98443109,0.0025991201,-0.17575204,0
-4.2310877,-0.94389248,0.71027219,-0.033741593,-0.97850043,-0.20346618,0
2.655448,0.91488826,-0.66533327,-0.040860534,0.97588271,-0.21443748,0
4.4982285,0.39517736,-0.48995739,0.98443109,0.0025991201,-0.17575204,0
4.2507052,0.72960305,-0.86371624,0.98443109,0.0025991201,-0.17575204,0
4.4249115,0.21950912,-1.7493235,0.98443109,0.0025991201,-0.17575204,0
4.3653755,0.52770662,-1.1405621,0.98443109,0.0025991201,-0.17575204,0
-4.4493065,-0.26588249,0.91266108,-0.98443109,-0.0025991201,0.17575204,0
4.6572256,-0.18117332,-0.35583597,0.98443109,0.0025991201,-0.17575204,0
4.236424,0.22767401,-1.3236744,0.98443109,0.0025991201,-0.17575204,0
4.7213674,-0.48590231,-0.13868952,0.98443109,0.0025991201,-0.17575204,0
-4.6947317,-0.0033941269,0.16127169,-0.98443109,-0.0025991201,0.17575204,0
4.2096591,0.76311064,-0.9896974,0.98443109,0.0025991201,-0.17575204,0
2.5770838,-0.040502787,0.44211972,0.17066179,-0.25346732,0.95217061,0
-1.5782063,-0.65607166,1.0698416,0.13090679,-0.67810524,0.7232129,0
-4.7660875,0.1885643,0.017534971,-0.98443109,-0.0025991201,0.17575204,0
3.6382625,0.16661143,0.22748625,0.1653848,0.32492495,0.93116683,0
-4.3434839,-0.60732698,1.5232601,-0.98443109,-0.0025991201,0.17575204,0
-2.9877162,0.75011373,1.3067538,0.098005235,0.82192075,0.56110728,0
-4.6084895,0.63628006,0.89645261,-0.98443109,-0.0025991201,0.17575204,0
-3.5455909,0.19149518,-0.45915675,-0.17559645,0.059128456,-0.98268497,0
4.5730147,0.60158587,-0.66053522,0.98443109,0.0025991201,-0.17575204,0
4.3221245,-0.22564268,-1.0724177,0.98443109,0.0025991201,-0.17575204,0
1.9948404,0.53723538,0.60403025,0.16056162,0.39356565,0.90516639,0
4.4834509,-0.85385752,-0.11071098,0.98443109,0.0025991201,-0.17575204,0
-1.5487555,-0.92058778,0.57681257,0.08156991,-0.8924582,0.44369465,0
0.86739743,0.1536231,1.0467896,0.17328459,0.15324374,0.97287661,0
-0.054561377,0.59542751,0.93790799,0.14122182,0.58362329,0.79965025,0
4.6273007,-0.50061417,-0.39516324,0.98443109,0.0025991201,-0.17575204,0
0.21043444,-0.15318322,-1.1029658,-0.17411584,-0.12248756,-0.97707766,0
4.3461289,1.1375751,-0.7183286,0.98443109,0.0025991201,-0.17575204,0
0.74258852,-0.022639036,-1.2776202,-0.17571275,-0.011246711,-0.98437732,0
4.1534281,-0.014535427,-1.7442676,0.98443109,0.0025991201,-0.17575204,0
-3.9971232,1.0381227,0.84761125,0.018366456,0.99289602,0.1175593,0
4.2992997,-0.70197153,-0.4333421,0.98443109,0.0025991201,-0.17575204,0
4.5814438,0.21028376,-0.48823559,0.98443109,0.0025991201,-0.17575204,0
4.2310019,-0.19314718,-1.2484691,0.98443109,0.0025991201,-0.17575204,0
-4.1164136,0.029053211,1.4802977,-0.98443109,-0.0025991201,0.17575204,0
-3.4486461,-0.74686074,1.3804965,0.11203474,-0.7797364,0.6160028,0
-2.5253873,0.92942333,-0.27341056,-0.11271089,0.77659458,-0.61983657,0
-4.1503282,-0.5650034,-0.043498397,-0.14158195,-0.58081931,-0.80162555,0
-3.8783851,0.82395267,1.3426231,0.12733209,0.67873871,0.72325683,0
4.4267521,-0.36640549,0.29348838,0.16530085,-0.35363626,0.92066133,0
4.3820686,0.01070118,-0.46671963,0.98443109,0.0025991201,-0.17575204,0
0.71789777,-0.27444705,0.59970176,0.1566723,-0.46625763,0.87066513,0
-4.4797864,-0.37726498,1.1088362,-0.98443109,-0.0025991201,0.17575204,0
-4.4985924,-0.8037436,0.34202009,-0.98443109,-0.0025991201,0.17575204,0
2.160953,-1.0891855,-0.61565942,-0.054696739,-0.94571668,-0.32035637,0
4.3406792,0.39041233,-1.2893445,0.98443109,0.0025991201,-0.17575204,0
4.6478682,-0.60144663,0.11260843,0.98443109,0.0025991201,-0.17575204,0
-4.2126431,-0.52518463,1.4924668,-0.98443109,-0.0025991201,0.17575204,0
-4.4147267,-0.76359034,0.44672981,-0.98443109,-0.0025991201,0.17575204,0
-4.3548722,-0.52092743,0.72791338,-0.98443109,-0.0025991201,0.17575204,0
-2.0237727,0.10682344,1.3509582,0.17450999,0.10511687,0.97902858,0
4.509047,0.32151556,-0.99883807,0.98443109,0.0025991201,-0.17575204,0
-4.4656405,0.63166761,1.1180937,-0.98443109,-0.0025991201,0.17575204,0
3.0859549,1.0920424,-0.82234204,-0.043583214,0.97227561,-0.22974092,0
-3.234766,0.44931817,1.5835478,0.14271885,0.57183254,0.80786079,0
-1.4144515,-0.082535982,-0.62861526,-0.17474313,0.12246154,-0.97696882,0
0.52652955,0.41030672,-1.1463366,-0.16187686,0.40304056,-0.90075207,0
3.7594197,0.48925304,-1.441021,-0.13917124,0.62227297,-0.77032983,0
2.0546281,-0.017181396,-1.1948024,-0.1747698,-0.092109472,-0.98029155,0
-3.3019841,-1.1787663,0.67715073,0.03335011,-0.98448992,0.17224264,0
-4.3033695,0.34838152,0.95231366,-0.98443109,-0.0025991201,0.17575204,0
3.2465289,-0.94219398,-0.76351154,-0.017247498,-0.99363691,-0.11130254,0
-1.3642216,0.57802486,-0.80524302,-0.1566972,0.46598125,-0.87080866,0
4.399229,-0.42102957,-0.6643275,0.98443109,0.0025991201,-0.17575204,0
3.2117124,-0.32431579,0.28072262,0.17393334,-0.15862323,0.9718982,0
4.6962104,-0.68758297,-0.27581608,0.98443109,0.0025991201,-0.17575204,0
3.0991344,0.17730141,-1.7513204,-0.17577061,0.011803359,-0.9843604,0
4.4911709,-0.58809519,-0.50825477,0.98443109,0.0025991201,-0.17575204,0
-3.3596728,-0.94682884,0.071470082,-0.069609404,-0.91237533,-0.40339288,0
-4.7206693,0.46816635,0.28789616,-0.98443109,-0.0025991201,0.17575204,0
-1.3234605,-0.96577513,0.57871056,0.096092165,-0.84520286,0.52573615,0
3.2244489,-0.17130041,-1.4429533,-0.16995201,-0.24107835,-0.95550913,0
4.4665589,-0.24517727,-1.7061696,0.98443109,0.0025991201,-0.17575204,0
2.9621754,0.11774921,-1.4133226,-0.17560348,-0.029133558,-0.98402983,0
0.73096859,0.55994236,-1.0725358,-0.14796087,0.55201465,-0.82060188,0
0.99078327,0.97272319,0.21659765,0.058903575,0.9371959,0.3437939,0
1.7298293,-0.029792547,0.82182503,0.17527449,0.060607165,0.98265243,0
4.4928451,-0.1302228,-1.4292146,0.98443109,0.0025991201,-0.17575204,0
3.6782224,0.8190372,-0.43656212,0.057507992,0.94009775,0.33601961,0
4.277452,-0.010822296,-1.0645611,0.98443109,0.0025991201,-0.17575204,0
-4.4654517,-0.5565033,1.4199442,-0.98443109,-0.0025991201,0.17575204,0
4.7526708,0.7109015,-0.070640564,0.98443109,0.0025991201,-0.17575204,0
4.2663679,0.4624238,-1.1931719,0.98443109,0.0025991201,-0.17575204,0
1.1562169,-0.62471706,0.57342613,0.1153869,-0.76383418,0.63501441,0
-2.9915652,0.41974902,-0.30644679,-0.15298557,0.50501907,-0.84944183,0
-1.2053498,0.052485406,-0.99197471,-0.17439215,0.13945179,-0.97475159,0
3.2484848,-0.85711551,-0.80711854,-0.046377778,-0.96061659,-0.2739799,0
4.4064684,-0.67786074,-0.44087428,0.98443109,0.0025991201,-0.17575204,0
4.3438482,-0.38310528,-0.35941833,0.98443109,0.0025991201,-0.17575204,0
-2.1290231,-0.67334402,-0.21104109,-0.08664602,-0.86278808,-0.49808571,0
-0.2812652,0.84404409,-0.045851707,0.0080573559,0.99817228,0.059893563,0
-0.36923358,-0.89916229,0.35989887,0.051795125,-0.95978326,0.27592301,0
-2.567425,-0.79409289,0.85808933,0.061541617,-0.94169807,0.33078307,0
2.6533084,-0.39910293,-1.1402545,-0.14317304,-0.56818396,-0.81035095,0
-0.89581722,0.57609802,-0.85158181,-0.16361779,0.37889612,-0.91086066,0
-4.3225503,0.63393593,0.35169798,-0.98443109,-0.0025991201,0.17575204,0
-4.6521339,0.78110743,0.39331335,-0.98443109,-0.0025991201,0.17575204,0
-4.3491607,-0.69318557,1.3534019,-0.98443109,-0.0025991201,0.17575204,0
1.0878249,1.1475382,-0.082475655,-0.020889044,0.99453461,-0.10229662,0
4.2603002,0.24391031,-1.5393512,0.98443109,0.0025991201,-0.17575204,0
2.4507136,-0.88920999,0.14326096,0.12004852,-0.74029827,0.66147333,0
-4.3803134,0.08615303,0.73055995,-0.98443109,-0.0025991201,0.17575204,0
-2.4775596,0.84642863,0.66207659,0.038329661,0.97265297,0.22907865,0
-4.3015747,-0.47082615,1.8907974,0.16391519,-0.37458134,0.91259015,0
-1.5529928,-0.1146524,1.4815663,0.1718446,-0.2244004,0.95922577,0
-2.8851671,1.0475705,0.15774906,-0.051760852,0.95984054,-0.27573025,0
0.04404366,-0.42696252,-0.72858328,-0.15196747,-0.4898631,-0.8584522,0
-1.4384149,-0.051267266,-0.72585726,-0.17568779,-0.016258478,-0.98431182,0
-4.7421136,0.24857903,-0.17347443,-0.98443109,-0.0025991201,0.17575204,0
-1.821949,-0.94868279,1.161657,0.12110704,-0.73470902,0.66748488,0
1.227039,0.21782672,-1.1563931,-0.17451049,0.13399786,-0.9754951,0
-3.6218009,-0.8494966,0.27137899,-0.073590755,-0.90194273,-0.42553943,0
0.37436199,-1.0004189,-0.28508216,-0.0092554092,-0.99773699,-0.066597417,0
-1.1021445,-0.71870494,-0.34720981,-0.11104375,-0.76588964,-0.63331079,0
4.5884495,-0.82447004,-0.53560078,0.98443109,0.0025991201,-0.17575204,0
3.8733141,-0.47547245,0.038717628,0.14032948,-0.61373162,0.77694368,0
3.630357,-0.2096591,0.1713866,0.17420334,-0.1476832,0.97357237,0
-3.3901844,-0.73629451,1.0422702,0.074556708,-0.91165894,0.40412796,0
-0.79056317,0.63563716,0.84932256,0.11817247,0.73040354,0.67271531,0
3.1253762,0.10556221,-1.4153061,-0.17173773,0.22719932,-0.95858586,0
3.4149306,-0.68284011,-1.0043151,-0.092509627,-0.84254014,-0.53062999,0
-3.1399617,0.59515762,1.308437,0.11271489,0.75790572,0.64255309,0
4.1441994,-0.44303751,-1.5606486,0.98443109,0.0025991201,-0.17575204,0
-0.39982235,1.1378996,0.28728515,0.0087638497,0.99792123,0.063847125,0
4.2468734,0.35822868,-0.94550723,0.98443109,0.0025991201,-0.17575204,0
4.4578862,0.082503796,-0.25682682,0.98443109,0.0025991201,-0.17575204,0
-3.4207559,0.34134412,-0.48272431,-0.17239085,0.20943284,-0.96250677,0
-4.4088268,-0.44607306,1.3583205,-0.98443109,-0.0025991201,0.17575204,0
4.6129127,-0.17820692,0.038458586,0.98443109,0.0025991201,-0.17575204,0
-4.5219116,0.52015686,0.31863368,-0.98443109,-0.0025991201,0.17575204,0
-1.3908682,-1.03048,-0.25992623,-0.061360478,-0.93190402,-0.3574771,0
-1.7842664,0.064454317,1.4997772,0.17557369,0.032853216,0.98391807,0
4.4221816,-0.80533028,-0.67871732,0.98443109,0.0025991201,-0.17575204,0
-4.6467547,-0.2113719,-0.24300873,-0.98443109,-0.0025991201,0.17575204,0
-4.5395918,0.63138342,0.31330836,-0.98443109,-0.0025991201,0.17575204,0
4.4678869,0.49955225,-1.564967,-0.15762715,0.45549482,-0.87617254,0
-4.4074392,0.40023613,1.3018141,-0.98443109,-0.0025991201,0.17575204,0
-4.722755,0.026181698,0.030295253,-0.98443109,-0.0025991201,0.17575204,0
-4.5376325,0.74566221,0.087890863,-0.14239329,0.59801304,-0.78873622,0
-0.82443428,0.14578402,1.0970933,0.17551047,0.039913803,0.98366815,0
3.8342924,0.38147068,0.32676172,0.14942086,0.51421022,0.84454805,0
-1.6742382,0.8707422,0.038564801,-0.017871559,0.99618912,-0.085369974,0
-4.0549879,0.32549953,1.6347957,0.15468276,0.46206814,0.87325048,0
3.0977867,-0.89540982,0.16071415,0.1252479,-0.71190578,0.69101608,0
-4.3056312,-0.66422319,1.3486553,-0.98443109,-0.0025991201,0.17575204,0
-4.6393256,0.35297966,0.077568054,-0.98443109,-0.0025991201,0.17575204,0
-4.3857584,0.9221735,1.1345983,-0.98443109,-0.0025991201,0.17575204,0
3.4681139,0.96596503,-0.41072342,0.0074484944,0.99837565,0.056486011,0
-4.6918631,-0.05657959,-0.20847952,-0.98443109,-0.0025991201,0.17575204,0
-4.3983092,0.22280121,-0.061407208,-0.98443109,-0.0025991201,0.17575204,0
-3.2468185,-1.1298416,0.33719826,-0.0062886477,-0.99872971,-0.04999426,0
0.56956714,-0.72065532,-0.9406743,-0.13890123,-0.60122871,-0.78691208,0
2.2244065,-0.51662922,0.35936427,0.13632482,-0.64246976,0.75408775,0
-4.632339,-0.68084669,0.0036008358,-0.14342922,-0.56611156,-0.81175476,0
4.298151,1.0912673,-1.0670593,-0.037369609,0.98012662,-0.19482148,0
-4.3582993,-0.29443932,0.78499907,-0.98443109,-0.0025991201,0.17575204,0
4.3354912,-0.89406252,-1.2318442,0.98443109,0.0025991201,-0.17575204,0
0.84433097,1.0370739,-0.60083145,-0.056941092,0.95068669,-0.30488139,0
-4.4971552,-0.85449362,0.49356839,-0.98443109,-0.0025991201,0.17575204,0
4.6508083,-0.49276686,-0.37484896,0.98443109,0.0025991201,-0.17575204,0
-2.1571505,0.65662861,-0.082244277,-0.10669386,0.8034482,-0.58573681,0
4.5423775,0.4720645,-0.54534334,0.98443109,0.0025991201,-0.17575204,0
-4.328208,-0.63704705,0.53086579,-0.98443109,-0.0025991201,0.17575204,0
-3.0526826,0.30910802,-0.26178122,-0.16086413,0.41630113,-0.89488339,0
-4.4351687,-0.41557646,0.48617545,-0.98443109,-0.0025991201,0.17575204,0
4.45086,0.89529681,-0.96390116,0.98443109,0.0025991201,-0.17575204,0
0.3602545,0.095516495,1.0209527,0.17538589,-0.080700114,0.98118675,0
-1.3185688,-0.79032141,0.45126557,0.047018945,-0.96734643,0.24905878,0
4.5212512,0.66901088,-0.57584924,0.98443109,0.0025991201,-0.17575204,0
4.0010996,0.93319535,-1.2311373,-0.059595585,0.94560051,-0.31982511,0
1.6599863,-0.8409462,-0.56641155,-0.051764846,-0.95125961,-0.3040159,0
2.4606266,0.50673044,0.37696165,0.13956374,0.5962826,0.79054999,0
-3.7755826,-0.8614037,0.83397084,0.016360343,-0.99690503,0.076894969,0
-3.5835726,-0.2062099,1.4685673,0.17218244,-0.21528123,0.96125293,0
1.194373,-0.43461239,-1.0775181,-0.16015428,-0.39876193,-0.90296167,0
-1.3431553,1.1254604,0.45067832,0.021104455,0.99090934,0.13286582,0
1.05021,0.43814325,-0.94135779,-0.15307233,0.50415331,-0.8499403,0
4.5309658,0.14402723,-1.2460297,0.98443109,0.0025991201,-0.17575204,0
-4.5452662,-0.3778491,0.33401656,-0.98443109,-0.0025991201,0.17575204,0
0.48097754,-1.0270461,-0.60520232,-0.05727762,-0.94056928,-0.334737,0
-4.1671276,-0.13515472,1.3857833,-0.98443109,-0.0025991201,0.17575204,0
4.5085759,0.495399,-1.0344723,0.98443109,0.0025991201,-0.17575204,0
-2.2594833,-0.13472867,-0.50911558,-0.17142242,-0.20684543,-0.96323907,0
0.78689951,-0.37471139,-1.2475239,-0.17036864,-0.23188873,-0.95770681,0
2.7988527,0.30194712,0.37396157,0.17403316,0.1258536,0.97666442,0
4.2519207,0.79168868,-1.2543827,0.98443109,0.0025991201,-0.17575204,0
4.5066075,0.26682377,-0.6985926,0.98443109,0.0025991201,-0.17575204,0
-1.8247402,-0.87745643,-0.025071859,-0.079523265,-0.88511896,-0.45851985,0
1.3406966,-0.8229624,-0.86336005,-0.13546687,-0.62590951,-0.76804048,0
-3.7242031,0.002219677,-0.22347629,-0.17577058,0.011739954,-0.98436129,0
-3.4211197,-1.0469918,0.24872476,-0.091185272,-0.84726703,-0.52328193,0
1.0087351,-0.53189999,0.62870836,0.16169322,-0.40548521,0.89968729,0
-4.4565182,-0.93537617,0.60023177,-0.98443109,-0.0025991201,0.17575204,0
-0.89107466,-0.98401988,-0.16632269,-0.064970136,-0.92369705,-0.37757468,0
4.4165478,-0.77850628,-1.0985415,0.98443109,0.0025991201,-0.17575204,0
4.4077406,-0.63596249,-1.2294648,0.98443109,0.0025991201,-0.17575204,0
4.5824451,-0.29798841,-0.16322744,0.98443109,0.0025991201,-0.17575204,0
-4.3965569,-0.34390879,0.54301548,-0.98443109,-0.0025991201,0.17575204,0
-4.5424294,-0.091777802,0.62665516,-0.98443109,-0.0025991201,0.17575204,0
4.388586,-0.037634373,-0.71279365,0.98443109,0.0025991201,-0.17575204,0
-2.7907243,0.69153786,1.0335391,0.096667111,0.82709384,0.55368888,0
4.3223243,-0.022672653,-0.98179758,0.98443109,0.0025991201,-0.17575204,0
4.4816985,0.36008501,-1.1372374,0.98443109,0.0025991201,-0.17575204,0
4.1975594,0.45639753,-1.4155689,0.98443109,0.0025991201,-0.17575204,0
-4.198626,-0.80008364,1.3915057,-0.98443109,-0.0025991201,0.17575204,0
-4.3597889,-0.9049921,0.98620343,-0.98443109,-0.0025991201,0.17575204,0
4.7690582,0.5135746,0.087496996,0.98443109,0.0025991201,-0.17575204,0
1.3779461,-1.0151759,-0.54925025,-0.063567221,-0.92694849,-0.36976457,0
-3.1375375,0.32525873,-0.53472054,-0.17070481,0.25247568,-0.95242643,0
0.20079571,0.60214388,0.95584804,0.14976078,0.51104748,0.84640557,0
-4.5038652,-0.23711109,0.036539793,-0.98443109,-0.0025991201,0.17575204,0
4.1361976,0.36161852,-1.6033003,0.98443109,0.0025991201,-0.17575204,0
-4.5193839,-0.30513382,0.17269456,-0.98443109,-0.0025991201,0.17575204,0
4.1408725,0.67459178,-1.4321182,-0.14156535,0.60439771,-0.78400427,0
4.5566368,-0.45649338,-1.0325265,0.98443109,0.0025991201,-0.17575204,0
4.3594136,-1.0594392,-0.56138974,0.98443109,0.0025991201,-0.17575204,0
-4.2774692,0.71829224,0.99574906,-0.98443109,-0.0025991201,0.17575204,0
-4.5572777,0.59335136,0.88318408,-0.98443109,-0.0025991201,0.17575204,0
4.3737593,-0.70587873,-0.22547174,0.98443109,0.0025991201,-0.17575204,0
-1.1300569,-0.057417512,1.1954322,0.17523319,-0.092690997,0.98015398,0
-1.6182075,0.59477079,1.2512654,0.15360528,0.47334391,0.86738175,0
4.2662148,-0.41844559,-1.8011359,0.98443109,0.0025991201,-0.17575204,0
4.2076259,-0.0065393448,-1.2862557,0.98443109,0.0025991201,-0.17575204,0
1.777094,-0.97557783,0.050764501,0.041406631,-0.97518027,0.2175065,0
4.4380221,1.0255439,-0.45683524,0.98443109,0.0025991201,-0.17575204,0
-4.4981055,0.3197751,-0.076633096,-0.98443109,-0.0025991201,0.17575204,0
4.1041946,-0.57040596,-0.14273751,0.11549973,-0.76328427,0.63565469,0
-4.4695625,-0.22267151,-0.10652304,-0.98443109,-0.0025991201,0.17575204,0
4.5485678,-0.51090765,-0.62391841,0.98443109,0.0025991201,-0.17575204,0
-4.6624227,-0.013450623,0.5196358,-0.98443109,-0.0025991201,0.17575204,0
2.4764388,-0.26576114,0.57843351,0.1753255,-0.085686192,0.98077464,0
4.6041861,-0.35255957,-0.027509928,0.98443109,0.0025991201,-0.17575204,0
0.072034448,0.61439359,-0.68548465,-0.14613515,0.5677259,-0.81014323,0
-4.5132885,0.92736292,0.71031284,-0.98443109,-0.0025991201,0.17575204,0
4.356986,-0.040045261,-1.769551,0.98443109,0.0025991201,-0.17575204,0
-4.5856485,-0.40823603,0.78741133,-0.98443109,-0.0025991201,0.17575204,0
0.72286445,-0.80994153,-0.82001269,-0.10905015,-0.77516097,-0.62228107,0
1.4543563,-0.20221174,-1.1738155,-0.16915727,-0.2576983,-0.95130306,0
3.7931445,-0.76363587,-1.0950212,-0.088243246,-0.85744458,-0.50695372,0
-2.3570082,-0.65759742,-0.20590067,-0.091237903,-0.84708065,-0.52357435,0
-4.4747238,-0.048070431,0.8721143,-0.98443109,-0.0025991201,0.17575204,0
-0.53021938,0.90914881,0.14153111,-0.0098894238,0.9991259,-0.040616781,0
4.3608828,0.80330276,-0.56870508,0.98443109,0.0025991201,-0.17575204,0
2.5344634,0.076229811,-1.4796245,-0.17566773,0.048862562,-0.98323631,0
-2.1036923,-0.826949,0.59175694,0.036136985,-0.98152387,0.18789661,0
-0.84515095,-0.99194044,0.26070517,0.046520591,-0.96808767,0.24625635,0
4.0535212,0.97412014,-1.0319948,-0.03653419,0.9810794,-0.19012764,0
4.490747,0.12810183,0.1946516,0.98443109,0.0025991201,-0.17575204,0
4.1344309,0.97439432,-0.04252094,0.093246162,0.83987147,0.53471589,0
-4.5371866,0.32713747,0.78076696,-0.98443109,-0.0025991201,0.17575204,0
-3.4856806,-0.67846584,-0.33281183,-0.14655823,-0.53986728,-0.82889336,0
-4.1931348,-0.51370859,1.2821941,-0.98443109,-0.0025991201,0.17575204,0
-3.038353,-1.0696335,0.81972194,0.037683547,-0.97976238,0.19658503,0
-4.4486146,-0.24496603,0.75067562,-0.98443109,-0.0025991201,0.17575204,0
-3.3246727,0.30226851,-0.49988401,-0.16425216,0.36961848,-0.91455102,0
-4.4644508,0.46871948,1.0762053,-0.98443109,-0.0025991201,0.17575204,0
-2.2800193,0.74784744,-0.54250765,-0.14016676,0.61494303,-0.77601463,0
2.0344143,0.56823802,-1.0854454,-0.12027484,0.73911107,-0.66275877,0
-4.2660022,0.40592289,1.3332219,-0.98443109,-0.0025991201,0.17575204,0
-4.4526544,-0.66732764,0.89014131,-0.98443109,-0.0025991201,0.17575204,0
-4.4594245,-0.41182876,0.13549113,-0.98443109,-0.0025991201,0.17575204,0
-4.4877024,0.66364288,1.3622419,-0.98443109,-0.0025991201,0.17575204,0
-1.8138239,0.75206375,-0.13178498,-0.10217601,0.82206166,-0.56015605,0
-0.93108433,-0.79363108,0.47774246,0.038805485,-0.97843254,0.20288894,0
4.2501779,-0.48001957,-1.5002457,0.98443109,0.0025991201,-0.17575204,0
-4.2388263,-0.7596364,1.3962646,0.10016501,-0.82994753,0.5487752,0
4.2439179,0.049759865,-1.7541192,0.98443109,0.0025991201,-0.17575204,0
